ply
format ascii 1.0
element vertex 2186
property float32 x
property float32 y
property float32 z
end_header
-5.6880 -4.8911 2.3878
-5.5146 -5.0983 2.3878
-5.3339 -5.2996 2.3878
-5.1461 -5.4947 2.3878
-4.9514 -5.6834 2.3878
-4.7500 -5.8654 2.3878
-4.5421 -6.0405 2.3878
-4.3280 -6.2083 2.3878
-4.1078 -6.3689 2.3878
-3.8818 -6.5217 2.3878
-3.6503 -6.6668 2.3878
-3.4135 -6.8038 2.3878
-3.1717 -6.9326 2.3878
-2.9251 -7.0530 2.3878
-2.6741 -7.1648 2.3878
-2.4190 -7.2678 2.3878
-2.1600 -7.3618 2.3878
-1.8974 -7.4467 2.3878
-1.6315 -7.5224 2.3878
-1.3628 -7.5887 2.3878
-1.0914 -7.6454 2.3878
-0.8177 -7.6926 2.3878
-0.5421 -7.7299 2.3878
-0.2650 -7.7575 2.3878
0.0134 -7.7752 2.3878
0.2927 -7.7828 2.3878
0.5725 -7.7805 2.3878
0.8525 -7.7680 2.3878
1.1323 -7.7455 2.3878
1.4115 -7.7128 2.3878
1.6898 -7.6700 2.3878
1.9667 -7.6171 2.3878
2.2420 -7.5540 2.3878
2.5152 -7.4809 2.3878
2.7859 -7.3979 2.3878
3.0538 -7.3049 2.3878
3.3185 -7.2020 2.3878
3.5797 -7.0894 2.3878
3.8369 -6.9671 2.3878
4.0898 -6.8354 2.3878
4.3381 -6.6942 2.3878
4.5812 -6.5439 2.3878
4.8190 -6.3845 2.3878
5.0510 -6.2162 2.3878
5.2770 -6.0394 2.3878
5.4965 -5.8541 2.3878
5.7092 -5.6606 2.3878
5.9148 -5.4591 2.3878
6.1131 -5.2500 2.3878
6.3036 -5.0334 2.3878
6.4861 -4.8097 2.3878
6.6604 -4.5792 2.3878
6.8260 -4.3422 2.3878
6.9829 -4.0989 2.3878
7.1307 -3.8498 2.3878
7.2692 -3.5953 2.3878
7.3982 -3.3355 2.3878
7.5175 -3.0710 2.3878
7.6268 -2.8020 2.3878
7.7261 -2.5290 2.3878
7.8152 -2.2523 2.3878
7.8938 -1.9724 2.3878
7.9619 -1.6897 2.3878
8.0194 -1.4046 2.3878
8.0662 -1.1174 2.3878
8.1022 -0.8286 2.3878
8.1274 -0.5386 2.3878
8.1416 -0.2479 2.3878
8.1450 0.0431 2.3878
8.1375 0.3340 2.3878
8.1190 0.6245 2.3878
8.0897 0.9139 2.3878
8.0496 1.2020 2.3878
7.9987 1.4883 2.3878
7.9372 1.7725 2.3878
7.8651 2.0540 2.3878
7.7825 2.3325 2.3878
7.6897 2.6075 2.3878
7.5867 2.8788 2.3878
7.4737 3.1459 2.3878
7.3508 3.4084 2.3878
7.2184 3.6659 2.3878
7.0766 3.9182 2.3878
6.9256 4.1648 2.3878
6.7657 4.4054 2.3878
6.5971 4.6398 2.3878
6.4201 4.8674 2.3878
6.2349 5.0882 2.3878
6.0419 5.3017 2.3878
5.8413 5.5077 2.3878
5.6335 5.7060 2.3878
5.4188 5.8962 2.3878
5.1974 6.0781 2.3878
4.9698 6.2516 2.3878
4.7362 6.4164 2.3878
4.4971 6.5723 2.3878
4.2527 6.7192 2.3878
4.0035 6.8568 2.3878
3.7497 6.9851 2.3878
3.4917 7.1038 2.3878
3.2300 7.2129 2.3878
2.9649 7.3122 2.3878
2.6967 7.4017 2.3878
2.4258 7.4814 2.3878
0.8452 2.9647 0.9375
0.7384 2.9930 0.9390
0.6306 3.0174 0.9406
0.5220 3.0380 0.9421
0.4128 3.0545 0.9436
0.3030 3.0672 0.9452
0.1928 3.0759 0.9467
0.0823 3.0805 0.9482
-0.0282 3.0812 0.9497
-0.1387 3.0779 0.9512
-0.2490 3.0706 0.9527
-0.3590 3.0593 0.9542
-0.4685 3.0441 0.9557
-0.5774 3.0249 0.9571
7.1593 2.2187 2.3878
7.0715 2.4716 2.3878
6.9743 2.7210 2.3878
6.8680 2.9664 2.3878
6.7528 3.2076 2.3878
6.6287 3.4442 2.3878
6.4960 3.6758 2.3878
6.3549 3.9022 2.3878
6.2056 4.1230 2.3878
6.0484 4.3379 2.3878
5.8835 4.5467 2.3878
5.7111 4.7491 2.3878
5.5315 4.9448 2.3878
5.3450 5.1336 2.3878
5.1519 5.3151 2.3878
4.9525 5.4893 2.3878
4.7470 5.6558 2.3878
4.5357 5.8144 2.3878
4.3191 5.9651 2.3878
4.0973 6.1075 2.3878
3.8707 6.2416 2.3878
3.6397 6.3671 2.3878
3.4046 6.4840 2.3878
3.1656 6.5920 2.3878
2.9232 6.6912 2.3878
2.6777 6.7814 2.3878
2.4294 6.8625 2.3878
0.8547 2.7204 0.9367
0.7566 2.7491 0.9381
0.6576 2.7744 0.9396
0.5577 2.7960 0.9410
0.4571 2.8140 0.9424
0.3559 2.8284 0.9438
0.2543 2.8391 0.9452
0.1523 2.8461 0.9467
0.0501 2.8494 0.9481
-0.0521 2.8491 0.9495
-0.1543 2.8450 0.9508
-0.2563 2.8373 0.9522
-0.3579 2.8259 0.9536
-0.4590 2.8108 0.9549
-0.5595 2.7921 0.9563
-0.6593 2.7698 0.9576
-0.7582 2.7439 0.9588
-0.8562 2.7144 0.9601
-2.3669 6.6600 2.3878
-2.6008 6.5611 2.3878
-2.8309 6.4543 2.3878
-3.0567 6.3395 2.3878
-3.2781 6.2170 2.3878
-3.4948 6.0870 2.3878
-3.7066 5.9496 2.3878
-3.9131 5.8051 2.3878
-4.1142 5.6535 2.3878
-4.3097 5.4953 2.3878
-4.4993 5.3304 2.3878
-4.6829 5.1593 2.3878
-4.8602 4.9820 2.3878
-5.0310 4.7988 2.3878
-5.1952 4.6100 2.3878
-5.3526 4.4158 2.3878
-5.5031 4.2163 2.3878
-5.6463 4.0120 2.3878
-5.7823 3.8029 2.3878
-5.9109 3.5895 2.3878
-6.0319 3.3718 2.3878
-6.1453 3.1503 2.3878
-6.2508 2.9250 2.3878
-6.3484 2.6965 2.3878
-6.4380 2.4647 2.3878
-6.5196 2.2302 2.3878
-6.5929 1.9930 2.3878
-6.6579 1.7535 2.3878
-6.7147 1.5121 2.3878
-6.7630 1.2688 2.3878
-6.8030 1.0241 2.3878
-6.8344 0.7782 2.3878
-6.8574 0.5314 2.3878
-6.8718 0.2840 2.3878
-6.8777 0.0362 2.3878
-6.8750 -0.2116 2.3878
-6.8638 -0.4593 2.3878
-6.8440 -0.7064 2.3878
-6.8157 -0.9527 2.3878
-6.7789 -1.1980 2.3878
-6.7337 -1.4419 2.3878
-6.6800 -1.6843 2.3878
-6.6180 -1.9247 2.3878
-6.5477 -2.1629 2.3878
-6.4691 -2.3987 2.3878
-6.3824 -2.6317 2.3878
-6.2876 -2.8617 2.3878
-6.1849 -3.0885 2.3878
-6.0743 -3.3117 2.3878
-5.9559 -3.5311 2.3878
-5.8299 -3.7465 2.3878
-5.6963 -3.9575 2.3878
-5.5554 -4.1639 2.3878
-5.4073 -4.3654 2.3878
-5.2521 -4.5619 2.3878
-5.0900 -4.7530 2.3878
-4.9212 -4.9386 2.3878
-4.7458 -5.1183 2.3878
-4.5641 -5.2920 2.3878
-4.3762 -5.4594 2.3878
-4.1823 -5.6204 2.3878
-3.9826 -5.7746 2.3878
-3.7775 -5.9219 2.3878
-3.5670 -6.0621 2.3878
-3.3515 -6.1949 2.3878
-3.1311 -6.3203 2.3878
-2.9062 -6.4379 2.3878
-2.6769 -6.5477 2.3878
-2.4436 -6.6495 2.3878
-2.2065 -6.7430 2.3878
-1.9660 -6.8283 2.3878
-1.7222 -6.9050 2.3878
-1.4755 -6.9732 2.3878
-1.2262 -7.0326 2.3878
-0.9745 -7.0832 2.3878
-0.7209 -7.1248 2.3878
-0.4656 -7.1574 2.3878
-0.2089 -7.1809 2.3878
0.0488 -7.1952 2.3878
0.3073 -7.2002 2.3878
0.5661 -7.1960 2.3878
0.8250 -7.1824 2.3878
1.0836 -7.1595 2.3878
1.3416 -7.1272 2.3878
1.5985 -7.0856 2.3878
1.8542 -7.0346 2.3878
2.1082 -6.9743 2.3878
2.3602 -6.9048 2.3878
2.6098 -6.8260 2.3878
2.8567 -6.7381 2.3878
3.1006 -6.6411 2.3878
3.3411 -6.5352 2.3878
3.5779 -6.4204 2.3878
3.8105 -6.2969 2.3878
4.0388 -6.1648 2.3878
4.2624 -6.0242 2.3878
4.4808 -5.8754 2.3878
4.6939 -5.7185 2.3878
4.9013 -5.5536 2.3878
5.1027 -5.3810 2.3878
5.2978 -5.2010 2.3878
5.4863 -5.0137 2.3878
5.6679 -4.8193 2.3878
5.8423 -4.6182 2.3878
6.0093 -4.4107 2.3878
6.1687 -4.1969 2.3878
6.3201 -3.9771 2.3878
6.4633 -3.7517 2.3878
6.5982 -3.5210 2.3878
6.7245 -3.2853 2.3878
6.8420 -3.0449 2.3878
6.9505 -2.8002 2.3878
7.0499 -2.5515 2.3878
7.1399 -2.2991 2.3878
7.2205 -2.0435 2.3878
7.2916 -1.7849 2.3878
7.3530 -1.5238 2.3878
7.4046 -1.2606 2.3878
7.4463 -0.9955 2.3878
7.4781 -0.7290 2.3878
7.5000 -0.4615 2.3878
7.5118 -0.1933 2.3878
7.5136 0.0751 2.3878
7.5053 0.3433 2.3878
7.4871 0.6111 2.3878
7.4589 0.8779 2.3878
7.4207 1.1435 2.3878
7.3727 1.4073 2.3878
7.3149 1.6691 2.3878
7.2473 1.9285 2.3878
7.1702 2.1850 2.3878
7.0836 2.4384 2.3878
6.9877 2.6883 2.3878
6.8826 2.9343 2.3878
6.7685 3.1760 2.3878
6.6455 3.4132 2.3878
6.5140 3.6455 2.3878
6.3740 3.8726 2.3878
6.2258 4.0942 2.3878
6.0696 4.3099 2.3878
5.9057 4.5195 2.3878
5.7343 4.7228 2.3878
5.5556 4.9194 2.3878
5.3700 5.1090 2.3878
5.1778 5.2916 2.3878
4.9792 5.4667 2.3878
4.7744 5.6342 2.3878
4.5639 5.7939 2.3878
4.3480 5.9457 2.3878
4.1269 6.0892 2.3878
3.9009 6.2243 2.3878
3.6704 6.3510 2.3878
3.4358 6.4690 2.3878
3.1974 6.5783 2.3878
2.9554 6.6786 2.3878
2.7103 6.7700 2.3878
2.4623 6.8523 2.3878
0.8675 2.7163 0.9365
0.7696 2.7456 0.9379
0.6707 2.7712 0.9394
0.5710 2.7933 0.9408
0.4704 2.8118 0.9422
0.3693 2.8267 0.9436
0.2677 2.8379 0.9451
0.1658 2.8454 0.9465
0.0636 2.8492 0.9479
-0.0386 2.8493 0.9493
-0.1408 2.8458 0.9507
-0.2428 2.8385 0.9520
-0.3445 2.8276 0.9534
-0.4457 2.8130 0.9548
-0.5463 2.7948 0.9561
-0.6462 2.7729 0.9574
-0.7452 2.7475 0.9587
-0.8433 2.7185 0.9599
-2.3357 6.6724 2.3878
-2.5702 6.5746 2.3878
-2.8008 6.4688 2.3878
-3.0272 6.3551 2.3878
-3.2492 6.2336 2.3878
-3.4665 6.1046 2.3878
-3.6789 5.9681 2.3878
-3.8861 5.8245 2.3878
-4.0880 5.6739 2.3878
-4.2842 5.5165 2.3878
-4.4746 5.3526 2.3878
-4.6590 5.1822 2.3878
-4.8371 5.0057 2.3878
-5.0089 4.8233 2.3878
-5.1740 4.6352 2.3878
-5.3323 4.4417 2.3878
-5.4836 4.2429 2.3878
-5.6278 4.0392 2.3878
-5.7648 3.8308 2.3878
-5.8944 3.6179 2.3878
-6.0164 3.4008 2.3878
-6.1308 3.1797 2.3878
-6.2373 2.9550 2.3878
-6.3360 2.7268 2.3878
-6.4267 2.4955 2.3878
-6.5093 2.2613 2.3878
-6.5836 2.0244 2.3878
-6.6498 1.7853 2.3878
-6.7077 1.5440 2.3878
-6.7571 1.3010 2.3878
-6.7982 1.0565 2.3878
-6.8308 0.8108 2.3878
-6.8548 0.5641 2.3878
-6.8704 0.3167 2.3878
-6.8774 0.0689 2.3878
-6.8758 -0.1789 2.3878
-6.8657 -0.4266 2.3878
-6.8471 -0.6738 2.3878
-6.8199 -0.9203 2.3878
-6.7843 -1.1657 2.3878
-6.7401 -1.4098 2.3878
-6.6876 -1.6524 2.3878
-6.6267 -1.8931 2.3878
-6.5574 -2.1316 2.3878
-6.4800 -2.3677 2.3878
-6.3943 -2.6011 2.3878
-6.3006 -2.8316 2.3878
-6.1989 -3.0588 2.3878
-6.0893 -3.2825 2.3878
-5.9719 -3.5024 2.3878
-5.8469 -3.7183 2.3878
-5.7144 -3.9299 2.3878
-5.5744 -4.1369 2.3878
-5.4273 -4.3391 2.3878
-5.2730 -4.5363 2.3878
-5.1118 -4.7281 2.3878
-4.9439 -4.9144 2.3878
-4.7693 -5.0949 2.3878
-4.5884 -5.2695 2.3878
-4.4013 -5.4377 2.3878
-4.2082 -5.5995 2.3878
-4.0093 -5.7546 2.3878
-3.8049 -5.9028 2.3878
-3.5951 -6.0440 2.3878
-3.3802 -6.1778 2.3878
-3.1604 -6.3041 2.3878
-2.9361 -6.4228 2.3878
-2.7074 -6.5337 2.3878
-2.4746 -6.6365 2.3878
-2.2380 -6.7312 2.3878
-1.9979 -6.8175 2.3878
-1.7545 -6.8954 2.3878
-1.5082 -6.9647 2.3878
-1.2592 -7.0253 2.3878
-1.0079 -7.0770 2.3878
-0.7545 -7.1198 2.3878
-0.4994 -7.1536 2.3878
-0.2428 -7.1783 2.3878
0.0148 -7.1938 2.3878
0.2732 -7.2001 2.3878
0.5319 -7.1971 2.3878
0.7908 -7.1847 2.3878
1.0495 -7.1630 2.3878
1.3076 -7.1320 2.3878
1.5647 -7.0916 2.3878
1.8206 -7.0418 2.3878
2.0748 -6.9828 2.3878
2.3271 -6.9145 2.3878
2.5770 -6.8369 2.3878
2.8243 -6.7502 2.3878
3.0686 -6.6544 2.3878
3.3096 -6.5497 2.3878
3.5468 -6.4361 2.3878
3.7801 -6.3137 2.3878
4.0089 -6.1827 2.3878
4.2331 -6.0433 2.3878
4.4523 -5.8955 2.3878
4.6661 -5.7396 2.3878
4.8743 -5.5758 2.3878
5.0765 -5.4043 2.3878
5.2724 -5.2252 2.3878
5.4618 -5.0388 2.3878
5.6443 -4.8454 2.3878
5.8197 -4.6452 2.3878
5.9877 -4.4384 2.3878
6.1481 -4.2254 2.3878
6.3006 -4.0064 2.3878
6.4449 -3.7818 2.3878
6.5809 -3.5518 2.3878
6.7083 -3.3167 2.3878
6.8270 -3.0769 2.3878
6.9367 -2.8328 2.3878
7.0373 -2.5845 2.3878
7.1286 -2.3327 2.3878
7.2105 -2.0774 2.3878
7.2828 -1.8192 2.3878
7.3454 -1.5584 2.3878
7.3983 -1.2954 2.3878
7.4414 -1.0306 2.3878
7.4745 -0.7642 2.3878
7.4976 -0.4968 2.3878
7.5108 -0.2287 2.3878
7.5139 0.0396 2.3878
7.5070 0.3080 2.3878
7.4901 0.5758 2.3878
7.4632 0.8428 2.3878
7.4263 1.1085 2.3878
7.3796 1.3726 2.3878
7.3230 1.6347 2.3878
7.2568 1.8944 2.3878
7.1809 2.1513 2.3878
7.0956 2.4052 2.3878
7.0009 2.6555 2.3878
6.8970 2.9020 2.3878
6.7840 3.1444 2.3878
6.6623 3.3822 2.3878
6.5318 3.6151 2.3878
6.3929 3.8429 2.3878
6.2458 4.0652 2.3878
6.0906 4.2818 2.3878
5.9277 4.4922 2.3878
5.7573 4.6963 2.3878
5.5796 4.8938 2.3878
5.3949 5.0844 2.3878
5.2035 5.2679 2.3878
5.0057 5.4440 2.3878
4.8018 5.6126 2.3878
4.5920 5.7733 2.3878
4.3768 5.9261 2.3878
4.1563 6.0707 2.3878
3.9310 6.2070 2.3878
3.7011 6.3348 2.3878
3.4670 6.4539 2.3878
3.2290 6.5644 2.3878
2.9875 6.6659 2.3878
2.7428 6.7585 2.3878
2.4952 6.8420 2.3878
0.8804 2.7122 0.9363
0.7826 2.7419 0.9378
0.6838 2.7681 0.9392
0.5842 2.7906 0.9406
0.4837 2.8096 0.9420
0.3827 2.8249 0.9434
0.2811 2.8366 0.9449
0.1792 2.8446 0.9463
0.0771 2.8489 0.9477
-0.0252 2.8495 0.9491
-0.1274 2.8465 0.9505
-0.2294 2.8397 0.9519
-0.3311 2.8293 0.9532
-0.4324 2.8152 0.9546
-0.5331 2.7974 0.9559
6.6388 2.0566 2.3878
6.5576 2.2911 2.3878
6.4678 2.5224 2.3878
6.3696 2.7501 2.3878
6.2630 2.9738 2.3878
6.1483 3.1933 2.3878
6.0256 3.4082 2.3878
5.8951 3.6183 2.3878
5.7570 3.8233 2.3878
5.6116 4.0229 2.3878
5.4590 4.2169 2.3878
5.2995 4.4049 2.3878
5.1333 4.5867 2.3878
4.9607 4.7621 2.3878
4.7819 4.9309 2.3878
4.5972 5.0929 2.3878
4.4069 5.2478 2.3878
4.2113 5.3955 2.3878
4.0106 5.5358 2.3878
3.8051 5.6685 2.3878
3.5951 5.7934 2.3878
3.3810 5.9105 2.3878
3.1630 6.0195 2.3878
2.9414 6.1204 2.3878
2.7166 6.2131 2.3878
2.4889 6.2975 2.3878
0.8851 2.4976 0.9357
0.7950 2.5276 0.9370
0.7039 2.5543 0.9383
0.6119 2.5777 0.9397
0.5191 2.5978 0.9410
0.4256 2.6145 0.9423
0.3316 2.6278 0.9436
0.2371 2.6378 0.9449
0.1424 2.6443 0.9463
0.0474 2.6474 0.9476
-0.0476 2.6470 0.9489
-0.1425 2.6433 0.9502
-0.2372 2.6361 0.9514
-0.3316 2.6255 0.9527
-0.4256 2.6115 0.9539
-0.5190 2.5941 0.9552
-0.6117 2.5733 0.9564
-0.7036 2.5493 0.9576
-0.7946 2.5219 0.9588
-0.8845 2.4912 0.9599
-2.4180 6.1055 2.3878
-2.6324 6.0066 2.3878
-2.8428 5.9003 2.3878
-3.0491 5.7868 2.3878
-3.2511 5.6662 2.3878
-3.4485 5.5388 2.3878
-3.6410 5.4046 2.3878
-3.8286 5.2640 2.3878
-4.0109 5.1170 2.3878
-4.1878 4.9638 2.3878
-4.3590 4.8048 2.3878
-4.5244 4.6400 2.3878
-4.6839 4.4697 2.3878
-4.8371 4.2941 2.3878
-4.9840 4.1134 2.3878
-5.1244 3.9278 2.3878
-5.2582 3.7377 2.3878
-5.3852 3.5431 2.3878
-5.5052 3.3444 2.3878
-5.6182 3.1417 2.3878
-5.7241 2.9354 2.3878
-5.8227 2.7256 2.3878
-5.9138 2.5127 2.3878
-5.9975 2.2968 2.3878
-6.0737 2.0783 2.3878
-6.1422 1.8573 2.3878
-6.2029 1.6342 2.3878
-6.2559 1.4092 2.3878
-6.3011 1.1825 2.3878
-6.3384 0.9545 2.3878
-6.3678 0.7253 2.3878
-6.3892 0.4953 2.3878
-6.4027 0.2646 2.3878
-6.4081 0.0337 2.3878
-6.4056 -0.1973 2.3878
-6.3951 -0.4281 2.3878
-6.3766 -0.6584 2.3878
-6.3501 -0.8880 2.3878
-6.3158 -1.1166 2.3878
-6.2735 -1.3439 2.3878
-6.2233 -1.5697 2.3878
-6.1653 -1.7937 2.3878
-6.0996 -2.0157 2.3878
-6.0262 -2.2353 2.3878
-5.9452 -2.4524 2.3878
-5.8566 -2.6666 2.3878
-5.7606 -2.8778 2.3878
-5.6573 -3.0856 2.3878
-5.5467 -3.2899 2.3878
-5.4290 -3.4903 2.3878
-5.3043 -3.6867 2.3878
-5.1728 -3.8787 2.3878
-5.0345 -4.0663 2.3878
-4.8896 -4.2490 2.3878
-4.7383 -4.4267 2.3878
-4.5808 -4.5992 2.3878
-4.4172 -4.7663 2.3878
-4.2476 -4.9277 2.3878
-4.0723 -5.0832 2.3878
-3.8915 -5.2326 2.3878
-3.7053 -5.3757 2.3878
-3.5140 -5.5124 2.3878
-3.3178 -5.6424 2.3878
-3.1170 -5.7656 2.3878
-2.9116 -5.8817 2.3878
-2.7020 -5.9907 2.3878
-2.4885 -6.0923 2.3878
-2.2712 -6.1864 2.3878
-2.0504 -6.2728 2.3878
-1.8265 -6.3515 2.3878
-1.5996 -6.4223 2.3878
-1.3700 -6.4851 2.3878
-1.1380 -6.5397 2.3878
-0.9039 -6.5861 2.3878
-0.6680 -6.6241 2.3878
-0.4306 -6.6537 2.3878
-0.1919 -6.6749 2.3878
0.0476 -6.6875 2.3878
0.2878 -6.6915 2.3878
0.5283 -6.6869 2.3878
0.7688 -6.6736 2.3878
1.0090 -6.6516 2.3878
1.2485 -6.6210 2.3878
1.4871 -6.5817 2.3878
1.7244 -6.5337 2.3878
1.9601 -6.4770 2.3878
2.1939 -6.4118 2.3878
2.4255 -6.3381 2.3878
2.6545 -6.2559 2.3878
2.8807 -6.1653 2.3878
3.1036 -6.0664 2.3878
3.3231 -5.9593 2.3878
3.5388 -5.8441 2.3878
3.7503 -5.7210 2.3878
3.9574 -5.5901 2.3878
4.1598 -5.4515 2.3878
4.3571 -5.3055 2.3878
4.5492 -5.1521 2.3878
4.7357 -4.9917 2.3878
4.9163 -4.8243 2.3878
5.0908 -4.6502 2.3878
5.2588 -4.4697 2.3878
5.4203 -4.2829 2.3878
5.5748 -4.0901 2.3878
5.7222 -3.8916 2.3878
5.8623 -3.6877 2.3878
5.9948 -3.4785 2.3878
6.1195 -3.2644 2.3878
6.2363 -3.0458 2.3878
6.3450 -2.8228 2.3878
6.4453 -2.5959 2.3878
6.5372 -2.3652 2.3878
6.6205 -2.1312 2.3878
6.6950 -1.8942 2.3878
6.7607 -1.6545 2.3878
6.8175 -1.4125 2.3878
6.8652 -1.1684 2.3878
6.9038 -0.9227 2.3878
6.9332 -0.6757 2.3878
6.9534 -0.4278 2.3878
6.9643 -0.1793 2.3878
6.9660 0.0695 2.3878
6.9584 0.3181 2.3878
6.9416 0.5663 2.3878
6.9156 0.8136 2.3878
6.8803 1.0598 2.3878
6.8359 1.3043 2.3878
6.7825 1.5470 2.3878
6.7201 1.7875 2.3878
6.6489 2.0254 2.3878
6.5688 2.2603 2.3878
6.4802 2.4921 2.3878
6.3830 2.7202 2.3878
6.2775 2.9445 2.3878
6.1639 3.1646 2.3878
6.0422 3.3801 2.3878
5.9127 3.5909 2.3878
5.7757 3.7966 2.3878
5.6312 3.9969 2.3878
5.4795 4.1916 2.3878
5.3209 4.3804 2.3878
5.1556 4.5631 2.3878
4.9838 4.7394 2.3878
4.8059 4.9090 2.3878
4.6219 5.0719 2.3878
4.4324 5.2278 2.3878
4.2374 5.3764 2.3878
4.0373 5.5177 2.3878
3.8325 5.6514 2.3878
3.6231 5.7774 2.3878
3.4095 5.8955 2.3878
3.1920 6.0056 2.3878
2.9709 6.1076 2.3878
2.7465 6.2014 2.3878
2.5191 6.2868 2.3878
0.8969 2.4934 0.9355
0.8069 2.5238 0.9369
0.7160 2.5510 0.9382
0.6241 2.5748 0.9395
0.5314 2.5953 0.9408
0.4380 2.6125 0.9421
0.3440 2.6263 0.9435
0.2496 2.6366 0.9448
0.1549 2.6436 0.9461
0.0600 2.6472 0.9474
-0.0350 2.6473 0.9487
-0.1300 2.6440 0.9500
-0.2247 2.6372 0.9513
-0.3192 2.6271 0.9525
-0.4132 2.6135 0.9538
-0.5067 2.5966 0.9550
-0.5995 2.5763 0.9562
-0.6915 2.5526 0.9574
-0.7826 2.5257 0.9586
-0.8727 2.4955 0.9598
-2.3895 6.1180 2.3878
-2.6043 6.0200 2.3878
-2.8152 5.9147 2.3878
-3.0221 5.8021 2.3878
-3.2247 5.6825 2.3878
-3.4227 5.5560 2.3878
-3.6159 5.4227 2.3878
-3.8041 5.2829 2.3878
-3.9872 5.1367 2.3878
-4.1648 4.9844 2.3878
-4.3368 4.8261 2.3878
-4.5029 4.6621 2.3878
-4.6632 4.4925 2.3878
-4.8172 4.3175 2.3878
-4.9650 4.1375 2.3878
-5.1063 3.9526 2.3878
-5.2409 3.7630 2.3878
-5.3688 3.5690 2.3878
-5.4898 3.3708 2.3878
-5.6037 3.1687 2.3878
-5.7105 2.9628 2.3878
-5.8101 2.7535 2.3878
-5.9022 2.5410 2.3878
-5.9869 2.3255 2.3878
-6.0640 2.1073 2.3878
-6.1336 1.8866 2.3878
-6.1954 1.6638 2.3878
-6.2494 1.4390 2.3878
-6.2956 1.2125 2.3878
-6.3339 0.9846 2.3878
-6.3644 0.7556 2.3878
-6.3868 0.5257 2.3878
-6.4013 0.2951 2.3878
-6.4079 0.0642 2.3878
-6.4064 -0.1668 2.3878
-6.3969 -0.3977 2.3878
-6.3795 -0.6281 2.3878
-6.3541 -0.8578 2.3878
-6.3208 -1.0865 2.3878
-6.2795 -1.3140 2.3878
-6.2304 -1.5400 2.3878
-6.1734 -1.7643 2.3878
-6.1087 -1.9865 2.3878
-6.0363 -2.2065 2.3878
-5.9563 -2.4239 2.3878
-5.8687 -2.6385 2.3878
-5.7737 -2.8501 2.3878
-5.6713 -3.0584 2.3878
-5.5617 -3.2631 2.3878
-5.4450 -3.4641 2.3878
-5.3212 -3.6610 2.3878
-5.1905 -3.8537 2.3878
-5.0531 -4.0418 2.3878
-4.9091 -4.2252 2.3878
-4.7587 -4.4036 2.3878
-4.6019 -4.5768 2.3878
-4.4391 -4.7445 2.3878
-4.2703 -4.9067 2.3878
-4.0958 -5.0630 2.3878
-3.9157 -5.2132 2.3878
-3.7302 -5.3572 2.3878
-3.5396 -5.4947 2.3878
-3.3440 -5.6256 2.3878
-3.1437 -5.7497 2.3878
-2.9389 -5.8668 2.3878
-2.7299 -5.9767 2.3878
-2.5169 -6.0793 2.3878
-2.3001 -6.1744 2.3878
-2.0798 -6.2619 2.3878
-1.8562 -6.3416 2.3878
-1.6297 -6.4134 2.3878
-1.4004 -6.4773 2.3878
-1.1688 -6.5329 2.3878
-0.9349 -6.5804 2.3878
-0.6992 -6.6196 2.3878
-0.4620 -6.6503 2.3878
-0.2235 -6.6726 2.3878
0.0160 -6.6863 2.3878
0.2561 -6.6915 2.3878
0.4966 -6.6880 2.3878
0.7371 -6.6759 2.3878
0.9773 -6.6550 2.3878
1.2169 -6.6255 2.3878
1.4557 -6.5873 2.3878
1.6932 -6.5405 2.3878
1.9291 -6.4850 2.3878
2.1632 -6.4209 2.3878
2.3951 -6.3483 2.3878
2.6245 -6.2672 2.3878
2.8510 -6.1777 2.3878
3.0744 -6.0799 2.3878
3.2943 -5.9739 2.3878
3.5105 -5.8598 2.3878
3.7226 -5.7377 2.3878
3.9303 -5.6078 2.3878
4.1333 -5.4702 2.3878
4.3314 -5.3252 2.3878
4.5242 -5.1728 2.3878
4.7114 -5.0132 2.3878
4.8928 -4.8468 2.3878
5.0681 -4.6736 2.3878
5.2370 -4.4939 2.3878
5.3994 -4.3079 2.3878
5.5548 -4.1159 2.3878
5.7032 -3.9181 2.3878
5.8442 -3.7149 2.3878
5.9778 -3.5064 2.3878
6.1035 -3.2930 2.3878
6.2214 -3.0749 2.3878
6.3311 -2.8525 2.3878
6.4326 -2.6260 2.3878
6.5256 -2.3958 2.3878
6.6100 -2.1623 2.3878
6.6857 -1.9256 2.3878
6.7526 -1.6863 2.3878
6.8105 -1.4445 2.3878
6.8594 -1.2007 2.3878
6.8992 -0.9552 2.3878
6.9298 -0.7084 2.3878
6.9512 -0.4605 2.3878
6.9634 -0.2121 2.3878
6.9663 0.0367 2.3878
6.9600 0.2853 2.3878
6.9444 0.5336 2.3878
6.9195 0.7811 2.3878
6.8855 1.0273 2.3878
6.8423 1.2721 2.3878
6.7901 1.5151 2.3878
6.7289 1.7559 2.3878
6.6588 1.9941 2.3878
6.5799 2.2295 2.3878
6.4924 2.4617 2.3878
6.3963 2.6903 2.3878
6.2919 2.9151 2.3878
6.1793 3.1358 2.3878
6.0587 3.3519 2.3878
5.9303 3.5634 2.3878
5.7942 3.7697 2.3878
5.6507 3.9708 2.3878
5.4999 4.1662 2.3878
5.3422 4.3558 2.3878
5.1778 4.5393 2.3878
5.0069 4.7165 2.3878
4.8297 4.8870 2.3878
4.6466 5.0508 2.3878
4.4577 5.2076 2.3878
4.2634 5.3572 2.3878
4.0640 5.4995 2.3878
3.8598 5.6342 2.3878
3.6510 5.7612 2.3878
3.4379 5.8803 2.3878
3.2209 5.9915 2.3878
3.0003 6.0946 2.3878
2.7763 6.1894 2.3878
2.5493 6.2760 2.3878
0.9087 2.4892 0.9354
0.8189 2.5200 0.9367
0.7280 2.5476 0.9380
0.6363 2.5718 0.9393
0.5436 2.5928 0.9406
0.4503 2.6104 0.9420
0.3564 2.6246 0.9433
0.2621 2.6355 0.9446
0.1674 2.6429 0.9459
0.0725 2.6469 0.9472
-0.0225 2.6475 0.9485
-0.1174 2.6446 0.9498
-0.2122 2.6383 0.9511
-0.3067 2.6286 0.9524
-0.4008 2.6155 0.9536
-0.4944 2.5990 0.9549
6.1823 1.9144 2.3878
6.1070 2.1328 2.3878
6.0236 2.3482 2.3878
5.9324 2.5603 2.3878
5.8334 2.7687 2.3878
5.7268 2.9732 2.3878
5.6128 3.1735 2.3878
5.4916 3.3693 2.3878
5.3633 3.5604 2.3878
5.2282 3.7464 2.3878
5.0864 3.9273 2.3878
4.9381 4.1026 2.3878
4.7836 4.2723 2.3878
4.6232 4.4360 2.3878
4.4569 4.5935 2.3878
4.2852 4.7447 2.3878
4.1082 4.8894 2.3878
3.9262 5.0274 2.3878
3.7394 5.1585 2.3878
3.5482 5.2825 2.3878
3.3528 5.3994 2.3878
3.1535 5.5090 2.3878
2.9506 5.6111 2.3878
2.7443 5.7056 2.3878
2.5349 5.7925 2.3878
0.9094 2.2989 0.9349
0.8265 2.3298 0.9361
0.7424 2.3578 0.9373
0.6574 2.3827 0.9385
0.5716 2.4045 0.9398
0.4850 2.4232 0.9410
0.3978 2.4388 0.9422
0.3101 2.4512 0.9435
0.2220 2.4605 0.9447
0.1336 2.4665 0.9459
0.0451 2.4694 0.9471
-0.0435 2.4691 0.9483
-0.1321 2.4656 0.9495
-0.2204 2.4589 0.9507
-0.3085 2.4490 0.9519
-0.3961 2.4359 0.9531
-0.4833 2.4197 0.9542
-0.5697 2.4003 0.9554
-0.6554 2.3779 0.9565
-0.7403 2.3523 0.9576
-0.8242 2.3237 0.9586
-2.2566 5.7030 2.3878
-2.4570 5.6110 2.3878
-2.6538 5.5121 2.3878
-2.8467 5.4065 2.3878
-3.0356 5.2943 2.3878
-3.2203 5.1756 2.3878
-3.4005 5.0506 2.3878
-3.5760 4.9195 2.3878
-3.7466 4.7824 2.3878
-3.9122 4.6396 2.3878
-4.0725 4.4912 2.3878
-4.2274 4.3374 2.3878
-4.3767 4.1784 2.3878
-4.5202 4.0145 2.3878
-4.6578 3.8458 2.3878
-4.7893 3.6725 2.3878
-4.9146 3.4948 2.3878
-5.0336 3.3130 2.3878
-5.1460 3.1273 2.3878
-5.2519 2.9379 2.3878
-5.3511 2.7451 2.3878
-5.4435 2.5490 2.3878
-5.5289 2.3499 2.3878
-5.6073 2.1481 2.3878
-5.6787 1.9438 2.3878
-5.7429 1.7371 2.3878
-5.7999 1.5285 2.3878
-5.8495 1.3180 2.3878
-5.8919 1.1060 2.3878
-5.9268 0.8927 2.3878
-5.9543 0.6783 2.3878
-5.9744 0.4632 2.3878
-5.9870 0.2475 2.3878
-5.9921 0.0314 2.3878
-5.9898 -0.1846 2.3878
-5.9799 -0.4005 2.3878
-5.9625 -0.6160 2.3878
-5.9377 -0.8307 2.3878
-5.9054 -1.0445 2.3878
-5.8658 -1.2571 2.3878
-5.8187 -1.4683 2.3878
-5.7644 -1.6777 2.3878
-5.7027 -1.8853 2.3878
-5.6339 -2.0906 2.3878
-5.5579 -2.2936 2.3878
-5.4749 -2.4938 2.3878
-5.3849 -2.6912 2.3878
-5.2881 -2.8854 2.3878
-5.1845 -3.0763 2.3878
-5.0742 -3.2636 2.3878
-4.9573 -3.4470 2.3878
-4.8341 -3.6264 2.3878
-4.7046 -3.8015 2.3878
-4.5689 -3.9721 2.3878
-4.4272 -4.1380 2.3878
-4.2797 -4.2990 2.3878
-4.1264 -4.4549 2.3878
-3.9677 -4.6054 2.3878
-3.8036 -4.7504 2.3878
-3.6344 -4.8897 2.3878
-3.4602 -5.0232 2.3878
-3.2812 -5.1505 2.3878
-3.0977 -5.2716 2.3878
-2.9098 -5.3862 2.3878
-2.7177 -5.4943 2.3878
-2.5217 -5.5956 2.3878
-2.3221 -5.6901 2.3878
-2.1190 -5.7775 2.3878
-1.9126 -5.8578 2.3878
-1.7034 -5.9307 2.3878
-1.4913 -5.9963 2.3878
-1.2769 -6.0544 2.3878
-1.0602 -6.1049 2.3878
-0.8416 -6.1476 2.3878
-0.6214 -6.1826 2.3878
-0.3998 -6.2097 2.3878
-0.1770 -6.2289 2.3878
0.0466 -6.2401 2.3878
0.2706 -6.2433 2.3878
0.4950 -6.2384 2.3878
0.7193 -6.2255 2.3878
0.9432 -6.2044 2.3878
1.1666 -6.1753 2.3878
1.3890 -6.1381 2.3878
1.6102 -6.0928 2.3878
1.8298 -6.0394 2.3878
2.0476 -5.9781 2.3878
2.2634 -5.9089 2.3878
2.4767 -5.8317 2.3878
2.6873 -5.7468 2.3878
2.8949 -5.6542 2.3878
3.0992 -5.5539 2.3878
3.2999 -5.4461 2.3878
3.4967 -5.3310 2.3878
3.6895 -5.2086 2.3878
3.8778 -5.0792 2.3878
4.0614 -4.9427 2.3878
4.2400 -4.7995 2.3878
4.4134 -4.6498 2.3878
4.5813 -4.4935 2.3878
4.7435 -4.3312 2.3878
4.8998 -4.1627 2.3878
5.0499 -3.9886 2.3878
5.1935 -3.8088 2.3878
5.3305 -3.6238 2.3878
5.4606 -3.4337 2.3878
5.5838 -3.2388 2.3878
5.6997 -3.0394 2.3878
5.8082 -2.8357 2.3878
5.9091 -2.6280 2.3878
6.0023 -2.4166 2.3878
6.0877 -2.2018 2.3878
6.1650 -1.9840 2.3878
6.2343 -1.7633 2.3878
6.2953 -1.5401 2.3878
6.3480 -1.3148 2.3878
6.3923 -1.0876 2.3878
6.4281 -0.8589 2.3878
6.4555 -0.6290 2.3878
6.4743 -0.3983 2.3878
6.4844 -0.1669 2.3878
6.4860 0.0646 2.3878
6.4790 0.2961 2.3878
6.4634 0.5270 2.3878
6.4392 0.7573 2.3878
6.4065 0.9864 2.3878
6.3653 1.2141 2.3878
6.3158 1.4400 2.3878
6.2578 1.6639 2.3878
6.1917 1.8854 2.3878
6.1174 2.1042 2.3878
6.0351 2.3200 2.3878
5.9448 2.5325 2.3878
5.8469 2.7414 2.3878
5.7413 2.9464 2.3878
5.6283 3.1473 2.3878
5.5080 3.3437 2.3878
5.3807 3.5354 2.3878
5.2464 3.7222 2.3878
5.1055 3.9037 2.3878
4.9580 4.0798 2.3878
4.8044 4.2502 2.3878
4.6447 4.4147 2.3878
4.4792 4.5731 2.3878
4.3082 4.7252 2.3878
4.1318 4.8707 2.3878
3.9505 5.0096 2.3878
3.7643 5.1416 2.3878
3.5737 5.2666 2.3878
3.3788 5.3844 2.3878
3.1800 5.4949 2.3878
2.9775 5.5980 2.3878
2.7717 5.6936 2.3878
2.5627 5.7815 2.3878
0.9203 2.2946 0.9347
0.8375 2.3259 0.9359
0.7536 2.3543 0.9371
0.6687 2.3796 0.9384
0.5830 2.4018 0.9396
0.4965 2.4209 0.9408
0.4094 2.4369 0.9421
0.3217 2.4497 0.9433
0.2337 2.4594 0.9445
0.1453 2.4659 0.9458
0.0568 2.4692 0.9470
-0.0318 2.4693 0.9482
-0.1204 2.4662 0.9494
-0.2088 2.4599 0.9506
-0.2969 2.4504 0.9518
-0.3846 2.4378 0.9529
-0.4718 2.4220 0.9541
-0.5584 2.4031 0.9552
-0.6442 2.3810 0.9563
-0.7292 2.3559 0.9574
-0.8132 2.3277 0.9585
-0.8961 2.2965 0.9596
-2.4307 5.6235 2.3878
-2.6280 5.5256 2.3878
-2.8215 5.4208 2.3878
-3.0109 5.3094 2.3878
-3.1962 5.1916 2.3878
-3.3770 5.0674 2.3878
-3.5531 4.9371 2.3878
-3.7244 4.8008 2.3878
-3.8906 4.6587 2.3878
-4.0517 4.5111 2.3878
-4.2073 4.3580 2.3878
-4.3573 4.1997 2.3878
-4.5016 4.0364 2.3878
-4.6400 3.8683 2.3878
-4.7723 3.6956 2.3878
-4.8984 3.5185 2.3878
-5.0182 3.3372 2.3878
-5.1316 3.1520 2.3878
-5.2383 2.9631 2.3878
-5.3384 2.7707 2.3878
-5.4317 2.5751 2.3878
-5.5180 2.3764 2.3878
-5.5974 2.1749 2.3878
-5.6697 1.9709 2.3878
-5.7348 1.7645 2.3878
-5.7928 1.5561 2.3878
-5.8434 1.3459 2.3878
-5.8867 1.1341 2.3878
-5.9226 0.9209 2.3878
-5.9511 0.7067 2.3878
-5.9722 0.4916 2.3878
-5.9858 0.2760 2.3878
-5.9919 0.0600 2.3878
-5.9905 -0.1561 2.3878
-5.9816 -0.3720 2.3878
-5.9652 -0.5875 2.3878
-5.9414 -0.8024 2.3878
-5.9101 -1.0163 2.3878
-5.8714 -1.2291 2.3878
-5.8253 -1.4405 2.3878
-5.7719 -1.6502 2.3878
-5.7113 -1.8580 2.3878
-5.6434 -2.0637 2.3878
-5.5684 -2.2669 2.3878
-5.4863 -2.4676 2.3878
-5.3972 -2.6653 2.3878
-5.3013 -2.8600 2.3878
-5.1985 -3.0513 2.3878
-5.0891 -3.2391 2.3878
-4.9731 -3.4231 2.3878
-4.8507 -3.6030 2.3878
-4.7220 -3.7787 2.3878
-4.5871 -3.9499 2.3878
-4.4462 -4.1164 2.3878
-4.2995 -4.2781 2.3878
-4.1470 -4.4346 2.3878
-3.9890 -4.5859 2.3878
-3.8256 -4.7316 2.3878
-3.6570 -4.8717 2.3878
-3.4834 -5.0059 2.3878
-3.3051 -5.1340 2.3878
-3.1221 -5.2559 2.3878
-2.9348 -5.3714 2.3878
-2.7433 -5.4804 2.3878
-2.5478 -5.5826 2.3878
-2.3486 -5.6780 2.3878
-2.1460 -5.7664 2.3878
-1.9401 -5.8476 2.3878
-1.7311 -5.9215 2.3878
-1.5195 -5.9881 2.3878
-1.3053 -6.0472 2.3878
-1.0889 -6.0986 2.3878
-0.8706 -6.1424 2.3878
-0.6505 -6.1784 2.3878
-0.4291 -6.2066 2.3878
-0.2065 -6.2268 2.3878
0.0170 -6.2391 2.3878
0.2411 -6.2433 2.3878
0.4654 -6.2395 2.3878
0.6897 -6.2276 2.3878
0.9137 -6.2077 2.3878
1.1372 -6.1796 2.3878
1.3597 -6.1434 2.3878
1.5811 -6.0992 2.3878
1.8009 -6.0469 2.3878
2.0190 -5.9867 2.3878
2.2350 -5.9185 2.3878
2.4487 -5.8424 2.3878
2.6596 -5.7585 2.3878
2.8676 -5.6668 2.3878
3.0724 -5.5676 2.3878
3.2736 -5.4608 2.3878
3.4710 -5.3466 2.3878
3.6643 -5.2252 2.3878
3.8532 -5.0966 2.3878
4.0374 -4.9611 2.3878
4.2167 -4.8188 2.3878
4.3908 -4.6699 2.3878
4.5595 -4.5145 2.3878
4.7225 -4.3529 2.3878
4.8795 -4.1853 2.3878
5.0304 -4.0119 2.3878
5.1749 -3.8329 2.3878
5.3128 -3.6485 2.3878
5.4439 -3.4591 2.3878
5.5679 -3.2648 2.3878
5.6848 -3.0659 2.3878
5.7943 -2.8628 2.3878
5.8962 -2.6556 2.3878
5.9905 -2.4447 2.3878
6.0769 -2.2304 2.3878
6.1553 -2.0129 2.3878
6.2256 -1.7926 2.3878
6.2877 -1.5697 2.3878
6.3415 -1.3447 2.3878
6.3869 -1.1177 2.3878
6.4239 -0.8892 2.3878
6.4523 -0.6594 2.3878
6.4723 -0.4287 2.3878
6.4836 -0.1975 2.3878
6.4863 0.0341 2.3878
6.4804 0.2655 2.3878
6.4660 0.4966 2.3878
6.4429 0.7269 2.3878
6.4113 0.9562 2.3878
6.3713 1.1841 2.3878
6.3228 1.4103 2.3878
6.2660 1.6344 2.3878
6.2009 1.8563 2.3878
6.1276 2.0755 2.3878
6.0464 2.2917 2.3878
5.9572 2.5046 2.3878
5.8602 2.7140 2.3878
5.7557 2.9196 2.3878
5.6436 3.1210 2.3878
5.5243 3.3180 2.3878
5.3979 3.5104 2.3878
5.2645 3.6978 2.3878
5.1244 3.8801 2.3878
4.9779 4.0569 2.3878
4.8250 4.2281 2.3878
4.6661 4.3933 2.3878
4.5014 4.5525 2.3878
4.3310 4.7055 2.3878
4.1554 4.8519 2.3878
3.9747 4.9916 2.3878
3.7892 5.1246 2.3878
3.5991 5.2505 2.3878
3.4048 5.3693 2.3878
3.2065 5.4808 2.3878
3.0045 5.5848 2.3878
2.7990 5.6814 2.3878
2.5904 5.7703 2.3878
0.9311 2.2902 0.9345
0.8485 2.3219 0.9358
0.7647 2.3507 0.9370
0.6800 2.3764 0.9382
0.5943 2.3990 0.9394
0.5080 2.4186 0.9407
0.4209 2.4350 0.9419
0.3333 2.4482 0.9431
0.2453 2.4583 0.9444
0.1570 2.4652 0.9456
0.0685 2.4689 0.9468
-0.0201 2.4695 0.9480
-0.1087 2.4668 0.9492
-0.1971 2.4609 0.9504
-0.2853 2.4519 0.9516
-0.3730 2.4397 0.9528
-0.4603 2.4243 0.9539
5.7784 1.7886 2.3878
5.7081 1.9928 2.3878
5.6304 2.1941 2.3878
5.5454 2.3923 2.3878
5.4531 2.5871 2.3878
5.3537 2.7783 2.3878
5.2474 2.9656 2.3878
5.1343 3.1488 2.3878
5.0147 3.3275 2.3878
4.8886 3.5016 2.3878
4.7563 3.6708 2.3878
4.6180 3.8349 2.3878
4.4739 3.9937 2.3878
4.3241 4.1470 2.3878
4.1689 4.2945 2.3878
4.0086 4.4362 2.3878
3.8434 4.5718 2.3878
3.6734 4.7011 2.3878
3.4990 4.8240 2.3878
3.3205 4.9403 2.3878
3.1379 5.0500 2.3878
2.9517 5.1528 2.3878
2.7621 5.2487 2.3878
2.5693 5.3375 2.3878
0.9286 2.1201 0.9341
0.8520 2.1518 0.9353
0.7744 2.1808 0.9364
0.6957 2.2069 0.9375
0.6162 2.2302 0.9387
0.5358 2.2506 0.9398
0.4548 2.2681 0.9410
0.3732 2.2827 0.9422
0.2911 2.2943 0.9433
0.2086 2.3030 0.9445
0.1259 2.3086 0.9456
0.0430 2.3113 0.9467
-0.0399 2.3110 0.9479
-0.1228 2.3077 0.9490
-0.2055 2.3014 0.9501
-0.2879 2.2922 0.9512
-0.3700 2.2799 0.9523
-0.4515 2.2648 0.9534
-0.5325 2.2466 0.9545
-0.6127 2.2256 0.9555
-0.6921 2.2017 0.9565
-0.7706 2.1750 0.9575
-0.8481 2.1454 0.9585
-2.3007 5.2587 2.3878
-2.4853 5.1664 2.3878
-2.6664 5.0677 2.3878
-2.8437 4.9628 2.3878
-3.0170 4.8518 2.3878
-3.1861 4.7350 2.3878
-3.3508 4.6123 2.3878
-3.5110 4.4841 2.3878
-3.6665 4.3504 2.3878
-3.8170 4.2115 2.3878
-3.9624 4.0675 2.3878
-4.1027 3.9186 2.3878
-4.2374 3.7651 2.3878
-4.3667 3.6070 2.3878
-4.4903 3.4446 2.3878
-4.6080 3.2781 2.3878
-4.7198 3.1077 2.3878
-4.8255 2.9336 2.3878
-4.9249 2.7561 2.3878
-5.0182 2.5752 2.3878
-5.1050 2.3914 2.3878
-5.1853 2.2047 2.3878
-5.2590 2.0154 2.3878
-5.3261 1.8237 2.3878
-5.3864 1.6298 2.3878
-5.4399 1.4341 2.3878
-5.4866 1.2366 2.3878
-5.5264 1.0377 2.3878
-5.5593 0.8376 2.3878
-5.5852 0.6364 2.3878
-5.6040 0.4346 2.3878
-5.6158 0.2321 2.3878
-5.6206 0.0294 2.3878
-5.6184 -0.1733 2.3878
-5.6091 -0.3759 2.3878
-5.5928 -0.5780 2.3878
-5.5694 -0.7795 2.3878
-5.5390 -0.9801 2.3878
-5.5017 -1.1796 2.3878
-5.4575 -1.3777 2.3878
-5.4064 -1.5742 2.3878
-5.3484 -1.7688 2.3878
-5.2837 -1.9615 2.3878
-5.2123 -2.1518 2.3878
-5.1342 -2.3396 2.3878
-5.0496 -2.5247 2.3878
-4.9586 -2.7068 2.3878
-4.8612 -2.8857 2.3878
-4.7576 -3.0613 2.3878
-4.6478 -3.2332 2.3878
-4.5320 -3.4013 2.3878
-4.4103 -3.5654 2.3878
-4.2828 -3.7252 2.3878
-4.1497 -3.8806 2.3878
-4.0111 -4.0313 2.3878
-3.8672 -4.1772 2.3878
-3.7182 -4.3181 2.3878
-3.5641 -4.4538 2.3878
-3.4052 -4.5842 2.3878
-3.2417 -4.7089 2.3878
-3.0737 -4.8280 2.3878
-2.9015 -4.9412 2.3878
-2.7252 -5.0483 2.3878
-2.5450 -5.1492 2.3878
-2.3612 -5.2438 2.3878
-2.1739 -5.3319 2.3878
-1.9834 -5.4135 2.3878
-1.7900 -5.4883 2.3878
-1.5938 -5.5562 2.3878
-1.3951 -5.6172 2.3878
-1.1941 -5.6712 2.3878
-0.9910 -5.7180 2.3878
-0.7862 -5.7576 2.3878
-0.5799 -5.7899 2.3878
-0.3723 -5.8149 2.3878
-0.1637 -5.8324 2.3878
0.0456 -5.8424 2.3878
0.2554 -5.8449 2.3878
0.4654 -5.8399 2.3878
0.6753 -5.8273 2.3878
0.8849 -5.8072 2.3878
1.0938 -5.7795 2.3878
1.3019 -5.7442 2.3878
1.5087 -5.7014 2.3878
1.7141 -5.6510 2.3878
1.9178 -5.5932 2.3878
2.1195 -5.5280 2.3878
2.3189 -5.4554 2.3878
2.5157 -5.3756 2.3878
2.7097 -5.2886 2.3878
2.9006 -5.1944 2.3878
3.0881 -5.0933 2.3878
3.2720 -4.9853 2.3878
3.4520 -4.8705 2.3878
3.6278 -4.7491 2.3878
3.7992 -4.6213 2.3878
3.9660 -4.4871 2.3878
4.1279 -4.3468 2.3878
4.2846 -4.2006 2.3878
4.4360 -4.0485 2.3878
4.5818 -3.8909 2.3878
4.7218 -3.7279 2.3878
4.8559 -3.5598 2.3878
4.9837 -3.3867 2.3878
5.1051 -3.2089 2.3878
5.2199 -3.0266 2.3878
5.3280 -2.8401 2.3878
5.4292 -2.6497 2.3878
5.5233 -2.4556 2.3878
5.6103 -2.2580 2.3878
5.6899 -2.0573 2.3878
5.7620 -1.8537 2.3878
5.8266 -1.6475 2.3878
5.8835 -1.4389 2.3878
5.9326 -1.2284 2.3878
5.9739 -1.0162 2.3878
6.0074 -0.8025 2.3878
6.0328 -0.5877 2.3878
6.0504 -0.3721 2.3878
6.0599 -0.1560 2.3878
6.0614 0.0603 2.3878
6.0548 0.2765 2.3878
6.0403 0.4923 2.3878
6.0178 0.7074 2.3878
5.9873 0.9214 2.3878
5.9489 1.1342 2.3878
5.9027 1.3453 2.3878
5.8488 1.5545 2.3878
5.7871 1.7615 2.3878
5.7178 1.9660 2.3878
5.6411 2.1677 2.3878
5.5570 2.3663 2.3878
5.4657 2.5616 2.3878
5.3672 2.7533 2.3878
5.2618 2.9411 2.3878
5.1497 3.1248 2.3878
5.0309 3.3042 2.3878
4.9056 3.4789 2.3878
4.7742 3.6487 2.3878
4.6366 3.8135 2.3878
4.4932 3.9731 2.3878
4.3442 4.1271 2.3878
4.1897 4.2754 2.3878
4.0301 4.4178 2.3878
3.8655 4.5542 2.3878
3.6961 4.6844 2.3878
3.5223 4.8081 2.3878
3.3443 4.9254 2.3878
3.1623 5.0359 2.3878
2.9765 5.1396 2.3878
2.7873 5.2364 2.3878
2.5949 5.3262 2.3878
0.9386 2.1157 0.9340
0.8622 2.1478 0.9351
0.7847 2.1771 0.9362
0.7062 2.2036 0.9374
0.6267 2.2273 0.9385
0.5465 2.2481 0.9397
0.4655 2.2660 0.9408
0.3840 2.2809 0.9420
0.3019 2.2929 0.9432
0.2195 2.3020 0.9443
0.1368 2.3080 0.9455
0.0539 2.3111 0.9466
-0.0290 2.3112 0.9477
-0.1119 2.3083 0.9489
-0.1946 2.3024 0.9500
-0.2771 2.2936 0.9511
-0.3592 2.2817 0.9522
-0.4408 2.2669 0.9533
-0.5218 2.2492 0.9543
-0.6021 2.2286 0.9554
-0.6817 2.2050 0.9564
-0.7603 2.1787 0.9574
-0.8380 2.1495 0.9584
-2.2761 5.2704 2.3878
-2.4612 5.1789 2.3878
-2.6427 5.0811 2.3878
-2.8205 4.9770 2.3878
-2.9943 4.8668 2.3878
-3.1640 4.7507 2.3878
-3.3293 4.6288 2.3878
-3.4901 4.5013 2.3878
-3.6462 4.3684 2.3878
-3.7974 4.2301 2.3878
-3.9435 4.0868 2.3878
-4.0844 3.9386 2.3878
-4.2200 3.7856 2.3878
-4.3500 3.6281 2.3878
-4.4743 3.4663 2.3878
-4.5928 3.3003 2.3878
-4.7054 3.1304 2.3878
-4.8119 2.9568 2.3878
-4.9122 2.7797 2.3878
-5.0062 2.5993 2.3878
-5.0939 2.4158 2.3878
-5.1750 2.2295 2.3878
-5.2496 2.0405 2.3878
-5.3176 1.8491 2.3878
-5.3788 1.6555 2.3878
-5.4333 1.4600 2.3878
-5.4809 1.2628 2.3878
-5.5216 1.0640 2.3878
-5.5553 0.8641 2.3878
-5.5821 0.6630 2.3878
-5.6019 0.4612 2.3878
-5.6147 0.2589 2.3878
-5.6204 0.0562 2.3878
-5.6191 -0.1466 2.3878
-5.6107 -0.3492 2.3878
-5.5953 -0.5514 2.3878
-5.5729 -0.7530 2.3878
-5.5435 -0.9537 2.3878
-5.5071 -1.1533 2.3878
-5.4637 -1.3516 2.3878
-5.4135 -1.5483 2.3878
-5.3564 -1.7433 2.3878
-5.2926 -1.9362 2.3878
-5.2221 -2.1268 2.3878
-5.1449 -2.3150 2.3878
-5.0612 -2.5004 2.3878
-4.9710 -2.6829 2.3878
-4.8744 -2.8623 2.3878
-4.7716 -3.0383 2.3878
-4.6626 -3.2107 2.3878
-4.5476 -3.3793 2.3878
-4.4267 -3.5439 2.3878
-4.2999 -3.7043 2.3878
-4.1676 -3.8603 2.3878
-4.0297 -4.0117 2.3878
-3.8865 -4.1583 2.3878
-3.7381 -4.2998 2.3878
-3.5847 -4.4362 2.3878
-3.4265 -4.5673 2.3878
-3.2636 -4.6928 2.3878
-3.0962 -4.8126 2.3878
-2.9245 -4.9266 2.3878
-2.7487 -5.0345 2.3878
-2.5690 -5.1362 2.3878
-2.3856 -5.2317 2.3878
-2.1988 -5.3207 2.3878
-2.0088 -5.4031 2.3878
-1.8157 -5.4788 2.3878
-1.6198 -5.5477 2.3878
-1.4214 -5.6096 2.3878
-1.2207 -5.6645 2.3878
-1.0179 -5.7123 2.3878
-0.8134 -5.7528 2.3878
-0.6072 -5.7861 2.3878
-0.3998 -5.8120 2.3878
-0.1913 -5.8305 2.3878
0.0179 -5.8415 2.3878
0.2277 -5.8450 2.3878
0.4377 -5.8410 2.3878
0.6476 -5.8294 2.3878
0.8572 -5.8103 2.3878
1.0663 -5.7836 2.3878
1.2745 -5.7493 2.3878
1.4815 -5.7074 2.3878
1.6871 -5.6581 2.3878
1.8910 -5.6013 2.3878
2.0930 -5.5370 2.3878
2.2927 -5.4654 2.3878
2.4899 -5.3866 2.3878
2.6843 -5.3005 2.3878
2.8756 -5.2073 2.3878
3.0636 -5.1070 2.3878
3.2479 -4.9999 2.3878
3.4284 -4.8860 2.3878
3.6048 -4.7655 2.3878
3.7768 -4.6385 2.3878
3.9442 -4.5052 2.3878
4.1068 -4.3657 2.3878
4.2642 -4.2202 2.3878
4.4163 -4.0689 2.3878
4.5629 -3.9120 2.3878
4.7037 -3.7497 2.3878
4.8385 -3.5822 2.3878
4.9672 -3.4098 2.3878
5.0894 -3.2326 2.3878
5.2052 -3.0509 2.3878
5.3142 -2.8650 2.3878
5.4163 -2.6751 2.3878
5.5113 -2.4814 2.3878
5.5992 -2.2843 2.3878
5.6798 -2.0839 2.3878
5.7529 -1.8807 2.3878
5.8185 -1.6748 2.3878
5.8764 -1.4666 2.3878
5.9266 -1.2563 2.3878
5.9689 -1.0443 2.3878
6.0034 -0.8308 2.3878
6.0299 -0.6161 2.3878
6.0485 -0.4006 2.3878
6.0591 -0.1846 2.3878
6.0616 0.0318 2.3878
6.0562 0.2480 2.3878
6.0427 0.4639 2.3878
6.0212 0.6790 2.3878
5.9918 0.8933 2.3878
5.9545 1.1062 2.3878
5.9093 1.3175 2.3878
5.8563 1.5270 2.3878
5.7957 1.7343 2.3878
5.7274 1.9391 2.3878
5.6517 2.1412 2.3878
5.5685 2.3403 2.3878
5.4781 2.5360 2.3878
5.3806 2.7282 2.3878
5.2761 2.9166 2.3878
5.1648 3.1008 2.3878
5.0469 3.2807 2.3878
4.9225 3.4561 2.3878
4.7918 3.6266 2.3878
4.6551 3.7921 2.3878
4.5125 3.9523 2.3878
4.3642 4.1071 2.3878
4.2104 4.2561 2.3878
4.0514 4.3994 2.3878
3.8875 4.5366 2.3878
3.7187 4.6676 2.3878
3.5455 4.7922 2.3878
3.3680 4.9103 2.3878
3.1865 5.0217 2.3878
3.0012 5.1263 2.3878
2.8125 5.2241 2.3878
2.6205 5.3148 2.3878
2.4255 5.3984 2.3878
0.8724 2.1437 0.9350
0.7950 2.1734 0.9361
0.7166 2.2003 0.9372
0.6373 2.2243 0.9384
0.5571 2.2455 0.9395
0.4763 2.2638 0.9407
0.3948 2.2791 0.9418
0.3128 2.2915 0.9430
0.2304 2.3010 0.9442
0.1477 2.3074 0.9453
0.0649 2.3109 0.9464
-0.0180 2.3114 0.9476
-0.1010 2.3089 0.9487
-0.1837 2.3034 0.9498
-0.2662 2.2949 0.9509
-0.3484 2.2835 0.9520
-0.4300 2.2690 0.9531
5.4181 1.6764 2.3878
5.3524 1.8678 2.3878
5.2797 2.0565 2.3878
5.2001 2.2424 2.3878
5.1137 2.4251 2.3878
5.0208 2.6045 2.3878
4.9213 2.7801 2.3878
4.8155 2.9519 2.3878
4.7035 3.1196 2.3878
4.5855 3.2830 2.3878
4.4617 3.4418 2.3878
4.3322 3.5959 2.3878
4.1973 3.7450 2.3878
4.0570 3.8889 2.3878
3.9118 4.0275 2.3878
3.7616 4.1606 2.3878
3.6068 4.2880 2.3878
3.4476 4.4095 2.3878
3.2842 4.5251 2.3878
3.1169 4.6345 2.3878
2.9459 4.7377 2.3878
2.7713 4.8344 2.3878
2.5936 4.9247 2.3878
2.4128 5.0084 2.3878
0.8726 1.9904 0.9346
0.8007 2.0202 0.9356
0.7278 2.0474 0.9367
0.6539 2.0719 0.9378
0.5793 2.0937 0.9388
0.5038 2.1129 0.9399
0.4277 2.1293 0.9410
0.3511 2.1430 0.9421
0.2740 2.1539 0.9432
0.1966 2.1620 0.9443
0.1189 2.1673 0.9453
0.0411 2.1698 0.9464
-0.0367 2.1695 0.9475
-0.1145 2.1664 0.9485
-0.1922 2.1605 0.9496
-0.2695 2.1518 0.9506
-0.3466 2.1403 0.9516
-0.4231 2.1261 0.9526
-0.4991 2.1091 0.9536
-0.5744 2.0894 0.9546
-0.6490 2.0669 0.9556
-0.7227 2.0418 0.9565
-0.7954 2.0141 0.9574
-0.8671 1.9837 0.9583
-2.3342 4.8561 2.3878
-2.5045 4.7636 2.3878
-2.6713 4.6653 2.3878
-2.8344 4.5612 2.3878
-2.9936 4.4516 2.3878
-3.1486 4.3365 2.3878
-3.2994 4.2162 2.3878
-3.4458 4.0907 2.3878
-3.5875 3.9603 2.3878
-3.7244 3.8251 2.3878
-3.8565 3.6852 2.3878
-3.9834 3.5409 2.3878
-4.1051 3.3924 2.3878
-4.2215 3.2398 2.3878
-4.3324 3.0833 2.3878
-4.4377 2.9232 2.3878
-4.5373 2.7595 2.3878
-4.6310 2.5926 2.3878
-4.7189 2.4225 2.3878
-4.8006 2.2496 2.3878
-4.8763 2.0740 2.3878
-4.9458 1.8960 2.3878
-5.0090 1.7157 2.3878
-5.0659 1.5333 2.3878
-5.1163 1.3492 2.3878
-5.1603 1.1634 2.3878
-5.1978 0.9763 2.3878
-5.2288 0.7880 2.3878
-5.2531 0.5988 2.3878
-5.2709 0.4088 2.3878
-5.2821 0.2184 2.3878
-5.2866 0.0276 2.3878
-5.2844 -0.1631 2.3878
-5.2756 -0.3537 2.3878
-5.2602 -0.5439 2.3878
-5.2382 -0.7335 2.3878
-5.2096 -0.9222 2.3878
-5.1744 -1.1098 2.3878
-5.1327 -1.2962 2.3878
-5.0845 -1.4810 2.3878
-5.0298 -1.6642 2.3878
-4.9688 -1.8453 2.3878
-4.9015 -2.0243 2.3878
-4.8280 -2.2010 2.3878
-4.7483 -2.3750 2.3878
-4.6625 -2.5462 2.3878
-4.5707 -2.7145 2.3878
-4.4730 -2.8795 2.3878
-4.3696 -3.0410 2.3878
-4.2605 -3.1990 2.3878
-4.1459 -3.3532 2.3878
-4.0258 -3.5033 2.3878
-3.9004 -3.6493 2.3878
-3.7699 -3.7909 2.3878
-3.6344 -3.9279 2.3878
-3.4941 -4.0602 2.3878
-3.3491 -4.1875 2.3878
-3.1995 -4.3098 2.3878
-3.0456 -4.4269 2.3878
-2.8875 -4.5385 2.3878
-2.7254 -4.6446 2.3878
-2.5595 -4.7450 2.3878
-2.3900 -4.8396 2.3878
-2.2172 -4.9282 2.3878
-2.0410 -5.0107 2.3878
-1.8619 -5.0870 2.3878
-1.6800 -5.1569 2.3878
-1.4955 -5.2205 2.3878
-1.3087 -5.2774 2.3878
-1.1198 -5.3278 2.3878
-0.9290 -5.3714 2.3878
-0.7366 -5.4082 2.3878
-0.5427 -5.4382 2.3878
-0.3477 -5.4612 2.3878
-0.1518 -5.4772 2.3878
0.0448 -5.4863 2.3878
0.2417 -5.4883 2.3878
0.4389 -5.4832 2.3878
0.6359 -5.4710 2.3878
0.8326 -5.4517 2.3878
1.0287 -5.4252 2.3878
1.2239 -5.3917 2.3878
1.4180 -5.3512 2.3878
1.6107 -5.3036 2.3878
1.8017 -5.2490 2.3878
1.9908 -5.1874 2.3878
2.1778 -5.1190 2.3878
2.3623 -5.0438 2.3878
2.5442 -4.9618 2.3878
2.7231 -4.8731 2.3878
2.8988 -4.7780 2.3878
3.0711 -4.6764 2.3878
3.2398 -4.5684 2.3878
3.4045 -4.4543 2.3878
3.5651 -4.3342 2.3878
3.7213 -4.2081 2.3878
3.8729 -4.0763 2.3878
4.0197 -3.9390 2.3878
4.1615 -3.7962 2.3878
4.2980 -3.6483 2.3878
4.4291 -3.4953 2.3878
4.5545 -3.3375 2.3878
4.6741 -3.1751 2.3878
4.7878 -3.0083 2.3878
4.8953 -2.8373 2.3878
4.9964 -2.6624 2.3878
5.0911 -2.4838 2.3878
5.1792 -2.3018 2.3878
5.2605 -2.1165 2.3878
5.3350 -1.9283 2.3878
5.4025 -1.7374 2.3878
5.4629 -1.5441 2.3878
5.5161 -1.3487 2.3878
5.5621 -1.1514 2.3878
5.6008 -0.9524 2.3878
5.6321 -0.7522 2.3878
5.6559 -0.5509 2.3878
5.6723 -0.3488 2.3878
5.6812 -0.1463 2.3878
5.6826 0.0565 2.3878
5.6766 0.2591 2.3878
5.6630 0.4613 2.3878
5.6419 0.6629 2.3878
5.6134 0.8635 2.3878
5.5776 1.0629 2.3878
5.5344 1.2608 2.3878
5.4839 1.4569 2.3878
5.4262 1.6510 2.3878
5.3614 1.8427 2.3878
5.2896 2.0318 2.3878
5.2110 2.2181 2.3878
5.1255 2.4012 2.3878
5.0334 2.5810 2.3878
4.9348 2.7572 2.3878
4.8298 2.9295 2.3878
4.7187 3.0978 2.3878
4.6015 3.2617 2.3878
4.4784 3.4211 2.3878
4.3496 3.5758 2.3878
4.2154 3.7256 2.3878
4.0758 3.8702 2.3878
3.9312 4.0095 2.3878
3.7817 4.1433 2.3878
3.6275 4.2715 2.3878
3.4689 4.3938 2.3878
3.3060 4.5102 2.3878
3.1392 4.6204 2.3878
2.9687 4.7244 2.3878
2.7946 4.8220 2.3878
2.6172 4.9132 2.3878
2.4369 4.9978 2.3878
0.8820 1.9863 0.9344
0.8102 2.0164 0.9355
0.7375 2.0439 0.9365
0.6637 2.0688 0.9376
0.5892 2.0910 0.9387
0.5138 2.1105 0.9398
0.4378 2.1273 0.9409
0.3612 2.1413 0.9419
0.2842 2.1526 0.9430
0.2068 2.1611 0.9441
0.1292 2.1668 0.9452
0.0514 2.1697 0.9463
-0.0265 2.1697 0.9473
-0.1043 2.1670 0.9484
-0.1819 2.1615 0.9494
-0.2594 2.1531 0.9505
-0.3364 2.1420 0.9515
-0.4130 2.1281 0.9525
-0.4891 2.1115 0.9535
-0.5645 2.0921 0.9545
-0.6392 2.0700 0.9554
-0.7130 2.0453 0.9564
-0.7859 2.0179 0.9573
-0.8577 1.9879 0.9582
-2.3115 4.8678 2.3878
-2.4822 4.7762 2.3878
-2.6495 4.6786 2.3878
-2.8131 4.5753 2.3878
-2.9728 4.4664 2.3878
-3.1284 4.3520 2.3878
-3.2798 4.2324 2.3878
-3.4267 4.1076 2.3878
-3.5691 3.9778 2.3878
-3.7066 3.8432 2.3878
-3.8393 3.7039 2.3878
-3.9669 3.5602 2.3878
-4.0894 3.4123 2.3878
-4.2065 3.2602 2.3878
-4.3181 3.1042 2.3878
-4.4241 2.9445 2.3878
-4.5245 2.7813 2.3878
-4.6190 2.6148 2.3878
-4.7076 2.4451 2.3878
-4.7902 2.2726 2.3878
-4.8667 2.0974 2.3878
-4.9370 1.9196 2.3878
-5.0010 1.7396 2.3878
-5.0587 1.5575 2.3878
-5.1100 1.3736 2.3878
-5.1549 1.1880 2.3878
-5.1932 1.0011 2.3878
-5.2251 0.8129 2.3878
-5.2503 0.6238 2.3878
-5.2689 0.4339 2.3878
-5.2810 0.2435 2.3878
-5.2863 0.0528 2.3878
-5.2851 -0.1380 2.3878
-5.2772 -0.3286 2.3878
-5.2626 -0.5188 2.3878
-5.2415 -0.7085 2.3878
-5.2137 -0.8973 2.3878
-5.1794 -1.0851 2.3878
-5.1386 -1.2717 2.3878
-5.0912 -1.4567 2.3878
-5.0374 -1.6401 2.3878
-4.9773 -1.8215 2.3878
-4.9108 -2.0008 2.3878
-4.8380 -2.1778 2.3878
-4.7591 -2.3522 2.3878
-4.6741 -2.5238 2.3878
-4.5831 -2.6924 2.3878
-4.4862 -2.8579 2.3878
-4.3836 -3.0199 2.3878
-4.2752 -3.1784 2.3878
-4.1613 -3.3331 2.3878
-4.0419 -3.4838 2.3878
-3.9173 -3.6303 2.3878
-3.7874 -3.7724 2.3878
-3.6526 -3.9101 2.3878
-3.5129 -4.0430 2.3878
-3.3685 -4.1710 2.3878
-3.2195 -4.2940 2.3878
-3.0662 -4.4117 2.3878
-2.9086 -4.5241 2.3878
-2.7470 -4.6310 2.3878
-2.5817 -4.7321 2.3878
-2.4126 -4.8275 2.3878
-2.2402 -4.9169 2.3878
-2.0644 -5.0002 2.3878
-1.8857 -5.0773 2.3878
-1.7042 -5.1481 2.3878
-1.5200 -5.2124 2.3878
-1.3335 -5.2703 2.3878
-1.1449 -5.3215 2.3878
-0.9543 -5.3660 2.3878
-0.7621 -5.4037 2.3878
-0.5684 -5.4346 2.3878
-0.3735 -5.4585 2.3878
-0.1777 -5.4755 2.3878
0.0188 -5.4855 2.3878
0.2157 -5.4884 2.3878
0.4129 -5.4842 2.3878
0.6099 -5.4730 2.3878
0.8067 -5.4546 2.3878
1.0029 -5.4291 2.3878
1.1982 -5.3966 2.3878
1.3924 -5.3569 2.3878
1.5853 -5.3103 2.3878
1.7766 -5.2566 2.3878
1.9660 -5.1960 2.3878
2.1533 -5.1284 2.3878
2.3381 -5.0541 2.3878
2.5203 -4.9730 2.3878
2.6997 -4.8852 2.3878
2.8758 -4.7909 2.3878
3.0486 -4.6901 2.3878
3.2177 -4.5830 2.3878
3.3830 -4.4697 2.3878
3.5441 -4.3504 2.3878
3.7009 -4.2251 2.3878
3.8532 -4.0941 2.3878
4.0006 -3.9574 2.3878
4.1430 -3.8154 2.3878
4.2803 -3.6681 2.3878
4.4121 -3.5157 2.3878
4.5383 -3.3586 2.3878
4.6587 -3.1968 2.3878
4.7731 -3.0305 2.3878
4.8814 -2.8601 2.3878
4.9835 -2.6857 2.3878
5.0790 -2.5076 2.3878
5.1680 -2.3260 2.3878
5.2502 -2.1411 2.3878
5.3256 -1.9533 2.3878
5.3940 -1.7628 2.3878
5.4554 -1.5698 2.3878
5.5095 -1.3746 2.3878
5.5565 -1.1775 2.3878
5.5961 -0.9788 2.3878
5.6284 -0.7787 2.3878
5.6532 -0.5775 2.3878
5.6706 -0.3755 2.3878
5.6805 -0.1730 2.3878
5.6829 0.0297 2.3878
5.6778 0.2323 2.3878
5.6652 0.4347 2.3878
5.6451 0.6363 2.3878
5.6176 0.8371 2.3878
5.5827 1.0367 2.3878
5.5405 1.2348 2.3878
5.4910 1.4311 2.3878
5.4342 1.6255 2.3878
5.3704 1.8175 2.3878
5.2995 2.0070 2.3878
5.2217 2.1936 2.3878
5.1372 2.3772 2.3878
5.0459 2.5575 2.3878
4.9482 2.7341 2.3878
4.8441 2.9070 2.3878
4.7337 3.0758 2.3878
4.6173 3.2403 2.3878
4.4950 3.4004 2.3878
4.3669 3.5557 2.3878
4.2334 3.7061 2.3878
4.0945 3.8514 2.3878
3.9506 3.9914 2.3878
3.8017 4.1260 2.3878
3.6481 4.2549 2.3878
3.4901 4.3780 2.3878
3.3278 4.4952 2.3878
3.1614 4.6062 2.3878
2.9914 4.7110 2.3878
2.8177 4.8095 2.3878
2.6408 4.9015 2.3878
2.4608 4.9870 2.3878
0.8913 1.9821 0.9343
0.8198 2.0126 0.9353
0.7471 2.0404 0.9364
0.6735 2.0657 0.9375
0.5990 2.0882 0.9386
0.5238 2.1081 0.9396
0.4479 2.1252 0.9407
0.3714 2.1396 0.9418
0.2944 2.1513 0.9429
0.2171 2.1601 0.9440
0.1395 2.1662 0.9450
0.0617 2.1694 0.9461
-0.0162 2.1699 0.9472
-0.0940 2.1675 0.9482
-0.1717 2.1624 0.9493
-0.2492 2.1544 0.9503
-0.3263 2.1436 0.9514
-0.4030 2.1301 0.9524
5.0944 1.5756 2.3878
5.0327 1.7555 2.3878
4.9645 1.9330 2.3878
4.8898 2.1077 2.3878
4.8088 2.2796 2.3878
4.7216 2.4482 2.3878
4.6282 2.6134 2.3878
4.5290 2.7750 2.3878
4.4238 2.9328 2.3878
4.3131 3.0865 2.3878
4.1968 3.2360 2.3878
4.0753 3.3810 2.3878
3.9485 3.5213 2.3878
3.8169 3.6568 2.3878
3.6804 3.7873 2.3878
3.5394 3.9127 2.3878
3.3940 4.0327 2.3878
3.2445 4.1472 2.3878
3.0910 4.2561 2.3878
2.9337 4.3593 2.3878
2.7730 4.4566 2.3878
2.6090 4.5479 2.3878
2.4419 4.6331 2.3878
0.8887 1.8431 0.9339
0.8221 1.8735 0.9349
0.7544 1.9015 0.9359
0.6858 1.9271 0.9369
0.6163 1.9502 0.9380
0.5460 1.9707 0.9390
0.4750 1.9888 0.9400
0.4033 2.0042 0.9410
0.3312 2.0171 0.9420
0.2587 2.0273 0.9431
0.1858 2.0350 0.9441
0.1127 2.0400 0.9451
0.0394 2.0423 0.9461
-0.0338 2.0420 0.9471
-0.1071 2.0391 0.9481
-0.1801 2.0336 0.9491
-0.2530 2.0254 0.9500
-0.3255 2.0146 0.9510
-0.3975 2.0011 0.9520
-0.4690 1.9851 0.9529
-0.5399 1.9666 0.9538
-0.6101 1.9455 0.9547
-0.6795 1.9218 0.9556
-0.7480 1.8957 0.9565
-0.8155 1.8671 0.9573
-0.8819 1.8362 0.9582
-2.3583 4.4889 2.3878
-2.5156 4.3965 2.3878
-2.6694 4.2986 2.3878
-2.8196 4.1955 2.3878
-2.9659 4.0873 2.3878
-3.1082 3.9740 2.3878
-3.2462 3.8559 2.3878
-3.3800 3.7332 2.3878
-3.5093 3.6059 2.3878
-3.6339 3.4742 2.3878
-3.7537 3.3383 2.3878
-3.8686 3.1984 2.3878
-3.9785 3.0546 2.3878
-4.0832 2.9072 2.3878
-4.1826 2.7562 2.3878
-4.2766 2.6020 2.3878
-4.3651 2.4447 2.3878
-4.4481 2.2844 2.3878
-4.5253 2.1214 2.3878
-4.5968 1.9559 2.3878
-4.6624 1.7880 2.3878
-4.7221 1.6180 2.3878
-4.7758 1.4460 2.3878
-4.8235 1.2724 2.3878
-4.8650 1.0972 2.3878
-4.9004 0.9207 2.3878
-4.9297 0.7431 2.3878
-4.9527 0.5647 2.3878
-4.9695 0.3855 2.3878
-4.9800 0.2059 2.3878
-4.9842 0.0260 2.3878
-4.9822 -0.1539 2.3878
-4.9739 -0.3337 2.3878
-4.9593 -0.5130 2.3878
-4.9385 -0.6918 2.3878
-4.9114 -0.8698 2.3878
-4.8782 -1.0468 2.3878
-4.8388 -1.2225 2.3878
-4.7932 -1.3968 2.3878
-4.7416 -1.5695 2.3878
-4.6840 -1.7403 2.3878
-4.6204 -1.9090 2.3878
-4.5509 -2.0755 2.3878
-4.4756 -2.2396 2.3878
-4.3946 -2.4010 2.3878
-4.3079 -2.5595 2.3878
-4.2157 -2.7150 2.3878
-4.1180 -2.8673 2.3878
-4.0150 -3.0161 2.3878
-3.9067 -3.1613 2.3878
-3.7934 -3.3027 2.3878
-3.6751 -3.4402 2.3878
-3.5519 -3.5735 2.3878
-3.4240 -3.7025 2.3878
-3.2916 -3.8270 2.3878
-3.1547 -3.9469 2.3878
-3.0136 -4.0619 2.3878
-2.8684 -4.1720 2.3878
-2.7193 -4.2770 2.3878
