ply
format ascii 1.0
element vertex 2174
property float32 x
property float32 y
property float32 z
end_header
-9.1463 1.1180 2.3807
-9.1732 0.7884 2.3807
-9.1882 0.4583 2.3807
-9.1913 0.1281 2.3807
-9.1825 -0.2017 2.3807
-9.1620 -0.5307 2.3807
-9.1297 -0.8585 2.3807
-9.0858 -1.1847 2.3807
-9.0303 -1.5089 2.3807
-8.9632 -1.8307 2.3807
-8.8848 -2.1496 2.3807
-8.7951 -2.4654 2.3807
-8.6943 -2.7775 2.3807
-8.5825 -3.0855 2.3807
-8.4599 -3.3892 2.3807
-8.3267 -3.6881 2.3807
-8.1830 -3.9819 2.3807
-8.0291 -4.2702 2.3807
-7.8651 -4.5527 2.3807
-7.6913 -4.8290 2.3807
-7.5080 -5.0988 2.3807
-7.3153 -5.3618 2.3807
-7.1136 -5.6176 2.3807
-6.9030 -5.8660 2.3807
-6.6839 -6.1066 2.3807
-6.4566 -6.3392 2.3807
-6.2213 -6.5636 2.3807
-5.9784 -6.7793 2.3807
-5.7281 -6.9862 2.3807
-5.4707 -7.1841 2.3807
-5.2067 -7.3727 2.3807
-4.9363 -7.5518 2.3807
-4.6599 -7.7212 2.3807
-4.3777 -7.8807 2.3807
-4.0903 -8.0300 2.3807
-3.7978 -8.1692 2.3807
-3.5007 -8.2979 2.3807
-3.1994 -8.4160 2.3807
-2.8941 -8.5234 2.3807
-2.5854 -8.6200 2.3807
-2.2735 -8.7057 2.3807
-1.9588 -8.7803 2.3807
-1.6417 -8.8438 2.3807
-1.3227 -8.8961 2.3807
-1.0020 -8.9372 2.3807
-0.6801 -8.9669 2.3807
-0.3574 -8.9854 2.3807
-0.0342 -8.9924 2.3807
0.2890 -8.9881 2.3807
0.6119 -8.9725 2.3807
0.9341 -8.9455 2.3807
1.2551 -8.9072 2.3807
1.5747 -8.8576 2.3807
1.8923 -8.7968 2.3807
2.2077 -8.7249 2.3807
2.5204 -8.6418 2.3807
2.8301 -8.5479 2.3807
3.1363 -8.4430 2.3807
3.4388 -8.3274 2.3807
3.7371 -8.2012 2.3807
4.0308 -8.0645 2.3807
4.3197 -7.9175 2.3807
4.6033 -7.7604 2.3807
4.8813 -7.5933 2.3807
5.1533 -7.4164 2.3807
5.4191 -7.2299 2.3807
5.6782 -7.0341 2.3807
5.9304 -6.8291 2.3807
6.1752 -6.6153 2.3807
6.4126 -6.3928 2.3807
6.6420 -6.1619 2.3807
6.8632 -5.9229 2.3807
7.0760 -5.6761 2.3807
7.2800 -5.4217 2.3807
7.4750 -5.1602 2.3807
7.6606 -4.8917 2.3807
7.8368 -4.6166 2.3807
8.0032 -4.3352 2.3807
8.1596 -4.0480 2.3807
8.3058 -3.7551 2.3807
8.4415 -3.4570 2.3807
8.5666 -3.1540 2.3807
8.6810 -2.8466 2.3807
8.7844 -2.5350 2.3807
8.8767 -2.2198 2.3807
8.9577 -1.9012 2.3807
9.0273 -1.5796 2.3807
9.0854 -1.2556 2.3807
9.1320 -0.9294 2.3807
9.1668 -0.6015 2.3807
9.1899 -0.2723 2.3807
8.3862 -0.5303 2.3807
8.4061 -0.2292 2.3807
8.4152 0.0727 2.3807
8.4135 0.3749 2.3807
8.4009 0.6771 2.3807
8.3774 0.9788 2.3807
8.3430 1.2798 2.3807
8.2978 1.5794 2.3807
8.2418 1.8775 2.3807
8.1751 2.1735 2.3807
8.0977 2.4671 2.3807
8.0096 2.7580 2.3807
7.9111 3.0457 2.3807
7.8021 3.3297 2.3807
7.6829 3.6098 2.3807
7.5535 3.8857 2.3807
7.4142 4.1568 2.3807
7.2650 4.4228 2.3807
7.1062 4.6834 2.3807
6.9379 4.9382 2.3807
6.7604 5.1869 2.3807
6.5739 5.4291 2.3807
6.3786 5.6644 2.3807
6.1748 5.8927 2.3807
5.9627 6.1134 2.3807
5.7426 6.3265 2.3807
5.5147 6.5314 2.3807
5.2795 6.7280 2.3807
5.0372 6.9160 2.3807
4.7880 7.0951 2.3807
4.5325 7.2650 2.3807
4.2707 7.4255 2.3807
4.0033 7.5765 2.3807
3.7304 7.7176 2.3807
3.4524 7.8487 2.3807
3.1698 7.9696 2.3807
2.8828 8.0801 2.3807
2.5920 8.1800 2.3807
0.8977 3.2307 0.9301
0.7814 3.2612 0.9301
0.6641 3.2875 0.9301
0.5459 3.3096 0.9300
0.4270 3.3274 0.9301
0.3076 3.3409 0.9301
0.1876 3.3500 0.9301
0.0675 3.3548 0.9302
-0.0528 3.3553 0.9303
-0.1730 3.3514 0.9303
-0.2930 3.3431 0.9304
-0.4126 3.3305 0.9305
-0.5317 3.3136 0.9307
-0.6501 3.2924 0.9308
-0.7677 3.2670 0.9310
-0.8842 3.2373 0.9311
-2.5554 8.1888 2.3807
-2.8465 8.0899 2.3807
-3.1337 7.9804 2.3807
-3.4166 7.8606 2.3807
-3.6949 7.7305 2.3807
-3.9682 7.5904 2.3807
-4.2361 7.4404 2.3807
-4.4982 7.2809 2.3807
-4.7543 7.1119 2.3807
-5.0039 6.9338 2.3807
-5.2468 6.7468 2.3807
-5.4826 6.5512 2.3807
-5.7110 6.3472 2.3807
-5.9317 6.1351 2.3807
-6.1445 5.9153 2.3807
-6.3491 5.6879 2.3807
-6.5451 5.4535 2.3807
-6.7324 5.2121 2.3807
-6.9107 4.9643 2.3807
-7.0798 4.7103 2.3807
-7.2395 4.4505 2.3807
-7.3895 4.1853 2.3807
-7.5298 3.9150 2.3807
-7.6602 3.6399 2.3807
-7.7804 3.3605 2.3807
-7.8904 3.0771 2.3807
-7.9900 2.7900 2.3807
-8.0792 2.4998 2.3807
-8.1577 2.2068 2.3807
-8.2256 1.9113 2.3807
-8.2828 1.6137 2.3807
-8.3292 1.3145 2.3807
-8.3648 1.0140 2.3807
-8.3895 0.7127 2.3807
-8.4034 0.4108 2.3807
-8.4065 0.1089 2.3807
-8.3987 -0.1927 2.3807
-8.3801 -0.4937 2.3807
-8.3508 -0.7936 2.3807
-8.3108 -1.0921 2.3807
-8.2602 -1.3887 2.3807
-8.1990 -1.6831 2.3807
-8.1275 -1.9750 2.3807
-8.0456 -2.2639 2.3807
-7.9535 -2.5495 2.3807
-7.8513 -2.8315 2.3807
-7.7393 -3.1095 2.3807
-7.6175 -3.3831 2.3807
-7.4861 -3.6521 2.3807
-7.3453 -3.9161 2.3807
-7.1953 -4.1747 2.3807
-7.0363 -4.4277 2.3807
-6.8686 -4.6748 2.3807
-6.6922 -4.9156 2.3807
-6.5076 -5.1498 2.3807
-6.3148 -5.3773 2.3807
-6.1143 -5.5977 2.3807
-5.9061 -5.8107 2.3807
-5.6907 -6.0162 2.3807
-5.4682 -6.2138 2.3807
-5.2390 -6.4033 2.3807
-5.0033 -6.5845 2.3807
-4.7614 -6.7572 2.3807
-4.5137 -6.9212 2.3807
-4.2605 -7.0763 2.3807
-4.0020 -7.2223 2.3807
-3.7386 -7.3591 2.3807
-3.4707 -7.4864 2.3807
-3.1985 -7.6042 2.3807
-2.9223 -7.7123 2.3807
-2.6426 -7.8105 2.3807
-2.3597 -7.8989 2.3807
-2.0739 -7.9771 2.3807
-1.7855 -8.0453 2.3807
-1.4950 -8.1033 2.3807
-1.2027 -8.1509 2.3807
-0.9088 -8.1883 2.3807
-0.6139 -8.2153 2.3807
-0.3182 -8.2318 2.3807
-0.0221 -8.2380 2.3807
0.2741 -8.2337 2.3807
0.5699 -8.2190 2.3807
0.8650 -8.1939 2.3807
1.1591 -8.1584 2.3807
1.4518 -8.1125 2.3807
1.7428 -8.0564 2.3807
2.0316 -7.9901 2.3807
2.3180 -7.9135 2.3807
2.6015 -7.8270 2.3807
2.8819 -7.7304 2.3807
3.1588 -7.6240 2.3807
3.4318 -7.5079 2.3807
3.7007 -7.3822 2.3807
3.9650 -7.2470 2.3807
4.2245 -7.1026 2.3807
4.4788 -6.9490 2.3807
4.7277 -6.7864 2.3807
4.9707 -6.6151 2.3807
5.2076 -6.4352 2.3807
5.4382 -6.2470 2.3807
5.6620 -6.0507 2.3807
5.8788 -5.8464 2.3807
6.0884 -5.6345 2.3807
6.2904 -5.4152 2.3807
6.4846 -5.1887 2.3807
6.6708 -4.9554 2.3807
6.8487 -4.7155 2.3807
7.0181 -4.4692 2.3807
7.1787 -4.2170 2.3807
7.3303 -3.9590 2.3807
7.4727 -3.6957 2.3807
7.6058 -3.4272 2.3807
7.7293 -3.1541 2.3807
7.8430 -2.8765 2.3807
7.9469 -2.5949 2.3807
8.0407 -2.3095 2.3807
8.1243 -2.0208 2.3807
8.1976 -1.7291 2.3807
8.2604 -1.4348 2.3807
8.3127 -1.1382 2.3807
8.3545 -0.8397 2.3807
8.3854 -0.5397 2.3807
8.4057 -0.2386 2.3807
8.4151 0.0633 2.3807
8.4137 0.3655 2.3807
8.4014 0.6677 2.3807
8.3783 0.9694 2.3807
8.3443 1.2704 2.3807
8.2994 1.5701 2.3807
8.2437 1.8682 2.3807
8.1773 2.1643 2.3807
8.1002 2.4580 2.3807
8.0125 2.7490 2.3807
7.9143 3.0367 2.3807
7.8057 3.3209 2.3807
7.6868 3.6012 2.3807
7.5577 3.8771 2.3807
7.4186 4.1484 2.3807
7.2698 4.4146 2.3807
7.1113 4.6753 2.3807
6.9433 4.9303 2.3807
6.7661 5.1792 2.3807
6.5798 5.4216 2.3807
6.3848 5.6572 2.3807
6.1812 5.8857 2.3807
5.9694 6.1067 2.3807
5.7495 6.3199 2.3807
5.5220 6.5251 2.3807
5.2870 6.7220 2.3807
5.0448 6.9102 2.3807
4.7959 7.0896 2.3807
4.5405 7.2598 2.3807
4.2790 7.4207 2.3807
4.0117 7.5719 2.3807
3.7390 7.7134 2.3807
3.4612 7.8448 2.3807
3.1787 7.9660 2.3807
2.8918 8.0768 2.3807
2.6011 8.1771 2.3807
0.9013 3.2297 0.9301
0.7850 3.2603 0.9301
0.6678 3.2868 0.9301
0.5496 3.3090 0.9300
0.4308 3.3269 0.9301
0.3113 3.3405 0.9301
0.1914 3.3498 0.9301
0.0712 3.3547 0.9302
-0.0490 3.3553 0.9303
-0.1692 3.3515 0.9303
-0.2893 3.3434 0.9304
-0.4089 3.3310 0.9305
-0.5280 3.3142 0.9307
-0.6464 3.2932 0.9308
-0.7640 3.2678 0.9310
-0.8806 3.2383 0.9311
-2.5462 8.1917 2.3807
-2.8374 8.0931 2.3807
-3.1248 7.9840 2.3807
-3.4079 7.8644 2.3807
-3.6863 7.7347 2.3807
-3.9597 7.5949 2.3807
-4.2278 7.4453 2.3807
-4.4902 7.2860 2.3807
-4.7464 7.1173 2.3807
-4.9963 6.9395 2.3807
-5.2393 6.7528 2.3807
-5.4754 6.5574 2.3807
-5.7040 6.3537 2.3807
-5.9250 6.1418 2.3807
-6.1380 5.9222 2.3807
-6.3428 5.6951 2.3807
-6.5391 5.4609 2.3807
-6.7267 5.2197 2.3807
-6.9053 4.9721 2.3807
-7.0746 4.7183 2.3807
-7.2346 4.4587 2.3807
-7.3850 4.1936 2.3807
-7.5256 3.9235 2.3807
-7.6563 3.6485 2.3807
-7.7768 3.3692 2.3807
-7.8871 3.0859 2.3807
-7.9871 2.7990 2.3807
-8.0765 2.5089 2.3807
-8.1554 2.2159 2.3807
-8.2237 1.9205 2.3807
-8.2812 1.6230 2.3807
-8.3279 1.3239 2.3807
-8.3638 1.0234 2.3807
-8.3889 0.7221 2.3807
-8.4031 0.4203 2.3807
-8.4065 0.1183 2.3807
-8.3991 -0.1833 2.3807
-8.3809 -0.4843 2.3807
-8.3519 -0.7843 2.3807
-8.3122 -1.0828 2.3807
-8.2619 -1.3795 2.3807
-8.2011 -1.6740 2.3807
-8.1298 -1.9659 2.3807
-8.0483 -2.2549 2.3807
-7.9565 -2.5407 2.3807
-7.8547 -2.8228 2.3807
-7.7429 -3.1009 2.3807
-7.6214 -3.3747 2.3807
-7.4903 -3.6438 2.3807
-7.3498 -3.9079 2.3807
-7.2001 -4.1667 2.3807
-7.0414 -4.4199 2.3807
-6.8739 -4.6672 2.3807
-6.6979 -4.9082 2.3807
-6.5135 -5.1426 2.3807
-6.3210 -5.3703 2.3807
-6.1206 -5.5909 2.3807
-5.9127 -5.8042 2.3807
-5.6975 -6.0099 2.3807
-5.4752 -6.2077 2.3807
-5.2462 -6.3975 2.3807
-5.0107 -6.5790 2.3807
-4.7691 -6.7520 2.3807
-4.5215 -6.9162 2.3807
-4.2685 -7.0716 2.3807
-4.0101 -7.2179 2.3807
-3.7469 -7.3549 2.3807
-3.4791 -7.4826 2.3807
-3.2070 -7.6007 2.3807
-2.9310 -7.7090 2.3807
-2.6514 -7.8076 2.3807
-2.3686 -7.8962 2.3807
-2.0828 -7.9749 2.3807
-1.7946 -8.0433 2.3807
-1.5041 -8.1016 2.3807
-1.2118 -8.1496 2.3807
-0.9180 -8.1873 2.3807
-0.6231 -8.2146 2.3807
-0.3274 -8.2315 2.3807
-0.0313 -8.2379 2.3807
0.2648 -8.2340 2.3807
0.5607 -8.2196 2.3807
0.8558 -8.1948 2.3807
1.1500 -8.1596 2.3807
1.4427 -8.1141 2.3807
1.7337 -8.0583 2.3807
2.0226 -7.9923 2.3807
2.3091 -7.9161 2.3807
2.5927 -7.8298 2.3807
2.8732 -7.7336 2.3807
3.1502 -7.6275 2.3807
3.4234 -7.5117 2.3807
3.6924 -7.3863 2.3807
3.9569 -7.2514 2.3807
4.2165 -7.1072 2.3807
4.4710 -6.9539 2.3807
4.7200 -6.7916 2.3807
4.9632 -6.6206 2.3807
5.2003 -6.4410 2.3807
5.4311 -6.2530 2.3807
5.6551 -6.0569 2.3807
5.8721 -5.8529 2.3807
6.0820 -5.6412 2.3807
6.2842 -5.4221 2.3807
6.4787 -5.1959 2.3807
6.6652 -4.9628 2.3807
6.8433 -4.7230 2.3807
7.0129 -4.4770 2.3807
7.1738 -4.2249 2.3807
7.3257 -3.9671 2.3807
7.4684 -3.7040 2.3807
7.6018 -3.4357 2.3807
7.7256 -3.1627 2.3807
7.8396 -2.8852 2.3807
7.9438 -2.6038 2.3807
8.0379 -2.3185 2.3807
8.1218 -2.0299 2.3807
8.1954 -1.7383 2.3807
8.2586 -1.4440 2.3807
8.3113 -1.1475 2.3807
8.3533 -0.8490 2.3807
8.3846 -0.5491 2.3807
8.4052 -0.2480 2.3807
7.7191 -0.4871 2.3807
7.7370 -0.2099 2.3807
7.7450 0.0679 2.3807
7.7429 0.3461 2.3807
7.7309 0.6241 2.3807
7.7088 0.9018 2.3807
7.6768 1.1786 2.3807
7.6348 1.4543 2.3807
7.5829 1.7284 2.3807
7.5211 2.0007 2.3807
7.4494 2.2707 2.3807
7.3681 2.5381 2.3807
7.2770 2.8026 2.3807
7.1764 3.0637 2.3807
7.0664 3.3212 2.3807
6.9471 3.5747 2.3807
6.8186 3.8239 2.3807
6.6811 4.0683 2.3807
6.5347 4.3078 2.3807
6.3797 4.5419 2.3807
6.2162 4.7704 2.3807
6.0444 4.9928 2.3807
5.8646 5.2090 2.3807
5.6770 5.4187 2.3807
5.4818 5.6214 2.3807
5.2792 5.8170 2.3807
5.0696 6.0052 2.3807
4.8532 6.1857 2.3807
4.6303 6.3583 2.3807
4.4011 6.5227 2.3807
4.1661 6.6787 2.3807
3.9254 6.8261 2.3807
3.6795 6.9647 2.3807
3.4285 7.0942 2.3807
3.1730 7.2145 2.3807
2.9132 7.3255 2.3807
2.6494 7.4269 2.3807
0.9316 2.9403 0.9310
0.8257 2.9722 0.9310
0.7188 3.0003 0.9310
0.6109 3.0245 0.9309
0.5022 3.0448 0.9309
0.3928 3.0611 0.9310
0.2829 3.0735 0.9310
0.1726 3.0818 0.9310
0.0621 3.0863 0.9311
-0.0485 3.0867 0.9311
-0.1591 3.0831 0.9312
-0.2695 3.0755 0.9313
-0.3795 3.0639 0.9314
-0.4891 3.0483 0.9315
-0.5980 3.0288 0.9316
-0.7061 3.0054 0.9318
-0.8133 2.9781 0.9319
-2.3484 7.5268 2.3807
-2.6160 7.4361 2.3807
-2.8800 7.3356 2.3807
-3.1402 7.2256 2.3807
-3.3960 7.1062 2.3807
-3.6473 6.9777 2.3807
-3.8937 6.8400 2.3807
-4.1347 6.6936 2.3807
-4.3702 6.5385 2.3807
-4.5999 6.3750 2.3807
-4.8233 6.2033 2.3807
-5.0402 6.0237 2.3807
-5.2504 5.8364 2.3807
-5.4536 5.6416 2.3807
-5.6494 5.4397 2.3807
-5.8377 5.2309 2.3807
-6.0182 5.0155 2.3807
-6.1907 4.7939 2.3807
-6.3550 4.5662 2.3807
-6.5108 4.3328 2.3807
-6.6580 4.0941 2.3807
-6.7963 3.8504 2.3807
-6.9257 3.6019 2.3807
-7.0459 3.3491 2.3807
-7.1569 3.0922 2.3807
-7.2585 2.8317 2.3807
-7.3505 2.5678 2.3807
-7.4329 2.3009 2.3807
-7.5056 2.0314 2.3807
-7.5684 1.7596 2.3807
-7.6215 1.4859 2.3807
-7.6646 1.2106 2.3807
-7.6978 0.9342 2.3807
-7.7210 0.6569 2.3807
-7.7342 0.3792 2.3807
-7.7374 0.1013 2.3807
-7.7307 -0.1764 2.3807
-7.7140 -0.4534 2.3807
-7.6874 -0.7295 2.3807
-7.6510 -1.0043 2.3807
-7.6048 -1.2775 2.3807
-7.5489 -1.5486 2.3807
-7.4834 -1.8174 2.3807
-7.4084 -2.0836 2.3807
-7.3240 -2.3467 2.3807
-7.2303 -2.6065 2.3807
-7.1274 -2.8627 2.3807
-7.0156 -3.1148 2.3807
-6.8949 -3.3627 2.3807
-6.7656 -3.6060 2.3807
-6.6278 -3.8444 2.3807
-6.4816 -4.0776 2.3807
-6.3274 -4.3054 2.3807
-6.1652 -4.5275 2.3807
-5.9953 -4.7435 2.3807
-5.8180 -4.9532 2.3807
-5.6334 -5.1565 2.3807
-5.4419 -5.3530 2.3807
-5.2435 -5.5425 2.3807
-5.0387 -5.7247 2.3807
-4.8276 -5.8996 2.3807
-4.6106 -6.0668 2.3807
-4.3879 -6.2261 2.3807
-4.1597 -6.3774 2.3807
-3.9264 -6.5205 2.3807
-3.6883 -6.6553 2.3807
-3.4457 -6.7815 2.3807
-3.1988 -6.8990 2.3807
-2.9480 -7.0077 2.3807
-2.6935 -7.1074 2.3807
-2.4357 -7.1981 2.3807
-2.1750 -7.2796 2.3807
-1.9116 -7.3519 2.3807
-1.6458 -7.4148 2.3807
-1.3780 -7.4683 2.3807
-1.1085 -7.5123 2.3807
-0.8377 -7.5467 2.3807
-0.5658 -7.5716 2.3807
-0.2933 -7.5869 2.3807
-0.0203 -7.5926 2.3807
0.2527 -7.5886 2.3807
0.5253 -7.5750 2.3807
0.7974 -7.5518 2.3807
1.0685 -7.5191 2.3807
1.3383 -7.4767 2.3807
1.6064 -7.4249 2.3807
1.8726 -7.3636 2.3807
2.1365 -7.2930 2.3807
2.3979 -7.2131 2.3807
2.6562 -7.1240 2.3807
2.9114 -7.0258 2.3807
3.1630 -6.9186 2.3807
3.4107 -6.8026 2.3807
3.6542 -6.6778 2.3807
3.8932 -6.5445 2.3807
4.1275 -6.4028 2.3807
4.3566 -6.2528 2.3807
4.5804 -6.0947 2.3807
4.7986 -5.9288 2.3807
5.0108 -5.7551 2.3807
5.2169 -5.5740 2.3807
5.4165 -5.3856 2.3807
5.6093 -5.1901 2.3807
5.7952 -4.9879 2.3807
5.9739 -4.7790 2.3807
6.1452 -4.5639 2.3807
6.3088 -4.3427 2.3807
6.4645 -4.1156 2.3807
6.6121 -3.8831 2.3807
6.7514 -3.6453 2.3807
6.8823 -3.4026 2.3807
7.0045 -3.1553 2.3807
7.1178 -2.9035 2.3807
7.2222 -2.6478 2.3807
7.3175 -2.3884 2.3807
7.4034 -2.1254 2.3807
7.4800 -1.8595 2.3807
7.5471 -1.5909 2.3807
7.6046 -1.3199 2.3807
7.6523 -1.0467 2.3807
7.6903 -0.7720 2.3807
7.7184 -0.4957 2.3807
7.7366 -0.2186 2.3807
7.7449 0.0593 2.3807
7.7431 0.3374 2.3807
7.7314 0.6155 2.3807
7.7097 0.8931 2.3807
7.6780 1.1700 2.3807
7.6363 1.4457 2.3807
7.5847 1.7199 2.3807
7.5231 1.9922 2.3807
7.4518 2.2623 2.3807
7.3707 2.5298 2.3807
7.2800 2.7944 2.3807
7.1797 3.0556 2.3807
7.0700 3.3132 2.3807
6.9509 3.5669 2.3807
6.8227 3.8162 2.3807
6.6855 4.0608 2.3807
6.5394 4.3004 2.3807
6.3846 4.5347 2.3807
6.2214 4.7633 2.3807
6.0499 4.9860 2.3807
5.8703 5.2024 2.3807
5.6830 5.4122 2.3807
5.4880 5.6152 2.3807
5.2857 5.8110 2.3807
5.0762 5.9995 2.3807
4.8600 6.1802 2.3807
4.6373 6.3531 2.3807
4.4084 6.5177 2.3807
4.1735 6.6740 2.3807
3.9330 6.8217 2.3807
3.6872 6.9605 2.3807
3.4365 7.0903 2.3807
3.1811 7.2109 2.3807
2.9214 7.3221 2.3807
2.6577 7.4238 2.3807
2.3905 7.5159 2.3807
0.8291 2.9713 0.9310
0.7222 2.9995 0.9310
0.6143 3.0238 0.9309
0.5056 3.0442 0.9309
0.3962 3.0606 0.9310
0.2863 3.0731 0.9310
0.1761 3.0816 0.9310
0.0655 3.0862 0.9311
-0.0451 3.0867 0.9311
-0.1557 3.0832 0.9312
-0.2660 3.0758 0.9313
-0.3761 3.0643 0.9314
-0.4856 3.0489 0.9315
-0.5946 3.0295 0.9316
-0.7027 3.0062 0.9318
-0.8100 2.9790 0.9319
-2.3400 7.5295 2.3807
-2.6077 7.4391 2.3807
-2.8719 7.3389 2.3807
-3.1321 7.2292 2.3807
-3.3881 7.1101 2.3807
-3.6395 6.9818 2.3807
-3.8860 6.8445 2.3807
-4.1273 6.6983 2.3807
-4.3630 6.5435 2.3807
-4.5928 6.3802 2.3807
-4.8164 6.2088 2.3807
-5.0336 6.0294 2.3807
-5.2440 5.8423 2.3807
-5.4474 5.6478 2.3807
-5.6434 5.4461 2.3807
-5.8320 5.2375 2.3807
-6.0127 5.0224 2.3807
-6.1855 4.8009 2.3807
-6.3500 4.5734 2.3807
-6.5061 4.3402 2.3807
-6.6535 4.1016 2.3807
-6.7921 3.8580 2.3807
-6.9218 3.6097 2.3807
-7.0423 3.3571 2.3807
-7.1536 3.1003 2.3807
-7.2554 2.8398 2.3807
-7.3478 2.5760 2.3807
-7.4305 2.3093 2.3807
-7.5034 2.0398 2.3807
-7.5666 1.7681 2.3807
-7.6200 1.4944 2.3807
-7.6634 1.2193 2.3807
-7.6969 0.9428 2.3807
-7.7204 0.6656 2.3807
-7.7339 0.3878 2.3807
-7.7374 0.1099 2.3807
-7.7310 -0.1677 2.3807
-7.7147 -0.4448 2.3807
-7.6884 -0.7209 2.3807
-7.6523 -0.9958 2.3807
-7.6064 -1.2690 2.3807
-7.5508 -1.5402 2.3807
-7.4856 -1.8091 2.3807
-7.4109 -2.0753 2.3807
-7.3268 -2.3386 2.3807
-7.2334 -2.5985 2.3807
-7.1308 -2.8547 2.3807
-7.0192 -3.1070 2.3807
-6.8988 -3.3551 2.3807
-6.7698 -3.5985 2.3807
-6.6322 -3.8371 2.3807
-6.4863 -4.0705 2.3807
-6.3323 -4.2984 2.3807
-6.1704 -4.5206 2.3807
-6.0007 -4.7368 2.3807
-5.8236 -4.9468 2.3807
-5.6393 -5.1502 2.3807
-5.4479 -5.3469 2.3807
-5.2498 -5.5367 2.3807
-5.0452 -5.7192 2.3807
-4.8343 -5.8942 2.3807
-4.6175 -6.0617 2.3807
-4.3949 -6.2212 2.3807
-4.1669 -6.3728 2.3807
-3.9338 -6.5162 2.3807
-3.6958 -6.6512 2.3807
-3.4533 -6.7776 2.3807
-3.2065 -6.8954 2.3807
-2.9558 -7.0044 2.3807
-2.7015 -7.1044 2.3807
-2.4438 -7.1954 2.3807
-2.1832 -7.2772 2.3807
-1.9198 -7.3498 2.3807
-1.6541 -7.4130 2.3807
-1.3864 -7.4667 2.3807
-1.1170 -7.5110 2.3807
-0.8462 -7.5458 2.3807
-0.5743 -7.5710 2.3807
-0.3018 -7.5866 2.3807
-0.0288 -7.5925 2.3807
0.2442 -7.5889 2.3807
0.5168 -7.5756 2.3807
0.7889 -7.5527 2.3807
1.0600 -7.5202 2.3807
1.3299 -7.4782 2.3807
1.5981 -7.4267 2.3807
1.8643 -7.3657 2.3807
2.1284 -7.2954 2.3807
2.3897 -7.2157 2.3807
2.6482 -7.1269 2.3807
2.9035 -7.0290 2.3807
3.1552 -6.9221 2.3807
3.4030 -6.8063 2.3807
3.6466 -6.6818 2.3807
3.8858 -6.5488 2.3807
4.1202 -6.4073 2.3807
4.3496 -6.2576 2.3807
4.5736 -6.0998 2.3807
4.7919 -5.9341 2.3807
5.0043 -5.7606 2.3807
5.2105 -5.5797 2.3807
5.4103 -5.3916 2.3807
5.6034 -5.1963 2.3807
5.7895 -4.9943 2.3807
5.9685 -4.7857 2.3807
6.1400 -4.5707 2.3807
6.3038 -4.3496 2.3807
6.4597 -4.1228 2.3807
6.6076 -3.8904 2.3807
6.7472 -3.6528 2.3807
6.8783 -3.4103 2.3807
7.0008 -3.1630 2.3807
7.1144 -2.9115 2.3807
7.2191 -2.6559 2.3807
7.3146 -2.3965 2.3807
7.4009 -2.1338 2.3807
7.4778 -1.8679 2.3807
7.5452 -1.5993 2.3807
7.6029 -1.3284 2.3807
7.6510 -1.0553 2.3807
7.6892 -0.7806 2.3807
7.7177 -0.5044 2.3807
7.7362 -0.2272 2.3807
7.1430 -0.4498 2.3807
7.1592 -0.1932 2.3807
7.1662 0.0639 2.3807
7.1640 0.3212 2.3807
7.1525 0.5784 2.3807
7.1318 0.8353 2.3807
7.1018 1.0913 2.3807
7.0626 1.3462 2.3807
7.0143 1.5997 2.3807
6.9568 1.8515 2.3807
6.8902 2.1012 2.3807
6.8146 2.3484 2.3807
6.7301 2.5929 2.3807
6.6368 2.8343 2.3807
6.5347 3.0723 2.3807
6.4241 3.3066 2.3807
6.3050 3.5368 2.3807
6.1776 3.7627 2.3807
6.0420 3.9840 2.3807
5.8985 4.2003 2.3807
5.7471 4.4113 2.3807
5.5881 4.6169 2.3807
5.4216 4.8166 2.3807
5.2480 5.0102 2.3807
5.0674 5.1974 2.3807
4.8800 5.3781 2.3807
4.6861 5.5519 2.3807
4.4859 5.7185 2.3807
4.2797 5.8779 2.3807
4.0678 6.0297 2.3807
3.8505 6.1737 2.3807
3.6280 6.3098 2.3807
3.4006 6.4377 2.3807
3.1686 6.5573 2.3807
2.9324 6.6683 2.3807
2.6922 6.7708 2.3807
2.4485 6.8644 2.3807
0.8616 2.7198 0.9318
0.7637 2.7493 0.9318
0.6648 2.7752 0.9317
0.5650 2.7976 0.9317
0.4645 2.8163 0.9317
0.3633 2.8314 0.9317
0.2617 2.8428 0.9317
0.1597 2.8506 0.9318
0.0574 2.8546 0.9318
-0.0449 2.8550 0.9319
-0.1471 2.8516 0.9320
-0.2492 2.8446 0.9320
-0.3510 2.8339 0.9321
-0.4523 2.8195 0.9322
-0.5530 2.8015 0.9324
-0.6530 2.7798 0.9325
-0.7521 2.7546 0.9326
-0.8503 2.7257 0.9328
-2.4176 6.8730 2.3807
-2.6616 6.7803 2.3807
-2.9021 6.6788 2.3807
-3.1386 6.5686 2.3807
-3.3709 6.4499 2.3807
-3.5987 6.3229 2.3807
-3.8216 6.1877 2.3807
-4.0394 6.0445 2.3807
-4.2517 5.8935 2.3807
-4.4584 5.7350 2.3807
-4.6591 5.5692 2.3807
-4.8535 5.3962 2.3807
-5.0415 5.2163 2.3807
-5.2227 5.0299 2.3807
-5.3970 4.8370 2.3807
-5.5641 4.6381 2.3807
-5.7238 4.4333 2.3807
-5.8759 4.2229 2.3807
-6.0202 4.0073 2.3807
-6.1566 3.7868 2.3807
-6.2848 3.5615 2.3807
-6.4047 3.3319 2.3807
-6.5162 3.0982 2.3807
-6.6191 2.8608 2.3807
-6.7133 2.6200 2.3807
-6.7987 2.3760 2.3807
-6.8752 2.1293 2.3807
-6.9428 1.8801 2.3807
-7.0013 1.6287 2.3807
-7.0507 1.3756 2.3807
-7.0909 1.1210 2.3807
-7.1219 0.8653 2.3807
-7.1437 0.6088 2.3807
-7.1563 0.3518 2.3807
-7.1596 0.0947 2.3807
-7.1537 -0.1622 2.3807
-7.1386 -0.4187 2.3807
-7.1144 -0.6742 2.3807
-7.0810 -0.9286 2.3807
-7.0386 -1.1814 2.3807
-6.9872 -1.4324 2.3807
-6.9269 -1.6813 2.3807
-6.8578 -1.9277 2.3807
-6.7799 -2.1714 2.3807
-6.6935 -2.4120 2.3807
-6.5985 -2.6493 2.3807
-6.4953 -2.8829 2.3807
-6.3838 -3.1125 2.3807
-6.2643 -3.3379 2.3807
-6.1370 -3.5588 2.3807
-6.0019 -3.7749 2.3807
-5.8593 -3.9859 2.3807
-5.7093 -4.1917 2.3807
-5.5522 -4.3919 2.3807
-5.3881 -4.5863 2.3807
-5.2174 -4.7747 2.3807
-5.0401 -4.9569 2.3807
-4.8566 -5.1325 2.3807
-4.6670 -5.3015 2.3807
-4.4717 -5.4636 2.3807
-4.2707 -5.6186 2.3807
-4.0645 -5.7664 2.3807
-3.8533 -5.9067 2.3807
-3.6373 -6.0394 2.3807
-3.4168 -6.1644 2.3807
-3.1920 -6.2814 2.3807
-2.9634 -6.3904 2.3807
-2.7311 -6.4912 2.3807
-2.4954 -6.5837 2.3807
-2.2566 -6.6678 2.3807
-2.0151 -6.7434 2.3807
-1.7710 -6.8104 2.3807
-1.5248 -6.8688 2.3807
-1.2767 -6.9184 2.3807
-1.0271 -6.9592 2.3807
-0.7761 -6.9912 2.3807
-0.5242 -7.0143 2.3807
-0.2717 -7.0284 2.3807
-0.0188 -7.0337 2.3807
0.2341 -7.0300 2.3807
0.4868 -7.0174 2.3807
0.7388 -6.9959 2.3807
0.9900 -6.9654 2.3807
1.2399 -6.9262 2.3807
1.4883 -6.8781 2.3807
1.7349 -6.8212 2.3807
1.9794 -6.7557 2.3807
2.2215 -6.6816 2.3807
2.4609 -6.5989 2.3807
2.6972 -6.5078 2.3807
2.9302 -6.4084 2.3807
3.1596 -6.3008 2.3807
3.3851 -6.1851 2.3807
3.6064 -6.0614 2.3807
3.8233 -5.9300 2.3807
4.0355 -5.7909 2.3807
4.2427 -5.6443 2.3807
4.4447 -5.4904 2.3807
4.6411 -5.3295 2.3807
4.8318 -5.1615 2.3807
5.0164 -4.9869 2.3807
5.1949 -4.8057 2.3807
5.3669 -4.6182 2.3807
5.5321 -4.4246 2.3807
5.6905 -4.2252 2.3807
5.8418 -4.0202 2.3807
5.9857 -3.8099 2.3807
6.1222 -3.5944 2.3807
6.2509 -3.3742 2.3807
6.3718 -3.1493 2.3807
6.4847 -2.9201 2.3807
6.5893 -2.6870 2.3807
6.6857 -2.4501 2.3807
6.7735 -2.2098 2.3807
6.8528 -1.9664 2.3807
6.9234 -1.7202 2.3807
6.9851 -1.4715 2.3807
7.0380 -1.2205 2.3807
7.0818 -0.9677 2.3807
7.1166 -0.7134 2.3807
7.1423 -0.4578 2.3807
7.1588 -0.2013 2.3807
7.1661 0.0558 2.3807
7.1642 0.3132 2.3807
7.1530 0.5704 2.3807
7.1326 0.8272 2.3807
7.1029 1.0833 2.3807
7.0640 1.3383 2.3807
7.0159 1.5919 2.3807
6.9587 1.8437 2.3807
6.8924 2.0934 2.3807
6.8171 2.3407 2.3807
6.7329 2.5853 2.3807
6.6398 2.8268 2.3807
6.5381 3.0649 2.3807
6.4277 3.2993 2.3807
6.3089 3.5297 2.3807
6.1817 3.7558 2.3807
6.0464 3.9771 2.3807
5.9031 4.1936 2.3807
5.7519 4.4048 2.3807
5.5932 4.6105 2.3807
5.4270 4.8104 2.3807
5.2535 5.0042 2.3807
5.0731 5.1917 2.3807
4.8859 5.3725 2.3807
4.6922 5.5466 2.3807
4.4922 5.7135 2.3807
4.2862 5.8731 2.3807
4.0745 6.0251 2.3807
3.8573 6.1694 2.3807
3.6350 6.3057 2.3807
3.4077 6.4338 2.3807
3.1759 6.5537 2.3807
2.9398 6.6650 2.3807
2.6998 6.7677 2.3807
2.4561 6.8616 2.3807
0.8646 2.7188 0.9318
0.7668 2.7484 0.9318
0.6679 2.7745 0.9317
0.5681 2.7969 0.9317
0.4676 2.8158 0.9317
0.3665 2.8310 0.9317
0.2648 2.8425 0.9317
0.1628 2.8504 0.9318
0.0606 2.8545 0.9318
-0.0417 2.8550 0.9319
-0.1440 2.8518 0.9320
-0.2460 2.8449 0.9320
-0.3478 2.8343 0.9321
-0.4491 2.8200 0.9322
-0.5499 2.8021 0.9324
-0.6499 2.7806 0.9325
-0.7491 2.7554 0.9326
-0.8473 2.7267 0.9328
-2.4099 6.8758 2.3807
-2.6541 6.7833 2.3807
-2.8946 6.6821 2.3807
-3.1313 6.5722 2.3807
-3.3637 6.4537 2.3807
-3.5916 6.3270 2.3807
-3.8147 6.1920 2.3807
-4.0327 6.0491 2.3807
-4.2452 5.8984 2.3807
-4.4520 5.7401 2.3807
-4.6529 5.5745 2.3807
-4.8476 5.4017 2.3807
-5.0357 5.2221 2.3807
-5.2172 5.0358 2.3807
-5.3917 4.8431 2.3807
-5.5590 4.6444 2.3807
-5.7189 4.4398 2.3807
-5.8713 4.2296 2.3807
-6.0158 4.0141 2.3807
-6.1524 3.7937 2.3807
-6.2809 3.5686 2.3807
-6.4011 3.3391 2.3807
-6.5128 3.1056 2.3807
-6.6160 2.8683 2.3807
-6.7105 2.6275 2.3807
-6.7962 2.3837 2.3807
-6.8730 2.1370 2.3807
-6.9408 1.8879 2.3807
-6.9996 1.6366 2.3807
-7.0493 1.3835 2.3807
-7.0898 1.1290 2.3807
-7.1211 0.8733 2.3807
-7.1432 0.6168 2.3807
-7.1560 0.3598 2.3807
-7.1597 0.1027 2.3807
-7.1540 -0.1542 2.3807
-7.1392 -0.4107 2.3807
-7.1153 -0.6662 2.3807
-7.0822 -0.9206 2.3807
-7.0401 -1.1735 2.3807
-6.9889 -1.4246 2.3807
-6.9289 -1.6736 2.3807
-6.8600 -1.9201 2.3807
-6.7825 -2.1639 2.3807
-6.6963 -2.4046 2.3807
-6.6016 -2.6419 2.3807
-6.4986 -2.8756 2.3807
-6.3874 -3.1054 2.3807
-6.2682 -3.3309 2.3807
-6.1410 -3.5520 2.3807
-6.0062 -3.7682 2.3807
-5.8638 -3.9794 2.3807
-5.7141 -4.1854 2.3807
-5.5572 -4.3858 2.3807
-5.3934 -4.5804 2.3807
-5.2228 -4.7689 2.3807
-5.0458 -4.9513 2.3807
-4.8624 -5.1272 2.3807
-4.6730 -5.2964 2.3807
-4.4778 -5.4587 2.3807
-4.2771 -5.6139 2.3807
-4.0710 -5.7619 2.3807
-3.8599 -5.9024 2.3807
-3.6441 -6.0354 2.3807
-3.4237 -6.1606 2.3807
-3.1991 -6.2779 2.3807
-2.9706 -6.3871 2.3807
-2.7384 -6.4882 2.3807
-2.5028 -6.5809 2.3807
-2.2641 -6.6653 2.3807
-2.0226 -6.7412 2.3807
-1.7787 -6.8085 2.3807
-1.5325 -6.8671 2.3807
-1.2845 -6.9170 2.3807
-1.0349 -6.9581 2.3807
-0.7840 -6.9903 2.3807
-0.5321 -7.0137 2.3807
-0.2796 -7.0281 2.3807
-0.0267 -7.0337 2.3807
0.2262 -7.0303 2.3807
0.4789 -7.0179 2.3807
0.7310 -6.9967 2.3807
0.9822 -6.9665 2.3807
1.2321 -6.9275 2.3807
1.4806 -6.8797 2.3807
1.7273 -6.8232 2.3807
1.9719 -6.7579 2.3807
2.2140 -6.6840 2.3807
2.4534 -6.6016 2.3807
2.6898 -6.5108 2.3807
2.9230 -6.4116 2.3807
3.1525 -6.3043 2.3807
3.3781 -6.1888 2.3807
3.5996 -6.0654 2.3807
3.8166 -5.9342 2.3807
4.0290 -5.7953 2.3807
4.2363 -5.6490 2.3807
4.4384 -5.4954 2.3807
4.6351 -5.3346 2.3807
4.8259 -5.1669 2.3807
5.0108 -4.9924 2.3807
5.1894 -4.8114 2.3807
5.3616 -4.6241 2.3807
5.5271 -4.4308 2.3807
5.6857 -4.2315 2.3807
5.8372 -4.0267 2.3807
5.9813 -3.8165 2.3807
6.1180 -3.6012 2.3807
6.2470 -3.3812 2.3807
6.3681 -3.1564 2.3807
6.4812 -2.9273 2.3807
6.5862 -2.6943 2.3807
6.6828 -2.4576 2.3807
6.7709 -2.2174 2.3807
6.8505 -1.9741 2.3807
6.9213 -1.7279 2.3807
6.9833 -1.4793 2.3807
7.0365 -1.2284 2.3807
7.0806 -0.9756 2.3807
7.1157 -0.7213 2.3807
7.1417 -0.4657 2.3807
7.1584 -0.2093 2.3807
6.6399 -0.4172 2.3807
6.6547 -0.1787 2.3807
6.6609 0.0603 2.3807
6.6586 0.2994 2.3807
6.6476 0.5385 2.3807
6.6281 0.7772 2.3807
6.6000 1.0151 2.3807
6.5633 1.2520 2.3807
6.5181 1.4875 2.3807
6.4644 1.7214 2.3807
6.4023 1.9533 2.3807
6.3318 2.1829 2.3807
6.2531 2.4100 2.3807
6.1661 2.6342 2.3807
6.0711 2.8552 2.3807
5.9681 3.0728 2.3807
5.8572 3.2865 2.3807
5.7387 3.4963 2.3807
5.6125 3.7017 2.3807
5.4790 3.9025 2.3807
5.3382 4.0984 2.3807
5.1903 4.2891 2.3807
5.0356 4.4745 2.3807
4.8741 4.6542 2.3807
4.7062 4.8279 2.3807
4.5321 4.9956 2.3807
4.3519 5.1568 2.3807
4.1659 5.3115 2.3807
3.9743 5.4593 2.3807
3.7775 5.6002 2.3807
3.5755 5.7338 2.3807
3.3688 5.8600 2.3807
3.1576 5.9787 2.3807
2.9422 6.0896 2.3807
2.7228 6.1926 2.3807
2.4998 6.2876 2.3807
0.8905 2.4968 0.9325
0.8006 2.5275 0.9325
0.7096 2.5548 0.9324
0.6177 2.5789 0.9324
0.5250 2.5996 0.9324
0.4316 2.6170 0.9324
0.3376 2.6310 0.9324
0.2431 2.6416 0.9324
0.1483 2.6488 0.9324
0.0534 2.6526 0.9325
-0.0417 2.6529 0.9325
-0.1367 2.6498 0.9326
-0.2315 2.6433 0.9327
-0.3261 2.6333 0.9328
-0.4202 2.6199 0.9329
-0.5138 2.6032 0.9330
-0.6067 2.5831 0.9331
-0.6988 2.5596 0.9332
-0.7900 2.5328 0.9334
-0.8802 2.5028 0.9335
-2.4713 6.2966 2.3807
-2.6947 6.2025 2.3807
-2.9143 6.1003 2.3807
-3.1301 5.9902 2.3807
-3.3417 5.8723 2.3807
-3.5488 5.7469 2.3807
-3.7511 5.6141 2.3807
-3.9484 5.4740 2.3807
-4.1404 5.3270 2.3807
-4.3269 5.1731 2.3807
-4.5076 5.0126 2.3807
-4.6823 4.8457 2.3807
-4.8508 4.6726 2.3807
-5.0128 4.4937 2.3807
-5.1682 4.3090 2.3807
-5.3167 4.1189 2.3807
-5.4582 3.9237 2.3807
-5.5925 3.7236 2.3807
-5.7193 3.5188 2.3807
-5.8386 3.3096 2.3807
-5.9503 3.0965 2.3807
-6.0541 2.8795 2.3807
-6.1499 2.6590 2.3807
-6.2377 2.4353 2.3807
-6.3173 2.2087 2.3807
-6.3887 1.9795 2.3807
-6.4517 1.7480 2.3807
-6.5064 1.5145 2.3807
-6.5525 1.2793 2.3807
-6.5902 1.0428 2.3807
-6.6193 0.8052 2.3807
-6.6398 0.5668 2.3807
-6.6518 0.3279 2.3807
-6.6551 0.0889 2.3807
-6.6499 -0.1499 2.3807
-6.6362 -0.3883 2.3807
-6.6139 -0.6259 2.3807
-6.5832 -0.8624 2.3807
-6.5440 -1.0975 2.3807
-6.4964 -1.3309 2.3807
-6.4406 -1.5624 2.3807
-6.3766 -1.7916 2.3807
-6.3045 -2.0183 2.3807
-6.2243 -2.2421 2.3807
-6.1363 -2.4628 2.3807
-6.0405 -2.6801 2.3807
-5.9371 -2.8938 2.3807
-5.8262 -3.1035 2.3807
-5.7079 -3.3091 2.3807
-5.5824 -3.5102 2.3807
-5.4500 -3.7066 2.3807
-5.3106 -3.8981 2.3807
-5.1647 -4.0845 2.3807
-5.0122 -4.2655 2.3807
-4.8535 -4.4409 2.3807
-4.6888 -4.6104 2.3807
-4.5182 -4.7740 2.3807
-4.3419 -4.9313 2.3807
-4.1602 -5.0823 2.3807
-3.9734 -5.2266 2.3807
-3.7816 -5.3642 2.3807
-3.5852 -5.4949 2.3807
-3.3843 -5.6185 2.3807
-3.1792 -5.7348 2.3807
-2.9701 -5.8438 2.3807
-2.7574 -5.9453 2.3807
-2.5413 -6.0392 2.3807
-2.3220 -6.1254 2.3807
-2.0998 -6.2038 2.3807
-1.8751 -6.2742 2.3807
-1.6480 -6.3366 2.3807
-1.4189 -6.3910 2.3807
-1.1881 -6.4372 2.3807
-0.9557 -6.4752 2.3807
-0.7222 -6.5050 2.3807
-0.4878 -6.5265 2.3807
-0.2528 -6.5397 2.3807
-0.0175 -6.5445 2.3807
0.2179 -6.5411 2.3807
0.4530 -6.5293 2.3807
0.6876 -6.5093 2.3807
0.9213 -6.4809 2.3807
1.1538 -6.4443 2.3807
1.3850 -6.3995 2.3807
1.6145 -6.3466 2.3807
1.8420 -6.2855 2.3807
2.0672 -6.2165 2.3807
2.2899 -6.1395 2.3807
2.5097 -6.0546 2.3807
2.7265 -5.9620 2.3807
2.9399 -5.8617 2.3807
3.1497 -5.7540 2.3807
3.3556 -5.6388 2.3807
3.5573 -5.5164 2.3807
3.7546 -5.3868 2.3807
3.9473 -5.2503 2.3807
4.1351 -5.1071 2.3807
4.3177 -4.9571 2.3807
4.4950 -4.8008 2.3807
4.6666 -4.6382 2.3807
4.8325 -4.4695 2.3807
4.9923 -4.2950 2.3807
5.1459 -4.1148 2.3807
5.2930 -3.9292 2.3807
5.4335 -3.7383 2.3807
5.5672 -3.5426 2.3807
5.6939 -3.3421 2.3807
5.8134 -3.1371 2.3807
5.9256 -2.9278 2.3807
6.0304 -2.7146 2.3807
6.1275 -2.4977 2.3807
6.2168 -2.2774 2.3807
6.2983 -2.0539 2.3807
6.3717 -1.8275 2.3807
6.4371 -1.5985 2.3807
6.4943 -1.3671 2.3807
6.5431 -1.1338 2.3807
6.5836 -0.8987 2.3807
6.6157 -0.6622 2.3807
6.6393 -0.4246 2.3807
6.6544 -0.1862 2.3807
6.6609 0.0528 2.3807
6.6588 0.2920 2.3807
6.6481 0.5311 2.3807
6.6288 0.7697 2.3807
6.6010 1.0077 2.3807
6.5646 1.2446 2.3807
6.5196 1.4802 2.3807
6.4662 1.7141 2.3807
6.4044 1.9461 2.3807
6.3341 2.1758 2.3807
6.2556 2.4030 2.3807
6.1690 2.6273 2.3807
6.0742 2.8484 2.3807
5.9714 3.0660 2.3807
5.8608 3.2799 2.3807
5.7425 3.4898 2.3807
5.6166 3.6953 2.3807
5.4833 3.8963 2.3807
5.3427 4.0923 2.3807
5.1950 4.2833 2.3807
5.0405 4.4688 2.3807
4.8793 4.6486 2.3807
4.7116 4.8226 2.3807
4.5376 4.9904 2.3807
4.3576 5.1519 2.3807
4.1718 5.3068 2.3807
3.9804 5.4548 2.3807
3.7837 5.5959 2.3807
3.5819 5.7297 2.3807
3.3754 5.8562 2.3807
3.1643 5.9751 2.3807
2.9490 6.0862 2.3807
2.7297 6.1895 2.3807
2.5068 6.2848 2.3807
0.8933 2.4958 0.9325
0.8034 2.5265 0.9325
0.7124 2.5540 0.9324
0.6206 2.5782 0.9324
0.5279 2.5990 0.9324
0.4345 2.6165 0.9324
0.3405 2.6306 0.9324
0.2461 2.6414 0.9324
0.1513 2.6486 0.9324
0.0563 2.6525 0.9325
-0.0387 2.6529 0.9325
-0.1337 2.6499 0.9326
-0.2286 2.6435 0.9327
-0.3231 2.6337 0.9328
-0.4173 2.6204 0.9329
-0.5109 2.6038 0.9330
-0.6038 2.5837 0.9331
-0.6959 2.5604 0.9332
-0.7872 2.5337 0.9334
-0.8774 2.5038 0.9335
-2.4643 6.2994 2.3807
-2.6877 6.2055 2.3807
-2.9075 6.1036 2.3807
-3.1234 5.9937 2.3807
-3.3352 5.8761 2.3807
-3.5424 5.7509 2.3807
-3.7449 5.6183 2.3807
-3.9423 5.4785 2.3807
-4.1345 5.3317 2.3807
-4.3212 5.1780 2.3807
-4.5021 5.0177 2.3807
-4.6770 4.8510 2.3807
-4.8457 4.6781 2.3807
-5.0079 4.4993 2.3807
-5.1635 4.3149 2.3807
-5.3122 4.1249 2.3807
-5.4539 3.9299 2.3807
-5.5884 3.7299 2.3807
-5.7155 3.5252 2.3807
-5.8350 3.3162 2.3807
-5.9469 3.1032 2.3807
-6.0510 2.8863 2.3807
-6.1471 2.6659 2.3807
-6.2351 2.4423 2.3807
-6.3150 2.2158 2.3807
-6.3866 1.9867 2.3807
-6.4499 1.7553 2.3807
-6.5048 1.5218 2.3807
-6.5512 1.2867 2.3807
-6.5891 1.0502 2.3807
-6.6185 0.8126 2.3807
-6.6393 0.5742 2.3807
-6.6515 0.3354 2.3807
-6.6552 0.0964 2.3807
-6.6502 -0.1425 2.3807
-6.6367 -0.3808 2.3807
-6.6147 -0.6185 2.3807
-6.5843 -0.8550 2.3807
-6.5454 -1.0902 2.3807
-6.4981 -1.3237 2.3807
-6.4425 -1.5552 2.3807
-6.3787 -1.7845 2.3807
-6.3069 -2.0112 2.3807
-6.2270 -2.2352 2.3807
-6.1392 -2.4560 2.3807
-6.0436 -2.6734 2.3807
-5.9404 -2.8872 2.3807
-5.8297 -3.0970 2.3807
-5.7117 -3.3027 2.3807
-5.5864 -3.5040 2.3807
-5.4542 -3.7006 2.3807
-5.3151 -3.8922 2.3807
-5.1693 -4.0788 2.3807
-5.0171 -4.2599 2.3807
-4.8586 -4.4355 2.3807
-4.6940 -4.6052 2.3807
-4.5236 -4.7690 2.3807
-4.3475 -4.9265 2.3807
-4.1660 -5.0777 2.3807
-3.9793 -5.2222 2.3807
-3.7877 -5.3600 2.3807
-3.5914 -5.4909 2.3807
-3.3906 -5.6147 2.3807
-3.1856 -5.7313 2.3807
-2.9767 -5.8405 2.3807
-2.7641 -5.9423 2.3807
-2.5481 -6.0364 2.3807
-2.3289 -6.1228 2.3807
-2.1068 -6.2014 2.3807
-1.8821 -6.2721 2.3807
-1.6551 -6.3348 2.3807
-1.4261 -6.3894 2.3807
-1.1953 -6.4359 2.3807
-0.9630 -6.4741 2.3807
-0.7295 -6.5042 2.3807
-0.4951 -6.5259 2.3807
-0.2601 -6.5394 2.3807
-0.0248 -6.5445 2.3807
0.2106 -6.5413 2.3807
0.4457 -6.5298 2.3807
0.6802 -6.5100 2.3807
0.9140 -6.4820 2.3807
1.1466 -6.4456 2.3807
1.3778 -6.4011 2.3807
1.6073 -6.3484 2.3807
1.8349 -6.2876 2.3807
2.0602 -6.2187 2.3807
2.2830 -6.1420 2.3807
2.5029 -6.0574 2.3807
2.7198 -5.9650 2.3807
2.9333 -5.8650 2.3807
3.1432 -5.7574 2.3807
3.3492 -5.6425 2.3807
3.5510 -5.5203 2.3807
3.7485 -5.3910 2.3807
3.9413 -5.2547 2.3807
4.1293 -5.1116 2.3807
4.3121 -4.9619 2.3807
4.4895 -4.8058 2.3807
4.6613 -4.6433 2.3807
4.8274 -4.4748 2.3807
4.9874 -4.3005 2.3807
5.1412 -4.1205 2.3807
5.2885 -3.9350 2.3807
5.4292 -3.7444 2.3807
5.5631 -3.5487 2.3807
5.6901 -3.3484 2.3807
5.8098 -3.1435 2.3807
5.9223 -2.9344 2.3807
6.0272 -2.7213 2.3807
6.1246 -2.5046 2.3807
6.2141 -2.2843 2.3807
6.2959 -2.0609 2.3807
6.3696 -1.8346 2.3807
6.4352 -1.6056 2.3807
6.4926 -1.3744 2.3807
6.5417 -1.1411 2.3807
6.5825 -0.9061 2.3807
6.6148 -0.6696 2.3807
6.6387 -0.4320 2.3807
6.6540 -0.1936 2.3807
6.1964 -0.3885 2.3807
6.2100 -0.1659 2.3807
6.2156 0.0571 2.3807
6.2132 0.2803 2.3807
6.2027 0.5033 2.3807
6.1843 0.7260 2.3807
6.1578 0.9479 2.3807
6.1234 1.1689 2.3807
6.0810 1.3886 2.3807
6.0307 1.6068 2.3807
5.9725 1.8230 2.3807
5.9066 2.0372 2.3807
5.8329 2.2489 2.3807
5.7516 2.4580 2.3807
5.6628 2.6641 2.3807
5.5665 2.8669 2.3807
5.4629 3.0662 2.3807
5.3522 3.2617 2.3807
5.2344 3.4531 2.3807
5.1097 3.6403 2.3807
4.9782 3.8229 2.3807
4.8402 4.0006 2.3807
4.6958 4.1734 2.3807
4.5451 4.3408 2.3807
4.3884 4.5028 2.3807
4.2259 4.6589 2.3807
4.0578 4.8092 2.3807
3.8843 4.9533 2.3807
3.7056 5.0910 2.3807
3.5220 5.2222 2.3807
3.3336 5.3467 2.3807
3.1409 5.4643 2.3807
2.9439 5.5748 2.3807
2.7430 5.6781 2.3807
2.5384 5.7741 2.3807
0.9135 2.2979 0.9331
0.8307 2.3295 0.9331
0.7468 2.3580 0.9330
0.6619 2.3835 0.9330
0.5762 2.4060 0.9330
0.4897 2.4253 0.9330
0.4026 2.4415 0.9330
0.3149 2.4546 0.9330
0.2268 2.4644 0.9330
0.1384 2.4711 0.9330
0.0498 2.4746 0.9331
-0.0389 2.4749 0.9331
-0.1275 2.4720 0.9332
-0.2160 2.4659 0.9333
-0.3041 2.4566 0.9333
-0.3919 2.4442 0.9334
-0.4792 2.4285 0.9335
-0.5659 2.4098 0.9336
-0.6518 2.3879 0.9338
-0.7369 2.3629 0.9339
-0.8210 2.3349 0.9340
-0.9041 2.3038 0.9342
-2.5122 5.7834 2.3807
-2.7171 5.6882 2.3807
-2.9183 5.5857 2.3807
-3.1156 5.4759 2.3807
-3.3087 5.3591 2.3807
-3.4974 5.2354 2.3807
-3.6815 5.1049 2.3807
-3.8606 4.9679 2.3807
-4.0346 4.8245 2.3807
-4.2032 4.6750 2.3807
-4.3663 4.5195 2.3807
-4.5235 4.3582 2.3807
-4.6747 4.1914 2.3807
-4.8197 4.0194 2.3807
-4.9584 3.8422 2.3807
-5.0905 3.6602 2.3807
-5.2158 3.4737 2.3807
-5.3343 3.2828 2.3807
-5.4458 3.0878 2.3807
-5.5501 2.8891 2.3807
-5.6471 2.6868 2.3807
-5.7367 2.4812 2.3807
-5.8188 2.2726 2.3807
-5.8933 2.0613 2.3807
-5.9601 1.8476 2.3807
-6.0191 1.6317 2.3807
-6.0703 1.4139 2.3807
-6.1136 1.1945 2.3807
-6.1489 0.9738 2.3807
-6.1763 0.7521 2.3807
-6.1957 0.5297 2.3807
-6.2071 0.3069 2.3807
-6.2105 0.0838 2.3807
-6.2058 -0.1390 2.3807
-6.1932 -0.3615 2.3807
-6.1727 -0.5832 2.3807
-6.1442 -0.8040 2.3807
-6.1078 -1.0235 2.3807
-6.0637 -1.2414 2.3807
-6.0118 -1.4575 2.3807
-5.9522 -1.6715 2.3807
-5.8851 -1.8831 2.3807
-5.8105 -2.0922 2.3807
-5.7285 -2.2983 2.3807
-5.6392 -2.5012 2.3807
-5.5429 -2.7008 2.3807
-5.4395 -2.8967 2.3807
-5.3292 -3.0887 2.3807
-5.2122 -3.2766 2.3807
-5.0887 -3.4601 2.3807
-4.9588 -3.6390 2.3807
-4.8226 -3.8131 2.3807
-4.6804 -3.9822 2.3807
-4.5323 -4.1461 2.3807
-4.3786 -4.3046 2.3807
-4.2194 -4.4574 2.3807
-4.0549 -4.6045 2.3807
-3.8853 -4.7455 2.3807
-3.7109 -4.8804 2.3807
-3.5319 -5.0090 2.3807
-3.3484 -5.1312 2.3807
-3.1609 -5.2467 2.3807
-2.9693 -5.3555 2.3807
-2.7741 -5.4574 2.3807
-2.5755 -5.5523 2.3807
-2.3736 -5.6401 2.3807
-2.1688 -5.7206 2.3807
-1.9614 -5.7939 2.3807
-1.7514 -5.8597 2.3807
-1.5394 -5.9181 2.3807
-1.3254 -5.9689 2.3807
-1.1097 -6.0121 2.3807
-0.8927 -6.0476 2.3807
-0.6746 -6.0755 2.3807
-0.4556 -6.0956 2.3807
-0.2361 -6.1079 2.3807
-0.0163 -6.1125 2.3807
0.2036 -6.1092 2.3807
0.4232 -6.0982 2.3807
0.6423 -6.0795 2.3807
0.8606 -6.0529 2.3807
1.0778 -6.0187 2.3807
1.2937 -5.9768 2.3807
1.5081 -5.9273 2.3807
1.7205 -5.8702 2.3807
1.9309 -5.8056 2.3807
2.1389 -5.7336 2.3807
2.3442 -5.6543 2.3807
2.5466 -5.5677 2.3807
2.7459 -5.4740 2.3807
2.9418 -5.3732 2.3807
3.1340 -5.2656 2.3807
3.3223 -5.1511 2.3807
3.5066 -5.0301 2.3807
3.6864 -4.9025 2.3807
3.8617 -4.7685 2.3807
4.0321 -4.6284 2.3807
4.1976 -4.4823 2.3807
4.3578 -4.3303 2.3807
4.5125 -4.1727 2.3807
4.6616 -4.0096 2.3807
4.8049 -3.8413 2.3807
4.9422 -3.6678 2.3807
5.0732 -3.4896 2.3807
5.1979 -3.3067 2.3807
5.3160 -3.1194 2.3807
5.4274 -2.9279 2.3807
5.5320 -2.7325 2.3807
5.6296 -2.5334 2.3807
5.7201 -2.3308 2.3807
5.8032 -2.1250 2.3807
5.8791 -1.9163 2.3807
5.9475 -1.7049 2.3807
6.0082 -1.4911 2.3807
6.0614 -1.2752 2.3807
6.1068 -1.0573 2.3807
6.1444 -0.8379 2.3807
6.1741 -0.6172 2.3807
6.1959 -0.3954 2.3807
6.2097 -0.1728 2.3807
6.2155 0.0501 2.3807
6.2134 0.2733 2.3807
6.2032 0.4964 2.3807
6.1850 0.7191 2.3807
6.1588 0.9410 2.3807
6.1246 1.1620 2.3807
6.0824 1.3818 2.3807
6.0324 1.6000 2.3807
5.9744 1.8163 2.3807
5.9087 2.0306 2.3807
5.8353 2.2424 2.3807
5.7542 2.4515 2.3807
5.6657 2.6577 2.3807
5.5696 2.8606 2.3807
5.4663 3.0600 2.3807
5.3558 3.2556 2.3807
5.2382 3.4472 2.3807
5.1137 3.6345 2.3807
4.9824 3.8172 2.3807
4.8446 3.9952 2.3807
4.7004 4.1681 2.3807
4.5499 4.3357 2.3807
4.3934 4.4978 2.3807
4.2311 4.6542 2.3807
4.0631 4.8046 2.3807
3.8898 4.9489 2.3807
3.7112 5.0868 2.3807
3.5278 5.2182 2.3807
3.3396 5.3429 2.3807
3.1469 5.4607 2.3807
2.9501 5.5715 2.3807
2.7493 5.6750 2.3807
2.5449 5.7712 2.3807
0.9160 2.2969 0.9331
0.8333 2.3285 0.9331
0.7494 2.3572 0.9330
0.6646 2.3828 0.9330
0.5789 2.4053 0.9330
0.4924 2.4248 0.9330
0.4053 2.4411 0.9330
0.3176 2.4542 0.9330
0.2295 2.4642 0.9330
0.1411 2.4710 0.9330
0.0526 2.4746 0.9331
-0.0361 2.4750 0.9331
-0.1247 2.4722 0.9332
-0.2132 2.4662 0.9333
-0.3014 2.4570 0.9333
-0.3892 2.4446 0.9334
-0.4765 2.4291 0.9335
-0.5632 2.4104 0.9336
-0.6492 2.3886 0.9338
-0.7343 2.3637 0.9339
-0.8184 2.3358 0.9340
-0.9015 2.3048 0.9342
-2.5058 5.7862 2.3807
-2.7107 5.6913 2.3807
-2.9120 5.5890 2.3807
-3.1095 5.4794 2.3807
-3.3028 5.3628 2.3807
-3.4916 5.2393 2.3807
-3.6758 5.1091 2.3807
-3.8551 4.9723 2.3807
-4.0293 4.8291 2.3807
-4.1981 4.6797 2.3807
-4.3613 4.5244 2.3807
-4.5187 4.3633 2.3807
-4.6701 4.1967 2.3807
-4.8153 4.0248 2.3807
-4.9542 3.8478 2.3807
-5.0865 3.6660 2.3807
-5.2120 3.4796 2.3807
-5.3307 3.2888 2.3807
-5.4424 3.0940 2.3807
-5.5469 2.8953 2.3807
-5.6442 2.6931 2.3807
-5.7340 2.4877 2.3807
-5.8164 2.2792 2.3807
-5.8911 2.0679 2.3807
-5.9581 1.8543 2.3807
-6.0174 1.6384 2.3807
-6.0688 1.4207 2.3807
-6.1123 1.2014 2.3807
-6.1479 0.9807 2.3807
-6.1756 0.7591 2.3807
-6.1952 0.5367 2.3807
-6.2068 0.3138 2.3807
-6.2105 0.0908 2.3807
-6.2061 -0.1321 2.3807
-6.1937 -0.3546 2.3807
-6.1734 -0.5763 2.3807
-6.1452 -0.7971 2.3807
-6.1091 -1.0166 2.3807
-6.0652 -1.2346 2.3807
-6.0135 -1.4508 2.3807
-5.9542 -1.6649 2.3807
-5.8873 -1.8766 2.3807
-5.8129 -2.0857 2.3807
-5.7312 -2.2919 2.3807
-5.6421 -2.4949 2.3807
-5.5460 -2.6946 2.3807
-5.4428 -2.8906 2.3807
-5.3328 -3.0828 2.3807
-5.2160 -3.2708 2.3807
-5.0927 -3.4544 2.3807
-4.9629 -3.6335 2.3807
-4.8270 -3.8078 2.3807
-4.6849 -3.9770 2.3807
-4.5370 -4.1411 2.3807
-4.3835 -4.2997 2.3807
-4.2244 -4.4527 2.3807
-4.0601 -4.6000 2.3807
-3.8907 -4.7412 2.3807
-3.7164 -4.8763 2.3807
-3.5375 -5.0051 2.3807
-3.3542 -5.1275 2.3807
-3.1668 -5.2432 2.3807
-2.9754 -5.3522 2.3807
-2.7803 -5.4543 2.3807
-2.5817 -5.5494 2.3807
-2.3800 -5.6374 2.3807
-2.1753 -5.7182 2.3807
-1.9679 -5.7917 2.3807
-1.7580 -5.8578 2.3807
-1.5460 -5.9164 2.3807
-1.3321 -5.9674 2.3807
-1.1165 -6.0108 2.3807
-0.8995 -6.0466 2.3807
-0.6814 -6.0747 2.3807
-0.4625 -6.0950 2.3807
-0.2430 -6.1076 2.3807
-0.0231 -6.1124 2.3807
0.1967 -6.1094 2.3807
0.4163 -6.0987 2.3807
0.6354 -6.0802 2.3807
0.8538 -6.0539 2.3807
1.0711 -6.0199 2.3807
1.2870 -5.9783 2.3807
1.5014 -5.9290 2.3807
1.7139 -5.8721 2.3807
1.9244 -5.8078 2.3807
2.1324 -5.7360 2.3807
2.3378 -5.6569 2.3807
2.5403 -5.5705 2.3807
2.7397 -5.4770 2.3807
2.9357 -5.3765 2.3807
3.1281 -5.2690 2.3807
3.3165 -5.1548 2.3807
3.5009 -5.0339 2.3807
3.6809 -4.9066 2.3807
3.8563 -4.7728 2.3807
4.0269 -4.6329 2.3807
4.1925 -4.4870 2.3807
4.3529 -4.3352 2.3807
4.5078 -4.1777 2.3807
4.6571 -4.0148 2.3807
4.8005 -3.8466 2.3807
4.9380 -3.6733 2.3807
5.0692 -3.4952 2.3807
5.1941 -3.3124 2.3807
5.3124 -3.1253 2.3807
5.4241 -2.9339 2.3807
5.5289 -2.7386 2.3807
5.6267 -2.5396 2.3807
5.7173 -2.3372 2.3807
5.8008 -2.1315 2.3807
5.8768 -1.9229 2.3807
5.9454 -1.7115 2.3807
6.0065 -1.4978 2.3807
6.0598 -1.2819 2.3807
6.1055 -1.0641 2.3807
6.1433 -0.8448 2.3807
6.1733 -0.6241 2.3807
6.1953 -0.4023 2.3807
6.2094 -0.1798 2.3807
5.8021 -0.3629 2.3807
5.8147 -0.1545 2.3807
5.8197 0.0543 2.3807
5.8173 0.2632 2.3807
5.8073 0.4721 2.3807
5.7898 0.6805 2.3807
5.7649 0.8883 2.3807
5.7325 1.0951 2.3807
5.6926 1.3007 2.3807
5.6453 1.5049 2.3807
5.5907 1.7073 2.3807
5.5288 1.9077 2.3807
5.4597 2.1059 2.3807
5.3834 2.3015 2.3807
5.3001 2.4943 2.3807
5.2099 2.6840 2.3807
5.1128 2.8705 2.3807
5.0090 3.0533 2.3807
4.8986 3.2324 2.3807
4.7818 3.4075 2.3807
4.6586 3.5783 2.3807
4.5294 3.7445 2.3807
4.3941 3.9061 2.3807
4.2530 4.0627 2.3807
4.1063 4.2141 2.3807
3.9542 4.3601 2.3807
3.7968 4.5006 2.3807
3.6343 4.6354 2.3807
3.4671 4.7642 2.3807
3.2952 4.8868 2.3807
3.1190 5.0032 2.3807
2.9386 5.1131 2.3807
2.7542 5.2164 2.3807
2.5662 5.3130 2.3807
2.3748 5.4027 2.3807
0.8550 2.1513 0.9337
0.7775 2.1808 0.9336
0.6990 2.2075 0.9336
0.6196 2.2314 0.9335
0.5393 2.2524 0.9335
0.4584 2.2705 0.9335
0.3768 2.2856 0.9335
0.2947 2.2978 0.9335
0.2123 2.3071 0.9335
0.1295 2.3133 0.9336
0.0466 2.3166 0.9336
-0.0364 2.3168 0.9336
-0.1193 2.3141 0.9337
-0.2021 2.3084 0.9338
-0.2847 2.2997 0.9338
-0.3668 2.2880 0.9339
-0.4485 2.2734 0.9340
-0.5296 2.2558 0.9341
-0.6101 2.2354 0.9342
-0.6897 2.2120 0.9344
-0.7685 2.1857 0.9345
-0.8462 2.1567 0.9346
-2.3503 5.4115 2.3807
-2.5420 5.3226 2.3807
-2.7303 5.2267 2.3807
-2.9149 5.1241 2.3807
-3.0957 5.0149 2.3807
-3.2723 4.8992 2.3807
-3.4446 4.7772 2.3807
-3.6123 4.6492 2.3807
-3.7751 4.5151 2.3807
-3.9330 4.3753 2.3807
-4.0856 4.2299 2.3807
-4.2329 4.0791 2.3807
-4.3745 3.9231 2.3807
-4.5103 3.7622 2.3807
-4.6402 3.5965 2.3807
-4.7639 3.4263 2.3807
-4.8814 3.2518 2.3807
-4.9924 3.0732 2.3807
-5.0969 2.8909 2.3807
-5.1947 2.7049 2.3807
-5.2856 2.5156 2.3807
-5.3697 2.3233 2.3807
-5.4467 2.1281 2.3807
-5.5165 1.9304 2.3807
-5.5792 1.7303 2.3807
-5.6347 1.5283 2.3807
-5.6828 1.3245 2.3807
-5.7235 1.1191 2.3807
-5.7567 0.9125 2.3807
-5.7826 0.7050 2.3807
-5.8009 0.4968 2.3807
-5.8117 0.2881 2.3807
-5.8151 0.0793 2.3807
-5.8110 -0.1294 2.3807
-5.7993 -0.3377 2.3807
-5.7803 -0.5453 2.3807
-5.7538 -0.7521 2.3807
-5.7199 -0.9577 2.3807
-5.6788 -1.1618 2.3807
-5.6303 -1.3642 2.3807
-5.5748 -1.5647 2.3807
-5.5120 -1.7630 2.3807
-5.4423 -1.9588 2.3807
-5.3657 -2.1519 2.3807
-5.2822 -2.3421 2.3807
-5.1921 -2.5291 2.3807
-5.0954 -2.7127 2.3807
-4.9923 -2.8926 2.3807
-4.8828 -3.0687 2.3807
-4.7672 -3.2407 2.3807
-4.6456 -3.4084 2.3807
-4.5182 -3.5716 2.3807
-4.3850 -3.7301 2.3807
-4.2464 -3.8838 2.3807
-4.1024 -4.0323 2.3807
-3.9533 -4.1756 2.3807
-3.7993 -4.3135 2.3807
-3.6405 -4.4457 2.3807
-3.4771 -4.5722 2.3807
-3.3094 -4.6928 2.3807
-3.1376 -4.8074 2.3807
-2.9619 -4.9157 2.3807
-2.7825 -5.0177 2.3807
-2.5996 -5.1133 2.3807
-2.4135 -5.2022 2.3807
-2.2243 -5.2846 2.3807
-2.0325 -5.3601 2.3807
-1.8380 -5.4288 2.3807
-1.6413 -5.4906 2.3807
-1.4426 -5.5453 2.3807
-1.2420 -5.5930 2.3807
-1.0400 -5.6335 2.3807
-0.8366 -5.6668 2.3807
-0.6322 -5.6929 2.3807
-0.4270 -5.7118 2.3807
-0.2213 -5.7233 2.3807
-0.0152 -5.7276 2.3807
0.1908 -5.7246 2.3807
0.3966 -5.7142 2.3807
0.6019 -5.6966 2.3807
0.8065 -5.6718 2.3807
1.0101 -5.6397 2.3807
1.2124 -5.6004 2.3807
1.4133 -5.5539 2.3807
1.6124 -5.5004 2.3807
1.8095 -5.4398 2.3807
2.0044 -5.3722 2.3807
2.1967 -5.2978 2.3807
2.3864 -5.2166 2.3807
2.5731 -5.1287 2.3807
2.7566 -5.0342 2.3807
2.9367 -4.9333 2.3807
3.1131 -4.8259 2.3807
3.2857 -4.7124 2.3807
3.4541 -4.5928 2.3807
3.6183 -4.4672 2.3807
3.7780 -4.3358 2.3807
3.9329 -4.1988 2.3807
4.0829 -4.0563 2.3807
4.2278 -3.9085 2.3807
4.3674 -3.7557 2.3807
4.5015 -3.5978 2.3807
4.6299 -3.4353 2.3807
4.7526 -3.2682 2.3807
4.8692 -3.0968 2.3807
4.9797 -2.9212 2.3807
5.0840 -2.7418 2.3807
5.1818 -2.5587 2.3807
5.2730 -2.3721 2.3807
5.3576 -2.1823 2.3807
5.4354 -1.9895 2.3807
5.5062 -1.7939 2.3807
5.5701 -1.5959 2.3807
5.6269 -1.3956 2.3807
5.6764 -1.1933 2.3807
5.7188 -0.9893 2.3807
5.7538 -0.7838 2.3807
5.7814 -0.5771 2.3807
5.8016 -0.3694 2.3807
5.8144 -0.1610 2.3807
5.8197 0.0478 2.3807
5.8175 0.2567 2.3807
5.8077 0.4656 2.3807
5.7905 0.6740 2.3807
5.7658 0.8818 2.3807
5.7336 1.0887 2.3807
5.6939 1.2944 2.3807
5.6469 1.4986 2.3807
5.5925 1.7010 2.3807
5.5308 1.9015 2.3807
5.4619 2.0997 2.3807
5.3859 2.2954 2.3807
5.3028 2.4883 2.3807
5.2128 2.6781 2.3807
5.1159 2.8647 2.3807
5.0123 3.0477 2.3807
4.9021 3.2269 2.3807
4.7855 3.4021 2.3807
4.6626 3.5730 2.3807
4.5335 3.7394 2.3807
4.3984 3.9011 2.3807
4.2575 4.0579 2.3807
4.1110 4.2094 2.3807
3.9590 4.3557 2.3807
3.8018 4.4963 2.3807
3.6395 4.6313 2.3807
3.4724 4.7602 2.3807
3.3006 4.8831 2.3807
3.1245 4.9997 2.3807
2.9442 5.1098 2.3807
2.7600 5.2133 2.3807
2.5722 5.3101 2.3807
2.3809 5.4000 2.3807
0.8574 2.1503 0.9337
0.7800 2.1799 0.9336
0.7015 2.2067 0.9336
0.6221 2.2307 0.9335
0.5419 2.2518 0.9335
0.4609 2.2699 0.9335
0.3794 2.2852 0.9335
0.2973 2.2975 0.9335
0.2149 2.3068 0.9335
0.1321 2.3132 0.9336
0.0492 2.3165 0.9336
-0.0338 2.3169 0.9336
-0.1167 2.3142 0.9337
-0.1995 2.3086 0.9338
-0.2821 2.3000 0.9338
-0.3643 2.2884 0.9339
-0.4460 2.2739 0.9340
-0.5271 2.2564 0.9341
-0.6076 2.2360 0.9342
-0.6872 2.2128 0.9344
-0.7660 2.1866 0.9345
-0.8438 2.1576 0.9346
-2.3443 5.4142 2.3807
-2.5360 5.3254 2.3807
-2.7244 5.2298 2.3807
-2.9092 5.1274 2.3807
-3.0901 5.0184 2.3807
-3.2669 4.9029 2.3807
-3.4393 4.7811 2.3807
-3.6071 4.6532 2.3807
-3.7701 4.5194 2.3807
-3.9282 4.3797 2.3807
-4.0810 4.2345 2.3807
-4.2284 4.0839 2.3807
-4.3701 3.9280 2.3807
-4.5062 3.7673 2.3807
-4.6362 3.6017 2.3807
-4.7602 3.4317 2.3807
-4.8778 3.2573 2.3807
-4.9890 3.0789 2.3807
-5.0937 2.8966 2.3807
-5.1917 2.7108 2.3807
-5.2829 2.5216 2.3807
-5.3671 2.3293 2.3807
-5.4444 2.1342 2.3807
-5.5145 1.9366 2.3807
-5.5774 1.7366 2.3807
-5.6330 1.5346 2.3807
-5.6814 1.3308 2.3807
-5.7223 1.1255 2.3807
-5.7558 0.9190 2.3807
-5.7819 0.7115 2.3807
-5.8004 0.5033 2.3807
-5.8115 0.2946 2.3807
-5.8151 0.0858 2.3807
-5.8112 -0.1229 2.3807
-5.7998 -0.3312 2.3807
-5.7810 -0.5389 2.3807
-5.7547 -0.7456 2.3807
-5.7211 -0.9513 2.3807
-5.6802 -1.1554 2.3807
-5.6320 -1.3579 2.3807
-5.5766 -1.5585 2.3807
-5.5141 -1.7568 2.3807
-5.4446 -1.9527 2.3807
-5.3682 -2.1459 2.3807
-5.2850 -2.3362 2.3807
-5.1950 -2.5233 2.3807
-5.0985 -2.7070 2.3807
-4.9956 -2.8870 2.3807
-4.8863 -3.0633 2.3807
-4.7709 -3.2354 2.3807
-4.6495 -3.4032 2.3807
-4.5222 -3.5666 2.3807
-4.3893 -3.7253 2.3807
-4.2508 -3.8790 2.3807
-4.1070 -4.0278 2.3807
-3.9581 -4.1712 2.3807
-3.8042 -4.3093 2.3807
-3.6455 -4.4417 2.3807
-3.4823 -4.5684 2.3807
-3.3147 -4.6891 2.3807
-3.1430 -4.8039 2.3807
-2.9674 -4.9124 2.3807
-2.7881 -5.0146 2.3807
-2.6053 -5.1104 2.3807
-2.4193 -5.1996 2.3807
-2.2303 -5.2821 2.3807
-2.0385 -5.3579 2.3807
-1.8441 -5.4268 2.3807
-1.6475 -5.4887 2.3807
-1.4488 -5.5437 2.3807
-1.2483 -5.5916 2.3807
-1.0463 -5.6323 2.3807
-0.8430 -5.6659 2.3807
-0.6386 -5.6922 2.3807
-0.4334 -5.7113 2.3807
-0.2277 -5.7231 2.3807
-0.0217 -5.7276 2.3807
0.1844 -5.7248 2.3807
0.3902 -5.7147 2.3807
0.5955 -5.6973 2.3807
0.8001 -5.6726 2.3807
1.0038 -5.6408 2.3807
1.2062 -5.6017 2.3807
1.4070 -5.5555 2.3807
1.6062 -5.5021 2.3807
1.8034 -5.4418 2.3807
1.9983 -5.3745 2.3807
2.1908 -5.3002 2.3807
2.3805 -5.2193 2.3807
2.5673 -5.1316 2.3807
2.7509 -5.0373 2.3807
