ply
format ascii 1.0
element vertex 2174
property float32 x
property float32 y
property float32 z
end_header
-7.6650 -1.2221 2.3874
-7.6163 -1.4969 2.3874
-7.5579 -1.7697 2.3874
-7.4896 -2.0403 2.3874
-7.4117 -2.3083 2.3874
-7.3242 -2.5733 2.3874
-7.2272 -2.8350 2.3874
-7.1209 -3.0930 2.3874
-7.0053 -3.3471 2.3874
-6.8807 -3.5968 2.3874
-6.7472 -3.8419 2.3874
-6.6050 -4.0821 2.3874
-6.4542 -4.3170 2.3874
-6.2950 -4.5463 2.3874
-6.1277 -4.7698 2.3874
-5.9525 -4.9871 2.3874
-5.7696 -5.1980 2.3874
-5.5792 -5.4022 2.3874
-5.3816 -5.5994 2.3874
-5.1770 -5.7893 2.3874
-4.9657 -5.9718 2.3874
-4.7479 -6.1466 2.3874
-4.5241 -6.3134 2.3874
-4.2943 -6.4721 2.3874
-4.0590 -6.6224 2.3874
-3.8185 -6.7642 2.3874
-3.5730 -6.8972 2.3874
-3.3228 -7.0213 2.3874
-3.0684 -7.1364 2.3874
-2.8099 -7.2422 2.3874
-2.5479 -7.3386 2.3874
-2.2825 -7.4256 2.3874
-2.0142 -7.5029 2.3874
-1.7432 -7.5706 2.3874
-1.4700 -7.6284 2.3874
-1.1949 -7.6764 2.3874
-0.9183 -7.7145 2.3874
-0.6404 -7.7426 2.3874
-0.3617 -7.7607 2.3874
-0.0825 -7.7687 2.3874
0.1967 -7.7667 2.3874
0.4758 -7.7546 2.3874
0.7542 -7.7326 2.3874
1.0316 -7.7005 2.3874
1.3077 -7.6584 2.3874
1.5821 -7.6065 2.3874
1.8545 -7.5447 2.3874
2.1244 -7.4731 2.3874
2.3916 -7.3919 2.3874
2.6558 -7.3012 2.3874
2.9164 -7.2009 2.3874
3.1733 -7.0914 2.3874
3.4261 -6.9727 2.3874
3.6745 -6.8450 2.3874
3.9181 -6.7084 2.3874
4.1566 -6.5632 2.3874
4.3898 -6.4095 2.3874
4.6172 -6.2475 2.3874
4.8387 -6.0774 2.3874
5.0539 -5.8995 2.3874
5.2626 -5.7139 2.3874
5.4645 -5.5210 2.3874
5.6593 -5.3209 2.3874
5.8467 -5.1139 2.3874
6.0266 -4.9004 2.3874
6.1987 -4.6805 2.3874
6.3628 -4.4546 2.3874
6.5186 -4.2229 2.3874
6.6660 -3.9858 2.3874
6.8048 -3.7435 2.3874
6.9348 -3.4964 2.3874
7.0557 -3.2448 2.3874
7.1676 -2.9890 2.3874
7.2702 -2.7294 2.3874
7.3634 -2.4662 2.3874
7.4471 -2.1999 2.3874
7.5211 -1.9308 2.3874
7.5854 -1.6591 2.3874
7.6399 -1.3854 2.3874
7.6845 -1.1098 2.3874
7.7192 -0.8329 2.3874
7.7439 -0.5549 2.3874
7.7585 -0.2762 2.3874
7.7632 0.0029 2.3874
7.7578 0.2819 2.3874
7.7424 0.5606 2.3874
7.7170 0.8385 2.3874
7.6816 1.1153 2.3874
7.6363 1.3906 2.3874
7.5811 1.6641 2.3874
7.5162 1.9355 2.3874
7.4415 2.2043 2.3874
7.3572 2.4703 2.3874
7.2634 2.7330 2.3874
7.1602 2.9923 2.3874
7.0478 3.2476 2.3874
6.9263 3.4987 2.3874
6.7958 3.7453 2.3874
6.6566 3.9870 2.3874
6.5088 4.2236 2.3874
6.3526 4.4547 2.3874
6.1881 4.6800 2.3874
6.0157 4.8993 2.3874
5.8356 5.1122 2.3874
5.6479 5.3185 2.3874
5.4529 5.5179 2.3874
5.2509 5.7102 2.3874
5.0421 5.8951 2.3874
4.8268 6.0724 2.3874
4.6052 6.2418 2.3874
4.3778 6.4032 2.3874
4.1447 6.5562 2.3874
3.9063 6.7008 2.3874
3.6628 6.8368 2.3874
3.4146 6.9639 2.3874
3.1620 7.0820 2.3874
2.9053 7.1909 2.3874
2.6449 7.2906 2.3874
2.3811 7.3808 2.3874
0.8406 2.9667 0.9492
0.7335 2.9954 0.9494
0.6254 3.0202 0.9495
0.5165 3.0411 0.9496
0.4069 3.0580 0.9497
0.2968 3.0709 0.9498
0.1862 3.0798 0.9499
0.0754 3.0847 0.9500
-0.0356 3.0856 0.9500
-0.1465 3.0825 0.9501
-0.2572 3.0753 0.9501
-0.3676 3.0641 0.9501
-0.4775 3.0489 0.9501
-0.5868 3.0298 0.9501
-0.6953 3.0067 0.9501
-0.8029 2.9796 0.9501
-2.2855 7.4102 2.3874
-2.5504 7.3233 2.3874
-2.8120 7.2269 2.3874
-3.0700 7.1212 2.3874
-3.3240 7.0063 2.3874
-3.5738 6.8823 2.3874
-3.8189 6.7495 2.3874
-4.0591 6.6079 2.3874
-4.2941 6.4578 2.3874
-4.5235 6.2994 2.3874
-4.7471 6.1328 2.3874
-4.9646 5.9583 2.3874
-5.1756 5.7761 2.3874
-5.3800 5.5864 2.3874
-5.5774 5.3895 2.3874
-5.7677 5.1856 2.3874
-5.9505 4.9751 2.3874
-6.1256 4.7581 2.3874
-6.2928 4.5349 2.3874
-6.4519 4.3058 2.3874
-6.6027 4.0713 2.3874
-6.7450 3.8314 2.3874
-6.8785 3.5865 2.3874
-7.0032 3.3371 2.3874
-7.1188 3.0833 2.3874
-7.2253 2.8255 2.3874
-7.3224 2.5640 2.3874
-7.4100 2.2992 2.3874
-7.4881 2.0314 2.3874
-7.5565 1.7610 2.3874
-7.6152 1.4883 2.3874
-7.6640 1.2136 2.3874
-7.7029 0.9374 2.3874
-7.7319 0.6599 2.3874
-7.7509 0.3816 2.3874
-7.7598 0.1027 2.3874
-7.7588 -0.1763 2.3874
-7.7477 -0.4550 2.3874
-7.7266 -0.7333 2.3874
-7.6955 -1.0106 2.3874
-7.6545 -1.2865 2.3874
-7.6035 -1.5609 2.3874
-7.5428 -1.8333 2.3874
-7.4722 -2.1033 2.3874
-7.3920 -2.3706 2.3874
-7.3023 -2.6348 2.3874
-7.2031 -2.8957 2.3874
-7.0946 -3.1528 2.3874
-6.9770 -3.4059 2.3874
-6.8503 -3.6546 2.3874
-6.7147 -3.8986 2.3874
-6.5704 -4.1376 2.3874
-6.4177 -4.3712 2.3874
-6.2566 -4.5992 2.3874
-6.0874 -4.8212 2.3874
-5.9104 -5.0371 2.3874
-5.7257 -5.2464 2.3874
-5.5336 -5.4490 2.3874
-5.3343 -5.6445 2.3874
-5.1281 -5.8327 2.3874
-4.9153 -6.0134 2.3874
-4.6961 -6.1864 2.3874
-4.4708 -6.3513 2.3874
-4.2398 -6.5081 2.3874
-4.0032 -6.6564 2.3874
-3.7615 -6.7961 2.3874
-3.5148 -6.9271 2.3874
-3.2636 -7.0491 2.3874
-3.0082 -7.1620 2.3874
-2.7489 -7.2656 2.3874
-2.4861 -7.3598 2.3874
-2.2200 -7.4445 2.3874
-1.9510 -7.5196 2.3874
-1.6795 -7.5850 2.3874
-1.4058 -7.6405 2.3874
-1.1303 -7.6862 2.3874
-0.8533 -7.7220 2.3874
-0.5752 -7.7477 2.3874
-0.2964 -7.7634 2.3874
-0.0172 -7.7691 2.3874
0.2621 -7.7648 2.3874
0.5410 -7.7504 2.3874
0.8192 -7.7259 2.3874
1.0963 -7.6915 2.3874
1.3721 -7.6472 2.3874
1.6460 -7.5929 2.3874
1.9179 -7.5288 2.3874
2.1872 -7.4550 2.3874
2.4537 -7.3715 2.3874
2.7171 -7.2785 2.3874
1.6571 -6.9950 2.3874
1.9074 -6.9309 2.3874
2.1553 -6.8578 2.3874
2.4003 -6.7759 2.3874
2.6423 -6.6852 2.3874
2.8808 -6.5859 2.3874
3.1157 -6.4780 2.3874
3.3464 -6.3618 2.3874
3.5729 -6.2374 2.3874
3.7947 -6.1048 2.3874
4.0116 -5.9644 2.3874
4.2234 -5.8163 2.3874
4.4296 -5.6607 2.3874
4.6301 -5.4977 2.3874
4.8247 -5.3277 2.3874
5.0129 -5.1508 2.3874
5.1947 -4.9672 2.3874
5.3698 -4.7772 2.3874
5.5379 -4.5810 2.3874
5.6989 -4.3789 2.3874
5.8524 -4.1711 2.3874
5.9984 -3.9580 2.3874
6.1367 -3.7397 2.3874
6.2670 -3.5168 2.3874
6.3892 -3.2891 2.3874
6.5031 -3.0572 2.3874
6.6086 -2.8214 2.3874
6.7056 -2.5820 2.3874
6.7938 -2.3393 2.3874
6.8733 -2.0935 2.3874
6.9439 -1.8451 2.3874
7.0056 -1.5942 2.3874
7.0581 -1.3414 2.3874
7.1016 -1.0868 2.3874
7.1358 -0.8308 2.3874
7.1608 -0.5737 2.3874
7.1766 -0.3160 2.3874
7.1831 -0.0578 2.3874
7.1803 0.2004 2.3874
7.1682 0.4583 2.3874
7.1469 0.7157 2.3874
7.1164 0.9721 2.3874
7.0766 1.2272 2.3874
7.0277 1.4807 2.3874
6.9697 1.7323 2.3874
6.9027 1.9816 2.3874
6.8268 2.2284 2.3874
6.7421 2.4723 2.3874
6.6486 2.7129 2.3874
6.5466 2.9501 2.3874
6.4361 3.1834 2.3874
6.3174 3.4126 2.3874
6.1904 3.6373 2.3874
6.0555 3.8574 2.3874
5.9128 4.0725 2.3874
5.7624 4.2822 2.3874
5.6046 4.4865 2.3874
5.4395 4.6849 2.3874
5.2675 4.8773 2.3874
5.0886 5.0633 2.3874
4.9032 5.2428 2.3874
4.7114 5.4156 2.3874
4.5136 5.5813 2.3874
4.3100 5.7398 2.3874
4.1008 5.8909 2.3874
3.8863 6.0343 2.3874
3.6668 6.1700 2.3874
3.4425 6.2977 2.3874
3.2139 6.4173 2.3874
2.9811 6.5285 2.3874
2.7444 6.6313 2.3874
2.5042 6.7256 2.3874
0.8981 2.7057 0.9484
0.8004 2.7366 0.9485
0.7016 2.7640 0.9487
0.6018 2.7877 0.9488
0.5013 2.8079 0.9489
0.4000 2.8243 0.9490
0.2983 2.8371 0.9491
0.1961 2.8462 0.9492
0.0937 2.8516 0.9492
-0.0089 2.8533 0.9493
-0.1114 2.8512 0.9493
-0.2139 2.8455 0.9494
-0.3160 2.8360 0.9494
-0.4178 2.8228 0.9494
-0.5190 2.8060 0.9494
-0.6195 2.7855 0.9494
-0.7192 2.7613 0.9493
-0.8180 2.7336 0.9493
-2.3029 6.7963 2.3874
-2.5458 6.7091 2.3874
-2.7853 6.6133 2.3874
-3.0213 6.5090 2.3874
-3.2533 6.3962 2.3874
-3.4812 6.2752 2.3874
-3.7045 6.1461 2.3874
-3.9231 6.0090 2.3874
-4.1367 5.8642 2.3874
-4.3448 5.7118 2.3874
-4.5474 5.5520 2.3874
-4.7442 5.3850 2.3874
-4.9347 5.2111 2.3874
-5.1190 5.0304 2.3874
-5.2966 4.8432 2.3874
-5.4674 4.6498 2.3874
-5.6311 4.4504 2.3874
-5.7876 4.2452 2.3874
-5.9366 4.0345 2.3874
-6.0779 3.8185 2.3874
-6.2114 3.5977 2.3874
-6.3368 3.3722 2.3874
-6.4541 3.1423 2.3874
-6.5631 2.9083 2.3874
-6.6635 2.6706 2.3874
-6.7554 2.4294 2.3874
-6.8386 2.1851 2.3874
-6.9129 1.9379 2.3874
-6.9783 1.6882 2.3874
-7.0347 1.4363 2.3874
-7.0820 1.1826 2.3874
-7.1201 0.9273 2.3874
-7.1491 0.6708 2.3874
-7.1688 0.4134 2.3874
-7.1792 0.1554 2.3874
-7.1804 -0.1027 2.3874
-7.1723 -0.3608 2.3874
-7.1549 -0.6184 2.3874
-7.1283 -0.8752 2.3874
-7.0925 -1.1309 2.3874
-7.0475 -1.3851 2.3874
-6.9933 -1.6376 2.3874
-6.9302 -1.8880 2.3874
-6.8580 -2.1359 2.3874
-6.7771 -2.3811 2.3874
-6.6873 -2.6232 2.3874
-6.5889 -2.8620 2.3874
-6.4820 -3.0971 2.3874
-6.3666 -3.3282 2.3874
-6.2431 -3.5550 2.3874
-6.1115 -3.7772 2.3874
-5.9720 -3.9945 2.3874
-5.8247 -4.2067 2.3874
-5.6699 -4.4135 2.3874
-5.5077 -4.6145 2.3874
-5.3385 -4.8097 2.3874
-5.1623 -4.9986 2.3874
-4.9794 -5.1810 2.3874
-4.7901 -5.3568 2.3874
-4.5946 -5.5256 2.3874
-4.3931 -5.6873 2.3874
-4.1860 -5.8417 2.3874
-3.9734 -5.9885 2.3874
-3.7557 -6.1276 2.3874
-3.5331 -6.2587 2.3874
-3.3059 -6.3818 2.3874
-3.0745 -6.4966 2.3874
-2.8390 -6.6030 2.3874
-2.5999 -6.7009 2.3874
-2.3574 -6.7902 2.3874
-2.1119 -6.8706 2.3874
-1.8636 -6.9422 2.3874
-1.6129 -7.0048 2.3874
-1.3602 -7.0583 2.3874
-1.1056 -7.1027 2.3874
-0.8496 -7.1379 2.3874
-0.5925 -7.1639 2.3874
-0.3347 -7.1806 2.3874
-0.0764 -7.1881 2.3874
0.1820 -7.1862 2.3874
0.4402 -7.1750 2.3874
0.6978 -7.1546 2.3874
0.9545 -7.1249 2.3874
1.2100 -7.0860 2.3874
1.4638 -7.0379 2.3874
1.7158 -6.9808 2.3874
1.9656 -6.9146 2.3874
2.2129 -6.8394 2.3874
2.4572 -6.7555 2.3874
2.6984 -6.6627 2.3874
2.9361 -6.5614 2.3874
3.1700 -6.4516 2.3874
3.3998 -6.3334 2.3874
3.6252 -6.2071 2.3874
3.8459 -6.0727 2.3874
4.0617 -5.9305 2.3874
4.2721 -5.7806 2.3874
4.4771 -5.6232 2.3874
4.6762 -5.4586 2.3874
4.8693 -5.2869 2.3874
5.0561 -5.1084 2.3874
5.2363 -4.9233 2.3874
5.4098 -4.7318 2.3874
5.5762 -4.5342 2.3874
5.7355 -4.3307 2.3874
5.8873 -4.1217 2.3874
6.0315 -3.9074 2.3874
6.1679 -3.6880 2.3874
6.2963 -3.4638 2.3874
6.4166 -3.2352 2.3874
6.5285 -3.0024 2.3874
6.6320 -2.7657 2.3874
6.7270 -2.5255 2.3874
6.8132 -2.2820 2.3874
6.8906 -2.0356 2.3874
6.9592 -1.7866 2.3874
7.0187 -1.5352 2.3874
7.0691 -1.2819 2.3874
7.1104 -1.0270 2.3874
7.1425 -0.7707 2.3874
7.1654 -0.5135 2.3874
7.1790 -0.2556 2.3874
7.1833 0.0026 2.3874
7.1783 0.2608 2.3874
7.1641 0.5186 2.3874
7.1406 0.7758 2.3874
7.1079 1.0319 2.3874
7.0660 1.2867 2.3874
7.0149 1.5398 2.3874
6.9548 1.7909 2.3874
6.8857 2.0396 2.3874
6.8077 2.2858 2.3874
6.7210 2.5289 2.3874
6.6255 2.7688 2.3874
6.5215 3.0050 2.3874
6.4091 3.2374 2.3874
6.2884 3.4656 2.3874
6.1596 3.6893 2.3874
6.0228 3.9082 2.3874
5.8782 4.1220 2.3874
5.7261 4.3305 2.3874
5.5666 4.5334 2.3874
5.3999 4.7305 2.3874
5.2262 4.9214 2.3874
5.0458 5.1059 2.3874
4.8589 5.2839 2.3874
4.6657 5.4550 2.3874
4.4665 5.6190 2.3874
4.2615 5.7758 2.3874
4.0510 5.9251 2.3874
3.8353 6.0668 2.3874
3.6147 6.2006 2.3874
3.3894 6.3264 2.3874
3.1597 6.4440 2.3874
2.9260 6.5533 2.3874
2.6885 6.6542 2.3874
2.4475 6.7464 2.3874
0.8753 2.7133 0.9484
0.7773 2.7433 0.9486
0.6783 2.7699 0.9487
0.5783 2.7928 0.9488
0.4776 2.8120 0.9489
0.3763 2.8277 0.9490
0.2744 2.8396 0.9491
0.1722 2.8478 0.9492
0.0697 2.8523 0.9492
-0.0329 2.8531 0.9493
-0.1354 2.8502 0.9493
-0.2378 2.8436 0.9494
-0.3399 2.8332 0.9494
-0.4415 2.8192 0.9494
-0.5426 2.8015 0.9494
-0.6429 2.7801 0.9494
-0.7424 2.7551 0.9493
-0.8409 2.7266 0.9493
-2.3600 6.7767 2.3874
-2.6021 6.6875 2.3874
-2.8409 6.5897 2.3874
-3.0759 6.4833 2.3874
-3.3070 6.3686 2.3874
-3.5339 6.2457 2.3874
-3.7561 6.1147 2.3874
-3.9736 5.9758 2.3874
-4.1859 5.8292 2.3874
-4.3928 5.6750 2.3874
-4.5940 5.5135 2.3874
-4.7893 5.3449 2.3874
-4.9784 5.1694 2.3874
-5.1611 4.9872 2.3874
-5.3372 4.7985 2.3874
-5.5063 4.6037 2.3874
-5.6684 4.4028 2.3874
-5.8231 4.1963 2.3874
-5.9703 3.9844 2.3874
-6.1098 3.7673 2.3874
-6.2415 3.5453 2.3874
-6.3650 3.3187 2.3874
-6.4804 3.0879 2.3874
-6.5873 2.8530 2.3874
-6.6858 2.6145 2.3874
-6.7757 2.3725 2.3874
-6.8568 2.1275 2.3874
-6.9290 1.8797 2.3874
-6.9923 1.6295 2.3874
-7.0466 1.3771 2.3874
-7.0917 1.1230 2.3874
-7.1277 0.8673 2.3874
-7.1545 0.6106 2.3874
-7.1721 0.3530 2.3874
-7.1803 0.0950 2.3874
-7.1793 -0.1632 2.3874
-7.1691 -0.4211 2.3874
-7.1495 -0.6786 2.3874
-7.1207 -0.9351 2.3874
-7.0827 -1.1905 2.3874
-7.0356 -1.4444 2.3874
-6.9794 -1.6964 2.3874
-6.9141 -1.9462 2.3874
-6.8399 -2.1935 2.3874
-6.7568 -2.4381 2.3874
-6.6650 -2.6794 2.3874
-6.5646 -2.9174 2.3874
-6.4557 -3.1515 2.3874
-6.3385 -3.3816 2.3874
-6.2130 -3.6074 2.3874
-6.0795 -3.8285 2.3874
-5.9382 -4.0446 2.3874
-5.7891 -4.2556 2.3874
-5.6326 -4.4611 2.3874
-5.4688 -4.6607 2.3874
-5.2979 -4.8544 2.3874
-5.1201 -5.0418 2.3874
-4.9357 -5.2228 2.3874
-4.7449 -5.3969 2.3874
-4.5480 -5.5641 2.3874
-4.3452 -5.7241 2.3874
-4.1367 -5.8767 2.3874
-3.9229 -6.0217 2.3874
-3.7040 -6.1590 2.3874
-3.4803 -6.2883 2.3874
-3.2521 -6.4094 2.3874
-3.0197 -6.5223 2.3874
-2.7834 -6.6267 2.3874
-2.5435 -6.7226 2.3874
-2.3002 -6.8098 2.3874
-2.0540 -6.8882 2.3874
-1.8052 -6.9576 2.3874
-1.5539 -7.0181 2.3874
-1.3007 -7.0695 2.3874
-1.0458 -7.1118 2.3874
-0.7895 -7.1448 2.3874
-0.5322 -7.1686 2.3874
-0.2742 -7.1832 2.3874
-0.0159 -7.1884 2.3874
0.2425 -7.1844 2.3874
0.5005 -7.1711 2.3874
0.7580 -7.1485 2.3874
1.0144 -7.1166 2.3874
1.2695 -7.0756 2.3874
1.5230 -7.0254 2.3874
1.7745 -6.9661 2.3874
2.0237 -6.8978 2.3874
2.2703 -6.8206 2.3874
2.5140 -6.7345 2.3874
1.5402 -6.5017 2.3874
1.7729 -6.4421 2.3874
2.0033 -6.3742 2.3874
2.2311 -6.2981 2.3874
2.4560 -6.2138 2.3874
2.6777 -6.1215 2.3874
2.8959 -6.0212 2.3874
3.1104 -5.9132 2.3874
3.3209 -5.7975 2.3874
3.5271 -5.6744 2.3874
3.7287 -5.5439 2.3874
3.9255 -5.4062 2.3874
4.1172 -5.2615 2.3874
4.3036 -5.1101 2.3874
4.4845 -4.9520 2.3874
4.6595 -4.7876 2.3874
4.8284 -4.6169 2.3874
4.9911 -4.4403 2.3874
5.1474 -4.2580 2.3874
5.2970 -4.0702 2.3874
5.4398 -3.8771 2.3874
5.5755 -3.6790 2.3874
5.7040 -3.4761 2.3874
5.8251 -3.2688 2.3874
5.9387 -3.0572 2.3874
6.0446 -2.8417 2.3874
6.1427 -2.6226 2.3874
6.2328 -2.4000 2.3874
6.3149 -2.1744 2.3874
6.3888 -1.9460 2.3874
6.4544 -1.7150 2.3874
6.5117 -1.4819 2.3874
6.5606 -1.2469 2.3874
6.6010 -1.0102 2.3874
6.6328 -0.7723 2.3874
6.6561 -0.5334 2.3874
6.6708 -0.2938 2.3874
6.6768 -0.0538 2.3874
6.6743 0.1862 2.3874
6.6630 0.4260 2.3874
6.6432 0.6652 2.3874
6.6148 0.9035 2.3874
6.5779 1.1407 2.3874
6.5324 1.3763 2.3874
6.4785 1.6102 2.3874
6.4163 1.8420 2.3874
6.3458 2.0713 2.3874
6.2670 2.2980 2.3874
6.1802 2.5217 2.3874
6.0853 2.7422 2.3874
5.9827 2.9591 2.3874
5.8723 3.1721 2.3874
5.7543 3.3810 2.3874
5.6289 3.5856 2.3874
5.4962 3.7855 2.3874
5.3564 3.9805 2.3874
5.2098 4.1704 2.3874
5.0563 4.3548 2.3874
4.8964 4.5336 2.3874
4.7302 4.7066 2.3874
4.5578 4.8735 2.3874
4.3796 5.0341 2.3874
4.1957 5.1881 2.3874
4.0064 5.3355 2.3874
3.8119 5.4759 2.3874
3.6126 5.6093 2.3874
3.4085 5.7354 2.3874
3.2001 5.8541 2.3874
2.9875 5.9652 2.3874
2.7711 6.0687 2.3874
2.5511 6.1642 2.3874
0.9240 2.4817 0.9477
0.8344 2.5136 0.9478
0.7435 2.5423 0.9480
0.6518 2.5677 0.9481
0.5591 2.5898 0.9482
0.4657 2.6084 0.9483
0.3716 2.6237 0.9484
0.2771 2.6356 0.9485
0.1822 2.6440 0.9485
0.0870 2.6490 0.9486
-0.0083 2.6506 0.9487
-0.1035 2.6487 0.9487
-0.1987 2.6433 0.9487
-0.2936 2.6345 0.9487
-0.3881 2.6223 0.9487
-0.4821 2.6066 0.9487
-0.5755 2.5875 0.9487
-0.6681 2.5651 0.9487
-0.7599 2.5394 0.9487
-0.8506 2.5103 0.9486
-2.3665 6.2366 2.3874
-2.5892 6.1476 2.3874
-2.8085 6.0506 2.3874
-3.0242 5.9457 2.3874
-3.2360 5.8332 2.3874
-3.4437 5.7132 2.3874
-3.6468 5.5858 2.3874
-3.8453 5.4511 2.3874
-4.0389 5.3095 2.3874
-4.2272 5.1609 2.3874
-4.4100 5.0057 2.3874
-4.5872 4.8440 2.3874
-4.7584 4.6761 2.3874
-4.9235 4.5021 2.3874
-5.0823 4.3223 2.3874
-5.2345 4.1369 2.3874
-5.3799 3.9461 2.3874
-5.5184 3.7502 2.3874
-5.6498 3.5495 2.3874
-5.7738 3.3442 2.3874
-5.8904 3.1346 2.3874
-5.9995 2.9209 2.3874
-6.1007 2.7034 2.3874
-6.1941 2.4824 2.3874
-6.2795 2.2582 2.3874
-6.3568 2.0311 2.3874
-6.4259 1.8013 2.3874
-6.4867 1.5692 2.3874
-6.5390 1.3351 2.3874
-6.5830 1.0992 2.3874
-6.6184 0.8619 2.3874
-6.6453 0.6235 2.3874
-6.6637 0.3842 2.3874
-6.6733 0.1444 2.3874
-6.6744 -0.0955 2.3874
-6.6669 -0.3354 2.3874
-6.6507 -0.5748 2.3874
-6.6260 -0.8135 2.3874
-6.5926 -1.0512 2.3874
-6.5508 -1.2875 2.3874
-6.5005 -1.5222 2.3874
-6.4417 -1.7549 2.3874
-6.3747 -1.9854 2.3874
-6.2994 -2.2133 2.3874
-6.2159 -2.4384 2.3874
-6.1245 -2.6603 2.3874
-6.0251 -2.8788 2.3874
-5.9179 -3.0936 2.3874
-5.8030 -3.3044 2.3874
-5.6807 -3.5110 2.3874
-5.5509 -3.7130 2.3874
-5.4141 -3.9102 2.3874
-5.2702 -4.1024 2.3874
-5.1194 -4.2893 2.3874
-4.9621 -4.4706 2.3874
-4.7983 -4.6462 2.3874
-4.6284 -4.8158 2.3874
-4.4524 -4.9791 2.3874
-4.2706 -5.1361 2.3874
-4.0834 -5.2864 2.3874
-3.8908 -5.4298 2.3874
-3.6932 -5.5663 2.3874
-3.4908 -5.6955 2.3874
-3.2839 -5.8174 2.3874
-3.0728 -5.9318 2.3874
-2.8577 -6.0385 2.3874
-2.6388 -6.1375 2.3874
-2.4166 -6.2284 2.3874
-2.1912 -6.3114 2.3874
-1.9630 -6.3861 2.3874
-1.7322 -6.4526 2.3874
-1.4992 -6.5108 2.3874
-1.2642 -6.5606 2.3874
-1.0276 -6.6018 2.3874
-0.7897 -6.6346 2.3874
-0.5507 -6.6587 2.3874
-0.3110 -6.6743 2.3874
-0.0710 -6.6812 2.3874
0.1692 -6.6794 2.3874
0.4092 -6.6691 2.3874
0.6486 -6.6501 2.3874
0.8872 -6.6225 2.3874
1.1246 -6.5863 2.3874
1.3606 -6.5416 2.3874
1.5948 -6.4885 2.3874
1.8270 -6.4270 2.3874
2.0568 -6.3571 2.3874
2.2840 -6.2791 2.3874
2.5081 -6.1929 2.3874
2.7291 -6.0987 2.3874
2.9465 -5.9966 2.3874
3.1601 -5.8868 2.3874
3.3696 -5.7694 2.3874
3.5747 -5.6445 2.3874
3.7752 -5.5123 2.3874
3.9709 -5.3730 2.3874
4.1614 -5.2267 2.3874
4.3465 -5.0737 2.3874
4.5259 -4.9141 2.3874
4.6995 -4.7482 2.3874
4.8671 -4.5761 2.3874
5.0283 -4.3982 2.3874
5.1830 -4.2145 2.3874
5.3311 -4.0254 2.3874
5.4722 -3.8311 2.3874
5.6062 -3.6319 2.3874
5.7330 -3.4280 2.3874
5.8524 -3.2196 2.3874
5.9642 -3.0071 2.3874
6.0683 -2.7908 2.3874
6.1645 -2.5708 2.3874
6.2528 -2.3475 2.3874
6.3329 -2.1212 2.3874
6.4049 -1.8921 2.3874
6.4686 -1.6607 2.3874
6.5239 -1.4271 2.3874
6.5708 -1.1916 2.3874
6.6092 -0.9546 2.3874
6.6391 -0.7164 2.3874
6.6603 -0.4773 2.3874
6.6730 -0.2376 2.3874
6.6770 0.0024 2.3874
6.6724 0.2424 2.3874
6.6592 0.4820 2.3874
6.6374 0.7210 2.3874
6.6069 0.9591 2.3874
6.5680 1.1960 2.3874
6.5206 1.4312 2.3874
6.4647 1.6646 2.3874
6.4005 1.8959 2.3874
6.3280 2.1246 2.3874
6.2474 2.3507 2.3874
6.1587 2.5736 2.3874
6.0620 2.7933 2.3874
5.9575 3.0093 2.3874
5.8453 3.2214 2.3874
5.7256 3.4293 2.3874
5.5985 3.6328 2.3874
5.4641 3.8316 2.3874
5.3227 4.0254 2.3874
5.1744 4.2140 2.3874
5.0195 4.3972 2.3874
4.8581 4.5747 2.3874
4.6904 4.7462 2.3874
4.5166 4.9116 2.3874
4.3370 5.0707 2.3874
4.1519 5.2232 2.3874
3.9613 5.3689 2.3874
3.7657 5.5078 2.3874
3.5652 5.6394 2.3874
3.3601 5.7638 2.3874
3.1507 5.8808 2.3874
2.9372 5.9901 2.3874
2.7199 6.0917 2.3874
2.4992 6.1855 2.3874
0.9032 2.4895 0.9477
0.8132 2.5207 0.9479
0.7222 2.5486 0.9480
0.6301 2.5732 0.9481
0.5373 2.5944 0.9482
0.4437 2.6123 0.9483
0.3496 2.6268 0.9484
0.2549 2.6379 0.9485
0.1599 2.6455 0.9486
0.0647 2.6497 0.9486
-0.0305 2.6504 0.9487
-0.1258 2.6477 0.9487
-0.2209 2.6415 0.9487
-0.3157 2.6319 0.9487
-0.4101 2.6189 0.9487
-0.5040 2.6024 0.9487
-0.5972 2.5826 0.9487
-0.6897 2.5594 0.9487
-0.7812 2.5329 0.9487
-0.8717 2.5030 0.9486
-2.4189 6.2165 2.3874
-2.6408 6.1256 2.3874
-2.8593 6.0267 2.3874
-3.0741 5.9201 2.3874
-3.2850 5.8058 2.3874
-3.4916 5.6840 2.3874
-3.6937 5.5549 2.3874
-3.8911 5.4186 2.3874
-4.0834 5.2753 2.3874
-4.2704 5.1252 2.3874
-4.4520 4.9684 2.3874
-4.6278 4.8053 2.3874
-4.7976 4.6359 2.3874
-4.9613 4.4605 2.3874
-5.1185 4.2794 2.3874
-5.2691 4.0927 2.3874
-5.4129 3.9007 2.3874
-5.5498 3.7037 2.3874
-5.6795 3.5019 2.3874
-5.8018 3.2955 2.3874
-5.9166 3.0849 2.3874
-6.0239 2.8703 2.3874
-6.1233 2.6520 2.3874
-6.2148 2.4302 2.3874
-6.2983 2.2053 2.3874
-6.3737 1.9776 2.3874
-6.4409 1.7472 2.3874
-6.4997 1.5146 2.3874
-6.5501 1.2800 2.3874
-6.5920 1.0438 2.3874
-6.6255 0.8062 2.3874
-6.6504 0.5675 2.3874
-6.6667 0.3281 2.3874
-6.6744 0.0883 2.3874
-6.6734 -0.1517 2.3874
-6.6639 -0.3915 2.3874
-6.6457 -0.6308 2.3874
-6.6189 -0.8693 2.3874
-6.5836 -1.1066 2.3874
-6.5398 -1.3426 2.3874
-6.4875 -1.5769 2.3874
-6.4268 -1.8091 2.3874
-6.3578 -2.0390 2.3874
-6.2806 -2.2663 2.3874
-6.1953 -2.4906 2.3874
-6.1019 -2.7118 2.3874
-6.0007 -2.9294 2.3874
-5.8917 -3.1433 2.3874
-5.7750 -3.3531 2.3874
-5.6510 -3.5586 2.3874
-5.5196 -3.7596 2.3874
-5.3810 -3.9556 2.3874
-5.2355 -4.1466 2.3874
-5.0832 -4.3322 2.3874
-4.9243 -4.5122 2.3874
-4.7591 -4.6864 2.3874
-4.5877 -4.8546 2.3874
-4.4104 -5.0164 2.3874
-4.2273 -5.1718 2.3874
-4.0388 -5.3206 2.3874
-3.8450 -5.4624 2.3874
-3.6463 -5.5972 2.3874
-3.4428 -5.7247 2.3874
-3.2349 -5.8449 2.3874
-3.0228 -5.9575 2.3874
-2.8068 -6.0624 2.3874
-2.5871 -6.1595 2.3874
-2.3641 -6.2486 2.3874
-2.1380 -6.3296 2.3874
-1.9092 -6.4024 2.3874
-1.6778 -6.4670 2.3874
-1.4443 -6.5232 2.3874
-1.2090 -6.5710 2.3874
-0.9720 -6.6103 2.3874
-0.7338 -6.6410 2.3874
-0.4947 -6.6631 2.3874
-0.2549 -6.6766 2.3874
-0.0148 -6.6815 2.3874
0.2254 -6.6778 2.3874
0.4652 -6.6654 2.3874
0.7045 -6.6444 2.3874
0.9429 -6.6148 2.3874
1.1800 -6.5766 2.3874
1.4156 -6.5300 2.3874
1.6494 -6.4748 2.3874
1.8810 -6.4114 2.3874
2.1102 -6.3396 2.3874
2.3367 -6.2596 2.3874
1.4372 -6.0669 2.3874
1.6543 -6.0113 2.3874
1.8693 -5.9480 2.3874
2.0819 -5.8769 2.3874
2.2917 -5.7983 2.3874
2.4986 -5.7121 2.3874
2.7023 -5.6186 2.3874
2.9024 -5.5178 2.3874
3.0989 -5.4099 2.3874
3.2913 -5.2949 2.3874
3.4794 -5.1732 2.3874
3.6630 -5.0447 2.3874
3.8419 -4.9097 2.3874
4.0159 -4.7684 2.3874
4.1846 -4.6209 2.3874
4.3479 -4.4675 2.3874
4.5056 -4.3083 2.3874
4.6574 -4.1435 2.3874
4.8032 -3.9733 2.3874
4.9429 -3.7980 2.3874
5.0761 -3.6179 2.3874
5.2027 -3.4330 2.3874
5.3226 -3.2437 2.3874
5.4356 -3.0503 2.3874
5.5417 -2.8529 2.3874
5.6405 -2.6518 2.3874
5.7320 -2.4473 2.3874
5.8161 -2.2396 2.3874
5.8927 -2.0291 2.3874
5.9617 -1.8159 2.3874
6.0230 -1.6004 2.3874
6.0764 -1.3829 2.3874
6.1220 -1.1635 2.3874
6.1597 -0.9427 2.3874
6.1895 -0.7207 2.3874
6.2112 -0.4977 2.3874
6.2249 -0.2742 2.3874
6.2306 -0.0502 2.3874
6.2282 0.1737 2.3874
6.2177 0.3975 2.3874
6.1992 0.6207 2.3874
6.1727 0.8431 2.3874
6.1383 1.0644 2.3874
6.0959 1.2843 2.3874
6.0456 1.5025 2.3874
5.9875 1.7188 2.3874
5.9217 1.9329 2.3874
5.8482 2.1444 2.3874
5.7672 2.3532 2.3874
5.6787 2.5589 2.3874
5.5829 2.7613 2.3874
5.4799 2.9601 2.3874
5.3698 3.1551 2.3874
5.2528 3.3460 2.3874
5.1290 3.5325 2.3874
4.9986 3.7145 2.3874
4.8617 3.8917 2.3874
4.7186 4.0638 2.3874
4.5693 4.2307 2.3874
4.4142 4.3921 2.3874
4.2533 4.5479 2.3874
4.0870 4.6977 2.3874
3.9154 4.8415 2.3874
3.7388 4.9790 2.3874
3.5573 5.1101 2.3874
3.3713 5.2345 2.3874
3.1809 5.3522 2.3874
2.9863 5.4630 2.3874
2.7880 5.5667 2.3874
2.5860 5.6633 2.3874
2.3807 5.7525 2.3874
0.8619 2.3147 0.9472
0.7782 2.3445 0.9473
0.6935 2.3713 0.9474
0.6079 2.3949 0.9476
0.5215 2.4155 0.9477
0.4343 2.4329 0.9478
0.3466 2.4471 0.9479
0.2585 2.4582 0.9479
0.1699 2.4660 0.9480
0.0812 2.4707 0.9481
-0.0077 2.4721 0.9481
-0.0966 2.4703 0.9481
-0.1853 2.4653 0.9482
-0.2738 2.4571 0.9482
-0.3620 2.4457 0.9482
-0.4496 2.4311 0.9482
-0.5367 2.4133 0.9482
-0.6231 2.3924 0.9481
-0.7087 2.3684 0.9481
-0.7934 2.3413 0.9481
-0.8770 2.3111 0.9480
-2.4162 5.7370 2.3874
-2.6209 5.6464 2.3874
-2.8222 5.5486 2.3874
-3.0199 5.4436 2.3874
-3.2136 5.3316 2.3874
-3.4033 5.2127 2.3874
-3.5885 5.0870 2.3874
-3.7691 4.9548 2.3874
-3.9448 4.8162 2.3874
-4.1155 4.6713 2.3874
-4.2808 4.5204 2.3874
-4.4406 4.3637 2.3874
-4.5947 4.2013 2.3874
-4.7428 4.0335 2.3874
-4.8848 3.8605 2.3874
-5.0205 3.6825 2.3874
-5.1498 3.4997 2.3874
-5.2723 3.3124 2.3874
-5.3881 3.1208 2.3874
-5.4969 2.9251 2.3874
-5.5987 2.7257 2.3874
-5.6932 2.5228 2.3874
-5.7803 2.3165 2.3874
-5.8600 2.1073 2.3874
-5.9321 1.8954 2.3874
-5.9966 1.6810 2.3874
-6.0533 1.4644 2.3874
-6.1021 1.2459 2.3874
-6.1431 1.0257 2.3874
-6.1762 0.8043 2.3874
-6.2013 0.5818 2.3874
-6.2184 0.3585 2.3874
-6.2274 0.1347 2.3874
-6.2284 -0.0892 2.3874
-6.2214 -0.3130 2.3874
-6.2063 -0.5365 2.3874
-6.1831 -0.7592 2.3874
-6.1520 -0.9810 2.3874
-6.1130 -1.2015 2.3874
-6.0660 -1.4205 2.3874
-6.0112 -1.6377 2.3874
-5.9486 -1.8528 2.3874
-5.8784 -2.0654 2.3874
-5.8005 -2.2755 2.3874
-5.7151 -2.4825 2.3874
-5.6223 -2.6864 2.3874
-5.5223 -2.8869 2.3874
-5.4151 -3.0836 2.3874
-5.3009 -3.2763 2.3874
-5.1799 -3.4648 2.3874
-5.0521 -3.6488 2.3874
-4.9178 -3.8282 2.3874
-4.7772 -4.0025 2.3874
-4.6304 -4.1718 2.3874
-4.4775 -4.3356 2.3874
-4.3189 -4.4938 2.3874
-4.1547 -4.6463 2.3874
-3.9851 -4.7927 2.3874
-3.8103 -4.9329 2.3874
-3.6307 -5.0668 2.3874
-3.4463 -5.1941 2.3874
-3.2574 -5.3148 2.3874
-3.0644 -5.4285 2.3874
-2.8673 -5.5352 2.3874
-2.6666 -5.6348 2.3874
-2.4624 -5.7271 2.3874
-2.2550 -5.8120 2.3874
-2.0446 -5.8894 2.3874
-1.8317 -5.9591 2.3874
-1.6163 -6.0212 2.3874
-1.3989 -6.0755 2.3874
-1.1797 -6.1219 2.3874
-0.9589 -6.1604 2.3874
-0.7369 -6.1909 2.3874
-0.5139 -6.2134 2.3874
-0.2902 -6.2279 2.3874
-0.0662 -6.2344 2.3874
0.1579 -6.2328 2.3874
0.3818 -6.2231 2.3874
0.6052 -6.2054 2.3874
0.8279 -6.1796 2.3874
1.0494 -6.1459 2.3874
1.2696 -6.1042 2.3874
1.4882 -6.0546 2.3874
1.7048 -5.9972 2.3874
1.9193 -5.9320 2.3874
2.1312 -5.8592 2.3874
2.3404 -5.7788 2.3874
2.5466 -5.6909 2.3874
2.7494 -5.5956 2.3874
2.9488 -5.4932 2.3874
3.1443 -5.3836 2.3874
3.3357 -5.2670 2.3874
3.5228 -5.1437 2.3874
3.7053 -5.0137 2.3874
3.8831 -4.8772 2.3874
4.0558 -4.7344 2.3874
4.2233 -4.5856 2.3874
4.3853 -4.4307 2.3874
4.5416 -4.2702 2.3874
4.6921 -4.1041 2.3874
4.8365 -3.9327 2.3874
4.9746 -3.7563 2.3874
5.1063 -3.5750 2.3874
5.2314 -3.3891 2.3874
5.3497 -3.1988 2.3874
5.4611 -3.0044 2.3874
5.5654 -2.8061 2.3874
5.6625 -2.6042 2.3874
5.7524 -2.3990 2.3874
5.8347 -2.1906 2.3874
5.9095 -1.9794 2.3874
5.9767 -1.7657 2.3874
6.0362 -1.5497 2.3874
6.0878 -1.3317 2.3874
6.1316 -1.1120 2.3874
6.1674 -0.8909 2.3874
6.1953 -0.6686 2.3874
6.2151 -0.4455 2.3874
6.2270 -0.2218 2.3874
6.2307 0.0022 2.3874
6.2265 0.2261 2.3874
6.2141 0.4498 2.3874
6.1938 0.6728 2.3874
6.1654 0.8950 2.3874
6.1291 1.1160 2.3874
6.0848 1.3355 2.3874
6.0327 1.5533 2.3874
5.9728 1.7691 2.3874
5.9052 1.9826 2.3874
5.8299 2.1935 2.3874
5.7472 2.4016 2.3874
5.6570 2.6066 2.3874
5.5595 2.8082 2.3874
5.4548 3.0061 2.3874
5.3431 3.2001 2.3874
5.2244 3.3900 2.3874
5.0991 3.5755 2.3874
4.9671 3.7564 2.3874
4.8288 3.9325 2.3874
4.6842 4.1034 2.3874
4.5335 4.2690 2.3874
4.3770 4.4291 2.3874
4.2149 4.5835 2.3874
4.0473 4.7319 2.3874
3.8745 4.8742 2.3874
3.6967 5.0103 2.3874
3.5142 5.1398 2.3874
3.3271 5.2627 2.3874
3.1357 5.3788 2.3874
2.9403 5.4879 2.3874
2.7410 5.5900 2.3874
2.5383 5.6848 2.3874
0.9252 2.2899 0.9471
0.8424 2.3220 0.9472
0.7585 2.3510 0.9474
0.6736 2.3771 0.9475
0.5877 2.4000 0.9476
0.5011 2.4198 0.9477
0.4139 2.4365 0.9478
0.3260 2.4500 0.9479
0.2378 2.4603 0.9479
0.1492 2.4674 0.9480
0.0604 2.4713 0.9481
-0.0285 2.4720 0.9481
-0.1173 2.4694 0.9481
-0.2060 2.4637 0.9482
-0.2945 2.4547 0.9482
-0.3825 2.4425 0.9482
-0.4701 2.4272 0.9482
-0.5570 2.4087 0.9482
-0.6432 2.3870 0.9481
-0.7286 2.3623 0.9481
-0.8130 2.3345 0.9481
-0.8964 2.3036 0.9480
-2.4644 5.7164 2.3874
-2.6683 5.6242 2.3874
-2.8688 5.5247 2.3874
-3.0656 5.4180 2.3874
-3.2584 5.3044 2.3874
-3.4470 5.1839 2.3874
-3.6312 5.0567 2.3874
-3.8107 4.9229 2.3874
-3.9852 4.7828 2.3874
-4.1546 4.6366 2.3874
-4.3187 4.4843 2.3874
-4.4772 4.3262 2.3874
-4.6299 4.1625 2.3874
-4.7766 3.9935 2.3874
-4.9171 3.8193 2.3874
-5.0514 3.6401 2.3874
-5.1791 3.4562 2.3874
-5.3001 3.2679 2.3874
-5.4142 3.0753 2.3874
-5.5214 2.8788 2.3874
-5.6214 2.6785 2.3874
-5.7142 2.4748 2.3874
-5.7996 2.2678 2.3874
-5.8775 2.0580 2.3874
-5.9479 1.8454 2.3874
-6.0105 1.6304 2.3874
-6.0654 1.4134 2.3874
-6.1124 1.1945 2.3874
-6.1516 0.9740 2.3874
-6.1828 0.7523 2.3874
-6.2060 0.5296 2.3874
-6.2212 0.3062 2.3874
-6.2284 0.0823 2.3874
-6.2275 -0.1416 2.3874
-6.2185 -0.3654 2.3874
-6.2016 -0.5887 2.3874
-6.1766 -0.8112 2.3874
-6.1436 -1.0327 2.3874
-6.1027 -1.2529 2.3874
-6.0539 -1.4715 2.3874
-5.9972 -1.6882 2.3874
-5.9329 -1.9028 2.3874
-5.8608 -2.1148 2.3874
-5.7811 -2.3242 2.3874
-5.6940 -2.5306 2.3874
-5.5996 -2.7337 2.3874
-5.4978 -2.9332 2.3874
-5.3890 -3.1290 2.3874
-5.2732 -3.3208 2.3874
-5.1506 -3.5083 2.3874
-5.0213 -3.6912 2.3874
-4.8855 -3.8694 2.3874
-4.7434 -4.0426 2.3874
-4.5951 -4.2106 2.3874
-4.4409 -4.3731 2.3874
-4.2810 -4.5300 2.3874
-4.1155 -4.6811 2.3874
-3.9446 -4.8261 2.3874
-3.7687 -4.9649 2.3874
-3.5879 -5.0972 2.3874
-3.4025 -5.2230 2.3874
-3.2126 -5.3420 2.3874
-3.0186 -5.4541 2.3874
-2.8207 -5.5592 2.3874
-2.6191 -5.6570 2.3874
-2.4141 -5.7476 2.3874
-2.2060 -5.8308 2.3874
-1.9950 -5.9064 2.3874
-1.7815 -5.9743 2.3874
-1.5656 -6.0346 2.3874
-1.3478 -6.0870 2.3874
-1.1281 -6.1316 2.3874
-0.9070 -6.1682 2.3874
-0.6848 -6.1969 2.3874
-0.4616 -6.2176 2.3874
-0.2378 -6.2302 2.3874
-0.0138 -6.2347 2.3874
0.2103 -6.2312 2.3874
0.4342 -6.2197 2.3874
0.6574 -6.2001 2.3874
0.8798 -6.1724 2.3874
1.1011 -6.1368 2.3874
1.3209 -6.0933 2.3874
1.5391 -6.0419 2.3874
1.7552 -5.9826 2.3874
1.9691 -5.9157 2.3874
2.1804 -5.8410 2.3874
1.3457 -5.6804 2.3874
1.5489 -5.6284 2.3874
1.7502 -5.5691 2.3874
1.9492 -5.5026 2.3874
2.1457 -5.4289 2.3874
2.3395 -5.3483 2.3874
2.5301 -5.2607 2.3874
2.7175 -5.1663 2.3874
2.9014 -5.0653 2.3874
3.0816 -4.9577 2.3874
3.2577 -4.8437 2.3874
3.4297 -4.7234 2.3874
3.5972 -4.5970 2.3874
3.7600 -4.4647 2.3874
3.9180 -4.3266 2.3874
4.0709 -4.1829 2.3874
4.2186 -4.0339 2.3874
4.3608 -3.8796 2.3874
4.4973 -3.7203 2.3874
4.6280 -3.5562 2.3874
4.7527 -3.3875 2.3874
4.8713 -3.2144 2.3874
4.9836 -3.0372 2.3874
5.0894 -2.8560 2.3874
5.1887 -2.6712 2.3874
5.2812 -2.4829 2.3874
5.3670 -2.2915 2.3874
5.4457 -2.0970 2.3874
5.5174 -1.8999 2.3874
5.5820 -1.7003 2.3874
5.6394 -1.4985 2.3874
5.6895 -1.2949 2.3874
5.7322 -1.0895 2.3874
5.7675 -0.8827 2.3874
5.7953 -0.6748 2.3874
5.8157 -0.4661 2.3874
5.8285 -0.2567 2.3874
5.8339 -0.0471 2.3874
5.8316 0.1626 2.3874
5.8218 0.3721 2.3874
5.8046 0.5811 2.3874
5.7798 0.7894 2.3874
5.7475 0.9966 2.3874
5.7078 1.2025 2.3874
5.6607 1.4068 2.3874
5.6064 1.6094 2.3874
5.5447 1.8098 2.3874
5.4759 2.0079 2.3874
5.4001 2.2034 2.3874
5.3173 2.3960 2.3874
5.2276 2.5855 2.3874
5.1311 2.7716 2.3874
5.0280 2.9542 2.3874
4.9185 3.1330 2.3874
4.8026 3.3077 2.3874
4.6804 3.4781 2.3874
4.5523 3.6440 2.3874
4.4182 3.8052 2.3874
4.2785 3.9614 2.3874
4.1332 4.1126 2.3874
3.9827 4.2584 2.3874
3.8269 4.3987 2.3874
3.6663 4.5333 2.3874
3.5009 4.6621 2.3874
3.3309 4.7848 2.3874
3.1567 4.9014 2.3874
2.9784 5.0116 2.3874
2.7963 5.1154 2.3874
2.6106 5.2125 2.3874
2.4215 5.3029 2.3874
0.8839 2.1358 0.9466
0.8067 2.1664 0.9468
0.7284 2.1943 0.9469
0.6491 2.2193 0.9470
0.5689 2.2414 0.9471
0.4880 2.2606 0.9472
0.4065 2.2769 0.9473
0.3244 2.2902 0.9474
0.2419 2.3006 0.9474
0.1590 2.3079 0.9475
0.0760 2.3123 0.9476
-0.0072 2.3136 0.9476
-0.0904 2.3119 0.9476
-0.1734 2.3072 0.9477
-0.2562 2.2995 0.9477
-0.3388 2.2888 0.9477
-0.4208 2.2752 0.9477
-0.5023 2.2586 0.9477
-0.5832 2.2390 0.9477
-0.6633 2.2165 0.9476
-0.7425 2.1911 0.9476
-0.8207 2.1629 0.9475
-0.8979 2.1319 0.9475
-2.4542 5.2871 2.3874
-2.6427 5.1955 2.3874
-2.8277 5.0972 2.3874
-3.0092 4.9923 2.3874
-3.1867 4.8810 2.3874
-3.3602 4.7633 2.3874
-3.5293 4.6395 2.3874
-3.6938 4.5097 2.3874
-3.8536 4.3740 2.3874
-4.0084 4.2328 2.3874
-4.1580 4.0860 2.3874
-4.3023 3.9339 2.3874
-4.4410 3.7768 2.3874
-4.5740 3.6148 2.3874
-4.7010 3.4481 2.3874
-4.8220 3.2769 2.3874
-4.9368 3.1015 2.3874
-5.0452 2.9221 2.3874
-5.1471 2.7390 2.3874
-5.2424 2.5522 2.3874
-5.3308 2.3622 2.3874
-5.4124 2.1691 2.3874
-5.4870 1.9732 2.3874
-5.5545 1.7747 2.3874
-5.6149 1.5739 2.3874
-5.6680 1.3711 2.3874
-5.7137 1.1665 2.3874
-5.7521 0.9604 2.3874
-5.7831 0.7530 2.3874
-5.8065 0.5447 2.3874
-5.8225 0.3356 2.3874
-5.8310 0.1261 2.3874
-5.8319 -0.0836 2.3874
-5.8253 -0.2931 2.3874
-5.8112 -0.5024 2.3874
-5.7895 -0.7109 2.3874
-5.7604 -0.9186 2.3874
-5.7238 -1.1251 2.3874
-5.6798 -1.3301 2.3874
-5.6285 -1.5335 2.3874
-5.5699 -1.7348 2.3874
-5.5041 -1.9340 2.3874
-5.4311 -2.1306 2.3874
-5.3512 -2.3245 2.3874
-5.2643 -2.5154 2.3874
-5.1706 -2.7031 2.3874
-5.0703 -2.8872 2.3874
-4.9633 -3.0677 2.3874
-4.8500 -3.2442 2.3874
-4.7304 -3.4165 2.3874
-4.6046 -3.5844 2.3874
-4.4729 -3.7477 2.3874
-4.3354 -3.9061 2.3874
-4.1923 -4.0595 2.3874
-4.0438 -4.2077 2.3874
-3.8901 -4.3504 2.3874
-3.7313 -4.4875 2.3874
-3.5676 -4.6188 2.3874
-3.3994 -4.7441 2.3874
-3.2267 -4.8633 2.3874
-3.0499 -4.9763 2.3874
-2.8691 -5.0828 2.3874
-2.6847 -5.1827 2.3874
-2.4967 -5.2759 2.3874
-2.3055 -5.3623 2.3874
-2.1113 -5.4418 2.3874
-1.9144 -5.5142 2.3874
-1.7150 -5.5796 2.3874
-1.5134 -5.6377 2.3874
-1.3098 -5.6885 2.3874
-1.1045 -5.7319 2.3874
-0.8978 -5.7680 2.3874
-0.6899 -5.7966 2.3874
-0.4811 -5.8177 2.3874
-0.2717 -5.8312 2.3874
-0.0620 -5.8373 2.3874
0.1479 -5.8357 2.3874
0.3575 -5.8267 2.3874
0.5667 -5.8101 2.3874
0.7751 -5.7860 2.3874
0.9826 -5.7544 2.3874
1.1887 -5.7153 2.3874
1.3934 -5.6689 2.3874
1.5962 -5.6152 2.3874
1.7970 -5.5542 2.3874
1.9955 -5.4860 2.3874
2.1913 -5.4107 2.3874
2.3844 -5.3284 2.3874
2.5743 -5.2392 2.3874
2.7609 -5.1433 2.3874
2.9440 -5.0407 2.3874
3.1232 -4.9316 2.3874
3.2984 -4.8161 2.3874
3.4693 -4.6944 2.3874
3.6357 -4.5666 2.3874
3.7975 -4.4329 2.3874
3.9543 -4.2935 2.3874
4.1060 -4.1485 2.3874
4.2523 -3.9982 2.3874
4.3932 -3.8427 2.3874
4.5284 -3.6823 2.3874
4.6577 -3.5171 2.3874
4.7811 -3.3473 2.3874
4.8982 -3.1733 2.3874
5.0090 -2.9951 2.3874
5.1133 -2.8131 2.3874
5.2110 -2.6274 2.3874
5.3019 -2.4384 2.3874
5.3860 -2.2462 2.3874
5.4631 -2.0511 2.3874
5.5332 -1.8534 2.3874
5.5961 -1.6533 2.3874
5.6518 -1.4510 2.3874
5.7001 -1.2469 2.3874
5.7411 -1.0412 2.3874
5.7747 -0.8342 2.3874
5.8008 -0.6261 2.3874
5.8194 -0.4171 2.3874
5.8305 -0.2077 2.3874
5.8340 0.0020 2.3874
5.8300 0.2117 2.3874
5.8185 0.4211 2.3874
5.7994 0.6299 2.3874
5.7729 0.8380 2.3874
5.7389 1.0449 2.3874
5.6974 1.2505 2.3874
5.6487 1.4544 2.3874
5.5926 1.6565 2.3874
5.5293 1.8564 2.3874
5.4588 2.0539 2.3874
5.3813 2.2487 2.3874
5.2969 2.4406 2.3874
5.2056 2.6294 2.3874
5.1076 2.8147 2.3874
5.0030 2.9964 2.3874
4.8919 3.1742 2.3874
4.7745 3.3479 2.3874
4.6510 3.5173 2.3874
4.5214 3.6821 2.3874
4.3861 3.8422 2.3874
4.2450 3.9973 2.3874
4.0985 4.1472 2.3874
3.9467 4.2917 2.3874
3.7898 4.4307 2.3874
3.6280 4.5640 2.3874
3.4615 4.6914 2.3874
3.2905 4.8127 2.3874
3.1154 4.9278 2.3874
2.9362 5.0365 2.3874
2.7532 5.1387 2.3874
2.5666 5.2342 2.3874
2.3768 5.3230 2.3874
0.8660 2.1432 0.9467
0.7884 2.1732 0.9468
0.7099 2.2004 0.9469
0.6304 2.2247 0.9470
0.5501 2.2462 0.9471
0.4690 2.2647 0.9472
0.3873 2.2803 0.9473
0.3051 2.2929 0.9474
0.2225 2.3026 0.9475
0.1396 2.3092 0.9475
0.0565 2.3128 0.9476
-0.0267 2.3135 0.9476
-0.1098 2.3111 0.9476
-0.1928 2.3057 0.9477
-0.2756 2.2973 0.9477
-0.3580 2.2859 0.9477
-0.4399 2.2716 0.9477
-0.5213 2.2542 0.9477
-0.6020 2.2340 0.9476
-0.6819 2.2108 0.9476
-0.7609 2.1848 0.9476
-0.8389 2.1559 0.9475
-2.3076 5.3527 2.3874
-2.4986 5.2663 2.3874
-2.6863 5.1731 2.3874
-2.8705 5.0732 2.3874
-3.0511 4.9668 2.3874
-3.2277 4.8540 2.3874
-3.4001 4.7349 2.3874
-3.5682 4.6096 2.3874
-3.7316 4.4785 2.3874
-3.8903 4.3415 2.3874
-4.0439 4.1989 2.3874
-4.1923 4.0509 2.3874
-4.3352 3.8976 2.3874
-4.4726 3.7393 2.3874
-4.6042 3.5762 2.3874
-4.7299 3.4084 2.3874
-4.8495 3.2363 2.3874
-4.9628 3.0599 2.3874
-5.0697 2.8796 2.3874
-5.1700 2.6956 2.3874
-5.2637 2.5080 2.3874
-5.3506 2.3173 2.3874
-5.4305 2.1235 2.3874
-5.5035 1.9269 2.3874
-5.5693 1.7279 2.3874
-5.6280 1.5266 2.3874
-5.6793 1.3234 2.3874
-5.7234 1.1184 2.3874
-5.7600 0.9120 2.3874
-5.7892 0.7044 2.3874
-5.8110 0.4958 2.3874
-5.8252 0.2866 2.3874
-5.8319 0.0771 2.3874
-5.8310 -0.1326 2.3874
-5.8227 -0.3421 2.3874
-5.8068 -0.5512 2.3874
-5.7834 -0.7596 2.3874
-5.7525 -0.9670 2.3874
-5.7141 -1.1732 2.3874
-5.6684 -1.3779 2.3874
-5.6154 -1.5808 2.3874
-5.5551 -1.7816 2.3874
-5.4876 -1.9802 2.3874
-5.4130 -2.1762 2.3874
-5.3314 -2.3695 2.3874
-5.2430 -2.5596 2.3874
-5.1477 -2.7465 2.3874
-5.0458 -2.9298 2.3874
-4.9374 -3.1094 2.3874
-4.8226 -3.2849 2.3874
-4.7015 -3.4562 2.3874
-4.5743 -3.6230 2.3874
-4.4413 -3.7852 2.3874
-4.3024 -3.9425 2.3874
-4.1581 -4.0947 2.3874
-4.0083 -4.2416 2.3874
-3.8533 -4.3830 2.3874
-3.6934 -4.5187 2.3874
-3.5287 -4.6487 2.3874
-3.3594 -4.7726 2.3874
-3.1857 -4.8903 2.3874
-3.0080 -5.0018 2.3874
-2.8263 -5.1067 2.3874
-2.6410 -5.2051 2.3874
-2.4522 -5.2967 2.3874
-2.2603 -5.3815 2.3874
-2.0655 -5.4594 2.3874
-1.8679 -5.5302 2.3874
-1.6680 -5.5938 2.3874
-1.4659 -5.6502 2.3874
-1.2619 -5.6993 2.3874
-1.0563 -5.7410 2.3874
-0.8492 -5.7753 2.3874
-0.6411 -5.8022 2.3874
-0.4322 -5.8215 2.3874
-0.2227 -5.8333 2.3874
-0.0129 -5.8376 2.3874
0.1969 -5.8343 2.3874
0.4065 -5.8235 2.3874
0.6155 -5.8051 2.3874
0.8238 -5.7792 2.3874
1.0310 -5.7459 2.3874
1.2368 -5.7051 2.3874
1.4410 -5.6570 2.3874
1.6434 -5.6015 2.3874
1.8437 -5.5388 2.3874
2.0415 -5.4690 2.3874
1.2637 -5.3343 2.3874
1.4546 -5.2855 2.3874
1.6436 -5.2297 2.3874
1.8305 -5.1673 2.3874
2.0150 -5.0981 2.3874
2.1969 -5.0224 2.3874
2.3760 -4.9402 2.3874
2.5520 -4.8515 2.3874
2.7247 -4.7566 2.3874
2.8938 -4.6556 2.3874
3.0592 -4.5485 2.3874
3.2207 -4.4356 2.3874
3.3780 -4.3169 2.3874
3.5309 -4.1927 2.3874
3.6793 -4.0630 2.3874
3.8229 -3.9281 2.3874
3.9615 -3.7881 2.3874
4.0951 -3.6432 2.3874
4.2233 -3.4936 2.3874
4.3460 -3.3395 2.3874
4.4632 -3.1811 2.3874
4.5745 -3.0186 2.3874
4.6800 -2.8522 2.3874
4.7794 -2.6821 2.3874
4.8726 -2.5085 2.3874
4.9595 -2.3317 2.3874
5.0400 -2.1519 2.3874
5.1140 -1.9693 2.3874
5.1813 -1.7842 2.3874
5.2420 -1.5968 2.3874
5.2959 -1.4073 2.3874
5.3429 -1.2160 2.3874
5.3830 -1.0232 2.3874
5.4162 -0.8290 2.3874
5.4424 -0.6338 2.3874
5.4615 -0.4377 2.3874
5.4735 -0.2411 2.3874
5.4785 -0.0443 2.3874
5.4764 0.1527 2.3874
5.4673 0.3494 2.3874
5.4510 0.5457 2.3874
5.4278 0.7413 2.3874
5.3975 0.9358 2.3874
5.3602 1.1292 2.3874
5.3160 1.3211 2.3874
5.2649 1.5113 2.3874
5.2071 1.6995 2.3874
5.1425 1.8856 2.3874
5.0713 2.0691 2.3874
4.9935 2.2500 2.3874
4.9092 2.4280 2.3874
4.8187 2.6028 2.3874
4.7219 2.7743 2.3874
4.6190 2.9422 2.3874
4.5102 3.1062 2.3874
4.3955 3.2663 2.3874
4.2751 3.4221 2.3874
4.1493 3.5735 2.3874
4.0180 3.7202 2.3874
3.8816 3.8622 2.3874
3.7402 3.9991 2.3874
3.5940 4.1309 2.3874
3.4431 4.2573 2.3874
3.2878 4.3783 2.3874
3.1282 4.4935 2.3874
2.9646 4.6030 2.3874
2.7972 4.7065 2.3874
2.6261 4.8039 2.3874
2.4517 4.8952 2.3874
0.9012 1.9736 0.9461
0.8298 2.0049 0.9462
0.7573 2.0337 0.9464
0.6837 2.0598 0.9465
0.6093 2.0833 0.9466
0.5341 2.1041 0.9467
0.4581 2.1221 0.9468
0.3816 2.1374 0.9469
0.3045 2.1499 0.9469
0.2271 2.1595 0.9470
0.1493 2.1664 0.9471
0.0713 2.1705 0.9471
-0.0068 2.1717 0.9472
-0.0848 2.1702 0.9472
-0.1628 2.1658 0.9472
-0.2405 2.1585 0.9472
-0.3180 2.1485 0.9472
-0.3950 2.1357 0.9472
-0.4715 2.1201 0.9472
-0.5474 2.1017 0.9472
-0.6226 2.0806 0.9472
-0.6970 2.0568 0.9471
-0.7704 2.0303 0.9471
-0.8429 2.0012 0.9470
-0.9142 1.9695 0.9470
-2.4818 4.8793 2.3874
-2.6556 4.7869 2.3874
-2.8260 4.6884 2.3874
-2.9927 4.5838 2.3874
-3.1556 4.4733 2.3874
-3.3144 4.3571 2.3874
-3.4690 4.2351 2.3874
-3.6190 4.1078 2.3874
-3.7644 3.9751 2.3874
-3.9049 3.8372 2.3874
-4.0404 3.6944 2.3874
-4.1707 3.5469 2.3874
-4.2955 3.3947 2.3874
-4.4149 3.2381 2.3874
-4.5285 3.0774 2.3874
-4.6363 2.9127 2.3874
-4.7381 2.7442 2.3874
-4.8338 2.5722 2.3874
-4.9232 2.3968 2.3874
-5.0063 2.2183 2.3874
-5.0829 2.0370 2.3874
-5.1529 1.8530 2.3874
-5.2163 1.6666 2.3874
-5.2730 1.4781 2.3874
-5.3229 1.2876 2.3874
-5.3658 1.0954 2.3874
-5.4019 0.9019 2.3874
-5.4309 0.7071 2.3874
-5.4530 0.5115 2.3874
-5.4680 0.3152 2.3874
-5.4759 0.1184 2.3874
-5.4768 -0.0785 2.3874
-5.4705 -0.2753 2.3874
-5.4573 -0.4718 2.3874
-5.4369 -0.6677 2.3874
-5.4095 -0.8627 2.3874
-5.3752 -1.0566 2.3874
-5.3339 -1.2491 2.3874
-5.2857 -1.4401 2.3874
-5.2306 -1.6292 2.3874
-5.1688 -1.8162 2.3874
-5.1003 -2.0009 2.3874
-5.0252 -2.1830 2.3874
-4.9436 -2.3622 2.3874
-4.8557 -2.5385 2.3874
-4.7614 -2.7114 2.3874
-4.6610 -2.8809 2.3874
-4.5545 -3.0466 2.3874
-4.4422 -3.2084 2.3874
-4.3241 -3.3661 2.3874
-4.2004 -3.5194 2.3874
-4.0713 -3.6682 2.3874
-3.9369 -3.8122 2.3874
-3.7974 -3.9514 2.3874
-3.6530 -4.0854 2.3874
-3.5039 -4.2141 2.3874
-3.3503 -4.3374 2.3874
-3.1923 -4.4551 2.3874
-3.0301 -4.5671 2.3874
-2.8641 -4.6731 2.3874
-2.6943 -4.7731 2.3874
-2.5211 -4.8669 2.3874
-2.3446 -4.9545 2.3874
-2.1650 -5.0356 2.3874
-1.9827 -5.1102 2.3874
-1.7977 -5.1783 2.3874
-1.6105 -5.2396 2.3874
-1.4211 -5.2942 2.3874
-1.2300 -5.3419 2.3874
-1.0372 -5.3827 2.3874
-0.8431 -5.4165 2.3874
-0.6479 -5.4434 2.3874
-0.4518 -5.4632 2.3874
-0.2552 -5.4759 2.3874
-0.0582 -5.4816 2.3874
0.1388 -5.4802 2.3874
0.3357 -5.4716 2.3874
0.5321 -5.4561 2.3874
0.7279 -5.4334 2.3874
0.9227 -5.4037 2.3874
1.1163 -5.3671 2.3874
1.3085 -5.3235 2.3874
1.4990 -5.2730 2.3874
1.6875 -5.2157 2.3874
1.8739 -5.1517 2.3874
2.0578 -5.0810 2.3874
2.2391 -5.0037 2.3874
2.4174 -4.9200 2.3874
2.5927 -4.8299 2.3874
2.7646 -4.7335 2.3874
2.9329 -4.6311 2.3874
3.0974 -4.5226 2.3874
3.2579 -4.4083 2.3874
3.4142 -4.2884 2.3874
3.5661 -4.1628 2.3874
3.7133 -4.0319 2.3874
3.8558 -3.8958 2.3874
3.9932 -3.7546 2.3874
4.1255 -3.6086 2.3874
4.2525 -3.4580 2.3874
4.3740 -3.3028 2.3874
4.4898 -3.1434 2.3874
4.5998 -2.9800 2.3874
4.7038 -2.8127 2.3874
4.8018 -2.6417 2.3874
4.8935 -2.4674 2.3874
4.9789 -2.2899 2.3874
5.0579 -2.1094 2.3874
5.1303 -1.9262 2.3874
5.1961 -1.7405 2.3874
5.2552 -1.5526 2.3874
5.3075 -1.3627 2.3874
5.3529 -1.1710 2.3874
5.3914 -0.9778 2.3874
5.4229 -0.7834 2.3874
5.4475 -0.5880 2.3874
5.4649 -0.3918 2.3874
5.4753 -0.1951 2.3874
5.4787 0.0018 2.3874
5.4749 0.1988 2.3874
5.4641 0.3954 2.3874
5.4462 0.5915 2.3874
5.4213 0.7869 2.3874
5.3894 0.9812 2.3874
5.3505 1.1743 2.3874
5.3047 1.3658 2.3874
5.2520 1.5555 2.3874
5.1926 1.7433 2.3874
5.1264 1.9288 2.3874
5.0537 2.1117 2.3874
4.9743 2.2920 2.3874
4.8886 2.4692 2.3874
4.7966 2.6433 2.3874
4.6983 2.8139 2.3874
4.5941 2.9809 2.3874
4.4838 3.1441 2.3874
4.3678 3.3031 2.3874
4.2462 3.4579 2.3874
4.1190 3.6082 2.3874
3.9866 3.7539 2.3874
3.8490 3.8947 2.3874
3.7064 4.0304 2.3874
3.5591 4.1610 2.3874
3.4071 4.2861 2.3874
3.2508 4.4058 2.3874
3.0902 4.5197 2.3874
2.9257 4.6278 2.3874
2.7574 4.7299 2.3874
2.5856 4.8258 2.3874
2.4104 4.9156 2.3874
0.8846 1.9811 0.9461
0.8129 2.0119 0.9463
0.7401 2.0401 0.9464
0.6664 2.0656 0.9465
0.5918 2.0884 0.9466
0.5164 2.1085 0.9467
0.4403 2.1259 0.9468
0.3636 2.1405 0.9469
0.2864 2.1524 0.9470
0.2089 2.1614 0.9470
0.1311 2.1676 0.9471
0.0531 2.1710 0.9471
-0.0250 2.1716 0.9472
-0.1031 2.1694 0.9472
-0.1810 2.1643 0.9472
-0.2587 2.1564 0.9472
-0.3360 2.1458 0.9472
-0.4130 2.1323 0.9472
-0.4893 2.1160 0.9472
-0.5651 2.0970 0.9472
-0.6401 2.0753 0.9472
-0.7142 2.0509 0.9471
-0.7875 2.0238 0.9471
-0.8597 1.9940 0.9470
-2.3465 4.9457 2.3874
-2.5228 4.8582 2.3874
-2.6958 4.7644 2.3874
-2.8654 4.6645 2.3874
-3.0312 4.5585 2.3874
-3.1932 4.4466 2.3874
-3.3510 4.3290 2.3874
-3.5045 4.2058 2.3874
-3.6535 4.0772 2.3874
-3.7977 3.9433 2.3874
-3.9371 3.8043 2.3874
-4.0713 3.6603 2.3874
-4.2004 3.5117 2.3874
-4.3240 3.3585 2.3874
-4.4420 3.2009 2.3874
-4.5542 3.0392 2.3874
-4.6606 2.8736 2.3874
-4.7610 2.7042 2.3874
-4.8553 2.5314 2.3874
-4.9432 2.3553 2.3874
-5.0248 2.1761 2.3874
-5.0999 1.9942 2.3874
-5.1684 1.8096 2.3874
-5.2302 1.6227 2.3874
-5.2853 1.4336 2.3874
-5.3335 1.2428 2.3874
-5.3749 1.0503 2.3874
-5.4093 0.8564 2.3874
-5.4367 0.6614 2.3874
-5.4571 0.4656 2.3874
-5.4705 0.2691 2.3874
-5.4767 0.0723 2.3874
-5.4759 -0.1246 2.3874
-5.4681 -0.3213 2.3874
-5.4531 -0.5177 2.3874
-5.4311 -0.7134 2.3874
-5.4021 -0.9082 2.3874
-5.3661 -1.1018 2.3874
-5.3232 -1.2940 2.3874
-5.2734 -1.4845 2.3874
-5.2168 -1.6732 2.3874
-5.1534 -1.8596 2.3874
-5.0833 -2.0437 2.3874
-5.0067 -2.2252 2.3874
-4.9236 -2.4037 2.3874
-4.8342 -2.5792 2.3874
-4.7385 -2.7514 2.3874
-4.6366 -2.9200 2.3874
-4.5288 -3.0848 2.3874
-4.4151 -3.2457 2.3874
-4.2957 -3.4024 2.3874
-4.1707 -3.5546 2.3874
-4.0403 -3.7023 2.3874
-3.9047 -3.8452 2.3874
-3.7641 -3.9832 2.3874
-3.6186 -4.1160 2.3874
-3.4684 -4.2435 2.3874
-3.3137 -4.3655 2.3874
-3.1547 -4.4818 2.3874
-2.9916 -4.5924 2.3874
-2.8247 -4.6970 2.3874
-2.6541 -4.7956 2.3874
-2.4801 -4.8880 2.3874
-2.3028 -4.9740 2.3874
-2.1226 -5.0537 2.3874
-1.9396 -5.1268 2.3874
-1.7541 -5.1932 2.3874
-1.5664 -5.2530 2.3874
-1.3766 -5.3059 2.3874
-1.1850 -5.3520 2.3874
-0.9919 -5.3912 2.3874
-0.7975 -5.4234 2.3874
-0.6020 -5.4486 2.3874
-0.4058 -5.4668 2.3874
-0.2091 -5.4779 2.3874
-0.0121 -5.4819 2.3874
0.1849 -5.4788 2.3874
0.3817 -5.4686 2.3874
0.5780 -5.4514 2.3874
0.7736 -5.4271 2.3874
0.9681 -5.3958 2.3874
1.1614 -5.3575 2.3874
1.3532 -5.3123 2.3874
1.5433 -5.2602 2.3874
1.7313 -5.2013 2.3874
1.9171 -5.1357 2.3874
1.1897 -5.0223 2.3874
1.3695 -4.9762 2.3874
1.5474 -4.9238 2.3874
1.7234 -4.8650 2.3874
1.8971 -4.7999 2.3874
2.0684 -4.7286 2.3874
2.2370 -4.6512 2.3874
2.4027 -4.5677 2.3874
2.5652 -4.4784 2.3874
2.7245 -4.3833 2.3874
2.8803 -4.2825 2.3874
3.0323 -4.1761 2.3874
3.1804 -4.0644 2.3874
3.3243 -3.9474 2.3874
3.4640 -3.8253 2.3874
3.5992 -3.6983 2.3874
3.7298 -3.5665 2.3874
3.8555 -3.4301 2.3874
3.9762 -3.2893 2.3874
4.0918 -3.1442 2.3874
4.2021 -2.9951 2.3874
4.3069 -2.8420 2.3874
4.4062 -2.6854 2.3874
4.4998 -2.5252 2.3874
4.5876 -2.3618 2.3874
4.6694 -2.1953 2.3874
4.7452 -2.0261 2.3874
4.8148 -1.8542 2.3874
4.8783 -1.6799 2.3874
4.9354 -1.5034 2.3874
4.9861 -1.3250 2.3874
5.0304 -1.1449 2.3874
5.0682 -0.9634 2.3874
5.0994 -0.7806 2.3874
5.1241 -0.5967 2.3874
5.1421 -0.4122 2.3874
5.1534 -0.2271 2.3874
5.1581 -0.0417 2.3874
5.1562 0.1437 2.3874
5.1475 0.3290 2.3874
5.1323 0.5137 2.3874
5.1104 0.6979 2.3874
5.0818 0.8811 2.3874
5.0468 1.0632 2.3874
5.0051 1.2438 2.3874
4.9571 1.4229 2.3874
4.9026 1.6001 2.3874
4.8418 1.7753 2.3874
4.7748 1.9481 2.3874
4.7015 2.1184 2.3874
4.6222 2.2860 2.3874
4.5370 2.4506 2.3874
4.4458 2.6121 2.3874
4.3490 2.7701 2.3874
4.2465 2.9246 2.3874
4.1385 3.0753 2.3874
4.0252 3.2220 2.3874
3.9067 3.3645 2.3874
3.7831 3.5027 2.3874
3.6547 3.6364 2.3874
3.5216 3.7653 2.3874
3.3839 3.8894 2.3874
3.2418 4.0084 2.3874
3.0956 4.1223 2.3874
2.9453 4.2308 2.3874
2.7913 4.3339 2.3874
2.6336 4.4314 2.3874
2.4726 4.5231 2.3874
0.9144 1.8256 0.9456
0.8482 1.8575 0.9458
0.7810 1.8871 0.9459
0.7128 1.9141 0.9460
0.6435 1.9387 0.9461
0.5735 1.9608 0.9462
0.5027 1.9803 0.9463
0.4312 1.9973 0.9464
0.3592 2.0116 0.9465
0.2866 2.0234 0.9466
0.2137 2.0325 0.9466
0.1405 2.0390 0.9467
0.0671 2.0428 0.9467
-0.0063 2.0439 0.9468
-0.0798 2.0425 0.9468
-0.1532 2.0383 0.9468
-0.2264 2.0315 0.9468
-0.2993 2.0221 0.9468
-0.3718 2.0100 0.9468
-0.4438 1.9953 0.9468
-0.5152 1.9780 0.9468
-0.5860 1.9582 0.9468
-0.6560 1.9358 0.9467
-0.7251 1.9109 0.9467
-0.7933 1.8835 0.9466
-0.8604 1.8536 0.9466
-2.3367 4.5941 2.3874
-2.5004 4.5071 2.3874
-2.6608 4.4144 2.3874
-2.8178 4.3159 2.3874
-2.9712 4.2118 2.3874
-3.1207 4.1024 2.3874
-3.2662 3.9876 2.3874
-3.4075 3.8676 2.3874
-3.5444 3.7427 2.3874
-3.6767 3.6129 2.3874
-3.8042 3.4785 2.3874
-3.9269 3.3395 2.3874
-4.0444 3.1962 2.3874
-4.1568 3.0488 2.3874
-4.2638 2.8975 2.3874
-4.3653 2.7424 2.3874
-4.4611 2.5838 2.3874
-4.5512 2.4218 2.3874
-4.6354 2.2567 2.3874
-4.7136 2.0886 2.3874
-4.7857 1.9179 2.3874
-4.8517 1.7446 2.3874
-4.9114 1.5691 2.3874
-4.9647 1.3916 2.3874
-5.0117 1.2123 2.3874
-5.0521 1.0314 2.3874
-5.0860 0.8491 2.3874
-5.1134 0.6658 2.3874
-5.1341 0.4815 2.3874
-5.1483 0.2967 2.3874
-5.1557 0.1114 2.3874
-5.1565 -0.0740 2.3874
-5.1507 -0.2593 2.3874
-5.1381 -0.4443 2.3874
-5.1190 -0.6287 2.3874
-5.0932 -0.8123 2.3874
-5.0608 -0.9948 2.3874
-5.0219 -1.1761 2.3874
-4.9765 -1.3559 2.3874
-4.9247 -1.5340 2.3874
-4.8665 -1.7100 2.3874
-4.8020 -1.8839 2.3874
-4.7313 -2.0553 2.3874
-4.6545 -2.2241 2.3874
-4.5717 -2.3900 2.3874
-4.4829 -2.5529 2.3874
-4.3884 -2.7124 2.3874
-4.2881 -2.8684 2.3874
-4.1824 -3.0208 2.3874
-4.0712 -3.1692 2.3874
-3.9547 -3.3136 2.3874
-3.8332 -3.4537 2.3874
-3.7066 -3.5893 2.3874
-3.5753 -3.7203 2.3874
-3.4393 -3.8464 2.3874
-3.2989 -3.9676 2.3874
-3.1543 -4.0837 2.3874
-3.0055 -4.1945 2.3874
-2.8529 -4.2999 2.3874
-2.6965 -4.3997 2.3874
-2.5367 -4.4939 2.3874
-2.3736 -4.5822 2.3874
-2.2074 -4.6646 2.3874
-2.0383 -4.7410 2.3874
-1.8667 -4.8113 2.3874
-1.6926 -4.8753 2.3874
-1.5163 -4.9331 2.3874
-1.3380 -4.9844 2.3874
-1.1580 -5.0294 2.3874
-0.9765 -5.0678 2.3874
-0.7937 -5.0997 2.3874
-0.6100 -5.1249 2.3874
-0.4254 -5.1436 2.3874
-0.2402 -5.1556 2.3874
-0.0548 -5.1609 2.3874
0.1307 -5.1595 2.3874
0.3161 -5.1515 2.3874
0.5010 -5.1369 2.3874
0.6853 -5.1155 2.3874
0.8687 -5.0876 2.3874
1.0510 -5.0531 2.3874
1.2319 -5.0121 2.3874
1.4113 -4.9645 2.3874
1.5888 -4.9106 2.3874
1.7642 -4.8503 2.3874
