ply
format ascii 1.0
element vertex 2176
property float32 x
property float32 y
property float32 z
end_header
4.4604 8.0611 2.3874
4.1683 8.2157 2.3874
3.8708 8.3597 2.3874
3.5685 8.4929 2.3874
3.2615 8.6153 2.3874
2.9503 8.7266 2.3874
2.6354 8.8266 2.3874
0.9230 3.5513 0.9510
0.7952 3.5827 0.9512
0.6662 3.6094 0.9513
0.5364 3.6314 0.9514
0.4059 3.6487 0.9516
0.2748 3.6613 0.9517
0.1433 3.6691 0.9517
0.0116 3.6721 0.9518
-0.1201 3.6704 0.9519
-0.2517 3.6639 0.9519
-0.3829 3.6526 0.9519
-0.5137 3.6366 0.9520
-0.6438 3.6158 0.9520
-0.7731 3.5903 0.9519
-2.2605 8.9289 2.3874
-2.5793 8.8421 2.3874
-2.8948 8.7439 2.3874
-3.2065 8.6345 2.3874
-3.5142 8.5140 2.3874
-3.8173 8.3826 2.3874
-4.1155 8.2404 2.3874
-4.4085 8.0876 2.3874
-4.6958 7.9244 2.3874
-4.9771 7.7509 2.3874
-5.2519 7.5676 2.3874
-5.5201 7.3745 2.3874
-5.7811 7.1719 2.3874
-6.0347 6.9601 2.3874
-6.2806 6.7393 2.3874
-6.5184 6.5098 2.3874
-6.7479 6.2720 2.3874
-6.9686 6.0261 2.3874
-7.1805 5.7724 2.3874
-7.3831 5.5113 2.3874
-7.5762 5.2431 2.3874
-7.7596 4.9682 2.3874
-7.9330 4.6868 2.3874
-8.0963 4.3994 2.3874
-8.2491 4.1063 2.3874
-8.3913 3.8080 2.3874
-8.5228 3.5047 2.3874
-8.6433 3.1969 2.3874
-8.7527 2.8849 2.3874
-8.8508 2.5692 2.3874
-8.9376 2.2502 2.3874
-9.0129 1.9283 2.3874
-9.0766 1.6039 2.3874
-9.1286 1.2774 2.3874
-9.1689 0.9492 2.3874
-9.1974 0.6198 2.3874
-9.2140 0.2895 2.3874
-9.2188 -0.0411 2.3874
-9.2118 -0.3717 2.3874
-9.1929 -0.7019 2.3874
-9.1622 -1.0311 2.3874
-9.1196 -1.3591 2.3874
-9.0654 -1.6854 2.3874
-8.9995 -2.0095 2.3874
-8.9220 -2.3310 2.3874
-8.8330 -2.6496 2.3874
-8.7326 -2.9648 2.3874
-8.6210 -3.2762 2.3874
-8.4983 -3.5834 2.3874
-8.3646 -3.8860 2.3874
-8.2202 -4.1837 2.3874
-8.0651 -4.4759 2.3874
-7.8997 -4.7625 2.3874
-7.7242 -5.0429 2.3874
-7.5386 -5.3169 2.3874
-7.3433 -5.5840 2.3874
-7.1386 -5.8440 2.3874
-6.9247 -6.0964 2.3874
-6.7018 -6.3410 2.3874
-6.4703 -6.5775 2.3874
-6.2305 -6.8055 2.3874
-5.9826 -7.0248 2.3874
-5.7270 -7.2351 2.3874
-5.4640 -7.4360 2.3874
-5.1939 -7.6274 2.3874
-4.9172 -7.8089 2.3874
-4.6341 -7.9805 2.3874
-4.3451 -8.1417 2.3874
-4.0504 -8.2925 2.3874
-3.7505 -8.4326 2.3874
-3.4457 -8.5619 2.3874
-3.1366 -8.6801 2.3874
-2.8233 -8.7872 2.3874
-2.5064 -8.8829 2.3874
-2.1863 -8.9673 2.3874
-1.8633 -9.0400 2.3874
-1.5380 -9.1012 2.3874
-1.2106 -9.1506 2.3874
-0.8817 -9.1882 2.3874
-0.5516 -9.2140 2.3874
-0.2209 -9.2280 2.3874
0.1102 -9.2300 2.3874
0.4412 -9.2202 2.3874
0.7715 -9.1985 2.3874
1.1009 -9.1649 2.3874
1.4288 -9.1195 2.3874
1.7550 -9.0624 2.3874
2.0788 -8.9937 2.3874
2.4000 -8.9133 2.3874
2.7181 -8.8215 2.3874
3.0327 -8.7183 2.3874
3.3433 -8.6038 2.3874
3.6497 -8.4783 2.3874
3.9514 -8.3419 2.3874
4.2479 -8.1948 2.3874
4.5390 -8.0371 2.3874
4.8242 -7.8690 2.3874
5.1032 -7.6908 2.3874
5.3757 -7.5028 2.3874
5.6412 -7.3050 2.3874
5.8994 -7.0979 2.3874
6.1500 -6.8816 2.3874
6.3927 -6.6565 2.3874
6.6272 -6.4228 2.3874
6.8531 -6.1809 2.3874
7.0702 -5.9310 2.3874
7.2781 -5.6735 2.3874
7.4767 -5.4087 2.3874
7.6657 -5.1370 2.3874
7.8447 -4.8586 2.3874
8.0137 -4.5740 2.3874
8.1723 -4.2835 2.3874
8.3204 -3.9876 2.3874
8.4578 -3.6865 2.3874
8.5842 -3.3807 2.3874
8.6997 -3.0706 2.3874
8.8039 -2.7565 2.3874
8.8968 -2.4389 2.3874
8.9782 -2.1182 2.3874
9.0480 -1.7948 2.3874
9.1063 -1.4691 2.3874
9.1527 -1.1416 2.3874
9.1874 -0.8126 2.3874
9.2103 -0.4825 2.3874
9.2214 -0.1519 2.3874
9.2205 0.1789 2.3874
9.2078 0.5094 2.3874
9.1833 0.8393 2.3874
9.1469 1.1681 2.3874
9.0987 1.4953 2.3874
9.0389 1.8206 2.3874
8.9675 2.1435 2.3874
8.8845 2.4636 2.3874
8.7901 2.7806 2.3874
8.6843 3.0939 2.3874
8.5675 3.4032 2.3874
8.4396 3.7082 2.3874
8.3008 4.0083 2.3874
8.1514 4.3032 2.3874
7.9916 4.5927 2.3874
7.8214 4.8761 2.3874
7.6412 5.1533 2.3874
7.4512 5.4239 2.3874
7.2517 5.6874 2.3874
7.0428 5.9436 2.3874
6.8248 6.1922 2.3874
6.5982 6.4328 2.3874
6.3630 6.6650 2.3874
6.1197 6.8887 2.3874
5.8685 7.1036 2.3874
5.6098 7.3093 2.3874
5.3439 7.5055 2.3874
5.0711 7.6922 2.3874
4.7918 7.8689 2.3874
4.5064 8.0355 2.3874
4.2152 8.1917 2.3874
3.9186 8.3374 2.3874
3.6170 8.4724 2.3874
3.3107 8.5965 2.3874
3.0002 8.7096 2.3874
2.6858 8.8114 2.3874
2.3680 8.9019 2.3874
0.8156 3.5780 0.9511
0.6868 3.6055 0.9513
0.5572 3.6282 0.9514
0.4267 3.6463 0.9515
0.2957 3.6596 0.9516
0.1643 3.6682 0.9517
0.0326 3.6720 0.9518
-0.0991 3.6710 0.9519
-0.2307 3.6652 0.9519
-0.3621 3.6547 0.9519
-0.4929 3.6394 0.9520
-0.6231 3.6194 0.9520
-0.7525 3.5947 0.9519
-0.8809 3.5653 0.9519
-2.5287 8.8567 2.3874
-2.8447 8.7603 2.3874
-3.1571 8.6527 2.3874
-3.4654 8.5340 2.3874
-3.7693 8.4043 2.3874
-4.0684 8.2638 2.3874
-4.3622 8.1126 2.3874
-4.6504 7.9511 2.3874
-4.9327 7.7793 2.3874
-5.2086 7.5975 2.3874
-5.4778 7.4059 2.3874
-5.7400 7.2048 2.3874
-5.9948 6.9944 2.3874
-6.2420 6.7750 2.3874
-6.4811 6.5470 2.3874
-6.7119 6.3104 2.3874
-6.9340 6.0658 2.3874
-7.1473 5.8134 2.3874
-7.3514 5.5534 2.3874
-7.5461 5.2863 2.3874
-7.7310 5.0124 2.3874
-7.9060 4.7321 2.3874
-8.0709 4.4456 2.3874
-4.5929 7.0634 2.3874
-4.8433 6.8943 2.3874
-5.0876 6.7162 2.3874
-5.3253 6.5296 2.3874
-5.5561 6.3345 2.3874
-5.7798 6.1312 2.3874
-5.9962 5.9201 2.3874
-6.2048 5.7014 2.3874
-6.4054 5.4753 2.3874
-6.5978 5.2422 2.3874
-6.7817 5.0023 2.3874
-6.9570 4.7559 2.3874
-7.1233 4.5035 2.3874
-7.2804 4.2452 2.3874
-7.4282 3.9815 2.3874
-7.5664 3.7126 2.3874
-7.6949 3.4390 2.3874
-7.8136 3.1609 2.3874
-7.9221 2.8787 2.3874
-8.0205 2.5928 2.3874
-8.1086 2.3036 2.3874
-8.1863 2.0113 2.3874
-8.2534 1.7165 2.3874
-8.3100 1.4194 2.3874
-8.3558 1.1205 2.3874
-8.3909 0.8202 2.3874
-8.4153 0.5187 2.3874
-8.4287 0.2166 2.3874
-8.4314 -0.0858 2.3874
-8.4232 -0.3882 2.3874
-8.4042 -0.6900 2.3874
-8.3743 -0.9911 2.3874
-8.3337 -1.2908 2.3874
-8.2823 -1.5889 2.3874
-8.2203 -1.8850 2.3874
-8.1477 -2.1786 2.3874
-8.0646 -2.4695 2.3874
-7.9712 -2.7573 2.3874
-7.8674 -3.0415 2.3874
-7.7536 -3.3218 2.3874
-7.6297 -3.5978 2.3874
-7.4960 -3.8693 2.3874
-7.3527 -4.1358 2.3874
-7.1999 -4.3970 2.3874
-7.0378 -4.6525 2.3874
-6.8667 -4.9021 2.3874
-6.6867 -5.1453 2.3874
-6.4981 -5.3820 2.3874
-6.3011 -5.6117 2.3874
-6.0960 -5.8343 2.3874
-5.8830 -6.0493 2.3874
-5.6624 -6.2566 2.3874
-5.4346 -6.4558 2.3874
-5.1997 -6.6468 2.3874
-4.9581 -6.8291 2.3874
-4.7102 -7.0027 2.3874
-4.4561 -7.1673 2.3874
-4.1963 -7.3227 2.3874
-3.9311 -7.4686 2.3874
-3.6608 -7.6050 2.3874
-3.3858 -7.7315 2.3874
-3.1064 -7.8481 2.3874
-2.8230 -7.9546 2.3874
-2.5360 -8.0509 2.3874
-2.2457 -8.1368 2.3874
-1.9525 -8.2122 2.3874
-1.6568 -8.2770 2.3874
-1.3589 -8.3312 2.3874
-1.0593 -8.3747 2.3874
-0.7583 -8.4074 2.3874
-0.4563 -8.4293 2.3874
-0.1537 -8.4403 2.3874
0.1491 -8.4404 2.3874
0.4516 -8.4297 2.3874
0.7537 -8.4081 2.3874
1.0547 -8.3757 2.3874
1.3544 -8.3325 2.3874
1.6523 -8.2785 2.3874
1.9481 -8.2140 2.3874
2.2414 -8.1388 2.3874
2.5318 -8.0531 2.3874
2.8190 -7.9571 2.3874
3.1025 -7.8509 2.3874
3.3820 -7.7345 2.3874
3.6572 -7.6082 2.3874
3.9276 -7.4721 2.3874
4.1930 -7.3263 2.3874
4.4530 -7.1711 2.3874
4.7072 -7.0068 2.3874
4.9554 -6.8333 2.3874
5.1971 -6.6511 2.3874
5.4322 -6.4604 2.3874
5.6603 -6.2612 2.3874
5.8811 -6.0541 2.3874
6.0943 -5.8392 2.3874
6.2996 -5.6168 2.3874
6.4969 -5.3871 2.3874
6.6857 -5.1506 2.3874
6.8659 -4.9074 2.3874
7.0373 -4.6579 2.3874
7.1996 -4.4023 2.3874
7.3527 -4.1412 2.3874
7.4962 -3.8748 2.3874
7.6302 -3.6033 2.3874
7.7542 -3.3273 2.3874
7.8683 -3.0470 2.3874
7.9723 -2.7628 2.3874
8.0660 -2.4750 2.3874
8.1493 -2.1841 2.3874
8.2221 -1.8904 2.3874
8.2843 -1.5942 2.3874
8.3359 -1.2960 2.3874
8.3767 -0.9962 2.3874
8.4068 -0.6951 2.3874
8.4260 -0.3932 2.3874
8.4344 -0.0908 2.3874
8.4319 0.2118 2.3874
8.4186 0.5140 2.3874
8.3944 0.8156 2.3874
8.3595 1.1160 2.3874
8.3137 1.4151 2.3874
8.2573 1.7123 2.3874
8.1903 2.0072 2.3874
8.1128 2.2996 2.3874
8.0248 2.5890 2.3874
7.9265 2.8750 2.3874
7.8180 3.1574 2.3874
7.6995 3.4356 2.3874
7.5710 3.7094 2.3874
7.4329 3.9783 2.3874
7.2852 4.2422 2.3874
7.1281 4.5006 2.3874
6.9619 4.7532 2.3874
6.7867 4.9997 2.3874
6.6028 5.2397 2.3874
6.4104 5.4730 2.3874
6.2098 5.6992 2.3874
6.0012 5.9180 2.3874
5.7849 6.1293 2.3874
5.5612 6.3326 2.3874
5.3304 6.5278 2.3874
5.0927 6.7146 2.3874
4.8485 6.8928 2.3874
4.5980 7.0621 2.3874
4.3417 7.2222 2.3874
4.0798 7.3731 2.3874
3.8126 7.5146 2.3874
3.5406 7.6463 2.3874
3.2640 7.7682 2.3874
2.9832 7.8801 2.3874
2.6986 7.9819 2.3874
2.4106 8.0734 2.3874
0.8434 3.2452 0.9501
0.7266 3.2738 0.9502
0.6088 3.2982 0.9504
0.4902 3.3183 0.9505
0.3709 3.3340 0.9506
0.2511 3.3455 0.9507
0.1309 3.3526 0.9508
0.0106 3.3554 0.9508
-0.1097 3.3537 0.9509
-0.2300 3.3478 0.9509
-0.3499 3.3375 0.9510
-0.4694 3.3228 0.9510
-0.5883 3.3038 0.9510
-0.7064 3.2805 0.9509
-0.8235 3.2530 0.9509
-2.3592 8.0877 2.3874
-2.6478 7.9979 2.3874
-2.9329 7.8978 2.3874
-3.2143 7.7876 2.3874
-3.4916 7.6674 2.3874
-3.7644 7.5373 2.3874
-4.0323 7.3975 2.3874
-4.2951 7.2482 2.3874
-4.5524 7.0896 2.3874
-4.8038 6.9218 2.3874
-5.0491 6.7452 2.3874
-5.2878 6.5599 2.3874
-5.5198 6.3661 2.3874
-5.7447 6.1642 2.3874
-5.9622 5.9543 2.3874
-6.1720 5.7367 2.3874
-6.3740 5.5118 2.3874
-6.5677 5.2798 2.3874
-6.7530 5.0410 2.3874
-6.9296 4.7956 2.3874
-7.0973 4.5441 2.3874
-7.2560 4.2868 2.3874
-7.4053 4.0239 2.3874
-7.5450 3.7558 2.3874
-7.6751 3.4829 2.3874
-7.7953 3.2055 2.3874
-7.9055 2.9239 2.3874
-8.0055 2.6386 2.3874
-8.0953 2.3499 2.3874
-8.1746 2.0581 2.3874
-8.2435 1.7637 2.3874
-8.3017 1.4669 2.3874
-8.3492 1.1683 2.3874
-8.3861 0.8681 2.3874
-8.4121 0.5668 2.3874
-8.4273 0.2648 2.3874
-8.4317 -0.0376 2.3874
-8.4252 -0.3400 2.3874
-8.4079 -0.6420 2.3874
-8.3798 -0.9432 2.3874
-8.3409 -1.2431 2.3874
-8.2912 -1.5415 2.3874
-8.2309 -1.8379 2.3874
-8.1600 -2.1320 2.3874
-8.0786 -2.4234 2.3874
-7.9868 -2.7116 2.3874
-7.8846 -2.9964 2.3874
-7.7724 -3.2774 2.3874
-7.6501 -3.5542 2.3874
-7.5180 -3.8264 2.3874
-7.3762 -4.0936 2.3874
-7.2249 -4.3557 2.3874
-7.0643 -4.6122 2.3874
-6.8946 -4.8627 2.3874
-6.7160 -5.1070 2.3874
-6.5287 -5.3447 2.3874
-6.3330 -5.5756 2.3874
-6.1292 -5.7993 2.3874
-5.9175 -6.0156 2.3874
-5.6981 -6.2241 2.3874
-5.4714 -6.4246 2.3874
-5.2376 -6.6169 2.3874
-4.9971 -6.8006 2.3874
-4.7501 -6.9757 2.3874
-4.4970 -7.1417 2.3874
-4.2381 -7.2985 2.3874
-3.9737 -7.4460 2.3874
-3.7042 -7.5839 2.3874
-3.4299 -7.7120 2.3874
-3.1512 -7.8302 2.3874
-2.8685 -7.9383 2.3874
-2.5820 -8.0362 2.3874
-2.2922 -8.1238 2.3874
-1.9994 -8.2009 2.3874
-1.7041 -8.2674 2.3874
-1.4065 -8.3233 2.3874
-1.1071 -8.3685 2.3874
-0.8063 -8.4029 2.3874
-0.5045 -8.4265 2.3874
-0.2020 -8.4392 2.3874
0.1008 -8.4411 2.3874
0.4035 -8.4321 2.3874
0.7056 -8.4123 2.3874
1.0068 -8.3816 2.3874
1.3067 -8.3401 2.3874
1.6050 -8.2879 2.3874
1.9011 -8.2250 2.3874
2.1949 -8.1515 2.3874
2.4858 -8.0675 2.3874
2.7735 -7.9731 2.3874
3.0576 -7.8685 2.3874
3.3377 -7.7537 2.3874
3.6136 -7.6290 2.3874
3.8848 -7.4944 2.3874
4.1511 -7.3502 2.3874
4.4119 -7.1965 2.3874
4.6671 -7.0336 2.3874
4.9162 -6.8616 2.3874
5.1591 -6.6807 2.3874
5.3952 -6.4913 2.3874
5.6244 -6.2935 2.3874
5.8464 -6.0877 2.3874
6.0608 -5.8740 2.3874
6.2674 -5.6527 2.3874
6.4660 -5.4242 2.3874
6.6562 -5.1887 2.3874
6.8378 -4.9465 2.3874
7.0106 -4.6980 2.3874
7.1744 -4.4435 2.3874
7.3289 -4.1832 2.3874
7.4740 -3.9176 2.3874
7.6095 -3.6469 2.3874
7.7351 -3.3716 2.3874
7.8508 -3.0919 2.3874
7.9564 -2.8083 2.3874
8.0517 -2.5211 2.3874
8.1367 -2.2306 2.3874
8.2112 -1.9373 2.3874
8.2751 -1.6416 2.3874
8.3284 -1.3437 2.3874
8.3709 -1.0441 2.3874
8.4027 -0.7432 2.3874
8.4236 -0.4414 2.3874
8.4338 -0.1390 2.3874
8.4330 0.1636 2.3874
8.4214 0.4659 2.3874
8.3990 0.7676 2.3874
8.3658 1.0683 2.3874
8.3218 1.3676 2.3874
8.2670 1.6650 2.3874
8.2017 1.9604 2.3874
8.1259 2.2532 2.3874
8.0395 2.5431 2.3874
7.9428 2.8297 2.3874
7.8360 3.1126 2.3874
7.7190 3.3915 2.3874
7.5922 3.6660 2.3874
7.4555 3.9358 2.3874
7.3093 4.2005 2.3874
7.1537 4.4598 2.3874
6.9889 4.7134 2.3874
6.8152 4.9608 2.3874
6.6327 5.2019 2.3874
6.4416 5.4362 2.3874
6.2423 5.6636 2.3874
6.0350 5.8837 2.3874
5.8199 6.0961 2.3874
5.5974 6.3008 2.3874
5.3676 6.4973 2.3874
5.1310 6.6854 2.3874
4.8878 6.8650 2.3874
4.6383 7.0357 2.3874
4.3829 7.1973 2.3874
4.1219 7.3497 2.3874
3.8555 7.4927 2.3874
3.5842 7.6259 2.3874
3.3083 7.7494 2.3874
3.0282 7.8629 2.3874
2.7442 7.9664 2.3874
2.4567 8.0595 2.3874
0.8620 3.2402 0.9501
0.7453 3.2695 0.9502
0.6276 3.2946 0.9503
0.5091 3.3154 0.9505
0.3899 3.3318 0.9506
0.2702 3.3440 0.9507
0.1501 3.3518 0.9508
0.0298 3.3552 0.9508
-0.0906 3.3543 0.9509
-0.2108 3.3490 0.9509
-0.3308 3.3394 0.9509
-0.4504 3.3254 0.9510
-0.5694 3.3071 0.9510
-0.6876 3.2845 0.9509
-0.8049 3.2577 0.9509
-2.3129 8.1010 2.3874
-2.6020 8.0129 2.3874
-2.8878 7.9144 2.3874
-3.1698 7.8058 2.3874
-3.4477 7.6872 2.3874
-3.7213 7.5587 2.3874
-3.9900 7.4204 2.3874
-4.2536 7.2726 2.3874
-4.5118 7.1155 2.3874
-4.7641 6.9492 2.3874
-5.0104 6.7739 2.3874
-5.2502 6.5900 2.3874
-5.4833 6.3976 2.3874
-5.7093 6.1969 2.3874
-5.9280 5.9883 2.3874
-6.1391 5.7719 2.3874
-6.3423 5.5481 2.3874
-6.5374 5.3172 2.3874
-6.7241 5.0795 2.3874
-6.9021 4.8352 2.3874
-7.0712 4.5846 2.3874
-7.2313 4.3282 2.3874
-7.3821 4.0661 2.3874
-4.2275 6.5015 2.3874
-4.4580 6.3458 2.3874
-4.6828 6.1819 2.3874
-4.9016 6.0101 2.3874
-5.1141 5.8305 2.3874
-5.3201 5.6435 2.3874
-5.5192 5.4491 2.3874
-5.7111 5.2478 2.3874
-5.8958 5.0397 2.3874
-6.0729 4.8251 2.3874
-6.2422 4.6043 2.3874
-6.4035 4.3775 2.3874
-6.5565 4.1452 2.3874
-6.7011 3.9074 2.3874
-6.8371 3.6647 2.3874
-6.9644 3.4172 2.3874
-7.0826 3.1653 2.3874
-7.1918 2.9093 2.3874
-7.2917 2.6496 2.3874
-7.3823 2.3864 2.3874
-7.4634 2.1202 2.3874
-7.5348 1.8512 2.3874
-7.5966 1.5799 2.3874
-7.6487 1.3064 2.3874
-7.6908 1.0313 2.3874
-7.7231 0.7548 2.3874
-7.7455 0.4774 2.3874
-7.7579 0.1993 2.3874
-7.7603 -0.0791 2.3874
-7.7527 -0.3573 2.3874
-7.7352 -0.6352 2.3874
-7.7077 -0.9122 2.3874
-7.6703 -1.1881 2.3874
-7.6230 -1.4625 2.3874
-7.5659 -1.7349 2.3874
-7.4990 -2.0052 2.3874
-7.4226 -2.2730 2.3874
-7.3365 -2.5378 2.3874
-7.2410 -2.7994 2.3874
-7.1362 -3.0574 2.3874
-7.0222 -3.3114 2.3874
-6.8992 -3.5612 2.3874
-6.7672 -3.8065 2.3874
-6.6266 -4.0469 2.3874
-6.4774 -4.2820 2.3874
-6.3198 -4.5117 2.3874
-6.1542 -4.7356 2.3874
-5.9805 -4.9534 2.3874
-5.7992 -5.1649 2.3874
-5.6104 -5.3696 2.3874
-5.4144 -5.5676 2.3874
-5.2114 -5.7583 2.3874
-5.0017 -5.9416 2.3874
-4.7855 -6.1174 2.3874
-4.5632 -6.2852 2.3874
-4.3349 -6.4450 2.3874
-4.1011 -6.5964 2.3874
-3.8620 -6.7394 2.3874
-3.6179 -6.8737 2.3874
-3.3692 -6.9992 2.3874
-3.1161 -7.1156 2.3874
-2.8590 -7.2229 2.3874
-2.5981 -7.3209 2.3874
-2.3340 -7.4095 2.3874
-2.0668 -7.4886 2.3874
-1.7969 -7.5580 2.3874
-1.5248 -7.6177 2.3874
-1.2506 -7.6675 2.3874
-0.9749 -7.7075 2.3874
-0.6978 -7.7376 2.3874
-0.4199 -7.7577 2.3874
-0.1415 -7.7678 2.3874
0.1372 -7.7680 2.3874
0.4157 -7.7581 2.3874
0.6936 -7.7382 2.3874
0.9707 -7.7084 2.3874
1.2465 -7.6686 2.3874
1.5207 -7.6190 2.3874
1.7929 -7.5596 2.3874
2.0629 -7.4904 2.3874
2.3301 -7.4116 2.3874
2.5944 -7.3232 2.3874
2.8553 -7.2254 2.3874
3.1126 -7.1183 2.3874
3.3658 -7.0021 2.3874
3.6147 -6.8768 2.3874
3.8589 -6.7427 2.3874
4.0982 -6.5999 2.3874
4.3322 -6.4486 2.3874
4.5606 -6.2890 2.3874
4.7831 -6.1213 2.3874
4.9995 -5.9457 2.3874
5.2094 -5.7625 2.3874
5.4126 -5.5719 2.3874
5.6088 -5.3741 2.3874
5.7978 -5.1694 2.3874
5.9793 -4.9581 2.3874
6.1531 -4.7403 2.3874
6.3190 -4.5165 2.3874
6.4768 -4.2869 2.3874
6.6262 -4.0518 2.3874
6.7670 -3.8114 2.3874
6.8992 -3.5662 2.3874
7.0225 -3.3164 2.3874
7.1367 -3.0623 2.3874
7.2417 -2.8043 2.3874
7.3374 -2.5428 2.3874
7.4236 -2.2780 2.3874
7.5003 -2.0102 2.3874
7.5673 -1.7399 2.3874
7.6246 -1.4673 2.3874
7.6721 -1.1929 2.3874
7.7097 -0.9170 2.3874
7.7374 -0.6399 2.3874
7.7551 -0.3619 2.3874
7.7628 -0.0836 2.3874
7.7606 0.1948 2.3874
7.7483 0.4730 2.3874
7.7261 0.7506 2.3874
7.6940 1.0271 2.3874
7.6519 1.3024 2.3874
7.6000 1.5759 2.3874
7.5384 1.8474 2.3874
7.4670 2.1165 2.3874
7.3860 2.3827 2.3874
7.2956 2.6461 2.3874
7.1958 2.9060 2.3874
7.0867 3.1621 2.3874
6.9685 3.4141 2.3874
6.8413 3.6617 2.3874
6.7054 3.9046 2.3874
6.5608 4.1424 2.3874
6.4078 4.3749 2.3874
6.2466 4.6018 2.3874
6.0774 4.8227 2.3874
5.9003 5.0374 2.3874
5.7157 5.2456 2.3874
5.5237 5.4471 2.3874
5.3247 5.6415 2.3874
5.1188 5.8287 2.3874
4.9063 6.0084 2.3874
4.6875 6.1804 2.3874
4.4627 6.3443 2.3874
4.2322 6.5002 2.3874
3.9963 6.6476 2.3874
3.7552 6.7865 2.3874
3.5093 6.9167 2.3874
3.2589 7.0380 2.3874
3.0043 7.1502 2.3874
2.7459 7.2532 2.3874
2.4840 7.3469 2.3874
0.8821 2.9544 0.9492
0.7757 2.9846 0.9493
0.6683 3.0109 0.9494
0.5599 3.0333 0.9496
0.4508 3.0517 0.9497
0.3411 3.0662 0.9498
0.2309 3.0767 0.9499
0.1204 3.0832 0.9499
0.0098 3.0857 0.9500
-0.1009 3.0842 0.9500
-0.2115 3.0787 0.9501
-0.3218 3.0692 0.9501
-0.4317 3.0558 0.9501
-0.5410 3.0383 0.9501
-0.6496 3.0169 0.9501
-0.7574 2.9916 0.9501
-0.8641 2.9624 0.9500
-2.4372 7.3617 2.3874
-2.6997 7.2696 2.3874
-2.9587 7.1681 2.3874
-3.2139 7.0575 2.3874
-3.4650 6.9377 2.3874
-3.7116 6.8090 2.3874
-3.9535 6.6716 2.3874
-4.1903 6.5256 2.3874
-4.4217 6.3712 2.3874
-4.6474 6.2086 2.3874
-4.8672 6.0380 2.3874
-5.0807 5.8597 2.3874
-5.2877 5.6738 2.3874
-5.4879 5.4806 2.3874
-5.6810 5.2803 2.3874
-5.8669 5.0733 2.3874
-6.0452 4.8597 2.3874
-6.2157 4.6399 2.3874
-6.3783 4.4140 2.3874
-6.5327 4.1825 2.3874
-6.6787 3.9457 2.3874
-6.8160 3.7037 2.3874
-6.9447 3.4569 2.3874
-7.0644 3.2058 2.3874
-7.1750 2.9504 2.3874
-7.2764 2.6912 2.3874
-7.3685 2.4286 2.3874
-7.4511 2.1628 2.3874
-7.5241 1.8943 2.3874
-7.5874 1.6232 2.3874
-7.6410 1.3502 2.3874
-7.6847 1.0752 2.3874
-7.7186 0.7990 2.3874
-7.7426 0.5217 2.3874
-7.7566 0.2436 2.3874
-7.7606 -0.0347 2.3874
-7.7546 -0.3130 2.3874
-7.7386 -0.5909 2.3874
-7.7127 -0.8681 2.3874
-7.6769 -1.1442 2.3874
-7.6312 -1.4188 2.3874
-7.5756 -1.6916 2.3874
-7.5103 -1.9623 2.3874
-7.4354 -2.2305 2.3874
-7.3509 -2.4958 2.3874
-7.2569 -2.7579 2.3874
-7.1535 -3.0165 2.3874
-7.0410 -3.2712 2.3874
-6.9194 -3.5217 2.3874
-6.7888 -3.7677 2.3874
-6.6496 -4.0089 2.3874
-6.5017 -4.2449 2.3874
-6.3455 -4.4755 2.3874
-6.1811 -4.7003 2.3874
-6.0087 -4.9191 2.3874
-5.8287 -5.1316 2.3874
-5.6410 -5.3375 2.3874
-5.4461 -5.5365 2.3874
-5.2442 -5.7284 2.3874
-5.0356 -5.9129 2.3874
-4.8204 -6.0899 2.3874
-4.5990 -6.2590 2.3874
-4.3717 -6.4200 2.3874
-4.1388 -6.5728 2.3874
-3.9005 -6.7172 2.3874
-3.6572 -6.8529 2.3874
-3.4091 -6.9798 2.3874
-3.1567 -7.0977 2.3874
-2.9002 -7.2065 2.3874
-2.6399 -7.3059 2.3874
-2.3763 -7.3960 2.3874
-2.1095 -7.4766 2.3874
-1.8401 -7.5476 2.3874
-1.5683 -7.6088 2.3874
-1.2944 -7.6602 2.3874
-1.0189 -7.7018 2.3874
-0.7421 -7.7335 2.3874
-0.4643 -7.7552 2.3874
-0.1859 -7.7669 2.3874
0.0928 -7.7686 2.3874
0.3713 -7.7603 2.3874
0.6494 -7.7421 2.3874
0.9266 -7.7138 2.3874
1.2026 -7.6756 2.3874
1.4771 -7.6276 2.3874
1.7497 -7.5697 2.3874
2.0200 -7.5021 2.3874
2.2877 -7.4248 2.3874
2.5525 -7.3379 2.3874
2.8140 -7.2416 2.3874
3.0718 -7.1360 2.3874
3.3257 -7.0212 2.3874
3.5753 -6.8973 2.3874
3.8203 -6.7646 2.3874
4.0604 -6.6232 2.3874
4.2953 -6.4732 2.3874
4.5246 -6.3150 2.3874
4.7481 -6.1485 2.3874
4.9654 -5.9742 2.3874
5.1764 -5.7922 2.3874
5.3807 -5.6028 2.3874
5.5780 -5.4061 2.3874
5.7682 -5.2025 2.3874
5.9509 -4.9921 2.3874
6.1260 -4.7755 2.3874
6.2931 -4.5526 2.3874
6.4522 -4.3239 2.3874
6.6029 -4.0896 2.3874
6.7452 -3.8501 2.3874
6.8787 -3.6056 2.3874
7.0034 -3.3565 2.3874
7.1191 -3.1031 2.3874
7.2256 -2.8457 2.3874
7.3228 -2.5847 2.3874
7.4105 -2.3203 2.3874
7.4887 -2.0530 2.3874
7.5573 -1.7830 2.3874
7.6162 -1.5109 2.3874
7.6652 -1.2367 2.3874
7.7044 -0.9610 2.3874
7.7336 -0.6840 2.3874
7.7529 -0.4063 2.3874
7.7623 -0.1279 2.3874
7.7616 0.1505 2.3874
7.7509 0.4288 2.3874
7.7303 0.7064 2.3874
7.6998 0.9831 2.3874
7.6593 1.2587 2.3874
7.6089 1.5324 2.3874
7.5489 1.8043 2.3874
7.4790 2.0738 2.3874
7.3996 2.3406 2.3874
7.3107 2.6044 2.3874
7.2123 2.8648 2.3874
7.1047 3.1215 2.3874
6.9879 3.3742 2.3874
6.8622 3.6225 2.3874
6.7276 3.8662 2.3874
6.5844 4.1048 2.3874
6.4328 4.3382 2.3874
6.2729 4.5660 2.3874
6.1049 4.7879 2.3874
5.9291 5.0036 2.3874
5.7456 5.2129 2.3874
5.5548 5.4155 2.3874
5.3569 5.6110 2.3874
5.1520 5.7994 2.3874
4.9406 5.9803 2.3874
4.7228 6.1535 2.3874
4.4990 6.3187 2.3874
4.2693 6.4759 2.3874
4.0342 6.6247 2.3874
3.7940 6.7650 2.3874
3.5488 6.8966 2.3874
3.2991 7.0192 2.3874
3.0452 7.1329 2.3874
2.7873 7.2374 2.3874
2.5259 7.3326 2.3874
0.8990 2.9493 0.9491
0.7928 2.9800 0.9493
0.6855 3.0069 0.9494
0.5772 3.0300 0.9495
0.4682 3.0490 0.9497
0.3586 3.0642 0.9498
0.2485 3.0753 0.9498
0.1380 3.0825 0.9499
0.0274 3.0856 0.9500
-0.0833 3.0847 0.9500
-0.1939 3.0799 0.9501
-0.3042 3.0710 0.9501
-0.4142 3.0582 0.9501
-0.5236 3.0413 0.9501
-0.6323 3.0206 0.9501
-0.7403 2.9959 0.9501
-0.8472 2.9673 0.9500
-2.3950 7.3755 2.3874
-2.6581 7.2849 2.3874
-2.9176 7.1849 2.3874
-3.1735 7.0757 2.3874
-3.4252 6.9574 2.3874
-3.6726 6.8301 2.3874
-3.9153 6.6941 2.3874
-4.1529 6.5494 2.3874
-4.3852 6.3964 2.3874
-4.6118 6.2351 2.3874
-4.8326 6.0657 2.3874
-5.0471 5.8886 2.3874
-5.2552 5.7039 2.3874
-5.4565 5.5118 2.3874
-5.6507 5.3127 2.3874
-5.8378 5.1067 2.3874
-6.0173 4.8942 2.3874
-6.1891 4.6753 2.3874
-6.3530 4.4504 2.3874
-6.5086 4.2198 2.3874
-6.6560 3.9838 2.3874
-6.7947 3.7426 2.3874
-3.9120 6.0163 2.3874
-4.1253 5.8722 2.3874
-4.3333 5.7205 2.3874
-4.5358 5.5615 2.3874
-4.7324 5.3953 2.3874
-4.9230 5.2222 2.3874
-5.1072 5.0423 2.3874
-5.2848 4.8560 2.3874
-5.4557 4.6634 2.3874
-5.6196 4.4649 2.3874
-5.7762 4.2605 2.3874
-5.9255 4.0507 2.3874
-6.0671 3.8357 2.3874
-6.2009 3.6157 2.3874
-6.3267 3.3910 2.3874
-6.4444 3.1620 2.3874
-6.5539 2.9289 2.3874
-6.6549 2.6921 2.3874
-6.7473 2.4517 2.3874
-6.8311 2.2082 2.3874
-6.9061 1.9619 2.3874
-6.9722 1.7130 2.3874
-7.0294 1.4618 2.3874
-7.0775 1.2088 2.3874
-7.1165 0.9542 2.3874
-7.1464 0.6984 2.3874
-7.1671 0.4417 2.3874
-7.1785 0.1844 2.3874
-7.1807 -0.0732 2.3874
-7.1737 -0.3307 2.3874
-7.1575 -0.5878 2.3874
-7.1320 -0.8441 2.3874
-7.0974 -1.0994 2.3874
-7.0536 -1.3533 2.3874
-7.0008 -1.6054 2.3874
-6.9389 -1.8555 2.3874
-6.8681 -2.1032 2.3874
-6.7885 -2.3483 2.3874
-6.7001 -2.5903 2.3874
-6.6031 -2.8290 2.3874
-6.4976 -3.0641 2.3874
-6.3837 -3.2952 2.3874
-6.2616 -3.5222 2.3874
-6.1315 -3.7446 2.3874
-5.9934 -3.9622 2.3874
-5.8476 -4.1747 2.3874
-5.6943 -4.3818 2.3874
-5.5337 -4.5833 2.3874
-5.3659 -4.7790 2.3874
-5.1912 -4.9685 2.3874
-5.0098 -5.1516 2.3874
-4.8220 -5.3281 2.3874
-4.6279 -5.4977 2.3874
-4.4279 -5.6603 2.3874
-4.2222 -5.8155 2.3874
-4.0110 -5.9634 2.3874
-3.7946 -6.1035 2.3874
-3.5734 -6.2358 2.3874
-3.3475 -6.3600 2.3874
-3.1174 -6.4761 2.3874
-2.8832 -6.5839 2.3874
-2.6453 -6.6831 2.3874
-2.4039 -6.7738 2.3874
-2.1595 -6.8558 2.3874
-1.9123 -6.9289 2.3874
-1.6626 -6.9931 2.3874
-1.4108 -7.0483 2.3874
-1.1571 -7.0945 2.3874
-0.9020 -7.1315 2.3874
-0.6457 -7.1593 2.3874
-0.3885 -7.1779 2.3874
-0.1309 -7.1873 2.3874
0.1269 -7.1874 2.3874
0.3846 -7.1782 2.3874
0.6418 -7.1598 2.3874
0.8981 -7.1322 2.3874
1.1533 -7.0955 2.3874
1.4070 -7.0495 2.3874
1.6589 -6.9945 2.3874
1.9086 -6.9305 2.3874
2.1560 -6.8576 2.3874
2.4005 -6.7758 2.3874
2.6419 -6.6854 2.3874
2.8799 -6.5863 2.3874
3.1142 -6.4787 2.3874
3.3445 -6.3628 2.3874
3.5705 -6.2387 2.3874
3.7919 -6.1066 2.3874
4.0084 -5.9666 2.3874
4.2197 -5.8190 2.3874
4.4256 -5.6638 2.3874
4.6258 -5.5014 2.3874
4.8200 -5.3319 2.3874
5.0081 -5.1555 2.3874
5.1896 -4.9725 2.3874
5.3645 -4.7831 2.3874
5.5325 -4.5876 2.3874
5.6933 -4.3861 2.3874
5.8468 -4.1790 2.3874
5.9928 -3.9666 2.3874
6.1310 -3.7490 2.3874
6.2614 -3.5267 2.3874
6.3837 -3.2998 2.3874
6.4977 -3.0686 2.3874
6.6034 -2.8336 2.3874
6.7006 -2.5949 2.3874
6.7892 -2.3528 2.3874
6.8690 -2.1078 2.3874
6.9399 -1.8600 2.3874
7.0020 -1.6099 2.3874
7.0550 -1.3577 2.3874
7.0989 -1.1038 2.3874
7.1337 -0.8485 2.3874
7.1594 -0.5921 2.3874
7.1758 -0.3350 2.3874
7.1829 -0.0774 2.3874
7.1809 0.1803 2.3874
7.1696 0.4377 2.3874
7.1490 0.6945 2.3874
7.1193 0.9504 2.3874
7.0804 1.2050 2.3874
7.0324 1.4582 2.3874
6.9754 1.7094 2.3874
6.9094 1.9584 2.3874
6.8345 2.2048 2.3874
6.7508 2.4485 2.3874
6.6584 2.6889 2.3874
6.5575 2.9259 2.3874
6.4481 3.1591 2.3874
6.3305 3.3882 2.3874
6.2047 3.6130 2.3874
6.0710 3.8331 2.3874
5.9294 4.0482 2.3874
5.7802 4.2581 2.3874
5.6236 4.4626 2.3874
5.4598 4.6613 2.3874
5.2890 4.8540 2.3874
5.1114 5.0404 2.3874
4.9272 5.2203 2.3874
4.7367 5.3936 2.3874
4.5400 5.5598 2.3874
4.3376 5.7190 2.3874
4.1296 5.8707 2.3874
3.9163 6.0149 2.3874
3.6980 6.1514 2.3874
3.4749 6.2799 2.3874
3.2474 6.4004 2.3874
3.0157 6.5126 2.3874
2.7801 6.6165 2.3874
2.5410 6.7118 2.3874
0.9131 2.7006 0.9484
0.8157 2.7320 0.9485
0.7173 2.7599 0.9486
0.6179 2.7841 0.9488
0.5177 2.8048 0.9489
0.4169 2.8219 0.9490
0.3154 2.8352 0.9491
0.2135 2.8449 0.9492
0.1113 2.8509 0.9492
0.0090 2.8533 0.9493
-0.0933 2.8519 0.9493
-0.1956 2.8468 0.9494
-0.2975 2.8380 0.9494
-0.3991 2.8255 0.9494
-0.5002 2.8094 0.9494
-0.6007 2.7896 0.9494
-0.7003 2.7662 0.9493
-0.7990 2.7392 0.9493
-0.8967 2.7086 0.9493
-2.4982 6.7270 2.3874
-2.7379 6.6331 2.3874
-2.9740 6.5307 2.3874
-3.2064 6.4199 2.3874
-3.4346 6.3008 2.3874
-3.6584 6.1736 2.3874
-3.8775 6.0385 2.3874
-4.0917 5.8956 2.3874
-4.3005 5.7452 2.3874
-4.5039 5.5873 2.3874
-4.7015 5.4223 2.3874
-4.8930 5.2502 2.3874
-5.0783 5.0715 2.3874
-5.2570 4.8861 2.3874
-5.4290 4.6945 2.3874
-5.5940 4.4969 2.3874
-5.7518 4.2935 2.3874
-5.9022 4.0845 2.3874
-6.0450 3.8703 2.3874
-6.1801 3.6511 2.3874
-6.3072 3.4271 2.3874
-6.4262 3.1988 2.3874
-6.5370 2.9664 2.3874
-6.6394 2.7301 2.3874
-6.7332 2.4903 2.3874
-6.8183 2.2472 2.3874
-6.8948 2.0013 2.3874
-6.9623 1.7528 2.3874
-7.0209 1.5020 2.3874
-7.0704 1.2493 2.3874
-7.1109 0.9949 2.3874
-7.1422 0.7393 2.3874
-7.1644 0.4827 2.3874
-7.1773 0.2254 2.3874
-7.1810 -0.0321 2.3874
-7.1755 -0.2897 2.3874
-7.1607 -0.5468 2.3874
-7.1367 -0.8033 2.3874
-7.1035 -1.0588 2.3874
-7.0612 -1.3129 2.3874
-7.0098 -1.5653 2.3874
-6.9494 -1.8158 2.3874
-6.8800 -2.0639 2.3874
-6.8018 -2.3094 2.3874
-6.7148 -2.5519 2.3874
-6.6191 -2.7912 2.3874
-6.5150 -3.0269 2.3874
-6.4024 -3.2587 2.3874
-6.2816 -3.4863 2.3874
-6.1528 -3.7094 2.3874
-6.0159 -3.9278 2.3874
-5.8714 -4.1412 2.3874
-5.7193 -4.3492 2.3874
-5.5598 -4.5516 2.3874
-5.3931 -4.7482 2.3874
-5.2195 -4.9387 2.3874
-5.0392 -5.1228 2.3874
-4.8523 -5.3004 2.3874
-4.6593 -5.4711 2.3874
-4.4602 -5.6348 2.3874
-4.2553 -5.7913 2.3874
-4.0450 -5.9403 2.3874
-3.8295 -6.0817 2.3874
-3.6090 -6.2152 2.3874
-3.3838 -6.3408 2.3874
-3.1543 -6.4582 2.3874
-2.9208 -6.5672 2.3874
-2.6834 -6.6679 2.3874
-2.4426 -6.7599 2.3874
-2.1987 -6.8433 2.3874
-1.9519 -6.9178 2.3874
-1.7026 -6.9835 2.3874
-1.4511 -7.0401 2.3874
-1.1977 -7.0877 2.3874
-0.9428 -7.1262 2.3874
-0.6866 -7.1555 2.3874
-0.4296 -7.1755 2.3874
-0.1720 -7.1864 2.3874
0.0859 -7.1880 2.3874
0.3436 -7.1803 2.3874
0.6008 -7.1634 2.3874
0.8573 -7.1373 2.3874
1.1127 -7.1019 2.3874
1.3667 -7.0575 2.3874
1.6189 -7.0039 2.3874
1.8690 -6.9413 2.3874
2.1167 -6.8698 2.3874
2.3617 -6.7895 2.3874
2.6037 -6.7004 2.3874
2.8422 -6.6026 2.3874
3.0771 -6.4964 2.3874
3.3081 -6.3818 2.3874
3.5348 -6.2590 2.3874
3.7569 -6.1282 2.3874
3.9742 -5.9895 2.3874
4.1864 -5.8430 2.3874
4.3932 -5.6890 2.3874
4.5943 -5.5277 2.3874
4.7895 -5.3594 2.3874
4.9785 -5.1841 2.3874
5.1611 -5.0021 2.3874
5.3371 -4.8137 2.3874
5.5062 -4.6191 2.3874
5.6681 -4.4186 2.3874
5.8228 -4.2124 2.3874
5.9700 -4.0008 2.3874
6.1095 -3.7840 2.3874
6.2411 -3.5624 2.3874
6.3647 -3.3362 2.3874
6.4801 -3.1058 2.3874
6.5871 -2.8713 2.3874
6.6857 -2.6331 2.3874
6.7756 -2.3916 2.3874
6.8568 -2.1470 2.3874
6.9292 -1.8997 2.3874
6.9927 -1.6499 2.3874
7.0472 -1.3981 2.3874
7.0926 -1.1444 2.3874
7.1288 -0.8893 2.3874
7.1559 -0.6330 2.3874
7.1738 -0.3760 2.3874
7.1824 -0.1185 2.3874
7.1818 0.1392 2.3874
7.1720 0.3967 2.3874
7.1529 0.6536 2.3874
7.1247 0.9097 2.3874
7.0872 1.1646 2.3874
7.0407 1.4179 2.3874
6.9851 1.6695 2.3874
6.9205 1.9189 2.3874
6.8470 2.1658 2.3874
6.7647 2.4098 2.3874
6.6737 2.6508 2.3874
6.5741 2.8884 2.3874
6.4661 3.1222 2.3874
6.3498 3.3520 2.3874
6.2253 3.5775 2.3874
6.0928 3.7983 2.3874
5.9525 4.0143 2.3874
5.8045 4.2250 2.3874
5.6491 4.4304 2.3874
5.4864 4.6300 2.3874
5.3167 4.8237 2.3874
5.1401 5.0111 2.3874
4.9570 5.1921 2.3874
4.7674 5.3664 2.3874
4.5718 5.5338 2.3874
4.3703 5.6941 2.3874
4.1631 5.8470 2.3874
3.9507 5.9924 2.3874
3.7331 6.1301 2.3874
3.5108 6.2600 2.3874
3.2839 6.3817 2.3874
3.0529 6.4953 2.3874
2.8179 6.6005 2.3874
2.5793 6.6972 2.3874
0.9285 2.6953 0.9483
0.8313 2.7273 0.9485
0.7331 2.7557 0.9486
0.6338 2.7805 0.9487
0.5338 2.8018 0.9489
0.4330 2.8194 0.9490
0.3316 2.8333 0.9491
0.2298 2.8436 0.9491
0.1277 2.8502 0.9492
0.0253 2.8531 0.9493
-0.0770 2.8523 0.9493
-0.1793 2.8478 0.9493
-0.2813 2.8396 0.9494
-0.3830 2.8277 0.9494
-0.4841 2.8122 0.9494
-0.5847 2.7930 0.9494
-0.6845 2.7702 0.9494
-0.7834 2.7437 0.9493
-0.8812 2.7137 0.9493
-2.4597 6.7412 2.3874
-2.6999 6.6486 2.3874
-2.9366 6.5476 2.3874
-3.1696 6.4381 2.3874
-3.3985 6.3203 2.3874
-3.6230 6.1944 2.3874
-3.8429 6.0606 2.3874
-4.0579 5.9189 2.3874
-4.2676 5.7696 2.3874
-4.4719 5.6129 2.3874
-4.6704 5.4490 2.3874
-4.8629 5.2781 2.3874
-5.0492 5.1004 2.3874
-5.2289 4.9161 2.3874
-5.4020 4.7255 2.3874
-5.5681 4.5288 2.3874
-5.7271 4.3263 2.3874
-5.8787 4.1182 2.3874
-6.0228 3.9048 2.3874
-6.1591 3.6863 2.3874
-6.2875 3.4631 2.3874
-3.6365 5.5925 2.3874
-3.8348 5.4586 2.3874
-4.0282 5.3176 2.3874
-4.2163 5.1698 2.3874
-4.3991 5.0153 2.3874
-4.5762 4.8543 2.3874
-4.7475 4.6872 2.3874
-4.9126 4.5140 2.3874
-5.0714 4.3349 2.3874
-5.2238 4.1503 2.3874
-5.3694 3.9604 2.3874
-5.5081 3.7653 2.3874
-5.6397 3.5654 2.3874
-5.7641 3.3610 2.3874
-5.8811 3.1521 2.3874
-5.9905 2.9393 2.3874
-6.0922 2.7226 2.3874
-6.1861 2.5024 2.3874
-6.2720 2.2790 2.3874
-6.3499 2.0526 2.3874
-6.4196 1.8236 2.3874
-6.4810 1.5922 2.3874
-6.5341 1.3588 2.3874
-6.5789 1.1236 2.3874
-6.6151 0.8870 2.3874
-6.6429 0.6492 2.3874
-6.6621 0.4105 2.3874
-6.6727 0.1713 2.3874
-6.6747 -0.0681 2.3874
-6.6682 -0.3074 2.3874
-6.6531 -0.5464 2.3874
-6.6294 -0.7847 2.3874
-6.5972 -1.0220 2.3874
-6.5565 -1.2579 2.3874
-6.5074 -1.4923 2.3874
-6.4499 -1.7248 2.3874
-6.3840 -1.9550 2.3874
-6.3100 -2.1828 2.3874
-6.2278 -2.4078 2.3874
-6.1377 -2.6297 2.3874
-6.0396 -2.8482 2.3874
-5.9337 -3.0630 2.3874
-5.8202 -3.2739 2.3874
-5.6993 -3.4806 2.3874
-5.5709 -3.6829 2.3874
-5.4354 -3.8804 2.3874
-5.2929 -4.0730 2.3874
-5.1436 -4.2603 2.3874
-4.9876 -4.4421 2.3874
-4.8252 -4.6182 2.3874
-4.6566 -4.7884 2.3874
-4.4820 -4.9525 2.3874
-4.3016 -5.1101 2.3874
-4.1157 -5.2612 2.3874
-3.9245 -5.4055 2.3874
-3.7282 -5.5429 2.3874
-3.5271 -5.6732 2.3874
-3.3214 -5.7961 2.3874
-3.1115 -5.9116 2.3874
-2.8975 -6.0195 2.3874
-2.6799 -6.1196 2.3874
-2.4587 -6.2119 2.3874
-2.2344 -6.2962 2.3874
-2.0072 -6.3723 2.3874
-1.7774 -6.4403 2.3874
-1.5454 -6.5000 2.3874
-1.3113 -6.5513 2.3874
-1.0755 -6.5942 2.3874
-0.8384 -6.6286 2.3874
-0.6001 -6.6544 2.3874
-0.3611 -6.6717 2.3874
-0.1216 -6.6804 2.3874
0.1180 -6.6805 2.3874
0.3575 -6.6720 2.3874
0.5965 -6.6549 2.3874
0.8348 -6.6293 2.3874
1.0720 -6.5951 2.3874
1.3078 -6.5524 2.3874
1.5419 -6.5013 2.3874
1.7741 -6.4418 2.3874
2.0039 -6.3740 2.3874
2.2312 -6.2980 2.3874
2.4556 -6.2139 2.3874
2.6768 -6.1218 2.3874
2.8946 -6.0219 2.3874
3.1087 -5.9141 2.3874
3.3187 -5.7988 2.3874
3.5245 -5.6760 2.3874
3.7257 -5.5459 2.3874
3.9221 -5.4086 2.3874
4.1135 -5.2645 2.3874
4.2996 -5.1135 2.3874
4.4802 -4.9559 2.3874
4.6549 -4.7920 2.3874
4.8237 -4.6219 2.3874
4.9862 -4.4459 2.3874
5.1424 -4.2641 2.3874
5.2919 -4.0769 2.3874
5.4345 -3.8844 2.3874
5.5702 -3.6869 2.3874
5.6987 -3.4847 2.3874
5.8199 -3.2781 2.3874
5.9336 -3.0672 2.3874
6.0396 -2.8523 2.3874
6.1379 -2.6339 2.3874
6.2282 -2.4120 2.3874
6.3105 -2.1870 2.3874
6.3847 -1.9592 2.3874
6.4507 -1.7290 2.3874
6.5084 -1.4965 2.3874
6.5577 -1.2621 2.3874
6.5986 -1.0261 2.3874
6.6309 -0.7887 2.3874
6.6547 -0.5504 2.3874
6.6700 -0.3114 2.3874
6.6767 -0.0720 2.3874
6.6748 0.1675 2.3874
6.6643 0.4068 2.3874
6.6452 0.6455 2.3874
6.6176 0.8834 2.3874
6.5814 1.1201 2.3874
6.5368 1.3554 2.3874
6.4838 1.5889 2.3874
6.4225 1.8203 2.3874
6.3529 2.0494 2.3874
6.2751 2.2759 2.3874
6.1893 2.4994 2.3874
6.0955 2.7197 2.3874
5.9938 2.9365 2.3874
5.8845 3.1494 2.3874
5.7676 3.3584 2.3874
5.6433 3.5630 2.3874
5.5117 3.7630 2.3874
5.3730 3.9581 2.3874
5.2275 4.1482 2.3874
5.0752 4.3329 2.3874
4.9164 4.5120 2.3874
4.7513 4.6853 2.3874
4.5801 4.8526 2.3874
4.4030 5.0136 2.3874
4.2203 5.1682 2.3874
4.0321 5.3161 2.3874
3.8388 5.4572 2.3874
3.6405 5.5912 2.3874
3.4375 5.7181 2.3874
3.2302 5.8376 2.3874
3.0187 5.9496 2.3874
2.8033 6.0539 2.3874
2.5843 6.1504 2.3874
2.3620 6.2391 2.3874
0.8483 2.5089 0.9478
0.7578 2.5381 0.9479
0.6664 2.5639 0.9481
0.5741 2.5864 0.9482
0.4810 2.6056 0.9483
0.3873 2.6214 0.9484
0.2930 2.6339 0.9485
0.1984 2.6428 0.9485
0.1034 2.6484 0.9486
0.0084 2.6506 0.9486
-0.0867 2.6493 0.9487
-0.1817 2.6445 0.9487
-0.2764 2.6363 0.9487
-0.3708 2.6248 0.9487
-0.4647 2.6098 0.9487
-0.5580 2.5914 0.9487
-0.6505 2.5697 0.9487
-0.7423 2.5446 0.9487
-0.8330 2.5162 0.9486
-2.3222 6.2532 2.3874
-2.5450 6.1660 2.3874
-2.7646 6.0707 2.3874
-2.9806 5.9677 2.3874
-3.1927 5.8570 2.3874
-3.4008 5.7388 2.3874
-3.6045 5.6132 2.3874
-3.8035 5.4804 2.3874
-3.9977 5.3405 2.3874
-4.1867 5.1938 2.3874
-4.3704 5.0403 2.3874
-4.5484 4.8804 2.3874
-4.7206 4.7142 2.3874
-4.8867 4.5420 2.3874
-5.0466 4.3638 2.3874
-5.1999 4.1801 2.3874
-5.3466 3.9910 2.3874
-5.4865 3.7968 2.3874
-5.6192 3.5976 2.3874
-5.7448 3.3938 2.3874
-5.8629 3.1857 2.3874
-5.9735 2.9734 2.3874
-6.0765 2.7574 2.3874
-6.1716 2.5377 2.3874
-6.2588 2.3148 2.3874
-6.3380 2.0889 2.3874
-6.4090 1.8603 2.3874
-6.4718 1.6293 2.3874
-6.5262 1.3961 2.3874
-6.5723 1.1612 2.3874
-6.6099 0.9248 2.3874
-6.6390 0.6871 2.3874
-6.6596 0.4486 2.3874
-6.6716 0.2095 2.3874
-6.6750 -0.0299 2.3874
-6.6698 -0.2693 2.3874
-6.6561 -0.5084 2.3874
-6.6338 -0.7468 2.3874
-6.6029 -0.9842 2.3874
-6.5636 -1.2204 2.3874
-6.5158 -1.4551 2.3874
-6.4596 -1.6879 2.3874
-6.3951 -1.9185 2.3874
-6.3224 -2.1467 2.3874
-6.2415 -2.3721 2.3874
-6.1526 -2.5945 2.3874
-6.0558 -2.8136 2.3874
-5.9511 -3.0290 2.3874
-5.8388 -3.2406 2.3874
-5.7190 -3.4480 2.3874
-5.5919 -3.6510 2.3874
-5.4575 -3.8493 2.3874
-5.3161 -4.0426 2.3874
-5.1678 -4.2308 2.3874
-5.0129 -4.4135 2.3874
-4.8515 -4.5906 2.3874
-4.6839 -4.7617 2.3874
-4.5102 -4.9267 2.3874
-4.3307 -5.0854 2.3874
-4.1457 -5.2376 2.3874
-3.9553 -5.3830 2.3874
-3.7598 -5.5215 2.3874
-3.5594 -5.6529 2.3874
-3.3545 -5.7770 2.3874
-3.1452 -5.8937 2.3874
-2.9319 -6.0028 2.3874
-2.7148 -6.1042 2.3874
-2.4942 -6.1977 2.3874
-2.2704 -6.2833 2.3874
-2.0436 -6.3608 2.3874
-1.8142 -6.4300 2.3874
-1.5825 -6.4910 2.3874
-1.3487 -6.5437 2.3874
-1.1132 -6.5879 2.3874
-0.8762 -6.6237 2.3874
-0.6382 -6.6509 2.3874
-0.3993 -6.6695 2.3874
-0.1598 -6.6796 2.3874
0.0798 -6.6811 2.3874
0.3193 -6.6740 2.3874
0.5585 -6.6582 2.3874
0.7969 -6.6339 2.3874
1.0343 -6.6011 2.3874
1.2703 -6.5598 2.3874
1.5047 -6.5100 2.3874
1.7372 -6.4518 2.3874
1.9674 -6.3854 2.3874
2.1951 -6.3107 2.3874
2.4200 -6.2279 2.3874
2.6418 -6.1370 2.3874
2.8601 -6.0383 2.3874
3.0748 -5.9318 2.3874
3.2855 -5.8177 2.3874
3.4920 -5.6961 2.3874
3.6940 -5.5671 2.3874
3.8912 -5.4310 2.3874
4.0834 -5.2879 2.3874
4.2703 -5.1380 2.3874
4.4518 -4.9815 2.3874
4.6275 -4.8185 2.3874
4.7972 -4.6494 2.3874
4.9608 -4.4743 2.3874
5.1179 -4.2935 2.3874
5.2685 -4.1071 2.3874
5.4123 -3.9154 2.3874
5.5491 -3.7187 2.3874
5.6787 -3.5173 2.3874
5.8011 -3.3113 2.3874
5.9160 -3.1011 2.3874
6.0232 -2.8868 2.3874
6.1227 -2.6689 2.3874
6.2143 -2.4476 2.3874
6.2980 -2.2231 2.3874
6.3735 -1.9957 2.3874
6.4408 -1.7658 2.3874
6.4998 -1.5337 2.3874
6.5504 -1.2995 2.3874
6.5926 -1.0638 2.3874
6.6263 -0.8266 2.3874
6.6515 -0.5884 2.3874
6.6681 -0.3495 2.3874
6.6762 -0.1102 2.3874
6.6757 0.1293 2.3874
6.6665 0.3686 2.3874
6.6488 0.6075 2.3874
6.6225 0.8455 2.3874
6.5878 1.0824 2.3874
6.5445 1.3180 2.3874
6.4928 1.5518 2.3874
6.4328 1.7836 2.3874
6.3645 2.0131 2.3874
6.2880 2.2400 2.3874
6.2035 2.4640 2.3874
6.1109 2.6848 2.3874
6.0105 2.9022 2.3874
5.9024 3.1158 2.3874
5.7867 3.3254 2.3874
5.6636 3.5307 2.3874
5.5331 3.7314 2.3874
5.3956 3.9273 2.3874
5.2511 4.1182 2.3874
5.0999 4.3038 2.3874
4.9422 4.4838 2.3874
4.7780 4.6581 2.3874
4.6078 4.8263 2.3874
4.4316 4.9883 2.3874
4.2498 5.1440 2.3874
4.0624 5.2930 2.3874
3.8699 5.4351 2.3874
3.6724 5.5703 2.3874
3.4702 5.6983 2.3874
3.2635 5.8190 2.3874
3.0526 5.9322 2.3874
2.8379 6.0378 2.3874
2.6194 6.1356 2.3874
2.3977 6.2255 2.3874
0.8626 2.5040 0.9478
0.7723 2.5336 0.9479
0.6810 2.5600 0.9480
0.5888 2.5831 0.9482
0.4959 2.6028 0.9483
0.4022 2.6191 0.9484
0.3081 2.6321 0.9484
0.2135 2.6416 0.9485
0.1186 2.6478 0.9486
0.0235 2.6504 0.9486
-0.0715 2.6497 0.9487
-0.1665 2.6455 0.9487
-0.2613 2.6379 0.9487
-0.3558 2.6268 0.9487
-0.4497 2.6124 0.9487
-0.5432 2.5945 0.9487
-0.6358 2.5733 0.9487
-0.7277 2.5488 0.9487
-0.8186 2.5210 0.9486
-0.9085 2.4898 0.9486
-2.5097 6.1804 2.3874
-2.7298 6.0864 2.3874
-2.9464 5.9847 2.3874
-3.1592 5.8752 2.3874
-3.3679 5.7582 2.3874
-3.5723 5.6337 2.3874
-3.7721 5.5020 2.3874
-3.9671 5.3633 2.3874
-4.1569 5.2176 2.3874
-4.3415 5.0652 2.3874
-4.5204 4.9063 2.3874
-4.6935 4.7411 2.3874
-4.8606 4.5698 2.3874
-5.0215 4.3926 2.3874
-5.1759 4.2098 2.3874
-5.3237 4.0215 2.3874
-5.4646 3.8281 2.3874
-5.5985 3.6297 2.3874
-5.7252 3.4266 2.3874
-5.8446 3.2192 2.3874
-3.3936 5.2190 2.3874
-3.5787 5.0939 2.3874
-3.7591 4.9624 2.3874
-3.9347 4.8244 2.3874
-4.1053 4.6803 2.3874
-4.2706 4.5301 2.3874
-4.4304 4.3741 2.3874
-4.5845 4.2124 2.3874
-4.7327 4.0453 2.3874
-4.8748 3.8731 2.3874
-5.0107 3.6958 2.3874
-5.1401 3.5138 2.3874
-5.2630 3.3272 2.3874
-5.3790 3.1364 2.3874
-5.4882 2.9415 2.3874
-5.5903 2.7429 2.3874
-5.6852 2.5407 2.3874
-5.7728 2.3352 2.3874
-5.8530 2.1267 2.3874
-5.9256 1.9154 2.3874
-5.9907 1.7017 2.3874
-6.0480 1.4858 2.3874
-6.0976 1.2680 2.3874
-6.1393 1.0485 2.3874
-6.1731 0.8277 2.3874
-6.1990 0.6058 2.3874
-6.2169 0.3831 2.3874
-6.2268 0.1598 2.3874
-6.2287 -0.0636 2.3874
-6.2226 -0.2869 2.3874
-6.2085 -0.5099 2.3874
-6.1864 -0.7323 2.3874
-6.1563 -0.9537 2.3874
-6.1183 -1.1739 2.3874
-6.0725 -1.3926 2.3874
-6.0188 -1.6096 2.3874
-5.9573 -1.8244 2.3874
-5.8883 -2.0370 2.3874
-5.8116 -2.2469 2.3874
-5.7274 -2.4539 2.3874
-5.6359 -2.6578 2.3874
-5.5371 -2.8583 2.3874
-5.4312 -3.0551 2.3874
-5.3182 -3.2480 2.3874
-5.1985 -3.4367 2.3874
-5.0720 -3.6211 2.3874
-4.9390 -3.8007 2.3874
-4.7997 -3.9755 2.3874
-4.6541 -4.1452 2.3874
-4.5026 -4.3095 2.3874
-4.3453 -4.4683 2.3874
-4.1823 -4.6214 2.3874
-4.0140 -4.7685 2.3874
-3.8405 -4.9095 2.3874
-3.6620 -5.0441 2.3874
-3.4789 -5.1723 2.3874
-3.2912 -5.2939 2.3874
-3.0993 -5.4086 2.3874
-2.9034 -5.5163 2.3874
-2.7038 -5.6170 2.3874
-2.5006 -5.7105 2.3874
-2.2943 -5.7966 2.3874
-2.0850 -5.8752 2.3874
-1.8730 -5.9463 2.3874
-1.6586 -6.0097 2.3874
-1.4420 -6.0654 2.3874
-1.2236 -6.1132 2.3874
-1.0036 -6.1532 2.3874
-0.7823 -6.1853 2.3874
-0.5600 -6.2094 2.3874
-0.3370 -6.2256 2.3874
-0.1135 -6.2337 2.3874
0.1101 -6.2338 2.3874
0.3336 -6.2259 2.3874
0.5566 -6.2099 2.3874
0.7790 -6.1860 2.3874
1.0003 -6.1541 2.3874
1.2203 -6.1142 2.3874
1.4388 -6.0665 2.3874
1.6554 -6.0110 2.3874
1.8699 -5.9478 2.3874
2.0820 -5.8769 2.3874
2.2914 -5.7984 2.3874
2.4978 -5.7125 2.3874
2.7010 -5.6192 2.3874
2.9008 -5.5187 2.3874
3.0968 -5.4110 2.3874
3.2888 -5.2965 2.3874
3.4766 -5.1751 2.3874
3.6599 -5.0470 2.3874
3.8385 -4.9124 2.3874
4.0121 -4.7716 2.3874
4.1806 -4.6246 2.3874
4.3436 -4.4716 2.3874
4.5011 -4.3129 2.3874
4.6528 -4.1486 2.3874
4.7985 -3.9790 2.3874
4.9380 -3.8043 2.3874
5.0712 -3.6247 2.3874
5.1978 -3.4405 2.3874
5.3177 -3.2518 2.3874
5.4308 -3.0589 2.3874
5.5369 -2.8621 2.3874
5.6358 -2.6617 2.3874
5.7275 -2.4578 2.3874
5.8118 -2.2508 2.3874
5.8887 -2.0409 2.3874
5.9579 -1.8283 2.3874
6.0195 -1.6134 2.3874
6.0733 -1.3965 2.3874
6.1193 -1.1777 2.3874
6.1575 -0.9575 2.3874
6.1877 -0.7361 2.3874
6.2099 -0.5137 2.3874
6.2242 -0.2906 2.3874
6.2304 -0.0672 2.3874
6.2287 0.1563 2.3874
6.2189 0.3795 2.3874
6.2011 0.6023 2.3874
6.1753 0.8243 2.3874
6.1416 1.0452 2.3874
6.1000 1.2647 2.3874
6.0505 1.4826 2.3874
5.9933 1.6986 2.3874
5.9284 1.9124 2.3874
5.8558 2.1238 2.3874
5.7757 2.3324 2.3874
5.6882 2.5379 2.3874
5.5933 2.7402 2.3874
5.4913 2.9390 2.3874
5.3822 3.1339 2.3874
5.2662 3.3249 2.3874
5.1434 3.5115 2.3874
5.0141 3.6936 2.3874
4.8782 3.8710 2.3874
4.7362 4.0434 2.3874
4.5880 4.2105 2.3874
4.4339 4.3722 2.3874
4.2742 4.5283 2.3874
4.1089 4.6786 2.3874
3.9384 4.8229 2.3874
3.7628 4.9609 2.3874
3.5823 5.0926 2.3874
3.3973 5.2177 2.3874
3.2079 5.3361 2.3874
3.0144 5.4476 2.3874
2.8170 5.5521 2.3874
2.6161 5.6495 2.3874
2.4117 5.7396 2.3874
0.8745 2.3099 0.9472
0.7912 2.3401 0.9473
0.7068 2.3673 0.9474
0.6216 2.3914 0.9475
0.5354 2.4124 0.9477
0.4486 2.4302 0.9477
0.3612 2.4450 0.9478
0.2733 2.4565 0.9479
0.1850 2.4649 0.9480
0.0965 2.4701 0.9480
0.0078 2.4721 0.9481
-0.0808 2.4709 0.9481
-0.1694 2.4664 0.9482
-0.2578 2.4588 0.9482
-0.3458 2.4480 0.9482
-0.4334 2.4340 0.9482
-0.5204 2.4169 0.9482
-0.6067 2.3966 0.9482
-0.6923 2.3732 0.9481
-0.7769 2.3468 0.9481
-0.8606 2.3173 0.9480
-2.3751 5.7541 2.3874
-2.5799 5.6653 2.3874
-2.7815 5.5691 2.3874
-2.9795 5.4658 2.3874
-3.1736 5.3555 2.3874
-3.3637 5.2383 2.3874
-3.5495 5.1143 2.3874
-3.7307 4.9838 2.3874
-3.9071 4.8468 2.3874
-4.0784 4.7036 2.3874
-4.2446 4.5544 2.3874
-4.4053 4.3993 2.3874
-4.5603 4.2386 2.3874
-4.7095 4.0723 2.3874
-4.8526 3.9009 2.3874
-4.9895 3.7244 2.3874
-5.1200 3.5431 2.3874
-5.2438 3.3573 2.3874
-5.3610 3.1671 2.3874
-5.4713 2.9728 2.3874
-5.5745 2.7748 2.3874
-5.6706 2.5731 2.3874
-5.7593 2.3681 2.3874
-5.8407 2.1601 2.3874
-5.9146 1.9493 2.3874
-5.9808 1.7359 2.3874
-6.0394 1.5204 2.3874
-6.0902 1.3028 2.3874
-6.1332 1.0836 2.3874
-6.1682 0.8629 2.3874
-6.1954 0.6412 2.3874
-6.2146 0.4186 2.3874
-6.2258 0.1954 2.3874
-6.2289 -0.0280 2.3874
-6.2241 -0.2514 2.3874
-6.2113 -0.4744 2.3874
-6.1904 -0.6969 2.3874
-6.1616 -0.9185 2.3874
-6.1249 -1.1389 2.3874
-6.0803 -1.3579 2.3874
-6.0278 -1.5751 2.3874
-5.9677 -1.7903 2.3874
-5.8998 -2.0032 2.3874
-5.8243 -2.2136 2.3874
-5.7413 -2.4211 2.3874
-5.6510 -2.6255 2.3874
-5.5533 -2.8266 2.3874
-5.4485 -3.0240 2.3874
-5.3367 -3.2175 2.3874
-5.2180 -3.4069 2.3874
-5.0926 -3.5920 2.3874
-4.9607 -3.7724 2.3874
-4.8223 -3.9480 2.3874
-4.6777 -4.1185 2.3874
-4.5271 -4.2837 2.3874
-4.3707 -4.4434 2.3874
-4.2087 -4.5974 2.3874
-4.0412 -4.7454 2.3874
-3.8685 -4.8874 2.3874
-3.6908 -5.0231 2.3874
-3.5084 -5.1523 2.3874
-3.3214 -5.2749 2.3874
-3.1302 -5.3908 2.3874
-2.9349 -5.4996 2.3874
-2.7358 -5.6015 2.3874
-2.5332 -5.6961 2.3874
-2.3274 -5.7833 2.3874
-2.1185 -5.8632 2.3874
-1.9069 -5.9354 2.3874
-1.6929 -6.0001 2.3874
-1.4767 -6.0570 2.3874
-1.2585 -6.1061 2.3874
-1.0387 -6.1474 2.3874
-0.8176 -6.1807 2.3874
-0.5955 -6.2061 2.3874
-0.3725 -6.2236 2.3874
-0.1491 -6.2329 2.3874
0.0745 -6.2343 2.3874
0.2980 -6.2277 2.3874
0.5211 -6.2130 2.3874
0.7436 -6.1903 2.3874
0.9651 -6.1597 2.3874
1.1854 -6.1211 2.3874
1.4041 -6.0747 2.3874
1.6210 -6.0204 2.3874
1.8359 -5.9584 2.3874
2.0484 -5.8887 2.3874
2.2582 -5.8114 2.3874
2.4651 -5.7267 2.3874
2.6689 -5.6345 2.3874
2.8692 -5.5352 2.3874
3.0658 -5.4287 2.3874
3.2585 -5.3152 2.3874
3.4470 -5.1949 2.3874
3.6310 -5.0679 2.3874
3.8103 -4.9343 2.3874
3.9848 -4.7944 2.3874
4.1541 -4.6484 2.3874
4.3180 -4.4964 2.3874
4.4764 -4.3386 2.3874
4.6290 -4.1752 2.3874
4.7757 -4.0064 2.3874
4.9162 -3.8325 2.3874
5.0504 -3.6537 2.3874
5.1781 -3.4701 2.3874
5.2991 -3.2821 2.3874
5.4132 -3.0899 2.3874
5.5204 -2.8938 2.3874
5.6205 -2.6939 2.3874
5.7134 -2.4905 2.3874
5.7989 -2.2840 2.3874
5.8769 -2.0745 2.3874
5.9474 -1.8623 2.3874
6.0102 -1.6478 2.3874
6.0653 -1.4312 2.3874
6.1125 -1.2127 2.3874
6.1519 -0.9927 2.3874
6.1834 -0.7714 2.3874
6.2069 -0.5492 2.3874
6.2224 -0.3262 2.3874
6.2300 -0.1028 2.3874
6.2295 0.1207 2.3874
6.2210 0.3440 2.3874
6.2044 0.5668 2.3874
6.1799 0.7890 2.3874
6.1475 1.0101 2.3874
6.1071 1.2298 2.3874
6.0589 1.4480 2.3874
6.0029 1.6644 2.3874
5.9392 1.8785 2.3874
5.8679 2.0903 2.3874
5.7889 2.2993 2.3874
5.7026 2.5054 2.3874
5.6089 2.7082 2.3874
5.5080 2.9075 2.3874
5.4001 3.1031 2.3874
5.2852 3.2947 2.3874
5.1635 3.4821 2.3874
5.0351 3.6649 2.3874
4.9003 3.8430 2.3874
4.7592 4.0162 2.3874
4.6120 4.1842 2.3874
4.4588 4.3468 2.3874
4.3000 4.5038 2.3874
4.1356 4.6551 2.3874
3.9659 4.8003 2.3874
3.7911 4.9393 2.3874
3.6114 5.0720 2.3874
3.4271 5.1982 2.3874
3.2384 5.3177 2.3874
3.0455 5.4303 2.3874
2.8488 5.5359 2.3874
2.6483 5.6344 2.3874
2.4445 5.7257 2.3874
0.8877 2.3048 0.9471
0.8046 2.3355 0.9473
0.7204 2.3631 0.9474
0.6352 2.3877 0.9475
0.5492 2.4092 0.9476
0.4625 2.4276 0.9477
0.3752 2.4428 0.9478
0.2873 2.4549 0.9479
0.1991 2.4638 0.9480
0.1106 2.4695 0.9480
0.0220 2.4720 0.9481
-0.0667 2.4713 0.9481
-0.1553 2.4674 0.9482
-0.2437 2.4602 0.9482
-0.3318 2.4499 0.9482
-0.4195 2.4365 0.9482
-0.5066 2.4198 0.9482
-0.5930 2.4000 0.9482
-0.6787 2.3772 0.9481
-0.7635 2.3512 0.9481
-0.8473 2.3222 0.9480
-2.3421 5.7676 2.3874
-2.5475 5.6799 2.3874
-2.7496 5.5849 2.3874
-2.9482 5.4828 2.3874
-3.1429 5.3735 2.3874
-3.3337 5.2574 2.3874
-3.5201 5.1345 2.3874
-3.7021 5.0050 2.3874
-3.8793 4.8691 2.3874
-4.0515 4.7269 2.3874
-4.2185 4.5786 2.3874
-4.3800 4.4244 2.3874
-4.5360 4.2645 2.3874
-4.6861 4.0992 2.3874
-4.8302 3.9285 2.3874
-4.9681 3.7528 2.3874
-5.0996 3.5723 2.3874
-5.2245 3.3872 2.3874
-5.3428 3.1977 2.3874
-5.4542 3.0041 2.3874
-3.1777 4.8868 2.3874
-3.3509 4.7698 2.3874
-3.5199 4.6466 2.3874
-3.6843 4.5174 2.3874
-3.8441 4.3824 2.3874
-3.9988 4.2418 2.3874
-4.1485 4.0957 2.3874
-4.2928 3.9443 2.3874
-4.4315 3.7879 2.3874
-4.5646 3.6266 2.3874
-4.6918 3.4606 2.3874
-4.8130 3.2901 2.3874
-4.9280 3.1155 2.3874
-5.0367 2.9368 2.3874
-5.1389 2.7543 2.3874
-5.2345 2.5683 2.3874
-5.3234 2.3789 2.3874
-5.4054 2.1865 2.3874
-5.4805 1.9913 2.3874
-5.5485 1.7935 2.3874
-5.6094 1.5934 2.3874
-5.6630 1.3912 2.3874
-5.7094 1.1872 2.3874
-5.7485 0.9817 2.3874
-5.7802 0.7750 2.3874
-5.8044 0.5672 2.3874
-5.8211 0.3586 2.3874
-5.8304 0.1496 2.3874
-5.8322 -0.0596 2.3874
-5.8265 -0.2687 2.3874
-5.8132 -0.4775 2.3874
-5.7925 -0.6857 2.3874
-5.7644 -0.8930 2.3874
-5.7288 -1.0992 2.3874
-5.6858 -1.3040 2.3874
-5.6355 -1.5071 2.3874
-5.5780 -1.7083 2.3874
-5.5133 -1.9073 2.3874
-5.4415 -2.1039 2.3874
-5.3627 -2.2977 2.3874
-5.2770 -2.4886 2.3874
-5.1845 -2.6763 2.3874
-5.0853 -2.8606 2.3874
-4.9796 -3.0412 2.3874
-4.8674 -3.2179 2.3874
-4.7490 -3.3905 2.3874
-4.6245 -3.5587 2.3874
-4.4940 -3.7224 2.3874
-4.3577 -3.8812 2.3874
-4.2158 -4.0351 2.3874
-4.0685 -4.1838 2.3874
-3.9159 -4.3271 2.3874
-3.7583 -4.4648 2.3874
-3.5959 -4.5968 2.3874
-3.4288 -4.7229 2.3874
-3.2573 -4.8429 2.3874
-3.0816 -4.9567 2.3874
-2.9019 -5.0641 2.3874
-2.7185 -5.1650 2.3874
-2.5315 -5.2593 2.3874
-2.3413 -5.3467 2.3874
-2.1481 -5.4273 2.3874
-1.9522 -5.5010 2.3874
-1.7537 -5.5675 2.3874
-1.5529 -5.6269 2.3874
-1.3501 -5.6790 2.3874
-1.1456 -5.7238 2.3874
-0.9396 -5.7613 2.3874
-0.7324 -5.7913 2.3874
-0.5243 -5.8139 2.3874
-0.3155 -5.8290 2.3874
-0.1063 -5.8366 2.3874
0.1031 -5.8367 2.3874
0.3123 -5.8293 2.3874
0.5212 -5.8143 2.3874
0.7293 -5.7919 2.3874
0.9366 -5.7620 2.3874
1.1426 -5.7248 2.3874
1.3472 -5.6801 2.3874
1.5500 -5.6281 2.3874
1.7508 -5.5689 2.3874
1.9494 -5.5025 2.3874
2.1454 -5.4290 2.3874
2.3387 -5.3486 2.3874
2.5290 -5.2613 2.3874
2.7160 -5.1671 2.3874
2.8995 -5.0664 2.3874
3.0793 -4.9591 2.3874
3.2551 -4.8454 2.3874
3.4267 -4.7255 2.3874
3.5939 -4.5996 2.3874
3.7565 -4.4677 2.3874
3.9143 -4.3300 2.3874
4.0670 -4.1868 2.3874
4.2144 -4.0382 2.3874
4.3564 -3.8844 2.3874
4.4929 -3.7256 2.3874
4.6235 -3.5620 2.3874
4.7482 -3.3939 2.3874
4.8667 -3.2214 2.3874
4.9790 -3.0447 2.3874
5.0849 -2.8641 2.3874
5.1842 -2.6799 2.3874
5.2769 -2.4922 2.3874
5.3627 -2.3013 2.3874
5.4417 -2.1075 2.3874
5.5136 -1.9109 2.3874
5.5785 -1.7119 2.3874
5.6362 -1.5107 2.3874
5.6866 -1.3076 2.3874
5.7297 -1.1028 2.3874
5.7654 -0.8966 2.3874
5.7937 -0.6892 2.3874
5.8145 -0.4810 2.3874
5.8279 -0.2722 2.3874
5.8337 -0.0630 2.3874
5.8321 0.1463 2.3874
5.8229 0.3553 2.3874
5.8063 0.5639 2.3874
5.7821 0.7718 2.3874
5.7506 0.9786 2.3874
5.7116 1.1842 2.3874
5.6653 1.3882 2.3874
5.6118 1.5905 2.3874
5.5510 1.7907 2.3874
5.4830 1.9885 2.3874
5.4080 2.1838 2.3874
5.3261 2.3763 2.3874
5.2373 2.5657 2.3874
5.1418 2.7519 2.3874
5.0396 2.9344 2.3874
