ply
format ascii 1.0
element vertex 2166
property float32 x
property float32 y
property float32 z
end_header
-5.7469 -0.2409 2.3872
-5.7372 -0.4514 2.3872
-5.7209 -0.6615 2.3872
-5.6980 -0.8713 2.3872
-5.6684 -1.0804 2.3872
-5.6322 -1.2888 2.3872
-5.5893 -1.4960 2.3872
-5.5399 -1.7025 2.3872
-5.4838 -1.9070 2.3872
-5.4212 -2.1103 2.3872
-5.3519 -2.3120 2.3872
-5.2762 -2.5118 2.3872
-5.1939 -2.7095 2.3872
-5.1051 -2.9049 2.3872
-5.0099 -3.0980 2.3872
-4.9083 -3.2884 2.3872
-4.8002 -3.4760 2.3872
-4.6859 -3.6607 2.3872
-4.5653 -3.8421 2.3872
-4.4384 -4.0201 2.3872
-4.3054 -4.1943 2.3872
-4.1663 -4.3650 2.3872
-4.0211 -4.5327 2.3872
-3.8700 -4.6945 2.3872
-3.7130 -4.8526 2.3872
-3.5503 -5.0061 2.3872
-3.3819 -5.1548 2.3872
-3.2079 -5.2984 2.3872
-3.0284 -5.4369 2.3872
-2.8436 -5.5698 2.3872
-2.6536 -5.6972 2.3872
-2.4585 -5.8187 2.3872
-2.2584 -5.9341 2.3872
-2.0536 -6.0432 2.3872
-1.8442 -6.1458 2.3872
-1.6304 -6.2417 2.3872
-1.4123 -6.3306 2.3872
-1.1902 -6.4125 2.3872
-0.9643 -6.4870 2.3872
-0.7347 -6.5540 2.3872
-0.5017 -6.6133 2.3872
-0.2656 -6.6646 2.3872
-0.0267 -6.7079 2.3872
0.2149 -6.7429 2.3872
0.4589 -6.7694 2.3872
0.7048 -6.7873 2.3872
0.9526 -6.7965 2.3872
1.2017 -6.7967 2.3872
1.4520 -6.7879 2.3872
1.7030 -6.7699 2.3872
1.9544 -6.7425 2.3872
2.2059 -6.7058 2.3872
2.4570 -6.6596 2.3872
2.7075 -6.6038 2.3872
2.9568 -6.5384 2.3872
3.2047 -6.4634 2.3872
3.4506 -6.3787 2.3872
3.6942 -6.2843 2.3872
3.9351 -6.1802 2.3872
4.1727 -6.0665 2.3872
4.4068 -5.9432 2.3872
4.6369 -5.8104 2.3872
4.8624 -5.6682 2.3872
5.0830 -5.5167 2.3872
5.2983 -5.3561 2.3872
5.5077 -5.1866 2.3872
5.7109 -5.0083 2.3872
5.9075 -4.8214 2.3872
6.0970 -4.6262 2.3872
6.2790 -4.4230 2.3872
6.4531 -4.2120 2.3872
6.6189 -3.9936 2.3872
6.7761 -3.7681 2.3872
6.9242 -3.5358 2.3872
7.0630 -3.2972 2.3872
7.1922 -3.0526 2.3872
7.3113 -2.8025 2.3872
7.4201 -2.5472 2.3872
7.5185 -2.2873 2.3872
7.6060 -2.0233 2.3872
7.6826 -1.7555 2.3872
7.7480 -1.4845 2.3872
7.8021 -1.2109 2.3872
7.8447 -0.9351 2.3872
7.8758 -0.6576 2.3872
7.8952 -0.3791 2.3872
7.9030 -0.0999 2.3872
7.8991 0.1793 2.3872
7.8835 0.4580 2.3872
7.8563 0.7356 2.3872
7.8176 1.0117 2.3872
7.7675 1.2857 2.3872
7.7060 1.5571 2.3872
7.6335 1.8254 2.3872
7.5499 2.0902 2.3872
7.4557 2.3508 2.3872
7.3509 2.6069 2.3872
7.2359 2.8580 2.3872
7.1110 3.1037 2.3872
6.9764 3.3435 2.3872
6.8324 3.5772 2.3872
6.6796 3.8042 2.3872
6.5180 4.0243 2.3872
6.3482 4.2371 2.3872
6.1706 4.4422 2.3872
5.9855 4.6396 2.3872
5.7933 4.8288 2.3872
5.5944 5.0096 2.3872
5.3893 5.1819 2.3872
5.1784 5.3454 2.3872
4.9620 5.4999 2.3872
4.7408 5.6454 2.3872
4.5149 5.7817 2.3872
4.2850 5.9088 2.3872
4.0514 6.0263 2.3872
3.8145 6.1344 2.3872
3.5748 6.2331 2.3872
3.3326 6.3223 2.3872
3.0884 6.4021 2.3872
2.8426 6.4723 2.3872
2.5955 6.5331 2.3872
0.8931 2.5050 0.9082
0.8027 2.5341 0.9129
0.7114 2.5598 0.9176
0.6191 2.5823 0.9224
0.5261 2.6014 0.9272
0.4324 2.6171 0.9320
0.3383 2.6295 0.9368
0.2437 2.6384 0.9416
0.1489 2.6439 0.9464
0.0539 2.6460 0.9512
-0.0411 2.6446 0.9560
-0.1360 2.6398 0.9608
-0.2306 2.6315 0.9656
-0.3249 2.6199 0.9703
-0.4187 2.6048 0.9750
-0.5119 2.5864 0.9796
-0.6044 2.5646 0.9842
-0.6960 2.5394 0.9887
-0.7867 2.5110 0.9932
-2.0970 5.9330 2.3872
-2.2985 5.8242 2.3872
-2.4954 5.7093 2.3872
-2.6874 5.5885 2.3872
-2.8745 5.4619 2.3872
-3.0566 5.3298 2.3872
-3.2334 5.1924 2.3872
-3.4048 5.0498 2.3872
-3.5709 4.9022 2.3872
-3.7314 4.7500 2.3872
-3.8863 4.5932 2.3872
-4.0354 4.4320 2.3872
-4.1787 4.2666 2.3872
-4.3162 4.0977 2.3872
-4.4477 3.9243 2.3872
-4.5731 3.7477 2.3872
-4.6925 3.5676 2.3872
-4.8057 3.3844 2.3872
-4.9127 3.1981 2.3872
-5.0134 3.0090 2.3872
-5.1079 2.8172 2.3872
-5.1960 2.6226 2.3872
-5.2777 2.4264 2.3872
-5.3529 2.2277 2.3872
-5.4218 2.0271 2.3872
-5.4841 1.8247 2.3872
-5.5400 1.6207 2.3872
-5.5893 1.4153 2.3872
-5.6320 1.2086 2.3872
-5.6682 1.0009 2.3872
-5.6978 0.7923 2.3872
-5.7207 0.5829 2.3872
-5.7371 0.3730 2.3872
-5.7468 0.1626 2.3872
-5.7499 -0.0479 2.3872
-5.7463 -0.2584 2.3872
-5.7361 -0.4689 2.3872
-5.7193 -0.6791 2.3872
-5.6958 -0.8888 2.3872
-5.6656 -1.0979 2.3872
-5.6289 -1.3061 2.3872
-5.5855 -1.5133 2.3872
-5.5355 -1.7196 2.3872
-5.4788 -1.9241 2.3872
-5.4156 -2.1272 2.3872
-5.3459 -2.3287 2.3872
-5.2696 -2.5283 2.3872
-5.1867 -2.7259 2.3872
-5.0974 -2.9211 2.3872
-5.0017 -3.1140 2.3872
-4.8995 -3.3042 2.3872
-4.7909 -3.4916 2.3872
-4.6761 -3.6759 2.3872
-4.5549 -3.8571 2.3872
-4.4275 -4.0349 2.3872
-4.2940 -4.2088 2.3872
-4.1544 -4.3793 2.3872
-4.0087 -4.5457 2.3872
-3.8571 -4.7078 2.3872
-3.6997 -4.8656 2.3872
-3.5365 -5.0187 2.3872
-3.3676 -5.1669 2.3872
-3.1931 -5.3102 2.3872
-3.0132 -5.4482 2.3872
-2.8279 -5.5807 2.3872
-2.6375 -5.7076 2.3872
-2.4419 -5.8285 2.3872
-2.2415 -5.9434 2.3872
-2.0363 -6.0520 2.3872
-1.8265 -6.1540 2.3872
-1.6124 -6.2494 2.3872
-1.3939 -6.3377 2.3872
-1.1715 -6.4190 2.3872
-0.9452 -6.4929 2.3872
-0.7154 -6.5592 2.3872
-0.4822 -6.6179 2.3872
-0.2458 -6.6686 2.3872
-0.0066 -6.7112 2.3872
0.2352 -6.7454 2.3872
0.4793 -6.7713 2.3872
0.7255 -6.7884 2.3872
0.9733 -6.7969 2.3872
1.2226 -6.7963 2.3872
1.4729 -6.7867 2.3872
1.7239 -6.7679 2.3872
1.9754 -6.7398 2.3872
2.2268 -6.7023 2.3872
2.4779 -6.6553 2.3872
2.7283 -6.5987 2.3872
2.9776 -6.5326 2.3872
3.2253 -6.4567 2.3872
3.4710 -6.3712 2.3872
3.7144 -6.2759 2.3872
3.9550 -6.1711 2.3872
4.1924 -6.0565 2.3872
4.4262 -5.9325 2.3872
4.6559 -5.7989 2.3872
4.8810 -5.6559 2.3872
5.1012 -5.5037 2.3872
5.3160 -5.3423 2.3872
5.5249 -5.1720 2.3872
5.7276 -4.9930 2.3872
5.9236 -4.8054 2.3872
6.1125 -4.6095 2.3872
6.2938 -4.4057 2.3872
6.4673 -4.1941 2.3872
6.6324 -3.9750 2.3872
6.7888 -3.7489 2.3872
6.9362 -3.5161 2.3872
7.0742 -3.2770 2.3872
7.2025 -3.0320 2.3872
7.3208 -2.7814 2.3872
-5.3496 0.7779 2.3872
-5.3723 0.5811 2.3872
-5.3888 0.3836 2.3872
-5.3990 0.1858 2.3872
-5.4029 -0.0123 2.3872
-5.4005 -0.2104 2.3872
-5.3918 -0.4085 2.3872
-5.3768 -0.6062 2.3872
-5.3555 -0.8036 2.3872
-5.3279 -1.0003 2.3872
-5.2940 -1.1962 2.3872
-5.2539 -1.3912 2.3872
-5.2074 -1.5851 2.3872
-5.1547 -1.7777 2.3872
-5.0958 -1.9689 2.3872
-5.0307 -2.1584 2.3872
-4.9593 -2.3461 2.3872
-4.8819 -2.5318 2.3872
-4.7983 -2.7154 2.3872
-4.7086 -2.8966 2.3872
-4.6128 -3.0753 2.3872
-4.5111 -3.2513 2.3872
-4.4033 -3.4244 2.3872
-4.2897 -3.5944 2.3872
-4.1703 -3.7614 2.3872
-4.0450 -3.9246 2.3872
-3.9141 -4.0842 2.3872
-3.7775 -4.2401 2.3872
-3.6353 -4.3919 2.3872
-3.4877 -4.5395 2.3872
-3.3347 -4.6828 2.3872
-3.1764 -4.8214 2.3872
-3.0129 -4.9552 2.3872
-2.8443 -5.0841 2.3872
-2.6708 -5.2077 2.3872
-2.4925 -5.3260 2.3872
-2.3095 -5.4387 2.3872
-2.1220 -5.5456 2.3872
-1.9300 -5.6466 2.3872
-1.7339 -5.7414 2.3872
-1.5337 -5.8298 2.3872
-1.3297 -5.9118 2.3872
-1.1219 -5.9870 2.3872
-0.9107 -6.0552 2.3872
-0.6963 -6.1164 2.3872
-0.4788 -6.1704 2.3872
-0.2585 -6.2169 2.3872
-0.0356 -6.2558 2.3872
0.1896 -6.2869 2.3872
0.4169 -6.3102 2.3872
0.6459 -6.3254 2.3872
0.8764 -6.3324 2.3872
1.1081 -6.3311 2.3872
1.3407 -6.3214 2.3872
1.5738 -6.3031 2.3872
1.8072 -6.2762 2.3872
2.0405 -6.2406 2.3872
2.2734 -6.1962 2.3872
2.5055 -6.1430 2.3872
2.7365 -6.0809 2.3872
2.9659 -6.0098 2.3872
3.1935 -5.9299 2.3872
3.4187 -5.8410 2.3872
3.6414 -5.7433 2.3872
3.8610 -5.6367 2.3872
4.0771 -5.5213 2.3872
4.2895 -5.3972 2.3872
4.4976 -5.2645 2.3872
4.7010 -5.1234 2.3872
4.8995 -4.9738 2.3872
5.0926 -4.8161 2.3872
5.2798 -4.6504 2.3872
5.4609 -4.4769 2.3872
5.6354 -4.2958 2.3872
5.8030 -4.1075 2.3872
5.9633 -3.9120 2.3872
6.1160 -3.7098 2.3872
6.2608 -3.5011 2.3872
6.3972 -3.2862 2.3872
6.5251 -3.0657 2.3872
6.6441 -2.8397 2.3872
6.7539 -2.6086 2.3872
6.8543 -2.3729 2.3872
6.9451 -2.1329 2.3872
7.0261 -1.8892 2.3872
7.0970 -1.6420 2.3872
7.1577 -1.3920 2.3872
7.2081 -1.1394 2.3872
7.2480 -0.8849 2.3872
7.2774 -0.6289 2.3872
7.2962 -0.3718 2.3872
7.3043 -0.1141 2.3872
7.3017 0.1436 2.3872
7.2885 0.4009 2.3872
7.2647 0.6574 2.3872
7.2304 0.9125 2.3872
7.1855 1.1657 2.3872
7.1304 1.4167 2.3872
7.0650 1.6649 2.3872
6.9896 1.9099 2.3872
6.9043 2.1513 2.3872
6.8094 2.3887 2.3872
6.7051 2.6215 2.3872
6.5916 2.8495 2.3872
6.4692 3.0723 2.3872
6.3382 3.2895 2.3872
6.1988 3.5007 2.3872
6.0515 3.7057 2.3872
5.8965 3.9041 2.3872
5.7341 4.0952 2.3872
5.5648 4.2800 2.3872
5.3889 4.4571 2.3872
5.2067 4.6265 2.3872
5.0186 4.7882 2.3872
4.8250 4.9418 2.3872
4.6263 5.0874 2.3872
4.4229 5.2246 2.3872
4.2151 5.3534 2.3872
4.0033 5.4738 2.3872
3.7880 5.5855 2.3872
3.5695 5.6886 2.3872
3.3482 5.7829 2.3872
3.1244 5.8685 2.3872
2.8986 5.9454 2.3872
2.6710 6.0135 2.3872
0.9265 2.3038 0.9056
0.8433 2.3342 0.9099
0.7590 2.3616 0.9143
0.6739 2.3858 0.9187
0.5879 2.4070 0.9232
0.5012 2.4251 0.9276
0.4138 2.4400 0.9321
0.3260 2.4518 0.9366
0.2379 2.4604 0.9411
0.1494 2.4658 0.9456
0.0608 2.4679 0.9501
-0.0278 2.4669 0.9546
-0.1163 2.4627 0.9590
-0.2046 2.4553 0.9635
-0.2926 2.4447 0.9679
-0.3801 2.4309 0.9722
-0.4671 2.4139 0.9766
-0.5534 2.3938 0.9809
-0.6390 2.3707 0.9851
-0.7236 2.3444 0.9892
-0.8073 2.3151 0.9933
-2.1297 5.4637 2.3872
-2.3152 5.3580 2.3872
-2.4962 5.2466 2.3872
-2.6726 5.1297 2.3872
-2.8444 5.0076 2.3872
-3.0113 4.8803 2.3872
-3.1733 4.7481 2.3872
-3.3303 4.6111 2.3872
-3.4821 4.4695 2.3872
-3.6287 4.3236 2.3872
-3.7699 4.1735 2.3872
-3.9057 4.0194 2.3872
-4.0360 3.8614 2.3872
-4.1607 3.6999 2.3872
-4.2798 3.5348 2.3872
-4.3931 3.3664 2.3872
-4.5007 3.1949 2.3872
-4.6024 3.0205 2.3872
-4.6982 2.8433 2.3872
-4.7881 2.6636 2.3872
-4.8720 2.4814 2.3872
-4.9498 2.2970 2.3872
-5.0216 2.1105 2.3872
-5.0873 1.9221 2.3872
-5.1469 1.7320 2.3872
-5.2003 1.5404 2.3872
-5.2475 1.3473 2.3872
-5.2885 1.1531 2.3872
-5.3232 0.9575 2.3872
-5.3517 0.7615 2.3872
-5.3740 0.5646 2.3872
-5.3899 0.3671 2.3872
-5.3996 0.1693 2.3872
-5.4030 -0.0288 2.3872
-5.4001 -0.2270 2.3872
-5.3908 -0.4250 2.3872
-5.3753 -0.6227 2.3872
-5.3535 -0.8200 2.3872
-5.3253 -1.0167 2.3872
-5.2909 -1.2125 2.3872
-5.2502 -1.4075 2.3872
-5.2033 -1.6013 2.3872
-5.1500 -1.7937 2.3872
-5.0906 -1.9848 2.3872
-5.0249 -2.1741 2.3872
-4.9531 -2.3617 2.3872
-4.8751 -2.5472 2.3872
-4.7910 -2.7306 2.3872
-4.7008 -2.9116 2.3872
-4.6045 -3.0901 2.3872
-4.5023 -3.2658 2.3872
-4.3941 -3.4387 2.3872
-4.2800 -3.6086 2.3872
-4.1600 -3.7749 2.3872
-4.0343 -3.9381 2.3872
-3.9029 -4.0974 2.3872
-3.7658 -4.2529 2.3872
-3.6232 -4.4044 2.3872
-3.4751 -4.5517 2.3872
-3.3217 -4.6945 2.3872
-3.1629 -4.8328 2.3872
-2.9990 -4.9662 2.3872
-2.8300 -5.0946 2.3872
-2.6561 -5.2178 2.3872
-2.4774 -5.3356 2.3872
-2.2940 -5.4478 2.3872
-2.1061 -5.5543 2.3872
-1.9138 -5.6547 2.3872
-1.7173 -5.7490 2.3872
-1.5168 -5.8369 2.3872
-1.3125 -5.9183 2.3872
-1.1044 -5.9929 2.3872
-0.8930 -6.0606 2.3872
-0.6782 -6.1212 2.3872
-0.4605 -6.1745 2.3872
-0.2399 -6.2204 2.3872
-0.0169 -6.2587 2.3872
0.2085 -6.2892 2.3872
0.4359 -6.3118 2.3872
0.6651 -6.3263 2.3872
0.8957 -6.3326 2.3872
1.1275 -6.3306 2.3872
1.3601 -6.3202 2.3872
1.5933 -6.3012 2.3872
1.8267 -6.2736 2.3872
2.0600 -6.2373 2.3872
2.2928 -6.1921 2.3872
2.5248 -6.1382 2.3872
2.7557 -6.0753 2.3872
2.9850 -6.0035 2.3872
3.2124 -5.9228 2.3872
3.4374 -5.8332 2.3872
3.6598 -5.7347 2.3872
3.8791 -5.6274 2.3872
4.0950 -5.5113 2.3872
4.3070 -5.3865 2.3872
4.5147 -5.2531 2.3872
4.7178 -5.1112 2.3872
4.9158 -4.9610 2.3872
5.1084 -4.8026 2.3872
5.2952 -4.6362 2.3872
5.4757 -4.4613 2.3872
5.6497 -4.2804 2.3872
5.8167 -4.0914 2.3872
5.9764 -3.8954 2.3872
6.1284 -3.6926 2.3872
6.2725 -3.4834 2.3872
6.4082 -3.2681 2.3872
6.5354 -3.0470 2.3872
6.6536 -2.8206 2.3872
6.7626 -2.5891 2.3872
6.8623 -2.3530 2.3872
6.9523 -2.1127 2.3872
7.0324 -1.8687 2.3872
7.1025 -1.6213 2.3872
7.1623 -1.3710 2.3872
7.2118 -1.1183 2.3872
7.2509 -0.8636 2.3872
7.2794 -0.6075 2.3872
7.2973 -0.3503 2.3872
7.3045 -0.0926 2.3872
7.3010 0.1651 2.3872
7.2870 0.4224 2.3872
7.2623 0.6787 2.3872
7.2270 0.9337 2.3872
7.1813 1.1868 2.3872
7.1253 1.4375 2.3872
7.0591 1.6855 2.3872
6.9828 1.9302 2.3872
6.8968 2.1713 2.3872
6.8011 2.4083 2.3872
6.6960 2.6408 2.3872
6.5817 2.8683 2.3872
6.4586 3.0907 2.3872
6.3269 3.3073 2.3872
6.1868 3.5181 2.3872
6.0389 3.7238 2.3872
5.8832 3.9203 2.3872
5.7203 4.1113 2.3872
5.5504 4.2951 2.3872
5.3739 4.4715 2.3872
5.1912 4.6403 2.3872
5.0026 4.8013 2.3872
4.8086 4.9543 2.3872
4.6095 5.0991 2.3872
4.4057 5.2357 2.3872
4.1975 5.3638 2.3872
3.9855 5.4834 2.3872
3.7699 5.5944 2.3872
3.5511 5.6968 2.3872
3.3296 5.7904 2.3872
3.1056 5.8753 2.3872
2.8796 5.9514 2.3872
2.6520 6.0188 2.3872
0.9196 2.3065 0.9060
0.8363 2.3366 0.9103
0.7520 2.3637 0.9147
0.6667 2.3877 0.9191
0.5807 2.4087 0.9236
0.4939 2.4265 0.9280
0.4065 2.4411 0.9325
0.3187 2.4526 0.9370
0.2305 2.4609 0.9415
0.1420 2.4661 0.9460
0.0534 2.4680 0.9505
-0.0352 2.4667 0.9550
-0.1237 2.4622 0.9594
-0.2119 2.4545 0.9638
-0.2999 2.4436 0.9682
-0.3874 2.4296 0.9726
-0.4743 2.4124 0.9769
-0.5606 2.3920 0.9812
-0.6461 2.3686 0.9854
-0.7307 2.3421 0.9896
-0.8142 2.3125 0.9937
-2.1454 5.4551 2.3872
-2.3304 5.3489 2.3872
-2.5111 5.2371 2.3872
-2.6871 5.1197 2.3872
-2.8585 4.9971 2.3872
-3.0250 4.8694 2.3872
-3.1866 4.7368 2.3872
-3.3432 4.5994 2.3872
-3.4946 4.4575 2.3872
-3.6407 4.3113 2.3872
-3.7815 4.1608 2.3872
-3.9168 4.0064 2.3872
-4.0466 3.8481 2.3872
-4.1709 3.6862 2.3872
-4.2895 3.5207 2.3872
-4.4023 3.3522 2.3872
-4.5094 3.1805 2.3872
-4.6106 3.0058 2.3872
-4.7059 2.8284 2.3872
-4.7953 2.6485 2.3872
-4.8787 2.4661 2.3872
-4.9560 2.2815 2.3872
-5.0273 2.0949 2.3872
-5.0925 1.9063 2.3872
-5.1516 1.7161 2.3872
-5.2044 1.5243 2.3872
-5.2511 1.3311 2.3872
-5.2916 1.1368 2.3872
-5.3258 0.9415 2.3872
-5.3538 0.7451 2.3872
-5.3755 0.5481 2.3872
-5.3910 0.3506 2.3872
-5.4001 0.1528 2.3872
-5.4030 -0.0455 2.3872
-5.3995 -0.2435 2.3872
-5.3898 -0.4415 2.3872
-5.3737 -0.6392 2.3872
-5.3514 -0.8364 2.3872
-5.3227 -1.0330 2.3872
-5.2878 -1.2288 2.3872
-5.2465 -1.4237 2.3872
-5.1991 -1.6174 2.3872
-5.1453 -1.8098 2.3872
-5.0854 -2.0006 2.3872
-5.0192 -2.1899 2.3872
-4.9468 -2.3772 2.3872
-4.8683 -2.5626 2.3872
-4.7837 -2.7458 2.3872
-4.6930 -2.9266 2.3872
-4.5962 -3.1049 2.3872
-4.4935 -3.2804 2.3872
-4.3848 -3.4530 2.3872
-4.2702 -3.6225 2.3872
-4.1498 -3.7887 2.3872
-4.0236 -3.9516 2.3872
-3.8917 -4.1105 2.3872
-3.7541 -4.2657 2.3872
-3.6111 -4.4169 2.3872
-3.4625 -4.5637 2.3872
-3.3086 -4.7062 2.3872
-3.1494 -4.8441 2.3872
-2.9851 -4.9771 2.3872
-2.8157 -5.1051 2.3872
-2.6414 -5.2278 2.3872
-2.4623 -5.3452 2.3872
-2.2785 -5.4570 2.3872
-2.0902 -5.5629 2.3872
-1.8976 -5.6629 2.3872
-1.7008 -5.7566 2.3872
-1.4999 -5.8440 2.3872
-1.2952 -5.9248 2.3872
-1.0869 -5.9988 2.3872
-0.8752 -6.0659 2.3872
-0.6602 -6.1259 2.3872
-0.4422 -6.1787 2.3872
-0.2214 -6.2239 2.3872
0.0019 -6.2615 2.3872
0.2274 -6.2914 2.3872
0.4550 -6.3133 2.3872
0.6843 -6.3271 2.3872
0.9150 -6.3328 2.3872
1.1468 -6.3301 2.3872
1.3795 -6.3189 2.3872
1.6128 -6.2992 2.3872
1.8462 -6.2709 2.3872
2.0794 -6.2338 2.3872
2.3122 -6.1880 2.3872
2.5442 -6.1333 2.3872
2.7749 -6.0696 2.3872
3.0040 -5.9971 2.3872
3.2312 -5.9157 2.3872
3.4561 -5.8253 2.3872
3.6783 -5.7261 2.3872
3.8973 -5.6180 2.3872
4.1129 -5.5012 2.3872
4.3245 -5.3757 2.3872
4.5319 -5.2415 2.3872
4.7345 -5.0990 2.3872
4.9321 -4.9481 2.3872
5.1242 -4.7890 2.3872
5.3105 -4.6220 2.3872
5.4905 -4.4472 2.3872
5.6639 -4.2649 2.3872
5.8303 -4.0753 2.3872
5.9894 -3.8787 2.3872
6.1408 -3.6754 2.3872
6.2841 -3.4656 2.3872
6.4192 -3.2499 2.3872
6.5456 -3.0283 2.3872
6.6630 -2.8014 2.3872
6.7713 -2.5696 2.3872
-5.0392 0.7335 2.3872
-5.0608 0.5478 2.3872
-5.0764 0.3616 2.3872
-5.0861 0.1750 2.3872
-5.0897 -0.0119 2.3872
-5.0874 -0.1988 2.3872
-5.0790 -0.3856 2.3872
-5.0647 -0.5721 2.3872
-5.0444 -0.7582 2.3872
-5.0181 -0.9437 2.3872
-4.9859 -1.1284 2.3872
-4.9477 -1.3123 2.3872
-4.9035 -1.4950 2.3872
-4.8534 -1.6765 2.3872
-4.7974 -1.8565 2.3872
-4.7355 -2.0350 2.3872
-4.6678 -2.2117 2.3872
-4.5942 -2.3865 2.3872
-4.5148 -2.5592 2.3872
-4.4297 -2.7296 2.3872
-4.3389 -2.8974 2.3872
-4.2424 -3.0631 2.3872
-4.1402 -3.2255 2.3872
-4.0326 -3.3857 2.3872
-3.9194 -3.5415 2.3872
-3.8008 -3.6946 2.3872
-3.6768 -3.8443 2.3872
-3.5475 -3.9902 2.3872
-3.4130 -4.1322 2.3872
-3.2734 -4.2702 2.3872
-3.1288 -4.4040 2.3872
-2.9793 -4.5334 2.3872
-2.8249 -4.6582 2.3872
-2.6658 -4.7782 2.3872
-2.5021 -4.8932 2.3872
-2.3340 -5.0031 2.3872
-2.1615 -5.1077 2.3872
-1.9849 -5.2068 2.3872
-1.8042 -5.3002 2.3872
-1.6196 -5.3877 2.3872
-1.4313 -5.4692 2.3872
-1.2396 -5.5445 2.3872
-1.0444 -5.6135 2.3872
-0.8461 -5.6759 2.3872
-0.6449 -5.7316 2.3872
-0.4409 -5.7804 2.3872
-0.2344 -5.8222 2.3872
-0.0257 -5.8569 2.3872
0.1851 -5.8843 2.3872
0.3977 -5.9043 2.3872
0.6118 -5.9167 2.3872
0.8272 -5.9214 2.3872
1.0436 -5.9184 2.3872
1.2606 -5.9075 2.3872
1.4781 -5.8886 2.3872
1.6956 -5.8617 2.3872
1.9130 -5.8266 2.3872
2.1298 -5.7834 2.3872
2.3457 -5.7320 2.3872
2.5605 -5.6723 2.3872
2.7737 -5.6044 2.3872
2.9850 -5.5282 2.3872
3.1941 -5.4437 2.3872
3.4007 -5.3511 2.3872
3.6043 -5.2503 2.3872
3.8045 -5.1414 2.3872
4.0012 -5.0245 2.3872
4.1938 -4.8996 2.3872
4.3820 -4.7670 2.3872
4.5656 -4.6267 2.3872
4.7440 -4.4789 2.3872
4.9170 -4.3238 2.3872
5.0842 -4.1615 2.3872
5.2453 -3.9924 2.3872
5.3999 -3.8165 2.3872
5.5478 -3.6342 2.3872
5.6885 -3.4457 2.3872
5.8219 -3.2513 2.3872
5.9477 -3.0513 2.3872
6.0654 -2.8461 2.3872
6.1750 -2.6359 2.3872
6.2761 -2.4211 2.3872
6.3686 -2.2021 2.3872
6.4522 -1.9792 2.3872
6.5267 -1.7529 2.3872
6.5919 -1.5235 2.3872
6.6478 -1.2915 2.3872
6.6942 -1.0572 2.3872
6.7310 -0.8211 2.3872
6.7581 -0.5836 2.3872
6.7754 -0.3452 2.3872
6.7830 -0.1063 2.3872
6.7807 0.1328 2.3872
6.7687 0.3715 2.3872
6.7469 0.6093 2.3872
6.7155 0.8460 2.3872
6.6744 1.0810 2.3872
6.6238 1.3139 2.3872
6.5638 1.5444 2.3872
6.4945 1.7719 2.3872
6.4162 1.9962 2.3872
6.3290 2.2167 2.3872
6.2331 2.4332 2.3872
6.1287 2.6454 2.3872
6.0161 2.8527 2.3872
5.8955 3.0549 2.3872
5.7672 3.2518 2.3872
5.6314 3.4429 2.3872
5.4886 3.6280 2.3872
5.3389 3.8069 2.3872
5.1826 3.9793 2.3872
5.0202 4.1449 2.3872
4.8520 4.3036 2.3872
4.6782 4.4551 2.3872
4.4992 4.5993 2.3872
4.3154 4.7361 2.3872
4.1271 4.8652 2.3872
3.9347 4.9866 2.3872
3.7385 5.1001 2.3872
3.5388 5.2058 2.3872
3.3361 5.3034 2.3872
3.1307 5.3930 2.3872
2.9228 5.4745 2.3872
2.7129 5.5479 2.3872
0.9470 2.1252 0.9038
0.8702 2.1564 0.9078
0.7923 2.1848 0.9119
0.7135 2.2104 0.9160
0.6338 2.2331 0.9201
0.5533 2.2529 0.9243
0.4721 2.2698 0.9284
0.3904 2.2838 0.9326
0.3082 2.2948 0.9368
0.2256 2.3028 0.9410
0.1429 2.3078 0.9453
0.0600 2.3098 0.9495
-0.0230 2.3089 0.9537
-0.1058 2.3049 0.9578
-0.1885 2.2980 0.9620
-0.2708 2.2880 0.9661
-0.3528 2.2751 0.9702
-0.4342 2.2593 0.9742
-0.5150 2.2405 0.9782
-0.5951 2.2188 0.9822
-0.6743 2.1942 0.9861
-0.7526 2.1667 0.9899
-0.8298 2.1365 0.9937
-2.1683 5.0345 2.3872
-2.3390 4.9310 2.3872
-2.5054 4.8222 2.3872
-2.6675 4.7084 2.3872
-2.8251 4.5897 2.3872
-2.9781 4.4663 2.3872
-3.1265 4.3383 2.3872
-3.2700 4.2060 2.3872
-3.4086 4.0694 2.3872
-3.5422 3.9288 2.3872
-3.6707 3.7844 2.3872
-3.7940 3.6363 2.3872
-3.9121 3.4846 2.3872
-4.0249 3.3296 2.3872
-4.1322 3.1714 2.3872
-4.2341 3.0104 2.3872
-4.3305 2.8462 2.3872
-4.4214 2.6797 2.3872
-4.5066 2.5105 2.3872
-4.5862 2.3390 2.3872
-4.6600 2.1654 2.3872
-4.7281 1.9897 2.3872
-4.7904 1.8122 2.3872
-4.8469 1.6331 2.3872
-4.8976 1.4524 2.3872
-4.9424 1.2704 2.3872
-4.9813 1.0873 2.3872
-5.0142 0.9031 2.3872
-5.0413 0.7180 2.3872
-5.0623 0.5323 2.3872
-5.0775 0.3460 2.3872
-5.0866 0.1594 2.3872
-5.0897 -0.0275 2.3872
-5.0869 -0.2144 2.3872
-5.0781 -0.4011 2.3872
-5.0633 -0.5877 2.3872
-5.0425 -0.7737 2.3872
-5.0157 -0.9591 2.3872
-4.9829 -1.1438 2.3872
-4.9442 -1.3275 2.3872
-4.8995 -1.5102 2.3872
-4.8489 -1.6916 2.3872
-4.7924 -1.8715 2.3872
-4.7301 -2.0498 2.3872
-4.6618 -2.2264 2.3872
-4.5878 -2.4010 2.3872
-4.5079 -2.5735 2.3872
-4.4223 -2.7437 2.3872
-4.3310 -2.9116 2.3872
-4.2340 -3.0767 2.3872
-4.1315 -3.2389 2.3872
-4.0233 -3.3985 2.3872
-3.9097 -3.5544 2.3872
-3.7906 -3.7073 2.3872
-3.6662 -3.8566 2.3872
-3.5365 -4.0022 2.3872
-3.4016 -4.1439 2.3872
-3.2616 -4.2816 2.3872
-3.1165 -4.4150 2.3872
-2.9666 -4.5440 2.3872
-2.8118 -4.6684 2.3872
-2.6523 -4.7880 2.3872
-2.4882 -4.9026 2.3872
-2.3197 -5.0120 2.3872
-2.1469 -5.1162 2.3872
-1.9699 -5.2148 2.3872
-1.7889 -5.3077 2.3872
-1.6040 -5.3947 2.3872
-1.4155 -5.4757 2.3872
-1.2234 -5.5505 2.3872
-1.0280 -5.6189 2.3872
-0.8294 -5.6808 2.3872
-0.6280 -5.7359 2.3872
-0.4238 -5.7842 2.3872
-0.2171 -5.8254 2.3872
-0.0081 -5.8595 2.3872
0.2028 -5.8863 2.3872
0.4155 -5.9056 2.3872
0.6298 -5.9174 2.3872
0.8452 -5.9215 2.3872
1.0617 -5.9178 2.3872
1.2788 -5.9062 2.3872
1.4963 -5.8867 2.3872
1.7138 -5.8591 2.3872
1.9311 -5.8233 2.3872
2.1478 -5.7794 2.3872
2.3637 -5.7273 2.3872
2.5783 -5.6669 2.3872
2.7914 -5.5983 2.3872
3.0026 -5.5214 2.3872
3.2115 -5.4363 2.3872
3.4178 -5.3430 2.3872
3.6211 -5.2415 2.3872
3.8211 -5.1319 2.3872
4.0174 -5.0143 2.3872
4.2097 -4.8888 2.3872
4.3976 -4.7556 2.3872
4.5807 -4.6147 2.3872
4.7586 -4.4662 2.3872
4.9312 -4.3105 2.3872
5.0979 -4.1478 2.3872
5.2584 -3.9779 2.3872
5.4125 -3.8015 2.3872
5.5598 -3.6187 2.3872
5.7000 -3.4297 2.3872
5.8327 -3.2348 2.3872
5.9578 -3.0344 2.3872
6.0749 -2.8287 2.3872
6.1838 -2.6181 2.3872
6.2842 -2.4030 2.3872
6.3759 -2.1836 2.3872
6.4587 -1.9605 2.3872
6.5325 -1.7339 2.3872
6.5970 -1.5043 2.3872
6.6521 -1.2720 2.3872
6.6977 -1.0376 2.3872
6.7336 -0.8014 2.3872
6.7599 -0.5638 2.3872
6.7764 -0.3253 2.3872
6.7832 -0.0863 2.3872
6.7801 0.1527 2.3872
6.7673 0.3914 2.3872
6.7447 0.6292 2.3872
6.7124 0.8657 2.3872
6.6705 1.1005 2.3872
6.6191 1.3333 2.3872
6.5583 1.5635 2.3872
6.4883 1.7908 2.3872
6.4093 2.0147 2.3872
6.3213 2.2350 2.3872
6.2247 2.4511 2.3872
6.1196 2.6628 2.3872
6.0063 2.8698 2.3872
5.8851 3.0716 2.3872
5.7561 3.2679 2.3872
5.6198 3.4586 2.3872
5.4763 3.6432 2.3872
5.3261 3.8215 2.3872
5.1693 3.9934 2.3872
5.0064 4.1584 2.3872
4.8377 4.3165 2.3872
4.6634 4.4674 2.3872
4.4840 4.6110 2.3872
4.2999 4.7471 2.3872
4.1112 4.8756 2.3872
3.9185 4.9964 2.3872
3.7219 5.1092 2.3872
3.5220 5.2142 2.3872
3.3191 5.3112 2.3872
3.1134 5.4001 2.3872
2.9054 5.4809 2.3872
2.6953 5.5537 2.3872
0.9406 2.1279 0.9041
0.8638 2.1588 0.9081
0.7858 2.1870 0.9122
0.7069 2.2124 0.9163
0.6271 2.2348 0.9204
0.5465 2.2544 0.9246
0.4653 2.2711 0.9288
0.3835 2.2848 0.9330
0.3013 2.2955 0.9372
0.2187 2.3033 0.9414
0.1360 2.3081 0.9456
0.0530 2.3099 0.9498
-0.0299 2.3087 0.9540
-0.1127 2.3045 0.9582
-0.1954 2.2973 0.9623
-0.2777 2.2871 0.9664
-0.3596 2.2739 0.9705
-0.4410 2.2578 0.9746
-0.5217 2.2388 0.9786
-0.6017 2.2168 0.9825
-0.6809 2.1920 0.9864
-0.7591 2.1643 0.9902
-0.8362 2.1339 0.9940
-2.1827 5.0260 2.3872
-2.3530 4.9221 2.3872
-2.5191 4.8129 2.3872
-2.6808 4.6987 2.3872
-2.8381 4.5796 2.3872
-2.9907 4.4558 2.3872
-3.1386 4.3275 2.3872
-3.2817 4.1947 2.3872
-3.4199 4.0578 2.3872
-3.5531 3.9169 2.3872
-3.6812 3.7722 2.3872
-3.8041 3.6237 2.3872
-3.9217 3.4718 2.3872
-4.0340 3.3166 2.3872
-4.1409 3.1583 2.3872
-4.2424 2.9968 2.3872
-4.3383 2.8325 2.3872
-4.4287 2.6656 2.3872
-4.5135 2.4963 2.3872
-4.5926 2.3246 2.3872
-4.6659 2.1508 2.3872
-4.7335 1.9750 2.3872
-4.7954 1.7973 2.3872
-4.8514 1.6181 2.3872
-4.9016 1.4373 2.3872
-4.9459 1.2552 2.3872
-4.9842 1.0719 2.3872
-5.0167 0.8877 2.3872
-5.0433 0.7025 2.3872
-5.0638 0.5167 2.3872
-5.0784 0.3304 2.3872
-5.0871 0.1438 2.3872
-5.0897 -0.0431 2.3872
-5.0864 -0.2300 2.3872
-5.0771 -0.4167 2.3872
-5.0618 -0.6032 2.3872
-5.0404 -0.7892 2.3872
-5.0132 -0.9746 2.3872
-4.9799 -1.1592 2.3872
-4.9407 -1.3428 2.3872
-4.8955 -1.5254 2.3872
-4.8445 -1.7066 2.3872
-4.7875 -1.8864 2.3872
-4.7246 -2.0646 2.3872
-4.6559 -2.2410 2.3872
-4.5813 -2.4155 2.3872
-4.5010 -2.5878 2.3872
-4.4149 -2.7578 2.3872
-4.3231 -2.9254 2.3872
-4.2257 -3.0903 2.3872
-4.1226 -3.2524 2.3872
-4.0140 -3.4116 2.3872
-3.9000 -3.5673 2.3872
-3.7804 -3.7199 2.3872
-3.6556 -3.8689 2.3872
-3.5254 -4.0142 2.3872
-3.3901 -4.1556 2.3872
-3.2497 -4.2929 2.3872
-3.1042 -4.4259 2.3872
-2.9538 -4.5545 2.3872
-2.7987 -4.6785 2.3872
-2.6388 -4.7977 2.3872
-2.4744 -4.9119 2.3872
-2.3055 -5.0209 2.3872
-2.1323 -5.1246 2.3872
-1.9550 -5.2228 2.3872
-1.7736 -5.3152 2.3872
-1.5884 -5.4017 2.3872
-1.3996 -5.4822 2.3872
-1.2072 -5.5565 2.3872
-1.0115 -5.6243 2.3872
-0.8127 -5.6856 2.3872
-0.6110 -5.7402 2.3872
-0.4066 -5.7879 2.3872
-0.1997 -5.8285 2.3872
0.0094 -5.8620 2.3872
0.2205 -5.8882 2.3872
0.4334 -5.9069 2.3872
0.6477 -5.9180 2.3872
0.8633 -5.9215 2.3872
1.0798 -5.9171 2.3872
1.2969 -5.9049 2.3872
1.5144 -5.8847 2.3872
1.7320 -5.8564 2.3872
1.9492 -5.8200 2.3872
2.1659 -5.7754 2.3872
2.3817 -5.7226 2.3872
2.5962 -5.6615 2.3872
2.8091 -5.5922 2.3872
3.0201 -5.5146 2.3872
3.2288 -5.4288 2.3872
3.4349 -5.3348 2.3872
3.6379 -5.2327 2.3872
3.8376 -5.1224 2.3872
4.0336 -5.0042 2.3872
4.2255 -4.8780 2.3872
4.4130 -4.7441 2.3872
4.5957 -4.6026 2.3872
4.7733 -4.4535 2.3872
4.9453 -4.2972 2.3872
5.1115 -4.1338 2.3872
5.2715 -3.9635 2.3872
5.4251 -3.7865 2.3872
5.5718 -3.6031 2.3872
5.7113 -3.4136 2.3872
5.8435 -3.2183 2.3872
5.9679 -3.0174 2.3872
6.0843 -2.8113 2.3872
6.1925 -2.6003 2.3872
6.2922 -2.3848 2.3872
-4.7573 0.6931 2.3872
-4.7778 0.5176 2.3872
-4.7926 0.3415 2.3872
-4.8018 0.1651 2.3872
-4.8052 -0.0115 2.3872
-4.8029 -0.1882 2.3872
-4.7949 -0.3648 2.3872
-4.7812 -0.5411 2.3872
-4.7619 -0.7170 2.3872
-4.7368 -0.8923 2.3872
-4.7061 -1.0669 2.3872
-4.6697 -1.2405 2.3872
-4.6276 -1.4132 2.3872
-4.5799 -1.5846 2.3872
-4.5266 -1.7546 2.3872
-4.4677 -1.9230 2.3872
-4.4033 -2.0898 2.3872
-4.3333 -2.2547 2.3872
-4.2578 -2.4175 2.3872
-4.1769 -2.5780 2.3872
-4.0906 -2.7364 2.3872
-3.9989 -2.8925 2.3872
-3.9019 -3.0453 2.3872
-3.7997 -3.1955 2.3872
-3.6923 -3.3427 2.3872
-3.5798 -3.4866 2.3872
-3.4622 -3.6272 2.3872
-3.3396 -3.7642 2.3872
-3.2121 -3.8975 2.3872
-3.0799 -4.0270 2.3872
-2.9429 -4.1523 2.3872
-2.8013 -4.2734 2.3872
-2.6553 -4.3901 2.3872
-2.5048 -4.5023 2.3872
-2.3500 -4.6097 2.3872
-2.1911 -4.7122 2.3872
-2.0282 -4.8096 2.3872
-1.8614 -4.9017 2.3872
-1.6909 -4.9885 2.3872
-1.5168 -5.0696 2.3872
-1.3393 -5.1450 2.3872
-1.1586 -5.2146 2.3872
-0.9748 -5.2781 2.3872
-0.7881 -5.3354 2.3872
-0.5988 -5.3863 2.3872
-0.4070 -5.4308 2.3872
-0.2129 -5.4687 2.3872
-0.0168 -5.4998 2.3872
0.1811 -5.5240 2.3872
0.3806 -5.5412 2.3872
0.5814 -5.5514 2.3872
0.7833 -5.5543 2.3872
0.9860 -5.5499 2.3872
1.1892 -5.5382 2.3872
1.3927 -5.5189 2.3872
1.5962 -5.4922 2.3872
1.7994 -5.4579 2.3872
2.0019 -5.4159 2.3872
2.2036 -5.3663 2.3872
2.4040 -5.3089 2.3872
2.6029 -5.2440 2.3872
2.7999 -5.1713 2.3872
2.9947 -5.0910 2.3872
3.1871 -5.0031 2.3872
3.3766 -4.9076 2.3872
3.5630 -4.8046 2.3872
3.7458 -4.6943 2.3872
3.9249 -4.5765 2.3872
4.0998 -4.4516 2.3872
4.2702 -4.3197 2.3872
4.4358 -4.1808 2.3872
4.5963 -4.0352 2.3872
4.7514 -3.8830 2.3872
4.9008 -3.7244 2.3872
5.0441 -3.5597 2.3872
5.1811 -3.3890 2.3872
5.3115 -3.2127 2.3872
5.4350 -3.0310 2.3872
5.5514 -2.8442 2.3872
5.6604 -2.6526 2.3872
5.7618 -2.4560 2.3872
5.8554 -2.2558 2.3872
5.9409 -2.0517 2.3872
6.0182 -1.8434 2.3872
6.0871 -1.6318 2.3872
6.1475 -1.4193 2.3872
6.1992 -1.2031 2.3872
6.2421 -0.9849 2.3872
6.2762 -0.7650 2.3872
6.3013 -0.5438 2.3872
6.3174 -0.3218 2.3872
6.3244 -0.0993 2.3872
6.3224 0.1233 2.3872
6.3114 0.3455 2.3872
6.2914 0.5671 2.3872
6.2624 0.7875 2.3872
6.2245 1.0065 2.3872
6.1778 1.2235 2.3872
6.1225 1.4383 2.3872
6.0586 1.6504 2.3872
5.9863 1.8595 2.3872
5.9057 2.0653 2.3872
5.8171 2.2673 2.3872
5.7206 2.4654 2.3872
5.6165 2.6590 2.3872
5.5050 2.8479 2.3872
5.3862 3.0321 2.3872
5.2606 3.2109 2.3872
5.1283 3.3842 2.3872
4.9896 3.5518 2.3872
4.8448 3.7134 2.3872
4.6942 3.8688 2.3872
4.5382 4.0178 2.3872
4.3769 4.1603 2.3872
4.2107 4.2960 2.3872
4.0399 4.4248 2.3872
3.8649 4.5465 2.3872
3.6860 4.6612 2.3872
3.5034 4.7685 2.3872
3.3176 4.8686 2.3872
3.1288 4.9612 2.3872
2.9373 5.0463 2.3872
2.7435 5.1240 2.3872
0.9629 1.9632 0.9023
0.8920 1.9951 0.9060
0.8199 2.0243 0.9098
0.7468 2.0510 0.9136
0.6727 2.0750 0.9174
0.5979 2.0963 0.9213
0.5223 2.1149 0.9252
0.4461 2.1308 0.9291
0.3694 2.1439 0.9331
0.2922 2.1542 0.9370
0.2147 2.1617 0.9410
0.1370 2.1664 0.9449
0.0592 2.1683 0.9489
-0.0187 2.1674 0.9528
-0.0965 2.1637 0.9567
-0.1741 2.1572 0.9606
-0.2514 2.1479 0.9645
-0.3283 2.1357 0.9683
-0.4047 2.1208 0.9721
-0.4806 2.1032 0.9759
-0.5557 2.0828 0.9796
-0.6301 2.0597 0.9833
-0.7036 2.0340 0.9869
-0.7762 2.0056 0.9904
-0.8476 1.9746 0.9939
-2.1971 4.6462 2.3872
-2.3545 4.5447 2.3872
-2.5078 4.4383 2.3872
-2.6569 4.3273 2.3872
-2.8018 4.2117 2.3872
-2.9422 4.0918 2.3872
-3.0781 3.9676 2.3872
-3.2094 3.8395 2.3872
-3.3361 3.7074 2.3872
-3.4579 3.5717 2.3872
-3.5749 3.4324 2.3872
-3.6869 3.2897 2.3872
-3.7939 3.1438 2.3872
-3.8958 2.9948 2.3872
-3.9925 2.8430 2.3872
-4.0841 2.6883 2.3872
-4.1703 2.5313 2.3872
-4.2513 2.3716 2.3872
-4.3269 2.2097 2.3872
-4.3970 2.0459 2.3872
-4.4617 1.8801 2.3872
-4.5209 1.7125 2.3872
-4.5746 1.5433 2.3872
-4.6228 1.3726 2.3872
-4.6653 1.2006 2.3872
-4.7023 1.0275 2.3872
-4.7336 0.8534 2.3872
-4.7593 0.6785 2.3872
-4.7793 0.5029 2.3872
-4.7936 0.3268 2.3872
-4.8023 0.1504 2.3872
-4.8052 -0.0263 2.3872
-4.8024 -0.2029 2.3872
-4.7940 -0.3795 2.3872
-4.7798 -0.5558 2.3872
-4.7600 -0.7316 2.3872
-4.7345 -0.9069 2.3872
-4.7032 -1.0814 2.3872
-4.6664 -1.2550 2.3872
-4.6238 -1.4275 2.3872
-4.5757 -1.5988 2.3872
-4.5219 -1.7687 2.3872
-4.4625 -1.9370 2.3872
-4.3976 -2.1036 2.3872
-4.3272 -2.2683 2.3872
-4.2513 -2.4310 2.3872
-4.1699 -2.5915 2.3872
-4.0831 -2.7495 2.3872
-3.9910 -2.9050 2.3872
-3.8936 -3.0580 2.3872
-3.7909 -3.2079 2.3872
-3.6831 -3.3548 2.3872
-3.5701 -3.4985 2.3872
-3.4521 -3.6388 2.3872
-3.3292 -3.7755 2.3872
-3.2013 -3.9085 2.3872
-3.0686 -4.0376 2.3872
-2.9313 -4.1626 2.3872
-2.7893 -4.2833 2.3872
-2.6429 -4.3997 2.3872
-2.4920 -4.5114 2.3872
-2.3369 -4.6184 2.3872
-2.1777 -4.7205 2.3872
-2.0144 -4.8174 2.3872
-1.8473 -4.9092 2.3872
-1.6765 -4.9954 2.3872
-1.5021 -5.0761 2.3872
-1.3244 -5.1511 2.3872
-1.1434 -5.2201 2.3872
-0.9593 -5.2831 2.3872
-0.7724 -5.3399 2.3872
-0.5829 -5.3903 2.3872
-0.3909 -5.4342 2.3872
-0.1966 -5.4715 2.3872
-0.0003 -5.5021 2.3872
0.1977 -5.5257 2.3872
0.3973 -5.5424 2.3872
0.5982 -5.5519 2.3872
0.8002 -5.5542 2.3872
1.0030 -5.5492 2.3872
1.2062 -5.5368 2.3872
1.4097 -5.5170 2.3872
1.6132 -5.4896 2.3872
1.8163 -5.4546 2.3872
2.0188 -5.4120 2.3872
2.2204 -5.3618 2.3872
2.4206 -5.3039 2.3872
2.6194 -5.2382 2.3872
2.8163 -5.1649 2.3872
3.0109 -5.0840 2.3872
3.2030 -4.9954 2.3872
3.3923 -4.8993 2.3872
3.5784 -4.7957 2.3872
3.7609 -4.6847 2.3872
3.9396 -4.5664 2.3872
4.1142 -4.4409 2.3872
4.2842 -4.3083 2.3872
4.4494 -4.1689 2.3872
4.6095 -4.0227 2.3872
4.7641 -3.8700 2.3872
4.9130 -3.7109 2.3872
5.0558 -3.5457 2.3872
5.1923 -3.3745 2.3872
5.3221 -3.1978 2.3872
5.4450 -3.0156 2.3872
5.5608 -2.8284 2.3872
5.6692 -2.6367 2.3872
5.7699 -2.4398 2.3872
5.8628 -2.2391 2.3872
5.9477 -2.0345 2.3872
6.0243 -1.8265 2.3872
6.0925 -1.6153 2.3872
6.1521 -1.4013 2.3872
6.2031 -1.1850 2.3872
6.2453 -0.9666 2.3872
6.2786 -0.7466 2.3872
6.3030 -0.5253 2.3872
6.3183 -0.3033 2.3872
6.3246 -0.0808 2.3872
6.3218 0.1419 2.3872
6.3101 0.3641 2.3872
6.2893 0.5856 2.3872
6.2596 0.8059 2.3872
6.2209 1.0246 2.3872
6.1735 1.2415 2.3872
6.1175 1.4561 2.3872
6.0529 1.6680 2.3872
5.9798 1.8768 2.3872
5.8986 2.0823 2.3872
5.8093 2.2840 2.3872
5.7122 2.4817 2.3872
5.6075 2.6750 2.3872
5.4953 2.8636 2.3872
5.3760 3.0472 2.3872
5.2498 3.2256 2.3872
5.1170 3.3984 2.3872
4.9778 3.5655 2.3872
4.8325 3.7266 2.3872
4.6814 3.8815 2.3872
4.5249 4.0300 2.3872
4.3632 4.1719 2.3872
4.1966 4.3070 2.3872
4.0255 4.4352 2.3872
3.8501 4.5564 2.3872
3.6709 4.6704 2.3872
3.4880 4.7772 2.3872
3.3019 4.8766 2.3872
3.1129 4.9686 2.3872
2.9212 5.0531 2.3872
2.7272 5.1301 2.3872
0.9571 1.9660 0.9026
0.8860 1.9976 0.9063
0.8138 2.0267 0.9101
0.7406 2.0531 0.9139
0.6665 2.0769 0.9178
0.5916 2.0980 0.9216
0.5160 2.1164 0.9255
0.4397 2.1320 0.9295
0.3629 2.1448 0.9334
0.2858 2.1549 0.9374
0.2082 2.1622 0.9413
0.1305 2.1667 0.9453
0.0527 2.1684 0.9492
-0.0252 2.1672 0.9531
-0.1029 2.1633 0.9571
-0.1805 2.1565 0.9610
-0.2578 2.1469 0.9648
-0.3347 2.1346 0.9687
-0.4111 2.1195 0.9725
-0.4869 2.1016 0.9762
-0.5620 2.0810 0.9799
-0.6363 2.0577 0.9836
-0.7097 2.0317 0.9872
-0.7822 2.0031 0.9907
-0.8535 1.9719 0.9942
-2.2104 4.6379 2.3872
-2.3674 4.5360 2.3872
-2.5204 4.4292 2.3872
-2.6692 4.3178 2.3872
-2.8136 4.2019 2.3872
-2.9537 4.0816 2.3872
-3.0893 3.9571 2.3872
-3.2202 3.8286 2.3872
-3.3464 3.6962 2.3872
-3.4678 3.5602 2.3872
-3.5844 3.4206 2.3872
-3.6960 3.2776 2.3872
-3.8026 3.1315 2.3872
-3.9040 2.9823 2.3872
-4.0004 2.8302 2.3872
-4.0915 2.6755 2.3872
-4.1773 2.5181 2.3872
-4.2578 2.3583 2.3872
-4.3329 2.1962 2.3872
-4.4026 2.0322 2.3872
-4.4669 1.8662 2.3872
-4.5256 1.6984 2.3872
-4.5789 1.5291 2.3872
-4.6265 1.3583 2.3872
-4.6686 1.1862 2.3872
-4.7051 1.0130 2.3872
-4.7360 0.8389 2.3872
-4.7612 0.6639 2.3872
-4.7807 0.4882 2.3872
-4.7946 0.3121 2.3872
-4.8027 0.1356 2.3872
-4.8052 -0.0410 2.3872
-4.8020 -0.2177 2.3872
-4.7930 -0.3942 2.3872
-4.7784 -0.5705 2.3872
-4.7581 -0.7463 2.3872
-4.7321 -0.9215 2.3872
-4.7004 -1.0959 2.3872
-4.6630 -1.2694 2.3872
-4.6200 -1.4419 2.3872
-4.5714 -1.6131 2.3872
-4.5172 -1.7828 2.3872
-4.4573 -1.9510 2.3872
-4.3920 -2.1175 2.3872
-4.3211 -2.2820 2.3872
-4.2447 -2.4444 2.3872
-4.1629 -2.6049 2.3872
-4.0757 -2.7626 2.3872
-3.9831 -2.9180 2.3872
-3.8852 -3.0706 2.3872
-3.7821 -3.2203 2.3872
-3.6739 -3.3670 2.3872
-3.5605 -3.5103 2.3872
-3.4420 -3.6503 2.3872
-3.3187 -3.7868 2.3872
-3.1904 -3.9194 2.3872
-3.0574 -4.0482 2.3872
-2.9196 -4.1728 2.3872
-2.7773 -4.2932 2.3872
-2.6304 -4.4092 2.3872
-2.4792 -4.5205 2.3872
-2.3238 -4.6271 2.3872
-2.1642 -4.7288 2.3872
-2.0006 -4.8253 2.3872
-1.8332 -4.9166 2.3872
-1.6621 -5.0024 2.3872
-1.4874 -5.0826 2.3872
-1.3094 -5.1571 2.3872
-1.1281 -5.2256 2.3872
-0.9438 -5.2881 2.3872
-0.7567 -5.3443 2.3872
-0.5669 -5.3942 2.3872
-0.3747 -5.4376 2.3872
-0.1803 -5.4743 2.3872
0.0161 -5.5043 2.3872
0.2143 -5.5274 2.3872
0.4141 -5.5434 2.3872
0.6151 -5.5524 2.3872
0.8171 -5.5541 2.3872
1.0199 -5.5485 2.3872
1.2232 -5.5355 2.3872
1.4267 -5.5150 2.3872
1.6302 -5.4870 2.3872
1.8333 -5.4514 2.3872
2.0357 -5.4081 2.3872
2.2371 -5.3573 2.3872
2.4373 -5.2987 2.3872
2.6359 -5.2324 2.3872
2.8326 -5.1585 2.3872
3.0271 -5.0769 2.3872
3.2189 -4.9877 2.3872
3.4079 -4.8909 2.3872
3.5937 -4.7867 2.3872
3.7760 -4.6751 2.3872
3.9544 -4.5562 2.3872
4.1285 -4.4301 2.3872
4.2982 -4.2970 2.3872
4.4630 -4.1569 2.3872
4.6226 -4.0102 2.3872
4.7768 -3.8569 2.3872
4.9251 -3.6973 2.3872
5.0674 -3.5316 2.3872
5.2034 -3.3600 2.3872
5.3326 -3.1828 2.3872
5.4550 -3.0001 2.3872
5.5701 -2.8125 2.3872
5.6779 -2.6201 2.3872
5.7780 -2.4232 2.3872
5.8702 -2.2222 2.3872
-4.4999 0.6563 2.3872
-4.5194 0.4900 2.3872
-4.5335 0.3232 2.3872
-4.5421 0.1561 2.3872
-4.5453 -0.0112 2.3872
-4.5431 -0.1785 2.3872
-4.5355 -0.3458 2.3872
-4.5224 -0.5128 2.3872
-4.5039 -0.6794 2.3872
-4.4800 -0.8454 2.3872
-4.4506 -1.0107 2.3872
-4.4159 -1.1751 2.3872
-4.3758 -1.3385 2.3872
-4.3303 -1.5008 2.3872
-4.2795 -1.6615 2.3872
-4.2234 -1.8208 2.3872
-4.1620 -1.9786 2.3872
-4.0954 -2.1346 2.3872
-4.0235 -2.2885 2.3872
-3.9465 -2.4402 2.3872
-3.8644 -2.5898 2.3872
-3.7771 -2.7368 2.3872
-3.6849 -2.8813 2.3872
-3.5877 -3.0229 2.3872
-3.4856 -3.1617 2.3872
-3.3786 -3.2974 2.3872
-3.2669 -3.4298 2.3872
-3.1505 -3.5588 2.3872
-3.0295 -3.6842 2.3872
-2.9040 -3.8059 2.3872
-2.7740 -3.9236 2.3872
-2.6398 -4.0373 2.3872
-2.5013 -4.1468 2.3872
-2.3587 -4.2519 2.3872
-2.2121 -4.3525 2.3872
-2.0616 -4.4484 2.3872
-1.9074 -4.5394 2.3872
-1.7496 -4.6254 2.3872
-1.5884 -4.7062 2.3872
-1.4238 -4.7818 2.3872
-1.2561 -4.8518 2.3872
-1.0854 -4.9163 2.3872
-0.9119 -4.9750 2.3872
-0.7358 -5.0278 2.3872
-0.5572 -5.0747 2.3872
-0.3764 -5.1154 2.3872
-0.1935 -5.1498 2.3872
-0.0088 -5.1778 2.3872
0.1775 -5.1994 2.3872
0.3652 -5.2143 2.3872
0.5540 -5.2226 2.3872
0.7438 -5.2240 2.3872
0.9342 -5.2186 2.3872
1.1251 -5.2063 2.3872
1.3161 -5.1869 2.3872
1.5070 -5.1605 2.3872
1.6975 -5.1270 2.3872
1.8873 -5.0863 2.3872
2.0762 -5.0385 2.3872
2.2638 -4.9835 2.3872
2.4499 -4.9213 2.3872
2.6342 -4.8520 2.3872
2.8164 -4.7755 2.3872
2.9961 -4.6920 2.3872
3.1732 -4.6014 2.3872
3.3472 -4.5039 2.3872
3.5178 -4.3994 2.3872
3.6849 -4.2882 2.3872
3.8480 -4.1703 2.3872
4.0068 -4.0459 2.3872
4.1612 -3.9151 2.3872
4.3107 -3.7780 2.3872
4.4551 -3.6349 2.3872
4.5941 -3.4858 2.3872
4.7275 -3.3311 2.3872
4.8549 -3.1710 2.3872
4.9762 -3.0056 2.3872
5.0910 -2.8352 2.3872
5.1992 -2.6602 2.3872
5.3005 -2.4806 2.3872
5.3947 -2.2969 2.3872
5.4816 -2.1093 2.3872
5.5611 -1.9182 2.3872
5.6329 -1.7239 2.3872
5.6969 -1.5266 2.3872
5.7530 -1.3267 2.3872
5.8010 -1.1247 2.3872
5.8409 -0.9207 2.3872
5.8725 -0.7152 2.3872
5.8959 -0.5085 2.3872
5.9109 -0.3010 2.3872
5.9175 -0.0931 2.3872
5.9157 0.1149 2.3872
5.9055 0.3226 2.3872
5.8870 0.5296 2.3872
5.8602 0.7356 2.3872
5.8252 0.9403 2.3872
5.7819 1.1432 2.3872
5.7306 1.3440 2.3872
5.6714 1.5425 2.3872
5.6043 1.7381 2.3872
5.5296 1.9307 2.3872
5.4474 2.1199 2.3872
5.3578 2.3053 2.3872
5.2612 2.4868 2.3872
5.1576 2.6640 2.3872
5.0473 2.8366 2.3872
4.9305 3.0044 2.3872
4.8075 3.1671 2.3872
4.6785 3.3246 2.3872
4.5438 3.4765 2.3872
4.4036 3.6227 2.3872
4.2583 3.7630 2.3872
4.1080 3.8972 2.3872
3.9531 4.0252 2.3872
3.7939 4.1468 2.3872
3.6307 4.2618 2.3872
3.4637 4.3703 2.3872
3.2932 4.4720 2.3872
3.1196 4.5668 2.3872
2.9432 4.6548 2.3872
2.7641 4.7359 2.3872
2.5828 4.8099 2.3872
0.9092 1.8478 0.9045
0.8424 1.8778 0.9080
0.7745 1.9054 0.9116
0.7057 1.9304 0.9151
0.6360 1.9530 0.9188
0.5655 1.9731 0.9224
0.4944 1.9906 0.9261
0.4227 2.0055 0.9298
0.3504 2.0178 0.9335
0.2778 2.0275 0.9372
0.2049 2.0346 0.9409
0.1317 2.0390 0.9446
0.0585 2.0408 0.9484
-0.0148 2.0400 0.9521
-0.0880 2.0365 0.9557
-0.1611 2.0303 0.9594
-0.2338 2.0215 0.9631
-0.3062 2.0101 0.9667
-0.3782 1.9961 0.9702
-0.4496 1.9795 0.9738
-0.5203 1.9603 0.9773
-0.5903 1.9386 0.9807
-0.6595 1.9144 0.9841
-0.7278 1.8877 0.9875
-0.7950 1.8585 0.9907
-0.8612 1.8269 0.9939
-2.2174 4.2927 2.3872
-2.3627 4.1930 2.3872
-2.5041 4.0888 2.3872
-2.6414 3.9803 2.3872
-2.7746 3.8676 2.3872
-2.9036 3.7508 2.3872
-3.0282 3.6302 2.3872
-3.1485 3.5059 2.3872
-3.2642 3.3780 2.3872
-3.3753 3.2466 2.3872
-3.4817 3.1121 2.3872
-3.5834 2.9744 2.3872
-3.6803 2.8338 2.3872
-3.7722 2.6904 2.3872
-3.8593 2.5444 2.3872
-3.9413 2.3959 2.3872
-4.0184 2.2450 2.3872
-4.0903 2.0919 2.3872
-4.1570 1.9369 2.3872
-4.2186 1.7799 2.3872
-4.2750 1.6216 2.3872
-4.3261 1.4612 2.3872
-4.3719 1.2997 2.3872
-4.4124 1.1369 2.3872
-4.4475 0.9730 2.3872
-4.4773 0.8081 2.3872
-4.5018 0.6424 2.3872
-4.5208 0.4761 2.3872
-4.5344 0.3093 2.3872
-4.5426 0.1422 2.3872
-4.5453 -0.0252 2.3872
-4.5427 -0.1925 2.3872
-4.5346 -0.3598 2.3872
-4.5211 -0.5267 2.3872
-4.5021 -0.6933 2.3872
-4.4777 -0.8592 2.3872
-4.4479 -1.0244 2.3872
-4.4128 -1.1888 2.3872
-4.3722 -1.3521 2.3872
-4.3263 -1.5143 2.3872
-4.2750 -1.6750 2.3872
-4.2185 -1.8339 2.3872
-4.1567 -1.9917 2.3872
-4.0896 -2.1474 2.3872
-4.0173 -2.3014 2.3872
-3.9398 -2.4528 2.3872
-3.8573 -2.6021 2.3872
-3.7696 -2.7490 2.3872
-3.6770 -2.8932 2.3872
-3.5793 -3.0347 2.3872
-3.4768 -3.1732 2.3872
-3.3695 -3.3085 2.3872
-3.2574 -3.4407 2.3872
-3.1406 -3.5694 2.3872
-3.0192 -3.6945 2.3872
-2.8933 -3.8158 2.3872
-2.7630 -3.9333 2.3872
-2.6284 -4.0466 2.3872
-2.4895 -4.1558 2.3872
-2.3466 -4.2605 2.3872
-2.1997 -4.3607 2.3872
-2.0489 -4.4562 2.3872
-1.8944 -4.5468 2.3872
-1.7363 -4.6323 2.3872
-1.5748 -4.7127 2.3872
-1.4099 -4.7878 2.3872
-1.2420 -4.8574 2.3872
-1.0710 -4.9214 2.3872
-0.8973 -4.9797 2.3872
-0.7209 -5.0320 2.3872
-0.5422 -5.0783 2.3872
-0.3612 -5.1185 2.3872
-0.1781 -5.1524 2.3872
0.0067 -5.1799 2.3872
0.1931 -5.2009 2.3872
0.3809 -5.2153 2.3872
0.5699 -5.2229 2.3872
0.7597 -5.2238 2.3872
0.9502 -5.2178 2.3872
1.1410 -5.2049 2.3872
1.3320 -5.1850 2.3872
1.5229 -5.1580 2.3872
1.7133 -5.1238 2.3872
1.9031 -5.0826 2.3872
2.0919 -5.0342 2.3872
2.2794 -4.9785 2.3872
2.4654 -4.9158 2.3872
2.6495 -4.8459 2.3872
2.8315 -4.7689 2.3872
3.0110 -4.6847 2.3872
3.1878 -4.5935 2.3872
3.3615 -4.4954 2.3872
3.5319 -4.3904 2.3872
3.6986 -4.2786 2.3872
3.8614 -4.1602 2.3872
4.0199 -4.0352 2.3872
4.1738 -3.9039 2.3872
4.3229 -3.7663 2.3872
4.4669 -3.6226 2.3872
4.6055 -3.4731 2.3872
4.7384 -3.3180 2.3872
4.8653 -3.1574 2.3872
4.9860 -2.9915 2.3872
5.1003 -2.8208 2.3872
5.2079 -2.6453 2.3872
5.3087 -2.4654 2.3872
5.4023 -2.2814 2.3872
5.4886 -2.0935 2.3872
5.5674 -1.9021 2.3872
5.6385 -1.7075 2.3872
5.7019 -1.5100 2.3872
5.7573 -1.3103 2.3872
5.8047 -1.1077 2.3872
5.8439 -0.9036 2.3872
5.8748 -0.6980 2.3872
5.8975 -0.4912 2.3872
5.9117 -0.2837 2.3872
5.9177 -0.0758 2.3872
5.9152 0.1322 2.3872
5.9043 0.3399 2.3872
5.8851 0.5469 2.3872
5.8576 0.7528 2.3872
5.8219 0.9573 2.3872
5.7779 1.1601 2.3872
5.7260 1.3607 2.3872
5.6661 1.5589 2.3872
5.5984 1.7543 2.3872
5.5230 1.9466 2.3872
5.4402 2.1355 2.3872
5.3500 2.3206 2.3872
5.2528 2.5018 2.3872
5.1486 2.6786 2.3872
5.0378 2.8508 2.3872
4.9205 3.0182 2.3872
4.7970 3.1805 2.3872
4.6675 3.3375 2.3872
4.5323 3.4889 2.3872
4.3917 3.6346 2.3872
4.2459 3.7744 2.3872
4.0953 3.9081 2.3872
3.9400 4.0356 2.3872
3.7804 4.1566 2.3872
3.6169 4.2711 2.3872
3.4496 4.3790 2.3872
3.2788 4.4801 2.3872
3.1050 4.5744 2.3872
2.9283 4.6619 2.3872
2.7491 4.7423 2.3872
0.9694 1.8182 0.9013
0.9036 1.8504 0.9048
0.8367 1.8802 0.9083
0.7688 1.9075 0.9119
0.6999 1.9324 0.9154
0.6301 1.9548 0.9191
0.5596 1.9746 0.9227
0.4884 1.9919 0.9264
0.4167 2.0066 0.9301
0.3444 2.0187 0.9338
0.2717 2.0282 0.9375
0.1988 2.0351 0.9412
0.1256 2.0393 0.9450
0.0523 2.0409 0.9487
-0.0209 2.0398 0.9524
-0.0941 2.0360 0.9561
-0.1671 2.0297 0.9597
-0.2399 2.0207 0.9634
-0.3123 2.0090 0.9670
-0.3842 1.9948 0.9705
-0.4555 1.9780 0.9741
-0.5262 1.9586 0.9776
-0.5961 1.9367 0.9810
-0.6653 1.9122 0.9844
-0.7334 1.8853 0.9877
-0.8006 1.8559 0.9910
-0.8667 1.8242 0.9942
-2.2297 4.2846 2.3872
-2.3747 4.1845 2.3872
-2.5157 4.0799 2.3872
-2.6527 3.9710 2.3872
-2.7856 3.8580 2.3872
-2.9142 3.7409 2.3872
-3.0384 3.6200 2.3872
-3.1583 3.4953 2.3872
-3.2736 3.3671 2.3872
-3.3843 3.2355 2.3872
-3.4904 3.1007 2.3872
-3.5917 2.9628 2.3872
-3.6881 2.8219 2.3872
-3.7797 2.6783 2.3872
-3.8663 2.5321 2.3872
-3.9480 2.3833 2.3872
-4.0246 2.2323 2.3872
-4.0960 2.0790 2.3872
-4.1624 1.9238 2.3872
-4.2235 1.7670 2.3872
-4.2794 1.6084 2.3872
-4.3301 1.4479 2.3872
-4.3755 1.2862 2.3872
-4.4155 1.1232 2.3872
-4.4502 0.9592 2.3872
-4.4796 0.7943 2.3872
-4.5036 0.6286 2.3872
-4.5221 0.4622 2.3872
-4.5353 0.2954 2.3872
-4.5430 0.1282 2.3872
-4.5453 -0.0391 2.3872
-4.5422 -0.2065 2.3872
-4.5337 -0.3737 2.3872
-4.5197 -0.5406 2.3872
-4.5003 -0.7071 2.3872
-4.4754 -0.8730 2.3872
-4.4452 -1.0382 2.3872
-4.4096 -1.2024 2.3872
-4.3686 -1.3657 2.3872
-4.3222 -1.5278 2.3872
-4.2705 -1.6883 2.3872
-4.2135 -1.8473 2.3872
-4.1513 -2.0049 2.3872
-4.0837 -2.1605 2.3872
-4.0110 -2.3139 2.3872
-3.9331 -2.4654 2.3872
-3.8501 -2.6145 2.3872
-3.7621 -2.7611 2.3872
-3.6690 -2.9051 2.3872
-3.5710 -3.0463 2.3872
-3.4680 -3.1846 2.3872
-3.3603 -3.3197 2.3872
-3.2478 -3.4516 2.3872
-3.1306 -3.5800 2.3872
-3.0089 -3.7048 2.3872
-2.8826 -3.8258 2.3872
-2.7519 -3.9429 2.3872
-2.6170 -4.0559 2.3872
-2.4778 -4.1647 2.3872
-2.3345 -4.2690 2.3872
-2.1872 -4.3688 2.3872
-2.0362 -4.4639 2.3872
-1.8813 -4.5541 2.3872
-1.7229 -4.6392 2.3872
-1.5611 -4.7192 2.3872
-1.3960 -4.7938 2.3872
-1.2278 -4.8630 2.3872
-1.0566 -4.9265 2.3872
-0.8827 -4.9842 2.3872
-0.7061 -5.0361 2.3872
-0.5272 -5.0819 2.3872
-0.3460 -5.1215 2.3872
-0.1628 -5.1549 2.3872
0.0222 -5.1819 2.3872
0.2087 -5.2023 2.3872
0.3967 -5.2162 2.3872
0.5857 -5.2233 2.3872
0.7756 -5.2236 2.3872
0.9661 -5.2170 2.3872
1.1570 -5.2035 2.3872
1.3480 -5.1830 2.3872
1.5388 -5.1554 2.3872
1.7292 -5.1207 2.3872
1.9189 -5.0788 2.3872
2.1076 -5.0298 2.3872
2.2950 -4.9736 2.3872
2.4808 -4.9102 2.3872
2.6648 -4.8397 2.3872
2.8466 -4.7621 2.3872
3.0259 -4.6774 2.3872
3.2024 -4.5856 2.3872
3.3759 -4.4869 2.3872
3.5460 -4.3813 2.3872
3.7124 -4.2690 2.3872
3.8748 -4.1500 2.3872
4.0329 -4.0245 2.3872
4.1865 -3.8926 2.3872
4.3352 -3.7545 2.3872
4.4787 -3.6104 2.3872
4.6168 -3.4604 2.3872
4.7492 -3.3048 2.3872
4.8756 -3.1437 2.3872
4.9958 -2.9775 2.3872
5.1096 -2.8063 2.3872
5.2166 -2.6304 2.3872
5.3167 -2.4502 2.3872
5.4097 -2.2659 2.3872
5.4954 -2.0777 2.3872
-4.2637 0.6224 2.3872
-4.2822 0.4648 2.3872
-4.2956 0.3063 2.3872
-4.3038 0.1477 2.3872
-4.3068 -0.0111 2.3872
-4.3047 -0.1696 2.3872
-4.2974 -0.3285 2.3872
-4.2848 -0.4867 2.3872
-4.2672 -0.6449 2.3872
-4.2443 -0.8023 2.3872
-4.2163 -0.9591 2.3872
-4.1831 -1.1149 2.3872
-4.1448 -1.2698 2.3872
-4.1014 -1.4238 2.3872
-4.0530 -1.5761 2.3872
-3.9994 -1.7273 2.3872
-3.9409 -1.8767 2.3872
-3.8773 -2.0244 2.3872
-3.8088 -2.1701 2.3872
-3.7354 -2.3138 2.3872
-3.6571 -2.4553 2.3872
-3.5740 -2.5945 2.3872
-3.4862 -2.7310 2.3872
-3.3936 -2.8650 2.3872
-3.2964 -2.9961 2.3872
-3.1946 -3.1242 2.3872
-3.0884 -3.2492 2.3872
-2.9776 -3.3709 2.3872
-2.8626 -3.4892 2.3872
-2.7433 -3.6038 2.3872
-2.6198 -3.7148 2.3872
-2.4923 -3.8218 2.3872
-2.3608 -3.9248 2.3872
-2.2254 -4.0235 2.3872
-2.0863 -4.1180 2.3872
-1.9436 -4.2079 2.3872
-1.7974 -4.2932 2.3872
-1.6478 -4.3737 2.3872
-1.4950 -4.4492 2.3872
-1.3391 -4.5197 2.3872
-1.1804 -4.5850 2.3872
-1.0188 -4.6450 2.3872
-0.8547 -4.6995 2.3872
-0.6882 -4.7484 2.3872
-0.5194 -4.7916 2.3872
-0.3486 -4.8290 2.3872
-0.1759 -4.8604 2.3872
-0.0015 -4.8858 2.3872
0.1742 -4.9051 2.3872
0.3512 -4.9181 2.3872
0.5293 -4.9247 2.3872
0.7081 -4.9250 2.3872
0.8874 -4.9188 2.3872
1.0671 -4.9061 2.3872
1.2468 -4.8867 2.3872
1.4263 -4.8608 2.3872
1.6054 -4.8281 2.3872
1.7838 -4.7888 2.3872
1.9612 -4.7427 2.3872
2.1374 -4.6899 2.3872
2.3121 -4.6304 2.3872
2.4849 -4.5642 2.3872
2.6558 -4.4914 2.3872
2.8242 -4.4119 2.3872
2.9901 -4.3258 2.3872
3.1531 -4.2333 2.3872
3.3128 -4.1343 2.3872
3.4692 -4.0291 2.3872
3.6217 -3.9176 2.3872
3.7703 -3.8000 2.3872
3.9146 -3.6765 2.3872
4.0543 -3.5472 2.3872
4.1892 -3.4123 2.3872
4.3191 -3.2719 2.3872
4.4436 -3.1262 2.3872
4.5626 -2.9755 2.3872
4.6757 -2.8200 2.3872
4.7829 -2.6598 2.3872
4.8838 -2.4953 2.3872
4.9783 -2.3266 2.3872
5.0661 -2.1542 2.3872
5.1472 -1.9781 2.3872
5.2212 -1.7987 2.3872
5.2882 -1.6164 2.3872
5.3478 -1.4314 2.3872
5.4001 -1.2439 2.3872
5.4449 -1.0545 2.3872
5.4821 -0.8633 2.3872
5.5116 -0.6706 2.3872
5.5334 -0.4769 2.3872
5.5474 -0.2825 2.3872
5.5536 -0.0876 2.3872
5.5520 0.1073 2.3872
5.5426 0.3020 2.3872
5.5254 0.4961 2.3872
5.5005 0.6892 2.3872
5.4679 0.8811 2.3872
5.4277 1.0714 2.3872
5.3800 1.2597 2.3872
5.3249 1.4459 2.3872
5.2625 1.6295 2.3872
5.1929 1.8102 2.3872
5.1163 1.9878 2.3872
5.0329 2.1620 2.3872
4.9428 2.3325 2.3872
4.8463 2.4990 2.3872
4.7434 2.6614 2.3872
4.6345 2.8192 2.3872
4.5197 2.9724 2.3872
4.3993 3.1207 2.3872
4.2736 3.2638 2.3872
4.1427 3.4017 2.3872
4.0068 3.5341 2.3872
3.8664 3.6608 2.3872
3.7216 3.7817 2.3872
3.5726 3.8967 2.3872
3.4199 4.0057 2.3872
3.2635 4.1084 2.3872
3.1039 4.2049 2.3872
2.9413 4.2950 2.3872
2.7758 4.3787 2.3872
2.6080 4.4559 2.3872
0.9224 1.7127 0.9032
0.8604 1.7432 0.9065
0.7974 1.7715 0.9098
0.7334 1.7975 0.9132
0.6684 1.8211 0.9165
0.6027 1.8424 0.9200
0.5362 1.8613 0.9234
0.4691 1.8778 0.9269
0.4014 1.8919 0.9304
0.3333 1.9035 0.9339
0.2648 1.9127 0.9374
0.1959 1.9193 0.9409
0.1269 1.9235 0.9444
0.0578 1.9252 0.9479
-0.0113 1.9244 0.9514
-0.0804 1.9211 0.9549
-0.1493 1.9153 0.9583
-0.2179 1.9070 0.9618
-0.2862 1.8962 0.9652
-0.3541 1.8830 0.9685
-0.4215 1.8673 0.9719
-0.4882 1.8492 0.9752
-0.5543 1.8288 0.9784
-0.6195 1.8059 0.9816
-0.6839 1.7807 0.9848
-0.7474 1.7532 0.9879
-0.8098 1.7234 0.9909
-2.0924 4.0627 2.3872
-2.2302 3.9689 2.3872
-2.3645 3.8709 2.3872
-2.4949 3.7688 2.3872
-2.6215 3.6626 2.3872
-2.7440 3.5526 2.3872
-2.8625 3.4388 2.3872
-2.9768 3.3215 2.3872
-3.0869 3.2007 2.3872
-3.1926 3.0767 2.3872
-3.2938 2.9495 2.3872
-3.3906 2.8193 2.3872
-3.4828 2.6863 2.3872
-3.5704 2.5506 2.3872
-3.6533 2.4124 2.3872
-3.7315 2.2718 2.3872
-3.8048 2.1289 2.3872
-3.8733 1.9839 2.3872
-3.9369 1.8370 2.3872
-3.9956 1.6883 2.3872
-4.0493 1.5379 2.3872
-4.0980 1.3859 2.3872
-4.1417 1.2328 2.3872
-4.1803 1.0785 2.3872
-4.2138 0.9229 2.3872
-4.2422 0.7664 2.3872
-4.2654 0.6092 2.3872
-4.2835 0.4515 2.3872
-4.2965 0.2937 2.3872
-4.3043 0.1346 2.3872
-4.3069 -0.0241 2.3872
-4.3043 -0.1829 2.3872
-4.2965 -0.3417 2.3872
-4.2836 -0.5002 2.3872
-4.2654 -0.6581 2.3872
-4.2422 -0.8155 2.3872
-4.2137 -0.9720 2.3872
