ply
format ascii 1.0
element vertex 2186
property float32 x
property float32 y
property float32 z
end_header
-2.9012 -5.5627 2.3888
-2.7002 -5.6638 2.3888
-2.4955 -5.7576 2.3888
-2.2876 -5.8440 2.3888
-2.0767 -5.9229 2.3888
-1.8631 -5.9940 2.3888
-1.6471 -6.0574 2.3888
-1.4288 -6.1130 2.3888
-1.2087 -6.1607 2.3888
-0.9870 -6.2003 2.3888
-0.7640 -6.2320 2.3888
-0.5401 -6.2555 2.3888
-0.3153 -6.2710 2.3888
-0.0902 -6.2783 2.3888
0.1350 -6.2775 2.3888
0.3601 -6.2686 2.3888
0.5847 -6.2515 2.3888
0.8085 -6.2263 2.3888
1.0312 -6.1931 2.3888
1.2526 -6.1518 2.3888
1.4724 -6.1026 2.3888
1.6902 -6.0454 2.3888
1.9058 -5.9805 2.3888
2.1189 -5.9078 2.3888
2.3292 -5.8275 2.3888
2.5365 -5.7396 2.3888
2.7404 -5.6443 2.3888
2.9408 -5.5417 2.3888
2.9371 -5.0854 2.2364
3.1172 -4.9761 2.2364
3.2932 -4.8604 2.2364
3.4649 -4.7384 2.2364
3.6321 -4.6103 2.2364
3.7945 -4.4763 2.2364
3.9520 -4.3366 2.2364
4.1043 -4.1913 2.2364
4.2512 -4.0406 2.2364
4.3926 -3.8847 2.2364
4.5283 -3.7239 2.2364
4.6580 -3.5583 2.2364
4.7817 -3.3881 2.2364
4.8991 -3.2137 2.2364
5.0101 -3.0352 2.2364
5.1147 -2.8528 2.2364
5.2246 -2.6730 2.2415
5.3162 -2.4834 2.2417
5.4007 -2.2905 2.2417
5.4781 -2.0947 2.2417
5.5484 -1.8963 2.2417
5.6115 -1.6955 2.2417
5.6673 -1.4926 2.2417
5.7157 -1.2879 2.2417
5.7568 -1.0817 2.2417
5.7904 -0.8741 2.2417
5.8166 -0.6655 2.2417
5.8352 -0.4562 2.2417
5.8463 -0.2464 2.2417
5.8499 -0.0363 2.2417
5.8459 0.1736 2.2417
5.8344 0.3833 2.2417
5.5470 0.5650 2.1383
5.5576 0.7686 2.1522
5.5685 0.9750 2.1691
5.7135 1.2133 2.2417
5.6648 1.4173 2.2417
5.6089 1.6194 2.2417
5.5457 1.8193 2.2417
5.4751 2.0167 2.2416
5.3975 2.2113 2.2414
5.3130 2.4029 2.2413
5.2216 2.5914 2.2411
5.1235 2.7764 2.2409
5.0189 2.9577 2.2407
4.9079 3.1350 2.2405
4.7906 3.3082 2.2403
4.6672 3.4771 2.2400
4.5379 3.6413 2.2398
4.4028 3.8008 2.2395
4.2621 3.9553 2.2393
4.1160 4.1046 2.2390
3.9647 4.2485 2.2387
3.8084 4.3868 2.2384
3.6472 4.5194 2.2381
3.4815 4.6462 2.2378
3.3113 4.7669 2.2375
3.1370 4.8814 2.2372
2.9588 4.9895 2.2369
2.7769 5.0912 2.2365
2.5917 5.1867 2.2364
2.5313 5.5565 2.3554
2.3628 5.7234 2.3888
0.8585 2.3118 0.9515
0.7750 2.3413 0.9516
0.6904 2.3679 0.9518
0.6049 2.3914 0.9519
0.5186 2.4118 0.9521
0.4317 2.4290 0.9522
0.3441 2.4431 0.9523
0.2562 2.4541 0.9524
0.1678 2.4618 0.9525
0.0793 2.4664 0.9525
-0.0094 2.4678 0.9526
-0.0981 2.4659 0.9526
-0.1866 2.4609 0.9526
-0.2750 2.4527 0.9526
-0.3629 2.4412 0.9526
-0.4504 2.4267 0.9526
-0.5373 2.4089 0.9525
-0.6235 2.3881 0.9525
-0.7089 2.3641 0.9524
-0.7934 2.3371 0.9523
-0.8768 2.3070 0.9522
-2.4065 5.7053 2.3888
5.1936 1.6978 2.2411
5.1278 1.8827 2.2410
5.0554 2.0650 2.2408
4.9765 2.2445 2.2407
4.8912 2.4211 2.2405
4.7996 2.5944 2.2403
4.7019 2.7643 2.2402
4.5982 2.9305 2.2400
4.4887 3.0929 2.2397
4.3734 3.2511 2.2395
4.2525 3.4051 2.2393
4.1262 3.5546 2.2391
3.9947 3.6995 2.2388
3.8581 3.8395 2.2386
3.7166 3.9744 2.2383
3.5704 4.1042 2.2380
3.4197 4.2286 2.2378
3.2646 4.3475 2.2375
3.1055 4.4608 2.2372
2.9424 4.5683 2.2369
2.7756 4.6698 2.2366
2.6055 4.7655 2.2364
2.5136 5.0178 2.3111
2.4098 5.2758 2.3888
0.8828 2.1324 0.9506
0.8057 2.1630 0.9508
0.7275 2.1907 0.9510
0.6484 2.2156 0.9511
0.5684 2.2377 0.9512
0.4877 2.2568 0.9514
0.4063 2.2730 0.9515
0.3244 2.2863 0.9516
0.2420 2.2966 0.9517
0.1593 2.3040 0.9517
0.0764 2.3083 0.9518
-0.0066 2.3097 0.9518
-0.0896 2.3080 0.9519
-0.1724 2.3034 0.9519
-0.2551 2.2958 0.9519
-0.3374 2.2852 0.9519
-0.4193 2.2716 0.9518
-0.5007 2.2551 0.9518
-0.5814 2.2356 0.9518
-0.6614 2.2133 0.9517
-0.7405 2.1881 0.9516
-0.8186 2.1600 0.9515
-0.8957 2.1291 0.9514
-2.4397 5.2622 2.3888
-2.6275 5.1717 2.3888
-2.8120 5.0745 2.3888
-2.9928 4.9708 2.3888
-3.1699 4.8607 2.3888
-3.3430 4.7443 2.3888
-3.5118 4.6218 2.3888
-3.6761 4.4934 2.3888
-3.8358 4.3591 2.3888
-3.9906 4.2192 2.3888
-4.1403 4.0738 2.3888
-4.2847 3.9232 2.3888
-4.4237 3.7674 2.3888
-4.5571 3.6068 2.3888
-4.6846 3.4414 2.3888
-4.8062 3.2716 2.3888
-4.9216 3.0975 2.3888
-5.0307 2.9193 2.3888
-5.1335 2.7374 2.3888
-5.2296 2.5518 2.3888
-5.3191 2.3629 2.3888
-5.4017 2.1708 2.3888
-5.4775 1.9759 2.3888
-5.5462 1.7785 2.3888
-5.6078 1.5784 2.3888
-5.6622 1.3763 2.3888
-5.7094 1.1724 2.3888
-5.7492 0.9669 2.3888
-5.7816 0.7600 2.3888
-5.8066 0.5521 2.3888
-5.8241 0.3434 2.3888
-5.8342 0.1341 2.3888
-5.8367 -0.0754 2.3888
-5.8316 -0.2850 2.3888
-5.8191 -0.4943 2.3888
-5.7990 -0.7030 2.3888
-5.7715 -0.9109 2.3888
-5.7365 -1.1178 2.3888
-5.6940 -1.3229 2.3888
-5.6442 -1.5271 2.3888
-5.5871 -1.7291 2.3888
-5.5228 -1.9290 2.3888
-5.4513 -2.1264 2.3888
-5.3727 -2.3212 2.3888
-5.2871 -2.5131 2.3888
-5.1947 -2.7018 2.3888
-5.0955 -2.8871 2.3888
-4.9897 -3.0687 2.3888
-4.8774 -3.2464 2.3888
-4.7588 -3.4200 2.3888
-4.6339 -3.5893 2.3888
-4.5030 -3.7539 2.3888
-4.3663 -3.9138 2.3888
-4.2238 -4.0687 2.3888
-4.0759 -4.2183 2.3888
-3.9226 -4.3626 2.3888
-3.7642 -4.5012 2.3888
-3.6009 -4.6341 2.3888
-3.4328 -4.7609 2.3888
-3.2603 -4.8817 2.3888
-3.0835 -4.9962 2.3888
-2.9027 -5.1042 2.3888
-2.7181 -5.2057 2.3888
-2.5299 -5.3004 2.3888
-2.3384 -5.3883 2.3888
-2.1439 -5.4692 2.3888
-1.9465 -5.5431 2.3888
-1.7466 -5.6098 2.3888
-1.5444 -5.6692 2.3888
-1.3401 -5.7213 2.3888
-1.1341 -5.7660 2.3888
-0.9266 -5.8032 2.3888
-0.7179 -5.8329 2.3888
-0.5083 -5.8550 2.3888
-0.2980 -5.8696 2.3888
-0.0873 -5.8766 2.3888
0.1235 -5.8759 2.3888
0.3342 -5.8676 2.3888
0.5444 -5.8518 2.3888
0.7538 -5.8283 2.3888
0.9623 -5.7973 2.3888
1.1696 -5.7588 2.3888
1.3753 -5.7129 2.3888
1.5792 -5.6595 2.3888
1.7810 -5.5988 2.3888
1.9805 -5.5309 2.3888
2.1774 -5.4558 2.3888
2.3715 -5.3737 2.3888
2.5624 -5.2846 2.3888
2.7500 -5.1887 2.3888
2.7468 -4.7617 2.2364
2.9155 -4.6595 2.2364
3.0803 -4.5513 2.2364
3.2411 -4.4372 2.2364
3.3977 -4.3175 2.2364
3.5498 -4.1921 2.2364
3.6973 -4.0614 2.2364
3.8400 -3.9255 2.2364
3.9776 -3.7846 2.2364
4.1101 -3.6388 2.2364
4.2372 -3.4883 2.2364
4.3587 -3.3334 2.2364
4.4747 -3.1742 2.2364
4.5847 -3.0110 2.2364
4.6888 -2.8440 2.2364
4.7962 -2.6786 2.2408
4.8885 -2.5044 2.2409
4.9744 -2.3270 2.2411
5.0538 -2.1466 2.2412
5.1267 -1.9635 2.2413
5.1929 -1.7779 2.2414
5.2523 -1.5901 2.2415
5.3049 -1.4003 2.2416
5.3506 -1.2088 2.2416
5.3894 -1.0157 2.2417
5.4211 -0.8214 2.2417
5.4457 -0.6262 2.2417
5.4634 -0.4302 2.2417
5.4739 -0.2337 2.2417
5.4774 -0.0371 2.2417
5.4739 0.1596 2.2417
5.4632 0.3559 2.2417
5.4454 0.5516 2.2417
5.4207 0.7466 2.2416
5.3889 0.9405 2.2415
5.3501 1.1330 2.2414
5.3045 1.3240 2.2413
5.2520 1.5132 2.2412
5.1927 1.7003 2.2411
5.1268 1.8852 2.2410
5.0543 2.0675 2.2408
4.9753 2.2470 2.2407
4.8900 2.4235 2.2405
4.7983 2.5968 2.2403
4.7006 2.7666 2.2402
4.5968 2.9328 2.2400
4.4871 3.0951 2.2397
4.3718 3.2533 2.2395
4.2508 3.4072 2.2393
4.1245 3.5566 2.2391
3.9929 3.7014 2.2388
3.8562 3.8413 2.2386
3.7146 3.9762 2.2383
3.5684 4.1059 2.2380
3.4176 4.2303 2.2377
3.2625 4.3491 2.2375
3.1033 4.4623 2.2372
2.9401 4.5697 2.2369
2.7733 4.6711 2.2366
2.6032 4.7668 2.2364
2.5135 5.0237 2.3133
2.4072 5.2770 2.3888
0.8818 2.1328 0.9506
0.8046 2.1634 0.9508
0.7265 2.1911 0.9510
0.6473 2.2159 0.9511
0.5673 2.2380 0.9512
0.4866 2.2571 0.9514
0.4052 2.2732 0.9515
0.3232 2.2865 0.9516
0.2409 2.2968 0.9517
0.1582 2.3040 0.9517
0.0753 2.3084 0.9518
-0.0077 2.3097 0.9518
-0.0907 2.3080 0.9519
-0.1736 2.3033 0.9519
-0.2562 2.2956 0.9519
-0.3386 2.2850 0.9519
-0.4205 2.2714 0.9518
-0.5018 2.2548 0.9518
-0.5825 2.2353 0.9517
-0.6625 2.2129 0.9517
-0.7415 2.1877 0.9516
-0.8197 2.1596 0.9515
-0.8967 2.1287 0.9514
-2.4423 5.2610 2.3888
-2.6300 5.1704 2.3888
-2.8144 5.0731 2.3888
-2.9953 4.9693 2.3888
-3.1723 4.8592 2.3888
-3.3453 4.7427 2.3888
-3.5140 4.6201 2.3888
-3.6783 4.4916 2.3888
-3.8379 4.3572 2.3888
-3.9927 4.2172 2.3888
-4.1423 4.0718 2.3888
-4.2867 3.9211 2.3888
-4.4256 3.7652 2.3888
-4.5589 3.6045 2.3888
-4.6863 3.4391 2.3888
-4.8078 3.2692 2.3888
-4.9231 3.0951 2.3888
-5.0322 2.9169 2.3888
-5.1348 2.7348 2.3888
-5.2309 2.5492 2.3888
-5.3203 2.3603 2.3888
-5.4028 2.1682 2.3888
-5.4785 1.9732 2.3888
-5.5471 1.7755 2.3888
-5.6086 1.5757 2.3888
-5.6629 1.3736 2.3888
-5.7100 1.1696 2.3888
-5.7497 0.9642 2.3888
-5.7820 0.7572 2.3888
-5.8069 0.5493 2.3888
-5.8243 0.3405 2.3888
-5.8342 0.1312 2.3888
-5.8366 -0.0783 2.3888
-5.8315 -0.2878 2.3888
-5.8189 -0.4971 2.3888
-5.7987 -0.7059 2.3888
-5.7711 -0.9138 2.3888
-5.7359 -1.1206 2.3888
-5.6934 -1.3260 2.3888
-5.6435 -1.5299 2.3888
-5.5863 -1.7319 2.3888
-5.5218 -1.9317 2.3888
-5.4502 -2.1291 2.3888
-5.3716 -2.3238 2.3888
-5.2859 -2.5157 2.3888
-5.1934 -2.7043 2.3888
-5.0941 -2.8896 2.3888
-4.9882 -3.0711 2.3888
-4.8758 -3.2488 2.3888
-4.7571 -3.4224 2.3888
-4.6322 -3.5916 2.3888
-4.5012 -3.7562 2.3888
-4.3644 -3.9160 2.3888
-4.2219 -4.0707 2.3888
-4.0738 -4.2203 2.3888
-3.9205 -4.3645 2.3888
-3.7620 -4.5031 2.3888
-3.5986 -4.6358 2.3888
-3.4305 -4.7626 2.3888
-3.2579 -4.8833 2.3888
-3.0811 -4.9977 2.3888
-2.9002 -5.1057 2.3888
-2.7156 -5.2070 2.3888
-2.5273 -5.3017 2.3888
-2.3358 -5.3894 2.3888
-2.1412 -5.4703 2.3888
-1.9438 -5.5440 2.3888
-1.7438 -5.6106 2.3888
-1.5416 -5.6699 2.3888
-1.3373 -5.7219 2.3888
-1.1313 -5.7665 2.3888
-0.9238 -5.8036 2.3888
-0.7150 -5.8332 2.3888
-0.5055 -5.8553 2.3888
-0.2951 -5.8697 2.3888
-0.0844 -5.8766 2.3888
0.1264 -5.8758 2.3888
0.3370 -5.8675 2.3888
0.5472 -5.8515 2.3888
0.7567 -5.8279 2.3888
0.9652 -5.7968 2.3888
1.1724 -5.7582 2.3888
1.3781 -5.7122 2.3888
1.5820 -5.6587 2.3888
1.7838 -5.5980 2.3888
1.9832 -5.5299 2.3888
2.1801 -5.4548 2.3888
2.3741 -5.3725 2.3888
2.5650 -5.2834 2.3888
2.7526 -5.1874 2.3888
2.7492 -4.7603 2.2364
2.9178 -4.6580 2.2364
3.0825 -4.5498 2.2364
3.2433 -4.4356 2.2364
3.3998 -4.3158 2.2364
3.5519 -4.1904 2.2364
3.6993 -4.0596 2.2364
3.8419 -3.9236 2.2364
3.9795 -3.7826 2.2364
4.1119 -3.6367 2.2364
4.2389 -3.4862 2.2364
4.3604 -3.3313 2.2364
4.4762 -3.1720 2.2364
4.5862 -3.0088 2.2364
4.6902 -2.8417 2.2364
4.7975 -2.6762 2.2408
4.8897 -2.5020 2.2409
4.9755 -2.3246 2.2411
5.0549 -2.1441 2.2412
5.1276 -1.9610 2.2413
5.1937 -1.7754 2.2414
5.2531 -1.5875 2.2415
5.3056 -1.3977 2.2416
5.3512 -1.2061 2.2416
5.3898 -1.0131 2.2417
5.4215 -0.8188 2.2417
5.4460 -0.6235 2.2417
5.4635 -0.4275 2.2417
5.4740 -0.2310 2.2417
5.4774 -0.0344 2.2417
5.4738 0.1622 2.2417
5.4630 0.3586 2.2417
5.4452 0.5543 2.2417
5.4203 0.7492 2.2416
5.3884 0.9431 2.2415
5.3495 1.1357 2.2414
5.3038 1.3266 2.2413
5.2512 1.5158 2.2412
5.1919 1.7029 2.2411
5.1259 1.8877 2.2410
5.0533 2.0699 2.2408
4.9742 2.2494 2.2407
4.8888 2.4259 2.2405
4.7970 2.5991 2.2403
4.6992 2.7689 2.2401
4.5953 2.9350 2.2399
4.4856 3.0972 2.2397
4.3702 3.2554 2.2395
4.2491 3.4093 2.2393
4.1227 3.5586 2.2391
3.9910 3.7034 2.2388
3.8543 3.8432 2.2386
3.7127 3.9780 2.2383
3.5663 4.1077 2.2380
3.4155 4.2320 2.2377
3.2603 4.3507 2.2375
3.1011 4.4638 2.2372
2.9379 4.5711 2.2369
2.7710 4.6725 2.2366
2.6008 4.7681 2.2364
2.5134 5.0296 2.3154
2.4046 5.2782 2.3888
0.8807 2.1333 0.9506
0.8036 2.1638 0.9508
0.7254 2.1914 0.9510
0.6462 2.2163 0.9511
0.5662 2.2382 0.9512
0.4855 2.2573 0.9514
0.4041 2.2734 0.9515
0.3221 2.2866 0.9516
0.2398 2.2969 0.9517
0.1571 2.3041 0.9517
0.0742 2.3084 0.9518
-0.0088 2.3097 0.9518
-0.0918 2.3079 0.9519
-0.1747 2.3032 0.9519
-0.2574 2.2955 0.9519
-0.3397 2.2848 0.9519
-0.4216 2.2712 0.9518
-0.5029 2.2546 0.9518
-0.5836 2.2350 0.9517
-0.6635 2.2126 0.9517
-0.7426 2.1873 0.9516
-0.8207 2.1592 0.9515
-0.8977 2.1283 0.9514
4.8766 1.5939 2.2406
4.8149 1.7675 2.2404
4.7470 1.9387 2.2403
4.6730 2.1073 2.2402
4.5930 2.2732 2.2400
4.5071 2.4360 2.2398
4.4154 2.5955 2.2397
4.3181 2.7517 2.2395
4.2153 2.9042 2.2393
4.1071 3.0528 2.2391
3.9936 3.1975 2.2389
3.8751 3.3380 2.2386
3.7516 3.4740 2.2384
3.6234 3.6056 2.2382
3.4906 3.7324 2.2379
3.3533 3.8544 2.2377
3.2118 3.9713 2.2374
3.0662 4.0830 2.2371
2.9168 4.1894 2.2369
2.7637 4.2904 2.2366
2.6072 4.3861 2.2364
2.4974 4.5675 2.2819
2.4406 4.8717 2.3888
0.9001 1.9706 0.9499
0.8288 2.0019 0.9500
0.7564 2.0305 0.9502
0.6830 2.0566 0.9504
0.6087 2.0799 0.9505
0.5336 2.1006 0.9506
0.4578 2.1186 0.9507
0.3814 2.1338 0.9509
0.3045 2.1463 0.9509
0.2272 2.1559 0.9510
0.1496 2.1628 0.9511
0.0718 2.1669 0.9511
-0.0062 2.1682 0.9512
-0.0841 2.1666 0.9512
-0.1619 2.1623 0.9512
-0.2395 2.1551 0.9512
-0.3168 2.1451 0.9512
-0.3937 2.1324 0.9512
-0.4701 2.1169 0.9512
-0.5458 2.0986 0.9511
-0.6209 2.0777 0.9510
-0.6951 2.0540 0.9510
-0.7685 2.0276 0.9509
-0.8408 1.9987 0.9508
-0.9121 1.9671 0.9507
-2.4683 4.8579 2.3888
-2.6415 4.7666 2.3888
-2.8114 4.6692 2.3888
-2.9778 4.5657 2.3888
-3.1403 4.4564 2.3888
-3.2988 4.3413 2.3888
-3.4532 4.2205 2.3888
-3.6032 4.0944 2.3888
-3.7485 3.9629 2.3888
-3.8891 3.8263 2.3888
-4.0248 3.6848 2.3888
-4.1553 3.5384 2.3888
-4.2805 3.3875 2.3888
-4.4002 3.2322 2.3888
-4.5144 3.0726 2.3888
-4.6228 2.9091 2.3888
-4.7252 2.7417 2.3888
-4.8216 2.5707 2.3888
-4.9119 2.3964 2.3888
-4.9959 2.2189 2.3888
-5.0734 2.0385 2.3888
-5.1445 1.8554 2.3888
-5.2090 1.6698 2.3888
-5.2668 1.4821 2.3888
-5.3178 1.2923 2.3888
-5.3621 1.1007 2.3888
-5.3994 0.9077 2.3888
-5.4298 0.7134 2.3888
-5.4532 0.5182 2.3888
-5.4696 0.3221 2.3888
-5.4789 0.1256 2.3888
-5.4812 -0.0712 2.3888
-5.4764 -0.2680 2.3888
-5.4645 -0.4645 2.3888
-5.4456 -0.6605 2.3888
-5.4197 -0.8558 2.3888
-5.3867 -1.0500 2.3888
-5.3468 -1.2429 2.3888
-5.3000 -1.4343 2.3888
-5.2463 -1.6240 2.3888
-5.1858 -1.8116 2.3888
-5.1186 -1.9970 2.3888
-5.0448 -2.1799 2.3888
-4.9644 -2.3600 2.3888
-4.8775 -2.5372 2.3888
-4.7843 -2.7111 2.3888
-4.6849 -2.8816 2.3888
-4.5795 -3.0485 2.3888
-4.4680 -3.2114 2.3888
-4.3508 -3.3703 2.3888
-4.2278 -3.5249 2.3888
-4.0994 -3.6749 2.3888
-3.9656 -3.8203 2.3888
-3.8267 -3.9607 2.3888
-3.6827 -4.0961 2.3888
-3.5340 -4.2263 2.3888
-3.3806 -4.3509 2.3888
-3.2228 -4.4700 2.3888
-3.0608 -4.5834 2.3888
-2.8949 -4.6908 2.3888
-2.7251 -4.7922 2.3888
-2.5517 -4.8874 2.3888
-2.3751 -4.9763 2.3888
-2.1953 -5.0588 2.3888
-2.0126 -5.1348 2.3888
-1.8273 -5.2041 2.3888
-1.6396 -5.2666 2.3888
-1.4498 -5.3224 2.3888
-1.2581 -5.3713 2.3888
-1.0647 -5.4132 2.3888
-0.8699 -5.4482 2.3888
-0.6740 -5.4760 2.3888
-0.4772 -5.4968 2.3888
-0.2798 -5.5105 2.3888
-0.0820 -5.5170 2.3888
0.1159 -5.5164 2.3888
0.3137 -5.5086 2.3888
0.5110 -5.4938 2.3888
0.7077 -5.4718 2.3888
0.9034 -5.4427 2.3888
1.0980 -5.4065 2.3888
1.2911 -5.3634 2.3888
1.4825 -5.3133 2.3888
1.6720 -5.2564 2.3888
1.8593 -5.1927 2.3888
2.0442 -5.1222 2.3888
2.2263 -5.0451 2.3888
2.4056 -4.9615 2.3888
2.5817 -4.8715 2.3888
2.5787 -4.4706 2.2364
2.7371 -4.3747 2.2364
2.8919 -4.2732 2.2364
3.0428 -4.1661 2.2364
3.1899 -4.0537 2.2364
3.3327 -3.9361 2.2364
3.4712 -3.8134 2.2364
3.6052 -3.6858 2.2364
3.7345 -3.5535 2.2364
3.8589 -3.4167 2.2364
3.9782 -3.2755 2.2364
4.0924 -3.1300 2.2364
4.2013 -2.9806 2.2364
4.3046 -2.8274 2.2364
4.4097 -2.6751 2.2401
4.5023 -2.5148 2.2402
4.5889 -2.3512 2.2404
4.6696 -2.1847 2.2405
4.7442 -2.0154 2.2406
4.8126 -1.8436 2.2407
4.8748 -1.6694 2.2408
4.9306 -1.4931 2.2409
4.9801 -1.3149 2.2410
5.0230 -1.1351 2.2411
5.0595 -0.9539 2.2411
5.0893 -0.7715 2.2411
5.1126 -0.5882 2.2412
5.1292 -0.4042 2.2412
5.1392 -0.2198 2.2412
5.1426 -0.0351 2.2412
5.1392 0.1495 2.2412
5.1293 0.3338 2.2411
5.1127 0.5176 2.2411
5.0895 0.7006 2.2410
5.0597 0.8827 2.2409
5.0234 1.0635 2.2409
4.9806 1.2429 2.2408
4.9314 1.4205 2.2407
4.8758 1.5962 2.2406
4.8140 1.7698 2.2404
4.7460 1.9410 2.2403
4.6719 2.1096 2.2402
4.5918 2.2754 2.2400
4.5059 2.4382 2.2398
4.4141 2.5977 2.2397
4.3167 2.7538 2.2395
4.2138 2.9062 2.2393
4.1056 3.0548 2.2391
3.9920 3.1994 2.2389
3.8734 3.3398 2.2386
3.7499 3.4759 2.2384
3.6216 3.6073 2.2382
3.4887 3.7341 2.2379
3.3514 3.8560 2.2377
3.2098 3.9728 2.2374
3.0642 4.0845 2.2371
2.9147 4.1909 2.2369
2.7615 4.2918 2.2366
2.6050 4.3873 2.2364
2.4973 4.5726 2.2838
2.4382 4.8729 2.3888
0.8992 1.9710 0.9499
0.8279 2.0023 0.9500
0.7554 2.0309 0.9502
0.6820 2.0569 0.9504
0.6077 2.0802 0.9505
0.5326 2.1009 0.9506
0.4568 2.1188 0.9507
0.3804 2.1340 0.9509
0.3035 2.1464 0.9509
0.2261 2.1561 0.9510
0.1485 2.1629 0.9511
0.0707 2.1669 0.9511
-0.0072 2.1682 0.9512
-0.0851 2.1666 0.9512
-0.1629 2.1622 0.9512
-0.2405 2.1550 0.9512
-0.3178 2.1450 0.9512
-0.3947 2.1322 0.9512
-0.4711 2.1166 0.9512
-0.5469 2.0984 0.9511
-0.6219 2.0773 0.9510
-0.6961 2.0536 0.9510
-0.7695 2.0273 0.9509
-0.8418 1.9983 0.9508
-0.9131 1.9667 0.9507
-2.4707 4.8567 2.3888
-2.6439 4.7653 2.3888
-2.8137 4.6678 2.3888
-2.9800 4.5643 2.3888
-3.1425 4.4548 2.3888
-3.3010 4.3396 2.3888
-3.4553 4.2189 2.3888
-3.6052 4.0926 2.3888
-3.7505 3.9611 2.3888
-3.8910 3.8244 2.3888
-4.0266 3.6828 2.3888
-4.1570 3.5364 2.3888
-4.2822 3.3854 2.3888
-4.4018 3.2300 2.3888
-4.5159 3.0704 2.3888
-4.6242 2.9068 2.3888
-4.7266 2.7394 2.3888
-4.8229 2.5684 2.3888
-4.9131 2.3940 2.3888
-4.9970 2.2165 2.3888
-5.0745 2.0360 2.3888
-5.1454 1.8529 2.3888
-5.2098 1.6673 2.3888
-5.2675 1.4795 2.3888
-5.3185 1.2897 2.3888
-5.3626 1.0981 2.3888
-5.3999 0.9051 2.3888
-5.4301 0.7108 2.3888
-5.4534 0.5155 2.3888
-5.4697 0.3194 2.3888
-5.4790 0.1229 2.3888
-5.4812 -0.0739 2.3888
-5.4763 -0.2707 2.3888
-5.4643 -0.4672 2.3888
-5.4453 -0.6632 2.3888
-5.4193 -0.8584 2.3888
-5.3862 -1.0526 2.3888
-5.3462 -1.2455 2.3888
-5.2993 -1.4369 2.3888
-5.2455 -1.6266 2.3888
-5.1849 -1.8142 2.3888
-5.1176 -1.9995 2.3888
-5.0437 -2.1824 2.3888
-4.9632 -2.3625 2.3888
-4.8763 -2.5396 2.3888
-4.7830 -2.7135 2.3888
-4.6836 -2.8839 2.3888
-4.5780 -3.0507 2.3888
-4.4665 -3.2136 2.3888
-4.3491 -3.3724 2.3888
-4.2261 -3.5269 2.3888
-4.0976 -3.6769 2.3888
-3.9638 -3.8222 2.3888
-3.8247 -3.9626 2.3888
-3.6807 -4.0979 2.3888
-3.5319 -4.2280 2.3888
-3.3785 -4.3526 2.3888
-3.2207 -4.4716 2.3888
-3.0586 -4.5849 2.3888
-2.8926 -4.6922 2.3888
-2.7227 -4.7936 2.3888
-2.5494 -4.8887 2.3888
-2.3726 -4.9775 2.3888
-2.1928 -5.0599 2.3888
-2.0101 -5.1357 2.3888
-1.8248 -5.2050 2.3888
-1.6371 -5.2674 2.3888
-1.4472 -5.3231 2.3888
-1.2554 -5.3719 2.3888
-1.0620 -5.4138 2.3888
-0.8672 -5.4486 2.3888
-0.6713 -5.4764 2.3888
-0.4745 -5.4971 2.3888
-0.2771 -5.5106 2.3888
-0.0793 -5.5171 2.3888
0.1186 -5.5163 2.3888
0.3164 -5.5085 2.3888
0.5137 -5.4935 2.3888
0.7104 -5.4714 2.3888
0.9061 -5.4422 2.3888
1.1006 -5.4060 2.3888
1.2937 -5.3628 2.3888
1.4851 -5.3126 2.3888
1.6746 -5.2556 2.3888
1.8618 -5.1917 2.3888
2.0466 -5.1212 2.3888
2.2288 -5.0440 2.3888
2.4080 -4.9604 2.3888
2.5841 -4.8703 2.3888
2.5809 -4.4693 2.2364
2.7392 -4.3734 2.2364
2.8939 -4.2717 2.2364
3.0449 -4.1646 2.2364
3.1918 -4.0521 2.2364
3.3346 -3.9345 2.2364
3.4731 -3.8117 2.2364
3.6070 -3.6841 2.2364
3.7362 -3.5517 2.2364
3.8605 -3.4148 2.2364
3.9798 -3.2735 2.2364
4.0939 -3.1280 2.2364
4.2027 -2.9786 2.2364
4.3060 -2.8253 2.2364
4.4110 -2.6729 2.2401
4.5035 -2.5126 2.2403
4.5900 -2.3490 2.2404
4.6707 -2.1824 2.2405
4.7452 -2.0131 2.2406
4.8135 -1.8412 2.2407
4.8756 -1.6670 2.2408
4.9314 -1.4907 2.2409
4.9807 -1.3125 2.2410
5.0236 -1.1326 2.2411
5.0599 -0.9514 2.2411
5.0897 -0.7690 2.2411
5.1129 -0.5857 2.2412
5.1294 -0.4017 2.2412
5.1393 -0.2172 2.2412
5.1426 -0.0326 2.2412
5.1391 0.1520 2.2412
5.1291 0.3363 2.2411
5.1124 0.5201 2.2411
5.0891 0.7031 2.2410
5.0592 0.8852 2.2409
5.0228 1.0660 2.2409
4.9800 1.2453 2.2408
4.9307 1.4229 2.2407
4.8750 1.5986 2.2406
4.8131 1.7722 2.2404
4.7451 1.9433 2.2403
4.6709 2.1119 2.2402
4.5907 2.2776 2.2400
4.5047 2.4404 2.2398
4.4128 2.5998 2.2397
4.3154 2.7559 2.2395
4.2124 2.9083 2.2393
4.1041 3.0568 2.2391
3.9905 3.2014 2.2389
3.8718 3.3417 2.2386
3.7482 3.4777 2.2384
3.6198 3.6091 2.2382
3.4869 3.7358 2.2379
3.3495 3.8576 2.2377
3.2079 3.9744 2.2374
3.0622 4.0860 2.2371
2.9127 4.1923 2.2369
2.7594 4.2931 2.2366
2.6029 4.3886 2.2364
2.4972 4.5777 2.2858
2.4358 4.8741 2.3888
0.8982 1.9715 0.9499
0.8269 2.0027 0.9500
0.7544 2.0313 0.9502
0.6810 2.0572 0.9504
0.6067 2.0805 0.9505
0.5316 2.1011 0.9506
0.4558 2.1190 0.9507
0.3793 2.1342 0.9509
0.3024 2.1466 0.9509
0.2251 2.1562 0.9510
0.1475 2.1630 0.9511
0.0696 2.1670 0.9511
-0.0083 2.1682 0.9512
-0.0862 2.1665 0.9512
-0.1640 2.1621 0.9512
-0.2416 2.1549 0.9512
-0.3189 2.1448 0.9512
-0.3958 2.1320 0.9512
-0.4721 2.1164 0.9512
-0.5479 2.0981 0.9511
-0.6229 2.0770 0.9510
-0.6972 2.0533 0.9510
-0.7705 2.0269 0.9509
-0.8428 1.9979 0.9508
4.5909 1.5002 2.2401
4.5329 1.6636 2.2399
4.4690 1.8248 2.2398
4.3994 1.9836 2.2397
4.3241 2.1398 2.2395
4.2433 2.2931 2.2394
4.1571 2.4434 2.2392
4.0655 2.5904 2.2390
3.9688 2.7340 2.2389
3.8669 2.8740 2.2387
3.7602 3.0103 2.2385
3.6486 3.1426 2.2383
3.5324 3.2708 2.2380
3.4117 3.3947 2.2378
3.2867 3.5141 2.2376
3.1575 3.6290 2.2373
3.0243 3.7391 2.2371
2.8873 3.8444 2.2368
2.7466 3.9447 2.2366
2.6025 4.0400 2.2364
2.4824 4.1759 2.2610
2.4622 4.5028 2.3888
0.9133 1.8230 0.9492
0.8473 1.8548 0.9494
0.7802 1.8842 0.9495
0.7120 1.9112 0.9497
0.6429 1.9357 0.9498
0.5730 1.9577 0.9500
0.5023 1.9771 0.9501
0.4309 1.9940 0.9502
0.3590 2.0083 0.9503
0.2866 2.0201 0.9504
0.2139 2.0292 0.9504
0.1408 2.0356 0.9505
0.0675 2.0395 0.9506
-0.0058 2.0406 0.9506
-0.0791 2.0392 0.9506
-0.1524 2.0351 0.9506
-0.2254 2.0283 0.9506
-0.2982 2.0189 0.9506
-0.3705 2.0070 0.9506
-0.4424 1.9924 0.9506
-0.5138 1.9752 0.9505
-0.5844 1.9554 0.9505
-0.6543 1.9332 0.9504
-0.7233 1.9084 0.9503
-0.7914 1.8811 0.9502
-0.8585 1.8514 0.9501
-2.3246 4.5748 2.3888
-2.4878 4.4888 2.3888
-2.6478 4.3970 2.3888
-2.8044 4.2995 2.3888
-2.9574 4.1965 2.3888
-3.1067 4.0881 2.3888
-3.2521 3.9744 2.3888
-3.3933 3.8556 2.3888
-3.5302 3.7317 2.3888
-3.6625 3.6031 2.3888
-3.7902 3.4697 2.3888
-3.9131 3.3319 2.3888
-4.0310 3.1897 2.3888
-4.1437 3.0434 2.3888
-4.2512 2.8931 2.3888
-4.3532 2.7391 2.3888
-4.4496 2.5814 2.3888
-4.5404 2.4204 2.3888
-4.6253 2.2563 2.3888
-4.7044 2.0891 2.3888
-4.7773 1.9192 2.3888
-4.8442 1.7468 2.3888
-4.9049 1.5720 2.3888
-4.9593 1.3952 2.3888
-5.0073 1.2165 2.3888
-5.0488 1.0361 2.3888
-5.0839 0.8543 2.3888
-5.1125 0.6714 2.3888
-5.1344 0.4875 2.3888
-5.1498 0.3029 2.3888
-5.1585 0.1179 2.3888
-5.1606 -0.0674 2.3888
-5.1561 -0.2526 2.3888
-5.1448 -0.4377 2.3888
-5.1270 -0.6222 2.3888
-5.1025 -0.8060 2.3888
-5.0714 -0.9888 2.3888
-5.0338 -1.1705 2.3888
-4.9896 -1.3507 2.3888
-4.9390 -1.5292 2.3888
-4.8820 -1.7059 2.3888
-4.8187 -1.8803 2.3888
-4.7491 -2.0525 2.3888
-4.6734 -2.2220 2.3888
-4.5916 -2.3888 2.3888
-4.5039 -2.5525 2.3888
-4.4102 -2.7130 2.3888
-4.3109 -2.8700 2.3888
-4.2059 -3.0234 2.3888
-4.0955 -3.1729 2.3888
-3.9798 -3.3184 2.3888
-3.8588 -3.4596 2.3888
-3.7329 -3.5964 2.3888
-3.6021 -3.7286 2.3888
-3.4665 -3.8560 2.3888
-3.3265 -3.9785 2.3888
-3.1821 -4.0958 2.3888
-3.0336 -4.2079 2.3888
-2.8811 -4.3145 2.3888
-2.7248 -4.4156 2.3888
-2.5650 -4.5110 2.3888
-2.4018 -4.6006 2.3888
-2.2355 -4.6843 2.3888
-2.0663 -4.7619 2.3888
-1.8944 -4.8334 2.3888
-1.7199 -4.8986 2.3888
-1.5433 -4.9575 2.3888
-1.3646 -5.0099 2.3888
-1.1841 -5.0559 2.3888
-1.0021 -5.0954 2.3888
-0.8188 -5.1283 2.3888
-0.6344 -5.1545 2.3888
-0.4491 -5.1740 2.3888
-0.2633 -5.1869 2.3888
-0.0772 -5.1930 2.3888
0.1091 -5.1925 2.3888
0.2952 -5.1852 2.3888
0.4810 -5.1712 2.3888
0.6661 -5.1505 2.3888
0.8503 -5.1231 2.3888
1.0334 -5.0891 2.3888
1.2152 -5.0485 2.3888
1.3954 -5.0014 2.3888
1.5737 -4.9478 2.3888
1.7500 -4.8878 2.3888
1.9240 -4.8216 2.3888
2.0955 -4.7490 2.3888
2.2643 -4.6704 2.3888
2.4301 -4.5857 2.3888
2.4273 -4.2083 2.2364
2.5763 -4.1181 2.2364
2.7220 -4.0225 2.2364
2.8642 -3.9218 2.2364
3.0026 -3.8160 2.2364
3.1371 -3.7053 2.2364
3.2675 -3.5899 2.2364
3.3936 -3.4698 2.2364
3.5153 -3.3453 2.2364
3.6324 -3.2165 2.2364
3.7448 -3.0836 2.2364
3.8523 -2.9467 2.2364
3.9548 -2.8061 2.2364
4.0578 -2.6656 2.2395
4.1503 -2.5180 2.2396
4.2374 -2.3671 2.2398
4.3190 -2.2133 2.2399
4.3949 -2.0566 2.2400
4.4652 -1.8972 2.2401
4.5296 -1.7355 2.2402
4.5882 -1.5715 2.2403
4.6408 -1.4056 2.2404
4.6874 -1.2379 2.2405
4.7278 -1.0687 2.2405
4.7622 -0.8981 2.2406
4.7904 -0.7265 2.2406
4.8123 -0.5540 2.2406
4.8280 -0.3808 2.2406
4.8375 -0.2072 2.2406
4.8407 -0.0334 2.2406
4.8376 0.1404 2.2406
4.8283 0.3139 2.2406
4.8127 0.4869 2.2405
4.7909 0.6592 2.2405
4.7630 0.8306 2.2404
4.7288 1.0008 2.2404
4.6886 1.1697 2.2403
4.6424 1.3370 2.2402
4.5902 1.5024 2.2401
4.5320 1.6658 2.2399
4.4681 1.8270 2.2398
4.3984 1.9858 2.2397
4.3231 2.1419 2.2395
4.2422 2.2952 2.2394
4.1559 2.4454 2.2392
4.0642 2.5924 2.2390
3.9674 2.7359 2.2389
3.8655 2.8759 2.2387
3.7587 3.0121 2.2385
3.6471 3.1444 2.2382
3.5308 3.2725 2.2380
3.4101 3.3963 2.2378
3.2850 3.5157 2.2376
3.1557 3.6305 2.2373
3.0225 3.7406 2.2371
2.8854 3.8458 2.2368
2.7447 3.9460 2.2366
2.6006 4.0413 2.2364
2.4823 4.1804 2.2628
2.4600 4.5040 2.3888
0.9124 1.8234 0.9492
0.8464 1.8552 0.9494
0.7792 1.8846 0.9495
0.7111 1.9115 0.9497
0.6420 1.9360 0.9498
0.5720 1.9579 0.9500
0.5013 1.9774 0.9501
0.4300 1.9942 0.9502
0.3580 2.0085 0.9503
0.2856 2.0202 0.9504
0.2129 2.0293 0.9504
0.1398 2.0357 0.9505
0.0665 2.0395 0.9506
-0.0068 2.0406 0.9506
-0.0801 2.0391 0.9506
-0.1534 2.0350 0.9506
-0.2264 2.0282 0.9506
-0.2992 2.0188 0.9506
-0.3715 2.0068 0.9506
-0.4434 1.9921 0.9506
-0.5147 1.9749 0.9505
-0.5854 1.9552 0.9505
-0.6552 1.9328 0.9504
-0.7243 1.9080 0.9503
-0.7924 1.8807 0.9502
-0.8594 1.8510 0.9501
-2.3269 4.5737 2.3888
-2.4900 4.4876 2.3888
-2.6499 4.3957 2.3888
-2.8065 4.2982 2.3888
-2.9595 4.1951 2.3888
-3.1087 4.0866 2.3888
-3.2540 3.9728 2.3888
-3.3952 3.8539 2.3888
-3.5320 3.7300 2.3888
-3.6643 3.6013 2.3888
-3.7920 3.4679 2.3888
-3.9148 3.3300 2.3888
-4.0326 3.1878 2.3888
-4.1452 3.0414 2.3888
-4.2526 2.8911 2.3888
-4.3545 2.7369 2.3888
-4.4509 2.5793 2.3888
-4.5416 2.4182 2.3888
-4.6264 2.2540 2.3888
-4.7054 2.0868 2.3888
-4.7783 1.9169 2.3888
-4.8451 1.7444 2.3888
-4.9057 1.5696 2.3888
-4.9600 1.3928 2.3888
-5.0079 1.2140 2.3888
-5.0494 1.0336 2.3888
-5.0844 0.8519 2.3888
-5.1128 0.6689 2.3888
-5.1347 0.4850 2.3888
-5.1500 0.3004 2.3888
-5.1586 0.1154 2.3888
-5.1606 -0.0699 2.3888
-5.1560 -0.2552 2.3888
-5.1446 -0.4402 2.3888
-5.1267 -0.6247 2.3888
-5.1021 -0.8085 2.3888
-5.0710 -0.9913 2.3888
-5.0332 -1.1730 2.3888
-4.9890 -1.3531 2.3888
-4.9383 -1.5316 2.3888
-4.8812 -1.7082 2.3888
-4.8178 -1.8827 2.3888
-4.7482 -2.0548 2.3888
-4.6723 -2.2243 2.3888
-4.5905 -2.3910 2.3888
-4.5026 -2.5547 2.3888
-4.4089 -2.7151 2.3888
-4.3095 -2.8721 2.3888
-4.2045 -3.0255 2.3888
-4.0940 -3.1749 2.3888
-3.9782 -3.3203 2.3888
-3.8572 -3.4615 2.3888
-3.7311 -3.5982 2.3888
-3.6002 -3.7304 2.3888
-3.4647 -3.8577 2.3888
-3.3245 -3.9801 2.3888
-3.1801 -4.0974 2.3888
-3.0315 -4.2094 2.3888
-2.8790 -4.3159 2.3888
-2.7227 -4.4170 2.3888
-2.5628 -4.5123 2.3888
-2.3996 -4.6018 2.3888
-2.2332 -4.6854 2.3888
-2.0640 -4.7629 2.3888
-1.8920 -4.8343 2.3888
-1.7175 -4.8994 2.3888
-1.5409 -4.9582 2.3888
-1.3622 -5.0106 2.3888
-1.1817 -5.0565 2.3888
-0.9996 -5.0959 2.3888
-0.8163 -5.1287 2.3888
-0.6319 -5.1548 2.3888
-0.4466 -5.1743 2.3888
-0.2608 -5.1870 2.3888
-0.0746 -5.1931 2.3888
0.1117 -5.1924 2.3888
0.2978 -5.1850 2.3888
0.4835 -5.1709 2.3888
0.6686 -5.1501 2.3888
0.8528 -5.1227 2.3888
1.0359 -5.0886 2.3888
1.2177 -5.0479 2.3888
1.3978 -5.0007 2.3888
1.5762 -4.9470 2.3888
1.7524 -4.8870 2.3888
1.9264 -4.8206 2.3888
2.0978 -4.7480 2.3888
2.2665 -4.6693 2.3888
2.4323 -4.5845 2.3888
2.4293 -4.2071 2.2364
2.5783 -4.1168 2.2364
2.7240 -4.0212 2.2364
2.8661 -3.9204 2.2364
3.0044 -3.8145 2.2364
3.1389 -3.7038 2.2364
3.2692 -3.5883 2.2364
3.3953 -3.4681 2.2364
3.5169 -3.3436 2.2364
3.6340 -3.2147 2.2364
3.7463 -3.0818 2.2364
3.8538 -2.9449 2.2364
3.9562 -2.8042 2.2364
4.0591 -2.6636 2.2395
4.1515 -2.5159 2.2396
4.2385 -2.3651 2.2398
4.3200 -2.2111 2.2399
4.3959 -2.0544 2.2400
4.4661 -1.8950 2.2401
4.5305 -1.7333 2.2402
4.5890 -1.5693 2.2403
4.6415 -1.4033 2.2404
4.6880 -1.2356 2.2405
4.7284 -1.0664 2.2405
4.7626 -0.8958 2.2406
4.7907 -0.7241 2.2406
4.8126 -0.5516 2.2406
4.8282 -0.3784 2.2406
4.8376 -0.2048 2.2406
4.8407 -0.0310 2.2406
4.8375 0.1428 2.2406
4.8281 0.3163 2.2406
4.8125 0.4893 2.2405
4.7906 0.6616 2.2405
4.7625 0.8329 2.2404
4.7283 1.0032 2.2404
4.6880 1.1720 2.2403
4.6417 1.3392 2.2402
4.5894 1.5046 2.2401
4.5312 1.6680 2.2399
4.4672 1.8292 2.2398
4.3974 1.9879 2.2397
4.3220 2.1440 2.2395
4.2410 2.2972 2.2394
4.1547 2.4474 2.2392
4.0630 2.5944 2.2390
3.9661 2.7379 2.2388
3.8641 2.8778 2.2387
3.7572 3.0139 2.2385
3.6455 3.1461 2.2382
3.5292 3.2742 2.2380
3.4084 3.3980 2.2378
3.2833 3.5173 2.2376
3.1539 3.6321 2.2373
3.0206 3.7421 2.2371
2.8835 3.8472 2.2368
2.7427 3.9474 2.2366
2.5986 4.0425 2.2364
2.4822 4.1849 2.2646
2.4578 4.5052 2.3888
0.9115 1.8239 0.9492
0.8455 1.8556 0.9494
0.7783 1.8850 0.9495
0.7101 1.9119 0.9497
0.6410 1.9363 0.9498
0.5711 1.9582 0.9500
0.5004 1.9776 0.9501
0.4290 1.9944 0.9502
0.3571 2.0087 0.9503
0.2846 2.0203 0.9504
0.2119 2.0294 0.9504
0.1388 2.0358 0.9505
0.0656 2.0395 0.9506
-0.0078 2.0406 0.9506
-0.0811 2.0391 0.9506
-0.1544 2.0349 0.9506
-0.2274 2.0281 0.9506
-0.3002 2.0187 0.9506
-0.3725 2.0066 0.9506
-0.4444 1.9919 0.9506
-0.5157 1.9747 0.9505
-0.5863 1.9549 0.9505
-0.6562 1.9325 0.9504
-0.7252 1.9077 0.9503
-0.7933 1.8803 0.9502
4.3318 1.4152 2.2396
4.2770 1.5694 2.2395
4.2168 1.7216 2.2394
4.1512 1.8714 2.2393
4.0802 2.0188 2.2391
4.0040 2.1635 2.2390
3.9227 2.3053 2.2388
3.8364 2.4441 2.2386
3.7451 2.5796 2.2385
3.6491 2.7118 2.2383
3.5484 2.8404 2.2381
3.4432 2.9653 2.2379
3.3336 3.0863 2.2377
3.2197 3.2033 2.2375
3.1018 3.3161 2.2373
2.9799 3.4245 2.2370
2.8542 3.5285 2.2368
2.7249 3.6279 2.2366
2.5923 3.7227 2.2364
2.4704 3.8346 2.2490
2.4597 4.1374 2.3735
2.3241 4.2498 2.3888
0.8617 1.7198 0.9487
0.7994 1.7498 0.9489
0.7360 1.7775 0.9491
0.6717 1.8029 0.9492
0.6066 1.8260 0.9493
0.5406 1.8468 0.9495
0.4739 1.8651 0.9496
0.4066 1.8811 0.9497
0.3387 1.8946 0.9498
0.2704 1.9056 0.9498
0.2018 1.9142 0.9499
0.1328 1.9203 0.9500
0.0637 1.9239 0.9500
-0.0055 1.9250 0.9501
-0.0747 1.9236 0.9501
-0.1437 1.9198 0.9501
-0.2127 1.9134 0.9501
-0.2813 1.9045 0.9501
-0.3496 1.8932 0.9501
-0.4174 1.8795 0.9500
-0.4847 1.8633 0.9500
-0.5513 1.8446 0.9499
-0.6173 1.8236 0.9499
-0.6824 1.8002 0.9498
-0.7466 1.7745 0.9497
-0.8099 1.7465 0.9496
-0.8721 1.7162 0.9495
-2.3482 4.2366 2.3888
-2.4992 4.1500 2.3888
-2.6470 4.0580 2.3888
-2.7915 3.9607 2.3888
-2.9324 3.8583 2.3888
-3.0695 3.7510 2.3888
-3.2028 3.6388 2.3888
-3.3320 3.5219 2.3888
-3.4569 3.4004 2.3888
-3.5774 3.2745 2.3888
-3.6933 3.1444 2.3888
-3.8046 3.0102 2.3888
-3.9109 2.8721 2.3888
-4.0123 2.7302 2.3888
-4.1085 2.5848 2.3888
-4.1995 2.4360 2.3888
-4.2852 2.2841 2.3888
-4.3653 2.1291 2.3888
-4.4398 1.9713 2.3888
-4.5087 1.8109 2.3888
-4.5717 1.6482 2.3888
-4.6289 1.4833 2.3888
-4.6802 1.3163 2.3888
-4.7255 1.1477 2.3888
-4.7646 0.9775 2.3888
-4.7977 0.8059 2.3888
-4.8246 0.6333 2.3888
-4.8453 0.4597 2.3888
-4.8597 0.2856 2.3888
-4.8679 0.1109 2.3888
-4.8698 -0.0639 2.3888
-4.8655 -0.2387 2.3888
-4.8548 -0.4133 2.3888
-4.8379 -0.5874 2.3888
-4.8148 -0.7609 2.3888
-4.7854 -0.9334 2.3888
-4.7498 -1.1048 2.3888
-4.7081 -1.2748 2.3888
-4.6603 -1.4433 2.3888
-4.6065 -1.6099 2.3888
-4.5467 -1.7745 2.3888
-4.4810 -1.9369 2.3888
-4.4095 -2.0969 2.3888
-4.3323 -2.2542 2.3888
-4.2495 -2.4087 2.3888
-4.1611 -2.5601 2.3888
-4.0673 -2.7082 2.3888
-3.9683 -2.8529 2.3888
-3.8641 -2.9939 2.3888
-3.7548 -3.1312 2.3888
-3.6407 -3.2644 2.3888
-3.5218 -3.3934 2.3888
-3.3984 -3.5181 2.3888
-3.2705 -3.6383 2.3888
-3.1383 -3.7538 2.3888
-3.0021 -3.8644 2.3888
-2.8620 -3.9702 2.3888
-2.7181 -4.0708 2.3888
-2.5706 -4.1661 2.3888
-2.4199 -4.2561 2.3888
-2.2659 -4.3406 2.3888
-2.1090 -4.4195 2.3888
-1.9493 -4.4927 2.3888
-1.7871 -4.5601 2.3888
-1.6226 -4.6216 2.3888
-1.4559 -4.6771 2.3888
-1.2873 -4.7266 2.3888
-1.1171 -4.7700 2.3888
-0.9454 -4.8072 2.3888
-0.7724 -4.8382 2.3888
-0.5985 -4.8630 2.3888
-0.4237 -4.8814 2.3888
-0.2484 -4.8935 2.3888
-0.0728 -4.8993 2.3888
0.1029 -4.8988 2.3888
0.2785 -4.8919 2.3888
0.4537 -4.8787 2.3888
0.6284 -4.8592 2.3888
0.8022 -4.8333 2.3888
0.9749 -4.8013 2.3888
1.1464 -4.7630 2.3888
1.3164 -4.7186 2.3888
1.4846 -4.6680 2.3888
1.6510 -4.6115 2.3888
1.8151 -4.5490 2.3888
1.9769 -4.4806 2.3888
2.1361 -4.4064 2.3888
2.2925 -4.3265 2.3888
2.3364 -4.0510 2.2817
2.4306 -3.8854 2.2364
2.5680 -3.7952 2.2364
2.7021 -3.7002 2.2364
2.8327 -3.6005 2.2364
2.9596 -3.4961 2.2364
3.0827 -3.3872 2.2364
3.2017 -3.2739 2.2364
3.3166 -3.1565 2.2364
3.4271 -3.0350 2.2364
3.5331 -2.9096 2.2364
3.6346 -2.7805 2.2364
3.7356 -2.6508 2.2389
3.8278 -2.5148 2.2391
3.9151 -2.3756 2.2392
3.9973 -2.2333 2.2393
4.0743 -2.0882 2.2395
4.1460 -1.9404 2.2396
4.2123 -1.7901 2.2397
4.2731 -1.6375 2.2398
4.3284 -1.4829 2.2399
4.3780 -1.3263 2.2399
4.4220 -1.1682 2.2400
4.4602 -1.0085 2.2400
4.4927 -0.8476 2.2401
4.5193 -0.6857 2.2401
4.5400 -0.5229 2.2401
4.5549 -0.3595 2.2402
4.5639 -0.1958 2.2402
4.5669 -0.0318 2.2402
4.5641 0.1321 2.2401
4.5553 0.2958 2.2401
4.5407 0.4591 2.2401
4.5202 0.6217 2.2400
4.4939 0.7834 2.2400
4.4617 0.9440 2.2399
4.4239 1.1033 2.2398
4.3803 1.2612 2.2397
4.3310 1.4173 2.2396
4.2763 1.5715 2.2395
4.2160 1.7236 2.2394
4.1503 1.8735 2.2392
4.0792 2.0208 2.2391
4.0030 2.1654 2.2390
3.9216 2.3072 2.2388
3.8352 2.4460 2.2386
3.7439 2.5815 2.2385
3.6478 2.7136 2.2383
3.5470 2.8422 2.2381
3.4417 2.9670 2.2379
3.3320 3.0879 2.2377
3.2181 3.2048 2.2375
3.1001 3.3176 2.2373
2.9782 3.4260 2.2370
2.8525 3.5299 2.2368
2.7231 3.6292 2.2366
2.5904 3.7240 2.2364
2.4696 3.8374 2.2500
2.4596 4.1418 2.3754
0.9220 1.6880 0.9486
0.8608 1.7202 0.9487
0.7985 1.7502 0.9489
0.7352 1.7779 0.9491
0.6709 1.8033 0.9492
0.6057 1.8263 0.9493
0.5397 1.8470 0.9495
0.4730 1.8654 0.9496
0.4056 1.8813 0.9497
0.3378 1.8947 0.9498
0.2695 1.9057 0.9499
0.2008 1.9143 0.9499
0.1319 1.9204 0.9500
0.0628 1.9239 0.9500
-0.0064 1.9250 0.9501
-0.0756 1.9236 0.9501
-0.1447 1.9197 0.9501
-0.2136 1.9133 0.9501
-0.2822 1.9044 0.9501
-0.3505 1.8931 0.9501
-0.4183 1.8793 0.9500
-0.4856 1.8630 0.9500
-0.5522 1.8444 0.9499
-0.6182 1.8233 0.9499
-0.6833 1.7999 0.9498
-0.7475 1.7742 0.9497
-0.8108 1.7461 0.9496
-0.8730 1.7158 0.9495
-2.3503 4.2355 2.3888
-2.5012 4.1488 2.3888
-2.6490 4.0567 2.3888
-2.7934 3.9593 2.3888
-2.9343 3.8569 2.3888
-3.0714 3.7495 2.3888
-3.2046 3.6372 2.3888
-3.3337 3.5203 2.3888
-3.4586 3.3987 2.3888
-3.5790 3.2728 2.3888
-3.6949 3.1426 2.3888
-3.8060 3.0084 2.3888
-3.9123 2.8702 2.3888
-4.0137 2.7283 2.3888
-4.1098 2.5828 2.3888
-4.2007 2.4340 2.3888
-4.2863 2.2819 2.3888
-4.3663 2.1269 2.3888
-4.4408 1.9691 2.3888
-4.5096 1.8087 2.3888
-4.5726 1.6460 2.3888
-4.6297 1.4810 2.3888
-4.6809 1.3141 2.3888
-4.7260 1.1454 2.3888
-4.7651 0.9751 2.3888
-4.7981 0.8036 2.3888
-4.8249 0.6309 2.3888
-4.8455 0.4574 2.3888
-4.8599 0.2832 2.3888
-4.8680 0.1086 2.3888
-4.8698 -0.0663 2.3888
-4.8654 -0.2411 2.3888
-4.8546 -0.4157 2.3888
-4.8377 -0.5898 2.3888
-4.8144 -0.7632 2.3888
-4.7850 -0.9358 2.3888
-4.7493 -1.1071 2.3888
-4.7075 -1.2771 2.3888
-4.6597 -1.4455 2.3888
-4.6057 -1.6122 2.3888
-4.5459 -1.7768 2.3888
-4.4801 -1.9391 2.3888
-4.4085 -2.0991 2.3888
-4.3312 -2.2563 2.3888
-4.2483 -2.4107 2.3888
-4.1599 -2.5621 2.3888
-4.0660 -2.7102 2.3888
-3.9669 -2.8548 2.3888
-3.8626 -2.9958 2.3888
-3.7533 -3.1330 2.3888
-3.6391 -3.2662 2.3888
-3.5202 -3.3951 2.3888
-3.3967 -3.5198 2.3888
-3.2687 -3.6399 2.3888
-3.1366 -3.7553 2.3888
-3.0002 -3.8659 2.3888
-2.8600 -3.9716 2.3888
-2.7161 -4.0721 2.3888
-2.5686 -4.1674 2.3888
-2.4178 -4.2573 2.3888
-2.2638 -4.3417 2.3888
-2.1068 -4.4205 2.3888
-1.9471 -4.4937 2.3888
-1.7849 -4.5610 2.3888
-1.6203 -4.6224 2.3888
-1.4536 -4.6779 2.3888
-1.2850 -4.7273 2.3888
-1.1148 -4.7706 2.3888
-0.9430 -4.8077 2.3888
-0.7701 -4.8386 2.3888
-0.5961 -4.8632 2.3888
-0.4213 -4.8816 2.3888
-0.2460 -4.8936 2.3888
-0.0704 -4.8994 2.3888
0.1053 -4.8987 2.3888
0.2809 -4.8917 2.3888
0.4561 -4.8785 2.3888
0.6308 -4.8589 2.3888
0.8045 -4.8329 2.3888
0.9773 -4.8008 2.3888
1.1487 -4.7624 2.3888
1.3187 -4.7179 2.3888
1.4869 -4.6673 2.3888
1.6532 -4.6107 2.3888
1.8173 -4.5481 2.3888
1.9791 -4.4796 2.3888
2.1383 -4.4053 2.3888
2.2946 -4.3254 2.3888
2.3350 -4.0441 2.2785
2.4325 -3.8842 2.2364
2.5699 -3.7940 2.2364
2.7039 -3.6989 2.2364
2.8345 -3.5991 2.2364
2.9613 -3.4946 2.2364
3.0843 -3.3857 2.2364
3.2033 -3.2723 2.2364
3.3181 -3.1549 2.2364
3.4286 -3.0333 2.2364
3.5346 -2.9079 2.2364
3.6360 -2.7787 2.2364
3.7368 -2.6490 2.2389
3.8290 -2.5130 2.2391
3.9162 -2.3737 2.2392
3.9984 -2.2314 2.2393
4.0753 -2.0862 2.2395
4.1469 -1.9383 2.2396
4.2131 -1.7880 2.2397
4.2739 -1.6354 2.2398
4.3291 -1.4807 2.2399
4.3787 -1.3242 2.2399
4.4225 -1.1660 2.2400
4.4607 -1.0063 2.2400
4.4931 -0.8454 2.2401
4.5196 -0.6835 2.2401
4.5403 -0.5207 2.2401
4.5551 -0.3573 2.2402
4.5639 -0.1935 2.2402
4.5669 -0.0296 2.2402
4.5640 0.1344 2.2401
4.5552 0.2981 2.2401
4.5405 0.4613 2.2401
4.5199 0.6239 2.2400
4.4935 0.7856 2.2400
4.4613 0.9462 2.2399
4.4233 1.1055 2.2398
4.3796 1.2633 2.2397
4.3303 1.4194 2.2396
4.2755 1.5736 2.2395
4.2151 1.7257 2.2394
4.1493 1.8755 2.2392
4.0782 2.0228 2.2391
4.0019 2.1674 2.2390
3.9204 2.3091 2.2388
3.8340 2.4478 2.2386
3.7426 2.5833 2.2385
3.6464 2.7154 2.2383
3.5456 2.8439 2.2381
3.4402 2.9687 2.2379
3.3305 3.0896 2.2377
3.2166 3.2064 2.2375
3.0985 3.3191 2.2373
2.9765 3.4274 2.2370
2.8507 3.5313 2.2368
2.7213 3.6306 2.2366
2.5886 3.7252 2.2364
2.4687 3.8403 2.2510
2.4595 4.1462 2.3772
0.9212 1.6885 0.9486
0.8600 1.7206 0.9487
0.7977 1.7505 0.9489
0.7343 1.7782 0.9491
0.6700 1.8036 0.9492
0.6048 1.8266 0.9493
0.5388 1.8473 0.9495
0.4720 1.8656 0.9496
0.4047 1.8815 0.9497
0.3368 1.8949 0.9498
0.2685 1.9059 0.9499
0.1999 1.9144 0.9499
0.1309 1.9204 0.9500
0.0618 1.9240 0.9500
-0.0073 1.9250 0.9501
-0.0765 1.9236 0.9501
-0.1456 1.9196 0.9501
-0.2145 1.9132 0.9501
-0.2832 1.9043 0.9501
-0.3514 1.8929 0.9501
-0.4192 1.8790 0.9500
-0.4865 1.8628 0.9500
-0.5531 1.8441 0.9499
-0.6190 1.8230 0.9499
-0.6842 1.7996 0.9498
-0.7484 1.7738 0.9497
4.0954 1.3377 2.2392
4.0437 1.4835 2.2391
3.9868 1.6274 2.2390
3.9248 1.7691 2.2389
3.8578 1.9084 2.2387
3.7858 2.0453 2.2386
3.7090 2.1794 2.2384
3.6274 2.3106 2.2383
3.5411 2.4388 2.2381
3.4504 2.5638 2.2379
3.3552 2.6855 2.2378
3.2557 2.8036 2.2376
3.1521 2.9181 2.2374
3.0445 3.0287 2.2372
2.9330 3.1354 2.2370
2.8178 3.2380 2.2368
2.6990 3.3363 2.2365
2.5768 3.4305 2.2364
2.4605 3.5332 2.2445
2.4468 3.7976 2.3553
2.3413 3.9378 2.3888
0.8724 1.5952 0.9482
0.8146 1.6257 0.9483
0.7557 1.6540 0.9485
0.6958 1.6802 0.9486
0.6350 1.7042 0.9488
0.5734 1.7261 0.9489
0.5110 1.7457 0.9490
0.4480 1.7630 0.9491
0.3843 1.7781 0.9492
0.3202 1.7908 0.9493
0.2556 1.8013 0.9494
0.1907 1.8094 0.9494
0.1256 1.8151 0.9495
0.0602 1.8185 0.9495
-0.0052 1.8196 0.9496
-0.0706 1.8183 0.9496
-0.1359 1.8146 0.9496
-0.2010 1.8086 0.9496
-0.2659 1.8002 0.9496
-0.3304 1.7895 0.9496
-0.3946 1.7765 0.9496
-0.4582 1.7612 0.9495
-0.5212 1.7436 0.9495
-0.5835 1.7237 0.9494
-0.6451 1.7016 0.9493
-0.7058 1.6773 0.9492
-0.7656 1.6509 0.9491
-0.8244 1.6223 0.9490
-0.8822 1.5915 0.9489
-2.3636 3.9245 2.3888
-2.5034 3.8375 2.3888
-2.6400 3.7455 2.3888
-2.7733 3.6487 2.3888
-2.9030 3.5471 2.3888
-3.0290 3.4410 2.3888
-3.1511 3.3304 2.3888
-3.2692 3.2155 2.3888
-3.3832 3.0964 2.3888
-3.4928 2.9734 2.3888
-3.5979 2.8464 2.3888
-3.6985 2.7158 2.3888
-3.7943 2.5816 2.3888
-3.8853 2.4441 2.3888
-3.9713 2.3033 2.3888
-4.0523 2.1596 2.3888
-4.1280 2.0130 2.3888
-4.1985 1.8638 2.3888
-4.2635 1.7122 2.3888
-4.3231 1.5582 2.3888
-4.3772 1.4023 2.3888
-4.4256 1.2444 2.3888
-4.4684 1.0849 2.3888
-4.5054 0.9240 2.3888
-4.5366 0.7617 2.3888
-4.5620 0.5985 2.3888
-4.5815 0.4344 2.3888
-4.5951 0.2697 2.3888
-4.6028 0.1046 2.3888
-4.6046 -0.0607 2.3888
-4.6004 -0.2260 2.3888
-4.5903 -0.3911 2.3888
-4.5743 -0.5558 2.3888
-4.5523 -0.7197 2.3888
-4.5245 -0.8828 2.3888
-4.4909 -1.0449 2.3888
-4.4514 -1.2056 2.3888
-4.4062 -1.3649 2.3888
-4.3552 -1.5224 2.3888
-4.2987 -1.6780 2.3888
-4.2365 -1.8316 2.3888
-4.1689 -1.9828 2.3888
-4.0958 -2.1315 2.3888
-4.0175 -2.2775 2.3888
-3.9339 -2.4206 2.3888
-3.8452 -2.5606 2.3888
-3.7516 -2.6974 2.3888
-3.6530 -2.8307 2.3888
-3.5497 -2.9604 2.3888
-3.4418 -3.0863 2.3888
-3.3294 -3.2083 2.3888
-3.2127 -3.3262 2.3888
-3.0917 -3.4397 2.3888
-2.9668 -3.5489 2.3888
-2.8380 -3.6535 2.3888
-2.7054 -3.7534 2.3888
-2.5694 -3.8485 2.3888
-2.4301 -3.9386 2.3888
-2.2876 -4.0237 2.3888
-2.1420 -4.1035 2.3888
-1.9936 -4.1781 2.3888
-1.8427 -4.2473 2.3888
-1.6894 -4.3110 2.3888
-1.5338 -4.3691 2.3888
-1.3763 -4.4216 2.3888
-1.2169 -4.4683 2.3888
-1.0560 -4.5093 2.3888
-0.8937 -4.5445 2.3888
-0.7302 -4.5738 2.3888
-0.5657 -4.5972 2.3888
-0.4005 -4.6146 2.3888
-0.2348 -4.6261 2.3888
-0.0688 -4.6315 2.3888
0.0973 -4.6310 2.3888
0.2633 -4.6245 2.3888
0.4289 -4.6120 2.3888
0.5940 -4.5936 2.3888
0.7583 -4.5692 2.3888
0.9216 -4.5389 2.3888
1.0837 -4.5027 2.3888
1.2444 -4.4607 2.3888
1.4034 -4.4130 2.3888
1.5606 -4.3595 2.3888
1.7158 -4.3004 2.3888
1.8688 -4.2358 2.3888
2.0193 -4.1657 2.3888
2.1672 -4.0902 2.3888
2.3005 -3.9891 2.3767
2.2976 -3.6732 2.2364
2.4276 -3.5880 2.2364
2.5544 -3.4982 2.2364
2.6779 -3.4039 2.2364
2.7979 -3.3053 2.2364
2.9142 -3.2023 2.2364
3.0267 -3.0953 2.2364
3.1353 -2.9843 2.2364
3.2398 -2.8695 2.2364
3.3401 -2.7510 2.2364
3.4391 -2.6313 2.2384
3.5309 -2.5059 2.2385
3.6182 -2.3774 2.2387
3.7007 -2.2458 2.2388
3.7784 -2.1113 2.2389
3.8512 -1.9741 2.2390
3.9190 -1.8344 2.2392
3.9817 -1.6924 2.2393
4.0392 -1.5482 2.2393
4.0915 -1.4020 2.2394
4.1384 -1.2541 2.2395
4.1800 -1.1045 2.2396
4.2162 -0.9536 2.2396
4.2469 -0.8016 2.2396
4.2721 -0.6485 2.2397
4.2918 -0.4946 2.2397
4.3059 -0.3402 2.2397
4.3144 -0.1854 2.2397
4.3173 -0.0304 2.2397
4.3147 0.1246 2.2397
4.3065 0.2794 2.2397
4.2927 0.4337 2.2396
4.2733 0.5874 2.2396
4.2485 0.7403 2.2395
4.2182 0.8922 2.2395
4.1824 1.0428 2.2394
4.1412 1.1920 2.2393
4.0947 1.3397 2.2392
4.0430 1.4855 2.2391
3.9860 1.6293 2.2390
3.9240 1.7710 2.2389
3.8569 1.9103 2.2387
3.7848 2.0471 2.2386
3.7079 2.1812 2.2384
3.6262 2.3124 2.2383
3.5399 2.4406 2.2381
3.4491 2.5655 2.2379
3.3539 2.6871 2.2378
3.2544 2.8052 2.2376
3.1507 2.9196 2.2374
3.0430 3.0302 2.2372
2.9315 3.1368 2.2370
2.8162 3.2393 2.2368
2.6974 3.3377 2.2365
2.5752 3.4318 2.2364
2.4597 3.5358 2.2454
2.4467 3.8015 2.3570
2.3393 3.9390 2.3888
0.8716 1.5956 0.9482
0.8138 1.6261 0.9483
0.7549 1.6544 0.9485
0.6950 1.6806 0.9486
0.6342 1.7046 0.9488
0.5725 1.7264 0.9489
0.5102 1.7459 0.9490
0.4471 1.7632 0.9491
0.3835 1.7783 0.9492
0.3193 1.7910 0.9493
0.2547 1.8014 0.9494
0.1898 1.8095 0.9494
0.1247 1.8152 0.9495
0.0593 1.8186 0.9495
-0.0061 1.8196 0.9496
-0.0715 1.8183 0.9496
-0.1368 1.8146 0.9496
-0.2019 1.8085 0.9496
-0.2668 1.8001 0.9496
-0.3313 1.7894 0.9496
-0.3954 1.7763 0.9496
-0.4590 1.7610 0.9495
-0.5220 1.7433 0.9495
-0.5843 1.7235 0.9494
-0.6459 1.7013 0.9493
-0.7066 1.6770 0.9492
-0.7664 1.6505 0.9491
-0.8252 1.6218 0.9490
-0.8830 1.5911 0.9489
-2.3655 3.9234 2.3888
-2.5053 3.8363 2.3888
-2.6419 3.7442 2.3888
-2.7750 3.6473 2.3888
-2.9047 3.5457 2.3888
-3.0307 3.4395 2.3888
-3.1527 3.3289 2.3888
-3.2708 3.2139 2.3888
-3.3847 3.0948 2.3888
-3.4942 2.9717 2.3888
-3.5993 2.8447 2.3888
-3.6998 2.7140 2.3888
-3.7956 2.5798 2.3888
-3.8865 2.4422 2.3888
-3.9725 2.3014 2.3888
-4.0533 2.1576 2.3888
-4.1290 2.0110 2.3888
-4.1994 1.8618 2.3888
-4.2644 1.7101 2.3888
-4.3239 1.5561 2.3888
-4.3779 1.4001 2.3888
-4.4262 1.2423 2.3888
-4.4689 1.0827 2.3888
-4.5058 0.9218 2.3888
-4.5370 0.7595 2.3888
-4.5623 0.5963 2.3888
-4.5817 0.4322 2.3888
-4.5953 0.2674 2.3888
-4.6029 0.1023 2.3888
-4.6046 -0.0630 2.3888
-4.6003 -0.2283 2.3888
-4.5901 -0.3934 2.3888
-4.5740 -0.5580 2.3888
-4.5520 -0.7220 2.3888
-4.5241 -0.8851 2.3888
-4.4904 -1.0471 2.3888
-4.4508 -1.2078 2.3888
-4.4055 -1.3670 2.3888
-4.3545 -1.5245 2.3888
-4.2978 -1.6801 2.3888
-4.2356 -1.8336 2.3888
-4.1679 -1.9848 2.3888
-4.0948 -2.1335 2.3888
-4.0164 -2.2795 2.3888
-3.9327 -2.4225 2.3888
-3.8440 -2.5625 2.3888
-3.7502 -2.6992 2.3888
-3.6516 -2.8325 2.3888
-3.5483 -2.9622 2.3888
-3.4403 -3.0880 2.3888
-3.3278 -3.2099 2.3888
-3.2110 -3.3277 2.3888
-3.0901 -3.4413 2.3888
-2.9651 -3.5504 2.3888
-2.8362 -3.6549 2.3888
-2.7036 -3.7548 2.3888
-2.5676 -3.8498 2.3888
-2.4281 -3.9398 2.3888
-2.2856 -4.0248 2.3888
-2.1400 -4.1046 2.3888
-1.9917 -4.1790 2.3888
-1.8406 -4.2482 2.3888
-1.6873 -4.3118 2.3888
-1.5317 -4.3698 2.3888
-1.3741 -4.4222 2.3888
-1.2147 -4.4689 2.3888
-1.0538 -4.5099 2.3888
-0.8914 -4.5449 2.3888
-0.7279 -4.5741 2.3888
-0.5635 -4.5974 2.3888
-0.3983 -4.6148 2.3888
-0.2326 -4.6262 2.3888
-0.0665 -4.6316 2.3888
0.0996 -4.6310 2.3888
0.2655 -4.6244 2.3888
0.4312 -4.6118 2.3888
0.5962 -4.5933 2.3888
0.7605 -4.5688 2.3888
0.9238 -4.5384 2.3888
1.0859 -4.5022 2.3888
1.2465 -4.4601 2.3888
1.4056 -4.4123 2.3888
1.5628 -4.3588 2.3888
1.7179 -4.2996 2.3888
1.8708 -4.2349 2.3888
2.0213 -4.1647 2.3888
2.1691 -4.0891 2.3888
2.2992 -3.9824 2.3733
2.2994 -3.6721 2.2364
2.4294 -3.5868 2.2364
2.5561 -3.4970 2.2364
2.6795 -3.4026 2.2364
2.7995 -3.3039 2.2364
2.9158 -3.2009 2.2364
3.0282 -3.0938 2.2364
3.1368 -2.9828 2.2364
3.2412 -2.8679 2.2364
3.3415 -2.7493 2.2364
3.4404 -2.6296 2.2384
3.5322 -2.5042 2.2385
3.6193 -2.3756 2.2387
3.7018 -2.2440 2.2388
3.7794 -2.1095 2.2389
3.8521 -1.9722 2.2390
3.9199 -1.8325 2.2392
3.9825 -1.6904 2.2393
4.0399 -1.5462 2.2393
4.0921 -1.4000 2.2394
4.1390 -1.2520 2.2395
4.1806 -1.1025 2.2396
4.2167 -0.9516 2.2396
4.2473 -0.7995 2.2396
4.2724 -0.6464 2.2397
4.2920 -0.4925 2.2397
4.3060 -0.3381 2.2397
4.3145 -0.1833 2.2397
4.3173 -0.0282 2.2397
4.3146 0.1267 2.2397
4.3063 0.2815 2.2397
4.2924 0.4358 2.2396
4.2730 0.5895 2.2396
4.2481 0.7424 2.2395
4.2177 0.8942 2.2395
4.1819 1.0449 2.2394
4.1406 1.1941 2.2393
4.0941 1.3417 2.2392
4.0422 1.4875 2.2391
3.9852 1.6313 2.2390
3.9231 1.7729 2.2389
3.8559 1.9122 2.2387
3.7838 2.0490 2.2386
3.7068 2.1830 2.2384
3.6251 2.3142 2.2383
3.5387 2.4423 2.2381
3.4478 2.5672 2.2379
3.3525 2.6888 2.2378
3.2530 2.8068 2.2376
3.1493 2.9211 2.2374
3.0415 3.0317 2.2372
2.9299 3.1382 2.2370
2.8146 3.2407 2.2368
2.6957 3.3390 2.2365
2.5735 3.4330 2.2364
2.4589 3.5384 2.2463
2.4465 3.8054 2.3587
2.3374 3.9401 2.3888
0.8709 1.5961 0.9482
0.8130 1.6265 0.9483
0.7541 1.6547 0.9485
0.6942 1.6809 0.9486
0.6333 1.7049 0.9488
0.5717 1.7266 0.9489
0.5093 1.7462 0.9490
0.4462 1.7635 0.9491
0.3826 1.7785 0.9492
0.3184 1.7912 0.9493
0.2539 1.8015 0.9494
0.1889 1.8096 0.9494
0.1238 1.8153 0.9495
0.0585 1.8186 0.9495
-0.0069 1.8196 0.9496
-0.0723 1.8182 0.9496
-0.1377 1.8145 0.9496
-0.2028 1.8084 0.9496
-0.2677 1.8000 0.9496
-0.3322 1.7892 0.9496
-0.3963 1.7761 0.9496
-0.4599 1.7608 0.9495
-0.5229 1.7431 0.9495
-0.5852 1.7232 0.9494
-0.6467 1.7010 0.9493
-0.7074 1.6766 0.9492
3.8788 1.2666 2.2388
3.8299 1.4048 2.2387
3.7760 1.5410 2.2386
3.7173 1.6753 2.2385
3.6539 1.8073 2.2384
3.5857 1.9369 2.2382
3.5130 2.0640 2.2381
3.4358 2.1883 2.2380
3.3541 2.3098 2.2378
3.2682 2.4282 2.2376
3.1781 2.5434 2.2375
3.0839 2.6553 2.2373
2.9858 2.7638 2.2371
2.8839 2.8686 2.2369
2.7783 2.9697 2.2367
2.6692 3.0669 2.2365
2.5568 3.1603 2.2364
2.4486 3.2596 2.2432
2.4344 3.4954 2.3440
2.3510 3.6486 2.3888
0.8799 1.4798 0.9476
0.8262 1.5106 0.9478
0.7714 1.5394 0.9479
0.7157 1.5662 0.9481
0.6589 1.5911 0.9482
0.6014 1.6138 0.9484
0.5430 1.6345 0.9485
0.4839 1.6530 0.9486
0.4242 1.6695 0.9487
0.3640 1.6837 0.9488
0.3032 1.6958 0.9489
0.2421 1.7057 0.9489
0.1806 1.7133 0.9490
0.1189 1.7188 0.9491
0.0570 1.7220 0.9491
-0.0049 1.7230 0.9491
-0.0668 1.7218 0.9492
-0.1287 1.7183 0.9492
-0.1904 1.7126 0.9492
-0.2518 1.7047 0.9492
-0.3129 1.6945 0.9491
-0.3736 1.6822 0.9491
-0.4339 1.6677 0.9491
-0.4935 1.6510 0.9490
-0.5526 1.6322 0.9490
-0.6109 1.6113 0.9489
-0.6684 1.5883 0.9488
-0.7250 1.5632 0.9487
-0.7807 1.5361 0.9486
-0.8354 1.5070 0.9485
-0.8890 1.4760 0.9484
-2.3717 3.6353 2.3888
-2.5011 3.5481 2.3888
-2.6273 3.4563 2.3888
-2.7502 3.3601 2.3888
-2.8695 3.2596 2.3888
-2.9852 3.1548 2.3888
-3.0971 3.0459 2.3888
-3.2050 2.9331 2.3888
-3.3089 2.8165 2.3888
-3.4085 2.6962 2.3888
-3.5037 2.5724 2.3888
-3.5945 2.4453 2.3888
-3.6806 2.3150 2.3888
-3.7621 2.1817 2.3888
-3.8387 2.0455 2.3888
-3.9104 1.9066 2.3888
-3.9771 1.7653 2.3888
-4.0387 1.6216 2.3888
-4.0952 1.4758 2.3888
-4.1463 1.3280 2.3888
-4.1922 1.1785 2.3888
-4.2326 1.0274 2.3888
-4.2677 0.8749 2.3888
-4.2972 0.7212 2.3888
-4.3212 0.5666 2.3888
-4.3397 0.4112 2.3888
-4.3525 0.2551 2.3888
-4.3598 0.0987 2.3888
-4.3614 -0.0578 2.3888
-4.3574 -0.2144 2.3888
-4.3478 -0.3708 2.3888
-4.3326 -0.5267 2.3888
-4.3118 -0.6820 2.3888
-4.2854 -0.8365 2.3888
-4.2535 -0.9899 2.3888
-4.2160 -1.1422 2.3888
-4.1732 -1.2930 2.3888
