ply
format ascii 1.0
element vertex 2167
property float32 x
property float32 y
property float32 z
end_header
-1.0127 -7.9443 2.3941
-0.7260 -7.9584 2.3941
-0.4395 -7.9619 2.3941
-0.1537 -7.9550 2.3941
0.1312 -7.9377 2.3941
0.4146 -7.9101 2.3941
0.6963 -7.8723 2.3941
0.9758 -7.8244 2.3941
1.2529 -7.7665 2.3941
1.5271 -7.6988 2.3941
1.7981 -7.6214 2.3941
2.0656 -7.5345 2.3941
2.3293 -7.4383 2.3941
2.5888 -7.3329 2.3941
2.8438 -7.2185 2.3941
3.0940 -7.0954 2.3941
3.3392 -6.9638 2.3941
3.5790 -6.8238 2.3941
3.8133 -6.6757 2.3941
4.0417 -6.5197 2.3941
4.2639 -6.3561 2.3941
4.4799 -6.1852 2.3941
4.6892 -6.0071 2.3941
4.8918 -5.8221 2.3941
5.0874 -5.6306 2.3941
5.2758 -5.4327 2.3941
5.4568 -5.2287 2.3941
5.6303 -5.0190 2.3941
5.7961 -4.8037 2.3941
5.9540 -4.5832 2.3941
6.1039 -4.3577 2.3941
6.2456 -4.1276 2.3941
6.3791 -3.8932 2.3941
6.5042 -3.6546 2.3941
6.6209 -3.4123 2.3941
6.7289 -3.1664 2.3941
6.8283 -2.9174 2.3941
6.9190 -2.6654 2.3941
7.0009 -2.4108 2.3941
7.0738 -2.1539 2.3941
7.1379 -1.8950 2.3941
7.1930 -1.6343 2.3941
7.2392 -1.3722 2.3941
7.2763 -1.1090 2.3941
7.3044 -0.8449 2.3941
7.3235 -0.5802 2.3941
7.3335 -0.3152 2.3941
7.3345 -0.0502 2.3941
7.3265 0.2143 2.3941
7.3095 0.4786 2.3941
7.2836 0.7416 2.3941
7.2488 1.0036 2.3941
7.2051 1.2641 2.3941
7.1527 1.5230 2.3941
7.0915 1.7799 2.3941
7.0216 2.0345 2.3941
6.9431 2.2867 2.3941
6.8562 2.5358 2.3941
6.7608 2.7820 2.3941
6.6572 3.0247 2.3941
6.5453 3.2640 2.3941
6.4253 3.4994 2.3941
6.2974 3.7306 2.3941
6.1616 3.9575 2.3941
6.0182 4.1797 2.3941
5.8671 4.3971 2.3941
5.7087 4.6093 2.3941
5.5431 4.8162 2.3941
5.3703 5.0174 2.3941
5.1907 5.2129 2.3941
5.0043 5.4023 2.3941
4.8114 5.5854 2.3941
4.6121 5.7620 2.3941
4.4067 5.9318 2.3941
4.1953 6.0948 2.3941
3.9782 6.2506 2.3941
3.7556 6.3991 2.3941
3.5277 6.5400 2.3941
3.2947 6.6732 2.3941
3.0570 6.7985 2.3941
2.8147 6.9157 2.3941
2.5681 7.0247 2.3941
2.3175 7.1253 2.3941
0.8437 2.9515 0.9791
0.7371 2.9808 0.9775
0.6295 3.0063 0.9759
0.5210 3.0279 0.9743
0.4118 3.0455 0.9726
0.3021 3.0592 0.9709
0.1918 3.0689 0.9691
0.0814 3.0746 0.9673
-0.0293 3.0763 0.9655
-0.1399 3.0740 0.9636
-0.2503 3.0677 0.9617
-0.3605 3.0574 0.9598
-0.4702 3.0431 0.9579
-0.5794 3.0249 0.9559
-0.6878 3.0027 0.9539
-0.7954 2.9767 0.9519
-0.9019 2.9467 0.9499
-2.5441 7.3575 2.3941
-2.8130 7.2783 2.3941
-3.0795 7.1894 2.3941
-3.3432 7.0906 2.3941
-3.6037 6.9823 2.3941
-3.8606 6.8643 2.3941
-4.1137 6.7369 2.3941
-4.3624 6.6001 2.3941
-4.6066 6.4541 2.3941
-4.8458 6.2990 2.3941
-5.0796 6.1349 2.3941
-5.3077 5.9620 2.3941
-5.5298 5.7806 2.3941
-5.7454 5.5908 2.3941
-5.9544 5.3928 2.3941
-6.1563 5.1868 2.3941
-6.3508 4.9732 2.3941
-6.5376 4.7521 2.3941
-6.7163 4.5239 2.3941
-6.8868 4.2887 2.3941
-7.0487 4.0470 2.3941
-7.2017 3.7991 2.3941
-7.3455 3.5452 2.3941
-7.4800 3.2857 2.3941
-7.6048 3.0210 2.3941
-7.7197 2.7515 2.3941
-7.8246 2.4774 2.3941
-7.9192 2.1992 2.3941
-8.0034 1.9174 2.3941
-8.0769 1.6322 2.3941
-8.1397 1.3442 2.3941
-8.1916 1.0537 2.3941
-8.2325 0.7611 2.3941
-8.2623 0.4670 2.3941
-8.2810 0.1718 2.3941
-8.2884 -0.1242 2.3941
-8.2845 -0.4204 2.3941
-8.2694 -0.7165 2.3941
-8.2430 -1.0119 2.3941
-8.2053 -1.3062 2.3941
-8.1565 -1.5990 2.3941
-8.0964 -1.8897 2.3941
-8.0254 -2.1781 2.3941
-7.9434 -2.4635 2.3941
-7.8505 -2.7456 2.3941
-7.7470 -3.0240 2.3941
-7.6329 -3.2982 2.3941
-7.5084 -3.5678 2.3941
-7.3739 -3.8324 2.3941
-7.2293 -4.0916 2.3941
-7.0751 -4.3450 2.3941
-6.9113 -4.5922 2.3941
-6.7384 -4.8329 2.3941
-6.5566 -5.0667 2.3941
-6.3662 -5.2932 2.3941
-6.1674 -5.5122 2.3941
-5.9606 -5.7233 2.3941
-5.7462 -5.9263 2.3941
-5.5245 -6.1208 2.3941
-5.2958 -6.3066 2.3941
-5.0605 -6.4834 2.3941
-4.8190 -6.6510 2.3941
-4.5716 -6.8092 2.3941
-4.3188 -6.9579 2.3941
-4.0610 -7.0967 2.3941
-3.7985 -7.2256 2.3941
-3.5317 -7.3444 2.3941
-3.2611 -7.4530 2.3941
-2.9870 -7.5513 2.3941
-2.7100 -7.6391 2.3941
-2.4303 -7.7165 2.3941
-2.1484 -7.7833 2.3941
-1.8648 -7.8395 2.3941
-1.5797 -7.8852 2.3941
-1.2938 -7.9202 2.3941
-1.0072 -7.9447 2.3941
-0.7205 -7.9585 2.3941
-0.4340 -7.9619 2.3941
-0.1482 -7.9548 2.3941
0.1366 -7.9373 2.3941
0.4201 -7.9095 2.3941
0.7017 -7.8715 2.3941
0.9812 -7.8233 2.3941
1.2582 -7.7653 2.3941
1.5324 -7.6974 2.3941
1.8033 -7.6198 2.3941
2.0708 -7.5327 2.3941
2.3343 -7.4363 2.3941
2.5937 -7.3308 2.3941
2.8486 -7.2162 2.3941
3.0988 -7.0930 2.3941
3.3439 -6.9612 2.3941
3.5836 -6.8210 2.3941
3.8177 -6.6728 2.3941
4.0460 -6.5167 2.3941
4.2682 -6.3529 2.3941
4.4839 -6.1818 2.3941
4.6932 -6.0036 2.3941
4.8956 -5.8185 2.3941
5.0911 -5.6268 2.3941
5.2793 -5.4288 2.3941
5.4602 -5.2247 2.3941
5.6335 -5.0149 2.3941
5.7992 -4.7995 2.3941
5.9569 -4.5789 2.3941
6.1067 -4.3533 2.3941
6.2483 -4.1232 2.3941
6.3816 -3.8886 2.3941
6.5066 -3.6500 2.3941
6.6231 -3.4075 2.3941
6.7309 -3.1616 2.3941
6.8302 -2.9125 2.3941
6.9207 -2.6605 2.3941
7.0023 -2.4059 2.3941
7.0752 -2.1490 2.3941
7.1391 -1.8900 2.3941
7.1940 -1.6293 2.3941
7.2400 -1.3672 2.3941
-7.5177 -1.4635 2.3941
-7.4626 -1.7313 2.3941
-7.3975 -1.9969 2.3941
-7.3223 -2.2599 2.3941
-7.2371 -2.5199 2.3941
-7.1421 -2.7764 2.3941
-7.0375 -3.0291 2.3941
-6.9234 -3.2777 2.3941
-6.7999 -3.5216 2.3941
-6.6673 -3.7607 2.3941
-6.5258 -3.9944 2.3941
-6.3756 -4.2226 2.3941
-6.2170 -4.4447 2.3941
-6.0502 -4.6606 2.3941
-5.8753 -4.8698 2.3941
-5.6929 -5.0722 2.3941
-5.5030 -5.2674 2.3941
-5.3061 -5.4551 2.3941
-5.1025 -5.6351 2.3941
-4.8924 -5.8072 2.3941
-4.6762 -5.9710 2.3941
-4.4542 -6.1265 2.3941
-4.2268 -6.2733 2.3941
-3.9944 -6.4113 2.3941
-3.7572 -6.5404 2.3941
-3.5157 -6.6604 2.3941
-3.2702 -6.7712 2.3941
-3.0211 -6.8725 2.3941
-2.7688 -6.9645 2.3941
-2.5136 -7.0468 2.3941
-2.2559 -7.1195 2.3941
-1.9961 -7.1826 2.3941
-1.7346 -7.2359 2.3941
-1.4718 -7.2794 2.3941
-1.2080 -7.3132 2.3941
-0.9435 -7.3373 2.3941
-0.6788 -7.3516 2.3941
-0.4143 -7.3561 2.3941
-0.1502 -7.3511 2.3941
0.1130 -7.3364 2.3941
0.3750 -7.3122 2.3941
0.6355 -7.2786 2.3941
0.8941 -7.2356 2.3941
1.1505 -7.1834 2.3941
1.4043 -7.1221 2.3941
1.6553 -7.0518 2.3941
1.9031 -6.9727 2.3941
2.1474 -6.8850 2.3941
2.3879 -6.7887 2.3941
2.6244 -6.6841 2.3941
2.8566 -6.5713 2.3941
3.0841 -6.4506 2.3941
3.3068 -6.3221 2.3941
3.5243 -6.1861 2.3941
3.7365 -6.0427 2.3941
3.9431 -5.8922 2.3941
4.1438 -5.7348 2.3941
4.3386 -5.5707 2.3941
4.5270 -5.4002 2.3941
4.7091 -5.2235 2.3941
4.8845 -5.0409 2.3941
5.0531 -4.8525 2.3941
5.2148 -4.6588 2.3941
5.3694 -4.4598 2.3941
5.5166 -4.2560 2.3941
5.6565 -4.0474 2.3941
5.7888 -3.8345 2.3941
5.9135 -3.6175 2.3941
6.0304 -3.3966 2.3941
6.1395 -3.1721 2.3941
6.2406 -2.9443 2.3941
6.3336 -2.7135 2.3941
6.4185 -2.4799 2.3941
6.4953 -2.2438 2.3941
6.5638 -2.0055 2.3941
6.6240 -1.7653 2.3941
6.6758 -1.5234 2.3941
6.7193 -1.2801 2.3941
6.7544 -1.0357 2.3941
6.7811 -0.7905 2.3941
6.7994 -0.5447 2.3941
6.8092 -0.2986 2.3941
6.8106 -0.0525 2.3941
6.8037 0.1934 2.3941
6.7884 0.4387 2.3941
6.7647 0.6832 2.3941
6.7327 0.9267 2.3941
6.6924 1.1689 2.3941
6.6440 1.4095 2.3941
6.5874 1.6482 2.3941
6.5227 1.8848 2.3941
6.4499 2.1191 2.3941
6.3693 2.3507 2.3941
6.2808 2.5795 2.3941
6.1845 2.8052 2.3941
6.0806 3.0275 2.3941
5.9692 3.2462 2.3941
5.8503 3.4610 2.3941
5.7241 3.6717 2.3941
5.5908 3.8781 2.3941
5.4504 4.0800 2.3941
5.3031 4.2770 2.3941
5.1491 4.4691 2.3941
4.9885 4.6559 2.3941
4.8214 4.8372 2.3941
4.6481 5.0129 2.3941
4.4687 5.1827 2.3941
4.2835 5.3464 2.3941
4.0925 5.5039 2.3941
3.8960 5.6548 2.3941
3.6942 5.7991 2.3941
3.4873 5.9365 2.3941
3.2755 6.0669 2.3941
3.0591 6.1901 2.3941
2.8382 6.3058 2.3941
2.6132 6.4141 2.3941
2.3842 6.5146 2.3941
0.8785 2.6981 0.9776
0.7810 2.7288 0.9762
0.6824 2.7560 0.9748
0.5829 2.7796 0.9733
0.4826 2.7995 0.9718
0.3816 2.8159 0.9703
0.2801 2.8286 0.9687
0.1782 2.8376 0.9671
0.0760 2.8429 0.9654
-0.0263 2.8446 0.9637
-0.1286 2.8425 0.9620
-0.2308 2.8368 0.9602
-0.3327 2.8273 0.9584
-0.4342 2.8142 0.9566
-0.5351 2.7974 0.9548
-0.6354 2.7770 0.9530
-0.7348 2.7529 0.9511
-0.8334 2.7253 0.9493
-2.3523 6.8083 2.3941
-2.6008 6.7341 2.3941
-2.8469 6.6510 2.3941
-3.0904 6.5587 2.3941
-3.3309 6.4575 2.3941
-3.5680 6.3478 2.3941
-3.8015 6.2290 2.3941
-4.0309 6.1017 2.3941
-4.2560 5.9661 2.3941
-4.4764 5.8220 2.3941
-4.6918 5.6697 2.3941
-4.9019 5.5093 2.3941
-5.1064 5.3411 2.3941
-5.3049 5.1651 2.3941
-5.4972 4.9817 2.3941
-5.6829 4.7910 2.3941
-5.8617 4.5932 2.3941
-6.0335 4.3887 2.3941
-6.1978 4.1776 2.3941
-6.3544 3.9602 2.3941
-6.5030 3.7368 2.3941
-6.6435 3.5077 2.3941
-6.7755 3.2732 2.3941
-6.8989 3.0336 2.3941
-7.0134 2.7893 2.3941
-7.1188 2.5405 2.3941
-7.2149 2.2877 2.3941
-7.3016 2.0311 2.3941
-7.3786 1.7712 2.3941
-7.4459 1.5083 2.3941
-7.5034 1.2428 2.3941
-7.5508 0.9750 2.3941
-7.5881 0.7055 2.3941
-7.6152 0.4344 2.3941
-7.6321 0.1624 2.3941
-7.6387 -0.1103 2.3941
-7.6349 -0.3831 2.3941
-7.6209 -0.6558 2.3941
-7.5964 -0.9279 2.3941
-7.5617 -1.1990 2.3941
-7.5167 -1.4687 2.3941
-7.4615 -1.7365 2.3941
-7.3961 -2.0020 2.3941
-7.3207 -2.2650 2.3941
-7.2354 -2.5249 2.3941
-7.1402 -2.7813 2.3941
-7.0354 -3.0340 2.3941
-6.9211 -3.2824 2.3941
-6.7975 -3.5263 2.3941
-6.6647 -3.7652 2.3941
-6.5230 -3.9989 2.3941
-6.3726 -4.2269 2.3941
-6.2138 -4.4489 2.3941
-6.0468 -4.6647 2.3941
-5.8719 -4.8738 2.3941
-5.6893 -5.0760 2.3941
-5.4993 -5.2711 2.3941
-5.3023 -5.4587 2.3941
-5.0985 -5.6385 2.3941
-4.8883 -5.8104 2.3941
-4.6720 -5.9741 2.3941
-4.4499 -6.1294 2.3941
-4.2224 -6.2760 2.3941
-3.9899 -6.4139 2.3941
-3.7526 -6.5428 2.3941
-3.5110 -6.6627 2.3941
-3.2654 -6.7732 2.3941
-3.0163 -6.8744 2.3941
-2.7639 -6.9661 2.3941
-2.5086 -7.0483 2.3941
-2.2509 -7.1208 2.3941
-1.9911 -7.1837 2.3941
-1.7296 -7.2368 2.3941
-1.4667 -7.2802 2.3941
-1.2028 -7.3138 2.3941
-0.9384 -7.3376 2.3941
-0.6737 -7.3517 2.3941
-0.4091 -7.3561 2.3941
-0.1451 -7.3509 2.3941
0.1181 -7.3360 2.3941
0.3801 -7.3117 2.3941
0.6405 -7.2778 2.3941
0.8991 -7.2347 2.3941
1.1554 -7.1823 2.3941
1.4092 -7.1208 2.3941
1.6601 -7.0504 2.3941
1.9078 -6.9711 2.3941
2.1521 -6.8832 2.3941
2.3925 -6.7868 2.3941
2.6289 -6.6820 2.3941
2.8610 -6.5691 2.3941
3.0884 -6.4482 2.3941
3.3110 -6.3196 2.3941
3.5284 -6.1834 2.3941
3.7405 -6.0399 2.3941
3.9470 -5.8892 2.3941
4.1476 -5.7317 2.3941
4.3422 -5.5675 2.3941
4.5306 -5.3968 2.3941
4.7125 -5.2200 2.3941
4.8878 -5.0373 2.3941
5.0563 -4.8489 2.3941
5.2179 -4.6550 2.3941
5.3723 -4.4559 2.3941
5.5194 -4.2520 2.3941
5.6591 -4.0434 2.3941
5.7913 -3.8304 2.3941
5.9159 -3.6132 2.3941
6.0326 -3.3923 2.3941
6.1415 -3.1677 2.3941
6.2424 -2.9399 2.3941
6.3353 -2.7090 2.3941
6.4201 -2.4753 2.3941
6.4967 -2.2392 2.3941
6.5650 -2.0009 2.3941
6.6250 -1.7606 2.3941
6.6767 -1.5187 2.3941
6.7201 -1.2754 2.3941
6.7550 -1.0310 2.3941
6.7815 -0.7857 2.3941
6.7996 -0.5399 2.3941
6.8093 -0.2938 2.3941
6.8106 -0.0477 2.3941
6.8035 0.1982 2.3941
6.7880 0.4434 2.3941
6.7641 0.6880 2.3941
6.7320 0.9314 2.3941
6.6916 1.1736 2.3941
6.6429 1.4141 2.3941
6.5862 1.6528 2.3941
6.5213 1.8894 2.3941
6.4485 2.1235 2.3941
6.3676 2.3552 2.3941
6.2790 2.5839 2.3941
6.1826 2.8095 2.3941
6.0785 3.0317 2.3941
5.9670 3.2503 2.3941
5.8479 3.4651 2.3941
5.7216 3.6757 2.3941
5.5881 3.8821 2.3941
5.4476 4.0838 2.3941
5.3002 4.2808 2.3941
5.1460 4.4727 2.3941
4.9853 4.6594 2.3941
4.8181 4.8407 2.3941
4.6447 5.0163 2.3941
4.4652 5.1859 2.3941
4.2798 5.3495 2.3941
4.0887 5.5069 2.3941
3.8922 5.6577 2.3941
3.6902 5.8018 2.3941
3.4833 5.9391 2.3941
3.2714 6.0693 2.3941
3.0549 6.1924 2.3941
2.8339 6.3080 2.3941
2.6088 6.4161 2.3941
2.3797 6.5165 2.3941
0.8767 2.6987 0.9776
0.7791 2.7293 0.9762
0.6805 2.7564 0.9748
0.5810 2.7800 0.9733
0.4806 2.7999 0.9718
0.3797 2.8162 0.9702
0.2781 2.8288 0.9686
0.1762 2.8377 0.9670
0.0740 2.8430 0.9654
-0.0283 2.8446 0.9637
-0.1306 2.8424 0.9619
-0.2327 2.8366 0.9602
-0.3346 2.8271 0.9584
-0.4361 2.8139 0.9566
-0.5370 2.7970 0.9548
-0.6373 2.7765 0.9529
-0.7368 2.7524 0.9511
-0.8353 2.7247 0.9492
-2.3571 6.8070 2.3941
-2.6056 6.7326 2.3941
-2.8517 6.6493 2.3941
-3.0951 6.5569 2.3941
-3.3355 6.4556 2.3941
-3.5725 6.3456 2.3941
-3.8059 6.2270 2.3941
-4.0353 6.0993 2.3941
-4.2603 5.9634 2.3941
-4.4806 5.8192 2.3941
-4.6959 5.6667 2.3941
-4.9059 5.5062 2.3941
-5.1103 5.3377 2.3941
-5.3087 5.1617 2.3941
-5.5008 4.9781 2.3941
-5.6864 4.7872 2.3941
-5.8651 4.5893 2.3941
-6.0367 4.3847 2.3941
-6.2008 4.1734 2.3941
-6.3573 3.9559 2.3941
-6.5058 3.7324 2.3941
-6.6461 3.5032 2.3941
-6.7780 3.2686 2.3941
-6.9012 3.0290 2.3941
-7.0155 2.7845 2.3941
-7.1207 2.5357 2.3941
-7.2166 2.2828 2.3941
-7.3031 2.0261 2.3941
-7.3800 1.7662 2.3941
-7.4471 1.5032 2.3941
-7.5044 1.2376 2.3941
-7.5516 0.9698 2.3941
-7.5887 0.7002 2.3941
-7.6156 0.4292 2.3941
-7.6323 0.1571 2.3941
-7.6387 -0.1155 2.3941
-7.6348 -0.3884 2.3941
-7.6205 -0.6611 2.3941
-7.5959 -0.9332 2.3941
-7.5609 -1.2042 2.3941
-7.5157 -1.4738 2.3941
-7.4603 -1.7416 2.3941
-7.3948 -2.0071 2.3941
-7.3191 -2.2700 2.3941
-7.2336 -2.5298 2.3941
-7.1383 -2.7863 2.3941
-7.0333 -3.0388 2.3941
-6.9188 -3.2872 2.3941
-6.7950 -3.5310 2.3941
-6.6621 -3.7698 2.3941
-6.5202 -4.0034 2.3941
-6.3697 -4.2312 2.3941
-6.2107 -4.4532 2.3941
-6.0435 -4.6688 2.3941
-5.8684 -4.8778 2.3941
-5.6857 -5.0799 2.3941
-5.4956 -5.2748 2.3941
-5.2984 -5.4622 2.3941
-5.0945 -5.6419 2.3941
-4.8842 -5.8136 2.3941
-4.6677 -5.9772 2.3941
-4.4455 -6.1323 2.3941
-4.2180 -6.2788 2.3941
-3.9853 -6.4165 2.3941
-3.7480 -6.5452 2.3941
-3.5063 -6.6649 2.3941
-3.2607 -6.7753 2.3941
-3.0114 -6.8763 2.3941
-2.7590 -6.9678 2.3941
-2.5037 -7.0498 2.3941
-2.2459 -7.1221 2.3941
-1.9861 -7.1848 2.3941
-1.7245 -7.2377 2.3941
-1.4616 -7.2809 2.3941
-1.1978 -7.3143 2.3941
-0.9333 -7.3380 2.3941
-0.6686 -7.3519 2.3941
-0.4041 -7.3561 2.3941
-0.1400 -7.3507 2.3941
0.1232 -7.3357 2.3941
0.3851 -7.3111 2.3941
0.6455 -7.2771 2.3941
0.9040 -7.2338 2.3941
1.1603 -7.1812 2.3941
1.4140 -7.1196 2.3941
1.6649 -7.0490 2.3941
1.9126 -6.9695 2.3941
2.1567 -6.8814 2.3941
2.3971 -6.7848 2.3941
2.6334 -6.6799 2.3941
2.8654 -6.5668 2.3941
3.0928 -6.4458 2.3941
3.3152 -6.3170 2.3941
3.5326 -6.1807 2.3941
3.7446 -6.0370 2.3941
3.9509 -5.8862 2.3941
4.1514 -5.7286 2.3941
4.3459 -5.5643 2.3941
4.5342 -5.3935 2.3941
4.7160 -5.2166 2.3941
4.8911 -5.0337 2.3941
5.0595 -4.8452 2.3941
5.2209 -4.6512 2.3941
5.3752 -4.4521 2.3941
5.5222 -4.2480 2.3941
5.6618 -4.0393 2.3941
5.7938 -3.8262 2.3941
5.9182 -3.6090 2.3941
6.0348 -3.3880 2.3941
6.1435 -3.1634 2.3941
6.2443 -2.9354 2.3941
6.3371 -2.7045 2.3941
6.4216 -2.4708 2.3941
6.4981 -2.2346 2.3941
6.5662 -1.9963 2.3941
6.6261 -1.7560 2.3941
6.6776 -1.5140 2.3941
6.7208 -1.2707 2.3941
-6.9629 -1.3559 2.3941
-6.9119 -1.6039 2.3941
-6.8514 -1.8498 2.3941
-6.7818 -2.0932 2.3941
-6.7029 -2.3339 2.3941
-6.6150 -2.5714 2.3941
-6.5182 -2.8054 2.3941
-6.4127 -3.0355 2.3941
-6.2985 -3.2614 2.3941
-6.1759 -3.4828 2.3941
-6.0451 -3.6993 2.3941
-5.9062 -3.9107 2.3941
-5.7596 -4.1166 2.3941
-5.6053 -4.3166 2.3941
-5.4438 -4.5106 2.3941
-5.2751 -4.6983 2.3941
-5.0996 -4.8794 2.3941
-4.9176 -5.0536 2.3941
-4.7293 -5.2207 2.3941
-4.5350 -5.3804 2.3941
-4.3351 -5.5327 2.3941
-4.1298 -5.6771 2.3941
-3.9195 -5.8137 2.3941
-3.7045 -5.9422 2.3941
-3.4850 -6.0624 2.3941
-3.2615 -6.1742 2.3941
-3.0343 -6.2775 2.3941
-2.8037 -6.3722 2.3941
-2.5701 -6.4581 2.3941
-2.3337 -6.5352 2.3941
-2.0951 -6.6034 2.3941
-1.8543 -6.6626 2.3941
-1.6120 -6.7129 2.3941
-1.3683 -6.7542 2.3941
-1.1237 -6.7864 2.3941
-0.8785 -6.8095 2.3941
-0.6329 -6.8237 2.3941
-0.3875 -6.8289 2.3941
-0.1424 -6.8251 2.3941
0.1020 -6.8124 2.3941
0.3453 -6.7908 2.3941
0.5873 -6.7605 2.3941
0.8275 -6.7215 2.3941
1.0658 -6.6740 2.3941
1.3018 -6.6179 2.3941
1.5352 -6.5536 2.3941
1.7657 -6.4810 2.3941
1.9930 -6.4003 2.3941
2.2169 -6.3117 2.3941
2.4371 -6.2153 2.3941
2.6533 -6.1113 2.3941
2.8652 -5.9998 2.3941
3.0727 -5.8811 2.3941
3.2755 -5.7554 2.3941
3.4733 -5.6227 2.3941
3.6660 -5.4834 2.3941
3.8533 -5.3376 2.3941
4.0350 -5.1856 2.3941
4.2110 -5.0275 2.3941
4.3810 -4.8637 2.3941
4.5448 -4.6942 2.3941
4.7024 -4.5194 2.3941
4.8535 -4.3395 2.3941
4.9980 -4.1547 2.3941
5.1357 -3.9652 2.3941
5.2666 -3.7714 2.3941
5.3904 -3.5734 2.3941
5.5071 -3.3715 2.3941
5.6166 -3.1660 2.3941
5.7188 -2.9571 2.3941
5.8135 -2.7451 2.3941
5.9007 -2.5301 2.3941
5.9804 -2.3126 2.3941
6.0524 -2.0927 2.3941
6.1167 -1.8707 2.3941
6.1733 -1.6468 2.3941
6.2221 -1.4214 2.3941
6.2630 -1.1946 2.3941
6.2961 -0.9668 2.3941
6.3214 -0.7381 2.3941
6.3387 -0.5089 2.3941
6.3482 -0.2794 2.3941
6.3499 -0.0499 2.3941
6.3436 0.1794 2.3941
6.3295 0.4083 2.3941
6.3076 0.6364 2.3941
6.2780 0.8636 2.3941
6.2405 1.0895 2.3941
6.1954 1.3140 2.3941
6.1427 1.5367 2.3941
6.0824 1.7575 2.3941
6.0145 1.9760 2.3941
5.9393 2.1921 2.3941
5.8567 2.4055 2.3941
5.7668 2.6160 2.3941
5.6698 2.8234 2.3941
5.5658 3.0273 2.3941
5.4547 3.2277 2.3941
5.3369 3.4242 2.3941
5.2123 3.6166 2.3941
5.0812 3.8047 2.3941
4.9436 3.9884 2.3941
4.7997 4.1673 2.3941
4.6497 4.3413 2.3941
4.4937 4.5102 2.3941
4.3318 4.6738 2.3941
4.1642 4.8318 2.3941
3.9912 4.9842 2.3941
3.8129 5.1306 2.3941
3.6294 5.2710 2.3941
3.4410 5.4051 2.3941
3.2478 5.5327 2.3941
3.0502 5.6538 2.3941
2.8482 5.7680 2.3941
2.6421 5.8754 2.3941
2.4322 5.9757 2.3941
0.9047 2.4747 0.9763
0.8152 2.5065 0.9750
0.7245 2.5350 0.9738
0.6329 2.5603 0.9724
0.5404 2.5822 0.9711
0.4472 2.6007 0.9696
0.3534 2.6159 0.9682
0.2591 2.6277 0.9667
0.1644 2.6360 0.9652
0.0695 2.6410 0.9637
-0.0256 2.6425 0.9621
-0.1206 2.6406 0.9605
-0.2156 2.6352 0.9589
-0.3102 2.6264 0.9572
-0.4045 2.6142 0.9555
-0.4983 2.5986 0.9538
-0.5915 2.5796 0.9521
-0.6839 2.5573 0.9504
-0.7754 2.5317 0.9487
-0.8660 2.5027 0.9469
-2.4201 6.2577 2.3941
-2.6485 6.1795 2.3941
-2.8744 6.0930 2.3941
-3.0974 5.9983 2.3941
-3.3172 5.8954 2.3941
-3.5336 5.7844 2.3941
-3.7461 5.6654 2.3941
-3.9546 5.5386 2.3941
-4.1587 5.4040 2.3941
-4.3581 5.2619 2.3941
-4.5526 5.1124 2.3941
-4.7417 4.9556 2.3941
-4.9253 4.7916 2.3941
-5.1031 4.6208 2.3941
-5.2747 4.4433 2.3941
-5.4399 4.2594 2.3941
-5.5985 4.0691 2.3941
-5.7502 3.8729 2.3941
-5.8948 3.6709 2.3941
-6.0319 3.4634 2.3941
-6.1615 3.2506 2.3941
-6.2832 3.0329 2.3941
-6.3969 2.8106 2.3941
-6.5024 2.5839 2.3941
-6.5994 2.3531 2.3941
-6.6879 2.1186 2.3941
-6.7676 1.8807 2.3941
-6.8384 1.6398 2.3941
-6.9003 1.3961 2.3941
-6.9529 1.1501 2.3941
-6.9964 0.9020 2.3941
-7.0305 0.6523 2.3941
-7.0552 0.4013 2.3941
-7.0704 0.1493 2.3941
-7.0762 -0.1031 2.3941
-7.0724 -0.3558 2.3941
-7.0591 -0.6083 2.3941
-7.0362 -0.8602 2.3941
-7.0039 -1.1111 2.3941
-6.9620 -1.3607 2.3941
-6.9108 -1.6086 2.3941
-6.8502 -1.8545 2.3941
-6.7803 -2.0979 2.3941
-6.7013 -2.3385 2.3941
-6.6132 -2.5759 2.3941
-6.5163 -2.8098 2.3941
-6.4105 -3.0399 2.3941
-6.2962 -3.2657 2.3941
-6.1735 -3.4870 2.3941
-6.0425 -3.7035 2.3941
-5.9035 -3.9147 2.3941
-5.7567 -4.1205 2.3941
-5.6023 -4.3204 2.3941
-5.4406 -4.5143 2.3941
-5.2718 -4.7019 2.3941
-5.0962 -4.8828 2.3941
-4.9140 -5.0569 2.3941
-4.7256 -5.2238 2.3941
-4.5312 -5.3834 2.3941
-4.3312 -5.5355 2.3941
-4.1258 -5.6798 2.3941
-3.9154 -5.8163 2.3941
-3.7003 -5.9446 2.3941
-3.4808 -6.0646 2.3941
-3.2572 -6.1763 2.3941
-3.0299 -6.2794 2.3941
-2.7992 -6.3739 2.3941
-2.5655 -6.4597 2.3941
-2.3291 -6.5366 2.3941
-2.0904 -6.6046 2.3941
-1.8497 -6.6637 2.3941
-1.6073 -6.7138 2.3941
-1.3636 -6.7549 2.3941
-1.1190 -6.7869 2.3941
-0.8737 -6.8099 2.3941
-0.6282 -6.8239 2.3941
-0.3827 -6.8289 2.3941
-0.1377 -6.8249 2.3941
0.1067 -6.8120 2.3941
0.3500 -6.7903 2.3941
0.5919 -6.7598 2.3941
0.8322 -6.7207 2.3941
1.0704 -6.6730 2.3941
1.3063 -6.6168 2.3941
1.5397 -6.5522 2.3941
1.7701 -6.4795 2.3941
1.9974 -6.3986 2.3941
2.2212 -6.3099 2.3941
2.4413 -6.2133 2.3941
2.6574 -6.1092 2.3941
2.8693 -5.9976 2.3941
3.0767 -5.8788 2.3941
3.2794 -5.7529 2.3941
3.4771 -5.6201 2.3941
3.6697 -5.4807 2.3941
3.8569 -5.3348 2.3941
4.0385 -5.1826 2.3941
4.2143 -5.0244 2.3941
4.3842 -4.8604 2.3941
4.5479 -4.6909 2.3941
4.7054 -4.5160 2.3941
4.8564 -4.3359 2.3941
5.0007 -4.1510 2.3941
5.1383 -3.9615 2.3941
5.2690 -3.7676 2.3941
5.3927 -3.5696 2.3941
5.5093 -3.3676 2.3941
5.6187 -3.1620 2.3941
5.7207 -2.9530 2.3941
5.8153 -2.7409 2.3941
5.9023 -2.5260 2.3941
5.9819 -2.3084 2.3941
6.0537 -2.0884 2.3941
6.1179 -1.8664 2.3941
6.1743 -1.6425 2.3941
6.2229 -1.4170 2.3941
6.2637 -1.1902 2.3941
6.2967 -0.9624 2.3941
6.3218 -0.7337 2.3941
6.3390 -0.5045 2.3941
6.3484 -0.2750 2.3941
6.3498 -0.0455 2.3941
6.3434 0.1839 2.3941
6.3292 0.4127 2.3941
6.3071 0.6408 2.3941
6.2773 0.8679 2.3941
6.2397 1.0939 2.3941
6.1945 1.3183 2.3941
6.1416 1.5410 2.3941
6.0811 1.7617 2.3941
6.0132 1.9802 2.3941
5.9378 2.1963 2.3941
5.8550 2.4096 2.3941
5.7650 2.6201 2.3941
5.6679 2.8274 2.3941
5.5637 3.0312 2.3941
5.4525 3.2315 2.3941
5.3346 3.4279 2.3941
5.2099 3.6203 2.3941
5.0786 3.8083 2.3941
4.9409 3.9919 2.3941
4.7969 4.1707 2.3941
4.6467 4.3446 2.3941
4.4906 4.5134 2.3941
4.3286 4.6769 2.3941
4.1610 4.8348 2.3941
3.9878 4.9871 2.3941
3.8094 5.1334 2.3941
3.6258 5.2736 2.3941
3.4373 5.4076 2.3941
3.2441 5.5351 2.3941
3.0463 5.6560 2.3941
2.8443 5.7702 2.3941
2.6381 5.8774 2.3941
2.4281 5.9776 2.3941
0.9030 2.4754 0.9763
0.8134 2.5071 0.9750
0.7228 2.5355 0.9737
0.6311 2.5607 0.9724
0.5387 2.5826 0.9710
0.4454 2.6010 0.9696
0.3516 2.6162 0.9682
0.2573 2.6279 0.9667
0.1626 2.6362 0.9652
0.0676 2.6410 0.9636
-0.0274 2.6425 0.9621
-0.1225 2.6405 0.9605
-0.2174 2.6351 0.9588
-0.3120 2.6262 0.9572
-0.4063 2.6140 0.9555
-0.5001 2.5983 0.9538
-0.5933 2.5792 0.9521
-0.6857 2.5569 0.9504
-0.7772 2.5311 0.9486
-0.8677 2.5021 0.9469
-2.4245 6.2563 2.3941
-2.6529 6.1780 2.3941
-2.8787 6.0913 2.3941
-3.1016 5.9964 2.3941
-3.3214 5.8933 2.3941
-3.5377 5.7822 2.3941
-3.7502 5.6630 2.3941
-3.9586 5.5361 2.3941
-4.1626 5.4014 2.3941
-4.3619 5.2591 2.3941
-4.5563 5.1094 2.3941
-4.7453 4.9525 2.3941
-4.9288 4.7884 2.3941
-5.1064 4.6175 2.3941
-5.2780 4.4399 2.3941
-5.4431 4.2558 2.3941
-5.6015 4.0654 2.3941
-5.7531 3.8691 2.3941
-5.8975 3.6669 2.3941
-6.0345 3.4593 2.3941
-6.1639 3.2464 2.3941
-6.2855 3.0287 2.3941
-6.3990 2.8062 2.3941
-6.5043 2.5794 2.3941
-6.6012 2.3486 2.3941
-6.6895 2.1140 2.3941
-6.7691 1.8761 2.3941
-6.8397 1.6351 2.3941
-6.9014 1.3914 2.3941
-6.9539 1.1453 2.3941
-6.9971 0.8972 2.3941
-7.0310 0.6475 2.3941
-7.0556 0.3964 2.3941
-7.0706 0.1445 2.3941
-7.0762 -0.1080 2.3941
-7.0722 -0.3607 2.3941
-7.0587 -0.6131 2.3941
-7.0357 -0.8650 2.3941
-7.0031 -1.1159 2.3941
-6.9611 -1.3655 2.3941
-6.9097 -1.6134 2.3941
-6.8489 -1.8592 2.3941
-6.7789 -2.1025 2.3941
-6.6997 -2.3431 2.3941
-6.6115 -2.5805 2.3941
-6.5143 -2.8143 2.3941
-6.4084 -3.0443 2.3941
-6.2939 -3.2700 2.3941
-6.1710 -3.4913 2.3941
-6.0399 -3.7076 2.3941
-5.9007 -3.9188 2.3941
-5.7538 -4.1244 2.3941
-5.5993 -4.3242 2.3941
-5.4374 -4.5180 2.3941
-5.2684 -4.7054 2.3941
-5.0927 -4.8862 2.3941
-4.9104 -5.0601 2.3941
-4.7219 -5.2270 2.3941
-4.5274 -5.3864 2.3941
-4.3273 -5.5384 2.3941
-4.1218 -5.6826 2.3941
-3.9113 -5.8188 2.3941
-3.6961 -5.9470 2.3941
-3.4765 -6.0669 2.3941
-3.2528 -6.1783 2.3941
-3.0255 -6.2813 2.3941
-2.7947 -6.3756 2.3941
-2.5610 -6.4612 2.3941
-2.3246 -6.5380 2.3941
-2.0858 -6.6058 2.3941
-1.8450 -6.6647 2.3941
-1.6026 -6.7147 2.3941
-1.3589 -6.7555 2.3941
-1.1143 -6.7874 2.3941
-0.8690 -6.8103 2.3941
-0.6235 -6.8241 2.3941
-0.3780 -6.8289 2.3941
-0.1329 -6.8247 2.3941
0.1114 -6.8117 2.3941
0.3547 -6.7898 2.3941
0.5966 -6.7592 2.3941
0.8368 -6.7199 2.3941
1.0750 -6.6720 2.3941
1.3109 -6.6156 2.3941
1.5441 -6.5509 2.3941
1.7745 -6.4780 2.3941
2.0017 -6.3970 2.3941
2.2255 -6.3081 2.3941
2.4455 -6.2114 2.3941
2.6615 -6.1071 2.3941
2.8733 -5.9954 2.3941
3.0806 -5.8764 2.3941
3.2832 -5.7504 2.3941
3.4809 -5.6175 2.3941
3.6733 -5.4779 2.3941
3.8604 -5.3319 2.3941
4.0419 -5.1796 2.3941
4.2176 -5.0213 2.3941
4.3874 -4.8572 2.3941
4.5510 -4.6876 2.3941
4.7083 -4.5125 2.3941
4.8592 -4.3324 2.3941
5.0034 -4.1474 2.3941
5.1409 -3.9578 2.3941
5.2715 -3.7638 2.3941
5.3950 -3.5657 2.3941
5.5115 -3.3637 2.3941
5.6207 -3.1580 2.3941
5.7226 -2.9490 2.3941
5.8170 -2.7368 2.3941
5.9040 -2.5218 2.3941
5.9833 -2.3042 2.3941
6.0550 -2.0842 2.3941
6.1190 -1.8621 2.3941
6.1753 -1.6382 2.3941
6.2238 -1.4127 2.3941
6.2644 -1.1859 2.3941
-6.4776 -1.2618 2.3941
-6.4300 -1.4924 2.3941
-6.3738 -1.7210 2.3941
-6.3089 -1.9474 2.3941
-6.2356 -2.1711 2.3941
-6.1539 -2.3920 2.3941
-6.0639 -2.6096 2.3941
-5.9659 -2.8236 2.3941
-5.8598 -3.0338 2.3941
-5.7460 -3.2397 2.3941
-5.6245 -3.4411 2.3941
-5.4955 -3.6378 2.3941
-5.3593 -3.8294 2.3941
-5.2161 -4.0156 2.3941
-5.0660 -4.1963 2.3941
-4.9094 -4.3710 2.3941
-4.7464 -4.5397 2.3941
-4.5774 -4.7020 2.3941
-4.4025 -4.8577 2.3941
-4.2221 -5.0067 2.3941
-4.0363 -5.1487 2.3941
-3.8456 -5.2835 2.3941
-3.6502 -5.4110 2.3941
-3.4504 -5.5310 2.3941
-3.2464 -5.6434 2.3941
-3.0387 -5.7479 2.3941
-2.8274 -5.8446 2.3941
-2.6130 -5.9333 2.3941
-2.3957 -6.0139 2.3941
-2.1759 -6.0863 2.3941
-1.9538 -6.1504 2.3941
-1.7299 -6.2062 2.3941
-1.5043 -6.2537 2.3941
-1.2775 -6.2928 2.3941
-1.0497 -6.3235 2.3941
-0.8213 -6.3458 2.3941
-0.5926 -6.3598 2.3941
-0.3639 -6.3653 2.3941
-0.1355 -6.3625 2.3941
0.0923 -6.3514 2.3941
0.3192 -6.3321 2.3941
0.5448 -6.3046 2.3941
0.7689 -6.2690 2.3941
0.9913 -6.2254 2.3941
1.2115 -6.1739 2.3941
1.4294 -6.1146 2.3941
1.6446 -6.0476 2.3941
1.8570 -5.9731 2.3941
2.0661 -5.8911 2.3941
2.2719 -5.8019 2.3941
2.4740 -5.7055 2.3941
2.6721 -5.6021 2.3941
2.8662 -5.4920 2.3941
3.0559 -5.3752 2.3941
3.2410 -5.2519 2.3941
3.4213 -5.1224 2.3941
3.5967 -4.9868 2.3941
3.7668 -4.8453 2.3941
3.9317 -4.6982 2.3941
4.0909 -4.5456 2.3941
4.2445 -4.3877 2.3941
4.3922 -4.2248 2.3941
4.5339 -4.0570 2.3941
4.6694 -3.8847 2.3941
4.7986 -3.7079 2.3941
4.9214 -3.5270 2.3941
5.0377 -3.3422 2.3941
5.1473 -3.1538 2.3941
5.2501 -2.9618 2.3941
5.3461 -2.7667 2.3941
5.4352 -2.5686 2.3941
5.5172 -2.3677 2.3941
5.5921 -2.1644 2.3941
5.6599 -1.9588 2.3941
5.7204 -1.7512 2.3941
5.7737 -1.5418 2.3941
5.8197 -1.3310 2.3941
5.8584 -1.1188 2.3941
5.8897 -0.9057 2.3941
5.9136 -0.6917 2.3941
5.9301 -0.4772 2.3941
5.9393 -0.2624 2.3941
5.9410 -0.0476 2.3941
5.9354 0.1671 2.3941
5.9224 0.3813 2.3941
5.9020 0.5949 2.3941
5.8744 0.8075 2.3941
5.8394 1.0191 2.3941
5.7973 1.2292 2.3941
5.7480 1.4377 2.3941
5.6916 1.6444 2.3941
5.6281 1.8490 2.3941
5.5577 2.0513 2.3941
5.4803 2.2511 2.3941
5.3961 2.4482 2.3941
5.3052 2.6422 2.3941
5.2077 2.8331 2.3941
5.1037 3.0206 2.3941
4.9932 3.2045 2.3941
4.8765 3.3845 2.3941
4.7536 3.5605 2.3941
4.6246 3.7323 2.3941
4.4898 3.8996 2.3941
4.3492 4.0623 2.3941
4.2029 4.2202 2.3941
4.0512 4.3730 2.3941
3.8942 4.5207 2.3941
3.7321 4.6630 2.3941
3.5650 4.7997 2.3941
3.3931 4.9307 2.3941
3.2166 5.0558 2.3941
3.0357 5.1749 2.3941
2.8505 5.2877 2.3941
2.6614 5.3942 2.3941
2.4684 5.4942 2.3941
2.2719 5.5875 2.3941
0.8428 2.3082 0.9739
0.7593 2.3378 0.9728
0.6748 2.3644 0.9716
0.5893 2.3879 0.9703
0.5030 2.4083 0.9690
0.4161 2.4256 0.9677
0.3286 2.4397 0.9664
0.2406 2.4507 0.9650
0.1523 2.4585 0.9636
0.0637 2.4631 0.9621
-0.0249 2.4645 0.9607
-0.1136 2.4627 0.9592
-0.2021 2.4577 0.9577
-0.2904 2.4495 0.9561
-0.3784 2.4381 0.9546
-0.4659 2.4236 0.9530
-0.5528 2.4059 0.9514
-0.6390 2.3850 0.9498
-0.7244 2.3611 0.9482
-0.8089 2.3341 0.9465
-0.8923 2.3041 0.9449
-2.4737 5.7642 2.3941
-2.6841 5.6828 2.3941
-2.8917 5.5938 2.3941
-3.0964 5.4971 2.3941
-3.2978 5.3929 2.3941
-3.4956 5.2813 2.3941
-3.6895 5.1625 2.3941
-3.8793 5.0365 2.3941
-4.0648 4.9034 2.3941
-4.2455 4.7634 2.3941
-4.4213 4.6168 2.3941
-4.5918 4.4635 2.3941
-4.7569 4.3039 2.3941
-4.9163 4.1381 2.3941
-5.0696 3.9663 2.3941
-5.2168 3.7886 2.3941
-5.3575 3.6055 2.3941
-5.4916 3.4171 2.3941
-5.6187 3.2235 2.3941
-5.7388 3.0252 2.3941
-5.8516 2.8222 2.3941
-5.9569 2.6150 2.3941
-6.0545 2.4038 2.3941
-6.1443 2.1888 2.3941
-6.2261 1.9705 2.3941
-6.2998 1.7490 2.3941
-6.3653 1.5247 2.3941
-6.4224 1.2979 2.3941
-6.4709 1.0689 2.3941
-6.5110 0.8381 2.3941
-6.5423 0.6057 2.3941
-6.5650 0.3722 2.3941
-6.5788 0.1379 2.3941
-6.5839 -0.0969 2.3941
-6.5801 -0.3319 2.3941
-6.5675 -0.5666 2.3941
-6.5461 -0.8009 2.3941
-6.5158 -1.0342 2.3941
-6.4768 -1.2663 2.3941
-6.4290 -1.4968 2.3941
-6.3726 -1.7254 2.3941
-6.3076 -1.9517 2.3941
-6.2341 -2.1754 2.3941
-6.1523 -2.3962 2.3941
-6.0621 -2.6138 2.3941
-5.9639 -2.8277 2.3941
-5.8577 -3.0378 2.3941
-5.7437 -3.2436 2.3941
-5.6220 -3.4450 2.3941
-5.4929 -3.6415 2.3941
-5.3566 -3.8330 2.3941
-5.2133 -4.0192 2.3941
-5.0631 -4.1997 2.3941
-4.9063 -4.3743 2.3941
-4.7432 -4.5429 2.3941
-4.5741 -4.7050 2.3941
-4.3991 -4.8607 2.3941
-4.2185 -5.0095 2.3941
-4.0327 -5.1513 2.3941
-3.8419 -5.2860 2.3941
-3.6464 -5.4134 2.3941
-3.4465 -5.5332 2.3941
-3.2424 -5.6454 2.3941
-3.0346 -5.7499 2.3941
-2.8233 -5.8464 2.3941
-2.6088 -5.9349 2.3941
-2.3915 -6.0153 2.3941
-2.1716 -6.0876 2.3941
-1.9495 -6.1516 2.3941
-1.7255 -6.2072 2.3941
-1.5000 -6.2546 2.3941
-1.2731 -6.2935 2.3941
-1.0453 -6.3240 2.3941
-0.8169 -6.3462 2.3941
-0.5882 -6.3600 2.3941
-0.3595 -6.3653 2.3941
-0.1311 -6.3624 2.3941
0.0967 -6.3511 2.3941
0.3235 -6.3317 2.3941
0.5491 -6.3040 2.3941
0.7732 -6.2683 2.3941
0.9955 -6.2245 2.3941
1.2157 -6.1729 2.3941
1.4336 -6.1134 2.3941
1.6488 -6.0463 2.3941
1.8610 -5.9716 2.3941
2.0701 -5.8895 2.3941
2.2758 -5.8001 2.3941
2.4778 -5.7035 2.3941
2.6759 -5.6001 2.3941
2.8699 -5.4898 2.3941
3.0595 -5.3728 2.3941
3.2445 -5.2495 2.3941
3.4248 -5.1198 2.3941
3.6000 -4.9841 2.3941
3.7701 -4.8426 2.3941
3.9348 -4.6953 2.3941
4.0939 -4.5426 2.3941
4.2474 -4.3846 2.3941
4.3950 -4.2216 2.3941
4.5366 -4.0537 2.3941
4.6720 -3.8813 2.3941
4.8011 -3.7045 2.3941
4.9237 -3.5235 2.3941
5.0399 -3.3386 2.3941
5.1493 -3.1501 2.3941
5.2520 -2.9581 2.3941
5.3479 -2.7629 2.3941
5.4368 -2.5647 2.3941
5.5187 -2.3638 2.3941
5.5935 -2.1604 2.3941
5.6611 -1.9548 2.3941
5.7215 -1.7472 2.3941
5.7747 -1.5378 2.3941
5.8205 -1.3269 2.3941
5.8590 -1.1147 2.3941
5.8902 -0.9016 2.3941
5.9140 -0.6876 2.3941
5.9304 -0.4731 2.3941
5.9394 -0.2583 2.3941
5.9410 -0.0434 2.3941
5.9352 0.1712 2.3941
5.9220 0.3854 2.3941
5.9016 0.5990 2.3941
5.8738 0.8116 2.3941
5.8387 1.0231 2.3941
5.7964 1.2332 2.3941
5.7470 1.4417 2.3941
5.6904 1.6484 2.3941
5.6268 1.8530 2.3941
5.5562 2.0552 2.3941
5.4787 2.2550 2.3941
5.3944 2.4519 2.3941
5.3034 2.6460 2.3941
5.2058 2.8368 2.3941
5.1016 3.0242 2.3941
4.9911 3.2080 2.3941
4.8742 3.3879 2.3941
4.7512 3.5639 2.3941
4.6221 3.7355 2.3941
4.4871 3.9028 2.3941
4.3464 4.0654 2.3941
4.2001 4.2232 2.3941
4.0482 4.3759 2.3941
3.8911 4.5235 2.3941
3.7289 4.6657 2.3941
3.5617 4.8023 2.3941
3.3897 4.9332 2.3941
3.2131 5.0582 2.3941
3.0321 5.1771 2.3941
2.8469 5.2898 2.3941
2.6577 5.3962 2.3941
2.4647 5.4960 2.3941
2.2680 5.5892 2.3941
0.8412 2.3088 0.9739
0.7577 2.3383 0.9727
0.6731 2.3648 0.9715
0.5877 2.3883 0.9703
0.5014 2.4087 0.9690
0.4144 2.4259 0.9677
0.3269 2.4400 0.9663
0.2389 2.4509 0.9650
0.1506 2.4586 0.9636
0.0620 2.4632 0.9621
-0.0267 2.4645 0.9606
-0.1153 2.4626 0.9591
-0.2038 2.4576 0.9576
-0.2921 2.4493 0.9561
-0.3801 2.4379 0.9545
-0.4676 2.4233 0.9529
-0.5545 2.4055 0.9514
-0.6406 2.3846 0.9497
-0.7260 2.3606 0.9481
-0.8105 2.3336 0.9465
-0.8939 2.3035 0.9449
-2.4777 5.7627 2.3941
-2.6881 5.6812 2.3941
-2.8957 5.5920 2.3941
-3.1003 5.4952 2.3941
-3.3016 5.3908 2.3941
-3.4994 5.2791 2.3941
-3.6932 5.1601 2.3941
-3.8830 5.0340 2.3941
-4.0683 4.9008 2.3941
-4.2489 4.7607 2.3941
-4.4246 4.6139 2.3941
-4.5950 4.4605 2.3941
-4.7600 4.3007 2.3941
-4.9193 4.1348 2.3941
-5.0725 3.9629 2.3941
-5.2196 3.7852 2.3941
-5.3602 3.6019 2.3941
-5.4941 3.4134 2.3941
-5.6211 3.2197 2.3941
-5.7410 3.0213 2.3941
-5.8537 2.8183 2.3941
-5.9588 2.6110 2.3941
-6.0563 2.3997 2.3941
-6.1460 2.1847 2.3941
-6.2276 1.9662 2.3941
-6.3012 1.7447 2.3941
-6.3665 1.5203 2.3941
-6.4234 1.2935 2.3941
-6.4718 1.0645 2.3941
-6.5116 0.8336 2.3941
-6.5428 0.6013 2.3941
-6.5653 0.3678 2.3941
-6.5790 0.1334 2.3941
-6.5839 -0.1014 2.3941
-6.5799 -0.3364 2.3941
-6.5672 -0.5712 2.3941
-6.5456 -0.8054 2.3941
-6.5151 -1.0387 2.3941
-6.4759 -1.2708 2.3941
-6.4280 -1.5012 2.3941
-6.3714 -1.7298 2.3941
-6.3063 -1.9560 2.3941
-6.2326 -2.1797 2.3941
-6.1506 -2.4005 2.3941
-6.0603 -2.6179 2.3941
-5.9619 -2.8318 2.3941
-5.8556 -3.0418 2.3941
-5.7414 -3.2475 2.3941
-5.6196 -3.4488 2.3941
-5.4904 -3.6453 2.3941
-5.3539 -3.8367 2.3941
-5.2104 -4.0227 2.3941
-5.0601 -4.2031 2.3941
-4.9032 -4.3776 2.3941
-4.7400 -4.5461 2.3941
-4.5707 -4.7081 2.3941
-4.3956 -4.8636 2.3941
-4.2150 -5.0123 2.3941
-4.0291 -5.1540 2.3941
-3.8382 -5.2886 2.3941
-3.6426 -5.4158 2.3941
-3.4426 -5.5355 2.3941
-3.2385 -5.6475 2.3941
-3.0306 -5.7518 2.3941
-2.8192 -5.8482 2.3941
-2.6047 -5.9365 2.3941
-2.3873 -6.0168 2.3941
-2.1674 -6.0889 2.3941
-1.9452 -6.1527 2.3941
-1.7212 -6.2082 2.3941
-1.4956 -6.2554 2.3941
-1.2687 -6.2942 2.3941
-1.0409 -6.3245 2.3941
-0.8125 -6.3465 2.3941
-0.5838 -6.3601 2.3941
-0.3551 -6.3654 2.3941
-0.1267 -6.3623 2.3941
0.1011 -6.3509 2.3941
0.3279 -6.3312 2.3941
0.5535 -6.3034 2.3941
0.7776 -6.2675 2.3941
0.9998 -6.2236 2.3941
1.2200 -6.1718 2.3941
1.4377 -6.1122 2.3941
1.6529 -6.0449 2.3941
1.8651 -5.9701 2.3941
2.0741 -5.8878 2.3941
2.2797 -5.7983 2.3941
2.4817 -5.7016 2.3941
2.6797 -5.5980 2.3941
2.8736 -5.4876 2.3941
3.0631 -5.3705 2.3941
3.2480 -5.2470 2.3941
3.4282 -5.1173 2.3941
3.6033 -4.9815 2.3941
3.7733 -4.8398 2.3941
3.9379 -4.6924 2.3941
4.0970 -4.5396 2.3941
4.2503 -4.3815 2.3941
4.3978 -4.2184 2.3941
4.5392 -4.0505 2.3941
4.6745 -3.8779 2.3941
4.8035 -3.7010 2.3941
4.9260 -3.5200 2.3941
5.0420 -3.3350 2.3941
5.1514 -3.1464 2.3941
5.2540 -2.9544 2.3941
5.3497 -2.7591 2.3941
5.4384 -2.5609 2.3941
5.5202 -2.3599 2.3941
5.5948 -2.1565 2.3941
5.6623 -1.9508 2.3941
5.7226 -1.7432 2.3941
5.7756 -1.5337 2.3941
5.8213 -1.3228 2.3941
5.8597 -1.1106 2.3941
-6.0490 -1.1787 2.3941
-6.0045 -1.3939 2.3941
-5.9520 -1.6073 2.3941
-5.8914 -1.8186 2.3941
-5.8230 -2.0274 2.3941
-5.7467 -2.2336 2.3941
-5.6628 -2.4367 2.3941
-5.5713 -2.6365 2.3941
-5.4724 -2.8327 2.3941
-5.3662 -3.0250 2.3941
-5.2529 -3.2131 2.3941
-5.1327 -3.3968 2.3941
-5.0058 -3.5757 2.3941
-4.8722 -3.7497 2.3941
-4.7323 -3.9185 2.3941
-4.5863 -4.0819 2.3941
-4.4344 -4.2395 2.3941
-4.2767 -4.3913 2.3941
-4.1137 -4.5370 2.3941
-3.9454 -4.6763 2.3941
-3.7722 -4.8092 2.3941
-3.5943 -4.9355 2.3941
-3.4121 -5.0549 2.3941
-3.2256 -5.1673 2.3941
-3.0354 -5.2727 2.3941
-2.8415 -5.3708 2.3941
-2.6444 -5.4616 2.3941
-2.4442 -5.5449 2.3941
-2.2414 -5.6206 2.3941
-2.0362 -5.6888 2.3941
-1.8288 -5.7493 2.3941
-1.6196 -5.8020 2.3941
-1.4089 -5.8469 2.3941
-1.1970 -5.8841 2.3941
-0.9842 -5.9133 2.3941
-0.7707 -5.9348 2.3941
-0.5569 -5.9484 2.3941
-0.3430 -5.9542 2.3941
-0.1294 -5.9522 2.3941
0.0837 -5.9425 2.3941
0.2960 -5.9251 2.3941
0.5071 -5.9000 2.3941
0.7169 -5.8673 2.3941
0.9251 -5.8271 2.3941
1.1313 -5.7795 2.3941
1.3354 -5.7246 2.3941
1.5370 -5.6626 2.3941
1.7360 -5.5934 2.3941
1.9321 -5.5172 2.3941
2.1249 -5.4342 2.3941
2.3145 -5.3445 2.3941
2.5003 -5.2483 2.3941
2.6824 -5.1456 2.3941
2.8604 -5.0368 2.3941
3.0341 -4.9218 2.3941
3.2034 -4.8009 2.3941
3.3681 -4.6743 2.3941
3.5279 -4.5422 2.3941
3.6828 -4.4047 2.3941
3.8324 -4.2621 2.3941
3.9768 -4.1145 2.3941
4.1156 -3.9621 2.3941
4.2489 -3.8051 2.3941
4.3764 -3.6438 2.3941
4.4979 -3.4784 2.3941
4.6135 -3.3090 2.3941
4.7229 -3.1360 2.3941
4.8261 -2.9594 2.3941
4.9230 -2.7796 2.3941
5.0134 -2.5967 2.3941
5.0973 -2.4110 2.3941
5.1746 -2.2227 2.3941
5.2453 -2.0320 2.3941
5.3092 -1.8392 2.3941
5.3664 -1.6444 2.3941
5.4167 -1.4480 2.3941
5.4601 -1.2502 2.3941
5.4967 -1.0511 2.3941
5.5264 -0.8510 2.3941
5.5491 -0.6502 2.3941
5.5648 -0.4489 2.3941
5.5736 -0.2472 2.3941
5.5754 -0.0455 2.3941
5.5703 0.1560 2.3941
5.5583 0.3572 2.3941
5.5393 0.5577 2.3941
5.5135 0.7574 2.3941
5.4808 0.9560 2.3941
5.4413 1.1534 2.3941
5.3950 1.3492 2.3941
5.3420 1.5433 2.3941
5.2825 1.7354 2.3941
5.2163 1.9254 2.3941
5.1436 2.1130 2.3941
5.0646 2.2980 2.3941
4.9791 2.4802 2.3941
4.8875 2.6594 2.3941
4.7897 2.8354 2.3941
4.6859 3.0080 2.3941
4.5762 3.1770 2.3941
4.4607 3.3421 2.3941
4.3395 3.5033 2.3941
4.2127 3.6603 2.3941
4.0805 3.8129 2.3941
3.9431 3.9609 2.3941
3.8005 4.1042 2.3941
3.6529 4.2426 2.3941
3.5005 4.3759 2.3941
3.3435 4.5040 2.3941
3.1820 4.6267 2.3941
3.0161 4.7438 2.3941
2.8461 4.8553 2.3941
2.6722 4.9608 2.3941
2.4946 5.0604 2.3941
2.3133 5.1538 2.3941
0.8650 2.1297 0.9729
0.7879 2.1602 0.9718
0.7097 2.1879 0.9707
0.6306 2.2128 0.9696
0.5506 2.2348 0.9684
0.4698 2.2539 0.9672
0.3885 2.2700 0.9660
0.3065 2.2833 0.9648
0.2242 2.2935 0.9635
0.1415 2.3008 0.9621
0.0586 2.3051 0.9608
-0.0244 2.3064 0.9594
-0.1074 2.3047 0.9580
-0.1902 2.3000 0.9566
-0.2729 2.2924 0.9552
-0.3552 2.2817 0.9537
-0.4371 2.2681 0.9522
-0.5184 2.2515 0.9507
-0.5991 2.2320 0.9492
-0.6791 2.2096 0.9477
-0.7581 2.1844 0.9462
-0.8362 2.1563 0.9447
-0.9133 2.1254 0.9431
-2.5150 5.3184 2.3941
-2.7091 5.2345 2.3941
-2.9003 5.1434 2.3941
-3.0885 5.0454 2.3941
-3.2732 4.9404 2.3941
-3.4543 4.8288 2.3941
-3.6315 4.7103 2.3941
-3.8045 4.5854 2.3941
-3.9732 4.4540 2.3941
-4.1372 4.3164 2.3941
-4.2962 4.1727 2.3941
-4.4501 4.0230 2.3941
-4.5987 3.8676 2.3941
-4.7416 3.7066 2.3941
-4.8787 3.5403 2.3941
-5.0098 3.3688 2.3941
-5.1346 3.1924 2.3941
-5.2530 3.0112 2.3941
-5.3647 2.8257 2.3941
-5.4697 2.6358 2.3941
-5.5676 2.4420 2.3941
-5.6584 2.2445 2.3941
-5.7418 2.0436 2.3941
-5.8179 1.8395 2.3941
-5.8863 1.6325 2.3941
-5.9470 1.4229 2.3941
-6.0000 1.2110 2.3941
-6.0450 0.9972 2.3941
-6.0820 0.7816 2.3941
-6.1110 0.5646 2.3941
-6.1319 0.3466 2.3941
-6.1445 0.1278 2.3941
-6.1490 -0.0914 2.3941
-6.1453 -0.3107 2.3941
-6.1333 -0.5299 2.3941
-6.1132 -0.7485 2.3941
-6.0848 -0.9663 2.3941
-6.0482 -1.1829 2.3941
-6.0036 -1.3981 2.3941
-5.9509 -1.6114 2.3941
-5.8902 -1.8226 2.3941
-5.8216 -2.0314 2.3941
-5.7452 -2.2375 2.3941
-5.6611 -2.4406 2.3941
-5.5695 -2.6403 2.3941
-5.4704 -2.8364 2.3941
-5.3641 -3.0287 2.3941
-5.2507 -3.2167 2.3941
-5.1303 -3.4003 2.3941
-5.0032 -3.5791 2.3941
-4.8696 -3.7530 2.3941
-4.7296 -3.9217 2.3941
-4.5834 -4.0849 2.3941
-4.4314 -4.2425 2.3941
-4.2736 -4.3941 2.3941
-4.1105 -4.5397 2.3941
-3.9421 -4.6789 2.3941
-3.7688 -4.8117 2.3941
-3.5909 -4.9378 2.3941
-3.4085 -5.0571 2.3941
-3.2220 -5.1694 2.3941
-3.0317 -5.2746 2.3941
-2.8377 -5.3726 2.3941
-2.6405 -5.4632 2.3941
-2.4404 -5.5464 2.3941
-2.2375 -5.6220 2.3941
-2.0322 -5.6900 2.3941
-1.8248 -5.7504 2.3941
-1.6156 -5.8029 2.3941
-1.4048 -5.8477 2.3941
-1.1929 -5.8847 2.3941
-0.9800 -5.9138 2.3941
-0.7665 -5.9351 2.3941
-0.5527 -5.9486 2.3941
-0.3389 -5.9543 2.3941
-0.1253 -5.9521 2.3941
0.0878 -5.9422 2.3941
0.3000 -5.9246 2.3941
0.5112 -5.8994 2.3941
0.7210 -5.8666 2.3941
0.9291 -5.8263 2.3941
1.1353 -5.7786 2.3941
1.3393 -5.7235 2.3941
1.5409 -5.6613 2.3941
1.7398 -5.5920 2.3941
1.9358 -5.5157 2.3941
2.1286 -5.4326 2.3941
2.3181 -5.3427 2.3941
2.5039 -5.2464 2.3941
2.6859 -5.1436 2.3941
2.8638 -5.0346 2.3941
3.0374 -4.9195 2.3941
3.2067 -4.7985 2.3941
3.3712 -4.6718 2.3941
3.5310 -4.5396 2.3941
3.6857 -4.4020 2.3941
3.8353 -4.2593 2.3941
3.9795 -4.1116 2.3941
4.1183 -3.9591 2.3941
4.2514 -3.8021 2.3941
4.3787 -3.6407 2.3941
4.5002 -3.4752 2.3941
4.6157 -3.3057 2.3941
4.7250 -3.1326 2.3941
4.8280 -2.9560 2.3941
4.9248 -2.7761 2.3941
5.0151 -2.5931 2.3941
5.0988 -2.4073 2.3941
5.1760 -2.2190 2.3941
5.2466 -2.0283 2.3941
5.3104 -1.8354 2.3941
5.3674 -1.6407 2.3941
5.4176 -1.4442 2.3941
5.4609 -1.2464 2.3941
5.4974 -1.0473 2.3941
5.5269 -0.8472 2.3941
5.5494 -0.6463 2.3941
5.5651 -0.4450 2.3941
5.5737 -0.2433 2.3941
5.5754 -0.0416 2.3941
5.5702 0.1599 2.3941
5.5580 0.3611 2.3941
5.5389 0.5616 2.3941
5.5129 0.7613 2.3941
5.4801 0.9599 2.3941
5.4404 1.1572 2.3941
5.3940 1.3530 2.3941
5.3410 1.5470 2.3941
5.2813 1.7391 2.3941
5.2150 1.9291 2.3941
5.1422 2.1166 2.3941
5.0630 2.3016 2.3941
4.9775 2.4837 2.3941
4.8857 2.6628 2.3941
4.7878 2.8388 2.3941
4.6839 3.0113 2.3941
4.5740 3.1802 2.3941
4.4584 3.3453 2.3941
4.3371 3.5064 2.3941
4.2102 3.6632 2.3941
4.0779 3.8158 2.3941
3.9403 3.9637 2.3941
3.7977 4.1069 2.3941
3.6500 4.2452 2.3941
3.4975 4.3785 2.3941
3.3404 4.5065 2.3941
3.1788 4.6290 2.3941
3.0129 4.7460 2.3941
2.8428 4.8573 2.3941
2.6689 4.9628 2.3941
2.4911 5.0622 2.3941
2.3098 5.1555 2.3941
0.8636 2.1303 0.9728
0.7864 2.1607 0.9718
0.7082 2.1884 0.9707
0.6290 2.2132 0.9696
0.5490 2.2352 0.9684
0.4683 2.2542 0.9672
0.3869 2.2703 0.9660
0.3049 2.2835 0.9647
0.2226 2.2937 0.9634
0.1399 2.3009 0.9621
0.0570 2.3052 0.9608
-0.0260 2.3064 0.9594
-0.1090 2.3047 0.9580
-0.1918 2.2999 0.9566
-0.2745 2.2922 0.9551
-0.3568 2.2815 0.9537
-0.4387 2.2678 0.9522
-0.5200 2.2512 0.9507
-0.6007 2.2316 0.9492
-0.6806 2.2092 0.9477
-0.7596 2.1838 0.9462
-0.8377 2.1557 0.9446
-0.9147 2.1247 0.9431
-2.5188 5.3169 2.3941
-2.7128 5.2328 2.3941
-2.9040 5.1416 2.3941
-3.0920 5.0435 2.3941
-3.2767 4.9385 2.3941
-3.4578 4.8265 2.3941
-3.6349 4.7080 2.3941
-3.8078 4.5829 2.3941
-3.9764 4.4514 2.3941
-4.1403 4.3137 2.3941
-4.2992 4.1698 2.3941
-4.4531 4.0201 2.3941
-4.6015 3.8645 2.3941
-4.7443 3.7035 2.3941
-4.8813 3.5370 2.3941
-5.0123 3.3654 2.3941
-5.1370 3.1889 2.3941
-5.2552 3.0077 2.3941
-5.3668 2.8220 2.3941
-5.4716 2.6321 2.3941
-5.5694 2.4382 2.3941
-5.6600 2.2407 2.3941
-5.7434 2.0397 2.3941
-5.8192 1.8355 2.3941
-5.8875 1.6285 2.3941
-5.9481 1.4188 2.3941
-6.0009 1.2069 2.3941
-6.0458 0.9930 2.3941
-6.0827 0.7774 2.3941
-6.1115 0.5605 2.3941
-6.1322 0.3424 2.3941
-6.1447 0.1236 2.3941
-6.1490 -0.0956 2.3941
-6.1451 -0.3150 2.3941
-6.1330 -0.5341 2.3941
-6.1127 -0.7527 2.3941
-6.0842 -0.9705 2.3941
-6.0475 -1.1871 2.3941
-6.0026 -1.4022 2.3941
-5.9498 -1.6155 2.3941
-5.8889 -1.8267 2.3941
-5.8202 -2.0354 2.3941
-5.7436 -2.2415 2.3941
-5.6594 -2.4445 2.3941
-5.5676 -2.6441 2.3941
-5.4684 -2.8402 2.3941
-5.3620 -3.0323 2.3941
-5.2484 -3.2203 2.3941
-5.1280 -3.4038 2.3941
-5.0007 -3.5825 2.3941
-4.8669 -3.7563 2.3941
-4.7268 -3.9249 2.3941
-4.5805 -4.0880 2.3941
-4.4284 -4.2455 2.3941
-4.2705 -4.3970 2.3941
-4.1073 -4.5424 2.3941
-3.9388 -4.6816 2.3941
-3.7654 -4.8142 2.3941
-3.5874 -4.9402 2.3941
-3.4049 -5.0593 2.3941
-3.2184 -5.1715 2.3941
-3.0279 -5.2766 2.3941
-2.8340 -5.3744 2.3941
-2.6367 -5.4649 2.3941
-2.4365 -5.5479 2.3941
-2.2335 -5.6234 2.3941
-2.0282 -5.6913 2.3941
-1.8208 -5.7514 2.3941
-1.6115 -5.8039 2.3941
-1.4008 -5.8485 2.3941
-1.1888 -5.8853 2.3941
-0.9759 -5.9143 2.3941
-0.7624 -5.9355 2.3941
-0.5486 -5.9488 2.3941
-0.3347 -5.9543 2.3941
-0.1212 -5.9520 2.3941
0.0919 -5.9420 2.3941
0.3041 -5.9242 2.3941
0.5152 -5.8988 2.3941
0.7250 -5.8659 2.3941
0.9331 -5.8254 2.3941
1.1392 -5.7776 2.3941
1.3432 -5.7224 2.3941
1.5447 -5.6600 2.3941
1.7436 -5.5906 2.3941
1.9396 -5.5141 2.3941
2.1323 -5.4309 2.3941
2.3217 -5.3409 2.3941
2.5074 -5.2444 2.3941
2.6893 -5.1416 2.3941
2.8672 -5.0324 2.3941
3.0408 -4.9172 2.3941
3.2099 -4.7962 2.3941
3.3743 -4.6693 2.3941
3.5340 -4.5370 2.3941
3.6886 -4.3993 2.3941
3.8381 -4.2565 2.3941
3.9822 -4.1087 2.3941
4.1209 -3.9561 2.3941
4.2539 -3.7990 2.3941
4.3811 -3.6375 2.3941
4.5025 -3.4719 2.3941
4.6178 -3.3024 2.3941
4.7270 -3.1292 2.3941
4.8300 -2.9525 2.3941
4.9266 -2.7726 2.3941
5.0167 -2.5895 2.3941
5.1004 -2.4037 2.3941
5.1775 -2.2153 2.3941
5.2479 -2.0246 2.3941
5.3115 -1.8317 2.3941
5.3684 -1.6369 2.3941
5.4185 -1.4404 2.3941
5.4617 -1.2425 2.3941
5.4980 -1.0434 2.3941
-5.6674 -1.1047 2.3941
-5.6257 -1.3061 2.3941
-5.5764 -1.5061 2.3941
-5.5197 -1.7039 2.3941
-5.4556 -1.8995 2.3941
-5.3842 -2.0925 2.3941
-5.3056 -2.2828 2.3941
-5.2200 -2.4699 2.3941
-5.1275 -2.6537 2.3941
-5.0281 -2.8338 2.3941
-4.9221 -3.0100 2.3941
-4.8097 -3.1821 2.3941
-4.6909 -3.3498 2.3941
-4.5660 -3.5129 2.3941
-4.4351 -3.6711 2.3941
-4.2985 -3.8243 2.3941
-4.1563 -3.9721 2.3941
-4.0089 -4.1145 2.3941
-3.8563 -4.2511 2.3941
-3.6989 -4.3819 2.3941
-3.5368 -4.5067 2.3941
-3.3703 -4.6252 2.3941
-3.1998 -4.7374 2.3941
-3.0253 -4.8431 2.3941
-2.8472 -4.9421 2.3941
-2.6657 -5.0344 2.3941
-2.4811 -5.1199 2.3941
-2.2937 -5.1983 2.3941
-2.1037 -5.2698 2.3941
-1.9115 -5.3341 2.3941
-1.7172 -5.3912 2.3941
-1.5212 -5.4411 2.3941
-1.3237 -5.4837 2.3941
-1.1251 -5.5190 2.3941
-0.9256 -5.5470 2.3941
-0.7254 -5.5676 2.3941
-0.5249 -5.5809 2.3941
-0.3243 -5.5868 2.3941
-0.1239 -5.5855 2.3941
0.0760 -5.5769 2.3941
0.2752 -5.5610 2.3941
0.4734 -5.5380 2.3941
0.6704 -5.5079 2.3941
0.8658 -5.4707 2.3941
1.0595 -5.4266 2.3941
1.2513 -5.3755 2.3941
1.4407 -5.3178 2.3941
1.6277 -5.2533 2.3941
1.8120 -5.1823 2.3941
1.9933 -5.1048 2.3941
2.1715 -5.0211 2.3941
2.3463 -4.9311 2.3941
2.5176 -4.8352 2.3941
2.6851 -4.7333 2.3941
2.8486 -4.6257 2.3941
3.0080 -4.5126 2.3941
3.1630 -4.3940 2.3941
3.3135 -4.2702 2.3941
3.4594 -4.1413 2.3941
3.6004 -4.0076 2.3941
3.7364 -3.8691 2.3941
3.8673 -3.7262 2.3941
3.9929 -3.5789 2.3941
4.1131 -3.4275 2.3941
4.2278 -3.2722 2.3941
4.3368 -3.1131 2.3941
4.4400 -2.9506 2.3941
4.5374 -2.7847 2.3941
4.6288 -2.6157 2.3941
4.7142 -2.4438 2.3941
4.7935 -2.2692 2.3941
4.8665 -2.0922 2.3941
4.9333 -1.9129 2.3941
4.9938 -1.7315 2.3941
5.0478 -1.5484 2.3941
5.0954 -1.3636 2.3941
5.1366 -1.1775 2.3941
5.1713 -0.9901 2.3941
5.1994 -0.8019 2.3941
5.2210 -0.6129 2.3941
5.2360 -0.4234 2.3941
5.2444 -0.2336 2.3941
5.2463 -0.0437 2.3941
5.2416 0.1461 2.3941
5.2304 0.3354 2.3941
5.2127 0.5243 2.3941
5.1884 0.7123 2.3941
5.1577 0.8993 2.3941
5.1206 1.0851 2.3941
5.0771 1.2695 2.3941
5.0273 1.4522 2.3941
4.9712 1.6332 2.3941
4.9089 1.8120 2.3941
4.8405 1.9886 2.3941
4.7660 2.1628 2.3941
4.6855 2.3344 2.3941
4.5992 2.5030 2.3941
4.5070 2.6687 2.3941
4.4092 2.8311 2.3941
4.3058 2.9901 2.3941
4.1969 3.1455 2.3941
4.0827 3.2971 2.3941
3.9632 3.4448 2.3941
3.8387 3.5883 2.3941
3.7091 3.7275 2.3941
3.5748 3.8623 2.3941
3.4357 3.9924 2.3941
3.2922 4.1177 2.3941
3.1442 4.2380 2.3941
2.9920 4.3532 2.3941
2.8358 4.4632 2.3941
2.6757 4.5678 2.3941
2.5119 4.6668 2.3941
2.3446 4.7602 2.3941
0.8825 1.9679 0.9718
0.8111 1.9991 0.9709
0.7387 2.0277 0.9699
0.6653 2.0537 0.9689
0.5910 2.0770 0.9679
0.5159 2.0977 0.9668
0.4401 2.1156 0.9656
0.3637 2.1308 0.9645
0.2868 2.1432 0.9633
0.2095 2.1528 0.9621
0.1319 2.1597 0.9608
0.0540 2.1637 0.9596
-0.0239 2.1649 0.9583
-0.1018 2.1633 0.9570
-0.1796 2.1589 0.9556
-0.2572 2.1517 0.9543
-0.3345 2.1417 0.9529
-0.4113 2.1289 0.9515
-0.4877 2.1133 0.9501
-0.5634 2.0950 0.9487
-0.6385 2.0740 0.9473
-0.7127 2.0503 0.9459
-0.7860 2.0239 0.9444
-0.8583 1.9949 0.9430
-0.9296 1.9633 0.9415
-2.5456 4.9129 2.3941
-2.7249 4.8270 2.3941
-2.9012 4.7345 2.3941
-3.0743 4.6356 2.3941
-3.2440 4.5303 2.3941
-3.4099 4.4188 2.3941
-3.5720 4.3011 2.3941
-3.7298 4.1775 2.3941
-3.8833 4.0480 2.3941
-4.0321 3.9128 2.3941
-4.1761 3.7721 2.3941
-4.3151 3.6260 2.3941
-4.4487 3.4748 2.3941
-4.5769 3.3186 2.3941
-4.6994 3.1575 2.3941
-4.8161 2.9918 2.3941
-4.9267 2.8218 2.3941
-5.0310 2.6476 2.3941
-5.1290 2.4695 2.3941
-5.2204 2.2877 2.3941
-5.3051 2.1025 2.3941
-5.3830 1.9140 2.3941
-5.4539 1.7227 2.3941
-5.5177 1.5287 2.3941
-5.5743 1.3322 2.3941
-5.6236 1.1337 2.3941
-5.6655 0.9332 2.3941
-5.6999 0.7312 2.3941
-5.7268 0.5280 2.3941
-5.7461 0.3238 2.3941
-5.7577 0.1188 2.3941
-5.7617 -0.0865 2.3941
-5.7581 -0.2919 2.3941
-5.7467 -0.4971 2.3941
-5.7277 -0.7019 2.3941
-5.7010 -0.9058 2.3941
-5.6667 -1.1087 2.3941
-5.6248 -1.3101 2.3941
-5.5754 -1.5099 2.3941
-5.5185 -1.7077 2.3941
-5.4543 -1.9032 2.3941
-5.3828 -2.0962 2.3941
-5.3041 -2.2864 2.3941
-5.2183 -2.4735 2.3941
-5.1256 -2.6572 2.3941
-5.0261 -2.8372 2.3941
-4.9200 -3.0134 2.3941
-4.8074 -3.1854 2.3941
-4.6885 -3.3530 2.3941
-4.5635 -3.5160 2.3941
-4.4325 -3.6741 2.3941
-4.2958 -3.8272 2.3941
-4.1536 -3.9749 2.3941
-4.0060 -4.1171 2.3941
-3.8533 -4.2537 2.3941
-3.6958 -4.3844 2.3941
-3.5336 -4.5090 2.3941
-3.3671 -4.6274 2.3941
-3.1964 -4.7395 2.3941
-3.0219 -4.8451 2.3941
-2.8437 -4.9440 2.3941
-2.6621 -5.0362 2.3941
-2.4775 -5.1215 2.3941
-2.2900 -5.1998 2.3941
-2.1000 -5.2711 2.3941
-1.9077 -5.3353 2.3941
-1.7134 -5.3922 2.3941
-1.5174 -5.4420 2.3941
-1.3199 -5.4845 2.3941
-1.1213 -5.5196 2.3941
-0.9217 -5.5474 2.3941
-0.7216 -5.5679 2.3941
-0.5210 -5.5810 2.3941
-0.3205 -5.5869 2.3941
-0.1201 -5.5854 2.3941
0.0798 -5.5766 2.3941
0.2790 -5.5606 2.3941
0.4772 -5.5375 2.3941
0.6742 -5.5072 2.3941
0.8696 -5.4699 2.3941
1.0633 -5.4256 2.3941
1.2549 -5.3745 2.3941
1.4443 -5.3166 2.3941
1.6313 -5.2520 2.3941
1.8155 -5.1809 2.3941
1.9968 -5.1033 2.3941
2.1749 -5.0194 2.3941
2.3497 -4.9294 2.3941
2.5209 -4.8333 2.3941
2.6883 -4.7313 2.3941
2.8517 -4.6236 2.3941
3.0110 -4.5103 2.3941
3.1660 -4.3917 2.3941
3.3164 -4.2678 2.3941
3.4621 -4.1388 2.3941
3.6031 -4.0050 2.3941
3.7390 -3.8664 2.3941
3.8698 -3.7234 2.3941
