ply
format ascii 1.0
element vertex 2180
property float32 x
property float32 y
property float32 z
end_header
7.0052 -6.0077 2.3874
7.2163 -5.7521 2.3874
7.4180 -5.4891 2.3874
7.6101 -5.2190 2.3874
7.7924 -4.9422 2.3874
7.9646 -4.6590 2.3874
8.1266 -4.3699 2.3874
8.2780 -4.0751 2.3874
8.4187 -3.7751 2.3874
8.5486 -3.4702 2.3874
8.6674 -3.1608 2.3874
8.7750 -2.8474 2.3874
8.8713 -2.5304 2.3874
8.9561 -2.2101 2.3874
9.0294 -1.8869 2.3874
9.0910 -1.5614 2.3874
9.1409 -1.2338 2.3874
9.1789 -0.9047 2.3874
9.2051 -0.5745 2.3874
9.2195 -0.2435 2.3874
9.2219 0.0877 2.3874
9.2125 0.4188 2.3874
9.1911 0.7494 2.3874
9.1579 1.0790 2.3874
9.1129 1.4071 2.3874
9.0561 1.7334 2.3874
8.9877 2.0574 2.3874
8.9076 2.3788 2.3874
8.8161 2.6971 2.3874
8.7132 3.0118 2.3874
8.5991 3.3227 2.3874
8.4739 3.6293 2.3874
8.3378 3.9311 2.3874
8.1909 4.2278 2.3874
8.0335 4.5191 2.3874
7.8657 4.8045 2.3874
7.6878 5.0837 2.3874
7.5000 5.3564 2.3874
7.3025 5.6221 2.3874
7.0956 5.8805 2.3874
6.8796 6.1313 2.3874
6.6548 6.3743 2.3874
6.4213 6.6089 2.3874
6.1797 6.8351 2.3874
5.9300 7.0524 2.3874
5.6727 7.2606 2.3874
5.4081 7.4594 2.3874
5.1366 7.6487 2.3874
4.8584 7.8280 2.3874
4.5740 7.9972 2.3874
4.2838 8.1562 2.3874
3.9880 8.3045 2.3874
3.6870 8.4422 2.3874
3.3814 8.5690 2.3874
3.0714 8.6848 2.3874
2.7574 8.7893 2.3874
2.4399 8.8825 2.3874
0.8443 3.5712 0.9511
0.7156 3.5998 0.9513
0.5859 3.6236 0.9514
0.4554 3.6427 0.9515
0.3244 3.6571 0.9516
0.1928 3.6667 0.9517
0.0610 3.6716 0.9518
-0.0709 3.6716 0.9519
-0.2028 3.6669 0.9519
-0.3343 3.6573 0.9519
-0.4655 3.6430 0.9520
-0.5960 3.6240 0.9520
-0.7258 3.6002 0.9519
-0.8546 3.5717 0.9519
-2.4637 8.8750 2.3874
-2.7808 8.7808 2.3874
-3.0945 8.6753 2.3874
-3.4041 8.5586 2.3874
-3.7093 8.4309 2.3874
-4.0097 8.2924 2.3874
-4.3050 8.1431 2.3874
-4.5948 7.9833 2.3874
-4.8786 7.8132 2.3874
-5.1561 7.6331 2.3874
-5.4271 7.4431 2.3874
-5.6910 7.2435 2.3874
-5.9476 7.0346 2.3874
-6.1965 6.8166 2.3874
-6.4375 6.5898 2.3874
-6.6702 6.3545 2.3874
-6.8943 6.1109 2.3874
-7.1095 5.8595 2.3874
-7.3155 5.6005 2.3874
-7.5121 5.3343 2.3874
-7.6991 5.0612 2.3874
-7.8761 4.7816 2.3874
-8.0430 4.4958 2.3874
-8.1996 4.2041 2.3874
-8.3455 3.9071 2.3874
-8.4807 3.6049 2.3874
-8.6050 3.2981 2.3874
-8.7182 2.9871 2.3874
-8.8202 2.6721 2.3874
-8.9108 2.3537 2.3874
-8.9899 2.0322 2.3874
-9.0574 1.7081 2.3874
-9.1133 1.3818 2.3874
-9.1573 1.0536 2.3874
-9.1896 0.7241 2.3874
-9.2101 0.3936 2.3874
-9.2186 0.0626 2.3874
-9.2153 -0.2686 2.3874
-9.2000 -0.5994 2.3874
-9.1729 -0.9294 2.3874
-9.1340 -1.2583 2.3874
-9.0833 -1.5856 2.3874
-9.0208 -1.9109 2.3874
-8.9467 -2.2337 2.3874
-8.8611 -2.5537 2.3874
-8.7640 -2.8703 2.3874
-8.6556 -3.1834 2.3874
-8.5360 -3.4923 2.3874
-8.4054 -3.7967 2.3874
-8.2639 -4.0963 2.3874
-8.1118 -4.3906 2.3874
-7.9492 -4.6793 2.3874
-7.7763 -4.9619 2.3874
-7.5934 -5.2382 2.3874
-7.4006 -5.5077 2.3874
-7.1983 -5.7701 2.3874
-6.9867 -6.0251 2.3874
-6.7660 -6.2723 2.3874
-6.5366 -6.5115 2.3874
-6.2988 -6.7423 2.3874
-6.0528 -6.9643 2.3874
-5.7989 -7.1774 2.3874
-5.5376 -7.3813 2.3874
-5.2691 -7.5756 2.3874
-4.9938 -7.7601 2.3874
-4.7120 -7.9347 2.3874
-4.4241 -8.0990 2.3874
-4.1305 -8.2528 2.3874
-3.8316 -8.3960 2.3874
-3.5277 -8.5284 2.3874
-3.2192 -8.6498 2.3874
-2.9065 -8.7600 2.3874
-2.5901 -8.8589 2.3874
-2.2704 -8.9463 2.3874
-1.9477 -9.0222 2.3874
-1.6224 -9.0865 2.3874
-1.2951 -9.1390 2.3874
-0.9661 -9.1797 2.3874
-0.6358 -9.2086 2.3874
-0.3047 -9.2255 2.3874
0.0268 -9.2306 2.3874
0.3583 -9.2237 2.3874
0.6893 -9.2050 2.3874
1.0194 -9.1743 2.3874
1.3482 -9.1318 2.3874
1.6752 -9.0775 2.3874
2.0002 -9.0115 2.3874
2.3225 -8.9338 2.3874
2.6418 -8.8446 2.3874
2.9577 -8.7440 2.3874
3.2698 -8.6321 2.3874
3.5776 -8.5090 2.3874
3.8808 -8.3750 2.3874
4.1791 -8.2301 2.3874
4.4719 -8.0747 2.3874
4.7589 -7.9088 2.3874
5.0397 -7.7326 2.3874
5.3141 -7.5465 2.3874
5.5816 -7.3507 2.3874
5.8418 -7.1454 2.3874
6.0946 -6.9309 2.3874
6.3394 -6.7074 2.3874
6.5760 -6.4753 2.3874
6.8042 -6.2348 2.3874
7.0235 -5.9862 2.3874
7.2338 -5.7300 2.3874
7.4347 -5.4664 2.3874
7.6260 -5.1957 2.3874
7.8074 -4.9184 2.3874
7.9788 -4.6347 2.3874
8.1398 -4.3450 2.3874
8.2903 -4.0498 2.3874
8.4302 -3.7493 2.3874
8.5591 -3.4441 2.3874
8.6770 -3.1343 2.3874
8.7836 -2.8206 2.3874
8.8790 -2.5033 2.3874
8.9628 -2.1827 2.3874
9.0351 -1.8594 2.3874
9.0957 -1.5336 2.3874
9.1446 -1.2059 2.3874
9.1816 -0.8767 2.3874
9.2068 -0.5464 2.3874
9.2202 -0.2154 2.3874
9.2216 0.1159 2.3874
9.2111 0.4470 2.3874
9.1888 0.7774 2.3874
9.1545 1.1069 2.3874
9.1085 1.4349 2.3874
9.0508 1.7610 2.3874
8.9813 2.0849 2.3874
8.9003 2.4060 2.3874
8.8078 2.7240 2.3874
8.7040 3.0384 2.3874
8.5889 3.3489 2.3874
8.4628 3.6551 2.3874
8.3257 3.9565 2.3874
8.1779 4.2528 2.3874
2.9421 -7.9124 2.3874
3.2243 -7.8016 2.3874
3.5023 -7.6807 2.3874
3.7759 -7.5499 2.3874
4.0445 -7.4094 2.3874
4.3079 -7.2593 2.3874
4.5658 -7.0998 2.3874
4.8177 -6.9312 2.3874
5.0634 -6.7536 2.3874
5.3026 -6.5673 2.3874
5.5349 -6.3725 2.3874
5.7601 -6.1695 2.3874
5.9778 -5.9585 2.3874
6.1878 -5.7399 2.3874
6.3898 -5.5139 2.3874
6.5835 -5.2807 2.3874
6.7688 -5.0408 2.3874
6.9452 -4.7943 2.3874
7.1127 -4.5417 2.3874
7.2710 -4.2832 2.3874
7.4200 -4.0191 2.3874
7.5593 -3.7501 2.3874
7.6889 -3.4760 2.3874
7.8085 -3.1976 2.3874
7.9180 -2.9150 2.3874
8.0174 -2.6287 2.3874
8.1063 -2.3390 2.3874
8.1848 -2.0463 2.3874
8.2528 -1.7510 2.3874
8.3101 -1.4534 2.3874
8.3566 -1.1540 2.3874
8.3923 -0.8531 2.3874
8.4173 -0.5512 2.3874
8.4313 -0.2485 2.3874
8.4345 0.0544 2.3874
8.4268 0.3573 2.3874
8.4083 0.6597 2.3874
8.3788 0.9612 2.3874
8.3386 1.2615 2.3874
8.2876 1.5601 2.3874
8.2260 1.8566 2.3874
8.1537 2.1507 2.3874
8.0709 2.4421 2.3874
7.9777 2.7303 2.3874
7.8742 3.0149 2.3874
7.7605 3.2956 2.3874
7.6369 3.5721 2.3874
7.5034 3.8440 2.3874
7.3603 4.1108 2.3874
7.2077 4.3724 2.3874
7.0457 4.6282 2.3874
6.8747 4.8781 2.3874
6.6949 5.1217 2.3874
6.5064 5.3587 2.3874
6.3096 5.5887 2.3874
6.1046 5.8116 2.3874
5.8917 6.0269 2.3874
5.6713 6.2344 2.3874
5.4436 6.4339 2.3874
5.2088 6.6251 2.3874
4.9674 6.8077 2.3874
4.7196 6.9815 2.3874
4.4657 7.1463 2.3874
4.2060 7.3019 2.3874
3.9410 7.4481 2.3874
3.6708 7.5847 2.3874
3.3960 7.7115 2.3874
3.1168 7.8283 2.3874
2.8336 7.9351 2.3874
2.5467 8.0316 2.3874
0.8979 3.2303 0.9500
0.7815 3.2609 0.9502
0.6639 3.2873 0.9503
0.5455 3.3094 0.9504
0.4263 3.3273 0.9505
0.3066 3.3407 0.9506
0.1864 3.3499 0.9507
0.0660 3.3546 0.9508
-0.0546 3.3550 0.9509
-0.1750 3.3511 0.9509
-0.2953 3.3427 0.9509
-0.4152 3.3300 0.9510
-0.5345 3.3129 0.9510
-0.6531 3.2916 0.9510
-0.7709 3.2659 0.9509
-0.8877 3.2360 0.9509
-2.5191 8.0393 2.3874
-2.8062 7.9437 2.3874
-3.0897 7.8379 2.3874
-3.3692 7.7219 2.3874
-3.6445 7.5960 2.3874
-3.9150 7.4602 2.3874
-4.1804 7.3149 2.3874
-4.4405 7.1601 2.3874
-4.6949 6.9961 2.3874
-4.9432 6.8231 2.3874
-5.1852 6.6413 2.3874
-5.4204 6.4509 2.3874
-5.6487 6.2521 2.3874
-5.8698 6.0453 2.3874
-6.0832 5.8307 2.3874
-6.2888 5.6086 2.3874
-6.4864 5.3793 2.3874
-6.6755 5.1429 2.3874
-6.8561 4.9000 2.3874
-7.0279 4.6507 2.3874
-7.1906 4.3954 2.3874
-7.3440 4.1345 2.3874
-7.4879 3.8681 2.3874
-7.6223 3.5968 2.3874
-7.7468 3.3208 2.3874
-7.8613 3.0406 2.3874
-7.9657 2.7564 2.3874
-8.0598 2.4686 2.3874
-8.1435 2.1776 2.3874
-8.2167 1.8838 2.3874
-8.2794 1.5875 2.3874
-8.3313 1.2892 2.3874
-8.3725 0.9892 2.3874
-8.4030 0.6878 2.3874
-8.4225 0.3856 2.3874
-8.4313 0.0829 2.3874
-8.4291 -0.2200 2.3874
-8.4161 -0.5226 2.3874
-8.3922 -0.8245 2.3874
-8.3574 -1.1254 2.3874
-8.3119 -1.4249 2.3874
-8.2557 -1.7225 2.3874
-8.1888 -2.0180 2.3874
-8.1114 -2.3109 2.3874
-8.0234 -2.6008 2.3874
-7.9251 -2.8872 2.3874
-7.8166 -3.1702 2.3874
-7.6980 -3.4490 2.3874
-7.5694 -3.7234 2.3874
-7.4311 -3.9929 2.3874
-7.2831 -4.2574 2.3874
-7.1258 -4.5164 2.3874
-6.9592 -4.7695 2.3874
-6.7837 -5.0165 2.3874
-6.5994 -5.2571 2.3874
-6.4065 -5.4909 2.3874
-6.2054 -5.7176 2.3874
-5.9962 -5.9369 2.3874
-5.7793 -6.1486 2.3874
-5.5550 -6.3524 2.3874
-5.3234 -6.5479 2.3874
-5.0850 -6.7351 2.3874
-4.8399 -6.9135 2.3874
-4.5887 -7.0831 2.3874
-4.3314 -7.2435 2.3874
-4.0686 -7.3945 2.3874
-3.8005 -7.5360 2.3874
-3.5275 -7.6678 2.3874
-3.2500 -7.7897 2.3874
-2.9682 -7.9015 2.3874
-2.6826 -8.0032 2.3874
-2.3935 -8.0945 2.3874
-2.1013 -8.1753 2.3874
-1.8064 -8.2456 2.3874
-1.5091 -8.3053 2.3874
-1.2099 -8.3542 2.3874
-0.9091 -8.3924 2.3874
-0.6072 -8.4197 2.3874
-0.3044 -8.4361 2.3874
-0.0013 -8.4417 2.3874
0.3019 -8.4364 2.3874
0.6047 -8.4201 2.3874
0.9067 -8.3930 2.3874
1.2075 -8.3550 2.3874
1.5067 -8.3063 2.3874
1.8040 -8.2468 2.3874
2.0990 -8.1767 2.3874
2.3913 -8.0960 2.3874
2.6805 -8.0049 2.3874
2.9662 -7.9034 2.3874
3.2481 -7.7917 2.3874
3.5257 -7.6700 2.3874
3.7989 -7.5384 2.3874
4.0671 -7.3970 2.3874
4.3300 -7.2461 2.3874
4.5874 -7.0858 2.3874
4.8389 -6.9164 2.3874
5.0840 -6.7381 2.3874
5.3226 -6.5510 2.3874
5.5544 -6.3556 2.3874
5.7789 -6.1519 2.3874
5.9960 -5.9403 2.3874
6.2053 -5.7210 2.3874
6.4066 -5.4943 2.3874
6.5996 -5.2606 2.3874
6.7841 -5.0201 2.3874
6.9598 -4.7731 2.3874
7.1265 -4.5199 2.3874
7.2841 -4.2610 2.3874
7.4322 -3.9966 2.3874
7.5707 -3.7269 2.3874
7.6994 -3.4525 2.3874
7.8182 -3.1737 2.3874
7.9269 -2.8908 2.3874
8.0253 -2.6042 2.3874
8.1134 -2.3142 2.3874
8.1910 -2.0213 2.3874
8.2581 -1.7258 2.3874
8.3144 -1.4280 2.3874
8.3600 -1.1285 2.3874
8.3949 -0.8275 2.3874
8.4189 -0.5254 2.3874
8.4320 -0.2227 2.3874
8.4343 0.0802 2.3874
8.4257 0.3830 2.3874
8.4062 0.6853 2.3874
8.3758 0.9868 2.3874
8.3347 1.2869 2.3874
8.2828 1.5853 2.3874
8.2202 1.8817 2.3874
8.1470 2.1756 2.3874
8.0634 2.4667 2.3874
7.9693 2.7546 2.3874
7.8649 3.0390 2.3874
7.7504 3.3193 2.3874
7.6260 3.5954 2.3874
7.4916 3.8668 2.3874
7.3477 4.1332 2.3874
7.1943 4.3943 2.3874
7.0315 4.6497 2.3874
6.8598 4.8991 2.3874
6.6792 5.1421 2.3874
6.4900 5.3785 2.3874
6.2924 5.6080 2.3874
6.0868 5.8302 2.3874
5.8733 6.0448 2.3874
5.6522 6.2517 2.3874
5.4239 6.4505 2.3874
5.1886 6.6409 2.3874
4.9466 6.8228 2.3874
4.6982 6.9959 2.3874
4.4438 7.1599 2.3874
4.1837 7.3147 2.3874
3.9182 7.4601 2.3874
3.6477 7.5958 2.3874
3.3725 7.7218 2.3874
3.0929 7.8378 2.3874
2.8093 7.9437 2.3874
2.5222 8.0393 2.3874
0.8881 3.2331 0.9500
0.7715 3.2633 0.9502
0.6539 3.2894 0.9503
0.5354 3.3111 0.9504
0.4162 3.3286 0.9506
0.2964 3.3417 0.9507
0.1762 3.3504 0.9507
0.0557 3.3548 0.9508
-0.0648 3.3549 0.9509
-0.1853 3.3505 0.9509
-0.3055 3.3418 0.9509
-0.4253 3.3287 0.9510
-0.5446 3.3113 0.9510
-0.6632 3.2896 0.9510
-0.7809 3.2635 0.9509
-0.8975 3.2333 0.9509
-2.5436 8.0316 2.3874
-2.8304 7.9351 2.3874
-3.1136 7.8284 2.3874
-3.3928 7.7116 2.3874
-3.6676 7.5848 2.3874
-3.9377 7.4483 2.3874
-4.2027 7.3021 2.3874
-4.4623 7.1465 2.3874
-4.7162 6.9818 2.3874
-4.9640 6.8080 2.3874
-5.2054 6.6254 2.3874
-5.4401 6.4343 2.3874
-5.6678 6.2349 2.3874
-5.8882 6.0274 2.3874
-6.1010 5.8122 2.3874
-6.3059 5.5894 2.3874
-6.5028 5.3594 2.3874
-6.6912 5.1226 2.3874
-6.8711 4.8791 2.3874
-7.0420 4.6292 2.3874
-7.2039 4.3735 2.3874
-7.3566 4.1120 2.3874
-7.4997 3.8453 2.3874
-7.6332 3.5735 2.3874
-7.7569 3.2972 2.3874
-7.8705 3.0166 2.3874
-7.9741 2.7320 2.3874
-8.0673 2.4440 2.3874
-8.1501 2.1527 2.3874
-8.2225 1.8587 2.3874
-8.2842 1.5622 2.3874
-8.3352 1.2637 2.3874
-8.3755 0.9636 2.3874
-8.4050 0.6622 2.3874
-8.4237 0.3599 2.3874
-8.4315 0.0572 2.3874
-8.4284 -0.2457 2.3874
-8.4144 -0.5483 2.3874
-8.3896 -0.8501 2.3874
-8.3540 -1.1509 2.3874
-8.3076 -1.4502 2.3874
-8.2504 -1.7477 2.3874
-8.1826 -2.0430 2.3874
-8.1043 -2.3356 2.3874
-8.0155 -2.6252 2.3874
-7.9163 -2.9115 2.3874
-7.8069 -3.1941 2.3874
-7.6874 -3.4725 2.3874
-7.5580 -3.7465 2.3874
-7.4189 -4.0156 2.3874
-7.2701 -4.2796 2.3874
-7.1120 -4.5381 2.3874
-6.9447 -4.7907 2.3874
-6.7684 -5.0372 2.3874
-6.5833 -5.2772 2.3874
-6.3897 -5.5104 2.3874
-6.1879 -5.7365 2.3874
-5.9781 -5.9552 2.3874
-5.7606 -6.1662 2.3874
-5.5356 -6.3693 2.3874
-5.3034 -6.5642 2.3874
-5.0644 -6.7506 2.3874
-4.8188 -6.9283 2.3874
-4.5670 -7.0970 2.3874
-4.3093 -7.2567 2.3874
-4.0460 -7.4069 2.3874
-3.7775 -7.5476 2.3874
-3.5041 -7.6785 2.3874
-3.2262 -7.7996 2.3874
-2.9440 -7.9106 2.3874
-2.6581 -8.0113 2.3874
-2.3688 -8.1017 2.3874
-2.0763 -8.1817 2.3874
-1.7812 -8.2511 2.3874
-1.4837 -8.3099 2.3874
-1.1844 -8.3579 2.3874
-0.8835 -8.3951 2.3874
-0.5815 -8.4215 2.3874
-0.2786 -8.4370 2.3874
0.0245 -8.4417 2.3874
0.3277 -8.4354 2.3874
0.6304 -8.4182 2.3874
0.9323 -8.3902 2.3874
1.2330 -8.3513 2.3874
1.5321 -8.3016 2.3874
1.8292 -8.2413 2.3874
2.1240 -8.1702 2.3874
2.4160 -8.0887 2.3874
2.7049 -7.9967 2.3874
2.9903 -7.8943 2.3874
3.2718 -7.7818 2.3874
3.5491 -7.6592 2.3874
3.8219 -7.5267 2.3874
4.0896 -7.3846 2.3874
4.3521 -7.2328 2.3874
4.6090 -7.0718 2.3874
4.8599 -6.9016 2.3874
5.1045 -6.7225 2.3874
5.3426 -6.5348 2.3874
5.5737 -6.3386 2.3874
5.7976 -6.1342 2.3874
6.0140 -5.9219 2.3874
6.2227 -5.7020 2.3874
6.4233 -5.4747 2.3874
6.6156 -5.2404 2.3874
6.7994 -4.9993 2.3874
6.9743 -4.7518 2.3874
7.1403 -4.4982 2.3874
7.2970 -4.2387 2.3874
7.4443 -3.9738 2.3874
7.5820 -3.7038 2.3874
7.7099 -3.4290 2.3874
7.8278 -3.1498 2.3874
7.9357 -2.8666 2.3874
8.0332 -2.5797 2.3874
8.1204 -2.2895 2.3874
8.1971 -1.9963 2.3874
8.2633 -1.7006 2.3874
8.3187 -1.4026 2.3874
8.3634 -1.1029 2.3874
8.3974 -0.8019 2.3874
8.4204 -0.4998 2.3874
8.4326 -0.1971 2.3874
8.4340 0.1059 2.3874
8.4244 0.4087 2.3874
8.4040 0.7110 2.3874
8.3728 1.0123 2.3874
8.3307 1.3123 2.3874
8.2779 1.6106 2.3874
8.2144 1.9068 2.3874
8.1403 2.2005 2.3874
8.0558 2.4913 2.3874
7.9608 2.7790 2.3874
7.8556 3.0630 2.3874
7.7402 3.3429 2.3874
7.6149 3.6186 2.3874
7.4798 3.8897 2.3874
2.7077 -7.2821 2.3874
2.9674 -7.1801 2.3874
3.2233 -7.0688 2.3874
3.4750 -6.9485 2.3874
3.7223 -6.8191 2.3874
3.9647 -6.6810 2.3874
4.2020 -6.5342 2.3874
4.4339 -6.3790 2.3874
4.6600 -6.2156 2.3874
4.8802 -6.0441 2.3874
5.0940 -5.8649 2.3874
5.3012 -5.6781 2.3874
5.5016 -5.4839 2.3874
5.6949 -5.2827 2.3874
5.8808 -5.0746 2.3874
6.0591 -4.8601 2.3874
6.2296 -4.6393 2.3874
6.3920 -4.4125 2.3874
6.5462 -4.1800 2.3874
6.6919 -3.9421 2.3874
6.8290 -3.6991 2.3874
6.9572 -3.4514 2.3874
7.0765 -3.1992 2.3874
7.1866 -2.9430 2.3874
7.2874 -2.6829 2.3874
7.3789 -2.4194 2.3874
7.4608 -2.1527 2.3874
7.5330 -1.8834 2.3874
7.5956 -1.6116 2.3874
7.6483 -1.3377 2.3874
7.6912 -1.0622 2.3874
7.7241 -0.7853 2.3874
7.7471 -0.5073 2.3874
7.7600 -0.2288 2.3874
7.7630 0.0501 2.3874
7.7559 0.3289 2.3874
7.7388 0.6071 2.3874
7.7118 0.8846 2.3874
7.6748 1.1610 2.3874
7.6279 1.4358 2.3874
7.5711 1.7088 2.3874
7.5046 1.9795 2.3874
7.4284 2.2477 2.3874
7.3427 2.5129 2.3874
7.2475 2.7749 2.3874
7.1429 3.0333 2.3874
7.0291 3.2878 2.3874
6.9063 3.5380 2.3874
6.7745 3.7836 2.3874
6.6340 4.0243 2.3874
6.4850 4.2599 2.3874
6.3277 4.4899 2.3874
6.1621 4.7141 2.3874
5.9887 4.9322 2.3874
5.8075 5.1440 2.3874
5.6188 5.3491 2.3874
5.4230 5.5473 2.3874
5.2201 5.7383 2.3874
5.0105 5.9219 2.3874
4.7944 6.0979 2.3874
4.5722 6.2660 2.3874
4.3441 6.4260 2.3874
4.1104 6.5778 2.3874
3.8714 6.7210 2.3874
3.6275 6.8556 2.3874
3.3788 6.9813 2.3874
3.1259 7.0980 2.3874
2.8689 7.2055 2.3874
2.6082 7.3038 2.3874
0.9319 2.9389 0.9491
0.8258 2.9709 0.9492
0.7187 2.9990 0.9494
0.6106 3.0233 0.9495
0.5017 3.0436 0.9496
0.3921 3.0600 0.9497
0.2819 3.0723 0.9498
0.1714 3.0807 0.9499
0.0607 3.0851 0.9500
-0.0502 3.0854 0.9500
-0.1610 3.0818 0.9501
-0.2716 3.0741 0.9501
-0.3818 3.0624 0.9501
-0.4915 3.0467 0.9501
-0.6006 3.0271 0.9501
-0.7090 3.0035 0.9501
-0.8163 2.9760 0.9501
-2.3187 7.3998 2.3874
-2.5830 7.3118 2.3874
-2.8440 7.2144 2.3874
-3.1013 7.1076 2.3874
-3.3546 6.9917 2.3874
-3.6035 6.8668 2.3874
-3.8479 6.7330 2.3874
-4.0873 6.5905 2.3874
-4.3214 6.4396 2.3874
-4.5500 6.2803 2.3874
-4.7727 6.1129 2.3874
-4.9892 5.9377 2.3874
-5.1994 5.7547 2.3874
-5.4028 5.5644 2.3874
-5.5993 5.3668 2.3874
-5.7885 5.1624 2.3874
-5.9703 4.9513 2.3874
-6.1444 4.7337 2.3874
-6.3106 4.5101 2.3874
-6.4687 4.2807 2.3874
-6.6185 4.0457 2.3874
-6.7597 3.8055 2.3874
-6.8922 3.5603 2.3874
-7.0158 3.3105 2.3874
-7.1304 3.0565 2.3874
-7.2357 2.7986 2.3874
-7.3318 2.5370 2.3874
-7.4184 2.2721 2.3874
-7.4954 2.0042 2.3874
-7.5628 1.7338 2.3874
-7.6205 1.4611 2.3874
-7.6683 1.1866 2.3874
-7.7062 0.9104 2.3874
-7.7342 0.6331 2.3874
-7.7522 0.3549 2.3874
-7.7602 0.0763 2.3874
-7.7582 -0.2025 2.3874
-7.7461 -0.4810 2.3874
-7.7241 -0.7589 2.3874
-7.6921 -1.0359 2.3874
-7.6502 -1.3115 2.3874
-7.5985 -1.5855 2.3874
-7.5369 -1.8574 2.3874
-7.4656 -2.1269 2.3874
-7.3846 -2.3938 2.3874
-7.2941 -2.6575 2.3874
-7.1942 -2.9178 2.3874
-7.0850 -3.1744 2.3874
-6.9667 -3.4269 2.3874
-6.8393 -3.6750 2.3874
-6.7032 -3.9184 2.3874
-6.5583 -4.1568 2.3874
-6.4050 -4.3897 2.3874
-6.2434 -4.6171 2.3874
-6.0738 -4.8384 2.3874
-5.8963 -5.0536 2.3874
-5.7112 -5.2622 2.3874
-5.5186 -5.4641 2.3874
-5.3190 -5.6589 2.3874
-5.1125 -5.8464 2.3874
-4.8994 -6.0264 2.3874
-4.6799 -6.1986 2.3874
-4.4544 -6.3629 2.3874
-4.2231 -6.5189 2.3874
-3.9864 -6.6665 2.3874
-3.7445 -6.8055 2.3874
-3.4978 -6.9357 2.3874
-3.2465 -7.0570 2.3874
-2.9910 -7.1692 2.3874
-2.7317 -7.2721 2.3874
-2.4688 -7.3656 2.3874
-2.2028 -7.4496 2.3874
-1.9338 -7.5241 2.3874
-1.6624 -7.5888 2.3874
-1.3889 -7.6436 2.3874
-1.1135 -7.6887 2.3874
-0.8367 -7.7238 2.3874
-0.5588 -7.7489 2.3874
-0.2801 -7.7641 2.3874
-0.0011 -7.7692 2.3874
0.2779 -7.7642 2.3874
0.5565 -7.7493 2.3874
0.8344 -7.7243 2.3874
1.1113 -7.6894 2.3874
1.3867 -7.6445 2.3874
1.6603 -7.5898 2.3874
1.9318 -7.5253 2.3874
2.2008 -7.4510 2.3874
2.4669 -7.3671 2.3874
2.7299 -7.2738 2.3874
2.9893 -7.1710 2.3874
3.2449 -7.0590 2.3874
3.4962 -6.9378 2.3874
3.7431 -6.8077 2.3874
3.9851 -6.6688 2.3874
4.2219 -6.5213 2.3874
4.4533 -6.3654 2.3874
4.6790 -6.2013 2.3874
4.8986 -6.0292 2.3874
5.1119 -5.8493 2.3874
5.3185 -5.6618 2.3874
5.5183 -5.4671 2.3874
5.7110 -5.2653 2.3874
5.8962 -5.0567 2.3874
6.0739 -4.8416 2.3874
6.2437 -4.6202 2.3874
6.4054 -4.3929 2.3874
6.5589 -4.1600 2.3874
6.7039 -3.9216 2.3874
6.8402 -3.6783 2.3874
6.9677 -3.4301 2.3874
7.0862 -3.1776 2.3874
7.1956 -2.9210 2.3874
7.2956 -2.6606 2.3874
7.3862 -2.3968 2.3874
7.4673 -2.1300 2.3874
7.5387 -1.8604 2.3874
7.6004 -1.5884 2.3874
7.6524 -1.3144 2.3874
7.6944 -1.0387 2.3874
7.7265 -0.7617 2.3874
7.7486 -0.4837 2.3874
7.7607 -0.2050 2.3874
7.7628 0.0737 2.3874
7.7549 0.3525 2.3874
7.7369 0.6308 2.3874
7.7090 0.9082 2.3874
7.6712 1.1844 2.3874
7.6235 1.4591 2.3874
7.5659 1.7319 2.3874
7.4985 2.0024 2.3874
7.4215 2.2703 2.3874
7.3350 2.5353 2.3874
7.2389 2.7970 2.3874
7.1336 3.0551 2.3874
7.0190 3.3092 2.3874
6.8954 3.5590 2.3874
6.7629 3.8043 2.3874
6.6217 4.0446 2.3874
6.4720 4.2796 2.3874
6.3139 4.5092 2.3874
6.1477 4.7329 2.3874
5.9736 4.9505 2.3874
5.7918 5.1617 2.3874
5.6025 5.3662 2.3874
5.4060 5.5638 2.3874
5.2025 5.7542 2.3874
4.9924 5.9372 2.3874
4.7758 6.1125 2.3874
4.5531 6.2799 2.3874
4.3245 6.4392 2.3874
4.0903 6.5903 2.3874
3.8509 6.7328 2.3874
3.6065 6.8666 2.3874
3.3575 6.9915 2.3874
3.1042 7.1075 2.3874
2.8469 7.2143 2.3874
2.5859 7.3117 2.3874
0.9229 2.9418 0.9491
0.8168 2.9734 0.9493
0.7096 3.0013 0.9494
0.6014 3.0252 0.9495
0.4924 3.0452 0.9496
0.3827 3.0612 0.9497
0.2726 3.0732 0.9498
0.1620 3.0812 0.9499
0.0513 3.0853 0.9500
-0.0596 3.0853 0.9500
-0.1704 3.0813 0.9501
-0.2809 3.0732 0.9501
-0.3911 3.0612 0.9501
-0.5008 3.0452 0.9501
-0.6099 3.0252 0.9501
-0.7181 3.0013 0.9501
-0.8254 2.9734 0.9500
-2.3413 7.3927 2.3874
-2.6053 7.3039 2.3874
-2.8660 7.2057 2.3874
-3.1229 7.0981 2.3874
-3.3759 6.9814 2.3874
-3.6245 6.8558 2.3874
-3.8684 6.7212 2.3874
-4.1074 6.5780 2.3874
-4.3411 6.4264 2.3874
-4.5691 6.2664 2.3874
-4.7913 6.0983 2.3874
-5.0073 5.9224 2.3874
-5.2169 5.7388 2.3874
-5.4198 5.5479 2.3874
-5.6156 5.3497 2.3874
-5.8043 5.1447 2.3874
-5.9854 4.9330 2.3874
-6.1589 4.7150 2.3874
-6.3244 4.4908 2.3874
-6.4818 4.2609 2.3874
-6.6308 4.0255 2.3874
-6.7713 3.7848 2.3874
-6.9030 3.5393 2.3874
-7.0259 3.2891 2.3874
-7.1397 3.0347 2.3874
-7.2443 2.7765 2.3874
-7.3395 2.5146 2.3874
-7.4253 2.2494 2.3874
-7.5016 1.9814 2.3874
-7.5681 1.7107 2.3874
-7.6249 1.4379 2.3874
-7.6719 1.1631 2.3874
-7.7089 0.8869 2.3874
-7.7361 0.6095 2.3874
-7.7532 0.3312 2.3874
-7.7604 0.0526 2.3874
-7.7575 -0.2262 2.3874
-7.7447 -0.5047 2.3874
-7.7218 -0.7825 2.3874
-7.6890 -1.0593 2.3874
-7.6462 -1.3349 2.3874
-7.5936 -1.6086 2.3874
-7.5312 -1.8804 2.3874
-7.4591 -2.1497 2.3874
-7.3773 -2.4163 2.3874
-7.2860 -2.6798 2.3874
-7.1853 -2.9398 2.3874
-7.0753 -3.1961 2.3874
-6.9562 -3.4482 2.3874
-6.8281 -3.6959 2.3874
-6.6912 -3.9389 2.3874
-6.5456 -4.1768 2.3874
-6.3916 -4.4093 2.3874
-6.2293 -4.6361 2.3874
-6.0590 -4.8570 2.3874
-5.8808 -5.0716 2.3874
-5.6951 -5.2797 2.3874
-5.5020 -5.4809 2.3874
-5.3017 -5.6751 2.3874
-5.0946 -5.8620 2.3874
-4.8810 -6.0414 2.3874
-4.6610 -6.2129 2.3874
-4.4350 -6.3764 2.3874
-4.2032 -6.5318 2.3874
-3.9660 -6.6786 2.3874
-3.7237 -6.8169 2.3874
-3.4766 -6.9464 2.3874
-3.2250 -7.0669 2.3874
-2.9691 -7.1783 2.3874
-2.7095 -7.2804 2.3874
-2.4464 -7.3731 2.3874
-2.1800 -7.4563 2.3874
-1.9109 -7.5299 2.3874
-1.6393 -7.5938 2.3874
-1.3655 -7.6479 2.3874
-1.0900 -7.6920 2.3874
-0.8131 -7.7263 2.3874
-0.5351 -7.7506 2.3874
-0.2564 -7.7649 2.3874
0.0226 -7.7691 2.3874
0.3015 -7.7633 2.3874
0.5801 -7.7475 2.3874
0.8580 -7.7217 2.3874
1.1347 -7.6860 2.3874
1.4100 -7.6403 2.3874
1.6835 -7.5847 2.3874
1.9547 -7.5193 2.3874
2.2235 -7.4442 2.3874
2.4894 -7.3596 2.3874
2.7521 -7.2654 2.3874
3.0112 -7.1618 2.3874
3.2664 -7.0490 2.3874
3.5174 -6.9271 2.3874
3.7638 -6.7963 2.3874
4.0054 -6.6566 2.3874
4.2418 -6.5084 2.3874
4.4728 -6.3518 2.3874
4.6979 -6.1870 2.3874
4.9170 -6.0142 2.3874
5.1297 -5.8337 2.3874
5.3358 -5.6456 2.3874
5.5350 -5.4502 2.3874
5.7270 -5.2478 2.3874
5.9116 -5.0388 2.3874
6.0887 -4.8230 2.3874
6.2578 -4.6011 2.3874
6.4188 -4.3733 2.3874
6.5715 -4.1399 2.3874
6.7158 -3.9012 2.3874
6.8514 -3.6574 2.3874
6.9781 -3.4089 2.3874
7.0958 -3.1560 2.3874
7.2044 -2.8990 2.3874
7.3036 -2.6384 2.3874
7.3935 -2.3744 2.3874
7.4737 -2.1072 2.3874
7.5444 -1.8374 2.3874
7.6052 -1.5652 2.3874
7.6563 -1.2910 2.3874
7.6975 -1.0152 2.3874
7.7287 -0.7381 2.3874
7.7500 -0.4600 2.3874
7.7612 -0.1814 2.3874
7.7625 0.0974 2.3874
7.7537 0.3762 2.3874
7.7350 0.6544 2.3874
7.7062 0.9317 2.3874
7.6675 1.2078 2.3874
7.6189 1.4823 2.3874
7.5605 1.7550 2.3874
7.4924 2.0252 2.3874
7.4145 2.2930 2.3874
7.3272 2.5577 2.3874
7.2303 2.8191 2.3874
7.1242 3.0768 2.3874
7.0089 3.3306 2.3874
6.8845 3.5801 2.3874
2.5053 -6.7378 2.3874
2.7456 -6.6434 2.3874
2.9824 -6.5405 2.3874
3.2153 -6.4291 2.3874
3.4441 -6.3095 2.3874
3.6684 -6.1817 2.3874
3.8880 -6.0459 2.3874
4.1025 -5.9023 2.3874
4.3117 -5.7510 2.3874
4.5154 -5.5924 2.3874
4.7133 -5.4266 2.3874
4.9050 -5.2537 2.3874
5.0904 -5.0741 2.3874
5.2693 -4.8879 2.3874
5.4413 -4.6955 2.3874
5.6063 -4.4969 2.3874
5.7640 -4.2926 2.3874
5.9143 -4.0828 2.3874
6.0570 -3.8677 2.3874
6.1919 -3.6474 2.3874
6.3187 -3.4228 2.3874
6.4373 -3.1936 2.3874
6.5477 -2.9602 2.3874
6.6496 -2.7231 2.3874
6.7429 -2.4825 2.3874
6.8276 -2.2387 2.3874
6.9033 -1.9920 2.3874
6.9702 -1.7427 2.3874
7.0281 -1.4912 2.3874
7.0769 -1.2378 2.3874
7.1166 -0.9829 2.3874
7.1471 -0.7266 2.3874
7.1684 -0.4695 2.3874
7.1804 -0.2117 2.3874
7.1831 0.0463 2.3874
7.1766 0.3042 2.3874
7.1608 0.5617 2.3874
7.1358 0.8185 2.3874
7.1016 1.0742 2.3874
7.0582 1.3285 2.3874
7.0057 1.5811 2.3874
6.9442 1.8316 2.3874
6.8737 2.0798 2.3874
6.7943 2.3252 2.3874
6.7062 2.5676 2.3874
6.6095 2.8067 2.3874
6.5042 3.0422 2.3874
6.3906 3.2737 2.3874
6.2687 3.5010 2.3874
6.1387 3.7238 2.3874
6.0008 3.9418 2.3874
5.8552 4.1546 2.3874
5.7021 4.3621 2.3874
5.5416 4.5640 2.3874
5.3739 4.7599 2.3874
5.1994 4.9497 2.3874
5.0181 5.1331 2.3874
4.8304 5.3099 2.3874
4.6364 5.4798 2.3874
4.4365 5.6427 2.3874
4.2309 5.7982 2.3874
4.0198 5.9463 2.3874
3.8036 6.0867 2.3874
3.5825 6.2193 2.3874
3.3567 6.3438 2.3874
3.1267 6.4601 2.3874
2.8926 6.5681 2.3874
2.6547 6.6677 2.3874
2.4135 6.7586 2.3874
0.8617 2.7177 0.9484
0.7637 2.7472 0.9486
0.6646 2.7732 0.9487
0.5646 2.7956 0.9488
0.4639 2.8144 0.9489
0.3626 2.8295 0.9490
0.2607 2.8409 0.9491
0.1585 2.8486 0.9492
0.0561 2.8527 0.9492
-0.0464 2.8530 0.9493
-0.1488 2.8496 0.9493
-0.2511 2.8425 0.9494
-0.3530 2.8316 0.9494
-0.4545 2.8171 0.9494
-0.5554 2.7990 0.9494
-0.6555 2.7772 0.9494
-0.7548 2.7517 0.9493
-0.8532 2.7227 0.9493
-2.3902 6.7661 2.3874
-2.6317 6.6759 2.3874
-2.8698 6.5771 2.3874
-3.1042 6.4699 2.3874
-3.3346 6.3543 2.3874
-3.5607 6.2305 2.3874
-3.7822 6.0986 2.3874
-3.9989 5.9589 2.3874
-4.2104 5.8115 2.3874
-4.4165 5.6566 2.3874
-4.6168 5.4944 2.3874
-4.8113 5.3252 2.3874
-4.9995 5.1490 2.3874
-5.1813 4.9662 2.3874
-5.3565 4.7770 2.3874
-5.5247 4.5816 2.3874
-5.6858 4.3804 2.3874
-5.8396 4.1734 2.3874
-5.9858 3.9611 2.3874
-6.1244 3.7436 2.3874
-6.2550 3.5213 2.3874
-6.3776 3.2945 2.3874
-6.4920 3.0634 2.3874
-6.5980 2.8283 2.3874
-6.6955 2.5896 2.3874
-6.7844 2.3475 2.3874
-6.8645 2.1024 2.3874
-6.9358 1.8546 2.3874
-6.9981 1.6043 2.3874
-7.0515 1.3520 2.3874
-7.0957 1.0979 2.3874
-7.1307 0.8424 2.3874
-7.1566 0.5857 2.3874
-7.1733 0.3283 2.3874
-7.1806 0.0705 2.3874
-7.1788 -0.1874 2.3874
-7.1676 -0.4451 2.3874
-7.1472 -0.7023 2.3874
-7.1176 -0.9586 2.3874
-7.0788 -1.2136 2.3874
-7.0309 -1.4671 2.3874
-6.9739 -1.7187 2.3874
-6.9079 -1.9681 2.3874
-6.8330 -2.2150 2.3874
-6.7493 -2.4590 2.3874
-6.6568 -2.6999 2.3874
-6.5557 -2.9373 2.3874
-6.4462 -3.1710 2.3874
-6.3284 -3.4005 2.3874
-6.2024 -3.6257 2.3874
-6.0683 -3.8462 2.3874
-5.9265 -4.0618 2.3874
-5.7769 -4.2721 2.3874
-5.6200 -4.4770 2.3874
-5.4557 -4.6761 2.3874
-5.2844 -4.8691 2.3874
-5.1063 -5.0559 2.3874
-4.9215 -5.2361 2.3874
-4.7305 -5.4096 2.3874
-4.5332 -5.5761 2.3874
-4.3302 -5.7355 2.3874
-4.1215 -5.8874 2.3874
-3.9075 -6.0318 2.3874
-3.6885 -6.1683 2.3874
-3.4646 -6.2969 2.3874
-3.2363 -6.4174 2.3874
-3.0038 -6.5296 2.3874
-2.7675 -6.6334 2.3874
-2.5275 -6.7286 2.3874
-2.2843 -6.8151 2.3874
-2.0381 -6.8929 2.3874
-1.7893 -6.9617 2.3874
-1.5382 -7.0216 2.3874
-1.2850 -7.0724 2.3874
-1.0303 -7.1140 2.3874
-0.7741 -7.1465 2.3874
-0.5170 -7.1698 2.3874
-0.2592 -7.1838 2.3874
-0.0010 -7.1885 2.3874
0.2571 -7.1839 2.3874
0.5149 -7.1701 2.3874
0.7721 -7.1470 2.3874
1.0282 -7.1147 2.3874
1.2830 -7.0731 2.3874
1.5362 -7.0225 2.3874
1.7874 -6.9628 2.3874
2.0363 -6.8941 2.3874
2.2825 -6.8165 2.3874
2.5258 -6.7301 2.3874
2.7659 -6.6350 2.3874
3.0023 -6.5314 2.3874
3.2349 -6.4193 2.3874
3.4633 -6.2989 2.3874
3.6872 -6.1704 2.3874
3.9064 -6.0340 2.3874
4.1205 -5.8897 2.3874
4.3293 -5.7379 2.3874
4.5325 -5.5786 2.3874
4.7298 -5.4122 2.3874
4.9210 -5.2387 2.3874
5.1059 -5.0585 2.3874
5.2841 -4.8718 2.3874
5.4556 -4.6788 2.3874
5.6200 -4.4798 2.3874
5.7771 -4.2750 2.3874
5.9268 -4.0647 2.3874
6.0688 -3.8491 2.3874
6.2029 -3.6287 2.3874
6.3291 -3.4034 2.3874
6.4471 -3.1739 2.3874
6.5567 -2.9402 2.3874
6.6579 -2.7028 2.3874
6.7505 -2.4619 2.3874
6.8343 -2.2178 2.3874
6.9094 -1.9709 2.3874
6.9755 -1.7215 2.3874
7.0326 -1.4698 2.3874
7.0807 -1.2162 2.3874
7.1196 -0.9611 2.3874
7.1492 -0.7048 2.3874
7.1697 -0.4476 2.3874
7.1810 -0.1898 2.3874
7.1829 0.0682 2.3874
7.1756 0.3261 2.3874
7.1590 0.5836 2.3874
7.1333 0.8403 2.3874
7.0982 1.0959 2.3874
7.0541 1.3500 2.3874
7.0008 1.6025 2.3874
6.9385 1.8528 2.3874
6.8673 2.1007 2.3874
6.7872 2.3459 2.3874
6.6984 2.5881 2.3874
6.6009 2.8269 2.3874
6.4949 3.0620 2.3874
6.3805 3.2932 2.3874
6.2579 3.5201 2.3874
6.1273 3.7425 2.3874
5.9888 3.9600 2.3874
5.8425 4.1725 2.3874
5.6887 4.3795 2.3874
5.5276 4.5808 2.3874
5.3594 4.7763 2.3874
5.1842 4.9655 2.3874
5.0024 5.1484 2.3874
4.8142 5.3246 2.3874
4.6197 5.4939 2.3874
4.4193 5.6562 2.3874
4.2132 5.8111 2.3874
4.0017 5.9585 2.3874
3.7850 6.0983 2.3874
3.5635 6.2302 2.3874
3.3373 6.3540 2.3874
3.1069 6.4696 2.3874
2.8725 6.5769 2.3874
2.6344 6.6757 2.3874
2.3929 6.7660 2.3874
0.8535 2.7203 0.9485
0.7553 2.7496 0.9486
0.6561 2.7753 0.9487
0.5561 2.7974 0.9488
0.4553 2.8158 0.9489
0.3539 2.8306 0.9490
0.2521 2.8417 0.9491
0.1498 2.8491 0.9492
0.0474 2.8528 0.9493
-0.0551 2.8528 0.9493
-0.1575 2.8491 0.9493
-0.2598 2.8417 0.9494
-0.3617 2.8305 0.9494
-0.4631 2.8157 0.9494
-0.5639 2.7973 0.9494
-0.6640 2.7751 0.9494
-0.7632 2.7494 0.9493
-0.8615 2.7201 0.9493
-2.4108 6.7588 2.3874
-2.6521 6.6679 2.3874
-2.8899 6.5683 2.3874
-3.1239 6.4604 2.3874
-3.3540 6.3441 2.3874
-3.5797 6.2196 2.3874
-3.8008 6.0870 2.3874
-4.0171 5.9467 2.3874
-4.2281 5.7986 2.3874
-4.4337 5.6431 2.3874
-4.6336 5.4803 2.3874
-4.8275 5.3105 2.3874
-5.0152 5.1337 2.3874
-5.1965 4.9504 2.3874
-5.3710 4.7606 2.3874
-5.5387 4.5648 2.3874
-5.6992 4.3630 2.3874
-5.8523 4.1556 2.3874
-5.9979 3.9428 2.3874
-6.1358 3.7249 2.3874
-6.2658 3.5022 2.3874
-6.3877 3.2750 2.3874
-6.5013 3.0436 2.3874
-6.6066 2.8082 2.3874
-6.7034 2.5691 2.3874
-6.7915 2.3268 2.3874
-6.8709 2.0814 2.3874
-6.9414 1.8334 2.3874
-7.0030 1.5830 2.3874
-7.0556 1.3305 2.3874
-7.0990 1.0762 2.3874
-7.1333 0.8206 2.3874
-7.1584 0.5639 2.3874
-7.1742 0.3064 2.3874
-7.1808 0.0486 2.3874
-7.1782 -0.2093 2.3874
-7.1663 -0.4670 2.3874
-7.1451 -0.7241 2.3874
-7.1147 -0.9803 2.3874
-7.0751 -1.2352 2.3874
-7.0264 -1.4885 2.3874
-6.9687 -1.7400 2.3874
-6.9019 -1.9892 2.3874
-6.8262 -2.2358 2.3874
-6.7417 -2.4796 2.3874
-6.6485 -2.7202 2.3874
-6.5468 -2.9573 2.3874
-6.4365 -3.1906 2.3874
-6.3180 -3.4198 2.3874
-6.1913 -3.6446 2.3874
-6.0566 -3.8648 2.3874
-5.9141 -4.0799 2.3874
-5.7639 -4.2898 2.3874
-5.6063 -4.4941 2.3874
-5.4414 -4.6927 2.3874
-5.2695 -4.8852 2.3874
-5.0908 -5.0714 2.3874
-4.9055 -5.2511 2.3874
-4.7139 -5.4240 2.3874
-4.5162 -5.5899 2.3874
-4.3127 -5.7487 2.3874
-4.1035 -5.9000 2.3874
-3.8891 -6.0437 2.3874
-3.6696 -6.1796 2.3874
-3.4454 -6.3075 2.3874
-3.2167 -6.4273 2.3874
-2.9839 -6.5388 2.3874
-2.7472 -6.6418 2.3874
-2.5070 -6.7363 2.3874
-2.2635 -6.8221 2.3874
-2.0171 -6.8991 2.3874
-1.7681 -6.9672 2.3874
-1.5167 -7.0262 2.3874
-1.2634 -7.0763 2.3874
-1.0085 -7.1171 2.3874
-0.7523 -7.1488 2.3874
-0.4951 -7.1713 2.3874
-0.2373 -7.1845 2.3874
0.0209 -7.1884 2.3874
0.2790 -7.1831 2.3874
0.5368 -7.1685 2.3874
0.7939 -7.1446 2.3874
1.0499 -7.1115 2.3874
1.3046 -7.0692 2.3874
1.5576 -7.0178 2.3874
1.8086 -6.9573 2.3874
2.0573 -6.8879 2.3874
2.3033 -6.8095 2.3874
2.5464 -6.7224 2.3874
2.7861 -6.6265 2.3874
3.0222 -6.5222 2.3874
3.2545 -6.4094 2.3874
3.4825 -6.2883 2.3874
3.7060 -6.1591 2.3874
3.9248 -6.0220 2.3874
4.1384 -5.8771 2.3874
4.3468 -5.7246 2.3874
4.5495 -5.5647 2.3874
4.7463 -5.3977 2.3874
4.9370 -5.2237 2.3874
5.1213 -5.0429 2.3874
5.2990 -4.8557 2.3874
5.4698 -4.6622 2.3874
5.6336 -4.4626 2.3874
5.7901 -4.2573 2.3874
5.9391 -4.0466 2.3874
6.0805 -3.8306 2.3874
6.2139 -3.6098 2.3874
6.3394 -3.3841 2.3874
6.4567 -3.1542 2.3874
6.5656 -2.9202 2.3874
6.6661 -2.6825 2.3874
6.7579 -2.4413 2.3874
6.8410 -2.1969 2.3874
6.9153 -1.9498 2.3874
6.9807 -1.7001 2.3874
7.0370 -1.4483 2.3874
7.0843 -1.1946 2.3874
7.1224 -0.9394 2.3874
7.1514 -0.6830 2.3874
7.1710 -0.4257 2.3874
7.1815 -0.1679 2.3874
7.1826 0.0901 2.3874
7.1746 0.3480 2.3874
7.1572 0.6054 2.3874
7.1306 0.8621 2.3874
7.0948 1.1175 2.3874
7.0499 1.3716 2.3874
6.9959 1.6238 2.3874
6.9328 1.8740 2.3874
6.8608 2.1217 2.3874
6.7800 2.3666 2.3874
6.6904 2.6085 2.3874
6.5922 2.8470 2.3874
6.4855 3.0818 2.3874
6.3704 3.3127 2.3874
2.3286 -6.2627 2.3874
2.5520 -6.1750 2.3874
2.7721 -6.0793 2.3874
2.9885 -5.9758 2.3874
3.2012 -5.8645 2.3874
3.4097 -5.7457 2.3874
3.6138 -5.6195 2.3874
3.8132 -5.4861 2.3874
4.0077 -5.3455 2.3874
4.1970 -5.1981 2.3874
4.3809 -5.0439 2.3874
4.5591 -4.8833 2.3874
4.7315 -4.7163 2.3874
4.8977 -4.5433 2.3874
5.0576 -4.3644 2.3874
5.2110 -4.1799 2.3874
5.3576 -3.9900 2.3874
5.4973 -3.7949 2.3874
5.6299 -3.5950 2.3874
5.7553 -3.3904 2.3874
5.8732 -3.1815 2.3874
5.9835 -2.9684 2.3874
6.0861 -2.7516 2.3874
6.1808 -2.5312 2.3874
6.2676 -2.3075 2.3874
6.3462 -2.0809 2.3874
6.4167 -1.8516 2.3874
6.4789 -1.6199 2.3874
6.5327 -1.3862 2.3874
6.5781 -1.1506 2.3874
6.6150 -0.9136 2.3874
6.6433 -0.6755 2.3874
6.6631 -0.4364 2.3874
6.6743 -0.1969 2.3874
6.6768 0.0430 2.3874
6.6708 0.2827 2.3874
6.6561 0.5221 2.3874
6.6329 0.7608 2.3874
6.6011 0.9985 2.3874
6.5608 1.2348 2.3874
6.5120 1.4696 2.3874
6.4548 1.7025 2.3874
6.3893 1.9332 2.3874
6.3156 2.1613 2.3874
6.2337 2.3867 2.3874
6.1438 2.6089 2.3874
6.0459 2.8278 2.3874
5.9403 3.0430 2.3874
5.8270 3.2543 2.3874
5.7062 3.4614 2.3874
5.5781 3.6640 2.3874
5.4427 3.8619 2.3874
5.3004 4.0547 2.3874
5.1512 4.2424 2.3874
4.9954 4.4245 2.3874
4.8331 4.6010 2.3874
4.6646 4.7715 2.3874
4.4902 4.9358 2.3874
4.3099 5.0938 2.3874
4.1240 5.2452 2.3874
3.9329 5.3898 2.3874
3.7367 5.5274 2.3874
3.5357 5.6580 2.3874
3.3302 5.7812 2.3874
3.1203 5.8969 2.3874
2.9065 6.0051 2.3874
2.6888 6.1055 2.3874
2.4678 6.1980 2.3874
0.8906 2.4940 0.9477
0.8006 2.5247 0.9479
0.7095 2.5522 0.9480
0.6174 2.5763 0.9481
0.5245 2.5971 0.9482
0.4310 2.6145 0.9483
0.3368 2.6285 0.9484
0.2422 2.6391 0.9485
0.1473 2.6463 0.9486
0.0521 2.6500 0.9486
-0.0431 2.6503 0.9487
-0.1383 2.6471 0.9487
-0.2332 2.6405 0.9487
-0.3279 2.6304 0.9487
-0.4222 2.6170 0.9487
-0.5159 2.6001 0.9487
-0.6090 2.5799 0.9487
-0.7012 2.5562 0.9487
-0.7926 2.5293 0.9487
-0.8828 2.4991 0.9486
-2.4464 6.2057 2.3874
-2.6677 6.1139 2.3874
-2.8856 6.0142 2.3874
-3.0997 5.9067 2.3874
-3.3099 5.7916 2.3874
-3.5159 5.6691 2.3874
-3.7172 5.5392 2.3874
-3.9138 5.4022 2.3874
-4.1054 5.2582 2.3874
-4.2917 5.1074 2.3874
-4.4724 4.9501 2.3874
-4.6474 4.7863 2.3874
-4.8164 4.6164 2.3874
-4.9792 4.4405 2.3874
-5.1356 4.2589 2.3874
-5.2853 4.0718 2.3874
-5.4282 3.8794 2.3874
-5.5642 3.6820 2.3874
-5.6930 3.4799 2.3874
-5.8144 3.2732 2.3874
-5.9284 3.0624 2.3874
-6.0347 2.8475 2.3874
-6.1332 2.6290 2.3874
-6.2238 2.4071 2.3874
-6.3064 2.1821 2.3874
-6.3809 1.9542 2.3874
-6.4472 1.7239 2.3874
-6.5051 1.4912 2.3874
-6.5546 1.2567 2.3874
-6.5957 1.0205 2.3874
-6.6283 0.7830 2.3874
-6.6523 0.5444 2.3874
-6.6678 0.3052 2.3874
-6.6747 0.0655 2.3874
-6.6729 -0.1743 2.3874
-6.6625 -0.4138 2.3874
-6.6436 -0.6528 2.3874
-6.6160 -0.8910 2.3874
-6.5800 -1.1281 2.3874
-6.5354 -1.3637 2.3874
-6.4824 -1.5976 2.3874
-6.4211 -1.8294 2.3874
-6.3514 -2.0589 2.3874
-6.2735 -2.2858 2.3874
-6.1876 -2.5097 2.3874
-6.0937 -2.7303 2.3874
-5.9918 -2.9475 2.3874
-5.8823 -3.1609 2.3874
-5.7651 -3.3702 2.3874
-5.6406 -3.5752 2.3874
-5.5087 -3.7755 2.3874
-5.3697 -3.9710 2.3874
-5.2238 -4.1614 2.3874
-5.0711 -4.3464 2.3874
-4.9118 -4.5259 2.3874
-4.7463 -4.6994 2.3874
-4.5745 -4.8670 2.3874
-4.3969 -5.0282 2.3874
-4.2136 -5.1830 2.3874
-4.0248 -5.3311 2.3874
-3.8309 -5.4723 2.3874
-3.6320 -5.6065 2.3874
-3.4284 -5.7334 2.3874
-3.2203 -5.8530 2.3874
-3.0081 -5.9649 2.3874
-2.7920 -6.0692 2.3874
-2.5723 -6.1657 2.3874
-2.3493 -6.2542 2.3874
-2.1232 -6.3346 2.3874
-1.8944 -6.4068 2.3874
-1.6631 -6.4708 2.3874
-1.4297 -6.5264 2.3874
-1.1944 -6.5737 2.3874
-0.9576 -6.6124 2.3874
-0.7195 -6.6425 2.3874
-0.4805 -6.6642 2.3874
-0.2409 -6.6772 2.3874
-0.0010 -6.6816 2.3874
0.2390 -6.6773 2.3874
0.4786 -6.6644 2.3874
0.7176 -6.6430 2.3874
0.9557 -6.6129 2.3874
1.1926 -6.5743 2.3874
1.4279 -6.5273 2.3874
1.6614 -6.4718 2.3874
1.8927 -6.4079 2.3874
2.1216 -6.3358 2.3874
2.3477 -6.2555 2.3874
2.5708 -6.1671 2.3874
2.7906 -6.0708 2.3874
3.0068 -5.9666 2.3874
3.2191 -5.8547 2.3874
3.4272 -5.7353 2.3874
3.6309 -5.6085 2.3874
3.8299 -5.4744 2.3874
4.0240 -5.3333 2.3874
4.2129 -5.1853 2.3874
4.3963 -5.0305 2.3874
4.5740 -4.8694 2.3874
4.7458 -4.7019 2.3874
4.9116 -4.5283 2.3874
5.0709 -4.3489 2.3874
5.2237 -4.1640 2.3874
5.3697 -3.9736 2.3874
5.5089 -3.7781 2.3874
5.6409 -3.5778 2.3874
5.7656 -3.3728 2.3874
5.8828 -3.1635 2.3874
5.9925 -2.9502 2.3874
6.0945 -2.7330 2.3874
6.1885 -2.5123 2.3874
6.2746 -2.2884 2.3874
6.3525 -2.0615 2.3874
6.4223 -1.8320 2.3874
6.4838 -1.6001 2.3874
6.5369 -1.3662 2.3874
6.5815 -1.1306 2.3874
6.6177 -0.8934 2.3874
6.6453 -0.6552 2.3874
6.6644 -0.4161 2.3874
6.6748 -0.1765 2.3874
6.6767 0.0633 2.3874
6.6699 0.3031 2.3874
6.6545 0.5424 2.3874
6.6305 0.7810 2.3874
6.5980 1.0186 2.3874
6.5570 1.2549 2.3874
6.5075 1.4895 2.3874
6.4496 1.7222 2.3874
6.3834 1.9526 2.3874
6.3090 2.1806 2.3874
6.2264 2.4057 2.3874
6.1358 2.6277 2.3874
6.0373 2.8462 2.3874
5.9310 3.0611 2.3874
5.8170 3.2721 2.3874
5.6956 3.4788 2.3874
5.5669 3.6810 2.3874
5.4309 3.8785 2.3874
5.2879 4.0709 2.3874
5.1382 4.2581 2.3874
4.9818 4.4398 2.3874
4.8190 4.6157 2.3874
4.6500 4.7857 2.3874
4.4750 4.9495 2.3874
4.2943 5.1069 2.3874
4.1080 5.2577 2.3874
3.9164 5.4017 2.3874
3.7198 5.5388 2.3874
3.5184 5.6687 2.3874
3.3125 5.7913 2.3874
3.1023 5.9064 2.3874
2.8881 6.0139 2.3874
2.6702 6.1137 2.3874
2.4488 6.2055 2.3874
0.8830 2.4968 0.9477
0.7929 2.5272 0.9479
0.7017 2.5544 0.9480
0.6096 2.5782 0.9481
0.5166 2.5987 0.9482
0.4230 2.6158 0.9483
0.3288 2.6295 0.9484
0.2341 2.6398 0.9485
0.1392 2.6467 0.9486
0.0440 2.6502 0.9486
-0.0512 2.6501 0.9487
-0.1463 2.6467 0.9487
-0.2413 2.6398 0.9487
-0.3360 2.6294 0.9487
-0.4302 2.6157 0.9487
-0.5239 2.5985 0.9487
-0.6168 2.5780 0.9487
-0.7090 2.5541 0.9487
-0.8003 2.5269 0.9487
-0.8905 2.4964 0.9486
-2.4653 6.1983 2.3874
-2.6863 6.1057 2.3874
-2.9039 6.0054 2.3874
-3.1178 5.8972 2.3874
-3.3276 5.7815 2.3874
-3.5332 5.6583 2.3874
-3.7341 5.5278 2.3874
-3.9303 5.3902 2.3874
-4.1215 5.2457 2.3874
-4.3073 5.0943 2.3874
-4.4875 4.9364 2.3874
-4.6620 4.7721 2.3874
-4.8305 4.6017 2.3874
-4.9927 4.4253 2.3874
-5.1485 4.2432 2.3874
-5.2977 4.0556 2.3874
-5.4401 3.8628 2.3874
-5.5754 3.6650 2.3874
-5.7036 3.4625 2.3874
-5.8244 3.2555 2.3874
-5.9377 3.0443 2.3874
-6.0434 2.8291 2.3874
-6.1412 2.6103 2.3874
-6.2312 2.3881 2.3874
-6.3131 2.1628 2.3874
-6.3869 1.9348 2.3874
-6.4524 1.7042 2.3874
-6.5096 1.4714 2.3874
-6.5585 1.2367 2.3874
-6.5988 1.0003 2.3874
-6.6307 0.7627 2.3874
-6.6540 0.5241 2.3874
-6.6687 0.2848 2.3874
-6.6748 0.0451 2.3874
-6.6724 -0.1946 2.3874
-6.6613 -0.4341 2.3874
-6.6416 -0.6731 2.3874
-6.6133 -0.9112 2.3874
-6.5765 -1.1482 2.3874
-6.5312 -1.3837 2.3874
-6.4775 -1.6174 2.3874
-6.4155 -1.8490 2.3874
-6.3451 -2.0783 2.3874
-6.2666 -2.3049 2.3874
-6.1799 -2.5286 2.3874
-6.0853 -2.7489 2.3874
-5.9828 -2.9658 2.3874
-5.8726 -3.1788 2.3874
-5.7548 -3.3878 2.3874
-5.6296 -3.5924 2.3874
-5.4971 -3.7923 2.3874
-5.3575 -3.9874 2.3874
-5.2110 -4.1773 2.3874
-5.0578 -4.3619 2.3874
-4.8980 -4.5408 2.3874
-4.7319 -4.7139 2.3874
-4.5597 -4.8809 2.3874
-4.3816 -5.0416 2.3874
-4.1978 -5.1959 2.3874
-4.0086 -5.3434 2.3874
-3.8142 -5.4840 2.3874
-3.6148 -5.6176 2.3874
-3.4109 -5.7439 2.3874
-3.2025 -5.8628 2.3874
-2.9899 -5.9741 2.3874
-2.7735 -6.0777 2.3874
-2.5535 -6.1735 2.3874
-2.3302 -6.2613 2.3874
-2.1039 -6.3410 2.3874
-1.8748 -6.4126 2.3874
-1.6434 -6.4759 2.3874
-1.4098 -6.5308 2.3874
-1.1743 -6.5773 2.3874
-0.9374 -6.6153 2.3874
-0.6992 -6.6447 2.3874
-0.4602 -6.6656 2.3874
-0.2205 -6.6779 2.3874
0.0194 -6.6815 2.3874
0.2594 -6.6766 2.3874
0.4989 -6.6630 2.3874
0.7379 -6.6408 2.3874
0.9759 -6.6100 2.3874
1.2126 -6.5707 2.3874
1.4478 -6.5229 2.3874
1.6811 -6.4667 2.3874
1.9122 -6.4021 2.3874
2.1409 -6.3293 2.3874
2.3668 -6.2483 2.3874
2.5896 -6.1593 2.3874
2.8091 -6.0622 2.3874
3.0250 -5.9574 2.3874
3.2369 -5.8449 2.3874
3.4447 -5.7248 2.3874
3.6480 -5.5974 2.3874
3.8466 -5.4627 2.3874
4.0402 -5.3210 2.3874
4.2286 -5.1724 2.3874
4.4116 -5.0171 2.3874
4.5888 -4.8554 2.3874
4.7602 -4.6874 2.3874
4.9253 -4.5133 2.3874
5.0841 -4.3334 2.3874
5.2364 -4.1480 2.3874
5.3818 -3.9572 2.3874
5.5204 -3.7613 2.3874
5.6517 -3.5605 2.3874
5.7758 -3.3552 2.3874
5.8925 -3.1456 2.3874
6.0015 -2.9319 2.3874
6.1027 -2.7144 2.3874
6.1961 -2.4934 2.3874
6.2815 -2.2692 2.3874
6.3588 -2.0421 2.3874
6.4279 -1.8124 2.3874
6.4886 -1.5803 2.3874
6.5410 -1.3463 2.3874
6.5849 -1.1105 2.3874
6.6204 -0.8732 2.3874
6.6473 -0.6349 2.3874
6.6656 -0.3958 2.3874
6.6753 -0.1561 2.3874
6.6764 0.0837 2.3874
6.6689 0.3234 2.3874
6.6528 0.5627 2.3874
6.6281 0.8012 2.3874
6.5948 1.0387 2.3874
6.5531 1.2749 2.3874
6.5029 1.5093 2.3874
6.4443 1.7419 2.3874
6.3774 1.9721 2.3874
6.3022 2.1998 2.3874
6.2190 2.4247 2.3874
6.1277 2.6464 2.3874
6.0285 2.8647 2.3874
5.9216 3.0792 2.3874
2.1729 -5.8439 2.3874
2.3813 -5.7620 2.3874
2.5867 -5.6728 2.3874
2.7887 -5.5762 2.3874
2.9871 -5.4724 2.3874
3.1817 -5.3615 2.3874
3.3721 -5.2438 2.3874
3.5582 -5.1192 2.3874
3.7397 -4.9881 2.3874
3.9164 -4.8505 2.3874
4.0880 -4.7067 2.3874
4.2543 -4.5568 2.3874
4.4151 -4.4010 2.3874
4.5702 -4.2396 2.3874
4.7194 -4.0726 2.3874
4.8625 -3.9004 2.3874
4.9994 -3.7232 2.3874
5.1298 -3.5412 2.3874
5.2535 -3.3547 2.3874
5.3705 -3.1638 2.3874
5.4805 -2.9688 2.3874
5.5835 -2.7700 2.3874
5.6792 -2.5676 2.3874
5.7676 -2.3620 2.3874
5.8486 -2.1533 2.3874
5.9220 -1.9418 2.3874
5.9877 -1.7279 2.3874
6.0458 -1.5117 2.3874
6.0960 -1.2935 2.3874
6.1384 -1.0738 2.3874
6.1728 -0.8526 2.3874
6.1993 -0.6304 2.3874
6.2177 -0.4073 2.3874
6.2282 -0.1837 2.3874
6.2306 0.0400 2.3874
6.2249 0.2638 2.3874
6.2113 0.4872 2.3874
6.1896 0.7099 2.3874
6.1599 0.9317 2.3874
6.1223 1.1523 2.3874
6.0768 1.3714 2.3874
6.0235 1.5887 2.3874
5.9624 1.8039 2.3874
5.8936 2.0168 2.3874
5.8172 2.2271 2.3874
5.7333 2.4346 2.3874
5.6420 2.6388 2.3874
5.5434 2.8397 2.3874
5.4377 3.0368 2.3874
5.3250 3.2301 2.3874
5.2054 3.4192 2.3874
5.0791 3.6038 2.3874
4.9463 3.7838 2.3874
4.8071 3.9589 2.3874
4.6616 4.1289 2.3874
4.5102 4.2936 2.3874
4.3530 4.4527 2.3874
4.1902 4.6060 2.3874
4.0220 4.7535 2.3874
3.8486 4.8947 2.3874
3.6702 5.0297 2.3874
3.4871 5.1582 2.3874
3.2995 5.2800 2.3874
3.1077 5.3950 2.3874
2.9119 5.5030 2.3874
2.7123 5.6040 2.3874
2.5092 5.6977 2.3874
0.9136 2.2946 0.9471
0.8307 2.3262 0.9472
0.7467 2.3548 0.9474
0.6617 2.3804 0.9475
0.5759 2.4029 0.9476
0.4892 2.4223 0.9477
0.4020 2.4385 0.9478
0.3141 2.4516 0.9479
0.2259 2.4614 0.9480
0.1374 2.4681 0.9480
0.0486 2.4716 0.9481
-0.0402 2.4718 0.9481
-0.1289 2.4689 0.9481
-0.2175 2.4627 0.9482
-0.3059 2.4533 0.9482
-0.3938 2.4407 0.9482
-0.4812 2.4250 0.9482
-0.5680 2.4061 0.9482
-0.6540 2.3841 0.9481
-0.7392 2.3590 0.9481
-0.8234 2.3308 0.9481
-0.9065 2.2996 0.9480
-2.4895 5.7055 2.3874
-2.6928 5.6125 2.3874
-2.8927 5.5122 2.3874
-3.0889 5.4048 2.3874
-3.2810 5.2904 2.3874
-3.4690 5.1692 2.3874
-3.6524 5.0413 2.3874
-3.8312 4.9070 2.3874
-4.0050 4.7663 2.3874
-4.1737 4.6194 2.3874
-4.3370 4.4666 2.3874
-4.4947 4.3080 2.3874
-4.6466 4.1439 2.3874
-4.7925 3.9744 2.3874
-4.9323 3.7998 2.3874
-5.0657 3.6202 2.3874
-5.1925 3.4360 2.3874
-5.3127 3.2474 2.3874
-5.4260 3.0545 2.3874
-5.5323 2.8578 2.3874
-5.6315 2.6573 2.3874
-5.7235 2.4534 2.3874
-5.8080 2.2463 2.3874
-5.8851 2.0363 2.3874
-5.9546 1.8236 2.3874
-6.0164 1.6086 2.3874
-6.0705 1.3916 2.3874
-6.1167 1.1727 2.3874
-6.1550 0.9523 2.3874
-6.1854 0.7306 2.3874
-6.2078 0.5080 2.3874
-6.2223 0.2847 2.3874
-6.2286 0.0611 2.3874
-6.2270 -0.1627 2.3874
-6.2173 -0.3862 2.3874
-6.1996 -0.6093 2.3874
-6.1739 -0.8315 2.3874
-6.1402 -1.0528 2.3874
-6.0986 -1.2726 2.3874
-6.0492 -1.4909 2.3874
-5.9919 -1.7072 2.3874
-5.9269 -1.9214 2.3874
-5.8542 -2.1330 2.3874
-5.7740 -2.3420 2.3874
-5.6863 -2.5479 2.3874
-5.5913 -2.7505 2.3874
-5.4891 -2.9496 2.3874
-5.3797 -3.1450 2.3874
-5.2635 -3.3362 2.3874
-5.1404 -3.5232 2.3874
-5.0107 -3.7056 2.3874
-4.8745 -3.8832 2.3874
-4.7320 -4.0559 2.3874
-4.5834 -4.2233 2.3874
-4.4289 -4.3853 2.3874
-4.2687 -4.5416 2.3874
-4.1029 -4.6921 2.3874
-3.9319 -4.8365 2.3874
-3.7557 -4.9747 2.3874
-3.5747 -5.1065 2.3874
-3.3891 -5.2317 2.3874
-3.1991 -5.3501 2.3874
-3.0050 -5.4616 2.3874
-2.8070 -5.5661 2.3874
-2.6053 -5.6634 2.3874
-2.4003 -5.7534 2.3874
-2.1922 -5.8360 2.3874
-1.9812 -5.9110 2.3874
-1.7677 -5.9784 2.3874
-1.5519 -6.0381 2.3874
-1.3341 -6.0900 2.3874
-1.1145 -6.1341 2.3874
-0.8935 -6.1702 2.3874
-0.6714 -6.1984 2.3874
-0.4484 -6.2185 2.3874
-0.2248 -6.2307 2.3874
-0.0009 -6.2348 2.3874
0.2230 -6.2308 2.3874
0.4466 -6.2188 2.3874
0.6696 -6.1988 2.3874
0.8918 -6.1707 2.3874
1.1128 -6.1347 2.3874
1.3324 -6.0908 2.3874
1.5502 -6.0390 2.3874
1.7661 -5.9794 2.3874
1.9797 -5.9121 2.3874
2.1907 -5.8372 2.3874
2.3989 -5.7547 2.3874
2.6040 -5.6648 2.3874
2.8057 -5.5676 2.3874
3.0038 -5.4632 2.3874
3.1980 -5.3518 2.3874
3.3881 -5.2335 2.3874
3.5738 -5.1084 2.3874
3.7549 -4.9767 2.3874
3.9311 -4.8385 2.3874
4.1023 -4.6942 2.3874
4.2682 -4.5438 2.3874
4.4285 -4.3875 2.3874
4.5831 -4.2256 2.3874
4.7318 -4.0582 2.3874
4.8744 -3.8856 2.3874
5.0107 -3.7080 2.3874
5.1405 -3.5256 2.3874
5.2637 -3.3386 2.3874
5.3801 -3.1474 2.3874
5.4895 -2.9521 2.3874
5.5919 -2.7530 2.3874
5.6870 -2.5503 2.3874
5.7748 -2.3444 2.3874
5.8551 -2.1354 2.3874
5.9279 -1.9237 2.3874
5.9930 -1.7096 2.3874
6.0503 -1.4932 2.3874
6.0999 -1.2749 2.3874
6.1416 -1.0550 2.3874
6.1753 -0.8338 2.3874
6.2011 -0.6114 2.3874
6.2189 -0.3883 2.3874
6.2287 -0.1647 2.3874
6.2304 0.0591 2.3874
6.2241 0.2828 2.3874
6.2097 0.5061 2.3874
6.1874 0.7288 2.3874
6.1570 0.9505 2.3874
6.1188 1.1710 2.3874
6.0726 1.3899 2.3874
6.0186 1.6071 2.3874
5.9568 1.8221 2.3874
5.8873 2.0348 2.3874
5.8103 2.2449 2.3874
5.7258 2.4520 2.3874
5.6339 2.6560 2.3874
5.5347 2.8566 2.3874
5.4284 3.0534 2.3874
5.3151 3.2463 2.3874
5.1949 3.4350 2.3874
5.0681 3.6193 2.3874
4.9347 3.7989 2.3874
4.7949 3.9736 2.3874
4.6490 4.1431 2.3874
4.4971 4.3073 2.3874
4.3394 4.4659 2.3874
4.1761 4.6188 2.3874
4.0074 4.7657 2.3874
3.8336 4.9065 2.3874
3.6548 5.0409 2.3874
3.4714 5.1688 2.3874
3.2834 5.2900 2.3874
3.0912 5.4044 2.3874
2.8951 5.5119 2.3874
2.6952 5.6122 2.3874
2.4919 5.7053 2.3874
0.9066 2.2974 0.9471
0.8236 2.3288 0.9473
0.7395 2.3571 0.9474
0.6545 2.3824 0.9475
0.5685 2.4047 0.9476
0.4818 2.4238 0.9477
0.3945 2.4397 0.9478
0.3067 2.4525 0.9479
0.2184 2.4621 0.9480
0.1298 2.4685 0.9480
0.0411 2.4717 0.9481
-0.0477 2.4717 0.9481
-0.1365 2.4685 0.9481
-0.2251 2.4620 0.9482
-0.3133 2.4524 0.9482
-0.4012 2.4395 0.9482
-0.4886 2.4235 0.9482
-0.5753 2.4044 0.9482
-0.6613 2.3821 0.9481
-0.7464 2.3567 0.9481
-0.8305 2.3283 0.9480
-2.3006 5.7843 2.3874
-2.5069 5.6979 2.3874
-2.7100 5.6042 2.3874
-2.9095 5.5033 2.3874
-3.1054 5.3953 2.3874
-3.2972 5.2804 2.3874
-3.4847 5.1586 2.3874
-3.6678 5.0302 2.3874
-3.8462 4.8953 2.3874
-4.0196 4.7540 2.3874
-4.1878 4.6067 2.3874
-4.3506 4.4533 2.3874
-4.5078 4.2943 2.3874
-4.6592 4.1297 2.3874
-4.8046 3.9597 2.3874
-4.9438 3.7847 2.3874
-5.0767 3.6048 2.3874
-5.2030 3.4202 2.3874
-5.3226 3.2312 2.3874
-5.4353 3.0380 2.3874
-5.5410 2.8409 2.3874
-5.6396 2.6401 2.3874
-5.7309 2.4359 2.3874
-5.8149 2.2285 2.3874
-5.8913 2.0183 2.3874
-5.9602 1.8055 2.3874
-6.0213 1.5903 2.3874
-6.0747 1.3730 2.3874
-6.1203 1.1540 2.3874
-6.1579 0.9335 2.3874
-6.1876 0.7117 2.3874
-6.2094 0.4891 2.3874
-6.2231 0.2657 2.3874
-6.2288 0.0421 2.3874
-6.2265 -0.1817 2.3874
-6.2161 -0.4052 2.3874
-6.1977 -0.6282 2.3874
-6.1713 -0.8504 2.3874
-6.1370 -1.0715 2.3874
-6.0947 -1.2912 2.3874
-6.0446 -1.5093 2.3874
-5.9867 -1.7255 2.3874
-5.9210 -1.9394 2.3874
-5.8477 -2.1509 2.3874
-5.7668 -2.3596 2.3874
-5.6785 -2.5652 2.3874
-5.5829 -2.7676 2.3874
-5.4801 -2.9664 2.3874
-5.3701 -3.1613 2.3874
-5.2533 -3.3523 2.3874
-5.1296 -3.5388 2.3874
-4.9994 -3.7209 2.3874
-4.8627 -3.8981 2.3874
-4.7196 -4.0703 2.3874
-4.5705 -4.2373 2.3874
-4.4155 -4.3988 2.3874
-4.2548 -4.5546 2.3874
-4.0886 -4.7046 2.3874
-3.9171 -4.8485 2.3874
-3.7405 -4.9862 2.3874
-3.5591 -5.1174 2.3874
-3.3731 -5.2420 2.3874
-3.1828 -5.3598 2.3874
-2.9883 -5.4708 2.3874
-2.7900 -5.5747 2.3874
-2.5880 -5.6713 2.3874
-2.3827 -5.7607 2.3874
-2.1743 -5.8427 2.3874
-1.9632 -5.9171 2.3874
-1.7494 -5.9838 2.3874
-1.5335 -6.0428 2.3874
-1.3155 -6.0941 2.3874
-1.0958 -6.1375 2.3874
-0.8747 -6.1729 2.3874
-0.6525 -6.2004 2.3874
-0.4294 -6.2199 2.3874
-0.2058 -6.2313 2.3874
0.0181 -6.2347 2.3874
0.2420 -6.2301 2.3874
0.4656 -6.2174 2.3874
0.6886 -6.1967 2.3874
0.9106 -6.1680 2.3874
1.1315 -6.1313 2.3874
1.3510 -6.0867 2.3874
1.5687 -6.0342 2.3874
1.7843 -5.9740 2.3874
1.9977 -5.9061 2.3874
2.2085 -5.8305 2.3874
2.4164 -5.7474 2.3874
2.6212 -5.6569 2.3874
2.8227 -5.5590 2.3874
3.0205 -5.4541 2.3874
3.2143 -5.3420 2.3874
3.4041 -5.2231 2.3874
3.5894 -5.0974 2.3874
3.7701 -4.9652 2.3874
3.9459 -4.8265 2.3874
4.1166 -4.6816 2.3874
4.2820 -4.5307 2.3874
4.4419 -4.3740 2.3874
4.5960 -4.2116 2.3874
4.7442 -4.0437 2.3874
4.8863 -3.8707 2.3874
5.0220 -3.6926 2.3874
5.1513 -3.5098 2.3874
5.2739 -3.3225 2.3874
5.3897 -3.1309 2.3874
5.4985 -2.9353 2.3874
5.6002 -2.7359 2.3874
5.6947 -2.5329 2.3874
5.7819 -2.3267 2.3874
5.8616 -2.1175 2.3874
5.9337 -1.9056 2.3874
5.9982 -1.6913 2.3874
6.0548 -1.4747 2.3874
6.1038 -1.2563 2.3874
