ply
format ascii 1.0
element vertex 2191
property float32 x
property float32 y
property float32 z
end_header
5.5105 7.0719 2.2409
5.2795 7.3058 2.2409
5.0401 7.5340 2.2409
4.7924 7.7563 2.2409
4.5365 7.9724 2.2408
4.2722 8.1820 2.2408
3.9998 8.3848 2.2408
3.7193 8.5805 2.2407
3.4309 8.7688 2.2407
3.1344 8.9495 2.2407
2.8302 9.1222 2.2406
7.0202 -6.6796 2.3653
7.2131 -6.3829 2.3653
7.3957 -6.0825 2.3654
7.5682 -5.7786 2.3655
7.7304 -5.4715 2.3656
7.8824 -5.1616 2.3657
8.0243 -4.8489 2.3658
8.1562 -4.5339 2.3659
8.2780 -4.2167 2.3660
8.3898 -3.8976 2.3661
8.4917 -3.5768 2.3662
8.5836 -3.2545 2.3663
8.6845 -2.9373 2.3716
8.7682 -2.6153 2.3747
8.4889 -2.2001 2.2829
8.3609 -1.8460 2.2351
8.4072 -1.5386 2.2367
8.4456 -1.2307 2.2386
8.4721 -0.9219 2.2398
8.4884 -0.6129 2.2406
8.4926 -0.3038 2.2406
8.4877 0.0048 2.2406
8.4739 0.3127 2.2406
8.4523 0.6199 2.2409
8.4208 0.9261 2.2410
8.3804 1.2312 2.2410
8.3311 1.5349 2.2410
8.2728 1.8372 2.2410
8.2019 2.1368 2.2399
8.1228 2.4344 2.2389
8.0357 2.7300 2.2382
7.9405 3.0235 2.2376
7.8372 3.3148 2.2371
7.7259 3.6037 2.2369
7.6065 3.8902 2.2368
7.4791 4.1741 2.2368
7.3435 4.4553 2.2371
7.1999 4.7338 2.2375
7.0481 5.0093 2.2381
6.8882 5.2817 2.2388
6.7201 5.5509 2.2398
6.5438 5.8168 2.2409
6.3571 6.0771 2.2414
6.1598 6.3311 2.2413
5.9540 6.5803 2.2411
5.7400 6.8247 2.2410
5.5177 7.0643 2.2409
5.2870 7.2984 2.2409
5.0479 7.5268 2.2409
4.8005 7.7493 2.2409
4.5448 7.9656 2.2408
4.2808 8.1754 2.2408
4.0087 8.3784 2.2408
3.7284 8.5744 2.2407
3.4402 8.7629 2.2407
3.1440 8.9438 2.2407
2.8401 9.1168 2.2406
3.8731 7.4562 2.2407
3.6228 7.6365 2.2407
3.3653 7.8100 2.2406
3.1416 8.0818 2.2702
2.9506 8.4847 2.3367
2.7245 8.8511 2.3930
2.4202 9.0045 2.3930
2.1088 9.1492 2.3930
1.7907 9.2848 2.3930
1.4660 9.4110 2.3930
1.1348 9.5275 2.3930
0.7975 9.6339 2.3930
2.9241 -9.2570 2.3654
3.2298 -9.0758 2.3654
3.5269 -8.8860 2.3654
3.8154 -8.6882 2.3654
4.0952 -8.4826 2.3654
4.3661 -8.2697 2.3654
4.6281 -8.0498 2.3654
4.8810 -7.8234 2.3654
5.1248 -7.5906 2.3655
5.3594 -7.3519 2.3655
5.5848 -7.1076 2.3655
5.8010 -6.8581 2.3656
6.0078 -6.6036 2.3656
6.2054 -6.3444 2.3657
6.3936 -6.0809 2.3657
6.5725 -5.8133 2.3658
6.7421 -5.5419 2.3659
6.9023 -5.2670 2.3659
7.0532 -4.9888 2.3660
7.1948 -4.7077 2.3661
7.3272 -4.4238 2.3662
7.4502 -4.1373 2.3663
7.5641 -3.8487 2.3664
7.6685 -3.5580 2.3665
7.7847 -3.2741 2.3729
7.8833 -2.9838 2.3766
7.9644 -2.6883 2.3778
8.0617 -2.3989 2.3865
8.1255 -2.0999 2.3879
7.8635 -1.7301 2.2968
7.7090 -1.4047 2.2405
7.7392 -1.1213 2.2406
7.7605 -0.8378 2.2406
7.7733 -0.5543 2.2406
7.7777 -0.2709 2.2406
7.7737 0.0120 2.2406
7.7619 0.2944 2.2408
7.7413 0.5761 2.2408
7.7124 0.8569 2.2408
7.6751 1.1367 2.2409
7.6296 1.4152 2.2409
7.5758 1.6923 2.2409
7.5138 1.9679 2.2409
7.4436 2.2417 2.2409
7.3653 2.5136 2.2409
7.2788 2.7834 2.2409
7.1842 3.0510 2.2409
7.0815 3.3161 2.2409
6.9707 3.5786 2.2409
6.8518 3.8383 2.2409
6.7249 4.0950 2.2409
6.5901 4.3486 2.2409
6.4472 4.5988 2.2409
6.2964 4.8454 2.2409
6.1377 5.0883 2.2409
5.9711 5.3272 2.2409
5.7966 5.5619 2.2409
5.6144 5.7923 2.2409
5.4243 6.0180 2.2408
5.2266 6.2390 2.2408
5.0212 6.4549 2.2408
4.8081 6.6655 2.2408
4.5875 6.8706 2.2408
4.3594 7.0699 2.2407
4.1239 7.2632 2.2407
3.8810 7.4503 2.2407
3.6309 7.6308 2.2407
3.3736 7.8046 2.2406
3.1475 8.0694 2.2682
2.9569 8.4714 2.3345
2.7341 8.8460 2.3930
2.4300 8.9997 2.3930
2.1189 9.1447 2.3930
1.8010 9.2806 2.3930
1.4765 9.4071 2.3930
1.1455 9.5239 2.3930
0.8083 9.6306 2.3930
2.9142 -9.2627 2.3654
3.2201 -9.0817 2.3654
3.5175 -8.8922 2.3654
3.8063 -8.6946 2.3654
4.0864 -8.4893 2.3654
4.3576 -8.2766 2.3654
4.6199 -8.0570 2.3654
4.8731 -7.8307 2.3654
5.1172 -7.5981 2.3655
5.3521 -7.3596 2.3655
5.5778 -7.1155 2.3655
5.7942 -6.8661 2.3656
6.0014 -6.6118 2.3656
6.1992 -6.3528 2.3657
6.3877 -6.0894 2.3657
6.5669 -5.8219 2.3658
6.7368 -5.5506 2.3659
6.8973 -5.2758 2.3659
7.0486 -4.9978 2.3660
7.1905 -4.7167 2.3661
7.3231 -4.4329 2.3662
7.4464 -4.1465 2.3663
7.5606 -3.8579 2.3664
7.6654 -3.5673 2.3665
7.7811 -3.2832 2.3727
7.8806 -2.9932 2.3766
7.9619 -2.6978 2.3778
8.0595 -2.4084 2.3865
8.1236 -2.1095 2.3879
7.8752 -1.7423 2.3007
7.7078 -1.4137 2.2405
7.7384 -1.1304 2.2406
7.7599 -0.8468 2.2406
7.7730 -0.5633 2.2406
7.7777 -0.2800 2.2406
7.7740 0.0030 2.2406
7.7624 0.2854 2.2408
7.7421 0.5671 2.2408
7.7134 0.8479 2.2408
7.6764 1.1277 2.2409
7.6312 1.4063 2.2409
7.5777 1.6835 2.2409
7.5159 1.9591 2.2409
7.4460 2.2330 2.2409
7.3679 2.5049 2.2409
7.2817 2.7748 2.2409
7.1873 3.0424 2.2409
7.0849 3.3076 2.2409
6.9743 3.5702 2.2409
6.8557 3.8300 2.2409
6.7291 4.0869 2.2409
6.5945 4.3405 2.2409
6.4519 4.5908 2.2409
6.3013 4.8376 2.2409
6.1429 5.0806 2.2409
5.9765 5.3196 2.2409
5.8023 5.5545 2.2409
5.6203 5.7850 2.2409
5.4305 6.0109 2.2408
5.2330 6.2320 2.2408
5.0278 6.4481 2.2408
4.8150 6.6589 2.2408
4.5947 6.8641 2.2408
4.3668 7.0637 2.2407
4.1315 7.2572 2.2407
3.8889 7.4444 2.2407
3.6390 7.6252 2.2407
3.3819 7.7992 2.2406
3.1533 8.0572 2.2662
2.9632 8.4581 2.3323
2.7437 8.8410 2.3930
2.4398 8.9950 2.3930
2.1290 9.1401 2.3930
1.8113 9.2764 2.3930
1.4869 9.4032 2.3930
1.1562 9.5203 2.3930
0.8192 9.6274 2.3930
3.6204 6.9865 2.2893
3.4631 7.3190 2.3427
3.2839 7.6427 2.3930
3.0234 7.8019 2.3930
2.7564 7.9536 2.3930
2.4829 8.0975 2.3930
2.2032 8.2334 2.3930
0.8147 3.5530 1.0169
0.6867 3.5822 1.0109
0.5576 3.6067 1.0047
0.4277 3.6265 0.9985
0.2971 3.6417 0.9922
0.1661 3.6520 0.9858
0.0348 3.6577 0.9794
-0.0966 3.6585 0.9729
-0.2280 3.6547 0.9664
-0.3591 3.6460 0.9599
-0.4899 3.6326 0.9533
-0.6201 3.6145 0.9467
-0.7495 3.5916 0.9401
-0.8781 3.5641 0.9334
-2.5961 9.1192 2.3930
-2.9429 9.0889 2.3930
-3.2909 9.0460 2.3930
-3.6395 8.9902 2.3930
-1.2069 -9.5940 2.3666
-0.8568 -9.5583 2.3665
-0.5107 -9.5103 2.3664
-0.1690 -9.4505 2.3663
0.1680 -9.3790 2.3662
0.4998 -9.2964 2.3662
0.8261 -9.2028 2.3661
1.1466 -9.0988 2.3661
1.4610 -8.9845 2.3660
1.7691 -8.8605 2.3660
2.0706 -8.7270 2.3659
2.3652 -8.5844 2.3659
2.6528 -8.4330 2.3659
2.9331 -8.2732 2.3659
3.2061 -8.1054 2.3659
3.4714 -7.9299 2.3658
3.7291 -7.7469 2.3658
3.9788 -7.5570 2.3659
4.2207 -7.3603 2.3659
4.4544 -7.1573 2.3659
4.6800 -6.9481 2.3659
4.8974 -6.7332 2.3659
5.1064 -6.5129 2.3660
5.3071 -6.2874 2.3660
5.4994 -6.0570 2.3660
5.6832 -5.8220 2.3661
5.8586 -5.5827 2.3661
6.0254 -5.3393 2.3662
6.1836 -5.0922 2.3663
6.3334 -4.8416 2.3663
6.4745 -4.5877 2.3664
6.6071 -4.3307 2.3665
6.7311 -4.0710 2.3665
6.8540 -3.8129 2.3692
6.9765 -3.5559 2.3745
7.0818 -3.2914 2.3769
7.1748 -3.0230 2.3779
7.2594 -2.7526 2.3790
7.3466 -2.4843 2.3836
7.4313 -2.2155 2.3901
7.4941 -1.9405 2.3923
7.5432 -1.6631 2.3928
7.4966 -1.3690 2.3658
7.2695 -1.0559 2.2849
7.1491 -0.7740 2.2406
7.1618 -0.5126 2.2406
7.1666 -0.2513 2.2406
7.1636 0.0098 2.2407
7.1527 0.2703 2.2407
7.1340 0.5303 2.2407
7.1075 0.7894 2.2407
7.0732 1.0475 2.2408
7.0311 1.3045 2.2408
6.9813 1.5601 2.2408
6.9238 1.8143 2.2408
6.8586 2.0668 2.2408
6.7858 2.3175 2.2408
6.7054 2.5661 2.2408
6.6173 2.8126 2.2408
6.5217 3.0567 2.2408
6.4186 3.2983 2.2408
6.3079 3.5372 2.2408
6.1898 3.7732 2.2408
6.0642 4.0061 2.2408
5.9313 4.2357 2.2408
5.7909 4.4619 2.2408
5.6433 4.6844 2.2408
5.4883 4.9031 2.2408
5.3262 5.1177 2.2408
5.1568 5.3281 2.2407
4.9803 5.5340 2.2407
4.7967 5.7353 2.2407
4.6062 5.9316 2.2407
4.4086 6.1229 2.2407
4.2043 6.3089 2.2407
3.9932 6.4890 2.2406
3.7794 6.6723 2.2433
3.6253 6.9761 2.2877
3.4683 7.3081 2.3409
3.2921 7.6375 2.3930
3.0318 7.7969 2.3930
2.7650 7.9488 2.3930
2.4917 8.0930 2.3930
2.2122 8.2292 2.3930
0.8188 3.5520 1.0171
0.6908 3.5813 1.0111
0.5617 3.6060 1.0049
0.4318 3.6260 0.9987
0.3013 3.6413 0.9924
0.1703 3.6518 0.9861
0.0390 3.6576 0.9796
-0.0924 3.6586 0.9731
-0.2238 3.6549 0.9666
-0.3549 3.6464 0.9601
-0.4857 3.6331 0.9535
-0.6159 3.6151 0.9469
-0.7454 3.5924 0.9403
-0.8740 3.5651 0.9337
-2.5851 9.1200 2.3930
-2.9318 9.0901 2.3930
-3.2797 9.0475 2.3930
-3.6284 8.9922 2.3930
-1.2182 -9.5950 2.3666
-0.8679 -9.5596 2.3665
-0.5217 -9.5120 2.3664
-0.1798 -9.4525 2.3663
0.1573 -9.3815 2.3663
0.4892 -9.2992 2.3662
0.8157 -9.2060 2.3661
1.1364 -9.1022 2.3661
1.4511 -8.9883 2.3660
1.7594 -8.8646 2.3660
2.0610 -8.7314 2.3659
2.3559 -8.5891 2.3659
2.6437 -8.4380 2.3659
2.9243 -8.2785 2.3659
3.1975 -8.1109 2.3659
3.4631 -7.9356 2.3658
3.7210 -7.7529 2.3658
3.9710 -7.5632 2.3659
4.2131 -7.3667 2.3659
4.4471 -7.1639 2.3659
4.6729 -6.9549 2.3659
4.8906 -6.7402 2.3659
5.0999 -6.5200 2.3660
5.3008 -6.2946 2.3660
5.4934 -6.0644 2.3660
5.6775 -5.8296 2.3661
5.8531 -5.5904 2.3661
6.0202 -5.3472 2.3662
6.1787 -5.1002 2.3663
6.3287 -4.8496 2.3663
6.4701 -4.5958 2.3664
6.6030 -4.3390 2.3665
6.7273 -4.0793 2.3665
6.8499 -3.8210 2.3690
6.9727 -3.5642 2.3744
7.0787 -3.3000 2.3768
7.1720 -3.0316 2.3779
7.2569 -2.7613 2.3789
7.3435 -2.4928 2.3833
7.4289 -2.2242 2.3900
7.4924 -1.9494 2.3923
7.5418 -1.6720 2.3928
7.5046 -1.3795 2.3687
7.2757 -1.0654 2.2872
7.1486 -0.7824 2.2406
7.1615 -0.5209 2.2406
7.1665 -0.2596 2.2406
7.1638 0.0014 2.2407
7.1532 0.2620 2.2407
7.1347 0.5220 2.2407
7.1085 0.7811 2.2407
7.0744 1.0393 2.2408
7.0326 1.2963 2.2408
6.9830 1.5520 2.2408
6.9258 1.8062 2.2408
6.8608 2.0588 2.2408
6.7883 2.3095 2.2408
6.7081 2.5582 2.2408
6.6203 2.8048 2.2408
6.5249 3.0490 2.2408
6.4220 3.2906 2.2408
6.3116 3.5296 2.2408
6.1937 3.7657 2.2408
6.0684 3.9987 2.2408
5.9356 4.2284 2.2408
5.7955 4.4547 2.2408
5.6481 4.6773 2.2408
5.4934 4.8961 2.2408
5.3314 5.1109 2.2408
5.1623 5.3214 2.2407
4.9860 5.5275 2.2407
4.8027 5.7289 2.2407
4.6124 5.9254 2.2407
4.4151 6.1169 2.2407
4.2109 6.3030 2.2407
3.9999 6.4836 2.2406
3.7848 6.6629 2.2421
3.6302 6.9658 2.2861
3.4735 7.2972 2.3391
3.3003 7.6323 2.3930
3.0402 7.7919 2.3930
2.7736 7.9441 2.3930
2.5006 8.0885 2.3930
2.2212 8.2250 2.3930
0.8229 3.5510 1.0173
0.6949 3.5804 1.0113
0.5658 3.6053 1.0051
0.4360 3.6254 0.9989
0.3055 3.6408 0.9926
0.1745 3.6515 0.9863
0.0432 3.6575 0.9798
-0.0882 3.6586 0.9734
-0.2196 3.6550 0.9668
-0.3508 3.6467 0.9603
-0.4815 3.6336 0.9537
-0.6118 3.6158 0.9471
-0.7413 3.5932 0.9405
-0.8699 3.5660 0.9339
-2.5740 9.1207 2.3930
-2.9207 9.0912 2.3930
-3.2686 9.0491 2.3930
-3.6172 8.9942 2.3930
3.4831 6.7378 2.3930
3.2539 6.8950 2.3930
3.0186 7.0456 2.3930
2.7772 7.1893 2.3930
2.5299 7.3258 2.3930
2.2769 7.4551 2.3930
0.8567 3.2159 1.0157
0.7406 3.2468 1.0103
0.6236 3.2734 1.0048
0.5056 3.2958 0.9992
0.3869 3.3139 0.9935
0.2675 3.3277 0.9877
0.1478 3.3372 0.9819
0.0278 3.3423 0.9760
-0.0923 3.3431 0.9701
-0.2124 3.3395 0.9641
-0.3322 3.3316 0.9581
-0.4518 3.3193 0.9521
-0.5707 3.3028 0.9461
-0.6890 3.2819 0.9401
-0.8065 3.2567 0.9340
-0.9230 3.2274 0.9280
-2.6951 8.2897 2.3930
-3.0107 8.2454 2.3930
-3.3265 8.1893 2.3930
-3.6422 8.1216 2.3930
-3.9572 8.0418 2.3930
-4.2710 7.9500 2.3930
-4.5831 7.8460 2.3930
-4.8930 7.7299 2.3930
-5.2003 7.6014 2.3930
-5.5042 7.4606 2.3930
-5.8044 7.3076 2.3930
-6.1002 7.1422 2.3930
-6.3910 6.9646 2.3930
-6.6762 6.7749 2.3930
-6.9553 6.5731 2.3930
-7.2277 6.3595 2.3930
-7.4927 6.1341 2.3930
-5.3593 -8.0130 2.3813
-5.0372 -8.1438 2.3792
-4.7139 -8.2642 2.3780
-4.3876 -8.3706 2.3767
-4.0518 -8.4482 2.3710
-3.7200 -8.5217 2.3679
-3.3921 -8.5926 2.3677
-3.0636 -8.6507 2.3676
-2.7350 -8.6960 2.3675
-2.4070 -8.7288 2.3674
-2.0800 -8.7492 2.3672
-1.7544 -8.7574 2.3671
-1.4308 -8.7536 2.3670
-1.1096 -8.7381 2.3669
-0.7912 -8.7111 2.3669
-0.4761 -8.6728 2.3668
-0.1645 -8.6237 2.3667
0.1430 -8.5638 2.3666
0.4463 -8.4936 2.3666
0.7449 -8.4133 2.3665
1.0386 -8.3232 2.3664
1.3270 -8.2236 2.3664
1.6100 -8.1148 2.3664
1.8872 -7.9972 2.3663
2.1584 -7.8709 2.3663
2.4235 -7.7365 2.3663
2.6821 -7.5941 2.3662
2.9342 -7.4441 2.3662
3.1796 -7.2867 2.3662
3.4181 -7.1223 2.3662
3.6496 -6.9512 2.3662
3.8740 -6.7736 2.3662
4.0910 -6.5899 2.3663
4.3007 -6.4003 2.3663
4.5030 -6.2052 2.3663
4.6977 -6.0048 2.3663
4.8848 -5.7993 2.3664
5.0642 -5.5891 2.3664
5.2359 -5.3744 2.3664
5.3998 -5.1555 2.3665
5.5559 -4.9327 2.3665
5.7041 -4.7061 2.3666
5.8445 -4.4760 2.3666
5.9793 -4.2444 2.3676
6.1156 -4.0157 2.3723
6.2429 -3.7824 2.3763
6.3540 -3.5410 2.3772
6.4573 -3.2971 2.3781
6.5527 -3.0510 2.3790
6.6403 -2.8028 2.3800
6.7200 -2.5527 2.3810
6.8076 -2.3063 2.3875
6.8806 -2.0552 2.3917
6.9374 -1.7999 2.3929
6.9829 -1.5428 2.3930
7.0201 -1.2849 2.3930
7.0493 -1.0265 2.3930
7.0566 -0.7662 2.3883
6.9185 -0.4970 2.3372
6.8035 -0.2401 2.2966
6.7010 0.0079 2.2629
6.6254 0.2495 2.2406
6.6083 0.4906 2.2406
6.5838 0.7309 2.2406
6.5520 0.9703 2.2407
6.5130 1.2086 2.2407
6.4666 1.4457 2.2407
6.4131 1.6814 2.2407
6.3523 1.9154 2.2407
6.2843 2.1477 2.2407
6.2092 2.3781 2.2407
6.1269 2.6064 2.2407
6.0376 2.8324 2.2407
5.9412 3.0560 2.2407
5.8378 3.2769 2.2407
5.7274 3.4950 2.2407
5.6100 3.7102 2.2407
5.4858 3.9222 2.2407
5.3547 4.1309 2.2407
5.2168 4.3360 2.2407
5.0721 4.5374 2.2407
4.9207 4.7349 2.2407
4.7627 4.9283 2.2406
4.5981 5.1175 2.2406
4.4270 5.3020 2.2406
4.2762 5.5164 2.2547
4.1529 5.7784 2.2887
4.0248 6.0515 2.3270
3.8907 6.3363 2.3696
3.7129 6.5691 2.3930
3.4903 6.7327 2.3930
3.2613 6.8901 2.3930
3.0262 7.0409 2.3930
2.7850 7.1848 2.3930
2.5379 7.3216 2.3930
2.2851 7.4511 2.3930
0.8604 3.2149 1.0159
0.7444 3.2459 1.0105
0.6273 3.2726 1.0050
0.5094 3.2952 0.9993
0.3907 3.3134 0.9937
0.2714 3.3273 0.9879
0.1516 3.3369 0.9821
0.0316 3.3422 0.9762
-0.0885 3.3431 0.9703
-0.2085 3.3397 0.9643
-0.3284 3.3319 0.9583
-0.4479 3.3198 0.9523
-0.5669 3.3034 0.9463
-0.6853 3.2826 0.9402
-0.8028 3.2576 0.9342
-0.9193 3.2284 0.9282
-2.6850 8.2910 2.3930
-3.0006 8.2470 2.3930
-3.3164 8.1913 2.3930
-3.6321 8.1239 2.3930
-3.9471 8.0446 2.3930
-4.2610 7.9531 2.3930
-4.5731 7.8496 2.3930
-4.8832 7.7338 2.3930
-5.1905 7.6057 2.3930
-5.4946 7.4653 2.3930
-5.7949 7.3126 2.3930
-6.0908 7.1477 2.3930
-6.3818 6.9705 2.3930
-6.6672 6.7811 2.3930
-6.9465 6.5798 2.3930
-7.2191 6.3665 2.3930
-7.4844 6.1415 2.3930
-5.3700 -8.0093 2.3816
-5.0475 -8.1397 2.3793
-4.7242 -8.2605 2.3781
-4.3983 -8.3679 2.3769
-4.0626 -8.4460 2.3712
-3.7304 -8.5192 2.3679
-3.4026 -8.5906 2.3677
-3.0741 -8.6490 2.3676
-2.7455 -8.6948 2.3675
-2.4175 -8.7279 2.3674
-2.0904 -8.7487 2.3673
-1.7648 -8.7573 2.3671
-1.4411 -8.7539 2.3670
-1.1198 -8.7387 2.3669
-0.8013 -8.7121 2.3669
-0.4861 -8.6742 2.3668
-0.1744 -8.6254 2.3667
0.1333 -8.5659 2.3666
0.4367 -8.4960 2.3666
0.7354 -8.4160 2.3665
1.0293 -8.3262 2.3664
1.3179 -8.2269 2.3664
1.6010 -8.1184 2.3664
1.8784 -8.0010 2.3663
2.1498 -7.8751 2.3663
2.4151 -7.7409 2.3663
2.6740 -7.5988 2.3662
2.9263 -7.4490 2.3662
3.1719 -7.2918 2.3662
3.4106 -7.1276 2.3662
3.6423 -6.9567 2.3662
3.8669 -6.7793 2.3662
4.0842 -6.5958 2.3662
4.2942 -6.4065 2.3663
4.4967 -6.2115 2.3663
4.6916 -6.0112 2.3663
4.8790 -5.8059 2.3664
5.0586 -5.5959 2.3664
5.2306 -5.3814 2.3664
5.3947 -5.1626 2.3665
5.5510 -4.9399 2.3665
5.6995 -4.7134 2.3666
5.8401 -4.4834 2.3666
5.9748 -4.2516 2.3675
6.1114 -4.0231 2.3722
6.2391 -3.7901 2.3763
6.3506 -3.5487 2.3772
6.4541 -3.3049 2.3781
6.5498 -3.0589 2.3790
6.6376 -2.8107 2.3800
6.7175 -2.5607 2.3809
6.8049 -2.3143 2.3873
6.8785 -2.0633 2.3916
6.9357 -1.8081 2.3929
6.9816 -1.5510 2.3930
7.0190 -1.2931 2.3930
7.0485 -1.0347 2.3930
7.0614 -0.7751 2.3902
6.9223 -0.5054 2.3386
6.8068 -0.2481 2.2978
6.7042 0.0001 2.2639
6.6258 0.2418 2.2406
6.6089 0.4829 2.2406
6.5847 0.7232 2.2406
6.5531 0.9627 2.2407
6.5143 1.2010 2.2407
6.4682 1.4381 2.2407
6.4149 1.6739 2.2407
6.3543 1.9080 2.2407
6.2866 2.1404 2.2407
6.2117 2.3708 2.2407
6.1297 2.5991 2.2407
6.0406 2.8252 2.2407
5.9444 3.0489 2.2407
5.8412 3.2699 2.2407
5.7310 3.4881 2.2407
5.6139 3.7034 2.2407
5.4899 3.9155 2.2407
5.3590 4.1242 2.2407
5.2213 4.3295 2.2407
5.0768 4.5310 2.2407
4.9257 4.7286 2.2407
4.7679 4.9222 2.2406
4.6037 5.1108 2.2406
4.4326 5.2962 2.2406
4.2805 5.5088 2.2539
4.1569 5.7699 2.2876
4.0290 6.0426 2.3257
3.8951 6.3270 2.3681
3.7201 6.5635 2.3930
3.4975 6.7276 2.3930
3.2688 6.8852 2.3930
3.0338 7.0361 2.3930
2.7928 7.1803 2.3930
2.5459 7.3173 2.3930
2.2932 7.4470 2.3930
0.8640 3.2138 1.0161
0.7481 3.2450 1.0106
0.6311 3.2719 1.0051
0.5131 3.2945 0.9995
0.3945 3.3129 0.9938
0.2752 3.3270 0.9881
0.1555 3.3367 0.9823
0.0355 3.3421 0.9764
-0.0846 3.3432 0.9705
-0.2047 3.3399 0.9645
-0.3246 3.3322 0.9585
-0.4441 3.3203 0.9525
-0.5631 3.3039 0.9465
-0.6815 3.2833 0.9404
-0.7990 3.2585 0.9344
-0.9156 3.2294 0.9284
-2.6750 8.2922 2.3930
-2.9905 8.2486 2.3930
-3.3064 8.1933 2.3930
-3.6220 8.1263 2.3930
-3.9371 8.0473 2.3930
-4.2509 7.9563 2.3930
-4.5632 7.8531 2.3930
-4.8733 7.7377 2.3930
-5.1807 7.6100 2.3930
-5.4849 7.4700 2.3930
-5.7853 7.3177 2.3930
-6.0814 7.1531 2.3930
-6.3726 6.9763 2.3930
-6.6582 6.7874 2.3930
-6.9377 6.5864 2.3930
-7.2105 6.3735 2.3930
-7.4760 6.1489 2.3930
3.2218 6.2478 2.3930
3.0082 6.3914 2.3930
2.7890 6.5286 2.3930
2.5643 6.6594 2.3930
2.3342 6.7834 2.3930
2.0991 6.9004 2.3930
0.7843 2.9577 1.0097
0.6775 2.9861 1.0047
0.5698 3.0105 0.9996
0.4613 3.0311 0.9944
0.3521 3.0477 0.9892
0.2423 3.0604 0.9839
0.1322 3.0691 0.9785
0.0218 3.0738 0.9731
-0.0887 3.0745 0.9677
-0.1991 3.0712 0.9622
-0.3094 3.0639 0.9567
-0.4193 3.0526 0.9512
-0.5287 3.0374 0.9456
-0.6375 3.0182 0.9401
-0.7456 2.9950 0.9345
-0.8527 2.9680 0.9289
-2.4849 7.6116 2.3930
-2.7733 7.5669 2.3930
-3.0616 7.5115 2.3930
-3.3495 7.4452 2.3930
-3.6363 7.3681 2.3930
-3.9219 7.2800 2.3930
-4.2055 7.1809 2.3930
-4.4869 7.0708 2.3930
-4.7655 6.9495 2.3930
-5.0409 6.8171 2.3930
-5.3124 6.6737 2.3930
-5.5797 6.5192 2.3930
-5.8423 6.3537 2.3930
-6.0995 6.1774 2.3930
-6.3509 5.9904 2.3930
-6.5960 5.7927 2.3930
-6.8341 5.5847 2.3930
-7.0649 5.3664 2.3930
-7.2878 5.1382 2.3930
-7.5023 4.9003 2.3930
-7.7078 4.6530 2.3930
-7.9039 4.3966 2.3930
-8.0900 4.1316 2.3930
-8.2658 3.8582 2.3930
-8.4307 3.5769 2.3930
-8.5843 3.2882 2.3930
-8.7263 2.9926 2.3930
-8.8561 2.6905 2.3930
-8.9734 2.3824 2.3930
-9.0780 2.0690 2.3930
-9.1695 1.7507 2.3930
-9.2476 1.4286 2.3930
-9.3119 1.1023 2.3930
-9.3626 0.7736 2.3930
-9.3991 0.4424 2.3930
-9.4215 0.1097 2.3930
-9.4297 -0.2241 2.3930
-9.4235 -0.5582 2.3930
-9.4030 -0.8917 2.3930
-9.3681 -1.2243 2.3930
-9.3190 -1.5550 2.3930
-9.2558 -1.8833 2.3930
-9.1785 -2.2085 2.3930
-9.0873 -2.5302 2.3930
-8.9826 -2.8470 2.3930
-8.8645 -3.1589 2.3930
-8.7333 -3.4652 2.3930
-8.5893 -3.7652 2.3930
-8.4330 -4.0584 2.3930
-8.2646 -4.3442 2.3930
-8.0846 -4.6222 2.3930
-7.8934 -4.8918 2.3930
-7.6916 -5.1524 2.3930
-7.4795 -5.4038 2.3930
-7.2578 -5.6455 2.3930
-7.0268 -5.8772 2.3930
-6.7872 -6.0984 2.3930
-6.5396 -6.3089 2.3930
-6.2843 -6.5085 2.3930
-6.0221 -6.6969 2.3930
-5.7535 -6.8738 2.3930
-5.4787 -7.0386 2.3929
-5.1961 -7.1881 2.3915
-4.9051 -7.3197 2.3882
-4.6056 -7.4305 2.3822
-4.3119 -7.5426 2.3805
-4.0166 -7.6446 2.3795
-3.7192 -7.7347 2.3784
-3.4203 -7.8130 2.3775
-3.1187 -7.8756 2.3754
-2.8139 -7.9185 2.3709
-2.5113 -7.9541 2.3677
-2.2124 -7.9884 2.3676
-1.9142 -8.0113 2.3675
-1.6169 -8.0232 2.3674
-1.3212 -8.0240 2.3673
-1.0273 -8.0141 2.3672
-0.7357 -7.9937 2.3672
-0.4467 -7.9629 2.3671
-0.1607 -7.9219 2.3670
0.1219 -7.8711 2.3669
0.4008 -7.8107 2.3669
0.6758 -7.7409 2.3668
0.9465 -7.6619 2.3668
1.2126 -7.5741 2.3667
1.4740 -7.4776 2.3667
1.7303 -7.3729 2.3667
1.9813 -7.2601 2.3666
2.2269 -7.1395 2.3666
2.4668 -7.0114 2.3666
2.7008 -6.8760 2.3666
2.9288 -6.7337 2.3666
3.1506 -6.5847 2.3666
3.3660 -6.4293 2.3666
3.5750 -6.2677 2.3666
3.7775 -6.1003 2.3666
3.9732 -5.9272 2.3666
4.1621 -5.7487 2.3666
4.3441 -5.5652 2.3666
4.5192 -5.3768 2.3667
4.6872 -5.1838 2.3667
4.8481 -4.9864 2.3667
5.0018 -4.7849 2.3668
5.1513 -4.5822 2.3682
5.2990 -4.3801 2.3720
5.4395 -4.1736 2.3757
5.5672 -3.9591 2.3769
5.6866 -3.7408 2.3776
5.7986 -3.5196 2.3784
5.9033 -3.2957 2.3792
6.0006 -3.0694 2.3801
6.0906 -2.8409 2.3809
6.1732 -2.6104 2.3818
6.2489 -2.3781 2.3829
6.3332 -2.1497 2.3901
6.3978 -1.9147 2.3925
6.4497 -1.6768 2.3930
6.4927 -1.4375 2.3930
6.5281 -1.1976 2.3930
6.5560 -0.9571 2.3930
6.5765 -0.7162 2.3930
6.5894 -0.4752 2.3930
6.5949 -0.2342 2.3930
6.5929 0.0066 2.3930
6.5705 0.2465 2.3883
6.4735 0.4800 2.3591
6.3784 0.7078 2.3331
6.2848 0.9307 2.3100
6.1925 1.1494 2.2898
6.1013 1.3646 2.2722
6.0108 1.5768 2.2574
5.9271 1.7884 2.2474
5.8457 1.9993 2.2406
5.7753 2.2137 2.2406
5.6982 2.4261 2.2406
5.6144 2.6363 2.2406
5.5240 2.8442 2.2406
5.4270 3.0495 2.2406
5.3235 3.2521 2.2406
5.2135 3.4519 2.2406
5.1069 3.6557 2.2450
5.0043 3.8654 2.2543
4.9046 4.0819 2.2683
4.8036 4.3032 2.2855
4.7000 4.5291 2.3056
4.5934 4.7603 2.3288
4.4835 4.9978 2.3551
4.3697 5.2422 2.3849
4.2074 5.4372 2.3930
4.0238 5.6093 2.3930
3.8340 5.7762 2.3930
3.6381 5.9376 2.3930
3.4363 6.0933 2.3930
3.2286 6.2431 2.3930
3.0151 6.3869 2.3930
2.7961 6.5244 2.3930
2.5715 6.6553 2.3930
2.3417 6.7795 2.3930
2.1066 6.8968 2.3930
0.7877 2.9567 1.0098
0.6810 2.9852 1.0048
0.5733 3.0098 0.9997
0.4648 3.0305 0.9946
0.3556 3.0473 0.9894
0.2459 3.0601 0.9841
0.1357 3.0689 0.9787
0.0254 3.0737 0.9733
-0.0851 3.0745 0.9679
-0.1956 3.0714 0.9624
-0.3058 3.0642 0.9569
-0.4158 3.0530 0.9513
-0.5252 3.0379 0.9458
-0.6341 3.0188 0.9402
-0.7422 2.9958 0.9347
-0.8493 2.9689 0.9291
-2.4756 7.6129 2.3930
-2.7641 7.5685 2.3930
-3.0524 7.5134 2.3930
-3.3403 7.4475 2.3930
-3.6272 7.3708 2.3930
-3.9128 7.2830 2.3930
-4.1965 7.1843 2.3930
-4.4780 7.0745 2.3930
-4.7567 6.9535 2.3930
-5.0321 6.8215 2.3930
-5.3038 6.6784 2.3930
-5.5713 6.5243 2.3930
-5.8340 6.3592 2.3930
-6.0914 6.1832 2.3930
-6.3430 5.9965 2.3930
-6.5882 5.7992 2.3930
-6.8266 5.5915 2.3930
-7.0577 5.3735 2.3930
-7.2808 5.1456 2.3930
-7.4956 4.9080 2.3930
-7.7013 4.6610 2.3930
-7.8977 4.4049 2.3930
-8.0842 4.1401 2.3930
-8.2603 3.8670 2.3930
-8.4256 3.5860 2.3930
-8.5796 3.2975 2.3930
-8.7219 3.0021 2.3930
-8.8521 2.7002 2.3930
-8.9699 2.3924 2.3930
-9.0749 2.0791 2.3930
-9.1668 1.7611 2.3930
-9.2452 1.4386 2.3930
-9.3101 1.1129 2.3930
-9.3612 0.7842 2.3930
-9.3982 0.4531 2.3930
-9.4210 0.1203 2.3930
-9.4296 -0.2134 2.3930
-9.4238 -0.5477 2.3930
-9.4038 -0.8811 2.3930
-9.3695 -1.2137 2.3930
-9.3208 -1.5445 2.3930
-9.2580 -1.8729 2.3930
-9.1812 -2.1982 2.3930
-9.0905 -2.5198 2.3930
-8.9862 -2.8369 2.3930
-8.8685 -3.1490 2.3930
-8.7377 -3.4555 2.3930
-8.5941 -3.7558 2.3930
-8.4382 -4.0492 2.3930
-8.2702 -4.3353 2.3930
-8.0905 -4.6134 2.3930
-7.8997 -4.8833 2.3930
-7.6982 -5.1442 2.3930
-7.4865 -5.3959 2.3930
-7.2650 -5.6379 2.3930
-7.0343 -5.8699 2.3930
-6.7950 -6.0915 2.3930
-6.5476 -6.3024 2.3930
-6.2926 -6.5023 2.3930
-6.0306 -6.6910 2.3930
-5.7622 -6.8683 2.3930
-5.4876 -7.0336 2.3929
-5.2052 -7.1836 2.3916
-4.9145 -7.3158 2.3883
-4.6153 -7.4273 2.3824
-4.3213 -7.5392 2.3806
-4.0261 -7.6415 2.3795
-3.7287 -7.7320 2.3785
-3.4298 -7.8107 2.3775
-3.1284 -7.8740 2.3755
-2.8236 -7.9173 2.3710
-2.5209 -7.9528 2.3677
-2.2220 -7.9874 2.3676
-1.9237 -8.0108 2.3675
-1.6264 -8.0230 2.3674
-1.3306 -8.0242 2.3673
-1.0366 -8.0146 2.3672
-0.7450 -7.9945 2.3672
-0.4559 -7.9640 2.3671
-0.1698 -7.9234 2.3670
0.1129 -7.8729 2.3669
0.3920 -7.8128 2.3669
0.6671 -7.7432 2.3668
0.9379 -7.6646 2.3668
1.2042 -7.5770 2.3667
1.4657 -7.4809 2.3667
1.7222 -7.3764 2.3667
1.9734 -7.2638 2.3666
2.2191 -7.1435 2.3666
2.4592 -7.0156 2.3666
2.6934 -6.8805 2.3666
2.9216 -6.7384 2.3666
3.1436 -6.5896 2.3666
3.3593 -6.4344 2.3666
3.5685 -6.2730 2.3666
3.7711 -6.1057 2.3666
3.9670 -5.9328 2.3666
4.1562 -5.7545 2.3666
4.3384 -5.5711 2.3666
4.5137 -5.3829 2.3667
4.6819 -5.1900 2.3667
4.8431 -4.9928 2.3667
4.9970 -4.7914 2.3668
5.1464 -4.5886 2.3681
5.2944 -4.3866 2.3719
5.4351 -4.1802 2.3756
5.5633 -3.9661 2.3769
5.6829 -3.7478 2.3776
5.7951 -3.5267 2.3784
5.9001 -3.3029 2.3792
5.9976 -3.0767 2.3800
6.0879 -2.8483 2.3809
6.1707 -2.6178 2.3818
6.2461 -2.3854 2.3827
6.3309 -2.1571 2.3899
6.3960 -1.9223 2.3925
6.4482 -1.6844 2.3930
6.4914 -1.4452 2.3930
6.5271 -1.2053 2.3930
6.5553 -0.9648 2.3930
6.5759 -0.7239 2.3930
6.5891 -0.4829 2.3930
6.5948 -0.2419 2.3930
6.5931 -0.0011 2.3930
6.5736 0.2390 2.3893
6.4766 0.4726 2.3600
6.3814 0.7006 2.3338
6.2878 0.9237 2.3107
6.1955 1.1425 2.2904
6.1042 1.3578 2.2728
6.0137 1.5700 2.2578
5.9298 1.7817 2.2477
5.8478 1.9924 2.2406
5.7776 2.2069 2.2406
5.7007 2.4194 2.2406
5.6172 2.6296 2.2406
5.5270 2.8376 2.2406
5.4302 3.0430 2.2406
5.3269 3.2457 2.2406
5.2171 3.4455 2.2406
5.1101 3.6490 2.2447
5.0076 3.8587 2.2539
4.9078 4.0749 2.2678
4.8069 4.2960 2.2849
4.7034 4.5218 2.3049
4.5969 4.7529 2.3280
4.4870 4.9901 2.3542
4.3734 5.2343 2.3839
4.2132 5.4314 2.3930
4.0297 5.6039 2.3930
3.8401 5.7709 2.3930
3.6445 5.9325 2.3930
3.4428 6.0884 2.3930
3.2353 6.2384 2.3930
3.0220 6.3824 2.3930
2.8032 6.5201 2.3930
2.5788 6.6513 2.3930
2.3491 6.7757 2.3930
2.1142 6.8931 2.3930
0.7911 2.9558 1.0100
0.6844 2.9844 1.0050
0.5767 3.0091 0.9999
0.4683 3.0299 0.9948
0.3591 3.0468 0.9895
0.2494 3.0597 0.9842
0.1393 3.0686 0.9789
0.0289 3.0736 0.9735
-0.0816 3.0746 0.9680
-0.1921 3.0715 0.9626
-0.3023 3.0645 0.9570
-0.4123 3.0534 0.9515
-0.5217 3.0385 0.9460
-0.6306 3.0195 0.9404
-0.7387 2.9966 0.9348
-0.8459 2.9698 0.9293
-0.9521 2.9392 0.9238
-2.7549 7.5701 2.3930
-3.0432 7.5153 2.3930
-3.3311 7.4498 2.3930
-3.6181 7.3734 2.3930
-3.9037 7.2860 2.3930
-4.1875 7.1876 2.3930
-4.4690 7.0781 2.3930
-4.7478 6.9576 2.3930
-5.0234 6.8259 2.3930
-5.2952 6.6832 2.3930
-5.5628 6.5294 2.3930
-5.8257 6.3646 2.3930
-6.0832 6.1890 2.3930
-6.3350 6.0026 2.3930
-6.5805 5.8057 2.3930
-6.8191 5.5983 2.3930
-7.0504 5.3807 2.3930
2.9929 5.8186 2.3930
2.7931 5.9506 2.3930
2.5881 6.0765 2.3930
2.3781 6.1962 2.3930
2.1633 6.3095 2.3930
0.8196 2.7052 1.0090
0.7218 2.7350 1.0044
0.6231 2.7611 0.9998
0.5235 2.7838 0.9951
0.4231 2.8028 0.9903
0.3221 2.8181 0.9855
0.2206 2.8298 0.9806
0.1187 2.8378 0.9756
0.0167 2.8422 0.9706
-0.0855 2.8428 0.9656
-0.1877 2.8397 0.9605
-0.2896 2.8330 0.9554
-0.3913 2.8226 0.9503
-0.4925 2.8084 0.9452
-0.5931 2.7907 0.9400
-0.6931 2.7693 0.9349
-0.7921 2.7443 0.9298
-0.8903 2.7157 0.9247
-2.5693 6.9839 2.3930
-2.8342 6.9296 2.3930
-3.0984 6.8653 2.3930
-3.3615 6.7910 2.3930
-3.6231 6.7067 2.3930
-3.8828 6.6124 2.3930
-4.1401 6.5079 2.3930
-4.3946 6.3933 2.3930
-4.6459 6.2686 2.3930
-4.8936 6.1339 2.3930
-5.1370 5.9892 2.3930
-5.3760 5.8346 2.3930
-5.6098 5.6701 2.3930
-5.8382 5.4960 2.3930
-6.0606 5.3124 2.3930
-6.2765 5.1194 2.3930
-6.4856 4.9173 2.3930
-6.6873 4.7062 2.3930
-6.8811 4.4865 2.3930
-7.0668 4.2584 2.3930
-7.2437 4.0223 2.3930
-7.4116 3.7784 2.3930
-7.5699 3.5271 2.3930
-7.7183 3.2688 2.3930
-7.8565 3.0040 2.3930
-7.9839 2.7329 2.3930
-8.1004 2.4562 2.3930
-8.2056 2.1742 2.3930
-8.2992 1.8876 2.3930
-8.3810 1.5968 2.3930
-8.4506 1.3022 2.3930
-8.5080 1.0045 2.3930
-8.5528 0.7042 2.3930
-8.5851 0.4021 2.3930
-8.6046 0.0984 2.3930
-8.6113 -0.2059 2.3930
-8.6050 -0.5106 2.3930
-8.5860 -0.8147 2.3930
-8.5540 -1.1181 2.3930
-8.5092 -1.4199 2.3930
-8.4517 -1.7191 2.3930
-8.3816 -2.0158 2.3930
-8.2990 -2.3091 2.3930
-8.2042 -2.5985 2.3930
-8.0973 -2.8834 2.3930
-7.9786 -3.1632 2.3930
-7.8485 -3.4372 2.3930
-7.7071 -3.7057 2.3930
-7.5548 -3.9673 2.3930
-7.3920 -4.2219 2.3930
-7.2191 -4.4690 2.3930
-7.0365 -4.7082 2.3930
-6.8446 -4.9392 2.3930
-6.6438 -5.1615 2.3930
-6.4346 -5.3748 2.3930
-6.2175 -5.5789 2.3930
-5.9929 -5.7733 2.3930
-5.7614 -5.9580 2.3930
-5.5234 -6.1325 2.3930
-5.2794 -6.2969 2.3930
-5.0299 -6.4507 2.3930
-4.7752 -6.5936 2.3929
-4.5138 -6.7225 2.3915
-4.2458 -6.8357 2.3885
-3.9710 -6.9307 2.3831
-3.7007 -7.0263 2.3816
-3.4290 -7.1124 2.3807
-3.1556 -7.1878 2.3798
-2.8809 -7.2525 2.3789
-2.6054 -7.3065 2.3781
-2.3296 -7.3501 2.3774
-2.0535 -7.3819 2.3762
-1.7762 -7.3964 2.3729
-1.5005 -7.4006 2.3695
-1.2273 -7.3990 2.3676
-0.9567 -7.3933 2.3675
-0.6880 -7.3778 2.3674
-0.4215 -7.3528 2.3673
-0.1575 -7.3183 2.3673
0.1037 -7.2747 2.3672
0.3616 -7.2221 2.3672
0.6162 -7.1608 2.3671
0.8670 -7.0909 2.3671
1.1138 -7.0127 2.3670
1.3563 -6.9264 2.3670
1.5944 -6.8323 2.3669
1.8278 -6.7306 2.3669
2.0564 -6.6216 2.3669
2.2798 -6.5054 2.3669
2.4979 -6.3824 2.3669
2.7106 -6.2528 2.3668
2.9177 -6.1168 2.3668
3.1190 -5.9747 2.3668
3.3145 -5.8267 2.3668
3.5039 -5.6731 2.3668
3.6872 -5.5141 2.3669
3.8642 -5.3499 2.3669
4.0350 -5.1808 2.3669
4.2006 -5.0087 2.3677
4.3638 -4.8363 2.3706
4.5205 -4.6591 2.3734
4.6711 -4.4776 2.3763
4.8107 -4.2876 2.3769
4.9436 -4.0941 2.3775
5.0696 -3.8972 2.3782
5.1890 -3.6970 2.3788
5.3016 -3.4939 2.3795
5.4073 -3.2881 2.3803
5.5062 -3.0796 2.3810
5.5981 -2.8687 2.3818
5.6831 -2.6557 2.3826
5.7612 -2.4406 2.3834
5.8400 -2.2267 2.3874
5.9127 -2.0108 2.3917
5.9709 -1.7905 2.3929
6.0192 -1.5681 2.3930
6.0601 -1.3447 2.3930
6.0940 -1.1205 2.3930
6.1207 -0.8958 2.3930
6.1404 -0.6707 2.3930
6.1529 -0.4455 2.3930
6.1585 -0.2202 2.3930
6.1569 0.0050 2.3930
6.1484 0.2298 2.3930
6.1328 0.4541 2.3930
6.1103 0.6777 2.3930
6.0808 0.9005 2.3930
6.0443 1.1222 2.3930
6.0010 1.3427 2.3930
5.9507 1.5619 2.3930
5.8936 1.7795 2.3930
5.8047 1.9868 2.3828
5.7156 2.1926 2.3750
5.6263 2.3976 2.3697
5.5367 2.6023 2.3670
5.4465 2.8071 2.3669
5.3555 3.0125 2.3692
5.2635 3.2190 2.3742
5.1702 3.4272 2.3817
5.0754 3.6376 2.3919
4.9543 3.8317 2.3930
4.8246 4.0206 2.3930
4.6885 4.2059 2.3930
4.5462 4.3873 2.3930
4.3978 4.5646 2.3930
4.2433 4.7377 2.3930
4.0828 4.9064 2.3930
3.9164 5.0704 2.3930
3.7442 5.2296 2.3930
3.5663 5.3838 2.3930
3.3827 5.5328 2.3930
3.1937 5.6764 2.3930
2.9992 5.8143 2.3930
2.7995 5.9464 2.3930
2.5947 6.0726 2.3930
2.3849 6.1925 2.3930
2.1702 6.3060 2.3930
0.8227 2.7042 1.0091
0.7250 2.7341 1.0046
0.6263 2.7604 1.0000
0.5267 2.7831 0.9953
0.4263 2.8022 0.9905
0.3253 2.8177 0.9856
0.2239 2.8295 0.9808
0.1220 2.8376 0.9758
0.0199 2.8421 0.9708
-0.0823 2.8428 0.9658
-0.1844 2.8399 0.9607
-0.2864 2.8333 0.9556
-0.3880 2.8229 0.9505
-0.4893 2.8090 0.9454
-0.5899 2.7913 0.9402
-0.6899 2.7700 0.9351
-0.7890 2.7452 0.9299
-0.8871 2.7167 0.9248
-2.5608 6.9855 2.3930
-2.8258 6.9314 2.3930
-3.0900 6.8675 2.3930
-3.3532 6.7936 2.3930
-3.6148 6.7096 2.3930
-3.8745 6.6155 2.3930
-4.1319 6.5114 2.3930
-4.3865 6.3971 2.3930
-4.6380 6.2728 2.3930
-4.8857 6.1384 2.3930
-5.1293 5.9940 2.3930
-5.3684 5.8397 2.3930
-5.6024 5.6755 2.3930
-5.8310 5.5017 2.3930
-6.0536 5.3184 2.3930
-6.2697 5.1257 2.3930
-6.4790 4.9239 2.3930
-6.6809 4.7131 2.3930
-6.8751 4.4937 2.3930
-7.0610 4.2659 2.3930
-7.2382 4.0299 2.3930
-7.4064 3.7863 2.3930
-7.5650 3.5352 2.3930
-7.7137 3.2772 2.3930
-7.8522 3.0125 2.3930
-7.9800 2.7417 2.3930
-8.0969 2.4651 2.3930
-8.2024 2.1833 2.3930
-8.2964 1.8968 2.3930
-8.3785 1.6061 2.3930
-8.4486 1.3116 2.3930
-8.5063 1.0141 2.3930
-8.5516 0.7139 2.3930
-8.5842 0.4117 2.3930
-8.6042 0.1082 2.3930
-8.6112 -0.1963 2.3930
-8.6054 -0.5009 2.3930
-8.5868 -0.8050 2.3930
-8.5552 -1.1084 2.3930
-8.5108 -1.4101 2.3930
-8.4537 -1.7096 2.3930
-8.3840 -2.0064 2.3930
-8.3018 -2.2998 2.3930
-8.2074 -2.5893 2.3930
-8.1009 -2.8743 2.3930
-7.9826 -3.1543 2.3930
-7.8528 -3.4285 2.3930
-7.7117 -3.6973 2.3930
-7.5598 -3.9590 2.3930
-7.3974 -4.2138 2.3930
-7.2248 -4.4612 2.3930
-7.0425 -4.7007 2.3930
-6.8509 -4.9320 2.3930
-6.6504 -5.1546 2.3930
-6.4415 -5.3682 2.3930
-6.2246 -5.5725 2.3930
-6.0002 -5.7673 2.3930
-5.7689 -5.9522 2.3930
-5.5311 -6.1271 2.3930
-5.2873 -6.2918 2.3930
-5.0380 -6.4460 2.3930
-4.7834 -6.5892 2.3929
-4.5223 -6.7187 2.3916
-4.2545 -6.8324 2.3887
-3.9799 -6.9280 2.3833
-3.7094 -7.0234 2.3817
-3.4377 -7.1098 2.3807
-3.1643 -7.1855 2.3798
-2.8897 -7.2506 2.3790
-2.6142 -7.3050 2.3782
-2.3384 -7.3489 2.3774
-2.0624 -7.3813 2.3764
-1.7850 -7.3960 2.3730
-1.5093 -7.4006 2.3696
-1.2359 -7.3990 2.3676
-0.9653 -7.3936 2.3675
-0.6965 -7.3785 2.3674
-0.4299 -7.3537 2.3673
-0.1659 -7.3196 2.3673
0.0954 -7.2763 2.3672
0.3534 -7.2239 2.3672
0.6081 -7.1629 2.3671
0.8590 -7.0932 2.3671
1.1059 -7.0153 2.3670
1.3487 -6.9293 2.3670
1.5869 -6.8355 2.3669
1.8205 -6.7340 2.3669
2.0491 -6.6252 2.3669
2.2727 -6.5093 2.3669
2.4910 -6.3865 2.3669
2.7039 -6.2570 2.3668
2.9111 -6.1212 2.3668
3.1127 -5.9793 2.3668
3.3083 -5.8315 2.3668
3.4979 -5.6781 2.3668
3.6814 -5.5192 2.3669
3.8587 -5.3552 2.3669
4.0296 -5.1863 2.3669
4.1953 -5.0142 2.3676
4.3587 -4.8418 2.3705
4.5156 -4.6648 2.3733
4.6665 -4.4835 2.3763
4.8063 -4.2938 2.3769
4.9394 -4.1003 2.3775
5.0657 -3.9035 2.3781
5.1853 -3.7035 2.3788
5.2981 -3.5005 2.3795
5.4040 -3.2947 2.3802
5.5031 -3.0863 2.3810
5.5953 -2.8755 2.3818
5.6805 -2.6625 2.3826
5.7588 -2.4475 2.3834
5.8373 -2.2334 2.3871
5.9106 -2.0177 2.3916
5.9692 -1.7976 2.3929
6.0178 -1.5752 2.3930
6.0590 -1.3518 2.3930
6.0930 -1.1277 2.3930
6.1200 -0.9030 2.3930
6.1398 -0.6779 2.3930
6.1526 -0.4527 2.3930
6.1584 -0.2273 2.3930
6.1571 -0.0022 2.3930
6.1488 0.2226 2.3930
6.1334 0.4469 2.3930
6.1111 0.6706 2.3930
6.0818 0.8934 2.3930
6.0456 1.1151 2.3930
6.0025 1.3357 2.3930
5.9524 1.5549 2.3930
5.8956 1.7725 2.3930
5.8076 1.9802 2.3831
5.7184 2.1861 2.3752
5.6292 2.3911 2.3699
5.5395 2.5957 2.3671
5.4494 2.8005 2.3668
5.3584 3.0059 2.3691
5.2664 3.2124 2.3740
5.1732 3.4205 2.3815
5.0785 3.6308 2.3916
4.9584 3.8256 2.3930
4.8288 4.0147 2.3930
4.6929 4.2000 2.3930
4.5509 4.3816 2.3930
4.4026 4.5590 2.3930
4.2483 4.7323 2.3930
4.0880 4.9011 2.3930
3.9218 5.0652 2.3930
3.7498 5.2246 2.3930
3.5720 5.3789 2.3930
3.3887 5.5281 2.3930
3.1998 5.6719 2.3930
3.0055 5.8100 2.3930
2.8060 5.9423 2.3930
2.6013 6.0686 2.3930
2.3917 6.1887 2.3930
2.1772 6.3025 2.3930
0.8258 2.7032 1.0092
0.7281 2.7332 1.0047
0.6294 2.7596 1.0001
0.5299 2.7824 0.9954
0.4295 2.8017 0.9906
0.3286 2.8172 0.9858
0.2271 2.8292 0.9809
0.1253 2.8374 0.9760
0.0232 2.8420 0.9710
-0.0790 2.8429 0.9659
-0.1811 2.8400 0.9609
-0.2831 2.8335 0.9558
-0.3848 2.8233 0.9506
-0.4860 2.8095 0.9455
-0.5867 2.7919 0.9404
-0.6867 2.7708 0.9352
-0.7858 2.7460 0.9301
-0.8840 2.7177 0.9250
-2.5523 6.9871 2.3930
-2.8173 6.9333 2.3930
-3.0816 6.8697 2.3930
-3.3448 6.7961 2.3930
-3.6065 6.7124 2.3930
-3.8663 6.6187 2.3930
-4.1237 6.5149 2.3930
-4.3785 6.4009 2.3930
-4.6300 6.2769 2.3930
-4.8778 6.1428 2.3930
-5.1216 5.9987 2.3930
-5.3608 5.8447 2.3930
-5.5950 5.6809 2.3930
-5.8238 5.5074 2.3930
-6.0465 5.3244 2.3930
-6.2629 5.1320 2.3930
-6.4724 4.9305 2.3930
2.7906 5.4391 2.3930
2.6030 5.5610 2.3930
2.4106 5.6773 2.3930
2.2139 5.7874 2.3930
0.8479 2.4822 1.0082
0.7582 2.5130 1.0041
0.6674 2.5406 0.9999
0.5756 2.5650 0.9956
0.4831 2.5860 0.9912
0.3898 2.6036 0.9868
0.2960 2.6178 0.9823
0.2016 2.6287 0.9777
0.1070 2.6361 0.9731
0.0122 2.6401 0.9685
-0.0828 2.6407 0.9638
-0.1777 2.6379 0.9591
-0.2724 2.6316 0.9543
-0.3668 2.6219 0.9496
-0.4609 2.6088 0.9448
-0.5544 2.5923 0.9400
-0.6472 2.5724 0.9353
-0.7393 2.5492 0.9305
-0.8305 2.5227 0.9257
-0.9206 2.4929 0.9210
-2.6367 6.4242 2.3930
-2.8806 6.3620 2.3930
-3.1233 6.2907 2.3930
-3.3644 6.2101 2.3930
-3.6034 6.1202 2.3930
-3.8402 6.0211 2.3930
-4.0741 5.9127 2.3930
-4.3050 5.7951 2.3930
-4.5322 5.6683 2.3930
-4.7555 5.5324 2.3930
-4.9744 5.3875 2.3930
-5.1885 5.2337 2.3930
-5.3974 5.0710 2.3930
-5.6006 4.8998 2.3930
-5.7978 4.7200 2.3930
-5.9886 4.5320 2.3930
-6.1725 4.3360 2.3930
-6.3491 4.1321 2.3930
-6.5181 3.9207 2.3930
-6.6791 3.7021 2.3930
-6.8316 3.4765 2.3930
-6.9754 3.2442 2.3930
-7.1101 3.0057 2.3930
-7.2353 2.7614 2.3930
-7.3508 2.5115 2.3930
-7.4563 2.2565 2.3930
-7.5514 1.9969 2.3930
-7.6359 1.7331 2.3930
-7.7097 1.4655 2.3930
-7.7724 1.1947 2.3930
-7.8240 0.9212 2.3930
-7.8642 0.6453 2.3930
-7.8929 0.3677 2.3930
-7.9101 0.0889 2.3930
-7.9156 -0.1906 2.3930
-7.9094 -0.4702 2.3930
-7.8916 -0.7495 2.3930
-7.8621 -1.0278 2.3930
-7.8210 -1.3047 2.3930
-7.7683 -1.5796 2.3930
-7.7043 -1.8520 2.3930
-7.6289 -2.1214 2.3930
-7.5424 -2.3873 2.3930
-7.4449 -2.6490 2.3930
-7.3368 -2.9063 2.3930
-7.2181 -3.1586 2.3930
-7.0893 -3.4054 2.3930
-6.9505 -3.6463 2.3930
-6.8022 -3.8809 2.3930
-6.6446 -4.1088 2.3930
-6.4781 -4.3296 2.3930
-6.3031 -4.5430 2.3930
-6.1200 -4.7485 2.3930
-5.9291 -4.9460 2.3930
-5.7308 -5.1351 2.3930
-5.5257 -5.3155 2.3930
-5.3141 -5.4871 2.3930
-5.0965 -5.6495 2.3930
-4.8733 -5.8027 2.3930
-4.6450 -5.9464 2.3930
-4.4119 -6.0806 2.3930
-4.1744 -6.2046 2.3929
-3.9314 -6.3160 2.3916
-3.6830 -6.4135 2.3889
-3.4292 -6.4949 2.3841
-3.1786 -6.5756 2.3826
-2.9270 -6.6480 2.3818
-2.6741 -6.7105 2.3810
-2.4202 -6.7633 2.3803
-2.1658 -6.8065 2.3795
-1.9112 -6.8400 2.3789
-1.6569 -6.8640 2.3782
-1.4031 -6.8787 2.3777
-1.1503 -6.8840 2.3771
-0.8987 -6.8795 2.3764
-0.6483 -6.8615 2.3741
-0.4003 -6.8353 2.3721
-0.1548 -6.8005 2.3701
0.0878 -6.7579 2.3684
0.3275 -6.7091 2.3674
0.5641 -6.6548 2.3673
0.7975 -6.5924 2.3673
1.0274 -6.5222 2.3673
1.2535 -6.4444 2.3672
1.4755 -6.3592 2.3672
1.6934 -6.2669 2.3672
1.9069 -6.1676 2.3671
2.1157 -6.0616 2.3671
2.3198 -5.9491 2.3671
2.5189 -5.8303 2.3671
2.7129 -5.7054 2.3671
2.9020 -5.5758 2.3675
3.0875 -5.4428 2.3690
3.2679 -5.3048 2.3707
3.4429 -5.1615 2.3725
3.6125 -5.0134 2.3744
3.7768 -4.8605 2.3764
3.9327 -4.6996 2.3768
4.0826 -4.5344 2.3773
4.2265 -4.3652 2.3777
4.3644 -4.1920 2.3783
4.4960 -4.0151 2.3788
4.6214 -3.8348 2.3794
4.7405 -3.6511 2.3800
4.8533 -3.4644 2.3806
4.9597 -3.2748 2.3812
5.0597 -3.0824 2.3819
5.1532 -2.8875 2.3826
5.2403 -2.6903 2.3833
5.3208 -2.4910 2.3841
5.3948 -2.2897 2.3849
5.4725 -2.0905 2.3902
5.5372 -1.8867 2.3926
5.5906 -1.6798 2.3930
5.6364 -1.4714 2.3930
5.6754 -1.2621 2.3930
5.7077 -1.0520 2.3930
5.7333 -0.8413 2.3930
5.7522 -0.6303 2.3930
5.7644 -0.4190 2.3930
5.7699 -0.2076 2.3930
5.7687 0.0036 2.3930
5.7609 0.2145 2.3930
5.7465 0.4249 2.3930
5.7254 0.6347 2.3930
5.6978 0.8438 2.3930
5.6636 1.0518 2.3930
5.6228 1.2587 2.3930
5.5755 1.4642 2.3930
5.5218 1.6683 2.3930
5.4616 1.8707 2.3930
5.3949 2.0714 2.3930
5.3219 2.2700 2.3930
5.2426 2.4664 2.3930
5.1569 2.6606 2.3930
5.0651 2.8522 2.3930
4.9670 3.0411 2.3930
4.8628 3.2272 2.3930
4.7524 3.4103 2.3930
4.6361 3.5902 2.3930
4.5138 3.7668 2.3930
4.3856 3.9398 2.3930
4.2515 4.1090 2.3930
4.1117 4.2744 2.3930
3.9662 4.4357 2.3930
3.8151 4.5927 2.3930
3.6585 4.7453 2.3930
3.4966 4.8932 2.3930
3.3292 5.0364 2.3930
3.1567 5.1745 2.3930
2.9791 5.3075 2.3930
2.7965 5.4351 2.3930
2.6091 5.5572 2.3930
2.4169 5.6737 2.3930
2.2202 5.7839 2.3930
0.8507 2.4811 1.0083
0.7610 2.5121 1.0042
0.6703 2.5398 1.0000
0.5786 2.5642 0.9957
0.4860 2.5853 0.9913
0.3928 2.6031 0.9869
0.2990 2.6174 0.9824
0.2047 2.6284 0.9779
0.1100 2.6360 0.9733
0.0152 2.6401 0.9686
-0.0797 2.6408 0.9639
-0.1746 2.6380 0.9592
-0.2694 2.6319 0.9545
-0.3638 2.6223 0.9497
-0.4579 2.6093 0.9450
-0.5514 2.5929 0.9402
-0.6443 2.5731 0.9354
-0.7364 2.5500 0.9307
-0.8276 2.5236 0.9259
-0.9177 2.4939 0.9212
-2.6289 6.4260 2.3930
-2.8728 6.3642 2.3930
-3.1156 6.2931 2.3930
-3.3567 6.2128 2.3930
-3.5958 6.1232 2.3930
-3.8327 6.0244 2.3930
-4.0667 5.9163 2.3930
-4.2976 5.7990 2.3930
-4.5250 5.6725 2.3930
-4.7484 5.5369 2.3930
-4.9675 5.3923 2.3930
-5.1817 5.2387 2.3930
-5.3908 5.0764 2.3930
-5.5942 4.9054 2.3930
-5.7916 4.7259 2.3930
-5.9826 4.5382 2.3930
-6.1667 4.3424 2.3930
-6.3436 4.1388 2.3930
-6.5128 3.9276 2.3930
-6.6741 3.7092 2.3930
-6.8269 3.4838 2.3930
-6.9710 3.2518 2.3930
-7.1059 3.0135 2.3930
-7.2315 2.7693 2.3930
-7.3473 2.5196 2.3930
-7.4531 2.2647 2.3930
-7.5485 2.0053 2.3930
-7.6334 1.7416 2.3930
-7.7075 1.4741 2.3930
-7.7706 1.2034 2.3930
-7.8225 0.9299 2.3930
-7.8630 0.6541 2.3930
-7.8922 0.3766 2.3930
-7.9097 0.0979 2.3930
-7.9156 -0.1816 2.3930
-7.9098 -0.4613 2.3930
-7.8924 -0.7406 2.3930
-7.8633 -1.0189 2.3930
-7.8225 -1.2959 2.3930
-7.7702 -1.5709 2.3930
-7.7065 -1.8434 2.3930
-7.6315 -2.1129 2.3930
-7.5453 -2.3788 2.3930
-7.4482 -2.6407 2.3930
-7.3404 -2.8982 2.3930
-7.2221 -3.1506 2.3930
-7.0936 -3.3976 2.3930
-6.9551 -3.6387 2.3930
-6.8071 -3.8735 2.3930
-6.6498 -4.1016 2.3930
-6.4836 -4.3227 2.3930
-6.3088 -4.5363 2.3930
-6.1259 -4.7421 2.3930
-5.9353 -4.9398 2.3930
-5.7373 -5.1292 2.3930
-5.5324 -5.3099 2.3930
-5.3210 -5.4817 2.3930
-5.1035 -5.6445 2.3930
-4.8805 -5.7980 2.3930
-4.6523 -5.9420 2.3930
-4.4195 -6.0764 2.3930
-4.1821 -6.2008 2.3929
-3.9393 -6.3127 2.3917
-3.6911 -6.4106 2.3891
-3.4374 -6.4926 2.3843
-3.1866 -6.5732 2.3827
-2.9351 -6.6458 2.3818
-2.6822 -6.7087 2.3810
-2.4283 -6.7618 2.3803
-2.1739 -6.8052 2.3796
-1.9193 -6.8391 2.3789
-1.6650 -6.8634 2.3783
-1.4112 -6.8783 2.3777
-1.1584 -6.8840 2.3771
-0.9067 -6.8799 2.3764
-0.6563 -6.8622 2.3741
-0.4081 -6.8362 2.3721
-0.1626 -6.8018 2.3702
0.0801 -6.7594 2.3684
0.3199 -6.7107 2.3674
0.5566 -6.6566 2.3673
0.7901 -6.5945 2.3673
1.0201 -6.5245 2.3673
1.2463 -6.4470 2.3672
1.4685 -6.3621 2.3672
1.6865 -6.2699 2.3672
1.9001 -6.1709 2.3671
2.1091 -6.0651 2.3671
2.3133 -5.9528 2.3671
2.5126 -5.8342 2.3671
2.7068 -5.7095 2.3671
2.8961 -5.5799 2.3674
3.0816 -5.4471 2.3689
3.2621 -5.3093 2.3706
3.4373 -5.1662 2.3724
3.6072 -5.0182 2.3743
3.7717 -4.8655 2.3764
3.9278 -4.7048 2.3768
4.0779 -4.5398 2.3772
4.2220 -4.3706 2.3777
4.3600 -4.1976 2.3782
4.4919 -4.0208 2.3788
4.6175 -3.8406 2.3793
4.7368 -3.6571 2.3799
4.8498 -3.4704 2.3806
4.9564 -3.2809 2.3812
5.0566 -3.0886 2.3819
5.1503 -2.8938 2.3826
5.2376 -2.6967 2.3833
5.3183 -2.4974 2.3841
5.3925 -2.2961 2.3848
5.4702 -2.0970 2.3900
5.5353 -1.8933 2.3925
5.5891 -1.6864 2.3930
5.6350 -1.4781 2.3930
5.6742 -1.2688 2.3930
5.7068 -1.0587 2.3930
5.7326 -0.8481 2.3930
5.7517 -0.6370 2.3930
5.7641 -0.4257 2.3930
5.7698 -0.2144 2.3930
5.7689 -0.0032 2.3930
5.7613 0.2078 2.3930
5.7470 0.4182 2.3930
5.7262 0.6281 2.3930
5.6988 0.8371 2.3930
5.6648 1.0451 2.3930
5.6242 1.2521 2.3930
5.5771 1.4577 2.3930
5.5236 1.6618 2.3930
5.4636 1.8643 2.3930
5.3972 2.0650 2.3930
5.3243 2.2637 2.3930
5.2452 2.4602 2.3930
5.1598 2.6544 2.3930
5.0681 2.8461 2.3930
4.9702 3.0351 2.3930
4.8662 3.2213 2.3930
4.7561 3.4045 2.3930
4.6399 3.5845 2.3930
4.5178 3.7612 2.3930
4.3897 3.9343 2.3930
4.2559 4.1037 2.3930
4.1163 4.2692 2.3930
3.9710 4.4306 2.3930
3.8200 4.5877 2.3930
3.6636 4.7405 2.3930
3.5018 4.8886 2.3930
3.3347 5.0319 2.3930
3.1623 5.1702 2.3930
2.9849 5.3034 2.3930
2.8024 5.4312 2.3930
2.6151 5.5534 2.3930
2.4231 5.6700 2.3930
2.2266 5.7805 2.3930
0.8536 2.4801 1.0085
0.7639 2.5111 1.0043
0.6732 2.5390 1.0001
0.5815 2.5635 0.9958
0.4890 2.5847 0.9915
0.3958 2.6026 0.9870
0.3020 2.6170 0.9826
0.2077 2.6281 0.9780
0.1131 2.6358 0.9734
0.0182 2.6400 0.9688
-0.0767 2.6408 0.9641
-0.1716 2.6382 0.9594
-0.2664 2.6321 0.9546
-0.3608 2.6226 0.9499
-0.4549 2.6097 0.9451
-0.5484 2.5934 0.9403
-0.6413 2.5738 0.9356
-0.7334 2.5508 0.9308
-0.8247 2.5245 0.9260
-0.9149 2.4949 0.9213
-2.6211 6.4278 2.3930
-2.8651 6.3663 2.3930
-3.1078 6.2955 2.3930
-3.3490 6.2155 2.3930
-3.5882 6.1263 2.3930
-3.8251 6.0277 2.3930
-4.0593 5.9199 2.3930
-4.2903 5.8029 2.3930
-4.5178 5.6767 2.3930
-4.7414 5.5414 2.3930
-4.9606 5.3970 2.3930
-5.1750 5.2438 2.3930
-5.3842 5.0817 2.3930
-5.5878 4.9110 2.3930
-5.7854 4.7318 2.3930
-5.9766 4.5443 2.3930
2.6103 5.1009 2.3930
2.4337 5.2140 2.3930
2.2528 5.3216 2.3930
0.8704 2.2832 1.0074
0.7878 2.3150 1.0036
0.7041 2.3438 0.9998
0.6194 2.3695 0.9958
0.5338 2.3922 0.9918
0.4475 2.4117 0.9878
0.3605 2.4282 0.9836
0.2729 2.4415 0.9794
0.1850 2.4516 0.9752
0.0967 2.4585 0.9709
0.0082 2.4622 0.9666
-0.0804 2.4628 0.9622
-0.1689 2.4601 0.9578
-0.2572 2.4542 0.9534
-0.3453 2.4452 0.9489
-0.4331 2.4329 0.9445
-0.5203 2.4176 0.9400
-0.6069 2.3990 0.9356
-0.6927 2.3774 0.9311
-0.7778 2.3526 0.9267
-0.8619 2.3248 0.9223
-0.9449 2.2940 0.9179
-2.6896 5.9208 2.3930
-2.9145 5.8523 2.3930
-3.1378 5.7753 2.3930
-3.3591 5.6897 2.3930
-3.5780 5.5956 2.3930
-3.7942 5.4929 2.3930
-4.0073 5.3818 2.3930
-4.2170 5.2622 2.3930
-4.4229 5.1343 2.3930
-4.6246 4.9981 2.3930
-4.8218 4.8537 2.3930
-5.0140 4.7014 2.3930
-5.2008 4.5411 2.3930
-5.3820 4.3731 2.3930
-5.5572 4.1976 2.3930
-5.7259 4.0148 2.3930
-5.8879 3.8249 2.3930
-6.0427 3.6281 2.3930
-6.1901 3.4248 2.3930
-6.3297 3.2152 2.3930
-6.4612 2.9996 2.3930
-6.5842 2.7783 2.3930
-6.6986 2.5517 2.3930
-6.8040 2.3202 2.3930
-6.9001 2.0841 2.3930
-6.9867 1.8438 2.3930
-7.0637 1.5998 2.3930
-7.1307 1.3524 2.3930
-7.1876 1.1021 2.3930
-7.2344 0.8493 2.3930
-7.2707 0.5945 2.3930
-7.2965 0.3381 2.3930
-7.3118 0.0807 2.3930
-7.3164 -0.1773 2.3930
-7.3104 -0.4354 2.3930
-7.2937 -0.6932 2.3930
-7.2664 -0.9501 2.3930
-7.2284 -1.2057 2.3930
-7.1799 -1.4595 2.3930
-7.1210 -1.7110 2.3930
-7.0517 -1.9597 2.3930
-6.9723 -2.2053 2.3930
-6.8829 -2.4472 2.3930
-6.7836 -2.6850 2.3930
-6.6748 -2.9182 2.3930
-6.5567 -3.1465 2.3930
-6.4294 -3.3695 2.3930
-6.2934 -3.5868 2.3930
-6.1488 -3.7980 2.3930
-5.9960 -4.0027 2.3930
-5.8354 -4.2007 2.3930
-5.6673 -4.3916 2.3930
-5.4919 -4.5752 2.3930
-5.3098 -4.7512 2.3930
-5.1213 -4.9193 2.3930
-4.9268 -5.0793 2.3930
-4.7266 -5.2310 2.3930
-4.5212 -5.3743 2.3930
-4.3110 -5.5090 2.3930
-4.0963 -5.6348 2.3930
-3.8777 -5.7519 2.3930
-3.6552 -5.8595 2.3929
-3.4282 -5.9559 2.3918
-3.1968 -6.0397 2.3894
-2.9612 -6.1095 2.3851
-2.7275 -6.1768 2.3836
-2.4934 -6.2371 2.3828
-2.2582 -6.2884 2.3821
-2.0224 -6.3308 2.3814
-1.7863 -6.3643 2.3808
-1.5502 -6.3889 2.3802
-1.3145 -6.4049 2.3796
-1.0795 -6.4122 2.3791
-0.8455 -6.4110 2.3787
-0.6129 -6.4014 2.3782
-0.3819 -6.3836 2.3779
-0.1528 -6.3577 2.3775
0.0741 -6.3239 2.3772
0.2987 -6.2822 2.3769
0.5204 -6.2330 2.3767
0.7391 -6.1757 2.3763
0.9544 -6.1104 2.3756
1.1664 -6.0384 2.3751
1.3748 -5.9599 2.3748
1.5794 -5.8752 2.3747
1.7803 -5.7842 2.3748
1.9770 -5.6874 2.3751
2.1696 -5.5848 2.3756
2.3580 -5.4766 2.3763
2.5412 -5.3616 2.3766
2.7196 -5.2407 2.3768
2.8931 -5.1145 2.3770
3.0616 -4.9832 2.3773
3.2248 -4.8470 2.3776
3.3828 -4.7060 2.3779
3.5354 -4.5605 2.3782
3.6825 -4.4106 2.3786
3.8241 -4.2566 2.3791
3.9601 -4.0987 2.3795
4.0904 -3.9370 2.3800
4.2149 -3.7717 2.3805
4.3335 -3.6030 2.3810
4.4462 -3.4312 2.3816
4.5530 -3.2563 2.3821
4.6538 -3.0786 2.3828
4.7486 -2.8983 2.3834
4.8372 -2.7156 2.3840
4.9197 -2.5305 2.3847
4.9961 -2.3434 2.3854
5.0682 -2.1552 2.3870
5.1408 -1.9676 2.3918
5.1997 -1.7752 2.3930
5.2497 -1.5806 2.3930
5.2933 -1.3848 2.3930
5.3305 -1.1880 2.3930
5.3614 -0.9905 2.3930
5.3859 -0.7924 2.3930
5.4041 -0.5940 2.3930
5.4159 -0.3952 2.3930
5.4214 -0.1964 2.3930
5.4205 0.0023 2.3930
5.4134 0.2008 2.3930
5.3999 0.3988 2.3930
5.3802 0.5962 2.3930
5.3542 0.7929 2.3930
5.3220 0.9886 2.3930
5.2835 1.1832 2.3930
5.2389 1.3766 2.3930
5.1882 1.5686 2.3930
5.1313 1.7590 2.3930
5.0684 1.9476 2.3930
4.9994 2.1343 2.3930
4.9244 2.3190 2.3930
4.8434 2.5014 2.3930
4.7566 2.6814 2.3930
4.6639 2.8588 2.3930
4.5654 3.0335 2.3930
4.4611 3.2053 2.3930
4.3512 3.3740 2.3930
4.2356 3.5395 2.3930
4.1145 3.7016 2.3930
3.9879 3.8601 2.3930
3.8558 4.0148 2.3930
3.7185 4.1656 2.3930
3.5759 4.3124 2.3930
3.4282 4.4548 2.3930
3.2754 4.5929 2.3930
3.1177 4.7263 2.3930
2.9551 4.8549 2.3930
2.7877 4.9788 2.3930
2.6159 5.0971 2.3930
2.4394 5.2105 2.3930
2.2586 5.3183 2.3930
0.8730 2.2821 1.0075
0.7905 2.3140 1.0037
0.7068 2.3429 0.9999
0.6221 2.3687 0.9960
0.5366 2.3915 0.9920
0.4502 2.4112 0.9879
0.3633 2.4277 0.9838
0.2757 2.4411 0.9796
0.1878 2.4513 0.9753
0.0995 2.4583 0.9710
0.0110 2.4622 0.9667
-0.0775 2.4628 0.9623
-0.1661 2.4602 0.9579
-0.2544 2.4545 0.9535
-0.3425 2.4455 0.9491
-0.4303 2.4334 0.9446
-0.5175 2.4181 0.9402
-0.6041 2.3997 0.9357
-0.6900 2.3781 0.9313
-0.7751 2.3535 0.9268
-0.8592 2.3258 0.9224
-0.9422 2.2950 0.9180
-2.6824 5.9228 2.3930
-2.9074 5.8546 2.3930
-3.1307 5.7779 2.3930
-3.3520 5.6926 2.3930
-3.5710 5.5987 2.3930
-3.7873 5.4963 2.3930
-4.0006 5.3855 2.3930
-4.2104 5.2662 2.3930
-4.4164 5.1385 2.3930
-4.6183 5.0026 2.3930
-4.8155 4.8585 2.3930
-5.0079 4.7064 2.3930
-5.1950 4.5463 2.3930
-5.3763 4.3786 2.3930
-5.5517 4.2033 2.3930
-5.7206 4.0207 2.3930
-5.8828 3.8310 2.3930
-6.0379 3.6345 2.3930
-6.1855 3.4314 2.3930
-6.3254 3.2220 2.3930
-6.4571 3.0065 2.3930
-6.5804 2.7855 2.3930
-6.6951 2.5590 2.3930
-6.8007 2.3277 2.3930
-6.8972 2.0917 2.3930
-6.9841 1.8516 2.3930
-7.0614 1.6076 2.3930
-7.1287 1.3603 2.3930
-7.1860 1.1101 2.3930
-7.2330 0.8574 2.3930
-7.2697 0.6027 2.3930
-7.2959 0.3464 2.3930
-7.3115 0.0890 2.3930
-7.3164 -0.1690 2.3930
-7.3108 -0.4272 2.3930
-7.2944 -0.6850 2.3930
-7.2674 -0.9419 2.3930
-7.2298 -1.1976 2.3930
-7.1816 -1.4514 2.3930
-7.1230 -1.7030 2.3930
-7.0541 -1.9519 2.3930
-6.9750 -2.1975 2.3930
-6.8859 -2.4395 2.3930
-6.7870 -2.6774 2.3930
-6.6784 -2.9108 2.3930
-6.5606 -3.1393 2.3930
-6.4336 -3.3625 2.3930
-6.2978 -3.5799 2.3930
-6.1535 -3.7913 2.3930
-6.0010 -3.9963 2.3930
-5.8406 -4.1945 2.3930
-5.6727 -4.3857 2.3930
-5.4977 -4.5695 2.3930
-5.3158 -4.7457 2.3930
-5.1275 -4.9140 2.3930
-4.9331 -5.0743 2.3930
-4.7331 -5.2263 2.3930
-4.5279 -5.3699 2.3930
-4.3178 -5.5048 2.3930
-4.1033 -5.6310 2.3930
-3.8847 -5.7483 2.3930
