ply
format ascii 1.0
element vertex 2182
property float32 x
property float32 y
property float32 z
end_header
2.9194 8.8581 2.3887
2.5949 8.9399 2.3887
0.8948 3.5542 0.9423
0.7667 3.5841 0.9442
0.6377 3.6092 0.9460
0.5078 3.6298 0.9478
0.3772 3.6455 0.9496
0.2462 3.6566 0.9514
0.1148 3.6629 0.9532
-0.0168 3.6645 0.9550
-0.1483 3.6613 0.9568
-0.2796 3.6533 0.9585
-0.4105 3.6406 0.9603
-0.5410 3.6231 0.9619
-0.6707 3.6010 0.9636
-0.7995 3.5741 0.9653
-2.2907 8.7523 2.3887
-2.5991 8.6491 2.3887
-2.9031 8.5353 2.3887
-3.2025 8.4111 2.3887
-3.4969 8.2767 2.3887
-3.7859 8.1324 2.3887
-4.0693 7.9783 2.3887
-4.3467 7.8146 2.3887
-4.6178 7.6417 2.3887
-4.8824 7.4598 2.3887
-5.1402 7.2690 2.3887
-5.3909 7.0696 2.3887
-5.6342 6.8620 2.3887
-5.8698 6.6464 2.3887
-6.0976 6.4230 2.3887
-6.3173 6.1922 2.3887
-6.5287 5.9542 2.3887
-6.7316 5.7093 2.3887
-6.9257 5.4579 2.3887
-7.1108 5.2002 2.3887
-7.2869 4.9365 2.3887
-7.4536 4.6671 2.3887
-7.6109 4.3924 2.3887
-7.7586 4.1127 2.3887
-7.8965 3.8282 2.3887
-8.0246 3.5394 2.3887
-8.1426 3.2465 2.3887
-8.2504 2.9499 2.3887
-8.3481 2.6499 2.3887
-8.4353 2.3469 2.3887
-8.5122 2.0411 2.3887
-8.5785 1.7330 2.3887
-8.6343 1.4228 2.3887
-8.6795 1.1109 2.3887
-8.7139 0.7977 2.3887
-8.7377 0.4834 2.3887
-8.7507 0.1685 2.3887
-8.7529 -0.1467 2.3887
-8.7444 -0.4619 2.3887
-8.7251 -0.7767 2.3887
-8.6950 -1.0908 2.3887
-8.6542 -1.4038 2.3887
-8.6027 -1.7154 2.3887
-8.5405 -2.0252 2.3887
-8.4677 -2.3328 2.3887
-8.3843 -2.6381 2.3887
-8.2905 -2.9405 2.3887
-8.1862 -3.2397 2.3887
-8.0717 -3.5355 2.3887
-7.9469 -3.8274 2.3887
-7.8121 -4.1151 2.3887
-7.6673 -4.3983 2.3887
-7.5126 -4.6766 2.3887
-7.3482 -4.9498 2.3887
-7.1744 -5.2174 2.3887
-6.9911 -5.4792 2.3887
-6.7987 -5.7348 2.3887
-6.5972 -5.9840 2.3887
-6.3870 -6.2263 2.3887
-6.1681 -6.4615 2.3887
-5.9409 -6.6893 2.3887
-5.7055 -6.9094 2.3887
-5.4623 -7.1215 2.3887
-5.2114 -7.3252 2.3887
-4.9531 -7.5204 2.3887
-4.6877 -7.7067 2.3887
-4.4154 -7.8840 2.3887
-4.1367 -8.0518 2.3887
-3.8518 -8.2099 2.3887
-3.5609 -8.3582 2.3887
-3.2645 -8.4964 2.3887
-2.9628 -8.6243 2.3887
-2.6563 -8.7416 2.3887
-2.3452 -8.8481 2.3887
-2.0300 -8.9437 2.3887
-1.7110 -9.0282 2.3887
-1.3886 -9.1014 2.3887
-1.0632 -9.1631 2.3887
-0.7352 -9.2133 2.3887
-0.4050 -9.2517 2.3887
-0.0731 -9.2783 2.3887
0.2602 -9.2929 2.3887
0.5945 -9.2956 2.3887
0.9291 -9.2861 2.3887
1.2639 -9.2645 2.3887
1.5982 -9.2308 2.3887
1.9316 -9.1848 2.3887
2.2638 -9.1267 2.3887
2.5942 -9.0563 2.3887
2.9223 -8.9738 2.3887
3.2477 -8.8792 2.3887
3.5700 -8.7726 2.3887
3.8886 -8.6540 2.3887
4.2032 -8.5236 2.3887
4.5132 -8.3815 2.3887
4.8183 -8.2278 2.3887
5.1179 -8.0628 2.3887
5.4116 -7.8865 2.3887
5.6989 -7.6991 2.3887
5.9795 -7.5010 2.3887
6.2528 -7.2923 2.3887
6.5186 -7.0733 2.3887
6.7763 -6.8443 2.3887
7.0255 -6.6056 2.3887
7.2660 -6.3574 2.3887
7.4972 -6.1003 2.3887
7.7188 -5.8342 2.3887
7.9305 -5.5599 2.3887
8.1319 -5.2775 2.3887
8.3228 -4.9875 2.3887
9.3228 2.7103 2.3887
9.2123 3.0395 2.3887
9.0896 3.3642 2.3887
8.9549 3.6837 2.3887
8.8084 3.9977 2.3887
8.6505 4.3057 2.3887
8.4812 4.6072 2.3887
8.3010 4.9019 2.3887
8.1102 5.1893 2.3887
7.9089 5.4692 2.3887
7.6977 5.7410 2.3887
7.4767 6.0044 2.3887
7.2465 6.2590 2.3887
7.0072 6.5047 2.3887
6.7594 6.7410 2.3887
6.5033 6.9676 2.3887
6.2395 7.1843 2.3887
5.9682 7.3908 2.3887
5.6900 7.5869 2.3887
5.4052 7.7724 2.3887
5.1142 7.9470 2.3887
4.8176 8.1105 2.3887
4.5156 8.2629 2.3887
4.2088 8.4039 2.3887
3.8977 8.5334 2.3887
3.5825 8.6513 2.3887
3.2639 8.7575 2.3887
2.9422 8.8519 2.3887
2.6178 8.9345 2.3887
0.9038 3.5519 0.9422
0.7758 3.5821 0.9440
0.6468 3.6076 0.9459
0.5170 3.6285 0.9477
0.3865 3.6446 0.9495
0.2554 3.6560 0.9513
0.1241 3.6626 0.9531
-0.0075 3.6645 0.9549
-0.1390 3.6616 0.9567
-0.2703 3.6540 0.9584
-0.4013 3.6416 0.9601
-0.5318 3.6245 0.9618
-0.6615 3.6027 0.9635
-0.7904 3.5762 0.9651
-2.2689 8.7588 2.3887
-2.5775 8.6567 2.3887
-2.8818 8.5436 2.3887
-3.1815 8.4202 2.3887
-3.4763 8.2865 2.3887
-3.7657 8.1429 2.3887
-4.0495 7.9895 2.3887
-4.3273 7.8265 2.3887
-4.5989 7.6542 2.3887
-4.8640 7.4729 2.3887
-5.1223 7.2827 2.3887
-5.3734 7.0840 2.3887
-5.6172 6.8770 2.3887
-5.8535 6.6619 2.3887
-6.0818 6.4390 2.3887
-6.3021 6.2087 2.3887
-6.5141 5.9712 2.3887
-6.7175 5.7268 2.3887
-6.9123 5.4759 2.3887
-7.0981 5.2186 2.3887
-7.2748 4.9553 2.3887
-7.4422 4.6863 2.3887
-7.6001 4.4120 2.3887
-7.7485 4.1326 2.3887
-7.8871 3.8485 2.3887
-8.0159 3.5599 2.3887
-8.1346 3.2673 2.3887
-8.2432 2.9710 2.3887
-8.3415 2.6712 2.3887
-8.4295 2.3684 2.3887
-8.5071 2.0628 2.3887
-8.5742 1.7548 2.3887
-8.6307 1.4447 2.3887
-8.6766 1.1330 2.3887
-8.7118 0.8198 2.3887
-8.7363 0.5056 2.3887
-8.7501 0.1908 2.3887
-8.7531 -0.1244 2.3887
-8.7453 -0.4397 2.3887
-8.7268 -0.7545 2.3887
-8.6975 -1.0686 2.3887
-8.6574 -1.3817 2.3887
-8.6067 -1.6934 2.3887
-8.5452 -2.0034 2.3887
-8.4732 -2.3112 2.3887
-8.3906 -2.6166 2.3887
-8.2975 -2.9192 2.3887
-8.1940 -3.2187 2.3887
-8.0801 -3.5147 2.3887
-7.9561 -3.8069 2.3887
-7.8219 -4.0949 2.3887
-7.6778 -4.3784 2.3887
-7.5238 -4.6571 2.3887
-7.3602 -4.9307 2.3887
-7.1870 -5.1987 2.3887
-7.0044 -5.4609 2.3887
-6.8126 -5.7170 2.3887
-6.6117 -5.9666 2.3887
-6.4021 -6.2094 2.3887
-6.1839 -6.4451 2.3887
-5.9572 -6.6735 2.3887
-5.7224 -6.8941 2.3887
-5.4797 -7.1068 2.3887
-5.2293 -7.3111 2.3887
-4.9715 -7.5069 2.3887
-4.7066 -7.6939 2.3887
-4.4349 -7.8717 2.3887
-4.1566 -8.0402 2.3887
-3.8721 -8.1991 2.3887
-3.5816 -8.3481 2.3887
-3.2856 -8.4870 2.3887
-2.9843 -8.6156 2.3887
-2.6781 -8.7337 2.3887
-2.3673 -8.8410 2.3887
-2.0524 -8.9373 2.3887
-1.7336 -9.0226 2.3887
-1.4115 -9.0966 2.3887
-1.0863 -9.1591 2.3887
-0.7584 -9.2101 2.3887
-0.4284 -9.2494 2.3887
-0.0966 -9.2768 2.3887
0.2367 -9.2923 2.3887
0.5708 -9.2958 2.3887
0.9055 -9.2872 2.3887
1.2402 -9.2665 2.3887
1.5746 -9.2336 2.3887
1.9082 -9.1885 2.3887
2.2404 -9.1312 2.3887
2.5709 -9.0617 2.3887
2.8992 -8.9801 2.3887
3.2248 -8.8863 2.3887
3.5474 -8.7805 2.3887
3.8663 -8.6628 2.3887
4.1812 -8.5332 2.3887
4.4915 -8.3919 2.3887
4.7969 -8.2391 2.3887
5.0969 -8.0748 2.3887
5.3910 -7.8992 2.3887
5.6788 -7.7127 2.3887
5.9599 -7.5153 2.3887
6.2338 -7.3074 2.3887
6.5001 -7.0891 2.3887
6.7584 -6.8608 2.3887
7.0082 -6.6228 2.3887
7.2493 -6.3753 2.3887
7.4812 -6.1186 2.3887
7.7035 -5.8533 2.3887
7.9159 -5.5795 2.3887
8.1180 -5.2977 2.3887
8.3096 -5.0083 2.3887
8.4903 -4.7116 2.3887
9.3301 2.6869 2.3887
9.2205 3.0164 2.3887
9.0986 3.3414 2.3887
8.9648 3.6613 2.3887
8.8191 3.9757 2.3887
8.6620 4.2841 2.3887
8.4935 4.5861 2.3887
8.3141 4.8813 2.3887
8.1240 5.1693 2.3887
7.9235 5.4497 2.3887
7.7129 5.7220 2.3887
7.4927 5.9860 2.3887
7.2630 6.2414 2.3887
7.0244 6.4877 2.3887
6.7771 6.7246 2.3887
6.5216 6.9519 2.3887
6.2583 7.1693 2.3887
5.9876 7.3766 2.3887
5.7098 7.5734 2.3887
5.4255 7.7597 2.3887
5.1349 7.9350 2.3887
4.8387 8.0994 2.3887
4.5371 8.2525 2.3887
7.2405 -5.0473 2.3887
7.4227 -4.7892 2.3887
7.5953 -4.5243 2.3887
7.7579 -4.2529 2.3887
7.9104 -3.9754 2.3887
8.0524 -3.6923 2.3887
8.1838 -3.4038 2.3887
8.3043 -3.1105 2.3887
8.4137 -2.8128 2.3887
8.5119 -2.5111 2.3887
8.5988 -2.2058 2.3887
8.6741 -1.8974 2.3887
8.7377 -1.5863 2.3887
8.7896 -1.2730 2.3887
8.8297 -0.9580 2.3887
8.8579 -0.6417 2.3887
8.8741 -0.3245 2.3887
8.8784 -0.0070 2.3887
8.8708 0.3103 2.3887
8.8513 0.6271 2.3887
8.8198 0.9428 2.3887
8.7766 1.2570 2.3887
8.7216 1.5692 2.3887
8.6549 1.8790 2.3887
8.5767 2.1859 2.3887
8.4871 2.4895 2.3887
8.3863 2.7893 2.3887
8.2744 3.0849 2.3887
8.1516 3.3759 2.3887
8.0181 3.6619 2.3887
7.8742 3.9424 2.3887
7.7200 4.2171 2.3887
7.5558 4.4857 2.3887
7.3820 4.7477 2.3887
7.1987 5.0027 2.3887
7.0063 5.2505 2.3887
6.8050 5.4907 2.3887
6.5953 5.7231 2.3887
6.3774 5.9472 2.3887
6.1516 6.1629 2.3887
5.9183 6.3698 2.3887
5.6779 6.5677 2.3887
5.4307 6.7564 2.3887
5.1771 6.9356 2.3887
4.9175 7.1052 2.3887
4.6522 7.2649 2.3887
4.3817 7.4146 2.3887
4.1063 7.5540 2.3887
3.8265 7.6832 2.3887
3.5426 7.8019 2.3887
3.2550 7.9101 2.3887
2.9641 8.0076 2.3887
2.6704 8.0943 2.3887
0.9348 3.2170 0.9405
0.8189 3.2484 0.9422
0.7018 3.2756 0.9439
0.5839 3.2986 0.9456
0.4652 3.3173 0.9472
0.3458 3.3317 0.9489
0.2260 3.3418 0.9506
0.1060 3.3476 0.9522
-0.0143 3.3490 0.9538
-0.1345 3.3460 0.9554
-0.2545 3.3387 0.9570
-0.3742 3.3271 0.9586
-0.4933 3.3112 0.9602
-0.6119 3.2909 0.9617
-0.7296 3.2664 0.9632
-0.8463 3.2376 0.9646
-2.3786 7.9236 2.3887
-2.6575 7.8204 2.3887
-2.9322 7.7076 2.3887
-3.2024 7.5855 2.3887
-3.4677 7.4541 2.3887
-3.7279 7.3138 2.3887
-3.9827 7.1647 2.3887
-4.2319 7.0069 2.3887
-4.4750 6.8408 2.3887
-4.7119 6.6668 2.3887
-4.9423 6.4845 2.3887
-5.1660 6.2947 2.3887
-5.3828 6.0975 2.3887
-5.5923 5.8931 2.3887
-5.7944 5.6818 2.3887
-5.9889 5.4639 2.3887
-6.1755 5.2396 2.3887
-6.3542 5.0092 2.3887
-6.5246 4.7730 2.3887
-6.6867 4.5313 2.3887
-6.8402 4.2843 2.3887
-6.9850 4.0323 2.3887
-7.1210 3.7757 2.3887
-7.2480 3.5147 2.3887
-7.3658 3.2497 2.3887
-7.4745 2.9809 2.3887
-7.5738 2.7086 2.3887
-7.6637 2.4332 2.3887
-7.7440 2.1550 2.3887
-7.8148 1.8742 2.3887
-7.8758 1.5912 2.3887
-7.9271 1.3064 2.3887
-7.9686 1.0199 2.3887
-8.0002 0.7323 2.3887
-8.0220 0.4437 2.3887
-8.0339 0.1545 2.3887
-8.0358 -0.1350 2.3887
-8.0278 -0.4245 2.3887
-8.0098 -0.7135 2.3887
-7.9820 -1.0019 2.3887
-7.9442 -1.2893 2.3887
-7.8966 -1.5754 2.3887
-7.8391 -1.8597 2.3887
-7.7719 -2.1421 2.3887
-7.6949 -2.4222 2.3887
-7.6083 -2.6997 2.3887
-7.5121 -2.9742 2.3887
-7.4064 -3.2455 2.3887
-7.2914 -3.5132 2.3887
-7.1670 -3.7769 2.3887
-7.0336 -4.0365 2.3887
-6.8910 -4.2916 2.3887
-6.7396 -4.5418 2.3887
-6.5794 -4.7869 2.3887
-6.4106 -5.0266 2.3887
-6.2335 -5.2605 2.3887
-6.0480 -5.4885 2.3887
-5.8545 -5.7101 2.3887
-5.6532 -5.9251 2.3887
-5.4442 -6.1332 2.3887
-5.2278 -6.3343 2.3887
-5.0041 -6.5279 2.3887
-4.7735 -6.7138 2.3887
-4.5362 -6.8917 2.3887
-4.2924 -7.0615 2.3887
-4.0425 -7.2229 2.3887
-3.7866 -7.3756 2.3887
-3.5251 -7.5195 2.3887
-3.2582 -7.6542 2.3887
-2.9863 -7.7796 2.3887
-2.7097 -7.8955 2.3887
-2.4287 -8.0017 2.3887
-2.1437 -8.0980 2.3887
-1.8549 -8.1842 2.3887
-1.5628 -8.2602 2.3887
-1.2676 -8.3259 2.3887
-0.9698 -8.3811 2.3887
-0.6697 -8.4256 2.3887
-0.3677 -8.4594 2.3887
-0.0641 -8.4824 2.3887
0.2405 -8.4945 2.3887
0.5460 -8.4956 2.3887
0.8517 -8.4856 2.3887
1.1574 -8.4646 2.3887
1.4626 -8.4325 2.3887
1.7669 -8.3892 2.3887
2.0700 -8.3348 2.3887
2.3713 -8.2693 2.3887
2.6706 -8.1928 2.3887
2.9672 -8.1053 2.3887
3.2609 -8.0068 2.3887
3.5512 -7.8974 2.3887
3.8378 -7.7774 2.3887
4.1201 -7.6466 2.3887
4.3978 -7.5054 2.3887
4.6705 -7.3539 2.3887
4.9377 -7.1922 2.3887
5.1991 -7.0205 2.3887
5.4543 -6.8390 2.3887
5.7029 -6.6480 2.3887
5.9444 -6.4476 2.3887
6.1787 -6.2382 2.3887
6.4052 -6.0200 2.3887
6.6236 -5.7933 2.3887
6.8337 -5.5584 2.3887
7.0350 -5.3156 2.3887
7.2273 -5.0652 2.3887
7.4102 -4.8076 2.3887
7.5834 -4.5432 2.3887
7.7468 -4.2722 2.3887
7.9000 -3.9952 2.3887
8.0428 -3.7124 2.3887
8.1749 -3.4244 2.3887
8.2962 -3.1314 2.3887
8.4064 -2.8340 2.3887
8.5054 -2.5325 2.3887
8.5930 -2.2275 2.3887
8.6691 -1.9192 2.3887
8.7336 -1.6083 2.3887
8.7863 -1.2952 2.3887
8.8272 -0.9802 2.3887
8.8563 -0.6640 2.3887
8.8734 -0.3469 2.3887
8.8785 -0.0294 2.3887
8.8718 0.2879 2.3887
8.8530 0.6048 2.3887
8.8225 0.9206 2.3887
8.7800 1.2349 2.3887
8.7258 1.5473 2.3887
8.6600 1.8572 2.3887
8.5826 2.1643 2.3887
8.4938 2.4682 2.3887
8.3938 2.7682 2.3887
8.2826 3.0642 2.3887
8.1606 3.3555 2.3887
8.0279 3.6418 2.3887
7.8847 3.9228 2.3887
7.7312 4.1979 2.3887
7.5677 4.4669 2.3887
7.3946 4.7294 2.3887
7.2119 4.9850 2.3887
7.0202 5.2333 2.3887
6.8195 5.4740 2.3887
6.6104 5.7070 2.3887
6.3930 5.9317 2.3887
6.1678 6.1479 2.3887
5.9350 6.3555 2.3887
5.6951 6.5540 2.3887
5.4484 6.7434 2.3887
5.1952 6.9233 2.3887
4.9360 7.0935 2.3887
4.6711 7.2539 2.3887
4.4009 7.4043 2.3887
4.1259 7.5445 2.3887
3.8464 7.6744 2.3887
3.5627 7.7939 2.3887
3.2754 7.9028 2.3887
2.9847 8.0010 2.3887
2.6912 8.0885 2.3887
0.9430 3.2146 0.9404
0.8271 3.2463 0.9421
0.7101 3.2739 0.9438
0.5922 3.2971 0.9454
0.4736 3.3162 0.9471
0.3543 3.3309 0.9488
0.2345 3.3413 0.9504
0.1144 3.3473 0.9521
-0.0058 3.3490 0.9537
-0.1260 3.3464 0.9553
-0.2460 3.3394 0.9569
-0.3657 3.3281 0.9585
-0.4850 3.3124 0.9600
-0.6035 3.2925 0.9616
-0.7213 3.2682 0.9631
-0.8381 3.2398 0.9645
-2.3587 7.9305 2.3887
-2.6379 7.8280 2.3887
-2.9129 7.7159 2.3887
-3.1834 7.5944 2.3887
-3.4491 7.4637 2.3887
-3.7097 7.3240 2.3887
-3.9649 7.1755 2.3887
-4.2145 7.0184 2.3887
-4.4580 6.8528 2.3887
-4.6954 6.6793 2.3887
-4.9263 6.4976 2.3887
-5.1504 6.3084 2.3887
-5.3677 6.1117 2.3887
-5.5778 5.9078 2.3887
-5.7804 5.6970 2.3887
-5.9754 5.4795 2.3887
-6.1626 5.2557 2.3887
-6.3418 5.0257 2.3887
-6.5129 4.7899 2.3887
-6.6755 4.5485 2.3887
-6.8296 4.3019 2.3887
-6.9751 4.0503 2.3887
-7.1117 3.7940 2.3887
-7.2393 3.5333 2.3887
-7.3578 3.2685 2.3887
-7.4671 3.0000 2.3887
-7.5671 2.7280 2.3887
-7.6576 2.4527 2.3887
-7.7387 2.1747 2.3887
-7.8101 1.8941 2.3887
-7.8718 1.6113 2.3887
-7.9238 1.3265 2.3887
-7.9660 1.0402 2.3887
-7.9983 0.7526 2.3887
-8.0208 0.4641 2.3887
-8.0333 0.1749 2.3887
-8.0360 -0.1146 2.3887
-8.0287 -0.4041 2.3887
-8.0114 -0.6931 2.3887
-7.9843 -0.9816 2.3887
-7.9472 -1.2691 2.3887
-7.9003 -1.5552 2.3887
-7.8435 -1.8397 2.3887
-7.7769 -2.1223 2.3887
-7.7007 -2.4026 2.3887
-7.6147 -2.6802 2.3887
-7.5192 -2.9550 2.3887
-7.4142 -3.2265 2.3887
-7.2998 -3.4944 2.3887
-7.1761 -3.7585 2.3887
-7.0433 -4.0183 2.3887
-6.9014 -4.2737 2.3887
-6.7506 -4.5243 2.3887
-6.5910 -4.7698 2.3887
-6.4228 -5.0098 2.3887
-6.2462 -5.2442 2.3887
-6.0614 -5.4726 2.3887
-5.8685 -5.6946 2.3887
-5.6677 -5.9101 2.3887
-5.4592 -6.1188 2.3887
-5.2433 -6.3203 2.3887
-5.0201 -6.5144 2.3887
-4.7900 -6.7009 2.3887
-4.5532 -6.8795 2.3887
-4.3098 -7.0498 2.3887
-4.0603 -7.2118 2.3887
-3.8048 -7.3651 2.3887
-3.5437 -7.5096 2.3887
-3.2772 -7.6450 2.3887
-3.0057 -7.7710 2.3887
-2.7294 -7.8876 2.3887
-2.4487 -7.9945 2.3887
-2.1639 -8.0915 2.3887
-1.8754 -8.1784 2.3887
-1.5835 -8.2552 2.3887
-1.2885 -8.3216 2.3887
-0.9909 -8.3775 2.3887
-0.6909 -8.4228 2.3887
-0.3890 -8.4574 2.3887
-0.0856 -8.4812 2.3887
0.2190 -8.4940 2.3887
0.5244 -8.4959 2.3887
0.8301 -8.4867 2.3887
1.1358 -8.4665 2.3887
1.4411 -8.4351 2.3887
1.7455 -8.3926 2.3887
2.0487 -8.3390 2.3887
2.3501 -8.2743 2.3887
2.6495 -8.1986 2.3887
2.9464 -8.1118 2.3887
3.2403 -8.0141 2.3887
3.5309 -7.9055 2.3887
3.8177 -7.7862 2.3887
4.1003 -7.6562 2.3887
4.3783 -7.5157 2.3887
4.6514 -7.3649 2.3887
4.9190 -7.2039 2.3887
5.1808 -7.0329 2.3887
5.4365 -6.8521 2.3887
5.6855 -6.6618 2.3887
5.9276 -6.4621 2.3887
6.1624 -6.2533 2.3887
6.3895 -6.0357 2.3887
6.6085 -5.8096 2.3887
6.8191 -5.5752 2.3887
7.0211 -5.3330 2.3887
7.2140 -5.0831 2.3887
7.3976 -4.8260 2.3887
7.5715 -4.5620 2.3887
7.7356 -4.2916 2.3887
7.8895 -4.0149 2.3887
8.0330 -3.7326 2.3887
8.1659 -3.4449 2.3887
8.2880 -3.1522 2.3887
8.3990 -2.8551 2.3887
8.4988 -2.5539 2.3887
8.5872 -2.2491 2.3887
8.6641 -1.9411 2.3887
8.7294 -1.6304 2.3887
8.7830 -1.3173 2.3887
8.8247 -1.0025 2.3887
8.8546 -0.6863 2.3887
8.8726 -0.3693 2.3887
8.8786 -0.0518 2.3887
8.8726 0.2656 2.3887
8.8548 0.5824 2.3887
8.8250 0.8983 2.3887
8.7834 1.2128 2.3887
8.7301 1.5253 2.3887
8.6650 1.8354 2.3887
8.5885 2.1428 2.3887
8.5005 2.4468 2.3887
8.4012 2.7472 2.3887
8.2908 3.0434 2.3887
8.1696 3.3351 2.3887
8.0376 3.6218 2.3887
7.8951 3.9031 2.3887
7.7424 4.1787 2.3887
7.5796 4.4482 2.3887
7.4071 4.7111 2.3887
7.2251 4.9671 2.3887
7.0340 5.2160 2.3887
6.8340 5.4573 2.3887
6.6254 5.6908 2.3887
6.4086 5.9161 2.3887
6.1839 6.1330 2.3887
5.9517 6.3411 2.3887
5.7123 6.5403 2.3887
5.4660 6.7303 2.3887
5.2133 6.9109 2.3887
4.9545 7.0818 2.3887
4.6900 7.2429 2.3887
4.4202 7.3940 2.3887
4.1455 7.5350 2.3887
6.6442 -4.6301 2.3887
6.8109 -4.3930 2.3887
6.9687 -4.1495 2.3887
7.1175 -3.9002 2.3887
7.2570 -3.6460 2.3887
7.3869 -3.3862 2.3887
7.5070 -3.1216 2.3887
7.6172 -2.8525 2.3887
7.7173 -2.5794 2.3887
7.8072 -2.3027 2.3887
7.8866 -2.0227 2.3887
7.9555 -1.7399 2.3887
8.0137 -1.4547 2.3887
8.0613 -1.1674 2.3887
8.0980 -0.8786 2.3887
8.1239 -0.5886 2.3887
8.1388 -0.2978 2.3887
8.1429 -0.0067 2.3887
8.1361 0.2842 2.3887
8.1184 0.5747 2.3887
8.0898 0.8642 2.3887
8.0504 1.1523 2.3887
8.0003 1.4387 2.3887
7.9395 1.7228 2.3887
7.8682 2.0044 2.3887
7.7864 2.2829 2.3887
7.6944 2.5580 2.3887
7.5922 2.8293 2.3887
7.4801 3.0964 2.3887
7.3582 3.3590 2.3887
7.2267 3.6166 2.3887
7.0858 3.8690 2.3887
6.9358 4.1157 2.3887
6.7768 4.3565 2.3887
6.6093 4.5910 2.3887
6.4333 4.8189 2.3887
6.2492 5.0399 2.3887
6.0573 5.2537 2.3887
5.8578 5.4600 2.3887
5.6511 5.6587 2.3887
5.4375 5.8493 2.3887
5.2174 6.0318 2.3887
4.9909 6.2058 2.3887
4.7585 6.3712 2.3887
4.5206 6.5277 2.3887
4.2774 6.6753 2.3887
4.0293 6.8136 2.3887
3.7767 6.9427 2.3887
3.5199 7.0623 2.3887
3.2594 7.1724 2.3887
2.9954 7.2728 2.3887
2.7283 7.3634 2.3887
2.4585 7.4441 2.3887
0.8609 2.9591 0.9406
0.7542 2.9880 0.9421
0.6466 3.0130 0.9437
0.5381 3.0341 0.9452
0.4289 3.0513 0.9467
0.3191 3.0646 0.9483
0.2089 3.0738 0.9498
0.0984 3.0791 0.9513
-0.0121 3.0804 0.9528
-0.1227 3.0776 0.9543
-0.2331 3.0709 0.9558
-0.3432 3.0602 0.9572
-0.4528 3.0455 0.9586
-0.5618 3.0269 0.9600
-0.6701 3.0043 0.9614
-0.7775 2.9779 0.9628
-0.8839 2.9476 0.9641
-2.4473 7.2088 2.3887
-2.7009 7.1057 2.3887
-2.9503 6.9938 2.3887
-3.1953 6.8735 2.3887
-3.4356 6.7448 2.3887
-3.6710 6.6079 2.3887
-3.9012 6.4631 2.3887
-4.1258 6.3105 2.3887
-4.3448 6.1504 2.3887
-4.5578 5.9829 2.3887
-4.7647 5.8083 2.3887
-4.9651 5.6268 2.3887
-5.1589 5.4386 2.3887
-5.3458 5.2440 2.3887
-5.5257 5.0433 2.3887
-5.6984 4.8366 2.3887
-5.8637 4.6242 2.3887
-6.0214 4.4064 2.3887
-6.1714 4.1835 2.3887
-6.3135 3.9556 2.3887
-6.4475 3.7232 2.3887
-6.5734 3.4864 2.3887
-6.6910 3.2455 2.3887
-6.8001 3.0009 2.3887
-6.9007 2.7527 2.3887
-6.9926 2.5013 2.3887
-7.0758 2.2470 2.3887
-7.1501 1.9901 2.3887
-7.2156 1.7308 2.3887
-7.2720 1.4695 2.3887
-7.3195 1.2064 2.3887
-7.3578 0.9418 2.3887
-7.3871 0.6761 2.3887
-7.4071 0.4095 2.3887
-7.4180 0.1424 2.3887
-7.4197 -0.1250 2.3887
-7.4122 -0.3923 2.3887
-7.3954 -0.6593 2.3887
-7.3695 -0.9256 2.3887
-7.3344 -1.1910 2.3887
-7.2901 -1.4551 2.3887
-7.2368 -1.7177 2.3887
-7.1744 -1.9784 2.3887
-7.1030 -2.2369 2.3887
-7.0226 -2.4930 2.3887
-6.9334 -2.7463 2.3887
-6.8355 -2.9966 2.3887
-6.7288 -3.2435 2.3887
-6.6136 -3.4868 2.3887
-6.4899 -3.7261 2.3887
-6.3578 -3.9613 2.3887
-6.2176 -4.1919 2.3887
-6.0692 -4.4178 2.3887
-5.9130 -4.6385 2.3887
-5.7490 -4.8540 2.3887
-5.5774 -5.0638 2.3887
-5.3983 -5.2678 2.3887
-5.2121 -5.4656 2.3887
-5.0188 -5.6570 2.3887
-4.8187 -5.8418 2.3887
-4.6119 -6.0197 2.3887
-4.3988 -6.1904 2.3887
-4.1795 -6.3538 2.3887
-3.9543 -6.5096 2.3887
-3.7234 -6.6576 2.3887
-3.4872 -6.7975 2.3887
-3.2458 -6.9292 2.3887
-2.9995 -7.0525 2.3887
-2.7487 -7.1672 2.3887
-2.4935 -7.2730 2.3887
-2.2344 -7.3699 2.3887
-1.9716 -7.4576 2.3887
-1.7055 -7.5361 2.3887
-1.4363 -7.6051 2.3887
-1.1644 -7.6645 2.3887
-0.8901 -7.7143 2.3887
-0.6138 -7.7543 2.3887
-0.3358 -7.7843 2.3887
-0.0565 -7.8044 2.3887
0.2238 -7.8145 2.3887
0.5047 -7.8145 2.3887
0.7858 -7.8043 2.3887
1.0668 -7.7839 2.3887
1.3473 -7.7534 2.3887
1.6269 -7.7126 2.3887
1.9052 -7.6616 2.3887
2.1820 -7.6004 2.3887
2.4567 -7.5291 2.3887
2.7289 -7.4478 2.3887
2.9985 -7.3564 2.3887
3.2648 -7.2551 2.3887
3.5276 -7.1439 2.3887
3.7865 -7.0230 2.3887
4.0410 -6.8926 2.3887
4.2910 -6.7526 2.3887
4.5359 -6.6034 2.3887
4.7754 -6.4451 2.3887
5.0091 -6.2779 2.3887
5.2368 -6.1020 2.3887
5.4580 -5.9175 2.3887
5.6724 -5.7248 2.3887
5.8798 -5.5241 2.3887
6.0797 -5.3156 2.3887
6.2719 -5.0997 2.3887
6.4561 -4.8766 2.3887
6.6320 -4.6466 2.3887
6.7994 -4.4100 2.3887
6.9579 -4.1672 2.3887
7.1073 -3.9191 2.3887
7.2474 -3.6642 2.3887
7.3780 -3.4047 2.3887
7.4988 -3.1404 2.3887
7.6098 -2.8717 2.3887
7.7106 -2.5988 2.3887
7.8011 -2.3224 2.3887
7.8813 -2.0426 2.3887
7.9510 -1.7600 2.3887
8.0100 -1.4749 2.3887
8.0583 -1.1878 2.3887
8.0957 -0.8990 2.3887
8.1224 -0.6091 2.3887
8.1381 -0.3184 2.3887
8.1430 -0.0273 2.3887
8.1369 0.2637 2.3887
8.1200 0.5542 2.3887
8.0922 0.8438 2.3887
8.0535 1.1320 2.3887
8.0042 1.4185 2.3887
7.9441 1.7028 2.3887
7.8736 1.9846 2.3887
7.7925 2.2633 2.3887
7.7012 2.5387 2.3887
7.5998 2.8103 2.3887
7.4883 3.0777 2.3887
7.3671 3.3406 2.3887
7.2363 3.5987 2.3887
7.0960 3.8514 2.3887
6.9467 4.0985 2.3887
6.7883 4.3397 2.3887
6.6214 4.5747 2.3887
6.4460 4.8030 2.3887
6.2625 5.0245 2.3887
6.0711 5.2389 2.3887
5.8721 5.4457 2.3887
5.6660 5.6449 2.3887
5.4528 5.8361 2.3887
5.2331 6.0192 2.3887
5.0071 6.1938 2.3887
4.7751 6.3598 2.3887
4.5375 6.5170 2.3887
4.2947 6.6652 2.3887
4.0470 6.8042 2.3887
3.7947 6.9339 2.3887
3.5382 7.0542 2.3887
3.2779 7.1649 2.3887
3.0141 7.2660 2.3887
2.7472 7.3573 2.3887
2.4776 7.4388 2.3887
0.8684 2.9569 0.9405
0.7618 2.9861 0.9420
0.6542 3.0114 0.9436
0.5458 3.0328 0.9451
0.4366 3.0502 0.9466
0.3269 3.0638 0.9482
0.2167 3.0733 0.9497
0.1063 3.0788 0.9512
-0.0043 3.0804 0.9527
-0.1149 3.0780 0.9542
-0.2253 3.0715 0.9557
-0.3354 3.0611 0.9571
-0.4451 3.0467 0.9585
-0.5541 3.0283 0.9599
-0.6625 3.0061 0.9613
-0.7699 2.9799 0.9627
-0.8764 2.9498 0.9640
-2.4293 7.2157 2.3887
-2.6831 7.1132 2.3887
-2.9328 7.0020 2.3887
-3.1781 6.8823 2.3887
-3.4188 6.7542 2.3887
-3.6545 6.6179 2.3887
-3.8851 6.4736 2.3887
-4.1102 6.3216 2.3887
-4.3295 6.1619 2.3887
-4.5430 5.9949 2.3887
-4.7503 5.8208 2.3887
-4.9511 5.6398 2.3887
-5.1454 5.4521 2.3887
-5.3328 5.2580 2.3887
-5.5133 5.0577 2.3887
-5.6865 4.8514 2.3887
-5.8523 4.6394 2.3887
-6.0106 4.4220 2.3887
-6.1611 4.1994 2.3887
-6.3037 3.9719 2.3887
-6.4384 3.7397 2.3887
-6.5648 3.5032 2.3887
-6.6829 3.2626 2.3887
-6.7927 3.0183 2.3887
-6.8938 2.7703 2.3887
-6.9864 2.5192 2.3887
-7.0702 2.2651 2.3887
-7.1452 2.0083 2.3887
-7.2113 1.7492 2.3887
-7.2684 1.4880 2.3887
-7.3164 1.2250 2.3887
-7.3554 0.9605 2.3887
-7.3853 0.6949 2.3887
-7.4060 0.4284 2.3887
-7.4175 0.1613 2.3887
-7.4199 -0.1061 2.3887
-7.4130 -0.3735 2.3887
-7.3969 -0.6405 2.3887
-7.3716 -0.9069 2.3887
-7.3372 -1.1723 2.3887
-7.2936 -1.4365 2.3887
-7.2409 -1.6992 2.3887
-7.1791 -1.9601 2.3887
-7.1083 -2.2188 2.3887
-7.0286 -2.4750 2.3887
-6.9400 -2.7286 2.3887
-6.8427 -2.9790 2.3887
-6.7366 -3.2262 2.3887
-6.6220 -3.4698 2.3887
-6.4989 -3.7094 2.3887
-6.3674 -3.9448 2.3887
-6.2277 -4.1758 2.3887
-6.0800 -4.4020 2.3887
-5.9243 -4.6231 2.3887
-5.7608 -4.8390 2.3887
-5.5897 -5.0492 2.3887
-5.4112 -5.2536 2.3887
-5.2255 -5.4518 2.3887
-5.0326 -5.6437 2.3887
-4.8330 -5.8290 2.3887
-4.6267 -6.0073 2.3887
-4.4140 -6.1786 2.3887
-4.1952 -6.3425 2.3887
-3.9704 -6.4989 2.3887
-3.7399 -6.6474 2.3887
-3.5040 -6.7879 2.3887
-3.2630 -6.9202 2.3887
-3.0170 -7.0441 2.3887
-2.7665 -7.1594 2.3887
-2.5117 -7.2658 2.3887
-2.2528 -7.3633 2.3887
-1.9903 -7.4517 2.3887
-1.7244 -7.5308 2.3887
-1.4554 -7.6005 2.3887
-1.1836 -7.6606 2.3887
-0.9095 -7.7111 2.3887
-0.6334 -7.7518 2.3887
-0.3555 -7.7825 2.3887
-0.0763 -7.8034 2.3887
0.2040 -7.8141 2.3887
0.4848 -7.8148 2.3887
0.7660 -7.8053 2.3887
1.0470 -7.7857 2.3887
1.3275 -7.7558 2.3887
1.6072 -7.7158 2.3887
1.8856 -7.6655 2.3887
2.1625 -7.6051 2.3887
2.4373 -7.5345 2.3887
2.7098 -7.4538 2.3887
2.9795 -7.3632 2.3887
3.2461 -7.2625 2.3887
3.5092 -7.1521 2.3887
3.7683 -7.0319 2.3887
4.0232 -6.9021 2.3887
4.2735 -6.7628 2.3887
4.5187 -6.6143 2.3887
4.7586 -6.4566 2.3887
4.9928 -6.2900 2.3887
5.2209 -6.1147 2.3887
5.4426 -5.9308 2.3887
5.6575 -5.7387 2.3887
5.8654 -5.5385 2.3887
6.0658 -5.3306 2.3887
6.2586 -5.1152 2.3887
6.4434 -4.8925 2.3887
6.6199 -4.6630 2.3887
6.7879 -4.4269 2.3887
6.9470 -4.1844 2.3887
7.0971 -3.9358 2.3887
7.2379 -3.6822 2.3887
7.3691 -3.4232 2.3887
7.4906 -3.1592 2.3887
7.6023 -2.8908 2.3887
7.7038 -2.6182 2.3887
7.7951 -2.3420 2.3887
7.8760 -2.0624 2.3887
7.9464 -1.7800 2.3887
8.0062 -1.4951 2.3887
8.0552 -1.2081 2.3887
8.0935 -0.9195 2.3887
8.1209 -0.6296 2.3887
8.1374 -0.3389 2.3887
8.1430 -0.0478 2.3887
8.1377 0.2432 2.3887
8.1215 0.5337 2.3887
8.0945 0.8234 2.3887
8.0566 1.1118 2.3887
8.0080 1.3984 2.3887
7.9487 1.6829 2.3887
7.8789 1.9648 2.3887
7.7986 2.2438 2.3887
7.7080 2.5194 2.3887
7.6073 2.7913 2.3887
7.4965 3.0589 2.3887
7.3760 3.3222 2.3887
7.2458 3.5806 2.3887
7.1062 3.8337 2.3887
6.9575 4.0813 2.3887
6.7998 4.3226 2.3887
6.6334 4.5583 2.3887
6.4586 4.7871 2.3887
6.2757 5.0091 2.3887
6.0848 5.2240 2.3887
5.8864 5.4314 2.3887
5.6807 5.6311 2.3887
5.4681 5.8229 2.3887
5.2488 6.0065 2.3887
5.0232 6.1817 2.3887
4.7917 6.3483 2.3887
4.5545 6.5062 2.3887
4.3120 6.6550 2.3887
4.0646 6.7947 2.3887
3.8126 6.9251 2.3887
6.1324 -4.2721 2.3887
6.2859 -4.0532 2.3887
6.4312 -3.8285 2.3887
6.5681 -3.5986 2.3887
6.6965 -3.3635 2.3887
6.8160 -3.1238 2.3887
6.9266 -2.8795 2.3887
7.0280 -2.6313 2.3887
7.1201 -2.3793 2.3887
7.2028 -2.1240 2.3887
7.2759 -1.8658 2.3887
7.3394 -1.6049 2.3887
7.3930 -1.3418 2.3887
7.4368 -1.0769 2.3887
7.4707 -0.8106 2.3887
7.4946 -0.5431 2.3887
7.5085 -0.2749 2.3887
7.5123 -0.0065 2.3887
7.5061 0.2618 2.3887
7.4899 0.5298 2.3887
7.4637 0.7968 2.3887
7.4277 1.0626 2.3887
7.3817 1.3267 2.3887
7.3259 1.5889 2.3887
7.2604 1.8486 2.3887
7.1853 2.1057 2.3887
7.1008 2.3591 2.3887
7.0069 2.6100 2.3887
6.9039 2.8566 2.3887
6.7918 3.0991 2.3887
6.6709 3.3370 2.3887
6.5413 3.5701 2.3887
6.4034 3.7981 2.3887
6.2572 4.0206 2.3887
6.1030 4.2374 2.3887
5.9410 4.4481 2.3887
5.7716 4.6525 2.3887
5.5949 4.8503 2.3887
5.4112 5.0413 2.3887
5.2209 5.2252 2.3887
5.0241 5.4017 2.3887
4.8212 5.5708 2.3887
4.6125 5.7321 2.3887
4.3983 5.8854 2.3887
4.1789 6.0307 2.3887
3.9547 6.1677 2.3887
3.7258 6.2962 2.3887
3.4928 6.4162 2.3887
3.2558 6.5275 2.3887
3.0153 6.6299 2.3887
2.7716 6.7235 2.3887
2.5250 6.8080 2.3887
0.8948 2.7064 0.9392
0.7972 2.7367 0.9406
0.6985 2.7634 0.9420
0.5989 2.7865 0.9435
0.4986 2.8060 0.9449
0.3975 2.8219 0.9463
0.2960 2.8341 0.9477
0.1941 2.8426 0.9491
0.0920 2.8475 0.9505
-0.0103 2.8487 0.9519
-0.1125 2.8461 0.9533
-0.2146 2.8399 0.9547
-0.3164 2.8300 0.9560
-0.4178 2.8164 0.9573
-0.5187 2.7992 0.9586
-0.6188 2.7783 0.9599
-0.7181 2.7539 0.9611
-0.8165 2.7258 0.9624
-2.2653 6.6792 2.3887
-2.5005 6.5842 2.3887
-2.7319 6.4812 2.3887
-2.9592 6.3703 2.3887
-3.1822 6.2516 2.3887
-3.4007 6.1253 2.3887
-3.6144 5.9916 2.3887
-3.8230 5.8506 2.3887
-4.0264 5.7026 2.3887
-4.2242 5.5477 2.3887
-4.4164 5.3862 2.3887
-4.6026 5.2183 2.3887
-4.7827 5.0441 2.3887
-4.9564 4.8640 2.3887
-5.1236 4.6781 2.3887
-5.2841 4.4866 2.3887
-5.4378 4.2898 2.3887
-5.5844 4.0880 2.3887
-5.7239 3.8813 2.3887
-5.8560 3.6701 2.3887
-5.9806 3.4546 2.3887
-6.0976 3.2350 2.3887
-6.2070 3.0116 2.3887
-6.3084 2.7846 2.3887
-6.4020 2.5544 2.3887
-6.4874 2.3212 2.3887
-6.5648 2.0852 2.3887
-6.6339 1.8468 2.3887
-6.6948 1.6061 2.3887
-6.7472 1.3636 2.3887
-6.7913 1.1194 2.3887
-6.8270 0.8739 2.3887
-6.8541 0.6273 2.3887
-6.8727 0.3798 2.3887
-6.8827 0.1319 2.3887
-6.8842 -0.1162 2.3887
-6.8771 -0.3644 2.3887
-6.8614 -0.6122 2.3887
-6.8372 -0.8593 2.3887
-6.8044 -1.1056 2.3887
-6.7632 -1.3507 2.3887
-6.7134 -1.5943 2.3887
-6.6552 -1.8361 2.3887
-6.5887 -2.0760 2.3887
-6.5139 -2.3135 2.3887
-6.4308 -2.5484 2.3887
-6.3395 -2.7804 2.3887
-6.2402 -3.0094 2.3887
-6.1330 -3.2349 2.3887
-6.0178 -3.4567 2.3887
-5.8950 -3.6746 2.3887
-5.7645 -3.8882 2.3887
-5.6265 -4.0974 2.3887
-5.4812 -4.3018 2.3887
-5.3287 -4.5013 2.3887
-5.1691 -4.6955 2.3887
-5.0027 -4.8842 2.3887
-4.8296 -5.0672 2.3887
-4.6500 -5.2442 2.3887
-4.4641 -5.4150 2.3887
-4.2721 -5.5793 2.3887
-4.0742 -5.7370 2.3887
-3.8706 -5.8879 2.3887
-3.6615 -6.0316 2.3887
-3.4473 -6.1681 2.3887
-3.2280 -6.2971 2.3887
-3.0041 -6.4184 2.3887
-2.7757 -6.5319 2.3887
-2.5431 -6.6374 2.3887
-2.3066 -6.7347 2.3887
-2.0664 -6.8236 2.3887
-1.8229 -6.9041 2.3887
-1.5763 -6.9759 2.3887
-1.3270 -7.0390 2.3887
-1.0752 -7.0932 2.3887
-0.8213 -7.1385 2.3887
-0.5656 -7.1746 2.3887
-0.3083 -7.2016 2.3887
-0.0499 -7.2194 2.3887
0.2093 -7.2279 2.3887
0.4691 -7.2270 2.3887
0.7290 -7.2168 2.3887
0.9887 -7.1971 2.3887
1.2479 -7.1681 2.3887
1.5062 -7.1296 2.3887
1.7633 -7.0817 2.3887
2.0189 -7.0244 2.3887
2.2725 -6.9577 2.3887
2.5238 -6.8818 2.3887
2.7726 -6.7966 2.3887
3.0183 -6.7023 2.3887
3.2608 -6.5990 2.3887
3.4995 -6.4867 2.3887
3.7343 -6.3656 2.3887
3.9647 -6.2357 2.3887
4.1905 -6.0974 2.3887
4.4112 -5.9507 2.3887
4.6266 -5.7958 2.3887
4.8364 -5.6329 2.3887
5.0402 -5.4622 2.3887
5.2377 -5.2839 2.3887
5.4287 -5.0983 2.3887
5.6128 -4.9056 2.3887
5.7898 -4.7060 2.3887
5.9594 -4.4998 2.3887
6.1213 -4.2873 2.3887
6.2753 -4.0688 2.3887
6.4212 -3.8446 2.3887
6.5587 -3.6150 2.3887
6.6877 -3.3802 2.3887
6.8079 -3.1408 2.3887
6.9191 -2.8969 2.3887
7.0212 -2.6491 2.3887
7.1140 -2.3972 2.3887
7.1973 -2.1422 2.3887
7.2711 -1.8841 2.3887
7.3352 -1.6234 2.3887
7.3896 -1.3605 2.3887
7.4341 -1.0957 2.3887
7.4686 -0.8294 2.3887
7.4932 -0.5620 2.3887
7.5078 -0.2939 2.3887
7.5124 -0.0255 2.3887
7.5069 0.2430 2.3887
7.4914 0.5108 2.3887
7.4659 0.7779 2.3887
7.4305 1.0439 2.3887
7.3852 1.3082 2.3887
7.3301 1.5704 2.3887
7.2653 1.8304 2.3887
7.1909 2.0876 2.3887
7.1071 2.3415 2.3887
7.0138 2.5924 2.3887
6.9114 2.8393 2.3887
6.8000 3.0821 2.3887
6.6797 3.3204 2.3887
6.5508 3.5538 2.3887
6.4134 3.7822 2.3887
6.2677 4.0051 2.3887
6.1141 4.2223 2.3887
5.9527 4.4334 2.3887
5.7838 4.6383 2.3887
5.6076 4.8366 2.3887
5.4244 5.0280 2.3887
5.2345 5.2124 2.3887
5.0382 5.3895 2.3887
4.8357 5.5591 2.3887
4.6274 5.7209 2.3887
4.4136 5.8749 2.3887
4.1946 6.0207 2.3887
3.9706 6.1583 2.3887
3.7421 6.2874 2.3887
3.5094 6.4080 2.3887
3.2727 6.5199 2.3887
3.0324 6.6230 2.3887
2.7889 6.7172 2.3887
2.5425 6.8023 2.3887
0.9016 2.7042 0.9391
0.8041 2.7346 0.9405
0.7055 2.7616 0.9419
0.6060 2.7850 0.9434
0.5057 2.8047 0.9448
0.4047 2.8209 0.9462
0.3032 2.8333 0.9476
0.2013 2.8421 0.9490
0.0992 2.8473 0.9504
-0.0031 2.8487 0.9518
-0.1053 2.8464 0.9532
-0.2074 2.8405 0.9546
-0.3093 2.8308 0.9559
-0.4107 2.8175 0.9572
-0.5116 2.8005 0.9585
-0.6117 2.7799 0.9598
-0.7111 2.7557 0.9610
-0.8096 2.7279 0.9623
-2.2486 6.6855 2.3887
-2.4840 6.5912 2.3887
-2.7157 6.4888 2.3887
-2.9433 6.3784 2.3887
-3.1667 6.2602 2.3887
-3.3855 6.1345 2.3887
-3.5995 6.0013 2.3887
-3.8085 5.8608 2.3887
-4.0122 5.7133 2.3887
-4.2105 5.5589 2.3887
-4.4030 5.3979 2.3887
-4.5896 5.2304 2.3887
-4.7702 5.0566 2.3887
-4.9443 4.8769 2.3887
-5.1120 4.6914 2.3887
-5.2730 4.5003 2.3887
-5.4272 4.3039 2.3887
-5.5743 4.1024 2.3887
-5.7143 3.8961 2.3887
-5.8469 3.6852 2.3887
-5.9721 3.4699 2.3887
-6.0896 3.2506 2.3887
-6.1995 3.0275 2.3887
-6.3015 2.8008 2.3887
-6.3956 2.5708 2.3887
-6.4817 2.3377 2.3887
-6.5596 2.1020 2.3887
-6.6293 1.8637 2.3887
-6.6907 1.6232 2.3887
-6.7438 1.3808 2.3887
-6.7885 1.1367 2.3887
-6.8247 0.8913 2.3887
-6.8524 0.6447 2.3887
-6.8716 0.3973 2.3887
-6.8823 0.1494 2.3887
-6.8844 -0.0987 2.3887
-6.8779 -0.3469 2.3887
-6.8628 -0.5947 2.3887
-6.8392 -0.8419 2.3887
-6.8070 -1.0882 2.3887
-6.7663 -1.3334 2.3887
-6.7172 -1.5771 2.3887
-6.6596 -1.8191 2.3887
-6.5937 -2.0591 2.3887
-6.5194 -2.2968 2.3887
-6.4369 -2.5319 2.3887
-6.3462 -2.7642 2.3887
-6.2475 -2.9933 2.3887
-6.1408 -3.2191 2.3887
-6.0262 -3.4412 2.3887
-5.9039 -3.6593 2.3887
-5.7739 -3.8733 2.3887
-5.6365 -4.0828 2.3887
-5.4917 -4.2876 2.3887
-5.3397 -4.4874 2.3887
-5.1806 -4.6820 2.3887
-5.0147 -4.8711 2.3887
-4.8420 -5.0544 2.3887
-4.6629 -5.2319 2.3887
-4.4774 -5.4031 2.3887
-4.2858 -5.5679 2.3887
-4.0883 -5.7261 2.3887
-3.8851 -5.8775 2.3887
-3.6765 -6.0217 2.3887
-3.4625 -6.1587 2.3887
-3.2437 -6.2882 2.3887
-3.0200 -6.4101 2.3887
-2.7919 -6.5242 2.3887
-2.5596 -6.6302 2.3887
-2.3234 -6.7281 2.3887
-2.0835 -6.8176 2.3887
-1.8402 -6.8987 2.3887
-1.5938 -6.9711 2.3887
-1.3447 -7.0349 2.3887
-1.0931 -7.0897 2.3887
-0.8393 -7.1356 2.3887
-0.5837 -7.1724 2.3887
-0.3265 -7.2000 2.3887
-0.0682 -7.2185 2.3887
0.1910 -7.2276 2.3887
0.4507 -7.2274 2.3887
0.7106 -7.2178 2.3887
0.9704 -7.1988 2.3887
1.2296 -7.1704 2.3887
1.4880 -7.1326 2.3887
1.7452 -7.0853 2.3887
2.0009 -7.0287 2.3887
2.2547 -6.9627 2.3887
2.5062 -6.8875 2.3887
2.7551 -6.8029 2.3887
3.0011 -6.7093 2.3887
3.2438 -6.6066 2.3887
3.4828 -6.4949 2.3887
3.7179 -6.3744 2.3887
3.9486 -6.2452 2.3887
4.1747 -6.1075 2.3887
4.3958 -5.9613 2.3887
4.6116 -5.8070 2.3887
4.8218 -5.6447 2.3887
5.0260 -5.4745 2.3887
5.2240 -5.2968 2.3887
5.4154 -5.1116 2.3887
5.6000 -4.9194 2.3887
5.7775 -4.7203 2.3887
5.9476 -4.5146 2.3887
6.1101 -4.3025 2.3887
6.2647 -4.0844 2.3887
6.4112 -3.8606 2.3887
6.5493 -3.6313 2.3887
6.6789 -3.3970 2.3887
6.7997 -3.1579 2.3887
6.9115 -2.9142 2.3887
7.0143 -2.6663 2.3887
7.1077 -2.4151 2.3887
7.1917 -2.1607 2.3887
7.2662 -1.9024 2.3887
7.3310 -1.6419 2.3887
7.3860 -1.3791 2.3887
7.4312 -1.1144 2.3887
7.4665 -0.8482 2.3887
7.4918 -0.5809 2.3887
7.5071 -0.3129 2.3887
7.5124 -0.0444 2.3887
7.5076 0.2240 2.3887
7.4928 0.4919 2.3887
7.4681 0.7591 2.3887
7.4333 1.0251 2.3887
7.3887 1.2896 2.3887
7.3343 1.5520 2.3887
7.2702 1.8121 2.3887
7.1965 2.0695 2.3887
7.1133 2.3236 2.3887
7.0207 2.5749 2.3887
6.9189 2.8220 2.3887
6.8081 3.0651 2.3887
6.6885 3.3037 2.3887
6.5601 3.5375 2.3887
6.4233 3.7662 2.3887
6.2783 3.9895 2.3887
6.1252 4.2071 2.3887
5.9643 4.4187 2.3887
5.7959 4.6240 2.3887
5.6203 4.8228 2.3887
5.4376 5.0147 2.3887
5.2481 5.1996 2.3887
5.0523 5.3773 2.3887
4.8502 5.5474 2.3887
4.6423 5.7098 2.3887
4.4289 5.8643 2.3887
4.2102 6.0107 2.3887
3.9866 6.1488 2.3887
3.7584 6.2786 2.3887
3.5259 6.3998 2.3887
5.6881 -3.9612 2.3887
5.8301 -3.7581 2.3887
5.9645 -3.5496 2.3887
6.0912 -3.3363 2.3887
6.2100 -3.1182 2.3887
6.3206 -2.8959 2.3887
6.4229 -2.6694 2.3887
6.5167 -2.4393 2.3887
6.6019 -2.2057 2.3887
6.6784 -1.9690 2.3887
6.7461 -1.7296 2.3887
6.8048 -1.4876 2.3887
6.8545 -1.2440 2.3887
6.8950 -0.9984 2.3887
6.9264 -0.7515 2.3887
6.9486 -0.5036 2.3887
6.9615 -0.2551 2.3887
6.9651 -0.0063 2.3887
6.9595 0.2425 2.3887
6.9446 0.4908 2.3887
6.9205 0.7383 2.3887
6.8872 0.9847 2.3887
6.8448 1.2295 2.3887
6.7933 1.4726 2.3887
6.7328 1.7135 2.3887
6.6635 1.9518 2.3887
6.5854 2.1873 2.3887
6.4987 2.4196 2.3887
6.4035 2.6484 2.3887
6.2999 2.8733 2.3887
6.1881 3.0941 2.3887
6.0684 3.3105 2.3887
5.9408 3.5221 2.3887
5.8056 3.7287 2.3887
5.6630 3.9301 2.3887
5.5132 4.1258 2.3887
5.3564 4.3157 2.3887
5.1929 4.4996 2.3887
5.0229 4.6771 2.3887
4.8466 4.8481 2.3887
4.6644 5.0124 2.3887
4.4766 5.1697 2.3887
4.2832 5.3198 2.3887
4.0848 5.4627 2.3887
3.8815 5.5980 2.3887
3.6737 5.7257 2.3887
3.4616 5.8456 2.3887
3.2455 5.9575 2.3887
3.0257 6.0614 2.3887
2.8027 6.1572 2.3887
2.5765 6.2447 2.3887
0.9219 2.4832 0.9380
0.8323 2.5146 0.9393
0.7415 2.5426 0.9406
0.6499 2.5674 0.9420
0.5573 2.5889 0.9433
0.4641 2.6070 0.9446
0.3702 2.6217 0.9460
0.2759 2.6331 0.9473
0.1812 2.6410 0.9486
0.0863 2.6455 0.9499
-0.0087 2.6466 0.9512
-0.1037 2.6442 0.9524
-0.1985 2.6384 0.9537
-0.2931 2.6292 0.9549
-0.3873 2.6166 0.9562
-0.4810 2.6006 0.9574
-0.5740 2.5812 0.9586
-0.6663 2.5585 0.9597
-0.7577 2.5324 0.9609
-0.8481 2.5031 0.9620
-2.3250 6.1278 2.3887
-2.5406 6.0324 2.3887
-2.7525 5.9296 2.3887
-2.9603 5.8196 2.3887
-3.1640 5.7025 2.3887
-3.3632 5.5784 2.3887
-3.5577 5.4476 2.3887
-3.7473 5.3101 2.3887
-3.9318 5.1663 2.3887
-4.1110 5.0162 2.3887
-4.2847 4.8601 2.3887
-4.4527 4.6982 2.3887
-4.6148 4.5306 2.3887
-4.7709 4.3577 2.3887
-4.9207 4.1795 2.3887
-5.0641 3.9964 2.3887
-5.2009 3.8086 2.3887
-5.3311 3.6162 2.3887
-5.4544 3.4195 2.3887
-5.5708 3.2188 2.3887
-5.6800 3.0143 2.3887
-5.7821 2.8062 2.3887
-5.8768 2.5948 2.3887
-5.9641 2.3803 2.3887
-6.0439 2.1630 2.3887
-6.1161 1.9431 2.3887
-6.1807 1.7209 2.3887
-6.2374 1.4967 2.3887
-6.2864 1.2706 2.3887
-6.3275 1.0431 2.3887
-6.3608 0.8142 2.3887
-6.3860 0.5844 2.3887
-6.4033 0.3538 2.3887
-6.4126 0.1227 2.3887
-6.4140 -0.1086 2.3887
-6.4072 -0.3398 2.3887
-6.3925 -0.5708 2.3887
-6.3698 -0.8011 2.3887
-6.3392 -1.0306 2.3887
-6.3005 -1.2589 2.3887
-6.2540 -1.4859 2.3887
-6.1996 -1.7112 2.3887
-6.1374 -1.9347 2.3887
-6.0673 -2.1559 2.3887
-5.9897 -2.3747 2.3887
-5.9044 -2.5908 2.3887
-5.8116 -2.8039 2.3887
-5.7114 -3.0139 2.3887
-5.6038 -3.2203 2.3887
-5.4890 -3.4231 2.3887
-5.3672 -3.6219 2.3887
-5.2383 -3.8165 2.3887
-5.1026 -4.0067 2.3887
-4.9603 -4.1921 2.3887
-4.8113 -4.3727 2.3887
-4.6560 -4.5481 2.3887
-4.4945 -4.7181 2.3887
-4.3269 -4.8825 2.3887
-4.1535 -5.0411 2.3887
-3.9744 -5.1937 2.3887
-3.7899 -5.3401 2.3887
-3.6001 -5.4800 2.3887
-3.4052 -5.6133 2.3887
-3.2056 -5.7398 2.3887
-3.0013 -5.8593 2.3887
-2.7927 -5.9716 2.3887
-2.5799 -6.0767 2.3887
-2.3633 -6.1742 2.3887
-2.1431 -6.2641 2.3887
-1.9196 -6.3462 2.3887
-1.6929 -6.4204 2.3887
-1.4635 -6.4866 2.3887
-1.2316 -6.5446 2.3887
-0.9974 -6.5943 2.3887
-0.7612 -6.6357 2.3887
-0.5235 -6.6687 2.3887
-0.2844 -6.6931 2.3887
-0.0442 -6.7090 2.3887
0.1967 -6.7162 2.3887
0.4380 -6.7147 2.3887
0.6794 -6.7045 2.3887
0.9206 -6.6856 2.3887
1.1613 -6.6579 2.3887
1.4010 -6.6215 2.3887
1.6397 -6.5764 2.3887
1.8768 -6.5226 2.3887
2.1121 -6.4601 2.3887
2.3452 -6.3890 2.3887
2.5759 -6.3093 2.3887
2.8038 -6.2212 2.3887
3.0286 -6.1248 2.3887
3.2499 -6.0200 2.3887
3.4675 -5.9071 2.3887
3.6810 -5.7862 2.3887
3.8901 -5.6574 2.3887
4.0946 -5.5208 2.3887
4.2941 -5.3767 2.3887
4.4884 -5.2252 2.3887
4.6771 -5.0665 2.3887
4.8600 -4.9008 2.3887
5.0367 -4.7284 2.3887
5.2072 -4.5493 2.3887
5.3710 -4.3640 2.3887
5.5279 -4.1726 2.3887
5.6778 -3.9753 2.3887
5.8203 -3.7726 2.3887
5.9553 -3.5645 2.3887
6.0825 -3.3515 2.3887
6.2018 -3.1338 2.3887
6.3130 -2.9117 2.3887
6.4159 -2.6855 2.3887
6.5104 -2.4556 2.3887
6.5962 -2.2223 2.3887
6.6733 -1.9858 2.3887
6.7416 -1.7467 2.3887
6.8010 -1.5049 2.3887
6.8513 -1.2612 2.3887
6.8924 -1.0158 2.3887
6.9245 -0.7690 2.3887
6.9473 -0.5212 2.3887
6.9609 -0.2727 2.3887
6.9652 -0.0238 2.3887
6.9602 0.2249 2.3887
6.9459 0.4733 2.3887
6.9225 0.7208 2.3887
6.8898 0.9673 2.3887
6.8481 1.2123 2.3887
6.7972 1.4555 2.3887
6.7374 1.6965 2.3887
6.6687 1.9351 2.3887
6.5912 2.1708 2.3887
6.5051 2.4033 2.3887
6.4105 2.6323 2.3887
6.3075 2.8576 2.3887
6.1963 3.0787 2.3887
6.0771 3.2954 2.3887
5.9501 3.5073 2.3887
5.8154 3.7143 2.3887
5.6733 3.9160 2.3887
5.5240 4.1122 2.3887
5.3677 4.3025 2.3887
5.2046 4.4868 2.3887
5.0351 4.6648 2.3887
4.8593 4.8363 2.3887
4.6775 5.0010 2.3887
4.4900 5.1588 2.3887
4.2971 5.3095 2.3887
4.0990 5.4528 2.3887
3.8960 5.5887 2.3887
3.6885 5.7169 2.3887
3.4767 5.8374 2.3887
3.2609 5.9499 2.3887
3.0414 6.0544 2.3887
2.8185 6.1507 2.3887
2.5926 6.2388 2.3887
0.9282 2.4809 0.9379
0.8386 2.5125 0.9392
0.7480 2.5408 0.9406
0.6564 2.5658 0.9419
0.5639 2.5875 0.9432
0.4707 2.6058 0.9445
0.3769 2.6208 0.9459
0.2826 2.6324 0.9472
0.1879 2.6405 0.9485
0.0930 2.6453 0.9498
-0.0020 2.6466 0.9511
-0.0970 2.6445 0.9523
-0.1919 2.6389 0.9536
-0.2865 2.6300 0.9548
-0.3807 2.6176 0.9561
-0.4744 2.6018 0.9573
-0.5675 2.5827 0.9585
-0.6598 2.5602 0.9596
-0.7513 2.5344 0.9608
-0.8418 2.5053 0.9619
-2.3097 6.1342 2.3887
-2.5255 6.0394 2.3887
-2.7376 5.9371 2.3887
-2.9458 5.8276 2.3887
-3.1497 5.7110 2.3887
-3.3493 5.5874 2.3887
-3.5441 5.4570 2.3887
-3.7341 5.3200 2.3887
-3.9190 5.1766 2.3887
-4.0986 5.0270 2.3887
-4.2726 4.8713 2.3887
-4.4411 4.7098 2.3887
-4.6036 4.5426 2.3887
-4.7600 4.3701 2.3887
-4.9103 4.1923 2.3887
-5.0542 4.0095 2.3887
-5.1915 3.8220 2.3887
-5.3221 3.6299 2.3887
-5.4459 3.4336 2.3887
-5.5628 3.2331 2.3887
-5.6725 3.0289 2.3887
-5.7751 2.8210 2.3887
-5.8704 2.6098 2.3887
-5.9582 2.3956 2.3887
-6.0385 2.1784 2.3887
-6.1113 1.9587 2.3887
-6.1764 1.7367 2.3887
-6.2337 1.5126 2.3887
-6.2832 1.2866 2.3887
-6.3249 1.0592 2.3887
-6.3587 0.8304 2.3887
-6.3845 0.6006 2.3887
-6.4024 0.3701 2.3887
-6.4122 0.1390 2.3887
-6.4141 -0.0923 2.3887
-6.4080 -0.3235 2.3887
-6.3938 -0.5545 2.3887
-6.3717 -0.7849 2.3887
-6.3416 -1.0144 2.3887
-6.3035 -1.2429 2.3887
-6.2575 -1.4699 2.3887
-6.2037 -1.6954 2.3887
-6.1420 -1.9190 2.3887
-6.0725 -2.1404 2.3887
-5.9954 -2.3593 2.3887
-5.9107 -2.5756 2.3887
-5.8184 -2.7890 2.3887
-5.7187 -2.9992 2.3887
-5.6116 -3.2059 2.3887
-5.4974 -3.4089 2.3887
-5.3760 -3.6080 2.3887
-5.2476 -3.8029 2.3887
-5.1124 -3.9934 2.3887
-4.9705 -4.1792 2.3887
-4.8221 -4.3601 2.3887
-4.6672 -4.5359 2.3887
-4.5061 -4.7063 2.3887
-4.3390 -4.8711 2.3887
-4.1660 -5.0301 2.3887
-3.9873 -5.1831 2.3887
-3.8031 -5.3299 2.3887
-3.6137 -5.4703 2.3887
-3.4192 -5.6041 2.3887
-3.2198 -5.7311 2.3887
-3.0159 -5.8511 2.3887
-2.8075 -5.9640 2.3887
-2.5951 -6.0695 2.3887
-2.3787 -6.1676 2.3887
-2.1588 -6.2580 2.3887
-1.9354 -6.3407 2.3887
-1.7090 -6.4154 2.3887
-1.4798 -6.4822 2.3887
-1.2480 -6.5407 2.3887
-1.0140 -6.5911 2.3887
-0.7780 -6.6331 2.3887
-0.5403 -6.6666 2.3887
-0.3013 -6.6917 2.3887
-0.0612 -6.7081 2.3887
0.1797 -6.7159 2.3887
0.4210 -6.7151 2.3887
0.6624 -6.7055 2.3887
0.9036 -6.6872 2.3887
1.1443 -6.6602 2.3887
1.3842 -6.6244 2.3887
1.6229 -6.5799 2.3887
1.8601 -6.5266 2.3887
2.0956 -6.4648 2.3887
2.3289 -6.3943 2.3887
2.5597 -6.3152 2.3887
2.7878 -6.2277 2.3887
3.0128 -6.1318 2.3887
3.2344 -6.0277 2.3887
3.4522 -5.9154 2.3887
3.6660 -5.7950 2.3887
3.8755 -5.6667 2.3887
4.0803 -5.5307 2.3887
4.2802 -5.3871 2.3887
4.4748 -5.2361 2.3887
4.6639 -5.0780 2.3887
4.8472 -4.9128 2.3887
5.0245 -4.7408 2.3887
5.1954 -4.5622 2.3887
5.3596 -4.3773 2.3887
5.5171 -4.1863 2.3887
5.6674 -3.9895 2.3887
5.8105 -3.7871 2.3887
5.9460 -3.5794 2.3887
6.0738 -3.3667 2.3887
6.1937 -3.1493 2.3887
6.3055 -2.9275 2.3887
6.4089 -2.7016 2.3887
6.5040 -2.4720 2.3887
6.5904 -2.2389 2.3887
6.6682 -2.0026 2.3887
6.7371 -1.7637 2.3887
6.7971 -1.5221 2.3887
6.8480 -1.2785 2.3887
6.8899 -1.0332 2.3887
6.9225 -0.7866 2.3887
6.9460 -0.5387 2.3887
6.9602 -0.2902 2.3887
6.9652 -0.0414 2.3887
6.9608 0.2074 2.3887
6.9473 0.4557 2.3887
6.9245 0.7034 2.3887
6.8924 0.9500 2.3887
6.8513 1.1951 2.3887
6.8011 1.4384 2.3887
6.7419 1.6796 2.3887
6.6738 1.9183 2.3887
6.5970 2.1542 2.3887
6.5115 2.3870 2.3887
6.4174 2.6163 2.3887
6.3150 2.8418 2.3887
6.2044 3.0632 2.3887
6.0858 3.2802 2.3887
5.9593 3.4925 2.3887
5.8251 3.6999 2.3887
5.6835 3.9020 2.3887
5.5347 4.0985 2.3887
5.3789 4.2893 2.3887
5.2163 4.4740 2.3887
5.0472 4.6524 2.3887
4.8719 4.8244 2.3887
4.6905 4.9896 2.3887
4.5034 5.1479 2.3887
4.3109 5.2991 2.3887
4.1131 5.4429 2.3887
3.9105 5.5793 2.3887
3.7033 5.7081 2.3887
3.4917 5.8291 2.3887
3.2762 5.9422 2.3887
5.2983 -3.6885 2.3887
5.4303 -3.4992 2.3887
5.5552 -3.3050 2.3887
5.6730 -3.1063 2.3887
5.7833 -2.9032 2.3887
5.8861 -2.6960 2.3887
5.9811 -2.4852 2.3887
6.0683 -2.2709 2.3887
6.1476 -2.0534 2.3887
6.2187 -1.8331 2.3887
6.2816 -1.6102 2.3887
6.3361 -1.3851 2.3887
6.3823 -1.1581 2.3887
6.4200 -0.9296 2.3887
6.4492 -0.6998 2.3887
6.4699 -0.4690 2.3887
6.4819 -0.2377 2.3887
6.4854 -0.0061 2.3887
6.4802 0.2254 2.3887
6.4665 0.4566 2.3887
6.4441 0.6870 2.3887
6.4133 0.9164 2.3887
6.3740 1.1443 2.3887
6.3262 1.3706 2.3887
6.2701 1.5949 2.3887
6.2058 1.8169 2.3887
6.1333 2.0362 2.3887
6.0528 2.2525 2.3887
5.9645 2.4657 2.3887
5.8683 2.6752 2.3887
5.7645 2.8810 2.3887
5.6533 3.0826 2.3887
5.5348 3.2799 2.3887
5.4092 3.4725 2.3887
5.2767 3.6602 2.3887
5.1375 3.8428 2.3887
4.9917 4.0200 2.3887
4.8397 4.1915 2.3887
4.6817 4.3572 2.3887
4.5178 4.5168 2.3887
4.3484 4.6702 2.3887
4.1737 4.8172 2.3887
3.9938 4.9575 2.3887
3.8092 5.0910 2.3887
3.6200 5.2175 2.3887
3.4265 5.3370 2.3887
3.2291 5.4492 2.3887
3.0279 5.5540 2.3887
2.8233 5.6514 2.3887
2.6155 5.7411 2.3887
2.4048 5.8232 2.3887
0.8608 2.3164 0.9382
0.7772 2.3456 0.9394
0.6925 2.3717 0.9407
0.6070 2.3948 0.9419
0.5207 2.4148 0.9432
0.4337 2.4317 0.9444
0.3462 2.4455 0.9456
0.2582 2.4560 0.9469
0.1699 2.4634 0.9481
0.0813 2.4676 0.9493
-0.0073 2.4686 0.9505
-0.0959 2.4664 0.9517
-0.1844 2.4610 0.9528
-0.2726 2.4524 0.9540
-0.3605 2.4406 0.9551
-0.4478 2.4257 0.9563
-0.5346 2.4076 0.9574
-0.6207 2.3864 0.9585
-0.7060 2.3621 0.9595
-0.7903 2.3347 0.9606
-0.8736 2.3044 0.9616
-2.3716 5.6357 2.3887
-2.5697 5.5401 2.3887
-2.7641 5.4377 2.3887
-2.9546 5.3286 2.3887
-3.1410 5.2130 2.3887
-3.3232 5.0906 2.3887
-3.5005 4.9630 2.3887
-3.6731 4.8288 2.3887
-3.8409 4.6888 2.3887
-4.0035 4.5432 2.3887
-4.1607 4.3920 2.3887
-4.3125 4.2356 2.3887
-4.4586 4.0741 2.3887
-4.5989 3.9078 2.3887
-4.7332 3.7367 2.3887
-4.8614 3.5612 2.3887
-4.9833 3.3814 2.3887
-5.0988 3.1976 2.3887
-5.2078 3.0100 2.3887
-5.3101 2.8191 2.3887
-5.4057 2.6244 2.3887
-5.4945 2.4267 2.3887
-5.5763 2.2261 2.3887
-5.6511 2.0229 2.3887
-5.7187 1.8173 2.3887
-5.7791 1.6095 2.3887
-5.8323 1.3997 2.3887
-5.8782 1.1883 2.3887
-5.9167 0.9754 2.3887
-5.9477 0.7614 2.3887
-5.9714 0.5464 2.3887
-5.9875 0.3307 2.3887
-5.9962 0.1145 2.3887
-5.9974 -0.1018 2.3887
-5.9910 -0.3181 2.3887
-5.9772 -0.5341 2.3887
-5.9558 -0.7495 2.3887
-5.9270 -0.9641 2.3887
-5.8907 -1.1777 2.3887
-5.8471 -1.3900 2.3887
-5.7960 -1.6006 2.3887
-5.7376 -1.8095 2.3887
-5.6720 -2.0163 2.3887
-5.5990 -2.2205 2.3887
-5.5191 -2.4229 2.3887
-5.4321 -2.6221 2.3887
-5.3382 -2.8182 2.3887
-5.2373 -3.0112 2.3887
-5.1298 -3.2006 2.3887
-5.0156 -3.3863 2.3887
-4.8948 -3.5680 2.3887
-4.7677 -3.7455 2.3887
-4.6344 -3.9186 2.3887
-4.4949 -4.0871 2.3887
-4.3494 -4.2508 2.3887
-4.1982 -4.4094 2.3887
-4.0413 -4.5628 2.3887
-3.8790 -4.7106 2.3887
-3.7114 -4.8529 2.3887
-3.5387 -4.9892 2.3887
-3.3611 -5.1196 2.3887
-3.1789 -5.2437 2.3887
-2.9921 -5.3615 2.3887
-2.8011 -5.4727 2.3887
-2.6060 -5.5771 2.3887
-2.4071 -5.6747 2.3887
-2.2047 -5.7653 2.3887
-1.9989 -5.8488 2.3887
-1.7900 -5.9249 2.3887
-1.5783 -5.9937 2.3887
-1.3640 -6.0549 2.3887
-1.1474 -6.1086 2.3887
-0.9287 -6.1545 2.3887
-0.7083 -6.1925 2.3887
-0.4864 -6.2227 2.3887
-0.2632 -6.2450 2.3887
-0.0391 -6.2592 2.3887
0.1856 -6.2654 2.3887
0.4107 -6.2635 2.3887
0.6358 -6.2534 2.3887
0.8607 -6.2352 2.3887
1.0850 -6.2089 2.3887
1.3085 -6.1744 2.3887
1.5309 -6.1318 2.3887
1.7518 -6.0811 2.3887
1.9710 -6.0224 2.3887
2.1882 -5.9556 2.3887
2.4030 -5.8809 2.3887
2.6152 -5.7983 2.3887
2.8245 -5.7080 2.3887
3.0305 -5.6099 2.3887
3.2330 -5.5043 2.3887
3.4317 -5.3912 2.3887
3.6263 -5.2709 2.3887
3.8165 -5.1433 2.3887
4.0021 -5.0087 2.3887
4.1828 -4.8673 2.3887
4.3583 -4.7192 2.3887
4.5284 -4.5646 2.3887
4.6928 -4.4037 2.3887
4.8512 -4.2367 2.3887
5.0035 -4.0639 2.3887
5.1494 -3.8855 2.3887
5.2887 -3.7017 2.3887
5.4212 -3.5127 2.3887
5.5466 -3.3189 2.3887
5.6649 -3.1204 2.3887
5.7758 -2.9177 2.3887
5.8791 -2.7108 2.3887
5.9747 -2.5002 2.3887
6.0625 -2.2861 2.3887
6.1422 -2.0688 2.3887
6.2139 -1.8486 2.3887
6.2774 -1.6260 2.3887
6.3325 -1.4011 2.3887
6.3793 -1.1742 2.3887
6.4176 -0.9457 2.3887
6.4474 -0.7160 2.3887
6.4687 -0.4853 2.3887
6.4813 -0.2540 2.3887
6.4854 -0.0224 2.3887
6.4809 0.2091 2.3887
6.4677 0.4403 2.3887
6.4460 0.6708 2.3887
6.4157 0.9002 2.3887
6.3770 1.1283 2.3887
6.3299 1.3547 2.3887
6.2744 1.5792 2.3887
6.2106 1.8013 2.3887
6.1387 2.0208 2.3887
6.0588 2.2374 2.3887
5.9709 2.4507 2.3887
5.8753 2.6606 2.3887
5.7721 2.8666 2.3887
5.6614 3.0685 2.3887
5.5434 3.2661 2.3887
5.4183 3.4591 2.3887
5.2862 3.6471 2.3887
5.1475 3.8301 2.3887
5.0022 4.0076 2.3887
4.8507 4.1796 2.3887
4.6930 4.3457 2.3887
4.5296 4.5058 2.3887
4.3605 4.6596 2.3887
4.1862 4.8070 2.3887
4.0067 4.9478 2.3887
3.8224 5.0818 2.3887
3.6335 5.2088 2.3887
3.4403 5.3288 2.3887
3.2431 5.4415 2.3887
3.0422 5.5469 2.3887
2.8378 5.6447 2.3887
2.6303 5.7350 2.3887
2.4198 5.8177 2.3887
0.8667 2.3142 0.9381
0.7831 2.3436 0.9394
0.6986 2.3700 0.9406
0.6131 2.3933 0.9418
0.5268 2.4135 0.9431
0.4399 2.4306 0.9443
0.3524 2.4446 0.9455
0.2644 2.4554 0.9468
0.1761 2.4630 0.9480
0.0876 2.4674 0.9492
-0.0010 2.4686 0.9504
-0.0896 2.4666 0.9516
-0.1781 2.4615 0.9528
-0.2664 2.4531 0.9539
-0.3543 2.4415 0.9551
-0.4417 2.4268 0.9562
-0.5285 2.4090 0.9573
-0.6147 2.3880 0.9584
-0.7000 2.3639 0.9595
-0.7844 2.3368 0.9605
-0.8677 2.3066 0.9615
-2.3575 5.6422 2.3887
-2.5559 5.5471 2.3887
-2.7505 5.4452 2.3887
-2.9413 5.3366 2.3887
-3.1280 5.2214 2.3887
-3.3102 5.1003 2.3887
-3.4881 4.9722 2.3887
-3.6611 4.8385 2.3887
-3.8292 4.6989 2.3887
-3.9922 4.5536 2.3887
-4.1498 4.4029 2.3887
-4.3020 4.2468 2.3887
-4.4485 4.0857 2.3887
-4.5892 3.9197 2.3887
-4.7239 3.7489 2.3887
-4.8525 3.5737 2.3887
-4.9749 3.3942 2.3887
-5.0909 3.2107 2.3887
-5.2004 3.0234 2.3887
-5.3032 2.8325 2.3887
-5.3992 2.6382 2.3887
-5.4885 2.4407 2.3887
-5.5707 2.2404 2.3887
-5.6460 2.0373 2.3887
-5.7141 1.8319 2.3887
-5.7751 1.6242 2.3887
-5.8288 1.4146 2.3887
-5.8752 1.2033 2.3887
-5.9142 0.9905 2.3887
-5.9458 0.7765 2.3887
-5.9700 0.5616 2.3887
-5.9867 0.3459 2.3887
-5.9958 0.1298 2.3887
-5.9975 -0.0865 2.3887
-5.9917 -0.3029 2.3887
-5.9784 -0.5189 2.3887
-5.9576 -0.7343 2.3887
-5.9293 -0.9490 2.3887
-5.8936 -1.1627 2.3887
-5.8504 -1.3751 2.3887
