ply
format ascii 1.0
element vertex 2178
property float32 x
property float32 y
property float32 z
end_header
4.9607 -4.0549 2.3911
5.0954 -3.8667 2.3911
5.2234 -3.6742 2.3911
5.3445 -3.4778 2.3911
5.4585 -3.2775 2.3911
5.5655 -3.0737 2.3911
5.6653 -2.8667 2.3911
5.7578 -2.6565 2.3911
5.8430 -2.4436 2.3911
5.9207 -2.2282 2.3911
5.9910 -2.0104 2.3911
6.0537 -1.7905 2.3911
6.1088 -1.5689 2.3911
6.1563 -1.3457 2.3911
6.1962 -1.1211 2.3911
6.2283 -0.8955 2.3911
6.2527 -0.6691 2.3911
6.2694 -0.4421 2.3911
6.2784 -0.2147 2.3911
6.2796 0.0127 2.3911
6.2731 0.2400 2.3911
6.2588 0.4668 2.3911
6.2369 0.6930 2.3911
6.2073 0.9183 2.3911
6.1701 1.1425 2.3911
6.1252 1.3652 2.3911
6.0728 1.5864 2.3911
6.0129 1.8057 2.3911
5.9456 2.0229 2.3911
5.8709 2.2377 2.3911
5.7889 2.4500 2.3911
5.6997 2.6594 2.3911
5.6034 2.8658 2.3911
5.5000 3.0690 2.3911
5.3897 3.2686 2.3911
5.2725 3.4645 2.3911
5.1486 3.6565 2.3911
5.0181 3.8443 2.3911
4.8812 4.0277 2.3911
4.7379 4.2065 2.3911
4.5884 4.3805 2.3911
4.4328 4.5495 2.3911
4.2713 4.7132 2.3911
4.1041 4.8715 2.3911
3.9313 5.0241 2.3911
3.7531 5.1710 2.3911
3.5697 5.3118 2.3911
3.3813 5.4464 2.3911
3.1880 5.5746 2.3911
2.9901 5.6962 2.3911
2.7877 5.8111 2.3911
2.5811 5.9191 2.3911
2.3706 6.0200 2.3911
0.8769 2.4863 0.9724
0.7870 2.5172 0.9708
0.6960 2.5449 0.9691
0.6040 2.5692 0.9674
0.5113 2.5902 0.9657
0.4178 2.6078 0.9639
0.3238 2.6220 0.9621
0.2292 2.6328 0.9603
0.1344 2.6402 0.9585
0.0393 2.6442 0.9566
-0.0558 2.6447 0.9547
-0.4640 2.4269 0.9454
-0.5510 2.4094 0.9435
-0.6373 2.3887 0.9417
-0.7228 2.3649 0.9399
-0.8074 2.3381 0.9380
-0.8910 2.3082 0.9362
-2.4910 5.8224 2.3911
-2.7039 5.7418 2.3911
-2.9143 5.6534 2.3911
-3.1216 5.5571 2.3911
-3.3257 5.4532 2.3911
-3.5262 5.3417 2.3911
-3.7228 5.2227 2.3911
-3.9152 5.0963 2.3911
-4.1032 4.9627 2.3911
-4.2865 4.8221 2.3911
-4.4647 4.6745 2.3911
-4.6376 4.5202 2.3911
-4.8050 4.3594 2.3911
-4.9665 4.1922 2.3911
-5.1219 4.0189 2.3911
-5.2710 3.8396 2.3911
-5.4134 3.6547 2.3911
-5.5491 3.4643 2.3911
-5.6777 3.2688 2.3911
-5.7990 3.0683 2.3911
-5.9129 2.8631 2.3911
-6.0191 2.6536 2.3911
-6.1174 2.4401 2.3911
-6.2078 2.2227 2.3911
-6.2899 2.0019 2.3911
-6.3638 1.7780 2.3911
-6.4291 1.5513 2.3911
-6.4859 1.3221 2.3911
-6.5341 1.0907 2.3911
-6.5734 0.8575 2.3911
-6.6039 0.6229 2.3911
-6.6256 0.3872 2.3911
-6.6382 0.1508 2.3911
-6.6419 -0.0861 2.3911
-6.6366 -0.3230 2.3911
-6.6223 -0.5595 2.3911
-6.5990 -0.7954 2.3911
-6.5668 -1.0303 2.3911
-6.5256 -1.2637 2.3911
-6.4757 -1.4954 2.3911
-6.4169 -1.7251 2.3911
-6.3496 -1.9522 2.3911
-6.2736 -2.1766 2.3911
-6.1892 -2.3979 2.3911
-6.0966 -2.6157 2.3911
-5.9958 -2.8298 2.3911
-5.8870 -3.0398 2.3911
-5.7704 -3.2454 2.3911
-5.6462 -3.4462 2.3911
-5.5146 -3.6421 2.3911
-5.3758 -3.8328 2.3911
-5.2300 -4.0179 2.3911
-5.0775 -4.1972 2.3911
-4.9185 -4.3705 2.3911
-4.7533 -4.5375 2.3911
-4.5821 -4.6980 2.3911
-4.4052 -4.8518 2.3911
-4.2229 -4.9987 2.3911
-4.0354 -5.1385 2.3911
-3.8432 -5.2710 2.3911
-3.6463 -5.3961 2.3911
-3.4453 -5.5136 2.3911
-3.2403 -5.6234 2.3911
-3.0317 -5.7254 2.3911
-2.8198 -5.8193 2.3911
-2.6049 -5.9053 2.3911
-2.3873 -5.9832 2.3911
-2.1674 -6.0528 2.3911
-1.9454 -6.1143 2.3911
-1.7218 -6.1674 2.3911
-1.4967 -6.2122 2.3911
-1.2705 -6.2487 2.3911
-1.0436 -6.2769 2.3911
-0.8162 -6.2967 2.3911
-0.5887 -6.3083 2.3911
-0.3613 -6.3115 2.3911
-0.1344 -6.3066 2.3911
0.0918 -6.2934 2.3911
0.3169 -6.2722 2.3911
0.5406 -6.2429 2.3911
0.7628 -6.2056 2.3911
0.9830 -6.1605 2.3911
1.2010 -6.1077 2.3911
1.4166 -6.0472 2.3911
1.6295 -5.9792 2.3911
1.8394 -5.9038 2.3911
2.0461 -5.8211 2.3911
2.2494 -5.7313 2.3911
2.4490 -5.6346 2.3911
2.6446 -5.5311 2.3911
2.8362 -5.4209 2.3911
3.0234 -5.3043 2.3911
3.2060 -5.1814 2.3911
3.3839 -5.0524 2.3911
3.5569 -4.9175 2.3911
3.7247 -4.7768 2.3911
3.8873 -4.6306 2.3911
4.0443 -4.4791 2.3911
4.1958 -4.3225 2.3911
4.3415 -4.1609 2.3911
4.4813 -3.9947 2.3911
4.6150 -3.8239 2.3911
4.7426 -3.6489 2.3911
4.8638 -3.4698 2.3911
4.9787 -3.2869 2.3911
5.0870 -3.1003 2.3911
5.1887 -2.9104 2.3911
5.2836 -2.7174 2.3911
5.3718 -2.5214 2.3911
5.4531 -2.3227 2.3911
5.5275 -2.1215 2.3911
5.5948 -1.9181 2.3911
5.6551 -1.7127 2.3911
5.7082 -1.5056 2.3911
5.7542 -1.2968 2.3911
5.7930 -1.0868 2.3911
5.8246 -0.8758 2.3911
5.8489 -0.6639 2.3911
5.8660 -0.4514 2.3911
5.8758 -0.2385 2.3911
5.8783 -0.0255 2.3911
5.8736 0.1874 2.3911
5.8616 0.3999 2.3911
5.8423 0.6119 2.3911
5.8159 0.8231 2.3911
5.7822 1.0332 2.3911
5.7415 1.2421 2.3911
5.6936 1.4495 2.3911
5.6386 1.6552 2.3911
5.5767 1.8589 2.3911
5.5078 2.0604 2.3911
5.4320 2.2596 2.3911
5.3495 2.4562 2.3911
5.2602 2.6499 2.3911
5.1643 2.8405 2.3911
5.0619 3.0280 2.3911
4.9531 3.2119 2.3911
4.8379 3.3921 2.3911
4.7165 3.5684 2.3911
4.5891 3.7406 2.3911
4.4556 3.9085 2.3911
4.3164 4.0719 2.3911
4.1714 4.2306 2.3911
4.0209 4.3843 2.3911
3.8651 4.5330 2.3911
3.7039 4.6764 2.3911
3.5378 4.8143 2.3911
3.3667 4.9466 2.3911
3.1909 5.0731 2.3911
3.0105 5.1935 2.3911
2.8258 5.3078 2.3911
2.6370 5.4158 2.3911
2.4442 5.5174 2.3911
2.2477 5.6123 2.3911
0.8311 2.3138 0.9706
0.7474 2.3432 0.9691
0.6627 2.3695 0.9675
0.5771 2.3927 0.9659
0.4907 2.4128 0.9643
0.4036 2.4297 0.9627
0.3160 2.4435 0.9610
0.2279 2.4542 0.9593
0.1394 2.4616 0.9576
0.0508 2.4659 0.9559
-0.0380 2.4669 0.9541
-0.1267 2.4647 0.9523
-0.2153 2.4594 0.9505
-0.3036 2.4508 0.9487
-0.3916 2.4390 0.9469
-0.4791 2.4241 0.9451
-0.5660 2.4060 0.9432
-0.6522 2.3848 0.9414
-0.7375 2.3605 0.9396
-0.8220 2.3331 0.9377
-0.9053 2.3027 0.9359
-2.5280 5.8090 2.3911
-2.7406 5.7270 2.3911
-2.9504 5.6372 2.3911
-3.1572 5.5397 2.3911
-3.3607 5.4344 2.3911
-3.5605 5.3216 2.3911
-3.7564 5.2013 2.3911
-3.9481 5.0737 2.3911
-4.1353 4.9389 2.3911
-4.3177 4.7970 2.3911
-4.4950 4.6483 2.3911
-4.6670 4.4928 2.3911
-4.8334 4.3309 2.3911
-4.9939 4.1626 2.3911
-5.1482 3.9882 2.3911
-5.2961 3.8080 2.3911
-5.4374 3.6221 2.3911
-5.5719 3.4308 2.3911
-5.6993 3.2344 2.3911
-5.8193 3.0330 2.3911
-5.9319 2.8271 2.3911
-6.0367 2.6169 2.3911
-6.1337 2.4027 2.3911
-6.2226 2.1847 2.3911
-6.3033 1.9633 2.3911
-6.3757 1.7389 2.3911
-6.4396 1.5117 2.3911
-6.4949 1.2821 2.3911
-6.5415 1.0504 2.3911
-6.5794 0.8170 2.3911
-6.6083 0.5822 2.3911
-6.6284 0.3463 2.3911
-6.6395 0.1097 2.3911
-6.6416 -0.1271 2.3911
-6.6347 -0.3640 2.3911
-6.6189 -0.6005 2.3911
-6.5940 -0.8362 2.3911
-6.5603 -1.0708 2.3911
-6.5176 -1.3040 2.3911
-6.4661 -1.5354 2.3911
-6.4059 -1.7646 2.3911
-6.3370 -1.9913 2.3911
-6.2596 -2.2152 2.3911
-6.1738 -2.4359 2.3911
-6.0797 -2.6531 2.3911
-5.9775 -2.8665 2.3911
-5.8673 -3.0757 2.3911
-5.7494 -3.2805 2.3911
-5.6239 -3.4806 2.3911
-5.4910 -3.6756 2.3911
-5.3510 -3.8653 2.3911
-5.2040 -4.0494 2.3911
-5.0504 -4.2277 2.3911
-4.8903 -4.3999 2.3911
-4.7240 -4.5658 2.3911
-4.5518 -4.7252 2.3911
-4.3740 -4.8778 2.3911
-4.1907 -5.0235 2.3911
-4.0024 -5.1620 2.3911
-3.8094 -5.2932 2.3911
-3.6118 -5.4170 2.3911
-3.4100 -5.5332 2.3911
-3.2044 -5.6416 2.3911
-2.9952 -5.7422 2.3911
-2.7827 -5.8348 2.3911
-2.5674 -5.9195 2.3911
-2.3494 -5.9958 2.3911
-2.1291 -6.0641 2.3911
-1.9068 -6.1241 2.3911
-1.6829 -6.1758 2.3911
-1.4576 -6.2191 2.3911
-1.2312 -6.2542 2.3911
-1.0042 -6.2809 2.3911
-0.7768 -6.2993 2.3911
-0.5492 -6.3094 2.3911
-0.3219 -6.3113 2.3911
-0.0951 -6.3049 2.3911
0.1309 -6.2903 2.3911
0.3558 -6.2677 2.3911
0.5792 -6.2370 2.3911
0.8011 -6.1984 2.3911
1.0209 -6.1519 2.3911
1.2386 -6.0977 2.3911
1.4537 -6.0359 2.3911
1.6661 -5.9666 2.3911
1.8755 -5.8899 2.3911
2.0816 -5.8060 2.3911
2.2843 -5.7150 2.3911
2.4832 -5.6171 2.3911
2.6781 -5.5125 2.3911
2.8689 -5.4012 2.3911
3.0553 -5.2834 2.3911
3.2372 -5.1595 2.3911
3.4142 -5.0294 2.3911
3.5863 -4.8935 2.3911
3.7533 -4.7518 2.3911
3.9149 -4.6047 2.3911
4.0710 -4.4523 2.3911
4.2215 -4.2948 2.3911
4.3662 -4.1324 2.3911
4.5049 -3.9654 2.3911
4.6376 -3.7939 2.3911
4.7641 -3.6181 2.3911
4.8842 -3.4384 2.3911
4.9979 -3.2548 2.3911
5.1051 -3.0677 2.3911
5.2056 -2.8772 2.3911
5.2994 -2.6836 2.3911
5.3864 -2.4871 2.3911
5.4665 -2.2880 2.3911
5.5396 -2.0864 2.3911
5.6058 -1.8827 2.3911
5.6648 -1.6769 2.3911
5.7167 -1.4695 2.3911
5.7615 -1.2605 2.3911
5.7990 -1.0503 2.3911
5.8293 -0.8391 2.3911
5.8524 -0.6271 2.3911
5.8682 -0.4145 2.3911
5.8768 -0.2016 2.3911
5.8780 0.0114 2.3911
5.8720 0.2242 2.3911
5.8588 0.4367 2.3911
5.8383 0.6486 2.3911
5.8106 0.8596 2.3911
5.7757 1.0695 2.3911
5.7337 1.2782 2.3911
5.6845 1.4853 2.3911
5.6284 1.6906 2.3911
5.5652 1.8940 2.3911
5.4951 2.0952 2.3911
5.4182 2.2939 2.3911
5.3345 2.4900 2.3911
5.2441 2.6831 2.3911
5.1470 2.8733 2.3911
5.0435 3.0601 2.3911
4.9336 3.2434 2.3911
4.8173 3.4229 2.3911
4.6949 3.5985 2.3911
4.5664 3.7700 2.3911
4.4319 3.9371 2.3911
4.2917 4.0997 2.3911
4.1457 4.2576 2.3911
3.9943 4.4105 2.3911
3.8375 4.5582 2.3911
3.6755 4.7007 2.3911
3.5084 4.8377 2.3911
3.3365 4.9689 2.3911
3.1599 5.0943 2.3911
2.9788 5.2138 2.3911
2.7934 5.3270 2.3911
2.6038 5.4339 2.3911
2.4104 5.5343 2.3911
0.8995 2.2873 0.9718
0.8167 2.3191 0.9703
0.7328 2.3479 0.9688
0.6479 2.3737 0.9673
0.5622 2.3964 0.9657
0.4756 2.4159 0.9640
0.3884 2.4324 0.9624
0.3007 2.4456 0.9607
0.2126 2.4557 0.9590
0.1241 2.4626 0.9573
0.0354 2.4663 0.9555
-0.0533 2.4668 0.9538
-0.4355 2.2714 0.9451
-0.5169 2.2549 0.9434
-0.5977 2.2356 0.9417
-0.6778 2.2133 0.9399
-0.7569 2.1882 0.9382
-0.8352 2.1602 0.9365
-0.9123 2.1294 0.9348
-2.5326 5.3707 2.3911
-2.7290 5.2873 2.3911
-2.9226 5.1967 2.3911
-3.1131 5.0989 2.3911
-3.3001 4.9940 2.3911
-3.4836 4.8821 2.3911
-3.6631 4.7635 2.3911
-3.8384 4.6381 2.3911
-4.0092 4.5061 2.3911
-4.1753 4.3677 2.3911
-4.3365 4.2231 2.3911
-4.4924 4.0724 2.3911
-4.6428 3.9158 2.3911
-4.7875 3.7535 2.3911
-4.9263 3.5857 2.3911
-5.0589 3.4127 2.3911
-5.1851 3.2346 2.3911
-5.3048 3.0517 2.3911
-5.4176 2.8642 2.3911
-5.5235 2.6725 2.3911
-5.6222 2.4767 2.3911
-5.7136 2.2772 2.3911
-5.7976 2.0742 2.3911
-5.8739 1.8680 2.3911
-5.9424 1.6589 2.3911
-6.0031 1.4472 2.3911
-6.0558 1.2332 2.3911
-6.1005 1.0173 2.3911
-6.1369 0.7997 2.3911
-6.1652 0.5807 2.3911
-6.1852 0.3608 2.3911
-6.1968 0.1401 2.3911
-6.2001 -0.0808 2.3911
-6.1950 -0.3018 2.3911
-6.1816 -0.5226 2.3911
-6.1598 -0.7426 2.3911
-6.1297 -0.9617 2.3911
-6.0914 -1.1795 2.3911
-6.0448 -1.3957 2.3911
-5.9901 -1.6100 2.3911
-5.9273 -1.8219 2.3911
-5.8566 -2.0313 2.3911
-5.7780 -2.2378 2.3911
-5.6917 -2.4412 2.3911
-5.5979 -2.6410 2.3911
-5.4966 -2.8370 2.3911
-5.3880 -3.0290 2.3911
-5.2724 -3.2166 2.3911
-5.1498 -3.3996 2.3911
-5.0206 -3.5778 2.3911
-4.8848 -3.7508 2.3911
-4.7428 -3.9184 2.3911
-4.5947 -4.0804 2.3911
-4.4408 -4.2367 2.3911
-4.2813 -4.3869 2.3911
-4.1165 -4.5308 2.3911
-3.9466 -4.6684 2.3911
-3.7719 -4.7994 2.3911
-3.5927 -4.9236 2.3911
-3.4092 -5.0409 2.3911
-3.2217 -5.1511 2.3911
-3.0305 -5.2542 2.3911
-2.8359 -5.3500 2.3911
-2.6381 -5.4384 2.3911
-2.4376 -5.5194 2.3911
-2.2345 -5.5927 2.3911
-2.0292 -5.6585 2.3911
-1.8219 -5.7166 2.3911
-1.6130 -5.7669 2.3911
-1.4027 -5.8095 2.3911
-1.1914 -5.8443 2.3911
-0.9793 -5.8714 2.3911
-0.7667 -5.8907 2.3911
-0.5539 -5.9022 2.3911
-0.3412 -5.9060 2.3911
-0.1289 -5.9020 2.3911
0.0828 -5.8905 2.3911
0.2935 -5.8713 2.3911
0.5030 -5.8446 2.3911
0.7110 -5.8105 2.3911
0.9173 -5.7689 2.3911
1.1216 -5.7202 2.3911
1.3237 -5.6642 2.3911
1.5233 -5.6012 2.3911
1.7201 -5.5312 2.3911
1.9140 -5.4544 2.3911
2.1047 -5.3710 2.3911
2.2920 -5.2809 2.3911
2.4756 -5.1845 2.3911
2.6555 -5.0818 2.3911
2.8312 -4.9731 2.3911
3.0028 -4.8584 2.3911
3.1699 -4.7379 2.3911
3.3325 -4.6119 2.3911
3.4902 -4.4805 2.3911
3.6431 -4.3438 2.3911
3.7908 -4.2021 2.3911
3.9333 -4.0556 2.3911
4.0703 -3.9044 2.3911
4.2019 -3.7487 2.3911
4.3277 -3.5888 2.3911
4.4478 -3.4249 2.3911
4.5620 -3.2571 2.3911
4.6701 -3.0856 2.3911
4.7722 -2.9108 2.3911
4.8680 -2.7327 2.3911
4.9575 -2.5516 2.3911
5.0406 -2.3678 2.3911
5.1172 -2.1813 2.3911
5.1873 -1.9926 2.3911
5.2509 -1.8017 2.3911
5.3077 -1.6089 2.3911
5.3579 -1.4144 2.3911
5.4013 -1.2185 2.3911
5.4380 -1.0213 2.3911
5.4678 -0.8230 2.3911
5.4909 -0.6240 2.3911
5.5070 -0.4244 2.3911
5.5164 -0.2245 2.3911
5.5189 -0.0244 2.3911
5.5145 0.1755 2.3911
5.5033 0.3752 2.3911
5.4853 0.5743 2.3911
5.4604 0.7727 2.3911
5.4288 0.9701 2.3911
5.3905 1.1663 2.3911
5.3455 1.3612 2.3911
5.2938 1.5543 2.3911
5.2355 1.7457 2.3911
5.1707 1.9350 2.3911
5.0994 2.1220 2.3911
5.0217 2.3066 2.3911
4.9377 2.4884 2.3911
4.8475 2.6674 2.3911
4.7511 2.8433 2.3911
4.6487 3.0159 2.3911
4.5403 3.1850 2.3911
4.4261 3.3504 2.3911
4.3062 3.5120 2.3911
4.1806 3.6694 2.3911
4.0496 3.8226 2.3911
3.9133 3.9713 2.3911
3.7717 4.1154 2.3911
3.6251 4.2546 2.3911
3.4736 4.3889 2.3911
3.3174 4.5180 2.3911
3.1566 4.6418 2.3911
2.9913 4.7600 2.3911
2.8218 4.8727 2.3911
2.6483 4.9795 2.3911
2.4709 5.0803 2.3911
2.2898 5.1751 2.3911
0.8541 2.1354 0.9701
0.7768 2.1656 0.9687
0.6984 2.1931 0.9673
0.6191 2.2177 0.9658
0.5389 2.2394 0.9643
0.4581 2.2582 0.9628
0.3765 2.2741 0.9613
0.2945 2.2870 0.9597
0.2120 2.2969 0.9581
0.1293 2.3039 0.9565
0.0463 2.3079 0.9549
-0.0368 2.3088 0.9532
-0.1198 2.3068 0.9516
-0.2027 2.3017 0.9499
-0.2854 2.2937 0.9482
-0.3678 2.2827 0.9465
-0.4497 2.2687 0.9448
-0.5310 2.2518 0.9431
-0.6117 2.2319 0.9414
-0.6916 2.2092 0.9396
-0.7706 2.1835 0.9379
-0.8486 2.1551 0.9362
-0.9256 2.1238 0.9345
-2.5668 5.3568 2.3911
-2.7628 5.2721 2.3911
-2.9558 5.1802 2.3911
-3.1457 5.0812 2.3911
-3.3322 4.9751 2.3911
-3.5150 4.8621 2.3911
-3.6938 4.7422 2.3911
-3.8683 4.6157 2.3911
-4.0384 4.4826 2.3911
-4.2036 4.3431 2.3911
-4.3639 4.1974 2.3911
-4.5188 4.0456 2.3911
-4.6683 3.8881 2.3911
-4.8120 3.7248 2.3911
-4.9497 3.5561 2.3911
-5.0812 3.3821 2.3911
-5.2063 3.2032 2.3911
-5.3248 3.0195 2.3911
-5.4365 2.8313 2.3911
-5.5411 2.6388 2.3911
-5.6386 2.4424 2.3911
-5.7287 2.2422 2.3911
-5.8113 2.0386 2.3911
-5.8863 1.8319 2.3911
-5.9535 1.6223 2.3911
-6.0128 1.4102 2.3911
-6.0642 1.1959 2.3911
-6.1074 0.9796 2.3911
-6.1424 0.7618 2.3911
-6.1692 0.5427 2.3911
-6.1878 0.3226 2.3911
-6.1980 0.1019 2.3911
-6.1998 -0.1191 2.3911
-6.1933 -0.3401 2.3911
-6.1784 -0.5608 2.3911
-6.1552 -0.7807 2.3911
-6.1237 -0.9996 2.3911
-6.0839 -1.2171 2.3911
-6.0359 -1.4330 2.3911
-5.9798 -1.6469 2.3911
-5.9156 -1.8584 2.3911
-5.8435 -2.0673 2.3911
-5.7636 -2.2733 2.3911
-5.6760 -2.4761 2.3911
-5.5808 -2.6752 2.3911
-5.4783 -2.8706 2.3911
-5.3685 -3.0618 2.3911
-5.2516 -3.2487 2.3911
-5.1279 -3.4309 2.3911
-4.9975 -3.6081 2.3911
-4.8607 -3.7802 2.3911
-4.7176 -3.9469 2.3911
-4.5685 -4.1079 2.3911
-4.4136 -4.2631 2.3911
-4.2531 -4.4123 2.3911
-4.0874 -4.5551 2.3911
-3.9167 -4.6916 2.3911
-3.7412 -4.8214 2.3911
-3.5612 -4.9444 2.3911
-3.3769 -5.0605 2.3911
-3.1888 -5.1695 2.3911
-2.9971 -5.2715 2.3911
-2.8018 -5.3659 2.3911
-2.6035 -5.4528 2.3911
-2.4026 -5.5327 2.3911
-2.1991 -5.6047 2.3911
-1.9934 -5.6691 2.3911
-1.7858 -5.7259 2.3911
-1.5766 -5.7749 2.3911
-1.3661 -5.8161 2.3911
-1.1546 -5.8496 2.3911
-0.9424 -5.8753 2.3911
-0.7298 -5.8932 2.3911
-0.5170 -5.9034 2.3911
-0.3044 -5.9058 2.3911
-0.0921 -5.9006 2.3911
0.1194 -5.8877 2.3911
0.3299 -5.8672 2.3911
0.5391 -5.8392 2.3911
0.7469 -5.8038 2.3911
0.9529 -5.7610 2.3911
1.1568 -5.7110 2.3911
1.3585 -5.6538 2.3911
1.5576 -5.5895 2.3911
1.7539 -5.5184 2.3911
1.9473 -5.4404 2.3911
2.1374 -5.3558 2.3911
2.3241 -5.2647 2.3911
2.5071 -5.1672 2.3911
2.6862 -5.0634 2.3911
2.8613 -4.9536 2.3911
3.0321 -4.8379 2.3911
3.1984 -4.7165 2.3911
3.3602 -4.5895 2.3911
3.5171 -4.4572 2.3911
3.6690 -4.3196 2.3911
3.8159 -4.1771 2.3911
3.9574 -4.0297 2.3911
4.0935 -3.8777 2.3911
4.2241 -3.7213 2.3911
4.3490 -3.5607 2.3911
4.4680 -3.3961 2.3911
4.5812 -3.2276 2.3911
4.6883 -3.0556 2.3911
4.7892 -2.8801 2.3911
4.8839 -2.7015 2.3911
4.9723 -2.5199 2.3911
5.0543 -2.3356 2.3911
5.1298 -2.1488 2.3911
5.1988 -1.9596 2.3911
5.2612 -1.7684 2.3911
5.3169 -1.5753 2.3911
5.3659 -1.3805 2.3911
5.4082 -1.1844 2.3911
5.4436 -0.9870 2.3911
5.4723 -0.7886 2.3911
5.4942 -0.5895 2.3911
5.5092 -0.3898 2.3911
5.5173 -0.1898 2.3911
5.5186 0.0102 2.3911
5.5130 0.2102 2.3911
5.5007 0.4098 2.3911
5.4814 0.6088 2.3911
5.4554 0.8070 2.3911
5.4227 1.0042 2.3911
5.3832 1.2002 2.3911
5.3370 1.3948 2.3911
5.2841 1.5876 2.3911
5.2247 1.7786 2.3911
5.1588 1.9676 2.3911
5.0864 2.1542 2.3911
5.0076 2.3383 2.3911
4.9225 2.5197 2.3911
4.8312 2.6982 2.3911
4.7338 2.8735 2.3911
4.6303 3.0455 2.3911
4.5209 3.2140 2.3911
4.4057 3.3787 2.3911
4.2848 3.5396 2.3911
4.1583 3.6963 2.3911
4.0264 3.8487 2.3911
3.8891 3.9966 2.3911
3.7467 4.1399 2.3911
3.5992 4.2783 2.3911
3.4469 4.4117 2.3911
3.2898 4.5399 2.3911
3.1282 4.6627 2.3911
2.9622 4.7800 2.3911
2.7920 4.8916 2.3911
2.6178 4.9974 2.3911
2.4397 5.0972 2.3911
2.2580 5.1909 2.3911
0.8407 2.1408 0.9698
0.7632 2.1706 0.9684
0.6847 2.1975 0.9670
0.6053 2.2216 0.9656
0.5250 2.2428 0.9641
0.4440 2.2611 0.9626
0.3624 2.2765 0.9610
0.2802 2.2889 0.9595
0.1977 2.2983 0.9579
0.1149 2.3048 0.9563
0.0319 2.3082 0.9546
-0.0512 2.3087 0.9530
-0.4100 2.1321 0.9448
-0.4865 2.1167 0.9432
-0.5623 2.0986 0.9416
-0.6375 2.0777 0.9400
-0.7118 2.0541 0.9384
-0.7852 2.0278 0.9368
-0.8577 1.9989 0.9352
-0.9290 1.9674 0.9336
-2.5634 4.9601 2.3911
-2.7447 4.8746 2.3911
-2.9231 4.7823 2.3911
-3.0983 4.6834 2.3911
-3.2700 4.5780 2.3911
-3.4380 4.4663 2.3911
-3.6020 4.3483 2.3911
-3.7618 4.2241 2.3911
-3.9171 4.0940 2.3911
-4.0678 3.9580 2.3911
-4.2136 3.8164 2.3911
-4.3542 3.6693 2.3911
-4.4894 3.5169 2.3911
-4.6190 3.3593 2.3911
-4.7429 3.1969 2.3911
-4.8608 3.0298 2.3911
-4.9725 2.8583 2.3911
-5.0778 2.6825 2.3911
-5.1767 2.5027 2.3911
-5.2688 2.3192 2.3911
-5.3540 2.1321 2.3911
-5.4323 1.9419 2.3911
-5.5035 1.7487 2.3911
-5.5674 1.5528 2.3911
-5.6239 1.3545 2.3911
-5.6730 1.1541 2.3911
-5.7146 0.9519 2.3911
-5.7485 0.7481 2.3911
-5.7748 0.5432 2.3911
-5.7933 0.3372 2.3911
-5.8041 0.1307 2.3911
-5.8070 -0.0762 2.3911
-5.8022 -0.2831 2.3911
-5.7896 -0.4896 2.3911
-5.7692 -0.6956 2.3911
-5.7410 -0.9007 2.3911
-5.7051 -1.1046 2.3911
-5.6615 -1.3070 2.3911
-5.6104 -1.5076 2.3911
-5.5517 -1.7060 2.3911
-5.4856 -1.9021 2.3911
-5.4122 -2.0954 2.3911
-5.3315 -2.2858 2.3911
-5.2438 -2.4730 2.3911
-5.1492 -2.6566 2.3911
-5.0478 -2.8365 2.3911
-4.9397 -3.0123 2.3911
-4.8252 -3.1838 2.3911
-4.7044 -3.3507 2.3911
-4.5775 -3.5129 2.3911
-4.4448 -3.6701 2.3911
-4.3064 -3.8221 2.3911
-4.1625 -3.9687 2.3911
-4.0134 -4.1097 2.3911
-3.8593 -4.2448 2.3911
-3.7004 -4.3740 2.3911
-3.5370 -4.4971 2.3911
-3.3694 -4.6138 2.3911
-3.1977 -4.7242 2.3911
-3.0223 -4.8279 2.3911
-2.8434 -4.9250 2.3911
-2.6612 -5.0151 2.3911
-2.4761 -5.0985 2.3911
-2.2883 -5.1750 2.3911
-2.0981 -5.2442 2.3911
-1.9058 -5.3064 2.3911
-1.7116 -5.3614 2.3911
-1.5158 -5.4092 2.3911
-1.3187 -5.4497 2.3911
-1.1206 -5.4830 2.3911
-0.9217 -5.5090 2.3911
-0.7224 -5.5276 2.3911
-0.5228 -5.5390 2.3911
-0.3232 -5.5432 2.3911
-0.1240 -5.5401 2.3911
0.0747 -5.5299 2.3911
0.2725 -5.5125 2.3911
0.4693 -5.4880 2.3911
0.6647 -5.4566 2.3911
0.8585 -5.4182 2.3911
1.0505 -5.3730 2.3911
1.2404 -5.3210 2.3911
1.4280 -5.2624 2.3911
1.6131 -5.1972 2.3911
1.7955 -5.1256 2.3911
1.9749 -5.0477 2.3911
2.1511 -4.9636 2.3911
2.3240 -4.8735 2.3911
2.4933 -4.7775 2.3911
2.6588 -4.6757 2.3911
2.8203 -4.5684 2.3911
2.9778 -4.4556 2.3911
3.1309 -4.3375 2.3911
3.2796 -4.2142 2.3911
3.4236 -4.0861 2.3911
3.5629 -3.9532 2.3911
3.6972 -3.8156 2.3911
3.8265 -3.6737 2.3911
3.9506 -3.5276 2.3911
4.0693 -3.3774 2.3911
4.1826 -3.2233 2.3911
4.2904 -3.0657 2.3911
4.3925 -2.9045 2.3911
4.4888 -2.7402 2.3911
4.5793 -2.5727 2.3911
4.6638 -2.4024 2.3911
4.7423 -2.2295 2.3911
4.8148 -2.0541 2.3911
4.8810 -1.8765 2.3911
4.9411 -1.6968 2.3911
4.9949 -1.5154 2.3911
5.0423 -1.3323 2.3911
5.0834 -1.1478 2.3911
5.1181 -0.9622 2.3911
5.1464 -0.7755 2.3911
5.1682 -0.5881 2.3911
5.1836 -0.4002 2.3911
5.1925 -0.2119 2.3911
5.1949 -0.0235 2.3911
5.1909 0.1649 2.3911
5.1804 0.3529 2.3911
5.1635 0.5405 2.3911
5.1401 0.7273 2.3911
5.1103 0.9133 2.3911
5.0742 1.0981 2.3911
5.0318 1.2815 2.3911
4.9830 1.4635 2.3911
4.9281 1.6437 2.3911
4.8669 1.8219 2.3911
4.7997 1.9980 2.3911
4.7264 2.1718 2.3911
4.6472 2.3430 2.3911
4.5621 2.5115 2.3911
4.4711 2.6770 2.3911
4.3745 2.8394 2.3911
4.2723 2.9985 2.3911
4.1645 3.1542 2.3911
4.0514 3.3061 2.3911
3.9330 3.4541 2.3911
3.8095 3.5981 2.3911
3.6809 3.7379 2.3911
3.5474 3.8733 2.3911
3.4092 4.0041 2.3911
3.2664 4.1302 2.3911
3.1191 4.2514 2.3911
2.9675 4.3676 2.3911
2.8118 4.4785 2.3911
2.6521 4.5842 2.3911
2.4886 4.6843 2.3911
2.3215 4.7788 2.3911
0.8722 1.9736 0.9695
0.8007 2.0046 0.9683
0.7281 2.0330 0.9670
0.6545 2.0587 0.9657
0.5800 2.0818 0.9643
0.5048 2.1022 0.9629
0.4289 2.1198 0.9615
0.3523 2.1347 0.9601
0.2753 2.1468 0.9586
0.1979 2.1562 0.9571
0.1202 2.1627 0.9556
0.0423 2.1664 0.9540
-0.0357 2.1673 0.9525
-0.1136 2.1654 0.9509
-0.1915 2.1607 0.9494
-0.2691 2.1531 0.9478
-0.3464 2.1428 0.9462
-0.4233 2.1297 0.9446
-0.4997 2.1138 0.9430
-0.5754 2.0951 0.9413
-0.6504 2.0738 0.9397
-0.7246 2.0497 0.9381
-0.7978 2.0230 0.9365
-0.8701 1.9936 0.9349
-2.4114 5.0257 2.3911
-2.5950 4.9458 2.3911
-2.7758 4.8590 2.3911
-2.9537 4.7656 2.3911
-3.1283 4.6656 2.3911
-3.2994 4.5591 2.3911
-3.4667 4.4463 2.3911
-3.6300 4.3272 2.3911
-3.7890 4.2020 2.3911
-3.9436 4.0708 2.3911
-4.0934 3.9339 2.3911
-4.2383 3.7913 2.3911
-4.3780 3.6432 2.3911
-4.5123 3.4899 2.3911
-4.6409 3.3315 2.3911
-4.7638 3.1683 2.3911
-4.8806 3.0004 2.3911
-4.9912 2.8281 2.3911
-5.0954 2.6516 2.3911
-5.1931 2.4711 2.3911
-5.2840 2.2870 2.3911
-5.3681 2.0994 2.3911
-5.4452 1.9086 2.3911
-5.5151 1.7149 2.3911
-5.5777 1.5186 2.3911
-5.6330 1.3199 2.3911
-5.6808 1.1192 2.3911
-5.7210 0.9167 2.3911
-5.7536 0.7127 2.3911
-5.7786 0.5075 2.3911
-5.7957 0.3015 2.3911
-5.8052 0.0949 2.3911
-5.8068 -0.1120 2.3911
-5.8006 -0.3189 2.3911
-5.7866 -0.5254 2.3911
-5.7648 -0.7313 2.3911
-5.7353 -0.9362 2.3911
-5.6981 -1.1398 2.3911
-5.6532 -1.3419 2.3911
-5.6007 -1.5421 2.3911
-5.5408 -1.7402 2.3911
-5.4734 -1.9358 2.3911
-5.3987 -2.1287 2.3911
-5.3168 -2.3185 2.3911
-5.2279 -2.5051 2.3911
-5.1321 -2.6881 2.3911
-5.0295 -2.8672 2.3911
-4.9203 -3.0423 2.3911
-4.8047 -3.2130 2.3911
-4.6828 -3.3792 2.3911
-4.5549 -3.5406 2.3911
-4.4212 -3.6969 2.3911
-4.2818 -3.8479 2.3911
-4.1370 -3.9935 2.3911
-3.9870 -4.1335 2.3911
-3.8321 -4.2677 2.3911
-3.6724 -4.3958 2.3911
-3.5083 -4.5178 2.3911
-3.3399 -4.6334 2.3911
-3.1676 -4.7426 2.3911
-2.9915 -4.8452 2.3911
-2.8120 -4.9411 2.3911
-2.6293 -5.0300 2.3911
-2.4437 -5.1122 2.3911
-2.2555 -5.1875 2.3911
-2.0650 -5.2555 2.3911
-1.8723 -5.3165 2.3911
-1.6778 -5.3702 2.3911
-1.4818 -5.4168 2.3911
-1.2845 -5.4560 2.3911
-1.0862 -5.4880 2.3911
-0.8872 -5.5127 2.3911
-0.6878 -5.5301 2.3911
-0.4882 -5.5403 2.3911
-0.2886 -5.5432 2.3911
-0.0895 -5.5389 2.3911
0.1091 -5.5274 2.3911
0.3067 -5.5088 2.3911
0.5032 -5.4831 2.3911
0.6984 -5.4504 2.3911
0.8919 -5.4108 2.3911
1.0836 -5.3645 2.3911
1.2731 -5.3113 2.3911
1.4603 -5.2515 2.3911
1.6450 -5.1852 2.3911
1.8268 -5.1126 2.3911
2.0057 -5.0336 2.3911
2.1813 -4.9485 2.3911
2.3536 -4.8573 2.3911
2.5222 -4.7603 2.3911
2.6871 -4.6575 2.3911
2.8479 -4.5492 2.3911
3.0046 -4.4355 2.3911
3.1570 -4.3165 2.3911
3.3049 -4.1924 2.3911
3.4481 -4.0634 2.3911
3.5865 -3.9296 2.3911
3.7200 -3.7913 2.3911
3.8484 -3.6487 2.3911
3.9715 -3.5018 2.3911
4.0894 -3.3510 2.3911
4.2017 -3.1963 2.3911
4.3085 -3.0380 2.3911
4.4096 -2.8763 2.3911
4.5049 -2.7114 2.3911
4.5944 -2.5434 2.3911
4.6779 -2.3726 2.3911
4.7553 -2.1992 2.3911
4.8267 -2.0235 2.3911
4.8919 -1.8455 2.3911
4.9508 -1.6655 2.3911
5.0035 -1.4838 2.3911
5.0499 -1.3004 2.3911
5.0899 -1.1157 2.3911
5.1235 -0.9299 2.3911
5.1506 -0.7431 2.3911
5.1713 -0.5556 2.3911
5.1856 -0.3676 2.3911
5.1934 -0.1793 2.3911
5.1947 0.0092 2.3911
5.1895 0.1975 2.3911
5.1779 0.3855 2.3911
5.1599 0.5729 2.3911
5.1354 0.7596 2.3911
5.1045 0.9454 2.3911
5.0673 1.1300 2.3911
5.0238 1.3132 2.3911
4.9739 1.4948 2.3911
4.9179 1.6747 2.3911
4.8557 1.8526 2.3911
4.7874 2.0283 2.3911
4.7131 2.2016 2.3911
4.6328 2.3724 2.3911
4.5467 2.5404 2.3911
4.4548 2.7054 2.3911
4.3572 2.8673 2.3911
4.2540 3.0258 2.3911
4.1453 3.1807 2.3911
4.0313 3.3320 2.3911
3.9120 3.4794 2.3911
3.7875 3.6227 2.3911
3.6581 3.7617 2.3911
3.5238 3.8963 2.3911
3.3848 4.0263 2.3911
3.2412 4.1516 2.3911
3.0931 4.2719 2.3911
2.9408 4.3872 2.3911
2.7844 4.4972 2.3911
2.6240 4.6019 2.3911
2.4599 4.7011 2.3911
2.2922 4.7946 2.3911
0.8598 1.9792 0.9693
0.7882 2.0097 0.9681
0.7154 2.0376 0.9668
0.6417 2.0629 0.9654
0.5671 2.0855 0.9641
0.4917 2.1054 0.9627
0.4156 2.1226 0.9613
0.3390 2.1370 0.9598
0.2619 2.1486 0.9583
0.1844 2.1575 0.9568
0.1067 2.1635 0.9553
0.0288 2.1668 0.9538
-0.0492 2.1672 0.9522
-0.3870 2.0067 0.9446
-0.4590 1.9922 0.9431
-0.5304 1.9751 0.9416
-0.6011 1.9554 0.9401
-0.6711 1.9332 0.9386
-0.7402 1.9085 0.9370
-0.8084 1.8813 0.9355
-0.8755 1.8516 0.9340
-2.4143 4.6656 2.3911
-2.5846 4.5847 2.3911
-2.7522 4.4974 2.3911
-2.9167 4.4040 2.3911
-3.0778 4.3045 2.3911
-3.2355 4.1990 2.3911
-3.3894 4.0877 2.3911
-3.5394 3.9706 2.3911
-3.6851 3.8479 2.3911
-3.8264 3.7198 2.3911
-3.9631 3.5864 2.3911
-4.0949 3.4478 2.3911
-4.2217 3.3044 2.3911
-4.3432 3.1561 2.3911
-4.4592 3.0033 2.3911
-4.5697 2.8461 2.3911
-4.6743 2.6847 2.3911
-4.7729 2.5194 2.3911
-4.8654 2.3503 2.3911
-4.9517 2.1778 2.3911
-5.0315 2.0020 2.3911
-5.1047 1.8233 2.3911
-5.1713 1.6417 2.3911
-5.2311 1.4577 2.3911
-5.2839 1.2714 2.3911
-5.3298 1.0832 2.3911
-5.3687 0.8933 2.3911
-5.4004 0.7020 2.3911
-5.4248 0.5095 2.3911
-5.4421 0.3162 2.3911
-5.4521 0.1222 2.3911
-5.4548 -0.0720 2.3911
-5.4502 -0.2662 2.3911
-5.4382 -0.4602 2.3911
-5.4190 -0.6536 2.3911
-5.3926 -0.8461 2.3911
-5.3589 -1.0375 2.3911
-5.3180 -1.2275 2.3911
-5.2700 -1.4158 2.3911
-5.2150 -1.6021 2.3911
-5.1530 -1.7862 2.3911
-5.0842 -1.9678 2.3911
-5.0087 -2.1466 2.3911
-4.9264 -2.3224 2.3911
-4.8377 -2.4949 2.3911
-4.7427 -2.6638 2.3911
-4.6414 -2.8290 2.3911
-4.5341 -2.9902 2.3911
-4.4208 -3.1471 2.3911
-4.3019 -3.2996 2.3911
-4.1775 -3.4474 2.3911
-4.0477 -3.5904 2.3911
-3.9128 -3.7283 2.3911
-3.7730 -3.8609 2.3911
-3.6284 -3.9882 2.3911
-3.4794 -4.1098 2.3911
-3.3262 -4.2257 2.3911
-3.1689 -4.3357 2.3911
-3.0078 -4.4397 2.3911
-2.8432 -4.5376 2.3911
-2.6752 -4.6291 2.3911
-2.5042 -4.7143 2.3911
-2.3305 -4.7931 2.3911
-2.1541 -4.8652 2.3911
-1.9755 -4.9309 2.3911
-1.7949 -4.9899 2.3911
-1.6124 -5.0420 2.3911
-1.4284 -5.0874 2.3911
-1.2432 -5.1260 2.3911
-1.0570 -5.1578 2.3911
-0.8700 -5.1827 2.3911
-0.6825 -5.2008 2.3911
-0.4947 -5.2120 2.3911
-0.3070 -5.2165 2.3911
-0.1195 -5.2141 2.3911
0.0674 -5.2050 2.3911
0.2537 -5.1891 2.3911
0.4389 -5.1666 2.3911
0.6229 -5.1375 2.3911
0.8055 -5.1019 2.3911
0.9863 -5.0598 2.3911
1.1653 -5.0114 2.3911
1.3421 -4.9567 2.3911
1.5166 -4.8958 2.3911
1.6885 -4.8288 2.3911
1.8577 -4.7559 2.3911
2.0239 -4.6771 2.3911
2.1870 -4.5926 2.3911
2.3467 -4.5026 2.3911
2.5029 -4.4071 2.3911
2.6554 -4.3063 2.3911
2.8041 -4.2003 2.3911
2.9487 -4.0893 2.3911
3.0891 -3.9735 2.3911
3.2252 -3.8530 2.3911
3.3567 -3.7280 2.3911
3.4837 -3.5986 2.3911
3.6059 -3.4650 2.3911
3.7232 -3.3274 2.3911
3.8354 -3.1860 2.3911
3.9426 -3.0409 2.3911
4.0445 -2.8924 2.3911
4.1411 -2.7405 2.3911
4.2322 -2.5856 2.3911
4.3178 -2.4278 2.3911
4.3978 -2.2673 2.3911
4.4722 -2.1042 2.3911
4.5407 -1.9388 2.3911
4.6035 -1.7713 2.3911
4.6604 -1.6018 2.3911
4.7113 -1.4306 2.3911
4.7563 -1.2579 2.3911
4.7952 -1.0838 2.3911
4.8281 -0.9086 2.3911
4.8550 -0.7325 2.3911
4.8757 -0.5556 2.3911
4.8903 -0.3782 2.3911
4.8988 -0.2005 2.3911
4.9012 -0.0226 2.3911
4.8975 0.1552 2.3911
4.8876 0.3327 2.3911
4.8717 0.5098 2.3911
4.8496 0.6862 2.3911
4.8215 0.8617 2.3911
4.7874 1.0362 2.3911
4.7473 1.2093 2.3911
4.7012 1.3811 2.3911
4.6493 1.5512 2.3911
4.5915 1.7194 2.3911
4.5280 1.8856 2.3911
4.4587 2.0496 2.3911
4.3838 2.2111 2.3911
4.3033 2.3701 2.3911
4.2173 2.5263 2.3911
4.1260 2.6795 2.3911
4.0294 2.8295 2.3911
3.9275 2.9763 2.3911
3.8206 3.1195 2.3911
3.7087 3.2591 2.3911
3.5919 3.3948 2.3911
3.4704 3.5265 2.3911
3.3443 3.6540 2.3911
3.2137 3.7773 2.3911
3.0787 3.8960 2.3911
2.9396 4.0101 2.3911
2.7964 4.1194 2.3911
2.6494 4.2238 2.3911
2.4985 4.3231 2.3911
2.3442 4.4172 2.3911
0.8860 1.8260 0.9690
0.8198 1.8576 0.9679
0.7525 1.8867 0.9667
0.6842 1.9134 0.9655
0.6149 1.9377 0.9642
0.5449 1.9594 0.9629
0.4740 1.9785 0.9616
0.4025 1.9951 0.9603
0.3305 2.0091 0.9589
0.2580 2.0205 0.9576
0.1851 2.0293 0.9561
0.1120 2.0355 0.9547
0.0387 2.0389 0.9533
-0.0347 2.0398 0.9518
-0.1081 2.0380 0.9503
-0.1814 2.0335 0.9489
-0.2544 2.0264 0.9474
-0.3272 2.0167 0.9459
-0.3996 2.0043 0.9444
-0.4714 1.9894 0.9428
-0.5427 1.9718 0.9413
-0.6133 1.9517 0.9398
-0.6831 1.9291 0.9383
-0.7521 1.9039 0.9368
-0.8201 1.8763 0.9353
-0.8871 1.8462 0.9338
-2.4440 4.6520 2.3911
-2.6139 4.5700 2.3911
-2.7809 4.4817 2.3911
-2.9448 4.3872 2.3911
-3.1054 4.2867 2.3911
-3.2625 4.1802 2.3911
-3.4157 4.0678 2.3911
-3.5649 3.9498 2.3911
-3.7099 3.8261 2.3911
-3.8505 3.6971 2.3911
-3.9863 3.5627 2.3911
-4.1172 3.4233 2.3911
-4.2431 3.2790 2.3911
-4.3637 3.1299 2.3911
-4.4788 2.9763 2.3911
-4.5882 2.8184 2.3911
-4.6918 2.6563 2.3911
-4.7894 2.4903 2.3911
-4.8808 2.3207 2.3911
-4.9660 2.1476 2.3911
-5.0447 1.9713 2.3911
-5.1168 1.7920 2.3911
-5.1821 1.6100 2.3911
-5.2407 1.4256 2.3911
-5.2924 1.2390 2.3911
-5.3371 1.0504 2.3911
-5.3747 0.8602 2.3911
-5.4051 0.6687 2.3911
-5.4284 0.4760 2.3911
-5.4444 0.2826 2.3911
-5.4531 0.0886 2.3911
-5.4545 -0.1057 2.3911
-5.4486 -0.2999 2.3911
-5.4354 -0.4937 2.3911
-5.4150 -0.6870 2.3911
-5.3872 -0.8793 2.3911
-5.3523 -1.0705 2.3911
-5.3102 -1.2602 2.3911
-5.2610 -1.4482 2.3911
-5.2048 -1.6342 2.3911
-5.1416 -1.8179 2.3911
-5.0716 -1.9990 2.3911
-4.9949 -2.1773 2.3911
-4.9115 -2.3525 2.3911
-4.8217 -2.5244 2.3911
-4.7256 -2.6927 2.3911
-4.6232 -2.8572 2.3911
-4.5149 -3.0177 2.3911
-4.4006 -3.1739 2.3911
-4.2807 -3.3256 2.3911
-4.1554 -3.4726 2.3911
-4.0247 -3.6147 2.3911
-3.8889 -3.7516 2.3911
-3.7483 -3.8834 2.3911
-3.6029 -4.0096 2.3911
-3.4532 -4.1303 2.3911
-3.2992 -4.2452 2.3911
-3.1412 -4.3542 2.3911
-2.9795 -4.4571 2.3911
-2.8143 -4.5539 2.3911
-2.6458 -4.6444 2.3911
-2.4743 -4.7285 2.3911
-2.3001 -4.8061 2.3911
-2.1233 -4.8771 2.3911
-1.9444 -4.9416 2.3911
-1.7634 -4.9994 2.3911
-1.5806 -5.0504 2.3911
-1.3964 -5.0946 2.3911
-1.2110 -5.1320 2.3911
-1.0246 -5.1626 2.3911
-0.8375 -5.1863 2.3911
-0.6499 -5.2032 2.3911
-0.4622 -5.2133 2.3911
-0.2745 -5.2166 2.3911
-0.0871 -5.2130 2.3911
0.0998 -5.2027 2.3911
0.2858 -5.1857 2.3911
0.4709 -5.1621 2.3911
0.6547 -5.1318 2.3911
0.8369 -5.0951 2.3911
1.0175 -5.0519 2.3911
1.1961 -5.0023 2.3911
1.3725 -4.9465 2.3911
1.5466 -4.8846 2.3911
1.7181 -4.8166 2.3911
1.8867 -4.7426 2.3911
2.0524 -4.6629 2.3911
2.2149 -4.5774 2.3911
2.3741 -4.4864 2.3911
2.5296 -4.3900 2.3911
2.6815 -4.2883 2.3911
2.8294 -4.1814 2.3911
2.9733 -4.0696 2.3911
3.1130 -3.9530 2.3911
3.2483 -3.8317 2.3911
3.3791 -3.7059 2.3911
3.5052 -3.5757 2.3911
3.6265 -3.4414 2.3911
3.7430 -3.3032 2.3911
3.8544 -3.1611 2.3911
3.9606 -3.0154 2.3911
4.0616 -2.8663 2.3911
4.1573 -2.7139 2.3911
4.2474 -2.5585 2.3911
4.3321 -2.4002 2.3911
4.4111 -2.2392 2.3911
4.4845 -2.0757 2.3911
4.5520 -1.9099 2.3911
4.6138 -1.7420 2.3911
4.6696 -1.5723 2.3911
4.7195 -1.4008 2.3911
4.7635 -1.2278 2.3911
4.8014 -1.0535 2.3911
4.8332 -0.8782 2.3911
4.8590 -0.7019 2.3911
4.8787 -0.5249 2.3911
4.8923 -0.3474 2.3911
4.8997 -0.1696 2.3911
4.9010 0.0082 2.3911
4.8962 0.1860 2.3911
4.8853 0.3635 2.3911
4.8683 0.5404 2.3911
4.8452 0.7167 2.3911
4.8160 0.8920 2.3911
4.7809 1.0663 2.3911
4.7397 1.2392 2.3911
4.6927 1.4107 2.3911
4.6397 1.5805 2.3911
4.5809 1.7483 2.3911
4.5164 1.9142 2.3911
4.4461 2.0777 2.3911
4.3702 2.2389 2.3911
4.2888 2.3974 2.3911
4.2019 2.5530 2.3911
4.1096 2.7057 2.3911
4.0121 2.8552 2.3911
3.9093 3.0013 2.3911
3.8016 3.1440 2.3911
3.6888 3.2829 2.3911
3.5712 3.4179 2.3911
3.4489 3.5489 2.3911
3.3220 3.6757 2.3911
3.1906 3.7982 2.3911
3.0549 3.9161 2.3911
2.9151 4.0294 2.3911
2.7712 4.1378 2.3911
2.6234 4.2413 2.3911
2.4720 4.3398 2.3911
2.3171 4.4329 2.3911
0.8747 1.8317 0.9688
0.8082 1.8628 0.9677
0.7407 1.8915 0.9665
0.6723 1.9178 0.9653
0.6029 1.9416 0.9640
0.5326 1.9629 0.9627
0.4617 1.9816 0.9614
0.3901 1.9977 0.9601
0.3180 2.0113 0.9587
0.2454 2.0223 0.9573
0.1725 2.0306 0.9559
0.0993 2.0362 0.9545
0.0260 2.0393 0.9530
-0.0474 2.0397 0.9516
-0.3662 1.8929 0.9444
-0.4341 1.8792 0.9430
-0.5015 1.8631 0.9416
-0.5682 1.8445 0.9401
-0.6342 1.8236 0.9387
-0.6994 1.8003 0.9373
-0.7637 1.7746 0.9358
-0.8271 1.7467 0.9344
-0.8894 1.7164 0.9330
-2.4397 4.3222 2.3911
-2.5974 4.2396 2.3911
-2.7523 4.1511 2.3911
-2.9040 4.0570 2.3911
-3.0523 3.9572 2.3911
-3.1972 3.8520 2.3911
-3.3382 3.7413 2.3911
-3.4753 3.6254 2.3911
-3.6081 3.5044 2.3911
-3.7366 3.3784 2.3911
-3.8605 3.2477 2.3911
-3.9797 3.1123 2.3911
-4.0938 2.9724 2.3911
-4.2029 2.8283 2.3911
-4.3066 2.6800 2.3911
-4.4049 2.5279 2.3911
-4.4975 2.3720 2.3911
-4.5844 2.2127 2.3911
-4.6653 2.0502 2.3911
-4.7402 1.8846 2.3911
-4.8090 1.7161 2.3911
-4.8714 1.5452 2.3911
-4.9275 1.3719 2.3911
-4.9771 1.1965 2.3911
-5.0201 1.0192 2.3911
-5.0565 0.8404 2.3911
-5.0861 0.6603 2.3911
-5.1091 0.4791 2.3911
-5.1252 0.2971 2.3911
-5.1345 0.1146 2.3911
-5.1369 -0.0682 2.3911
-5.1325 -0.2510 2.3911
-5.1213 -0.4336 2.3911
-5.1032 -0.6156 2.3911
-5.0782 -0.7968 2.3911
-5.0465 -0.9769 2.3911
-5.0081 -1.1558 2.3911
-4.9630 -1.3330 2.3911
-4.9113 -1.5084 2.3911
-4.8530 -1.6817 2.3911
-4.7883 -1.8526 2.3911
-4.7173 -2.0210 2.3911
-4.6400 -2.1865 2.3911
-4.5567 -2.3489 2.3911
-4.4673 -2.5080 2.3911
-4.3721 -2.6636 2.3911
-4.2713 -2.8155 2.3911
-4.1649 -2.9633 2.3911
-4.0531 -3.1070 2.3911
-3.9361 -3.2463 2.3911
-3.8141 -3.3811 2.3911
-3.6873 -3.5111 2.3911
-3.5558 -3.6363 2.3911
-3.4199 -3.7563 2.3911
-3.2798 -3.8711 2.3911
-3.1356 -3.9805 2.3911
-2.9877 -4.0844 2.3911
-2.8362 -4.1827 2.3911
-2.6813 -4.2751 2.3911
-2.5232 -4.3617 2.3911
-2.3623 -4.4423 2.3911
-2.1987 -4.5168 2.3911
-2.0328 -4.5854 2.3911
-1.8646 -4.6476 2.3911
-1.6945 -4.7034 2.3911
-1.5226 -4.7530 2.3911
-1.3493 -4.7962 2.3911
-1.1748 -4.8330 2.3911
-0.9993 -4.8634 2.3911
-0.8231 -4.8873 2.3911
-0.6463 -4.9048 2.3911
-0.4693 -4.9158 2.3911
-0.2923 -4.9204 2.3911
-0.1155 -4.9186 2.3911
0.0609 -4.9105 2.3911
0.2365 -4.8960 2.3911
0.4113 -4.8752 2.3911
0.5850 -4.8482 2.3911
0.7573 -4.8150 2.3911
0.9281 -4.7757 2.3911
1.0971 -4.7304 2.3911
1.2641 -4.6792 2.3911
1.4290 -4.6221 2.3911
1.5914 -4.5593 2.3911
1.7513 -4.4908 2.3911
1.9084 -4.4168 2.3911
2.0626 -4.3374 2.3911
2.2136 -4.2527 2.3911
2.3613 -4.1629 2.3911
2.5055 -4.0680 2.3911
2.6462 -3.9682 2.3911
2.7830 -3.8637 2.3911
2.9159 -3.7546 2.3911
3.0446 -3.6410 2.3911
3.1692 -3.5231 2.3911
3.2894 -3.4011 2.3911
3.4051 -3.2751 2.3911
3.5162 -3.1453 2.3911
3.6225 -3.0118 2.3911
3.7240 -2.8749 2.3911
3.8206 -2.7346 2.3911
3.9121 -2.5912 2.3911
3.9985 -2.4449 2.3911
4.0797 -2.2958 2.3911
4.1555 -2.1441 2.3911
4.2260 -1.9901 2.3911
4.2911 -1.8338 2.3911
4.3506 -1.6754 2.3911
4.4045 -1.5152 2.3911
4.4529 -1.3534 2.3911
4.4956 -1.1901 2.3911
4.5326 -1.0255 2.3911
4.5638 -0.8598 2.3911
4.5893 -0.6932 2.3911
4.6091 -0.5259 2.3911
4.6230 -0.3582 2.3911
4.6311 -0.1900 2.3911
4.6334 -0.0218 2.3911
4.6300 0.1464 2.3911
4.6207 0.3143 2.3911
4.6056 0.4818 2.3911
4.5848 0.6486 2.3911
4.5582 0.8147 2.3911
4.5259 0.9797 2.3911
4.4879 1.1435 2.3911
4.4443 1.3060 2.3911
4.3952 1.4668 2.3911
4.3404 1.6259 2.3911
4.2802 1.7831 2.3911
4.2146 1.9382 2.3911
4.1437 2.0909 2.3911
4.0674 2.2412 2.3911
3.9860 2.3889 2.3911
3.8995 2.5337 2.3911
3.8080 2.6755 2.3911
3.7115 2.8142 2.3911
3.6103 2.9495 2.3911
3.5043 3.0813 2.3911
3.3937 3.2095 2.3911
3.2786 3.3339 2.3911
3.1592 3.4543 2.3911
3.0356 3.5706 2.3911
2.9078 3.6827 2.3911
2.7762 3.7903 2.3911
2.6406 3.8934 2.3911
2.5015 3.9919 2.3911
2.3588 4.0854 2.3911
0.8962 1.6906 0.9685
0.8349 1.7226 0.9674
0.7724 1.7524 0.9663
0.7089 1.7799 0.9652
0.6444 1.8050 0.9641
0.5791 1.8279 0.9629
0.5129 1.8483 0.9617
0.4461 1.8664 0.9605
0.3787 1.8821 0.9592
0.3107 1.8953 0.9579
0.2423 1.9060 0.9566
0.1736 1.9143 0.9553
0.1046 1.9201 0.9539
0.0354 1.9234 0.9526
-0.0338 1.9242 0.9512
-0.1031 1.9225 0.9498
-0.1722 1.9183 0.9484
-0.2411 1.9116 0.9470
-0.3098 1.9024 0.9456
-0.3780 1.8907 0.9442
-0.4458 1.8766 0.9427
-0.5131 1.8601 0.9413
-0.5797 1.8411 0.9399
-0.6456 1.8197 0.9384
-0.7106 1.7960 0.9370
-0.7748 1.7699 0.9356
-0.8380 1.7416 0.9342
-0.9001 1.7110 0.9328
-2.4672 4.3083 2.3911
-2.6245 4.2246 2.3911
-2.7788 4.1352 2.3911
-2.9299 4.0401 2.3911
-3.0777 3.9394 2.3911
-3.2219 3.8332 2.3911
-3.3622 3.7216 2.3911
-3.4986 3.6048 2.3911
-3.6307 3.4829 2.3911
-3.7584 3.3561 2.3911
-3.8815 3.2245 2.3911
-3.9998 3.0883 2.3911
-4.1131 2.9477 2.3911
-4.2212 2.8028 2.3911
-4.3240 2.6539 2.3911
-4.4213 2.5011 2.3911
-4.5130 2.3447 2.3911
-4.5988 2.1848 2.3911
-4.6788 2.0217 2.3911
-4.7526 1.8556 2.3911
-4.8202 1.6867 2.3911
-4.8816 1.5153 2.3911
-4.9365 1.3416 2.3911
-4.9850 1.1659 2.3911
-5.0269 0.9884 2.3911
-5.0621 0.8093 2.3911
-5.0906 0.6289 2.3911
-5.1124 0.4476 2.3911
-5.1273 0.2655 2.3911
-5.1354 0.0829 2.3911
-5.1367 -0.0999 2.3911
-5.1311 -0.2827 2.3911
-5.1186 -0.4652 2.3911
-5.0993 -0.6470 2.3911
-5.0732 -0.8281 2.3911
-5.0404 -1.0080 2.3911
-5.0008 -1.1866 2.3911
-4.9545 -1.3635 2.3911
-4.9016 -1.5386 2.3911
-4.8423 -1.7115 2.3911
-4.7765 -1.8820 2.3911
-4.7043 -2.0499 2.3911
-4.6260 -2.2149 2.3911
-4.5416 -2.3767 2.3911
-4.4512 -2.5353 2.3911
-4.3551 -2.6902 2.3911
-4.2532 -2.8414 2.3911
-4.1459 -2.9885 2.3911
-4.0332 -3.1315 2.3911
-3.9153 -3.2700 2.3911
-3.7925 -3.4040 2.3911
-3.6648 -3.5332 2.3911
-3.5326 -3.6574 2.3911
-3.3959 -3.7766 2.3911
-3.2551 -3.8904 2.3911
-3.1103 -3.9989 2.3911
-2.9617 -4.1018 2.3911
-2.8095 -4.1991 2.3911
-2.6541 -4.2906 2.3911
-2.4956 -4.3761 2.3911
-2.3342 -4.4557 2.3911
-2.1702 -4.5292 2.3911
-2.0038 -4.5965 2.3911
-1.8352 -4.6576 2.3911
-1.6648 -4.7125 2.3911
-1.4927 -4.7609 2.3911
-1.3192 -4.8030 2.3911
-1.1445 -4.8387 2.3911
-0.9688 -4.8680 2.3911
-0.7925 -4.8908 2.3911
-0.6157 -4.9071 2.3911
-0.4387 -4.9171 2.3911
-0.2617 -4.9206 2.3911
-0.0849 -4.9177 2.3911
0.0914 -4.9084 2.3911
0.2669 -4.8928 2.3911
0.4415 -4.8709 2.3911
0.6150 -4.8429 2.3911
0.7871 -4.8086 2.3911
0.9575 -4.7683 2.3911
1.1262 -4.7219 2.3911
1.2929 -4.6697 2.3911
1.4573 -4.6116 2.3911
1.6193 -4.5478 2.3911
1.7787 -4.4784 2.3911
1.9353 -4.4034 2.3911
2.0890 -4.3231 2.3911
2.2394 -4.2375 2.3911
2.3866 -4.1468 2.3911
2.5302 -4.0510 2.3911
2.6701 -3.9504 2.3911
2.8063 -3.8451 2.3911
2.9385 -3.7352 2.3911
3.0665 -3.6209 2.3911
3.1903 -3.5022 2.3911
3.3098 -3.3795 2.3911
3.4247 -3.2528 2.3911
3.5350 -3.1224 2.3911
3.6405 -2.9883 2.3911
3.7411 -2.8508 2.3911
3.8368 -2.7100 2.3911
3.9275 -2.5661 2.3911
4.0130 -2.4193 2.3911
4.0932 -2.2697 2.3911
4.1681 -2.1176 2.3911
4.2377 -1.9631 2.3911
4.3018 -1.8064 2.3911
4.3603 -1.6478 2.3911
4.4133 -1.4873 2.3911
4.4607 -1.3252 2.3911
4.5024 -1.1616 2.3911
4.5384 -0.9968 2.3911
4.5687 -0.8310 2.3911
4.5932 -0.6643 2.3911
4.6119 -0.4969 2.3911
4.6248 -0.3290 2.3911
4.6319 -0.1609 2.3911
4.6333 0.0074 2.3911
4.6288 0.1755 2.3911
4.6185 0.3434 2.3911
4.6024 0.5108 2.3911
4.5806 0.6775 2.3911
4.5530 0.8434 2.3911
4.5197 1.0082 2.3911
4.4808 1.1718 2.3911
4.4362 1.3340 2.3911
4.3861 1.4945 2.3911
4.3304 1.6533 2.3911
4.2692 1.8101 2.3911
4.2027 1.9648 2.3911
4.1308 2.1172 2.3911
4.0537 2.2670 2.3911
3.9714 2.4142 2.3911
3.8840 2.5585 2.3911
3.7916 2.6998 2.3911
3.6943 2.8379 2.3911
3.5922 2.9726 2.3911
3.4854 3.1038 2.3911
3.3741 3.2314 2.3911
3.2583 3.3551 2.3911
3.1381 3.4748 2.3911
3.0137 3.5904 2.3911
2.8853 3.7017 2.3911
2.7529 3.8085 2.3911
2.6168 3.9109 2.3911
2.4770 4.0084 2.3911
2.3337 4.1011 2.3911
0.8857 1.6963 0.9683
0.8241 1.7279 0.9672
0.7614 1.7573 0.9662
0.6978 1.7844 0.9650
0.6331 1.8092 0.9639
0.5677 1.8316 0.9627
0.5014 1.8517 0.9615
0.4345 1.8693 0.9602
0.3669 1.8845 0.9590
0.2989 1.8973 0.9577
0.2304 1.9076 0.9564
0.1616 1.9155 0.9551
0.0926 1.9208 0.9537
0.0234 1.9237 0.9523
-0.0458 1.9241 0.9510
-0.3472 1.7892 0.9442
-0.4114 1.7763 0.9429
-0.4751 1.7610 0.9415
-0.5382 1.7435 0.9402
-0.6006 1.7237 0.9388
-0.6622 1.7016 0.9375
-0.7230 1.6774 0.9361
-0.7829 1.6510 0.9348
-0.8418 1.6224 0.9335
-0.8996 1.5917 0.9321
-2.4565 4.0047 2.3911
-2.6026 3.9209 2.3911
-2.7457 3.8317 2.3911
-2.8856 3.7371 2.3911
-3.0222 3.6375 2.3911
-3.1552 3.5327 2.3911
-3.2844 3.4230 2.3911
-3.4096 3.3085 2.3911
-3.5307 3.1893 2.3911
-3.6474 3.0657 2.3911
-3.7597 2.9376 2.3911
-3.8672 2.8054 2.3911
-3.9699 2.6692 2.3911
-4.0676 2.5291 2.3911
-4.1601 2.3854 2.3911
-4.2473 2.2382 2.3911
-4.3290 2.0877 2.3911
-4.4052 1.9342 2.3911
-4.4757 1.7778 2.3911
-4.5404 1.6189 2.3911
-4.5991 1.4575 2.3911
-4.6518 1.2939 2.3911
-4.6984 1.1284 2.3911
-4.7389 0.9611 2.3911
-4.7730 0.7924 2.3911
-4.8009 0.6225 2.3911
-4.8224 0.4515 2.3911
-4.8375 0.2798 2.3911
-4.8462 0.1077 2.3911
-4.8484 -0.0648 2.3911
-4.8442 -0.2372 2.3911
-4.8336 -0.4094 2.3911
-4.8165 -0.5811 2.3911
-4.7929 -0.7520 2.3911
-4.7631 -0.9220 2.3911
-4.7268 -1.0906 2.3911
-4.6843 -1.2578 2.3911
-4.6356 -1.4233 2.3911
-4.5807 -1.5868 2.3911
-4.5197 -1.7481 2.3911
-4.4528 -1.9069 2.3911
-4.3800 -2.0631 2.3911
-4.3015 -2.2164 2.3911
-4.2173 -2.3666 2.3911
-4.1277 -2.5134 2.3911
-4.0326 -2.6568 2.3911
-3.9324 -2.7964 2.3911
-3.8271 -2.9321 2.3911
-3.7169 -3.0637 2.3911
-3.6019 -3.1910 2.3911
-3.4824 -3.3139 2.3911
-3.3585 -3.4321 2.3911
-3.2304 -3.5456 2.3911
-3.0984 -3.6542 2.3911
-2.9625 -3.7576 2.3911
-2.8230 -3.8559 2.3911
-2.6801 -3.9489 2.3911
-2.5341 -4.0365 2.3911
-2.3850 -4.1185 2.3911
-2.2332 -4.1949 2.3911
-2.0789 -4.2656 2.3911
-1.9224 -4.3307 2.3911
-1.7637 -4.3898 2.3911
-1.6031 -4.4427 2.3911
-1.4409 -4.4899 2.3911
-1.2773 -4.5310 2.3911
-1.1125 -4.5661 2.3911
-0.9468 -4.5952 2.3911
-0.7804 -4.6182 2.3911
-0.6134 -4.6351 2.3911
-0.4462 -4.6459 2.3911
-0.2789 -4.6506 2.3911
-0.1119 -4.6493 2.3911
0.0548 -4.6420 2.3911
0.2209 -4.6287 2.3911
0.3862 -4.6094 2.3911
0.5505 -4.5842 2.3911
0.7134 -4.5532 2.3911
0.8750 -4.5165 2.3911
1.0349 -4.4740 2.3911
1.1929 -4.4259 2.3911
1.3490 -4.3723 2.3911
1.5027 -4.3132 2.3911
1.6541 -4.2487 2.3911
1.8029 -4.1791 2.3911
1.9489 -4.1043 2.3911
2.0919 -4.0245 2.3911
2.2319 -3.9397 2.3911
2.3686 -3.8502 2.3911
2.5018 -3.7561 2.3911
2.6315 -3.6574 2.3911
2.7575 -3.5544 2.3911
2.8796 -3.4471 2.3911
2.9977 -3.3357 2.3911
3.1117 -3.2204 2.3911
3.2214 -3.1013 2.3911
3.3268 -2.9786 2.3911
3.4277 -2.8524 2.3911
3.5240 -2.7229 2.3911
3.6157 -2.5902 2.3911
3.7026 -2.4546 2.3911
3.7846 -2.3161 2.3911
3.8616 -2.1750 2.3911
3.9337 -2.0314 2.3911
4.0006 -1.8855 2.3911
4.0624 -1.7376 2.3911
4.1190 -1.5876 2.3911
4.1702 -1.4359 2.3911
4.2162 -1.2826 2.3911
4.2568 -1.1279 2.3911
4.2920 -0.9720 2.3911
4.3217 -0.8151 2.3911
4.3460 -0.6573 2.3911
4.3647 -0.4988 2.3911
4.3780 -0.3398 2.3911
4.3858 -0.1805 2.3911
4.3881 -0.0211 2.3911
4.3848 0.1383 2.3911
4.3760 0.2974 2.3911
4.3618 0.4562 2.3911
4.3421 0.6143 2.3911
4.3169 0.7716 2.3911
4.2863 0.9280 2.3911
4.2503 1.0832 2.3911
4.2089 1.2371 2.3911
4.1623 1.3895 2.3911
4.1103 1.5403 2.3911
4.0532 1.6892 2.3911
3.9910 1.8361 2.3911
3.9237 1.9808 2.3911
3.8514 2.1231 2.3911
3.7741 2.2630 2.3911
3.6920 2.4001 2.3911
3.6052 2.5344 2.3911
3.5137 2.6657 2.3911
3.4176 2.7938 2.3911
3.3171 2.9186 2.3911
3.2122 3.0399 2.3911
3.1031 3.1576 2.3911
2.9898 3.2715 2.3911
2.8726 3.3815 2.3911
2.7514 3.4874 2.3911
2.6266 3.5892 2.3911
2.4981 3.6866 2.3911
2.3661 3.7796 2.3911
2.2309 3.8680 2.3911
0.8462 1.5981 0.9670
0.7882 1.6283 0.9660
0.7291 1.6564 0.9650
0.6691 1.6824 0.9639
0.6081 1.7062 0.9628
0.5464 1.7278 0.9617
0.4839 1.7471 0.9606
0.4207 1.7642 0.9594
0.3569 1.7790 0.9582
0.2927 1.7915 0.9570
0.2280 1.8016 0.9558
0.1630 1.8094 0.9545
0.0978 1.8149 0.9532
0.0324 1.8180 0.9520
-0.0330 1.8188 0.9506
-0.0985 1.8171 0.9493
-0.1638 1.8132 0.9480
-0.2290 1.8068 0.9467
-0.2939 1.7981 0.9453
-0.3584 1.7871 0.9440
-0.4225 1.7738 0.9426
-0.4861 1.7581 0.9413
-0.5490 1.7402 0.9399
-0.6113 1.7200 0.9386
-0.6728 1.6976 0.9372
-0.7334 1.6730 0.9359
-0.7932 1.6462 0.9346
-0.8519 1.6172 0.9332
-0.9095 1.5862 0.9319
-2.4820 3.9906 2.3911
-2.6276 3.9058 2.3911
-2.7702 3.8157 2.3911
-2.9095 3.7202 2.3911
-3.0455 3.6197 2.3911
-3.1778 3.5140 2.3911
-3.3064 3.4035 2.3911
-3.4309 3.2882 2.3911
-3.5512 3.1682 2.3911
-3.6672 3.0438 2.3911
-3.7786 2.9150 2.3911
-3.8853 2.7821 2.3911
-3.9872 2.6452 2.3911
-4.0840 2.5044 2.3911
-4.1756 2.3601 2.3911
-4.2618 2.2123 2.3911
-4.3426 2.0613 2.3911
-4.4178 1.9073 2.3911
-4.4873 1.7505 2.3911
-4.5510 1.5910 2.3911
-4.6087 1.4293 2.3911
-4.6603 1.2653 2.3911
-4.7059 1.0995 2.3911
-4.7452 0.9320 2.3911
-4.7783 0.7630 2.3911
-4.8051 0.5929 2.3911
-4.8255 0.4218 2.3911
-4.8395 0.2500 2.3911
-4.8471 0.0778 2.3911
-4.8482 -0.0947 2.3911
-4.8428 -0.2671 2.3911
-4.8311 -0.4392 2.3911
-4.8129 -0.6108 2.3911
-4.7882 -0.7815 2.3911
-4.7572 -0.9513 2.3911
-4.7199 -1.1197 2.3911
-4.6763 -1.2867 2.3911
-4.6265 -1.4518 2.3911
-4.5705 -1.6149 2.3911
-4.5086 -1.7758 2.3911
-4.4406 -1.9342 2.3911
-4.3668 -2.0899 2.3911
-4.2873 -2.2427 2.3911
-4.2022 -2.3923 2.3911
-4.1116 -2.5385 2.3911
-4.0156 -2.6813 2.3911
-3.9145 -2.8202 2.3911
-3.8083 -2.9552 2.3911
-3.6973 -3.0861 2.3911
-3.5815 -3.2126 2.3911
-3.4612 -3.3347 2.3911
-3.3366 -3.4522 2.3911
-3.2078 -3.5648 2.3911
-3.0751 -3.6725 2.3911
-2.9386 -3.7751 2.3911
-2.7985 -3.8725 2.3911
-2.6550 -3.9645 2.3911
-2.5084 -4.0511 2.3911
-2.3589 -4.1322 2.3911
-2.2067 -4.2075 2.3911
-2.0520 -4.2773 2.3911
-1.8950 -4.3412 2.3911
-1.7360 -4.3994 2.3911
-1.5751 -4.4513 2.3911
-1.4126 -4.4974 2.3911
-1.2488 -4.5375 2.3911
-1.0839 -4.5716 2.3911
-0.9180 -4.5996 2.3911
-0.7515 -4.6215 2.3911
-0.5845 -4.6374 2.3911
-0.4172 -4.6471 2.3911
-0.2500 -4.6508 2.3911
-0.0829 -4.6485 2.3911
0.0837 -4.6401 2.3911
0.2497 -4.6257 2.3911
0.4148 -4.6054 2.3911
0.5788 -4.5793 2.3911
0.7416 -4.5473 2.3911
0.9028 -4.5095 2.3911
1.0624 -4.4660 2.3911
1.2201 -4.4170 2.3911
1.3758 -4.3624 2.3911
1.5291 -4.3024 2.3911
1.6801 -4.2371 2.3911
1.8284 -4.1665 2.3911
1.9739 -4.0908 2.3911
2.1164 -4.0101 2.3911
2.2558 -3.9246 2.3911
2.3919 -3.8342 2.3911
2.5246 -3.7393 2.3911
2.6536 -3.6399 2.3911
2.7789 -3.5361 2.3911
2.9003 -3.4281 2.3911
3.0177 -3.3160 2.3911
3.1310 -3.2000 2.3911
3.2400 -3.0803 2.3911
3.3446 -2.9570 2.3911
3.4447 -2.8302 2.3911
3.5403 -2.7001 2.3911
3.6311 -2.5669 2.3911
3.7171 -2.4307 2.3911
3.7983 -2.2918 2.3911
3.8745 -2.1503 2.3911
3.9457 -2.0063 2.3911
4.0117 -1.8600 2.3911
4.0726 -1.7117 2.3911
4.1282 -1.5614 2.3911
4.1786 -1.4095 2.3911
4.2236 -1.2559 2.3911
4.2633 -1.1010 2.3911
4.2975 -0.9449 2.3911
4.3263 -0.7878 2.3911
4.3496 -0.6298 2.3911
4.3674 -0.4712 2.3911
4.3798 -0.3122 2.3911
4.3866 -0.1529 2.3911
4.3879 0.0066 2.3911
4.3837 0.1659 2.3911
4.3740 0.3250 2.3911
4.3588 0.4836 2.3911
4.3381 0.6416 2.3911
4.3120 0.7988 2.3911
4.2804 0.9550 2.3911
4.2435 1.1100 2.3911
4.2012 1.2637 2.3911
4.1536 1.4158 2.3911
4.1008 1.5662 2.3911
4.0428 1.7148 2.3911
3.9797 1.8613 2.3911
3.9115 2.0057 2.3911
3.8383 2.1476 2.3911
3.7602 2.2870 2.3911
3.6773 2.4236 2.3911
3.5897 2.5574 2.3911
3.4974 2.6881 2.3911
3.4005 2.8157 2.3911
3.2992 2.9399 2.3911
3.1936 3.0606 2.3911
3.0837 3.1776 2.3911
2.9698 3.2909 2.3911
2.8518 3.4001 2.3911
2.7301 3.5054 2.3911
2.6045 3.6064 2.3911
2.4755 3.7031 2.3911
2.3429 3.7952 2.3911
0.8933 1.5715 0.9678
0.8362 1.6035 0.9668
0.7780 1.6333 0.9658
0.7188 1.6611 0.9648
0.6586 1.6867 0.9637
0.5975 1.7101 0.9626
0.5356 1.7313 0.9615
0.4730 1.7502 0.9604
0.4097 1.7669 0.9592
0.3458 1.7813 0.9580
0.2815 1.7934 0.9568
0.2168 1.8031 0.9555
0.1517 1.8106 0.9543
0.0865 1.8156 0.9530
0.0211 1.8183 0.9517
-0.0444 1.8186 0.9504
-0.3298 1.6942 0.9441
-0.3906 1.6819 0.9428
-0.4509 1.6675 0.9415
-0.5106 1.6509 0.9402
-0.5697 1.6321 0.9389
-0.6281 1.6113 0.9377
-0.6857 1.5883 0.9364
-0.7424 1.5633 0.9351
-0.7982 1.5362 0.9339
-0.8529 1.5072 0.9326
-0.9066 1.4762 0.9314
-2.4656 3.7102 2.3911
-2.6009 3.6255 2.3911
-2.7331 3.5358 2.3911
-2.8621 3.4412 2.3911
-2.9878 3.3419 2.3911
-3.1098 3.2379 2.3911
-3.2281 3.1294 2.3911
-3.3424 3.0165 2.3911
-3.4526 2.8993 2.3911
-3.5586 2.7780 2.3911
-3.6601 2.6528 2.3911
-3.7570 2.5238 2.3911
-3.8492 2.3912 2.3911
-3.9364 2.2552 2.3911
-4.0187 2.1159 2.3911
-4.0958 1.9735 2.3911
-4.1677 1.8283 2.3911
-4.2341 1.6804 2.3911
-4.2951 1.5300 2.3911
-4.3504 1.3774 2.3911
-4.4001 1.2227 2.3911
-4.4440 1.0662 2.3911
-4.4821 0.9081 2.3911
-4.5143 0.7486 2.3911
-4.5405 0.5879 2.3911
-4.5608 0.4263 2.3911
-4.5750 0.2641 2.3911
