ply
format ascii 1.0
element vertex 2176
property float32 x
property float32 y
property float32 z
end_header
-3.6437 4.0670 2.3985
-3.7916 3.9377 2.3985
-3.9349 3.8032 2.3985
-4.0734 3.6635 2.3985
-4.2070 3.5188 2.3985
-4.3354 3.3693 2.3985
-4.4586 3.2151 2.3985
-4.5762 3.0565 2.3985
-4.6882 2.8935 2.3985
-4.7943 2.7266 2.3985
-4.8946 2.5557 2.3985
-4.9886 2.3812 2.3985
-5.0764 2.2033 2.3985
-5.1578 2.0222 2.3985
-5.2327 1.8380 2.3985
-5.3010 1.6511 2.3985
-5.3625 1.4617 2.3985
-5.4172 1.2701 2.3985
-5.4650 1.0764 2.3985
-5.5058 0.8809 2.3985
-5.5394 0.6839 2.3985
-5.5659 0.4856 2.3985
-5.5853 0.2864 2.3985
-5.5973 0.0864 2.3985
-5.6021 -0.1140 2.3985
-5.5996 -0.3147 2.3985
-5.5898 -0.5153 2.3985
-5.5726 -0.7155 2.3985
-5.5482 -0.9151 2.3985
-5.5164 -1.1138 2.3985
-5.4774 -1.3114 2.3985
-5.4311 -1.5075 2.3985
-5.3777 -1.7019 2.3985
-5.3172 -1.8944 2.3985
-5.2495 -2.0846 2.3985
-5.1750 -2.2723 2.3985
-5.0935 -2.4572 2.3985
-5.0053 -2.6391 2.3985
-4.9104 -2.8177 2.3985
-4.8090 -2.9928 2.3985
-4.7011 -3.1641 2.3985
-4.5870 -3.3314 2.3985
-4.4668 -3.4944 2.3985
-4.3406 -3.6530 2.3985
-4.2086 -3.8068 2.3985
-4.0711 -3.9557 2.3985
-3.9281 -4.0995 2.3985
-3.7799 -4.2379 2.3985
-3.6266 -4.3707 2.3985
-3.4686 -4.4979 2.3985
-3.3060 -4.6191 2.3985
-3.1390 -4.7343 2.3985
-2.9678 -4.8433 2.3985
-2.7928 -4.9458 2.3985
-2.6142 -5.0419 2.3985
-2.4321 -5.1312 2.3985
-2.2469 -5.2138 2.3985
-2.0588 -5.2895 2.3985
4.3448 -2.8186 2.3985
4.4384 -2.6580 2.3985
4.5261 -2.4943 2.3985
4.6078 -2.3277 2.3985
4.6834 -2.1584 2.3985
4.7528 -1.9867 2.3985
4.8161 -1.8128 2.3985
4.8730 -1.6369 2.3985
4.9236 -1.4592 2.3985
4.9678 -1.2800 2.3985
5.0056 -1.0995 2.3985
5.0369 -0.9179 2.3985
5.0617 -0.7355 2.3985
5.0800 -0.5524 2.3985
5.0918 -0.3690 2.3985
5.0971 -0.1854 2.3985
5.0959 -0.0018 2.3985
5.0882 0.1814 2.3985
5.0740 0.3642 2.3985
5.0534 0.5462 2.3985
5.0264 0.7272 2.3985
4.9931 0.9070 2.3985
4.9535 1.0855 2.3985
4.9076 1.2623 2.3985
4.8555 1.4373 2.3985
4.7974 1.6102 2.3985
4.7333 1.7809 2.3985
4.6632 1.9492 2.3985
4.5873 2.1148 2.3985
4.4927 2.2710 2.3916
4.3382 2.3931 2.3550
4.1892 2.5120 2.3229
4.0555 2.6352 2.3010
3.9246 2.7564 2.2825
3.8005 2.8793 2.2701
3.6777 3.0011 2.2607
3.5608 3.1263 2.2575
3.4445 3.2516 2.2572
3.3308 3.3796 2.2617
3.2228 3.5151 2.2734
3.1160 3.6550 2.2900
3.0142 3.8056 2.3149
2.9127 3.9632 2.3455
2.8129 4.1319 2.3837
2.6785 4.2570 2.3985
2.5233 4.3510 2.3985
2.3649 4.4396 2.3985
0.8892 1.8251 0.9679
0.8229 1.8563 0.9679
0.7555 1.8850 0.9678
0.6871 1.9113 0.9677
0.6178 1.9351 0.9676
0.5477 1.9564 0.9674
0.4769 1.9751 0.9672
0.4054 1.9913 0.9670
0.3334 2.0050 0.9667
0.2609 2.0160 0.9664
0.1881 2.0243 0.9661
0.1150 2.0301 0.9657
0.0417 2.0332 0.9653
-0.0316 2.0337 0.9649
-0.1049 2.0315 0.9644
-0.1780 2.0267 0.9640
-0.2510 2.0193 0.9634
-0.3236 2.0092 0.9629
-0.3958 1.9965 0.9623
-0.4675 1.9812 0.9617
-0.5387 1.9634 0.9611
-0.6091 1.9430 0.9604
-0.6787 1.9201 0.9597
-0.7475 1.8946 0.9590
-0.8153 1.8667 0.9583
-0.8821 1.8364 0.9576
-2.3757 4.5216 2.3985
-2.5392 4.4375 2.3985
-2.6997 4.3475 2.3985
-2.8571 4.2518 2.3985
-3.0111 4.1504 2.3985
-3.1615 4.0436 2.3985
-3.3082 3.9314 2.3985
-3.4509 3.8140 2.3985
-3.5895 3.6914 2.3985
-3.7237 3.5639 2.3985
-3.8533 3.4315 2.3985
-3.9783 3.2944 2.3985
-4.0984 3.1529 2.3985
-4.2134 3.0070 2.3985
-4.3233 2.8570 2.3985
-4.4278 2.7029 2.3985
-4.5268 2.5451 2.3985
-4.6201 2.3837 2.3985
-4.7077 2.2189 2.3985
-4.7893 2.0509 2.3985
-4.8649 1.8799 2.3985
-4.9343 1.7062 2.3985
-4.9975 1.5299 2.3985
-5.0543 1.3513 2.3985
-5.1047 1.1706 2.3985
-5.1485 0.9880 2.3985
-5.1858 0.8038 2.3985
-5.2163 0.6183 2.3985
-5.2401 0.4316 2.3985
-5.2572 0.2440 2.3985
-5.2674 0.0558 2.3985
-5.2708 -0.1328 2.3985
-5.2673 -0.3215 2.3985
-5.2570 -0.5101 2.3985
-5.2397 -0.6984 2.3985
-5.2156 -0.8860 2.3985
-5.1847 -1.0727 2.3985
-5.1469 -1.2583 2.3985
-5.1023 -1.4425 2.3985
-5.0510 -1.6251 2.3985
-4.9930 -1.8057 2.3985
-4.9285 -1.9842 2.3985
-4.8574 -2.1603 2.3985
-4.7798 -2.3338 2.3985
-4.6959 -2.5044 2.3985
-4.6058 -2.6719 2.3985
-4.5095 -2.8360 2.3985
-4.4073 -2.9965 2.3985
-4.2992 -3.1532 2.3985
-4.1853 -3.3059 2.3985
-4.0659 -3.4543 2.3985
-3.9411 -3.5983 2.3985
-3.8111 -3.7376 2.3985
-3.6760 -3.8720 2.3985
-3.5360 -4.0015 2.3985
-3.3913 -4.1257 2.3985
-3.2422 -4.2445 2.3985
-3.0888 -4.3577 2.3985
-2.9313 -4.4653 2.3985
-2.7699 -4.5669 2.3985
-2.6050 -4.6626 2.3985
-2.4366 -4.7521 2.3985
-2.2651 -4.8353 2.3985
-2.0906 -4.9122 2.3985
-1.9135 -4.9826 2.3985
-1.7340 -5.0464 2.3985
-1.5522 -5.1035 2.3985
-1.3686 -5.1540 2.3985
-1.1832 -5.1976 2.3985
-0.9964 -5.2344 2.3985
-0.8085 -5.2643 2.3985
-0.6197 -5.2872 2.3985
-0.4302 -5.3033 2.3985
-0.2404 -5.3123 2.3985
-0.0504 -5.3144 2.3985
0.1394 -5.3095 2.3985
0.3288 -5.2977 2.3985
0.5176 -5.2790 2.3985
0.7054 -5.2534 2.3985
0.8921 -5.2209 2.3985
1.0773 -5.1817 2.3985
1.2609 -5.1358 2.3985
1.4425 -5.0833 2.3985
1.6220 -5.0242 2.3985
1.7991 -4.9587 2.3985
1.9736 -4.8868 2.3985
2.1452 -4.8086 2.3985
2.3137 -4.7244 2.3985
2.4790 -4.6341 2.3985
2.6407 -4.5380 2.3985
2.7987 -4.4362 2.3985
2.9528 -4.3288 2.3985
3.1028 -4.2160 2.3985
3.2485 -4.0979 2.3985
3.3897 -3.9748 2.3985
3.5262 -3.8468 2.3985
3.6580 -3.7140 2.3985
3.7847 -3.5767 2.3985
3.9063 -3.4350 2.3985
4.0227 -3.2891 2.3985
4.1336 -3.1394 2.3985
4.2389 -2.9858 2.3985
4.3387 -2.8288 2.3985
4.4326 -2.6684 2.3985
4.5207 -2.5049 2.3985
4.6027 -2.3384 2.3985
4.6787 -2.1693 2.3985
4.7486 -1.9978 2.3985
4.8122 -1.8240 2.3985
4.8696 -1.6482 2.3985
4.9206 -1.4707 2.3985
4.9652 -1.2915 2.3985
5.0034 -1.1111 2.3985
5.0351 -0.9296 2.3985
5.0603 -0.7472 2.3985
5.0790 -0.5641 2.3985
5.0912 -0.3807 2.3985
5.0970 -0.1971 2.3985
5.0962 -0.0136 2.3985
5.0889 0.1697 2.3985
5.0751 0.3525 2.3985
5.0549 0.5345 2.3985
5.0283 0.7156 2.3985
4.9954 0.8955 2.3985
4.9562 1.0741 2.3985
4.9107 1.2510 2.3985
4.8591 1.4261 2.3985
4.8013 1.5992 2.3985
4.7375 1.7701 2.3985
4.6678 1.9385 2.3985
4.5923 2.1043 2.3985
4.5037 2.2636 2.3946
4.3479 2.3853 2.3571
4.1986 2.5045 2.3248
4.0640 2.6274 2.3023
3.9329 2.7487 2.2836
3.8084 2.8715 2.2708
3.6853 2.9932 2.2611
3.5683 3.1183 2.2576
3.4517 3.2434 2.2570
3.3380 3.3713 2.2612
3.2296 3.5062 2.2725
3.1229 3.6460 2.2889
3.0208 3.7958 2.3132
2.9190 3.9527 2.3432
2.8190 4.1203 2.3808
2.6883 4.2508 2.3985
2.5333 4.3452 2.3985
2.3751 4.4341 2.3985
0.8934 1.8230 0.9679
0.8272 1.8543 0.9679
0.7599 1.8832 0.9678
0.6915 1.9097 0.9677
0.6223 1.9336 0.9676
0.5522 1.9551 0.9674
0.4814 1.9740 0.9672
0.4100 1.9904 0.9670
0.3380 2.0042 0.9668
0.2655 2.0153 0.9665
0.1927 2.0239 0.9661
0.1197 2.0298 0.9658
0.0464 2.0331 0.9654
-0.0269 2.0337 0.9649
-0.1002 2.0317 0.9645
-0.1734 2.0271 0.9640
-0.2463 2.0198 0.9635
-0.3190 2.0099 0.9629
-0.3912 1.9974 0.9623
-0.4630 1.9823 0.9617
-0.5341 1.9646 0.9611
-0.6046 1.9444 0.9605
-0.6743 1.9216 0.9598
-0.7431 1.8963 0.9591
-0.8110 1.8686 0.9584
-0.8778 1.8384 0.9576
-2.3651 4.5268 2.3985
-2.5288 4.4430 2.3985
-2.6895 4.3534 2.3985
-2.8471 4.2581 2.3985
-3.0014 4.1571 2.3985
-3.1520 4.0506 2.3985
-3.2989 3.9388 2.3985
-3.4419 3.8216 2.3985
-3.5807 3.6994 2.3985
-3.7152 3.5722 2.3985
-3.8452 3.4401 2.3985
-3.9704 3.3034 2.3985
-4.0909 3.1621 2.3985
-4.2062 3.0165 2.3985
-4.3164 2.8667 2.3985
-4.4212 2.7129 2.3985
-4.5206 2.5553 2.3985
-4.6143 2.3941 2.3985
-4.7022 2.2295 2.3985
-4.7842 2.0617 2.3985
-4.8602 1.8909 2.3985
-4.9301 1.7174 2.3985
-4.9936 1.5412 2.3985
-5.0509 1.3628 2.3985
-5.1017 1.1822 2.3985
-5.1459 0.9997 2.3985
-5.1836 0.8157 2.3985
-5.2146 0.6302 2.3985
-5.2388 0.4436 2.3985
-5.2563 0.2560 2.3985
-5.2670 0.0679 2.3985
-5.2708 -0.1207 2.3985
-5.2677 -0.3095 2.3985
-5.2578 -0.4981 2.3985
-5.2410 -0.6864 2.3985
-5.2174 -0.8740 2.3985
-5.1868 -1.0608 2.3985
-5.1495 -1.2465 2.3985
-5.1054 -1.4308 2.3985
-5.0545 -1.6135 2.3985
-4.9970 -1.7942 2.3985
-4.9328 -1.9729 2.3985
-4.8621 -2.1492 2.3985
-4.7850 -2.3228 2.3985
-4.7015 -2.4936 2.3985
-4.6117 -2.6612 2.3985
-4.5159 -2.8256 2.3985
-4.4140 -2.9863 2.3985
-4.3063 -3.1433 2.3985
-4.1928 -3.2962 2.3985
-4.0737 -3.4449 2.3985
-3.9493 -3.5892 2.3985
-3.8196 -3.7288 2.3985
-3.6848 -3.8636 2.3985
-3.5451 -3.9933 2.3985
-3.4007 -4.1179 2.3985
-3.2519 -4.2370 2.3985
-3.0987 -4.3506 2.3985
-2.9415 -4.4585 2.3985
-2.7804 -4.5606 2.3985
-2.6156 -4.6566 2.3985
-2.4475 -4.7465 2.3985
-2.2762 -4.8302 2.3985
-2.1019 -4.9075 2.3985
-1.9249 -4.9783 2.3985
-1.7455 -5.0425 2.3985
-1.5639 -5.1001 2.3985
-1.3804 -5.1509 2.3985
-1.1951 -5.1950 2.3985
-1.0084 -5.2322 2.3985
-0.8206 -5.2626 2.3985
-0.6318 -5.2860 2.3985
-0.4424 -5.3024 2.3985
-0.2525 -5.3119 2.3985
-0.0626 -5.3145 2.3985
0.1273 -5.3100 2.3985
0.3167 -5.2987 2.3985
0.5055 -5.2804 2.3985
0.6934 -5.2552 2.3985
0.8801 -5.2232 2.3985
1.0655 -5.1845 2.3985
1.2492 -5.1390 2.3985
1.4310 -5.0869 2.3985
1.6106 -5.0282 2.3985
1.7879 -4.9631 2.3985
1.9625 -4.8916 2.3985
2.1343 -4.8138 2.3985
2.3030 -4.7300 2.3985
2.4685 -4.6401 2.3985
2.6305 -4.5444 2.3985
2.7887 -4.4429 2.3985
2.9431 -4.3358 2.3985
3.0933 -4.2234 2.3985
3.2393 -4.1056 2.3985
3.3808 -3.9828 2.3985
3.5176 -3.8551 2.3985
3.6497 -3.7226 2.3985
3.7767 -3.5856 2.3985
3.8987 -3.4442 2.3985
4.0154 -3.2986 2.3985
4.1266 -3.1491 2.3985
4.2324 -2.9958 2.3985
4.3325 -2.8389 2.3985
4.4268 -2.6787 2.3985
4.5152 -2.5154 2.3985
4.5977 -2.3492 2.3985
4.6740 -2.1802 2.3985
4.7443 -2.0088 2.3985
4.8083 -1.8352 2.3985
4.8661 -1.6595 2.3985
4.9175 -1.4821 2.3985
4.9625 -1.3030 2.3985
5.0011 -1.1227 2.3985
5.0332 -0.9412 2.3985
5.0589 -0.7589 2.3985
5.0780 -0.5759 2.3985
5.0907 -0.3925 2.3985
5.0968 -0.2089 2.3985
5.0964 -0.0253 2.3985
5.0895 0.1580 2.3985
5.0762 0.3408 2.3985
5.0564 0.5229 2.3985
5.0302 0.7041 2.3985
4.9977 0.8841 2.3985
4.9589 1.0627 2.3985
4.9138 1.2397 2.3985
4.8626 1.4150 2.3985
4.8052 1.5882 2.3985
4.7418 1.7592 2.3985
4.6725 1.9278 2.3985
4.5973 2.0937 2.3985
4.5148 2.2561 2.3976
4.3575 2.3776 2.3593
4.2081 2.4970 2.3268
4.0724 2.6195 2.3036
3.9412 2.7410 2.2847
3.8163 2.8637 2.2716
3.6930 2.9853 2.2616
3.5758 3.1103 2.2578
3.4589 3.2351 2.2568
3.3453 3.3631 2.2609
3.2363 3.4973 2.2715
3.1298 3.6370 2.2877
3.0273 3.7861 2.3115
2.9253 3.9421 2.3409
2.8253 4.1092 2.3781
2.6981 4.2445 2.3985
2.5434 4.3393 2.3985
2.3854 4.4286 2.3985
0.8976 1.8210 0.9679
0.8315 1.8524 0.9679
0.7642 1.8814 0.9678
0.6959 1.9081 0.9677
0.6267 1.9322 0.9676
0.5567 1.9538 0.9675
0.4860 1.9729 0.9673
0.4146 1.9894 0.9670
0.3426 2.0034 0.9668
0.2702 2.0147 0.9665
0.1974 2.0234 0.9661
0.1243 2.0295 0.9658
0.0511 2.0330 0.9654
-0.0222 2.0338 0.9650
-0.0955 2.0319 0.9645
-0.1687 2.0275 0.9640
-0.2417 2.0204 0.9635
-0.3143 2.0106 0.9630
-0.3866 1.9983 0.9624
-0.4584 1.9833 0.9618
-0.5296 1.9658 0.9612
-0.6001 1.9457 0.9605
-0.6699 1.9231 0.9598
-0.7388 1.8980 0.9591
-0.8067 1.8705 0.9584
-0.8736 1.8404 0.9577
-2.3545 4.5320 2.3985
-2.5185 4.4486 2.3985
-2.6793 4.3593 2.3985
-2.8371 4.2643 2.3985
-2.9916 4.1637 2.3985
-3.1425 4.0576 2.3985
-3.2897 3.9461 2.3985
-3.4329 3.8293 2.3985
-3.5720 3.7074 2.3985
-3.7067 3.5805 2.3985
-3.8370 3.4487 2.3985
-3.9626 3.3122 2.3985
-4.0833 3.1713 2.3985
-4.1990 3.0259 2.3985
-4.3095 2.8764 2.3985
-4.4147 2.7229 2.3985
-4.5144 2.5655 2.3985
-4.6085 2.4046 2.3985
-4.6968 2.2402 2.3985
-4.7792 2.0726 2.3985
-4.8555 1.9020 2.3985
-4.9258 1.7286 2.3985
-4.9898 1.5526 2.3985
-5.0474 1.3743 2.3985
-5.0986 1.1938 2.3985
-5.1433 1.0115 2.3985
-5.1814 0.8275 2.3985
-5.2128 0.6421 2.3985
-5.2375 0.4555 2.3985
-5.2554 0.2681 2.3985
-5.2665 0.0799 2.3985
-5.2708 -0.1086 2.3985
-5.2682 -0.2974 2.3985
-5.2587 -0.4860 2.3985
-5.2423 -0.6743 2.3985
-5.2191 -0.8620 2.3985
-5.1890 -1.0489 2.3985
-5.1521 -1.2346 2.3985
-5.1084 -1.4190 2.3985
-5.0580 -1.6018 2.3985
-5.0008 -1.7827 2.3985
-4.9371 -1.9615 2.3985
-4.8668 -2.1379 2.3985
-4.7901 -2.3118 2.3985
-4.7070 -2.4827 2.3985
-4.6177 -2.6506 2.3985
-4.5222 -2.8151 2.3985
-4.4207 -2.9761 2.3985
-4.3133 -3.1333 2.3985
-4.2002 -3.2865 2.3985
-4.0815 -3.4355 2.3985
-3.9574 -3.5801 2.3985
-3.8280 -3.7200 2.3985
-3.6936 -3.8551 2.3985
-3.5542 -3.9852 2.3985
-3.4101 -4.1101 2.3985
-3.2615 -4.2296 2.3985
-3.1086 -4.3435 2.3985
-2.9517 -4.4518 2.3985
-2.7908 -4.5542 2.3985
-2.6263 -4.6507 2.3985
-2.4584 -4.7410 2.3985
-2.2872 -4.8250 2.3985
-2.1131 -4.9027 2.3985
-1.9363 -4.9739 2.3985
4.0993 -2.6611 2.3985
4.1878 -2.5097 2.3985
4.2707 -2.3553 2.3985
4.3481 -2.1982 2.3985
4.4196 -2.0386 2.3985
4.4854 -1.8766 2.3985
4.5453 -1.7126 2.3985
4.5993 -1.5465 2.3985
4.6473 -1.3789 2.3985
4.6892 -1.2098 2.3985
4.7251 -1.0394 2.3985
4.7549 -0.8680 2.3985
4.7785 -0.6957 2.3985
4.7960 -0.5229 2.3985
4.8074 -0.3497 2.3985
4.8126 -0.1763 2.3985
4.8116 -0.0030 2.3985
4.8045 0.1701 2.3985
4.7913 0.3427 2.3985
4.7721 0.5146 2.3985
4.7468 0.6856 2.3985
4.7154 0.8555 2.3985
4.6782 1.0240 2.3985
4.6350 1.1911 2.3985
4.5860 1.3564 2.3985
4.5312 1.5199 2.3985
4.4707 1.6812 2.3985
4.4046 1.8402 2.3985
4.3330 1.9967 2.3985
4.2560 2.1505 2.3985
4.1736 2.3015 2.3985
4.0861 2.4494 2.3985
3.9934 2.5941 2.3985
3.8957 2.7354 2.3985
3.7827 2.8652 2.3918
3.6601 2.9862 2.3817
3.5420 3.1093 2.3771
3.4262 3.2338 2.3767
3.3152 3.3634 2.3829
3.2074 3.4980 2.3951
3.0830 3.6161 2.3985
2.9502 3.7246 2.3985
2.8137 3.8284 2.3985
2.6736 3.9274 2.3985
2.5302 4.0213 2.3985
2.3835 4.1102 2.3985
0.9001 1.6898 0.9664
0.8386 1.7214 0.9664
0.7760 1.7508 0.9664
0.7125 1.7779 0.9663
0.6479 1.8027 0.9662
0.5825 1.8251 0.9661
0.5164 1.8452 0.9659
0.4495 1.8629 0.9658
0.3821 1.8782 0.9655
0.3142 1.8910 0.9653
0.2458 1.9014 0.9650
0.1771 1.9093 0.9647
0.1081 1.9147 0.9643
0.0390 1.9176 0.9640
-0.0301 1.9181 0.9636
-0.0993 1.9160 0.9631
-0.1683 1.9115 0.9627
-0.2371 1.9045 0.9622
-0.3056 1.8950 0.9617
-0.3738 1.8830 0.9611
-0.4414 1.8686 0.9605
-0.5085 1.8518 0.9599
-0.5750 1.8325 0.9593
-0.6407 1.8109 0.9587
-0.7055 1.7869 0.9580
-0.7695 1.7606 0.9573
-0.8325 1.7320 0.9566
-0.8944 1.7011 0.9559
-2.3984 4.1888 2.3985
-2.5499 4.1036 2.3985
-2.6984 4.0131 2.3985
-2.8437 3.9172 2.3985
-2.9856 3.8162 2.3985
-3.1239 3.7101 2.3985
-3.2585 3.5990 2.3985
-3.3891 3.4832 2.3985
-3.5156 3.3626 2.3985
-3.6378 3.2375 2.3985
-3.7556 3.1080 2.3985
-3.8687 2.9743 2.3985
-3.9771 2.8364 2.3985
-4.0806 2.6947 2.3985
-4.1790 2.5492 2.3985
-4.2722 2.4002 2.3985
-4.3600 2.2478 2.3985
-4.4424 2.0922 2.3985
-4.5192 1.9336 2.3985
-4.5903 1.7722 2.3985
-4.6555 1.6082 2.3985
-4.7149 1.4418 2.3985
-4.7683 1.2733 2.3985
-4.8156 1.1028 2.3985
-4.8567 0.9305 2.3985
-4.8916 0.7568 2.3985
-4.9202 0.5818 2.3985
-4.9424 0.4057 2.3985
-4.9583 0.2288 2.3985
-4.9677 0.0513 2.3985
-4.9707 -0.1265 2.3985
-4.9672 -0.3045 2.3985
-4.9572 -0.4823 2.3985
-4.9408 -0.6597 2.3985
-4.9178 -0.8366 2.3985
-4.8885 -1.0126 2.3985
-4.8527 -1.1875 2.3985
-4.8105 -1.3611 2.3985
-4.7620 -1.5331 2.3985
-4.7072 -1.7034 2.3985
-4.6462 -1.8715 2.3985
-4.5790 -2.0375 2.3985
-4.5058 -2.2009 2.3985
-4.4266 -2.3616 2.3985
-4.3416 -2.5194 2.3985
-4.2508 -2.6740 2.3985
-4.1543 -2.8252 2.3985
-4.0524 -2.9728 2.3985
-3.9450 -3.1167 2.3985
-3.8324 -3.2565 2.3985
-3.7148 -3.3921 2.3985
-3.5922 -3.5234 2.3985
-3.4649 -3.6500 2.3985
-3.3329 -3.7720 2.3985
-3.1966 -3.8890 2.3985
-3.0560 -4.0009 2.3985
-2.9114 -4.1076 2.3985
-2.7630 -4.2090 2.3985
-2.6110 -4.3048 2.3985
-2.4556 -4.3949 2.3985
-2.2969 -4.4793 2.3985
-2.1353 -4.5577 2.3985
-1.9710 -4.6302 2.3985
-1.8041 -4.6966 2.3985
-1.6349 -4.7568 2.3985
-1.4636 -4.8107 2.3985
-1.2906 -4.8583 2.3985
-1.1159 -4.8995 2.3985
-0.9399 -4.9343 2.3985
-0.7629 -4.9626 2.3985
-0.5849 -4.9843 2.3985
-0.4064 -4.9995 2.3985
-0.2274 -5.0082 2.3985
-0.0484 -5.0103 2.3985
0.1305 -5.0059 2.3985
0.3091 -4.9949 2.3985
0.4870 -4.9774 2.3985
0.6641 -4.9534 2.3985
0.8400 -4.9230 2.3985
1.0147 -4.8862 2.3985
1.1878 -4.8431 2.3985
1.3591 -4.7938 2.3985
1.5284 -4.7383 2.3985
1.6955 -4.6767 2.3985
1.8600 -4.6091 2.3985
2.0219 -4.5356 2.3985
2.1810 -4.4564 2.3985
2.3369 -4.3715 2.3985
2.4895 -4.2810 2.3985
2.6387 -4.1852 2.3985
2.7841 -4.0841 2.3985
2.9257 -3.9779 2.3985
3.0633 -3.8667 2.3985
3.1966 -3.7507 2.3985
3.3256 -3.6302 2.3985
3.4500 -3.5050 2.3985
3.5698 -3.3756 2.3985
3.6847 -3.2421 2.3985
3.7947 -3.1047 2.3985
3.8995 -2.9635 2.3985
3.9991 -2.8188 2.3985
4.0934 -2.6707 2.3985
4.1823 -2.5195 2.3985
4.2656 -2.3653 2.3985
4.3433 -2.2083 2.3985
4.4152 -2.0488 2.3985
4.4814 -1.8871 2.3985
4.5417 -1.7231 2.3985
4.5960 -1.5572 2.3985
4.6444 -1.3896 2.3985
4.6867 -1.2206 2.3985
4.7230 -1.0503 2.3985
4.7531 -0.8790 2.3985
4.7772 -0.7068 2.3985
4.7951 -0.5340 2.3985
4.8068 -0.3608 2.3985
4.8124 -0.1874 2.3985
4.8119 -0.0141 2.3985
4.8052 0.1590 2.3985
4.7924 0.3316 2.3985
4.7735 0.5036 2.3985
4.7486 0.6746 2.3985
4.7176 0.8446 2.3985
4.6807 1.0133 2.3985
4.6379 1.1805 2.3985
4.5893 1.3459 2.3985
4.5349 1.5095 2.3985
4.4747 1.6709 2.3985
4.4090 1.8301 2.3985
4.3378 1.9868 2.3985
4.2611 2.1408 2.3985
4.1791 2.2919 2.3985
4.0918 2.4400 2.3985
3.9994 2.5849 2.3985
3.9021 2.7265 2.3985
3.7905 2.8574 2.3926
3.6679 2.9785 2.3823
3.5496 3.1015 2.3773
3.4333 3.2255 2.3764
3.3223 3.3551 2.3824
3.2142 3.4892 2.3941
3.0914 3.6090 2.3985
2.9588 3.7178 2.3985
2.8226 3.8219 2.3985
2.6827 3.9212 2.3985
2.5395 4.0155 2.3985
2.3930 4.1047 2.3985
0.9040 1.6877 0.9664
0.8426 1.7194 0.9664
0.7801 1.7490 0.9664
0.7165 1.7762 0.9663
0.6521 1.8011 0.9662
0.5867 1.8237 0.9661
0.5206 1.8440 0.9660
0.4538 1.8618 0.9658
0.3864 1.8773 0.9656
0.3185 1.8902 0.9653
0.2502 1.9008 0.9650
0.1815 1.9088 0.9647
0.1125 1.9144 0.9644
0.0434 1.9175 0.9640
-0.0257 1.9181 0.9636
-0.0949 1.9162 0.9632
-0.1639 1.9119 0.9627
-0.2327 1.9050 0.9622
-0.3013 1.8957 0.9617
-0.3694 1.8838 0.9611
-0.4371 1.8696 0.9606
-0.5042 1.8529 0.9600
-0.5707 1.8338 0.9594
-0.6365 1.8123 0.9587
-0.7014 1.7885 0.9581
-0.7654 1.7623 0.9574
-0.8285 1.7339 0.9567
-0.8905 1.7032 0.9559
-2.3886 4.1940 2.3985
-2.5403 4.1092 2.3985
-2.6890 4.0190 2.3985
-2.8345 3.9235 2.3985
-2.9766 3.8228 2.3985
-3.1151 3.7170 2.3985
-3.2500 3.6063 2.3985
-3.3808 3.4907 2.3985
-3.5076 3.3705 2.3985
-3.6301 3.2456 2.3985
-3.7482 3.1164 2.3985
-3.8616 2.9829 2.3985
-3.9703 2.8454 2.3985
-4.0741 2.7039 2.3985
-4.1728 2.5587 2.3985
-4.2663 2.4098 2.3985
-4.3545 2.2576 2.3985
-4.4373 2.1022 2.3985
-4.5144 1.9438 2.3985
-4.5859 1.7826 2.3985
-4.6515 1.6187 2.3985
-4.7113 1.4525 2.3985
-4.7650 1.2841 2.3985
-4.8127 1.1137 2.3985
-4.8542 0.9416 2.3985
-4.8895 0.7680 2.3985
-4.9185 0.5930 2.3985
-4.9412 0.4170 2.3985
-4.9574 0.2401 2.3985
-4.9673 0.0627 2.3985
-4.9707 -0.1151 2.3985
-4.9676 -0.2931 2.3985
-4.9580 -0.4709 2.3985
-4.9420 -0.6484 2.3985
-4.9195 -0.8253 2.3985
-4.8905 -1.0014 2.3985
-4.8552 -1.1763 2.3985
-4.8134 -1.3500 2.3985
-4.7653 -1.5222 2.3985
-4.7109 -1.6925 2.3985
-4.6503 -1.8609 2.3985
-4.5835 -2.0269 2.3985
-4.5107 -2.1905 2.3985
-4.4319 -2.3514 2.3985
-4.3472 -2.5094 2.3985
-4.2568 -2.6642 2.3985
-4.1607 -2.8156 2.3985
-4.0591 -2.9635 2.3985
-3.9521 -3.1076 2.3985
-3.8398 -3.2477 2.3985
-3.7225 -3.3836 2.3985
-3.6002 -3.5151 2.3985
-3.4731 -3.6421 2.3985
-3.3415 -3.7643 2.3985
-3.2054 -3.8817 2.3985
-3.0651 -3.9939 2.3985
-2.9208 -4.1010 2.3985
-2.7727 -4.2026 2.3985
-2.6209 -4.2988 2.3985
-2.4656 -4.3893 2.3985
-2.3072 -4.4740 2.3985
-2.1458 -4.5529 2.3985
-1.9816 -4.6258 2.3985
-1.8148 -4.6925 2.3985
-1.6458 -4.7531 2.3985
-1.4747 -4.8075 2.3985
-1.3017 -4.8555 2.3985
-1.1272 -4.8971 2.3985
-0.9512 -4.9323 2.3985
-0.7742 -4.9610 2.3985
-0.5963 -4.9831 2.3985
-0.4178 -4.9988 2.3985
-0.2389 -5.0078 2.3985
-0.0599 -5.0104 2.3985
0.1191 -5.0063 2.3985
0.2976 -4.9958 2.3985
0.4756 -4.9787 2.3985
0.6528 -4.9552 2.3985
0.8288 -4.9252 2.3985
1.0036 -4.8888 2.3985
1.1768 -4.8461 2.3985
1.3482 -4.7971 2.3985
1.5176 -4.7420 2.3985
1.6848 -4.6808 2.3985
1.8496 -4.6136 2.3985
2.0117 -4.5405 2.3985
2.1709 -4.4616 2.3985
2.3270 -4.3771 2.3985
2.4799 -4.2870 2.3985
2.6292 -4.1915 2.3985
2.7749 -4.0907 2.3985
2.9168 -3.9848 2.3985
3.0546 -3.8740 2.3985
3.1882 -3.7583 2.3985
3.3175 -3.6380 2.3985
3.4422 -3.5132 2.3985
3.5623 -3.3840 2.3985
3.6775 -3.2508 2.3985
3.7878 -3.1136 2.3985
3.8929 -2.9727 2.3985
3.9929 -2.8282 2.3985
4.0876 -2.6803 2.3985
4.1768 -2.5293 2.3985
4.2604 -2.3752 2.3985
4.3385 -2.2185 2.3985
4.4108 -2.0591 2.3985
4.4773 -1.8975 2.3985
4.5380 -1.7336 2.3985
4.5927 -1.5679 2.3985
4.6415 -1.4004 2.3985
4.6842 -1.2315 2.3985
4.7208 -1.0613 2.3985
4.7514 -0.8900 2.3985
4.7758 -0.7178 2.3985
4.7941 -0.5451 2.3985
4.8063 -0.3719 2.3985
4.8122 -0.1985 2.3985
4.8121 -0.0252 2.3985
4.8058 0.1479 2.3985
4.7934 0.3206 2.3985
4.7749 0.4926 2.3985
4.7503 0.6637 2.3985
4.7198 0.8338 2.3985
4.6833 1.0025 2.3985
4.6408 1.1698 2.3985
4.5926 1.3354 2.3985
4.5385 1.4991 2.3985
4.4788 1.6607 2.3985
4.4134 1.8200 2.3985
4.3425 1.9768 2.3985
4.2662 2.1310 2.3985
4.1845 2.2823 2.3985
4.0976 2.4306 2.3985
4.0055 2.5758 2.3985
3.9085 2.7175 2.3985
3.7984 2.8496 2.3933
3.6758 2.9708 2.3829
3.5571 3.0936 2.3775
3.4403 3.2173 2.3761
3.3294 3.3468 2.3819
3.2209 3.4803 2.3931
3.0997 3.6019 2.3985
2.9674 3.7110 2.3985
2.8314 3.8154 2.3985
2.6918 3.9150 2.3985
2.5487 4.0096 2.3985
2.4025 4.0991 2.3985
0.9078 1.6856 0.9664
0.8465 1.7175 0.9664
0.7841 1.7471 0.9664
0.7206 1.7745 0.9663
0.6562 1.7996 0.9662
0.5910 1.8224 0.9661
0.5249 1.8428 0.9660
0.4581 1.8608 0.9658
0.3908 1.8763 0.9656
0.3229 1.8895 0.9653
0.2546 1.9002 0.9650
0.1859 1.9084 0.9647
0.1170 1.9141 0.9644
0.0479 1.9174 0.9640
-0.0213 1.9182 0.9636
-0.0904 1.9164 0.9632
-0.1595 1.9122 0.9627
-0.2283 1.9055 0.9622
-0.2969 1.8963 0.9617
-0.3651 1.8847 0.9612
-0.4328 1.8706 0.9606
-0.5000 1.8540 0.9600
-0.5665 1.8351 0.9594
-0.6323 1.8138 0.9588
-0.6973 1.7901 0.9581
-0.7614 1.7641 0.9574
-0.8245 1.7358 0.9567
-0.8865 1.7052 0.9560
-2.3788 4.1993 2.3985
-2.5307 4.1148 2.3985
-2.6796 4.0250 2.3985
-2.8253 3.9298 2.3985
-2.9676 3.8294 2.3985
-3.1064 3.7239 2.3985
-3.2414 3.6135 2.3985
-3.3726 3.4983 2.3985
-3.4996 3.3783 2.3985
-3.6224 3.2538 2.3985
-3.7407 3.1248 2.3985
-3.8545 2.9916 2.3985
-3.9635 2.8543 2.3985
-4.0676 2.7131 2.3985
-4.1667 2.5680 2.3985
-4.2605 2.4195 2.3985
-4.3491 2.2675 2.3985
-4.4321 2.1123 2.3985
-4.5097 1.9540 2.3985
-4.5815 1.7930 2.3985
-4.6475 1.6293 2.3985
-4.7076 1.4632 2.3985
-4.7618 1.2950 2.3985
-4.8098 1.1247 2.3985
-4.8518 0.9527 2.3985
-4.8874 0.7791 2.3985
-4.9168 0.6042 2.3985
-4.9399 0.4283 2.3985
-4.9566 0.2515 2.3985
-4.9668 0.0741 2.3985
-4.9706 -0.1037 2.3985
-4.9680 -0.2817 2.3985
-4.9588 -0.4595 2.3985
-4.9432 -0.6370 2.3985
-4.9211 -0.8140 2.3985
-4.8926 -0.9901 2.3985
-4.8576 -1.1652 2.3985
-4.8163 -1.3390 2.3985
-4.7686 -1.5112 2.3985
-4.7146 -1.6817 2.3985
-4.6544 -1.8501 2.3985
-4.5880 -2.0164 2.3985
-4.5155 -2.1801 2.3985
-4.4371 -2.3412 2.3985
-4.3528 -2.4994 2.3985
-4.2627 -2.6544 2.3985
-4.1670 -2.8061 2.3985
-4.0657 -2.9542 2.3985
-3.9591 -3.0985 2.3985
-3.8471 -3.2388 2.3985
-3.7301 -3.3750 2.3985
-3.6082 -3.5068 2.3985
-3.4814 -3.6341 2.3985
-3.3501 -3.7566 2.3985
-3.2143 -3.8743 2.3985
-3.0743 -3.9869 2.3985
-2.9302 -4.0943 2.3985
-2.7823 -4.1963 2.3985
-2.6307 -4.2928 2.3985
-2.4757 -4.3837 2.3985
-2.3174 -4.4688 2.3985
-2.1562 -4.5480 2.3985
-1.9921 -4.6213 2.3985
-1.8256 -4.6884 2.3985
3.8753 -2.5175 2.3985
3.9591 -2.3744 2.3985
4.0378 -2.2285 2.3985
4.1111 -2.0800 2.3985
4.1789 -1.9291 2.3985
4.2413 -1.7761 2.3985
4.2982 -1.6210 2.3985
4.3494 -1.4640 2.3985
4.3950 -1.3055 2.3985
4.4349 -1.1456 2.3985
4.4690 -0.9845 2.3985
4.4973 -0.8223 2.3985
4.5199 -0.6595 2.3985
4.5366 -0.4959 2.3985
4.5476 -0.3320 2.3985
4.5526 -0.1681 2.3985
4.5519 -0.0041 2.3985
4.5454 0.1597 2.3985
4.5331 0.3230 2.3985
4.5150 0.4857 2.3985
4.4912 0.6475 2.3985
4.4617 0.8083 2.3985
4.4265 0.9679 2.3985
4.3858 1.1261 2.3985
4.3395 1.2826 2.3985
4.2878 1.4373 2.3985
4.2307 1.5900 2.3985
4.1683 1.7406 2.3985
4.1006 1.8887 2.3985
4.0278 2.0344 2.3985
3.9499 2.1773 2.3985
3.8671 2.3174 2.3985
3.7794 2.4544 2.3985
3.6870 2.5882 2.3985
3.5899 2.7186 2.3985
3.4884 2.8456 2.3985
3.3825 2.9688 2.3985
3.2724 3.0882 2.3985
3.1581 3.2037 2.3985
3.0399 3.3150 2.3985
2.9179 3.4221 2.3985
2.7922 3.5249 2.3985
2.6630 3.6232 2.3985
2.5304 3.7169 2.3985
2.3946 3.8058 2.3985
0.9075 1.5650 0.9650
0.8505 1.5970 0.9650
0.7924 1.6268 0.9650
0.7333 1.6546 0.9650
0.6732 1.6802 0.9649
0.6122 1.7036 0.9649
0.5504 1.7248 0.9647
0.4878 1.7438 0.9646
0.4246 1.7605 0.9644
0.3609 1.7750 0.9642
0.2966 1.7871 0.9640
0.2320 1.7969 0.9637
0.1671 1.8044 0.9634
0.1019 1.8095 0.9631
0.0366 1.8123 0.9627
-0.0288 1.8127 0.9623
-0.0942 1.8107 0.9619
-0.1594 1.8064 0.9615
-0.2245 1.7998 0.9610
-0.2892 1.7908 0.9605
-0.3537 1.7795 0.9600
-0.4176 1.7659 0.9595
-0.4810 1.7500 0.9589
-0.5438 1.7318 0.9583
-0.6059 1.7113 0.9577
-0.6673 1.6887 0.9571
-0.7277 1.6638 0.9564
-0.7873 1.6368 0.9558
-0.8458 1.6076 0.9551
-0.9032 1.5764 0.9544
-2.4131 3.8809 2.3985
-2.5535 3.7951 2.3985
-2.6908 3.7043 2.3985
-2.8249 3.6085 2.3985
-2.9556 3.5080 2.3985
-3.0828 3.4028 2.3985
-3.2062 3.2931 2.3985
-3.3257 3.1789 2.3985
-3.4411 3.0605 2.3985
-3.5523 2.9379 2.3985
-3.6591 2.8113 2.3985
-3.7615 2.6808 2.3985
-3.8591 2.5467 2.3985
-3.9520 2.4090 2.3985
-4.0399 2.2680 2.3985
-4.1228 2.1238 2.3985
-4.2005 1.9766 2.3985
-4.2729 1.8266 2.3985
-4.3399 1.6739 2.3985
-4.4014 1.5188 2.3985
-4.4573 1.3615 2.3985
-4.5076 1.2022 2.3985
-4.5521 1.0410 2.3985
-4.5907 0.8782 2.3985
-4.6235 0.7139 2.3985
-4.6503 0.5485 2.3985
-4.6712 0.3821 2.3985
-4.6859 0.2149 2.3985
-4.6947 0.0472 2.3985
-4.6973 -0.1208 2.3985
-4.6938 -0.2889 2.3985
-4.6842 -0.4569 2.3985
-4.6685 -0.6245 2.3985
-4.6467 -0.7916 2.3985
-4.6188 -0.9578 2.3985
-4.5849 -1.1230 2.3985
-4.5449 -1.2870 2.3985
-4.4989 -1.4494 2.3985
-4.4470 -1.6102 2.3985
-4.3893 -1.7690 2.3985
-4.3257 -1.9257 2.3985
-4.2565 -2.0800 2.3985
-4.1816 -2.2317 2.3985
-4.1012 -2.3807 2.3985
-4.0153 -2.5266 2.3985
-3.9242 -2.6694 2.3985
-3.8278 -2.8088 2.3985
-3.7264 -2.9445 2.3985
-3.6200 -3.0765 2.3985
-3.5089 -3.2046 2.3985
-3.3931 -3.3285 2.3985
-3.2728 -3.4481 2.3985
-3.1482 -3.5632 2.3985
-3.0194 -3.6737 2.3985
-2.8867 -3.7794 2.3985
-2.7501 -3.8801 2.3985
-2.6100 -3.9758 2.3985
-2.4664 -4.0663 2.3985
-2.3197 -4.1514 2.3985
-2.1699 -4.2311 2.3985
-2.0173 -4.3052 2.3985
-1.8621 -4.3737 2.3985
-1.7045 -4.4364 2.3985
-1.5447 -4.4933 2.3985
-1.3831 -4.5443 2.3985
-1.2196 -4.5893 2.3985
-1.0547 -4.6283 2.3985
-0.8885 -4.6612 2.3985
-0.7213 -4.6880 2.3985
-0.5533 -4.7087 2.3985
-0.3846 -4.7231 2.3985
-0.2157 -4.7314 2.3985
-0.0466 -4.7335 2.3985
0.1224 -4.7295 2.3985
0.2911 -4.7192 2.3985
0.4592 -4.7029 2.3985
0.6264 -4.6804 2.3985
0.7927 -4.6518 2.3985
0.9577 -4.6172 2.3985
1.1213 -4.5766 2.3985
1.2832 -4.5302 2.3985
1.4432 -4.4779 2.3985
1.6011 -4.4199 2.3985
1.7566 -4.3562 2.3985
1.9097 -4.2869 2.3985
2.0600 -4.2122 2.3985
2.2074 -4.1321 2.3985
2.3518 -4.0468 2.3985
2.4928 -3.9564 2.3985
2.6304 -3.8611 2.3985
2.7643 -3.7608 2.3985
2.8945 -3.6559 2.3985
3.0206 -3.5465 2.3985
3.1427 -3.4326 2.3985
3.2605 -3.3145 2.3985
3.3738 -3.1924 2.3985
3.4826 -3.0663 2.3985
3.5867 -2.9365 2.3985
3.6860 -2.8032 2.3985
3.7804 -2.6665 2.3985
3.8697 -2.5265 2.3985
3.9539 -2.3837 2.3985
4.0329 -2.2380 2.3985
4.1065 -2.0896 2.3985
4.1748 -1.9389 2.3985
4.2375 -1.7859 2.3985
4.2947 -1.6309 2.3985
4.3463 -1.4741 2.3985
4.3923 -1.3157 2.3985
4.4325 -1.1559 2.3985
4.4670 -0.9948 2.3985
4.4957 -0.8327 2.3985
4.5186 -0.6699 2.3985
4.5357 -0.5064 2.3985
4.5470 -0.3426 2.3985
4.5525 -0.1786 2.3985
4.5521 -0.0145 2.3985
4.5460 0.1492 2.3985
4.5340 0.3126 2.3985
4.5163 0.4753 2.3985
4.4929 0.6372 2.3985
4.4637 0.7981 2.3985
4.4290 0.9577 2.3985
4.3886 1.1160 2.3985
4.3427 1.2726 2.3985
4.2913 1.4274 2.3985
4.2345 1.5803 2.3985
4.1724 1.7310 2.3985
4.1051 1.8793 2.3985
4.0326 2.0252 2.3985
3.9550 2.1683 2.3985
3.8725 2.3085 2.3985
3.7851 2.4457 2.3985
3.6930 2.5797 2.3985
3.5963 2.7104 2.3985
3.4951 2.8375 2.3985
3.3894 2.9610 2.3985
3.2796 3.0807 2.3985
3.1656 3.1964 2.3985
3.0476 3.3080 2.3985
2.9258 3.4154 2.3985
2.8003 3.5185 2.3985
2.6713 3.6170 2.3985
2.5389 3.7110 2.3985
2.4033 3.8003 2.3985
0.9111 1.5629 0.9650
0.8542 1.5950 0.9650
0.7962 1.6250 0.9650
0.7371 1.6529 0.9650
0.6771 1.6786 0.9649
0.6161 1.7022 0.9649
0.5543 1.7236 0.9647
0.4918 1.7427 0.9646
0.4287 1.7595 0.9644
0.3650 1.7741 0.9642
0.3008 1.7864 0.9640
0.2362 1.7963 0.9637
0.1712 1.8040 0.9634
0.1061 1.8092 0.9631
0.0407 1.8122 0.9627
-0.0246 1.8127 0.9624
-0.0900 1.8109 0.9619
-0.1553 1.8068 0.9615
-0.2203 1.8003 0.9611
-0.2851 1.7915 0.9606
-0.3495 1.7803 0.9601
-0.4135 1.7668 0.9595
-0.4770 1.7511 0.9590
-0.5398 1.7330 0.9584
-0.6020 1.7127 0.9578
-0.6634 1.6902 0.9571
-0.7239 1.6655 0.9565
-0.7835 1.6386 0.9558
-0.8421 1.6095 0.9551
-0.8996 1.5784 0.9544
-2.4040 3.8862 2.3985
-2.5446 3.8007 2.3985
-2.6821 3.7102 2.3985
-2.8164 3.6148 2.3985
-2.9474 3.5146 2.3985
-3.0747 3.4097 2.3985
-3.1984 3.3003 2.3985
-3.3181 3.1864 2.3985
-3.4338 3.0682 2.3985
-3.5453 2.9458 2.3985
-3.6524 2.8195 2.3985
-3.7551 2.6893 2.3985
-3.8530 2.5554 2.3985
-3.9462 2.4179 2.3985
-4.0344 2.2771 2.3985
-4.1176 2.1331 2.3985
-4.1957 1.9861 2.3985
-4.2684 1.8363 2.3985
-4.3358 1.6838 2.3985
-4.3976 1.5288 2.3985
-4.4539 1.3717 2.3985
-4.5045 1.2124 2.3985
-4.5494 1.0513 2.3985
-4.5884 0.8886 2.3985
-4.6216 0.7245 2.3985
-4.6488 0.5591 2.3985
-4.6700 0.3928 2.3985
-4.6852 0.2257 2.3985
-4.6943 0.0580 2.3985
-4.6973 -0.1100 2.3985
-4.6942 -0.2782 2.3985
-4.6850 -0.4462 2.3985
-4.6697 -0.6138 2.3985
-4.6483 -0.7809 2.3985
-4.6208 -0.9472 2.3985
-4.5872 -1.1125 2.3985
-4.5476 -1.2765 2.3985
-4.5020 -1.4391 2.3985
-4.4505 -1.5999 2.3985
-4.3932 -1.7589 2.3985
-4.3300 -1.9157 2.3985
-4.2611 -2.0702 2.3985
-4.1866 -2.2221 2.3985
-4.1065 -2.3712 2.3985
-4.0210 -2.5174 2.3985
-3.9302 -2.6604 2.3985
-3.8341 -2.7999 2.3985
-3.7330 -2.9360 2.3985
-3.6270 -3.0682 2.3985
-3.5161 -3.1965 2.3985
-3.4006 -3.3207 2.3985
-3.2806 -3.4406 2.3985
-3.1563 -3.5560 2.3985
-3.0278 -3.6668 2.3985
-2.8953 -3.7728 2.3985
-2.7590 -3.8738 2.3985
-2.6191 -3.9698 2.3985
-2.4757 -4.0606 2.3985
-2.3292 -4.1461 2.3985
-2.1796 -4.2262 2.3985
-2.0271 -4.3007 2.3985
-1.8721 -4.3695 2.3985
-1.7147 -4.4326 2.3985
-1.5550 -4.4899 2.3985
-1.3935 -4.5412 2.3985
-1.2301 -4.5866 2.3985
-1.0653 -4.6260 2.3985
-0.8992 -4.6593 2.3985
-0.7320 -4.6865 2.3985
-0.5640 -4.7075 2.3985
-0.3954 -4.7224 2.3985
-0.2265 -4.7311 2.3985
-0.0574 -4.7336 2.3985
0.1116 -4.7299 2.3985
0.2803 -4.7201 2.3985
0.4484 -4.7041 2.3985
0.6158 -4.6820 2.3985
0.7821 -4.6538 2.3985
0.9472 -4.6196 2.3985
1.1109 -4.5794 2.3985
1.2729 -4.5333 2.3985
1.4330 -4.4814 2.3985
1.5910 -4.4238 2.3985
1.7467 -4.3604 2.3985
1.9000 -4.2915 2.3985
2.0505 -4.2171 2.3985
2.1981 -4.1374 2.3985
2.3426 -4.0525 2.3985
2.4839 -3.9624 2.3985
2.6217 -3.8673 2.3985
2.7559 -3.7674 2.3985
2.8863 -3.6628 2.3985
3.0127 -3.5536 2.3985
3.1350 -3.4400 2.3985
3.2531 -3.3222 2.3985
3.3667 -3.2004 2.3985
3.4758 -3.0745 2.3985
3.5802 -2.9449 2.3985
3.6798 -2.8118 2.3985
3.7745 -2.6753 2.3985
3.8642 -2.5356 2.3985
3.9487 -2.3929 2.3985
4.0280 -2.2474 2.3985
4.1020 -2.0992 2.3985
4.1706 -1.9486 2.3985
4.2337 -1.7958 2.3985
4.2912 -1.6409 2.3985
4.3432 -1.4842 2.3985
4.3895 -1.3259 2.3985
4.4301 -1.1661 2.3985
4.4650 -1.0051 2.3985
4.4940 -0.8431 2.3985
4.5173 -0.6803 2.3985
4.5348 -0.5169 2.3985
4.5465 -0.3530 2.3985
4.5523 -0.1891 2.3985
4.5523 -0.0250 2.3985
4.5465 0.1387 2.3985
4.5350 0.3021 2.3985
4.5176 0.4649 2.3985
4.4945 0.6269 2.3985
4.4658 0.7878 2.3985
4.4314 0.9476 2.3985
4.3913 1.1059 2.3985
4.3458 1.2626 2.3985
4.2947 1.4176 2.3985
4.2383 1.5706 2.3985
4.1765 1.7214 2.3985
4.1095 1.8699 2.3985
4.0374 2.0159 2.3985
3.9601 2.1592 2.3985
3.8779 2.2996 2.3985
3.7909 2.4370 2.3985
3.6991 2.5713 2.3985
3.6026 2.7021 2.3985
3.5017 2.8295 2.3985
3.3963 2.9532 2.3985
3.2867 3.0731 2.3985
3.1730 3.1891 2.3985
3.0553 3.3010 2.3985
2.9337 3.4087 2.3985
2.8085 3.5120 2.3985
2.6797 3.6109 2.3985
2.5475 3.7051 2.3985
2.4121 3.7947 2.3985
0.9147 1.5608 0.9650
0.8579 1.5930 0.9650
0.7999 1.6231 0.9650
0.7409 1.6512 0.9650
0.6809 1.6770 0.9650
0.6200 1.7007 0.9649
0.5583 1.7223 0.9648
0.4959 1.7415 0.9646
0.4328 1.7585 0.9644
0.3691 1.7733 0.9642
0.3049 1.7857 0.9640
0.2403 1.7958 0.9637
0.1754 1.8035 0.9634
0.1102 1.8090 0.9631
0.0449 1.8120 0.9628
-0.0205 1.8128 0.9624
-0.0858 1.8111 0.9620
-0.1511 1.8071 0.9615
-0.2162 1.8008 0.9611
-0.2810 1.7921 0.9606
-0.3454 1.7811 0.9601
-0.4094 1.7678 0.9596
-0.4729 1.7521 0.9590
-0.5358 1.7342 0.9584
-0.5980 1.7141 0.9578
-0.6595 1.6917 0.9572
-0.7201 1.6671 0.9565
-0.7797 1.6404 0.9559
-0.8384 1.6115 0.9552
-0.8959 1.5805 0.9545
-2.3949 3.8915 2.3985
-2.5357 3.8064 2.3985
-2.6734 3.7162 2.3985
-2.8079 3.6211 2.3985
-2.9391 3.5212 2.3985
-3.0667 3.4166 2.3985
-3.1906 3.3074 2.3985
-3.3106 3.1938 2.3985
-3.4266 3.0759 2.3985
-3.5383 2.9538 2.3985
-3.6457 2.8277 2.3985
-3.7486 2.6977 2.3985
-3.8469 2.5641 2.3985
-3.9404 2.4268 2.3985
-4.0289 2.2862 2.3985
-4.1125 2.1424 2.3985
-4.1908 1.9956 2.3985
-4.2639 1.8459 2.3985
-4.3316 1.6936 2.3985
-4.3938 1.5388 2.3985
-4.4505 1.3818 2.3985
-4.5015 1.2227 2.3985
-4.5467 1.0617 2.3985
-4.5861 0.8991 2.3985
-4.6196 0.7350 2.3985
-4.6472 0.5697 2.3985
-4.6688 0.4034 2.3985
-4.6844 0.2364 2.3985
-4.6939 0.0687 2.3985
-4.6973 -0.0993 2.3985
-4.6946 -0.2674 2.3985
-4.6858 -0.4354 2.3985
-4.6709 -0.6031 2.3985
-4.6498 -0.7702 2.3985
-4.6227 -0.9366 2.3985
-4.5895 -1.1019 2.3985
-4.5503 -1.2661 2.3985
-4.5051 -1.4287 2.3985
-4.4540 -1.5897 2.3985
-4.3970 -1.7488 2.3985
-4.3342 -1.9057 2.3985
-4.2657 -2.0604 2.3985
-4.1915 -2.2124 2.3985
-4.1118 -2.3618 2.3985
-4.0266 -2.5081 2.3985
-3.9361 -2.6513 2.3985
-3.8404 -2.7911 2.3985
-3.7397 -2.9274 2.3985
-3.6339 -3.0599 2.3985
-3.5234 -3.1884 2.3985
-3.4082 -3.3129 2.3985
-3.2884 -3.4330 2.3985
-3.1644 -3.5487 2.3985
-3.0361 -3.6598 2.3985
-2.9039 -3.7661 2.3985
-2.7678 -3.8675 2.3985
-2.6281 -3.9638 2.3985
-2.4850 -4.0550 2.3985
-2.3386 -4.1408 2.3985
-2.1892 -4.2212 2.3985
-2.0370 -4.2960 2.3985
-1.8821 -4.3653 2.3985
-1.7248 -4.4287 2.3985
3.6699 -2.3858 2.3985
3.7495 -2.2504 2.3985
3.8241 -2.1123 2.3985
3.8937 -1.9717 2.3985
3.9582 -1.8288 2.3985
4.0175 -1.6839 2.3985
4.0715 -1.5370 2.3985
4.1202 -1.3883 2.3985
4.1636 -1.2383 2.3985
4.2015 -1.0867 2.3985
4.2340 -0.9341 2.3985
4.2610 -0.7805 2.3985
4.2826 -0.6261 2.3985
4.2986 -0.4712 2.3985
4.3091 -0.3159 2.3985
4.3141 -0.1605 2.3985
4.3135 -0.0051 2.3985
4.3075 0.1502 2.3985
4.2959 0.3050 2.3985
4.2789 0.4592 2.3985
4.2565 0.6126 2.3985
4.2287 0.7651 2.3985
4.1955 0.9164 2.3985
4.1570 1.0663 2.3985
4.1132 1.2147 2.3985
4.0643 1.3614 2.3985
4.0102 1.5063 2.3985
3.9511 1.6490 2.3985
3.8870 1.7896 2.3985
3.8181 1.9277 2.3985
3.7443 2.0633 2.3985
3.6658 2.1961 2.3985
3.5828 2.3262 2.3985
3.4952 2.4530 2.3985
3.4033 2.5767 2.3985
3.3070 2.6971 2.3985
3.2066 2.8139 2.3985
3.1022 2.9272 2.3985
2.9939 3.0367 2.3985
2.8819 3.1423 2.3985
2.7662 3.2439 2.3985
2.6470 3.3414 2.3985
2.5244 3.4346 2.3985
2.3987 3.5234 2.3985
0.9120 1.4495 0.9637
0.8591 1.4817 0.9637
0.8052 1.5119 0.9638
0.7501 1.5402 0.9638
0.6941 1.5664 0.9637
0.6372 1.5907 0.9637
0.5794 1.6129 0.9636
0.5209 1.6330 0.9635
0.4616 1.6509 0.9633
0.4018 1.6667 0.9632
0.3414 1.6804 0.9630
0.2806 1.6919 0.9628
0.2194 1.7012 0.9625
0.1579 1.7082 0.9622
0.0962 1.7131 0.9619
0.0343 1.7157 0.9616
-0.0276 1.7161 0.9612
-0.0895 1.7143 0.9608
-0.1513 1.7102 0.9604
-0.2129 1.7039 0.9600
-0.2742 1.6954 0.9595
-0.3352 1.6847 0.9590
-0.3958 1.6718 0.9585
-0.4558 1.6567 0.9580
-0.5153 1.6395 0.9574
-0.5741 1.6201 0.9568
-0.6322 1.5987 0.9562
-0.6895 1.5751 0.9556
-0.7459 1.5495 0.9550
-0.8013 1.5219 0.9543
-0.8557 1.4923 0.9537
-0.9089 1.4608 0.9530
-2.4205 3.5951 2.3985
-2.5506 3.5089 2.3985
-2.6775 3.4180 2.3985
-2.8013 3.3227 2.3985
-2.9216 3.2229 2.3985
-3.0384 3.1188 2.3985
-3.1515 3.0105 2.3985
-3.2607 2.8981 2.3985
-3.3659 2.7819 2.3985
-3.4670 2.6618 2.3985
-3.5638 2.5381 2.3985
-3.6561 2.4110 2.3985
-3.7439 2.2805 2.3985
-3.8271 2.1468 2.3985
-3.9054 2.0102 2.3985
-3.9788 1.8707 2.3985
-4.0472 1.7285 2.3985
-4.1105 1.5839 2.3985
-4.1686 1.4370 2.3985
-4.2213 1.2880 2.3985
-4.2687 1.1370 2.3985
-4.3107 0.9844 2.3985
-4.3471 0.8302 2.3985
-4.3780 0.6747 2.3985
-4.4032 0.5180 2.3985
-4.4228 0.3605 2.3985
-4.4366 0.2022 2.3985
-4.4447 0.0435 2.3985
-4.4470 -0.1156 2.3985
-4.4436 -0.2747 2.3985
-4.4344 -0.4337 2.3985
-4.4194 -0.5923 2.3985
-4.3986 -0.7504 2.3985
-4.3720 -0.9077 2.3985
-4.3398 -1.0640 2.3985
-4.3018 -1.2191 2.3985
-4.2582 -1.3728 2.3985
-4.2090 -1.5249 2.3985
-4.1542 -1.6752 2.3985
-4.0940 -1.8234 2.3985
-4.0284 -1.9693 2.3985
-3.9574 -2.1129 2.3985
-3.8813 -2.2538 2.3985
-3.8000 -2.3918 2.3985
-3.7137 -2.5269 2.3985
-3.6224 -2.6587 2.3985
-3.5264 -2.7871 2.3985
-3.4257 -2.9120 2.3985
-3.3205 -3.0331 2.3985
-3.2110 -3.1503 2.3985
-3.0971 -3.2634 2.3985
-2.9792 -3.3723 2.3985
-2.8574 -3.4768 2.3985
-2.7318 -3.5768 2.3985
-2.6026 -3.6721 2.3985
-2.4700 -3.7626 2.3985
-2.3342 -3.8482 2.3985
-2.1954 -3.9287 2.3985
-2.0537 -4.0041 2.3985
-1.9093 -4.0743 2.3985
-1.7625 -4.1391 2.3985
-1.6134 -4.1985 2.3985
-1.4623 -4.2524 2.3985
-1.3093 -4.3007 2.3985
-1.1547 -4.3433 2.3985
-0.9987 -4.3803 2.3985
-0.8415 -4.4115 2.3985
-0.6833 -4.4369 2.3985
-0.5243 -4.4565 2.3985
-0.3648 -4.4703 2.3985
-0.2049 -4.4783 2.3985
-0.0449 -4.4803 2.3985
0.1150 -4.4766 2.3985
0.2746 -4.4670 2.3985
0.4337 -4.4516 2.3985
0.5920 -4.4305 2.3985
0.7494 -4.4036 2.3985
0.9056 -4.3710 2.3985
1.0604 -4.3327 2.3985
1.2137 -4.2889 2.3985
1.3651 -4.2395 2.3985
1.5146 -4.1848 2.3985
1.6619 -4.1246 2.3985
1.8069 -4.0592 2.3985
1.9493 -3.9886 2.3985
2.0889 -3.9130 2.3985
2.2256 -3.8324 2.3985
2.3592 -3.7469 2.3985
2.4896 -3.6568 2.3985
2.6165 -3.5620 2.3985
2.7398 -3.4629 2.3985
2.8594 -3.3593 2.3985
2.9751 -3.2517 2.3985
3.0867 -3.1400 2.3985
3.1942 -3.0244 2.3985
3.2974 -2.9052 2.3985
3.3961 -2.7825 2.3985
3.4903 -2.6565 2.3985
3.5799 -2.5268 2.3985
3.6646 -2.3944 2.3985
3.7445 -2.2591 2.3985
3.8195 -2.1213 2.3985
3.8894 -1.9808 2.3985
3.9542 -1.8380 2.3985
4.0138 -1.6932 2.3985
4.0682 -1.5464 2.3985
4.1173 -1.3979 2.3985
4.1610 -1.2478 2.3985
4.1992 -1.0964 2.3985
4.2321 -0.9439 2.3985
4.2595 -0.7903 2.3985
4.2813 -0.6360 2.3985
4.2977 -0.4812 2.3985
4.3086 -0.3259 2.3985
4.3139 -0.1704 2.3985
4.3137 -0.0150 2.3985
4.3080 0.1403 2.3985
4.2968 0.2951 2.3985
4.2802 0.4494 2.3985
4.2581 0.6028 2.3985
4.2306 0.7554 2.3985
4.1978 0.9067 2.3985
4.1596 1.0568 2.3985
4.1162 1.2053 2.3985
4.0676 1.3521 2.3985
4.0138 1.4971 2.3985
3.9551 1.6400 2.3985
3.8913 1.7806 2.3985
3.8226 1.9189 2.3985
3.7492 2.0547 2.3985
3.6710 2.1877 2.3985
3.5882 2.3177 2.3985
3.5009 2.4449 2.3985
3.4093 2.5689 2.3985
3.3133 2.6895 2.3985
3.2132 2.8066 2.3985
3.1090 2.9201 2.3985
3.0010 3.0298 2.3985
2.8891 3.1357 2.3985
2.7737 3.2375 2.3985
2.6547 3.3353 2.3985
2.5324 3.4287 2.3985
2.4068 3.5179 2.3985
2.2782 3.6025 2.3985
0.8626 1.4797 0.9637
0.8087 1.5100 0.9638
0.7537 1.5384 0.9638
0.6977 1.5648 0.9637
0.6409 1.5892 0.9637
0.5831 1.6115 0.9636
0.5246 1.6317 0.9635
0.4655 1.6498 0.9634
0.4057 1.6658 0.9632
0.3453 1.6796 0.9630
0.2845 1.6912 0.9628
0.2233 1.7006 0.9625
0.1618 1.7078 0.9622
0.1001 1.7128 0.9619
0.0383 1.7156 0.9616
-0.0236 1.7161 0.9612
-0.0855 1.7144 0.9608
-0.1473 1.7105 0.9604
-0.2090 1.7044 0.9600
-0.2703 1.6960 0.9595
-0.3313 1.6854 0.9590
-0.3919 1.6727 0.9585
-0.4520 1.6577 0.9580
-0.5115 1.6406 0.9575
-0.5704 1.6214 0.9569
-0.6285 1.6001 0.9563
-0.6858 1.5767 0.9557
-0.7423 1.5512 0.9550
-0.7978 1.5237 0.9544
-0.8522 1.4943 0.9537
-0.9056 1.4629 0.9530
-2.4121 3.6004 2.3985
-2.5423 3.5145 2.3985
-2.6695 3.4240 2.3985
-2.7934 3.3289 2.3985
-2.9140 3.2294 2.3985
-3.0310 3.1256 2.3985
-3.1444 3.0175 2.3985
-3.2539 2.9054 2.3985
-3.3593 2.7894 2.3985
-3.4607 2.6696 2.3985
-3.5577 2.5462 2.3985
-3.6504 2.4192 2.3985
-3.7385 2.2890 2.3985
-3.8219 2.1555 2.3985
-3.9005 2.0190 2.3985
-3.9742 1.8797 2.3985
-4.0430 1.7377 2.3985
-4.1066 1.5932 2.3985
-4.1650 1.4465 2.3985
-4.2181 1.2976 2.3985
-4.2659 1.1467 2.3985
-4.3082 0.9942 2.3985
-4.3450 0.8401 2.3985
-4.3762 0.6847 2.3985
-4.4018 0.5281 2.3985
-4.4217 0.3706 2.3985
-4.4359 0.2124 2.3985
-4.4444 0.0537 2.3985
-4.4471 -0.1054 2.3985
-4.4440 -0.2645 2.3985
-4.4351 -0.4235 2.3985
-4.4205 -0.5822 2.3985
-4.4001 -0.7403 2.3985
-4.3739 -0.8977 2.3985
-4.3420 -1.0540 2.3985
-4.3044 -1.2092 2.3985
-4.2612 -1.3630 2.3985
-4.2123 -1.5152 2.3985
-4.1579 -1.6656 2.3985
-4.0980 -1.8140 2.3985
-4.0328 -1.9601 2.3985
-3.9621 -2.1038 2.3985
-3.8863 -2.2448 2.3985
-3.8053 -2.3831 2.3985
-3.7193 -2.5183 2.3985
-3.6284 -2.6503 2.3985
-3.5327 -2.7790 2.3985
-3.4323 -2.9041 2.3985
-3.3274 -3.0254 2.3985
-3.2181 -3.1429 2.3985
-3.1045 -3.2563 2.3985
-2.9869 -3.3654 2.3985
-2.8653 -3.4702 2.3985
-2.7399 -3.5705 2.3985
-2.6110 -3.6661 2.3985
-2.4786 -3.7569 2.3985
-2.3430 -3.8428 2.3985
-2.2044 -3.9237 2.3985
-2.0628 -3.9995 2.3985
-1.9186 -4.0700 2.3985
-1.7720 -4.1351 2.3985
-1.6230 -4.1949 2.3985
-1.4720 -4.2491 2.3985
-1.3192 -4.2977 2.3985
-1.1647 -4.3407 2.3985
-1.0088 -4.3781 2.3985
-0.8516 -4.4096 2.3985
-0.6935 -4.4354 2.3985
-0.5345 -4.4554 2.3985
-0.3750 -4.4696 2.3985
-0.2151 -4.4779 2.3985
-0.0551 -4.4804 2.3985
0.1048 -4.4770 2.3985
0.2644 -4.4678 2.3985
0.4235 -4.4528 2.3985
0.5819 -4.4320 2.3985
0.7393 -4.4055 2.3985
0.8956 -4.3732 2.3985
1.0506 -4.3353 2.3985
1.2039 -4.2919 2.3985
1.3555 -4.2429 2.3985
1.5051 -4.1884 2.3985
1.6526 -4.1286 2.3985
1.7977 -4.0636 2.3985
1.9402 -3.9933 2.3985
2.0800 -3.9180 2.3985
2.2170 -3.8377 2.3985
2.3508 -3.7525 2.3985
2.4813 -3.6627 2.3985
2.6085 -3.5682 2.3985
2.7321 -3.4693 2.3985
2.8519 -3.3661 2.3985
2.9678 -3.2587 2.3985
3.0797 -3.1472 2.3985
3.1875 -3.0319 2.3985
3.2909 -2.9129 2.3985
3.3899 -2.7903 2.3985
3.4844 -2.6645 2.3985
3.5743 -2.5352 2.3985
3.6594 -2.4030 2.3985
3.7396 -2.2679 2.3985
3.8149 -2.1301 2.3985
3.8851 -1.9898 2.3985
3.9502 -1.8472 2.3985
4.0102 -1.7025 2.3985
4.0649 -1.5559 2.3985
4.1143 -1.4075 2.3985
4.1583 -1.2575 2.3985
4.1969 -1.1062 2.3985
4.2301 -0.9537 2.3985
4.2579 -0.8002 2.3985
4.2801 -0.6459 2.3985
4.2968 -0.4911 2.3985
4.3080 -0.3358 2.3985
4.3137 -0.1804 2.3985
4.3139 -0.0249 2.3985
4.3086 0.1303 2.3985
4.2977 0.2852 2.3985
4.2814 0.4395 2.3985
4.2597 0.5930 2.3985
4.2325 0.7456 2.3985
4.2000 0.8971 2.3985
4.1622 1.0472 2.3985
4.1191 1.1958 2.3985
4.0708 1.3428 2.3985
4.0174 1.4878 2.3985
3.9590 1.6309 2.3985
3.8955 1.7717 2.3985
3.8272 1.9102 2.3985
3.7540 2.0461 2.3985
3.6761 2.1793 2.3985
3.5937 2.3095 2.3985
3.5067 2.4369 2.3985
3.4153 2.5610 2.3985
3.3196 2.6818 2.3985
3.2197 2.7992 2.3985
3.1158 2.9129 2.3985
3.0080 3.0229 2.3985
2.8964 3.1290 2.3985
2.7812 3.2311 2.3985
2.6624 3.3291 2.3985
2.5403 3.4229 2.3985
2.4149 3.5123 2.3985
2.2865 3.5972 2.3985
0.8660 1.4777 0.9637
0.8121 1.5081 0.9637
0.7572 1.5367 0.9638
0.7013 1.5632 0.9637
0.6445 1.5877 0.9637
0.5869 1.6101 0.9636
0.5284 1.6305 0.9635
0.4693 1.6487 0.9634
0.4095 1.6648 0.9632
0.3492 1.6788 0.9630
0.2884 1.6905 0.9628
0.2272 1.7001 0.9625
0.1658 1.7074 0.9623
0.1041 1.7126 0.9619
0.0422 1.7155 0.9616
-0.0197 1.7162 0.9613
-0.0816 1.7146 0.9609
-0.1434 1.7108 0.9605
-0.2050 1.7048 0.9600
-0.2664 1.6966 0.9596
-0.3274 1.6862 0.9591
-0.3881 1.6735 0.9586
-0.4482 1.6588 0.9580
-0.5077 1.6418 0.9575
-0.5666 1.6227 0.9569
-0.6248 1.6015 0.9563
-0.6822 1.5782 0.9557
-0.7387 1.5529 0.9551
-0.7942 1.5256 0.9544
-0.8488 1.4962 0.9538
-0.9022 1.4650 0.9531
-2.4037 3.6058 2.3985
-2.5341 3.5202 2.3985
-2.6614 3.4299 2.3985
-2.7856 3.3351 2.3985
-2.9064 3.2359 2.3985
-3.0237 3.1323 2.3985
-3.1372 3.0246 2.3985
-3.2470 2.9127 2.3985
-3.3527 2.7970 2.3985
-3.4543 2.6774 2.3985
-3.5517 2.5542 2.3985
-3.6446 2.4275 2.3985
-3.7330 2.2974 2.3985
-3.8167 2.1641 2.3985
-3.8956 2.0278 2.3985
-3.9697 1.8887 2.3985
-4.0387 1.7469 2.3985
-4.1027 1.6026 2.3985
-4.1614 1.4559 2.3985
-4.2149 1.3072 2.3985
-4.2630 1.1565 2.3985
-4.3056 1.0040 2.3985
-4.3428 0.8500 2.3985
-4.3744 0.6946 2.3985
-4.4003 0.5382 2.3985
-4.4206 0.3807 2.3985
-4.4352 0.2225 2.3985
-4.4440 0.0638 2.3985
-4.4471 -0.0952 2.3985
-4.4444 -0.2543 2.3985
-4.4359 -0.4133 2.3985
-4.4216 -0.5720 2.3985
-4.4016 -0.7302 2.3985
-4.3757 -0.8876 2.3985
-4.3442 -1.0441 2.3985
-4.3070 -1.1993 2.3985
-4.2641 -1.3532 2.3985
-4.2156 -1.5055 2.3985
-4.1616 -1.6560 2.3985
-4.1020 -1.8045 2.3985
-4.0371 -1.9508 2.3985
-3.9668 -2.0947 2.3985
-3.8913 -2.2359 2.3985
-3.8107 -2.3743 2.3985
-3.7250 -2.5098 2.3985
-3.6344 -2.6420 2.3985
-3.5390 -2.7709 2.3985
-3.4389 -2.8962 2.3985
-3.3343 -3.0178 2.3985
-3.2252 -3.1355 2.3985
-3.1119 -3.2491 2.3985
-2.9945 -3.3586 2.3985
-2.8732 -3.4636 2.3985
-2.7481 -3.5642 2.3985
-2.6194 -3.6601 2.3985
-2.4872 -3.7513 2.3985
-2.3518 -3.8375 2.3985
-2.2133 -3.9187 2.3985
-2.0720 -3.9948 2.3985
-1.9279 -4.0656 2.3985
-1.7814 -4.1311 2.3985
-1.6326 -4.1912 2.3985
3.4807 -2.2644 2.3985
3.5564 -2.1362 2.3985
3.6273 -2.0052 2.3985
3.6935 -1.8719 2.3985
3.7548 -1.7364 2.3985
3.8112 -1.5989 2.3985
3.8626 -1.4596 2.3985
3.9090 -1.3186 2.3985
3.9503 -1.1762 2.3985
3.9864 -1.0324 2.3985
4.0174 -0.8876 2.3985
4.0432 -0.7419 2.3985
4.0638 -0.5954 2.3985
4.0791 -0.4484 2.3985
4.0892 -0.3010 2.3985
4.0941 -0.1535 2.3985
4.0937 -0.0060 2.3985
4.0881 0.1414 2.3985
4.0772 0.2884 2.3985
4.0612 0.4348 2.3985
4.0400 0.5804 2.3985
4.0137 0.7252 2.3985
3.9823 0.8688 2.3985
3.9459 1.0112 2.3985
3.9044 1.1521 2.3985
3.8581 1.2915 2.3985
3.8068 1.4290 2.3985
3.7508 1.5646 2.3985
3.6900 1.6981 2.3985
3.6246 1.8292 2.3985
3.5546 1.9579 2.3985
3.4802 2.0843 2.3985
3.4013 2.2076 2.3985
3.3182 2.3282 2.3985
3.2310 2.4457 2.3985
3.1396 2.5600 2.3985
3.0443 2.6710 2.3985
2.9452 2.7786 2.3985
2.8424 2.8826 2.3985
2.7360 2.9829 2.3985
2.6261 3.0794 2.3985
2.5129 3.1720 2.3985
2.3965 3.2605 2.3985
2.2771 3.3449 2.3985
0.8647 1.3744 0.9625
0.8146 1.4049 0.9626
0.7634 1.4336 0.9626
0.7112 1.4604 0.9626
0.6581 1.4853 0.9626
0.6041 1.5083 0.9625
0.5493 1.5293 0.9624
0.4937 1.5484 0.9623
0.4376 1.5654 0.9622
0.3808 1.5804 0.9620
0.3235 1.5933 0.9619
0.2658 1.6042 0.9616
0.2078 1.6130 0.9614
0.1494 1.6197 0.9611
0.0909 1.6243 0.9608
0.0322 1.6268 0.9605
-0.0265 1.6272 0.9602
-0.0852 1.6254 0.9598
-0.1438 1.6216 0.9594
-0.2022 1.6156 0.9590
-0.2604 1.6075 0.9586
-0.3182 1.5974 0.9581
-0.3757 1.5851 0.9576
-0.4327 1.5708 0.9571
-0.4891 1.5545 0.9566
-0.5448 1.5361 0.9560
-0.5999 1.5158 0.9555
-0.6542 1.4935 0.9549
-0.7077 1.4692 0.9543
-0.7603 1.4430 0.9537
-0.8119 1.4150 0.9530
-0.8624 1.3851 0.9524
-0.9118 1.3534 0.9517
-2.4213 3.3288 2.3985
-2.5417 3.2425 2.3985
-2.6590 3.1518 2.3985
-2.7731 3.0570 2.3985
-2.8838 2.9581 2.3985
-2.9910 2.8553 2.3985
-3.0945 2.7486 2.3985
-3.1943 2.6382 2.3985
-3.2900 2.5242 2.3985
-3.3817 2.4067 2.3985
-3.4692 2.2860 2.3985
-3.5523 2.1621 2.3985
-3.6310 2.0353 2.3985
-3.7052 1.9056 2.3985
-3.7747 1.7732 2.3985
-3.8394 1.6383 2.3985
-3.8993 1.5011 2.3985
-3.9542 1.3617 2.3985
-4.0041 1.2203 2.3985
-4.0489 1.0771 2.3985
-4.0886 0.9323 2.3985
-4.1230 0.7860 2.3985
-4.1521 0.6386 2.3985
-4.1759 0.4900 2.3985
-4.1943 0.3406 2.3985
-4.2072 0.1906 2.3985
-4.2148 0.0400 2.3985
-4.2169 -0.1107 2.3985
-4.2135 -0.2616 2.3985
-4.2046 -0.4123 2.3985
-4.1902 -0.5627 2.3985
-4.1704 -0.7125 2.3985
-4.1451 -0.8616 2.3985
-4.1144 -1.0098 2.3985
-4.0783 -1.1568 2.3985
-4.0369 -1.3024 2.3985
-3.9902 -1.4465 2.3985
-3.9382 -1.5889 2.3985
-3.8810 -1.7293 2.3985
-3.8187 -1.8676 2.3985
-3.7514 -2.0036 2.3985
-3.6792 -2.1371 2.3985
-3.6021 -2.2679 2.3985
-3.5202 -2.3959 2.3985
-3.4337 -2.5208 2.3985
-3.3427 -2.6424 2.3985
-3.2472 -2.7607 2.3985
-3.1475 -2.8755 2.3985
-3.0436 -2.9865 2.3985
-2.9357 -3.0937 2.3985
-2.8240 -3.1968 2.3985
-2.7085 -3.2959 2.3985
-2.5895 -3.3906 2.3985
-2.4671 -3.4809 2.3985
-2.3414 -3.5667 2.3985
-2.2127 -3.6478 2.3985
-2.0812 -3.7241 2.3985
-1.9469 -3.7956 2.3985
-1.8101 -3.8621 2.3985
-1.6710 -3.9235 2.3985
-1.5297 -3.9798 2.3985
-1.3866 -4.0309 2.3985
-1.2416 -4.0767 2.3985
-1.0951 -4.1172 2.3985
-0.9473 -4.1523 2.3985
-0.7983 -4.1819 2.3985
-0.6484 -4.2061 2.3985
-0.4977 -4.2248 2.3985
-0.3465 -4.2379 2.3985
-0.1950 -4.2455 2.3985
-0.0433 -4.2476 2.3985
0.1082 -4.2441 2.3985
0.2595 -4.2352 2.3985
0.4103 -4.2207 2.3985
0.5604 -4.2007 2.3985
0.7095 -4.1754 2.3985
0.8576 -4.1446 2.3985
1.0044 -4.1084 2.3985
1.1497 -4.0670 2.3985
1.2934 -4.0203 2.3985
1.4351 -3.9685 2.3985
1.5748 -3.9116 2.3985
1.7123 -3.8497 2.3985
1.8474 -3.7830 2.3985
1.9798 -3.7114 2.3985
2.1095 -3.6351 2.3985
2.2363 -3.5542 2.3985
2.3600 -3.4688 2.3985
2.4805 -3.3791 2.3985
