ply
format ascii 1.0
element vertex 2183
property float32 x
property float32 y
property float32 z
end_header
5.6513 -2.2743 2.3747
5.7100 -2.0555 2.3747
5.7626 -1.8361 2.3747
5.8091 -1.6161 2.3747
5.8497 -1.3957 2.3747
5.8844 -1.1749 2.3747
5.9131 -0.9537 2.3747
5.9358 -0.7322 2.3747
5.9527 -0.5106 2.3747
5.9637 -0.2888 2.3747
5.9689 -0.0668 2.3747
5.9681 0.1551 2.3747
5.9615 0.3771 2.3747
5.9490 0.5990 2.3747
5.9306 0.8207 2.3747
5.9063 1.0423 2.3747
5.8761 1.2637 2.3747
5.8399 1.4847 2.3747
5.7978 1.7053 2.3747
5.7496 1.9256 2.3747
5.6953 2.1453 2.3747
5.6350 2.3644 2.3747
5.5685 2.5829 2.3747
5.4958 2.8007 2.3747
5.4169 3.0177 2.3747
5.3317 3.2337 2.3747
5.2400 3.4488 2.3747
5.1420 3.6628 2.3747
5.0375 3.8756 2.3747
4.9263 4.0871 2.3747
4.8085 4.2973 2.3747
4.6840 4.5058 2.3747
4.5526 4.7127 2.3747
4.4144 4.9179 2.3747
4.2692 5.1210 2.3747
4.1168 5.3221 2.3747
3.9574 5.5209 2.3747
3.7906 5.7172 2.3747
3.6165 5.9110 2.3747
3.4350 6.1019 2.3747
3.2460 6.2897 2.3747
3.0493 6.4743 2.3747
2.8450 6.6554 2.3747
2.6329 6.8328 2.3747
2.4129 7.0061 2.3747
2.1850 7.1752 2.3747
1.9492 7.3396 2.3747
0.7372 3.2422 1.0267
0.6210 3.2706 1.0148
0.5038 3.2948 1.0028
0.3859 3.3147 0.9907
0.2672 3.3303 0.9786
0.1481 3.3416 0.9664
0.0286 3.3485 0.9541
-0.0910 3.3511 0.9418
-0.2107 3.3493 0.9295
-0.3302 3.3432 0.9173
-0.4495 3.3328 0.9050
-0.5682 3.3180 0.8928
-0.6864 3.2989 0.8806
-0.8038 3.2755 0.8685
-0.9203 3.2478 0.8565
-2.9120 9.0419 2.3747
-3.2788 9.0670 2.3747
-3.4805 -9.0250 2.3747
-3.1122 -9.0076 2.3747
-2.7499 -8.9777 2.3747
-2.3940 -8.9361 2.3747
-2.0450 -8.8833 2.3747
-1.7029 -8.8197 2.3747
-1.3682 -8.7460 2.3747
-1.0409 -8.6626 2.3747
-0.7213 -8.5701 2.3747
-0.4094 -8.4689 2.3747
-0.1054 -8.3594 2.3747
0.1906 -8.2422 2.3747
0.4786 -8.1177 2.3747
0.7586 -7.9864 2.3747
1.0305 -7.8485 2.3747
1.2943 -7.7044 2.3747
1.5501 -7.5547 2.3747
1.7979 -7.3995 2.3747
2.0376 -7.2393 2.3747
2.2695 -7.0743 2.3747
2.4935 -6.9048 2.3747
2.7096 -6.7312 2.3747
2.9181 -6.5537 2.3747
3.1188 -6.3725 2.3747
3.3120 -6.1879 2.3747
3.4977 -6.0001 2.3747
3.6759 -5.8094 2.3747
3.8469 -5.6158 2.3747
4.0106 -5.4197 2.3747
4.1671 -5.2212 2.3747
4.3166 -5.0205 2.3747
4.4591 -4.8177 2.3747
4.5947 -4.6129 2.3747
4.7234 -4.4064 2.3747
4.8455 -4.1982 2.3747
4.9609 -3.9885 2.3747
5.0697 -3.7774 2.3747
5.1720 -3.5650 2.3747
5.2679 -3.3514 2.3747
5.3574 -3.1368 2.3747
5.4406 -2.9211 2.3747
5.5175 -2.7045 2.3747
5.5883 -2.4871 2.3747
5.6529 -2.2689 2.3747
5.7114 -2.0501 2.3747
5.7638 -1.8306 2.3747
5.8102 -1.6107 2.3747
5.8506 -1.3902 2.3747
5.8851 -1.1694 2.3747
5.9137 -0.9482 2.3747
5.9363 -0.7268 2.3747
5.9531 -0.5051 2.3747
5.9639 -0.2833 2.3747
5.9689 -0.0614 2.3747
5.9681 0.1606 2.3747
5.9613 0.3826 2.3747
5.9486 0.6045 2.3747
5.9301 0.8262 2.3747
5.9057 1.0478 2.3747
5.8753 1.2691 2.3747
5.8389 1.4901 2.3747
5.7966 1.7108 2.3747
5.7483 1.9310 2.3747
5.6939 2.1507 2.3747
5.6334 2.3698 2.3747
5.5668 2.5883 2.3747
5.4939 2.8061 2.3747
5.4149 3.0230 2.3747
5.3295 3.2391 2.3747
5.2377 3.4541 2.3747
5.1395 3.6681 2.3747
5.0348 3.8809 2.3747
4.9235 4.0923 2.3747
4.8055 4.3024 2.3747
4.6808 4.5110 2.3747
4.5493 4.7178 2.3747
4.4109 4.9229 2.3747
4.2655 5.1260 2.3747
4.1130 5.3270 2.3747
3.9533 5.5258 2.3747
3.7864 5.7221 2.3747
3.6121 5.9157 2.3747
3.4304 6.1065 2.3747
3.2412 6.2943 2.3747
3.0444 6.4788 2.3747
2.8398 6.6598 2.3747
2.6275 6.8371 2.3747
2.4074 7.0103 2.3747
2.1793 7.1793 2.3747
1.9432 7.3436 2.3747
0.7344 3.2430 1.0264
0.6181 3.2713 1.0145
0.5009 3.2954 1.0025
0.3829 3.3151 0.9904
0.2643 3.3306 0.9783
0.1451 3.3418 0.9661
0.0257 3.3486 0.9538
-0.0940 3.3511 0.9415
-0.2136 3.3492 0.9292
-0.3332 3.3430 0.9170
-0.4524 3.3325 0.9047
-0.5712 3.3176 0.8925
-0.6893 3.2983 0.8803
-0.8067 3.2748 0.8682
-0.9232 3.2471 0.8562
-2.9210 9.0427 2.3747
-3.2879 9.0675 2.3747
-3.4714 -9.0247 2.3747
-3.1031 -9.0070 2.3747
-2.7410 -8.9769 2.3747
-2.3853 -8.9350 2.3747
-2.0365 -8.8819 2.3747
-1.6946 -8.8180 2.3747
-1.3600 -8.7441 2.3747
-1.0330 -8.6605 2.3747
-0.7135 -8.5677 2.3747
-0.4018 -8.4662 2.3747
-0.0980 -8.3566 2.3747
0.1978 -8.2393 2.3747
0.4856 -8.1146 2.3747
0.7654 -7.9830 2.3747
1.0371 -7.8450 2.3747
1.3007 -7.7008 2.3747
1.5563 -7.5509 2.3747
1.8039 -7.3956 2.3747
2.0435 -7.2353 2.3747
2.2751 -7.0702 2.3747
2.4989 -6.9006 2.3747
2.7149 -6.7269 2.3747
2.9231 -6.5493 2.3747
3.1237 -6.3680 2.3747
3.3167 -6.1833 2.3747
3.5022 -5.9954 2.3747
3.6803 -5.8046 2.3747
3.8510 -5.6110 2.3747
4.0145 -5.4149 2.3747
4.1709 -5.2163 2.3747
4.3202 -5.0155 2.3747
4.4625 -4.8126 2.3747
4.5979 -4.6079 2.3747
4.7265 -4.4013 2.3747
4.8484 -4.1931 2.3747
4.9636 -3.9833 2.3747
5.0723 -3.7722 2.3747
5.1744 -3.5598 2.3747
5.2702 -3.3462 2.3747
5.3595 -3.1315 2.3747
5.4425 -2.9158 2.3747
5.5193 -2.6991 2.3747
5.5900 -2.4817 2.3747
5.6544 -2.2635 2.3747
5.7127 -2.0447 2.3747
5.7650 -1.8252 2.3747
5.8113 -1.6052 2.3747
0.6757 -7.3800 2.3747
0.9282 -7.2596 2.3747
1.1736 -7.1330 2.3747
1.4119 -7.0007 2.3747
1.6432 -6.8629 2.3747
1.8674 -6.7200 2.3747
2.0845 -6.5723 2.3747
2.2946 -6.4200 2.3747
2.4977 -6.2634 2.3747
2.6938 -6.1028 2.3747
2.8829 -5.9383 2.3747
3.0652 -5.7703 2.3747
3.2406 -5.5990 2.3747
3.4093 -5.4245 2.3747
3.5712 -5.2471 2.3747
3.7264 -5.0670 2.3747
3.8750 -4.8842 2.3747
4.0171 -4.6991 2.3747
4.1526 -4.5117 2.3747
4.2817 -4.3222 2.3747
4.4045 -4.1308 2.3747
4.5209 -3.9376 2.3747
4.6311 -3.7427 2.3747
4.7351 -3.5462 2.3747
4.8330 -3.3483 2.3747
4.9248 -3.1490 2.3747
5.0105 -2.9485 2.3747
5.0902 -2.7469 2.3747
5.1640 -2.5443 2.3747
5.2319 -2.3408 2.3747
5.2940 -2.1364 2.3747
5.3502 -1.9312 2.3747
5.4006 -1.7253 2.3747
5.4452 -1.5189 2.3747
5.4842 -1.3119 2.3747
5.5174 -1.1044 2.3747
5.5449 -0.8966 2.3747
5.5668 -0.6884 2.3747
5.5830 -0.4800 2.3747
5.5935 -0.2715 2.3747
5.5984 -0.0628 2.3747
5.5977 0.1460 2.3747
5.5913 0.3547 2.3747
5.5793 0.5633 2.3747
5.5616 0.7718 2.3747
5.5382 0.9800 2.3747
5.5091 1.1880 2.3747
5.4744 1.3956 2.3747
5.4339 1.6027 2.3747
5.3876 1.8094 2.3747
5.3356 2.0155 2.3747
5.2777 2.2209 2.3747
5.2139 2.4255 2.3747
5.1443 2.6293 2.3747
5.0687 2.8322 2.3747
4.9871 3.0341 2.3747
4.8995 3.2348 2.3747
4.8058 3.4343 2.3747
4.7060 3.6325 2.3747
4.5999 3.8293 2.3747
4.4876 4.0244 2.3747
4.3689 4.2179 2.3747
4.2439 4.4096 2.3747
4.1124 4.5992 2.3747
3.9745 4.7868 2.3747
3.8299 4.9721 2.3747
3.6787 5.1549 2.3747
3.5208 5.3352 2.3747
3.3562 5.5126 2.3747
3.1848 5.6870 2.3747
3.0064 5.8582 2.3747
2.8212 6.0260 2.3747
2.6289 6.1902 2.3747
2.4297 6.3505 2.3747
2.2234 6.5066 2.3747
2.0100 6.6583 2.3747
0.7763 2.9525 1.0303
0.6704 2.9825 1.0194
0.5635 3.0086 1.0085
0.4557 3.0308 0.9975
0.3472 3.0491 0.9864
0.2381 3.0634 0.9752
0.1285 3.0738 0.9639
0.0186 3.0801 0.9527
-0.0915 3.0825 0.9414
-0.2015 3.0808 0.9301
-0.3115 3.0752 0.9188
-0.4212 3.0656 0.9075
-0.5304 3.0520 0.8963
-0.6391 3.0344 0.8851
-0.7471 3.0129 0.8740
-0.8543 2.9875 0.8629
-0.9604 2.9581 0.8520
-3.0080 8.2579 2.3747
-3.3435 8.2587 2.3747
-3.6831 8.2474 2.3747
-4.0264 8.2234 2.3747
-4.3727 8.1862 2.3747
-4.7215 8.1355 2.3747
-5.0723 8.0708 2.3747
-5.4242 7.9917 2.3747
-5.6071 -7.8982 2.3747
-5.2562 -7.9852 2.3747
-4.9060 -8.0577 2.3747
-4.5575 -8.1161 2.3747
-4.2111 -8.1608 2.3747
-3.8676 -8.1923 2.3747
-3.5274 -8.2109 2.3747
-3.1909 -8.2171 2.3747
-2.8588 -8.2115 2.3747
-2.5313 -8.1944 2.3747
-2.2089 -8.1663 2.3747
-1.8919 -8.1276 2.3747
-1.5805 -8.0788 2.3747
-1.2750 -8.0204 2.3747
-0.9757 -7.9528 2.3747
-0.6827 -7.8764 2.3747
-0.3963 -7.7917 2.3747
-0.1165 -7.6990 2.3747
0.1566 -7.5987 2.3747
0.4228 -7.4913 2.3747
0.6820 -7.3771 2.3747
0.9343 -7.2565 2.3747
1.1795 -7.1298 2.3747
1.4177 -6.9973 2.3747
1.6488 -6.8594 2.3747
1.8728 -6.7164 2.3747
2.0898 -6.5686 2.3747
2.2997 -6.4162 2.3747
2.5026 -6.2595 2.3747
2.6985 -6.0987 2.3747
2.8875 -5.9342 2.3747
3.0696 -5.7662 2.3747
3.2449 -5.5947 2.3747
3.4134 -5.4202 2.3747
3.5751 -5.2427 2.3747
3.7301 -5.0625 2.3747
3.8786 -4.8797 2.3747
4.0205 -4.6945 2.3747
4.1559 -4.5071 2.3747
4.2848 -4.3175 2.3747
4.4075 -4.1261 2.3747
4.5237 -3.9328 2.3747
4.6338 -3.7378 2.3747
4.7376 -3.5413 2.3747
4.8353 -3.3434 2.3747
4.9269 -3.1441 2.3747
5.0125 -2.9436 2.3747
5.0921 -2.7420 2.3747
5.1658 -2.5393 2.3747
5.2335 -2.3357 2.3747
5.2954 -2.1313 2.3747
5.3515 -1.9261 2.3747
5.4017 -1.7202 2.3747
5.4463 -1.5137 2.3747
5.4850 -1.3067 2.3747
5.5181 -1.0993 2.3747
5.5455 -0.8914 2.3747
5.5672 -0.6833 2.3747
5.5833 -0.4749 2.3747
5.5937 -0.2663 2.3747
5.5985 -0.0576 2.3747
5.5976 0.1511 2.3747
5.5911 0.3598 2.3747
5.5789 0.5685 2.3747
5.5611 0.7769 2.3747
5.5376 0.9852 2.3747
5.5083 1.1931 2.3747
5.4734 1.4007 2.3747
5.4328 1.6079 2.3747
5.3864 1.8145 2.3747
5.3342 2.0205 2.3747
5.2762 2.2259 2.3747
5.2123 2.4305 2.3747
5.1425 2.6343 2.3747
5.0668 2.8372 2.3747
4.9850 3.0390 2.3747
4.8973 3.2397 2.3747
4.8034 3.4392 2.3747
4.7034 3.6374 2.3747
4.5972 3.8341 2.3747
4.4847 4.0292 2.3747
4.3659 4.2227 2.3747
4.2407 4.4143 2.3747
4.1091 4.6039 2.3747
3.9710 4.7914 2.3747
3.8263 4.9766 2.3747
3.6749 5.1594 2.3747
3.5169 5.3396 2.3747
3.3521 5.5169 2.3747
3.1804 5.6913 2.3747
3.0020 5.8624 2.3747
2.8165 6.0301 2.3747
2.6241 6.1942 2.3747
2.4247 6.3544 2.3747
2.2182 6.5104 2.3747
2.0046 6.6620 2.3747
0.7737 2.9533 1.0300
0.6678 2.9832 1.0192
0.5609 3.0092 1.0082
0.4531 3.0313 0.9972
0.3445 3.0495 0.9861
0.2354 3.0637 0.9749
0.1258 3.0740 0.9637
0.0159 3.0802 0.9524
-0.0942 3.0825 0.9411
-0.2043 3.0808 0.9298
-0.3142 3.0750 0.9185
-0.4239 3.0653 0.9072
-0.5331 3.0516 0.8960
-0.6418 3.0339 0.8848
-0.7498 3.0123 0.8737
-0.8569 2.9868 0.8626
-0.9630 2.9574 0.8517
-3.0162 8.2581 2.3747
-3.3519 8.2587 2.3747
-3.6916 8.2470 2.3747
-4.0349 8.2226 2.3747
-4.3813 8.1851 2.3747
-4.7302 8.1341 2.3747
-5.0809 8.0690 2.3747
-5.4329 7.9896 2.3747
-5.5985 -7.9005 2.3747
-5.2475 -7.9871 2.3747
-4.8974 -8.0593 2.3747
-4.5489 -8.1173 2.3747
-4.2026 -8.1617 2.3747
-3.8592 -8.1929 2.3747
-3.5190 -8.2112 2.3747
-3.1827 -8.2172 2.3747
-2.8507 -8.2112 2.3747
-2.5233 -8.1938 2.3747
-2.2010 -8.1654 2.3747
-1.8841 -8.1265 2.3747
-1.5729 -8.0775 2.3747
-1.2676 -8.0189 2.3747
-0.9684 -7.9510 2.3747
-0.6756 -7.8744 2.3747
-0.3893 -7.7895 2.3747
-0.1096 -7.6966 2.3747
0.1633 -7.5962 2.3747
0.4293 -7.4886 2.3747
0.6884 -7.3742 2.3747
0.9404 -7.2534 2.3747
1.1855 -7.1266 2.3747
1.4235 -6.9940 2.3747
1.6544 -6.8560 2.3747
1.8783 -6.7128 2.3747
2.0950 -6.5649 2.3747
2.3048 -6.4123 2.3747
2.5075 -6.2556 2.3747
2.7033 -6.0947 2.3747
2.8921 -5.9301 2.3747
3.0740 -5.7620 2.3747
3.2491 -5.5905 2.3747
3.4174 -5.4159 2.3747
3.5790 -5.2383 2.3747
3.7339 -5.0580 2.3747
3.8822 -4.8751 2.3747
4.0239 -4.6899 2.3747
4.1591 -4.5024 2.3747
4.2880 -4.3128 2.3747
4.4104 -4.1213 2.3747
4.5265 -3.9280 2.3747
4.6364 -3.7330 2.3747
4.7401 -3.5364 2.3747
4.8377 -3.3385 2.3747
4.9291 -3.1391 2.3747
5.0146 -2.9386 2.3747
5.0940 -2.7370 2.3747
5.1675 -2.5343 2.3747
5.2351 -2.3307 2.3747
5.2968 -2.1262 2.3747
5.3528 -1.9210 2.3747
5.4029 -1.7151 2.3747
5.4473 -1.5086 2.3747
0.6096 -6.8500 2.3747
0.8448 -6.7437 2.3747
1.0738 -6.6313 2.3747
1.2966 -6.5133 2.3747
1.5131 -6.3899 2.3747
1.7232 -6.2613 2.3747
1.9271 -6.1280 2.3747
2.1245 -5.9900 2.3747
2.3157 -5.8477 2.3747
2.5006 -5.7014 2.3747
2.6791 -5.5511 2.3747
2.8513 -5.3973 2.3747
3.0172 -5.2400 2.3747
3.1769 -5.0794 2.3747
3.3303 -4.9159 2.3747
3.4776 -4.7495 2.3747
3.6188 -4.5804 2.3747
3.7538 -4.4088 2.3747
3.8828 -4.2348 2.3747
4.0058 -4.0586 2.3747
4.1228 -3.8804 2.3747
4.2339 -3.7003 2.3747
4.3390 -3.5184 2.3747
4.4384 -3.3348 2.3747
4.5319 -3.1496 2.3747
4.6197 -2.9631 2.3747
4.7017 -2.7752 2.3747
4.7780 -2.5861 2.3747
4.8487 -2.3959 2.3747
4.9138 -2.2047 2.3747
4.9732 -2.0126 2.3747
5.0272 -1.8196 2.3747
5.0755 -1.6259 2.3747
5.1184 -1.4315 2.3747
5.1557 -1.2366 2.3747
5.1876 -1.0411 2.3747
5.2140 -0.8452 2.3747
5.2350 -0.6490 2.3747
5.2505 -0.4526 2.3747
5.2606 -0.2559 2.3747
5.2653 -0.0591 2.3747
5.2646 0.1377 2.3747
5.2584 0.3345 2.3747
5.2468 0.5313 2.3747
5.2298 0.7278 2.3747
5.2073 0.9241 2.3747
5.1794 1.1200 2.3747
5.1460 1.3155 2.3747
5.1071 1.5106 2.3747
5.0626 1.7051 2.3747
5.0127 1.8989 2.3747
4.9572 2.0921 2.3747
4.8960 2.2843 2.3747
4.8293 2.4757 2.3747
4.7568 2.6661 2.3747
4.6787 2.8553 2.3747
4.5949 3.0433 2.3747
4.5052 3.2300 2.3747
4.4098 3.4153 2.3747
4.3085 3.5990 2.3747
4.2012 3.7810 2.3747
4.0881 3.9613 2.3747
3.9690 4.1396 2.3747
3.8438 4.3157 2.3747
3.7125 4.4897 2.3747
3.5751 4.6613 2.3747
3.4316 4.8303 2.3747
3.2818 4.9966 2.3747
3.1258 5.1600 2.3747
2.9635 5.3203 2.3747
2.7949 5.4772 2.3747
2.6200 5.6307 2.3747
2.4387 5.7805 2.3747
2.2510 5.9263 2.3747
2.0569 6.0680 2.3747
0.8076 2.6995 1.0331
0.7108 2.7307 1.0232
0.6128 2.7584 1.0132
0.5139 2.7825 1.0031
0.4142 2.8031 0.9929
0.3138 2.8200 0.9826
0.2129 2.8332 0.9722
0.1116 2.8427 0.9619
0.0099 2.8486 0.9514
-0.0918 2.8508 0.9410
-0.1936 2.8493 0.9305
-0.2953 2.8440 0.9201
-0.3968 2.8351 0.9097
-0.4978 2.8225 0.8993
-0.5983 2.8063 0.8889
-0.6982 2.7864 0.8786
-0.7973 2.7629 0.8684
-0.8955 2.7358 0.8583
-0.9926 2.7051 0.8483
-3.0833 7.5655 2.3747
-3.3911 7.5470 2.3747
-3.7014 7.5168 2.3747
-4.0138 7.4746 2.3747
-4.3278 7.4201 2.3747
-4.6428 7.3530 2.3747
-4.9582 7.2728 2.3747
-5.2734 7.1795 2.3747
-5.5876 7.0726 2.3747
-5.9002 6.9521 2.3747
-6.2105 6.8177 2.3747
-6.5175 6.6692 2.3747
-6.8204 6.5066 2.3747
-7.1186 6.3298 2.3747
-7.4110 6.1389 2.3747
-7.5547 -5.9949 2.3747
-7.2663 -6.1928 2.3747
-6.9718 -6.3766 2.3747
-6.6720 -6.5463 2.3747
-6.3678 -6.7019 2.3747
-6.0601 -6.8435 2.3747
-5.7497 -6.9712 2.3747
-5.4372 -7.0852 2.3747
-5.1235 -7.1857 2.3747
-4.8092 -7.2729 2.3747
-4.4951 -7.3471 2.3747
-4.1816 -7.4085 2.3747
-3.8694 -7.4575 2.3747
-3.5591 -7.4944 2.3747
-3.2511 -7.5196 2.3747
-2.9458 -7.5334 2.3747
-2.6439 -7.5362 2.3747
-2.3455 -7.5283 2.3747
-2.0512 -7.5102 2.3747
-1.7611 -7.4822 2.3747
-1.4757 -7.4447 2.3747
-1.1951 -7.3981 2.3747
-0.9197 -7.3427 2.3747
-0.6495 -7.2790 2.3747
-0.3849 -7.2073 2.3747
-0.1260 -7.1279 2.3747
0.1271 -7.0413 2.3747
0.3744 -6.9477 2.3747
0.6155 -6.8475 2.3747
0.8506 -6.7410 2.3747
1.0794 -6.6285 2.3747
1.3020 -6.5103 2.3747
1.5183 -6.3868 2.3747
1.7283 -6.2581 2.3747
1.9320 -6.1246 2.3747
2.1294 -5.9865 2.3747
2.3204 -5.8442 2.3747
2.5050 -5.6977 2.3747
2.6834 -5.5474 2.3747
2.8554 -5.3934 2.3747
3.0212 -5.2360 2.3747
3.1807 -5.0754 2.3747
3.3341 -4.9118 2.3747
3.4812 -4.7453 2.3747
3.6222 -4.5762 2.3747
3.7571 -4.4045 2.3747
3.8859 -4.2305 2.3747
4.0088 -4.0543 2.3747
4.1256 -3.8760 2.3747
4.2365 -3.6958 2.3747
4.3416 -3.5138 2.3747
4.4408 -3.3302 2.3747
4.5341 -3.1450 2.3747
4.6218 -2.9585 2.3747
4.7037 -2.7705 2.3747
4.7799 -2.5814 2.3747
4.8504 -2.3912 2.3747
4.9153 -2.2000 2.3747
4.9746 -2.0078 2.3747
5.0284 -1.8149 2.3747
5.0766 -1.6211 2.3747
5.1193 -1.4267 2.3747
5.1566 -1.2317 2.3747
5.1883 -1.0363 2.3747
5.2146 -0.8404 2.3747
5.2354 -0.6442 2.3747
5.2508 -0.4477 2.3747
5.2608 -0.2510 2.3747
5.2654 -0.0542 2.3747
5.2645 0.1426 2.3747
5.2582 0.3394 2.3747
5.2465 0.5361 2.3747
5.2293 0.7326 2.3747
5.2067 0.9289 2.3747
5.1786 1.1248 2.3747
5.1451 1.3204 2.3747
5.1060 1.5154 2.3747
5.0615 1.7099 2.3747
5.0114 1.9037 2.3747
4.9557 2.0968 2.3747
4.8944 2.2891 2.3747
4.8275 2.4804 2.3747
4.7550 2.6707 2.3747
4.6767 2.8599 2.3747
4.5927 3.0479 2.3747
4.5029 3.2346 2.3747
4.4073 3.4198 2.3747
4.3059 3.6035 2.3747
4.1985 3.7855 2.3747
4.0852 3.9657 2.3747
3.9659 4.1439 2.3747
3.8406 4.3201 2.3747
3.7092 4.4940 2.3747
3.5716 4.6655 2.3747
3.4279 4.8344 2.3747
3.2780 5.0007 2.3747
3.1219 5.1640 2.3747
2.9595 5.3242 2.3747
2.7907 5.4811 2.3747
2.6156 5.6345 2.3747
2.4341 5.7841 2.3747
2.2463 5.9299 2.3747
2.0521 6.0714 2.3747
0.8053 2.7003 1.0329
0.7084 2.7315 1.0230
0.6104 2.7591 1.0129
0.5115 2.7831 1.0028
0.4117 2.8035 0.9926
0.3114 2.8203 0.9823
0.2104 2.8335 0.9720
0.1091 2.8429 0.9616
0.0074 2.8487 0.9512
-0.0944 2.8508 0.9407
-0.1962 2.8492 0.9303
-0.2978 2.8439 0.9198
-0.3993 2.8349 0.9094
-0.5003 2.8222 0.8990
-0.6008 2.8058 0.8887
-0.7006 2.7858 0.8784
-0.7997 2.7622 0.8682
-0.8979 2.7351 0.8581
-0.9950 2.7043 0.8480
-3.0910 7.5652 2.3747
-3.3988 7.5465 2.3747
-3.7091 7.5159 2.3747
-4.0216 7.4734 2.3747
-4.3356 7.4186 2.3747
-4.6506 7.3511 2.3747
-4.9660 7.2707 2.3747
-5.2812 7.1770 2.3747
-5.5954 7.0698 2.3747
-5.9079 6.9489 2.3747
-6.2181 6.8142 2.3747
-6.5250 6.6653 2.3747
-6.8279 6.5024 2.3747
-7.1259 6.3253 2.3747
-7.4181 6.1340 2.3747
-7.5476 -6.0000 2.3747
-7.2591 -6.1975 2.3747
-6.9644 -6.3809 2.3747
-6.6645 -6.5503 2.3747
-6.3603 -6.7056 2.3747
-6.0525 -6.8468 2.3747
-5.7420 -6.9742 2.3747
-5.4295 -7.0879 2.3747
-5.1158 -7.1880 2.3747
-4.8015 -7.2749 2.3747
-4.4873 -7.3487 2.3747
-4.1739 -7.4099 2.3747
-3.8617 -7.4586 2.3747
-3.5514 -7.4952 2.3747
-3.2435 -7.5201 2.3747
-2.9383 -7.5336 2.3747
-2.6365 -7.5361 2.3747
-2.3382 -7.5280 2.3747
-2.0439 -7.5096 2.3747
-1.7540 -7.4814 2.3747
-1.4687 -7.4436 2.3747
-1.1883 -7.3968 2.3747
-0.9129 -7.3413 2.3747
-0.6429 -7.2773 2.3747
-0.3785 -7.2054 2.3747
-0.1197 -7.1259 2.3747
0.1333 -7.0391 2.3747
0.3804 -6.9453 2.3747
0.6214 -6.8449 2.3747
0.8563 -6.7383 2.3747
1.0850 -6.6256 2.3747
1.3074 -6.5073 2.3747
1.5236 -6.3836 2.3747
1.7334 -6.2549 2.3747
1.9370 -6.1213 2.3747
2.1341 -5.9831 2.3747
2.3250 -5.8406 2.3747
2.5095 -5.6940 2.3747
2.6877 -5.5436 2.3747
2.8596 -5.3896 2.3747
3.0252 -5.2321 2.3747
3.1846 -5.0714 2.3747
3.3378 -4.9077 2.3747
3.4848 -4.7412 2.3747
3.6256 -4.5720 2.3747
3.7603 -4.4002 2.3747
3.8890 -4.2262 2.3747
4.0117 -4.0499 2.3747
4.1284 -3.8716 2.3747
4.2392 -3.6913 2.3747
4.3441 -3.5093 2.3747
4.4431 -3.3257 2.3747
4.5364 -3.1405 2.3747
4.6238 -2.9538 2.3747
4.7056 -2.7659 2.3747
4.7816 -2.5767 2.3747
4.8521 -2.3865 2.3747
4.9168 -2.1952 2.3747
4.9760 -2.0031 2.3747
5.0296 -1.8100 2.3747
5.0777 -1.6163 2.3747
5.1203 -1.4219 2.3747
0.5516 -6.3846 2.3747
0.7715 -6.2899 2.3747
0.9860 -6.1894 2.3747
1.1949 -6.0834 2.3747
1.3981 -5.9720 2.3747
1.5958 -5.8556 2.3747
1.7876 -5.7344 2.3747
1.9738 -5.6087 2.3747
2.1542 -5.4786 2.3747
2.3287 -5.3445 2.3747
2.4976 -5.2065 2.3747
2.6606 -5.0648 2.3747
2.8179 -4.9197 2.3747
2.9694 -4.7713 2.3747
3.1151 -4.6198 2.3747
3.2551 -4.4654 2.3747
3.3893 -4.3083 2.3747
3.5179 -4.1486 2.3747
3.6408 -3.9864 2.3747
3.7581 -3.8220 2.3747
3.8697 -3.6555 2.3747
3.9758 -3.4870 2.3747
4.0763 -3.3166 2.3747
4.1713 -3.1445 2.3747
4.2607 -2.9707 2.3747
4.3447 -2.7955 2.3747
4.4233 -2.6189 2.3747
4.4964 -2.4410 2.3747
4.5642 -2.2620 2.3747
4.6265 -2.0818 2.3747
4.6836 -1.9008 2.3747
4.7353 -1.7188 2.3747
4.7817 -1.5360 2.3747
4.8228 -1.3525 2.3747
4.8587 -1.1685 2.3747
4.8893 -0.9839 2.3747
4.9147 -0.7988 2.3747
4.9348 -0.6134 2.3747
4.9497 -0.4277 2.3747
4.9594 -0.2418 2.3747
4.9639 -0.0558 2.3747
4.9632 0.1303 2.3747
4.9573 0.3163 2.3747
4.9461 0.5023 2.3747
4.9297 0.6880 2.3747
4.9081 0.8734 2.3747
4.8812 1.0585 2.3747
4.8491 1.2432 2.3747
4.8117 1.4273 2.3747
4.7690 1.6109 2.3747
4.7210 1.7937 2.3747
4.6677 1.9757 2.3747
4.6091 2.1569 2.3747
4.5450 2.3371 2.3747
4.4756 2.5162 2.3747
4.4007 2.6942 2.3747
4.3204 2.8708 2.3747
4.2346 3.0461 2.3747
4.1433 3.2199 2.3747
4.0464 3.3920 2.3747
3.9440 3.5624 2.3747
3.8360 3.7309 2.3747
3.7223 3.8973 2.3747
3.6029 4.0616 2.3747
3.4779 4.2236 2.3747
3.3471 4.3832 2.3747
3.2106 4.5401 2.3747
3.0683 4.6942 2.3747
2.9202 4.8454 2.3747
2.7664 4.9934 2.3747
2.6067 5.1381 2.3747
2.4411 5.2792 2.3747
2.2697 5.4166 2.3747
2.0925 5.5501 2.3747
1.9095 5.6793 2.3747
0.7436 2.5083 1.0262
0.6536 2.5373 1.0170
0.5625 2.5630 1.0077
0.4707 2.5854 0.9983
0.3780 2.6044 0.9889
0.2847 2.6201 0.9793
0.1910 2.6324 0.9697
0.0968 2.6412 0.9600
0.0024 2.6467 0.9504
-0.0922 2.6487 0.9406
-0.1868 2.6473 0.9309
-0.2812 2.6424 0.9212
-0.3755 2.6341 0.9115
-0.4693 2.6224 0.9019
-0.5627 2.6073 0.8923
-0.6555 2.5888 0.8827
-0.7476 2.5670 0.8732
-0.8388 2.5418 0.8638
-0.9291 2.5133 0.8545
-2.8604 6.9715 2.3747
-3.1413 6.9480 2.3747
-3.4240 6.9138 2.3747
-3.7082 6.8686 2.3747
-3.9932 6.8121 2.3747
-4.2786 6.7441 2.3747
-4.5638 6.6643 2.3747
-4.8483 6.5726 2.3747
-5.1314 6.4688 2.3747
-5.4125 6.3526 2.3747
-5.6909 6.2240 2.3747
-5.9660 6.0830 2.3747
-6.2369 5.9294 2.3747
-6.5031 5.7632 2.3747
-6.7637 5.5846 2.3747
-7.0179 5.3935 2.3747
-7.2650 5.1902 2.3747
-7.5042 4.9749 2.3747
-7.7347 4.7477 2.3747
-7.9557 4.5091 2.3747
-8.1664 4.2593 2.3747
-8.3661 3.9989 2.3747
-8.5540 3.7282 2.3747
-8.7295 3.4479 2.3747
-8.8918 3.1586 2.3747
-9.0403 2.8608 2.3747
-9.1744 2.5553 2.3747
-9.2935 2.2429 2.3747
-9.3972 1.9243 2.3747
-9.4850 1.6005 2.3747
-9.5565 1.2722 2.3747
-9.6115 0.9403 2.3747
-9.6497 0.6059 2.3747
-9.6708 0.2698 2.3747
-9.6749 -0.0670 2.3747
-9.6620 -0.4035 2.3747
-9.6320 -0.7389 2.3747
-9.5851 -1.0720 2.3747
-9.5216 -1.4020 2.3747
-9.4417 -1.7280 2.3747
-9.3457 -2.0491 2.3747
-9.2341 -2.3645 2.3747
-9.1073 -2.6733 2.3747
-8.9659 -2.9747 2.3747
-8.8105 -3.2681 2.3747
-8.6416 -3.5527 2.3747
-8.4600 -3.8279 2.3747
-8.2663 -4.0932 2.3747
-8.0613 -4.3481 2.3747
-7.8458 -4.5921 2.3747
-7.6204 -4.8248 2.3747
-7.3860 -5.0459 2.3747
-7.1433 -5.2552 2.3747
-6.8932 -5.4523 2.3747
-6.6364 -5.6371 2.3747
-6.3737 -5.8095 2.3747
-6.1058 -5.9694 2.3747
-5.8335 -6.1169 2.3747
-5.5575 -6.2519 2.3747
-5.2785 -6.3745 2.3747
-4.9973 -6.4848 2.3747
-4.7143 -6.5829 2.3747
-4.4303 -6.6690 2.3747
-4.1459 -6.7434 2.3747
-3.8616 -6.8062 2.3747
-3.5779 -6.8576 2.3747
-3.2954 -6.8980 2.3747
-3.0144 -6.9275 2.3747
-2.7355 -6.9466 2.3747
-2.4591 -6.9555 2.3747
-2.1854 -6.9545 2.3747
-1.9150 -6.9439 2.3747
-1.6480 -6.9240 2.3747
-1.3848 -6.8953 2.3747
-1.1257 -6.8579 2.3747
-0.8709 -6.8122 2.3747
-0.6206 -6.7586 2.3747
-0.3750 -6.6974 2.3747
-0.1343 -6.6288 2.3747
0.1014 -6.5533 2.3747
0.3319 -6.4710 2.3747
0.5571 -6.3823 2.3747
0.7769 -6.2875 2.3747
0.9912 -6.1869 2.3747
1.2000 -6.0807 2.3747
1.4031 -5.9692 2.3747
1.6005 -5.8527 2.3747
1.7923 -5.7314 2.3747
1.9783 -5.6055 2.3747
2.1585 -5.4754 2.3747
2.3330 -5.3412 2.3747
2.5017 -5.2031 2.3747
2.6646 -5.0613 2.3747
2.8217 -4.9161 2.3747
2.9730 -4.7676 2.3747
3.1186 -4.6160 2.3747
3.2585 -4.4616 2.3747
3.3926 -4.3044 2.3747
3.5210 -4.1446 2.3747
3.6438 -3.9824 2.3747
3.7609 -3.8179 2.3747
3.8724 -3.6514 2.3747
3.9783 -3.4828 2.3747
4.0787 -3.3124 2.3747
4.1735 -3.1402 2.3747
4.2629 -2.9664 2.3747
4.3467 -2.7912 2.3747
4.4252 -2.6145 2.3747
4.4982 -2.4366 2.3747
4.5658 -2.2575 2.3747
4.6280 -2.0774 2.3747
4.6849 -1.8963 2.3747
4.7365 -1.7143 2.3747
4.7828 -1.5315 2.3747
4.8238 -1.3480 2.3747
4.8595 -1.1639 2.3747
4.8900 -0.9793 2.3747
4.9152 -0.7942 2.3747
4.9353 -0.6088 2.3747
4.9500 -0.4231 2.3747
4.9596 -0.2372 2.3747
4.9640 -0.0512 2.3747
4.9631 0.1349 2.3747
4.9570 0.3209 2.3747
4.9457 0.5068 2.3747
4.9292 0.6925 2.3747
4.9075 0.8780 2.3747
4.8805 1.0631 2.3747
4.8482 1.2477 2.3747
4.8107 1.4319 2.3747
4.7679 1.6154 2.3747
4.7198 1.7982 2.3747
4.6663 1.9802 2.3747
4.6075 2.1614 2.3747
4.5434 2.3416 2.3747
4.4738 2.5206 2.3747
4.3988 2.6985 2.3747
4.3184 2.8752 2.3747
4.2324 3.0504 2.3747
4.1410 3.2241 2.3747
4.0440 3.3962 2.3747
3.9414 3.5665 2.3747
3.8332 3.7350 2.3747
3.7194 3.9014 2.3747
3.5999 4.0657 2.3747
3.4747 4.2276 2.3747
3.3438 4.3871 2.3747
3.2072 4.5439 2.3747
3.0647 4.6980 2.3747
2.9165 4.8491 2.3747
2.7625 4.9970 2.3747
2.6026 5.1416 2.3747
2.4369 5.2827 2.3747
2.2654 5.4200 2.3747
2.0881 5.5533 2.3747
1.9049 5.6825 2.3747
0.7414 2.5090 1.0260
0.6513 2.5379 1.0168
0.5603 2.5636 1.0075
0.4684 2.5859 0.9981
0.3757 2.6048 0.9886
0.2824 2.6204 0.9791
0.1886 2.6326 0.9695
0.0945 2.6414 0.9598
0.0001 2.6468 0.9501
-0.0945 2.6487 0.9404
-0.1891 2.6472 0.9307
-0.2836 2.6422 0.9210
-0.3778 2.6339 0.9113
-0.4716 2.6221 0.9017
-0.5650 2.6069 0.8920
-0.6578 2.5883 0.8825
-0.7498 2.5664 0.8730
-0.8410 2.5412 0.8636
-0.9313 2.5126 0.8543
-2.8674 6.9710 2.3747
-3.1483 6.9473 2.3747
-3.4311 6.9128 2.3747
-3.7152 6.8673 2.3747
-4.0002 6.8106 2.3747
-4.2856 6.7423 2.3747
-4.5708 6.6622 2.3747
-4.8553 6.5702 2.3747
-5.1383 6.4661 2.3747
-5.4194 6.3496 2.3747
-5.6978 6.2207 2.3747
-5.9727 6.0793 2.3747
-6.2436 5.9254 2.3747
-6.5096 5.7589 2.3747
-6.7701 5.5800 2.3747
-7.0241 5.3886 2.3747
-7.2710 5.1850 2.3747
-7.5100 4.9694 2.3747
-7.7403 4.7419 2.3747
-7.9610 4.5030 2.3747
-8.1714 4.2530 2.3747
-8.3709 3.9923 2.3747
-8.5585 3.7214 2.3747
-8.7337 3.4409 2.3747
-8.8956 3.1513 2.3747
-9.0438 2.8533 2.3747
-9.1775 2.5477 2.3747
-9.2963 2.2351 2.3747
-9.3996 1.9164 2.3747
-9.4870 1.5924 2.3747
-9.5581 1.2640 2.3747
-9.6126 0.9321 2.3747
-9.6504 0.5976 2.3747
-9.6711 0.2615 2.3747
-9.6748 -0.0753 2.3747
-9.6614 -0.4118 2.3747
-9.6310 -0.7471 2.3747
-9.5838 -1.0802 2.3747
-9.5198 -1.4101 2.3747
-9.4395 -1.7360 2.3747
-9.3431 -2.0570 2.3747
-9.2311 -2.3722 2.3747
-9.1040 -2.6808 2.3747
-8.9623 -2.9820 2.3747
-8.8065 -3.2752 2.3747
-8.6373 -3.5596 2.3747
-8.4554 -3.8346 2.3747
-8.2614 -4.0997 2.3747
-8.0562 -4.3543 2.3747
-7.8403 -4.5980 2.3747
-7.6147 -4.8304 2.3747
-7.3801 -5.0513 2.3747
-7.1372 -5.2602 2.3747
-6.8869 -5.4570 2.3747
-6.6299 -5.6415 2.3747
-6.3671 -5.8136 2.3747
-6.0991 -5.9732 2.3747
-5.8267 -6.1204 2.3747
-5.5507 -6.2550 2.3747
-5.2716 -6.3773 2.3747
-4.9903 -6.4873 2.3747
-4.7073 -6.5852 2.3747
-4.4233 -6.6710 2.3747
-4.1389 -6.7451 2.3747
-3.8546 -6.8076 2.3747
-3.5709 -6.8587 2.3747
-3.2884 -6.8988 2.3747
-3.0075 -6.9281 2.3747
-2.7287 -6.9469 2.3747
-2.4523 -6.9556 2.3747
-2.1787 -6.9543 2.3747
-1.9084 -6.9435 2.3747
-1.6415 -6.9234 2.3747
-1.3784 -6.8944 2.3747
-1.1194 -6.8569 2.3747
-0.8647 -6.8110 2.3747
-0.6145 -6.7572 2.3747
-0.3690 -6.6958 2.3747
-0.1284 -6.6271 2.3747
0.1071 -6.5513 2.3747
0.3375 -6.4689 2.3747
0.5626 -6.3800 2.3747
0.7822 -6.2851 2.3747
0.9964 -6.1843 2.3747
1.2050 -6.0780 2.3747
1.4080 -5.9664 2.3747
1.6053 -5.8497 2.3747
1.7970 -5.7283 2.3747
1.9828 -5.6024 2.3747
2.1629 -5.4721 2.3747
2.3372 -5.3378 2.3747
2.5058 -5.1996 2.3747
2.6685 -5.0578 2.3747
2.8255 -4.9125 2.3747
2.9767 -4.7639 2.3747
3.1221 -4.6123 2.3747
3.2618 -4.4577 2.3747
3.3958 -4.3005 2.3747
3.5241 -4.1406 2.3747
3.6468 -3.9784 2.3747
3.7637 -3.8139 2.3747
3.8751 -3.6472 2.3747
3.9809 -3.4786 2.3747
4.0811 -3.3081 2.3747
4.1758 -3.1359 2.3747
4.2650 -2.9621 2.3747
4.3487 -2.7868 2.3747
4.4270 -2.6102 2.3747
4.4999 -2.4322 2.3747
4.5674 -2.2531 2.3747
4.6295 -2.0729 2.3747
4.6863 -1.8918 2.3747
4.7377 -1.7098 2.3747
4.7838 -1.5270 2.3747
4.8247 -1.3435 2.3747
0.5002 -5.9722 2.3747
0.7065 -5.8873 2.3747
0.9079 -5.7969 2.3747
1.1044 -5.7009 2.3747
1.2958 -5.5999 2.3747
1.4821 -5.4938 2.3747
1.6631 -5.3831 2.3747
1.8390 -5.2679 2.3747
2.0096 -5.1484 2.3747
2.1749 -5.0249 2.3747
2.3349 -4.8975 2.3747
2.4895 -4.7665 2.3747
2.6388 -4.6320 2.3747
2.7828 -4.4942 2.3747
2.9214 -4.3534 2.3747
3.0546 -4.2096 2.3747
3.1825 -4.0630 2.3747
3.3051 -3.9138 2.3747
3.4224 -3.7622 2.3747
3.5343 -3.6083 2.3747
3.6409 -3.4521 2.3747
3.7423 -3.2940 2.3747
3.8384 -3.1339 2.3747
3.9293 -2.9721 2.3747
4.0150 -2.8086 2.3747
4.0954 -2.6436 2.3747
4.1707 -2.4771 2.3747
4.2408 -2.3094 2.3747
4.3058 -2.1404 2.3747
4.3657 -1.9703 2.3747
4.4204 -1.7992 2.3747
4.4701 -1.6271 2.3747
4.5146 -1.4543 2.3747
4.5541 -1.2807 2.3747
4.5886 -1.1065 2.3747
4.6180 -0.9318 2.3747
4.6423 -0.7566 2.3747
4.6617 -0.5810 2.3747
4.6760 -0.4051 2.3747
4.6853 -0.2290 2.3747
4.6896 -0.0527 2.3747
4.6889 0.1235 2.3747
4.6832 0.2998 2.3747
4.6724 0.4759 2.3747
4.6566 0.6518 2.3747
4.6358 0.8274 2.3747
4.6100 1.0026 2.3747
4.5791 1.1774 2.3747
4.5432 1.3516 2.3747
4.5021 1.5252 2.3747
4.4560 1.6981 2.3747
4.4048 1.8701 2.3747
4.3485 2.0412 2.3747
4.2870 2.2113 2.3747
4.2204 2.3803 2.3747
4.1486 2.5481 2.3747
4.0716 2.7145 2.3747
3.9894 2.8795 2.3747
3.9020 3.0429 2.3747
3.8093 3.2047 2.3747
3.7114 3.3646 2.3747
3.6081 3.5226 2.3747
3.4995 3.6786 2.3747
3.3856 3.8323 2.3747
3.2663 3.9837 2.3747
3.1417 4.1326 2.3747
3.0117 4.2789 2.3747
2.8763 4.4223 2.3747
2.7355 4.5627 2.3747
2.5893 4.7000 2.3747
2.4378 4.8339 2.3747
2.2808 4.9643 2.3747
2.1185 5.0909 2.3747
1.9508 5.2137 2.3747
0.7701 2.3098 1.0287
0.6871 2.3398 1.0202
0.6032 2.3669 1.0116
0.5183 2.3908 1.0029
0.4325 2.4117 0.9942
0.3461 2.4295 0.9853
0.2591 2.4441 0.9764
0.1716 2.4555 0.9674
0.0838 2.4638 0.9584
-0.0043 2.4688 0.9494
-0.0925 2.4707 0.9404
-0.1807 2.4694 0.9313
-0.2688 2.4648 0.9222
-0.3567 2.4571 0.9132
-0.4443 2.4462 0.9042
-0.5314 2.4321 0.8952
-0.6179 2.4148 0.8863
-0.7038 2.3945 0.8775
-0.7889 2.3710 0.8687
-0.8731 2.3444 0.8600
-0.9563 2.3149 0.8514
-2.9251 6.4294 2.3747
-3.1844 6.3926 2.3747
-3.4445 6.3457 2.3747
-3.7050 6.2884 2.3747
-3.9654 6.2207 2.3747
-4.2253 6.1421 2.3747
-4.4840 6.0527 2.3747
-4.7412 5.9523 2.3747
-4.9960 5.8408 2.3747
-5.2481 5.7181 2.3747
-5.4967 5.5842 2.3747
-5.7413 5.4390 2.3747
-5.9811 5.2827 2.3747
-6.2156 5.1152 2.3747
-6.4441 4.9367 2.3747
-6.6658 4.7473 2.3747
-6.8801 4.5473 2.3747
-7.0864 4.3369 2.3747
-7.2839 4.1164 2.3747
-7.4720 3.8861 2.3747
-7.6501 3.6465 2.3747
-7.8175 3.3979 2.3747
-7.9736 3.1409 2.3747
-8.1180 2.8760 2.3747
-8.2499 2.6038 2.3747
-8.3689 2.3250 2.3747
-8.4746 2.0401 2.3747
-8.5665 1.7498 2.3747
-8.6444 1.4550 2.3747
-8.7077 1.1563 2.3747
-8.7564 0.8546 2.3747
-8.7902 0.5507 2.3747
-8.8090 0.2453 2.3747
-8.8127 -0.0607 2.3747
-8.8013 -0.3665 2.3747
-8.7748 -0.6712 2.3747
-8.7334 -0.9741 2.3747
-8.6772 -1.2743 2.3747
-8.6065 -1.5710 2.3747
-8.5215 -1.8634 2.3747
-8.4226 -2.1509 2.3747
-8.3102 -2.4327 2.3747
-8.1847 -2.7081 2.3747
-8.0466 -2.9765 2.3747
-7.8965 -3.2373 2.3747
-7.7349 -3.4899 2.3747
-7.5623 -3.7338 2.3747
-7.3794 -3.9686 2.3747
-7.1869 -4.1939 2.3747
-6.9853 -4.4093 2.3747
-6.7754 -4.6144 2.3747
-6.5579 -4.8090 2.3747
-6.3333 -4.9929 2.3747
-6.1024 -5.1659 2.3747
-5.8658 -5.3279 2.3747
-5.6242 -5.4788 2.3747
-5.3782 -5.6184 2.3747
-5.1286 -5.7469 2.3747
-4.8758 -5.8643 2.3747
-4.6205 -5.9705 2.3747
-4.3633 -6.0657 2.3747
-4.1047 -6.1501 2.3747
-3.8453 -6.2237 2.3747
-3.5856 -6.2867 2.3747
-3.3261 -6.3393 2.3747
-3.0671 -6.3818 2.3747
-2.8093 -6.4143 2.3747
-2.5529 -6.4371 2.3747
-2.2983 -6.4504 2.3747
-2.0460 -6.4545 2.3747
-1.7961 -6.4496 2.3747
-1.5492 -6.4361 2.3747
-1.3053 -6.4142 2.3747
-1.0649 -6.3841 2.3747
-0.8281 -6.3463 2.3747
-0.5952 -6.3009 2.3747
-0.3663 -6.2482 2.3747
-0.1417 -6.1885 2.3747
0.0786 -6.1221 2.3747
0.2943 -6.0492 2.3747
0.5053 -5.9701 2.3747
0.7115 -5.8852 2.3747
0.9128 -5.7945 2.3747
1.1092 -5.6985 2.3747
1.3004 -5.5973 2.3747
1.4866 -5.4912 2.3747
1.6675 -5.3803 2.3747
1.8433 -5.2650 2.3747
2.0137 -5.1454 2.3747
2.1789 -5.0218 2.3747
2.3388 -4.8943 2.3747
2.4933 -4.7632 2.3747
2.6424 -4.6286 2.3747
2.7863 -4.4908 2.3747
2.9247 -4.3498 2.3747
3.0578 -4.2060 2.3747
3.1856 -4.0593 2.3747
3.3081 -3.9101 2.3747
3.4252 -3.7584 2.3747
3.5370 -3.6044 2.3747
3.6435 -3.4483 2.3747
3.7447 -3.2901 2.3747
3.8407 -3.1300 2.3747
3.9315 -2.9681 2.3747
4.0170 -2.8046 2.3747
4.0974 -2.6395 2.3747
4.1726 -2.4731 2.3747
4.2425 -2.3052 2.3747
4.3073 -2.1362 2.3747
4.3671 -1.9661 2.3747
4.4217 -1.7949 2.3747
4.4712 -1.6229 2.3747
4.5157 -1.4500 2.3747
4.5550 -1.2764 2.3747
4.5894 -1.1022 2.3747
4.6186 -0.9275 2.3747
4.6429 -0.7522 2.3747
4.6621 -0.5766 2.3747
4.6763 -0.4007 2.3747
4.6855 -0.2246 2.3747
4.6897 -0.0484 2.3747
4.6888 0.1279 2.3747
4.6830 0.3041 2.3747
4.6721 0.4802 2.3747
4.6562 0.6561 2.3747
4.6353 0.8317 2.3747
4.6093 1.0069 2.3747
4.5783 1.1817 2.3747
4.5422 1.3559 2.3747
4.5011 1.5295 2.3747
4.4548 1.7023 2.3747
4.4035 1.8743 2.3747
4.3470 2.0454 2.3747
4.2854 2.2155 2.3747
4.2187 2.3845 2.3747
4.1468 2.5522 2.3747
4.0697 2.7186 2.3747
3.9874 2.8835 2.3747
3.8998 3.0469 2.3747
3.8070 3.2086 2.3747
3.7089 3.3685 2.3747
3.6055 3.5265 2.3747
3.4968 3.6824 2.3747
3.3827 3.8361 2.3747
3.2633 3.9874 2.3747
3.1386 4.1363 2.3747
3.0084 4.2824 2.3747
2.8729 4.4258 2.3747
2.7320 4.5661 2.3747
2.5857 4.7033 2.3747
2.4340 4.8372 2.3747
2.2769 4.9675 2.3747
2.1144 5.0940 2.3747
1.9466 5.2166 2.3747
0.7681 2.3106 1.0285
0.6851 2.3405 1.0200
0.6011 2.3675 1.0114
0.5161 2.3914 1.0027
0.4304 2.4122 0.9939
0.3440 2.4299 0.9851
0.2570 2.4444 0.9762
0.1695 2.4558 0.9672
0.0816 2.4639 0.9582
-0.0064 2.4689 0.9492
-0.0947 2.4707 0.9401
-0.1829 2.4693 0.9311
-0.2710 2.4647 0.9220
-0.3589 2.4569 0.9130
-0.4464 2.4459 0.9040
-0.5335 2.4317 0.8950
-0.6201 2.4144 0.8861
-0.7059 2.3939 0.8773
-0.7910 2.3704 0.8685
-0.8752 2.3437 0.8598
-0.9583 2.3141 0.8512
-2.9315 6.4286 2.3747
-3.1908 6.3916 2.3747
-3.4509 6.3444 2.3747
-3.7114 6.2869 2.3747
-3.9718 6.2188 2.3747
-4.2317 6.1401 2.3747
-4.4904 6.0504 2.3747
-4.7475 5.9497 2.3747
-5.0023 5.8379 2.3747
-5.2543 5.7149 2.3747
-5.5028 5.5807 2.3747
-5.7473 5.4353 2.3747
-5.9870 5.2787 2.3747
-6.2213 5.1109 2.3747
-6.4496 4.9321 2.3747
-6.6712 4.7425 2.3747
-6.8853 4.5422 2.3747
-7.0913 4.3316 2.3747
-7.2886 4.1108 2.3747
-7.4765 3.8803 2.3747
-7.6543 3.6404 2.3747
-7.8215 3.3917 2.3747
-7.9774 3.1345 2.3747
-8.1214 2.8694 2.3747
-8.2530 2.5970 2.3747
-8.3717 2.3180 2.3747
-8.4770 2.0330 2.3747
-8.5686 1.7426 2.3747
-8.6461 1.4477 2.3747
-8.7091 1.1489 2.3747
-8.7575 0.8472 2.3747
-8.7909 0.5431 2.3747
-8.8093 0.2377 2.3747
-8.8126 -0.0683 2.3747
-8.8008 -0.3741 2.3747
-8.7740 -0.6787 2.3747
-8.7322 -0.9815 2.3747
-8.6757 -1.2816 2.3747
-8.6046 -1.5782 2.3747
-8.5192 -1.8706 2.3747
-8.4200 -2.1579 2.3747
-8.3073 -2.4395 2.3747
-8.1815 -2.7148 2.3747
-8.0431 -2.9830 2.3747
-7.8926 -3.2436 2.3747
-7.7307 -3.4960 2.3747
-7.5579 -3.7397 2.3747
-7.3748 -3.9743 2.3747
-7.1820 -4.1994 2.3747
-6.9803 -4.4145 2.3747
-6.7701 -4.6193 2.3747
-6.5524 -4.8137 2.3747
-6.3276 -4.9973 2.3747
-6.0966 -5.1701 2.3747
-5.8598 -5.3318 2.3747
-5.6182 -5.4823 2.3747
-5.3721 -5.6217 2.3747
-5.1223 -5.7500 2.3747
-4.8695 -5.8670 2.3747
-4.6142 -5.9730 2.3747
-4.3569 -6.0680 2.3747
-4.0983 -6.1520 2.3747
-3.8389 -6.2254 2.3747
-3.5792 -6.2881 2.3747
-3.3197 -6.3405 2.3747
-3.0608 -6.3827 2.3747
-2.8029 -6.4150 2.3747
-2.5465 -6.4375 2.3747
-2.2920 -6.4506 2.3747
-2.0397 -6.4544 2.3747
-1.7900 -6.4494 2.3747
-1.5431 -6.4357 2.3747
-1.2994 -6.4135 2.3747
-1.0590 -6.3833 2.3747
-0.8223 -6.3452 2.3747
-0.5895 -6.2996 2.3747
-0.3607 -6.2468 2.3747
-0.1362 -6.1869 2.3747
0.0840 -6.1203 2.3747
0.2996 -6.0473 2.3747
0.5104 -5.9681 2.3747
0.7165 -5.8830 2.3747
0.9177 -5.7922 2.3747
1.1140 -5.6961 2.3747
1.3051 -5.5947 2.3747
1.4911 -5.4885 2.3747
1.6719 -5.3775 2.3747
1.8475 -5.2621 2.3747
2.0179 -5.1424 2.3747
2.1829 -5.0187 2.3747
2.3426 -4.8911 2.3747
2.4970 -4.7599 2.3747
2.6461 -4.6253 2.3747
2.7897 -4.4874 2.3747
2.9281 -4.3463 2.3747
3.0611 -4.2024 2.3747
3.1887 -4.0557 2.3747
3.3110 -3.9064 2.3747
3.4280 -3.7546 2.3747
3.5397 -3.6006 2.3747
3.6461 -3.4444 2.3747
3.7472 -3.2861 2.3747
3.8430 -3.1260 2.3747
3.9337 -2.9641 2.3747
4.0191 -2.8005 2.3747
4.0993 -2.6354 2.3747
4.1743 -2.4689 2.3747
4.2442 -2.3010 2.3747
4.3089 -2.1320 2.3747
4.3685 -1.9618 2.3747
4.4230 -1.7907 2.3747
4.4724 -1.6186 2.3747
4.5167 -1.4457 2.3747
4.5559 -1.2722 2.3747
0.4542 -5.6039 2.3747
0.6483 -5.5274 2.3747
0.8381 -5.4454 2.3747
1.0233 -5.3582 2.3747
1.2040 -5.2660 2.3747
1.3800 -5.1689 2.3747
1.5512 -5.0672 2.3747
1.7177 -4.9612 2.3747
1.8794 -4.8509 2.3747
2.0361 -4.7367 2.3747
2.1880 -4.6186 2.3747
2.3350 -4.4970 2.3747
2.4769 -4.3719 2.3747
2.6139 -4.2435 2.3747
2.7459 -4.1121 2.3747
2.8729 -3.9777 2.3747
2.9949 -3.8405 2.3747
3.1119 -3.7008 2.3747
3.2239 -3.5585 2.3747
3.3309 -3.4140 2.3747
3.4329 -3.2672 2.3747
3.5299 -3.1184 2.3747
3.6219 -2.9676 2.3747
3.7089 -2.8151 2.3747
3.7910 -2.6609 2.3747
3.8681 -2.5051 2.3747
3.9403 -2.3478 2.3747
4.0076 -2.1892 2.3747
4.0700 -2.0294 2.3747
4.1274 -1.8684 2.3747
4.1800 -1.7064 2.3747
4.2277 -1.5434 2.3747
4.2705 -1.3796 2.3747
4.3085 -1.2151 2.3747
4.3416 -1.0499 2.3747
4.3698 -0.8841 2.3747
4.3933 -0.7179 2.3747
4.4119 -0.5513 2.3747
4.4256 -0.3844 2.3747
4.4346 -0.2172 2.3747
4.4387 -0.0500 2.3747
4.4380 0.1173 2.3747
4.4324 0.2846 2.3747
4.4221 0.4517 2.3747
4.4069 0.6186 2.3747
4.3869 0.7853 2.3747
4.3620 0.9515 2.3747
4.3323 1.1172 2.3747
4.2977 1.2824 2.3747
4.2583 1.4469 2.3747
4.2139 1.6107 2.3747
4.1647 1.7736 2.3747
4.1106 1.9356 2.3747
4.0516 2.0965 2.3747
3.9877 2.2563 2.3747
3.9188 2.4148 2.3747
3.8449 2.5720 2.3747
3.7661 2.7277 2.3747
3.6823 2.8818 2.3747
3.5936 3.0342 2.3747
3.4998 3.1848 2.3747
3.4010 3.3334 2.3747
3.2972 3.4799 2.3747
3.1883 3.6242 2.3747
3.0744 3.7661 2.3747
2.9555 3.9055 2.3747
2.8315 4.0422 2.3747
2.7025 4.1761 2.3747
2.5685 4.3071 2.3747
2.4294 4.4348 2.3747
2.2853 4.5593 2.3747
2.1363 4.6802 2.3747
1.9822 4.7975 2.3747
0.7912 2.1312 1.0306
0.7147 2.1621 1.0228
0.6370 2.1902 1.0148
0.5584 2.2155 1.0068
0.4789 2.2379 0.9987
0.3987 2.2574 0.9905
0.3178 2.2740 0.9822
0.2364 2.2877 0.9738
0.1545 2.2984 0.9654
0.0723 2.3061 0.9570
-0.0102 2.3109 0.9486
-0.0927 2.3126 0.9401
-0.1753 2.3114 0.9316
-0.2578 2.3071 0.9231
-0.3401 2.2999 0.9147
-0.4220 2.2896 0.9062
-0.5036 2.2764 0.8979
-0.5846 2.2603 0.8895
-0.6649 2.2412 0.8812
-0.7446 2.2193 0.8730
-0.8234 2.1944 0.8649
-0.9012 2.1667 0.8569
-0.9780 2.1362 0.8489
-2.9749 5.9373 2.3747
-3.2144 5.8896 2.3747
-3.4539 5.8323 2.3747
-3.6931 5.7654 2.3747
-3.9313 5.6886 2.3747
-4.1682 5.6019 2.3747
-4.4033 5.5052 2.3747
-4.6360 5.3983 2.3747
-4.8658 5.2814 2.3747
-5.0922 5.1542 2.3747
-5.3146 5.0169 2.3747
-5.5325 4.8696 2.3747
-5.7451 4.7122 2.3747
-5.9521 4.5450 2.3747
-6.1527 4.3681 2.3747
-6.3464 4.1817 2.3747
-6.5326 3.9860 2.3747
-6.7107 3.7813 2.3747
-6.8802 3.5680 2.3747
-7.0405 3.3464 2.3747
-7.1911 3.1169 2.3747
-7.3314 2.8800 2.3747
-7.4609 2.6362 2.3747
-7.5793 2.3858 2.3747
-7.6860 2.1297 2.3747
-7.7807 1.8682 2.3747
-7.8631 1.6020 2.3747
-7.9328 1.3319 2.3747
-7.9895 1.0583 2.3747
-8.0331 0.7821 2.3747
-8.0634 0.5040 2.3747
-8.0802 0.2245 2.3747
-8.0835 -0.0554 2.3747
-8.0734 -0.3352 2.3747
-8.0498 -0.6140 2.3747
-8.0128 -0.8913 2.3747
-7.9625 -1.1661 2.3747
-7.8993 -1.4380 2.3747
-7.8233 -1.7061 2.3747
-7.7347 -1.9698 2.3747
-7.6340 -2.2286 2.3747
-7.5215 -2.4817 2.3747
-7.3977 -2.7287 2.3747
-7.2629 -2.9691 2.3747
-7.1176 -3.2022 2.3747
-6.9624 -3.4276 2.3747
-6.7978 -3.6450 2.3747
-6.6243 -3.8539 2.3747
-6.4424 -4.0540 2.3747
-6.2529 -4.2450 2.3747
-6.0561 -4.4267 2.3747
-5.8528 -4.5988 2.3747
-5.6434 -4.7611 2.3747
-5.4287 -4.9135 2.3747
-5.2091 -5.0559 2.3747
-4.9855 -5.1883 2.3747
-4.7578 -5.3105 2.3747
-4.5271 -5.4227 2.3747
-4.2939 -5.5247 2.3747
-4.0586 -5.6168 2.3747
-3.8216 -5.6989 2.3747
-3.5836 -5.7711 2.3747
-3.3450 -5.8337 2.3747
-3.1061 -5.8867 2.3747
-2.8675 -5.9303 2.3747
-2.6296 -5.9647 2.3747
-2.3926 -5.9900 2.3747
-2.1571 -6.0066 2.3747
-1.9232 -6.0145 2.3747
-1.6914 -6.0141 2.3747
-1.4619 -6.0055 2.3747
-1.2351 -5.9890 2.3747
-1.0111 -5.9649 2.3747
-0.7902 -5.9334 2.3747
-0.5726 -5.8946 2.3747
-0.3585 -5.8490 2.3747
-0.1482 -5.7967 2.3747
0.0583 -5.7379 2.3747
0.2608 -5.6730 2.3747
0.4591 -5.6021 2.3747
0.6531 -5.5254 2.3747
0.8427 -5.4433 2.3747
1.0278 -5.3560 2.3747
1.2084 -5.2636 2.3747
1.3842 -5.1664 2.3747
1.5554 -5.0647 2.3747
1.7218 -4.9585 2.3747
1.8833 -4.8481 2.3747
2.0400 -4.7338 2.3747
2.1917 -4.6157 2.3747
2.3385 -4.4939 2.3747
2.4804 -4.3687 2.3747
2.6172 -4.2403 2.3747
2.7491 -4.1088 2.3747
2.8760 -3.9743 2.3747
2.9979 -3.8371 2.3747
3.1147 -3.6973 2.3747
3.2266 -3.5550 2.3747
3.3335 -3.4104 2.3747
3.4353 -3.2636 2.3747
3.5322 -3.1147 2.3747
3.6241 -2.9639 2.3747
3.7110 -2.8113 2.3747
3.7930 -2.6570 2.3747
3.8700 -2.5012 2.3747
3.9421 -2.3439 2.3747
4.0092 -2.1853 2.3747
4.0715 -2.0254 2.3747
4.1288 -1.8644 2.3747
4.1812 -1.7024 2.3747
4.2288 -1.5393 2.3747
4.2715 -1.3756 2.3747
4.3093 -1.2110 2.3747
4.3423 -1.0458 2.3747
4.3705 -0.8800 2.3747
4.3938 -0.7138 2.3747
4.4123 -0.5472 2.3747
4.4259 -0.3802 2.3747
4.4347 -0.2131 2.3747
4.4387 -0.0459 2.3747
4.4379 0.1215 2.3747
4.4323 0.2887 2.3747
4.4218 0.4558 2.3747
4.4065 0.6228 2.3747
4.3863 0.7894 2.3747
4.3613 0.9556 2.3747
4.3315 1.1213 2.3747
4.2968 1.2865 2.3747
4.2572 1.4510 2.3747
4.2128 1.6147 2.3747
4.1635 1.7776 2.3747
4.1092 1.9396 2.3747
4.0501 2.1005 2.3747
3.9860 2.2602 2.3747
3.9170 2.4187 2.3747
3.8430 2.5759 2.3747
3.7641 2.7315 2.3747
3.6802 2.8856 2.3747
3.5913 3.0379 2.3747
3.4974 3.1885 2.3747
3.3985 3.3370 2.3747
3.2946 3.4835 2.3747
3.1856 3.6277 2.3747
3.0716 3.7696 2.3747
2.9525 3.9089 2.3747
2.8284 4.0456 2.3747
2.6993 4.1794 2.3747
2.5651 4.3103 2.3747
2.4259 4.4379 2.3747
2.2817 4.5623 2.3747
2.1325 4.6832 2.3747
1.9784 4.8003 2.3747
0.7894 2.1320 1.0304
0.7127 2.1628 1.0226
0.6351 2.1909 1.0146
0.5565 2.2161 1.0066
0.4770 2.2384 0.9985
0.3967 2.2579 0.9903
0.3158 2.2744 0.9820
0.2343 2.2880 0.9736
0.1525 2.2986 0.9652
0.0702 2.3063 0.9568
-0.0122 2.3109 0.9484
-0.0948 2.3126 0.9399
-0.1773 2.3113 0.9314
-0.2598 2.3070 0.9229
-0.3421 2.2996 0.9145
-0.4240 2.2893 0.9060
-0.5056 2.2761 0.8977
-0.5866 2.2599 0.8893
-0.6669 2.2407 0.8810
-0.7465 2.2187 0.8728
-0.8253 2.1938 0.8647
-0.9032 2.1660 0.8567
-0.9799 2.1354 0.8487
-2.9808 5.9363 2.3747
-3.2203 5.8883 2.3747
-3.4598 5.8308 2.3747
-3.6990 5.7636 2.3747
-3.9372 5.6866 2.3747
-4.1740 5.5997 2.3747
-4.4091 5.5027 2.3747
-4.6417 5.3956 2.3747
-4.8715 5.2783 2.3747
-5.0978 5.1510 2.3747
-5.3201 5.0134 2.3747
-5.5378 4.8658 2.3747
-5.7503 4.7082 2.3747
-5.9571 4.5408 2.3747
-6.1576 4.3636 2.3747
-6.3511 4.1770 2.3747
-6.5371 3.9810 2.3747
-6.7150 3.7762 2.3747
-6.8843 3.5627 2.3747
-7.0443 3.3409 2.3747
-7.1947 3.1112 2.3747
-7.3347 2.8741 2.3747
-7.4640 2.6301 2.3747
-7.5820 2.3796 2.3747
-7.6885 2.1233 2.3747
-7.7829 1.8617 2.3747
-7.8649 1.5954 2.3747
-7.9343 1.3252 2.3747
-7.9907 1.0516 2.3747
-8.0340 0.7753 2.3747
-8.0639 0.4971 2.3747
-8.0804 0.2176 2.3747
-8.0834 -0.0623 2.3747
-8.0730 -0.3421 2.3747
-8.0490 -0.6209 2.3747
-8.0117 -0.8981 2.3747
-7.9611 -1.1729 2.3747
-7.8976 -1.4446 2.3747
-7.8212 -1.7126 2.3747
-7.7324 -1.9763 2.3747
-7.6314 -2.2349 2.3747
-7.5186 -2.4879 2.3747
-7.3945 -2.7348 2.3747
-7.2594 -2.9749 2.3747
-7.1139 -3.2078 2.3747
-6.9585 -3.4331 2.3747
-6.7936 -3.6502 2.3747
-6.6199 -3.8589 2.3747
-6.4379 -4.0588 2.3747
-6.2481 -4.2496 2.3747
-6.0512 -4.4310 2.3747
-5.8477 -4.6029 2.3747
-5.6382 -4.7650 2.3747
-5.4233 -4.9171 2.3747
-5.2036 -5.0593 2.3747
-4.9798 -5.1914 2.3747
-4.7521 -5.3134 2.3747
-4.5214 -5.4253 2.3747
-4.2881 -5.5271 2.3747
-4.0527 -5.6189 2.3747
-3.8158 -5.7008 2.3747
-3.5777 -5.7728 2.3747
-3.3391 -5.8351 2.3747
-3.1002 -5.8879 2.3747
-2.8616 -5.9312 2.3747
-2.6237 -5.9654 2.3747
-2.3868 -5.9905 2.3747
-2.1513 -6.0069 2.3747
-1.9175 -6.0146 2.3747
-1.6857 -6.0140 2.3747
-1.4563 -6.0052 2.3747
-1.2295 -5.9885 2.3747
-1.0056 -5.9642 2.3747
-0.7848 -5.9325 2.3747
-0.5672 -5.8936 2.3747
-0.3533 -5.8478 2.3747
-0.1430 -5.7953 2.3747
0.0633 -5.7364 2.3747
0.2657 -5.6713 2.3747
0.4639 -5.6002 2.3747
0.6578 -5.5235 2.3747
0.8473 -5.4413 2.3747
1.0323 -5.3538 2.3747
1.2127 -5.2613 2.3747
1.3885 -5.1640 2.3747
1.5596 -5.0621 2.3747
1.7258 -4.9558 2.3747
1.8872 -4.8454 2.3747
2.0438 -4.7309 2.3747
2.1954 -4.6127 2.3747
2.3421 -4.4909 2.3747
2.4838 -4.3656 2.3747
2.6206 -4.2371 2.3747
2.7523 -4.1055 2.3747
2.8791 -3.9710 2.3747
3.0008 -3.8337 2.3747
3.1176 -3.6938 2.3747
3.2293 -3.5514 2.3747
3.3360 -3.4068 2.3747
3.4378 -3.2599 2.3747
3.5345 -3.1110 2.3747
3.6263 -2.9602 2.3747
3.7131 -2.8075 2.3747
3.7949 -2.6532 2.3747
3.8718 -2.4973 2.3747
3.9438 -2.3400 2.3747
4.0108 -2.1813 2.3747
4.0729 -2.0214 2.3747
4.1301 -1.8604 2.3747
4.1825 -1.6983 2.3747
4.2299 -1.5353 2.3747
4.2725 -1.3715 2.3747
4.3102 -1.2070 2.3747
0.4129 -5.2727 2.3747
0.5960 -5.2033 2.3747
0.7751 -5.1287 2.3747
0.9501 -5.0490 2.3747
1.1210 -4.9644 2.3747
1.2877 -4.8752 2.3747
1.4500 -4.7814 2.3747
1.6079 -4.6834 2.3747
1.7613 -4.5812 2.3747
1.9103 -4.4752 2.3747
2.0547 -4.3654 2.3747
2.1945 -4.2520 2.3747
2.3297 -4.1353 2.3747
2.4603 -4.0153 2.3747
2.5862 -3.8923 2.3747
2.7074 -3.7663 2.3747
2.8238 -3.6376 2.3747
2.9356 -3.5063 2.3747
3.0427 -3.3725 2.3747
3.1450 -3.2364 2.3747
3.2427 -3.0981 2.3747
3.3355 -2.9578 2.3747
3.4237 -2.8155 2.3747
3.5071 -2.6713 2.3747
3.5858 -2.5255 2.3747
3.6598 -2.3781 2.3747
3.7291 -2.2292 2.3747
3.7937 -2.0790 2.3747
3.8536 -1.9275 2.3747
3.9088 -1.7749 2.3747
3.9593 -1.6212 2.3747
4.0052 -1.4665 2.3747
4.0463 -1.3111 2.3747
4.0828 -1.1548 2.3747
4.1146 -0.9979 2.3747
4.1418 -0.8404 2.3747
4.1644 -0.6824 2.3747
4.1823 -0.5240 2.3747
4.1955 -0.3654 2.3747
4.2041 -0.2065 2.3747
4.2080 -0.0474 2.3747
4.2073 0.1116 2.3747
4.2020 0.2706 2.3747
4.1920 0.4295 2.3747
4.1774 0.5882 2.3747
4.1581 0.7465 2.3747
4.1341 0.9045 2.3747
4.1055 1.0620 2.3747
4.0723 1.2188 2.3747
4.0343 1.3751 2.3747
3.9917 1.5305 2.3747
3.9444 1.6851 2.3747
3.8924 1.8387 2.3747
3.8357 1.9912 2.3747
3.7742 2.1426 2.3747
3.7081 2.2927 2.3747
3.6372 2.4415 2.3747
3.5616 2.5887 2.3747
3.4813 2.7343 2.3747
3.3962 2.8783 2.3747
3.3063 3.0203 2.3747
3.2117 3.1604 2.3747
3.1124 3.2984 2.3747
3.0082 3.4342 2.3747
2.8994 3.5676 2.3747
2.7858 3.6984 2.3747
2.6674 3.8267 2.3747
2.5443 3.9521 2.3747
2.4165 4.0745 2.3747
2.2840 4.1939 2.3747
2.1469 4.3099 2.3747
2.0051 4.4225 2.3747
0.8077 1.9693 1.0320
0.7369 2.0009 1.0248
0.6650 2.0299 1.0175
0.5921 2.0563 1.0100
0.5183 2.0800 1.0025
0.4437 2.1010 0.9948
0.3684 2.1194 0.9871
0.2924 2.1349 0.9794
0.2160 2.1478 0.9715
0.1391 2.1578 0.9637
0.0619 2.1650 0.9557
-0.0155 2.1695 0.9478
-0.0930 2.1711 0.9399
-0.1705 2.1699 0.9319
-0.2479 2.1659 0.9239
-0.3252 2.1591 0.9160
-0.4021 2.1495 0.9081
-0.4786 2.1371 0.9002
-0.5547 2.1220 0.8924
-0.6302 2.1041 0.8846
-0.7049 2.0835 0.8769
-0.7789 2.0601 0.8693
-0.8520 2.0341 0.8617
-0.9241 2.0055 0.8543
-0.9951 1.9743 0.8469
-3.0118 5.4878 2.3747
-3.2331 5.4311 2.3747
-3.4538 5.3654 2.3747
-3.6734 5.2907 2.3747
-3.8915 5.2069 2.3747
-4.1076 5.1139 2.3747
-4.3214 5.0116 2.3747
-4.5322 4.9001 2.3747
-4.7396 4.7794 2.3747
-4.9431 4.6494 2.3747
-5.1423 4.5104 2.3747
-5.3364 4.3622 2.3747
-5.5252 4.2052 2.3747
-5.7080 4.0395 2.3747
-5.8844 3.8651 2.3747
-6.0537 3.6825 2.3747
-6.2156 3.4919 2.3747
-6.3694 3.2935 2.3747
-6.5148 3.0877 2.3747
-6.6512 2.8748 2.3747
-6.7783 2.6554 2.3747
-6.8956 2.4297 2.3747
-7.0026 2.1984 2.3747
-7.0991 1.9618 2.3747
-7.1847 1.7206 2.3747
-7.2591 1.4752 2.3747
-7.3220 1.2262 2.3747
-7.3732 0.9743 2.3747
-7.4126 0.7200 2.3747
-7.4399 0.4639 2.3747
-7.4552 0.2068 2.3747
-7.4582 -0.0509 2.3747
-7.4491 -0.3083 2.3747
-7.4278 -0.5650 2.3747
-7.3945 -0.8202 2.3747
-7.3492 -1.0733 2.3747
-7.2921 -1.3238 2.3747
-7.2235 -1.5709 2.3747
-7.1436 -1.8142 2.3747
-7.0526 -2.0531 2.3747
-6.9510 -2.2870 2.3747
-6.8390 -2.5155 2.3747
-6.7169 -2.7380 2.3747
-6.5854 -2.9541 2.3747
-6.4447 -3.1633 2.3747
-6.2953 -3.3654 2.3747
-6.1378 -3.5599 2.3747
-5.9725 -3.7465 2.3747
-5.8000 -3.9249 2.3747
-5.6208 -4.0950 2.3747
-5.4355 -4.2564 2.3747
-5.2444 -4.4091 2.3747
-5.0483 -4.5528 2.3747
-4.8474 -4.6874 2.3747
-4.6425 -4.8129 2.3747
-4.4339 -4.9292 2.3747
-4.2222 -5.0364 2.3747
-4.0078 -5.1343 2.3747
-3.7913 -5.2230 2.3747
-3.5730 -5.3026 2.3747
-3.3534 -5.3732 2.3747
-3.1330 -5.4348 2.3747
-2.9122 -5.4875 2.3747
-2.6913 -5.5316 2.3747
-2.4707 -5.5671 2.3747
-2.2507 -5.5942 2.3747
-2.0318 -5.6131 2.3747
-1.8143 -5.6240 2.3747
-1.5983 -5.6270 2.3747
-1.3843 -5.6223 2.3747
-1.1725 -5.6102 2.3747
-0.9630 -5.5909 2.3747
-0.7563 -5.5645 2.3747
-0.5524 -5.5314 2.3747
-0.3516 -5.4916 2.3747
-0.1540 -5.4455 2.3747
0.0401 -5.3932 2.3747
0.2306 -5.3350 2.3747
0.4174 -5.2710 2.3747
0.6004 -5.2016 2.3747
0.7795 -5.1268 2.3747
0.9544 -5.0470 2.3747
1.1252 -4.9623 2.3747
1.2917 -4.8729 2.3747
1.4539 -4.7791 2.3747
1.6117 -4.6809 2.3747
1.7650 -4.5787 2.3747
1.9139 -4.4725 2.3747
2.0582 -4.3626 2.3747
2.1979 -4.2492 2.3747
2.3330 -4.1324 2.3747
2.4634 -4.0123 2.3747
2.5892 -3.8892 2.3747
2.7103 -3.7632 2.3747
2.8267 -3.6344 2.3747
2.9383 -3.5030 2.3747
3.0453 -3.3692 2.3747
3.1475 -3.2330 2.3747
3.2450 -3.0947 2.3747
3.3378 -2.9543 2.3747
3.4258 -2.8119 2.3747
3.5091 -2.6678 2.3747
3.5877 -2.5219 2.3747
3.6616 -2.3745 2.3747
3.7308 -2.2255 2.3747
3.7953 -2.0753 2.3747
3.8550 -1.9238 2.3747
3.9101 -1.7711 2.3747
3.9605 -1.6174 2.3747
4.0062 -1.4627 2.3747
4.0473 -1.3072 2.3747
4.0837 -1.1509 2.3747
4.1154 -0.9940 2.3747
4.1424 -0.8365 2.3747
4.1649 -0.6785 2.3747
4.1826 -0.5201 2.3747
4.1958 -0.3614 2.3747
4.2042 -0.2025 2.3747
4.2081 -0.0435 2.3747
4.2073 0.1156 2.3747
4.2018 0.2746 2.3747
4.1917 0.4334 2.3747
4.1770 0.5921 2.3747
4.1576 0.7504 2.3747
4.1335 0.9084 2.3747
4.1048 1.0658 2.3747
4.0714 1.2227 2.3747
4.0333 1.3789 2.3747
3.9906 1.5343 2.3747
3.9432 1.6889 2.3747
3.8910 1.8425 2.3747
3.8342 1.9950 2.3747
