ply
format ascii 1.0
element vertex 2180
property float32 x
property float32 y
property float32 z
end_header
0.0754 3.0718 0.9765
-0.0352 3.0742 0.9716
-0.1458 3.0727 0.9667
-0.2562 3.0672 0.9617
-0.3664 3.0576 0.9567
-0.4762 3.0441 0.9517
-0.5854 3.0266 0.9466
-0.6939 3.0052 0.9416
-0.8016 2.9799 0.9365
-0.9082 2.9507 0.9315
-2.6203 7.5411 2.3946
-2.9056 7.4863 2.3946
-3.1902 7.4210 2.3946
-3.4738 7.3450 2.3946
-3.7559 7.2582 2.3946
-4.0360 7.1607 2.3946
-4.3139 7.0523 2.3946
-4.5889 6.9331 2.3946
-4.8606 6.8031 2.3946
-5.1285 6.6623 2.3946
-5.3923 6.5108 2.3946
-5.6513 6.3486 2.3946
-5.9051 6.1758 2.3946
-6.1532 5.9926 2.3946
-6.3951 5.7992 2.3946
-6.6303 5.5956 2.3946
-6.8584 5.3822 2.3946
-7.0787 5.1590 2.3946
-7.2910 4.9265 2.3946
-7.4946 4.6849 2.3946
-7.6891 4.4344 2.3946
-7.8741 4.1755 2.3946
-8.0490 3.9084 2.3946
-8.2136 3.6337 2.3946
-8.3673 3.3517 2.3946
-8.5098 3.0629 2.3946
-8.6407 2.7677 2.3946
-8.7596 2.4666 2.3946
-8.8663 2.1602 2.3946
-8.9604 1.8490 2.3946
-9.0417 1.5336 2.3946
-9.1099 1.2145 2.3946
-9.1647 0.8923 2.3946
-9.2062 0.5677 2.3946
-9.2339 0.2412 2.3946
-9.2480 -0.0865 2.3946
-9.2483 -0.4148 2.3946
-9.2347 -0.7430 2.3946
-9.2073 -1.0705 2.3946
-9.1661 -1.3966 2.3946
-9.1111 -1.7208 2.3946
-9.0425 -2.0423 2.3946
-8.9604 -2.3606 2.3946
-8.8650 -2.6750 2.3946
-8.7565 -2.9849 2.3946
-8.6351 -3.2897 2.3946
-8.5012 -3.5888 2.3946
-8.3550 -3.8817 2.3946
-8.1969 -4.1679 2.3946
-8.0272 -4.4468 2.3946
-7.8463 -4.7179 2.3946
-7.6547 -4.9808 2.3946
-7.4528 -5.2350 2.3946
-7.2411 -5.4801 2.3946
-7.0199 -5.7157 2.3946
-6.7899 -5.9415 2.3946
-6.5515 -6.1572 2.3946
-6.3053 -6.3623 2.3946
-6.0518 -6.5568 2.3946
-5.7914 -6.7403 2.3946
-5.5248 -6.9126 2.3946
-5.2525 -7.0736 2.3946
-4.9751 -7.2231 2.3946
-4.6931 -7.3610 2.3946
-4.4070 -7.4873 2.3946
-4.1173 -7.6018 2.3946
-3.8247 -7.7045 2.3946
-3.5296 -7.7954 2.3946
-3.2326 -7.8746 2.3946
-2.9341 -7.9421 2.3946
-2.6347 -7.9979 2.3946
-2.3348 -8.0422 2.3946
-2.0350 -8.0750 2.3946
-1.7356 -8.0965 2.3946
-1.4371 -8.1068 2.3946
-1.1400 -8.1061 2.3946
-0.8447 -8.0945 2.3946
-0.5515 -8.0722 2.3946
-0.2609 -8.0396 2.3946
0.0268 -7.9966 2.3946
0.3113 -7.9437 2.3946
0.5921 -7.8809 2.3946
0.8690 -7.8086 2.3946
1.1418 -7.7270 2.3946
1.4100 -7.6364 2.3946
1.6734 -7.5370 2.3946
1.9318 -7.4290 2.3946
2.1849 -7.3128 2.3946
2.4325 -7.1886 2.3946
2.6744 -7.0567 2.3946
2.9104 -6.9174 2.3946
3.1403 -6.7709 2.3946
3.3639 -6.6175 2.3946
3.5811 -6.4574 2.3946
3.6747 -6.0969 2.3207
3.7413 -5.7292 2.2422
3.9260 -5.5625 2.2422
4.1050 -5.3916 2.2428
4.2774 -5.2157 2.2433
4.4432 -5.0350 2.2438
4.6022 -4.8497 2.2443
4.7544 -4.6601 2.2447
4.8997 -4.4664 2.2452
5.0381 -4.2688 2.2456
5.1694 -4.0676 2.2461
5.2936 -3.8630 2.2465
5.4108 -3.6552 2.2469
5.5157 -3.4413 2.2452
5.6179 -3.2279 2.2454
5.7129 -3.0120 2.2455
5.8006 -2.7938 2.2457
5.8811 -2.5735 2.2459
5.9544 -2.3515 2.2460
6.0204 -2.1279 2.2462
6.0792 -1.9028 2.2464
5.6188 -1.5365 2.0590
6.1750 -1.4492 2.2467
6.2120 -1.2211 2.2469
6.2412 -0.9923 2.2469
6.2622 -0.7629 2.2466
6.2760 -0.5333 2.2462
6.2825 -0.3038 2.2459
5.2868 -0.0627 1.8899
5.3990 0.1328 1.9321
6.2558 0.3825 2.2437
6.2322 0.6098 2.2428
6.2021 0.8362 2.2422
6.1668 1.0616 2.2422
6.1245 1.2859 2.2422
6.0751 1.5088 2.2422
6.0188 1.7301 2.2422
5.9555 1.9496 2.2422
5.8854 2.1672 2.2422
5.8083 2.3827 2.2422
5.7245 2.5959 2.2422
5.6412 2.8103 2.2451
5.9129 3.2197 2.3946
5.8018 3.4390 2.3946
5.6836 3.6551 2.3946
5.5585 3.8677 2.3946
5.4264 4.0767 2.3946
5.2874 4.2819 2.3946
5.1416 4.4832 2.3946
4.9891 4.6803 2.3946
4.8300 4.8729 2.3946
4.6643 5.0611 2.3946
4.4922 5.2441 2.3946
4.3136 5.4227 2.3946
4.1288 5.5958 2.3946
3.9378 5.7635 2.3946
3.7407 5.9255 2.3946
3.5378 6.0817 2.3946
3.3290 6.2319 2.3946
3.1146 6.3758 2.3946
2.8946 6.5132 2.3946
2.6692 6.6439 2.3946
2.4387 6.7678 2.3946
2.2031 6.8845 2.3946
0.8268 2.9463 1.0087
0.7203 2.9760 1.0043
0.6128 3.0019 0.9998
0.5045 3.0239 0.9952
0.3954 3.0419 0.9905
0.2857 3.0560 0.9857
0.1756 3.0661 0.9809
0.0652 3.0722 0.9761
-0.0454 3.0743 0.9712
-0.1560 3.0724 0.9662
-0.2664 3.0665 0.9612
-0.3766 3.0566 0.9562
-0.4863 3.0427 0.9512
-0.5955 3.0248 0.9462
-0.7039 3.0030 0.9411
-0.8115 2.9773 0.9361
-0.9181 2.9478 0.9310
-2.6468 7.5365 2.3946
-2.9320 7.4807 2.3946
-3.2165 7.4144 2.3946
-3.5000 7.3374 2.3946
-3.7819 7.2497 2.3946
-4.0619 7.1511 2.3946
-4.3394 7.0418 2.3946
-4.6141 6.9216 2.3946
-4.8855 6.7905 2.3946
-5.1531 6.6487 2.3946
-5.4164 6.4962 2.3946
-5.6750 6.3330 2.3946
-5.9283 6.1593 2.3946
-6.1758 5.9752 2.3946
-6.4171 5.7808 2.3946
-6.6517 5.5763 2.3946
-6.8791 5.3619 2.3946
-7.0987 5.1379 2.3946
-7.3102 4.9045 2.3946
-7.5129 4.6620 2.3946
-7.7066 4.4108 2.3946
-7.8907 4.1511 2.3946
-8.0647 3.8833 2.3946
-8.2283 3.6079 2.3946
-8.3810 3.3253 2.3946
-8.5224 3.0358 2.3946
-8.6522 2.7401 2.3946
-8.7700 2.4385 2.3946
-8.8756 2.1316 2.3946
-8.9685 1.8200 2.3946
-9.0485 1.5042 2.3946
-9.1155 1.1848 2.3946
-9.1691 0.8624 2.3946
-9.2093 0.5376 2.3946
-9.2358 0.2109 2.3946
-9.2486 -0.1168 2.3946
-9.2476 -0.4451 2.3946
-9.2327 -0.7733 2.3946
-9.2041 -1.1007 2.3946
-9.1616 -1.4267 2.3946
-9.1053 -1.7506 2.3946
-9.0355 -2.0719 2.3946
-8.9521 -2.3898 2.3946
-8.8555 -2.7038 2.3946
-8.7458 -3.0133 2.3946
-8.6233 -3.3176 2.3946
-8.4882 -3.6162 2.3946
-8.3409 -3.9085 2.3946
-8.1817 -4.1940 2.3946
-8.0109 -4.4722 2.3946
-7.8291 -4.7426 2.3946
-7.6365 -5.0047 2.3946
-7.4336 -5.2581 2.3946
-7.2210 -5.5023 2.3946
-6.9990 -5.7370 2.3946
-6.7682 -5.9619 2.3946
-6.5291 -6.1766 2.3946
-6.2821 -6.3808 2.3946
-6.0279 -6.5742 2.3946
-5.7670 -6.7567 2.3946
-5.4999 -6.9280 2.3946
-5.2271 -7.0879 2.3946
-4.9492 -7.2363 2.3946
-4.6668 -7.3732 2.3946
-4.3803 -7.4983 2.3946
-4.0904 -7.6116 2.3946
-3.7975 -7.7134 2.3946
-3.5022 -7.8033 2.3946
-3.2050 -7.8814 2.3946
-2.9065 -7.9477 2.3946
-2.6070 -8.0025 2.3946
-2.3071 -8.0457 2.3946
-2.0072 -8.0775 2.3946
-1.7079 -8.0979 2.3946
-1.4096 -8.1072 2.3946
-1.1126 -8.1054 2.3946
-0.8175 -8.0929 2.3946
-0.5245 -8.0697 2.3946
-0.2342 -8.0360 2.3946
0.0533 -7.9921 2.3946
0.3374 -7.9383 2.3946
0.6179 -7.8746 2.3946
0.8944 -7.8014 2.3946
1.1668 -7.7190 2.3946
1.4345 -7.6275 2.3946
1.6975 -7.5273 2.3946
1.9554 -7.4186 2.3946
2.2080 -7.3017 2.3946
2.4551 -7.1767 2.3946
2.6965 -7.0441 2.3946
2.9319 -6.9041 2.3946
3.1612 -6.7570 2.3946
3.3843 -6.6029 2.3946
3.6009 -6.4423 2.3946
3.6681 -6.0403 2.3049
3.7587 -5.7140 2.2422
3.9428 -5.5469 2.2423
4.1212 -5.3756 2.2428
4.2930 -5.1992 2.2433
4.4582 -5.0180 2.2438
4.6166 -4.8323 2.2443
4.7681 -4.6423 2.2448
4.9128 -4.4483 2.2452
5.0505 -4.2503 2.2457
5.1812 -4.0488 2.2461
5.3048 -3.8439 2.2465
5.4212 -3.6359 2.2469
5.5255 -3.4218 2.2452
5.6270 -3.2080 2.2454
5.7213 -2.9919 2.2456
5.8084 -2.7735 2.2457
5.8882 -2.5531 2.2459
5.9608 -2.3309 2.2460
6.0262 -2.1071 2.2462
6.0843 -1.8819 2.2464
6.1351 -1.6555 2.2466
6.1787 -1.4282 2.2468
6.2150 -1.2000 2.2470
6.2435 -0.9710 2.2469
6.2638 -0.7417 2.2466
6.2769 -0.5121 2.2462
6.2827 -0.2826 2.2459
5.2811 -0.0448 1.8879
5.8542 0.1638 2.0953
6.2538 0.4036 2.2436
6.2297 0.6308 2.2428
6.1992 0.8571 2.2422
6.1632 1.0824 2.2422
6.1202 1.3066 2.2422
6.0702 1.5293 2.2422
6.0132 1.7504 2.2422
5.9493 1.9698 2.2422
5.8785 2.1872 2.2422
5.8009 2.4025 2.2422
5.7164 2.6155 2.2422
5.6251 2.8261 2.2422
5.9029 3.2401 2.3946
5.7911 3.4591 2.3946
5.6723 3.6749 2.3946
5.5466 3.8872 2.3946
5.4138 4.0959 2.3946
5.2742 4.3008 2.3946
5.1278 4.5017 2.3946
4.9747 4.6983 2.3946
4.8150 4.8905 2.3946
4.6487 5.0782 2.3946
4.4759 5.2610 2.3946
4.2967 5.4389 2.3946
4.1113 5.6115 2.3946
3.9198 5.7787 2.3946
3.7222 5.9402 2.3946
3.5187 6.0958 2.3946
3.3094 6.2454 2.3946
3.0944 6.3888 2.3946
2.8740 6.5256 2.3946
2.6481 6.6557 2.3946
2.4171 6.7789 2.3946
2.1810 6.8949 2.3946
0.8170 2.9492 1.0083
0.7104 2.9786 1.0039
0.6028 3.0041 0.9993
0.4944 3.0257 0.9947
0.3852 3.0434 0.9900
0.2755 3.0571 0.9853
0.1654 3.0668 0.9805
0.0549 3.0725 0.9756
-0.0556 3.0743 0.9707
-0.1662 3.0720 0.9658
-0.2766 3.0657 0.9608
-0.3868 3.0554 0.9558
-0.4964 3.0412 0.9507
-0.6055 3.0230 0.9457
-0.7139 3.0008 0.9406
-0.8214 2.9748 0.9356
-0.9279 2.9448 0.9305
-2.6732 7.5317 2.3946
-2.9583 7.4751 2.3946
-3.2428 7.4078 2.3946
-3.5261 7.3298 2.3946
-3.8078 7.2410 2.3946
-4.0876 7.1415 2.3946
-4.3650 7.0311 2.3946
-4.6394 6.9099 2.3946
-4.9104 6.7779 2.3946
-5.1777 6.6351 2.3946
-5.4406 6.4816 2.3946
-5.6986 6.3174 2.3946
-5.9514 6.1427 2.3946
-6.1984 5.9576 2.3946
-6.4391 5.7623 2.3946
-6.6730 5.5569 2.3946
-6.8997 5.3416 2.3946
-7.1186 5.1167 2.3946
-7.3293 4.8825 2.3946
-7.5313 4.6392 2.3946
-7.7240 4.3871 2.3946
-7.9072 4.1267 2.3946
-8.0803 3.8582 2.3946
-8.2428 3.5821 2.3946
-8.3945 3.2988 2.3946
-8.5349 3.0087 2.3946
-8.6636 2.7124 2.3946
-8.7803 2.4103 2.3946
-8.8847 2.1030 2.3946
-8.9764 1.7910 2.3946
-9.0553 1.4748 2.3946
-9.1210 1.1551 2.3946
-9.1734 0.8324 2.3946
-9.2123 0.5074 2.3946
-9.2376 0.1807 2.3946
-9.2491 -0.1472 2.3946
-9.2468 -0.4755 2.3946
-9.2307 -0.8036 2.3946
-9.2007 -1.1309 2.3946
-9.1569 -1.4568 2.3946
-9.0994 -1.7805 2.3946
-9.0283 -2.1015 2.3946
-8.9437 -2.4190 2.3946
-8.8459 -2.7326 2.3946
4.5418 -4.1757 2.2445
4.6724 -3.9931 2.2449
4.7964 -3.8069 2.2453
4.9139 -3.6175 2.2457
5.0247 -3.4250 2.2460
5.1289 -3.2296 2.2464
5.2264 -3.0315 2.2467
5.3171 -2.8310 2.2470
5.3978 -2.6266 2.2460
5.4746 -2.4218 2.2462
5.5445 -2.2151 2.2464
5.6076 -2.0068 2.2465
5.6639 -1.7971 2.2467
5.7134 -1.5861 2.2469
5.7561 -1.3742 2.2470
5.7913 -1.1612 2.2470
5.5083 -0.8969 2.1267
5.4719 -0.6872 2.1048
5.8539 -0.5191 2.2460
5.4010 -0.2809 2.0694
5.2958 -0.0818 2.0286
5.3564 0.1128 2.0537
5.8371 0.3364 2.2428
5.8166 0.5488 2.2422
5.7909 0.7605 2.2422
5.7586 0.9713 2.2422
5.7196 1.1810 2.2422
5.6740 1.3893 2.2422
5.6219 1.5962 2.2422
5.5631 1.8014 2.2422
5.4979 2.0048 2.2422
5.4262 2.2062 2.2422
5.3481 2.4054 2.2422
5.2636 2.6023 2.2422
5.5244 2.9867 2.3946
5.4207 3.1914 2.3946
5.3104 3.3930 2.3946
5.1935 3.5915 2.3946
5.0700 3.7865 2.3946
4.9402 3.9779 2.3946
4.8040 4.1653 2.3946
4.6614 4.3489 2.3946
4.5127 4.5283 2.3946
4.3578 4.7033 2.3946
4.1970 4.8737 2.3946
4.0301 5.0394 2.3946
3.8575 5.2001 2.3946
3.6791 5.3556 2.3946
3.4952 5.5059 2.3946
3.3057 5.6505 2.3946
3.1109 5.7894 2.3946
2.9109 5.9224 2.3946
2.7058 6.0493 2.3946
2.4958 6.1698 2.3946
2.2810 6.2837 2.3946
0.8678 2.6903 1.0080
0.7705 2.7216 1.0040
0.6721 2.7494 0.9999
0.5728 2.7737 0.9957
0.4727 2.7943 0.9914
0.3718 2.8113 0.9871
0.2704 2.8246 0.9827
0.1686 2.8343 0.9783
0.0665 2.8403 0.9738
-0.0357 2.8426 0.9693
-0.1380 2.8411 0.9647
-0.2401 2.8360 0.9601
-0.3421 2.8272 0.9555
-0.4436 2.8147 0.9508
-0.5446 2.7985 0.9461
-0.6449 2.7787 0.9415
-0.7445 2.7553 0.9368
-0.8431 2.7282 0.9321
-0.9407 2.6977 0.9275
-2.6913 6.9114 2.3946
-2.9529 6.8483 2.3946
-3.2134 6.7753 2.3946
-3.4722 6.6924 2.3946
-3.7291 6.5997 2.3946
-3.9836 6.4971 2.3946
-4.2353 6.3846 2.3946
-4.4838 6.2623 2.3946
-4.7286 6.1301 2.3946
-4.9694 5.9883 2.3946
-5.2056 5.8367 2.3946
-5.4369 5.6756 2.3946
-5.6628 5.5050 2.3946
-5.8829 5.3252 2.3946
-6.0967 5.1363 2.3946
-6.3038 4.9385 2.3946
-6.5038 4.7320 2.3946
-6.6962 4.5170 2.3946
-6.8806 4.2939 2.3946
-7.0567 4.0629 2.3946
-7.2239 3.8243 2.3946
-7.3820 3.5786 2.3946
-7.5305 3.3259 2.3946
-7.6692 3.0668 2.3946
-7.7976 2.8016 2.3946
-7.9154 2.5308 2.3946
-8.0223 2.2548 2.3946
-8.1182 1.9741 2.3946
-8.2026 1.6891 2.3946
-8.2753 1.4004 2.3946
-8.3362 1.1085 2.3946
-8.3851 0.8139 2.3946
-8.4218 0.5171 2.3946
-8.4462 0.2188 2.3946
-8.4583 -0.0806 2.3946
-8.4578 -0.3805 2.3946
-8.4449 -0.6803 2.3946
-8.4195 -0.9794 2.3946
-8.3817 -1.2773 2.3946
-8.3315 -1.5734 2.3946
-8.2689 -1.8671 2.3946
-8.1943 -2.1579 2.3946
-8.1075 -2.4452 2.3946
-8.0090 -2.7285 2.3946
-7.8989 -3.0073 2.3946
-7.7774 -3.2810 2.3946
-7.6448 -3.5491 2.3946
-7.5014 -3.8112 2.3946
-7.3475 -4.0668 2.3946
-7.1835 -4.3154 2.3946
-7.0097 -4.5567 2.3946
-6.8265 -4.7902 2.3946
-6.6343 -5.0156 2.3946
-6.4335 -5.2324 2.3946
-6.2247 -5.4405 2.3946
-6.0081 -5.6395 2.3946
-5.7843 -5.8290 2.3946
-5.5537 -6.0089 2.3946
-5.3168 -6.1790 2.3946
-5.0741 -6.3390 2.3946
-4.8261 -6.4888 2.3946
-4.5732 -6.6282 2.3946
-4.3160 -6.7572 2.3946
-4.0548 -6.8755 2.3946
-3.7903 -6.9833 2.3946
-3.5228 -7.0803 2.3946
-3.2529 -7.1667 2.3946
-2.9811 -7.2423 2.3946
-2.7076 -7.3073 2.3946
-2.4332 -7.3616 2.3946
-2.1580 -7.4053 2.3946
-1.8827 -7.4386 2.3946
-1.6076 -7.4614 2.3946
-1.3331 -7.4740 2.3946
-1.0597 -7.4764 2.3946
-0.7876 -7.4688 2.3946
-0.5173 -7.4514 2.3946
-0.2492 -7.4243 2.3946
0.0165 -7.3877 2.3946
0.2794 -7.3418 2.3946
0.5392 -7.2868 2.3946
0.7956 -7.2228 2.3946
1.0483 -7.1503 2.3946
1.2969 -7.0692 2.3946
1.5414 -6.9799 2.3946
1.7814 -6.8826 2.3946
2.0167 -6.7776 2.3946
2.2470 -6.6651 2.3946
2.4722 -6.5452 2.3946
2.6921 -6.4183 2.3946
2.9064 -6.2847 2.3946
3.1150 -6.1445 2.3946
3.3179 -5.9980 2.3946
3.5147 -5.8454 2.3946
3.5740 -5.4855 2.3097
3.6422 -5.1717 2.2422
3.8090 -5.0134 2.2422
3.9705 -4.8513 2.2427
4.1258 -4.6845 2.2432
4.2749 -4.5134 2.2436
4.4177 -4.3382 2.2441
4.5542 -4.1589 2.2445
4.6841 -3.9760 2.2449
4.8076 -3.7895 2.2453
4.9244 -3.5998 2.2457
5.0347 -3.4070 2.2461
5.1382 -3.2114 2.2464
5.2350 -3.0130 2.2467
5.3251 -2.8123 2.2471
5.4052 -2.6078 2.2461
5.4813 -2.4027 2.2462
5.5506 -2.1959 2.2464
5.6131 -1.9875 2.2465
5.6688 -1.7776 2.2467
5.7177 -1.5666 2.2469
5.7597 -1.3545 2.2470
5.7942 -1.1415 2.2469
5.5049 -0.8773 2.1245
5.4733 -0.6686 2.1047
5.8548 -0.4993 2.2459
5.3978 -0.2624 2.0680
5.2874 -0.0639 2.0255
5.3969 0.1319 2.0696
5.8355 0.3560 2.2427
5.8145 0.5684 2.2422
5.7882 0.7801 2.2422
5.7553 0.9908 2.2422
5.7157 1.2003 2.2422
5.6695 1.4085 2.2422
5.6167 1.6152 2.2422
5.5574 1.8203 2.2422
5.4915 2.0235 2.2422
5.4193 2.2247 2.2422
5.3406 2.4237 2.2422
5.2555 2.6203 2.2422
5.5151 3.0058 2.3946
5.4108 3.2102 2.3946
5.2998 3.4115 2.3946
5.1823 3.6097 2.3946
5.0583 3.8043 2.3946
4.9279 3.9953 2.3946
4.7910 4.1825 2.3946
4.6479 4.3657 2.3946
4.4986 4.5447 2.3946
4.3432 4.7193 2.3946
4.1818 4.8893 2.3946
4.0144 5.0545 2.3946
3.8412 5.2147 2.3946
3.6624 5.3698 2.3946
3.4779 5.5195 2.3946
3.2879 5.6636 2.3946
3.0926 5.8020 2.3946
2.8921 5.9344 2.3946
2.6866 6.0607 2.3946
2.4761 6.1806 2.3946
2.2609 6.2940 2.3946
0.8589 2.6933 1.0076
0.7615 2.7244 1.0036
0.6630 2.7518 0.9995
0.5636 2.7757 0.9953
0.4634 2.7960 0.9910
0.3625 2.8127 0.9867
0.2610 2.8257 0.9823
0.1592 2.8350 0.9779
0.0571 2.8406 0.9734
-0.0452 2.8426 0.9688
-0.1475 2.8408 0.9643
-0.2496 2.8353 0.9597
-0.3515 2.8262 0.9550
-0.4529 2.8133 0.9504
-0.5539 2.7968 0.9457
-0.6542 2.7767 0.9410
-0.7537 2.7529 0.9364
-0.8522 2.7255 0.9317
-0.9497 2.6946 0.9270
-2.7155 6.9060 2.3946
-2.9771 6.8419 2.3946
-3.2373 6.7680 2.3946
-3.4961 6.6843 2.3946
-3.7528 6.5907 2.3946
-4.0070 6.4871 2.3946
-4.2584 6.3737 2.3946
-4.5066 6.2505 2.3946
-4.7511 6.1174 2.3946
-4.9914 5.9746 2.3946
-5.2272 5.8222 2.3946
-5.4580 5.6602 2.3946
-5.6834 5.4888 2.3946
-5.9029 5.3081 2.3946
-6.1161 5.1184 2.3946
-6.3226 4.9197 2.3946
-6.5219 4.7124 2.3946
-6.7136 4.4967 2.3946
-6.8973 4.2729 2.3946
-7.0725 4.0411 2.3946
-7.2389 3.8019 2.3946
-7.3962 3.5555 2.3946
-7.5438 3.3022 2.3946
-7.6815 3.0425 2.3946
-7.8089 2.7768 2.3946
-7.9257 2.5055 2.3946
-8.0317 2.2290 2.3946
-8.1264 1.9479 2.3946
-8.2098 1.6626 2.3946
-8.2815 1.3735 2.3946
-8.3413 1.0814 2.3946
-8.3890 0.7865 2.3946
-8.4246 0.4896 2.3946
-8.4479 0.1911 2.3946
-8.4588 -0.1084 2.3946
-8.4572 -0.4083 2.3946
-8.4431 -0.7080 2.3946
-8.4166 -1.0071 2.3946
-8.3776 -1.3048 2.3946
-8.3262 -1.6007 2.3946
-8.2625 -1.8942 2.3946
-8.1867 -2.1847 2.3946
-8.0989 -2.4716 2.3946
-7.9993 -2.7545 2.3946
-7.8881 -3.0328 2.3946
-7.7656 -3.3060 2.3946
-7.6320 -3.5736 2.3946
-7.4876 -3.8351 2.3946
-7.3327 -4.0901 2.3946
-7.1678 -4.3380 2.3946
-6.9931 -4.5786 2.3946
-6.8091 -4.8114 2.3946
-6.6161 -5.0360 2.3946
-6.4145 -5.2521 2.3946
-6.2049 -5.4593 2.3946
-5.9877 -5.6574 2.3946
-5.7632 -5.8461 2.3946
-5.5320 -6.0251 2.3946
-5.2946 -6.1942 2.3946
-5.0514 -6.3533 2.3946
-4.8029 -6.5022 2.3946
-4.5496 -6.6406 2.3946
-4.2920 -6.7686 2.3946
-4.0305 -6.8859 2.3946
-3.7657 -6.9927 2.3946
-3.4980 -7.0888 2.3946
-3.2279 -7.1741 2.3946
-2.9558 -7.2489 2.3946
-2.6823 -7.3127 2.3946
-2.4077 -7.3661 2.3946
-2.1326 -7.4088 2.3946
-1.8573 -7.4411 2.3946
-1.5822 -7.4630 2.3946
-1.3078 -7.4746 2.3946
-1.0344 -7.4761 2.3946
-0.7625 -7.4676 2.3946
-0.4924 -7.4493 2.3946
-0.2245 -7.4213 2.3946
0.0410 -7.3838 2.3946
0.3036 -7.3371 2.3946
0.5631 -7.2812 2.3946
0.8191 -7.2165 2.3946
1.0714 -7.1431 2.3946
1.3197 -7.0613 2.3946
1.5638 -6.9713 2.3946
1.8034 -6.8733 2.3946
2.0382 -6.7675 2.3946
2.2680 -6.6543 2.3946
2.4927 -6.5338 2.3946
2.7121 -6.4063 2.3946
2.9259 -6.2720 2.3946
3.1341 -6.1312 2.3946
3.3363 -5.9841 2.3946
3.5326 -5.8310 2.3946
3.5686 -5.4374 2.2955
3.6579 -5.1573 2.2422
3.8242 -4.9986 2.2423
3.9851 -4.8361 2.2428
4.1399 -4.6689 2.2432
4.2884 -4.4974 2.2437
4.4306 -4.3217 2.2441
4.5665 -4.1422 2.2445
4.6958 -3.9589 2.2449
4.8187 -3.7721 2.2453
4.9349 -3.5821 2.2457
5.0445 -3.3890 2.2461
5.1474 -3.1931 2.2464
5.2437 -2.9946 2.2468
5.3329 -2.7934 2.2470
5.4126 -2.5889 2.2461
5.4880 -2.3837 2.2462
5.5567 -2.1767 2.2464
5.6186 -1.9681 2.2466
5.6736 -1.7582 2.2467
5.7218 -1.5470 2.2469
5.7632 -1.3349 2.2471
5.7970 -1.1217 2.2469
5.5015 -0.8577 2.1224
5.4748 -0.6501 2.1047
5.8555 -0.4794 2.2458
5.3946 -0.2440 2.0666
5.2810 -0.0459 2.0231
5.8419 0.1625 2.2406
5.8338 0.3757 2.2426
5.8124 0.5880 2.2422
5.7855 0.7996 2.2422
5.7519 1.0102 2.2422
5.7117 1.2196 2.2422
5.6649 1.4277 2.2422
5.6115 1.6343 2.2422
5.5516 1.8391 2.2422
5.4851 2.0422 2.2422
5.4122 2.2432 2.2422
5.3330 2.4420 2.2422
5.2473 2.6384 2.2422
5.5057 3.0248 2.3946
5.4008 3.2290 2.3946
5.2893 3.4299 2.3946
5.1711 3.6278 2.3946
5.0465 3.8221 2.3946
4.9155 4.0128 2.3946
4.7781 4.1997 2.3946
4.6344 4.3824 2.3946
4.4845 4.5610 2.3946
4.3285 4.7352 2.3946
4.1665 4.9047 2.3946
3.9986 5.0695 2.3946
3.8249 5.2293 2.3946
3.6455 5.3839 2.3946
3.4605 5.5330 2.3946
3.2701 5.6766 2.3946
3.0743 5.8145 2.3946
2.8733 5.9463 2.3946
2.6673 6.0720 2.3946
2.4564 6.1913 2.3946
2.2407 6.3041 2.3946
0.8499 2.6964 1.0073
0.7524 2.7271 1.0032
0.6538 2.7542 0.9991
0.5543 2.7778 0.9949
0.4541 2.7977 0.9906
0.3531 2.8140 0.9863
0.2516 2.8267 0.9819
0.1498 2.8357 0.9775
0.0476 2.8410 0.9730
-0.0546 2.8426 0.9684
-0.1569 2.8405 0.9638
-0.2590 2.8346 0.9592
-0.3609 2.8251 0.9546
-0.4623 2.8120 0.9499
-0.5632 2.7951 0.9453
-0.6634 2.7746 0.9406
-0.7628 2.7505 0.9359
-0.8613 2.7228 0.9313
-2.4774 6.9557 2.3946
-2.7398 6.9005 2.3946
-3.0012 6.8355 2.3946
-3.2614 6.7607 2.3946
-3.5199 6.6760 2.3946
-3.7764 6.5815 2.3946
-4.0304 6.4771 2.3946
-4.2816 6.3628 2.3946
-4.5294 6.2386 2.3946
-4.7735 6.1046 2.3946
-5.0135 5.9609 2.3946
-5.2488 5.8076 2.3946
-5.4791 5.6447 2.3946
-5.7040 5.4725 2.3946
-5.9229 5.2909 2.3946
-6.1355 5.1004 2.3946
-6.3413 4.9009 2.3946
-6.5399 4.6928 2.3946
-6.7309 4.4763 2.3946
-6.9138 4.2517 2.3946
-7.0883 4.0193 2.3946
-7.2539 3.7794 2.3946
-7.4102 3.5323 2.3946
-7.5569 3.2785 2.3946
-7.6937 3.0182 2.3946
-7.8202 2.7520 2.3946
-7.9360 2.4801 2.3946
-8.0409 2.2032 2.3946
-8.1346 1.9217 2.3946
-8.2169 1.6360 2.3946
-8.2875 1.3466 2.3946
-8.3462 1.0542 2.3946
-8.3928 0.7591 2.3946
-8.4273 0.4620 2.3946
-8.4494 0.1634 2.3946
-8.4591 -0.1361 2.3946
-8.4564 -0.4360 2.3946
-8.4412 -0.7357 2.3946
-8.4135 -1.0347 2.3946
-8.3733 -1.3323 2.3946
-8.3208 -1.6280 2.3946
-8.2560 -1.9212 2.3946
-8.1791 -2.2113 2.3946
-8.0902 -2.4980 2.3946
4.2374 -3.9030 2.2438
4.3604 -3.7332 2.2442
4.4773 -3.5600 2.2446
4.5880 -3.3836 2.2450
4.6926 -3.2042 2.2453
4.7909 -3.0220 2.2456
4.8830 -2.8372 2.2460
4.9687 -2.6501 2.2463
5.0480 -2.4607 2.2466
5.1210 -2.2693 2.2468
5.1875 -2.0762 2.2471
5.2464 -1.8809 2.2468
5.2998 -1.6847 2.2470
5.3468 -1.4873 2.2471
5.3866 -1.2886 2.2469
5.4193 -1.0890 2.2465
5.4449 -0.8887 2.2459
5.4642 -0.6882 2.2452
5.4769 -0.4874 2.2445
5.4827 -0.2865 2.2437
5.2964 -0.0830 2.1668
5.3542 0.1118 2.1925
5.4643 0.3141 2.2422
5.4467 0.5134 2.2422
5.4227 0.7119 2.2422
5.3925 0.9095 2.2422
5.3559 1.1061 2.2422
5.3131 1.3014 2.2422
5.2641 1.4953 2.2422
5.2088 1.6876 2.2422
5.1475 1.8782 2.2422
5.0800 2.0668 2.2422
5.0065 2.2534 2.2422
4.9269 2.4378 2.2422
5.1705 2.7978 2.3946
5.0728 2.9894 2.3946
4.9689 3.1780 2.3946
4.8589 3.3636 2.3946
4.7427 3.5457 2.3946
4.6204 3.7246 2.3946
4.4921 3.8998 2.3946
4.3580 4.0711 2.3946
4.2181 4.2384 2.3946
4.0724 4.4015 2.3946
3.9211 4.5601 2.3946
3.7642 4.7144 2.3946
3.6020 4.8639 2.3946
3.4344 5.0083 2.3946
3.2616 5.1477 2.3946
3.0838 5.2819 2.3946
2.9009 5.4105 2.3946
2.7133 5.5335 2.3946
2.5210 5.6507 2.3946
2.3242 5.7618 2.3946
2.1230 5.8668 2.3946
0.8033 2.4991 1.0032
0.7129 2.5283 0.9995
0.6215 2.5541 0.9956
0.5292 2.5766 0.9918
0.4362 2.5957 0.9878
0.3425 2.6115 0.9838
0.2483 2.6239 0.9797
0.1537 2.6328 0.9756
0.0588 2.6384 0.9714
-0.0362 2.6405 0.9672
-0.1312 2.6391 0.9630
-0.2261 2.6344 0.9587
-0.3208 2.6262 0.9544
-0.4151 2.6145 0.9501
-0.5090 2.5995 0.9457
-0.6022 2.5811 0.9414
-0.6947 2.5593 0.9370
-0.7864 2.5342 0.9327
-0.8770 2.5058 0.9284
-2.5048 6.4114 2.3946
-2.7467 6.3505 2.3946
-2.9872 6.2805 2.3946
-3.2261 6.2015 2.3946
-3.4630 6.1134 2.3946
-3.6975 6.0161 2.3946
-3.9293 5.9098 2.3946
-4.1579 5.7945 2.3946
-4.3830 5.6702 2.3946
-4.6042 5.5370 2.3946
-4.8210 5.3949 2.3946
-5.0332 5.2442 2.3946
-5.2402 5.0848 2.3946
-5.4418 4.9170 2.3946
-5.6375 4.7410 2.3946
-5.8269 4.5569 2.3946
-6.0096 4.3649 2.3946
-6.1853 4.1653 2.3946
-6.3536 3.9583 2.3946
-6.5142 3.7442 2.3946
-6.6666 3.5233 2.3946
-6.8105 3.2959 2.3946
-6.9457 3.0624 2.3946
-7.0717 2.8230 2.3946
-7.1883 2.5782 2.3946
-7.2953 2.3283 2.3946
-7.3922 2.0738 2.3946
-7.4790 1.8151 2.3946
-7.5554 1.5526 2.3946
-7.6211 1.2867 2.3946
-7.6760 1.0180 2.3946
-7.7200 0.7470 2.3946
-7.7528 0.4740 2.3946
-7.7745 0.1996 2.3946
-7.7849 -0.0757 2.3946
-7.7840 -0.3514 2.3946
-7.7718 -0.6269 2.3946
-7.7481 -0.9019 2.3946
-7.7132 -1.1757 2.3946
-7.6670 -1.4478 2.3946
-7.6097 -1.7178 2.3946
-7.5412 -1.9852 2.3946
-7.4619 -2.2494 2.3946
-7.3718 -2.5100 2.3946
-7.2711 -2.7665 2.3946
-7.1600 -3.0184 2.3946
-7.0389 -3.2653 2.3946
-6.9079 -3.5068 2.3946
-6.7673 -3.7424 2.3946
-6.6174 -3.9717 2.3946
-6.4586 -4.1944 2.3946
-6.2912 -4.4101 2.3946
-6.1155 -4.6184 2.3946
-5.9320 -4.8191 2.3946
-5.7409 -5.0118 2.3946
-5.5428 -5.1962 2.3946
-5.3379 -5.3722 2.3946
-5.1268 -5.5394 2.3946
-4.9098 -5.6977 2.3946
-4.6873 -5.8468 2.3946
-4.4599 -5.9867 2.3946
-4.2279 -6.1171 2.3946
-3.9917 -6.2380 2.3946
-3.7518 -6.3492 2.3946
-3.5087 -6.4508 2.3946
-3.2628 -6.5425 2.3946
-3.0144 -6.6245 2.3946
-2.7640 -6.6967 2.3946
-2.5121 -6.7591 2.3946
-2.2590 -6.8117 2.3946
-2.0052 -6.8545 2.3946
-1.7509 -6.8877 2.3946
-1.4968 -6.9113 2.3946
-1.2430 -6.9255 2.3946
-0.9900 -6.9302 2.3946
-0.7380 -6.9257 2.3946
-0.4876 -6.9120 2.3946
-0.2389 -6.8893 2.3946
0.0076 -6.8578 2.3946
0.2517 -6.8176 2.3946
0.4931 -6.7690 2.3946
0.7315 -6.7120 2.3946
0.9666 -6.6468 2.3946
1.1982 -6.5738 2.3946
1.4260 -6.4930 2.3946
1.6498 -6.4047 2.3946
1.8694 -6.3091 2.3946
2.0845 -6.2064 2.3946
2.2949 -6.0968 2.3946
2.5005 -5.9806 2.3946
2.7011 -5.8579 2.3946
2.8964 -5.7290 2.3946
3.0865 -5.5941 2.3946
3.2710 -5.4535 2.3946
3.4499 -5.3074 2.3946
3.4870 -4.9624 2.3047
3.5490 -4.6812 2.2422
3.7000 -4.5302 2.2422
3.8460 -4.3756 2.2426
3.9862 -4.2168 2.2431
4.1206 -4.0540 2.2435
4.2490 -3.8875 2.2439
4.3714 -3.7173 2.2443
4.4878 -3.5438 2.2446
4.5980 -3.3671 2.2450
4.7020 -3.1874 2.2453
4.7997 -3.0050 2.2457
4.8912 -2.8200 2.2460
4.9763 -2.6326 2.2463
5.0551 -2.4431 2.2466
5.1274 -2.2515 2.2469
5.1934 -2.0582 2.2471
5.2516 -1.8629 2.2468
5.3044 -1.6665 2.2470
5.3509 -1.4689 2.2471
5.3899 -1.2702 2.2469
5.4219 -1.0705 2.2465
5.4470 -0.8702 2.2458
5.4657 -0.6696 2.2452
5.4777 -0.4688 2.2445
5.4829 -0.2680 2.2436
5.2879 -0.0650 2.1635
5.3948 0.1309 2.2094
5.4630 0.3326 2.2422
5.4448 0.5318 2.2422
5.4202 0.7302 2.2422
5.3893 0.9277 2.2422
5.3522 1.1242 2.2422
5.3088 1.3194 2.2422
5.2592 1.5131 2.2422
5.2034 1.7053 2.2422
5.1415 1.8957 2.2422
5.0734 2.0842 2.2422
4.9993 2.2706 2.2422
4.9192 2.4547 2.2422
5.1617 2.8157 2.3946
5.0635 3.0070 2.3946
4.9590 3.1953 2.3946
4.8484 3.3806 2.3946
4.7316 3.5625 2.3946
4.6088 3.7410 2.3946
4.4800 3.9158 2.3946
4.3453 4.0867 2.3946
4.2048 4.2536 2.3946
4.0586 4.4164 2.3946
3.9068 4.5746 2.3946
3.7495 4.7284 2.3946
3.5867 4.8774 2.3946
3.4186 5.0215 2.3946
3.2454 5.1604 2.3946
3.0671 5.2940 2.3946
2.8838 5.4221 2.3946
2.6957 5.5446 2.3946
2.5030 5.6612 2.3946
2.3057 5.7718 2.3946
0.8844 2.4699 1.0065
0.7950 2.5020 1.0028
0.7045 2.5308 0.9991
0.6130 2.5563 0.9953
0.5206 2.5785 0.9914
0.4275 2.5973 0.9874
0.3338 2.6128 0.9834
0.2395 2.6248 0.9793
0.1449 2.6335 0.9752
0.0500 2.6387 0.9710
-0.0450 2.6405 0.9668
-0.1400 2.6388 0.9626
-0.2349 2.6338 0.9583
-0.3295 2.6252 0.9540
-0.4238 2.6133 0.9497
-0.5176 2.5980 0.9453
-0.6108 2.5792 0.9410
-0.7032 2.5572 0.9366
-0.7948 2.5317 0.9323
-0.8854 2.5030 0.9280
-2.5273 6.4061 2.3946
-2.7690 6.3444 2.3946
-3.0094 6.2736 2.3946
-3.2481 6.1937 2.3946
-3.4848 6.1048 2.3946
-3.7191 6.0067 2.3946
-3.9506 5.8996 2.3946
-4.1789 5.7834 2.3946
-4.4036 5.6582 2.3946
-4.6244 5.5242 2.3946
-4.8409 5.3813 2.3946
-5.0526 5.2298 2.3946
-5.2591 5.0696 2.3946
-5.4602 4.9011 2.3946
-5.6553 4.7243 2.3946
-5.8441 4.5395 2.3946
-6.0262 4.3468 2.3946
-6.2012 4.1465 2.3946
-6.3688 3.9388 2.3946
-6.5286 3.7241 2.3946
-6.6803 3.5026 2.3946
-6.8234 3.2746 2.3946
-6.9577 3.0405 2.3946
-7.0829 2.8006 2.3946
-7.1986 2.5553 2.3946
-7.3046 2.3049 2.3946
-7.4007 2.0500 2.3946
-7.4865 1.7909 2.3946
-7.5619 1.5281 2.3946
-7.6266 1.2620 2.3946
-7.6805 0.9931 2.3946
-7.7235 0.7218 2.3946
-7.7553 0.4487 2.3946
-7.7760 0.1742 2.3946
-7.7853 -0.1012 2.3946
-7.7834 -0.3769 2.3946
-7.7700 -0.6524 2.3946
-7.7454 -0.9272 2.3946
-7.7094 -1.2009 2.3946
-7.6622 -1.4729 2.3946
-7.6038 -1.7427 2.3946
-7.5343 -2.0098 2.3946
-7.4540 -2.2737 2.3946
-7.3629 -2.5339 2.3946
-7.2612 -2.7900 2.3946
-7.1492 -3.0415 2.3946
-7.0272 -3.2879 2.3946
-6.8953 -3.5288 2.3946
-6.7538 -3.7639 2.3946
-6.6031 -3.9926 2.3946
-6.4435 -4.2146 2.3946
-6.2753 -4.4297 2.3946
-6.0989 -4.6373 2.3946
-5.9146 -4.8373 2.3946
-5.7229 -5.0292 2.3946
-5.5241 -5.2129 2.3946
-5.3186 -5.3880 2.3946
-5.1069 -5.5544 2.3946
-4.8894 -5.7118 2.3946
-4.6665 -5.8601 2.3946
-4.4386 -5.9991 2.3946
-4.2062 -6.1288 2.3946
-3.9697 -6.2487 2.3946
-3.7295 -6.3590 2.3946
-3.4861 -6.4597 2.3946
-3.2399 -6.5505 2.3946
-2.9913 -6.6316 2.3946
-2.7408 -6.7029 2.3946
-2.4887 -6.7643 2.3946
-2.2356 -6.8160 2.3946
-1.9817 -6.8580 2.3946
-1.7274 -6.8903 2.3946
-1.4733 -6.9131 2.3946
-1.2195 -6.9263 2.3946
-0.9666 -6.9302 2.3946
-0.7148 -6.9248 2.3946
-0.4645 -6.9103 2.3946
-0.2160 -6.8868 2.3946
0.0303 -6.8545 2.3946
0.2742 -6.8135 2.3946
0.5153 -6.7640 2.3946
0.7534 -6.7063 2.3946
0.9882 -6.6404 2.3946
1.2195 -6.5666 2.3946
1.4469 -6.4852 2.3946
1.6703 -6.3962 2.3946
1.8895 -6.2999 2.3946
2.1041 -6.1965 2.3946
2.3141 -6.0863 2.3946
2.5193 -5.9695 2.3946
2.7194 -5.8462 2.3946
2.9143 -5.7168 2.3946
3.1038 -5.5814 2.3946
3.2878 -5.4402 2.3946
3.4661 -5.2936 2.3946
3.4825 -4.9209 2.2918
3.5632 -4.6674 2.2422
3.7137 -4.5160 2.2422
3.8592 -4.3611 2.2427
3.9989 -4.2019 2.2431
4.1327 -4.0388 2.2435
4.2606 -3.8719 2.2439
4.3825 -3.7014 2.2443
4.4982 -3.5276 2.2447
4.6079 -3.3506 2.2450
4.7113 -3.1707 2.2454
4.8085 -2.9880 2.2457
4.8993 -2.8028 2.2460
4.9839 -2.6152 2.2463
5.0620 -2.4254 2.2466
5.1338 -2.2337 2.2469
5.1991 -2.0402 2.2471
5.2568 -1.8447 2.2469
5.3090 -1.6483 2.2470
5.3548 -1.4506 2.2472
5.3932 -1.2517 2.2469
5.4245 -1.0520 2.2464
5.4490 -0.8517 2.2458
5.4671 -0.6510 2.2451
5.4784 -0.4502 2.2444
5.4830 -0.2494 2.2435
5.2809 -0.0471 2.1607
5.4740 0.1513 2.2422
5.4616 0.3510 2.2422
5.4428 0.5502 2.2422
5.4176 0.7485 2.2422
5.3862 0.9460 2.2422
5.3484 1.1423 2.2422
5.3045 1.3373 2.2422
5.2543 1.5310 2.2422
5.1979 1.7230 2.2422
5.1354 1.9132 2.2422
5.0668 2.1015 2.2422
4.9922 2.2877 2.2422
4.9115 2.4717 2.2422
5.1529 2.8335 2.3946
5.0541 3.0245 2.3946
4.9490 3.2126 2.3946
4.8378 3.3975 2.3946
4.7205 3.5792 2.3946
4.5971 3.7573 2.3946
4.4678 3.9317 2.3946
4.3326 4.1023 2.3946
4.1915 4.2688 2.3946
4.0448 4.4312 2.3946
3.8925 4.5891 2.3946
3.7346 4.7424 2.3946
3.5714 4.8910 2.3946
3.4028 5.0345 2.3946
3.2291 5.1730 2.3946
3.0503 5.3061 2.3946
2.8666 5.4337 2.3946
2.6781 5.5556 2.3946
2.4849 5.6717 2.3946
2.2873 5.7817 2.3946
0.8762 2.4730 1.0062
0.7867 2.5048 1.0025
0.6961 2.5333 0.9988
0.6045 2.5585 0.9949
0.5121 2.5804 0.9910
0.4189 2.5989 0.9871
0.3251 2.6140 0.9830
0.2308 2.6258 0.9790
0.1361 2.6341 0.9748
0.0412 2.6390 0.9706
-0.0538 2.6405 0.9664
-0.1488 2.6385 0.9622
-0.2437 2.6331 0.9579
-0.3383 2.6243 0.9536
-0.4325 2.6120 0.9493
-0.5263 2.5964 0.9449
-0.6194 2.5773 0.9406
-0.7117 2.5549 0.9362
-0.8032 2.5292 0.9319
-0.8937 2.5002 0.9276
-2.5497 6.4008 2.3946
-2.7913 6.3382 2.3946
-3.0316 6.2666 2.3946
-3.2701 6.1859 2.3946
-3.5066 6.0961 2.3946
-3.7406 5.9972 2.3946
-3.9718 5.8892 2.3946
-4.1998 5.7722 2.3946
-4.4242 5.6462 2.3946
-4.6446 5.5113 2.3946
-4.8606 5.3677 2.3946
-5.0719 5.2153 2.3946
-5.2780 5.0544 2.3946
-5.4785 4.8851 2.3946
-5.6730 4.7075 2.3946
-5.8612 4.5220 2.3946
-6.0427 4.3286 2.3946
-6.2171 4.1276 2.3946
-6.3839 3.9192 2.3946
-6.5430 3.7039 2.3946
-6.6939 3.4817 2.3946
-6.8362 3.2532 2.3946
-6.9697 3.0185 2.3946
-7.0940 2.7781 2.3946
-7.2088 2.5323 2.3946
-7.3140 2.2815 2.3946
-7.4091 2.0262 2.3946
-7.4939 1.7668 2.3946
-7.5683 1.5036 2.3946
-7.6321 1.2372 2.3946
-7.6850 0.9681 2.3946
-7.7269 0.6966 2.3946
-7.7577 0.4233 2.3946
-7.7773 0.1487 2.3946
-7.7856 -0.1267 2.3946
-7.7826 -0.4024 2.3946
-7.7682 -0.6778 2.3946
-7.7425 -0.9526 2.3946
-7.7055 -1.2262 2.3946
-7.6572 -1.4980 2.3946
-7.5978 -1.7675 2.3946
-7.5274 -2.0343 2.3946
-7.4460 -2.2979 2.3946
3.9664 -3.6603 2.2433
4.0825 -3.5018 2.2437
4.1929 -3.3400 2.2440
4.2976 -3.1751 2.2444
4.3965 -3.0073 2.2447
4.4895 -2.8369 2.2450
4.5766 -2.6639 2.2453
4.6578 -2.4886 2.2456
4.7329 -2.3112 2.2459
4.8021 -2.1318 2.2461
4.8652 -1.9507 2.2464
4.9222 -1.7680 2.2466
4.9732 -1.5839 2.2468
5.0071 -1.3955 2.2422
5.0453 -1.2095 2.2422
5.0774 -1.0226 2.2422
5.1034 -0.8351 2.2422
5.1234 -0.6471 2.2422
5.1372 -0.4587 2.2422
5.1449 -0.2703 2.2422
5.1466 -0.0818 2.2422
5.1422 0.1064 2.2422
5.1318 0.2943 2.2422
5.1154 0.4817 2.2422
5.0929 0.6683 2.2422
5.0645 0.8541 2.2422
5.0301 1.0390 2.2422
4.9897 1.2226 2.2422
4.9435 1.4049 2.2422
4.8915 1.5857 2.2422
4.8336 1.7648 2.2422
4.7699 1.9421 2.2422
4.7005 2.1174 2.2422
4.6254 2.2906 2.2422
4.8536 2.6287 2.3946
4.7615 2.8086 2.3946
4.6634 2.9856 2.3946
4.5595 3.1597 2.3946
4.4498 3.3306 2.3946
4.3344 3.4982 2.3946
4.2134 3.6623 2.3946
4.0868 3.8227 2.3946
3.9548 3.9793 2.3946
3.8174 4.1318 2.3946
3.6748 4.2802 2.3946
3.5269 4.4242 2.3946
3.3740 4.5637 2.3946
3.2161 4.6985 2.3946
3.0534 4.8284 2.3946
2.8859 4.9533 2.3946
2.7139 5.0730 2.3946
2.5374 5.1872 2.3946
2.3565 5.2959 2.3946
2.1715 5.3989 2.3946
0.8298 2.3006 1.0024
0.7465 2.3308 0.9990
0.6622 2.3579 0.9955
0.5769 2.3820 0.9919
0.4908 2.4030 0.9883
0.4040 2.4208 0.9846
0.3166 2.4355 0.9809
0.2287 2.4470 0.9771
0.1405 2.4554 0.9732
0.0520 2.4605 0.9693
-0.0366 2.4625 0.9654
-0.1252 2.4612 0.9614
-0.2138 2.4568 0.9574
-0.3021 2.4491 0.9534
-0.3901 2.4383 0.9494
-0.4776 2.4243 0.9454
-0.5646 2.4071 0.9413
-0.6508 2.3868 0.9373
-0.7363 2.3634 0.9332
-0.8209 2.3369 0.9292
-0.9045 2.3074 0.9251
-2.5657 5.9135 2.3946
-2.7888 5.8465 2.3946
-3.0104 5.7711 2.3946
-3.2299 5.6872 2.3946
-3.4470 5.5950 2.3946
-3.6615 5.4944 2.3946
-3.8729 5.3855 2.3946
-4.0810 5.2683 2.3946
-4.2852 5.1429 2.3946
-4.4854 5.0094 2.3946
-4.6811 4.8679 2.3946
-4.8719 4.7186 2.3946
-5.0576 4.5615 2.3946
-5.2377 4.3969 2.3946
-5.4120 4.2249 2.3946
-5.5800 4.0458 2.3946
-5.7414 3.8597 2.3946
-5.8960 3.6669 2.3946
-6.0433 3.4676 2.3946
-6.1830 3.2622 2.3946
-6.3149 3.0508 2.3946
-6.4387 2.8339 2.3946
-6.5540 2.6117 2.3946
-6.6607 2.3846 2.3946
-6.7584 2.1530 2.3946
-6.8470 1.9171 2.3946
-6.9261 1.6775 2.3946
-6.9957 1.4345 2.3946
-7.0555 1.1884 2.3946
-7.1054 0.9399 2.3946
-7.1453 0.6891 2.3946
-7.1750 0.4367 2.3946
-7.1944 0.1831 2.3946
-7.2035 -0.0714 2.3946
-7.2022 -0.3262 2.3946
-7.1906 -0.5808 2.3946
-7.1685 -0.8349 2.3946
-7.1361 -1.0879 2.3946
-7.0934 -1.3394 2.3946
-7.0405 -1.5889 2.3946
-6.9774 -1.8361 2.3946
-6.9044 -2.0803 2.3946
-6.8215 -2.3213 2.3946
-6.7289 -2.5585 2.3946
-6.6268 -2.7916 2.3946
-6.5154 -3.0201 2.3946
-6.3950 -3.2437 2.3946
-6.2658 -3.4620 2.3946
-6.1280 -3.6745 2.3946
-5.9820 -3.8810 2.3946
-5.8281 -4.0812 2.3946
-5.6665 -4.2747 2.3946
-5.4977 -4.4612 2.3946
-5.3219 -4.6404 2.3946
-5.1395 -4.8121 2.3946
-4.9509 -4.9761 2.3946
-4.7565 -5.1321 2.3946
-4.5565 -5.2799 2.3946
-4.3515 -5.4194 2.3946
-4.1417 -5.5504 2.3946
-3.9277 -5.6728 2.3946
-3.7097 -5.7864 2.3946
-3.4882 -5.8912 2.3946
-3.2635 -5.9870 2.3946
-3.0361 -6.0739 2.3946
-2.8064 -6.1518 2.3946
-2.5747 -6.2206 2.3946
-2.3414 -6.2804 2.3946
-2.1069 -6.3312 2.3946
-1.8715 -6.3730 2.3946
-1.6357 -6.4059 2.3946
-1.3997 -6.4298 2.3946
-1.1640 -6.4450 2.3946
-0.9288 -6.4514 2.3946
-0.6946 -6.4492 2.3946
-0.4615 -6.4385 2.3946
-0.2300 -6.4194 2.3946
-0.0003 -6.3921 2.3946
0.2273 -6.3566 2.3946
0.4526 -6.3132 2.3946
0.6751 -6.2620 2.3946
0.8947 -6.2032 2.3946
1.1112 -6.1369 2.3946
1.3243 -6.0633 2.3946
1.5337 -5.9827 2.3946
1.7393 -5.8951 2.3946
1.9408 -5.8009 2.3946
2.1381 -5.7001 2.3946
2.3310 -5.5930 2.3946
2.5192 -5.4799 2.3946
2.7027 -5.3608 2.3946
2.8813 -5.2360 2.3946
3.0548 -5.1058 2.3946
3.2231 -4.9702 2.3946
3.3860 -4.8297 2.3946
3.4107 -4.5086 2.3048
3.4603 -4.2456 2.2422
3.5972 -4.1009 2.2422
3.7294 -3.9529 2.2426
3.8562 -3.8012 2.2430
3.9774 -3.6458 2.2433
4.0930 -3.4869 2.2437
4.2029 -3.3248 2.2440
4.3070 -3.1597 2.2444
4.4053 -2.9917 2.2447
4.4978 -2.8210 2.2450
4.5844 -2.6478 2.2453
4.6650 -2.4723 2.2456
4.7396 -2.2947 2.2459
4.8082 -2.1151 2.2461
4.8707 -1.9339 2.2464
4.9272 -1.7510 2.2466
4.9672 -1.5635 2.2422
5.0109 -1.3784 2.2422
5.0486 -1.1922 2.2422
5.0801 -1.0053 2.2422
5.1055 -0.8177 2.2422
5.1249 -0.6296 2.2422
5.1382 -0.4413 2.2422
5.1454 -0.2528 2.2422
5.1465 -0.0644 2.2422
5.1415 0.1238 2.2422
5.1305 0.3117 2.2422
5.1135 0.4990 2.2422
5.0905 0.6856 2.2422
5.0615 0.8713 2.2422
5.0266 1.0560 2.2422
4.9857 1.2395 2.2422
4.9390 1.4217 2.2422
4.8864 1.6023 2.2422
4.8279 1.7813 2.2422
4.7637 1.9584 2.2422
4.6938 2.1335 2.2422
4.6182 2.3065 2.2422
4.8453 2.6455 2.3946
4.7526 2.8251 2.3946
4.6540 3.0019 2.3946
4.5496 3.1756 2.3946
4.4393 3.3462 2.3946
4.3234 3.5135 2.3946
4.2019 3.6773 2.3946
4.0748 3.8373 2.3946
3.9423 3.9936 2.3946
3.8044 4.1457 2.3946
3.6613 4.2938 2.3946
3.5130 4.4373 2.3946
3.3596 4.5764 2.3946
3.2013 4.7108 2.3946
3.0381 4.8402 2.3946
2.8702 4.9646 2.3946
2.6977 5.0838 2.3946
2.5208 5.1975 2.3946
2.3396 5.3057 2.3946
2.1542 5.4081 2.3946
0.8222 2.3035 1.0021
0.7388 2.3334 0.9986
0.6543 2.3603 0.9951
0.5690 2.3841 0.9916
0.4828 2.4047 0.9880
0.3959 2.4223 0.9843
0.3085 2.4367 0.9805
0.2206 2.4479 0.9767
0.1323 2.4560 0.9729
0.0438 2.4609 0.9690
-0.0448 2.4625 0.9650
-0.1334 2.4610 0.9611
-0.2219 2.4562 0.9571
-0.3102 2.4483 0.9531
-0.3982 2.4371 0.9490
-0.4857 2.4228 0.9450
-0.5726 2.4054 0.9409
-0.6588 2.3848 0.9369
-0.7442 2.3611 0.9328
-0.8287 2.3343 0.9288
-0.9122 2.3045 0.9248
-2.5864 5.9077 2.3946
-2.8094 5.8399 2.3946
-3.0308 5.7637 2.3946
-3.2501 5.6791 2.3946
-3.4670 5.5861 2.3946
-3.6812 5.4847 2.3946
-3.8923 5.3750 2.3946
-4.1000 5.2570 2.3946
-4.3039 5.1309 2.3946
-4.5037 4.9966 2.3946
-4.6989 4.8544 2.3946
-4.8893 4.7044 2.3946
-5.0745 4.5466 2.3946
-5.2541 4.3813 2.3946
-5.4278 4.2087 2.3946
-5.5952 4.0289 2.3946
-5.7560 3.8421 2.3946
-5.9099 3.6487 2.3946
-6.0565 3.4489 2.3946
-6.1956 3.2429 2.3946
-6.3267 3.0310 2.3946
-6.4497 2.8136 2.3946
-6.5643 2.5909 2.3946
-6.6701 2.3634 2.3946
-6.7670 2.1313 2.3946
-6.8547 1.8951 2.3946
-6.9330 1.6552 2.3946
-7.0017 1.4118 2.3946
-7.0606 1.1656 2.3946
-7.1095 0.9168 2.3946
-7.1484 0.6659 2.3946
-7.1772 0.4133 2.3946
-7.1957 0.1596 2.3946
-7.2038 -0.0949 2.3946
-7.2016 -0.3497 2.3946
-7.1890 -0.6043 2.3946
-7.1660 -0.8583 2.3946
-7.1326 -1.1112 2.3946
-7.0890 -1.3626 2.3946
-7.0351 -1.6119 2.3946
-6.9711 -1.8588 2.3946
-6.8971 -2.1028 2.3946
-6.8133 -2.3434 2.3946
-6.7198 -2.5803 2.3946
-6.6169 -2.8129 2.3946
-6.5046 -3.0410 2.3946
-6.3834 -3.2641 2.3946
-6.2534 -3.4819 2.3946
-6.1149 -3.6939 2.3946
-5.9681 -3.8998 2.3946
-5.8135 -4.0994 2.3946
-5.6512 -4.2922 2.3946
-5.4817 -4.4780 2.3946
-5.3053 -4.6566 2.3946
-5.1223 -4.8276 2.3946
-4.9332 -4.9908 2.3946
-4.7382 -5.1462 2.3946
-4.5377 -5.2932 2.3946
-4.3323 -5.4319 2.3946
-4.1221 -5.5621 2.3946
-3.9076 -5.6836 2.3946
-3.6893 -5.7964 2.3946
-3.4675 -5.9004 2.3946
-3.2426 -5.9954 2.3946
-3.0149 -6.0815 2.3946
-2.7850 -6.1585 2.3946
-2.5531 -6.2265 2.3946
-2.3197 -6.2855 2.3946
-2.0851 -6.3355 2.3946
-1.8497 -6.3764 2.3946
-1.6138 -6.4084 2.3946
-1.3779 -6.4316 2.3946
-1.1422 -6.4459 2.3946
-0.9071 -6.4516 2.3946
-0.6730 -6.4486 2.3946
-0.4400 -6.4371 2.3946
-0.2086 -6.4172 2.3946
0.0209 -6.3891 2.3946
0.2483 -6.3529 2.3946
0.4733 -6.3088 2.3946
0.6955 -6.2569 2.3946
0.9149 -6.1974 2.3946
1.1310 -6.1304 2.3946
1.3438 -6.0562 2.3946
1.5529 -5.9749 2.3946
1.7581 -5.8867 2.3946
1.9592 -5.7918 2.3946
2.1561 -5.6905 2.3946
2.3486 -5.5828 2.3946
2.5364 -5.4691 2.3946
2.7195 -5.3495 2.3946
2.8976 -5.2242 2.3946
3.0706 -5.0935 2.3946
3.2384 -4.9574 2.3946
3.4008 -4.8164 2.3946
3.4068 -4.4723 2.2930
3.4732 -4.2323 2.2422
3.6097 -4.0873 2.2422
3.7414 -3.9391 2.2426
3.8676 -3.7869 2.2430
3.9883 -3.6312 2.2434
4.1034 -3.4721 2.2437
4.2127 -3.3097 2.2441
4.3163 -3.1443 2.2444
4.4141 -2.9760 2.2447
4.5061 -2.8050 2.2451
4.5921 -2.6316 2.2454
4.6721 -2.4559 2.2456
4.7462 -2.2781 2.2459
4.8142 -2.0984 2.2462
4.8762 -1.9170 2.2464
4.9321 -1.7340 2.2466
4.9715 -1.5465 2.2422
5.0147 -1.3612 2.2422
5.0517 -1.1750 2.2422
5.0827 -0.9879 2.2422
5.1076 -0.8003 2.2422
5.1264 -0.6122 2.2422
5.1391 -0.4239 2.2422
5.1457 -0.2354 2.2422
5.1463 -0.0470 2.2422
5.1408 0.1412 2.2422
5.1292 0.3290 2.2422
5.1116 0.5162 2.2422
5.0881 0.7028 2.2422
5.0585 0.8884 2.2422
5.0230 1.0730 2.2422
4.9816 1.2564 2.2422
4.9343 1.4384 2.2422
4.8812 1.6189 2.2422
4.8222 1.7977 2.2422
4.7575 1.9747 2.2422
4.6871 2.1496 2.2422
4.6215 2.3277 2.2473
4.8370 2.6622 2.3946
4.7438 2.8416 2.3946
4.6446 3.0181 2.3946
4.5396 3.1915 2.3946
4.4289 3.3619 2.3946
4.3124 3.5288 2.3946
4.1904 3.6923 2.3946
4.0628 3.8519 2.3946
3.9298 4.0078 2.3946
3.7914 4.1596 2.3946
3.6478 4.3071 2.3946
3.4990 4.4504 2.3946
3.3452 4.5890 2.3946
3.1864 4.7229 2.3946
3.0228 4.8519 2.3946
2.8545 4.9758 2.3946
2.6816 5.0945 2.3946
2.5042 5.2078 2.3946
2.3226 5.3154 2.3946
2.1368 5.4173 2.3946
0.8145 2.3064 1.0017
0.7310 2.3360 0.9983
0.6465 2.3626 0.9948
0.5610 2.3861 0.9912
0.4748 2.4065 0.9876
0.3879 2.4238 0.9839
0.3004 2.4379 0.9802
0.2124 2.4488 0.9763
0.1241 2.4566 0.9725
0.0356 2.4611 0.9686
-0.0530 2.4625 0.9647
-0.1416 2.4607 0.9607
-0.2301 2.4556 0.9567
-0.3184 2.4474 0.9527
-0.4063 2.4359 0.9486
-0.4937 2.4213 0.9446
-0.5806 2.4036 0.9406
-0.6667 2.3827 0.9365
-0.7521 2.3587 0.9325
-0.8365 2.3317 0.9284
-0.9199 2.3016 0.9244
-2.6071 5.9018 2.3946
-2.8300 5.8332 2.3946
-3.0511 5.7562 2.3946
-3.2702 5.6708 2.3946
-3.4869 5.5770 2.3946
-3.7009 5.4749 2.3946
-3.9117 5.3644 2.3946
-4.1190 5.2457 2.3946
-4.3226 5.1188 2.3946
-4.5219 4.9838 2.3946
-4.7168 4.8409 2.3946
-4.9067 4.6901 2.3946
-5.0914 4.5316 2.3946
-5.2704 4.3656 2.3946
-5.4436 4.1923 2.3946
-5.6104 4.0119 2.3946
-5.7706 3.8245 2.3946
-5.9238 3.6305 2.3946
-6.0697 3.4301 2.3946
-6.2080 3.2235 2.3946
-6.3385 3.0111 2.3946
-6.4607 2.7932 2.3946
-6.5744 2.5701 2.3946
-6.6795 2.3421 2.3946
-6.7755 2.1096 2.3946
-6.8623 1.8731 2.3946
-6.9397 1.6328 2.3946
-7.0075 1.3892 2.3946
-7.0655 1.1426 2.3946
-7.1136 0.8936 2.3946
-7.1515 0.6426 2.3946
-7.1793 0.3899 2.3946
-7.1968 0.1360 2.3946
-7.2040 -0.1185 2.3946
-7.2008 -0.3733 2.3946
-7.1873 -0.6279 2.3946
-7.1633 -0.8818 2.3946
-7.1290 -1.1345 2.3946
-7.0844 -1.3857 2.3946
-7.0296 -1.6349 2.3946
-6.9647 -1.8815 2.3946
-6.8898 -2.1252 2.3946
3.7233 -3.4426 2.2428
3.8332 -3.2941 2.2432
3.9377 -3.1425 2.2435
4.0368 -2.9879 2.2438
4.1305 -2.8305 2.2441
4.2187 -2.6705 2.2444
4.3013 -2.5081 2.2447
4.3783 -2.3435 2.2450
4.4496 -2.1767 2.2452
4.5153 -2.0081 2.2455
4.5752 -1.8378 2.2457
4.6294 -1.6660 2.2459
4.6696 -1.4901 2.2422
4.7118 -1.3159 2.2422
4.7482 -1.1407 2.2422
4.7789 -0.9647 2.2422
4.8038 -0.7880 2.2422
4.8229 -0.6109 2.2422
4.8362 -0.4334 2.2422
4.8438 -0.2558 2.2422
4.8456 -0.0782 2.2422
4.8416 0.0993 2.2422
4.8319 0.2764 2.2422
4.8165 0.4530 2.2422
4.7954 0.6290 2.2422
4.7686 0.8042 2.2422
4.7362 0.9784 2.2422
4.6981 1.1515 2.2422
4.6545 1.3234 2.2422
4.6053 1.4937 2.2422
4.5506 1.6625 2.2422
4.4903 1.8296 2.2422
4.4247 1.9948 2.2422
4.4699 2.2155 2.3020
4.5681 2.4763 2.3946
4.4809 2.6456 2.3946
4.3881 2.8122 2.3946
4.2898 2.9760 2.3946
4.1860 3.1367 2.3946
4.0769 3.2942 2.3946
3.9624 3.4485 2.3946
3.8427 3.5991 2.3946
3.7179 3.7461 2.3946
3.5881 3.8893 2.3946
3.4532 4.0285 2.3946
3.3136 4.1634 2.3946
3.1691 4.2941 2.3946
3.0200 4.4202 2.3946
2.8664 4.5417 2.3946
2.7084 4.6584 2.3946
2.5460 4.7700 2.3946
2.3795 4.8766 2.3946
2.2090 4.9778 2.3946
0.8510 2.1220 1.0015
0.7741 2.1530 0.9984
0.6961 2.1812 0.9952
0.6171 2.2066 0.9919
0.5373 2.2291 0.9886
0.4567 2.2487 0.9852
0.3754 2.2654 0.9818
0.2936 2.2792 0.9783
0.2114 2.2900 0.9747
0.1288 2.2978 0.9711
0.0460 2.3026 0.9675
-0.0370 2.3044 0.9638
-0.1199 2.3032 0.9601
-0.2028 2.2991 0.9563
-0.2854 2.2919 0.9526
-0.3678 2.2817 0.9488
-0.4497 2.2686 0.9450
-0.5311 2.2525 0.9412
-0.6119 2.2335 0.9374
-0.6919 2.2116 0.9337
-0.7711 2.1868 0.9299
-0.8493 2.1592 0.9261
-0.9265 2.1287 0.9224
-2.6132 5.4623 2.3946
-2.8195 5.3903 2.3946
-3.0237 5.3105 2.3946
-3.2257 5.2229 2.3946
-3.4250 5.1275 2.3946
-3.6214 5.0244 2.3946
-3.8145 4.9137 2.3946
-4.0040 4.7954 2.3946
-4.1896 4.6697 2.3946
-4.3710 4.5366 2.3946
-4.5478 4.3962 2.3946
-4.7196 4.2488 2.3946
-4.8863 4.0944 2.3946
-5.0474 3.9332 2.3946
-5.2027 3.7655 2.3946
-5.3518 3.5914 2.3946
-5.4944 3.4112 2.3946
-5.6303 3.2250 2.3946
-5.7591 3.0332 2.3946
-5.8807 2.8361 2.3946
-5.9947 2.6338 2.3946
-6.1008 2.4268 2.3946
-6.1989 2.2153 2.3946
-6.2887 1.9996 2.3946
-6.3701 1.7801 2.3946
-6.4427 1.5572 2.3946
-6.5065 1.3312 2.3946
-6.5613 1.1026 2.3946
-6.6069 0.8716 2.3946
-6.6433 0.6386 2.3946
-6.6703 0.4042 2.3946
-6.6878 0.1686 2.3946
-6.6958 -0.0676 2.3946
-6.6943 -0.3042 2.3946
-6.6832 -0.5406 2.3946
-6.6626 -0.7764 2.3946
-6.6324 -1.0113 2.3946
-6.5928 -1.2448 2.3946
-6.5437 -1.4764 2.3946
-6.4853 -1.7059 2.3946
-6.4177 -1.9327 2.3946
-6.3411 -2.1565 2.3946
-6.2554 -2.3769 2.3946
-6.1611 -2.5935 2.3946
-6.0582 -2.8060 2.3946
-5.9469 -3.0139 2.3946
-5.8275 -3.2169 2.3946
-5.7002 -3.4148 2.3946
-5.5653 -3.6071 2.3946
-5.4231 -3.7936 2.3946
-5.2737 -3.9739 2.3946
-5.1176 -4.1479 2.3946
-4.9551 -4.3152 2.3946
-4.7864 -4.4757 2.3946
-4.6118 -4.6290 2.3946
-4.4318 -4.7752 2.3946
-4.2467 -4.9135 2.3946
-4.0568 -5.0444 2.3946
-3.8624 -5.1675 2.3946
-3.6640 -5.2826 2.3946
-3.4619 -5.3896 2.3946
-3.2564 -5.4885 2.3946
-3.0478 -5.5791 2.3946
-2.8367 -5.6615 2.3946
-2.6232 -5.7356 2.3946
-2.4078 -5.8012 2.3946
-2.1909 -5.8585 2.3946
-1.9727 -5.9075 2.3946
-1.7536 -5.9481 2.3946
-1.5339 -5.9804 2.3946
-1.3140 -6.0044 2.3946
-1.0942 -6.0202 2.3946
-0.8748 -6.0279 2.3946
-0.6561 -6.0275 2.3946
-0.4384 -6.0192 2.3946
-0.2220 -6.0030 2.3946
-0.0072 -5.9791 2.3946
0.2057 -5.9476 2.3946
0.4165 -5.9087 2.3946
0.6250 -5.8624 2.3946
0.8308 -5.8089 2.3946
1.0338 -5.7484 2.3946
1.2337 -5.6810 2.3946
1.4303 -5.6070 2.3946
1.6234 -5.5264 2.3946
1.8128 -5.4395 2.3946
1.9983 -5.3464 2.3946
2.1797 -5.2473 2.3946
2.3569 -5.1424 2.3946
2.5297 -5.0321 2.3946
2.6979 -4.9160 2.3946
2.8615 -4.7948 2.3946
3.0202 -4.6687 2.3946
3.1740 -4.5377 2.3946
3.3227 -4.4020 2.3946
3.3429 -4.1104 2.3094
3.3750 -3.8555 2.2422
3.4994 -3.7166 2.2422
3.6191 -3.5745 2.2425
3.7337 -3.4290 2.2428
3.8431 -3.2802 2.2432
3.9471 -3.1283 2.2435
4.0457 -2.9734 2.2438
4.1389 -2.8158 2.2441
4.2266 -2.6556 2.2444
4.3086 -2.4930 2.2447
4.3851 -2.3281 2.2450
4.4559 -2.1612 2.2453
4.5211 -1.9925 2.2455
4.5805 -1.8220 2.2457
4.6341 -1.6500 2.2460
4.6738 -1.4740 2.2422
4.7154 -1.2997 2.2422
4.7513 -1.1244 2.2422
4.7814 -0.9483 2.2422
4.8058 -0.7716 2.2422
4.8243 -0.5945 2.2422
4.8371 -0.4170 2.2422
4.8442 -0.2393 2.2422
4.8454 -0.0617 2.2422
4.8410 0.1157 2.2422
4.8307 0.2928 2.2422
4.8148 0.4694 2.2422
4.7932 0.6453 2.2422
4.7659 0.8204 2.2422
4.7329 0.9945 2.2422
4.6943 1.1675 2.2422
4.6502 1.3392 2.2422
4.6005 1.5094 2.2422
4.5452 1.6781 2.2422
4.4845 1.8450 2.2422
4.4184 2.0099 2.2422
4.5016 2.2502 2.3220
4.5602 2.4921 2.3946
4.4725 2.6612 2.3946
4.3792 2.8275 2.3946
4.2804 2.9910 2.3946
4.1761 3.1515 2.3946
4.0665 3.3087 2.3946
3.9516 3.4626 2.3946
3.8314 3.6128 2.3946
3.7061 3.7595 2.3946
3.5758 3.9023 2.3946
3.4405 4.0411 2.3946
3.3004 4.1757 2.3946
3.1555 4.3059 2.3946
3.0060 4.4316 2.3946
2.8520 4.5527 2.3946
2.6935 4.6689 2.3946
2.5308 4.7801 2.3946
2.3639 4.8862 2.3946
2.1931 4.9869 2.3946
0.8439 2.1250 1.0012
0.7669 2.1557 0.9981
0.6888 2.1837 0.9949
0.6098 2.2088 0.9916
0.5299 2.2310 0.9883
0.4492 2.2504 0.9849
0.3679 2.2668 0.9814
0.2861 2.2803 0.9779
0.2038 2.2908 0.9744
0.1211 2.2983 0.9708
0.0383 2.3029 0.9671
-0.0446 2.3044 0.9634
-0.1276 2.3030 0.9597
-0.2104 2.2985 0.9560
-0.2931 2.2911 0.9522
-0.3754 2.2806 0.9485
-0.4573 2.2672 0.9447
-0.5386 2.2509 0.9409
-0.6193 2.2316 0.9371
-0.6993 2.2094 0.9333
-0.7784 2.1844 0.9295
-0.8565 2.1565 0.9258
-0.9336 2.1258 0.9220
-2.6324 5.4559 2.3946
-2.8384 5.3832 2.3946
-3.0425 5.3027 2.3946
-3.2442 5.2144 2.3946
-3.4433 5.1183 2.3946
-3.6394 5.0145 2.3946
-3.8322 4.9031 2.3946
-4.0214 4.7841 2.3946
-4.2066 4.6577 2.3946
-4.3875 4.5239 2.3946
-4.5639 4.3829 2.3946
-4.7353 4.2348 2.3946
-4.9014 4.0798 2.3946
-5.0620 3.9180 2.3946
-5.2167 3.7497 2.3946
-5.3652 3.5750 2.3946
-5.5073 3.3942 2.3946
-5.6425 3.2075 2.3946
-5.7707 3.0152 2.3946
-5.8915 2.8176 2.3946
-6.0048 2.6149 2.3946
-6.1102 2.4074 2.3946
-6.2076 2.1955 2.3946
-6.2966 1.9794 2.3946
-6.3771 1.7596 2.3946
-6.4490 1.5364 2.3946
-6.5119 1.3102 2.3946
-6.5659 1.0813 2.3946
-6.6107 0.8501 2.3946
-6.6462 0.6170 2.3946
-6.6723 0.3824 2.3946
-6.6890 0.1468 2.3946
-6.6961 -0.0895 2.3946
-6.6937 -0.3260 2.3946
-6.6817 -0.5624 2.3946
-6.6602 -0.7982 2.3946
-6.6292 -1.0329 2.3946
-6.5886 -1.2663 2.3946
-6.5387 -1.4978 2.3946
-6.4795 -1.7270 2.3946
-6.4110 -1.9536 2.3946
-6.3335 -2.1771 2.3946
-6.2471 -2.3971 2.3946
-6.1519 -2.6134 2.3946
-6.0482 -2.8254 2.3946
-5.9362 -3.0329 2.3946
-5.8161 -3.2355 2.3946
-5.6881 -3.4328 2.3946
-5.5525 -3.6246 2.3946
-5.4095 -3.8105 2.3946
-5.2596 -3.9903 2.3946
-5.1029 -4.1637 2.3946
-4.9397 -4.3304 2.3946
-4.7705 -4.4902 2.3946
-4.5954 -4.6428 2.3946
-4.4149 -4.7882 2.3946
-4.2293 -4.9260 2.3946
-4.0390 -5.0561 2.3946
-3.8443 -5.1784 2.3946
-3.6454 -5.2929 2.3946
-3.4430 -5.3991 2.3946
-3.2372 -5.4972 2.3946
-3.0284 -5.5871 2.3946
-2.8170 -5.6687 2.3946
-2.6034 -5.7420 2.3946
-2.3878 -5.8069 2.3946
-2.1707 -5.8634 2.3946
-1.9524 -5.9116 2.3946
-1.7333 -5.9514 2.3946
-1.5135 -5.9829 2.3946
-1.2936 -6.0062 2.3946
-1.0739 -6.0212 2.3946
-0.8545 -6.0282 2.3946
-0.6359 -6.0271 2.3946
-0.4183 -6.0180 2.3946
-0.2021 -6.0011 2.3946
0.0126 -5.9765 2.3946
0.2253 -5.9443 2.3946
0.4359 -5.9047 2.3946
0.6441 -5.8577 2.3946
0.8497 -5.8036 2.3946
1.0524 -5.7424 2.3946
1.2520 -5.6744 2.3946
1.4483 -5.5998 2.3946
1.6410 -5.5186 2.3946
1.8301 -5.4311 2.3946
2.0152 -5.3374 2.3946
2.1963 -5.2378 2.3946
2.3731 -5.1324 2.3946
2.5454 -5.0214 2.3946
2.7133 -4.9050 2.3946
2.8764 -4.7834 2.3946
3.0346 -4.6568 2.3946
3.1879 -4.5253 2.3946
3.3362 -4.3892 2.3946
3.3396 -4.0782 2.2985
3.3867 -3.8428 2.2422
3.5106 -3.7035 2.2422
3.6299 -3.5612 2.2425
3.7441 -3.4154 2.2429
3.8529 -3.2663 2.2432
3.9565 -3.1141 2.2435
4.0546 -2.9590 2.2439
4.1472 -2.8011 2.2442
4.2344 -2.6407 2.2445
4.3159 -2.4778 2.2448
4.3919 -2.3128 2.2450
4.4622 -2.1457 2.2453
4.5268 -1.9768 2.2455
4.5857 -1.8061 2.2458
4.6388 -1.6340 2.2460
4.6779 -1.4580 2.2422
4.7190 -1.2835 2.2422
4.7543 -1.1082 2.2422
4.7839 -0.9320 2.2422
4.8077 -0.7553 2.2422
4.8258 -0.5780 2.2422
4.8380 -0.4005 2.2422
4.8445 -0.2229 2.2422
4.8453 -0.0453 2.2422
4.8403 0.1321 2.2422
4.8295 0.3091 2.2422
4.8130 0.4857 2.2422
4.7909 0.6615 2.2422
