ply
format ascii 1.0
element vertex 2180
property float32 x
property float32 y
property float32 z
end_header
4.8987 3.7256 2.3882
4.7699 3.9087 2.3882
4.6348 4.0877 2.3882
4.4936 4.2624 2.3882
4.3462 4.4327 2.3882
4.1928 4.5983 2.3882
4.0337 4.7590 2.3882
3.8687 4.9146 2.3882
3.6983 5.0650 2.3882
3.5223 5.2098 2.3882
3.3411 5.3488 2.3882
3.1548 5.4823 2.3882
2.9636 5.6095 2.3882
2.7675 5.7304 2.3882
2.5668 5.8450 2.3882
2.3618 5.9528 2.3882
0.8824 2.4817 0.9790
0.7927 2.5132 0.9763
0.7020 2.5415 0.9735
4.3730 3.7883 2.3882
4.2415 3.9527 2.3882
4.1043 4.1129 2.3882
3.9615 4.2687 2.3882
3.8132 4.4198 2.3882
3.6596 4.5663 2.3882
3.5007 4.7077 2.3882
3.3367 4.8440 2.3882
3.1678 4.9749 2.3882
2.9941 5.1003 2.3882
2.8157 5.2200 2.3882
2.6329 5.3339 2.3882
2.4457 5.4417 2.3882
2.2545 5.5432 2.3882
0.8426 2.3069 0.9771
0.7592 2.3370 0.9745
0.6748 2.3642 0.9719
0.5895 2.3882 0.9693
0.5033 2.4092 0.9666
0.4164 2.4270 0.9639
0.3290 2.4417 0.9612
0.2411 2.4532 0.9584
0.1528 2.4615 0.9557
0.0642 2.4667 0.9529
-0.0245 2.4686 0.9500
-0.1132 2.4673 0.9472
-0.2018 2.4629 0.9444
-0.2901 2.4552 0.9415
-0.3782 2.4443 0.9387
-0.4658 2.4303 0.9358
-0.5528 2.4131 0.9330
-0.6391 2.3927 0.9301
-0.7247 2.3693 0.9273
-0.8093 2.3428 0.9245
-0.8930 2.3132 0.9218
-2.5350 5.9265 2.3882
-2.7543 5.8515 2.3882
-2.9714 5.7683 2.3882
-3.1859 5.6768 2.3882
-3.3973 5.5772 2.3882
-3.6055 5.4695 2.3882
-3.8101 5.3538 2.3882
-4.0107 5.2303 2.3882
-4.2070 5.0989 2.3882
-4.3988 4.9600 2.3882
-4.5855 4.8135 2.3882
-4.7671 4.6598 2.3882
-4.9430 4.4989 2.3882
-5.1131 4.3311 2.3882
-5.2770 4.1565 2.3882
-5.4344 3.9755 2.3882
-5.5851 3.7884 2.3882
-5.7286 3.5949 2.3882
-5.8649 3.3959 2.3882
-5.9937 3.1914 2.3882
-6.1146 2.9818 2.3882
-6.2275 2.7674 2.3882
-6.3321 2.5484 2.3882
-6.4282 2.3252 2.3882
-6.5157 2.0983 2.3882
-6.5944 1.8679 2.3882
-6.6641 1.6343 2.3882
-6.6422 1.3809 2.3589
-6.5948 1.1284 2.3243
-6.5481 0.8824 2.2937
-6.5019 0.6421 2.2667
-6.4610 0.4071 2.2449
-6.4472 0.1767 2.2358
-6.4508 -0.0523 2.2358
-6.4454 -0.2813 2.2358
-6.4310 -0.5099 2.2358
-6.4077 -0.7377 2.2358
-6.3754 -0.9644 2.2358
-6.3343 -1.1897 2.2358
-6.2844 -1.4130 2.2358
-6.2258 -1.6341 2.2358
-6.1586 -1.8525 2.2358
-6.0933 -2.0716 2.2395
-5.9991 -2.2803 2.2358
-5.9071 -2.4889 2.2358
-5.8081 -2.6938 2.2361
-5.7447 -2.9171 2.2536
-5.6906 -3.1487 2.2784
-5.6348 -3.3849 2.3068
-5.5773 -3.6261 2.3388
-5.5177 -3.8733 2.3747
-5.3959 -4.0818 2.3882
-5.2361 -4.2620 2.3882
-5.0697 -4.4356 2.3882
-4.8972 -4.6022 2.3882
-4.7187 -4.7621 2.3882
-4.5347 -4.9147 2.3882
-4.3455 -5.0591 2.3882
-4.1511 -5.1973 2.3882
-3.9522 -5.3270 2.3882
-3.7491 -5.4489 2.3882
-3.5420 -5.5628 2.3882
-3.3314 -5.6685 2.3882
-3.1174 -5.7661 2.3882
-2.9005 -5.8553 2.3882
-2.6811 -5.9362 2.3882
-2.4594 -6.0090 2.3882
-2.2358 -6.0729 2.3882
-2.0106 -6.1286 2.3882
-1.7842 -6.1758 2.3882
-1.5569 -6.2146 2.3882
-1.3289 -6.2450 2.3882
-1.1007 -6.2670 2.3882
-0.8725 -6.2806 2.3882
-0.6447 -6.2860 2.3882
-0.4175 -6.2831 2.3882
-0.1912 -6.2722 2.3882
0.0338 -6.2531 2.3882
0.2574 -6.2262 2.3882
0.4791 -6.1914 2.3882
0.6988 -6.1489 2.3882
0.9162 -6.0987 2.3882
1.1310 -6.0411 2.3882
1.3430 -5.9762 2.3882
1.5520 -5.9041 2.3882
1.7577 -5.8249 2.3882
1.9599 -5.7388 2.3882
2.1585 -5.6461 2.3882
2.3531 -5.5468 2.3882
2.5436 -5.4411 2.3882
2.7298 -5.3292 2.3882
2.9115 -5.2112 2.3882
3.0886 -5.0875 2.3882
3.2609 -4.9580 2.3882
3.4282 -4.8231 2.3882
3.5904 -4.6829 2.3882
3.7473 -4.5377 2.3882
3.8988 -4.3876 2.3882
4.0448 -4.2326 2.3882
4.1851 -4.0733 2.3882
4.3197 -3.9097 2.3882
4.4483 -3.7420 2.3882
4.5710 -3.5703 2.3882
4.6876 -3.3950 2.3882
4.7981 -3.2162 2.3882
4.9023 -3.0342 2.3882
5.0002 -2.8490 2.3882
5.0916 -2.6610 2.3882
5.1766 -2.4703 2.3882
5.2551 -2.2772 2.3882
5.3270 -2.0818 2.3882
5.3923 -1.8844 2.3882
5.4509 -1.6851 2.3882
5.5028 -1.4842 2.3882
5.5479 -1.2819 2.3882
5.5862 -1.0784 2.3882
5.6178 -0.8738 2.3882
5.6425 -0.6684 2.3882
5.6604 -0.4625 2.3882
5.6714 -0.2561 2.3882
5.6756 -0.0495 2.3882
5.6731 0.1567 2.3882
5.6635 0.3634 2.3882
5.6472 0.5693 2.3882
5.6240 0.7747 2.3882
5.5941 0.9792 2.3882
5.5573 1.1826 2.3882
5.5139 1.3848 2.3882
5.4637 1.5856 2.3882
5.4068 1.7848 2.3882
5.3433 1.9821 2.3882
5.2732 2.1774 2.3882
5.1966 2.3704 2.3882
5.1134 2.5610 2.3882
5.0239 2.7489 2.3882
4.9280 2.9340 2.3882
4.8259 3.1161 2.3882
4.7176 3.2949 2.3882
4.6031 3.4702 2.3882
4.4827 3.6419 2.3882
4.3563 3.8098 2.3882
4.2241 3.9737 2.3882
4.0862 4.1333 2.3882
3.9427 4.2885 2.3882
3.7937 4.4390 2.3882
3.6393 4.5848 2.3882
3.4798 4.7256 2.3882
3.3151 4.8612 2.3882
3.1456 4.9914 2.3882
2.9713 5.1161 2.3882
2.7923 5.2351 2.3882
2.6089 5.3482 2.3882
2.4212 5.4552 2.3882
2.2295 5.5559 2.3882
0.8318 2.3109 0.9768
0.7483 2.3407 0.9742
0.6638 2.3674 0.9716
0.5784 2.3911 0.9690
0.4921 2.4117 0.9663
0.4052 2.4291 0.9636
0.3176 2.4434 0.9608
0.2297 2.4545 0.9581
0.1413 2.4624 0.9553
0.0527 2.4671 0.9525
-0.0359 2.4686 0.9497
-0.1246 2.4669 0.9468
-0.2132 2.4621 0.9440
-0.3015 2.4540 0.9411
-0.3895 2.4427 0.9383
-0.4771 2.4282 0.9354
-0.5640 2.4106 0.9326
-0.6503 2.3899 0.9298
-0.7357 2.3660 0.9270
-0.8202 2.3391 0.9242
-0.9037 2.3092 0.9214
-2.5634 5.9173 2.3882
-2.7825 5.8412 2.3882
-2.9993 5.7569 2.3882
-3.2134 5.6644 2.3882
-3.4245 5.5637 2.3882
-3.6322 5.4550 2.3882
-3.8363 5.3383 2.3882
-4.0364 5.2137 2.3882
-4.2321 5.0814 2.3882
-4.4232 4.9414 2.3882
-4.6093 4.7940 2.3882
-4.7901 4.6393 2.3882
-4.9653 4.4776 2.3882
-5.1346 4.3089 2.3882
-5.2977 4.1334 2.3882
-5.4543 3.9516 2.3882
-5.6039 3.7631 2.3882
-5.7467 3.5695 2.3882
-5.8820 3.3697 2.3882
-6.0098 3.1646 2.3882
-6.1296 2.9544 2.3882
-6.2415 2.7393 2.3882
-6.3450 2.5198 2.3882
-6.4400 2.2961 2.3882
-6.5264 2.0687 2.3882
-6.6039 1.8379 2.3882
-6.6724 1.6039 2.3882
-6.6360 1.3478 2.3542
-6.5887 1.0962 2.3201
-6.5421 0.8510 2.2900
-6.4960 0.6114 2.2635
-6.4568 0.3770 2.2427
-6.4482 0.1472 2.2358
-6.4506 -0.0819 2.2358
-6.4441 -0.3109 2.2358
-6.4285 -0.5394 2.2358
-6.4040 -0.7671 2.2358
-6.3706 -0.9937 2.2358
-6.3283 -1.2186 2.2358
-6.2773 -1.4417 2.2358
-6.2176 -1.6625 2.2358
-6.1493 -1.8806 2.2358
-6.0728 -2.0947 2.2358
-5.9877 -2.3075 2.2358
-5.8946 -2.5156 2.2358
-5.7998 -2.7227 2.2382
-5.7378 -2.9468 2.2566
-5.6835 -3.1790 2.2819
-5.6275 -3.4157 2.3107
-5.5697 -3.6577 2.3432
-5.5098 -3.9058 2.3796
-5.3756 -4.1055 2.3882
-5.2149 -4.2848 2.3882
-5.0477 -4.4576 2.3882
-4.8744 -4.6233 2.3882
-4.6952 -4.7823 2.3882
-4.5105 -4.9338 2.3882
-4.3205 -5.0780 2.3882
-4.1256 -5.2145 2.3882
-3.9262 -5.3432 2.3882
-3.7225 -5.4641 2.3882
-3.5150 -5.5769 2.3882
-3.3039 -5.6816 2.3882
-3.0895 -5.7781 2.3882
-2.8723 -5.8663 2.3882
-2.6526 -5.9460 2.3882
-2.4306 -6.0177 2.3882
-2.2068 -6.0806 2.3882
-1.9814 -6.1352 2.3882
-1.7548 -6.1813 2.3882
-1.5274 -6.2190 2.3882
-1.2994 -6.2483 2.3882
-1.0712 -6.2692 2.3882
-0.8430 -6.2818 2.3882
-0.6153 -6.2861 2.3882
-0.3882 -6.2822 2.3882
-0.1620 -6.2702 2.3882
0.0628 -6.2501 2.3882
0.2861 -6.2221 2.3882
0.5076 -6.1863 2.3882
0.7270 -6.1428 2.3882
0.9441 -6.0917 2.3882
1.1586 -6.0331 2.3882
1.3702 -5.9673 2.3882
1.5788 -5.8942 2.3882
1.7841 -5.8141 2.3882
1.9858 -5.7272 2.3882
2.1839 -5.6336 2.3882
2.3780 -5.5335 2.3882
2.5679 -5.4269 2.3882
2.7535 -5.3142 2.3882
2.9347 -5.1955 2.3882
3.1112 -5.0710 2.3882
3.2828 -4.9409 2.3882
3.4495 -4.8053 2.3882
3.6110 -4.6644 2.3882
3.7672 -4.5185 2.3882
3.9180 -4.3677 2.3882
4.0632 -4.2122 2.3882
4.2028 -4.0524 2.3882
4.3366 -3.8882 2.3882
4.4645 -3.7200 2.3882
4.5865 -3.5479 2.3882
4.7023 -3.3721 2.3882
4.8119 -3.1929 2.3882
4.9153 -3.0104 2.3882
5.0124 -2.8249 2.3882
5.1030 -2.6365 2.3882
5.1872 -2.4455 2.3882
5.2648 -2.2521 2.3882
5.3358 -2.0564 2.3882
5.4002 -1.8587 2.3882
5.4580 -1.6592 2.3882
5.5090 -1.4581 2.3882
5.5532 -1.2556 2.3882
5.5907 -1.0520 2.3882
5.6214 -0.8473 2.3882
5.6452 -0.6418 2.3882
5.6622 -0.4358 2.3882
5.6724 -0.2294 2.3882
5.6757 -0.0228 2.3882
5.6722 0.1838 2.3882
5.6618 0.3901 2.3882
5.6446 0.5959 2.3882
5.6205 0.8012 2.3882
5.5897 1.0055 2.3882
5.5521 1.2088 2.3882
5.5078 1.4109 2.3882
5.4567 1.6115 2.3882
5.3990 1.8104 2.3882
5.3346 2.0075 2.3882
5.2636 2.2025 2.3882
5.1862 2.3952 2.3882
5.1022 2.5855 2.3882
5.0119 2.7730 2.3882
4.9152 2.9577 2.3882
4.8122 3.1394 2.3882
4.7031 3.3177 2.3882
4.5879 3.4926 2.3882
4.4666 3.6639 2.3882
4.3395 3.8312 2.3882
4.2066 3.9945 2.3882
4.0679 4.1536 2.3882
3.9237 4.3082 2.3882
3.7740 4.4580 2.3882
3.6190 4.6033 2.3882
3.4588 4.7434 2.3882
3.2935 4.8784 2.3882
3.1233 5.0079 2.3882
2.9484 5.1319 2.3882
2.7688 5.2501 2.3882
2.5849 5.3623 2.3882
2.3967 5.4685 2.3882
2.2044 5.5685 2.3882
0.8211 2.3150 0.9764
0.7375 2.3443 0.9739
0.6528 2.3707 0.9713
4.1063 3.5611 2.3882
3.9823 3.7153 2.3882
3.8529 3.8654 2.3882
3.7183 4.0113 2.3882
3.5785 4.1529 2.3882
3.4336 4.2899 2.3882
3.2839 4.4222 2.3882
3.1294 4.5496 2.3882
2.9703 4.6720 2.3882
2.8068 4.7890 2.3882
2.6389 4.9007 2.3882
2.4668 5.0068 2.3882
2.2908 5.1072 2.3882
0.8637 2.1282 0.9771
0.7867 2.1592 0.9748
0.7087 2.1874 0.9724
0.6297 2.2128 0.9699
0.5498 2.2353 0.9675
0.4692 2.2549 0.9650
0.3878 2.2716 0.9624
0.3060 2.2853 0.9599
0.2237 2.2961 0.9573
0.1410 2.3039 0.9547
0.0581 2.3087 0.9521
-0.0249 2.3105 0.9494
-0.1079 2.3093 0.9468
-0.1908 2.3051 0.9441
-0.2735 2.2979 0.9415
-0.3559 2.2878 0.9388
-0.4379 2.2746 0.9361
-0.5194 2.2585 0.9335
-0.6002 2.2395 0.9308
-0.6803 2.2175 0.9282
-0.7595 2.1927 0.9256
-0.8378 2.1650 0.9230
-0.9150 2.1346 0.9204
-2.5787 5.4674 2.3882
-2.7810 5.3886 2.3882
-2.9808 5.3022 2.3882
-3.1778 5.2082 2.3882
-3.3716 5.1067 2.3882
-3.5620 4.9977 2.3882
-3.7486 4.8815 2.3882
-3.9312 4.7581 2.3882
-4.1094 4.6276 2.3882
-4.2830 4.4903 2.3882
-4.4516 4.3461 2.3882
-4.6150 4.1954 2.3882
-4.7729 4.0383 2.3882
-4.9250 3.8749 2.3882
-5.0711 3.7056 2.3882
-5.2108 3.5305 2.3882
-5.3440 3.3500 2.3882
-5.4703 3.1641 2.3882
-5.5896 2.9732 2.3882
-5.7017 2.7776 2.3882
-5.8062 2.5776 2.3882
-5.9031 2.3734 2.3882
-5.9921 2.1654 2.3882
-6.0731 1.9538 2.3882
-6.1459 1.7391 2.3882
-6.2104 1.5217 2.3882
-6.2663 1.3014 2.3882
-6.3137 1.0791 2.3882
-6.3525 0.8550 2.3882
-6.3825 0.6295 2.3882
-6.4037 0.4027 2.3882
-6.3816 0.1745 2.3753
-6.3367 -0.0515 2.3573
-6.2919 -0.2746 2.3426
-6.2470 -0.4951 2.3311
-6.2019 -0.7137 2.3227
-6.1566 -0.9308 2.3173
-6.1109 -1.1470 2.3150
-6.0648 -1.3627 2.3157
-6.0180 -1.5784 2.3193
-5.9706 -1.7947 2.3260
-5.9224 -2.0119 2.3357
-5.8733 -2.2307 2.3486
-5.8231 -2.4516 2.3646
-5.7717 -2.6751 2.3839
-5.6755 -2.8794 2.3882
-5.5613 -3.0745 2.3882
-5.4398 -3.2647 2.3882
-5.3112 -3.4500 2.3882
-5.1758 -3.6299 2.3882
-5.0338 -3.8039 2.3882
-4.8854 -3.9726 2.3882
-4.7310 -4.1349 2.3882
-4.5708 -4.2910 2.3882
-4.4051 -4.4406 2.3882
-4.2341 -4.5835 2.3882
-4.0582 -4.7195 2.3882
-3.8776 -4.8486 2.3882
-3.6927 -4.9704 2.3882
-3.5037 -5.0850 2.3882
-3.3111 -5.1922 2.3882
-3.1150 -5.2918 2.3882
-2.9158 -5.3838 2.3882
-2.7137 -5.4683 2.3882
-2.5093 -5.5448 2.3882
-2.3026 -5.6136 2.3882
-2.0941 -5.6746 2.3882
-1.8841 -5.7277 2.3882
-1.6728 -5.7729 2.3882
-1.4605 -5.8103 2.3882
-1.2477 -5.8398 2.3882
-1.0344 -5.8615 2.3882
-0.8212 -5.8755 2.3882
-0.6082 -5.8816 2.3882
-0.3956 -5.8801 2.3882
-0.1839 -5.8710 2.3882
0.0267 -5.8544 2.3882
0.2361 -5.8302 2.3882
0.4438 -5.7988 2.3882
0.6497 -5.7600 2.3882
0.8535 -5.7141 2.3882
1.0550 -5.6612 2.3882
1.2539 -5.6014 2.3882
1.4501 -5.5348 2.3882
1.6432 -5.4616 2.3882
1.8332 -5.3819 2.3882
2.0197 -5.2958 2.3882
2.2026 -5.2036 2.3882
2.3817 -5.1053 2.3882
2.5569 -5.0011 2.3882
2.7279 -4.8912 2.3882
2.8945 -4.7758 2.3882
3.0567 -4.6550 2.3882
3.2143 -4.5291 2.3882
3.3671 -4.3981 2.3882
3.5150 -4.2623 2.3882
3.6578 -4.1218 2.3882
3.7954 -3.9768 2.3882
3.9278 -3.8275 2.3882
4.0547 -3.6744 2.3882
4.1761 -3.5171 2.3882
4.2920 -3.3562 2.3882
4.4021 -3.1917 2.3882
4.5064 -3.0240 2.3882
4.6048 -2.8531 2.3882
4.6972 -2.6793 2.3882
4.7837 -2.5027 2.3882
4.8640 -2.3235 2.3882
4.9382 -2.1421 2.3882
5.0062 -1.9584 2.3882
5.0679 -1.7729 2.3882
5.1233 -1.5855 2.3882
5.1724 -1.3966 2.3882
5.2151 -1.2063 2.3882
5.2514 -1.0148 2.3882
5.2813 -0.8224 2.3882
5.3047 -0.6292 2.3882
5.3217 -0.4354 2.3882
5.3322 -0.2412 2.3882
5.3362 -0.0468 2.3882
5.3337 0.1476 2.3882
5.3248 0.3418 2.3882
5.3094 0.5355 2.3882
5.2876 0.7287 2.3882
5.2593 0.9211 2.3882
5.2246 1.1125 2.3882
5.1836 1.3026 2.3882
5.1361 1.4917 2.3882
5.0824 1.6790 2.3882
5.0224 1.8645 2.3882
4.9562 2.0481 2.3882
4.8838 2.2296 2.3882
4.8053 2.4087 2.3882
4.7208 2.5853 2.3882
4.6302 2.7592 2.3882
4.5338 2.9302 2.3882
4.4315 3.0981 2.3882
4.3235 3.2627 2.3882
4.2098 3.4238 2.3882
4.0906 3.5813 2.3882
3.9659 3.7349 2.3882
3.8358 3.8845 2.3882
3.7005 4.0299 2.3882
3.5600 4.1709 2.3882
3.4145 4.3073 2.3882
3.2642 4.4390 2.3882
3.1091 4.5657 2.3882
2.9494 4.6874 2.3882
2.7853 4.8038 2.3882
2.6168 4.9148 2.3882
2.4443 5.0202 2.3882
2.2677 5.1198 2.3882
0.8538 2.1324 0.9768
0.7767 2.1630 0.9744
0.6985 2.1909 0.9721
0.6194 2.2159 0.9696
0.5394 2.2380 0.9672
0.4587 2.2573 0.9647
0.3773 2.2736 0.9621
0.2954 2.2869 0.9596
0.2130 2.2973 0.9570
0.1303 2.3047 0.9544
0.0474 2.3091 0.9517
-0.0356 2.3105 0.9491
-0.1186 2.3089 0.9464
-0.2015 2.3044 0.9438
-0.2842 2.2968 0.9411
-0.3665 2.2862 0.9384
-0.4485 2.2727 0.9358
-0.5298 2.2562 0.9331
-0.6106 2.2368 0.9305
-0.6906 2.2145 0.9278
-0.7697 2.1893 0.9252
-0.8478 2.1613 0.9226
-0.9249 2.1304 0.9201
-2.6050 5.4577 2.3882
-2.8070 5.3779 2.3882
-3.0065 5.2905 2.3882
-3.2030 5.1955 2.3882
-3.3964 5.0930 2.3882
-3.5863 4.9831 2.3882
-3.7725 4.8660 2.3882
-3.9545 4.7416 2.3882
-4.1321 4.6103 2.3882
-4.3051 4.4720 2.3882
-4.4731 4.3270 2.3882
-4.6358 4.1754 2.3882
-4.7929 4.0175 2.3882
-4.9443 3.8534 2.3882
-5.0895 3.6833 2.3882
-5.2284 3.5075 2.3882
-5.3607 3.3261 2.3882
-5.4862 3.1397 2.3882
-5.6045 2.9482 2.3882
-5.7156 2.7520 2.3882
-5.8192 2.5514 2.3882
-5.9150 2.3467 2.3882
-6.0030 2.1382 2.3882
-6.0829 1.9263 2.3882
-6.1547 1.7111 2.3882
-6.2180 1.4932 2.3882
-6.2729 1.2728 2.3882
-6.3192 1.0502 2.3882
-6.3569 0.8259 2.3882
-6.3858 0.6002 2.3882
-6.4058 0.3736 2.3882
-6.3758 0.1451 2.3728
-6.3309 -0.0805 2.3553
-6.2861 -0.3032 2.3410
-6.2412 -0.5235 2.3299
-6.1961 -0.7418 2.3218
-6.1507 -0.9588 2.3169
-6.1050 -1.1749 2.3149
-6.0587 -1.3906 2.3160
-6.0119 -1.6063 2.3200
-5.9644 -1.8227 2.3271
-5.9161 -2.0401 2.3372
-5.8668 -2.2592 2.3505
-5.8165 -2.4803 2.3669
-5.7650 -2.7041 2.3866
-5.6611 -2.9049 2.3882
-5.5460 -3.0993 2.3882
-5.4235 -3.2890 2.3882
-5.2941 -3.4735 2.3882
-5.1578 -3.6527 2.3882
-5.0149 -3.8262 2.3882
-4.8658 -3.9939 2.3882
-4.7106 -4.1555 2.3882
-4.5497 -4.3108 2.3882
-4.3832 -4.4594 2.3882
-4.2116 -4.6015 2.3882
-4.0351 -4.7366 2.3882
-3.8539 -4.8647 2.3882
-3.6685 -4.9857 2.3882
-3.4790 -5.0993 2.3882
-3.2859 -5.2055 2.3882
-3.0894 -5.3042 2.3882
-2.8898 -5.3953 2.3882
-2.6874 -5.4786 2.3882
-2.4827 -5.5541 2.3882
-2.2758 -5.6219 2.3882
-2.0671 -5.6819 2.3882
-1.8568 -5.7340 2.3882
-1.6454 -5.7782 2.3882
-1.4330 -5.8146 2.3882
-1.2201 -5.8431 2.3882
-1.0069 -5.8638 2.3882
-0.7936 -5.8767 2.3882
-0.5806 -5.8819 2.3882
-0.3682 -5.8794 2.3882
-0.1566 -5.8693 2.3882
0.0539 -5.8517 2.3882
0.2630 -5.8266 2.3882
0.4705 -5.7942 2.3882
0.6762 -5.7545 2.3882
0.8797 -5.7077 2.3882
1.0809 -5.6539 2.3882
1.2794 -5.5932 2.3882
1.4752 -5.5257 2.3882
1.6680 -5.4517 2.3882
1.8575 -5.3711 2.3882
2.0435 -5.2842 2.3882
2.2260 -5.1912 2.3882
2.4046 -5.0921 2.3882
2.5792 -4.9872 2.3882
2.7497 -4.8766 2.3882
2.9158 -4.7605 2.3882
3.0774 -4.6390 2.3882
3.2343 -4.5124 2.3882
3.3865 -4.3808 2.3882
3.5337 -4.2443 2.3882
3.6759 -4.1033 2.3882
3.8129 -3.9579 2.3882
3.9445 -3.8079 2.3882
4.0707 -3.6542 2.3882
4.1914 -3.4965 2.3882
4.3065 -3.3351 2.3882
4.4159 -3.1702 2.3882
4.5194 -3.0021 2.3882
4.6171 -2.8308 2.3882
4.7088 -2.6566 2.3882
4.7944 -2.4796 2.3882
4.8740 -2.3002 2.3882
4.9473 -2.1184 2.3882
5.0145 -1.9345 2.3882
5.0754 -1.7488 2.3882
5.1300 -1.5611 2.3882
5.1783 -1.3720 2.3882
5.2202 -1.1816 2.3882
5.2556 -0.9900 2.3882
5.2847 -0.7974 2.3882
5.3073 -0.6041 2.3882
5.3234 -0.4103 2.3882
5.3331 -0.2160 2.3882
5.3362 -0.0217 2.3882
5.3329 0.1727 2.3882
5.3232 0.3668 2.3882
5.3069 0.5606 2.3882
5.2843 0.7537 2.3882
5.2552 0.9459 2.3882
5.2196 1.1372 2.3882
5.1778 1.3273 2.3882
5.1295 1.5160 2.3882
5.0750 1.7031 2.3882
5.0142 1.8884 2.3882
4.9472 2.0717 2.3882
4.8740 2.2529 2.3882
4.7947 2.4317 2.3882
4.7094 2.6080 2.3882
4.6181 2.7815 2.3882
4.5209 2.9521 2.3882
4.4179 3.1196 2.3882
4.3091 3.2837 2.3882
4.1947 3.4444 2.3882
4.0747 3.6014 2.3882
3.9493 3.7545 2.3882
3.8186 3.9035 2.3882
3.6826 4.0484 2.3882
3.5415 4.1888 2.3882
3.3954 4.3246 2.3882
3.2444 4.4557 2.3882
3.0887 4.5818 2.3882
2.9284 4.7028 2.3882
2.7637 4.8185 2.3882
2.5948 4.9287 2.3882
2.4217 5.0334 2.3882
2.2446 5.1322 2.3882
0.8439 2.1365 0.9765
0.7666 2.1668 0.9741
0.6883 2.1943 0.9717
0.6091 2.2189 0.9693
3.8657 3.3561 2.3882
3.7484 3.5010 2.3882
3.6261 3.6421 2.3882
3.4988 3.7792 2.3882
3.3667 3.9122 2.3882
3.2299 4.0408 2.3882
3.0885 4.1649 2.3882
2.9426 4.2844 2.3882
2.7924 4.3991 2.3882
2.6381 4.5087 2.3882
2.4797 4.6133 2.3882
2.3174 4.7125 2.3882
0.8801 1.9663 0.9770
0.8090 1.9980 0.9749
0.7367 2.0271 0.9727
0.6635 2.0536 0.9704
0.5893 2.0774 0.9682
0.5143 2.0985 0.9658
0.4386 2.1169 0.9635
0.3623 2.1325 0.9611
0.2854 2.1454 0.9587
0.2081 2.1555 0.9563
0.1305 2.1628 0.9538
0.0527 2.1673 0.9514
-0.0252 2.1690 0.9489
-0.1031 2.1679 0.9464
-0.1810 2.1639 0.9439
-0.2586 2.1572 0.9414
-0.3360 2.1476 0.9389
-0.4130 2.1353 0.9364
-0.4894 2.1202 0.9339
-0.5653 2.1023 0.9314
-0.6405 2.0817 0.9290
-0.7149 2.0584 0.9265
-0.7884 2.0324 0.9241
-0.8609 2.0038 0.9216
-0.9323 1.9726 0.9192
-2.6113 5.0500 2.3882
-2.7981 4.9682 2.3882
-2.9821 4.8793 2.3882
-3.1632 4.7834 2.3882
-3.3410 4.6806 2.3882
-3.5153 4.5710 2.3882
-3.6857 4.4548 2.3882
-3.8520 4.3320 2.3882
-4.0139 4.2027 2.3882
-4.1712 4.0672 2.3882
-4.3235 3.9256 2.3882
-4.4707 3.7781 2.3882
-4.6124 3.6248 2.3882
-4.7484 3.4659 2.3882
-4.8785 3.3018 2.3882
-5.0025 3.1325 2.3882
-5.1201 2.9584 2.3882
-5.2311 2.7795 2.3882
-5.3353 2.5965 2.3882
-5.4326 2.4092 2.3882
-5.5226 2.2182 2.3882
-5.6054 2.0236 2.3882
-5.6807 1.8257 2.3882
-5.7483 1.6249 2.3882
-5.8082 1.4215 2.3882
-5.8602 1.2158 2.3882
-5.9042 1.0080 2.3882
-5.9402 0.7986 2.3882
-5.9681 0.5879 2.3882
-5.9877 0.3761 2.3882
-5.9991 0.1636 2.3882
-6.0023 -0.0490 2.3882
-5.9973 -0.2617 2.3882
-5.9839 -0.4741 2.3882
-5.9624 -0.6858 2.3882
-5.9326 -0.8964 2.3882
-5.8947 -1.1057 2.3882
-5.8487 -1.3132 2.3882
-5.7947 -1.5188 2.3882
-5.7329 -1.7219 2.3882
-5.6633 -1.9224 2.3882
-5.5860 -2.1200 2.3882
-5.5012 -2.3142 2.3882
-5.4091 -2.5048 2.3882
-5.3098 -2.6916 2.3882
-5.2035 -2.8741 2.3882
-5.0904 -3.0523 2.3882
-4.9707 -3.2257 2.3882
-4.8446 -3.3943 2.3882
-4.7123 -3.5576 2.3882
-4.5741 -3.7156 2.3882
-4.4302 -3.8679 2.3882
-4.2809 -4.0144 2.3882
-4.1264 -4.1549 2.3882
-3.9669 -4.2891 2.3882
-3.8028 -4.4171 2.3882
-3.6344 -4.5385 2.3882
-3.4618 -4.6532 2.3882
-3.2854 -4.7612 2.3882
-3.1054 -4.8625 2.3882
-2.9222 -4.9565 2.3882
-2.7361 -5.0435 2.3882
-2.5473 -5.1232 2.3882
-2.3561 -5.1958 2.3882
-2.1628 -5.2612 2.3882
-1.9677 -5.3192 2.3882
-1.7711 -5.3699 2.3882
-1.5733 -5.4132 2.3882
-1.3745 -5.4492 2.3882
-1.1751 -5.4779 2.3882
-0.9752 -5.4992 2.3882
-0.7753 -5.5132 2.3882
-0.5755 -5.5200 2.3882
-0.3761 -5.5195 2.3882
-0.1774 -5.5119 2.3882
0.0204 -5.4973 2.3882
0.2170 -5.4756 2.3882
0.4122 -5.4469 2.3882
0.6057 -5.4115 2.3882
0.7973 -5.3693 2.3882
0.9868 -5.3205 2.3882
1.1739 -5.2651 2.3882
1.3585 -5.2034 2.3882
1.5404 -5.1354 2.3882
1.7193 -5.0613 2.3882
1.8950 -4.9811 2.3882
2.0674 -4.8951 2.3882
2.2362 -4.8034 2.3882
2.4014 -4.7060 2.3882
2.5626 -4.6033 2.3882
2.7199 -4.4954 2.3882
2.8730 -4.3823 2.3882
3.0217 -4.2643 2.3882
3.1660 -4.1415 2.3882
3.3056 -4.0141 2.3882
3.4406 -3.8823 2.3882
3.5707 -3.7462 2.3882
3.6958 -3.6061 2.3882
3.8158 -3.4620 2.3882
3.9306 -3.3142 2.3882
4.0401 -3.1630 2.3882
4.1443 -3.0084 2.3882
4.2430 -2.8504 2.3882
4.3362 -2.6896 2.3882
4.4237 -2.5260 2.3882
4.5055 -2.3597 2.3882
4.5816 -2.1910 2.3882
4.6519 -2.0200 2.3882
4.7163 -1.8470 2.3882
4.7748 -1.6721 2.3882
4.8273 -1.4955 2.3882
4.8738 -1.3174 2.3882
4.9143 -1.1379 2.3882
4.9488 -0.9574 2.3882
4.9771 -0.7759 2.3882
4.9993 -0.5937 2.3882
5.0155 -0.4109 2.3882
5.0254 -0.2277 2.3882
5.0293 -0.0443 2.3882
5.0270 0.1390 2.3882
5.0186 0.3222 2.3882
5.0040 0.5050 2.3882
4.9833 0.6872 2.3882
4.9566 0.8687 2.3882
4.9238 1.0492 2.3882
4.8849 1.2286 2.3882
4.8400 1.4068 2.3882
4.7892 1.5834 2.3882
4.7324 1.7583 2.3882
4.6697 1.9314 2.3882
4.6012 2.1024 2.3882
4.5269 2.2712 2.3882
4.4469 2.4376 2.3882
4.3612 2.6013 2.3882
4.2700 2.7624 2.3882
4.1732 2.9204 2.3882
4.0711 3.0753 2.3882
3.9635 3.2269 2.3882
3.8508 3.3750 2.3882
3.7329 3.5195 2.3882
3.6099 3.6601 2.3882
3.4820 3.7967 2.3882
3.3493 3.9291 2.3882
3.2119 4.0571 2.3882
3.0699 4.1807 2.3882
2.9235 4.2995 2.3882
2.7727 4.4135 2.3882
2.6178 4.5225 2.3882
2.4589 4.6264 2.3882
2.2961 4.7249 2.3882
0.8710 1.9705 0.9767
0.7997 2.0019 0.9746
0.7273 2.0306 0.9724
0.6539 2.0568 0.9701
0.5796 2.0802 0.9679
0.5045 2.1010 0.9655
0.4287 2.1191 0.9632
0.3523 2.1343 0.9608
0.2754 2.1469 0.9584
0.1981 2.1566 0.9560
0.1205 2.1636 0.9535
0.0427 2.1677 0.9511
-0.0353 2.1690 0.9486
-0.1132 2.1675 0.9461
-0.1910 2.1632 0.9436
-0.2687 2.1561 0.9411
-0.3460 2.1462 0.9386
-0.4229 2.1335 0.9361
-0.4993 2.1180 0.9336
-0.5751 2.0998 0.9311
-0.6501 2.0788 0.9286
-0.7244 2.0552 0.9262
-0.7978 2.0289 0.9237
-0.8702 1.9999 0.9213
-0.9414 1.9684 0.9189
-2.6356 5.0399 2.3882
-2.8220 4.9571 2.3882
-3.0057 4.8673 2.3882
-3.1864 4.7705 2.3882
-3.3638 4.6668 2.3882
-3.5375 4.5564 2.3882
-3.7074 4.4393 2.3882
-3.8732 4.3156 2.3882
-4.0345 4.1856 2.3882
-4.1912 4.0492 2.3882
-4.3428 3.9069 2.3882
-4.4893 3.7586 2.3882
-4.6303 3.6045 2.3882
-4.7656 3.4450 2.3882
-4.8949 3.2802 2.3882
-5.0181 3.1103 2.3882
-5.1348 2.9355 2.3882
-5.2449 2.7560 2.3882
-5.3483 2.5725 2.3882
-5.4446 2.3847 2.3882
-5.5338 2.1932 2.3882
-5.6156 1.9982 2.3882
-5.6898 1.7999 2.3882
-5.7565 1.5988 2.3882
-5.8154 1.3950 2.3882
-5.8663 1.1890 2.3882
-5.9093 0.9810 2.3882
-5.9443 0.7714 2.3882
-5.9711 0.5605 2.3882
-5.9896 0.3486 2.3882
-6.0000 0.1362 2.3882
-6.0021 -0.0765 2.3882
-5.9960 -0.2892 2.3882
-5.9816 -0.5015 2.3882
-5.9590 -0.7131 2.3882
-5.9281 -0.9236 2.3882
-5.8892 -1.1326 2.3882
-5.8422 -1.3399 2.3882
-5.7872 -1.5452 2.3882
-5.7243 -1.7480 2.3882
-5.6537 -1.9482 2.3882
-5.5755 -2.1453 2.3882
-5.4897 -2.3390 2.3882
-5.3967 -2.5292 2.3882
-5.2965 -2.7150 2.3882
-5.1893 -2.8974 2.3882
-5.0753 -3.0750 2.3882
-4.9547 -3.2478 2.3882
-4.8278 -3.4157 2.3882
-4.6948 -3.5784 2.3882
-4.5558 -3.7356 2.3882
-4.4112 -3.8872 2.3882
-4.2612 -4.0329 2.3882
-4.1060 -4.1726 2.3882
-3.9459 -4.3061 2.3882
-3.7813 -4.4331 2.3882
-3.6123 -4.5537 2.3882
-3.4392 -4.6676 2.3882
-3.2623 -4.7747 2.3882
-3.0820 -4.8746 2.3882
-2.8983 -4.9681 2.3882
-2.7118 -5.0541 2.3882
-2.5227 -5.1330 2.3882
-2.3312 -5.2047 2.3882
-2.1377 -5.2691 2.3882
-1.9424 -5.3262 2.3882
-1.7456 -5.3759 2.3882
-1.5476 -5.4183 2.3882
-1.3488 -5.4534 2.3882
-1.1493 -5.4811 2.3882
-0.9494 -5.5014 2.3882
-0.7494 -5.5145 2.3882
-0.5497 -5.5203 2.3882
-0.3504 -5.5190 2.3882
-0.1518 -5.5104 2.3882
0.0459 -5.4948 2.3882
0.2423 -5.4722 2.3882
0.4373 -5.4427 2.3882
0.6306 -5.4064 2.3882
0.8219 -5.3633 2.3882
1.0111 -5.3137 2.3882
1.1980 -5.2575 2.3882
1.3822 -5.1950 2.3882
1.5637 -5.1262 2.3882
1.7422 -5.0512 2.3882
1.9175 -4.9703 2.3882
2.0894 -4.8835 2.3882
2.2578 -4.7911 2.3882
2.4224 -4.6931 2.3882
2.5832 -4.5897 2.3882
2.7399 -4.4810 2.3882
2.8925 -4.3673 2.3882
3.0406 -4.2486 2.3882
3.1843 -4.1253 2.3882
3.3234 -3.9973 2.3882
3.4577 -3.8649 2.3882
3.5871 -3.7283 2.3882
3.7116 -3.5877 2.3882
3.8309 -3.4431 2.3882
3.9451 -3.2949 2.3882
4.0539 -3.1431 2.3882
4.1574 -2.9881 2.3882
4.2554 -2.8299 2.3882
4.3478 -2.6686 2.3882
4.4346 -2.5046 2.3882
4.5157 -2.3380 2.3882
4.5911 -2.1690 2.3882
4.6606 -1.9977 2.3882
4.7242 -1.8245 2.3882
4.7819 -1.6493 2.3882
4.8337 -1.4725 2.3882
4.8794 -1.2942 2.3882
4.9191 -1.1146 2.3882
4.9528 -0.9340 2.3882
4.9803 -0.7524 2.3882
5.0018 -0.5701 2.3882
5.0171 -0.3872 2.3882
5.0263 -0.2040 2.3882
5.0293 -0.0206 2.3882
5.0262 0.1627 2.3882
5.0170 0.3458 2.3882
5.0017 0.5286 2.3882
4.9802 0.7107 2.3882
4.9527 0.8921 2.3882
4.9191 1.0725 2.3882
4.8794 1.2518 2.3882
4.8338 1.4297 2.3882
4.7822 1.6061 2.3882
4.7246 1.7808 2.3882
4.6612 1.9536 2.3882
4.5919 2.1244 2.3882
4.5169 2.2928 2.3882
4.4361 2.4589 2.3882
4.3497 2.6223 2.3882
4.2578 2.7830 2.3882
4.1603 2.9406 2.3882
4.0575 3.0951 2.3882
3.9493 3.2463 2.3882
3.8358 3.3939 2.3882
3.7172 3.5379 2.3882
3.5937 3.6779 2.3882
3.4651 3.8140 2.3882
3.3318 3.9459 2.3882
3.1938 4.0733 2.3882
3.0512 4.1963 2.3882
2.9042 4.3145 2.3882
2.7529 4.4279 2.3882
2.5975 4.5363 2.3882
2.4380 4.6394 2.3882
2.2748 4.7373 2.3882
0.8619 1.9747 0.9765
0.7904 2.0058 0.9743
0.7179 2.0342 0.9721
0.6444 2.0600 0.9698
0.5700 2.0831 0.9676
3.6472 3.1699 2.3882
3.5361 3.3065 2.3882
3.4203 3.4395 2.3882
3.2997 3.5686 2.3882
3.1747 3.6938 2.3882
3.0452 3.8149 2.3882
2.9113 3.9316 2.3882
2.7733 4.0440 2.3882
2.6312 4.1517 2.3882
2.4852 4.2547 2.3882
2.3354 4.3528 2.3882
2.1820 4.4459 2.3882
0.8267 1.8508 0.9749
0.7597 1.8806 0.9729
0.6917 1.9080 0.9708
0.6227 1.9329 0.9687
0.5529 1.9553 0.9665
0.4823 1.9751 0.9644
0.4110 1.9925 0.9622
0.3392 2.0072 0.9599
0.2668 2.0193 0.9577
0.1941 2.0288 0.9554
0.1211 2.0357 0.9531
0.0478 2.0399 0.9507
-0.0255 2.0415 0.9484
-0.0989 2.0404 0.9461
-0.1721 2.0367 0.9437
-0.2452 2.0303 0.9414
-0.3180 2.0214 0.9390
-0.3905 2.0097 0.9367
-0.4625 1.9955 0.9343
-0.5339 1.9787 0.9320
-0.6046 1.9593 0.9296
-0.6746 1.9374 0.9273
-0.7438 1.9129 0.9250
-0.8121 1.8860 0.9228
-0.8793 1.8566 0.9205
-0.9454 1.8249 0.9183
-2.6339 4.6683 2.3882
-2.8065 4.5840 2.3882
-2.9762 4.4933 2.3882
-3.1428 4.3961 2.3882
-3.3060 4.2926 2.3882
-3.4656 4.1828 2.3882
-3.6213 4.0669 2.3882
-3.7728 3.9451 2.3882
-3.9199 3.8174 2.3882
-4.0624 3.6840 2.3882
-4.2000 3.5451 2.3882
-4.3325 3.4008 2.3882
-4.4596 3.2514 2.3882
-4.5812 3.0971 2.3882
-4.6970 2.9380 2.3882
-4.8069 2.7744 2.3882
-4.9105 2.6065 2.3882
-5.0078 2.4345 2.3882
-5.0986 2.2589 2.3882
-5.1826 2.0795 2.3882
-5.2598 1.8969 2.3882
-5.3301 1.7113 2.3882
-5.3931 1.5229 2.3882
-5.4490 1.3322 2.3882
-5.4975 1.1393 2.3882
-5.5385 0.9445 2.3882
-5.5720 0.7481 2.3882
-5.5980 0.5507 2.3882
-5.6163 0.3523 2.3882
-5.6269 0.1532 2.3882
-5.6298 -0.0461 2.3882
-5.6250 -0.2455 2.3882
-5.6126 -0.4445 2.3882
-5.5924 -0.6429 2.3882
-5.5646 -0.8403 2.3882
-5.5292 -1.0364 2.3882
-5.4863 -1.2310 2.3882
-5.4359 -1.4237 2.3882
-5.3781 -1.6141 2.3882
-5.3131 -1.8022 2.3882
-5.2410 -1.9874 2.3882
-5.1618 -2.1696 2.3882
-5.0758 -2.3484 2.3882
-4.9830 -2.5237 2.3882
-4.8837 -2.6951 2.3882
-4.7781 -2.8624 2.3882
-4.6662 -3.0253 2.3882
-4.5484 -3.1836 2.3882
-4.4248 -3.3371 2.3882
-4.2956 -3.4856 2.3882
-4.1610 -3.6289 2.3882
-4.0214 -3.7668 2.3882
-3.8768 -3.8990 2.3882
-3.7276 -4.0255 2.3882
-3.5741 -4.1461 2.3882
-3.4164 -4.2606 2.3882
-3.2548 -4.3688 2.3882
-3.0896 -4.4707 2.3882
-2.9209 -4.5667 2.3882
-2.7494 -4.6554 2.3882
-2.5749 -4.7378 2.3882
-2.3979 -4.8135 2.3882
-2.2186 -4.8825 2.3882
-2.0373 -4.9446 2.3882
-1.8542 -4.9999 2.3882
-1.6696 -5.0483 2.3882
-1.4839 -5.0899 2.3882
-1.2972 -5.1245 2.3882
-1.1098 -5.1523 2.3882
-0.9220 -5.1731 2.3882
-0.7340 -5.1871 2.3882
-0.5461 -5.1943 2.3882
-0.3585 -5.1947 2.3882
-0.1715 -5.1884 2.3882
0.0147 -5.1754 2.3882
0.1998 -5.1557 2.3882
0.3836 -5.1296 2.3882
0.5660 -5.0970 2.3882
0.7466 -5.0580 2.3882
0.9252 -5.0128 2.3882
1.1017 -4.9614 2.3882
1.2759 -4.9040 2.3882
1.4475 -4.8406 2.3882
1.6163 -4.7714 2.3882
1.7822 -4.6965 2.3882
1.9450 -4.6160 2.3882
2.1045 -4.5302 2.3882
2.2606 -4.4390 2.3882
2.4130 -4.3427 2.3882
2.5617 -4.2414 2.3882
2.7065 -4.1352 2.3882
2.8472 -4.0243 2.3882
2.9837 -3.9089 2.3882
3.1159 -3.7891 2.3882
3.2436 -3.6651 2.3882
3.3668 -3.5371 2.3882
3.4853 -3.4051 2.3882
3.5990 -3.2694 2.3882
3.7078 -3.1303 2.3882
3.8116 -2.9876 2.3882
3.9103 -2.8416 2.3882
4.0039 -2.6929 2.3882
4.0922 -2.5411 2.3882
4.1752 -2.3867 2.3882
4.2529 -2.2298 2.3882
4.3251 -2.0705 2.3882
4.3917 -1.9091 2.3882
4.4529 -1.7457 2.3882
4.5084 -1.5805 2.3882
4.5582 -1.4136 2.3882
4.6024 -1.2453 2.3882
4.6409 -1.0758 2.3882
4.6736 -0.9052 2.3882
4.7005 -0.7336 2.3882
4.7216 -0.5614 2.3882
4.7370 -0.3886 2.3882
4.7465 -0.2155 2.3882
4.7502 -0.0421 2.3882
4.7480 0.1312 2.3882
4.7400 0.3044 2.3882
4.7263 0.4772 2.3882
4.7067 0.6494 2.3882
4.6813 0.8210 2.3882
4.6502 0.9916 2.3882
4.6134 1.1612 2.3882
4.5708 1.3295 2.3882
4.5226 1.4964 2.3882
4.4687 1.6617 2.3882
4.4093 1.8252 2.3882
4.3443 1.9868 2.3882
4.2739 2.1462 2.3882
4.1980 2.3033 2.3882
4.1168 2.4579 2.3882
4.0303 2.6099 2.3882
3.9386 2.7590 2.3882
3.8418 2.9051 2.3882
3.7399 3.0481 2.3882
3.6331 3.1878 2.3882
3.5214 3.3239 2.3882
3.4049 3.4564 2.3882
3.2838 3.5850 2.3882
3.1582 3.7097 2.3882
3.0281 3.8302 2.3882
2.8937 3.9464 2.3882
2.7552 4.0582 2.3882
2.6126 4.1653 2.3882
2.4661 4.2677 2.3882
2.3158 4.3652 2.3882
0.8841 1.8229 0.9766
0.8181 1.8548 0.9746
0.7510 1.8843 0.9726
0.6828 1.9113 0.9705
0.6137 1.9359 0.9684
0.5438 1.9580 0.9663
0.4731 1.9775 0.9641
0.4018 1.9945 0.9619
0.3299 2.0089 0.9596
0.2575 2.0207 0.9574
0.1847 2.0298 0.9551
0.1116 2.0364 0.9528
0.0384 2.0403 0.9504
-0.0350 2.0415 0.9481
-0.1083 2.0401 0.9458
-0.1816 2.0360 0.9434
-0.2547 2.0293 0.9411
-0.3274 2.0200 0.9387
-0.3998 2.0080 0.9364
-0.4717 1.9935 0.9340
-0.5431 1.9763 0.9317
-0.6137 1.9566 0.9293
-0.6836 1.9343 0.9270
-0.7527 1.9096 0.9247
-0.8208 1.8823 0.9225
-0.8879 1.8527 0.9202
-2.4815 4.7362 2.3882
-2.6564 4.6577 2.3882
-2.8286 4.5727 2.3882
-2.9979 4.4811 2.3882
-3.1641 4.3831 2.3882
-3.3269 4.2787 2.3882
-3.4859 4.1682 2.3882
-3.6411 4.0515 2.3882
-3.7921 3.9289 2.3882
-3.9386 3.8004 2.3882
-4.0805 3.6663 2.3882
-4.2174 3.5267 2.3882
-4.3492 3.3818 2.3882
-4.4757 3.2318 2.3882
-4.5965 3.0768 2.3882
-4.7116 2.9171 2.3882
-4.8206 2.7529 2.3882
-4.9235 2.5845 2.3882
-5.0199 2.4120 2.3882
-5.1099 2.2360 2.3882
-5.1930 2.0560 2.3882
-5.2693 1.8730 2.3882
-5.3386 1.6871 2.3882
-5.4008 1.4984 2.3882
-5.4557 1.3074 2.3882
-5.5032 1.1142 2.3882
-5.5433 0.9192 2.3882
-5.5758 0.7227 2.3882
-5.6008 0.5251 2.3882
-5.6181 0.3266 2.3882
-5.6277 0.1274 2.3882
-5.6296 -0.0719 2.3882
-5.6239 -0.2713 2.3882
-5.6104 -0.4702 2.3882
-5.5892 -0.6685 2.3882
-5.5604 -0.8657 2.3882
-5.5241 -1.0617 2.3882
-5.4802 -1.2560 2.3882
-5.4288 -1.4484 2.3882
-5.3701 -1.6386 2.3882
-5.3042 -1.8263 2.3882
-5.2311 -2.0111 2.3882
-5.1511 -2.1929 2.3882
-5.0642 -2.3713 2.3882
-4.9706 -2.5460 2.3882
-4.8704 -2.7169 2.3882
-4.7639 -2.8837 2.3882
-4.6513 -3.0460 2.3882
-4.5327 -3.2038 2.3882
-4.4084 -3.3566 2.3882
-4.2785 -3.5045 2.3882
-4.1432 -3.6471 2.3882
-4.0029 -3.7842 2.3882
-3.8578 -3.9157 2.3882
-3.7080 -4.0415 2.3882
-3.5539 -4.1613 2.3882
-3.3957 -4.2749 2.3882
-3.2337 -4.3823 2.3882
-3.0680 -4.4836 2.3882
-2.8990 -4.5784 2.3882
-2.7270 -4.6664 2.3882
-2.5522 -4.7480 2.3882
-2.3748 -4.8228 2.3882
-2.1952 -4.8909 2.3882
-2.0137 -4.9521 2.3882
-1.8304 -5.0066 2.3882
-1.6457 -5.0541 2.3882
-1.4598 -5.0947 2.3882
-1.2730 -5.1285 2.3882
-1.0855 -5.1553 2.3882
-0.8976 -5.1753 2.3882
-0.7097 -5.1884 2.3882
-0.5218 -5.1947 2.3882
-0.3343 -5.1943 2.3882
-0.1474 -5.1871 2.3882
0.0387 -5.1732 2.3882
0.2236 -5.1527 2.3882
0.4073 -5.1257 2.3882
0.5894 -5.0923 2.3882
0.7698 -5.0525 2.3882
0.9482 -5.0065 2.3882
1.1244 -4.9543 2.3882
1.2982 -4.8961 2.3882
1.4694 -4.8320 2.3882
1.6379 -4.7620 2.3882
1.8034 -4.6864 2.3882
1.9658 -4.6052 2.3882
2.1249 -4.5187 2.3882
2.2805 -4.4268 2.3882
2.4325 -4.3299 2.3882
2.5807 -4.2279 2.3882
2.7249 -4.1211 2.3882
2.8651 -4.0097 2.3882
3.0011 -3.8937 2.3882
3.1327 -3.7733 2.3882
3.2598 -3.6488 2.3882
3.3824 -3.5202 2.3882
3.5003 -3.3878 2.3882
3.6133 -3.2516 2.3882
3.7215 -3.1119 2.3882
3.8246 -2.9689 2.3882
3.9227 -2.8227 2.3882
4.0156 -2.6734 2.3882
4.1033 -2.5213 2.3882
4.1856 -2.3666 2.3882
4.2625 -2.2094 2.3882
4.3340 -2.0497 2.3882
4.4000 -1.8880 2.3882
4.4604 -1.7244 2.3882
4.5152 -1.5590 2.3882
4.5643 -1.3919 2.3882
4.6077 -1.2235 2.3882
4.6454 -1.0538 2.3882
4.6774 -0.8830 2.3882
4.7036 -0.7114 2.3882
4.7240 -0.5391 2.3882
4.7385 -0.3662 2.3882
4.7473 -0.1931 2.3882
4.7502 -0.0197 2.3882
4.7473 0.1536 2.3882
4.7386 0.3267 2.3882
4.7241 0.4995 2.3882
4.7037 0.6717 2.3882
4.6776 0.8431 2.3882
4.6458 1.0136 2.3882
4.6082 1.1831 2.3882
4.5649 1.3512 2.3882
4.5159 1.5179 2.3882
4.4613 1.6830 2.3882
4.4012 1.8462 2.3882
4.3355 2.0075 2.3882
4.2644 2.1666 2.3882
4.1878 2.3234 2.3882
4.1059 2.4777 2.3882
4.0188 2.6293 2.3882
3.9264 2.7781 2.3882
3.8289 2.9238 2.3882
3.7264 3.0664 2.3882
3.6189 3.2056 2.3882
3.5066 3.3412 2.3882
3.3895 3.4732 2.3882
3.2678 3.6014 2.3882
3.1416 3.7255 2.3882
3.0110 3.8455 2.3882
2.8760 3.9611 2.3882
2.7369 4.0723 2.3882
2.5938 4.1788 2.3882
2.4468 4.2806 2.3882
2.2961 4.3774 2.3882
0.8756 1.8271 0.9764
0.8095 1.8587 0.9744
0.7422 1.8879 0.9723
0.6739 1.9147 0.9703
0.6047 1.9389 0.9681
0.5347 1.9607 0.9660
3.4477 3.0000 2.3882
3.3423 3.1290 2.3882
3.2324 3.2546 2.3882
3.1181 3.3765 2.3882
2.9995 3.4946 2.3882
2.8767 3.6088 2.3882
2.7498 3.7189 2.3882
2.6190 3.8248 2.3882
2.4843 3.9263 2.3882
2.3459 4.0233 2.3882
2.2040 4.1156 2.3882
0.8404 1.7157 0.9748
0.7782 1.7460 0.9730
0.7150 1.7742 0.9710
0.6508 1.8000 0.9691
0.5858 1.8235 0.9671
0.5199 1.8446 0.9651
0.4533 1.8633 0.9630
0.3861 1.8796 0.9609
0.3183 1.8935 0.9588
0.2500 1.9050 0.9567
0.1814 1.9139 0.9545
0.1125 1.9204 0.9524
0.0434 1.9244 0.9502
-0.0258 1.9259 0.9480
-0.0950 1.9249 0.9458
-0.1641 1.9213 0.9436
-0.2331 1.9153 0.9413
-0.3018 1.9069 0.9391
-0.3701 1.8959 0.9369
-0.4380 1.8825 0.9347
-0.5054 1.8666 0.9325
-0.5721 1.8483 0.9303
-0.6382 1.8276 0.9281
-0.7034 1.8046 0.9259
-0.7678 1.7792 0.9238
-0.8313 1.7515 0.9216
-0.8936 1.7215 0.9195
-2.4856 4.3972 2.3882
-2.6478 4.3173 2.3882
-2.8073 4.2312 2.3882
-2.9638 4.1392 2.3882
-3.1171 4.0412 2.3882
-3.2669 3.9373 2.3882
-3.4130 3.8278 2.3882
-3.5552 3.7126 2.3882
-3.6933 3.5920 2.3882
-3.8270 3.4661 2.3882
-3.9560 3.3351 2.3882
-4.0802 3.1990 2.3882
-4.1994 3.0582 2.3882
-4.3134 2.9127 2.3882
-4.4219 2.7628 2.3882
-4.5248 2.6087 2.3882
-4.6219 2.4506 2.3882
-4.7130 2.2887 2.3882
-4.7980 2.1233 2.3882
-4.8767 1.9546 2.3882
-4.9489 1.7828 2.3882
-5.0146 1.6083 2.3882
-5.0737 1.4312 2.3882
-5.1259 1.2518 2.3882
-5.1712 1.0705 2.3882
-5.2096 0.8874 2.3882
-5.2409 0.7029 2.3882
-5.2652 0.5173 2.3882
-5.2823 0.3308 2.3882
-5.2922 0.1438 2.3882
-5.2949 -0.0436 2.3882
-5.2904 -0.2309 2.3882
-5.2786 -0.4179 2.3882
-5.2597 -0.6044 2.3882
-5.2337 -0.7899 2.3882
-5.2005 -0.9742 2.3882
-5.1603 -1.1571 2.3882
-5.1131 -1.3381 2.3882
-5.0590 -1.5173 2.3882
-4.9981 -1.6940 2.3882
-4.9306 -1.8679 2.3882
-4.8564 -2.0395 2.3882
-4.7758 -2.2077 2.3882
-4.6889 -2.3726 2.3882
-4.5959 -2.5339 2.3882
-4.4969 -2.6914 2.3882
-4.3921 -2.8448 2.3882
-4.2816 -2.9939 2.3882
-4.1658 -3.1386 2.3882
-4.0446 -3.2785 2.3882
-3.9185 -3.4136 2.3882
-3.7875 -3.5436 2.3882
-3.6519 -3.6684 2.3882
-3.5119 -3.7878 2.3882
-3.3678 -3.9016 2.3882
-3.2198 -4.0098 2.3882
-3.0680 -4.1124 2.3882
-2.9129 -4.2088 2.3882
-2.7546 -4.2993 2.3882
-2.5933 -4.3837 2.3882
-2.4293 -4.4618 2.3882
-2.2629 -4.5337 2.3882
-2.0943 -4.5993 2.3882
-1.9237 -4.6584 2.3882
-1.7515 -4.7112 2.3882
-1.5778 -4.7575 2.3882
-1.4030 -4.7973 2.3882
-1.2272 -4.8306 2.3882
-1.0507 -4.8574 2.3882
-0.8737 -4.8778 2.3882
-0.6965 -4.8917 2.3882
-0.5194 -4.8992 2.3882
-0.3425 -4.9002 2.3882
-0.1662 -4.8950 2.3882
0.0095 -4.8834 2.3882
0.1842 -4.8656 2.3882
0.3577 -4.8416 2.3882
0.5299 -4.8115 2.3882
0.7005 -4.7754 2.3882
0.8693 -4.7333 2.3882
1.0361 -4.6854 2.3882
1.2007 -4.6318 2.3882
1.3630 -4.5726 2.3882
1.5227 -4.5078 2.3882
1.6796 -4.4376 2.3882
1.8337 -4.3622 2.3882
1.9847 -4.2815 2.3882
2.1324 -4.1959 2.3882
2.2768 -4.1053 2.3882
2.4177 -4.0100 2.3882
2.5548 -3.9101 2.3882
2.6882 -3.8057 2.3882
2.8176 -3.6970 2.3882
2.9429 -3.5841 2.3882
3.0641 -3.4671 2.3882
3.1809 -3.3463 2.3882
3.2933 -3.2218 2.3882
3.4012 -3.0937 2.3882
3.5044 -2.9623 2.3882
3.6030 -2.8275 2.3882
3.6967 -2.6899 2.3882
3.7856 -2.5490 2.3882
3.8695 -2.4054 2.3882
3.9483 -2.2596 2.3882
4.0221 -2.1111 2.3882
4.0907 -1.9605 2.3882
4.1541 -1.8077 2.3882
4.2122 -1.6531 2.3882
4.2649 -1.4967 2.3882
4.3123 -1.3388 2.3882
4.3544 -1.1795 2.3882
4.3909 -1.0190 2.3882
4.4220 -0.8574 2.3882
4.4477 -0.6950 2.3882
4.4678 -0.5319 2.3882
4.4824 -0.3682 2.3882
4.4914 -0.2043 2.3882
4.4950 -0.0401 2.3882
4.4930 0.1241 2.3882
4.4854 0.2881 2.3882
4.4724 0.4518 2.3882
4.4538 0.6149 2.3882
4.4297 0.7774 2.3882
4.4001 0.9390 2.3882
4.3651 1.0996 2.3882
4.3247 1.2589 2.3882
4.2789 1.4170 2.3882
4.2278 1.5734 2.3882
4.1713 1.7282 2.3882
4.1096 1.8811 2.3882
4.0427 2.0320 2.3882
3.9707 2.1806 2.3882
3.8935 2.3269 2.3882
3.8114 2.4706 2.3882
3.7244 2.6116 2.3882
3.6324 2.7498 2.3882
3.5357 2.8849 2.3882
3.4344 3.0168 2.3882
3.3284 3.1454 2.3882
3.2179 3.2705 2.3882
3.1030 3.3920 2.3882
2.9838 3.5096 2.3882
2.8605 3.6233 2.3882
2.7331 3.7328 2.3882
2.6017 3.8382 2.3882
2.4666 3.9391 2.3882
2.3278 4.0355 2.3882
2.1854 4.1272 2.3882
0.8324 1.7197 0.9746
0.7701 1.7498 0.9727
0.7068 1.7776 0.9708
0.6425 1.8031 0.9688
0.5773 1.8263 0.9668
0.5113 1.8471 0.9648
0.4446 1.8656 0.9628
0.3773 1.8816 0.9607
0.3095 1.8951 0.9586
0.2412 1.9063 0.9564
0.1725 1.9149 0.9543
0.1036 1.9210 0.9521
0.0345 1.9247 0.9499
-0.0347 1.9259 0.9477
-0.1039 1.9245 0.9455
-0.1730 1.9207 0.9433
-0.2420 1.9144 0.9410
-0.3106 1.9056 0.9388
-0.3789 1.8943 0.9366
-0.4467 1.8806 0.9344
-0.5140 1.8644 0.9322
-0.5807 1.8458 0.9300
-0.6467 1.8248 0.9278
-0.7118 1.8014 0.9256
-0.7761 1.7757 0.9235
-0.8394 1.7477 0.9214
-0.9016 1.7175 0.9193
-2.5067 4.3872 2.3882
-2.6686 4.3065 2.3882
-2.8277 4.2197 2.3882
-2.9838 4.1268 2.3882
-3.1366 4.0281 2.3882
-3.2860 3.9235 2.3882
-3.4317 3.8132 2.3882
-3.5733 3.6973 2.3882
-3.7108 3.5760 2.3882
-3.8439 3.4495 2.3882
-3.9723 3.3178 2.3882
-4.0959 3.1811 2.3882
-4.2145 3.0396 2.3882
-4.3277 2.8936 2.3882
-4.4355 2.7431 2.3882
-4.5377 2.5885 2.3882
-4.6340 2.4299 2.3882
-4.7243 2.2675 2.3882
-4.8085 2.1017 2.3882
-4.8864 1.9326 2.3882
-4.9577 1.7602 2.3882
-5.0226 1.5855 2.3882
-5.0808 1.4081 2.3882
-5.1321 1.2285 2.3882
-5.1766 1.0469 2.3882
-5.2141 0.8636 2.3882
-5.2445 0.6790 2.3882
-5.2678 0.4932 2.3882
-5.2839 0.3066 2.3882
-5.2929 0.1195 2.3882
-5.2947 -0.0678 2.3882
-5.2892 -0.2551 2.3882
-5.2766 -0.4421 2.3882
-5.2568 -0.6284 2.3882
-5.2298 -0.8137 2.3882
-5.1957 -0.9980 2.3882
-5.1546 -1.1806 2.3882
-5.1065 -1.3614 2.3882
-5.0515 -1.5402 2.3882
-4.9898 -1.7166 2.3882
-4.9213 -1.8908 2.3882
-4.8464 -2.0614 2.3882
-4.7649 -2.2292 2.3882
-4.6773 -2.3937 2.3882
-4.5835 -2.5545 2.3882
-4.4837 -2.7114 2.3882
-4.3781 -2.8643 2.3882
-4.2670 -3.0129 2.3882
-4.1504 -3.1569 2.3882
-4.0286 -3.2963 2.3882
-3.9018 -3.4307 2.3882
-3.7702 -3.5601 2.3882
-3.6340 -3.6842 2.3882
-3.4935 -3.8029 2.3882
-3.3489 -3.9159 2.3882
-3.2004 -4.0234 2.3882
-3.0482 -4.1250 2.3882
-2.8926 -4.2209 2.3882
-2.7339 -4.3106 2.3882
-2.5722 -4.3941 2.3882
-2.4079 -4.4715 2.3882
-2.2412 -4.5425 2.3882
-2.0723 -4.6073 2.3882
-1.9015 -4.6656 2.3882
-1.7291 -4.7175 2.3882
-1.5553 -4.7630 2.3882
-1.3803 -4.8019 2.3882
-1.2044 -4.8344 2.3882
-1.0278 -4.8604 2.3882
-0.8508 -4.8800 2.3882
-0.6736 -4.8930 2.3882
-0.4965 -4.8997 2.3882
-0.3197 -4.8999 2.3882
-0.1434 -4.8938 2.3882
0.0321 -4.8814 2.3882
0.2067 -4.8628 2.3882
0.3801 -4.8380 2.3882
0.5521 -4.8071 2.3882
0.7224 -4.7703 2.3882
0.8910 -4.7274 2.3882
1.0575 -4.6788 2.3882
1.2218 -4.6245 2.3882
1.3838 -4.5645 2.3882
1.5431 -4.4990 2.3882
1.6997 -4.4282 2.3882
1.8534 -4.3520 2.3882
2.0040 -4.2707 2.3882
2.1513 -4.1844 2.3882
2.2952 -4.0933 2.3882
2.4356 -3.9974 2.3882
2.5723 -3.8969 2.3882
2.7052 -3.7919 2.3882
2.8340 -3.6826 2.3882
2.9588 -3.5692 2.3882
3.0794 -3.4517 2.3882
3.1957 -3.3304 2.3882
3.3075 -3.2054 2.3882
3.4148 -3.0769 2.3882
3.5175 -2.9450 2.3882
3.6154 -2.8099 2.3882
3.7085 -2.6717 2.3882
3.7967 -2.5307 2.3882
3.8800 -2.3868 2.3882
3.9582 -2.2405 2.3882
4.0313 -2.0918 2.3882
4.0992 -1.9408 2.3882
4.1619 -1.7878 2.3882
4.2193 -1.6330 2.3882
4.2714 -1.4765 2.3882
4.3181 -1.3183 2.3882
4.3594 -1.1588 2.3882
4.3953 -0.9982 2.3882
4.4257 -0.8365 2.3882
4.4506 -0.6740 2.3882
4.4700 -0.5108 2.3882
4.4839 -0.3471 2.3882
4.4922 -0.1830 2.3882
4.4950 -0.0189 2.3882
4.4923 0.1453 2.3882
4.4840 0.3093 2.3882
4.4703 0.4729 2.3882
4.4510 0.6360 2.3882
4.4262 0.7983 2.3882
4.3959 0.9598 2.3882
4.3602 1.1203 2.3882
4.3191 1.2795 2.3882
4.2726 1.4373 2.3882
4.2207 1.5936 2.3882
4.1636 1.7481 2.3882
4.1012 1.9007 2.3882
4.0337 2.0513 2.3882
3.9610 2.1996 2.3882
3.8832 2.3456 2.3882
3.8004 2.4890 2.3882
3.7127 2.6296 2.3882
3.6202 2.7674 2.3882
3.5229 2.9021 2.3882
3.4209 3.0337 2.3882
3.3143 3.1618 2.3882
3.2033 3.2864 2.3882
3.0878 3.4074 2.3882
2.9681 3.5245 2.3882
2.8442 3.6377 2.3882
2.7163 3.7467 2.3882
2.5845 3.8515 2.3882
2.4489 3.9518 2.3882
2.3096 4.0476 2.3882
0.8857 1.6917 0.9762
0.8244 1.7237 0.9743
0.7620 1.7535 0.9725
0.6985 1.7811 0.9705
0.6341 1.8063 0.9686
0.5688 1.8292 0.9666
0.5027 1.8497 0.9646
3.2648 2.8441 2.3882
3.1646 2.9662 2.3882
3.0602 3.0850 2.3882
2.9516 3.2003 2.3882
2.8389 3.3120 2.3882
2.7222 3.4199 2.3882
2.6017 3.5240 2.3882
2.4775 3.6240 2.3882
2.3497 3.7198 2.3882
2.2184 3.8113 2.3882
0.8504 1.5910 0.9747
0.7928 1.6218 0.9730
0.7340 1.6505 0.9712
0.6743 1.6771 0.9694
0.6136 1.7015 0.9675
0.5521 1.7237 0.9657
0.4898 1.7437 0.9637
0.4269 1.7614 0.9618
0.3633 1.7768 0.9598
0.2992 1.7899 0.9578
0.2347 1.8007 0.9558
0.1698 1.8092 0.9538
0.1047 1.8153 0.9517
0.0394 1.8190 0.9497
-0.0260 1.8204 0.9476
-0.0915 1.8195 0.9455
-0.1568 1.8162 0.9434
-0.2220 1.8105 0.9413
-0.2869 1.8025 0.9392
-0.3515 1.7921 0.9371
-0.4157 1.7794 0.9350
-0.4794 1.7644 0.9329
-0.5425 1.7471 0.9308
-0.6049 1.7276 0.9288
-0.6666 1.7058 0.9267
-0.7275 1.6818 0.9247
-0.7875 1.6556 0.9227
-0.8464 1.6273 0.9207
-0.9043 1.5968 0.9187
-2.5035 4.0748 2.3882
-2.6538 3.9931 2.3882
-2.8012 3.9058 2.3882
-2.9455 3.8129 2.3882
-3.0865 3.7145 2.3882
-3.2240 3.6107 2.3882
-3.3578 3.5017 2.3882
-3.4877 3.3876 2.3882
-3.6134 3.2685 2.3882
-3.7347 3.1446 2.3882
-3.8515 3.0160 2.3882
-3.9635 2.8829 2.3882
-4.0706 2.7456 2.3882
-4.1725 2.6040 2.3882
-4.2692 2.4586 2.3882
-4.3604 2.3094 2.3882
-4.4459 2.1567 2.3882
-4.5257 2.0006 2.3882
-4.5996 1.8416 2.3882
-4.6674 1.6796 2.3882
-4.7290 1.5151 2.3882
-4.7845 1.3483 2.3882
-4.8335 1.1794 2.3882
-4.8760 1.0082 2.3882
-4.9119 0.8357 2.3882
-4.9413 0.6619 2.3882
-4.9640 0.4871 2.3882
-4.9800 0.3114 2.3882
-4.9893 0.1352 2.3882
-4.9918 -0.0413 2.3882
-4.9875 -0.2177 2.3882
-4.9765 -0.3939 2.3882
-4.9587 -0.5694 2.3882
-4.9342 -0.7442 2.3882
-4.9031 -0.9178 2.3882
-4.8653 -1.0901 2.3882
-4.8210 -1.2607 2.3882
-4.7702 -1.4295 2.3882
-4.7130 -1.5960 2.3882
-4.6496 -1.7602 2.3882
-4.5799 -1.9217 2.3882
-4.5043 -2.0803 2.3882
-4.4226 -2.2358 2.3882
-4.3353 -2.3879 2.3882
-4.2422 -2.5365 2.3882
-4.1437 -2.6812 2.3882
-4.0400 -2.8220 2.3882
-3.9310 -2.9586 2.3882
-3.8172 -3.0908 2.3882
-3.6986 -3.2184 2.3882
-3.5754 -3.3413 2.3882
-3.4479 -3.4592 2.3882
-3.3163 -3.5721 2.3882
-3.1807 -3.6797 2.3882
-3.0413 -3.7824 2.3882
-2.8985 -3.8794 2.3882
-2.7525 -3.9709 2.3882
-2.6034 -4.0567 2.3882
-2.4515 -4.1368 2.3882
-2.2970 -4.2110 2.3882
-2.1402 -4.2794 2.3882
-1.9813 -4.3418 2.3882
-1.8205 -4.3982 2.3882
-1.6581 -4.4486 2.3882
-1.4943 -4.4928 2.3882
-1.3293 -4.5310 2.3882
-1.1634 -4.5631 2.3882
-0.9968 -4.5890 2.3882
-0.8298 -4.6088 2.3882
-0.6624 -4.6226 2.3882
-0.4951 -4.6302 2.3882
-0.3280 -4.6319 2.3882
-0.1613 -4.6275 2.3882
0.0048 -4.6171 2.3882
0.1700 -4.6009 2.3882
0.3341 -4.5788 2.3882
0.4970 -4.5509 2.3882
0.6584 -4.5173 2.3882
0.8182 -4.4781 2.3882
0.9761 -4.4333 2.3882
1.1321 -4.3832 2.3882
1.2858 -4.3276 2.3882
1.4371 -4.2668 2.3882
1.5858 -4.2009 2.3882
1.7319 -4.1299 2.3882
1.8751 -4.0541 2.3882
2.0152 -3.9734 2.3882
2.1522 -3.8881 2.3882
2.2858 -3.7983 2.3882
2.4160 -3.7040 2.3882
2.5426 -3.6055 2.3882
2.6654 -3.5028 2.3882
2.7844 -3.3962 2.3882
2.8995 -3.2857 2.3882
3.0105 -3.1715 2.3882
3.1173 -3.0538 2.3882
3.2198 -2.9326 2.3882
3.3180 -2.8082 2.3882
3.4117 -2.6807 2.3882
3.5008 -2.5503 2.3882
3.5853 -2.4170 2.3882
3.6651 -2.2812 2.3882
3.7401 -2.1429 2.3882
3.8103 -2.0022 2.3882
3.8756 -1.8595 2.3882
3.9359 -1.7147 2.3882
3.9912 -1.5681 2.3882
4.0414 -1.4199 2.3882
4.0865 -1.2701 2.3882
4.1265 -1.1191 2.3882
4.1614 -0.9668 2.3882
4.1910 -0.8136 2.3882
4.2154 -0.6595 2.3882
4.2346 -0.5048 2.3882
4.2485 -0.3495 2.3882
4.2572 -0.1940 2.3882
4.2606 -0.0382 2.3882
4.2587 0.1175 2.3882
4.2515 0.2731 2.3882
4.2391 0.4284 2.3882
4.2214 0.5832 2.3882
4.1985 0.7373 2.3882
4.1704 0.8906 2.3882
4.1371 1.0429 2.3882
4.0987 1.1941 2.3882
4.0551 1.3441 2.3882
4.0065 1.4924 2.3882
3.9528 1.6391 2.3882
3.8941 1.7841 2.3882
3.8304 1.9271 2.3882
3.7619 2.0680 2.3882
3.6886 2.2066 2.3882
3.6105 2.3427 2.3882
3.5277 2.4763 2.3882
3.4403 2.6072 2.3882
3.3484 2.7351 2.3882
3.2521 2.8600 2.3882
3.1513 2.9817 2.3882
3.0463 3.1001 2.3882
2.9372 3.2149 2.3882
2.8240 3.3262 2.3882
2.7069 3.4336 2.3882
2.5859 3.5371 2.3882
2.4612 3.6366 2.3882
2.3329 3.7318 2.3882
2.2012 3.8228 2.3882
0.8430 1.5951 0.9745
0.7852 1.6257 0.9727
0.7264 1.6541 0.9710
0.6665 1.6804 0.9691
0.6057 1.7045 0.9673
0.5441 1.7264 0.9654
0.4817 1.7461 0.9635
0.4187 1.7635 0.9616
0.3550 1.7786 0.9596
0.2909 1.7914 0.9576
0.2263 1.8019 0.9556
0.1614 1.8101 0.9535
0.0962 1.8159 0.9515
0.0309 1.8194 0.9494
-0.0345 1.8205 0.9473
-0.0999 1.8192 0.9452
-0.1652 1.8156 0.9431
-0.2304 1.8096 0.9410
-0.2953 1.8013 0.9389
-0.3598 1.7906 0.9368
-0.4240 1.7776 0.9347
-0.4876 1.7623 0.9326
-0.5506 1.7447 0.9306
-0.6130 1.7249 0.9285
-0.6746 1.7028 0.9265
-0.7353 1.6785 0.9244
-0.7951 1.6521 0.9224
-0.8540 1.6234 0.9204
-0.9117 1.5927 0.9185
-2.5231 4.0646 2.3882
-2.6730 3.9822 2.3882
-2.8200 3.8941 2.3882
-2.9639 3.8004 2.3882
-3.1045 3.7013 2.3882
-3.2416 3.5969 2.3882
-3.3748 3.4872 2.3882
-3.5042 3.3725 2.3882
-3.6293 3.2527 2.3882
-3.7501 3.1282 2.3882
-3.8662 2.9991 2.3882
-3.9776 2.8654 2.3882
-4.0841 2.7275 2.3882
-4.1853 2.5854 2.3882
-4.2813 2.4395 2.3882
-4.3717 2.2898 2.3882
-4.4566 2.1367 2.3882
-4.5356 1.9802 2.3882
-4.6087 1.8208 2.3882
-4.6757 1.6585 2.3882
-4.7366 1.4936 2.3882
-4.7911 1.3265 2.3882
-4.8393 1.1571 2.3882
-4.8810 0.9860 2.3882
-4.9161 0.8133 2.3882
-4.9446 0.6394 2.3882
-4.9665 0.4644 2.3882
-4.9816 0.2886 2.3882
-4.9900 0.1124 2.3882
-4.9916 -0.0641 2.3882
-4.9865 -0.2405 2.3882
-4.9746 -0.4166 2.3882
-4.9559 -0.5921 2.3882
-4.9306 -0.7667 2.3882
-4.8986 -0.9402 2.3882
-4.8600 -1.1123 2.3882
-4.8148 -1.2827 2.3882
-4.7632 -1.4511 2.3882
-4.7052 -1.6174 2.3882
-4.6409 -1.7812 2.3882
-4.5705 -1.9424 2.3882
-4.4940 -2.1006 2.3882
-4.4117 -2.2557 2.3882
-4.3235 -2.4074 2.3882
-4.2298 -2.5554 2.3882
-4.1306 -2.6997 2.3882
-4.0262 -2.8399 2.3882
-3.9166 -2.9759 2.3882
-3.8021 -3.1075 2.3882
-3.6829 -3.2345 2.3882
-3.5591 -3.3569 2.3882
-3.4311 -3.4741 2.3882
-3.2989 -3.5866 2.3882
-3.1628 -3.6936 2.3882
-3.0230 -3.7953 2.3882
-2.8798 -3.8916 2.3882
-2.7334 -3.9823 2.3882
-2.5839 -4.0674 2.3882
-2.4316 -4.1467 2.3882
-2.2769 -4.2202 2.3882
-2.1198 -4.2878 2.3882
-1.9606 -4.3494 2.3882
-1.7996 -4.4051 2.3882
-1.6370 -4.4546 2.3882
-1.4730 -4.4981 2.3882
-1.3079 -4.5355 2.3882
-1.1419 -4.5668 2.3882
-0.9752 -4.5919 2.3882
-0.8081 -4.6110 2.3882
-0.6408 -4.6239 2.3882
-0.4735 -4.6308 2.3882
-0.3064 -4.6316 2.3882
-0.1398 -4.6265 2.3882
0.0262 -4.6153 2.3882
0.1913 -4.5983 2.3882
0.3552 -4.5755 2.3882
0.5180 -4.5469 2.3882
0.6792 -4.5125 2.3882
0.8387 -4.4726 2.3882
0.9964 -4.4272 2.3882
1.1521 -4.3763 2.3882
1.3055 -4.3200 2.3882
1.4565 -4.2586 2.3882
1.6049 -4.1920 2.3882
1.7506 -4.1204 2.3882
1.8934 -4.0439 2.3882
2.0331 -3.9627 2.3882
2.1696 -3.8768 2.3882
2.3028 -3.7863 2.3882
2.4326 -3.6915 2.3882
2.5587 -3.5924 2.3882
2.6810 -3.4893 2.3882
2.7995 -3.3821 2.3882
2.9141 -3.2711 2.3882
3.0245 -3.1565 2.3882
3.1308 -3.0383 2.3882
3.2328 -2.9167 2.3882
3.3303 -2.7919 2.3882
3.4234 -2.6640 2.3882
3.5120 -2.5332 2.3882
3.5959 -2.3996 2.3882
3.6751 -2.2635 2.3882
3.7495 -2.1248 2.3882
3.8190 -1.9839 2.3882
3.8836 -1.8408 2.3882
3.9433 -1.6958 2.3882
3.9979 -1.5490 2.3882
4.0475 -1.4006 2.3882
4.0920 -1.2506 2.3882
4.1313 -1.0994 2.3882
4.1655 -0.9471 2.3882
4.1945 -0.7937 2.3882
