ply
format ascii 1.0
element vertex 2180
property float32 x
property float32 y
property float32 z
end_header
-5.0289 -0.7471 2.3960
-5.0046 -0.9306 2.3960
-4.9741 -1.1133 2.3960
-4.9375 -1.2951 2.3960
-4.8947 -1.4758 2.3960
-4.8457 -1.6552 2.3960
-4.7907 -1.8332 2.3960
-4.7296 -2.0094 2.3960
-4.6624 -2.1837 2.3960
-4.5892 -2.3560 2.3960
-4.5101 -2.5260 2.3960
-4.4251 -2.6935 2.3960
-4.3343 -2.8583 2.3960
-4.2377 -3.0203 2.3960
-4.1355 -3.1792 2.3960
-4.0276 -3.3348 2.3960
-3.9142 -3.4869 2.3960
-3.7954 -3.6354 2.3960
-3.6713 -3.7801 2.3960
-3.5420 -3.9207 2.3960
-3.4076 -4.0571 2.3960
-3.2681 -4.1891 2.3960
-3.1239 -4.3164 2.3960
-2.9750 -4.4390 2.3960
-2.8214 -4.5566 2.3960
-2.6635 -4.6691 2.3960
-2.5013 -4.7762 2.3960
-2.3350 -4.8778 2.3960
-2.1649 -4.9738 2.3960
-1.9910 -5.0640 2.3960
-1.8135 -5.1481 2.3960
-1.6327 -5.2262 2.3960
-1.4487 -5.2979 2.3960
-1.2618 -5.3633 2.3960
-1.0722 -5.4220 2.3960
-0.8801 -5.4741 2.3960
-0.6858 -5.5194 2.3960
-0.4894 -5.5577 2.3960
-0.2912 -5.5890 2.3960
-0.0915 -5.6132 2.3960
0.1094 -5.6302 2.3960
0.3114 -5.6399 2.3960
0.5140 -5.6422 2.3960
0.7171 -5.6371 2.3960
0.9204 -5.6245 2.3960
1.1236 -5.6044 2.3960
1.3264 -5.5767 2.3960
1.5285 -5.5415 2.3960
1.7296 -5.4987 2.3960
1.9294 -5.4484 2.3960
2.1276 -5.3905 2.3960
2.3240 -5.3252 2.3960
2.5181 -5.2524 2.3960
2.7098 -5.1722 2.3960
2.8987 -5.0846 2.3960
3.0845 -4.9899 2.3960
3.2670 -4.8880 2.3960
3.4457 -4.7790 2.3960
3.6205 -4.6632 2.3960
3.7910 -4.5407 2.3960
3.9570 -4.4115 2.3960
4.1182 -4.2759 2.3960
4.2743 -4.1340 2.3960
4.4250 -3.9861 2.3960
4.5701 -3.8323 2.3960
4.7093 -3.6730 2.3960
4.8425 -3.5082 2.3960
4.9693 -3.3382 2.3960
5.0896 -3.1633 2.3960
5.2032 -2.9838 2.3960
5.3098 -2.7999 2.3960
5.4093 -2.6119 2.3960
5.5014 -2.4201 2.3960
5.5861 -2.2248 2.3960
5.6632 -2.0263 2.3960
5.7326 -1.8251 2.3960
5.7942 -1.6211 2.3960
5.8478 -1.4149 2.3960
5.8933 -1.2069 2.3960
5.9308 -0.9973 2.3960
5.9601 -0.7864 2.3960
5.9813 -0.5746 2.3960
5.9942 -0.3623 2.3960
5.9989 -0.1497 2.3960
5.9953 0.0628 2.3960
5.9836 0.2748 2.3960
5.9638 0.4860 2.3960
5.9358 0.6962 2.3960
5.8998 0.9049 2.3960
5.8559 1.1118 2.3960
5.8041 1.3167 2.3960
5.7446 1.5193 2.3960
5.6774 1.7191 2.3960
5.6028 1.9158 2.3960
5.5209 2.1094 2.3960
5.4318 2.2994 2.3960
5.3357 2.4855 2.3960
5.2327 2.6676 2.3960
5.1232 2.8454 2.3960
5.0073 3.0186 2.3960
4.8851 3.1869 2.3960
4.7570 3.3503 2.3960
4.6230 3.5084 2.3960
4.4836 3.6610 2.3960
4.3389 3.8081 2.3960
4.1891 3.9493 2.3960
4.0346 4.0846 2.3960
3.8755 4.2138 2.3960
3.7121 4.3367 2.3960
3.5448 4.4532 2.3960
3.3736 4.5633 2.3960
3.1990 4.6667 2.3960
3.0212 4.7635 2.3960
2.8404 4.8535 2.3960
2.6570 4.9366 2.3960
2.4711 5.0129 2.3960
0.8906 1.9824 0.9346
0.8187 2.0122 0.9372
0.7459 2.0394 0.9397
0.6721 2.0640 0.9423
0.5974 2.0859 0.9449
0.5220 2.1051 0.9474
0.4460 2.1216 0.9500
0.3694 2.1353 0.9526
0.2923 2.1462 0.9551
0.2149 2.1544 0.9576
0.1373 2.1597 0.9601
0.0595 2.1623 0.9626
-0.0183 2.1620 0.9650
-0.0961 2.1590 0.9674
-0.1737 2.1531 0.9698
-0.2511 2.1444 0.9721
-0.3281 2.1330 0.9744
-0.4046 2.1188 0.9767
-0.4806 2.1018 0.9789
-0.5559 2.0821 0.9810
-0.6305 2.0597 0.9831
-0.7042 2.0346 0.9852
-0.7769 2.0069 0.9872
-0.8486 1.9766 0.9891
-2.2224 4.6995 2.3960
-2.3857 4.6055 2.3960
-2.5454 4.5062 2.3960
-2.7013 4.4017 2.3960
-2.8533 4.2922 2.3960
-3.0012 4.1778 2.3960
-3.1449 4.0587 2.3960
-3.2843 3.9349 2.3960
-3.4193 3.8067 2.3960
-3.5496 3.6742 2.3960
-3.6753 3.5376 2.3960
-3.7961 3.3971 2.3960
-3.9120 3.2526 2.3960
-4.0228 3.1045 2.3960
4.7764 2.7252 2.3960
4.6661 2.8866 2.3960
4.5501 3.0435 2.3960
4.4285 3.1956 2.3960
4.3015 3.3427 2.3960
4.1694 3.4848 2.3960
4.0324 3.6215 2.3960
3.8907 3.7529 2.3960
3.7446 3.8786 2.3960
3.5943 3.9985 2.3960
3.4399 4.1126 2.3960
3.2819 4.2207 2.3960
3.1203 4.3227 2.3960
2.9556 4.4185 2.3960
2.7878 4.5080 2.3960
2.6173 4.5912 2.3960
0.9497 1.8137 0.9310
0.8839 1.8457 0.9334
0.8170 1.8754 0.9358
0.7491 1.9026 0.9382
0.6802 1.9274 0.9406
0.6104 1.9496 0.9430
0.5399 1.9694 0.9455
0.4687 1.9866 0.9479
0.3969 2.0012 0.9503
0.3247 2.0132 0.9527
0.2520 2.0226 0.9550
0.1791 2.0294 0.9574
0.1060 2.0335 0.9597
0.0327 2.0350 0.9621
-0.0405 2.0338 0.9644
-0.1137 2.0301 0.9666
-0.1867 2.0236 0.9688
-0.2594 2.0146 0.9710
-0.3317 2.0029 0.9732
-0.4036 1.9887 0.9753
-0.4749 1.9718 0.9773
-0.5456 1.9524 0.9793
-0.6155 1.9305 0.9813
-0.6846 1.9060 0.9832
-0.7527 1.8791 0.9851
-0.8199 1.8497 0.9869
-0.8859 1.8180 0.9886
-2.3003 4.3159 2.3960
-2.4501 4.2209 2.3960
-2.5963 4.1210 2.3960
-2.7388 4.0164 2.3960
-2.8775 3.9071 2.3960
-3.0121 3.7934 2.3960
-3.1426 3.6753 2.3960
-3.2689 3.5531 2.3960
-3.3908 3.4268 2.3960
-3.5082 3.2967 2.3960
-3.6210 3.1628 2.3960
-3.7291 3.0253 2.3960
-3.8324 2.8844 2.3960
-3.9308 2.7402 2.3960
-4.0242 2.5929 2.3960
-4.1125 2.4427 2.3960
-4.1957 2.2896 2.3960
-4.2736 2.1340 2.3960
-4.3463 1.9759 2.3960
-4.4135 1.8155 2.3960
-4.4753 1.6530 2.3960
-4.5316 1.4886 2.3960
-4.5824 1.3224 2.3960
-4.6275 1.1546 2.3960
-4.6670 0.9853 2.3960
-4.7008 0.8148 2.3960
-4.7288 0.6432 2.3960
-4.7511 0.4708 2.3960
-4.7676 0.2976 2.3960
-4.7782 0.1238 2.3960
-4.7830 -0.0503 2.3960
-4.7820 -0.2245 2.3960
-4.7750 -0.3988 2.3960
-4.7622 -0.5729 2.3960
-4.7436 -0.7466 2.3960
-4.7190 -0.9198 2.3960
-4.6886 -1.0922 2.3960
-4.6523 -1.2637 2.3960
-4.6102 -1.4341 2.3960
-4.5623 -1.6032 2.3960
-4.5087 -1.7708 2.3960
-4.4492 -1.9367 2.3960
-4.3841 -2.1008 2.3960
-4.3133 -2.2628 2.3960
-4.2369 -2.4226 2.3960
-4.1550 -2.5799 2.3960
-4.0676 -2.7347 2.3960
-3.9747 -2.8866 2.3960
-3.8766 -3.0356 2.3960
-3.7731 -3.1814 2.3960
-3.6645 -3.3239 2.3960
-3.5508 -3.4628 2.3960
-3.4321 -3.5980 2.3960
-3.3086 -3.7293 2.3960
-3.1803 -3.8565 2.3960
-3.0473 -3.9795 2.3960
-2.9099 -4.0980 2.3960
-2.7680 -4.2119 2.3960
-2.6220 -4.3211 2.3960
-2.4718 -4.4254 2.3960
-2.3176 -4.5245 2.3960
-2.1598 -4.6185 2.3960
-1.9983 -4.7070 2.3960
-1.8334 -4.7899 2.3960
-1.6652 -4.8672 2.3960
-1.4940 -4.9386 2.3960
-1.3199 -5.0040 2.3960
-1.1431 -5.0634 2.3960
-0.9639 -5.1165 2.3960
-0.7825 -5.1633 2.3960
-0.5990 -5.2036 2.3960
-0.4138 -5.2374 2.3960
-0.2269 -5.2645 2.3960
-0.0388 -5.2849 2.3960
0.1505 -5.2985 2.3960
0.3405 -5.3052 2.3960
0.5311 -5.3050 2.3960
0.7220 -5.2978 2.3960
0.9129 -5.2835 2.3960
1.1037 -5.2622 2.3960
1.2939 -5.2339 2.3960
1.4834 -5.1984 2.3960
1.6719 -5.1559 2.3960
1.8590 -5.1063 2.3960
2.0445 -5.0497 2.3960
2.2282 -4.9860 2.3960
2.4096 -4.9154 2.3960
2.5887 -4.8380 2.3960
2.7651 -4.7537 2.3960
2.9384 -4.6626 2.3960
3.1085 -4.5650 2.3960
3.2750 -4.4608 2.3960
3.4378 -4.3502 2.3960
3.5964 -4.2334 2.3960
3.7508 -4.1104 2.3960
3.9005 -3.9815 2.3960
4.0454 -3.8469 2.3960
4.1852 -3.7066 2.3960
4.3198 -3.5609 2.3960
4.4487 -3.4101 2.3960
4.5720 -3.2542 2.3960
4.6892 -3.0937 2.3960
4.8003 -2.9286 2.3960
4.9050 -2.7592 2.3960
5.0032 -2.5858 2.3960
5.0947 -2.4087 2.3960
5.1794 -2.2281 2.3960
5.2571 -2.0443 2.3960
5.3276 -1.8576 2.3960
5.3909 -1.6683 2.3960
5.4469 -1.4767 2.3960
5.4954 -1.2831 2.3960
5.5365 -1.0877 2.3960
5.5699 -0.8910 2.3960
5.5958 -0.6931 2.3960
5.6140 -0.4945 2.3960
5.6245 -0.2954 2.3960
5.6274 -0.0962 2.3960
5.6226 0.1029 2.3960
5.6102 0.3015 2.3960
5.5902 0.4994 2.3960
5.5626 0.6961 2.3960
5.5275 0.8915 2.3960
5.4851 1.0852 2.3960
5.4353 1.2769 2.3960
5.3783 1.4664 2.3960
5.3142 1.6533 2.3960
5.2432 1.8374 2.3960
5.1653 2.0184 2.3960
5.0807 2.1961 2.3960
4.9896 2.3702 2.3960
4.8922 2.5404 2.3960
4.7886 2.7066 2.3960
4.6789 2.8684 2.3960
4.5636 3.0259 2.3960
4.4426 3.1785 2.3960
4.3162 3.3263 2.3960
4.1847 3.4689 2.3960
4.0483 3.6062 2.3960
3.9071 3.7382 2.3960
3.7615 3.8645 2.3960
3.6116 3.9852 2.3960
3.4577 4.0999 2.3960
3.3000 4.2087 2.3960
3.1389 4.3114 2.3960
2.9745 4.4079 2.3960
2.8071 4.4981 2.3960
2.6368 4.5820 2.3960
2.4641 4.6595 2.3960
0.8915 1.8422 0.9331
0.8247 1.8721 0.9355
0.7568 1.8997 0.9379
0.6880 1.9247 0.9403
0.6184 1.9472 0.9428
0.5480 1.9673 0.9452
0.4768 1.9847 0.9476
0.4051 1.9996 0.9500
0.3329 2.0119 0.9524
0.2603 2.0216 0.9548
0.1874 2.0287 0.9571
0.1143 2.0332 0.9595
0.0411 2.0349 0.9618
-0.0322 2.0341 0.9641
-0.1054 2.0306 0.9664
-0.1784 2.0245 0.9686
-0.2511 2.0158 0.9708
-0.3235 2.0044 0.9729
-0.3955 1.9904 0.9750
-0.4668 1.9739 0.9771
-0.5376 1.9547 0.9791
-0.6076 1.9331 0.9811
-0.6768 1.9089 0.9830
-0.7450 1.8823 0.9849
-0.8123 1.8532 0.9867
-0.8784 1.8217 0.9884
-2.2830 4.3264 2.3960
-2.4332 4.2320 2.3960
-2.5799 4.1326 2.3960
-2.7228 4.0285 2.3960
-2.8619 3.9198 2.3960
-2.9970 3.8066 2.3960
-3.1280 3.6890 2.3960
-3.2547 3.5672 2.3960
-3.3771 3.4414 2.3960
-3.4950 3.3117 2.3960
-3.6084 3.1782 2.3960
-3.7170 3.0411 2.3960
-3.8208 2.9006 2.3960
-3.9198 2.7567 2.3960
-4.0138 2.6098 2.3960
-4.1027 2.4599 2.3960
-4.1865 2.3072 2.3960
-4.2650 2.1518 2.3960
-4.3383 1.9940 2.3960
-4.4061 1.8339 2.3960
-4.4686 1.6716 2.3960
-4.5255 1.5074 2.3960
-4.5769 1.3414 2.3960
-4.6227 1.1737 2.3960
-4.6628 1.0046 2.3960
-4.6972 0.8343 2.3960
-4.7259 0.6628 2.3960
-4.7489 0.4904 2.3960
-4.7660 0.3173 2.3960
-4.7773 0.1436 2.3960
-4.7828 -0.0305 2.3960
-4.7824 -0.2047 2.3960
-4.7761 -0.3790 2.3960
-4.7640 -0.5531 2.3960
-4.7460 -0.7269 2.3960
-4.7221 -0.9001 2.3960
-4.6924 -1.0726 2.3960
-4.6568 -1.2443 2.3960
-4.6153 -1.4148 2.3960
-4.5681 -1.5840 2.3960
-4.5151 -1.7518 2.3960
-4.4563 -1.9179 2.3960
-4.3918 -2.0822 2.3960
-4.3217 -2.2445 2.3960
-4.2459 -2.4045 2.3960
-4.1646 -2.5622 2.3960
-4.0778 -2.7172 2.3960
-3.9856 -2.8695 2.3960
-3.8880 -3.0188 2.3960
-3.7851 -3.1650 2.3960
-3.6771 -3.3078 2.3960
-3.5640 -3.4471 2.3960
-3.4459 -3.5828 2.3960
-3.3229 -3.7145 2.3960
-3.1951 -3.8422 2.3960
-3.0627 -3.9657 2.3960
-2.9257 -4.0847 2.3960
-2.7844 -4.1992 2.3960
-2.6388 -4.3090 2.3960
-2.4892 -4.4138 2.3960
-2.3353 -4.5135 2.3960
-2.1780 -4.6080 2.3960
-2.0169 -4.6972 2.3960
-1.8523 -4.7808 2.3960
-1.6845 -4.8587 2.3960
-1.5136 -4.9308 2.3960
-1.3399 -4.9969 2.3960
-1.1634 -5.0569 2.3960
-0.9844 -5.1108 2.3960
-0.8032 -5.1583 2.3960
-0.6200 -5.1993 2.3960
-0.4349 -5.2338 2.3960
-0.2482 -5.2617 2.3960
-0.0603 -5.2829 2.3960
0.1289 -5.2973 2.3960
0.3188 -5.3048 2.3960
0.5094 -5.3053 2.3960
0.7003 -5.2989 2.3960
0.8912 -5.2855 2.3960
1.0820 -5.2650 2.3960
1.2723 -5.2375 2.3960
1.4619 -5.2028 2.3960
1.6505 -5.1611 2.3960
1.8378 -5.1123 2.3960
2.0235 -5.0565 2.3960
2.2074 -4.9936 2.3960
2.3891 -4.9238 2.3960
2.5685 -4.8471 2.3960
2.7451 -4.7636 2.3960
2.9188 -4.6733 2.3960
3.0893 -4.5764 2.3960
3.2563 -4.4730 2.3960
3.4195 -4.3631 2.3960
3.5786 -4.2470 2.3960
3.7334 -4.1247 2.3960
3.8837 -3.9965 2.3960
4.0292 -3.8625 2.3960
4.1696 -3.7228 2.3960
4.3047 -3.5777 2.3960
4.4343 -3.4275 2.3960
4.5582 -3.2722 2.3960
4.6762 -3.1121 2.3960
4.7880 -2.9475 2.3960
4.8934 -2.7786 2.3960
4.9924 -2.6057 2.3960
5.0847 -2.4290 2.3960
5.1701 -2.2488 2.3960
5.2486 -2.0654 2.3960
5.3200 -1.8790 2.3960
5.3841 -1.6900 2.3960
5.4409 -1.4986 2.3960
5.4903 -1.3052 2.3960
5.5322 -1.1101 2.3960
5.5665 -0.9134 2.3960
5.5932 -0.7156 2.3960
5.6123 -0.5172 2.3960
5.6237 -0.3181 2.3960
5.6275 -0.1189 2.3960
5.6236 0.0803 2.3960
5.6120 0.2789 2.3960
5.5928 0.4769 2.3960
5.5661 0.6738 2.3960
5.5319 0.8693 2.3960
5.4903 1.0633 2.3960
5.4413 1.2552 2.3960
5.3851 1.4450 2.3960
5.3219 1.6322 2.3960
5.2516 1.8166 2.3960
5.1745 1.9980 2.3960
5.0907 2.1761 2.3960
5.0003 2.3506 2.3960
4.9036 2.5213 2.3960
4.8006 2.6879 2.3960
4.6917 2.8503 2.3960
4.5770 3.0082 2.3960
4.4566 3.1614 2.3960
4.3309 3.3096 2.3960
4.1999 3.4529 2.3960
4.0640 3.5909 2.3960
3.9234 3.7235 2.3960
3.7783 3.8504 2.3960
3.6288 3.9717 2.3960
3.4754 4.0872 2.3960
3.3182 4.1966 2.3960
3.1574 4.3000 2.3960
2.9933 4.3972 2.3960
2.8262 4.4882 2.3960
2.6563 4.5728 2.3960
2.4839 4.6510 2.3960
0.8990 1.8387 0.9328
0.8323 1.8689 0.9352
0.7646 1.8966 0.9376
0.6959 1.9220 0.9401
0.6264 1.9448 0.9425
0.5560 1.9651 0.9449
0.4850 1.9829 0.9473
0.4133 1.9981 0.9497
0.3412 2.0107 0.9521
0.2686 2.0207 0.9545
0.1957 2.0280 0.9569
0.1226 2.0328 0.9592
0.0494 2.0349 0.9615
-0.0239 2.0343 0.9638
-0.0971 2.0312 0.9661
-0.1701 2.0253 0.9683
-0.2429 2.0169 0.9705
-0.3153 2.0058 0.9727
-0.3873 1.9921 0.9748
-0.4587 1.9759 0.9769
-0.5296 1.9570 0.9789
-0.5997 1.9357 0.9809
-0.6689 1.9118 0.9828
-0.7373 1.8854 0.9847
-0.8047 1.8566 0.9865
-0.8710 1.8254 0.9882
-2.2657 4.3369 2.3960
-2.4163 4.2430 2.3960
-2.5634 4.1442 2.3960
-2.7067 4.0406 2.3960
-2.8463 3.9324 2.3960
-2.9818 3.8197 2.3960
-3.1133 3.7026 2.3960
-3.2405 3.5813 2.3960
-3.3634 3.4559 2.3960
-3.4819 3.3266 2.3960
-3.5957 3.1936 2.3960
-3.7049 3.0569 2.3960
-3.8093 2.9167 2.3960
-3.9088 2.7733 2.3960
-4.0034 2.6267 2.3960
-4.0929 2.4771 2.3960
-4.1772 2.3247 2.3960
-4.2564 2.1696 2.3960
-4.3302 2.0121 2.3960
-4.3987 1.8522 2.3960
-4.4617 1.6902 2.3960
-4.5193 1.5262 2.3960
-4.5713 1.3604 2.3960
-4.6177 1.1929 2.3960
-4.6585 1.0240 2.3960
-4.6936 0.8537 2.3960
-4.7229 0.6824 2.3960
-4.7465 0.5101 2.3960
-4.7643 0.3370 2.3960
-4.7763 0.1634 2.3960
-4.7824 -0.0106 2.3960
-4.7827 -0.1849 2.3960
-4.7771 -0.3592 2.3960
-4.7657 -0.5333 2.3960
-4.7483 -0.7071 2.3960
-4.7251 -0.8804 2.3960
-4.6960 -1.0531 2.3960
-4.6611 -1.2248 2.3960
-4.6203 -1.3954 2.3960
-4.5737 -1.5648 2.3960
-4.5214 -1.7328 2.3960
-4.4633 -1.8991 2.3960
-4.3994 -2.0636 2.3960
-4.3299 -2.2261 2.3960
-4.2548 -2.3864 2.3960
-4.1741 -2.5444 2.3960
-4.0880 -2.6997 2.3960
-3.9963 -2.8523 2.3960
-3.8994 -3.0020 2.3960
-3.7971 -3.1485 2.3960
-3.6897 -3.2917 2.3960
-3.5771 -3.4315 2.3960
-3.4596 -3.5675 2.3960
-3.3371 -3.6997 2.3960
-3.2099 -3.8279 2.3960
-3.0780 -3.9519 2.3960
-2.9416 -4.0714 2.3960
-2.8007 -4.1864 2.3960
-2.6556 -4.2967 2.3960
-2.5063 -4.4021 2.3960
-2.3530 -4.5024 2.3960
-2.1960 -4.5976 2.3960
-2.0354 -4.6873 2.3960
-1.8712 -4.7715 2.3960
-1.7038 -4.8501 2.3960
-1.5333 -4.9229 2.3960
-1.3598 -4.9897 2.3960
-1.1836 -5.0504 2.3960
-1.0049 -5.1049 2.3960
-0.8240 -5.1532 2.3960
-0.6409 -5.1950 2.3960
-0.4561 -5.2303 2.3960
-0.2696 -5.2589 2.3960
-0.0817 -5.2808 2.3960
0.1073 -5.2960 2.3960
0.2972 -5.3043 2.3960
0.4877 -5.3056 2.3960
0.6785 -5.3000 2.3960
0.8695 -5.2874 2.3960
1.0603 -5.2677 2.3960
1.2507 -5.2410 2.3960
1.4404 -5.2071 2.3960
1.6291 -5.1662 2.3960
1.8165 -5.1182 2.3960
2.0024 -5.0632 2.3960
2.1865 -5.0011 2.3960
2.3686 -4.9321 2.3960
2.5482 -4.8562 2.3960
2.7252 -4.7734 2.3960
2.8992 -4.6839 2.3960
3.0701 -4.5878 2.3960
3.2374 -4.4851 2.3960
3.4011 -4.3759 2.3960
3.5607 -4.2605 2.3960
3.7160 -4.1389 2.3960
3.8669 -4.0114 2.3960
4.0129 -3.8780 2.3960
4.1539 -3.7390 2.3960
4.2896 -3.5945 2.3960
4.4199 -3.4449 2.3960
4.5444 -3.2901 2.3960
4.6631 -3.1306 2.3960
4.7756 -2.9664 2.3960
4.8818 -2.7980 2.3960
4.9815 -2.6256 2.3960
5.0745 -2.4493 2.3960
5.1608 -2.2695 2.3960
5.2400 -2.0864 2.3960
5.3122 -1.9004 2.3960
5.3772 -1.7116 2.3960
5.4348 -1.5206 2.3960
5.4851 -1.3273 2.3960
5.5278 -1.1323 2.3960
5.5630 -0.9358 2.3960
5.5906 -0.7382 2.3960
5.6105 -0.5398 2.3960
5.6228 -0.3407 2.3960
5.6274 -0.1415 2.3960
5.6244 0.0576 2.3960
5.6137 0.2564 2.3960
5.5954 0.4544 2.3960
5.5695 0.6514 2.3960
5.5362 0.8472 2.3960
5.4954 1.0413 2.3960
5.4473 1.2335 2.3960
5.3919 1.4235 2.3960
5.3294 1.6110 2.3960
5.2599 1.7958 2.3960
5.1836 1.9775 2.3960
5.1005 2.1560 2.3960
5.0109 2.3309 2.3960
4.9149 2.5020 2.3960
4.8127 2.6692 2.3960
4.7044 2.8320 2.3960
4.5903 2.9905 2.3960
4.4706 3.1442 2.3960
4.3454 3.2930 2.3960
4.2151 3.4369 2.3960
4.0797 3.5755 2.3960
3.9396 3.7086 2.3960
3.7950 3.8363 2.3960
3.6460 3.9582 2.3960
3.4930 4.0743 2.3960
3.3362 4.1845 2.3960
3.1759 4.2886 2.3960
3.0122 4.3865 2.3960
2.8454 4.4781 2.3960
2.6758 4.5635 2.3960
2.5037 4.6424 2.3960
0.9065 1.8351 0.9325
0.8400 1.8655 0.9349
0.7724 1.8936 0.9374
0.7038 1.9192 0.9398
0.6343 1.9423 0.9422
0.5640 1.9629 0.9446
0.4931 1.9810 0.9470
0.4215 1.9965 0.9495
0.3494 2.0094 0.9519
0.2769 2.0197 0.9542
0.2040 2.0273 0.9566
0.1309 2.0324 0.9590
0.0577 2.0348 0.9613
-0.0155 2.0345 0.9636
-0.0887 2.0316 0.9658
-0.1618 2.0261 0.9681
-0.2346 2.0180 0.9703
-0.3071 2.0072 0.9724
-0.3791 1.9938 0.9746
-0.4506 1.9779 0.9766
-0.5215 1.9593 0.9787
-0.5917 1.9382 0.9806
-0.6611 1.9146 0.9826
-0.7296 1.8886 0.9844
-0.7971 1.8600 0.9863
-0.8635 1.8291 0.9880
-2.2483 4.3473 2.3960
-2.3993 4.2539 2.3960
-2.5468 4.1557 2.3960
-2.6906 4.0526 2.3960
-2.8306 3.9449 2.3960
-2.9666 3.8327 2.3960
-3.0985 3.7161 2.3960
-3.2262 3.5953 2.3960
-3.3496 3.4704 2.3960
-3.4686 3.3415 2.3960
-3.5830 3.2089 2.3960
-3.6927 3.0726 2.3960
-3.7976 2.9328 2.3960
4.4987 2.5631 2.3960
4.3954 2.7153 2.3960
4.2867 2.8632 2.3960
4.1727 3.0067 2.3960
4.0537 3.1456 2.3960
3.9299 3.2797 2.3960
3.8013 3.4089 2.3960
3.6684 3.5330 2.3960
3.5312 3.6519 2.3960
3.3900 3.7654 2.3960
3.2451 3.8734 2.3960
3.0966 3.9758 2.3960
2.9448 4.0724 2.3960
2.7899 4.1633 2.3960
2.6321 4.2482 2.3960
2.4718 4.3272 2.3960
0.8977 1.7107 0.9315
0.8356 1.7409 0.9338
0.7725 1.7689 0.9361
0.7083 1.7946 0.9383
0.6433 1.8179 0.9406
0.5775 1.8389 0.9429
0.5110 1.8575 0.9452
0.4438 1.8737 0.9475
0.3761 1.8875 0.9497
0.3080 1.8988 0.9520
0.2394 1.9077 0.9542
0.1706 1.9141 0.9565
0.1016 1.9180 0.9587
0.0325 1.9194 0.9609
-0.0366 1.9183 0.9630
-0.1056 1.9147 0.9651
-0.1745 1.9087 0.9672
-0.2431 1.9001 0.9693
-0.3113 1.8891 0.9713
-0.3791 1.8757 0.9733
-0.4464 1.8598 0.9753
-0.5131 1.8415 0.9772
-0.5790 1.8208 0.9790
-0.6442 1.7977 0.9808
-0.7085 1.7723 0.9826
-0.7718 1.7446 0.9843
-0.8341 1.7146 0.9859
-2.1723 4.0822 2.3960
-2.3142 3.9927 2.3960
-2.4528 3.8985 2.3960
-2.5879 3.7998 2.3960
-2.7193 3.6967 2.3960
-2.8469 3.5893 2.3960
-2.9707 3.4778 2.3960
-3.0904 3.3623 2.3960
-3.2060 3.2430 2.3960
-3.3174 3.1200 2.3960
-3.4244 2.9934 2.3960
-3.5269 2.8634 2.3960
-3.6249 2.7301 2.3960
-3.7182 2.5937 2.3960
-3.8068 2.4543 2.3960
-3.8906 2.3121 2.3960
-3.9695 2.1673 2.3960
-4.0434 2.0199 2.3960
-4.1123 1.8703 2.3960
-4.1761 1.7184 2.3960
-4.2346 1.5645 2.3960
-4.2880 1.4088 2.3960
-4.3361 1.2514 2.3960
-4.3788 1.0924 2.3960
-4.4162 0.9321 2.3960
-4.4482 0.7707 2.3960
-4.4747 0.6081 2.3960
-4.4957 0.4448 2.3960
-4.5112 0.2808 2.3960
-4.5211 0.1162 2.3960
-4.5256 -0.0487 2.3960
-4.5244 -0.2137 2.3960
-4.5177 -0.3787 2.3960
-4.5053 -0.5435 2.3960
-4.4874 -0.7080 2.3960
-4.4640 -0.8719 2.3960
-4.4349 -1.0351 2.3960
-4.4003 -1.1974 2.3960
-4.3602 -1.3586 2.3960
-4.3145 -1.5186 2.3960
-4.2634 -1.6771 2.3960
-4.2068 -1.8340 2.3960
-4.1449 -1.9891 2.3960
-4.0775 -2.1423 2.3960
-4.0049 -2.2933 2.3960
-3.9270 -2.4419 2.3960
-3.8439 -2.5881 2.3960
-3.7557 -2.7316 2.3960
-3.6625 -2.8722 2.3960
-3.5643 -3.0098 2.3960
-3.4612 -3.1442 2.3960
-3.3533 -3.2752 2.3960
-3.2407 -3.4026 2.3960
-3.1235 -3.5263 2.3960
-3.0019 -3.6462 2.3960
-2.8759 -3.7619 2.3960
-2.7456 -3.8735 2.3960
-2.6112 -3.9807 2.3960
-2.4729 -4.0833 2.3960
-2.3307 -4.1813 2.3960
-2.1849 -4.2744 2.3960
-2.0355 -4.3625 2.3960
-1.8827 -4.4455 2.3960
-1.7267 -4.5232 2.3960
-1.5678 -4.5955 2.3960
-1.4059 -4.6623 2.3960
-1.2414 -4.7234 2.3960
-1.0744 -4.7787 2.3960
-0.9052 -4.8282 2.3960
-0.7339 -4.8716 2.3960
-0.5606 -4.9089 2.3960
-0.3860 -4.9401 2.3960
-0.2097 -4.9650 2.3960
-0.0323 -4.9835 2.3960
0.1461 -4.9956 2.3960
0.3252 -5.0013 2.3960
0.5047 -5.0004 2.3960
0.6846 -4.9929 2.3960
0.8644 -4.9788 2.3960
1.0440 -4.9581 2.3960
1.2230 -4.9307 2.3960
1.4013 -4.8967 2.3960
1.5786 -4.8560 2.3960
1.7546 -4.8087 2.3960
1.9290 -4.7548 2.3960
2.1016 -4.6944 2.3960
2.2722 -4.6274 2.3960
2.4405 -4.5539 2.3960
2.6061 -4.4741 2.3960
2.7690 -4.3880 2.3960
2.9287 -4.2957 2.3960
3.0851 -4.1972 2.3960
3.2378 -4.0928 2.3960
3.3868 -3.9826 2.3960
3.5316 -3.8666 2.3960
3.6721 -3.7451 2.3960
3.8081 -3.6181 2.3960
3.9393 -3.4860 2.3960
4.0655 -3.3488 2.3960
4.1864 -3.2068 2.3960
4.3020 -3.0602 2.3960
4.4120 -2.9090 2.3960
4.5162 -2.7537 2.3960
4.6145 -2.5944 2.3960
4.7066 -2.4314 2.3960
4.7924 -2.2649 2.3960
4.8719 -2.0951 2.3960
4.9448 -1.9223 2.3960
5.0110 -1.7469 2.3960
5.0704 -1.5690 2.3960
5.1230 -1.3889 2.3960
5.1686 -1.2069 2.3960
5.2073 -1.0234 2.3960
5.2388 -0.8385 2.3960
5.2632 -0.6526 2.3960
5.2804 -0.4660 2.3960
5.2905 -0.2789 2.3960
5.2934 -0.0916 2.3960
5.2891 0.0955 2.3960
5.2777 0.2822 2.3960
5.2591 0.4682 2.3960
5.2335 0.6532 2.3960
5.2009 0.8369 2.3960
5.1613 1.0190 2.3960
5.1149 1.1994 2.3960
5.0617 1.3777 2.3960
5.0018 1.5536 2.3960
4.9354 1.7268 2.3960
4.8626 1.8972 2.3960
4.7835 2.0646 2.3960
4.6983 2.2286 2.3960
4.6071 2.3890 2.3960
4.5101 2.5456 2.3960
4.4074 2.6982 2.3960
4.2993 2.8466 2.3960
4.1860 2.9906 2.3960
4.0675 3.1301 2.3960
3.9442 3.2647 2.3960
3.8162 3.3945 2.3960
3.6837 3.5192 2.3960
3.5470 3.6386 2.3960
3.4063 3.7527 2.3960
3.2618 3.8614 2.3960
3.1137 3.9644 2.3960
2.9622 4.0617 2.3960
2.8077 4.1532 2.3960
2.6502 4.2389 2.3960
2.4901 4.3185 2.3960
0.9047 1.7071 0.9313
0.8427 1.7376 0.9335
0.7797 1.7658 0.9358
0.7157 1.7918 0.9381
0.6508 1.8154 0.9404
0.5850 1.8366 0.9426
0.5186 1.8555 0.9449
0.4515 1.8720 0.9472
0.3839 1.8861 0.9495
0.3157 1.8977 0.9517
0.2472 1.9068 0.9540
0.1785 1.9135 0.9562
0.1095 1.9176 0.9584
0.0404 1.9193 0.9606
-0.0287 1.9185 0.9628
-0.0978 1.9152 0.9649
-0.1667 1.9095 0.9670
-0.2353 1.9012 0.9691
-0.3036 1.8905 0.9711
-0.3714 1.8773 0.9731
-0.4388 1.8617 0.9750
-0.5055 1.8437 0.9769
-0.5715 1.8232 0.9788
-0.6368 1.8004 0.9806
-0.7012 1.7753 0.9824
-0.7647 1.7479 0.9841
-0.8271 1.7182 0.9857
-0.8884 1.6862 0.9873
-2.2982 4.0031 2.3960
-2.4372 3.9094 2.3960
-2.5727 3.8112 2.3960
-2.7045 3.7086 2.3960
-2.8326 3.6017 2.3960
-2.9568 3.4907 2.3960
-3.0770 3.3757 2.3960
-3.1931 3.2568 2.3960
-3.3049 3.1342 2.3960
-3.4124 3.0080 2.3960
-3.5154 2.8783 2.3960
-3.6139 2.7454 2.3960
-3.7078 2.6093 2.3960
-3.7970 2.4703 2.3960
-3.8813 2.3284 2.3960
-3.9608 2.1839 2.3960
-4.0352 2.0368 2.3960
-4.1047 1.8874 2.3960
-4.1691 1.7358 2.3960
-4.2282 1.5821 2.3960
-4.2822 1.4266 2.3960
-4.3309 1.2694 2.3960
-4.3743 1.1106 2.3960
-4.4122 0.9504 2.3960
-4.4448 0.7891 2.3960
-4.4719 0.6267 2.3960
-4.4936 0.4634 2.3960
-4.5097 0.2995 2.3960
-4.5203 0.1350 2.3960
-4.5253 -0.0299 2.3960
-4.5248 -0.1949 2.3960
-4.5187 -0.3599 2.3960
-4.5070 -0.5248 2.3960
-4.4898 -0.6893 2.3960
-4.4669 -0.8533 2.3960
-4.4385 -1.0166 2.3960
-4.4045 -1.1790 2.3960
-4.3650 -1.3403 2.3960
-4.3200 -1.5004 2.3960
-4.2695 -1.6591 2.3960
-4.2135 -1.8162 2.3960
-4.1522 -1.9716 2.3960
-4.0855 -2.1249 2.3960
-4.0134 -2.2762 2.3960
-3.9361 -2.4251 2.3960
-3.8536 -2.5716 2.3960
-3.7660 -2.7154 2.3960
-3.6733 -2.8563 2.3960
-3.5757 -2.9943 2.3960
-3.4731 -3.1290 2.3960
-3.3658 -3.2604 2.3960
-3.2537 -3.3883 2.3960
-3.1371 -3.5124 2.3960
-3.0159 -3.6327 2.3960
-2.8904 -3.7490 2.3960
-2.7606 -3.8610 2.3960
-2.6267 -3.9687 2.3960
-2.4888 -4.0719 2.3960
-2.3471 -4.1704 2.3960
-2.2016 -4.2640 2.3960
-2.0526 -4.3527 2.3960
-1.9002 -4.4363 2.3960
-1.7446 -4.5146 2.3960
-1.5859 -4.5875 2.3960
-1.4245 -4.6550 2.3960
-1.2602 -4.7167 2.3960
-1.0936 -4.7727 2.3960
-0.9246 -4.8228 2.3960
-0.7535 -4.8670 2.3960
-0.5805 -4.9050 2.3960
-0.4059 -4.9369 2.3960
-0.2298 -4.9625 2.3960
-0.0526 -4.9817 2.3960
0.1257 -4.9946 2.3960
0.3048 -5.0010 2.3960
0.4843 -5.0008 2.3960
0.6641 -4.9941 2.3960
0.8439 -4.9808 2.3960
1.0235 -4.9608 2.3960
1.2028 -4.9342 2.3960
1.3811 -4.9009 2.3960
1.5585 -4.8610 2.3960
1.7346 -4.8145 2.3960
1.9092 -4.7613 2.3960
2.0821 -4.7016 2.3960
2.2529 -4.6353 2.3960
2.4215 -4.5626 2.3960
2.5874 -4.4835 2.3960
2.7506 -4.3981 2.3960
2.9107 -4.3065 2.3960
3.0674 -4.2087 2.3960
3.2206 -4.1050 2.3960
3.3700 -3.9954 2.3960
3.5153 -3.8801 2.3960
3.6564 -3.7592 2.3960
3.7928 -3.6329 2.3960
3.9246 -3.5013 2.3960
4.0514 -3.3647 2.3960
4.1730 -3.2232 2.3960
4.2892 -3.0771 2.3960
4.3998 -2.9264 2.3960
4.5047 -2.7716 2.3960
4.6036 -2.6127 2.3960
4.6964 -2.4501 2.3960
4.7830 -2.2839 2.3960
4.8632 -2.1145 2.3960
4.9368 -1.9421 2.3960
5.0038 -1.7670 2.3960
5.0640 -1.5893 2.3960
5.1174 -1.4095 2.3960
5.1638 -1.2277 2.3960
5.2032 -1.0444 2.3960
5.2355 -0.8596 2.3960
5.2608 -0.6738 2.3960
5.2788 -0.4872 2.3960
5.2897 -0.3002 2.3960
5.2934 -0.1129 2.3960
5.2899 0.0742 2.3960
5.2793 0.2610 2.3960
5.2616 0.4471 2.3960
5.2368 0.6322 2.3960
5.2049 0.8161 2.3960
5.1661 0.9984 2.3960
5.1205 1.1790 2.3960
5.0681 1.3575 2.3960
5.0090 1.5337 2.3960
4.9433 1.7073 2.3960
4.8712 1.8780 2.3960
4.7928 2.0458 2.3960
4.7083 2.2100 2.3960
4.6178 2.3708 2.3960
4.5214 2.5279 2.3960
4.4194 2.6812 2.3960
4.3119 2.8299 2.3960
4.1991 2.9745 2.3960
4.0812 3.1144 2.3960
3.9585 3.2496 2.3960
3.8310 3.3800 2.3960
3.6990 3.5053 2.3960
3.5628 3.6253 2.3960
3.4225 3.7400 2.3960
3.2784 3.8493 2.3960
3.1307 3.9530 2.3960
2.9796 4.0509 2.3960
2.8254 4.1431 2.3960
2.6683 4.2294 2.3960
2.5085 4.3098 2.3960
0.9117 1.7035 0.9310
0.8498 1.7342 0.9333
0.7869 1.7627 0.9355
0.7230 1.7889 0.9378
0.6582 1.8128 0.9401
0.5926 1.8343 0.9424
0.5262 1.8535 0.9447
0.4592 1.8702 0.9469
0.3916 1.8846 0.9492
0.3235 1.8965 0.9515
0.2551 1.9059 0.9537
0.1863 1.9128 0.9560
0.1173 1.9173 0.9582
0.0482 1.9193 0.9604
-0.0209 1.9188 0.9625
-0.0899 1.9157 0.9647
-0.1588 1.9103 0.9668
-0.2275 1.9023 0.9688
-0.2958 1.8918 0.9709
-0.3637 1.8789 0.9729
-0.4311 1.8636 0.9748
-0.4979 1.8458 0.9767
-0.5641 1.8257 0.9786
-0.6294 1.8031 0.9804
-0.6939 1.7783 0.9822
-0.7575 1.7511 0.9839
-0.8200 1.7217 0.9855
-0.8815 1.6900 0.9871
-2.2822 4.0135 2.3960
-2.4216 3.9203 2.3960
-2.5575 3.8226 2.3960
-2.6897 3.7205 2.3960
-2.8182 3.6141 2.3960
-2.9429 3.5036 2.3960
-3.0635 3.3890 2.3960
-3.1801 3.2705 2.3960
-3.2924 3.1483 2.3960
-3.4004 3.0225 2.3960
-3.5039 2.8932 2.3960
-3.6030 2.7607 2.3960
-3.6974 2.6250 2.3960
-3.7871 2.4863 2.3960
-3.8719 2.3447 2.3960
-3.9520 2.2005 2.3960
-4.0270 2.0537 2.3960
-4.0971 1.9045 2.3960
-4.1620 1.7532 2.3960
-4.2218 1.5997 2.3960
-4.2763 1.4444 2.3960
-4.3256 1.2874 2.3960
-4.3696 1.1287 2.3960
-4.4082 0.9687 2.3960
-4.4414 0.8075 2.3960
-4.4691 0.6452 2.3960
-4.4914 0.4820 2.3960
-4.5081 0.3181 2.3960
-4.5194 0.1537 2.3960
-4.5250 -0.0111 2.3960
-4.5252 -0.1761 2.3960
-4.5197 -0.3412 2.3960
-4.5086 -0.5061 2.3960
-4.4920 -0.6706 2.3960
-4.4698 -0.8347 2.3960
-4.4420 -0.9980 2.3960
-4.4087 -1.1605 2.3960
-4.3698 -1.3220 2.3960
-4.3254 -1.4823 2.3960
-4.2755 -1.6412 2.3960
-4.2202 -1.7984 2.3960
-4.1594 -1.9540 2.3960
-4.0933 -2.1076 2.3960
-4.0219 -2.2591 2.3960
-3.9452 -2.4083 2.3960
-3.8633 -2.5551 2.3960
-3.7762 -2.6992 2.3960
-3.6841 -2.8405 2.3960
-3.5871 -2.9787 2.3960
-3.4851 -3.1139 2.3960
-3.3782 -3.2457 2.3960
-3.2667 -3.3739 2.3960
-3.1506 -3.4985 2.3960
-3.0300 -3.6192 2.3960
-2.9049 -3.7360 2.3960
-2.7756 -3.8485 2.3960
-2.6422 -3.9567 2.3960
-2.5047 -4.0604 2.3960
-2.3634 -4.1594 2.3960
-2.2184 -4.2536 2.3960
-2.0698 -4.3429 2.3960
-1.9177 -4.4271 2.3960
-1.7624 -4.5060 2.3960
-1.6041 -4.5795 2.3960
-1.4430 -4.6476 2.3960
-1.2791 -4.7100 2.3960
-1.1126 -4.7666 2.3960
-0.9439 -4.8174 2.3960
-0.7731 -4.8622 2.3960
-0.6003 -4.9010 2.3960
-0.4259 -4.9336 2.3960
-0.2499 -4.9599 2.3960
-0.0727 -4.9799 2.3960
0.1054 -4.9935 2.3960
0.2844 -5.0006 2.3960
0.4638 -5.0012 2.3960
0.6436 -4.9952 2.3960
0.8235 -4.9826 2.3960
1.0031 -4.9634 2.3960
1.1824 -4.9375 2.3960
1.3608 -4.9050 2.3960
1.5383 -4.8659 2.3960
1.7146 -4.8201 2.3960
1.8895 -4.7677 2.3960
2.0625 -4.7087 2.3960
2.2336 -4.6432 2.3960
2.4024 -4.5712 2.3960
2.5687 -4.4928 2.3960
2.7322 -4.4081 2.3960
2.8926 -4.3172 2.3960
3.0498 -4.2202 2.3960
3.2034 -4.1171 2.3960
3.3532 -4.0082 2.3960
3.4990 -3.8935 2.3960
3.6405 -3.7732 2.3960
3.7776 -3.6475 2.3960
3.9098 -3.5165 2.3960
4.0372 -3.3805 2.3960
4.1594 -3.2395 2.3960
4.2762 -3.0939 2.3960
4.3875 -2.9438 2.3960
4.4930 -2.7894 2.3960
4.5926 -2.6310 2.3960
4.6862 -2.4688 2.3960
4.7735 -2.3031 2.3960
4.8544 -2.1340 2.3960
4.9288 -1.9619 2.3960
4.9965 -1.7870 2.3960
5.0575 -1.6096 2.3960
5.1117 -1.4301 2.3960
5.1589 -1.2485 2.3960
5.1991 -1.0653 2.3960
5.2322 -0.8807 2.3960
5.2583 -0.6950 2.3960
5.2771 -0.5085 2.3960
5.2888 -0.3215 2.3960
5.2934 -0.1342 2.3960
5.2907 0.0529 2.3960
5.2809 0.2397 2.3960
5.2640 0.4259 2.3960
5.2399 0.6112 2.3960
5.2089 0.7952 2.3960
5.1709 0.9777 2.3960
5.1260 1.1586 2.3960
5.0744 1.3373 2.3960
5.0160 1.5138 2.3960
4.9511 1.6876 2.3960
4.8797 1.8587 2.3960
4.8021 2.0269 2.3960
4.7182 2.1915 2.3960
4.6284 2.3528 2.3960
4.5327 2.5103 2.3960
4.4313 2.6638 2.3960
4.3244 2.8132 2.3960
4.2122 2.9582 2.3960
4.0949 3.0987 2.3960
3.9727 3.2345 2.3960
3.8457 3.3654 2.3960
3.7143 3.4913 2.3960
3.5785 3.6119 2.3960
3.4387 3.7273 2.3960
3.2950 3.8371 2.3960
3.1477 3.9414 2.3960
2.9970 4.0401 2.3960
2.8431 4.1329 2.3960
2.6863 4.2199 2.3960
2.5268 4.3009 2.3960
0.9186 1.6999 0.9307
0.8569 1.7309 0.9330
0.7941 1.7596 0.9353
0.7303 1.7861 0.9376
0.6656 1.8102 0.9398
0.6001 1.8320 0.9421
0.5338 1.8514 0.9444
0.4668 1.8685 0.9467
0.3993 1.8831 0.9490
0.3313 1.8952 0.9512
0.2629 1.9049 0.9535
0.1941 1.9122 0.9557
0.1252 1.9169 0.9579
0.0561 1.9192 0.9601
-0.0130 1.9189 0.9623
-0.0821 1.9162 0.9644
-0.1510 1.9110 0.9665
-0.2197 1.9033 0.9686
-0.2881 1.8931 0.9706
-0.3560 1.8805 0.9726
-0.4235 1.8655 0.9746
-0.4904 1.8480 0.9765
-0.5566 1.8281 0.9784
-0.6220 1.8058 0.9802
-0.6866 1.7812 0.9820
-0.7503 1.7543 0.9837
-0.8130 1.7251 0.9853
-0.8745 1.6937 0.9870
-2.2661 4.0238 2.3960
-2.4059 3.9311 2.3960
-2.5422 3.8340 2.3960
-2.6748 3.7324 2.3960
-2.8038 3.6264 2.3960
-2.9289 3.5163 2.3960
-3.0500 3.4022 2.3960
-3.1670 3.2842 2.3960
-3.2799 3.1624 2.3960
-3.3883 3.0370 2.3960
-3.4924 2.9081 2.3960
-3.5919 2.7759 2.3960
4.2468 2.4160 2.3960
4.1498 2.5598 2.3960
4.0477 2.6996 2.3960
3.9406 2.8353 2.3960
3.8287 2.9666 2.3960
3.7123 3.0935 2.3960
3.5914 3.2158 2.3960
3.4663 3.3333 2.3960
3.3373 3.4459 2.3960
3.2044 3.5534 2.3960
3.0679 3.6558 2.3960
2.9281 3.7530 2.3960
2.7851 3.8447 2.3960
2.6391 3.9310 2.3960
2.4904 4.0118 2.3960
0.9079 1.5861 0.9299
0.8502 1.6168 0.9320
0.7915 1.6453 0.9342
0.7318 1.6718 0.9363
0.6712 1.6960 0.9385
0.6098 1.7181 0.9406
0.5475 1.7379 0.9428
0.4846 1.7555 0.9449
0.4212 1.7708 0.9471
0.3571 1.7839 0.9492
0.2927 1.7945 0.9514
0.2279 1.8029 0.9535
0.1629 1.8089 0.9556
0.0976 1.8126 0.9577
0.0323 1.8140 0.9598
-0.0330 1.8129 0.9618
-0.0983 1.8096 0.9638
-0.1633 1.8038 0.9658
-0.2282 1.7958 0.9677
-0.2927 1.7853 0.9697
-0.3568 1.7726 0.9715
-0.4204 1.7576 0.9734
-0.4834 1.7403 0.9752
-0.5457 1.7207 0.9769
-0.6074 1.6989 0.9786
-0.6681 1.6749 0.9803
-0.7280 1.6487 0.9819
-0.7869 1.6204 0.9834
-0.8447 1.5900 0.9849
-2.1897 3.7834 2.3960
-2.3212 3.6944 2.3960
-2.4494 3.6011 2.3960
-2.5742 3.5036 2.3960
-2.6954 3.4021 2.3960
-2.8129 3.2966 2.3960
-2.9266 3.1873 2.3960
-3.0364 3.0743 2.3960
-3.1422 2.9579 2.3960
-3.2438 2.8379 2.3960
-3.3412 2.7147 2.3960
-3.4343 2.5884 2.3960
-3.5230 2.4592 2.3960
-3.6072 2.3270 2.3960
-3.6868 2.1922 2.3960
-3.7617 2.0549 2.3960
-3.8319 1.9152 2.3960
-3.8974 1.7732 2.3960
-3.9579 1.6292 2.3960
-4.0136 1.4832 2.3960
-4.0642 1.3355 2.3960
-4.1099 1.1862 2.3960
-4.1504 1.0354 2.3960
-4.1859 0.8833 2.3960
-4.2161 0.7301 2.3960
-4.2412 0.5759 2.3960
-4.2611 0.4209 2.3960
-4.2757 0.2653 2.3960
-4.2850 0.1092 2.3960
-4.2891 -0.0472 2.3960
-4.2879 -0.2037 2.3960
-4.2813 -0.3602 2.3960
-4.2695 -0.5166 2.3960
-4.2523 -0.6725 2.3960
-4.2298 -0.8280 2.3960
-4.2020 -0.9827 2.3960
-4.1690 -1.1365 2.3960
-4.1307 -1.2893 2.3960
-4.0871 -1.4409 2.3960
-4.0384 -1.5911 2.3960
-3.9845 -1.7398 2.3960
-3.9254 -1.8867 2.3960
-3.8613 -2.0317 2.3960
-3.7921 -2.1747 2.3960
-3.7180 -2.3154 2.3960
-3.6389 -2.4537 2.3960
-3.5550 -2.5895 2.3960
-3.4663 -2.7225 2.3960
-3.3730 -2.8526 2.3960
-3.2750 -2.9796 2.3960
-3.1724 -3.1034 2.3960
-3.0655 -3.2238 2.3960
-2.9542 -3.3406 2.3960
-2.8386 -3.4537 2.3960
-2.7190 -3.5630 2.3960
-2.5954 -3.6682 2.3960
-2.4679 -3.7692 2.3960
-2.3366 -3.8659 2.3960
-2.2018 -3.9582 2.3960
-2.0635 -4.0458 2.3960
-1.9219 -4.1287 2.3960
-1.7771 -4.2067 2.3960
-1.6294 -4.2797 2.3960
-1.4788 -4.3475 2.3960
-1.3255 -4.4101 2.3960
-1.1698 -4.4674 2.3960
-1.0117 -4.5191 2.3960
-0.8517 -4.5653 2.3960
-0.6896 -4.6057 2.3960
-0.5259 -4.6404 2.3960
-0.3606 -4.6693 2.3960
-0.1941 -4.6922 2.3960
-0.0265 -4.7091 2.3960
0.1421 -4.7200 2.3960
0.3112 -4.7247 2.3960
0.4808 -4.7233 2.3960
0.6505 -4.7156 2.3960
0.8202 -4.7017 2.3960
0.9896 -4.6816 2.3960
1.1586 -4.6552 2.3960
1.3267 -4.6225 2.3960
1.4938 -4.5836 2.3960
1.6597 -4.5385 2.3960
1.8241 -4.4871 2.3960
1.9868 -4.4296 2.3960
2.1475 -4.3659 2.3960
2.3060 -4.2962 2.3960
2.4620 -4.2205 2.3960
2.6153 -4.1389 2.3960
2.7656 -4.0514 2.3960
2.9128 -3.9583 2.3960
3.0566 -3.8595 2.3960
3.1967 -3.7552 2.3960
3.3330 -3.6456 2.3960
3.4652 -3.5308 2.3960
3.5931 -3.4110 2.3960
3.7165 -3.2862 2.3960
3.8352 -3.1567 2.3960
3.9489 -3.0227 2.3960
4.0576 -2.8844 2.3960
4.1611 -2.7419 2.3960
4.2590 -2.5955 2.3960
4.3514 -2.4453 2.3960
4.4381 -2.2916 2.3960
4.5188 -2.1347 2.3960
4.5936 -1.9747 2.3960
4.6621 -1.8119 2.3960
4.7245 -1.6466 2.3960
4.7804 -1.4791 2.3960
4.8299 -1.3094 2.3960
4.8729 -1.1380 2.3960
4.9093 -0.9652 2.3960
4.9391 -0.7910 2.3960
4.9621 -0.6159 2.3960
4.9785 -0.4401 2.3960
4.9881 -0.2639 2.3960
4.9910 -0.0875 2.3960
4.9872 0.0888 2.3960
4.9766 0.2647 2.3960
4.9594 0.4400 2.3960
4.9355 0.6143 2.3960
4.9050 0.7874 2.3960
4.8680 0.9592 2.3960
4.8246 1.1292 2.3960
4.7748 1.2973 2.3960
4.7187 1.4631 2.3960
4.6565 1.6266 2.3960
4.5882 1.7874 2.3960
4.5141 1.9453 2.3960
4.4341 2.1002 2.3960
4.3485 2.2515 2.3960
4.2575 2.3995 2.3960
4.1611 2.5437 2.3960
4.0595 2.6839 2.3960
3.9530 2.8201 2.3960
3.8417 2.9519 2.3960
3.7257 3.0793 2.3960
3.6054 3.2021 2.3960
3.4808 3.3202 2.3960
3.3521 3.4333 2.3960
3.2197 3.5415 2.3960
3.0836 3.6445 2.3960
2.9442 3.7422 2.3960
2.8015 3.8346 2.3960
2.6559 3.9215 2.3960
2.5075 4.0029 2.3960
0.9143 1.5825 0.9296
0.8568 1.6134 0.9318
0.7983 1.6422 0.9339
0.7387 1.6689 0.9361
0.6781 1.6934 0.9382
0.6168 1.7157 0.9404
0.5547 1.7358 0.9425
0.4918 1.7536 0.9447
0.4284 1.7692 0.9469
0.3645 1.7825 0.9490
0.3001 1.7934 0.9511
0.2353 1.8021 0.9533
0.1703 1.8084 0.9554
0.1051 1.8123 0.9575
0.0398 1.8139 0.9595
-0.0256 1.8132 0.9616
-0.0908 1.8101 0.9636
-0.1559 1.8046 0.9656
-0.2208 1.7968 0.9675
-0.2854 1.7867 0.9694
-0.3495 1.7742 0.9713
-0.4132 1.7594 0.9732
-0.4763 1.7424 0.9750
-0.5387 1.7231 0.9767
-0.6004 1.7015 0.9784
-0.6613 1.6778 0.9801
-0.7212 1.6518 0.9817
-0.7802 1.6238 0.9833
-0.8382 1.5936 0.9848
-2.1745 3.7932 2.3960
-2.3064 3.7047 2.3960
-2.4350 3.6119 2.3960
-2.5602 3.5149 2.3960
-2.6818 3.4138 2.3960
-2.7997 3.3088 2.3960
-2.9139 3.1999 2.3960
-3.0241 3.0874 2.3960
-3.1304 2.9713 2.3960
-3.2324 2.8517 2.3960
-3.3304 2.7289 2.3960
-3.4240 2.6030 2.3960
-3.5131 2.4740 2.3960
-3.5978 2.3422 2.3960
-3.6780 2.2077 2.3960
-3.7534 2.0707 2.3960
-3.8242 1.9312 2.3960
-3.8902 1.7895 2.3960
-3.9513 1.6457 2.3960
-4.0075 1.4999 2.3960
-4.0587 1.3524 2.3960
-4.1049 1.2032 2.3960
-4.1461 1.0526 2.3960
-4.1821 0.9007 2.3960
-4.2129 0.7476 2.3960
-4.2386 0.5935 2.3960
-4.2591 0.4386 2.3960
-4.2743 0.2830 2.3960
-4.2843 0.1270 2.3960
-4.2889 -0.0294 2.3960
-4.2883 -0.1859 2.3960
-4.2823 -0.3424 2.3960
-4.2711 -0.4988 2.3960
-4.2545 -0.6548 2.3960
-4.2326 -0.8103 2.3960
-4.2055 -0.9651 2.3960
-4.1730 -1.1191 2.3960
-4.1353 -1.2720 2.3960
-4.0924 -1.4237 2.3960
-4.0442 -1.5741 2.3960
-3.9909 -1.7229 2.3960
-3.9324 -1.8701 2.3960
-3.8689 -2.0153 2.3960
-3.8003 -2.1585 2.3960
-3.7267 -2.2995 2.3960
-3.6482 -2.4381 2.3960
-3.5648 -2.5742 2.3960
-3.4767 -2.7075 2.3960
-3.3838 -2.8379 2.3960
-3.2863 -2.9653 2.3960
-3.1843 -3.0895 2.3960
-3.0778 -3.2103 2.3960
-2.9670 -3.3275 2.3960
-2.8520 -3.4410 2.3960
-2.7328 -3.5507 2.3960
-2.6096 -3.6564 2.3960
-2.4826 -3.7579 2.3960
-2.3518 -3.8552 2.3960
-2.2173 -3.9479 2.3960
-2.0794 -4.0361 2.3960
-1.9382 -4.1195 2.3960
-1.7937 -4.1981 2.3960
-1.6463 -4.2716 2.3960
-1.4960 -4.3401 2.3960
-1.3430 -4.4033 2.3960
-1.1876 -4.4611 2.3960
-1.0298 -4.5135 2.3960
-0.8700 -4.5603 2.3960
-0.7081 -4.6014 2.3960
-0.5446 -4.6368 2.3960
-0.3795 -4.6663 2.3960
-0.2131 -4.6899 2.3960
-0.0455 -4.7075 2.3960
0.1229 -4.7190 2.3960
0.2920 -4.7245 2.3960
0.4615 -4.7237 2.3960
0.6312 -4.7168 2.3960
0.8009 -4.7036 2.3960
0.9704 -4.6842 2.3960
1.1393 -4.6585 2.3960
1.3076 -4.6266 2.3960
1.4749 -4.5884 2.3960
1.6409 -4.5439 2.3960
1.8055 -4.4933 2.3960
1.9684 -4.4364 2.3960
2.1293 -4.3735 2.3960
2.2881 -4.3044 2.3960
2.4444 -4.2294 2.3960
2.5980 -4.1485 2.3960
2.7487 -4.0617 2.3960
2.8962 -3.9692 2.3960
3.0404 -3.8710 2.3960
3.1810 -3.7674 2.3960
3.3177 -3.6584 2.3960
3.4504 -3.5442 2.3960
3.5788 -3.4249 2.3960
3.7027 -3.3006 2.3960
3.8219 -3.1717 2.3960
3.9362 -3.0382 2.3960
4.0455 -2.9003 2.3960
4.1496 -2.7583 2.3960
4.2482 -2.6123 2.3960
4.3412 -2.4625 2.3960
4.4285 -2.3092 2.3960
4.5099 -2.1527 2.3960
4.5854 -1.9931 2.3960
4.6546 -1.8305 2.3960
4.7177 -1.6655 2.3960
4.7744 -1.4982 2.3960
4.8246 -1.3288 2.3960
4.8684 -1.1576 2.3960
4.9055 -0.9849 2.3960
4.9360 -0.8109 2.3960
4.9599 -0.6359 2.3960
4.9770 -0.4601 2.3960
4.9874 -0.2839 2.3960
4.9910 -0.1075 2.3960
4.9879 0.0688 2.3960
4.9781 0.2447 2.3960
4.9617 0.4201 2.3960
4.9385 0.5945 2.3960
4.9088 0.7678 2.3960
4.8726 0.9397 2.3960
4.8298 1.1099 2.3960
4.7808 1.2782 2.3960
4.7254 1.4444 2.3960
4.6639 1.6081 2.3960
4.5963 1.7693 2.3960
4.5228 1.9275 2.3960
4.4435 2.0826 2.3960
4.3586 2.2344 2.3960
4.2681 2.3828 2.3960
4.1723 2.5274 2.3960
4.0713 2.6682 2.3960
3.9654 2.8048 2.3960
3.8546 2.9371 2.3960
3.7392 3.0651 2.3960
3.6193 3.1884 2.3960
3.4952 3.3070 2.3960
3.3670 3.4207 2.3960
3.2349 3.5294 2.3960
3.0993 3.6330 2.3960
2.9602 3.7313 2.3960
2.8179 3.8243 2.3960
2.6726 3.9119 2.3960
2.5245 3.9939 2.3960
0.9208 1.5789 0.9294
0.8634 1.6100 0.9315
0.8050 1.6390 0.9337
0.7455 1.6659 0.9358
0.6851 1.6907 0.9380
0.6238 1.7133 0.9401
0.5618 1.7336 0.9423
0.4990 1.7517 0.9445
0.4357 1.7676 0.9466
0.3718 1.7811 0.9488
0.3074 1.7923 0.9509
0.2427 1.8012 0.9530
0.1777 1.8078 0.9551
0.1125 1.8120 0.9572
0.0472 1.8139 0.9593
-0.0181 1.8134 0.9613
-0.0834 1.8105 0.9633
-0.1485 1.8053 0.9653
-0.2135 1.7978 0.9673
-0.2780 1.7879 0.9692
-0.3422 1.7757 0.9711
-0.4060 1.7612 0.9730
-0.4691 1.7444 0.9748
-0.5316 1.7254 0.9765
-0.5934 1.7041 0.9782
-0.6544 1.6806 0.9799
-0.7145 1.6549 0.9815
-0.7736 1.6271 0.9831
-0.8317 1.5971 0.9846
-0.8886 1.5651 0.9860
-2.2915 3.7150 2.3960
-2.4205 3.6227 2.3960
-2.5461 3.5262 2.3960
-2.6681 3.4256 2.3960
-2.7865 3.3209 2.3960
-2.9011 3.2125 2.3960
-3.0118 3.1004 2.3960
-3.1184 2.9846 2.3960
-3.2211 2.8655 2.3960
-3.3194 2.7430 2.3960
-3.4135 2.6174 2.3960
-3.5032 2.4888 2.3960
-3.5884 2.3574 2.3960
-3.6691 2.2231 2.3960
-3.7451 2.0864 2.3960
-3.8164 1.9472 2.3960
-3.8829 1.8057 2.3960
-3.9446 1.6621 2.3960
-4.0013 1.5166 2.3960
-4.0531 1.3693 2.3960
-4.0999 1.2203 2.3960
-4.1416 1.0698 2.3960
-4.1782 0.9180 2.3960
-4.2097 0.7651 2.3960
-4.2360 0.6111 2.3960
-4.2570 0.4563 2.3960
-4.2728 0.3008 2.3960
-4.2834 0.1448 2.3960
-4.2886 -0.0116 2.3960
-4.2886 -0.1681 2.3960
-4.2833 -0.3246 2.3960
-4.2726 -0.4810 2.3960
-4.2567 -0.6371 2.3960
-4.2354 -0.7926 2.3960
-4.2088 -0.9475 2.3960
-4.1770 -1.1016 2.3960
-4.1399 -1.2547 2.3960
-4.0975 -1.4065 2.3960
-4.0499 -1.5571 2.3960
-3.9972 -1.7061 2.3960
-3.9393 -1.8534 2.3960
-3.8763 -1.9989 2.3960
-3.8083 -2.1424 2.3960
-3.7353 -2.2836 2.3960
-3.6574 -2.4225 2.3960
-3.5746 -2.5588 2.3960
-3.4869 -2.6925 2.3960
-3.3946 -2.8232 2.3960
-3.2977 -2.9510 2.3960
-3.1961 -3.0755 2.3960
-3.0902 -3.1967 2.3960
-2.9799 -3.3143 2.3960
-2.8653 -3.4283 2.3960
-2.7466 -3.5385 2.3960
-2.6239 -3.6446 2.3960
-2.4972 -3.7466 2.3960
-2.3668 -3.8443 2.3960
-2.2328 -3.9376 2.3960
-2.0953 -4.0263 2.3960
-1.9544 -4.1102 2.3960
-1.8103 -4.1894 2.3960
-1.6632 -4.2635 2.3960
-1.5133 -4.3325 2.3960
-1.3605 -4.3963 2.3960
-1.2055 -4.4548 2.3960
-1.0479 -4.5078 2.3960
-0.8882 -4.5552 2.3960
-0.7267 -4.5970 2.3960
-0.5633 -4.6331 2.3960
-0.3984 -4.6633 2.3960
-0.2321 -4.6875 2.3960
-0.0647 -4.7058 2.3960
0.1036 -4.7180 2.3960
0.2727 -4.7242 2.3960
0.4422 -4.7241 2.3960
0.6119 -4.7179 2.3960
0.7816 -4.7054 2.3960
0.9511 -4.6867 2.3960
1.1202 -4.6618 2.3960
1.2885 -4.6305 2.3960
1.4559 -4.5930 2.3960
1.6221 -4.5493 2.3960
1.7868 -4.4993 2.3960
1.9499 -4.4432 2.3960
2.1111 -4.3809 2.3960
2.2701 -4.3126 2.3960
2.4267 -4.2382 2.3960
2.5806 -4.1580 2.3960
2.7317 -4.0718 2.3960
2.8796 -3.9800 2.3960
3.0242 -3.8825 2.3960
3.1652 -3.7794 2.3960
3.3023 -3.6710 2.3960
3.4355 -3.5574 2.3960
3.5644 -3.4387 2.3960
3.6888 -3.3150 2.3960
3.8086 -3.1866 2.3960
3.9235 -3.0536 2.3960
4.0334 -2.9162 2.3960
4.1380 -2.7747 2.3960
4.2372 -2.6291 2.3960
4.3309 -2.4797 2.3960
4.4189 -2.3269 2.3960
4.5010 -2.1706 2.3960
4.5771 -2.0114 2.3960
4.6471 -1.8492 2.3960
4.7108 -1.6844 2.3960
4.7682 -1.5173 2.3960
4.8192 -1.3482 2.3960
4.8637 -1.1772 2.3960
4.9016 -1.0046 2.3960
4.9329 -0.8307 2.3960
4.9575 -0.6558 2.3960
4.9754 -0.4802 2.3960
4.9865 -0.3040 2.3960
4.9909 -0.1276 2.3960
4.9886 0.0487 2.3960
4.9796 0.2247 2.3960
4.9639 0.4002 2.3960
4.9415 0.5747 2.3960
4.9125 0.7482 2.3960
4.8770 0.9202 2.3960
4.8350 1.0906 2.3960
4.7867 1.2592 2.3960
4.7320 1.4256 2.3960
4.6712 1.5896 2.3960
4.6043 1.7511 2.3960
4.5315 1.9096 2.3960
4.4528 2.0652 2.3960
4.3685 2.2173 2.3960
4.2787 2.3661 2.3960
4.1835 2.5112 2.3960
4.0831 2.6523 2.3960
3.9777 2.7894 2.3960
3.8674 2.9223 2.3960
3.7525 3.0507 2.3960
3.6331 3.1746 2.3960
3.5095 3.2937 2.3960
3.3818 3.4080 2.3960
3.2502 3.5173 2.3960
3.1149 3.6215 2.3960
2.9762 3.7204 2.3960
2.8342 3.8140 2.3960
2.6893 3.9022 2.3960
2.5415 3.9848 2.3960
0.9273 1.5752 0.9292
0.8700 1.6066 0.9313
0.8117 1.6358 0.9334
0.7523 1.6630 0.9356
0.6920 1.6880 0.9377
0.6308 1.7108 0.9399
0.5689 1.7314 0.9420
0.5062 1.7498 0.9442
0.4429 1.7659 0.9464
0.3790 1.7797 0.9485
0.3148 1.7912 0.9506
0.2501 1.8003 0.9528
0.1851 1.8072 0.9549
0.1199 1.8116 0.9570
0.0546 1.8138 0.9591
-0.0107 1.8136 0.9611
-0.0760 1.8110 0.9631
-0.1411 1.8060 0.9651
-0.2061 1.7988 0.9671
-0.2707 1.7892 0.9690
-0.3350 1.7772 0.9709
-0.3987 1.7630 0.9727
-0.4620 1.7465 0.9746
-0.5245 1.7277 0.9763
-0.5864 1.7066 0.9780
-0.6475 1.6834 0.9797
-0.7077 1.6579 0.9813
-0.7669 1.6303 0.9829
-0.8251 1.6006 0.9844
-0.8822 1.5688 0.9859
-2.2767 3.7253 2.3960
-2.4060 3.6334 2.3960
-2.5320 3.5374 2.3960
-2.6544 3.4372 2.3960
-2.7732 3.3330 2.3960
-2.8882 3.2250 2.3960
-2.9994 3.1133 2.3960
-3.1065 2.9980 2.3960
-3.2096 2.8792 2.3960
-3.3085 2.7571 2.3960
-3.4030 2.6319 2.3960
4.0170 2.2819 2.3960
3.9257 2.4180 2.3960
3.8295 2.5503 2.3960
3.7287 2.6788 2.3960
3.6233 2.8032 2.3960
3.5136 2.9235 2.3960
3.3997 3.0394 2.3960
3.2818 3.1508 2.3960
3.1600 3.2577 2.3960
3.0347 3.3597 2.3960
2.9060 3.4570 2.3960
2.7740 3.5493 2.3960
2.6390 3.6365 2.3960
2.5012 3.7185 2.3960
0.9148 1.4707 0.9284
0.8613 1.5017 0.9305
0.8067 1.5307 0.9325
0.7511 1.5578 0.9345
0.6946 1.5828 0.9365
0.6372 1.6057 0.9386
0.5790 1.6266 0.9406
0.5201 1.6454 0.9427
0.4605 1.6621 0.9447
0.4004 1.6766 0.9468
0.3398 1.6889 0.9488
0.2787 1.6990 0.9508
0.2174 1.7069 0.9528
0.1558 1.7126 0.9548
0.0940 1.7161 0.9568
0.0322 1.7174 0.9587
-0.0297 1.7164 0.9607
-0.0915 1.7132 0.9626
-0.1531 1.7078 0.9645
-0.2145 1.7001 0.9663
-0.2756 1.6903 0.9681
-0.3363 1.6782 0.9699
-0.3966 1.6640 0.9716
-0.4562 1.6476 0.9733
-0.5153 1.6291 0.9750
-0.5736 1.6084 0.9766
-0.6312 1.5857 0.9782
-0.6879 1.5609 0.9797
-0.7436 1.5341 0.9812
-0.7984 1.5053 0.9826
-0.8521 1.4745 0.9839
-2.2000 3.5064 2.3960
-2.3219 3.4181 2.3960
-2.4405 3.3258 2.3960
-2.5558 3.2295 2.3960
-2.6675 3.1296 2.3960
-2.7757 3.0260 2.3960
-2.8801 2.9188 2.3960
-2.9807 2.8083 2.3960
-3.0774 2.6945 2.3960
-3.1700 2.5777 2.3960
-3.2586 2.4578 2.3960
-3.3430 2.3351 2.3960
-3.4230 2.2096 2.3960
-3.4988 2.0817 2.3960
-3.5701 1.9512 2.3960
-3.6369 1.8185 2.3960
-3.6991 1.6837 2.3960
-3.7567 1.5469 2.3960
-3.8096 1.4082 2.3960
-3.8577 1.2679 2.3960
-3.9011 1.1260 2.3960
-3.9396 0.9827 2.3960
-3.9733 0.8382 2.3960
-4.0020 0.6927 2.3960
-4.0258 0.5462 2.3960
-4.0446 0.3989 2.3960
-4.0584 0.2511 2.3960
-4.0672 0.1028 2.3960
-4.0710 -0.0458 2.3960
-4.0697 -0.1945 2.3960
-4.0633 -0.3432 2.3960
-4.0519 -0.4917 2.3960
-4.0354 -0.6398 2.3960
-4.0139 -0.7874 2.3960
-3.9873 -0.9343 2.3960
-3.9557 -1.0804 2.3960
-3.9191 -1.2255 2.3960
-3.8776 -1.3694 2.3960
-3.8310 -1.5119 2.3960
-3.7796 -1.6530 2.3960
-3.7233 -1.7923 2.3960
-3.6621 -1.9299 2.3960
-3.5962 -2.0655 2.3960
-3.5255 -2.1989 2.3960
-3.4502 -2.3300 2.3960
-3.3703 -2.4587 2.3960
-3.2858 -2.5847 2.3960
-3.1969 -2.7079 2.3960
-3.1036 -2.8282 2.3960
-3.0060 -2.9454 2.3960
-2.9043 -3.0593 2.3960
-2.7984 -3.1698 2.3960
-2.6886 -3.2768 2.3960
-2.5748 -3.3801 2.3960
-2.4573 -3.4795 2.3960
-2.3361 -3.5749 2.3960
-2.2115 -3.6662 2.3960
-2.0834 -3.7533 2.3960
-1.9521 -3.8359 2.3960
-1.8176 -3.9141 2.3960
-1.6802 -3.9875 2.3960
-1.5400 -4.0563 2.3960
-1.3971 -4.1201 2.3960
-1.2518 -4.1789 2.3960
-1.1041 -4.2326 2.3960
-0.9543 -4.2811 2.3960
-0.8026 -4.3243 2.3960
-0.6491 -4.3622 2.3960
-0.4939 -4.3945 2.3960
-0.3374 -4.4213 2.3960
-0.1797 -4.4425 2.3960
-0.0210 -4.4580 2.3960
0.1384 -4.4677 2.3960
0.2985 -4.4717 2.3960
0.4589 -4.4698 2.3960
0.6194 -4.4621 2.3960
0.7799 -4.4484 2.3960
0.9400 -4.4289 2.3960
1.0997 -4.4035 2.3960
1.2585 -4.3721 2.3960
1.4164 -4.3348 2.3960
1.5731 -4.2917 2.3960
1.7284 -4.2427 2.3960
1.8820 -4.1879 2.3960
2.0337 -4.1273 2.3960
2.1832 -4.0611 2.3960
2.3305 -3.9891 2.3960
2.4751 -3.9117 2.3960
2.6170 -3.8287 2.3960
2.7558 -3.7404 2.3960
2.8914 -3.6468 2.3960
3.0235 -3.5481 2.3960
3.1520 -3.4443 2.3960
3.2766 -3.3356 2.3960
3.3972 -3.2222 2.3960
3.5135 -3.1042 2.3960
3.6254 -2.9818 2.3960
3.7326 -2.8551 2.3960
3.8351 -2.7243 2.3960
3.9326 -2.5897 2.3960
4.0249 -2.4513 2.3960
4.1120 -2.3095 2.3960
4.1937 -2.1644 2.3960
4.2698 -2.0161 2.3960
4.3402 -1.8651 2.3960
4.4049 -1.7115 2.3960
4.4637 -1.5554 2.3960
4.5164 -1.3972 2.3960
4.5632 -1.2371 2.3960
4.6038 -1.0753 2.3960
4.6381 -0.9122 2.3960
4.6663 -0.7479 2.3960
4.6881 -0.5824 2.3960
4.7037 -0.4166 2.3960
4.7129 -0.2502 2.3960
4.7158 -0.0837 2.3960
4.7123 0.0827 2.3960
4.7025 0.2487 2.3960
4.6864 0.4143 2.3960
4.6641 0.5789 2.3960
4.6356 0.7424 2.3960
4.6009 0.9046 2.3960
4.5601 1.0652 2.3960
4.5134 1.2240 2.3960
4.4608 1.3808 2.3960
4.4023 1.5352 2.3960
4.3382 1.6873 2.3960
4.2684 1.8366 2.3960
4.1932 1.9830 2.3960
4.1127 2.1262 2.3960
4.0270 2.2662 2.3960
3.9363 2.4027 2.3960
3.8407 2.5354 2.3960
3.7404 2.6644 2.3960
3.6355 2.7893 2.3960
3.5263 2.9100 2.3960
3.4128 3.0264 2.3960
3.2954 3.1384 2.3960
3.1741 3.2457 2.3960
3.0491 3.3484 2.3960
2.9208 3.4462 2.3960
2.7892 3.5390 2.3960
2.6545 3.6268 2.3960
2.5170 3.7095 2.3960
0.9208 1.4671 0.9282
0.8674 1.4983 0.9302
0.8130 1.5275 0.9322
0.7575 1.5548 0.9343
0.7011 1.5800 0.9363
0.6438 1.6032 0.9383
0.5856 1.6244 0.9404
0.5268 1.6434 0.9424
0.4673 1.6603 0.9445
0.4072 1.6750 0.9465
0.3467 1.6876 0.9486
0.2857 1.6980 0.9506
0.2244 1.7061 0.9526
0.1628 1.7121 0.9546
0.1011 1.7158 0.9566
0.0392 1.7173 0.9585
-0.0227 1.7166 0.9605
-0.0845 1.7137 0.9624
-0.1461 1.7085 0.9642
-0.2076 1.7011 0.9661
-0.2687 1.6915 0.9679
-0.3294 1.6797 0.9697
-0.3897 1.6657 0.9714
-0.4495 1.6496 0.9731
-0.5086 1.6313 0.9748
-0.5670 1.6109 0.9764
-0.6247 1.5884 0.9780
-0.6815 1.5638 0.9795
-0.7373 1.5373 0.9810
-0.7922 1.5087 0.9824
-0.8460 1.4781 0.9838
-2.1859 3.5162 2.3960
-2.3082 3.4283 2.3960
-2.4272 3.3365 2.3960
-2.5428 3.2407 2.3960
-2.6550 3.1411 2.3960
-2.7635 3.0379 2.3960
-2.8684 2.9312 2.3960
-2.9694 2.8211 2.3960
-3.0666 2.7077 2.3960
-3.1597 2.5911 2.3960
-3.2487 2.4716 2.3960
-3.3336 2.3492 2.3960
-3.4141 2.2241 2.3960
-3.4904 2.0963 2.3960
-3.5622 1.9662 2.3960
-3.6295 1.8337 2.3960
-3.6922 1.6991 2.3960
-3.7504 1.5625 2.3960
-3.8038 1.4241 2.3960
-3.8525 1.2839 2.3960
-3.8964 1.1422 2.3960
-3.9355 0.9991 2.3960
-3.9697 0.8547 2.3960
-3.9990 0.7093 2.3960
-4.0234 0.5629 2.3960
-4.0428 0.4157 2.3960
-4.0571 0.2679 2.3960
-4.0665 0.1197 2.3960
-4.0708 -0.0289 2.3960
-4.0701 -0.1776 2.3960
-4.0643 -0.3263 2.3960
-4.0535 -0.4748 2.3960
-4.0376 -0.6230 2.3960
-4.0166 -0.7707 2.3960
-3.9906 -0.9177 2.3960
-3.9596 -1.0638 2.3960
-3.9236 -1.2090 2.3960
-3.8825 -1.3530 2.3960
-3.8366 -1.4958 2.3960
-3.7857 -1.6370 2.3960
-3.7299 -1.7766 2.3960
-3.6693 -1.9144 2.3960
-3.6039 -2.0502 2.3960
-3.5338 -2.1838 2.3960
-3.4590 -2.3152 2.3960
-3.3796 -2.4442 2.3960
-3.2956 -2.5705 2.3960
-3.2072 -2.6940 2.3960
-3.1144 -2.8147 2.3960
-3.0174 -2.9322 2.3960
-2.9161 -3.0465 2.3960
-2.8107 -3.1574 2.3960
-2.7013 -3.2648 2.3960
-2.5879 -3.3685 2.3960
-2.4709 -3.4684 2.3960
-2.3501 -3.5643 2.3960
-2.2258 -3.6561 2.3960
-2.0981 -3.7436 2.3960
-1.9672 -3.8268 2.3960
-1.8331 -3.9054 2.3960
-1.6960 -3.9794 2.3960
-1.5561 -4.0487 2.3960
-1.4135 -4.1131 2.3960
