ply
format ascii 1.0
element vertex 2176
property float32 x
property float32 y
property float32 z
end_header
7.7171 -5.2614 1.9919
7.1240 -2.2876 1.6160
5.8892 3.9359 1.5668
5.6523 5.0910 1.6840
7.5357 -4.3198 1.8590
7.0621 -1.9451 1.5847
5.8802 3.9810 1.5708
5.2906 6.9372 1.9306
7.0542 -1.8976 1.5808
6.8886 -1.0753 1.5150
6.8304 -0.8157 1.4967
6.2694 2.0295 1.4517
5.7613 4.5941 1.6309
5.5283 -7.8629 2.2427
5.7984 -7.6477 2.2427
6.0602 -7.4233 2.2428
6.3134 -7.1899 2.2429
6.5576 -6.9478 2.2429
6.7940 -6.6989 2.2434
7.0217 -6.4425 2.2441
7.2385 -6.1774 2.2444
7.4187 -5.8838 2.2366
7.5759 -5.5770 2.2255
7.7176 -5.2644 2.2134
7.8875 -4.9747 2.2127
8.0479 -4.6798 2.2123
7.4703 -3.9918 2.0157
8.3477 -4.0818 2.2146
8.4778 -3.7741 2.2148
8.5969 -3.4623 2.2151
8.7047 -3.1469 2.2153
7.1243 -2.2893 1.7934
8.8866 -2.5068 2.2159
8.9604 -2.1829 2.2161
6.9599 -1.4325 1.7097
9.0736 -1.5296 2.2167
9.1130 -1.2008 2.2170
9.1407 -0.8712 2.2173
9.1570 -0.5412 2.2176
9.1617 -0.2112 2.2179
9.1549 0.1186 2.2182
9.1367 0.4476 2.2185
9.1070 0.7755 2.2189
9.0660 1.1019 2.2192
6.4700 1.0239 1.5932
8.9502 1.7488 2.2198
8.8756 2.0685 2.2202
6.3315 1.7181 1.5995
8.6935 2.6986 2.2209
8.5863 3.0083 2.2212
8.4685 3.3140 2.2215
8.3402 3.6152 2.2219
8.2017 3.9118 2.2222
8.0529 4.2032 2.2226
7.8943 4.4893 2.2229
7.7259 4.7696 2.2232
7.5479 5.0440 2.2236
7.3606 5.3119 2.2239
7.1641 5.5732 2.2242
6.9587 5.8276 2.2246
5.6524 5.0909 1.8646
6.5221 6.3143 2.2252
6.2914 6.5460 2.2256
6.0529 6.7697 2.2259
5.8066 6.9851 2.2262
5.3045 6.8700 2.1268
5.2895 7.3861 2.2256
5.0252 7.5794 2.2273
4.7682 7.7864 2.2355
4.5060 7.9910 2.2453
4.2174 8.1522 2.2455
3.9219 8.3003 2.2448
3.6213 8.4382 2.2442
3.3161 8.5655 2.2435
3.0065 8.6822 2.2428
2.6937 8.7905 2.2428
2.3772 8.8880 2.2427
2.0680 9.0201 2.2543
5.5738 -7.8277 2.2427
5.8426 -7.6110 2.2428
6.1029 -7.3850 2.2428
6.3547 -7.1502 2.2429
6.5974 -6.9068 2.2429
6.8326 -6.6568 2.2435
7.0587 -6.3991 2.2442
7.2708 -6.1302 2.2436
7.4445 -5.8321 2.2344
7.6021 -5.5264 2.2240
7.7535 -5.2214 2.2153
7.6205 -4.7426 2.1303
8.0740 -4.6306 2.2124
8.2301 -4.3350 2.2142
8.3701 -4.0309 2.2146
8.4984 -3.7224 2.2149
8.6156 -3.4100 2.2151
8.7216 -3.0940 2.2154
8.8163 -2.7749 2.2156
8.8997 -2.4531 2.2159
8.9716 -2.1289 2.2162
9.0320 -1.8027 2.2165
9.0810 -1.4749 2.2167
9.1184 -1.1460 2.2170
9.1442 -0.8163 2.2173
9.1586 -0.4863 2.2176
9.1614 -0.1563 2.2180
9.1527 0.1734 2.2183
9.1325 0.5022 2.2186
9.1010 0.8299 2.2189
9.0581 1.1560 2.2192
6.4623 1.0624 1.5930
8.9385 1.8021 2.2199
8.8621 2.1214 2.2202
6.3238 1.7567 1.6003
8.6764 2.7504 2.2209
8.5675 3.0594 2.2213
8.4479 3.3644 2.2216
8.3179 3.6649 2.2219
8.1776 3.9606 2.2223
8.0272 4.2512 2.2226
7.8669 4.5363 2.2230
7.6969 4.8157 2.2233
7.5174 5.0890 2.2236
7.3285 5.3559 2.2240
7.1305 5.6160 2.2243
6.9237 5.8692 2.2246
6.7082 6.1151 2.2250
6.4843 6.3534 2.2253
6.2523 6.5838 2.2256
6.0124 6.8061 2.2259
5.7649 7.0201 2.2262
5.5100 7.2253 2.2265
5.2455 7.4180 2.2257
4.9815 7.6122 2.2280
4.7252 7.8205 2.2371
4.4596 8.0208 2.2460
4.1686 8.1775 2.2454
3.8722 8.3240 2.2447
3.5708 8.4601 2.2441
3.2648 8.5856 2.2434
2.9547 8.7010 2.2428
2.6413 8.8075 2.2428
2.3242 8.9032 2.2427
2.0372 9.1384 2.2802
5.3775 -8.0518 2.2569
5.6191 -7.7923 2.2427
5.8865 -7.5740 2.2428
6.1454 -7.3466 2.2428
6.3957 -7.1103 2.2429
6.6369 -6.8655 2.2429
6.8709 -6.6145 2.2436
7.0954 -6.3555 2.2443
7.3029 -6.0828 2.2428
7.4700 -5.7803 2.2322
7.6280 -5.4759 2.2225
7.7799 -5.1715 2.2145
7.6062 -4.6708 2.1190
8.1004 -4.5817 2.2126
8.2546 -4.2847 2.2144
8.3922 -3.9799 2.2147
8.5187 -3.6707 2.2149
8.6340 -3.3577 2.2152
8.7381 -3.0412 2.2154
8.8310 -2.7216 2.2157
8.9124 -2.3993 2.2159
6.9965 -1.6160 1.7262
9.0410 -1.7483 2.2165
9.0880 -1.4203 2.2168
6.8307 -0.8170 1.6599
9.1474 -0.7615 2.2174
9.1598 -0.4314 2.2177
9.1607 -0.1014 2.2180
9.1501 0.2282 2.2183
9.1281 0.5568 2.2186
9.0946 0.8843 2.2190
9.0498 1.2101 2.2193
8.9938 1.5340 2.2196
8.9266 1.8555 2.2200
8.8483 2.1742 2.2203
8.7591 2.4899 2.2206
8.6591 2.8021 2.2210
8.5483 3.1105 2.2213
8.4270 3.4147 2.2216
8.2953 3.7144 2.2220
8.1533 4.0093 2.2223
8.0012 4.2990 2.2227
7.8393 4.5832 2.2230
7.6677 4.8616 2.2234
7.4866 5.1338 2.2237
7.2962 5.3996 2.2240
7.0967 5.6586 2.2244
0.0554 3.6588 0.9742
-0.0763 3.6589 0.9734
-0.2080 3.6543 0.9725
-0.3394 3.6448 0.9716
-0.4704 3.6306 0.9707
-0.6007 3.6116 0.9697
-0.7304 3.5880 0.9686
-0.8590 3.5596 0.9676
-2.4450 8.7397 2.3951
-2.7612 8.6567 2.3951
-3.0746 8.5625 2.3951
-3.3849 8.4572 2.3951
-3.6916 8.3408 2.3951
-3.9944 8.2134 2.3951
-4.2928 8.0752 2.3951
-4.5866 7.9263 2.3951
-4.8752 7.7669 2.3951
-5.1583 7.5971 2.3951
-5.4356 7.4170 2.3951
-5.7066 7.2270 2.3951
-5.9710 7.0271 2.3951
-6.2285 6.8176 2.3951
-6.4786 6.5987 2.3951
-6.7210 6.3707 2.3951
-6.9553 6.1338 2.3951
-7.1813 5.8883 2.3951
-7.3986 5.6345 2.3951
-7.6069 5.3727 2.3951
-7.8058 5.1032 2.3951
-7.9951 4.8263 2.3951
-8.1745 4.5424 2.3951
-8.3438 4.2518 2.3951
-8.5025 3.9548 2.3951
-8.6505 3.6518 2.3951
-8.7876 3.3436 2.3951
-8.9135 3.0298 2.3951
-9.0280 2.7115 2.3951
-9.1310 2.3888 2.3951
-9.2221 2.0621 2.3951
-9.3013 1.7320 2.3951
-9.3685 1.3988 2.3951
-9.4234 1.0630 2.3951
-9.4660 0.7251 2.3951
-9.4962 0.3855 2.3951
-9.5138 0.0446 2.3951
-9.5189 -0.2969 2.3951
-9.5114 -0.6387 2.3951
-9.4912 -0.9804 2.3951
-9.4584 -1.3213 2.3951
-9.4130 -1.6610 2.3951
-9.3550 -1.9991 2.3951
-9.2844 -2.3350 2.3951
-9.2013 -2.6683 2.3951
-9.1059 -2.9985 2.3951
-8.9983 -3.3252 2.3951
-8.8784 -3.6478 2.3951
-8.7467 -3.9658 2.3951
-8.6031 -4.2789 2.3951
-8.4478 -4.5865 2.3951
-8.2812 -4.8883 2.3951
-8.1034 -5.1838 2.3951
-7.9146 -5.4724 2.3951
-7.7152 -5.7538 2.3951
-7.5053 -6.0281 2.3951
-7.2854 -6.2939 2.3951
-7.0557 -6.5515 2.3951
-6.8165 -6.8004 2.3951
-6.5682 -7.0402 2.3951
-6.3111 -7.2704 2.3951
-6.0456 -7.4910 2.3951
-5.7722 -7.7014 2.3951
-5.4911 -7.9015 2.3951
-5.2029 -8.0909 2.3951
-4.9078 -8.2694 2.3951
-4.6064 -8.4367 2.3951
-4.2991 -8.5926 2.3951
-3.9864 -8.7370 2.3951
-3.6687 -8.8695 2.3951
-3.3464 -8.9900 2.3951
-3.0200 -9.0984 2.3951
-2.6900 -9.1946 2.3951
-2.3569 -9.2784 2.3951
-2.0211 -9.3497 2.3951
-1.6832 -9.4085 2.3951
-1.3436 -9.4547 2.3951
-1.0028 -9.4883 2.3951
-0.6612 -9.5093 2.3951
-0.3194 -9.5176 2.3951
0.0221 -9.5133 2.3951
0.3629 -9.4964 2.3951
0.7026 -9.4670 2.3951
1.0406 -9.4252 2.3951
1.3765 -9.3711 2.3951
1.7098 -9.3047 2.3951
2.0401 -9.2263 2.3951
2.3670 -9.1359 2.3951
2.6899 -9.0337 2.3951
3.0085 -8.9199 2.3951
3.3224 -8.7948 2.3951
3.6312 -8.6584 2.3951
3.9344 -8.5111 2.3951
4.2317 -8.3531 2.3951
4.5227 -8.1846 2.3951
4.8070 -8.0058 2.3951
5.0843 -7.8171 2.3951
5.2458 -7.4646 2.3466
5.2592 -6.9398 2.2427
5.4973 -6.7369 2.2427
5.7278 -6.5260 2.2428
5.9503 -6.3072 2.2428
6.1644 -6.0809 2.2429
6.3701 -5.8474 2.2429
6.5684 -5.6081 2.2435
6.7581 -5.3623 2.2441
6.9385 -5.1102 2.2447
7.0999 -4.8452 2.2421
7.2279 -4.5605 2.2324
7.3510 -4.2769 2.2245
7.4661 -3.9916 2.2174
7.5843 -3.7106 2.2144
7.7004 -3.4300 2.2137
7.8114 -3.1478 2.2145
7.9146 -2.8631 2.2159
7.1246 -2.2910 1.9728
8.0818 -2.2815 2.2164
8.1498 -1.9871 2.2167
8.2073 -1.6908 2.2169
8.2544 -1.3930 2.2172
8.2909 -1.0940 2.2175
8.3169 -0.7942 2.2177
8.3324 -0.4939 2.2180
8.3374 -0.1935 2.2183
8.3319 0.1066 2.2186
8.3159 0.4061 2.2189
8.2894 0.7046 2.2192
8.2526 1.0019 2.2194
8.2055 1.2974 2.2197
8.1482 1.5910 2.2201
6.3779 1.4856 1.7525
8.0032 2.1707 2.2207
7.9157 2.4562 2.2210
7.8184 2.7384 2.2213
7.7114 3.0169 2.2216
7.5949 3.2914 2.2219
7.4689 3.5616 2.2222
7.3336 3.8271 2.2225
7.1892 4.0878 2.2228
7.0360 4.3432 2.2231
6.8739 4.5931 2.2235
6.7033 4.8373 2.2238
6.5244 5.0753 2.2241
6.3373 5.3070 2.2244
5.6524 5.0908 2.0472
5.9396 5.7502 2.2250
5.7278 5.9595 2.2246
5.5088 6.1617 2.2243
5.2881 6.3617 2.2261
5.0712 6.5683 2.2326
4.8519 6.7756 2.2417
4.6142 6.9602 2.2458
4.3608 7.1223 2.2452
4.1019 7.2755 2.2447
3.8377 7.4196 2.2441
3.5687 7.5544 2.2435
3.2950 7.6797 2.2429
3.0177 7.7970 2.2428
2.7365 7.9050 2.2427
2.4515 8.0033 2.2427
2.2070 8.2556 2.2881
0.8164 3.5636 0.9782
0.6877 3.5913 0.9776
0.5580 3.6144 0.9770
0.4276 3.6327 0.9764
0.2966 3.6463 0.9756
0.1652 3.6551 0.9749
0.0335 3.6592 0.9741
-0.0982 3.6585 0.9733
-0.2298 3.6530 0.9724
-0.3612 3.6428 0.9715
-0.4921 3.6278 0.9705
-0.6224 3.6080 0.9695
-0.7518 3.5836 0.9685
-0.8803 3.5545 0.9674
-2.4978 8.7267 2.3951
-2.8135 8.6418 2.3951
-3.1264 8.5458 2.3951
-3.4362 8.4386 2.3951
-3.7423 8.3203 2.3951
-4.0444 8.1912 2.3951
-4.3421 8.0512 2.3951
-4.6350 7.9005 2.3951
-4.9227 7.7394 2.3951
-5.2049 7.5678 2.3951
-5.4811 7.3861 2.3951
-5.7511 7.1944 2.3951
-6.0144 6.9929 2.3951
-6.2706 6.7818 2.3951
-6.5194 6.5614 2.3951
-6.7605 6.3319 2.3951
-6.9935 6.0936 2.3951
-7.2181 5.8467 2.3951
-7.4339 5.5915 2.3951
-7.6406 5.3284 2.3951
-7.8380 5.0576 2.3951
-8.0257 4.7796 2.3951
-8.2034 4.4945 2.3951
-8.3709 4.2028 2.3951
-8.5279 3.9048 2.3951
-8.6741 3.6011 2.3951
-8.8093 3.2917 2.3951
-8.9333 2.9768 2.3951
-9.0460 2.6581 2.3951
-9.1469 2.3347 2.3951
-9.2361 2.0074 2.3951
-9.3133 1.6767 2.3951
-9.3785 1.3431 2.3951
-9.4313 1.0069 2.3951
-9.4719 0.6687 2.3951
-9.5000 0.3288 2.3951
-9.5155 -0.0121 2.3951
-9.5185 -0.3538 2.3951
-9.5089 -0.6956 2.3951
-9.4866 -1.0371 2.3951
-9.4517 -1.3779 2.3951
-9.4042 -1.7174 2.3951
-9.3441 -2.0551 2.3951
-9.2714 -2.3907 2.3951
-9.1863 -2.7235 2.3951
-9.0889 -3.0532 2.3951
-8.9792 -3.3791 2.3951
-8.8573 -3.7010 2.3951
-8.7236 -4.0183 2.3951
-8.5780 -4.3305 2.3951
-8.4209 -4.6372 2.3951
-8.2524 -4.9379 2.3951
-8.0727 -5.2323 2.3951
-7.8822 -5.5198 2.3951
-7.6810 -5.8001 2.3951
-7.4695 -6.0726 2.3951
-7.2479 -6.3373 2.3951
-7.0165 -6.5935 2.3951
-6.7758 -6.8410 2.3951
-6.5260 -7.0791 2.3951
-6.2675 -7.3078 2.3951
-6.0007 -7.5267 2.3951
-5.7259 -7.7354 2.3951
-5.4436 -7.9338 2.3951
-5.1542 -8.1214 2.3951
-4.8581 -8.2980 2.3951
-4.5557 -8.4635 2.3951
-4.2475 -8.6175 2.3951
-3.9339 -8.7598 2.3951
-3.6153 -8.8904 2.3951
-3.2923 -9.0089 2.3951
-2.9653 -9.1153 2.3951
-2.6348 -9.2094 2.3951
-2.3012 -9.2911 2.3951
-1.9650 -9.3604 2.3951
-1.6268 -9.4171 2.3951
-1.2870 -9.4612 2.3951
-0.9461 -9.4925 2.3951
-0.6044 -9.5115 2.3951
-0.2626 -9.5177 2.3951
0.0789 -9.5113 2.3951
0.4195 -9.4924 2.3951
0.7590 -9.4609 2.3951
1.0966 -9.4171 2.3951
1.4321 -9.3609 2.3951
1.7650 -9.2925 2.3951
2.0947 -9.2120 2.3951
2.4210 -9.1197 2.3951
2.7432 -9.0156 2.3951
3.0611 -8.8999 2.3951
3.3742 -8.7729 2.3951
3.6820 -8.6347 2.3951
3.9843 -8.4855 2.3951
4.2805 -8.3258 2.3951
4.5704 -8.1555 2.3951
4.8536 -7.9752 2.3951
5.1297 -7.7848 2.3951
5.2278 -7.3453 2.3194
5.2993 -6.9065 2.2427
5.5362 -6.7024 2.2427
5.7654 -6.4901 2.2428
5.9865 -6.2701 2.2428
6.1993 -6.0425 2.2429
6.4035 -5.8078 2.2430
6.6006 -5.5677 2.2436
6.7887 -5.3208 2.2442
6.9677 -5.0676 2.2448
7.1250 -4.8002 2.2415
7.2485 -4.5133 2.2309
7.3708 -4.2296 2.2233
7.4843 -3.9440 2.2162
7.6035 -3.6636 2.2140
7.7193 -3.3832 2.2138
7.8294 -3.1007 2.2147
7.9302 -2.8155 2.2160
8.0172 -2.5252 2.2162
7.0628 -1.9483 1.9341
8.1601 -1.9380 2.2167
8.2159 -1.6414 2.2170
8.2612 -1.3434 2.2172
8.2960 -1.0442 2.2175
8.3202 -0.7443 2.2178
8.3340 -0.4439 2.2180
8.3372 -0.1436 2.2183
8.3299 0.1565 2.2186
8.3122 0.4559 2.2189
8.2840 0.7542 2.2192
8.2455 1.0512 2.2195
8.1967 1.3464 2.2198
8.1377 1.6396 2.2201
8.0685 1.9304 2.2204
7.9893 2.2184 2.2207
7.9002 2.5034 2.2210
7.8013 2.7850 2.2213
7.6927 3.0628 2.2216
7.5745 3.3366 2.2220
7.4470 3.6061 2.2223
7.3102 3.8709 2.2226
7.1644 4.1307 2.2229
7.0096 4.3852 2.2232
6.8461 4.6342 2.2235
6.6741 4.8773 2.2238
6.4938 5.1143 2.2241
6.3054 5.3449 2.2244
6.1091 5.5688 2.2247
5.9051 5.7858 2.2250
5.6916 5.9933 2.2245
5.4720 6.1945 2.2243
5.2511 6.3947 2.2265
5.0347 6.6025 2.2339
4.8154 6.8103 2.2435
4.5725 6.9878 2.2457
4.3181 7.1484 2.2451
4.0583 7.3001 2.2446
3.7933 7.4426 2.2440
3.5234 7.5759 2.2434
3.2491 7.6996 2.2428
2.9712 7.8156 2.2428
2.6893 7.9220 2.2427
2.4038 8.0187 2.2427
0.9229 3.5370 0.9786
0.7951 3.5686 0.9781
0.6662 3.5955 0.9775
0.5364 3.6177 0.9769
0.4059 3.6353 0.9762
0.2748 3.6481 0.9755
0.1433 3.6561 0.9748
0.0116 3.6594 0.9740
-0.1201 3.6579 0.9731
-0.2517 3.6516 0.9722
-0.3830 3.6406 0.9713
-0.5138 3.6248 0.9703
-0.6440 3.6043 0.9693
-0.7733 3.5791 0.9683
-0.9016 3.5492 0.9672
-2.5505 8.7134 2.3951
-2.8658 8.6266 2.3951
-3.1782 8.5287 2.3951
-3.4874 8.4196 2.3951
-3.7928 8.2996 2.3951
-4.0942 8.1686 2.3951
-4.3911 8.0269 2.3951
-4.6832 7.8745 2.3951
-4.9701 7.7115 2.3951
-5.2513 7.5383 2.3951
-5.5265 7.3549 2.3951
-5.7954 7.1616 2.3951
-6.0575 6.9584 2.3951
-6.3125 6.7458 2.3951
-6.5601 6.5238 2.3951
-6.7999 6.2928 2.3951
-7.0315 6.0531 2.3951
-7.2546 5.8048 2.3951
-7.4689 5.5483 2.3951
-7.6741 5.2839 2.3951
-7.8699 5.0119 2.3951
-8.0560 4.7326 2.3951
-8.2320 4.4464 2.3951
-8.3978 4.1537 2.3951
-8.5530 3.8547 2.3951
-8.6974 3.5498 2.3951
-8.8308 3.2396 2.3951
-8.9529 2.9242 2.3951
-9.0636 2.6045 2.3951
-9.1626 2.2805 2.3951
-9.2498 1.9526 2.3951
-9.3250 1.6214 2.3951
-9.3881 1.2873 2.3951
-9.4390 0.9507 2.3951
-9.4774 0.6122 2.3951
-9.5034 0.2721 2.3951
-9.5169 -0.0690 2.3951
-9.5178 -0.4107 2.3951
-9.5061 -0.7525 2.3951
-9.4817 -1.0939 2.3951
-9.4447 -1.4345 2.3951
-9.3951 -1.7737 2.3951
-9.3329 -2.1111 2.3951
-9.2581 -2.4462 2.3951
-9.1710 -2.7786 2.3951
-9.0715 -3.1077 2.3951
-8.9597 -3.4330 2.3951
-8.8359 -3.7541 2.3951
-8.7002 -4.0706 2.3951
-8.5527 -4.3819 2.3951
-8.3936 -4.6876 2.3951
-8.2233 -4.9874 2.3951
-8.0418 -5.2804 2.3951
-7.8494 -5.5671 2.3951
-7.6465 -5.8458 2.3951
-7.4333 -6.1174 2.3951
-7.2100 -6.3808 2.3951
-6.9771 -6.6354 2.3951
-6.7348 -6.8812 2.3951
-6.4836 -7.1178 2.3951
-6.2237 -7.3449 2.3951
-5.9555 -7.5621 2.3951
-5.6795 -7.7692 2.3951
-5.3960 -7.9657 2.3951
-5.1054 -8.1515 2.3951
-4.8082 -8.3263 2.3951
-4.5048 -8.4899 2.3951
-4.1957 -8.6420 2.3951
-3.8812 -8.7824 2.3951
-3.5619 -8.9109 2.3951
-3.2382 -9.0274 2.3951
-2.9105 -9.1318 2.3951
-2.5795 -9.2239 2.3951
-2.2454 -9.3035 2.3951
-1.9089 -9.3707 2.3951
-1.5704 -9.4253 2.3951
-1.2303 -9.4672 2.3951
-0.8892 -9.4967 2.3951
-0.5475 -9.5134 2.3951
-0.2058 -9.5176 2.3951
0.1356 -9.5091 2.3951
0.4761 -9.4880 2.3951
0.8153 -9.4545 2.3951
1.1526 -9.4086 2.3951
1.4877 -9.3504 2.3951
1.8201 -9.2799 2.3951
2.1493 -9.1975 2.3951
2.4749 -9.1032 2.3951
2.7964 -8.9971 2.3951
3.1135 -8.8795 2.3951
3.4257 -8.7506 2.3951
3.7327 -8.6106 2.3951
4.0340 -8.4597 2.3951
4.3292 -8.2981 2.3951
4.6180 -8.1262 2.3951
4.9000 -7.9442 2.3951
5.1750 -7.7523 2.3951
5.2102 -7.2286 2.2929
5.3392 -6.8731 2.2427
5.5749 -6.6676 2.2427
5.8028 -6.4540 2.2428
6.0225 -6.2327 2.2428
6.2338 -6.0040 2.2429
6.4369 -5.7684 2.2431
6.6325 -5.5271 2.2437
6.8191 -5.2791 2.2443
6.9965 -5.0249 2.2448
7.1465 -4.7528 2.2397
7.2694 -4.4662 2.2295
7.3903 -4.1822 2.2221
7.5045 -3.8974 2.2158
7.6225 -3.6168 2.2137
7.7379 -3.3358 2.2138
7.8470 -3.0535 2.2150
7.9454 -2.7671 2.2160
8.0307 -2.4767 2.2163
7.0532 -1.9003 1.9287
8.1701 -1.8887 2.2168
6.9422 -1.3438 1.8714
8.2677 -1.2937 2.2173
6.8309 -0.8183 1.8249
8.3232 -0.6943 2.2178
8.3352 -0.3940 2.2181
8.3367 -0.0936 2.2184
8.3277 0.2063 2.2187
8.3082 0.5056 2.2190
8.2783 0.8037 2.2193
8.2381 1.1004 2.2195
8.1876 1.3954 2.2198
6.4087 1.3313 1.7508
8.0560 1.9785 2.2205
7.9752 2.2661 2.2208
7.8844 2.5505 2.2211
7.7839 2.8315 2.2214
7.6737 3.1087 2.2217
7.5540 3.3818 2.2220
7.4249 3.6505 2.2223
7.2866 3.9144 2.2226
7.1392 4.1734 2.2229
6.9830 4.4270 2.2232
5.8713 4.0258 1.9148
6.6447 4.9172 2.2239
6.4630 5.1531 2.2242
0.0501 3.3434 0.9714
-0.0703 3.3435 0.9706
-0.1906 3.3392 0.9698
-0.3107 3.3306 0.9690
-0.4304 3.3176 0.9681
-0.5496 3.3002 0.9672
-0.6680 3.2786 0.9663
-0.7856 3.2527 0.9653
-0.9022 3.2226 0.9643
-2.5303 7.9274 2.3951
-2.8171 7.8403 2.3951
-3.1010 7.7431 2.3951
-3.3815 7.6357 2.3951
-3.6584 7.5183 2.3951
-3.9312 7.3910 2.3951
-4.1997 7.2539 2.3951
-4.4634 7.1072 2.3951
-4.7220 6.9510 2.3951
-4.9752 6.7855 2.3951
-5.2226 6.6109 2.3951
-5.4639 6.4273 2.3951
-5.6988 6.2349 2.3951
-5.9269 6.0340 2.3951
-6.1479 5.8248 2.3951
-6.3615 5.6075 2.3951
-6.5674 5.3824 2.3951
-6.7653 5.1498 2.3951
-6.9549 4.9099 2.3951
-7.1360 4.6630 2.3951
-7.3082 4.4094 2.3951
-7.4713 4.1495 2.3951
-7.6251 3.8835 2.3951
-7.7693 3.6118 2.3951
-7.9037 3.3347 2.3951
-8.0281 3.0526 2.3951
-8.1422 2.7658 2.3951
-8.2459 2.4748 2.3951
-8.3391 2.1798 2.3951
-8.4215 1.8815 2.3951
-8.4930 1.5797 2.3951
-8.5534 1.2752 2.3951
-8.6028 0.9689 2.3951
-8.6409 0.6602 2.3951
-8.6677 0.3504 2.3951
-8.6830 0.0391 2.3951
-8.6869 -0.2723 2.3951
-8.6794 -0.5842 2.3951
-8.6603 -0.8958 2.3951
-8.6298 -1.2067 2.3951
-8.5877 -1.5165 2.3951
-8.5342 -1.8248 2.3951
-8.4693 -2.1310 2.3951
-8.3931 -2.4349 2.3951
-8.3056 -2.7358 2.3951
-8.2070 -3.0336 2.3951
-8.0973 -3.3278 2.3951
-7.9768 -3.6175 2.3951
-7.8455 -3.9028 2.3951
-7.7037 -4.1832 2.3951
-7.5516 -4.4580 2.3951
-7.3892 -4.7275 2.3951
-7.2170 -4.9905 2.3951
-7.0350 -5.2470 2.3951
-6.8436 -5.4967 2.3951
-6.6430 -5.7391 2.3951
-6.4335 -5.9739 2.3951
-6.2155 -6.2008 2.3951
-5.9891 -6.4193 2.3951
-5.7548 -6.6294 2.3951
-5.5129 -6.8305 2.3951
-5.2637 -7.0225 2.3951
-5.0075 -7.2050 2.3951
-4.7448 -7.3779 2.3951
-4.4760 -7.5408 2.3951
-4.2013 -7.6936 2.3951
-3.9213 -7.8360 2.3951
-3.6363 -7.9679 2.3951
-3.3467 -8.0891 2.3951
-3.0530 -8.1994 2.3951
-2.7555 -8.2987 2.3951
-2.4547 -8.3869 2.3951
-2.1510 -8.4639 2.3951
-1.8449 -8.5295 2.3951
-1.5368 -8.5837 2.3951
-1.2271 -8.6264 2.3951
-0.9163 -8.6577 2.3951
-0.6047 -8.6775 2.3951
-0.2929 -8.6858 2.3951
0.0187 -8.6826 2.3951
0.3298 -8.6679 2.3951
0.6398 -8.6419 2.3951
0.9484 -8.6045 2.3951
1.2551 -8.5559 2.3951
1.5596 -8.4961 2.3951
1.8613 -8.4253 2.3951
2.1599 -8.3436 2.3951
2.4551 -8.2511 2.3951
2.7463 -8.1481 2.3951
3.0333 -8.0347 2.3951
3.3157 -7.9110 2.3951
3.5931 -7.7772 2.3951
3.8651 -7.6337 2.3951
4.1315 -7.4805 2.3951
4.3918 -7.3180 2.3951
4.6457 -7.1464 2.3951
4.8930 -6.9660 2.3951
5.0972 -6.7291 2.3782
5.0251 -6.1611 2.2427
5.2362 -5.9687 2.2427
5.4402 -5.7693 2.2427
5.6367 -5.5629 2.2428
5.8255 -5.3499 2.2428
6.0062 -5.1305 2.2429
6.1788 -4.9050 2.2429
6.3444 -4.6748 2.2434
6.5015 -4.4391 2.2440
6.6498 -4.1981 2.2445
6.7893 -3.9521 2.2449
6.9082 -3.6955 2.2416
6.9999 -3.4264 2.2327
7.0899 -3.1599 2.2264
7.1723 -2.8919 2.2208
7.2499 -2.6243 2.2168
7.1250 -2.2928 2.1544
7.0732 -1.9983 2.1181
7.4612 -1.8208 2.2156
7.5176 -1.5504 2.2168
7.5630 -1.2773 2.2176
7.5973 -1.0039 2.2178
7.6217 -0.7292 2.2181
7.6365 -0.4540 2.2184
7.6415 -0.1787 2.2186
7.6370 0.0965 2.2189
7.6228 0.3711 2.2191
7.5990 0.6448 2.2194
7.5657 0.9174 2.2197
7.5229 1.1884 2.2200
7.4707 1.4577 2.2202
7.4092 1.7248 2.2205
6.3318 1.7166 1.9162
7.2585 2.2514 2.2211
7.1695 2.5103 2.2214
7.0716 2.7658 2.2216
6.9649 3.0176 2.2219
6.8495 3.2656 2.2222
6.7256 3.5092 2.2225
6.5933 3.7484 2.2228
6.4528 3.9827 2.2231
6.3042 4.2120 2.2233
5.8349 4.2103 2.1105
5.9808 4.6522 2.2229
5.8085 4.8643 2.2229
5.6317 5.0724 2.2239
5.4528 5.2790 2.2271
5.2729 5.4863 2.2329
5.0886 5.6921 2.2402
4.8924 5.8859 2.2456
4.6775 6.0588 2.2454
4.4562 6.2233 2.2450
4.2292 6.3800 2.2445
3.9968 6.5286 2.2440
3.7594 6.6690 2.2435
3.5172 6.8010 2.2430
3.2710 6.9255 2.2428
3.0207 7.0420 2.2428
2.7664 7.1496 2.2427
2.5084 7.2484 2.2427
2.3274 7.6009 2.3229
0.8623 3.2270 0.9755
0.7456 3.2566 0.9750
0.6280 3.2819 0.9745
0.5095 3.3029 0.9739
0.3903 3.3196 0.9733
0.2705 3.3320 0.9727
0.1504 3.3400 0.9720
0.0301 3.3437 0.9713
-0.0903 3.3431 0.9705
-0.2106 3.3381 0.9697
-0.3307 3.3287 0.9688
-0.4503 3.3150 0.9680
-0.5693 3.2969 0.9671
-0.6877 3.2746 0.9661
-0.8051 3.2480 0.9651
-2.2893 7.9921 2.3951
-2.5782 7.9136 2.3951
-2.8646 7.8248 2.3951
-3.1479 7.7259 2.3951
-3.4278 7.6168 2.3951
-3.7041 7.4978 2.3951
-3.9762 7.3689 2.3951
-4.2439 7.2302 2.3951
-4.5068 7.0819 2.3951
-4.7645 6.9242 2.3951
-5.0168 6.7571 2.3951
-5.2632 6.5809 2.3951
-5.5034 6.3958 2.3951
-5.7372 6.2020 2.3951
-5.9641 5.9998 2.3951
-6.1839 5.7892 2.3951
-6.3963 5.5706 2.3951
-6.6009 5.3442 2.3951
-6.7974 5.1104 2.3951
-6.9857 4.8693 2.3951
-7.1653 4.6213 2.3951
-7.3360 4.3666 2.3951
-7.4976 4.1056 2.3951
-7.6498 3.8386 2.3951
-7.7924 3.5660 2.3951
-7.9251 3.2881 2.3951
-8.0478 3.0052 2.3951
-8.1602 2.7177 2.3951
-8.2622 2.4260 2.3951
-8.3535 2.1304 2.3951
-8.4341 1.8315 2.3951
-8.5038 1.5292 2.3951
-8.5624 1.2247 2.3951
-8.6099 0.9179 2.3951
-8.6461 0.6087 2.3951
-8.6710 0.2986 2.3951
-8.6845 -0.0124 2.3951
-8.6865 -0.3242 2.3951
-8.6770 -0.6361 2.3951
-8.6560 -0.9476 2.3951
-8.6235 -1.2584 2.3951
-8.5796 -1.5680 2.3951
-8.5242 -1.8759 2.3951
-8.4574 -2.1820 2.3951
-8.3793 -2.4851 2.3951
-8.2900 -2.7855 2.3951
-8.1895 -3.0829 2.3951
-8.0780 -3.3762 2.3951
-7.9557 -3.6653 2.3951
-7.8227 -3.9498 2.3951
-7.6791 -4.2293 2.3951
-7.5252 -4.5034 2.3951
-7.3613 -4.7715 2.3951
-7.1873 -5.0338 2.3951
-7.0038 -5.2890 2.3951
-6.8109 -5.5376 2.3951
-6.6088 -5.7787 2.3951
-6.3978 -6.0122 2.3951
-6.1784 -6.2377 2.3951
-5.9507 -6.4549 2.3951
-5.7151 -6.6634 2.3951
-5.4719 -6.8631 2.3951
-5.2215 -7.0535 2.3951
-4.9643 -7.2344 2.3951
-4.7005 -7.4057 2.3951
-4.4307 -7.5669 2.3951
-4.1551 -7.7180 2.3951
-3.8742 -7.8587 2.3951
-3.5884 -7.9889 2.3951
-3.2981 -8.1082 2.3951
-3.0037 -8.2167 2.3951
-2.7057 -8.3142 2.3951
-2.4044 -8.4005 2.3951
-2.1003 -8.4756 2.3951
-1.7938 -8.5393 2.3951
-1.4854 -8.5916 2.3951
-1.1754 -8.6324 2.3951
-0.8645 -8.6618 2.3951
-0.5528 -8.6797 2.3951
-0.2410 -8.6860 2.3951
0.0706 -8.6809 2.3951
0.3815 -8.6644 2.3951
0.6913 -8.6364 2.3951
0.9996 -8.5972 2.3951
1.3059 -8.5467 2.3951
1.6100 -8.4851 2.3951
1.9112 -8.4125 2.3951
2.2093 -8.3290 2.3951
2.5038 -8.2348 2.3951
2.7944 -8.1300 2.3951
3.0807 -8.0148 2.3951
3.3622 -7.8894 2.3951
3.6387 -7.7540 2.3951
3.9098 -7.6089 2.3951
4.1752 -7.4541 2.3951
4.4345 -7.2901 2.3951
4.6873 -7.1170 2.3951
4.9335 -6.9350 2.3951
5.0820 -6.6264 2.3531
5.0606 -6.1294 2.2427
5.2707 -5.9360 2.2427
5.4735 -5.7354 2.2428
5.6687 -5.5279 2.2428
5.8561 -5.3138 2.2428
6.0355 -5.0934 2.2429
6.2069 -4.8671 2.2430
6.3711 -4.6360 2.2435
6.5268 -4.3993 2.2440
6.6737 -4.1575 2.2445
6.8097 -3.9096 2.2444
6.9241 -3.6508 2.2401
7.0152 -3.3822 2.2315
7.1043 -3.1154 2.2255
7.1852 -2.8474 2.2199
7.2633 -2.5801 2.2165
7.3379 -2.3126 2.2151
7.0635 -1.9500 2.1120
7.4712 -1.7759 2.2158
7.5259 -1.5050 2.2170
7.5695 -1.2323 2.2176
7.6020 -0.9583 2.2179
7.6248 -0.6834 2.2181
7.6380 -0.4082 2.2184
7.6414 -0.1329 2.2187
7.6353 0.1422 2.2189
7.6195 0.4167 2.2192
7.5941 0.6902 2.2194
7.5592 0.9626 2.2197
6.4626 1.0607 1.9091
7.4611 1.5023 2.2203
7.3980 1.7690 2.2206
6.3241 1.7553 1.9172
7.2443 2.2947 2.2211
7.1538 2.5530 2.2214
7.0544 2.8080 2.2217
6.9463 3.0592 2.2220
6.8295 3.3064 2.2223
6.7041 3.5493 2.2225
6.5705 3.7877 2.2228
5.9339 3.7118 2.0520
6.2787 4.2497 2.2234
5.8256 4.2569 2.1164
5.9524 4.6876 2.2228
5.7793 4.8987 2.2229
5.6020 5.1065 2.2243
5.4233 5.3141 2.2280
5.2423 5.5205 2.2339
5.0579 5.7260 2.2417
4.8576 5.9158 2.2458
4.6411 6.0867 2.2453
4.4188 6.2499 2.2449
4.1909 6.4052 2.2444
3.9577 6.5525 2.2439
3.7194 6.6915 2.2434
3.4764 6.8221 2.2429
3.2296 6.9456 2.2428
2.9786 7.0605 2.2428
2.7237 7.1667 2.2427
2.4651 7.2639 2.2427
2.3051 7.6927 2.3465
0.8430 3.2322 0.9754
0.7261 3.2611 0.9749
0.6083 3.2857 0.9744
0.4897 3.3060 0.9738
0.3704 3.3220 0.9732
0.2506 3.3336 0.9726
0.1304 3.3410 0.9719
0.0101 3.3439 0.9711
-0.1103 3.3426 0.9704
-0.2306 3.3368 0.9696
-0.3506 3.3267 0.9687
-0.4701 3.3123 0.9678
-0.5891 3.2935 0.9669
-0.7073 3.2705 0.9659
-0.8246 3.2431 0.9650
-2.3375 7.9798 2.3951
-2.6261 7.8996 2.3951
-2.9119 7.8091 2.3951
-3.1947 7.7084 2.3951
-3.4741 7.5977 2.3951
-3.7496 7.4770 2.3951
-4.0210 7.3465 2.3951
-4.2879 7.2062 2.3951
-4.5500 7.0563 2.3951
-4.8069 6.8970 2.3951
-5.0582 6.7284 2.3951
-5.3036 6.5508 2.3951
-5.5428 6.3642 2.3951
-5.7754 6.1690 2.3951
-6.0012 5.9653 2.3951
-6.2198 5.7534 2.3951
-6.4309 5.5335 2.3951
-6.6342 5.3058 2.3951
-6.8294 5.0707 2.3951
-7.0161 4.8285 2.3951
-7.1943 4.5794 2.3951
-7.3635 4.3236 2.3951
-7.5236 4.0616 2.3951
-7.6742 3.7937 2.3951
-7.8151 3.5201 2.3951
-7.9462 3.2413 2.3951
-8.0672 2.9576 2.3951
-8.1779 2.6694 2.3951
-8.2781 2.3770 2.3951
-8.3677 2.0809 2.3951
-8.4465 1.7814 2.3951
-8.5143 1.4788 2.3951
-8.5711 1.1737 2.3951
-8.6167 0.8663 2.3951
-8.6511 0.5573 2.3951
-8.6740 0.2470 2.3951
-8.6856 -0.0643 2.3951
-8.6857 -0.3761 2.3951
-8.6743 -0.6879 2.3951
-8.6514 -0.9994 2.3951
-8.6170 -1.3100 2.3951
-8.5712 -1.6193 2.3951
-8.5139 -1.9270 2.3951
-8.4452 -2.2325 2.3951
-8.3652 -2.5353 2.3951
-8.2740 -2.8352 2.3951
-8.1717 -3.1317 2.3951
-8.0584 -3.4246 2.3951
-7.9343 -3.7131 2.3951
-7.7995 -3.9967 2.3951
-7.6542 -4.2753 2.3951
-7.4987 -4.5483 2.3951
-7.3330 -4.8155 2.3951
-7.1575 -5.0767 2.3951
-6.9723 -5.3308 2.3951
-6.7779 -5.5782 2.3951
-6.5743 -5.8181 2.3951
-6.3619 -6.0503 2.3951
-6.1411 -6.2744 2.3951
-5.9120 -6.4902 2.3951
-5.6751 -6.6973 2.3951
-5.4307 -6.8954 2.3951
-5.1792 -7.0843 2.3951
-4.9208 -7.2636 2.3951
-4.6560 -7.4332 2.3951
-4.3852 -7.5928 2.3951
-4.1088 -7.7422 2.3951
-3.8270 -7.8811 2.3951
-3.5404 -8.0095 2.3951
-3.2494 -8.1271 2.3951
-2.9544 -8.2337 2.3951
-2.6557 -8.3293 2.3951
-2.3540 -8.4138 2.3951
-2.0494 -8.4869 2.3951
-1.7426 -8.5488 2.3951
-1.4339 -8.5992 2.3951
-1.1238 -8.6381 2.3951
-0.8126 -8.6656 2.3951
-0.5010 -8.6815 2.3951
-0.1892 -8.6860 2.3951
0.1223 -8.6790 2.3951
0.4331 -8.6605 2.3951
0.7427 -8.6307 2.3951
1.0507 -8.5896 2.3951
1.3567 -8.5372 2.3951
1.6603 -8.4738 2.3951
1.9610 -8.3993 2.3951
2.2585 -8.3140 2.3951
2.5524 -8.2181 2.3951
2.8423 -8.1115 2.3951
3.1278 -7.9946 2.3951
3.4086 -7.8676 2.3951
3.6842 -7.7305 2.3951
3.9544 -7.5838 2.3951
4.2188 -7.4275 2.3951
4.4770 -7.2619 2.3951
4.7288 -7.0873 2.3951
4.9738 -6.9040 2.3951
5.0671 -6.5258 2.3286
5.0961 -6.0977 2.2427
5.3049 -5.9031 2.2427
5.5065 -5.7013 2.2428
5.7004 -5.4927 2.2428
5.8865 -5.2776 2.2428
6.0645 -5.0561 2.2429
6.2348 -4.8290 2.2431
6.3976 -4.5970 2.2436
6.5518 -4.3594 2.2441
6.6973 -4.1168 2.2446
6.8299 -3.8670 2.2438
6.9397 -3.6061 2.2386
7.0306 -3.3379 2.2305
7.1183 -3.0709 2.2245
7.1979 -2.8027 2.2190
7.2763 -2.5358 2.2163
7.3501 -2.2685 2.2150
7.0540 -1.9020 2.1061
7.4810 -1.7310 2.2160
7.5340 -1.4596 2.2171
7.5757 -1.1868 2.2177
6.8312 -0.8195 1.9919
7.6277 -0.6376 2.2182
7.6392 -0.3624 2.2184
7.6411 -0.0871 2.2187
7.6333 0.1879 2.2190
7.6159 0.4623 2.2192
7.5890 0.7357 2.2195
7.5525 1.0078 2.2198
6.4550 1.0992 1.9090
7.4513 1.5468 2.2203
7.3867 1.8132 2.2206
7.3128 2.0770 2.2209
7.2299 2.3379 2.2212
7.1379 2.5957 2.2215
7.0370 2.8500 2.2217
6.9274 3.1006 2.2220
6.8092 3.3471 2.2223
6.6825 3.5893 2.2226
6.5474 3.8269 2.2229
5.9251 3.7559 2.0568
6.2532 4.2863 2.2234
5.8163 4.3038 2.1224
5.9239 4.7232 2.2227
0.0456 3.0749 0.9690
-0.0652 3.0749 0.9683
-0.1758 3.0710 0.9675
-0.2863 3.0630 0.9668
-0.3964 3.0510 0.9660
-0.5060 3.0351 0.9651
-0.6150 3.0152 0.9643
-0.7232 2.9914 0.9634
-0.8304 2.9637 0.9624
-2.3330 7.3039 2.3951
-2.5971 7.2231 2.3951
-2.8584 7.1328 2.3951
-3.1166 7.0333 2.3951
-3.3713 6.9245 2.3951
-3.6223 6.8066 2.3951
-3.8693 6.6798 2.3951
-4.1118 6.5441 2.3951
-4.3496 6.3996 2.3951
-4.5823 6.2466 2.3951
-4.8096 6.0852 2.3951
-5.0313 5.9156 2.3951
-5.2470 5.7379 2.3951
-5.4565 5.5525 2.3951
-5.6594 5.3594 2.3951
-5.8554 5.1590 2.3951
-6.0443 4.9514 2.3951
-6.2258 4.7368 2.3951
-6.3996 4.5157 2.3951
-6.5656 4.2881 2.3951
-6.7234 4.0545 2.3951
-6.8727 3.8150 2.3951
-7.0135 3.5700 2.3951
-7.1455 3.3198 2.3951
-7.2684 3.0648 2.3951
-7.3821 2.8051 2.3951
-7.4863 2.5413 2.3951
-7.5810 2.2735 2.3951
-7.6660 2.0022 2.3951
-7.7410 1.7277 2.3951
-7.8061 1.4504 2.3951
-7.8610 1.1707 2.3951
-7.9057 0.8889 2.3951
-7.9401 0.6054 2.3951
-7.9641 0.3206 2.3951
-7.9776 0.0348 2.3951
-7.9807 -0.2516 2.3951
-7.9732 -0.5379 2.3951
-7.9552 -0.8241 2.3951
-7.9266 -1.1095 2.3951
-7.8875 -1.3940 2.3951
-7.8379 -1.6769 2.3951
-7.7779 -1.9581 2.3951
-7.7076 -2.2367 2.3951
-7.6269 -2.5131 2.3951
-7.5360 -2.7865 2.3951
-7.4350 -3.0562 2.3951
-7.3241 -3.3224 2.3951
-7.2033 -3.5840 2.3951
-7.0729 -3.8413 2.3951
-6.9331 -4.0936 2.3951
-6.7839 -4.3406 2.3951
-6.6256 -4.5820 2.3951
-6.4585 -4.8174 2.3951
-6.2828 -5.0465 2.3951
-6.0986 -5.2690 2.3951
-5.9063 -5.4844 2.3951
-5.7061 -5.6926 2.3951
-5.4984 -5.8933 2.3951
-5.2834 -6.0861 2.3951
-5.0614 -6.2707 2.3951
-4.8327 -6.4470 2.3951
-4.5977 -6.6147 2.3951
-4.3566 -6.7735 2.3951
-4.1099 -6.9232 2.3951
-3.8579 -7.0637 2.3951
-3.6010 -7.1946 2.3951
-3.3395 -7.3160 2.3951
-3.0738 -7.4275 2.3951
-2.8042 -7.5291 2.3951
-2.5312 -7.6206 2.3951
-2.2552 -7.7019 2.3951
-1.9765 -7.7729 2.3951
-1.6955 -7.8336 2.3951
-1.4126 -7.8838 2.3951
-1.1283 -7.9236 2.3951
-0.8428 -7.9528 2.3951
-0.5568 -7.9715 2.3951
-0.2704 -7.9796 2.3951
0.0159 -7.9773 2.3951
0.3017 -7.9644 2.3951
0.5865 -7.9411 2.3951
0.8701 -7.9073 2.3951
1.1520 -7.8633 2.3951
1.4319 -7.8090 2.3951
1.7093 -7.7446 2.3951
1.9839 -7.6702 2.3951
2.2554 -7.5859 2.3951
2.5234 -7.4918 2.3951
2.7875 -7.3881 2.3951
3.0473 -7.2751 2.3951
3.3027 -7.1528 2.3951
3.5532 -7.0214 2.3951
3.7985 -6.8812 2.3951
4.0382 -6.7324 2.3951
4.2723 -6.5752 2.3951
4.5002 -6.4097 2.3951
4.7217 -6.2365 2.3951
4.9367 -6.0555 2.3951
4.8931 -5.5801 2.2780
5.0134 -5.3191 2.2462
5.1868 -5.1212 2.2427
5.3610 -4.9256 2.2428
5.5279 -4.7241 2.2428
5.6873 -4.5170 2.2428
5.8390 -4.3045 2.2429
5.9829 -4.0871 2.2429
6.1199 -3.8655 2.2434
6.2488 -3.6394 2.2438
6.3694 -3.4090 2.2442
6.4816 -3.1746 2.2446
6.5852 -2.9366 2.2450
6.6717 -2.6918 2.2425
6.7396 -2.4412 2.2368
6.7978 -2.1890 2.2310
6.8513 -1.9371 2.2266
6.8972 -1.6846 2.2226
6.9350 -1.4315 2.2190
6.9713 -1.1792 2.2178
6.9999 -0.9266 2.2170
7.0214 -0.6730 2.2168
7.0356 -0.4197 2.2170
7.0408 -0.1657 2.2173
7.0379 0.0877 2.2179
7.0264 0.3409 2.2185
7.0058 0.5935 2.2190
6.9762 0.8447 2.2195
6.9374 1.0951 2.2199
6.8899 1.3434 2.2202
6.8334 1.5899 2.2205
6.7682 1.8340 2.2207
6.6944 2.0756 2.2209
6.6120 2.3139 2.2209
6.5210 2.5497 2.2209
6.4218 2.7817 2.2209
6.3147 3.0098 2.2208
6.2004 3.2346 2.2211
6.0785 3.4552 2.2213
5.9510 3.6725 2.2223
5.8169 3.8861 2.2237
5.6804 4.0985 2.2270
5.5386 4.3080 2.2313
5.3905 4.5137 2.2360
5.2396 4.7188 2.2427
5.0727 4.9109 2.2457
4.8918 5.0899 2.2454
4.7047 5.2623 2.2450
4.5116 5.4280 2.2446
4.3129 5.5868 2.2443
4.1087 5.7386 2.2438
3.8994 5.8830 2.2434
3.6851 6.0201 2.2430
3.4666 6.1504 2.2428
3.2437 6.2734 2.2428
3.0167 6.3885 2.2427
2.7857 6.4957 2.2427
2.5510 6.5949 2.2427
2.4317 7.0292 2.3579
0.8989 2.9370 0.9731
0.7927 2.9680 0.9727
0.6854 2.9951 0.9723
0.5771 3.0183 0.9718
0.4681 3.0376 0.9713
0.3585 3.0530 0.9707
0.2483 3.0644 0.9702
0.1379 3.0718 0.9695
0.0272 3.0752 0.9688
-0.0836 3.0745 0.9681
-0.1942 3.0699 0.9674
-0.3047 3.0613 0.9666
-0.4147 3.0487 0.9658
-0.5242 3.0321 0.9650
-0.6330 3.0115 0.9641
-0.7411 2.9870 0.9632
-0.8481 2.9587 0.9623
-2.3771 7.2911 2.3951
-2.6407 7.2087 2.3951
-2.9015 7.1169 2.3951
-3.1592 7.0158 2.3951
-3.4134 6.9055 2.3951
-3.6637 6.7862 2.3951
-3.9099 6.6578 2.3951
-4.1517 6.5206 2.3951
-4.3886 6.3748 2.3951
-4.6205 6.2203 2.3951
-4.8469 6.0576 2.3951
-5.0676 5.8866 2.3951
-5.2823 5.7076 2.3951
-5.4907 5.5209 2.3951
-5.6924 5.3266 2.3951
-5.8873 5.1249 2.3951
-6.0750 4.9161 2.3951
-6.2553 4.7005 2.3951
-6.4278 4.4782 2.3951
-6.5924 4.2497 2.3951
-6.7488 4.0150 2.3951
-6.8968 3.7746 2.3951
-7.0361 3.5288 2.3951
-7.1665 3.2777 2.3951
-7.2879 3.0219 2.3951
-7.4001 2.7615 2.3951
-7.5027 2.4970 2.3951
-7.5958 2.2286 2.3951
-7.6791 1.9568 2.3951
-7.7526 1.6818 2.3951
-7.8159 1.4041 2.3951
-7.8692 1.1239 2.3951
-7.9122 0.8418 2.3951
-7.9448 0.5581 2.3951
-7.9671 0.2731 2.3951
-7.9789 -0.0127 2.3951
-7.9802 -0.2990 2.3951
-7.9709 -0.5856 2.3951
-7.9512 -0.8715 2.3951
-7.9208 -1.1571 2.3951
-7.8800 -1.4412 2.3951
-7.8287 -1.7238 2.3951
-7.7669 -2.0047 2.3951
-7.6948 -2.2831 2.3951
-7.6124 -2.5590 2.3951
-7.5199 -2.8315 2.3951
-7.4172 -3.1007 2.3951
-7.3047 -3.3661 2.3951
-7.1823 -3.6272 2.3951
-7.0503 -3.8836 2.3951
-6.9089 -4.1351 2.3951
-6.7582 -4.3812 2.3951
-6.5985 -4.6216 2.3951
-6.4299 -4.8560 2.3951
-6.2527 -5.0840 2.3951
-6.0672 -5.3053 2.3951
-5.8735 -5.5196 2.3951
-5.6721 -5.7266 2.3951
-5.4631 -5.9259 2.3951
-5.2469 -6.1174 2.3951
-5.0238 -6.3006 2.3951
-4.7940 -6.4755 2.3951
-4.5580 -6.6417 2.3951
-4.3160 -6.7990 2.3951
-4.0684 -6.9472 2.3951
-3.8155 -7.0861 2.3951
-3.5578 -7.2155 2.3951
-3.2956 -7.3352 2.3951
-3.0292 -7.4451 2.3951
-2.7590 -7.5450 2.3951
-2.4855 -7.6348 2.3951
-2.2090 -7.7145 2.3951
-1.9298 -7.7838 2.3951
-1.6486 -7.8426 2.3951
-1.3654 -7.8911 2.3951
-1.0808 -7.9292 2.3951
-0.7953 -7.9567 2.3951
-0.5091 -7.9736 2.3951
-0.2227 -7.9800 2.3951
0.0635 -7.9758 2.3951
0.3491 -7.9612 2.3951
0.6338 -7.9362 2.3951
0.9171 -7.9007 2.3951
1.1987 -7.8550 2.3951
1.4782 -7.7990 2.3951
1.7552 -7.7329 2.3951
2.0293 -7.6568 2.3951
2.3002 -7.5708 2.3951
2.5676 -7.4752 2.3951
2.8310 -7.3700 2.3951
3.0902 -7.2554 2.3951
3.3447 -7.1315 2.3951
3.5943 -6.9987 2.3951
3.8387 -6.8571 2.3951
4.0776 -6.7068 2.3951
4.3106 -6.5482 2.3951
4.5375 -6.3815 2.3951
4.7579 -6.2068 2.3951
4.9549 -6.0042 2.3869
4.8817 -5.5004 2.2577
5.0361 -5.2796 2.2427
5.2163 -5.0891 2.2427
5.3893 -4.8925 2.2428
5.5550 -4.6901 2.2428
5.7131 -4.4820 2.2428
5.8635 -4.2687 2.2429
6.0062 -4.0505 2.2430
6.1419 -3.8282 2.2434
6.2694 -3.6013 2.2439
6.3887 -3.3703 2.2443
6.4994 -3.1353 2.2447
6.6006 -2.8962 2.2447
6.6852 -2.6508 2.2421
6.7495 -2.3989 2.2357
6.8072 -2.1472 2.2302
6.8595 -1.8952 2.2259
6.9040 -1.6424 2.2220
6.9409 -1.3895 2.2186
6.9766 -1.1372 2.2176
7.0038 -0.8844 2.2168
7.0243 -0.6309 2.2168
7.0370 -0.3769 2.2171
7.0408 -0.1235 2.2174
7.0366 0.1299 2.2180
7.0236 0.3830 2.2186
7.0014 0.6355 2.2191
6.9703 0.8866 2.2196
6.9302 1.1362 2.2200
6.8811 1.3844 2.2203
6.8232 1.6306 2.2206
6.7566 1.8742 2.2208
6.6812 2.1155 2.2209
6.5973 2.3538 2.2209
6.5051 2.5886 2.2209
6.4045 2.8199 2.2209
6.2961 3.0479 2.2209
6.1806 3.2720 2.2211
6.0574 3.4915 2.2213
5.9292 3.7083 2.2225
5.7939 3.9211 2.2239
5.6573 4.1336 2.2277
5.5144 4.3424 2.2320
5.3656 4.5480 2.2370
5.2129 4.7521 2.2435
5.0431 4.9412 2.2457
4.8611 5.1190 2.2453
4.6730 5.2903 2.2450
4.4789 5.4549 2.2446
4.2793 5.6126 2.2442
4.0742 5.7631 2.2438
3.8640 5.9064 2.2433
3.6489 6.0422 2.2429
3.4298 6.1714 2.2428
3.2063 6.2931 2.2428
2.9785 6.4069 2.2427
2.7469 6.5128 2.2427
2.5261 6.6509 2.2558
2.4120 7.1098 2.3798
0.8813 2.9424 0.9731
0.7749 2.9727 0.9727
0.6674 2.9992 0.9722
0.5591 3.0218 0.9717
0.4499 3.0405 0.9712
0.3402 3.0552 0.9706
0.2300 3.0659 0.9700
0.1195 3.0726 0.9694
0.0087 3.0753 0.9687
-0.1020 3.0740 0.9680
-0.2126 3.0687 0.9673
-0.3230 3.0594 0.9665
-0.4330 3.0462 0.9657
-0.5424 3.0289 0.9648
-0.6511 3.0077 0.9640
-0.7590 2.9826 0.9631
-0.8658 2.9536 0.9621
-2.4212 7.2781 2.3951
-2.6843 7.1941 2.3951
-2.9447 7.1007 2.3951
-3.2017 6.9981 2.3951
-3.4553 6.8863 2.3951
-3.7050 6.7654 2.3951
-3.9505 6.6356 2.3951
-4.1915 6.4970 2.3951
-4.4276 6.3497 2.3951
-4.6585 6.1938 2.3951
-4.8841 6.0297 2.3951
-5.1038 5.8574 2.3951
-5.3174 5.6771 2.3951
-5.5247 5.4891 2.3951
-5.7254 5.2935 2.3951
-5.9190 5.0907 2.3951
-6.1055 4.8807 2.3951
-6.2845 4.6639 2.3951
-6.4557 4.4406 2.3951
-6.6190 4.2110 2.3951
-6.7740 3.9754 2.3951
-6.9206 3.7341 2.3951
-7.0584 3.4873 2.3951
-7.1874 3.2355 2.3951
-7.3072 2.9789 2.3951
-7.4178 2.7178 2.3951
-7.5189 2.4526 2.3951
-7.6104 2.1836 2.3951
-7.6920 1.9112 2.3951
-7.7638 1.6358 2.3951
-7.8255 1.3576 2.3951
-7.8770 1.0771 2.3951
-7.9183 0.7947 2.3951
-7.9493 0.5107 2.3951
-7.9698 0.2255 2.3951
-7.9798 -0.0607 2.3951
-7.9794 -0.3468 2.3951
-7.9684 -0.6331 2.3951
-7.9468 -0.9192 2.3951
-7.9148 -1.2042 2.3951
-7.8722 -1.4883 2.3951
-7.8191 -1.7706 2.3951
-7.7556 -2.0511 2.3951
-7.6818 -2.3291 2.3951
-7.5977 -2.6043 2.3951
-7.5035 -2.8766 2.3951
-7.3992 -3.1452 2.3951
-7.2850 -3.4099 2.3951
-7.1610 -3.6702 2.3951
-7.0274 -3.9258 2.3951
-6.8845 -4.1764 2.3951
-6.7322 -4.4216 2.3951
-6.5710 -4.6610 2.3951
-6.4010 -4.8944 2.3951
-6.2224 -5.1213 2.3951
-6.0355 -5.3415 2.3951
-5.8406 -5.5545 2.3951
-5.6378 -5.7603 2.3951
-5.4276 -5.9583 2.3951
-5.2103 -6.1484 2.3951
-4.9860 -6.3303 2.3951
-4.7552 -6.5038 2.3951
-4.5181 -6.6685 2.3951
-4.2752 -6.8243 2.3951
-4.0267 -6.9710 2.3951
-3.7730 -7.1083 2.3951
-3.5145 -7.2361 2.3951
-3.2515 -7.3542 2.3951
-2.9845 -7.4624 2.3951
-2.7137 -7.5607 2.3951
-2.4397 -7.6488 2.3951
-2.1627 -7.7267 2.3951
-1.8832 -7.7943 2.3951
-1.6015 -7.8515 2.3951
-1.3181 -7.8982 2.3951
-1.0334 -7.9344 2.3951
-0.7477 -7.9602 2.3951
-0.4615 -7.9754 2.3951
-0.1751 -7.9800 2.3951
0.1111 -7.9741 2.3951
0.3966 -7.9578 2.3951
0.6810 -7.9310 2.3951
0.9641 -7.8938 2.3951
1.2454 -7.8463 2.3951
1.5245 -7.7887 2.3951
1.8010 -7.7209 2.3951
2.0746 -7.6432 2.3951
2.3450 -7.5556 2.3951
2.6117 -7.4584 2.3951
2.8744 -7.3516 2.3951
3.1328 -7.2354 2.3951
3.3866 -7.1101 2.3951
3.6354 -6.9758 2.3951
3.8789 -6.8327 2.3951
4.1167 -6.6809 2.3951
4.3488 -6.5211 2.3951
4.5746 -6.3530 2.3951
4.7940 -6.1770 2.3951
4.9421 -5.9163 2.3642
4.8834 -5.4365 2.2439
5.0666 -5.2483 2.2427
5.2456 -5.0568 2.2427
5.4174 -4.8592 2.2428
5.5818 -4.6558 2.2428
5.7387 -4.4469 2.2429
5.8878 -4.2328 2.2429
6.0294 -4.0138 2.2430
6.1637 -3.7907 2.2435
6.2899 -3.5632 2.2439
6.4077 -3.3314 2.2444
6.5170 -3.0958 2.2448
6.6152 -2.8556 2.2443
6.6978 -2.6096 2.2415
6.7592 -2.3573 2.2346
6.8165 -2.1058 2.2294
6.8675 -1.8532 2.2252
6.9107 -1.6006 2.2214
6.9475 -1.3476 2.2184
6.9817 -1.0951 2.2175
6.8314 -0.8209 2.1610
7.0271 -0.5887 2.2168
7.0383 -0.3350 2.2171
7.0406 -0.0814 2.2174
7.0351 0.1721 2.2181
7.0205 0.4250 2.2187
6.9969 0.6772 2.2192
6.9642 0.9282 2.2196
6.9225 1.1782 2.2200
6.8721 1.4254 2.2203
6.8127 1.6715 2.2206
6.7446 1.9146 2.2208
6.6679 2.1553 2.2209
6.5825 2.3932 2.2209
6.4889 2.6273 2.2209
6.3869 2.8580 2.2208
6.2774 3.0856 2.2209
6.1607 3.3085 2.2211
6.0364 3.5275 2.2214
5.9072 3.7439 2.2227
5.7712 3.9565 2.2244
5.6340 4.1685 2.2284
5.4900 4.3766 2.2327
0.0417 2.8432 0.9669
-0.0607 2.8433 0.9662
-0.1631 2.8396 0.9655
-0.2653 2.8322 0.9648
-0.3671 2.8211 0.9641
-0.4685 2.8064 0.9633
-0.5692 2.7880 0.9625
-0.6693 2.7660 0.9617
-0.7684 2.7403 0.9608
-0.8666 2.7111 0.9599
-2.4066 6.6889 2.3951
-2.6485 6.6049 2.3951
-2.8874 6.5122 2.3951
-3.1231 6.4110 2.3951
-3.3553 6.3013 2.3951
-3.5836 6.1834 2.3951
-3.8078 6.0572 2.3951
-4.0276 5.9230 2.3951
-4.2427 5.7809 2.3951
-4.4528 5.6310 2.3951
-4.6576 5.4736 2.3951
-4.8569 5.3088 2.3951
-5.0503 5.1367 2.3951
-5.2376 4.9577 2.3951
-5.4185 4.7717 2.3951
-5.5928 4.5793 2.3951
-5.7602 4.3805 2.3951
-5.9205 4.1755 2.3951
-6.0735 3.9647 2.3951
-6.2189 3.7483 2.3951
-6.3566 3.5266 2.3951
-6.4862 3.2998 2.3951
-6.6077 3.0682 2.3951
-6.7208 2.8321 2.3951
-6.8253 2.5919 2.3951
-6.9212 2.3478 2.3951
-7.0082 2.1001 2.3951
-7.0862 1.8492 2.3951
-7.1550 1.5955 2.3951
-7.2147 1.3391 2.3951
-7.2649 1.0805 2.3951
-7.3057 0.8201 2.3951
-7.3370 0.5581 2.3951
-7.3587 0.2949 2.3951
-7.3707 0.0309 2.3951
-7.3731 -0.2335 2.3951
-7.3657 -0.4981 2.3951
-7.3487 -0.7623 2.3951
-7.3219 -1.0260 2.3951
-7.2854 -1.2886 2.3951
-7.2393 -1.5499 2.3951
-7.1835 -1.8094 2.3951
-7.1182 -2.0668 2.3951
-7.0434 -2.3218 2.3951
-6.9593 -2.5740 2.3951
-6.8658 -2.8230 2.3951
-6.7632 -3.0685 2.3951
-6.6515 -3.3101 2.3951
-6.5309 -3.5475 2.3951
-6.4017 -3.7803 2.3951
-6.2638 -4.0083 2.3951
-6.1176 -4.2311 2.3951
-5.9633 -4.4483 2.3951
-5.8010 -4.6597 2.3951
-5.6309 -4.8651 2.3951
-5.4534 -5.0639 2.3951
-5.2686 -5.2561 2.3951
-5.0768 -5.4413 2.3951
-4.8784 -5.6193 2.3951
-4.6735 -5.7898 2.3951
-4.4624 -5.9526 2.3951
-4.2455 -6.1075 2.3951
-4.0231 -6.2542 2.3951
-3.7954 -6.3926 2.3951
-3.5629 -6.5224 2.3951
-3.3258 -6.6435 2.3951
-3.0844 -6.7557 2.3951
-2.8392 -6.8589 2.3951
-2.5904 -6.9529 2.3951
-2.3384 -7.0377 2.3951
-2.0836 -7.1130 2.3951
-1.8263 -7.1790 2.3951
-1.5669 -7.2353 2.3951
-1.3058 -7.2821 2.3951
-1.0433 -7.3191 2.3951
-0.7797 -7.3465 2.3951
-0.5155 -7.3642 2.3951
-0.2510 -7.3722 2.3951
0.0134 -7.3704 2.3951
0.2774 -7.3590 2.3951
0.5407 -7.3379 2.3951
0.8027 -7.3072 2.3951
1.0632 -7.2670 2.3951
1.3219 -7.2173 2.3951
1.5784 -7.1584 2.3951
1.8324 -7.0902 2.3951
2.0834 -7.0127 2.3951
2.3313 -6.9263 2.3951
2.5756 -6.8310 2.3951
2.8160 -6.7270 2.3951
3.0524 -6.6145 2.3951
3.2842 -6.4936 2.3951
3.5113 -6.3644 2.3951
3.7333 -6.2273 2.3951
3.9501 -6.0824 2.3951
4.1612 -5.9300 2.3951
4.3665 -5.7701 2.3951
4.5657 -5.6032 2.3951
4.7586 -5.4294 2.3951
4.7889 -5.0833 2.3195
4.7983 -4.7399 2.2427
4.9599 -4.5593 2.2427
5.1147 -4.3731 2.2427
5.2627 -4.1818 2.2428
5.4036 -3.9855 2.2428
5.5372 -3.7844 2.2428
5.6634 -3.5790 2.2429
5.7821 -3.3694 2.2429
5.8939 -3.1562 2.2432
5.9981 -2.9395 2.2436
6.0944 -2.7194 2.2439
6.1827 -2.4961 2.2443
6.2629 -2.2701 2.2446
6.3350 -2.0415 2.2449
6.3972 -1.8102 2.2447
6.4466 -1.5760 2.2428
6.4829 -1.3396 2.2394
6.5079 -1.1020 2.2349
6.5277 -0.8651 2.2316
6.5413 -0.6282 2.2290
6.5477 -0.3916 2.2268
6.5467 -0.1553 2.2250
6.5382 0.0805 2.2234
6.5225 0.3155 2.2222
6.4994 0.5493 2.2213
6.4693 0.7825 2.2208
6.4327 1.0144 2.2208
6.3884 1.2448 2.2210
6.3363 1.4734 2.2213
6.2765 1.7000 2.2216
6.2099 1.9247 2.2224
6.1368 2.1476 2.2236
6.0569 2.3677 2.2252
5.9702 2.5855 2.2271
5.8765 2.8006 2.2292
5.7762 3.0128 2.2317
5.6695 3.2223 2.2346
5.5580 3.4301 2.2386
5.4405 3.6343 2.2432
5.3094 3.8304 2.2450
5.1680 4.0195 2.2455
5.0186 4.2022 2.2452
4.8629 4.3795 2.2449
4.7011 4.5511 2.2446
4.5334 4.7170 2.2443
4.3599 4.8768 2.2440
4.1810 5.0304 2.2436
3.9968 5.1777 2.2432
3.8075 5.3183 2.2429
3.6140 5.4532 2.2428
3.4159 5.5811 2.2428
3.2134 5.7022 2.2427
3.0067 5.8161 2.2427
2.7961 5.9227 2.2427
2.6233 6.1188 2.2786
2.5230 6.5243 2.3933
2.2891 6.6192 2.3951
0.8309 2.7158 0.9707
0.7326 2.7445 0.9704
0.6334 2.7695 0.9700
0.5333 2.7910 0.9695
0.4325 2.8089 0.9690
0.3311 2.8230 0.9685
0.2292 2.8335 0.9680
0.1270 2.8404 0.9674
0.0246 2.8435 0.9668
-0.0778 2.8429 0.9661
-0.1801 2.8386 0.9654
-0.2822 2.8306 0.9647
-0.3840 2.8189 0.9640
-0.4853 2.8036 0.9632
-0.5859 2.7846 0.9624
-0.6858 2.7620 0.9615
-0.7848 2.7357 0.9607
-0.8828 2.7059 0.9598
-2.4471 6.6755 2.3951
-2.6884 6.5900 2.3951
-2.9268 6.4959 2.3951
-3.1620 6.3933 2.3951
-3.3935 6.2823 2.3951
-3.6212 6.1629 2.3951
-3.8447 6.0354 2.3951
-4.0638 5.8999 2.3951
-4.2780 5.7565 2.3951
-4.4873 5.6054 2.3951
-4.6912 5.4467 2.3951
-4.8895 5.2806 2.3951
-5.0819 5.1074 2.3951
-5.2681 4.9272 2.3951
-5.4479 4.7402 2.3951
-5.6211 4.5466 2.3951
-5.7874 4.3468 2.3951
-5.9465 4.1409 2.3951
-6.0982 3.9291 2.3951
-6.2424 3.7118 2.3951
-6.3787 3.4892 2.3951
-6.5070 3.2616 2.3951
-6.6271 3.0292 2.3951
-6.7388 2.7925 2.3951
-6.8419 2.5516 2.3951
-6.9363 2.3068 2.3951
-7.0218 2.0586 2.3951
-7.0983 1.8072 2.3951
-7.1656 1.5530 2.3951
-7.2237 1.2962 2.3951
-7.2724 1.0373 2.3951
-7.3116 0.7766 2.3951
-7.3413 0.5144 2.3951
-7.3614 0.2510 2.3951
-7.3718 -0.0130 2.3951
-7.3725 -0.2775 2.3951
-7.3636 -0.5421 2.3951
-7.3449 -0.8062 2.3951
-7.3165 -1.0697 2.3951
-7.2784 -1.3322 2.3951
-7.2307 -1.5932 2.3951
-7.1733 -1.8524 2.3951
-7.1064 -2.1094 2.3951
-7.0301 -2.3640 2.3951
-6.9443 -2.6157 2.3951
-6.8493 -2.8641 2.3951
-6.7452 -3.1090 2.3951
-6.6320 -3.3499 2.3951
-6.5100 -3.5866 2.3951
-6.3793 -3.8186 2.3951
-6.2401 -4.0457 2.3951
-6.0925 -4.2676 2.3951
-5.9368 -4.4839 2.3951
-5.7732 -4.6943 2.3951
-5.6019 -4.8986 2.3951
-5.4231 -5.0964 2.3951
-5.2372 -5.2874 2.3951
-5.0443 -5.4715 2.3951
-4.8447 -5.6482 2.3951
-4.6388 -5.8175 2.3951
-4.4267 -5.9790 2.3951
-4.2089 -6.1325 2.3951
-3.9856 -6.2778 2.3951
-3.7571 -6.4148 2.3951
-3.5237 -6.5431 2.3951
-3.2859 -6.6628 2.3951
-3.0439 -6.7735 2.3951
-2.7980 -6.8752 2.3951
-2.5487 -6.9677 2.3951
-2.2962 -7.0509 2.3951
-2.0410 -7.1247 2.3951
-1.7833 -7.1890 2.3951
-1.5236 -7.2438 2.3951
-1.2622 -7.2889 2.3951
-0.9995 -7.3244 2.3951
-0.7358 -7.3501 2.3951
-0.4715 -7.3662 2.3951
-0.2070 -7.3725 2.3951
0.0574 -7.3692 2.3951
0.3213 -7.3561 2.3951
0.5843 -7.3335 2.3951
0.8462 -7.3012 2.3951
1.1064 -7.2594 2.3951
1.3648 -7.2082 2.3951
1.6208 -7.1476 2.3951
1.8743 -7.0778 2.3951
2.1249 -6.9990 2.3951
2.3722 -6.9110 2.3951
2.6159 -6.8143 2.3951
2.8557 -6.7089 2.3951
3.0912 -6.5949 2.3951
3.3223 -6.4726 2.3951
3.5486 -6.3422 2.3951
3.7698 -6.2038 2.3951
3.9856 -6.0576 2.3951
4.1958 -5.9039 2.3951
4.4001 -5.7428 2.3951
4.5982 -5.5747 2.3951
4.7900 -5.3998 2.3951
4.7787 -5.0121 2.3005
4.8256 -4.7101 2.2427
4.9861 -4.5287 2.2427
5.1398 -4.3417 2.2427
5.2866 -4.1495 2.2428
5.4263 -3.9523 2.2428
5.5587 -3.7505 2.2428
5.6837 -3.5444 2.2429
5.8011 -3.3341 2.2429
5.9117 -3.1204 2.2433
6.0147 -2.9031 2.2436
6.1096 -2.6824 2.2440
6.1966 -2.4587 2.2443
6.2755 -2.2322 2.2447
6.3461 -2.0032 2.2450
6.4060 -1.7713 2.2443
6.4540 -1.5366 2.2425
6.4876 -1.3001 2.2386
6.5114 -1.0627 2.2342
6.5305 -0.8257 2.2311
6.5428 -0.5888 2.2286
6.5480 -0.3522 2.2265
6.5458 -0.1160 2.2247
6.5362 0.1194 2.2232
6.5191 0.3545 2.2220
6.4949 0.5883 2.2212
6.4638 0.8212 2.2208
6.4259 1.0528 2.2209
6.3802 1.2829 2.2210
6.3269 1.5112 2.2213
6.2658 1.7375 2.2217
6.1982 1.9618 2.2226
6.1241 2.1841 2.2239
6.0430 2.4041 2.2255
5.9551 2.6214 2.2274
5.8603 2.8361 2.2296
5.7590 3.0473 2.2322
5.6511 3.2568 2.2352
5.5390 3.4643 2.2394
5.4192 3.6673 2.2435
5.2869 3.8627 2.2454
5.1436 4.0502 2.2454
4.9931 4.2320 2.2452
4.8364 4.4084 2.2449
4.6736 4.5791 2.2446
4.5049 4.7440 2.2442
4.3305 4.9028 2.2439
4.1507 5.0554 2.2436
3.9657 5.2015 2.2432
3.7757 5.3412 2.2428
3.5814 5.4749 2.2428
3.3825 5.6018 2.2428
3.1793 5.7216 2.2427
2.9720 5.8343 2.2427
2.7608 5.9398 2.2427
2.6073 6.1835 2.2968
2.4859 6.5448 2.3951
0.9120 2.6893 0.9710
0.8146 2.7208 0.9707
0.7162 2.7489 0.9703
0.6168 2.7734 0.9699
0.5166 2.7942 0.9694
0.4156 2.8115 0.9690
0.3141 2.8250 0.9684
0.2122 2.8349 0.9679
0.1100 2.8411 0.9673
0.0076 2.8436 0.9667
-0.0948 2.8424 0.9660
-0.1971 2.8375 0.9653
-0.2992 2.8289 0.9646
-0.4009 2.8166 0.9638
-0.5021 2.8007 0.9631
-0.6026 2.7811 0.9622
-0.7024 2.7578 0.9614
-0.8012 2.7310 0.9605
-0.8990 2.7006 0.9596
-2.4874 6.6619 2.3951
-2.7283 6.5750 2.3951
-2.9662 6.4794 2.3951
-3.2008 6.3754 2.3951
-3.4317 6.2630 2.3951
-3.6587 6.1423 2.3951
-3.8815 6.0134 2.3951
-4.0997 5.8766 2.3951
-4.3132 5.7319 2.3951
-4.5216 5.5795 2.3951
-4.7245 5.4195 2.3951
-4.9219 5.2523 2.3951
-5.1133 5.0778 2.3951
-5.2985 4.8965 2.3951
-5.4772 4.7084 2.3951
-5.6493 4.5138 2.3951
-5.8144 4.3129 2.3951
-5.9723 4.1060 2.3951
-6.1228 3.8933 2.3951
-6.2656 3.6751 2.3951
-6.4006 3.4517 2.3951
-6.5276 3.2232 2.3951
-6.6463 2.9901 2.3951
-6.7565 2.7526 2.3951
-6.8582 2.5111 2.3951
-6.9511 2.2658 2.3951
-7.0352 2.0170 2.3951
-7.1101 1.7651 2.3951
-7.1759 1.5104 2.3951
-7.2324 1.2533 2.3951
-7.2795 0.9940 2.3951
-7.3172 0.7330 2.3951
-7.3453 0.4706 2.3951
-7.3638 0.2071 2.3951
-7.3726 -0.0570 2.3951
-7.3717 -0.3215 2.3951
-7.3611 -0.5860 2.3951
-7.3409 -0.8501 2.3951
-7.3108 -1.1135 2.3951
-7.2711 -1.3757 2.3951
-7.2218 -1.6364 2.3951
-7.1629 -1.8953 2.3951
-7.0944 -2.1520 2.3951
-7.0165 -2.4061 2.3951
-6.9292 -2.6572 2.3951
-6.8326 -2.9051 2.3951
-6.7270 -3.1493 2.3951
-6.6124 -3.3896 2.3951
-6.4889 -3.6255 2.3951
-6.3567 -3.8568 2.3951
-6.2161 -4.0830 2.3951
-6.0672 -4.3040 2.3951
-5.9101 -4.5193 2.3951
-5.7452 -4.7288 2.3951
-5.5726 -4.9320 2.3951
-5.3927 -5.1286 2.3951
-5.2055 -5.3185 2.3951
-5.0115 -5.5014 2.3951
-4.8109 -5.6769 2.3951
-4.6039 -5.8449 2.3951
-4.3909 -6.0051 2.3951
-4.1721 -6.1572 2.3951
-3.9479 -6.3012 2.3951
-3.7186 -6.4367 2.3951
-3.4845 -6.5636 2.3951
-3.2459 -6.6818 2.3951
-3.0032 -6.7910 2.3951
-2.7568 -6.8912 2.3951
-2.5069 -6.9822 2.3951
-2.2539 -7.0638 2.3951
-1.9983 -7.1360 2.3951
-1.7402 -7.1988 2.3951
-1.4802 -7.2519 2.3951
-1.2186 -7.2955 2.3951
-0.9557 -7.3293 2.3951
-0.6918 -7.3535 2.3951
-0.4275 -7.3679 2.3951
-0.1630 -7.3726 2.3951
0.1014 -7.3677 2.3951
0.3651 -7.3530 2.3951
0.6280 -7.3287 2.3951
0.8896 -7.2949 2.3951
1.1496 -7.2516 2.3951
1.4076 -7.1988 2.3951
1.6632 -7.1367 2.3951
1.9162 -7.0653 2.3951
2.1663 -6.9850 2.3951
2.4130 -6.8956 2.3951
2.6560 -6.7974 2.3951
2.8951 -6.6905 2.3951
3.1300 -6.5752 2.3951
3.3603 -6.4515 2.3951
3.5857 -6.3197 2.3951
3.8061 -6.1800 2.3951
4.0210 -6.0325 2.3951
4.2302 -5.8776 2.3951
4.4335 -5.7153 2.3951
4.6306 -5.5462 2.3951
4.8213 -5.3700 2.3951
4.7686 -4.9419 2.2818
4.8528 -4.6804 2.2427
5.0122 -4.4979 2.2427
5.1648 -4.3100 2.2427
5.3104 -4.1170 2.2428
5.4488 -3.9191 2.2428
5.5800 -3.7166 2.2428
5.7037 -3.5096 2.2429
5.8200 -3.2987 2.2429
5.9294 -3.0845 2.2433
6.0310 -2.8666 2.2437
6.1247 -2.6454 2.2441
6.2103 -2.4212 2.2444
6.2878 -2.1943 2.2447
6.3571 -1.9649 2.2450
6.4145 -1.7324 2.2440
6.4612 -1.4976 2.2422
6.4920 -1.2606 2.2378
6.5147 -1.0231 2.2335
6.5331 -0.7864 2.2307
6.5442 -0.5494 2.2282
6.5482 -0.3129 2.2262
6.5447 -0.0768 2.2244
6.5338 0.1588 2.2230
