ply
format ascii 1.0
element vertex 2172
property float32 x
property float32 y
property float32 z
end_header
-7.1144 -0.9326 2.3923
-7.0833 -1.1905 2.3923
-7.0436 -1.4474 2.3923
-6.9953 -1.7032 2.3923
-6.9384 -1.9576 2.3923
-6.8729 -2.2102 2.3923
-6.7988 -2.4609 2.3923
-6.7163 -2.7093 2.3923
-6.6253 -2.9552 2.3923
-6.5260 -3.1983 2.3923
-6.4183 -3.4383 2.3923
-6.3024 -3.6751 2.3923
-6.1783 -3.9082 2.3923
-6.0462 -4.1374 2.3923
-5.9060 -4.3626 2.3923
-5.7580 -4.5833 2.3923
-5.6022 -4.7993 2.3923
-5.4388 -5.0103 2.3923
-5.2678 -5.2162 2.3923
-5.0895 -5.4166 2.3923
-4.9039 -5.6112 2.3923
-4.7113 -5.7998 2.3923
-4.5118 -5.9821 2.3923
-4.3056 -6.1579 2.3923
-4.0929 -6.3269 2.3923
-3.8738 -6.4889 2.3923
-3.6486 -6.6436 2.3923
-3.4175 -6.7907 2.3923
-3.1808 -6.9301 2.3923
-2.9386 -7.0615 2.3923
-2.6913 -7.1846 2.3923
-2.4390 -7.2993 2.3923
-2.1821 -7.4054 2.3923
-1.9209 -7.5025 2.3923
-1.6556 -7.5905 2.3923
-1.3866 -7.6693 2.3923
-1.1141 -7.7387 2.3923
-0.8385 -7.7984 2.3923
-0.5602 -7.8483 2.3923
-0.2794 -7.8883 2.3923
0.0035 -7.9181 2.3923
0.2880 -7.9378 2.3923
0.5739 -7.9472 2.3923
0.8592 -7.9317 2.3880
1.0750 -7.4290 2.2399
1.3443 -7.4084 2.2400
1.6135 -7.3783 2.2402
1.8825 -7.3396 2.2408
2.1507 -7.2910 2.2415
2.4176 -7.2322 2.2421
2.6829 -7.1633 2.2427
2.9461 -7.0843 2.2434
3.2069 -6.9953 2.2440
3.4526 -6.8719 2.2367
3.7027 -6.7567 2.2351
3.9517 -6.6370 2.2352
3.9525 -6.1294 2.1053
4.4368 -6.3690 2.2354
4.6721 -6.2210 2.2356
4.9021 -6.0638 2.2357
5.1264 -5.8977 2.2359
5.3446 -5.7229 2.2360
5.5563 -5.5395 2.2362
5.7611 -5.3478 2.2364
5.9587 -5.1480 2.2365
6.1488 -4.9405 2.2367
6.3310 -4.7255 2.2369
4.4723 -3.0962 1.5381
6.6705 -4.2745 2.2373
6.8271 -4.0390 2.2375
6.9747 -3.7975 2.2378
7.1130 -3.5501 2.2380
7.2416 -3.2974 2.2382
4.6648 -1.9264 1.4187
7.4692 -2.7773 2.2387
7.5677 -2.5108 2.2390
7.6558 -2.2405 2.2392
7.7334 -1.9669 2.2395
7.8002 -1.6905 2.2398
7.8562 -1.4116 2.2401
7.9013 -1.1307 2.2404
7.9353 -0.8483 2.2406
4.9345 -0.3502 1.3895
4.9645 -0.1749 1.3960
4.9948 0.0022 1.4045
5.0254 0.1814 1.4151
5.0566 0.3633 1.4279
7.9077 0.8524 2.2424
7.8646 1.1327 2.2427
7.8107 1.4108 2.2430
7.7462 1.6863 2.2433
7.6711 1.9589 2.2436
7.5856 2.2280 2.2439
7.4899 2.4934 2.2442
7.3842 2.7544 2.2445
7.2683 3.0107 2.2446
7.1410 3.2612 2.2442
7.0046 3.5061 2.2438
6.8591 3.7452 2.2434
6.7051 3.9781 2.2430
5.6186 3.6107 1.9259
5.7593 3.9987 2.0267
5.6624 4.2389 2.0496
6.0036 4.8383 2.2399
5.8117 5.0366 2.2399
5.6131 5.2270 2.2399
5.4079 5.4095 2.2399
5.1965 5.5837 2.2399
4.9794 5.7496 2.2399
4.7568 5.9068 2.2399
4.8373 6.4674 2.3923
4.5891 6.6165 2.3923
4.3363 6.7561 2.3923
4.0792 6.8859 2.3923
3.8183 7.0059 2.3923
3.5539 7.1159 2.3923
3.2864 7.2160 2.3923
3.0162 7.3061 2.3923
2.7438 7.3861 2.3923
2.4694 7.4561 2.3923
0.8633 2.9581 0.9416
0.7565 2.9867 0.9444
0.6488 3.0114 0.9473
0.5402 3.0323 0.9501
0.4309 3.0491 0.9529
0.3211 3.0620 0.9557
0.2109 3.0710 0.9585
0.1004 3.0759 0.9613
-0.0102 3.0769 0.9640
-0.1208 3.0738 0.9668
-0.2312 3.0668 0.9694
-0.3412 3.0557 0.9721
-0.4508 3.0407 0.9747
-0.5598 3.0218 0.9772
-0.6681 2.9989 0.9797
-0.7754 2.9721 0.9822
-0.8817 2.9414 0.9846
-2.3919 7.0462 2.3923
-2.6374 6.9374 2.3923
-2.8784 6.8205 2.3923
-3.1148 6.6957 2.3923
-3.3461 6.5633 2.3923
-3.5724 6.4234 2.3923
-3.7933 6.2762 2.3923
-4.0085 6.1219 2.3923
-4.2180 5.9607 2.3923
-4.4216 5.7929 2.3923
-4.6190 5.6187 2.3923
-4.8101 5.4382 2.3923
-4.9946 5.2517 2.3923
-5.1725 5.0595 2.3923
-5.3436 4.8617 2.3923
-5.5077 4.6585 2.3923
-5.6648 4.4503 2.3923
-5.8145 4.2372 2.3923
-5.9569 4.0195 2.3923
-6.0918 3.7974 2.3923
-6.2191 3.5711 2.3923
-6.3387 3.3409 2.3923
-6.4505 3.1071 2.3923
-6.5543 2.8698 2.3923
-6.6501 2.6294 2.3923
-6.7379 2.3860 2.3923
-6.8174 2.1399 2.3923
-6.8887 1.8914 2.3923
-6.9518 1.6407 2.3923
-7.0064 1.3881 2.3923
-7.0526 1.1338 2.3923
-7.0904 0.8780 2.3923
-7.1196 0.6211 2.3923
-7.1403 0.3633 2.3923
-7.1524 0.1048 2.3923
-7.1559 -0.1541 2.3923
-7.1508 -0.4132 2.3923
-7.1370 -0.6721 2.3923
-7.1146 -0.9306 2.3923
-7.0836 -1.1885 2.3923
-7.0439 -1.4455 2.3923
-6.9957 -1.7013 2.3923
-6.9388 -1.9557 2.3923
-6.8734 -2.2083 2.3923
-6.7994 -2.4590 2.3923
-6.7170 -2.7074 2.3923
-6.6261 -2.9533 2.3923
-6.5268 -3.1965 2.3923
-6.4192 -3.4365 2.3923
-6.3033 -3.6733 2.3923
-6.1793 -3.9064 2.3923
-6.0472 -4.1357 2.3923
-5.9071 -4.3609 2.3923
-5.7591 -4.5816 2.3923
-5.6034 -4.7977 2.3923
-5.4400 -5.0088 2.3923
-5.2691 -5.2147 2.3923
-5.0909 -5.4151 2.3923
-4.9054 -5.6097 2.3923
-4.7128 -5.7984 2.3923
-4.5133 -5.9808 2.3923
-4.3072 -6.1566 2.3923
-4.0945 -6.3257 2.3923
-3.8755 -6.4877 2.3923
-3.6503 -6.6424 2.3923
-3.4193 -6.7897 2.3923
-3.1826 -6.9291 2.3923
-2.9405 -7.0605 2.3923
-2.6932 -7.1837 2.3923
-2.4409 -7.2985 2.3923
-2.1841 -7.4046 2.3923
-1.9229 -7.5018 2.3923
-1.6576 -7.5899 2.3923
-1.3886 -7.6688 2.3923
-1.1162 -7.7382 2.3923
-0.8406 -7.7980 2.3923
-0.5623 -7.8479 2.3923
-0.2815 -7.8880 2.3923
0.0013 -7.9179 2.3923
0.2859 -7.9377 2.3923
0.5718 -7.9471 2.3923
0.8577 -7.9380 2.3899
1.0730 -7.4291 2.2399
1.3423 -7.4086 2.2400
1.6114 -7.3785 2.2401
1.8805 -7.3400 2.2408
2.1486 -7.2914 2.2415
2.4156 -7.2327 2.2421
2.6809 -7.1639 2.2427
2.9442 -7.0850 2.2434
3.2050 -6.9960 2.2440
3.4508 -6.8729 2.2367
3.7008 -6.7575 2.2351
3.9498 -6.6380 2.2352
3.9520 -6.1323 2.1060
4.4350 -6.3701 2.2354
4.6704 -6.2222 2.2356
4.9004 -6.0651 2.2357
5.1247 -5.8990 2.2359
5.3429 -5.7242 2.2360
5.5547 -5.5409 2.2362
5.7596 -5.3492 2.2364
5.9572 -5.1496 2.2365
6.1474 -4.9421 2.2367
6.3296 -4.7272 2.2369
4.4709 -3.0970 1.5379
6.6692 -4.2762 2.2373
6.8260 -4.0408 2.2375
6.9737 -3.7993 2.2378
7.1120 -3.5520 2.2380
7.2407 -3.2993 2.2382
4.6645 -1.9278 1.4188
7.4684 -2.7793 2.2387
7.5670 -2.5128 2.2390
7.6552 -2.2426 2.2392
7.7328 -1.9690 2.2395
7.7997 -1.6926 2.2398
7.8558 -1.4137 2.2401
7.9010 -1.1328 2.2404
7.9351 -0.8504 2.2406
4.9342 -0.3515 1.3894
4.9642 -0.1762 1.3959
4.9945 0.0008 1.4045
5.0252 0.1801 1.4151
5.0563 0.3620 1.4278
7.9080 0.8503 2.2424
7.8650 1.1306 2.2427
7.8112 1.4087 2.2430
7.7467 1.6843 2.2433
7.6717 1.9568 2.2436
7.5863 2.2260 2.2439
7.4907 2.4914 2.2442
7.3851 2.7525 2.2445
7.2692 3.0088 2.2446
7.1420 3.2593 2.2442
7.0056 3.5043 2.2438
6.8603 3.7434 2.2434
6.7063 3.9763 2.2430
5.6182 3.6083 1.9254
5.7614 3.9978 2.0270
5.6607 4.2353 2.0485
6.0050 4.8368 2.2399
5.8132 5.0351 2.2399
5.6146 5.2256 2.2399
5.4095 5.4081 2.2399
5.1982 5.5824 2.2399
4.9811 5.7484 2.2399
4.7585 5.9057 2.2399
4.8392 6.4662 2.3923
4.5910 6.6154 2.3923
4.3382 6.7550 2.3923
4.0812 6.8849 2.3923
3.8203 7.0050 2.3923
3.5559 7.1151 2.3923
3.2884 7.2153 2.3923
3.0183 7.3055 2.3923
2.7458 7.3856 2.3923
2.4715 7.4556 2.3923
0.8641 2.9579 0.9416
0.7574 2.9865 0.9444
0.6496 3.0113 0.9472
0.5410 3.0321 0.9501
0.4318 3.0490 0.9529
0.3219 3.0620 0.9557
0.2117 3.0709 0.9585
0.1012 3.0759 0.9613
-0.0094 3.0769 0.9640
-0.1199 3.0739 0.9667
-0.2303 3.0668 0.9694
-0.3404 3.0558 0.9721
-0.4500 3.0409 0.9747
-0.5590 3.0219 0.9772
-0.6672 2.9991 0.9797
-0.7746 2.9723 0.9822
-0.8809 2.9417 0.9846
-2.3901 7.0470 2.3923
-2.6356 6.9382 2.3923
-2.8766 6.8214 2.3923
-3.1130 6.6967 2.3923
-3.3444 6.5643 2.3923
-3.5707 6.4245 2.3923
-3.7917 6.2773 2.3923
-4.0069 6.1231 2.3923
-4.2165 5.9620 2.3923
-4.4201 5.7942 2.3923
-4.6175 5.6200 2.3923
-4.8086 5.4396 2.3923
-4.9933 5.2532 2.3923
-5.1712 5.0610 2.3923
-5.3424 4.8632 2.3923
-5.5065 4.6601 2.3923
-5.6636 4.4519 2.3923
-5.8134 4.2388 2.3923
-5.9559 4.0211 2.3923
-6.0908 3.7991 2.3923
-6.2182 3.5728 2.3923
-6.3378 3.3427 2.3923
-6.4496 3.1089 2.3923
-6.5535 2.8716 2.3923
-6.6494 2.6312 2.3923
-6.7372 2.3878 2.3923
-6.8169 2.1418 2.3923
-6.8882 1.8933 2.3923
-6.9513 1.6426 2.3923
-7.0060 1.3900 2.3923
-7.0523 1.1357 2.3923
-7.0901 0.8800 2.3923
-7.1194 0.6231 2.3923
-7.1402 0.3652 2.3923
-7.1523 0.1067 2.3923
-7.1559 -0.1522 2.3923
-7.1508 -0.4112 2.3923
-7.1372 -0.6701 2.3923
-7.1148 -0.9287 2.3923
-7.0839 -1.1866 2.3923
-7.0443 -1.4436 2.3923
-6.9961 -1.6994 2.3923
-6.9393 -1.9537 2.3923
-6.8739 -2.2064 2.3923
-6.8000 -2.4571 2.3923
-6.7176 -2.7056 2.3923
-6.6268 -2.9515 2.3923
-6.5276 -3.1946 2.3923
-6.4200 -3.4347 2.3923
-6.3042 -3.6715 2.3923
-6.1803 -3.9047 2.3923
-6.0482 -4.1340 2.3923
-5.9082 -4.3592 2.3923
-5.7603 -4.5799 2.3923
-5.6046 -4.7961 2.3923
-5.4413 -5.0072 2.3923
-5.2704 -5.2131 2.3923
-5.0922 -5.4136 2.3923
-4.9068 -5.6083 2.3923
-4.7143 -5.7970 2.3923
-4.5149 -5.9794 2.3923
-4.3088 -6.1553 2.3923
-4.0961 -6.3244 2.3923
-3.8771 -6.4865 2.3923
-3.6521 -6.6413 2.3923
-3.4211 -6.7886 2.3923
-3.1844 -6.9280 2.3923
-2.9423 -7.0596 2.3923
-2.6951 -7.1828 2.3923
-2.4429 -7.2977 2.3923
-2.1860 -7.4038 2.3923
-1.9249 -7.5011 2.3923
-1.6597 -7.5893 2.3923
-1.3907 -7.6682 2.3923
-1.1183 -7.7377 2.3923
-0.8427 -7.7975 2.3923
-0.5644 -7.8476 2.3923
-0.2837 -7.8877 2.3923
-0.0008 -7.9178 2.3923
0.2837 -7.9376 2.3923
0.5696 -7.9471 2.3923
0.8562 -7.9444 2.3918
1.0710 -7.4293 2.2399
1.3402 -7.4088 2.2400
1.6094 -7.3788 2.2401
1.8784 -7.3403 2.2408
2.1466 -7.2918 2.2414
2.4136 -7.2332 2.2421
2.6789 -7.1644 2.2427
2.9422 -7.0856 2.2434
3.2030 -6.9967 2.2440
3.4490 -6.8740 2.2368
3.6989 -6.7584 2.2350
3.9480 -6.6389 2.2352
3.9516 -6.1351 2.1067
4.4332 -6.3712 2.2354
4.6686 -6.2233 2.2356
4.8987 -6.0663 2.2357
5.1230 -5.9003 2.2359
5.3413 -5.7256 2.2360
5.5531 -5.5423 2.2362
5.7580 -5.3507 2.2364
5.9558 -5.1511 2.2365
6.1460 -4.9437 2.2367
6.3283 -4.7289 2.2369
4.4707 -3.0986 1.5381
6.6680 -4.2780 2.2373
6.8248 -4.0426 2.2375
6.9726 -3.8012 2.2378
7.1110 -3.5539 2.2380
7.2398 -3.3012 2.2382
4.6643 -1.9292 1.4188
7.4676 -2.7813 2.2387
7.5663 -2.5148 2.2390
7.6546 -2.2446 2.2392
7.7323 -1.9711 2.2395
7.7993 -1.6946 2.2398
7.8554 -1.4158 2.2401
7.9007 -1.1349 2.2403
7.9349 -0.8526 2.2406
4.9340 -0.3528 1.3894
4.9640 -0.1775 1.3959
4.9943 -0.0005 1.4044
5.0250 0.1787 1.4150
5.0561 0.3606 1.4277
7.9083 0.8482 2.2424
7.8653 1.1285 2.2427
7.8116 1.4066 2.2430
7.7472 1.6822 2.2433
7.6723 1.9548 2.2436
7.5870 2.2240 2.2439
7.4915 2.4894 2.2442
7.3859 2.7505 2.2445
7.2702 3.0069 2.2446
7.1430 3.2574 2.2442
7.0067 3.5024 2.2438
6.8614 3.7416 2.2434
6.7075 3.9746 2.2430
5.6178 3.6059 1.9249
5.7634 3.9969 2.0273
5.6591 4.2317 2.0475
-6.6485 -0.3871 2.3923
-6.6353 -0.6279 2.3923
-6.6140 -0.8684 2.3923
-6.5847 -1.1082 2.3923
-6.5472 -1.3471 2.3923
-6.5018 -1.5849 2.3923
-6.4483 -1.8213 2.3923
-6.3868 -2.0561 2.3923
-6.3173 -2.2889 2.3923
-6.2400 -2.5196 2.3923
-6.1547 -2.7480 2.3923
-6.0617 -2.9736 2.3923
-5.9609 -3.1963 2.3923
-5.8524 -3.4159 2.3923
-5.7363 -3.6320 2.3923
-5.6128 -3.8445 2.3923
-5.4818 -4.0531 2.3923
-5.3435 -4.2575 2.3923
-5.1980 -4.4574 2.3923
-5.0454 -4.6527 2.3923
-4.8859 -4.8430 2.3923
-4.7196 -5.0282 2.3923
-4.5466 -5.2079 2.3923
-4.3670 -5.3820 2.3923
-4.1812 -5.5502 2.3923
-3.9891 -5.7122 2.3923
-3.7911 -5.8679 2.3923
-3.5872 -6.0169 2.3923
-3.3778 -6.1591 2.3923
-3.1630 -6.2943 2.3923
-2.9430 -6.4222 2.3923
-2.7180 -6.5425 2.3923
-2.4883 -6.6552 2.3923
-2.2542 -6.7601 2.3923
-2.0159 -6.8568 2.3923
-1.7737 -6.9452 2.3923
-1.5278 -7.0252 2.3923
-1.2785 -7.0966 2.3923
-1.0262 -7.1592 2.3923
-0.7711 -7.2129 2.3923
-0.5136 -7.2574 2.3923
-0.2539 -7.2928 2.3923
0.0076 -7.3190 2.3923
0.2705 -7.3354 2.3923
0.5346 -7.3425 2.3923
0.7994 -7.3399 2.3923
1.0269 -7.0674 2.3074
1.2459 -6.8418 2.2408
1.4933 -6.8105 2.2400
1.7410 -6.7723 2.2403
1.9879 -6.7258 2.2409
2.2336 -6.6701 2.2414
2.4777 -6.6051 2.2420
2.7198 -6.5308 2.2426
2.9596 -6.4474 2.2432
3.1966 -6.3548 2.2437
3.4289 -6.2501 2.2432
3.6457 -6.1168 2.2355
3.8711 -5.9974 2.2359
4.0918 -5.8685 2.2360
4.0739 -5.4200 2.1147
4.5190 -5.5855 2.2362
4.7248 -5.4317 2.2364
4.9250 -5.2699 2.2365
5.1191 -5.1003 2.2367
5.3070 -4.9232 2.2369
5.4882 -4.7387 2.2370
5.6625 -4.5472 2.2372
5.8295 -4.3489 2.2374
5.9889 -4.1440 2.2376
4.5069 -2.8867 1.6424
6.2841 -3.7161 2.2380
6.4193 -3.4936 2.2382
4.6075 -2.2987 1.5755
6.6638 -3.0332 2.2386
4.6649 -1.9258 1.5421
6.8723 -2.5546 2.2391
6.9626 -2.3095 2.2393
7.0434 -2.0609 2.2395
7.1145 -1.8093 2.2398
7.1758 -1.5551 2.2400
7.2272 -1.2987 2.2403
7.2687 -1.0405 2.2406
7.3001 -0.7808 2.2408
7.3214 -0.5202 2.2411
4.9708 -0.1756 1.5194
7.3337 0.0023 2.2416
7.3247 0.2634 2.2419
7.3056 0.5237 2.2422
7.2765 0.7830 2.2424
7.2374 1.0408 2.2427
7.1884 1.2967 2.2430
7.1296 1.5503 2.2433
7.0612 1.8011 2.2435
6.9833 2.0489 2.2438
6.8961 2.2933 2.2441
6.7996 2.5338 2.2443
6.6942 2.7702 2.2446
6.5793 3.0017 2.2446
6.4547 3.2278 2.2443
6.3218 3.4485 2.2439
6.1810 3.6637 2.2436
6.0296 3.8712 2.2422
5.7626 3.9972 2.1995
5.6596 4.2328 2.2215
5.5373 4.4582 2.2399
5.3615 4.6418 2.2399
5.1794 4.8183 2.2399
4.9912 4.9875 2.2399
4.7972 5.1492 2.2399
4.5979 5.3033 2.2399
4.3934 5.4495 2.2399
4.1842 5.5877 2.2399
4.2407 6.1068 2.3923
4.0082 6.2370 2.3923
3.7716 6.3582 2.3923
3.5314 6.4704 2.3923
3.2879 6.5735 2.3923
3.0414 6.6675 2.3923
2.7922 6.7522 2.3923
2.5410 6.8276 2.3923
0.8979 2.7055 0.9389
0.8002 2.7355 0.9415
0.7014 2.7619 0.9442
0.6017 2.7848 0.9468
0.5013 2.8040 0.9494
0.4003 2.8196 0.9520
0.2987 2.8315 0.9546
0.1967 2.8398 0.9572
0.0946 2.8443 0.9598
-0.0077 2.8452 0.9623
-0.1100 2.8424 0.9648
-0.2121 2.8358 0.9673
-0.3139 2.8256 0.9697
-0.4152 2.8117 0.9721
-0.5160 2.7942 0.9745
-0.6161 2.7730 0.9768
-0.7154 2.7482 0.9791
-0.8137 2.7199 0.9813
-2.2157 6.5385 2.3923
-2.4439 6.4386 2.3923
-2.6681 6.3311 2.3923
-2.8880 6.2163 2.3923
-3.1033 6.0943 2.3923
-3.3139 5.9652 2.3923
-3.5196 5.8294 2.3923
-3.7201 5.6868 2.3923
-3.9153 5.5379 2.3923
-4.1050 5.3826 2.3923
-4.2889 5.2213 2.3923
-4.4671 5.0542 2.3923
-4.6391 4.8814 2.3923
-4.8050 4.7032 2.3923
-4.9646 4.5197 2.3923
-5.1177 4.3312 2.3923
-5.2642 4.1379 2.3923
-5.4039 3.9401 2.3923
-5.5367 3.7378 2.3923
-5.6626 3.5315 2.3923
-5.7814 3.3212 2.3923
-5.8929 3.1073 2.3923
-5.9972 2.8899 2.3923
-6.0940 2.6692 2.3923
-6.1834 2.4456 2.3923
-6.2652 2.2192 2.3923
-6.3394 1.9903 2.3923
-6.4059 1.7591 2.3923
-6.4645 1.5258 2.3923
-6.5154 1.2908 2.3923
-6.5584 1.0541 2.3923
-6.5934 0.8161 2.3923
-6.6205 0.5771 2.3923
-6.6396 0.3372 2.3923
-6.6506 0.0966 2.3923
-6.6536 -0.1442 2.3923
-6.6486 -0.3852 2.3923
-6.6354 -0.6261 2.3923
-6.6142 -0.8665 2.3923
-6.5849 -1.1064 2.3923
-6.5476 -1.3453 2.3923
-6.5021 -1.5831 2.3923
-6.4487 -1.8195 2.3923
-6.3873 -2.0543 2.3923
-6.3179 -2.2872 2.3923
-6.2406 -2.5179 2.3923
-6.1554 -2.7462 2.3923
-6.0624 -2.9720 2.3923
-5.9617 -3.1947 2.3923
-5.8533 -3.4143 2.3923
-5.7373 -3.6304 2.3923
-5.6137 -3.8430 2.3923
-5.4828 -4.0515 2.3923
-5.3446 -4.2559 2.3923
-5.1991 -4.4559 2.3923
-5.0466 -4.6512 2.3923
-4.8871 -4.8416 2.3923
-4.7208 -5.0268 2.3923
-4.5479 -5.2066 2.3923
-4.3684 -5.3807 2.3923
-4.1826 -5.5489 2.3923
-3.9906 -5.7110 2.3923
-3.7926 -5.8667 2.3923
-3.5888 -6.0158 2.3923
-3.3794 -6.1581 2.3923
-3.1646 -6.2933 2.3923
-2.9446 -6.4212 2.3923
-2.7197 -6.5417 2.3923
-2.4901 -6.6544 2.3923
-2.2560 -6.7593 2.3923
-2.0177 -6.8561 2.3923
-1.7755 -6.9446 2.3923
-1.5297 -7.0247 2.3923
-1.2804 -7.0961 2.3923
-1.0281 -7.1588 2.3923
-0.7730 -7.2125 2.3923
-0.5155 -7.2571 2.3923
-0.2559 -7.2926 2.3923
0.0056 -7.3189 2.3923
0.2685 -7.3353 2.3923
0.5326 -7.3425 2.3923
0.7974 -7.3399 2.3923
1.0257 -7.0725 2.3090
1.2443 -6.8456 2.2417
1.4914 -6.8107 2.2400
1.7391 -6.7726 2.2403
1.9861 -6.7262 2.2408
2.2318 -6.6705 2.2414
2.4759 -6.6056 2.2420
2.7180 -6.5314 2.2426
2.9578 -6.4480 2.2432
3.1948 -6.3555 2.2437
3.4272 -6.2511 2.2433
3.6440 -6.1176 2.2355
3.8694 -5.9983 2.2359
4.0901 -5.8695 2.2360
4.0735 -5.4224 2.1152
4.5174 -5.5866 2.2362
4.7233 -5.4329 2.2364
4.9235 -5.2711 2.2365
5.1177 -5.1016 2.2367
5.3056 -4.9245 2.2369
5.4869 -4.7401 2.2370
5.6612 -4.5487 2.2372
5.8282 -4.3504 2.2374
5.9877 -4.1456 2.2376
4.5067 -2.8882 1.6426
6.2830 -3.7177 2.2380
6.4183 -3.4953 2.2382
4.6073 -2.3002 1.5757
6.6630 -3.0350 2.2386
4.6646 -1.9272 1.5422
6.8716 -2.5565 2.2391
6.9620 -2.3113 2.2393
7.0428 -2.0628 2.2395
7.1140 -1.8112 2.2398
7.1754 -1.5570 2.2400
7.2269 -1.3006 2.2403
7.2684 -1.0424 2.2406
7.2999 -0.7828 2.2408
7.3213 -0.5222 2.2411
4.9706 -0.1769 1.5193
7.3338 0.0003 2.2416
7.3248 0.2614 2.2419
7.3058 0.5218 2.2422
7.2767 0.7811 2.2424
7.2377 1.0389 2.2427
7.1888 1.2948 2.2430
7.1301 1.5484 2.2433
7.0618 1.7993 2.2435
6.9840 2.0471 2.2438
6.8968 2.2915 2.2441
6.8004 2.5320 2.2443
6.6950 2.7684 2.2446
6.5802 3.0000 2.2446
6.4556 3.2261 2.2443
6.3228 3.4469 2.2439
6.1821 3.6621 2.2436
6.0307 3.8696 2.2422
5.7647 3.9963 2.1998
5.6579 4.2291 2.2204
5.5386 4.4568 2.2399
5.3629 4.6405 2.2399
5.1808 4.8170 2.2399
4.9926 4.9863 2.2399
4.7987 5.1481 2.2399
4.5994 5.3021 2.2399
4.3950 5.4484 2.2399
4.1858 5.5867 2.2399
4.2425 6.1058 2.3923
4.0100 6.2360 2.3923
3.7734 6.3573 2.3923
3.5332 6.4696 2.3923
3.2897 6.5728 2.3923
3.0433 6.6668 2.3923
2.7943 6.7516 2.3923
2.5429 6.8271 2.3923
0.8986 2.7053 0.9389
0.8009 2.7353 0.9415
0.7022 2.7617 0.9441
0.6025 2.7846 0.9468
0.5021 2.8039 0.9494
0.4010 2.8195 0.9520
0.2995 2.8314 0.9546
0.1975 2.8397 0.9572
0.0953 2.8443 0.9597
-0.0069 2.8452 0.9623
-0.1092 2.8424 0.9648
-0.2113 2.8359 0.9673
-0.3131 2.8257 0.9697
-0.4145 2.8118 0.9721
-0.5153 2.7943 0.9745
-0.6154 2.7732 0.9768
-0.7146 2.7484 0.9791
-0.8129 2.7201 0.9813
-2.2140 6.5392 2.3923
-2.4422 6.4394 2.3923
-2.6665 6.3320 2.3923
-2.8864 6.2172 2.3923
-3.1017 6.0952 2.3923
-3.3123 5.9662 2.3923
-3.5180 5.8304 2.3923
-3.7186 5.6879 2.3923
-3.9138 5.5390 2.3923
-4.1035 5.3838 2.3923
-4.2876 5.2226 2.3923
-4.4657 5.0555 2.3923
-4.6379 4.8827 2.3923
-4.8038 4.7045 2.3923
-4.9634 4.5211 2.3923
-5.1166 4.3327 2.3923
-5.2631 4.1394 2.3923
-5.4029 3.9416 2.3923
-5.5358 3.7394 2.3923
-5.6617 3.5331 2.3923
-5.7805 3.3228 2.3923
-5.8921 3.1089 2.3923
-5.9964 2.8915 2.3923
-6.0933 2.6709 2.3923
-6.1828 2.4473 2.3923
-6.2646 2.2209 2.3923
-6.3389 1.9920 2.3923
-6.4054 1.7609 2.3923
-6.4641 1.5276 2.3923
-6.5150 1.2925 2.3923
-6.5581 1.0559 2.3923
-6.5932 0.8179 2.3923
-6.6203 0.5789 2.3923
-6.6395 0.3390 2.3923
-6.6506 0.0985 2.3923
-6.6536 -0.1424 2.3923
-6.6486 -0.3834 2.3923
-6.6356 -0.6243 2.3923
-6.6144 -0.8647 2.3923
-6.5852 -1.1046 2.3923
-6.5479 -1.3435 2.3923
-6.5025 -1.5813 2.3923
-6.4492 -1.8177 2.3923
-6.3878 -2.0525 2.3923
-6.3185 -2.2854 2.3923
-6.2412 -2.5162 2.3923
-6.1561 -2.7445 2.3923
-6.0631 -2.9702 2.3923
-5.9625 -3.1930 2.3923
-5.8541 -3.4126 2.3923
-5.7382 -3.6288 2.3923
-5.6147 -3.8414 2.3923
-5.4838 -4.0500 2.3923
-5.3456 -4.2544 2.3923
-5.2002 -4.4544 2.3923
-5.0478 -4.6498 2.3923
-4.8884 -4.8402 2.3923
-4.7221 -5.0254 2.3923
-4.5492 -5.2052 2.3923
-4.3698 -5.3794 2.3923
-4.1840 -5.5477 2.3923
-3.9921 -5.7098 2.3923
-3.7941 -5.8655 2.3923
-3.5904 -6.0147 2.3923
-3.3810 -6.1570 2.3923
-3.1663 -6.2923 2.3923
-2.9463 -6.4203 2.3923
-2.7214 -6.5408 2.3923
-2.4919 -6.6536 2.3923
-2.2578 -6.7585 2.3923
-2.0195 -6.8554 2.3923
-1.7774 -6.9440 2.3923
-1.5315 -7.0241 2.3923
-1.2823 -7.0956 2.3923
-1.0300 -7.1583 2.3923
-0.7750 -7.2121 2.3923
-0.5175 -7.2568 2.3923
-0.2578 -7.2923 2.3923
0.0036 -7.3186 2.3923
0.2666 -7.3352 2.3923
0.5306 -7.3424 2.3923
0.7954 -7.3400 2.3923
1.0244 -7.0777 2.3107
1.2429 -6.8485 2.2425
1.4896 -6.8110 2.2400
1.7372 -6.7729 2.2402
1.9842 -6.7266 2.2408
2.2299 -6.6710 2.2414
2.4740 -6.6061 2.2420
2.7162 -6.5320 2.2426
2.9560 -6.4487 2.2432
3.1930 -6.3562 2.2437
3.4255 -6.2520 2.2433
3.6423 -6.1187 2.2355
3.8677 -5.9992 2.2359
4.0885 -5.8705 2.2360
4.0731 -5.4249 2.1158
4.5158 -5.5878 2.2362
4.7217 -5.4341 2.2364
4.9220 -5.2724 2.2365
5.1163 -5.1029 2.2367
5.3042 -4.9259 2.2369
5.4855 -4.7416 2.2370
5.6599 -4.5501 2.2372
5.8270 -4.3519 2.2374
5.9865 -4.1472 2.2376
4.5064 -2.8898 1.6428
6.2820 -3.7194 2.2380
6.4173 -3.4970 2.2382
4.6070 -2.3016 1.5758
6.6621 -3.0367 2.2386
4.6644 -1.9286 1.5423
6.8709 -2.5583 2.2391
6.9613 -2.3132 2.2393
7.0422 -2.0647 2.2395
7.1135 -1.8131 2.2398
7.1749 -1.5590 2.2400
7.2265 -1.3026 2.2403
7.2681 -1.0444 2.2406
7.2997 -0.7848 2.2408
7.3212 -0.5242 2.2411
4.9703 -0.1783 1.5193
7.3338 -0.0016 2.2416
7.3249 0.2594 2.2419
7.3060 0.5198 2.2422
7.2770 0.7791 2.2424
7.2380 1.0369 2.2427
7.1892 1.2928 2.2430
7.1306 1.5465 2.2433
7.0623 1.7974 2.2435
6.9846 2.0452 2.2438
6.8975 2.2896 2.2441
6.8011 2.5302 2.2443
6.6958 2.7666 2.2446
6.5811 2.9983 2.2447
6.4566 3.2244 2.2443
6.3239 3.4452 2.2439
6.1832 3.6605 2.2436
6.0319 3.8680 2.2422
5.7667 3.9954 2.2001
5.6563 4.2255 2.2193
-6.2055 -0.3623 2.3923
-6.1929 -0.5872 2.3923
-6.1727 -0.8117 2.3923
-6.1450 -1.0356 2.3923
-6.1096 -1.2587 2.3923
-6.0668 -1.4806 2.3923
-6.0164 -1.7012 2.3923
-5.9585 -1.9204 2.3923
-5.8931 -2.1374 2.3923
-5.8204 -2.3526 2.3923
-5.7403 -2.5655 2.3923
-5.6529 -2.7758 2.3923
-5.5582 -2.9833 2.3923
-5.4564 -3.1879 2.3923
-5.3475 -3.3891 2.3923
-5.2316 -3.5869 2.3923
-5.1087 -3.7810 2.3923
-4.9791 -3.9711 2.3923
-4.8428 -4.1570 2.3923
-4.6998 -4.3384 2.3923
-4.5505 -4.5153 2.3923
-4.3948 -4.6872 2.3923
-4.2329 -4.8540 2.3923
-4.0649 -5.0154 2.3923
-3.8911 -5.1713 2.3923
-3.7116 -5.3214 2.3923
-3.5266 -5.4654 2.3923
-3.3362 -5.6033 2.3923
-3.1406 -5.7347 2.3923
-2.9401 -5.8595 2.3923
-2.7348 -5.9775 2.3923
-2.5250 -6.0885 2.3923
-2.3109 -6.1922 2.3923
-2.0927 -6.2886 2.3923
-1.8707 -6.3774 2.3923
-1.6451 -6.4584 2.3923
-1.4162 -6.5316 2.3923
-1.1842 -6.5967 2.3923
-0.9495 -6.6536 2.3923
-0.7123 -6.7022 2.3923
-0.4729 -6.7423 2.3923
-0.2316 -6.7739 2.3923
0.0112 -6.7968 2.3923
0.2553 -6.8109 2.3923
0.5004 -6.8161 2.3923
0.7461 -6.8124 2.3923
0.9920 -6.7998 2.3923
1.1643 -6.3747 2.2499
1.3890 -6.3174 2.2399
1.6182 -6.2802 2.2400
1.8467 -6.2353 2.2403
2.0740 -6.1824 2.2409
2.2998 -6.1210 2.2414
2.5237 -6.0511 2.2420
2.7453 -5.9726 2.2425
2.9643 -5.8858 2.2430
3.1803 -5.7906 2.2435
3.3931 -5.6871 2.2440
3.5958 -5.5655 2.2405
3.7922 -5.4340 2.2360
3.9925 -5.3071 2.2366
4.1874 -5.1715 2.2367
4.3774 -5.0284 2.2368
4.5620 -4.8780 2.2370
4.7412 -4.7205 2.2371
4.9144 -4.5560 2.2373
5.0815 -4.3849 2.2374
5.2422 -4.2073 2.2376
5.3962 -4.0234 2.2378
5.5432 -3.8336 2.2380
5.6829 -3.6381 2.2381
5.8152 -3.4372 2.2383
5.9398 -3.2312 2.2385
6.0565 -3.0204 2.2387
6.1651 -2.8052 2.2389
4.6650 -1.9252 1.6672
6.3573 -2.3625 2.2394
6.4405 -2.1358 2.2396
6.5150 -1.9060 2.2398
6.5806 -1.6733 2.2400
6.6372 -1.4383 2.2403
6.6847 -1.2013 2.2405
6.7230 -0.9626 2.2407
6.7521 -0.7226 2.2410
6.7719 -0.4817 2.2412
6.7824 -0.2403 2.2415
6.7837 0.0013 2.2417
6.7756 0.2426 2.2420
6.7582 0.4833 2.2422
6.7317 0.7231 2.2425
6.6959 0.9615 2.2427
6.6511 1.1982 2.2430
6.5973 1.4328 2.2432
6.5346 1.6649 2.2435
6.4631 1.8943 2.2437
6.3830 2.1205 2.2440
6.2944 2.3432 2.2442
6.1975 2.5621 2.2445
6.0925 2.7769 2.2447
5.9789 2.9870 2.2447
5.5156 3.0058 2.1136
5.7267 3.3912 2.2438
5.5880 3.5842 2.2427
5.4390 3.7691 2.2402
5.2891 3.9518 2.2399
5.1333 4.1289 2.2399
4.9712 4.2996 2.2399
4.8033 4.4639 2.2399
4.6297 4.6215 2.2399
4.4507 4.7722 2.2399
4.2666 4.9158 2.2399
4.0778 5.0523 2.2399
3.8845 5.1814 2.2399
3.9379 5.6638 2.3923
3.7229 5.7856 2.3923
3.5040 5.8992 2.3923
3.2817 6.0044 2.3923
3.0563 6.1013 2.3923
2.8280 6.1897 2.3923
2.5972 6.2695 2.3923
0.9256 2.4824 0.9366
0.8359 2.5135 0.9390
0.7451 2.5413 0.9415
0.6533 2.5659 0.9439
0.5607 2.5871 0.9464
0.4674 2.6049 0.9488
0.3735 2.6194 0.9512
0.2791 2.6304 0.9537
0.1844 2.6381 0.9560
0.0895 2.6423 0.9584
-0.0056 2.6431 0.9608
-0.1006 2.6405 0.9631
-0.1954 2.6344 0.9654
-0.2900 2.6249 0.9677
-0.3842 2.6120 0.9699
-0.4778 2.5957 0.9721
-0.5708 2.5760 0.9743
-0.6630 2.5530 0.9764
-0.7543 2.5267 0.9785
-0.8447 2.4971 0.9805
-2.2741 6.0005 2.3923
-2.4834 5.9012 2.3923
-2.6887 5.7950 2.3923
-2.8899 5.6820 2.3923
-3.0867 5.5624 2.3923
-3.2789 5.4364 2.3923
-3.4663 5.3041 2.3923
-3.6489 5.1657 2.3923
-3.8263 5.0215 2.3923
-3.9984 4.8715 2.3923
-4.1650 4.7160 2.3923
-4.3260 4.5552 2.3923
-4.4813 4.3892 2.3923
-4.6306 4.2184 2.3923
-4.7739 4.0428 2.3923
-4.9111 3.8626 2.3923
-5.0419 3.6781 2.3923
-5.1663 3.4895 2.3923
-5.2841 3.2970 2.3923
-5.3953 3.1009 2.3923
-5.4998 2.9012 2.3923
-5.5974 2.6983 2.3923
-5.6881 2.4923 2.3923
-5.7717 2.2835 2.3923
-5.8483 2.0721 2.3923
-5.9177 1.8583 2.3923
-5.9798 1.6424 2.3923
-6.0347 1.4245 2.3923
-6.0822 1.2049 2.3923
-6.1223 0.9839 2.3923
-6.1550 0.7615 2.3923
-6.1802 0.5382 2.3923
-6.1979 0.3141 2.3923
-6.2080 0.0895 2.3923
-6.2106 -0.1355 2.3923
-6.2056 -0.3606 2.3923
-6.1931 -0.5855 2.3923
-6.1729 -0.8100 2.3923
-6.1452 -1.0339 2.3923
-6.1099 -1.2570 2.3923
-6.0671 -1.4789 2.3923
-6.0168 -1.6995 2.3923
-5.9590 -1.9187 2.3923
-5.8937 -2.1358 2.3923
-5.8210 -2.3510 2.3923
-5.7409 -2.5639 2.3923
-5.6536 -2.7742 2.3923
-5.5590 -2.9817 2.3923
-5.4572 -3.1863 2.3923
-5.3483 -3.3876 2.3923
-5.2325 -3.5854 2.3923
-5.1097 -3.7795 2.3923
-4.9801 -3.9697 2.3923
-4.8438 -4.1556 2.3923
-4.7009 -4.3371 2.3923
-4.5516 -4.5139 2.3923
-4.3960 -4.6859 2.3923
-4.2341 -4.8527 2.3923
-4.0662 -5.0142 2.3923
-3.8925 -5.1701 2.3923
-3.7130 -5.3202 2.3923
-3.5280 -5.4644 2.3923
-3.3376 -5.6023 2.3923
-3.1421 -5.7338 2.3923
-2.9416 -5.8586 2.3923
-2.7364 -5.9767 2.3923
-2.5266 -6.0877 2.3923
-2.3125 -6.1915 2.3923
-2.0943 -6.2879 2.3923
-1.8723 -6.3767 2.3923
-1.6468 -6.4578 2.3923
-1.4179 -6.5310 2.3923
-1.1860 -6.5962 2.3923
-0.9513 -6.6532 2.3923
-0.7141 -6.7019 2.3923
-0.4747 -6.7420 2.3923
-0.2335 -6.7737 2.3923
0.0094 -6.7966 2.3923
0.2535 -6.8108 2.3923
0.4985 -6.8161 2.3923
0.7442 -6.8125 2.3923
0.9902 -6.7999 2.3923
1.1630 -6.3771 2.2508
1.3872 -6.3177 2.2399
1.6165 -6.2805 2.2400
1.8449 -6.2357 2.2403
2.0723 -6.1829 2.2409
2.2981 -6.1215 2.2414
2.5220 -6.0516 2.2419
2.7436 -5.9733 2.2425
2.9626 -5.8865 2.2430
3.1787 -5.7913 2.2435
3.3915 -5.6879 2.2440
3.5944 -5.5665 2.2405
3.7907 -5.4349 2.2360
3.9910 -5.3081 2.2366
4.1860 -5.1726 2.2367
4.3759 -5.0295 2.2368
4.5607 -4.8792 2.2370
4.7398 -4.7217 2.2371
4.9131 -4.5573 2.2373
5.0803 -4.3862 2.2374
5.2410 -4.2086 2.2376
5.3950 -4.0248 2.2378
5.5421 -3.8351 2.2380
5.6819 -3.6396 2.2381
5.8142 -3.4388 2.2383
5.9389 -3.2328 2.2385
6.0557 -3.0221 2.2387
6.1643 -2.8068 2.2389
4.6647 -1.9266 1.6673
6.3566 -2.3642 2.2393
6.4399 -2.1375 2.2396
6.5145 -1.9077 2.2398
6.5801 -1.6751 2.2400
6.6368 -1.4401 2.2403
6.6843 -1.2031 2.2405
6.7227 -0.9644 2.2407
6.7519 -0.7244 2.2410
6.7718 -0.4836 2.2412
6.7824 -0.2421 2.2415
6.7837 -0.0006 2.2417
6.7757 0.2408 2.2420
6.7584 0.4815 2.2422
6.7319 0.7213 2.2425
6.6962 0.9597 2.2427
6.6515 1.1964 2.2430
6.5977 1.4310 2.2432
6.5351 1.6632 2.2435
6.4637 1.8925 2.2437
6.3836 2.1188 2.2440
6.2951 2.3415 2.2442
6.1983 2.5605 2.2445
6.0933 2.7753 2.2447
5.9798 2.9854 2.2447
5.5152 3.0037 2.1131
5.7277 3.3897 2.2438
5.5891 3.5828 2.2427
5.4402 3.7677 2.2402
5.2903 3.9505 2.2399
5.1345 4.1276 2.2399
4.9725 4.2984 2.2399
4.8046 4.4627 2.2399
4.6310 4.6203 2.2399
4.4521 4.7711 2.2399
4.2681 4.9148 2.2399
4.0793 5.0513 2.2399
3.8860 5.1804 2.2399
3.9395 5.6629 2.3923
3.7245 5.7847 2.3923
3.5057 5.8984 2.3923
3.2834 6.0037 2.3923
3.0580 6.1006 2.3923
2.8297 6.1890 2.3923
2.5990 6.2690 2.3923
0.9263 2.4822 0.9366
0.8366 2.5133 0.9390
0.7458 2.5411 0.9415
0.6540 2.5657 0.9439
0.5614 2.5869 0.9464
0.4681 2.6048 0.9488
0.3742 2.6193 0.9512
0.2798 2.6304 0.9536
0.1851 2.6380 0.9560
0.0902 2.6423 0.9584
-0.0048 2.6431 0.9608
-0.0998 2.6405 0.9631
-0.1947 2.6345 0.9654
-0.2893 2.6250 0.9677
-0.3834 2.6121 0.9699
-0.4771 2.5958 0.9721
-0.5701 2.5762 0.9743
-0.6623 2.5532 0.9764
-0.7537 2.5269 0.9784
-0.8440 2.4973 0.9805
-2.2724 6.0012 2.3923
-2.4818 5.9020 2.3923
-2.6871 5.7958 2.3923
-2.8884 5.6829 2.3923
-3.0852 5.5633 2.3923
-3.2774 5.4373 2.3923
-3.4649 5.3051 2.3923
-3.6475 5.1668 2.3923
-3.8249 5.0226 2.3923
-3.9971 4.8727 2.3923
-4.1638 4.7172 2.3923
-4.3248 4.5564 2.3923
-4.4801 4.3905 2.3923
-4.6295 4.2197 2.3923
-4.7729 4.0441 2.3923
-4.9100 3.8640 2.3923
-5.0409 3.6795 2.3923
-5.1654 3.4910 2.3923
-5.2833 3.2985 2.3923
-5.3945 3.1024 2.3923
-5.4990 2.9027 2.3923
-5.5967 2.6998 2.3923
-5.6874 2.4939 2.3923
-5.7711 2.2851 2.3923
-5.8477 2.0737 2.3923
-5.9172 1.8599 2.3923
-5.9794 1.6440 2.3923
-6.0343 1.4261 2.3923
-6.0819 1.2066 2.3923
-6.1220 0.9855 2.3923
-6.1548 0.7632 2.3923
-6.1800 0.5399 2.3923
-6.1977 0.3158 2.3923
-6.2080 0.0912 2.3923
-6.2106 -0.1338 2.3923
-6.2057 -0.3589 2.3923
-6.1932 -0.5838 2.3923
-6.1731 -0.8083 2.3923
-6.1454 -1.0322 2.3923
-6.1102 -1.2553 2.3923
-6.0675 -1.4773 2.3923
-6.0172 -1.6979 2.3923
-5.9594 -1.9170 2.3923
-5.8942 -2.1342 2.3923
-5.8216 -2.3494 2.3923
-5.7416 -2.5622 2.3923
-5.6542 -2.7726 2.3923
-5.5597 -2.9802 2.3923
-5.4580 -3.1848 2.3923
-5.3492 -3.3861 2.3923
-5.2334 -3.5839 2.3923
-5.1106 -3.7781 2.3923
-4.9811 -3.9682 2.3923
-4.8449 -4.1542 2.3923
-4.7020 -4.3357 2.3923
-4.5528 -4.5126 2.3923
-4.3972 -4.6846 2.3923
-4.2354 -4.8515 2.3923
-4.0675 -5.0130 2.3923
-3.8938 -5.1690 2.3923
-3.7144 -5.3191 2.3923
-3.5294 -5.4633 2.3923
-3.3391 -5.6013 2.3923
-3.1436 -5.7328 2.3923
-2.9431 -5.8577 2.3923
-2.7379 -5.9758 2.3923
-2.5282 -6.0868 2.3923
-2.3141 -6.1907 2.3923
-2.0960 -6.2872 2.3923
-1.8740 -6.3761 2.3923
-1.6485 -6.4572 2.3923
-1.4196 -6.5305 2.3923
-1.1877 -6.5958 2.3923
-0.9531 -6.6528 2.3923
-0.7159 -6.7015 2.3923
-0.4766 -6.7418 2.3923
-0.2353 -6.7735 2.3923
0.0075 -6.7965 2.3923
0.2516 -6.8107 2.3923
0.4967 -6.8161 2.3923
0.7423 -6.8126 2.3923
0.9883 -6.8000 2.3923
1.1616 -6.3800 2.2516
1.3855 -6.3179 2.2399
1.6147 -6.2809 2.2400
1.8432 -6.2361 2.2403
2.0706 -6.1833 2.2409
2.2964 -6.1220 2.2414
2.5203 -6.0522 2.2419
2.7419 -5.9739 2.2425
2.9610 -5.8872 2.2430
3.1771 -5.7921 2.2435
3.3899 -5.6887 2.2440
3.5929 -5.5674 2.2406
3.7891 -5.4359 2.2360
3.9896 -5.3091 2.2366
4.1845 -5.1736 2.2367
4.3745 -5.0307 2.2368
4.5593 -4.8803 2.2370
4.7385 -4.7229 2.2371
4.9118 -4.5586 2.2373
5.0790 -4.3875 2.2374
5.2398 -4.2100 2.2376
5.3939 -4.0263 2.2378
5.5410 -3.8365 2.2380
5.6808 -3.6411 2.2381
5.8133 -3.4403 2.2383
5.9380 -3.2344 2.2385
6.0548 -3.0237 2.2387
6.1635 -2.8085 2.2389
4.6645 -1.9280 1.6674
6.3560 -2.3659 2.2393
6.4393 -2.1392 2.2396
6.5139 -1.9095 2.2398
6.5797 -1.6769 2.2400
6.6364 -1.4419 2.2403
6.6840 -1.2049 2.2405
6.7225 -0.9662 2.2407
6.7517 -0.7263 2.2410
6.7717 -0.4854 2.2412
6.7823 -0.2440 2.2415
6.7837 -0.0024 2.2417
6.7758 0.2390 2.2420
6.7586 0.4797 2.2422
6.7321 0.7195 2.2425
6.6965 0.9579 2.2427
6.6519 1.1946 2.2430
6.5982 1.4292 2.2432
6.5356 1.6614 2.2435
6.4642 1.8908 2.2437
6.3843 2.1171 2.2440
6.2958 2.3399 2.2442
6.1990 2.5589 2.2445
6.0942 2.7737 2.2447
5.9807 2.9838 2.2447
5.5148 3.0016 2.1126
5.7287 3.3882 2.2438
5.5901 3.5813 2.2427
5.4414 3.7664 2.2402
5.2914 3.9491 2.2399
-5.8115 -0.3401 2.3923
-5.7995 -0.5510 2.3923
-5.7803 -0.7614 2.3923
-5.7540 -0.9711 2.3923
-5.7206 -1.1800 2.3923
-5.6801 -1.3879 2.3923
-5.6325 -1.5945 2.3923
-5.5779 -1.7995 2.3923
-5.5162 -2.0028 2.3923
-5.4476 -2.2042 2.3923
-5.3722 -2.4033 2.3923
-5.2898 -2.6001 2.3923
-5.2007 -2.7942 2.3923
-5.1048 -2.9854 2.3923
-5.0023 -3.1735 2.3923
-4.8933 -3.3583 2.3923
-4.7778 -3.5396 2.3923
-4.6559 -3.7171 2.3923
-4.5278 -3.8906 2.3923
-4.3935 -4.0599 2.3923
-4.2532 -4.2248 2.3923
-4.1070 -4.3850 2.3923
-3.9550 -4.5404 2.3923
-3.7974 -4.6908 2.3923
-3.6344 -4.8359 2.3923
-3.4660 -4.9755 2.3923
-3.2926 -5.1094 2.3923
-3.1141 -5.2375 2.3923
-2.9309 -5.3595 2.3923
-2.7431 -5.4753 2.3923
-2.5509 -5.5847 2.3923
-2.3545 -5.6874 2.3923
-2.1542 -5.7834 2.3923
-1.9501 -5.8725 2.3923
-1.7425 -5.9544 2.3923
-1.5316 -6.0291 2.3923
-1.3177 -6.0963 2.3923
-1.1011 -6.1561 2.3923
-0.8819 -6.2082 2.3923
-0.6605 -6.2524 2.3923
-0.4371 -6.2888 2.3923
-0.2121 -6.3172 2.3923
0.0144 -6.3375 2.3923
0.2419 -6.3496 2.3923
0.4703 -6.3534 2.3923
0.6992 -6.3489 2.3923
0.9282 -6.3361 2.3923
1.1515 -6.2836 2.3805
1.2974 -5.8847 2.2399
1.5106 -5.8490 2.2399
1.7229 -5.8055 2.2400
1.9341 -5.7550 2.2404
2.1439 -5.6969 2.2409
2.3519 -5.6308 2.2414
2.5576 -5.5569 2.2419
2.7609 -5.4753 2.2423
2.9614 -5.3858 2.2428
3.1588 -5.2888 2.2433
3.3528 -5.1842 2.2437
3.5430 -5.0722 2.2441
3.7214 -4.9423 2.2398
3.8966 -4.8086 2.2367
4.0735 -4.6758 2.2372
4.2447 -4.5354 2.2374
4.4108 -4.3885 2.2375
4.5713 -4.2352 2.2376
4.7262 -4.0757 2.2378
4.8751 -3.9103 2.2380
5.0177 -3.7392 2.2381
4.4719 -3.0912 1.9421
5.2833 -3.3807 2.2385
5.4059 -3.1938 2.2387
4.5752 -2.4878 1.8552
5.6293 -2.8063 2.2390
5.7299 -2.6062 2.2392
4.6651 -1.9246 1.7941
5.9079 -2.1949 2.2396
5.9850 -1.9843 2.2398
6.0540 -1.7708 2.2400
6.1148 -1.5547 2.2402
6.1673 -1.3365 2.2404
6.2114 -1.1164 2.2407
6.2470 -0.8947 2.2409
6.2740 -0.6719 2.2411
6.2925 -0.4482 2.2413
6.3024 -0.2240 2.2416
6.3038 0.0004 2.2418
5.0471 0.1800 1.7971
6.2806 0.4481 2.2423
6.2562 0.6708 2.2425
6.2234 0.8923 2.2427
6.1821 1.1122 2.2430
6.1325 1.3302 2.2432
6.0747 1.5459 2.2434
6.0088 1.7592 2.2437
5.9348 1.9695 2.2439
5.8530 2.1767 2.2441
5.7636 2.3803 2.2444
5.6665 2.5802 2.2446
5.5622 2.7761 2.2448
5.4499 2.9672 2.2447
5.3294 3.1528 2.2441
5.1989 3.3314 2.2421
5.0620 3.5044 2.2399
4.9237 3.6752 2.2399
4.7794 3.8404 2.2399
4.6293 3.9999 2.2399
4.4737 4.1533 2.2399
4.3128 4.3006 2.2399
4.1468 4.4415 2.2399
3.9761 4.5760 2.2399
3.8009 4.7037 2.2399
3.6215 4.8247 2.2399
3.6720 5.2748 2.3923
3.4723 5.3892 2.3923
3.2689 5.4959 2.3923
3.0623 5.5949 2.3923
2.8526 5.6861 2.3923
2.6403 5.7694 2.3923
0.9476 2.2834 0.9346
0.8650 2.3154 0.9369
0.7813 2.3443 0.9392
0.6966 2.3703 0.9414
0.6110 2.3931 0.9437
0.5246 2.4129 0.9460
0.4375 2.4295 0.9483
0.3499 2.4430 0.9505
0.2619 2.4533 0.9528
0.1736 2.4605 0.9550
0.0850 2.4644 0.9572
-0.0036 2.4651 0.9594
-0.0923 2.4627 0.9616
-0.1807 2.4570 0.9638
-0.2690 2.4481 0.9659
-0.3568 2.4361 0.9680
-0.4441 2.4209 0.9700
-0.5309 2.4025 0.9720
-0.6169 2.3811 0.9740
-0.7021 2.3565 0.9759
-0.7864 2.3289 0.9778
-0.8696 2.2982 0.9797
-2.3196 5.5202 2.3923
-2.5120 5.4215 2.3923
-2.7006 5.3164 2.3923
-2.8851 5.2051 2.3923
-3.0653 5.0877 2.3923
-3.2412 4.9644 2.3923
-3.4124 4.8354 2.3923
-3.5788 4.7008 2.3923
-3.7403 4.5609 2.3923
-3.8968 4.4157 2.3923
-4.0479 4.2654 2.3923
-4.1936 4.1104 2.3923
-4.3339 3.9506 2.3923
-4.4684 3.7864 2.3923
-4.5972 3.6179 2.3923
-4.7201 3.4453 2.3923
-4.8369 3.2688 2.3923
-4.9476 3.0886 2.3923
-5.0520 2.9049 2.3923
-5.1501 2.7179 2.3923
-5.2418 2.5278 2.3923
-5.3269 2.3349 2.3923
-5.4055 2.1393 2.3923
-5.4773 1.9412 2.3923
-5.5425 1.7409 2.3923
-5.6008 1.5384 2.3923
-5.6522 1.3343 2.3923
-5.6968 1.1285 2.3923
-5.7344 0.9213 2.3923
-5.7649 0.7130 2.3923
-5.7885 0.5035 2.3923
-5.8049 0.2936 2.3923
-5.8143 0.0831 2.3923
-5.8165 -0.1278 2.3923
-5.8116 -0.3385 2.3923
-5.7996 -0.5494 2.3923
-5.7805 -0.7598 2.3923
-5.7542 -0.9696 2.3923
-5.7209 -1.1785 2.3923
-5.6804 -1.3863 2.3923
-5.6329 -1.5929 2.3923
-5.5783 -1.7980 2.3923
-5.5167 -2.0013 2.3923
-5.4482 -2.2026 2.3923
-5.3728 -2.4019 2.3923
-5.2905 -2.5986 2.3923
-5.2014 -2.7927 2.3923
-5.1056 -2.9840 2.3923
-5.0031 -3.1721 2.3923
-4.8941 -3.3569 2.3923
-4.7787 -3.5382 2.3923
-4.6569 -3.7157 2.3923
-4.5288 -3.8893 2.3923
-4.3945 -4.0586 2.3923
-4.2543 -4.2236 2.3923
-4.1081 -4.3838 2.3923
-3.9562 -4.5393 2.3923
-3.7986 -4.6897 2.3923
-3.6356 -4.8348 2.3923
-3.4673 -4.9745 2.3923
-3.2939 -5.1084 2.3923
-3.1155 -5.2366 2.3923
-2.9323 -5.3586 2.3923
-2.7445 -5.4744 2.3923
-2.5523 -5.5839 2.3923
-2.3560 -5.6867 2.3923
-2.1557 -5.7827 2.3923
-1.9516 -5.8718 2.3923
-1.7441 -5.9538 2.3923
-1.5332 -6.0285 2.3923
-1.3194 -6.0959 2.3923
-1.1027 -6.1557 2.3923
-0.8836 -6.2078 2.3923
-0.6622 -6.2521 2.3923
-0.4388 -6.2886 2.3923
-0.2138 -6.3170 2.3923
0.0127 -6.3373 2.3923
0.2402 -6.3495 2.3923
0.4686 -6.3534 2.3923
0.6974 -6.3490 2.3923
0.9265 -6.3362 2.3923
1.1504 -6.2878 2.3820
1.2958 -5.8850 2.2399
1.5090 -5.8493 2.2399
1.7213 -5.8059 2.2400
1.9325 -5.7554 2.2404
2.1423 -5.6973 2.2409
2.3503 -5.6314 2.2414
2.5561 -5.5575 2.2419
2.7594 -5.4759 2.2423
2.9599 -5.3866 2.2428
3.1573 -5.2896 2.2433
3.3513 -5.1850 2.2437
3.5416 -5.0731 2.2441
3.7201 -4.9434 2.2399
3.8953 -4.8095 2.2367
4.0722 -4.6768 2.2372
4.2435 -4.5365 2.2374
4.4095 -4.3896 2.2375
4.5701 -4.2364 2.2376
4.7250 -4.0770 2.2378
4.8739 -3.9116 2.2380
5.0166 -3.7405 2.2381
4.4717 -3.0928 1.9424
5.2824 -3.3820 2.2385
5.4050 -3.1952 2.2387
5.5204 -3.0037 2.2388
5.6286 -2.8078 2.2390
5.7292 -2.6077 2.2392
4.6648 -1.9260 1.7943
5.9073 -2.1965 2.2396
5.9845 -1.9859 2.2398
6.0535 -1.7724 2.2400
6.1144 -1.5564 2.2402
6.1669 -1.3381 2.2404
6.2111 -1.1180 2.2407
6.2467 -0.8964 2.2409
6.2739 -0.6735 2.2411
6.2924 -0.4499 2.2413
6.3024 -0.2257 2.2416
6.3038 -0.0013 2.2418
5.0485 0.1786 1.7976
6.2808 0.4464 2.2423
6.2565 0.6691 2.2425
6.2237 0.8906 2.2427
6.1825 1.1105 2.2430
6.1329 1.3285 2.2432
6.0752 1.5443 2.2434
6.0093 1.7576 2.2437
5.9354 1.9679 2.2439
5.8537 2.1751 2.2441
5.7643 2.3788 2.2444
5.6673 2.5787 2.2446
5.5630 2.7746 2.2448
5.4507 2.9657 2.2447
5.3303 3.1514 2.2441
5.2000 3.3301 2.2421
5.0630 3.5031 2.2399
4.9248 3.6739 2.2399
4.7805 3.8392 2.2399
4.6305 3.9987 2.2399
4.4749 4.1522 2.2399
4.3140 4.2995 2.2399
4.1481 4.4405 2.2399
3.9774 4.5750 2.2399
3.8022 4.7028 2.2399
3.6228 4.8238 2.2399
3.6735 5.2739 2.3923
3.4738 5.3883 2.3923
3.2705 5.4951 2.3923
3.0639 5.5941 2.3923
2.8542 5.6854 2.3923
2.6419 5.7688 2.3923
0.9482 2.2831 0.9346
0.8656 2.3151 0.9369
0.7819 2.3441 0.9391
0.6972 2.3701 0.9414
0.6116 2.3930 0.9437
0.5252 2.4128 0.9460
0.4382 2.4294 0.9483
0.3506 2.4429 0.9505
0.2626 2.4533 0.9528
0.1742 2.4604 0.9550
0.0857 2.4644 0.9572
-0.0030 2.4651 0.9594
-0.0916 2.4627 0.9616
-0.1801 2.4570 0.9638
-0.2683 2.4482 0.9659
-0.3561 2.4362 0.9680
-0.4435 2.4210 0.9700
-0.5302 2.4027 0.9720
-0.6163 2.3812 0.9740
-0.7015 2.3567 0.9759
-0.7857 2.3291 0.9778
-0.8689 2.2985 0.9796
-2.3181 5.5209 2.3923
-2.5106 5.4222 2.3923
-2.6991 5.3172 2.3923
-2.8837 5.2059 2.3923
-3.0640 5.0886 2.3923
-3.2397 4.9654 2.3923
-3.4111 4.8364 2.3923
-3.5776 4.7019 2.3923
-3.7391 4.5619 2.3923
-3.8955 4.4168 2.3923
-4.0468 4.2666 2.3923
-4.1926 4.1115 2.3923
-4.3328 3.9518 2.3923
-4.4674 3.7876 2.3923
-4.5963 3.6192 2.3923
-4.7192 3.4466 2.3923
-4.8360 3.2701 2.3923
-4.9468 3.0899 2.3923
-5.0512 2.9063 2.3923
-5.1494 2.7193 2.3923
-5.2411 2.5293 2.3923
-5.3263 2.3362 2.3923
-5.4049 2.1408 2.3923
-5.4768 1.9427 2.3923
-5.5420 1.7424 2.3923
-5.6004 1.5401 2.3923
-5.6519 1.3359 2.3923
-5.6965 1.1301 2.3923
-5.7341 0.9229 2.3923
-5.7647 0.7146 2.3923
-5.7883 0.5052 2.3923
-5.8048 0.2952 2.3923
-5.8142 0.0847 2.3923
-5.8165 -0.1262 2.3923
-5.8117 -0.3372 2.3923
-5.7997 -0.5478 2.3923
-5.7807 -0.7582 2.3923
-5.7545 -0.9679 2.3923
-5.7212 -1.1769 2.3923
-5.6807 -1.3848 2.3923
-5.6333 -1.5914 2.3923
-5.5787 -1.7964 2.3923
-5.5172 -1.9998 2.3923
-5.4487 -2.2012 2.3923
-5.3734 -2.4003 2.3923
-5.2911 -2.5971 2.3923
-5.2021 -2.7913 2.3923
-5.1063 -2.9825 2.3923
-5.0039 -3.1707 2.3923
-4.8950 -3.3555 2.3923
-4.7796 -3.5369 2.3923
-4.6578 -3.7144 2.3923
-4.5298 -3.8880 2.3923
-4.3956 -4.0574 2.3923
-4.2554 -4.2223 2.3923
-4.1092 -4.3827 2.3923
-3.9574 -4.5381 2.3923
-3.7999 -4.6886 2.3923
-3.6369 -4.8337 2.3923
-3.4686 -4.9734 2.3923
-3.2952 -5.1075 2.3923
-3.1168 -5.2356 2.3923
-2.9337 -5.3577 2.3923
-2.7459 -5.4736 2.3923
-2.5538 -5.5831 2.3923
-2.3575 -5.6859 2.3923
-2.1572 -5.7820 2.3923
-1.9532 -5.8712 2.3923
-1.7456 -5.9532 2.3923
-1.5348 -6.0280 2.3923
-1.3210 -6.0954 2.3923
-1.1044 -6.1552 2.3923
-0.8852 -6.2074 2.3923
-0.6639 -6.2518 2.3923
-0.4405 -6.2883 2.3923
-0.2155 -6.3168 2.3923
0.0109 -6.3372 2.3923
0.2385 -6.3494 2.3923
0.4669 -6.3534 2.3923
0.6957 -6.3490 2.3923
0.9248 -6.3363 2.3923
1.1494 -6.2918 2.3835
1.2942 -5.8852 2.2399
1.5074 -5.8496 2.2399
1.7197 -5.8062 2.2400
1.9309 -5.7558 2.2404
2.1408 -5.6978 2.2409
2.3487 -5.6319 2.2414
2.5545 -5.5581 2.2419
2.7579 -5.4766 2.2423
2.9584 -5.3873 2.2428
3.1559 -5.2903 2.2433
3.3499 -5.1858 2.2437
3.5402 -5.0739 2.2441
3.7187 -4.9445 2.2399
3.8939 -4.8104 2.2367
4.0709 -4.6779 2.2372
4.2422 -4.5376 2.2374
4.4083 -4.3908 2.2375
4.5689 -4.2376 2.2376
4.7239 -4.0782 2.2378
4.8729 -3.9128 2.2380
5.0156 -3.7418 2.2381
4.4714 -3.0943 1.9427
5.2814 -3.3834 2.2385
5.4041 -3.1967 2.2387
5.5196 -3.0052 2.2388
5.6278 -2.8093 2.2390
5.7285 -2.6093 2.2392
4.6646 -1.9274 1.7944
5.9067 -2.1980 2.2396
5.9839 -1.9875 2.2398
6.0530 -1.7740 2.2400
6.1140 -1.5580 2.2402
6.1666 -1.3398 2.2404
6.2108 -1.1197 2.2407
6.2465 -0.8981 2.2409
6.2737 -0.6752 2.2411
6.2923 -0.4515 2.2413
6.3024 -0.2274 2.2416
6.3038 -0.0030 2.2418
6.2966 0.2211 2.2420
6.2809 0.4447 2.2423
6.2567 0.6674 2.2425
6.2239 0.8889 2.2427
6.1828 1.1089 2.2430
6.1333 1.3269 2.2432
6.0756 1.5427 2.2434
6.0098 1.7559 2.2437
5.9360 1.9663 2.2439
5.8543 2.1736 2.2441
5.7650 2.3773 2.2444
5.6681 2.5772 2.2446
5.5638 2.7731 2.2448
5.4516 2.9643 2.2447
5.3312 3.1501 2.2441
5.2010 3.3288 2.2421
5.0640 3.5018 2.2399
4.9259 3.6727 2.2399
-5.4585 -0.3205 2.3923
-5.4470 -0.5186 2.3923
-5.4288 -0.7163 2.3923
-5.4038 -0.9133 2.3923
-5.3721 -1.1096 2.3923
-5.3337 -1.3049 2.3923
-5.2887 -1.4988 2.3923
-5.2370 -1.6914 2.3923
-5.1788 -1.8823 2.3923
-5.1140 -2.0713 2.3923
-5.0427 -2.2583 2.3923
-4.9649 -2.4429 2.3923
-4.8808 -2.6249 2.3923
-4.7904 -2.8043 2.3923
-4.6937 -2.9807 2.3923
-4.5908 -3.1539 2.3923
-4.4819 -3.3238 2.3923
-4.3671 -3.4900 2.3923
-4.2463 -3.6525 2.3923
-4.1198 -3.8110 2.3923
-3.9877 -3.9653 2.3923
-3.8500 -4.1152 2.3923
-3.7070 -4.2606 2.3923
-3.5587 -4.4011 2.3923
-3.4053 -4.5366 2.3923
-3.2470 -4.6670 2.3923
-3.0839 -4.7920 2.3923
-2.9161 -4.9114 2.3923
-2.7440 -5.0252 2.3923
-2.5676 -5.1330 2.3923
-2.3871 -5.2348 2.3923
-2.2027 -5.3303 2.3923
-2.0147 -5.4195 2.3923
-1.8232 -5.5021 2.3923
-1.6285 -5.5781 2.3923
-1.4307 -5.6472 2.3923
-1.2302 -5.7094 2.3923
-1.0272 -5.7645 2.3923
-0.8219 -5.8124 2.3923
-0.6145 -5.8529 2.3923
-0.4054 -5.8861 2.3923
-0.1947 -5.9118 2.3923
0.0172 -5.9299 2.3923
0.2301 -5.9403 2.3923
0.4436 -5.9430 2.3923
0.6576 -5.9380 2.3923
0.8717 -5.9251 2.3923
1.0856 -5.9043 2.3923
1.2627 -5.7116 2.3255
1.4154 -5.4673 2.2399
1.6135 -5.4258 2.2400
1.8104 -5.3770 2.2400
2.0061 -5.3218 2.2404
2.2000 -5.2593 2.2409
2.3918 -5.1895 2.2413
2.5812 -5.1126 2.2418
2.7681 -5.0284 2.2422
2.9519 -4.9371 2.2426
3.1326 -4.8389 2.2430
3.3097 -4.7337 2.2434
3.4830 -4.6218 2.2438
3.6523 -4.5032 2.2442
3.8101 -4.3700 2.2404
3.9640 -4.2323 2.2373
4.1192 -4.0956 2.2378
4.2687 -3.9522 2.2380
4.4127 -3.8030 2.2381
4.5513 -3.6484 2.2383
4.4360 -3.3038 2.1199
4.8106 -3.3235 2.2386
4.9310 -3.1536 2.2387
5.0450 -2.9792 2.2389
5.1524 -2.8004 2.2391
5.2529 -2.6176 2.2393
5.3465 -2.4309 2.2395
4.6652 -1.9240 1.9232
5.5120 -2.0472 2.2398
5.5838 -1.8508 2.2400
5.6480 -1.6517 2.2402
5.7046 -1.4503 2.2404
5.7534 -1.2468 2.2406
5.7945 -1.0415 2.2408
5.8277 -0.8349 2.2410
5.8530 -0.6271 2.2412
5.8703 -0.4186 2.2414
5.8796 -0.2096 2.2417
5.0008 -0.0004 1.9063
5.8744 0.2086 2.2421
5.8598 0.4170 2.2423
5.8373 0.6247 2.2425
5.8070 0.8313 2.2427
5.7688 1.0364 2.2430
5.7229 1.2398 2.2432
5.6693 1.4411 2.2434
5.6082 1.6400 2.2436
5.5396 1.8364 2.2438
5.4638 2.0298 2.2440
5.3807 2.2200 2.2443
5.2907 2.4067 2.2445
5.1938 2.5896 2.2447
5.0902 2.7686 2.2449
4.9686 2.9365 2.2399
4.8521 3.1061 2.2399
4.7294 3.2709 2.2399
4.6009 3.4308 2.2399
4.4667 3.5855 2.2399
4.3270 3.7348 2.2399
4.1822 3.8786 2.2399
4.0324 4.0167 2.2399
3.8779 4.1489 2.2399
3.7189 4.2751 2.2399
3.5557 4.3951 2.2399
3.3885 4.5089 2.2399
3.4365 4.9302 2.3923
3.2502 5.0378 2.3923
3.0605 5.1383 2.3923
2.8677 5.2317 2.3923
2.6720 5.3178 2.3923
2.4738 5.3965 2.3923
0.8884 2.1370 0.9350
0.8111 2.1670 0.9371
0.7328 2.1941 0.9393
0.6535 2.2183 0.9414
0.5733 2.2397 0.9435
0.4925 2.2582 0.9457
0.4110 2.2738 0.9478
0.3290 2.2864 0.9499
0.2466 2.2960 0.9520
0.1639 2.3027 0.9541
0.0810 2.3064 0.9562
-0.0019 2.3070 0.9583
-0.0849 2.3047 0.9603
-0.1677 2.2994 0.9623
-0.2503 2.2911 0.9643
-0.3325 2.2798 0.9662
-0.4142 2.2656 0.9682
-0.4954 2.2484 0.9700
-0.5760 2.2283 0.9719
-0.6557 2.2054 0.9737
-0.7346 2.1795 0.9755
-0.8124 2.1508 0.9772
-0.8892 2.1194 0.9788
-2.3541 5.0877 2.3923
-2.5314 4.9896 2.3923
-2.7049 4.8857 2.3923
-2.8744 4.7760 2.3923
-3.0398 4.6607 2.3923
-3.2009 4.5400 2.3923
-3.3575 4.4140 2.3923
-3.5095 4.2829 2.3923
-3.6567 4.1469 2.3923
-3.7989 4.0061 2.3923
-3.9361 3.8607 2.3923
-4.0682 3.7109 2.3923
-4.1949 3.5568 2.3923
-4.3161 3.3987 2.3923
-4.4318 3.2367 2.3923
-4.5418 3.0710 2.3923
-4.6460 2.9018 2.3923
-4.7444 2.7293 2.3923
-4.8368 2.5537 2.3923
-4.9231 2.3751 2.3923
-5.0033 2.1938 2.3923
-5.0772 2.0100 2.3923
-5.1449 1.8239 2.3923
-5.2062 1.6356 2.3923
-5.2611 1.4454 2.3923
-5.3095 1.2535 2.3923
-5.3513 1.0600 2.3923
-5.3866 0.8653 2.3923
-5.4153 0.6694 2.3923
-5.4374 0.4727 2.3923
-5.4527 0.2753 2.3923
-5.4614 0.0773 2.3923
-5.4634 -0.1208 2.3923
-5.4586 -0.3190 2.3923
-5.4471 -0.5171 2.3923
-5.4289 -0.7148 2.3923
-5.4040 -0.9118 2.3923
-5.3724 -1.1081 2.3923
-5.3341 -1.3034 2.3923
-5.2891 -1.4974 2.3923
-5.2375 -1.6900 2.3923
-5.1793 -1.8809 2.3923
-5.1145 -2.0699 2.3923
-5.0432 -2.2569 2.3923
-4.9655 -2.4415 2.3923
-4.8815 -2.6236 2.3923
-4.7911 -2.8029 2.3923
-4.6944 -2.9794 2.3923
-4.5916 -3.1526 2.3923
-4.4828 -3.3225 2.3923
-4.3679 -3.4888 2.3923
-4.2472 -3.6513 2.3923
-4.1208 -3.8099 2.3923
-3.9887 -3.9642 2.3923
-3.8511 -4.1141 2.3923
-3.7081 -4.2595 2.3923
-3.5598 -4.4000 2.3923
-3.4065 -4.5356 2.3923
-3.2482 -4.6660 2.3923
-3.0851 -4.7911 2.3923
-2.9174 -4.9105 2.3923
-2.7453 -5.0243 2.3923
-2.5689 -5.1322 2.3923
-2.3884 -5.2340 2.3923
-2.2041 -5.3296 2.3923
-2.0161 -5.4189 2.3923
-1.8246 -5.5015 2.3923
-1.6299 -5.5775 2.3923
-1.4322 -5.6467 2.3923
-1.2318 -5.7089 2.3923
-1.0287 -5.7641 2.3923
-0.8234 -5.8120 2.3923
-0.6161 -5.8527 2.3923
-0.4070 -5.8859 2.3923
-0.1963 -5.9116 2.3923
0.0156 -5.9298 2.3923
0.2285 -5.9403 2.3923
0.4420 -5.9430 2.3923
0.6560 -5.9380 2.3923
0.8701 -5.9252 2.3923
1.0840 -5.9045 2.3923
1.2619 -5.7151 2.3268
1.4139 -5.4676 2.2399
1.6121 -5.4261 2.2400
1.8089 -5.3774 2.2400
2.0046 -5.3222 2.2404
2.1985 -5.2598 2.2409
2.3903 -5.1901 2.2413
2.5798 -5.1132 2.2418
2.7666 -5.0291 2.2422
2.9506 -4.9378 2.2426
3.1312 -4.8396 2.2430
3.3084 -4.7345 2.2434
3.4817 -4.6227 2.2438
3.6510 -4.5042 2.2442
3.8089 -4.3711 2.2404
3.9628 -4.2334 2.2373
4.1181 -4.0966 2.2378
4.2676 -3.9533 2.2380
4.4117 -3.8042 2.2381
4.5502 -3.6496 2.2383
4.4357 -3.3055 2.1202
4.8097 -3.3248 2.2386
4.9302 -3.1550 2.2387
5.0442 -2.9805 2.2389
5.1516 -2.8018 2.2391
5.2522 -2.6190 2.2393
5.3458 -2.4323 2.2395
4.6649 -1.9254 1.9233
5.5115 -2.0487 2.2398
5.5833 -1.8523 2.2400
5.6475 -1.6532 2.2402
5.7042 -1.4518 2.2404
5.7531 -1.2483 2.2406
5.7942 -1.0431 2.2408
5.8275 -0.8365 2.2410
5.8528 -0.6287 2.2412
5.8702 -0.4202 2.2414
5.8796 -0.2112 2.2417
5.0005 -0.0017 1.9062
5.8745 0.2070 2.2421
5.8600 0.4155 2.2423
5.8375 0.6232 2.2425
5.8072 0.8297 2.2427
5.7691 1.0348 2.2430
5.7232 1.2382 2.2432
5.6697 1.4396 2.2434
5.6087 1.6386 2.2436
5.5402 1.8349 2.2438
5.4644 2.0283 2.2440
5.3814 2.2185 2.2443
5.2914 2.4053 2.2445
5.1945 2.5883 2.2447
5.0910 2.7672 2.2449
4.9695 2.9352 2.2399
4.8530 3.1048 2.2399
4.7303 3.2697 2.2399
4.6018 3.4296 2.2399
4.4677 3.5843 2.2399
4.3281 3.7337 2.2399
4.1833 3.8776 2.2399
4.0336 4.0157 2.2399
3.8791 4.1480 2.2399
3.7201 4.2742 2.2399
3.5569 4.3943 2.2399
3.3898 4.5080 2.2399
3.4378 4.9294 2.3923
3.2516 5.0370 2.3923
3.0620 5.1376 2.3923
2.8692 5.2310 2.3923
2.6735 5.3171 2.3923
2.4753 5.3960 2.3923
0.8890 2.1368 0.9350
0.8117 2.1667 0.9371
0.7334 2.1939 0.9393
0.6541 2.2182 0.9414
0.5739 2.2396 0.9435
0.4931 2.2581 0.9457
0.4116 2.2737 0.9478
0.3296 2.2863 0.9499
0.2472 2.2960 0.9520
0.1645 2.3026 0.9541
0.0816 2.3063 0.9562
-0.0013 2.3070 0.9582
-0.0843 2.3048 0.9603
-0.1671 2.2995 0.9623
-0.2497 2.2912 0.9643
-0.3319 2.2799 0.9662
-0.4136 2.2657 0.9681
-0.4948 2.2486 0.9700
-0.5754 2.2285 0.9719
-0.6551 2.2055 0.9737
-0.7340 2.1797 0.9754
-0.8119 2.1511 0.9772
-0.8886 2.1196 0.9788
-2.3528 5.0884 2.3923
-2.5301 4.9904 2.3923
-2.7036 4.8865 2.3923
-2.8732 4.7768 2.3923
-3.0386 4.6616 2.3923
-3.1997 4.5409 2.3923
-3.3563 4.4150 2.3923
-3.5083 4.2839 2.3923
-3.6556 4.1479 2.3923
-3.7979 4.0072 2.3923
-3.9351 3.8618 2.3923
-4.0672 3.7120 2.3923
-4.1939 3.5580 2.3923
-4.3152 3.3999 2.3923
-4.4310 3.2379 2.3923
-4.5410 3.0723 2.3923
-4.6453 2.9031 2.3923
-4.7437 2.7306 2.3923
-4.8361 2.5550 2.3923
-4.9225 2.3765 2.3923
-5.0027 2.1952 2.3923
-5.0767 2.0114 2.3923
-5.1444 1.8253 2.3923
-5.2057 1.6370 2.3923
-5.2607 1.4469 2.3923
-5.3091 1.2549 2.3923
-5.3510 1.0615 2.3923
-5.3864 0.8668 2.3923
-5.4151 0.6709 2.3923
-5.4372 0.4742 2.3923
-5.4526 0.2768 2.3923
-5.4614 0.0789 2.3923
-5.4634 -0.1193 2.3923
-5.4587 -0.3175 2.3923
-5.4472 -0.5156 2.3923
-5.4291 -0.7133 2.3923
-5.4042 -0.9104 2.3923
