ply
format ascii 1.0
element vertex 2185
property float32 x
property float32 y
property float32 z
end_header
6.2556 1.1953 1.8894
7.2964 1.6705 2.2206
7.2332 1.9345 2.2209
7.1616 2.1965 2.2211
7.0817 2.4563 2.2214
6.9936 2.7136 2.2217
6.8973 2.9682 2.2220
6.7928 3.2199 2.2223
6.6803 3.4685 2.2226
6.5597 3.7137 2.2228
6.4313 3.9554 2.2231
6.2949 4.1933 2.2234
6.1508 4.4272 2.2237
5.9990 4.6568 2.2240
5.8395 4.8820 2.2243
5.6726 5.1025 2.2246
5.4981 5.3182 2.2248
5.3148 5.5266 2.2244
5.1247 5.7306 2.2242
4.9302 5.9318 2.2251
4.7337 6.1336 2.2284
4.5354 6.3371 2.2344
4.3329 6.5421 2.2425
4.1126 6.7253 2.2451
3.8799 6.8925 2.2447
3.6410 7.0525 2.2442
3.3961 7.2051 2.2438
3.1454 7.3500 2.2433
2.8891 7.4871 2.2427
2.6273 7.6160 2.2422
2.3608 7.7380 2.2421
2.0893 7.8519 2.2420
0.8107 3.5581 1.0025
0.6823 3.5866 0.9984
0.5529 3.6104 0.9943
0.4228 3.6295 0.9900
0.2920 3.6439 0.9858
0.1608 3.6535 0.9814
-2.3730 -8.6806 2.3944
-2.0519 -8.7202 2.3944
-1.7309 -8.7476 2.3944
-1.4104 -8.7631 2.3944
-1.0909 -8.7667 2.3944
-0.7729 -8.7585 2.3944
-0.4567 -8.7388 2.3944
-0.1428 -8.7078 2.3944
0.1683 -8.6655 2.3944
0.4764 -8.6123 2.3944
0.7810 -8.5483 2.3944
1.0817 -8.4738 2.3944
1.3783 -8.3889 2.3944
1.6703 -8.2941 2.3944
1.9575 -8.1894 2.3944
2.2396 -8.0753 2.3944
2.5162 -7.9518 2.3944
2.7872 -7.8194 2.3944
3.0522 -7.6784 2.3944
3.3110 -7.5289 2.3944
3.5634 -7.3712 2.3944
3.8091 -7.2057 2.3944
4.0480 -7.0326 2.3944
4.2798 -6.8523 2.3944
4.5045 -6.6649 2.3944
4.7218 -6.4709 2.3944
4.9315 -6.2705 2.3944
5.1336 -6.0640 2.3944
5.1554 -5.6622 2.3169
5.1632 -5.2748 2.2420
5.3303 -5.0663 2.2420
5.4897 -4.8528 2.2420
5.6415 -4.6349 2.2421
5.7854 -4.4129 2.2421
5.9215 -4.1871 2.2421
6.0497 -3.9576 2.2422
6.1709 -3.7253 2.2426
6.2843 -3.4900 2.2430
6.3896 -3.2517 2.2434
6.4867 -3.0106 2.2438
6.5757 -2.7672 2.2442
6.6521 -2.5198 2.2431
6.7121 -2.2681 2.2393
6.7551 -2.0130 2.2326
6.7958 -1.7597 2.2280
6.8298 -1.5066 2.2239
6.8564 -1.2536 2.2201
6.8811 -1.0019 2.2183
6.9002 -0.7501 2.2174
6.9136 -0.4989 2.2172
6.6386 -0.2374 2.1273
6.5812 0.0036 2.1095
6.9113 0.2547 2.2186
6.8952 0.5050 2.2193
6.8708 0.7550 2.2199
6.8374 1.0035 2.2202
6.7961 1.2508 2.2205
6.7468 1.4968 2.2207
6.6896 1.7411 2.2210
6.6247 1.9835 2.2212
6.5520 2.2238 2.2215
6.4717 2.4619 2.2217
6.3836 2.6974 2.2220
5.8526 2.7273 2.0684
6.1853 3.1587 2.2225
6.0742 3.3869 2.2228
5.6643 3.4334 2.1140
5.8290 3.8289 2.2225
5.6952 4.0444 2.2223
5.5555 4.2565 2.2225
5.4090 4.4639 2.2228
5.2580 4.6699 2.2242
5.1025 4.8737 2.2267
4.9440 5.0771 2.2311
4.7792 5.2774 2.2359
4.6112 5.4780 2.2426
4.4271 5.6633 2.2451
4.2310 5.8359 2.2448
4.0287 6.0024 2.2444
3.8204 6.1626 2.2440
3.6063 6.3162 2.2436
3.3866 6.4632 2.2432
3.1613 6.6032 2.2428
2.9308 6.7360 2.2423
2.6955 6.8623 2.2421
2.4554 6.9817 2.2420
2.2106 7.0934 2.2420
0.8761 3.2152 1.0015
0.7599 3.2462 0.9979
0.6427 3.2729 0.9942
0.5247 3.2955 0.9904
0.4058 3.3137 0.9865
0.2864 3.3277 0.9826
0.1665 3.3373 0.9786
0.0464 3.3425 0.9746
-0.0739 3.3434 0.9706
-0.1941 3.3400 0.9664
-0.3141 3.3321 0.9623
-0.4338 3.3200 0.9581
-0.5529 3.3035 0.9540
-0.6714 3.2828 0.9497
-0.7890 3.2577 0.9455
-0.9057 3.2284 0.9413
-2.6093 8.1635 2.3944
-2.9143 8.1038 2.3944
-3.2183 8.0328 2.3944
-3.5209 7.9506 2.3944
-3.8216 7.8570 2.3944
-4.1200 7.7521 2.3944
-4.4157 7.6358 2.3944
-4.7082 7.5082 2.3944
-4.9969 7.3694 2.3944
-5.2815 7.2192 2.3944
-5.5615 7.0580 2.3944
-5.8363 6.8856 2.3944
-6.1056 6.7024 2.3944
-6.3687 6.5083 2.3944
-6.6252 6.3036 2.3944
-6.8747 6.0885 2.3944
-7.1166 5.8632 2.3944
-7.3505 5.6279 2.3944
-7.5759 5.3830 2.3944
-7.7924 5.1287 2.3944
-7.9994 4.8653 2.3944
-8.1965 4.5931 2.3944
-8.3834 4.3127 2.3944
-8.5595 4.0243 2.3944
-8.7246 3.7283 2.3944
-8.8782 3.4253 2.3944
-9.0199 3.1156 2.3944
-9.1494 2.7998 2.3944
-9.2664 2.4784 2.3944
-9.3705 2.1520 2.3944
-9.4616 1.8209 2.3944
-9.5394 1.4859 2.3944
-9.6036 1.1475 2.3944
-9.6541 0.8063 2.3944
-9.6908 0.4629 2.3944
-8.7369 -4.2259 2.3944
-8.5690 -4.5277 2.3944
-8.3891 -4.8222 2.3944
-8.1977 -5.1087 2.3944
-7.9951 -5.3868 2.3944
-7.7818 -5.6560 2.3944
-7.5582 -5.9159 2.3944
-7.3248 -6.1659 2.3944
-7.0820 -6.4062 2.3944
-6.8303 -6.6362 2.3944
-6.5704 -6.8551 2.3944
-6.3026 -7.0632 2.3944
-6.0275 -7.2599 2.3944
-5.7456 -7.4451 2.3944
-5.4575 -7.6185 2.3944
-5.1637 -7.7801 2.3944
-4.8648 -7.9296 2.3944
-4.5612 -8.0670 2.3944
-4.2537 -8.1921 2.3944
-3.9426 -8.3049 2.3944
-3.6285 -8.4053 2.3944
-3.3120 -8.4934 2.3944
-2.9936 -8.5690 2.3944
-2.6738 -8.6324 2.3944
-2.3531 -8.6834 2.3944
-2.0320 -8.7222 2.3944
-1.7110 -8.7490 2.3944
-1.3905 -8.7637 2.3944
-1.0711 -8.7665 2.3944
-0.7532 -8.7576 2.3944
-0.4371 -8.7372 2.3944
-0.1234 -8.7055 2.3944
0.1876 -8.6625 2.3944
0.4954 -8.6086 2.3944
0.7998 -8.5440 2.3944
1.1003 -8.4688 2.3944
1.3965 -8.3833 2.3944
1.6883 -8.2879 2.3944
1.9752 -8.1826 2.3944
2.2569 -8.0679 2.3944
2.5332 -7.9438 2.3944
2.8038 -7.8109 2.3944
3.0684 -7.6693 2.3944
3.3268 -7.5193 2.3944
3.5788 -7.3611 2.3944
3.8241 -7.1952 2.3944
4.0626 -7.0216 2.3944
4.2940 -6.8408 2.3944
4.5182 -6.6531 2.3944
4.7350 -6.4587 2.3944
4.9443 -6.2579 2.3944
5.1459 -6.0510 2.3944
5.1483 -5.6290 2.3086
5.1738 -5.2623 2.2420
5.3404 -5.0532 2.2420
5.4994 -4.8394 2.2420
5.6506 -4.6213 2.2421
5.7941 -4.3990 2.2421
5.9297 -4.1729 2.2422
6.0574 -3.9432 2.2422
6.1782 -3.7108 2.2426
6.2910 -3.4752 2.2430
6.3958 -3.2368 2.2435
6.4925 -2.9956 2.2439
6.5810 -2.7520 2.2443
6.6564 -2.5043 2.2430
6.7150 -2.2522 2.2389
6.7578 -1.9973 2.2323
6.7981 -1.7440 2.2277
6.8317 -1.4909 2.2236
6.8578 -1.2380 2.2199
6.8825 -0.9863 2.2183
6.9010 -0.7342 2.2174
6.9142 -0.4833 2.2172
6.6346 -0.2223 2.1259
6.5773 0.0184 2.1084
6.9105 0.2702 2.2187
6.8938 0.5208 2.2193
6.8690 0.7703 2.2200
6.8351 1.0188 2.2202
6.7932 1.2662 2.2205
6.7434 1.5120 2.2207
6.6858 1.7562 2.2210
6.6204 1.9985 2.2212
6.5473 2.2387 2.2215
6.4664 2.4766 2.2218
6.3779 2.7120 2.2220
5.8488 2.7416 2.0691
6.1782 3.1743 2.2225
6.0671 3.4009 2.2228
5.6602 3.4484 2.1152
5.8209 3.8424 2.2225
5.6867 4.0576 2.2223
5.5466 4.2693 2.2226
5.3997 4.4770 2.2229
5.2484 4.6827 2.2243
5.0928 4.8864 2.2270
4.9340 5.0897 2.2313
4.7687 5.2897 2.2362
4.6003 5.4900 2.2430
4.4151 5.6742 2.2451
4.2186 5.8464 2.2448
4.0159 6.0125 2.2444
3.8073 6.1723 2.2440
3.5928 6.3256 2.2436
3.3727 6.4721 2.2432
3.1472 6.6116 2.2427
2.9163 6.7440 2.2423
2.6807 6.8700 2.2421
2.4403 6.9889 2.2420
2.1952 7.1001 2.2420
0.8689 3.2172 1.0013
0.7527 3.2480 0.9977
0.6354 3.2745 0.9939
0.5173 3.2967 0.9901
0.3984 3.3147 0.9863
0.2790 3.3284 0.9824
0.1591 3.3377 0.9784
0.0389 3.3427 0.9744
-0.0813 3.3433 0.9703
-0.2016 3.3396 0.9662
-0.3216 3.3315 0.9620
-0.4412 3.3191 0.9579
-0.5603 3.3024 0.9537
-0.6787 3.2813 0.9495
-0.7963 3.2560 0.9453
-0.9129 3.2264 0.9410
-2.6282 8.1601 2.3944
-2.9332 8.0997 2.3944
-3.2371 8.0280 2.3944
-3.5396 7.9451 2.3944
-3.8402 7.8508 2.3944
-4.1385 7.7452 2.3944
-4.4340 7.6282 2.3944
-4.7262 7.4999 2.3944
-5.0147 7.3604 2.3944
-5.2991 7.2096 2.3944
-5.5787 7.0476 2.3944
-5.8532 6.8746 2.3944
-6.1221 6.6906 2.3944
-6.3848 6.4958 2.3944
-6.6409 6.2906 2.3944
-6.8900 6.0748 2.3944
-7.1314 5.8489 2.3944
-7.3648 5.6130 2.3944
-7.5896 5.3675 2.3944
-7.8055 5.1126 2.3944
-8.0119 4.8486 2.3944
-8.2084 4.5760 2.3944
-8.3947 4.2950 2.3944
-8.5701 4.0061 2.3944
-8.7345 3.7097 2.3944
-8.8873 3.4062 2.3944
-9.0283 3.0962 2.3944
-9.1570 2.7800 2.3944
-9.2732 2.4583 2.3944
-9.3766 2.1315 2.3944
-9.4668 1.8002 2.3944
-9.5438 1.4650 2.3944
-9.6072 1.1264 2.3944
-9.6568 0.7850 2.3944
-9.6926 0.4415 2.3944
-8.7268 -4.2448 2.3944
-8.5582 -4.5462 2.3944
-8.3775 -4.8402 2.3944
-8.1854 -5.1262 2.3944
-7.9822 -5.4038 2.3944
-7.7682 -5.6727 2.3944
-7.5440 -5.9317 2.3944
-7.3099 -6.1813 2.3944
-7.0666 -6.4210 2.3944
-6.8144 -6.6502 2.3944
-6.5540 -6.8684 2.3944
-6.2857 -7.0757 2.3944
-6.0101 -7.2717 2.3944
-5.7279 -7.4562 2.3944
-5.4394 -7.6289 2.3944
-5.1453 -7.7898 2.3944
-4.8460 -7.9385 2.3944
-4.5422 -8.0752 2.3944
-4.2344 -8.1995 2.3944
-3.9231 -8.3115 2.3944
-3.6089 -8.4112 2.3944
-3.2923 -8.4984 2.3944
-2.9738 -8.5733 2.3944
-2.6539 -8.6359 2.3944
-2.3332 -8.6862 2.3944
-2.0120 -8.7243 2.3944
-1.6911 -8.7502 2.3944
-1.3707 -8.7642 2.3944
-1.0512 -8.7665 2.3944
-0.7335 -8.7567 2.3944
-0.4176 -8.7356 2.3944
-0.1040 -8.7031 2.3944
0.2068 -8.6595 2.3944
0.5144 -8.6049 2.3944
0.8186 -8.5396 2.3944
1.1188 -8.4638 2.3944
1.4148 -8.3777 2.3944
1.7063 -8.2816 2.3944
1.9929 -8.1758 2.3944
2.2743 -8.0605 2.3944
2.5502 -7.9359 2.3944
2.8204 -7.8024 2.3944
3.0847 -7.6603 2.3944
3.3427 -7.5097 2.3944
3.5942 -7.3511 2.3944
3.8391 -7.1846 2.3944
4.0772 -7.0106 2.3944
4.3081 -6.8294 2.3944
4.5319 -6.6412 2.3944
4.7482 -6.4464 2.3944
4.9570 -6.2452 2.3944
5.1581 -6.0379 2.3944
5.1412 -5.5961 2.3003
5.1844 -5.2495 2.2420
5.3505 -5.0400 2.2420
5.5090 -4.8260 2.2420
5.6598 -4.6076 2.2421
5.8028 -4.3851 2.2421
5.9379 -4.1587 2.2422
6.0651 -3.9288 2.2422
6.1854 -3.6962 2.2426
6.2978 -3.4605 2.2431
6.4021 -3.2219 2.2435
6.4982 -2.9805 2.2439
6.5862 -2.7368 2.2443
6.6605 -2.4888 2.2428
6.7178 -2.2364 2.2384
6.7605 -1.9816 2.2320
6.8004 -1.7283 2.2275
6.8335 -1.4752 2.2234
6.8592 -1.2224 2.2196
6.8839 -0.9706 2.2182
6.9021 -0.7190 2.2173
6.9148 -0.4676 2.2173
6.6376 -0.2074 2.1269
6.5733 0.0332 2.1073
6.9097 0.2858 2.2187
6.8926 0.5359 2.2194
6.8671 0.7858 2.2200
6.8327 1.0342 2.2202
6.2594 1.1813 2.0469
6.7401 1.5272 2.2208
6.6820 1.7713 2.2210
6.6161 2.0135 2.2213
6.5425 2.2535 2.2215
6.4611 2.4913 2.2218
6.3722 2.7265 2.2220
5.8449 2.7559 2.0698
6.1715 3.1885 2.2225
6.0600 3.4148 2.2228
5.6562 3.4634 2.1165
5.8128 3.8559 2.2225
5.6782 4.0710 2.2223
5.5376 4.2824 2.2226
5.3905 4.4902 2.2230
5.2388 4.6951 2.2244
5.0832 4.8991 2.2273
4.9239 5.1022 2.2316
4.7583 5.3022 2.2365
4.5891 5.5016 2.2431
4.4031 5.6851 2.2451
4.2062 5.8569 2.2447
4.0031 6.0226 2.2444
3.7941 6.1820 2.2440
3.5793 6.3348 2.2436
3.3589 6.4809 2.2431
3.1330 6.6201 2.2427
2.9018 6.7520 2.2422
2.6659 6.8775 2.2421
2.4253 6.9960 2.2420
2.1798 7.1067 2.2420
0.8617 3.2192 1.0011
0.7454 3.2497 0.9974
0.6281 3.2760 0.9937
0.5099 3.2980 0.9899
0.3910 3.3157 0.9860
0.2715 3.3291 0.9821
0.1516 3.3381 0.9781
0.0314 3.3429 0.9741
-0.0888 3.3432 0.9700
-0.2090 3.3392 0.9659
-0.3290 3.3309 0.9618
-0.4486 3.3182 0.9576
-0.5677 3.3012 0.9534
-0.6860 3.2799 0.9492
-0.8036 3.2543 0.9450
-0.9201 3.2245 0.9408
-2.6472 8.1567 2.3944
-2.9521 8.0956 2.3944
-3.2559 8.0232 2.3944
-3.5583 7.9396 2.3944
-3.8588 7.8446 2.3944
-4.1569 7.7383 2.3944
-4.4522 7.6206 2.3944
-4.7442 7.4916 2.3944
-5.0325 7.3513 2.3944
-5.3166 7.1998 2.3944
-5.5959 7.0372 2.3944
-5.8701 6.8635 2.3944
-6.1386 6.6789 2.3944
-6.4009 6.4834 2.3944
-6.6566 6.2774 2.3944
-6.9052 6.0611 2.3944
-7.1461 5.8345 2.3944
-7.3790 5.5980 2.3944
-7.6033 5.3519 2.3944
-7.8186 5.0964 2.3944
-8.0244 4.8319 2.3944
-8.2203 4.5588 2.3944
-8.4059 4.2773 2.3944
-8.5807 3.9879 2.3944
-8.7443 3.6910 2.3944
-8.8964 3.3872 2.3944
-9.0366 3.0767 2.3944
-9.1646 2.7603 2.3944
-9.2800 2.4382 2.3944
-9.3826 2.1111 2.3944
-9.4720 1.7795 2.3944
-9.5481 1.4440 2.3944
-9.6107 1.1053 2.3944
-9.6594 0.7638 2.3944
-9.6943 0.4201 2.3944
-8.7167 -4.2637 2.3944
-8.5473 -4.5647 2.3944
-8.3659 -4.8582 2.3944
-8.1731 -5.1437 2.3944
-7.9692 -5.4207 2.3944
-7.7546 -5.6886 2.3944
-7.5297 -5.9474 2.3944
-7.2951 -6.1965 2.3944
-7.0512 -6.4354 2.3944
-6.7985 -6.6642 2.3944
-6.5375 -6.8815 2.3944
-6.2688 -7.0882 2.3944
-5.9928 -7.2835 2.3944
-5.7101 -7.4672 2.3944
-5.4213 -7.6393 2.3944
-5.1268 -7.7993 2.3944
-4.8273 -7.9474 2.3944
-4.5232 -8.0832 2.3944
-4.2152 -8.2068 2.3944
-3.9037 -8.3181 2.3944
-3.5893 -8.4169 2.3944
-3.2726 -8.5034 2.3944
-2.9540 -8.5776 2.3944
-2.6340 -8.6394 2.3944
-2.3132 -8.6889 2.3944
-1.9921 -8.7262 2.3944
-1.6711 -8.7514 2.3944
-1.3508 -8.7646 2.3944
-1.0315 -8.7661 2.3944
-0.7138 -8.7557 2.3944
-0.3980 -8.7339 2.3944
-0.0846 -8.7007 2.3944
0.2260 -8.6564 2.3944
0.5334 -8.6012 2.3944
0.8373 -8.5352 2.3944
1.1373 -8.4587 2.3944
1.4330 -8.3720 2.3944
1.7242 -8.2753 2.3944
2.0105 -8.1689 2.3944
2.2915 -8.0530 2.3944
2.5672 -7.9279 2.3944
2.8370 -7.7937 2.3944
3.1009 -7.6511 2.3944
3.3585 -7.5001 2.3944
3.6096 -7.3409 2.3944
3.8541 -7.1740 2.3944
4.0917 -6.9996 2.3944
4.3223 -6.8179 2.3944
4.5455 -6.6293 2.3944
4.7614 -6.4341 2.3944
4.9698 -6.2325 2.3944
5.1704 -6.0249 2.3944
5.1342 -5.5634 2.2922
5.1949 -5.2366 2.2420
5.3606 -5.0269 2.2420
5.5186 -4.8126 2.2420
5.6689 -4.5939 2.2421
5.8114 -4.3711 2.2421
5.9460 -4.1446 2.2422
6.0728 -3.9144 2.2422
6.1926 -3.6817 2.2427
6.3045 -3.4458 2.2431
6.4083 -3.2069 2.2435
6.5039 -2.9655 2.2439
6.5914 -2.7216 2.2443
6.6647 -2.4733 2.2426
6.7206 -2.2205 2.2380
6.7632 -1.9658 2.2317
6.8027 -1.7125 2.2272
6.8353 -1.4595 2.2232
6.8606 -1.2066 2.2194
6.8853 -0.9550 2.2181
6.9028 -0.7027 2.2172
6.9154 -0.4520 2.2173
6.6336 -0.1924 2.1256
6.5694 0.0480 2.1061
6.9089 0.3014 2.2188
6.8913 0.5515 2.2194
6.8652 0.8012 2.2200
6.8303 1.0496 2.2203
6.2556 1.1952 2.0465
6.7367 1.5424 2.2208
6.6781 1.7864 2.2210
6.6118 2.0284 2.2213
6.5376 2.2683 2.2215
6.4558 2.5060 2.2218
6.3664 2.7410 2.2220
5.8411 2.7702 2.0705
6.1648 3.2027 2.2226
5.7307 3.2464 2.1045
5.6522 3.4785 2.1177
5.8047 3.8694 2.2225
5.6697 4.0842 2.2224
5.5287 4.2953 2.2226
5.3813 4.5028 2.2231
5.2292 4.7077 2.2245
5.0735 4.9117 2.2275
4.9138 5.1147 2.2319
4.7480 5.3147 2.2369
4.5778 5.5133 2.2433
4.3910 5.6959 2.2451
4.1937 5.8674 2.2447
3.9903 6.0327 2.2443
3.7810 6.1917 2.2440
3.5658 6.3441 2.2435
3.3450 6.4898 2.2431
3.1188 6.6285 2.2427
2.8873 6.7600 2.2422
2.6511 6.8852 2.2421
2.4101 7.0031 2.2420
2.1644 7.1133 2.2420
0.8545 3.2213 1.0009
0.7382 3.2515 0.9972
0.6208 3.2775 0.9935
0.5026 3.2992 0.9897
0.3836 3.3166 0.9858
0.2641 3.3298 0.9819
0.1442 3.3386 0.9779
-2.1809 -7.9538 2.3944
-1.8873 -7.9929 2.3944
-1.5937 -8.0209 2.3944
-1.3003 -8.0380 2.3944
-1.0076 -8.0442 2.3944
-0.7160 -8.0396 2.3944
-0.4260 -8.0245 2.3944
-0.1379 -7.9989 2.3944
0.1480 -7.9629 2.3944
0.4312 -7.9169 2.3944
0.7115 -7.8609 2.3944
0.9883 -7.7952 2.3944
1.2616 -7.7199 2.3944
1.5309 -7.6354 2.3944
1.7959 -7.5418 2.3944
2.0563 -7.4392 2.3944
2.3119 -7.3280 2.3944
2.5625 -7.2086 2.3944
2.8077 -7.0808 2.3944
3.0474 -6.9453 2.3944
3.2812 -6.8021 2.3944
3.5091 -6.6515 2.3944
3.7308 -6.4938 2.3944
3.9461 -6.3292 2.3944
4.1548 -6.1581 2.3944
4.3568 -5.9806 2.3944
4.5520 -5.7971 2.3944
4.7401 -5.6078 2.3944
4.9211 -5.4129 2.3944
5.0074 -5.1234 2.3533
4.9275 -4.6902 2.2425
5.0750 -4.4925 2.2420
5.2167 -4.2919 2.2420
5.3512 -4.0873 2.2420
5.4785 -3.8790 2.2421
5.5985 -3.6672 2.2421
5.7110 -3.4522 2.2421
5.8161 -3.2343 2.2422
5.9144 -3.0139 2.2425
6.0055 -2.7911 2.2428
6.0889 -2.5658 2.2432
6.1647 -2.3385 2.2436
6.2329 -2.1092 2.2439
6.2934 -1.8783 2.2442
6.3462 -1.6459 2.2445
6.3857 -1.4113 2.2428
6.4139 -1.1750 2.2399
6.4291 -0.9378 2.2351
6.4398 -0.7020 2.2314
6.4450 -0.4666 2.2286
6.4438 -0.2318 2.2261
6.4358 0.0024 2.2240
6.4212 0.2357 2.2221
6.4004 0.4681 2.2206
6.3753 0.6998 2.2203
6.3431 0.9306 2.2202
6.3036 1.1604 2.2200
6.2572 1.3884 2.2200
6.2037 1.6150 2.2201
6.1431 1.8401 2.2203
6.0756 2.0629 2.2206
6.0010 2.2841 2.2210
5.9197 2.5026 2.2214
5.8313 2.7192 2.2220
5.7363 2.9326 2.2227
5.6344 3.1436 2.2234
5.5287 3.3536 2.2255
5.4169 3.5607 2.2278
5.2988 3.7653 2.2305
5.1746 3.9670 2.2335
5.0450 4.1670 2.2373
4.9112 4.3655 2.2423
4.7644 4.5548 2.2445
4.6074 4.7360 2.2449
4.4427 4.9109 2.2446
4.2720 5.0806 2.2443
4.0954 5.2450 2.2440
3.9130 5.4039 2.2437
3.7249 5.5570 2.2434
3.5313 5.7042 2.2430
3.3324 5.8452 2.2426
3.1283 5.9799 2.2422
2.9195 6.1089 2.2421
2.7061 6.2314 2.2421
2.4879 6.3471 2.2420
2.2652 6.4559 2.2420
2.0381 6.5576 2.2420
0.8033 2.9570 0.9966
0.6965 2.9855 0.9933
0.5886 3.0101 0.9899
0.4800 3.0308 0.9864
0.3707 3.0476 0.9828
0.2608 3.0604 0.9792
0.1506 3.0692 0.9756
0.0401 3.0740 0.9719
-0.0705 3.0748 0.9681
-0.1811 3.0716 0.9644
-0.2915 3.0644 0.9606
-0.4016 3.0532 0.9567
-0.5112 3.0381 0.9529
-0.6201 3.0190 0.9490
-0.7283 2.9959 0.9451
-0.8356 2.9690 0.9412
-2.4059 7.5052 2.3944
-2.6854 7.4476 2.3944
-2.9638 7.3797 2.3944
-3.2407 7.3015 2.3944
-3.5157 7.2129 2.3944
-3.7884 7.1140 2.3944
-4.0583 7.0047 2.3944
-4.3251 6.8852 2.3944
-4.5884 6.7553 2.3944
-4.8476 6.6153 2.3944
-5.1024 6.4652 2.3944
-5.3524 6.3051 2.3944
-5.5970 6.1351 2.3944
-5.8360 5.9553 2.3944
-6.0687 5.7660 2.3944
-6.2949 5.5673 2.3944
-6.5141 5.3595 2.3944
-6.7258 5.1427 2.3944
-6.9297 4.9173 2.3944
-7.1253 4.6835 2.3944
-7.3123 4.4415 2.3944
-7.4902 4.1918 2.3944
-7.6587 3.9347 2.3944
-7.8174 3.6705 2.3944
-7.9660 3.3995 2.3944
-8.1041 3.1223 2.3944
-8.2314 2.8393 2.3944
-8.3477 2.5508 2.3944
-8.4526 2.2573 2.3944
-8.5459 1.9594 2.3944
-8.6274 1.6574 2.3944
-8.6968 1.3521 2.3944
-8.7539 1.0435 2.3944
-8.7987 0.7326 2.3944
-8.8310 0.4198 2.3944
-8.8507 0.1058 2.3944
-8.8577 -0.2091 2.3944
-8.8519 -0.5243 2.3944
-8.8333 -0.8392 2.3944
-8.8020 -1.1533 2.3944
-8.7580 -1.4659 2.3944
-8.7013 -1.7765 2.3944
-8.6321 -2.0845 2.3944
-8.5505 -2.3895 2.3944
-8.4566 -2.6908 2.3944
-8.3506 -2.9879 2.3944
-8.2327 -3.2806 2.3944
-8.1032 -3.5677 2.3944
-7.9623 -3.8492 2.3944
-7.8103 -4.1245 2.3944
-7.6475 -4.3934 2.3944
-7.4743 -4.6549 2.3944
-7.2910 -4.9087 2.3944
-7.0978 -5.1553 2.3944
-6.8954 -5.3930 2.3944
-6.6840 -5.6222 2.3944
-6.4641 -5.8424 2.3944
-6.2361 -6.0533 2.3944
-6.0005 -6.2545 2.3944
-5.7576 -6.4459 2.3944
-5.5080 -6.6271 2.3944
-5.2522 -6.7980 2.3944
-4.9906 -6.9583 2.3944
-4.7237 -7.1079 2.3944
-4.4520 -7.2467 2.3944
-4.1759 -7.3745 2.3944
-3.8960 -7.4913 2.3944
-3.6128 -7.5968 2.3944
-3.3266 -7.6912 2.3944
-3.0381 -7.7744 2.3944
-2.7476 -7.8463 2.3944
-2.4556 -7.9070 2.3944
-2.1626 -7.9566 2.3944
-1.8691 -7.9950 2.3944
-1.5755 -8.0223 2.3944
-1.2821 -8.0387 2.3944
-0.9895 -8.0442 2.3944
-0.6980 -8.0390 2.3944
-0.4080 -8.0232 2.3944
-0.1200 -7.9969 2.3944
0.1657 -7.9604 2.3944
0.4487 -7.9137 2.3944
0.7287 -7.8571 2.3944
1.0054 -7.7908 2.3944
1.2784 -7.7150 2.3944
1.5474 -7.6298 2.3944
1.8122 -7.5356 2.3944
2.0723 -7.4325 2.3944
2.3276 -7.3208 2.3944
2.5776 -7.2002 2.3944
2.8228 -7.0726 2.3944
3.0621 -6.9366 2.3944
3.2956 -6.7929 2.3944
3.5230 -6.6419 2.3944
3.7443 -6.4838 2.3944
3.9592 -6.3188 2.3944
4.1675 -6.1473 2.3944
4.3691 -5.9694 2.3944
4.5639 -5.7855 2.3944
4.7515 -5.5958 2.3944
4.9321 -5.4007 2.3944
5.0012 -5.0942 2.3455
4.9357 -4.6769 2.2420
5.0840 -4.4801 2.2420
5.2253 -4.2793 2.2420
5.3594 -4.0745 2.2421
5.4862 -3.8659 2.2421
5.6056 -3.6540 2.2421
5.7178 -3.4389 2.2421
5.8224 -3.2207 2.2422
5.9203 -3.0001 2.2425
6.0109 -2.7771 2.2429
6.0938 -2.5518 2.2432
6.1692 -2.3243 2.2436
6.2369 -2.0949 2.2439
6.2969 -1.8639 2.2442
6.3493 -1.6314 2.2445
6.3877 -1.3960 2.2426
6.4151 -1.1602 2.2396
6.4300 -0.9237 2.2348
6.4403 -0.6874 2.2313
6.4452 -0.4520 2.2284
6.4435 -0.2172 2.2260
6.4351 0.0169 2.2238
6.4201 0.2501 2.2220
6.3990 0.4825 2.2206
6.3735 0.7142 2.2203
6.3409 0.9449 2.2201
6.3010 1.1746 2.2200
6.2540 1.4029 2.2200
6.2002 1.6290 2.2201
6.1392 1.8537 2.2203
6.0711 2.0769 2.2206
5.9962 2.2976 2.2210
5.9143 2.5163 2.2215
5.8257 2.7323 2.2221
5.7302 2.9458 2.2227
5.6279 3.1566 2.2235
5.5219 3.3666 2.2256
5.4098 3.5734 2.2280
5.2912 3.7780 2.2307
5.1666 3.9797 2.2337
5.0369 4.1794 2.2376
4.9027 4.3778 2.2426
4.7550 4.5664 2.2446
4.5973 4.7470 2.2449
4.4323 4.9216 2.2446
4.2612 5.0910 2.2443
4.0842 5.2551 2.2440
3.9014 5.4136 2.2437
3.7130 5.5663 2.2433
3.5191 5.7131 2.2430
3.3199 5.8538 2.2426
3.1154 5.9881 2.2422
2.9064 6.1167 2.2421
2.6926 6.2388 2.2421
2.4742 6.3541 2.2420
2.2512 6.4625 2.2420
2.0239 6.5637 2.2420
0.7967 2.9589 0.9964
0.6898 2.9871 0.9931
0.5819 3.0115 0.9897
0.4732 3.0320 0.9862
0.3639 3.0485 0.9826
0.2540 3.0610 0.9790
0.1437 3.0696 0.9754
0.0332 3.0742 0.9717
-0.0774 3.0747 0.9679
-0.1880 3.0713 0.9641
-0.2984 3.0638 0.9603
-0.4084 3.0524 0.9565
-0.5180 3.0370 0.9526
-0.6269 3.0177 0.9488
-0.7350 2.9944 0.9449
-0.8423 2.9672 0.9410
-2.4233 7.5020 2.3944
-2.7028 7.4437 2.3944
-2.9811 7.3752 2.3944
-3.2579 7.2963 2.3944
-3.5327 7.2071 2.3944
-3.8052 7.1075 2.3944
-4.0750 6.9976 2.3944
-4.3416 6.8774 2.3944
-4.6046 6.7469 2.3944
-4.8636 6.6063 2.3944
-5.1181 6.4555 2.3944
-5.3677 6.2948 2.3944
-5.6120 6.1242 2.3944
-5.8506 5.9438 2.3944
-6.0830 5.7539 2.3944
-6.3087 5.5547 2.3944
-6.5275 5.3463 2.3944
-6.7387 5.1290 2.3944
-6.9421 4.9030 2.3944
-7.1372 4.6687 2.3944
-7.3236 4.4263 2.3944
-7.5009 4.1761 2.3944
-7.6688 3.9185 2.3944
-7.8269 3.6538 2.3944
-7.9749 3.3825 2.3944
-8.1123 3.1049 2.3944
-8.2390 2.8215 2.3944
-8.3545 2.5327 2.3944
-8.4587 2.2389 2.3944
-8.5513 1.9407 2.3944
-8.6320 1.6386 2.3944
-8.7007 1.3332 2.3944
-8.7571 1.0242 2.3944
-8.8011 0.7133 2.3944
-8.8327 0.4006 2.3944
-8.8515 0.0863 2.3944
-8.8577 -0.2287 2.3944
-8.8511 -0.5439 2.3944
-8.8318 -0.8588 2.3944
-8.7997 -1.1727 2.3944
-8.7549 -1.4852 2.3944
-8.6974 -1.7957 2.3944
-8.6274 -2.1035 2.3944
-8.5450 -2.4083 2.3944
-8.4504 -2.7094 2.3944
-8.3436 -3.0062 2.3944
-8.2250 -3.2987 2.3944
-8.0948 -3.5855 2.3944
-7.9532 -3.8663 2.3944
-7.8006 -4.1412 2.3944
-7.6371 -4.4097 2.3944
-7.4632 -4.6708 2.3944
-7.2792 -4.9243 2.3944
-7.0856 -5.1700 2.3944
-6.8825 -5.4076 2.3944
-6.6706 -5.6361 2.3944
-6.4502 -5.8558 2.3944
-6.2217 -6.0660 2.3944
-5.9856 -6.2667 2.3944
-5.7423 -6.4574 2.3944
-5.4923 -6.6380 2.3944
-5.2361 -6.8082 2.3944
-4.9742 -6.9679 2.3944
-4.7070 -7.1169 2.3944
-4.4350 -7.2550 2.3944
-4.1587 -7.3821 2.3944
-3.8785 -7.4981 2.3944
-3.5951 -7.6030 2.3944
-3.3088 -7.6967 2.3944
-3.0201 -7.7792 2.3944
-2.7295 -7.8504 2.3944
-2.4374 -7.9104 2.3944
-2.1444 -7.9593 2.3944
-1.8509 -7.9970 2.3944
-1.5572 -8.0236 2.3944
-1.2639 -8.0394 2.3944
-0.9713 -8.0442 2.3944
-0.6799 -8.0383 2.3944
-0.3901 -8.0218 2.3944
-0.1022 -7.9949 2.3944
0.1833 -7.9578 2.3944
0.4662 -7.9105 2.3944
0.7460 -7.8533 2.3944
1.0225 -7.7864 2.3944
1.2953 -7.7099 2.3944
1.5640 -7.6243 2.3944
1.8285 -7.5295 2.3944
2.0883 -7.4259 2.3944
2.3433 -7.3136 2.3944
2.5932 -7.1930 2.3944
2.8378 -7.0644 2.3944
3.0767 -6.9279 2.3944
3.3099 -6.7838 2.3944
3.5370 -6.6323 2.3944
3.7578 -6.4737 2.3944
3.9723 -6.3083 2.3944
4.1802 -6.1364 2.3944
4.3814 -5.9582 2.3944
4.5757 -5.7739 2.3944
4.7630 -5.5839 2.3944
4.9431 -5.3884 2.3944
4.9951 -5.0652 2.3378
4.9451 -4.6648 2.2420
5.0930 -4.4678 2.2420
5.2338 -4.2667 2.2420
5.3675 -4.0616 2.2421
5.4938 -3.8529 2.2421
5.6128 -3.6407 2.2421
5.7245 -3.4253 2.2421
5.8287 -3.2070 2.2422
5.9261 -2.9864 2.2425
6.0162 -2.7632 2.2429
6.0987 -2.5377 2.2433
6.1736 -2.3101 2.2436
6.2409 -2.0806 2.2439
6.3004 -1.8495 2.2442
6.3520 -1.6169 2.2444
6.3900 -1.3819 2.2425
6.4162 -1.1455 2.2392
6.4306 -0.9086 2.2346
6.4408 -0.6729 2.2311
6.4452 -0.4374 2.2283
6.4432 -0.2027 2.2258
6.4344 0.0315 2.2237
6.4188 0.2649 2.2219
6.3976 0.4970 2.2206
6.3717 0.7286 2.2203
6.3386 0.9591 2.2201
6.2594 1.1812 2.2063
6.2510 1.4166 2.2200
6.1965 1.6431 2.2201
6.1352 1.8675 2.2203
6.0667 2.0906 2.2206
5.9913 2.3113 2.2210
5.9090 2.5298 2.2215
5.8199 2.7457 2.2221
5.7240 2.9590 2.2228
5.6215 3.1697 2.2236
5.5152 3.3791 2.2257
5.4026 3.5863 2.2281
5.2837 3.7906 2.2309
5.1588 3.9915 2.2339
5.0287 4.1919 2.2379
4.8939 4.3895 2.2428
4.7456 4.5779 2.2447
4.5873 4.7580 2.2449
4.4219 4.9323 2.2446
4.2504 5.1014 2.2443
4.0730 5.2651 2.2440
3.8899 5.4232 2.2437
3.7011 5.5756 2.2433
3.5069 5.7221 2.2430
3.3073 5.8623 2.2426
3.1026 5.9962 2.2422
2.8933 6.1244 2.2421
2.6792 6.2462 2.2421
2.4604 6.3611 2.2420
2.2372 6.4689 2.2420
0.8959 2.9289 0.9995
0.7901 2.9608 0.9962
0.6831 2.9888 0.9929
0.5752 3.0129 0.9894
0.4665 3.0331 0.9859
0.3571 3.0494 0.9824
0.2472 3.0617 0.9788
0.1369 3.0700 0.9751
0.0263 3.0743 0.9714
-0.0843 3.0746 0.9677
-0.1948 3.0709 0.9639
-0.3052 3.0633 0.9601
-0.4152 3.0516 0.9563
-0.5247 3.0359 0.9524
-0.6336 3.0163 0.9485
-0.7417 2.9928 0.9446
-0.8489 2.9654 0.9408
-2.4407 7.4986 2.3944
-2.7201 7.4398 2.3944
-2.9983 7.3706 2.3944
-3.2750 7.2910 2.3944
-3.5497 7.2012 2.3944
-3.8221 7.1010 2.3944
-4.0917 6.9904 2.3944
-4.3580 6.8696 2.3944
-4.6208 6.7385 2.3944
-4.8795 6.5972 2.3944
-5.1337 6.4458 2.3944
-5.3831 6.2845 2.3944
-5.6270 6.1133 2.3944
-5.8652 5.9323 2.3944
-6.0972 5.7418 2.3944
-6.3225 5.5420 2.3944
-6.5408 5.3331 2.3944
-6.7516 5.1152 2.3944
-6.9545 4.8887 2.3944
-7.1490 4.6539 2.3944
-7.3349 4.4109 2.3944
-7.5116 4.1603 2.3944
-7.6789 3.9022 2.3944
-7.8364 3.6372 2.3944
-7.9837 3.3654 2.3944
-8.1205 3.0875 2.3944
-8.2465 2.8037 2.3944
-8.3613 2.5146 2.3944
-8.4648 2.2206 2.3944
-8.5567 1.9221 2.3944
-8.6366 1.6197 2.3944
-8.7046 1.3139 2.3944
-8.7602 1.0053 2.3944
-8.8035 0.6941 2.3944
-8.8342 0.3810 2.3944
-8.8523 0.0667 2.3944
-8.8576 -0.2483 2.3944
-8.8503 -0.5635 2.3944
-8.8301 -0.8783 2.3944
-8.7973 -1.1922 2.3944
-8.7517 -1.5046 2.3944
-8.6934 -1.8149 2.3944
-8.6227 -2.1226 2.3944
-8.5395 -2.4271 2.3944
-8.4441 -2.7279 2.3944
-8.3366 -3.0245 2.3944
-8.2173 -3.3161 2.3944
-8.0863 -3.6029 2.3944
-7.9440 -3.8836 2.3944
-7.7907 -4.1583 2.3944
-7.6266 -4.4261 2.3944
-7.4520 -4.6871 2.3944
-7.2675 -4.9398 2.3944
-7.0732 -5.1850 2.3944
-6.8696 -5.4219 2.3944
-6.6572 -5.6501 2.3944
-6.4362 -5.8691 2.3944
-6.2072 -6.0788 2.3944
-5.9707 -6.2788 2.3944
-5.7270 -6.4689 2.3944
-5.4766 -6.6489 2.3944
-5.2200 -6.8185 2.3944
-4.9577 -6.9775 2.3944
-4.6902 -7.1258 2.3944
-4.4179 -7.2632 2.3944
-4.1413 -7.3896 2.3944
-3.8610 -7.5050 2.3944
-3.5774 -7.6092 2.3944
-3.2909 -7.7022 2.3944
-3.0021 -7.7839 2.3944
-2.7114 -7.8545 2.3944
-2.4193 -7.9138 2.3944
-2.1262 -7.9619 2.3944
-1.8326 -7.9990 2.3944
-1.5390 -8.0248 2.3944
-1.2457 -8.0400 2.3944
-0.9532 -8.0442 2.3944
-0.6619 -8.0376 2.3944
-0.3722 -8.0205 2.3944
-0.0844 -7.9929 2.3944
0.2010 -7.9551 2.3944
0.4837 -7.9072 2.3944
0.7633 -7.8494 2.3944
1.0395 -7.7819 2.3944
1.3120 -7.7049 2.3944
1.5806 -7.6186 2.3944
1.8448 -7.5233 2.3944
2.1043 -7.4191 2.3944
2.3590 -7.3064 2.3944
2.6086 -7.1853 2.3944
2.8528 -7.0562 2.3944
3.0914 -6.9192 2.3944
3.3241 -6.7746 2.3944
3.5509 -6.6226 2.3944
3.7714 -6.4637 2.3944
3.9855 -6.2978 2.3944
4.1930 -6.1255 2.3944
4.3937 -5.9469 2.3944
4.5876 -5.7623 2.3944
4.7744 -5.5719 2.3944
4.9540 -5.3760 2.3944
4.9890 -5.0363 2.3302
4.9545 -4.6527 2.2420
5.1019 -4.4554 2.2420
5.2423 -4.2540 2.2420
5.3755 -4.0488 2.2421
5.5014 -3.8398 2.2421
5.6200 -3.6274 2.2421
5.7312 -3.4119 2.2422
5.8349 -3.1934 2.2422
5.9320 -2.9726 2.2425
6.0216 -2.7493 2.2429
6.1036 -2.5236 2.2433
6.1780 -2.2959 2.2436
6.2448 -2.0663 2.2439
6.3039 -1.8351 2.2443
6.3546 -1.6023 2.2443
6.3921 -1.3674 2.2424
6.4173 -1.1308 2.2389
6.4313 -0.8939 2.2343
6.4413 -0.6583 2.2309
6.4453 -0.4228 2.2281
6.4429 -0.1881 2.2257
6.4337 0.0458 2.2236
6.4177 0.2791 2.2217
6.3962 0.5114 2.2206
6.3699 0.7429 2.2203
6.3363 0.9734 2.2201
6.2557 1.1951 2.2059
6.2478 1.4308 2.2201
6.1928 1.6575 2.2202
6.1311 1.8815 2.2204
6.0621 2.1046 2.2207
5.9864 2.3249 2.2211
5.9036 2.5434 2.2215
5.8141 2.7590 2.2221
5.7178 2.9721 2.2228
5.6150 3.1830 2.2237
5.5084 3.3922 2.2259
5.3953 3.5993 2.2283
5.2761 3.8032 2.2310
5.1509 4.0040 2.2341
5.0205 4.2044 2.2382
4.8848 4.4016 2.2429
4.7362 4.5895 2.2448
4.5772 4.7690 2.2448
4.4114 4.9429 2.2446
4.2396 5.1117 2.2443
4.0618 5.2751 2.2440
3.8783 5.4329 2.2436
3.6892 5.5849 2.2433
3.4946 5.7309 2.2429
3.2947 5.8708 2.2426
3.0897 6.0043 2.2422
2.8801 6.1322 2.2421
2.6657 6.2535 2.2421
2.4467 6.3680 2.2420
2.2232 6.4754 2.2420
0.8894 2.9310 0.9993
0.7835 2.9626 0.9960
0.6764 2.9904 0.9927
0.5685 3.0143 0.9892
0.4597 3.0342 0.9857
0.3503 3.0503 0.9822
0.2403 3.0623 0.9786
0.1300 3.0704 0.9749
-2.0163 -7.3316 2.3944
-1.7464 -7.3698 2.3944
-1.4760 -7.3980 2.3944
-1.2058 -7.4160 2.3944
-0.9361 -7.4240 2.3944
-0.6673 -7.4221 2.3944
-0.3996 -7.4105 2.3944
-0.1336 -7.3891 2.3944
0.1305 -7.3582 2.3944
0.3923 -7.3180 2.3944
0.6515 -7.2685 2.3944
0.9078 -7.2100 2.3944
1.1609 -7.1426 2.3944
1.4104 -7.0665 2.3944
1.6561 -6.9819 2.3944
1.8978 -6.8892 2.3944
2.1352 -6.7883 2.3944
2.3680 -6.6796 2.3944
2.5959 -6.5631 2.3944
2.8188 -6.4394 2.3944
3.0365 -6.3084 2.3944
3.2487 -6.1705 2.3944
3.4553 -6.0259 2.3944
3.6560 -5.8748 2.3944
3.8508 -5.7174 2.3944
4.0393 -5.5541 2.3944
4.2216 -5.3851 2.3944
4.3974 -5.2105 2.3944
4.5667 -5.0307 2.3944
4.7292 -4.8459 2.3944
4.8758 -4.6477 2.3899
4.7924 -4.2483 2.2796
4.8460 -3.9924 2.2420
4.9721 -3.8029 2.2420
5.0915 -3.6099 2.2420
5.2040 -3.4135 2.2421
5.3097 -3.2140 2.2421
5.4085 -3.0117 2.2421
5.5003 -2.8067 2.2421
5.5851 -2.5993 2.2422
5.6630 -2.3897 2.2423
5.7344 -2.1783 2.2426
5.7986 -1.9651 2.2429
5.8556 -1.7503 2.2432
5.9054 -1.5340 2.2435
5.9480 -1.3166 2.2438
5.9834 -1.0982 2.2440
6.0115 -0.8790 2.2442
6.0324 -0.6592 2.2444
6.0457 -0.4392 2.2445
6.0486 -0.2189 2.2434
6.0446 0.0010 2.2423
6.0318 0.2205 2.2407
6.0103 0.4389 2.2385
5.9829 0.6561 2.2367
5.9494 0.8725 2.2352
5.9101 1.0875 2.2342
5.8652 1.3013 2.2337
5.8142 1.5138 2.2335
5.7571 1.7246 2.2336
5.6938 1.9339 2.2340
5.6244 2.1414 2.2347
5.5496 2.3470 2.2358
5.4690 2.5514 2.2375
5.3827 2.7534 2.2395
5.2905 2.9535 2.2419
5.1891 3.1494 2.2432
5.0808 3.3421 2.2444
4.9646 3.5305 2.2449
4.8406 3.7141 2.2447
4.7104 3.8939 2.2445
4.5742 4.0695 2.2443
4.4319 4.2409 2.2441
4.2838 4.4077 2.2439
4.1300 4.5699 2.2436
3.9705 4.7272 2.2434
3.8055 4.8795 2.2431
3.6351 5.0265 2.2428
3.4596 5.1680 2.2424
3.2789 5.3040 2.2421
3.0938 5.4350 2.2421
2.9039 5.5600 2.2421
2.7093 5.6790 2.2420
2.5102 5.7918 2.2420
2.3095 5.9050 2.2446
2.1100 6.0299 2.2536
0.8383 2.7044 0.9955
0.7405 2.7343 0.9924
0.6417 2.7607 0.9893
0.5420 2.7834 0.9862
0.4415 2.8025 0.9829
0.3404 2.8180 0.9797
0.2388 2.8298 0.9763
0.1368 2.8379 0.9730
0.0346 2.8424 0.9695
-0.0677 2.8431 0.9661
-0.1699 2.8402 0.9626
-0.2720 2.8335 0.9591
-0.3738 2.8232 0.9555
-0.4752 2.8091 0.9520
-0.5759 2.7915 0.9484
-0.6760 2.7702 0.9448
-0.7752 2.7452 0.9412
-0.8735 2.7168 0.9376
-2.4883 6.8824 2.3944
-2.7448 6.8175 2.3944
-2.9997 6.7431 2.3944
-3.2528 6.6592 2.3944
-3.5035 6.5658 2.3944
-3.7515 6.4629 2.3944
-3.9965 6.3506 2.3944
-4.2381 6.2289 2.3944
-4.4758 6.0978 2.3944
-4.7093 5.9576 2.3944
-4.9382 5.8083 2.3944
-5.1622 5.6499 2.3944
-5.3807 5.4827 2.3944
-5.5935 5.3069 2.3944
-5.8000 5.1225 2.3944
-6.0001 4.9299 2.3944
-6.1933 4.7291 2.3944
-6.3791 4.5205 2.3944
-6.5573 4.3044 2.3944
-6.7275 4.0809 2.3944
-6.8894 3.8505 2.3944
-7.0426 3.6133 2.3944
-7.1868 3.3698 2.3944
-7.3217 3.1203 2.3944
-7.4469 2.8652 2.3944
-7.5624 2.6048 2.3944
-7.6677 2.3395 2.3944
-7.7626 2.0698 2.3944
-7.8469 1.7961 2.3944
-7.9204 1.5189 2.3944
-7.9830 1.2386 2.3944
-8.0344 0.9556 2.3944
-8.0746 0.6704 2.3944
-8.1033 0.3836 2.3944
-8.1206 0.0956 2.3944
-8.1264 -0.1931 2.3944
-8.1206 -0.4820 2.3944
-8.1032 -0.7706 2.3944
-8.0742 -1.0584 2.3944
-8.0337 -1.3448 2.3944
-7.9817 -1.6294 2.3944
-7.9183 -1.9116 2.3944
-7.8436 -2.1914 2.3944
-7.7578 -2.4674 2.3944
-7.6610 -2.7402 2.3944
-7.5534 -3.0084 2.3944
-7.4352 -3.2720 2.3944
-7.3067 -3.5304 2.3944
-7.1681 -3.7832 2.3944
-7.0196 -4.0300 2.3944
-6.8616 -4.2704 2.3944
-6.6943 -4.5041 2.3944
-6.5182 -4.7306 2.3944
-6.3335 -4.9496 2.3944
-6.1406 -5.1608 2.3944
-5.9399 -5.3639 2.3944
-5.7317 -5.5585 2.3944
-5.5165 -5.7444 2.3944
-5.2946 -5.9214 2.3944
-5.0665 -6.0892 2.3944
-4.8326 -6.2476 2.3944
-4.5933 -6.3965 2.3944
-4.3491 -6.5357 2.3944
-4.1003 -6.6650 2.3944
-3.8475 -6.7843 2.3944
-3.5910 -6.8935 2.3944
-3.3313 -6.9926 2.3944
-3.0688 -7.0814 2.3944
-2.8040 -7.1600 2.3944
-2.5372 -7.2284 2.3944
-2.2689 -7.2865 2.3944
-1.9996 -7.3343 2.3944
-1.7296 -7.3719 2.3944
-1.4592 -7.3994 2.3944
-1.1891 -7.4168 2.3944
-0.9194 -7.4242 2.3944
-0.6506 -7.4217 2.3944
-0.3831 -7.4094 2.3944
-0.1171 -7.3875 2.3944
0.1468 -7.3560 2.3944
0.4085 -7.3152 2.3944
0.6675 -7.2651 2.3944
0.9236 -7.2061 2.3944
1.1765 -7.1381 2.3944
1.4258 -7.0615 2.3944
1.6713 -6.9765 2.3944
1.9127 -6.8831 2.3944
2.1498 -6.7818 2.3944
2.3822 -6.6725 2.3944
2.6099 -6.5557 2.3944
2.8325 -6.4314 2.3944
3.0498 -6.3000 2.3944
3.2617 -6.1617 2.3944
3.4679 -6.0167 2.3944
3.6683 -5.8652 2.3944
3.8627 -5.7075 2.3944
4.0508 -5.5438 2.3944
4.2327 -5.3744 2.3944
4.4081 -5.1995 2.3944
4.5769 -5.0194 2.3944
4.7390 -4.8342 2.3944
4.8704 -4.6217 2.3827
4.7874 -4.2246 2.2732
4.8540 -3.9807 2.2420
4.9797 -3.7910 2.2420
5.0987 -3.5978 2.2420
5.2108 -3.4012 2.2421
5.3161 -3.2016 2.2421
5.4144 -2.9990 2.2421
5.5058 -2.7939 2.2421
5.5901 -2.5863 2.2422
5.6677 -2.3766 2.2423
5.7386 -2.1651 2.2427
5.8023 -1.9518 2.2430
5.8589 -1.7369 2.2433
5.9083 -1.5206 2.2435
5.9504 -1.3030 2.2438
5.9854 -1.0846 2.2440
6.0130 -0.8653 2.2443
6.0335 -0.6456 2.2445
6.0461 -0.4255 2.2444
6.0485 -0.2052 2.2433
6.0442 0.0144 2.2423
6.0306 0.2341 2.2405
6.0088 0.4524 2.2384
5.9811 0.6693 2.2366
5.9472 0.8856 2.2351
5.9075 1.1008 2.2341
5.8623 1.3146 2.2337
5.8109 1.5269 2.2335
5.7533 1.7377 2.2336
5.6897 1.9468 2.2340
5.6199 2.1542 2.2347
5.5447 2.3601 2.2359
5.4638 2.5640 2.2376
5.3771 2.7659 2.2396
5.2845 2.9659 2.2420
5.1827 3.1612 2.2433
5.0738 3.3540 2.2444
4.9571 3.5420 2.2449
4.8327 3.7254 2.2447
4.7021 3.9049 2.2445
4.5655 4.0803 2.2443
4.4229 4.2514 2.2441
4.2744 4.4179 2.2439
4.1202 4.5798 2.2436
3.9604 4.7368 2.2433
3.7951 4.8887 2.2431
3.6244 5.0354 2.2427
3.4485 5.1767 2.2424
3.2675 5.3124 2.2421
3.0821 5.4429 2.2421
2.8919 5.5676 2.2421
2.6970 5.6862 2.2420
2.4977 5.7986 2.2420
2.2941 5.9045 2.2420
2.1016 6.0472 2.2582
0.8323 2.7064 0.9953
0.7344 2.7361 0.9922
0.6355 2.7622 0.9891
0.5358 2.7847 0.9860
0.4353 2.8036 0.9827
0.3341 2.8188 0.9795
0.2325 2.8304 0.9761
0.1305 2.8383 0.9727
0.0283 2.8425 0.9693
-0.0740 2.8430 0.9659
-0.1763 2.8399 0.9624
-0.2784 2.8330 0.9588
-0.3801 2.8224 0.9553
-0.4814 2.8081 0.9517
-0.5822 2.7902 0.9482
-0.6822 2.7687 0.9446
-0.7814 2.7436 0.9410
-0.8796 2.7149 0.9374
-2.5043 6.8787 2.3944
-2.7607 6.8131 2.3944
-3.0155 6.7382 2.3944
-3.2684 6.6537 2.3944
-3.5190 6.5597 2.3944
-3.7668 6.4562 2.3944
-4.0116 6.3433 2.3944
-4.2529 6.2210 2.3944
-4.4904 6.0894 2.3944
-4.7237 5.9486 2.3944
-4.9523 5.7987 2.3944
-5.1759 5.6398 2.3944
-5.3941 5.4721 2.3944
-5.6065 5.2957 2.3944
-5.8127 5.1108 2.3944
-6.0123 4.9176 2.3944
-6.2050 4.7164 2.3944
-6.3904 4.5073 2.3944
-6.5681 4.2907 2.3944
-6.7378 4.0668 2.3944
-6.8992 3.8359 2.3944
-7.0518 3.5984 2.3944
-7.1954 3.3545 2.3944
-7.3297 3.1046 2.3944
-7.4544 2.8491 2.3944
-7.5692 2.5884 2.3944
-7.6739 2.3229 2.3944
-7.7681 2.0529 2.3944
-7.8518 1.7790 2.3944
-7.9246 1.5016 2.3944
-7.9865 1.2210 2.3944
-8.0372 0.9379 2.3944
-8.0767 0.6527 2.3944
-8.1048 0.3657 2.3944
-8.1213 0.0777 2.3944
-8.1264 -0.2111 2.3944
-8.1199 -0.4999 2.3944
-8.1018 -0.7884 2.3944
-8.0721 -1.0761 2.3944
-8.0308 -1.3625 2.3944
-7.9781 -1.6469 2.3944
-7.9140 -1.9294 2.3944
-7.8386 -2.2085 2.3944
-7.7521 -2.4848 2.3944
-7.6546 -2.7569 2.3944
-7.5464 -3.0249 2.3944
-7.4276 -3.2880 2.3944
-7.2984 -3.5462 2.3944
-7.1591 -3.7987 2.3944
-7.0100 -4.0451 2.3944
-6.8514 -4.2852 2.3944
-6.6836 -4.5184 2.3944
-6.5070 -4.7444 2.3944
-6.3217 -4.9630 2.3944
-6.1283 -5.1737 2.3944
-5.9271 -5.3762 2.3944
-5.7185 -5.5703 2.3944
-5.5029 -5.7557 2.3944
-5.2806 -5.9321 2.3944
-5.0521 -6.0993 2.3944
-4.8179 -6.2572 2.3944
-4.5783 -6.4054 2.3944
-4.3338 -6.5440 2.3944
-4.0847 -6.6727 2.3944
-3.8317 -6.7913 2.3944
-3.5750 -6.8999 2.3944
-3.3151 -6.9984 2.3944
-3.0524 -7.0866 2.3944
-2.7874 -7.1646 2.3944
-2.5206 -7.2323 2.3944
-2.2522 -7.2897 2.3944
-1.9828 -7.3369 2.3944
-1.7127 -7.3741 2.3944
-1.4425 -7.4007 2.3944
-1.1723 -7.4176 2.3944
-0.9027 -7.4243 2.3944
-0.6340 -7.4212 2.3944
-0.3665 -7.4083 2.3944
-0.1007 -7.3858 2.3944
0.1631 -7.3537 2.3944
0.4246 -7.3123 2.3944
0.6835 -7.2617 2.3944
0.9394 -7.2021 2.3944
1.1921 -7.1336 2.3944
1.4411 -7.0565 2.3944
1.6864 -6.9709 2.3944
1.9276 -6.8771 2.3944
2.1644 -6.7752 2.3944
2.3965 -6.6654 2.3944
2.6239 -6.5482 2.3944
2.8461 -6.4235 2.3944
3.0632 -6.2916 2.3944
3.2747 -6.1529 2.3944
3.4805 -6.0074 2.3944
3.6805 -5.8556 2.3944
3.8745 -5.6975 2.3944
4.0623 -5.5334 2.3944
4.2438 -5.3637 2.3944
4.4188 -5.1885 2.3944
4.5872 -5.0080 2.3944
4.7489 -4.8226 2.3944
4.8650 -4.5959 2.3755
4.7826 -4.2013 2.2669
4.8620 -3.9691 2.2420
4.9873 -3.7791 2.2420
5.1058 -3.5857 2.2420
5.2175 -3.3889 2.2421
5.3224 -3.1891 2.2421
5.4203 -2.9864 2.2421
5.5112 -2.7811 2.2421
5.5951 -2.5733 2.2422
5.6723 -2.3636 2.2423
5.7427 -2.1520 2.2427
5.8061 -1.9385 2.2430
5.8622 -1.7235 2.2433
5.9111 -1.5071 2.2435
5.9528 -1.2895 2.2438
5.9873 -1.0710 2.2440
6.0145 -0.8517 2.2443
6.0345 -0.6319 2.2445
6.0465 -0.4118 2.2444
6.0484 -0.1915 2.2432
6.0435 0.0285 2.2422
6.0294 0.2477 2.2404
6.0072 0.4659 2.2382
5.9790 0.6834 2.2365
5.9449 0.8990 2.2351
5.9048 1.1142 2.2341
5.8593 1.3278 2.2337
5.8075 1.5400 2.2335
5.7496 1.7507 2.2336
5.6855 1.9597 2.2341
5.6154 2.1670 2.2348
5.5399 2.3727 2.2360
5.4586 2.5764 2.2377
5.3715 2.7784 2.2398
5.2786 2.9782 2.2422
5.1760 3.1736 2.2434
5.0669 3.3658 2.2445
4.9495 3.5535 2.2449
4.8248 3.7367 2.2447
4.6938 3.9159 2.2445
4.5568 4.0910 2.2443
4.4138 4.2618 2.2441
4.2650 4.4281 2.2439
4.1105 4.5897 2.2436
3.9503 4.7464 2.2433
3.7846 4.8980 2.2430
3.6136 5.0444 2.2427
3.4374 5.1852 2.2424
3.2562 5.3206 2.2421
3.0704 5.4509 2.2421
2.8799 5.5752 2.2421
2.6848 5.6934 2.2420
2.4852 5.8053 2.2420
2.2813 5.9108 2.2420
2.0943 6.0704 2.2646
0.8262 2.7084 0.9951
0.7283 2.7378 0.9921
0.6294 2.7637 0.9889
0.5295 2.7860 0.9858
0.4290 2.8046 0.9825
0.3278 2.8197 0.9793
0.2262 2.8310 0.9759
0.1242 2.8387 0.9725
0.0219 2.8427 0.9691
-0.0804 2.8430 0.9656
-0.1826 2.8395 0.9622
-0.2847 2.8324 0.9586
-0.3864 2.8216 0.9551
-0.4877 2.8071 0.9515
-0.5884 2.7890 0.9479
-0.6884 2.7673 0.9443
-0.7875 2.7419 0.9408
-0.8856 2.7130 0.9372
-2.5203 6.8749 2.3944
-2.7766 6.8088 2.3944
-3.0313 6.7332 2.3944
-3.2840 6.6481 2.3944
-3.5344 6.5535 2.3944
-3.7821 6.4494 2.3944
-4.0267 6.3360 2.3944
-4.2678 6.2131 2.3944
-4.5050 6.0809 2.3944
-4.7380 5.9395 2.3944
-4.9663 5.7891 2.3944
-5.1896 5.6296 2.3944
-5.4075 5.4614 2.3944
-5.6195 5.2844 2.3944
-5.8253 5.0991 2.3944
-6.0245 4.9054 2.3944
-6.2167 4.7036 2.3944
-6.4017 4.4941 2.3944
-6.5789 4.2770 2.3944
-6.7481 4.0527 2.3944
-6.9089 3.8214 2.3944
-7.0610 3.5834 2.3944
-7.2040 3.3391 2.3944
-7.3377 3.0889 2.3944
-7.4618 2.8331 2.3944
-7.5760 2.5721 2.3944
-7.6800 2.3062 2.3944
-7.7736 2.0360 2.3944
-7.8566 1.7619 2.3944
-7.9288 1.4842 2.3944
-7.9900 1.2035 2.3944
-8.0400 0.9202 2.3944
-8.0788 0.6349 2.3944
-8.1061 0.3479 2.3944
-8.1220 0.0597 2.3944
-8.1263 -0.2290 2.3944
-8.1191 -0.5180 2.3944
-8.1003 -0.8060 2.3944
-8.0698 -1.0940 2.3944
-8.0279 -1.3801 2.3944
-7.9745 -1.6646 2.3944
-7.9097 -1.9465 2.3944
-7.8336 -2.2257 2.3944
-7.7464 -2.5016 2.3944
-7.6482 -2.7737 2.3944
-7.5393 -3.0412 2.3944
-7.4198 -3.3042 2.3944
-7.2900 -3.5621 2.3944
-7.1501 -3.8142 2.3944
-7.0005 -4.0602 2.3944
-6.8413 -4.2998 2.3944
-6.6729 -4.5326 2.3944
-6.4957 -4.7582 2.3944
-6.3100 -4.9763 2.3944
-6.1161 -5.1865 2.3944
-5.9144 -5.3885 2.3944
-5.7053 -5.5821 2.3944
-5.4892 -5.7669 2.3944
-5.2666 -5.9428 2.3944
-5.0378 -6.1094 2.3944
-4.8032 -6.2667 2.3944
-4.5633 -6.4143 2.3944
-4.3184 -6.5523 2.3944
-4.0692 -6.6803 2.3944
-3.8158 -6.7984 2.3944
-3.5589 -6.9064 2.3944
-3.2988 -7.0042 2.3944
-3.0360 -7.0918 2.3944
-2.7709 -7.1691 2.3944
-2.5040 -7.2362 2.3944
-2.2355 -7.2930 2.3944
-1.9661 -7.3395 2.3944
-1.6960 -7.3759 2.3944
-1.4257 -7.4021 2.3944
-1.1555 -7.4183 2.3944
-0.8859 -7.4244 2.3944
-0.6173 -7.4207 2.3944
-0.3499 -7.4072 2.3944
-0.0842 -7.3841 2.3944
0.1794 -7.3514 2.3944
0.4408 -7.3095 2.3944
0.6995 -7.2583 2.3944
0.9552 -7.1981 2.3944
1.2076 -7.1291 2.3944
1.4565 -7.0514 2.3944
1.7015 -6.9653 2.3944
1.9424 -6.8710 2.3944
2.1789 -6.7686 2.3944
2.4108 -6.6583 2.3944
2.6378 -6.5406 2.3944
2.8598 -6.4155 2.3944
3.0764 -6.2832 2.3944
3.2876 -6.1440 2.3944
3.4931 -5.9982 2.3944
3.6928 -5.8459 2.3944
3.8864 -5.6875 2.3944
4.0738 -5.5231 2.3944
4.2549 -5.3530 2.3944
4.4295 -5.1774 2.3944
4.5974 -4.9966 2.3944
4.7587 -4.8109 2.3944
4.8597 -4.5702 2.3683
4.7777 -4.1782 2.2605
4.8700 -3.9574 2.2420
4.9948 -3.7672 2.2420
5.1130 -3.5735 2.2420
5.2243 -3.3766 2.2421
5.3287 -3.1766 2.2421
5.4261 -2.9737 2.2421
5.5166 -2.7682 2.2421
5.6000 -2.5603 2.2422
5.6769 -2.3505 2.2424
5.7469 -2.1388 2.2427
5.8098 -1.9252 2.2430
5.8654 -1.7101 2.2433
5.9139 -1.4936 2.2436
5.9552 -1.2759 2.2438
5.9892 -1.0574 2.2441
6.0160 -0.8381 2.2443
6.0355 -0.6183 2.2445
6.0468 -0.3981 2.2443
6.0483 -0.1779 2.2432
6.0430 0.0421 2.2422
6.0282 0.2612 2.2403
6.0057 0.4795 2.2381
5.9770 0.6968 2.2364
5.9425 0.9126 2.2350
5.9022 1.1275 2.2341
5.8562 1.3410 2.2337
5.8041 1.5532 2.2335
5.7458 1.7638 2.2337
5.6814 1.9727 2.2341
5.6109 2.1798 2.2348
5.5351 2.3852 2.2361
5.4533 2.5892 2.2378
5.3659 2.7908 2.2399
5.2726 2.9906 2.2424
5.1694 3.1856 2.2434
5.0599 3.3777 2.2446
4.9419 3.5650 2.2449
4.8168 3.7479 2.2447
4.6855 3.9269 2.2445
4.5481 4.1018 2.2443
4.4048 4.2723 2.2441
4.2556 4.4383 2.2438
4.1007 4.5996 2.2436
3.9401 4.7560 2.2433
3.7742 4.9073 2.2430
3.6028 5.0533 2.2427
3.4263 5.1938 2.2424
3.2448 5.3289 2.2421
3.0587 5.4588 2.2421
2.8679 5.5827 2.2421
2.6725 5.7005 2.2420
2.4726 5.8121 2.2420
2.2685 5.9172 2.2420
2.0870 6.0933 2.2710
0.8202 2.7103 0.9949
0.7222 2.7395 0.9919
0.6232 2.7652 0.9887
0.5233 2.7872 0.9856
0.4227 2.8057 0.9823
0.3215 2.8205 0.9790
0.2198 2.8316 0.9757
0.1178 2.8390 0.9723
-1.8738 -6.7925 2.3944
-1.6241 -6.8297 2.3944
-1.3740 -6.8576 2.3944
-1.1238 -6.8761 2.3944
-0.8740 -6.8854 2.3944
-0.6249 -6.8855 2.3944
-0.3767 -6.8765 2.3944
-0.1299 -6.8586 2.3944
0.1152 -6.8318 2.3944
0.3584 -6.7963 2.3944
0.5993 -6.7522 2.3944
0.8376 -6.6996 2.3944
1.0730 -6.6388 2.3944
1.3052 -6.5698 2.3944
1.5341 -6.4930 2.3944
1.7593 -6.4084 2.3944
1.9806 -6.3162 2.3944
2.1977 -6.2167 2.3944
2.4105 -6.1099 2.3944
2.6186 -5.9962 2.3944
2.8220 -5.8757 2.3944
3.0204 -5.7487 2.3944
3.2136 -5.6153 2.3944
3.4014 -5.4758 2.3944
3.5837 -5.3304 2.3944
3.7604 -5.1794 2.3944
3.9312 -5.0229 2.3944
4.0960 -4.8611 2.3944
4.2548 -4.6944 2.3944
4.4073 -4.5229 2.3944
4.5535 -4.3468 2.3944
4.6933 -4.1665 2.3944
4.6834 -3.8640 2.3234
4.6378 -3.5522 2.2420
4.7501 -3.3725 2.2420
4.8561 -3.1896 2.2420
4.9556 -3.0038 2.2420
5.0486 -2.8152 2.2421
5.1351 -2.6240 2.2421
5.2151 -2.4305 2.2421
5.2884 -2.2348 2.2421
5.3551 -2.0372 2.2421
5.4150 -1.8379 2.2422
5.4687 -1.6372 2.2424
5.5158 -1.4352 2.2426
5.5561 -1.2320 2.2429
5.5897 -1.0278 2.2431
5.6164 -0.8230 2.2433
5.6363 -0.6175 2.2435
5.6494 -0.4118 2.2437
5.6557 -0.2059 2.2439
5.6552 -0.0000 2.2440
5.6479 0.2056 2.2441
5.6338 0.4107 2.2443
5.6130 0.6152 2.2444
5.5855 0.8188 2.2444
5.5513 1.0214 2.2445
5.5105 1.2227 2.2445
5.4630 1.4226 2.2446
5.4090 1.6208 2.2446
5.3485 1.8172 2.2446
5.2815 2.0116 2.2446
5.2080 2.2038 2.2445
5.1283 2.3936 2.2445
5.0422 2.5808 2.2444
4.9500 2.7652 2.2443
4.8515 2.9466 2.2442
4.7471 3.1249 2.2441
4.6366 3.2998 2.2439
4.5203 3.4712 2.2438
4.3982 3.6389 2.2436
4.2704 3.8027 2.2434
4.1370 3.9624 2.2432
3.9981 4.1179 2.2430
3.8538 4.2689 2.2427
3.7043 4.4153 2.2425
3.5497 4.5569 2.2422
3.3904 4.6939 2.2421
3.2263 4.8261 2.2421
3.0574 4.9529 2.2421
2.8840 5.0744 2.2420
2.7062 5.1902 2.2420
2.5240 5.3004 2.2420
2.3376 5.4052 2.2420
2.2008 5.6393 2.2976
0.8664 2.4813 0.9943
0.7766 2.5123 0.9916
0.6857 2.5401 0.9888
0.5939 2.5645 0.9859
0.5013 2.5856 0.9829
0.4079 2.6034 0.9799
0.3140 2.6177 0.9769
0.2196 2.6287 0.9738
0.1248 2.6362 0.9707
0.0299 2.6404 0.9675
-0.0652 2.6410 0.9643
-0.1602 2.6383 0.9610
-0.2550 2.6321 0.9578
-0.3496 2.6225 0.9545
-0.4437 2.6095 0.9512
-0.5374 2.5930 0.9478
-0.6303 2.5732 0.9445
-0.7225 2.5501 0.9412
-0.8138 2.5236 0.9378
-0.9041 2.4939 0.9345
-2.5541 6.3279 2.3944
-2.7900 6.2572 2.3944
-3.0240 6.1776 2.3944
-3.2558 6.0893 2.3944
-3.4850 5.9922 2.3944
-3.7112 5.8864 2.3944
-3.9341 5.7720 2.3944
-4.1534 5.6491 2.3944
-4.3686 5.5177 2.3944
-4.5795 5.3779 2.3944
-4.7857 5.2299 2.3944
-4.9868 5.0738 2.3944
-5.1824 4.9098 2.3944
-5.3723 4.7380 2.3944
-5.5561 4.5586 2.3944
-5.7334 4.3720 2.3944
-5.9039 4.1781 2.3944
-6.0673 3.9774 2.3944
-6.2233 3.7700 2.3944
-6.3716 3.5563 2.3944
-6.5118 3.3365 2.3944
-6.6437 3.1109 2.3944
-6.7671 2.8799 2.3944
-6.8815 2.6439 2.3944
-6.9869 2.4031 2.3944
-7.0830 2.1578 2.3944
-7.1695 1.9087 2.3944
-7.2463 1.6559 2.3944
-7.3132 1.3999 2.3944
-7.3700 1.1411 2.3944
-7.4167 0.8800 2.3944
-7.4530 0.6170 2.3944
-7.4788 0.3524 2.3944
-7.4942 0.0868 2.3944
-7.4990 -0.1794 2.3944
-7.4933 -0.4458 2.3944
-7.4769 -0.7118 2.3944
-7.4500 -0.9771 2.3944
-7.4125 -1.2412 2.3944
-7.3645 -1.5036 2.3944
-7.3061 -1.7639 2.3944
-7.2373 -2.0216 2.3944
-7.1584 -2.2763 2.3944
-7.0695 -2.5276 2.3944
-6.9706 -2.7751 2.3944
-6.8621 -3.0183 2.3944
-6.7441 -3.2568 2.3944
-6.6168 -3.4902 2.3944
-6.4805 -3.7182 2.3944
-6.3354 -3.9404 2.3944
-6.1819 -4.1564 2.3944
-6.0202 -4.3659 2.3944
-5.8506 -4.5686 2.3944
-5.6734 -4.7642 2.3944
-5.4890 -4.9523 2.3944
-5.2977 -5.1329 2.3944
-5.0999 -5.3054 2.3944
-4.8960 -5.4699 2.3944
-4.6862 -5.6259 2.3944
-4.4710 -5.7734 2.3944
-4.2508 -5.9122 2.3944
-4.0260 -6.0421 2.3944
-3.7969 -6.1629 2.3944
-3.5639 -6.2747 2.3944
-3.3275 -6.3772 2.3944
-3.0880 -6.4703 2.3944
-2.8459 -6.5542 2.3944
-2.6014 -6.6285 2.3944
-2.3551 -6.6935 2.3944
-2.1073 -6.7490 2.3944
-1.8583 -6.7951 2.3944
-1.6086 -6.8317 2.3944
-1.3584 -6.8590 2.3944
-1.1083 -6.8770 2.3944
-0.8585 -6.8857 2.3944
-0.6094 -6.8852 2.3944
-0.3613 -6.8757 2.3944
-0.1146 -6.8572 2.3944
0.1304 -6.8298 2.3944
0.3734 -6.7938 2.3944
0.6141 -6.7492 2.3944
0.8523 -6.6961 2.3944
1.0875 -6.6347 2.3944
1.3196 -6.5654 2.3944
1.5482 -6.4880 2.3944
1.7732 -6.4029 2.3944
1.9942 -6.3102 2.3944
2.2109 -6.2098 2.3944
2.4235 -6.1030 2.3944
2.6314 -5.9889 2.3944
2.8345 -5.8680 2.3944
3.0325 -5.7406 2.3944
3.2254 -5.6068 2.3944
3.4129 -5.4669 2.3944
3.5949 -5.3212 2.3944
3.7712 -5.1698 2.3944
3.9416 -5.0130 2.3944
4.1061 -4.8509 2.3944
4.2644 -4.6839 2.3944
4.4166 -4.5121 2.3944
4.5624 -4.3357 2.3944
4.7018 -4.1551 2.3944
4.6790 -3.8427 2.3173
4.6450 -3.5412 2.2420
4.7569 -3.3612 2.2420
4.8624 -3.1782 2.2420
4.9616 -2.9922 2.2420
5.0542 -2.8034 2.2421
5.1403 -2.6120 2.2421
5.2198 -2.4184 2.2421
5.2927 -2.2226 2.2421
5.3590 -2.0249 2.2422
5.4185 -1.8254 2.2422
5.4718 -1.6247 2.2424
5.5185 -1.4226 2.2427
5.5584 -1.2193 2.2429
5.5915 -1.0151 2.2431
5.6178 -0.8102 2.2433
5.6373 -0.6048 2.2435
5.6500 -0.3990 2.2437
5.6559 -0.1931 2.2439
5.6549 0.0128 2.2440
5.6472 0.2183 2.2441
5.6327 0.4234 2.2443
5.6115 0.6279 2.2444
5.5836 0.8314 2.2444
5.5490 1.0339 2.2445
5.5077 1.2352 2.2445
5.4599 1.4349 2.2446
5.4054 1.6331 2.2446
5.3445 1.8294 2.2446
5.2771 2.0236 2.2446
5.2033 2.2156 2.2445
5.1231 2.4053 2.2445
5.0367 2.5923 2.2444
4.9440 2.7765 2.2443
4.8452 2.9577 2.2442
4.7404 3.1358 2.2441
4.6296 3.3105 2.2439
4.5129 3.4817 2.2438
4.3904 3.6492 2.2436
4.2623 3.8127 2.2434
4.1285 3.9722 2.2432
3.9893 4.1274 2.2430
3.8447 4.2781 2.2427
3.6949 4.4242 2.2425
3.5399 4.5655 2.2422
3.3803 4.7023 2.2421
3.2159 4.8341 2.2421
3.0468 4.9606 2.2421
2.8731 5.0817 2.2420
2.6950 5.1972 2.2420
2.5125 5.3070 2.2420
2.3260 5.4111 2.2420
2.1942 5.6600 2.3035
0.8609 2.4834 0.9942
0.7710 2.5142 0.9914
0.6801 2.5417 0.9886
0.5882 2.5659 0.9857
0.4955 2.5868 0.9828
0.4021 2.6044 0.9798
0.3081 2.6185 0.9767
0.2137 2.6293 0.9736
0.1190 2.6366 0.9705
0.0240 2.6405 0.9673
-0.0711 2.6410 0.9641
-0.1661 2.6380 0.9608
-0.2609 2.6316 0.9576
-0.3554 2.6218 0.9543
-0.4496 2.6085 0.9509
-0.5432 2.5919 0.9476
-0.6361 2.5719 0.9443
-0.7282 2.5485 0.9409
-0.8195 2.5219 0.9376
-0.9097 2.4919 0.9343
-2.5688 6.3238 2.3944
-2.8046 6.2525 2.3944
-3.0385 6.1723 2.3944
-3.2701 6.0835 2.3944
-3.4991 5.9859 2.3944
-3.7252 5.8796 2.3944
-3.9478 5.7646 2.3944
-4.1669 5.6412 2.3944
-4.3819 5.5092 2.3944
-4.5925 5.3690 2.3944
-4.7983 5.2205 2.3944
-4.9991 5.0639 2.3944
-5.1944 4.8994 2.3944
-5.3839 4.7271 2.3944
-5.5673 4.5473 2.3944
-5.7442 4.3601 2.3944
-5.9143 4.1659 2.3944
-6.0773 3.9647 2.3944
-6.2328 3.7569 2.3944
-6.3805 3.5428 2.3944
-6.5203 3.3226 2.3944
-6.6517 3.0967 2.3944
-6.7744 2.8654 2.3944
-6.8884 2.6290 2.3944
-6.9932 2.3880 2.3944
-7.0886 2.1425 2.3944
-7.1746 1.8931 2.3944
-7.2508 1.6401 2.3944
-7.3170 1.3839 2.3944
-7.3732 1.1250 2.3944
-7.4192 0.8637 2.3944
-7.4549 0.6006 2.3944
-7.4801 0.3359 2.3944
-7.4948 0.0703 2.3944
-7.4990 -0.1960 2.3944
-7.4926 -0.4623 2.3944
-7.4755 -0.7283 2.3944
-7.4479 -0.9935 2.3944
-7.4098 -1.2575 2.3944
-7.3611 -1.5198 2.3944
-7.3021 -1.7800 2.3944
-7.2327 -2.0375 2.3944
-7.1532 -2.2921 2.3944
-7.0636 -2.5431 2.3944
-6.9642 -2.7903 2.3944
-6.8550 -3.0332 2.3944
-6.7364 -3.2714 2.3944
-6.6086 -3.5045 2.3944
-6.4717 -3.7322 2.3944
