ply
format ascii 1.0
element vertex 2179
property float32 x
property float32 y
property float32 z
end_header
-0.6958 2.3565 0.9804
-0.7803 2.3297 0.9808
-0.8638 2.2998 0.9811
-2.3323 5.5882 2.4193
-2.5303 5.4957 2.4181
-2.7254 5.3977 2.4174
-2.9169 5.2931 2.4167
-3.1045 5.1818 2.4160
-3.2880 5.0642 2.4152
-3.4673 4.9402 2.4144
-3.6420 4.8101 2.4136
-3.8121 4.6741 2.4128
-3.9772 4.5323 2.4119
-4.1373 4.3848 2.4111
-4.2921 4.2319 2.4101
-4.4414 4.0737 2.4092
-4.5851 3.9104 2.4083
-4.7207 3.7404 2.4061
-4.8430 3.5606 2.4004
-4.9666 3.3824 2.3984
-5.0878 3.2025 2.3983
-5.2028 3.0185 2.3982
-5.3114 2.8304 2.3981
-5.4134 2.6387 2.3980
-5.5087 2.4434 2.3979
-5.5973 2.2447 2.3978
-5.6790 2.0430 2.3977
-5.7536 1.8385 2.3976
-5.8212 1.6312 2.3974
-5.8815 1.4216 2.3973
-5.9345 1.2099 2.3972
-5.9802 0.9963 2.3971
-6.0184 0.7809 2.3970
-6.0491 0.5642 2.3969
-6.0722 0.3464 2.3967
-6.0876 0.1276 2.3966
-6.0955 -0.0918 2.3965
-6.0956 -0.3115 2.3964
-6.0880 -0.5314 2.3963
-6.0726 -0.7511 2.3961
-6.0496 -0.9704 2.3960
-6.0187 -1.1889 2.3959
-5.9802 -1.4065 2.3958
-5.9339 -1.6229 2.3957
-5.8799 -1.8378 2.3955
-5.8183 -2.0509 2.3954
-5.7492 -2.2619 2.3953
-5.6724 -2.4706 2.3952
-5.5882 -2.6768 2.3951
-5.4967 -2.8800 2.3950
-5.3978 -3.0802 2.3948
-5.2917 -3.2769 2.3947
-5.1785 -3.4700 2.3946
-5.0583 -3.6592 2.3945
-4.9312 -3.8442 2.3944
-4.7975 -4.0248 2.3943
-4.6571 -4.2007 2.3942
-4.5104 -4.3716 2.3941
-4.3573 -4.5374 2.3940
-4.1982 -4.6978 2.3940
-4.0332 -4.8525 2.3939
-3.8625 -5.0014 2.3938
-3.6863 -5.1442 2.3937
-3.5049 -5.2807 2.3936
-3.3181 -5.4104 2.3934
-3.1263 -5.5329 2.3930
-2.9304 -5.6494 2.3930
-2.7302 -5.7588 2.3930
-2.5259 -5.8610 2.3930
-2.3177 -5.9557 2.3930
-2.1060 -6.0429 2.3930
-1.8909 -6.1223 2.3930
-1.6729 -6.1939 2.3929
-1.4521 -6.2575 2.3929
-1.2289 -6.3130 2.3929
-1.0036 -6.3602 2.3929
-0.7765 -6.3992 2.3928
-0.5479 -6.4298 2.3928
-0.3181 -6.4519 2.3928
-0.0874 -6.4655 2.3927
0.1437 -6.4706 2.3927
0.3751 -6.4671 2.3927
0.6064 -6.4551 2.3926
0.8372 -6.4344 2.3926
1.0673 -6.4052 2.3925
1.2962 -6.3674 2.3925
1.5238 -6.3212 2.3924
1.7495 -6.2664 2.3923
1.9732 -6.2033 2.3923
2.1944 -6.1318 2.3922
2.4129 -6.0521 2.3922
2.6284 -5.9643 2.3921
2.8405 -5.8685 2.3920
3.0489 -5.7649 2.3920
3.2534 -5.6535 2.3919
3.4535 -5.5345 2.3918
3.6492 -5.4081 2.3917
3.8399 -5.2746 2.3917
4.0256 -5.1339 2.3916
4.2058 -4.9865 2.3915
4.3805 -4.8325 2.3914
4.5492 -4.6721 2.3914
4.7118 -4.5055 2.3913
4.8680 -4.3330 2.3912
5.0176 -4.1549 2.3911
5.1605 -3.9714 2.3910
5.2963 -3.7828 2.3909
5.4250 -3.5893 2.3909
5.5463 -3.3913 2.3908
5.6602 -3.1890 2.3907
5.7663 -2.9827 2.3906
5.8623 -2.7717 2.3896
5.9497 -2.5572 2.3883
6.0296 -2.3401 2.3872
6.1019 -2.1206 2.3864
6.1665 -1.8991 2.3858
6.2233 -1.6757 2.3854
6.2724 -1.4506 2.3853
6.3138 -1.2242 2.3853
6.3474 -0.9969 2.3856
6.3730 -0.7686 2.3861
6.3908 -0.5398 2.3869
6.4008 -0.3107 2.3878
6.4029 -0.0816 2.3890
6.3951 0.1474 2.3896
6.3772 0.3755 2.3895
6.3510 0.6026 2.3894
6.3272 0.8297 2.3934
6.2944 1.0558 2.3971
6.2580 1.2815 2.4026
6.2108 1.5054 2.4072
6.1544 1.7273 2.4113
6.0886 1.9466 2.4149
6.0135 2.1629 2.4179
5.9288 2.3756 2.4203
5.8353 2.5845 2.4220
5.7327 2.7890 2.4232
5.6215 2.9887 2.4237
5.5025 3.1836 2.4239
5.3764 3.3736 2.4239
5.2437 3.5587 2.4239
5.1047 3.7387 2.4239
4.9595 3.9133 2.4239
4.8083 4.0824 2.4239
4.6514 4.2457 2.4239
4.4890 4.4032 2.4239
4.3213 4.5545 2.4239
4.1485 4.6996 2.4239
3.9710 4.8383 2.4239
3.7889 4.9704 2.4239
3.6024 5.0957 2.4239
3.4119 5.2143 2.4239
3.2176 5.3259 2.4239
3.0196 5.4304 2.4239
2.8184 5.5278 2.4239
2.6141 5.6179 2.4239
2.4071 5.7006 2.4239
0.8750 2.2999 0.9651
0.7916 2.3297 0.9663
0.7071 2.3565 0.9675
0.6218 2.3803 0.9686
0.5356 2.4010 0.9697
0.4488 2.4186 0.9707
0.3613 2.4330 0.9717
0.2734 2.4442 0.9727
0.1851 2.4523 0.9736
0.0966 2.4572 0.9745
0.0080 2.4589 0.9753
-0.0807 2.4573 0.9761
-0.1692 2.4526 0.9769
-0.2575 2.4447 0.9776
-0.3455 2.4336 0.9782
-0.4330 2.4194 0.9788
-0.5199 2.4020 0.9794
-0.6062 2.3814 0.9799
-0.6916 2.3578 0.9803
-0.7762 2.3311 0.9808
-0.8597 2.3014 0.9811
-2.3225 5.5927 2.4194
-2.5205 5.5004 2.4181
-2.7158 5.4028 2.4175
-2.9075 5.2984 2.4168
-3.0953 5.1875 2.4160
-3.2790 5.0701 2.4153
-3.4585 4.9465 2.4145
-3.6335 4.8167 2.4137
-3.8038 4.6810 2.4128
-3.9692 4.5394 2.4120
-4.1295 4.3922 2.4111
-4.2845 4.2396 2.4102
-4.4342 4.0817 2.4093
-4.5782 3.9186 2.4083
-4.7145 3.7492 2.4064
-4.8372 3.5696 2.4007
-4.9604 3.3911 2.3984
-5.0820 3.2115 2.3983
-5.1972 3.0277 2.3982
-5.3061 2.8398 2.3981
-5.4085 2.6483 2.3980
-5.5042 2.4531 2.3979
-5.5931 2.2547 2.3978
-5.6751 2.0531 2.3977
-5.7501 1.8486 2.3976
-5.8180 1.6416 2.3974
-5.8787 1.4321 2.3973
-5.9321 1.2204 2.3972
-5.9781 1.0069 2.3971
-6.0167 0.7916 2.3970
-6.0477 0.5750 2.3969
-6.0712 0.3572 2.3967
-6.0871 0.1385 2.3966
-6.0953 -0.0809 2.3965
-6.0958 -0.3006 2.3964
-6.0885 -0.5205 2.3963
-6.0736 -0.7402 2.3961
-6.0509 -0.9595 2.3960
-6.0204 -1.1781 2.3959
-5.9823 -1.3958 2.3958
-5.9364 -1.6122 2.3957
-5.8828 -1.8272 2.3955
-5.8216 -2.0404 2.3954
-5.7528 -2.2515 2.3953
-5.6764 -2.4604 2.3952
-5.5926 -2.6666 2.3951
-5.5014 -2.8700 2.3950
-5.4028 -3.0704 2.3949
-5.2971 -3.2673 2.3947
-5.1842 -3.4606 2.3946
-5.0644 -3.6499 2.3945
-4.9377 -3.8351 2.3944
-4.8042 -4.0159 2.3943
-4.6642 -4.1921 2.3942
-4.5178 -4.3633 2.3941
-4.3651 -4.5293 2.3940
-4.2062 -4.6900 2.3940
-4.0415 -4.8450 2.3939
-3.8711 -4.9942 2.3938
-3.6952 -5.1373 2.3937
-3.5140 -5.2741 2.3936
-3.3278 -5.4046 2.3936
-3.1359 -5.5269 2.3930
-2.9402 -5.6438 2.3930
-2.7402 -5.7536 2.3930
-2.5361 -5.8561 2.3930
-2.3281 -5.9512 2.3930
-2.1165 -6.0388 2.3930
-1.9016 -6.1186 2.3930
-1.6837 -6.1906 2.3929
-1.4631 -6.2545 2.3929
-1.2400 -6.3104 2.3929
-1.0148 -6.3581 2.3929
-0.7878 -6.3974 2.3928
-0.5592 -6.4284 2.3928
-0.3295 -6.4510 2.3928
-0.0989 -6.4650 2.3927
0.1323 -6.4706 2.3927
0.3637 -6.4675 2.3927
0.5950 -6.4559 2.3926
0.8258 -6.4357 2.3926
1.0559 -6.4069 2.3925
1.2849 -6.3695 2.3925
1.5125 -6.3236 2.3924
1.7384 -6.2693 2.3923
1.9621 -6.2066 2.3923
2.1835 -6.1355 2.3922
2.4022 -6.0563 2.3922
2.6178 -5.9689 2.3921
2.8301 -5.8735 2.3920
3.0387 -5.7702 2.3920
3.2433 -5.6592 2.3919
3.4437 -5.5406 2.3918
3.6396 -5.4146 2.3917
3.8306 -5.2813 2.3917
4.0165 -5.1411 2.3916
4.1971 -4.9940 2.3915
4.3720 -4.8403 2.3914
4.5410 -4.6802 2.3914
4.7039 -4.5139 2.3913
4.8604 -4.3417 2.3912
5.0104 -4.1639 2.3911
5.1536 -3.9806 2.3910
5.2898 -3.7922 2.3910
5.4188 -3.5990 2.3909
5.5405 -3.4012 2.3908
5.6547 -3.1991 2.3907
5.7613 -2.9930 2.3906
5.8578 -2.7822 2.3896
5.9456 -2.5679 2.3884
6.0259 -2.3509 2.3873
6.0985 -2.1315 2.3865
6.1635 -1.9101 2.3858
6.2207 -1.6867 2.3854
6.2702 -1.4618 2.3853
6.3119 -1.2356 2.3853
6.3459 -1.0081 2.3856
6.3719 -0.7799 2.3861
6.3901 -0.5511 2.3868
6.4005 -0.3221 2.3878
6.4030 -0.0929 2.3889
6.3958 0.1360 2.3896
6.3783 0.3642 2.3895
6.3525 0.5914 2.3894
6.3286 0.8185 2.3932
6.2967 1.0447 2.3971
6.2601 1.2704 2.4024
6.2134 1.4944 2.4070
6.1573 1.7163 2.4111
6.0920 1.9357 2.4147
6.0174 2.1523 2.4178
5.9332 2.3652 2.4201
5.8401 2.5743 2.4220
5.7379 2.7789 2.4231
5.6272 2.9789 2.4237
5.5086 3.1740 2.4239
5.3828 3.3643 2.4239
5.2505 3.5497 2.4239
5.1117 3.7299 2.4239
4.9668 3.9048 2.4239
4.8159 4.0742 2.4239
4.6593 4.2378 2.4239
4.4971 4.3955 2.4239
4.3297 4.5472 2.4239
4.1572 4.6926 2.4239
3.9799 4.8316 2.4239
3.7980 4.9640 2.4239
3.6117 5.0897 2.4239
3.4214 5.2086 2.4239
3.2273 5.3205 2.4239
3.0295 5.4254 2.4239
2.8285 5.5231 2.4239
2.6243 5.6136 2.4239
2.4174 5.6967 2.4239
0.8791 2.2983 0.9651
0.7957 2.3283 0.9663
0.7113 2.3553 0.9674
0.6260 2.3792 0.9685
0.5399 2.4000 0.9696
0.4531 2.4178 0.9706
0.3657 2.4323 0.9717
0.2778 2.4437 0.9726
0.1895 2.4520 0.9735
0.1010 2.4570 0.9744
0.0124 2.4588 0.9753
-0.0763 2.4575 0.9761
-0.1648 2.4529 0.9768
-0.2531 2.4452 0.9775
-0.3411 2.4343 0.9782
-0.4287 2.4202 0.9788
-0.5156 2.4029 0.9794
-0.6019 2.3825 0.9799
-0.6874 2.3590 0.9803
-0.7720 2.3325 0.9807
-0.8556 2.3029 0.9811
-2.3126 5.5973 2.4196
-2.5108 5.5051 2.4182
-2.7062 5.4078 2.4175
-2.8981 5.3037 2.4168
-3.0861 5.1931 2.4161
-3.2701 5.0761 2.4153
-3.4497 4.9528 2.4145
-3.6249 4.8233 2.4137
-3.7954 4.6878 2.4129
-3.9611 4.5466 2.4120
-4.1217 4.3997 2.4111
-4.2770 4.2473 2.4102
-4.4269 4.0896 2.4093
-4.5712 3.9268 2.4084
-4.7082 3.7580 2.4067
-4.8313 3.5786 2.4010
-4.9543 3.3999 2.3984
-5.0761 3.2205 2.3983
-5.1917 3.0369 2.3982
-5.3009 2.8492 2.3981
-5.4036 2.6578 2.3980
-5.4996 2.4629 2.3979
-5.5888 2.2646 2.3978
-5.6712 2.0631 2.3977
-5.7466 1.8588 2.3976
-5.8148 1.6519 2.3975
-5.8759 1.4425 2.3973
-5.9296 1.2310 2.3972
-5.9760 1.0175 2.3971
-6.0149 0.8023 2.3970
-6.0464 0.5857 2.3969
-6.0702 0.3680 2.3967
-6.0865 0.1493 2.3966
4.0413 4.2714 2.4239
3.8796 4.4074 2.4239
3.7134 4.5374 2.4239
3.5428 4.6612 2.4239
3.3682 4.7788 2.4239
3.1897 4.8899 2.4239
3.0077 4.9946 2.4239
2.8223 5.0926 2.4239
2.6336 5.1838 2.4238
2.4419 5.2676 2.4235
0.8928 2.1229 0.9625
0.8157 2.1535 0.9636
0.7376 2.1813 0.9648
0.6585 2.2063 0.9658
0.5786 2.2283 0.9669
0.4979 2.2475 0.9679
0.4165 2.2638 0.9689
0.3347 2.2772 0.9698
0.2523 2.2875 0.9707
0.1697 2.2949 0.9716
0.0869 2.2993 0.9724
0.0039 2.3008 0.9732
-0.0791 2.2992 0.9739
-0.1619 2.2946 0.9746
-0.2446 2.2871 0.9753
-0.3269 2.2765 0.9759
-0.4088 2.2631 0.9764
-0.4901 2.2466 0.9770
-0.5708 2.2273 0.9774
-0.6508 2.2050 0.9779
-0.7298 2.1799 0.9782
-0.8080 2.1519 0.9786
-0.8850 2.1211 0.9788
-2.3718 5.1526 2.4166
-2.5549 5.0609 2.4159
-2.7346 4.9629 2.4153
-2.9106 4.8587 2.4146
-3.0829 4.7484 2.4139
-3.2511 4.6323 2.4131
-3.4151 4.5104 2.4124
-3.5746 4.3829 2.4116
-3.7296 4.2499 2.4108
-3.8798 4.1116 2.4100
-4.0251 3.9682 2.4091
-4.1653 3.8199 2.4083
-4.2987 3.6655 2.4065
-4.4201 3.5015 2.4013
-4.5398 3.3369 2.3984
-4.6592 3.1722 2.3983
-4.7728 3.0033 2.3982
-4.8806 2.8305 2.3981
-4.9823 2.6540 2.3980
-5.0779 2.4740 2.3979
-5.1671 2.2907 2.3978
-5.2500 2.1043 2.3977
-5.3264 1.9149 2.3976
-5.3962 1.7229 2.3975
-5.4594 1.5285 2.3974
-5.5157 1.3318 2.3973
-5.5651 1.1331 2.3972
-5.6077 0.9327 2.3971
-5.6432 0.7307 2.3969
-5.6716 0.5274 2.3968
-5.6930 0.3231 2.3967
-5.7071 0.1179 2.3966
-5.7141 -0.0878 2.3965
-5.7138 -0.2938 2.3964
-5.7063 -0.4999 2.3963
-5.6916 -0.7058 2.3962
-5.6695 -0.9114 2.3960
-5.6402 -1.1162 2.3959
-5.6037 -1.3200 2.3958
-5.5599 -1.5227 2.3957
-5.5089 -1.7240 2.3956
-5.4507 -1.9235 2.3955
-5.3855 -2.1211 2.3954
-5.3132 -2.3165 2.3953
-5.2339 -2.5094 2.3952
-5.1476 -2.6996 2.3951
-5.0546 -2.8869 2.3950
-4.9548 -3.0709 2.3949
-4.8484 -3.2515 2.3948
-4.7354 -3.4284 2.3947
-4.6161 -3.6013 2.3946
-4.4904 -3.7701 2.3945
-4.3586 -3.9344 2.3944
-4.2209 -4.0941 2.3943
-4.0773 -4.2490 2.3942
-3.9280 -4.3987 2.3941
-3.7733 -4.5432 2.3940
-3.6132 -4.6822 2.3940
-3.4481 -4.8154 2.3939
-3.2780 -4.9427 2.3938
-3.1032 -5.0639 2.3938
-2.9239 -5.1788 2.3937
-2.7395 -5.2856 2.3929
-2.5520 -5.3875 2.3929
-2.3607 -5.4827 2.3929
-2.1659 -5.5708 2.3928
-1.9677 -5.6519 2.3928
-1.7665 -5.7258 2.3928
-1.5625 -5.7922 2.3928
-1.3561 -5.8513 2.3928
-1.1473 -5.9027 2.3928
-0.9367 -5.9465 2.3927
-0.7243 -5.9825 2.3927
-0.5107 -6.0107 2.3927
-0.2959 -6.0311 2.3926
-0.0803 -6.0435 2.3926
0.1357 -6.0479 2.3926
0.3519 -6.0443 2.3925
0.5679 -6.0328 2.3925
0.7836 -6.0132 2.3924
0.9985 -5.9857 2.3924
1.2123 -5.9501 2.3923
1.4248 -5.9067 2.3923
1.6356 -5.8553 2.3922
1.8445 -5.7962 2.3922
2.0511 -5.7293 2.3921
2.2551 -5.6547 2.3921
2.4563 -5.5726 2.3920
2.6544 -5.4830 2.3919
2.8490 -5.3861 2.3919
3.0399 -5.2820 2.3918
3.2269 -5.1709 2.3917
3.4096 -5.0528 2.3917
3.5877 -4.9281 2.3916
3.7611 -4.7967 2.3915
3.9295 -4.6591 2.3915
4.0926 -4.5153 2.3914
4.2503 -4.3655 2.3913
4.4022 -4.2100 2.3912
4.5482 -4.0490 2.3912
4.6881 -3.8827 2.3911
4.8216 -3.7114 2.3910
4.9486 -3.5353 2.3909
5.0690 -3.3547 2.3909
5.1825 -3.1698 2.3908
5.2890 -2.9810 2.3907
5.3884 -2.7884 2.3906
5.4806 -2.5924 2.3906
5.5653 -2.3932 2.3905
5.6426 -2.1912 2.3904
5.7123 -1.9866 2.3903
5.7744 -1.7797 2.3903
5.8287 -1.5708 2.3902
5.8753 -1.3603 2.3901
5.9140 -1.1483 2.3900
5.9448 -0.9352 2.3900
5.9678 -0.7214 2.3899
5.9829 -0.5071 2.3898
5.9901 -0.2925 2.3898
5.9895 -0.0781 2.3897
5.9810 0.1360 2.3896
5.9647 0.3493 2.3896
5.9497 0.5626 2.3932
5.9274 0.7753 2.3970
5.8883 0.9856 2.3971
5.8440 1.1947 2.3982
5.8035 1.4046 2.4040
5.7494 1.6114 2.4073
5.6822 1.8144 2.4083
5.6115 2.0160 2.4108
5.5369 2.2162 2.4149
5.4521 2.4124 2.4176
5.3586 2.6045 2.4195
5.2571 2.7924 2.4209
5.1479 2.9758 2.4219
5.0320 3.1548 2.4227
4.9092 3.3289 2.4231
4.7801 3.4982 2.4235
4.6450 3.6623 2.4237
4.5040 3.8211 2.4238
4.3576 3.9746 2.4238
4.2059 4.1224 2.4239
4.0492 4.2645 2.4239
3.8877 4.4008 2.4239
3.7217 4.5311 2.4239
3.5514 4.6552 2.4239
3.3769 4.7731 2.4239
3.1987 4.8846 2.4239
3.0168 4.9896 2.4239
2.8315 5.0879 2.4239
2.6431 5.1794 2.4238
2.4514 5.2636 2.4235
0.8965 2.1213 0.9625
0.8195 2.1521 0.9636
0.7415 2.1800 0.9647
0.6624 2.2051 0.9658
0.5825 2.2273 0.9668
0.5019 2.2467 0.9678
0.4206 2.2631 0.9688
0.3387 2.2766 0.9697
0.2564 2.2871 0.9706
0.1738 2.2946 0.9715
0.0910 2.2992 0.9723
0.0080 2.3008 0.9731
-0.0750 2.2993 0.9739
-0.1578 2.2949 0.9746
-0.2405 2.2875 0.9752
-0.3228 2.2771 0.9758
-0.4047 2.2638 0.9764
-0.4861 2.2475 0.9769
-0.5668 2.2283 0.9774
-0.6468 2.2062 0.9778
-0.7260 2.1812 0.9782
-0.8041 2.1534 0.9785
-0.8813 2.1227 0.9788
-2.3627 5.1570 2.4166
-2.5459 5.0656 2.4160
-2.7258 4.9679 2.4153
-2.9020 4.8640 2.4146
-3.0744 4.7540 2.4139
-3.2429 4.6382 2.4132
-3.4071 4.5166 2.4124
-3.5669 4.3893 2.4116
-3.7221 4.2566 2.4108
-3.8725 4.1186 2.4100
-4.0180 3.9754 2.4092
-4.1584 3.8273 2.4083
-4.2925 3.6735 2.4068
-4.4142 3.5098 2.4016
-4.5338 3.3450 2.3984
-4.6534 3.1804 2.3983
-4.7674 3.0118 2.3982
-4.8754 2.8392 2.3981
-4.9774 2.6629 2.3980
-5.0733 2.4830 2.3979
-5.1629 2.2999 2.3978
-5.2461 2.1136 2.3977
-5.3228 1.9244 2.3976
-5.3929 1.7325 2.3975
-5.4564 1.5382 2.3974
-5.5131 1.3416 2.3973
-5.5629 1.1430 2.3972
-5.6057 0.9426 2.3971
-5.6416 0.7407 2.3970
-5.6704 0.5375 2.3968
-5.6921 0.3332 2.3967
-5.7066 0.1281 2.3966
-5.7139 -0.0776 2.3965
-5.7140 -0.2836 2.3964
-5.7069 -0.4897 2.3963
-5.6925 -0.6957 2.3962
-5.6708 -0.9012 2.3960
-5.6418 -1.1060 2.3959
-5.6056 -1.3100 2.3958
-5.5622 -1.5127 2.3957
-5.5116 -1.7141 2.3956
-5.4538 -1.9137 2.3955
-5.3889 -2.1114 2.3954
-5.3169 -2.3069 2.3953
-5.2380 -2.4999 2.3952
-5.1521 -2.6903 2.3951
-5.0594 -2.8777 2.3950
-4.9599 -3.0619 2.3949
-4.8538 -3.2427 2.3948
-4.7412 -3.4197 2.3947
-4.6221 -3.5929 2.3946
-4.4968 -3.7618 2.3945
-4.3653 -3.9264 2.3944
-4.2278 -4.0863 2.3943
-4.0845 -4.2414 2.3942
-3.9356 -4.3915 2.3941
-3.7811 -4.5362 2.3940
-3.6213 -4.6754 2.3940
-3.4563 -4.8089 2.3939
-3.2865 -4.9365 2.3938
-3.1119 -5.0581 2.3938
-2.9326 -5.1728 2.3935
-2.7486 -5.2804 2.3929
-2.5614 -5.3826 2.3929
-2.3703 -5.4781 2.3929
-2.1756 -5.5666 2.3928
-1.9776 -5.6481 2.3928
-1.7765 -5.7223 2.3928
-1.5727 -5.7891 2.3928
-1.3663 -5.8485 2.3928
-1.1577 -5.9003 2.3928
-0.9471 -5.9445 2.3927
-0.7349 -5.9809 2.3927
-0.5213 -6.0095 2.3927
-0.3065 -6.0302 2.3926
-0.0910 -6.0430 2.3926
0.1250 -6.0479 2.3926
0.3412 -6.0447 2.3925
0.5573 -6.0335 2.3925
0.7729 -6.0144 2.3924
0.9878 -5.9872 2.3924
1.2017 -5.9521 2.3923
1.4143 -5.9090 2.3923
1.6252 -5.8581 2.3922
1.8342 -5.7993 2.3922
2.0409 -5.7328 2.3921
2.2451 -5.6586 2.3921
2.4464 -5.5768 2.3920
2.6446 -5.4876 2.3919
2.8395 -5.3911 2.3919
3.0306 -5.2873 2.3918
3.2177 -5.1765 2.3917
3.4006 -5.0588 2.3917
3.5790 -4.9344 2.3916
3.7526 -4.8034 2.3915
3.9213 -4.6660 2.3915
4.0847 -4.5225 2.3914
4.2426 -4.3730 2.3913
4.3948 -4.2178 2.3912
4.5411 -4.0571 2.3912
4.6813 -3.8911 2.3911
4.8151 -3.7200 2.3910
4.9425 -3.5441 2.3909
5.0632 -3.3637 2.3909
5.1771 -3.1791 2.3908
5.2839 -2.9904 2.3907
5.3837 -2.7980 2.3906
5.4762 -2.6022 2.3906
5.5613 -2.4031 2.3905
5.6390 -2.2012 2.3904
5.7091 -1.9968 2.3903
5.7715 -1.7900 2.3903
5.8262 -1.5812 2.3902
5.8731 -1.3707 2.3901
5.9122 -1.1588 2.3900
5.9435 -0.9458 2.3900
5.9669 -0.7320 2.3899
5.9824 -0.5177 2.3898
5.9900 -0.3031 2.3898
5.9897 -0.0887 2.3897
5.9816 0.1254 2.3896
5.9657 0.3388 2.3896
5.9506 0.5520 2.3930
5.9291 0.7649 2.3970
5.8904 0.9753 2.3971
5.8458 1.1842 2.3979
5.8057 1.3942 2.4037
5.7526 1.6013 2.4073
5.6857 1.8044 2.4082
5.6149 2.0060 2.4106
5.5409 2.2064 2.4147
5.4565 2.4028 2.4175
5.3634 2.5951 2.4194
5.2623 2.7832 2.4209
5.1535 2.9669 2.4218
5.0379 3.1461 2.4226
4.9154 3.3204 2.4231
4.7867 3.4899 2.4234
4.6518 3.6543 2.4237
4.5111 3.8134 2.4237
4.3650 3.9671 2.4238
4.2136 4.1152 2.4239
4.0571 4.2576 2.4239
3.8958 4.3942 2.4239
3.7300 4.5248 2.4239
3.5599 4.6492 2.4239
3.3857 4.7674 2.4239
3.2076 4.8792 2.4239
3.0259 4.9845 2.4239
2.8408 5.0832 2.4239
2.6525 5.1751 2.4238
2.4610 5.2597 2.4235
0.9003 2.1197 0.9624
0.8234 2.1506 0.9635
0.7454 2.1787 0.9646
0.6664 2.2039 0.9657
0.5865 2.2263 0.9668
0.5059 2.2458 0.9678
0.4246 2.2623 0.9688
0.3428 2.2760 0.9697
0.2605 2.2866 0.9706
0.1779 2.2943 0.9715
0.0951 2.2990 0.9723
0.0121 2.3008 0.9731
-0.0709 2.2995 0.9738
-0.1537 2.2952 0.9745
-0.2364 2.2880 0.9752
-0.3188 2.2777 0.9758
-0.4007 2.2645 0.9764
-0.4821 2.2484 0.9769
-0.5629 2.2293 0.9774
-0.6429 2.2073 0.9778
-0.7221 2.1825 0.9782
-0.8003 2.1548 0.9785
-0.8775 2.1243 0.9788
-2.3535 5.1614 2.4166
-2.5369 5.0703 2.4160
-2.7169 4.9729 2.4153
-2.8934 4.8693 2.4147
-3.0660 4.7596 2.4140
-3.2346 4.6441 2.4132
-3.3990 4.5227 2.4125
-3.5591 4.3957 2.4117
-3.7145 4.2633 2.4109
-3.8652 4.1255 2.4101
-4.0110 3.9826 2.4092
-4.1516 3.8348 2.4083
-4.2863 3.6815 2.4071
-4.4084 3.5180 2.4019
-4.5277 3.3530 2.3984
-4.6476 3.1887 2.3983
-4.7618 3.0202 2.3982
-4.8702 2.8478 2.3981
-4.9725 2.6717 2.3980
-5.0687 2.4920 2.3979
-5.1586 2.3090 2.3978
-5.2421 2.1229 2.3977
-5.3192 1.9338 2.3976
-5.3896 1.7421 2.3975
-5.4534 1.5478 2.3974
-5.5104 1.3514 2.3973
-5.5606 1.1529 2.3972
-5.6038 0.9526 2.3971
-5.6400 0.7508 2.3970
-5.6691 0.5476 2.3968
-5.6912 0.3433 2.3967
-5.7060 0.1383 2.3966
3.7939 4.0068 2.4213
3.6425 4.1349 2.4214
3.4865 4.2569 2.4212
3.3262 4.3728 2.4208
3.1614 4.4818 2.4200
2.9931 4.5849 2.4191
2.8230 4.6840 2.4195
2.6495 4.7769 2.4197
2.4730 4.8634 2.4200
0.9099 1.9611 0.9601
0.8387 1.9924 0.9612
0.7663 2.0211 0.9623
0.6930 2.0472 0.9633
0.6187 2.0706 0.9643
0.5437 2.0913 0.9653
0.4679 2.1094 0.9662
0.3915 2.1246 0.9672
0.3147 2.1371 0.9680
0.2374 2.1469 0.9689
0.1598 2.1538 0.9697
0.0820 2.1579 0.9705
0.0042 2.1593 0.9712
-0.0737 2.1578 0.9719
-0.1515 2.1535 0.9725
-0.2291 2.1464 0.9732
-0.3064 2.1365 0.9737
-0.3832 2.1239 0.9743
-0.4596 2.1084 0.9748
-0.5354 2.0902 0.9752
-0.6104 2.0694 0.9756
-0.6847 2.0458 0.9760
-0.7580 2.0195 0.9763
-0.8304 1.9906 0.9765
-0.9016 1.9592 0.9768
-2.4017 4.7583 2.4146
-2.5708 4.6662 2.4140
-2.7364 4.5683 2.4133
-2.8985 4.4647 2.4127
-3.0568 4.3556 2.4120
-3.2111 4.2410 2.4113
-3.3613 4.1211 2.4105
-3.5071 3.9961 2.4098
-3.6485 3.8661 2.4090
-3.7851 3.7312 2.4082
-3.9160 3.5907 2.4067
-4.0362 3.4411 2.4020
-4.1530 3.2892 2.3984
-4.2705 3.1382 2.3983
-4.3827 2.9831 2.3982
-4.4896 2.8242 2.3981
-4.5908 2.6616 2.3980
-4.6864 2.4954 2.3979
-4.7762 2.3260 2.3978
-4.8600 2.1534 2.3977
-4.9378 1.9780 2.3976
-5.0095 1.7998 2.3975
-5.0750 1.6191 2.3974
-5.1341 1.4361 2.3973
-5.1869 1.2511 2.3972
-5.2332 1.0641 2.3971
-5.2729 0.8755 2.3970
-5.3061 0.6855 2.3969
-5.3326 0.4943 2.3968
-5.3523 0.3021 2.3967
-5.3654 0.1092 2.3966
-5.3716 -0.0842 2.3965
-5.3711 -0.2779 2.3964
-5.3637 -0.4717 2.3963
-5.3494 -0.6653 2.3962
-5.3284 -0.8584 2.3961
-5.3005 -1.0509 2.3960
-5.2658 -1.2424 2.3959
-5.2243 -1.4329 2.3958
-5.1760 -1.6219 2.3957
-5.1210 -1.8093 2.3955
-5.0593 -1.9948 2.3954
-4.9910 -2.1783 2.3953
-4.9161 -2.3594 2.3952
-4.8348 -2.5379 2.3951
-4.7470 -2.7136 2.3951
-4.6529 -2.8863 2.3950
-4.5526 -3.0557 2.3949
-4.4462 -3.2216 2.3948
-4.3337 -3.3838 2.3947
-4.2154 -3.5420 2.3946
-4.0914 -3.6960 2.3945
-3.9617 -3.8457 2.3944
-3.8266 -3.9908 2.3943
-3.6862 -4.1311 2.3943
-3.5407 -4.2664 2.3942
-3.3902 -4.3965 2.3941
-3.2349 -4.5212 2.3941
-3.0750 -4.6404 2.3940
-2.9108 -4.7538 2.3939
-2.7430 -4.8624 2.3944
-2.5700 -4.9629 2.3939
-2.3927 -5.0557 2.3927
-2.2131 -5.1446 2.3927
-2.0302 -5.2270 2.3927
-1.8442 -5.3026 2.3927
-1.6554 -5.3715 2.3927
-1.4640 -5.4336 2.3927
-1.2703 -5.4886 2.3927
-1.0745 -5.5365 2.3926
-0.8769 -5.5772 2.3926
-0.6778 -5.6107 2.3926
-0.4774 -5.6368 2.3926
-0.2761 -5.6556 2.3925
-0.0740 -5.6669 2.3925
0.1285 -5.6708 2.3925
0.3311 -5.6672 2.3924
0.5336 -5.6561 2.3924
0.7357 -5.6375 2.3923
0.9371 -5.6115 2.3923
1.1374 -5.5780 2.3922
1.3365 -5.5371 2.3922
1.5340 -5.4888 2.3921
1.7297 -5.4332 2.3921
1.9233 -5.3704 2.3920
2.1144 -5.3004 2.3920
2.3029 -5.2234 2.3919
2.4885 -5.1393 2.3919
2.6708 -5.0485 2.3918
2.8497 -4.9509 2.3917
3.0248 -4.8467 2.3917
3.1960 -4.7361 2.3916
3.3629 -4.6192 2.3916
3.5254 -4.4962 2.3915
3.6832 -4.3672 2.3914
3.8360 -4.2325 2.3913
3.9838 -4.0922 2.3913
4.1262 -3.9466 2.3912
4.2631 -3.7957 2.3911
4.3942 -3.6400 2.3911
4.5195 -3.4796 2.3910
4.6386 -3.3147 2.3909
4.7516 -3.1455 2.3909
4.8581 -2.9723 2.3908
4.9581 -2.7955 2.3907
5.0514 -2.6151 2.3906
5.1380 -2.4315 2.3906
5.2176 -2.2449 2.3905
5.2903 -2.0556 2.3904
5.3559 -1.8639 2.3904
5.4143 -1.6701 2.3903
5.4655 -1.4743 2.3902
5.5095 -1.2770 2.3902
5.5461 -1.0783 2.3901
5.5754 -0.8786 2.3900
5.5972 -0.6782 2.3900
5.6117 -0.4772 2.3899
5.6189 -0.2761 2.3898
5.6186 -0.0750 2.3898
5.6110 0.1258 2.3897
5.6041 0.3264 2.3931
5.5903 0.5268 2.3966
5.5617 0.7256 2.3969
5.5254 0.9229 2.3971
5.4819 1.1187 2.3972
5.4357 1.3135 2.3991
5.3898 1.5085 2.4044
5.3316 1.7003 2.4073
5.2620 1.8882 2.4082
5.1856 2.0733 2.4090
5.1025 2.2554 2.4098
5.0130 2.4342 2.4106
4.9171 2.6094 2.4114
4.8159 2.7814 2.4125
4.7117 2.9514 2.4153
4.5996 3.1164 2.4170
4.4810 3.2766 2.4185
4.3560 3.4318 2.4194
4.2254 3.5819 2.4202
4.0892 3.7269 2.4208
3.9477 3.8664 2.4211
3.8013 4.0004 2.4213
3.6501 4.1287 2.4214
3.4943 4.2510 2.4212
3.3342 4.3672 2.4209
3.1696 4.4766 2.4200
3.0015 4.5798 2.4191
2.8315 4.6792 2.4194
2.6581 4.7724 2.4197
2.4818 4.8592 2.4200
0.9134 1.9595 0.9601
0.8422 1.9909 0.9612
0.7699 2.0197 0.9622
0.6966 2.0460 0.9633
0.6224 2.0695 0.9643
0.5474 2.0904 0.9652
0.4717 2.1085 0.9662
0.3953 2.1239 0.9671
0.3185 2.1366 0.9680
0.2412 2.1464 0.9688
0.1637 2.1535 0.9696
0.0859 2.1578 0.9704
0.0080 2.1593 0.9712
-0.0699 2.1579 0.9719
-0.1477 2.1538 0.9725
-0.2253 2.1468 0.9731
-0.3026 2.1371 0.9737
-0.3794 2.1245 0.9742
-0.4558 2.1093 0.9747
-0.5316 2.0912 0.9752
-0.6067 2.0704 0.9756
-0.6810 2.0470 0.9759
-0.7544 2.0209 0.9763
-0.8268 1.9921 0.9765
-0.8981 1.9608 0.9767
-2.3933 4.7627 2.4146
-2.5625 4.6709 2.4140
-2.7283 4.5733 2.4134
-2.8906 4.4700 2.4127
-3.0490 4.3611 2.4120
-3.2035 4.2468 2.4113
-3.3539 4.1272 2.4106
-3.5000 4.0024 2.4098
-3.6416 3.8726 2.4090
-3.7785 3.7380 2.4082
-3.9099 3.5980 2.4070
-4.0304 3.4486 2.4022
-4.1470 3.2966 2.3984
-4.2648 3.1458 2.3983
-4.3773 2.9909 2.3982
-4.4844 2.8321 2.3981
-4.5859 2.6697 2.3980
-4.6818 2.5037 2.3979
-4.7719 2.3345 2.3978
-4.8560 2.1621 2.3977
-4.9341 1.9867 2.3976
-5.0061 1.8087 2.3975
-5.0719 1.6281 2.3974
-5.1314 1.4452 2.3973
-5.1844 1.2603 2.3972
-5.2311 1.0734 2.3971
-5.2711 0.8849 2.3970
-5.3046 0.6950 2.3969
-5.3314 0.5038 2.3968
-5.3515 0.3117 2.3967
-5.3649 0.1188 2.3966
-5.3715 -0.0746 2.3965
-5.3712 -0.2683 2.3964
-5.3642 -0.4621 2.3963
-5.3503 -0.6557 2.3962
-5.3296 -0.8489 2.3961
-5.3020 -1.0414 2.3960
-5.2677 -1.2330 2.3959
-5.2265 -1.4235 2.3958
-5.1786 -1.6126 2.3957
-5.1239 -1.8001 2.3956
-5.0625 -1.9857 2.3955
-4.9946 -2.1693 2.3953
-4.9200 -2.3505 2.3953
-4.8390 -2.5291 2.3952
-4.7515 -2.7050 2.3951
-4.6577 -2.8778 2.3950
-4.5577 -3.0474 2.3949
-4.4516 -3.2135 2.3948
-4.3394 -3.3758 2.3947
-4.2214 -3.5343 2.3946
-4.0977 -3.6885 2.3945
-3.9683 -3.8384 2.3944
-3.8334 -3.9837 2.3944
-3.6933 -4.1243 2.3943
-3.5480 -4.2598 2.3942
-3.3977 -4.3902 2.3941
-3.2427 -4.5152 2.3941
-3.0830 -4.6346 2.3940
-2.9190 -4.7483 2.3939
-2.7512 -4.8568 2.3942
-2.5785 -4.9577 2.3937
-2.4015 -5.0512 2.3927
-2.2221 -5.1404 2.3927
-2.0393 -5.2230 2.3927
-1.8535 -5.2991 2.3927
-1.6648 -5.3683 2.3927
-1.4735 -5.4306 2.3927
-1.2799 -5.4860 2.3927
-1.0842 -5.5343 2.3926
-0.8867 -5.5753 2.3926
-0.6877 -5.6092 2.3926
-0.4874 -5.6357 2.3926
-0.2861 -5.6548 2.3925
-0.0840 -5.6665 2.3925
0.1185 -5.6708 2.3925
0.3211 -5.6675 2.3924
0.5236 -5.6568 2.3924
0.7257 -5.6386 2.3923
0.9271 -5.6130 2.3923
1.1275 -5.5798 2.3922
1.3267 -5.5393 2.3922
1.5243 -5.4914 2.3921
1.7201 -5.4361 2.3921
1.9138 -5.3737 2.3920
2.1050 -5.3040 2.3920
2.2937 -5.2273 2.3919
2.4794 -5.1437 2.3919
2.6619 -5.0531 2.3918
2.8409 -4.9559 2.3917
3.0162 -4.8520 2.3917
3.1876 -4.7417 2.3916
3.3547 -4.6251 2.3916
3.5174 -4.5024 2.3915
3.6755 -4.3737 2.3914
3.8286 -4.2393 2.3914
3.9766 -4.0993 2.3913
4.1193 -3.9539 2.3912
4.2564 -3.8033 2.3911
4.3879 -3.6478 2.3911
4.5134 -3.4876 2.3910
4.6329 -3.3229 2.3909
4.7461 -3.1540 2.3909
4.8530 -2.9810 2.3908
4.9533 -2.8043 2.3907
5.0470 -2.6241 2.3906
5.1339 -2.4406 2.3906
5.2139 -2.2542 2.3905
5.2869 -2.0650 2.3904
5.3528 -1.8735 2.3904
5.4116 -1.6797 2.3903
5.4632 -1.4841 2.3902
5.5075 -1.2868 2.3902
5.5445 -1.0882 2.3901
5.5741 -0.8886 2.3900
5.5963 -0.6881 2.3900
5.6112 -0.4872 2.3899
5.6187 -0.2860 2.3898
5.6188 -0.0849 2.3898
5.6116 0.1159 2.3897
5.6046 0.3165 2.3929
5.5911 0.5168 2.3964
5.5633 0.7158 2.3969
5.5273 0.9132 2.3971
5.4842 1.1090 2.3972
5.4377 1.3038 2.3989
5.3923 1.4989 2.4042
5.3349 1.6909 2.4073
5.2656 1.8790 2.4082
5.1895 2.0643 2.4090
5.1068 2.2465 2.4098
5.0176 2.4254 2.4106
4.9220 2.6008 2.4113
4.8208 2.7729 2.4124
4.7170 2.9431 2.4151
4.6053 3.1083 2.4170
4.4871 3.2688 2.4184
4.3624 3.4242 2.4194
4.2320 3.5746 2.4202
4.0961 3.7198 2.4207
3.9548 3.8596 2.4211
3.8086 3.9938 2.4213
3.6577 4.1225 2.4214
3.5021 4.2451 2.4212
3.3422 4.3616 2.4209
3.1779 4.4713 2.4201
3.0098 4.5748 2.4191
2.8399 4.6745 2.4194
2.6668 4.7679 2.4197
2.4906 4.8551 2.4200
0.9169 1.9579 0.9600
0.8458 1.9894 0.9611
0.7735 2.0184 0.9622
0.7003 2.0447 0.9632
0.6261 2.0684 0.9642
0.5511 2.0894 0.9652
0.4754 2.1077 0.9661
0.3991 2.1232 0.9671
0.3223 2.1360 0.9679
0.2451 2.1460 0.9688
0.1675 2.1532 0.9696
0.0897 2.1577 0.9704
0.0119 2.1593 0.9711
-0.0660 2.1581 0.9718
-0.1438 2.1540 0.9725
-0.2214 2.1472 0.9731
-0.2987 2.1376 0.9737
-0.3757 2.1252 0.9742
-0.4521 2.1101 0.9747
-0.5279 2.0922 0.9752
-0.6030 2.0715 0.9756
-0.6774 2.0482 0.9759
-0.7508 2.0222 0.9762
-0.8233 1.9936 0.9765
-0.8946 1.9624 0.9767
-2.3848 4.7671 2.4147
-2.5542 4.6756 2.4141
-2.7202 4.5782 2.4134
-2.8826 4.4752 2.4127
-3.0413 4.3666 2.4121
-3.1960 4.2526 2.4113
-3.3466 4.1332 2.4106
-3.4929 4.0087 2.4099
-3.6347 3.8792 2.4091
-3.7718 3.7448 2.4083
-3.9038 3.6053 2.4072
-4.0247 3.4562 2.4025
-4.1410 3.3040 2.3984
-4.2591 3.1533 2.3983
-4.3719 2.9987 2.3982
-4.4792 2.8401 2.3981
-4.5810 2.6778 2.3980
-4.6772 2.5120 2.3979
-4.7675 2.3429 2.3978
-4.8520 2.1707 2.3977
-4.9304 1.9955 2.3976
-5.0027 1.8175 2.3975
-5.0688 1.6371 2.3974
-5.1286 1.4543 2.3973
-5.1820 1.2695 2.3972
-5.2289 1.0827 2.3971
-5.2693 0.8943 2.3970
-5.3031 0.7044 2.3969
-5.3302 0.5133 2.3968
-5.3507 0.3212 2.3967
-5.3644 0.1284 2.3966
3.5662 3.7634 2.4157
3.4247 3.8846 2.4161
3.2791 4.0006 2.4166
3.1296 4.1111 2.4170
2.9763 4.2161 2.4173
2.8195 4.3154 2.4176
2.6594 4.4090 2.4179
2.4962 4.4967 2.4182
0.9230 1.8135 0.9580
0.8570 1.8453 0.9590
0.7899 1.8748 0.9600
0.7218 1.9018 0.9610
0.6528 1.9263 0.9620
0.5829 1.9484 0.9629
0.5122 1.9679 0.9639
0.4409 1.9848 0.9648
0.3690 1.9992 0.9656
0.2967 2.0110 0.9664
0.2239 2.0201 0.9672
0.1509 2.0266 0.9680
0.0777 2.0305 0.9687
0.0044 2.0318 0.9694
-0.0689 2.0304 0.9701
-0.1421 2.0263 0.9707
-0.2151 2.0196 0.9713
-0.2879 2.0103 0.9718
-0.3602 1.9984 0.9723
-0.4321 1.9839 0.9728
-0.5034 1.9668 0.9732
-0.5741 1.9471 0.9736
-0.6440 1.9249 0.9739
-0.7130 1.9002 0.9742
-0.7811 1.8730 0.9745
-0.8482 1.8434 0.9747
-2.2632 4.4846 2.4134
-2.4226 4.3979 2.4128
-2.5789 4.3057 2.4122
-2.7317 4.2081 2.4116
-2.8810 4.1053 2.4109
-3.0266 3.9973 2.4103
-3.1682 3.8843 2.4096
-3.3058 3.7665 2.4089
-3.4391 3.6439 2.4081
-3.5671 3.5159 2.4067
-3.6860 3.3793 2.4024
-3.8003 3.2394 2.3983
-3.9159 3.1009 2.3983
-4.0267 2.9584 2.3982
-4.1325 2.8120 2.3981
-4.2332 2.6621 2.3980
-4.3286 2.5086 2.3979
-4.4186 2.3519 2.3978
-4.5032 2.1920 2.3978
-4.5821 2.0292 2.3977
-4.6554 1.8637 2.3976
-4.7228 1.6956 2.3975
-4.7844 1.5252 2.3974
-4.8400 1.3526 2.3973
-4.8895 1.1780 2.3972
-4.9330 1.0017 2.3971
-4.9702 0.8239 2.3970
-5.0013 0.6447 2.3969
-5.0260 0.4644 2.3968
-5.0444 0.2832 2.3967
-5.0564 0.1014 2.3966
-5.0620 -0.0810 2.3965
-5.0613 -0.2636 2.3964
-5.0540 -0.4462 2.3963
-5.0403 -0.6286 2.3962
-5.0202 -0.8106 2.3961
-4.9936 -0.9919 2.3960
-4.9606 -1.1723 2.3959
-4.9212 -1.3517 2.3958
-4.8754 -1.5297 2.3957
-4.8233 -1.7062 2.3956
-4.7649 -1.8809 2.3955
-4.7002 -2.0535 2.3954
-4.6294 -2.2240 2.3953
-4.5525 -2.3920 2.3952
-4.4695 -2.5573 2.3951
-4.3806 -2.7198 2.3950
-4.2858 -2.8791 2.3950
-4.1853 -3.0351 2.3949
-4.0792 -3.1876 2.3948
-3.9675 -3.3363 2.3947
-3.8505 -3.4811 2.3946
-3.7281 -3.6218 2.3946
-3.6007 -3.7581 2.3945
-3.4683 -3.8899 2.3944
-3.3311 -4.0170 2.3943
-3.1892 -4.1392 2.3943
-3.0429 -4.2562 2.3942
-2.8923 -4.3681 2.3941
-2.7375 -4.4745 2.3941
-2.5789 -4.5754 2.3940
-2.4174 -4.6723 2.3949
-2.2507 -4.7599 2.3940
-2.0803 -4.8404 2.3926
-1.9081 -4.9176 2.3926
-1.7331 -4.9885 2.3926
-1.5555 -5.0530 2.3926
-1.3754 -5.1110 2.3926
-1.1932 -5.1624 2.3925
-1.0090 -5.2072 2.3925
-0.8232 -5.2452 2.3925
-0.6360 -5.2764 2.3925
-0.4476 -5.3007 2.3925
-0.2583 -5.3181 2.3924
-0.0683 -5.3285 2.3924
0.1220 -5.3319 2.3924
0.3125 -5.3283 2.3923
0.5028 -5.3177 2.3923
0.6927 -5.3001 2.3922
0.8819 -5.2754 2.3922
1.0702 -5.2437 2.3922
1.2573 -5.2051 2.3921
1.4428 -5.1596 2.3921
1.6267 -5.1073 2.3920
1.8085 -5.0481 2.3920
1.9881 -4.9823 2.3919
2.1652 -4.9098 2.3919
2.3395 -4.8308 2.3918
2.5108 -4.7453 2.3917
2.6788 -4.6536 2.3917
2.8434 -4.5557 2.3916
3.0042 -4.4517 2.3916
3.1610 -4.3419 2.3915
3.3137 -4.2263 2.3914
3.4620 -4.1052 2.3914
3.6057 -3.9786 2.3913
3.7445 -3.8468 2.3912
3.8784 -3.7100 2.3912
4.0071 -3.5684 2.3911
4.1304 -3.4221 2.3911
4.2481 -3.2714 2.3910
4.3602 -3.1165 2.3909
4.4665 -2.9576 2.3908
4.5667 -2.7950 2.3908
4.6608 -2.6288 2.3907
4.7487 -2.4594 2.3906
4.8302 -2.2869 2.3906
4.9053 -2.1116 2.3905
4.9738 -1.9338 2.3904
5.0356 -1.7537 2.3904
5.0908 -1.5716 2.3903
5.1392 -1.3876 2.3903
5.1807 -1.2022 2.3902
5.2154 -1.0155 2.3901
5.2432 -0.8278 2.3901
5.2640 -0.6393 2.3900
5.2780 -0.4504 2.3899
5.2850 -0.2613 2.3899
5.2850 -0.0722 2.3898
5.2856 0.1168 2.3931
5.2789 0.3057 2.3963
5.2596 0.4938 2.3968
5.2326 0.6808 2.3969
5.1987 0.8665 2.3970
5.1582 1.0507 2.3971
5.1110 1.2331 2.3972
5.0625 1.4149 2.3998
5.0121 1.5964 2.4046
4.9509 1.7745 2.4073
4.8793 1.9487 2.4081
4.8014 2.1201 2.4089
4.7174 2.2884 2.4096
4.6275 2.4534 2.4103
4.5317 2.6149 2.4110
4.4301 2.7727 2.4117
4.3231 2.9266 2.4123
4.2106 3.0763 2.4130
4.0929 3.2218 2.4136
3.9701 3.3628 2.4141
3.8424 3.4992 2.4147
3.7100 3.6307 2.4152
3.5731 3.7573 2.4157
3.4318 3.8788 2.4161
3.2864 3.9949 2.4165
3.1371 4.1057 2.4169
2.9840 4.2110 2.4173
2.8273 4.3106 2.4176
2.6674 4.4045 2.4179
2.5043 4.4925 2.4182
0.9262 1.8119 0.9579
0.8603 1.8438 0.9589
0.7933 1.8734 0.9600
0.7252 1.9005 0.9610
0.6562 1.9252 0.9620
0.5863 1.9473 0.9629
0.5157 1.9670 0.9638
0.4445 1.9840 0.9647
0.3726 1.9985 0.9656
0.3003 2.0104 0.9664
0.2276 2.0197 0.9672
0.1545 2.0264 0.9680
0.0813 2.0304 0.9687
0.0080 2.0318 0.9694
-0.0653 2.0305 0.9701
-0.1385 2.0266 0.9707
-0.2115 2.0200 0.9713
-0.2843 2.0109 0.9718
-0.3567 1.9991 0.9723
-0.4286 1.9847 0.9728
-0.4999 1.9677 0.9732
-0.5706 1.9481 0.9736
-0.6405 1.9261 0.9739
-0.7096 1.9015 0.9742
-0.7778 1.8744 0.9744
-0.8449 1.8449 0.9747
-2.2552 4.4887 2.4134
-2.4148 4.4023 2.4129
-2.5712 4.3104 2.4122
-2.7242 4.2131 2.4116
-2.8737 4.1105 2.4110
-3.0195 4.0028 2.4103
-3.1613 3.8900 2.4096
-3.2991 3.7724 2.4089
-3.4326 3.6501 2.4082
-3.5611 3.5226 2.4070
-3.6802 3.3862 2.4026
-3.7944 3.2461 2.3983
-3.9103 3.1078 2.3983
-4.0214 2.9655 2.3982
-4.1274 2.8194 2.3981
-4.2283 2.6696 2.3980
-4.3240 2.5163 2.3979
-4.4143 2.3597 2.3978
-4.4991 2.2000 2.3978
-4.5783 2.0374 2.3977
-4.6519 1.8720 2.3976
-4.7196 1.7040 2.3975
-4.7815 1.5337 2.3974
-4.8374 1.3612 2.3973
-4.8872 1.1867 2.3972
-4.9310 1.0105 2.3971
-4.9685 0.8327 2.3970
-4.9999 0.6536 2.3969
-5.0249 0.4734 2.3968
-5.0436 0.2922 2.3967
-5.0560 0.1104 2.3966
-5.0619 -0.0719 2.3965
-5.0614 -0.2545 2.3964
-5.0545 -0.4371 2.3963
-5.0412 -0.6196 2.3962
-5.0213 -0.8016 2.3961
-4.9951 -0.9829 2.3960
-4.9624 -1.1634 2.3959
-4.9233 -1.3428 2.3958
-4.8778 -1.5209 2.3957
-4.8260 -1.6975 2.3956
-4.7679 -1.8723 2.3955
-4.7036 -2.0450 2.3954
-4.6330 -2.2156 2.3953
-4.5564 -2.3837 2.3952
-4.4737 -2.5492 2.3951
-4.3851 -2.7118 2.3951
-4.2906 -2.8713 2.3950
-4.1904 -3.0275 2.3949
-4.0846 -3.1801 2.3948
-3.9732 -3.3291 2.3947
-3.8564 -3.4741 2.3946
-3.7343 -3.6149 2.3946
-3.6071 -3.7515 2.3945
-3.4750 -3.8835 2.3944
-3.3380 -4.0108 2.3943
-3.1964 -4.1332 2.3943
-3.0502 -4.2506 2.3942
-2.8998 -4.3627 2.3941
-2.7453 -4.4694 2.3941
-2.5868 -4.5705 2.3940
-2.4254 -4.6674 2.3947
-2.2588 -4.7552 2.3938
-2.0887 -4.8365 2.3926
-1.9167 -4.9139 2.3926
-1.7418 -4.9851 2.3926
-1.5643 -5.0499 2.3926
-1.3844 -5.1083 2.3926
-1.2022 -5.1600 2.3925
-1.0182 -5.2051 2.3925
-0.8324 -5.2435 2.3925
-0.6453 -5.2750 2.3925
-0.4569 -5.2997 2.3925
-0.2676 -5.3174 2.3924
-0.0777 -5.3281 2.3924
0.1126 -5.3319 2.3924
0.3031 -5.3287 2.3923
0.4934 -5.3184 2.3923
0.6833 -5.3011 2.3922
0.8726 -5.2768 2.3922
1.0609 -5.2455 2.3922
1.2480 -5.2072 2.3921
1.4337 -5.1621 2.3921
1.6176 -5.1100 2.3920
1.7996 -5.0512 2.3920
1.9793 -4.9857 2.3919
2.1565 -4.9135 2.3919
2.3309 -4.8348 2.3918
2.5024 -4.7497 2.3917
2.6706 -4.6583 2.3917
2.8353 -4.5607 2.3916
2.9963 -4.4570 2.3916
3.1534 -4.3475 2.3915
3.3063 -4.2322 2.3914
3.4548 -4.1113 2.3914
3.5987 -3.9850 2.3913
3.7378 -3.8535 2.3913
3.8719 -3.7169 2.3912
4.0008 -3.5755 2.3911
4.1244 -3.4294 2.3911
4.2424 -3.2789 2.3910
4.3548 -3.1243 2.3909
4.4613 -2.9656 2.3909
4.5619 -2.8031 2.3908
4.6563 -2.6371 2.3907
4.7445 -2.4678 2.3907
4.8263 -2.2955 2.3906
4.9017 -2.1204 2.3905
4.9705 -1.9427 2.3905
5.0327 -1.7627 2.3904
5.0882 -1.5806 2.3903
5.1369 -1.3968 2.3903
5.1788 -1.2114 2.3902
5.2138 -1.0248 2.3901
5.2420 -0.8371 2.3901
5.2632 -0.6487 2.3900
5.2774 -0.4598 2.3899
5.2848 -0.2706 2.3899
5.2852 -0.0815 2.3898
5.2857 0.1075 2.3930
5.2794 0.2964 2.3961
5.2608 0.4845 2.3968
5.2341 0.6716 2.3969
5.2006 0.8573 2.3970
5.1604 1.0416 2.3971
5.1135 1.2241 2.3972
5.0648 1.4059 2.3995
5.0148 1.5874 2.4044
4.9543 1.7658 2.4073
4.8830 1.9402 2.4081
4.8054 2.1117 2.4088
4.7217 2.2801 2.4096
4.6321 2.4453 2.4103
4.5365 2.6070 2.4110
4.4353 2.7650 2.4117
4.3285 2.9190 2.4123
4.2163 3.0690 2.4129
4.0988 3.2147 2.4135
3.9763 3.3559 2.4141
3.8488 3.4925 2.4146
3.7167 3.6243 2.4152
3.5800 3.7512 2.4156
3.4389 3.8729 2.4161
3.2937 3.9893 2.4165
3.1445 4.1004 2.4169
2.9916 4.2059 2.4173
2.8352 4.3058 2.4176
2.6754 4.4000 2.4179
2.5125 4.4882 2.4182
0.9294 1.8102 0.9578
0.8636 1.8423 0.9589
0.7966 1.8720 0.9599
0.7286 1.8992 0.9609
0.6596 1.9240 0.9619
0.5898 1.9463 0.9629
0.5192 1.9661 0.9638
0.4480 1.9833 0.9647
0.3762 1.9979 0.9655
0.3039 2.0099 0.9664
0.2312 2.0193 0.9672
0.1582 2.0261 0.9679
0.0850 2.0302 0.9687
0.0117 2.0318 0.9694
-0.0617 2.0306 0.9700
-0.1349 2.0268 0.9706
-0.2079 2.0204 0.9712
-0.2807 2.0114 0.9718
-0.3531 1.9997 0.9723
-0.4250 1.9854 0.9727
-0.4964 1.9686 0.9732
-0.5671 1.9492 0.9735
-0.6371 1.9272 0.9739
-0.7062 1.9028 0.9742
-0.7744 1.8758 0.9744
-0.8416 1.8465 0.9746
-0.9077 1.8147 0.9748
-2.4070 4.4067 2.4129
-2.5636 4.3150 2.4123
-2.7168 4.2180 2.4117
-2.8664 4.1157 2.4110
-3.0124 4.0082 2.4103
-3.1544 3.8957 2.4096
-3.2924 3.7784 2.4089
-3.4261 3.6563 2.4082
-3.5551 3.5292 2.4072
-3.6744 3.3931 2.4028
-3.7886 3.2529 2.3983
-3.9047 3.1147 2.3983
-4.0160 2.9726 2.3982
-4.1223 2.8267 2.3981
-4.2235 2.6771 2.3980
-4.3194 2.5240 2.3979
-4.4099 2.3676 2.3979
-4.4950 2.2080 2.3978
-4.5745 2.0455 2.3977
-4.6484 1.8802 2.3976
-4.7164 1.7124 2.3975
-4.7785 1.5421 2.3974
-4.8347 1.3698 2.3973
-4.8849 1.1954 2.3972
-4.9289 1.0192 2.3971
-4.9668 0.8416 2.3970
-4.9985 0.6625 2.3969
-5.0238 0.4823 2.3968
-5.0428 0.3012 2.3967
-5.0555 0.1194 2.3966
3.3657 3.5491 2.4144
3.2324 3.6636 2.4149
3.0952 3.7732 2.4153
2.9543 3.8777 2.4156
2.8098 3.9769 2.4160
2.6620 4.0709 2.4163
2.5110 4.1594 2.4166
2.3571 4.2424 2.4168
0.8712 1.7103 0.9570
0.8090 1.7404 0.9580
0.7457 1.7681 0.9590
0.6814 1.7936 0.9599
0.6163 1.8167 0.9608
0.5504 1.8375 0.9617
0.4837 1.8559 0.9626
0.4164 1.8719 0.9634
0.3486 1.8854 0.9642
0.2804 1.8965 0.9650
0.2117 1.9052 0.9658
0.1428 1.9113 0.9665
0.0738 1.9150 0.9672
0.0046 1.9161 0.9678
-0.0645 1.9148 0.9684
-0.1336 1.9110 0.9690
-0.2025 1.9047 0.9696
-0.2711 1.8959 0.9701
-0.3394 1.8847 0.9706
-0.4072 1.8710 0.9710
-0.4745 1.8548 0.9714
-0.5411 1.8363 0.9717
-0.6070 1.8153 0.9721
-0.6722 1.7920 0.9723
-0.7364 1.7664 0.9726
-0.7997 1.7385 0.9728
-0.8619 1.7083 0.9729
-2.2879 4.1538 2.4118
-2.4356 4.0668 2.4112
-2.5800 3.9746 2.4106
-2.7212 3.8776 2.4100
-2.8587 3.7756 2.4093
-2.9926 3.6689 2.4087
-3.1227 3.5576 2.4080
-3.2477 3.4407 2.4066
-3.3649 3.3161 2.4025
-3.4771 3.1874 2.3983
-3.5909 3.0603 2.3982
-3.7002 2.9294 2.3982
-3.8048 2.7946 2.3981
-3.9048 2.6563 2.3980
-3.9998 2.5145 2.3979
-4.0899 2.3694 2.3979
-4.1749 2.2213 2.3978
-4.2547 2.0701 2.3977
-4.3292 1.9162 2.3976
-4.3983 1.7597 2.3975
-4.4619 1.6008 2.3974
-4.5199 1.4397 2.3973
-4.5723 1.2766 2.3972
-4.6190 1.1116 2.3972
-4.6599 0.9450 2.3971
-4.6949 0.7769 2.3970
-4.7240 0.6076 2.3969
-4.7472 0.4372 2.3968
-4.7644 0.2660 2.3967
-4.7755 0.0942 2.3966
-4.7806 -0.0780 2.3965
-4.7796 -0.2505 2.3964
-4.7725 -0.4230 2.3963
-4.7594 -0.5952 2.3962
-4.7401 -0.7671 2.3961
-4.7148 -0.9383 2.3960
-4.6833 -1.1086 2.3959
-4.6459 -1.2779 2.3958
-4.6024 -1.4460 2.3957
-4.5529 -1.6125 2.3957
-4.4975 -1.7773 2.3956
-4.4362 -1.9402 2.3955
-4.3691 -2.1010 2.3954
-4.2962 -2.2595 2.3953
-4.2176 -2.4154 2.3952
-4.1334 -2.5686 2.3951
-4.0437 -2.7188 2.3950
-3.9486 -2.8659 2.3950
-3.8482 -3.0096 2.3949
-3.7426 -3.1498 2.3948
-3.6319 -3.2862 2.3947
-3.5163 -3.4187 2.3947
-3.3959 -3.5471 2.3946
-3.2707 -3.6713 2.3945
-3.1411 -3.7909 2.3945
-3.0071 -3.9059 2.3944
-2.8689 -4.0161 2.3943
-2.7266 -4.1213 2.3943
-2.5805 -4.2215 2.3942
-2.4308 -4.3163 2.3942
-2.2775 -4.4058 2.3941
-2.1220 -4.4919 2.3952
-1.9611 -4.5676 2.3939
-1.7977 -4.6375 2.3925
-1.6326 -4.7041 2.3925
-1.4650 -4.7646 2.3925
-1.2952 -4.8191 2.3925
-1.1234 -4.8673 2.3924
-0.9498 -4.9092 2.3924
-0.7746 -4.9448 2.3924
-0.5981 -4.9740 2.3924
-0.4206 -4.9967 2.3924
-0.2421 -5.0128 2.3923
-0.0631 -5.0225 2.3923
0.1162 -5.0255 2.3923
0.2956 -5.0219 2.3922
0.4749 -5.0117 2.3922
0.6538 -4.9949 2.3922
0.8321 -4.9715 2.3921
1.0094 -4.9416 2.3921
1.1856 -4.9051 2.3920
1.3604 -4.8621 2.3920
1.5336 -4.8127 2.3919
1.7048 -4.7569 2.3919
1.8740 -4.6947 2.3918
2.0407 -4.6264 2.3918
2.2049 -4.5519 2.3917
2.3662 -4.4714 2.3917
2.5245 -4.3849 2.3916
2.6794 -4.2927 2.3916
2.8309 -4.1948 2.3915
2.9786 -4.0913 2.3915
3.1225 -3.9824 2.3914
3.2621 -3.8683 2.3913
3.3975 -3.7492 2.3913
3.5283 -3.6251 2.3912
3.6544 -3.4962 2.3912
3.7757 -3.3629 2.3911
3.8919 -3.2251 2.3910
4.0029 -3.0832 2.3910
4.1086 -2.9374 2.3909
4.2087 -2.7878 2.3908
4.3033 -2.6346 2.3908
4.3921 -2.4782 2.3907
4.4750 -2.3186 2.3907
4.5519 -2.1562 2.3906
4.6228 -1.9911 2.3905
4.6875 -1.8237 2.3905
4.7460 -1.6540 2.3904
4.7981 -1.4825 2.3903
4.8439 -1.3092 2.3903
4.8833 -1.1345 2.3902
4.9162 -0.9586 2.3902
4.9426 -0.7817 2.3901
4.9625 -0.6042 2.3900
4.9759 -0.4261 2.3900
4.9832 -0.2479 2.3901
4.9902 -0.0697 2.3933
4.9899 0.1086 2.3961
4.9787 0.2867 2.3967
4.9598 0.4640 2.3968
4.9346 0.6403 2.3969
4.9029 0.8154 2.3970
4.8650 0.9891 2.3971
4.8208 1.1612 2.3972
4.7704 1.3314 2.3973
4.7195 1.5012 2.4002
4.6654 1.6701 2.4046
4.6019 1.8359 2.4073
4.5286 1.9975 2.4080
4.4497 2.1563 2.4087
4.3650 2.3120 2.4094
4.2749 2.4645 2.4100
4.1794 2.6134 2.4107
4.0786 2.7586 2.4113
3.9727 2.9000 2.4119
3.8618 3.0374 2.4124
3.7462 3.1706 2.4130
3.6260 3.2994 2.4135
3.5012 3.4237 2.4140
3.3722 3.5433 2.4144
3.2391 3.6580 2.4148
3.1021 3.7679 2.4152
2.9613 3.8726 2.4156
2.8170 3.9721 2.4160
2.6693 4.0664 2.4163
2.5185 4.1551 2.4166
2.3648 4.2384 2.4168
0.8743 1.7088 0.9569
0.8121 1.7389 0.9579
0.7489 1.7668 0.9589
0.6846 1.7924 0.9599
0.6195 1.8156 0.9608
0.5536 1.8365 0.9617
0.4870 1.8551 0.9625
0.4198 1.8712 0.9634
0.3520 1.8848 0.9642
0.2837 1.8960 0.9650
0.2151 1.9048 0.9657
0.1463 1.9111 0.9664
0.0772 1.9149 0.9671
0.0080 1.9161 0.9678
-0.0611 1.9149 0.9684
-0.1302 1.9113 0.9690
-0.1991 1.9051 0.9695
-0.2677 1.8964 0.9701
-0.3360 1.8853 0.9705
-0.4038 1.8717 0.9710
-0.4711 1.8557 0.9714
-0.5378 1.8373 0.9717
-0.6038 1.8164 0.9720
-0.6690 1.7932 0.9723
-0.7333 1.7677 0.9726
-0.7966 1.7399 0.9728
-0.8589 1.7098 0.9729
-2.2805 4.1580 2.4118
-2.4283 4.0712 2.4112
-2.5730 3.9793 2.4106
-2.7143 3.8825 2.4100
-2.8520 3.7807 2.4094
-2.9861 3.6743 2.4087
-3.1163 3.5632 2.4080
-3.2417 3.4468 2.4068
-3.3592 3.3224 2.4027
-3.4714 3.1936 2.3983
-3.5854 3.0667 2.3982
-3.6949 2.9359 2.3982
-3.7998 2.8014 2.3981
-3.8999 2.6632 2.3980
-3.9952 2.5216 2.3979
-4.0856 2.3767 2.3979
-4.1708 2.2287 2.3978
-4.2509 2.0777 2.3977
-4.3256 1.9239 2.3976
-4.3950 1.7675 2.3975
-4.4589 1.6087 2.3974
-4.5172 1.4477 2.3973
-4.5699 1.2847 2.3973
-4.6168 1.1198 2.3972
-4.6580 0.9532 2.3971
-4.6933 0.7852 2.3970
-4.7227 0.6160 2.3969
-4.7462 0.4457 2.3968
-4.7636 0.2745 2.3967
-4.7751 0.1027 2.3966
-4.7805 -0.0695 2.3965
-4.7798 -0.2420 2.3964
-4.7730 -0.4144 2.3963
-4.7602 -0.5867 2.3962
-4.7412 -0.7586 2.3961
-4.7162 -0.9298 2.3960
-4.6850 -1.1002 2.3959
-4.6479 -1.2696 2.3958
-4.6047 -1.4377 2.3958
-4.5555 -1.6043 2.3957
-4.5004 -1.7692 2.3956
-4.4394 -1.9322 2.3955
-4.3725 -2.0931 2.3954
-4.2999 -2.2517 2.3953
-4.2216 -2.4078 2.3952
-4.1377 -2.5611 2.3951
-4.0483 -2.7115 2.3951
-3.9535 -2.8587 2.3950
-3.8533 -3.0026 2.3949
-3.7480 -3.1429 2.3948
-3.6375 -3.2796 2.3947
-3.5221 -3.4123 2.3947
-3.4019 -3.5409 2.3946
-3.2770 -3.6652 2.3945
-3.1476 -3.7851 2.3945
-3.0138 -3.9003 2.3944
-2.8758 -4.0108 2.3943
-2.7338 -4.1163 2.3943
-2.5879 -4.2166 2.3942
-2.4383 -4.3118 2.3942
-2.2852 -4.4015 2.3941
-2.1295 -4.4874 2.3950
-1.9691 -4.5636 2.3937
-1.8061 -4.6346 2.3927
-1.6408 -4.7009 2.3925
-1.4734 -4.7618 2.3925
-1.3037 -4.8165 2.3925
-1.1319 -4.8651 2.3924
-0.9584 -4.9073 2.3924
-0.7833 -4.9432 2.3924
-0.6069 -4.9727 2.3924
-0.4294 -4.9957 2.3924
-0.2510 -5.0122 2.3923
-0.0720 -5.0221 2.3923
0.1073 -5.0255 2.3923
0.2868 -5.0222 2.3922
0.4661 -5.0124 2.3922
0.6450 -4.9959 2.3922
0.8233 -4.9729 2.3921
1.0006 -4.9432 2.3921
1.1769 -4.9071 2.3920
1.3518 -4.8644 2.3920
1.5250 -4.8153 2.3919
1.6964 -4.7598 2.3919
1.8656 -4.6980 2.3918
2.0325 -4.6299 2.3918
2.1968 -4.5557 2.3917
2.3583 -4.4755 2.3917
2.5167 -4.3894 2.3916
2.6719 -4.2974 2.3916
2.8235 -4.1997 2.3915
2.9714 -4.0965 2.3915
3.1154 -3.9879 2.3914
3.2553 -3.8741 2.3913
3.3909 -3.7552 2.3913
3.5219 -3.6313 2.3912
3.6483 -3.5027 2.3912
3.7698 -3.3696 2.3911
3.8863 -3.2320 2.3910
3.9975 -3.0904 2.3910
4.1035 -2.9447 2.3909
4.2039 -2.7953 2.3908
4.2987 -2.6423 2.3908
4.3878 -2.4860 2.3907
4.4710 -2.3266 2.3907
4.5483 -2.1643 2.3906
4.6194 -1.9994 2.3905
4.6845 -1.8320 2.3905
4.7432 -1.6625 2.3904
4.7957 -1.4910 2.3903
4.8418 -1.3178 2.3903
4.8815 -1.1432 2.3902
4.9147 -0.9673 2.3902
4.9415 -0.7905 2.3901
4.9617 -0.6130 2.3901
4.9754 -0.4350 2.3900
4.9826 -0.2567 2.3899
4.9900 -0.0785 2.3932
4.9901 0.0998 2.3959
4.9794 0.2779 2.3967
4.9609 0.4552 2.3968
4.9360 0.6316 2.3969
4.9046 0.8068 2.3970
4.8670 0.9806 2.3971
4.8231 1.1527 2.3972
4.7731 1.3230 2.3973
4.7220 1.4928 2.3999
4.6682 1.6618 2.4044
4.6053 1.8278 2.4072
4.5324 1.9896 2.4080
4.4537 2.1485 2.4087
4.3694 2.3044 2.4093
4.2795 2.4570 2.4100
4.1842 2.6061 2.4106
4.0837 2.7515 2.4112
3.9780 2.8931 2.4118
3.8674 3.0307 2.4124
3.7520 3.1641 2.4129
3.6320 3.2931 2.4135
3.5075 3.4176 2.4139
3.3787 3.5375 2.4144
3.2458 3.6525 2.4148
3.1090 3.7625 2.4152
2.9684 3.8675 2.4156
2.8242 3.9673 2.4159
2.6767 4.0618 2.4163
2.5261 4.1509 2.4165
2.3725 4.2344 2.4168
0.8773 1.7072 0.9569
0.8152 1.7375 0.9579
0.7520 1.7655 0.9589
0.6878 1.7912 0.9598
0.6228 1.8146 0.9607
0.5569 1.8356 0.9616
0.4903 1.8542 0.9625
0.4231 1.8704 0.9633
0.3554 1.8842 0.9642
0.2871 1.8955 0.9649
0.2185 1.9044 0.9657
0.1497 1.9108 0.9664
0.0806 1.9147 0.9671
0.0115 1.9161 0.9678
-0.0577 1.9151 0.9684
-0.1268 1.9115 0.9690
-0.1957 1.9054 0.9695
-0.2643 1.8969 0.9700
-0.3326 1.8859 0.9705
-0.4005 1.8724 0.9709
-0.4678 1.8565 0.9713
-0.5345 1.8382 0.9717
-0.6005 1.8175 0.9720
-0.6658 1.7944 0.9723
-0.7301 1.7690 0.9725
-0.7935 1.7413 0.9727
-0.8558 1.7114 0.9729
-2.2731 4.1621 2.4118
-2.4211 4.0756 2.4112
-2.5659 3.9840 2.4107
-2.7073 3.8874 2.4100
-2.8453 3.7859 2.4094
-2.9795 3.6797 2.4088
-3.1100 3.5688 2.4081
-3.2358 3.4529 2.4070
-3.3535 3.3286 2.4029
-3.4656 3.1997 2.3983
-3.5798 3.0731 2.3982
-3.6896 2.9425 2.3982
-3.7947 2.8081 2.3981
-3.8951 2.6702 2.3980
-3.9906 2.5287 2.3979
-4.0812 2.3840 2.3979
-4.1667 2.2361 2.3978
-4.2470 2.0852 2.3977
-4.3221 1.9316 2.3976
-4.3917 1.7753 2.3975
-4.4559 1.6167 2.3974
-4.5145 1.4558 2.3973
-4.5674 1.2928 2.3973
-4.6146 1.1280 2.3972
-4.6561 0.9615 2.3971
-4.6917 0.7936 2.3970
-4.7214 0.6244 2.3969
-4.7452 0.4541 2.3968
-4.7629 0.2830 2.3967
-4.7747 0.1112 2.3966
3.1830 3.3536 2.4133
3.0571 3.4620 2.4137
2.9275 3.5658 2.4141
2.7944 3.6648 2.4144
2.6579 3.7588 2.4148
2.5182 3.8478 2.4151
2.3756 3.9317 2.4153
0.8819 1.5858 0.9552
0.8241 1.6163 0.9561
0.7652 1.6446 0.9571
0.7054 1.6709 0.9580
0.6446 1.6949 0.9589
0.5831 1.7168 0.9597
0.5207 1.7365 0.9606
0.4577 1.7538 0.9614
0.3941 1.7689 0.9622
0.3300 1.7817 0.9630
0.2655 1.7922 0.9637
0.2006 1.8004 0.9644
0.1355 1.8062 0.9651
0.0702 1.8096 0.9657
0.0048 1.8107 0.9664
-0.0606 1.8095 0.9669
-0.1259 1.8059 0.9675
-0.1910 1.7999 0.9680
-0.2558 1.7916 0.9685
-0.3204 1.7810 0.9689
-0.3845 1.7680 0.9693
-0.4481 1.7528 0.9697
-0.5111 1.7352 0.9701
-0.5734 1.7154 0.9704
-0.6350 1.6934 0.9706
-0.6957 1.6692 0.9708
-0.7555 1.6428 0.9710
-0.8143 1.6142 0.9712
-0.8721 1.5836 0.9713
-2.3045 3.8483 2.4103
-2.4413 3.7612 2.4097
-2.5749 3.6693 2.4091
-2.7052 3.5728 2.4085
-2.8320 3.4719 2.4079
-2.9539 3.3651 2.4062
-3.0693 3.2515 2.4025
-3.1798 3.1333 2.3983
-3.2916 3.0168 2.3982
-3.3993 2.8965 2.3981
-3.5027 2.7725 2.3981
-3.6018 2.6448 2.3980
-3.6964 2.5138 2.3979
-3.7863 2.3795 2.3979
-3.8716 2.2421 2.3978
-3.9520 2.1017 2.3977
-4.0274 1.9586 2.3976
-4.0979 1.8128 2.3975
-4.1632 1.6646 2.3975
-4.2233 1.5141 2.3974
-4.2781 1.3615 2.3973
-4.3276 1.2070 2.3972
-4.3716 1.0508 2.3971
-4.4101 0.8930 2.3970
-4.4431 0.7339 2.3969
-4.4705 0.5736 2.3969
-4.4923 0.4124 2.3968
-4.5084 0.2503 2.3967
-4.5187 0.0877 2.3966
-4.5234 -0.0754 2.3965
-4.5222 -0.2386 2.3964
-4.5153 -0.4018 2.3963
-4.5027 -0.5648 2.3962
-4.4842 -0.7273 2.3961
-4.4600 -0.8893 2.3961
-4.4301 -1.0505 2.3960
-4.3944 -1.2106 2.3959
-4.3530 -1.3695 2.3958
-4.3060 -1.5270 2.3957
-4.2533 -1.6828 2.3956
-4.1951 -1.8368 2.3955
-4.1314 -1.9888 2.3954
-4.0622 -2.1386 2.3954
-3.9877 -2.2859 2.3953
-3.9079 -2.4307 2.3952
-3.8228 -2.5726 2.3951
-3.7327 -2.7115 2.3951
-3.6375 -2.8473 2.3950
-3.5375 -2.9796 2.3949
-3.4326 -3.1085 2.3948
-3.3231 -3.2336 2.3948
-3.2091 -3.3548 2.3947
-3.0906 -3.4719 2.3946
-2.9679 -3.5848 2.3946
-2.8411 -3.6933 2.3945
-2.7103 -3.7973 2.3945
-2.5757 -3.8965 2.3944
-2.4375 -3.9909 2.3943
-2.2959 -4.0803 2.3943
-2.1509 -4.1647 2.3943
-2.0029 -4.2437 2.3942
-1.8528 -4.3195 2.3953
-1.6979 -4.3848 2.3936
-1.5413 -4.4461 2.3929
-1.3827 -4.5021 2.3924
-1.2222 -4.5533 2.3924
-1.0599 -4.5987 2.3924
-0.8959 -4.6381 2.3923
-0.7304 -4.6715 2.3923
-0.5637 -4.6989 2.3923
-0.3960 -4.7201 2.3923
-0.2275 -4.7352 2.3922
-0.0585 -4.7441 2.3922
0.1109 -4.7468 2.3922
0.2803 -4.7432 2.3922
0.4496 -4.7335 2.3921
0.6185 -4.7175 2.3921
0.7867 -4.6953 2.3920
0.9541 -4.6668 2.3920
1.1205 -4.6323 2.3920
1.2854 -4.5916 2.3919
1.4489 -4.5448 2.3919
1.6105 -4.4921 2.3918
1.7702 -4.4334 2.3918
1.9276 -4.3688 2.3917
2.0825 -4.2984 2.3917
2.2348 -4.2224 2.3916
2.3841 -4.1407 2.3916
2.5304 -4.0536 2.3915
2.6734 -3.9612 2.3915
2.8128 -3.8635 2.3914
2.9486 -3.7608 2.3914
3.0804 -3.6531 2.3913
3.2082 -3.5406 2.3913
3.3318 -3.4235 2.3912
3.4508 -3.3019 2.3911
3.5654 -3.1760 2.3911
