ply
format ascii 1.0
element vertex 2175
property float32 x
property float32 y
property float32 z
end_header
-0.3475 2.6152 0.9751
-0.4414 2.5998 0.9783
-0.5346 2.5811 0.9814
-0.6270 2.5590 0.9844
-0.7186 2.5336 0.9874
-0.8093 2.5049 0.9903
-2.1658 5.9592 2.3931
-2.3720 5.8580 2.3931
-2.5740 5.7502 2.3931
-2.7717 5.6360 2.3931
-2.9649 5.5156 2.3931
-3.1534 5.3890 2.3931
-3.3370 5.2566 2.3931
-3.5156 5.1184 2.3931
-3.6891 4.9747 2.3931
-3.8573 4.8256 2.3931
-4.0200 4.6713 2.3931
-4.1772 4.5121 2.3931
-4.3287 4.3481 2.3931
-4.4743 4.1795 2.3931
-4.6140 4.0064 2.3931
-4.7477 3.8292 2.3931
-4.8752 3.6480 2.3931
-4.9965 3.4629 2.3931
-5.1115 3.2743 2.3931
-5.2200 3.0821 2.3931
-5.3221 2.8868 2.3931
-5.4175 2.6885 2.3931
-5.5063 2.4873 2.3931
-5.5884 2.2834 2.3931
-5.6637 2.0772 2.3931
-5.7322 1.8687 2.3931
-5.7938 1.6582 2.3931
-5.8484 1.4459 2.3931
-5.8960 1.2319 2.3931
-5.9366 1.0166 2.3931
-5.9701 0.8000 2.3931
-5.9965 0.5824 2.3931
-6.0157 0.3640 2.3931
-6.0278 0.1450 2.3931
-6.0327 -0.0744 2.3931
-6.0305 -0.2940 2.3931
-6.0210 -0.5135 2.3931
-6.0043 -0.7328 2.3931
-5.9804 -0.9517 2.3931
-5.9492 -1.1699 2.3931
-5.9109 -1.3872 2.3931
-5.8653 -1.6035 2.3931
-5.8126 -1.8184 2.3931
-5.7527 -2.0319 2.3931
-5.0224 -2.8488 2.3931
-4.9270 -3.0360 2.3931
-4.8252 -3.2204 2.3931
-4.7170 -3.4016 2.3931
-4.6025 -3.5795 2.3931
-4.4818 -3.7540 2.3931
-4.3550 -3.9246 2.3931
-4.2221 -4.0913 2.3931
-4.0833 -4.2538 2.3931
-3.9386 -4.4119 2.3931
-3.7883 -4.5655 2.3931
-3.6323 -4.7142 2.3931
-3.4709 -4.8579 2.3931
-3.3041 -4.9965 2.3931
-3.1322 -5.1296 2.3931
-2.9553 -5.2571 2.3931
-2.7735 -5.3787 2.3931
-2.5869 -5.4944 2.3931
-2.3959 -5.6038 2.3931
-2.2006 -5.7069 2.3931
-2.0011 -5.8033 2.3931
-1.7977 -5.8930 2.3931
-1.5906 -5.9758 2.3931
-1.3801 -6.0515 2.3931
-1.1663 -6.1199 2.3931
-0.9494 -6.1808 2.3931
-0.7299 -6.2342 2.3931
-0.5078 -6.2798 2.3931
-0.2835 -6.3176 2.3931
-0.0573 -6.3473 2.3931
0.1706 -6.3690 2.3931
0.3999 -6.3825 2.3931
0.6303 -6.3876 2.3931
0.8614 -6.3843 2.3931
1.0930 -6.3725 2.3931
1.3247 -6.3522 2.3931
1.5562 -6.3233 2.3931
1.7871 -6.2857 2.3931
2.0172 -6.2395 2.3931
2.2461 -6.1846 2.3931
2.4734 -6.1210 2.3931
2.6988 -6.0487 2.3931
2.9220 -5.9678 2.3931
3.1425 -5.8783 2.3931
3.3600 -5.7804 2.3931
3.5742 -5.6739 2.3931
3.7848 -5.5592 2.3931
3.9912 -5.4362 2.3931
4.1933 -5.3051 2.3931
4.3906 -5.1660 2.3931
4.5829 -5.0192 2.3931
4.7697 -4.8648 2.3931
4.9508 -4.7030 2.3931
5.1257 -4.5339 2.3931
5.2943 -4.3579 2.3931
5.4562 -4.1752 2.3931
5.6110 -3.9861 2.3931
5.7586 -3.7908 2.3931
5.8985 -3.5895 2.3931
5.9523 -3.3388 2.3620
5.9254 -3.0526 2.3039
5.9019 -2.7802 2.2525
5.9715 -2.5583 2.2407
6.0638 -2.3470 2.2407
6.1477 -2.1320 2.2407
6.2231 -1.9138 2.2408
6.2899 -1.6927 2.2408
6.3479 -1.4691 2.2408
6.3970 -1.2433 2.2408
6.4371 -1.0157 2.2408
6.4682 -0.7867 2.2408
6.4903 -0.5567 2.2409
6.5032 -0.3261 2.2409
6.5070 -0.0952 2.2409
6.5017 0.1355 2.2409
6.4873 0.3657 2.2409
6.4639 0.5949 2.2409
6.4315 0.8229 2.2409
6.3902 1.0492 2.2409
6.3401 1.2735 2.2409
6.2813 1.4954 2.2409
6.2139 1.7146 2.2409
6.1382 1.9306 2.2408
6.0542 2.1432 2.2408
5.9621 2.3520 2.2408
5.8622 2.5568 2.2408
5.7546 2.7572 2.2408
5.6396 2.9529 2.2408
5.5173 3.1436 2.2408
5.3881 3.3291 2.2407
5.2521 3.5091 2.2407
5.1098 3.6835 2.2407
5.0160 3.8947 2.2655
4.9722 4.1523 2.3179
4.9261 4.4208 2.3755
4.7859 4.6131 2.3931
4.6038 4.7654 2.3931
4.4166 4.9104 2.3931
4.2246 5.0478 2.3931
4.0282 5.1777 2.3931
3.8276 5.2998 2.3931
3.6233 5.4140 2.3931
3.4156 5.5203 2.3931
3.2047 5.6186 2.3931
2.9910 5.7088 2.3931
2.7748 5.7909 2.3931
2.5565 5.8648 2.3931
0.9070 2.3023 0.9290
0.8237 2.3325 0.9322
0.7394 2.3596 0.9353
0.6541 2.3837 0.9385
0.5680 2.4047 0.9416
0.4812 2.4225 0.9448
0.3938 2.4373 0.9480
0.3059 2.4488 0.9511
0.2177 2.4572 0.9542
0.1292 2.4624 0.9573
0.0406 2.4644 0.9604
-0.0481 2.4631 0.9635
-0.1366 2.4587 0.9665
-0.2250 2.4511 0.9695
-0.3130 2.4403 0.9725
-0.4005 2.4263 0.9754
-0.4875 2.4092 0.9783
-0.5739 2.3889 0.9812
-0.6594 2.3655 0.9839
-0.7440 2.3391 0.9867
-0.8277 2.3096 0.9893
-2.1959 5.4937 2.3931
-2.3858 5.3944 2.3931
-2.5718 5.2890 2.3931
-2.7537 5.1777 2.3931
-2.9312 5.0605 2.3931
-3.1042 4.9377 2.3931
-3.2726 4.8095 2.3931
-3.4362 4.6760 2.3931
-3.5948 4.5374 2.3931
-3.7484 4.3939 2.3931
-3.8968 4.2456 2.3931
-4.0399 4.0928 2.3931
-4.1775 3.9355 2.3931
-4.3096 3.7741 2.3931
-4.4360 3.6086 2.3931
-4.5567 3.4393 2.3931
-4.6715 3.2663 2.3931
-4.7804 3.0899 2.3931
-4.8832 2.9101 2.3931
-4.9799 2.7273 2.3931
-5.0705 2.5416 2.3931
-5.1547 2.3532 2.3931
-5.2327 2.1622 2.3931
-5.3042 1.9689 2.3931
-5.3693 1.7735 2.3931
-5.4279 1.5761 2.3931
-5.4799 1.3770 2.3931
-5.5254 1.1763 2.3931
-5.5642 0.9743 2.3931
-5.5963 0.7711 2.3931
-5.6217 0.5669 2.3931
-5.6404 0.3619 2.3931
-5.6523 0.1564 2.3931
-5.6574 -0.0495 2.3931
-5.6558 -0.2556 2.3931
-5.6473 -0.4617 2.3931
-5.6320 -0.6675 2.3931
-5.6099 -0.8729 2.3931
-5.5810 -1.0777 2.3931
-5.5454 -1.2816 2.3931
-5.5029 -1.4845 2.3931
-5.4536 -1.6862 2.3931
-5.3976 -1.8864 2.3931
-5.3349 -2.0850 2.3931
-5.2655 -2.2816 2.3931
-5.1895 -2.4763 2.3931
-5.1068 -2.6686 2.3931
-5.0176 -2.8584 2.3931
-4.9219 -3.0456 2.3931
-4.8198 -3.2298 2.3931
-4.7113 -3.4109 2.3931
-4.5965 -3.5886 2.3931
-4.4754 -3.7628 2.3931
-4.3483 -3.9333 2.3931
-4.2151 -4.0998 2.3931
-4.0760 -4.2621 2.3931
-3.9310 -4.4200 2.3931
-3.7804 -4.5733 2.3931
-3.6241 -4.7217 2.3931
-3.4624 -4.8652 2.3931
-3.2954 -5.0035 2.3931
-3.1232 -5.1363 2.3931
-2.9460 -5.2635 2.3931
-2.7639 -5.3848 2.3931
-2.5772 -5.5002 2.3931
-2.3860 -5.6093 2.3931
-2.1904 -5.7120 2.3931
-1.9907 -5.8081 2.3931
-1.7872 -5.8975 2.3931
-1.5799 -5.9799 2.3931
-1.3691 -6.0552 2.3931
-1.1552 -6.1232 2.3931
-0.9382 -6.1837 2.3931
-0.7185 -6.2367 2.3931
-0.4963 -6.2819 2.3931
-0.2719 -6.3193 2.3931
-0.0456 -6.3487 2.3931
0.1824 -6.3699 2.3931
0.4118 -6.3829 2.3931
0.6422 -6.3876 2.3931
0.8733 -6.3839 2.3931
1.1049 -6.3717 2.3931
1.3366 -6.3509 2.3931
1.5681 -6.3215 2.3931
1.7990 -6.2835 2.3931
2.0291 -6.2368 2.3931
2.2579 -6.1815 2.3931
2.4851 -6.1174 2.3931
2.7104 -6.0447 2.3931
2.9334 -5.9634 2.3931
3.1538 -5.8735 2.3931
3.3712 -5.7751 2.3931
3.5852 -5.6682 2.3931
3.7955 -5.5530 2.3931
4.0018 -5.4297 2.3931
4.2036 -5.2981 2.3931
4.4007 -5.1587 2.3931
4.5927 -5.0114 2.3931
4.7792 -4.8566 2.3931
4.9599 -4.6944 2.3931
5.1346 -4.5250 2.3931
5.3028 -4.3487 2.3931
5.4643 -4.1657 2.3931
5.6188 -3.9762 2.3931
5.7659 -3.7806 2.3931
5.9055 -3.5790 2.3931
5.9509 -3.3238 2.3589
5.9240 -3.0382 2.3011
5.9022 -2.7672 2.2505
5.9765 -2.5475 2.2407
6.0683 -2.3360 2.2407
6.1518 -2.1208 2.2407
6.2268 -1.9025 2.2408
6.2931 -1.6812 2.2408
6.3506 -1.4575 2.2408
6.3993 -1.2316 2.2408
6.4389 -1.0039 2.2408
6.4696 -0.7749 2.2408
6.4912 -0.5448 2.2409
6.5036 -0.3142 2.2409
6.5070 -0.0833 2.2409
6.5012 0.1474 2.2409
6.4864 0.3775 2.2409
6.4625 0.6067 2.2409
6.4296 0.8346 2.2409
6.3878 1.0609 2.2409
6.3373 1.2850 2.2409
6.2780 1.5068 2.2409
6.2102 1.7258 2.2409
6.1341 1.9416 2.2408
6.0497 2.1540 2.2408
5.9572 2.3627 2.2408
5.8569 2.5672 2.2408
5.7489 2.7674 2.2408
5.6335 2.9628 2.2408
5.5108 3.1533 2.2408
5.3813 3.3385 2.2407
5.2450 3.5183 2.2407
5.1023 3.6923 2.2407
5.0139 3.9074 2.2681
4.9699 4.1659 2.3207
4.9236 4.4349 2.3786
4.7766 4.6211 2.3931
4.5942 4.7730 2.3931
4.4068 4.9177 2.3931
4.2146 5.0547 2.3931
4.0179 5.1842 2.3931
3.8172 5.3059 2.3931
3.6127 5.4197 2.3931
3.4048 5.5256 2.3931
3.1937 5.6235 2.3931
2.9799 5.7132 2.3931
2.7636 5.7949 2.3931
2.5452 5.8684 2.3931
0.9027 2.3039 0.9292
0.8194 2.3339 0.9323
0.7350 2.3609 0.9355
0.6497 2.3848 0.9386
0.5635 2.4057 0.9418
0.4767 2.4234 0.9450
0.3893 2.4379 0.9481
0.3014 2.4493 0.9513
0.2131 2.4575 0.9544
0.1246 2.4626 0.9575
0.0360 2.4644 0.9606
-0.0527 2.4630 0.9637
-0.1412 2.4584 0.9667
-0.2295 2.4506 0.9697
-0.3175 2.4396 0.9727
-0.4050 2.4255 0.9756
-0.4920 2.4082 0.9785
-0.5783 2.3878 0.9813
-0.6638 2.3642 0.9841
-0.7484 2.3376 0.9868
-0.8319 2.3080 0.9895
-2.2057 5.4888 2.3931
-2.3955 5.3892 2.3931
-2.5813 5.2834 2.3931
-2.7629 5.1718 2.3931
-2.9402 5.0543 2.3931
-3.1130 4.9313 2.3931
-3.2811 4.8028 2.3931
-3.4445 4.6690 2.3931
-3.6029 4.5301 2.3931
-3.7562 4.3864 2.3931
-3.9043 4.2378 2.3931
-4.0471 4.0848 2.3931
-4.1845 3.9273 2.3931
-4.3163 3.7656 2.3931
-4.4424 3.5999 2.3931
-4.5628 3.4304 2.3931
-4.6773 3.2573 2.3931
-4.7858 3.0807 2.3931
-4.8884 2.9008 2.3931
-4.9848 2.7178 2.3931
-5.0750 2.5320 2.3931
-5.1589 2.3434 2.3931
-5.2365 2.1523 2.3931
-5.3077 1.9589 2.3931
-5.3725 1.7634 2.3931
-5.4308 1.5659 2.3931
-5.4825 1.3667 2.3931
-5.5275 1.1659 2.3931
-5.5660 0.9639 2.3931
-5.5978 0.7606 2.3931
-5.6228 0.5564 2.3931
-5.6412 0.3514 2.3931
-5.6527 0.1458 2.3931
-5.6575 -0.0601 2.3931
-5.6555 -0.2662 2.3931
-5.6467 -0.4723 2.3931
-5.6311 -0.6781 2.3931
-5.6086 -0.8835 2.3931
-5.5794 -1.0882 2.3931
-5.5433 -1.2921 2.3931
-5.5005 -1.4950 2.3931
-5.4509 -1.6965 2.3931
-5.3946 -1.8967 2.3931
-5.3315 -2.0952 2.3931
-5.2618 -2.2918 2.3931
-5.1854 -2.4862 2.3931
-5.1024 -2.6784 2.3931
-5.0128 -2.8682 2.3931
-4.9168 -3.0551 2.3931
-4.8143 -3.2392 2.3931
-4.7055 -3.4201 2.3931
-4.5904 -3.5977 2.3931
-4.4690 -3.7717 2.3931
-4.3416 -3.9420 2.3931
-4.2081 -4.1082 2.3931
-4.0687 -4.2703 2.3931
-3.9234 -4.4280 2.3931
-3.7725 -4.5810 2.3931
-3.6159 -4.7293 2.3931
-3.4540 -4.8725 2.3931
-3.2867 -5.0104 2.3931
-3.1142 -5.1430 2.3931
-2.9367 -5.2699 2.3931
-2.7545 -5.3909 2.3931
-2.5675 -5.5059 2.3931
-2.3760 -5.6147 2.3931
-2.1802 -5.7171 2.3931
-1.9803 -5.8129 2.3931
-1.7766 -5.9019 2.3931
-1.5691 -5.9839 2.3931
-1.3582 -6.0588 2.3931
-1.1441 -6.1265 2.3931
-0.9270 -6.1866 2.3931
-0.7071 -6.2392 2.3931
-0.4848 -6.2841 2.3931
-0.2603 -6.3210 2.3931
-0.0339 -6.3500 2.3931
0.1942 -6.3708 2.3931
0.4236 -6.3834 2.3931
0.6541 -6.3876 2.3931
0.8852 -6.3835 2.3931
1.1168 -6.3708 2.3931
1.3485 -6.3496 2.3931
1.5800 -6.3198 2.3931
1.8109 -6.2813 2.3931
2.0409 -6.2342 2.3931
2.2696 -6.1784 2.3931
2.4967 -6.1139 2.3931
2.7220 -6.0408 2.3931
2.9448 -5.9590 2.3931
3.1650 -5.8686 2.3931
3.3823 -5.7698 2.3931
3.5961 -5.6625 2.3931
3.8062 -5.5469 2.3931
4.0123 -5.4230 2.3931
4.2139 -5.2911 2.3931
4.4107 -5.1513 2.3931
4.6024 -5.0037 2.3931
4.7886 -4.8485 2.3931
4.9691 -4.6859 2.3931
5.1434 -4.5161 2.3931
5.3113 -4.3394 2.3931
5.4724 -4.1561 2.3931
5.6266 -3.9663 2.3931
5.7733 -3.7703 2.3931
5.9125 -3.5685 2.3931
5.9495 -3.3087 2.3558
5.9227 -3.0239 2.2983
5.9024 -2.7541 2.2486
5.9814 -2.5367 2.2407
6.0728 -2.3250 2.2407
6.1559 -2.1097 2.2408
6.2304 -1.8911 2.2408
6.2962 -1.6698 2.2408
6.3533 -1.4459 2.2408
6.4015 -1.2199 2.2408
6.4407 -0.9921 2.2408
6.4709 -0.7630 2.2408
6.4920 -0.5330 2.2409
6.5040 -0.3023 2.2409
6.5069 -0.0714 2.2409
6.5007 0.1592 2.2409
6.4853 0.3893 2.2409
6.4610 0.6185 2.2409
6.4277 0.8463 2.2409
6.3854 1.0725 2.2409
6.3344 1.2965 2.2409
6.2748 1.5181 2.2409
6.2065 1.7370 2.2409
6.1299 1.9527 2.2408
6.0451 2.1649 2.2408
5.9522 2.3733 2.2408
5.8515 2.5777 2.2408
5.7431 2.7776 2.2408
5.6273 2.9728 2.2408
5.5043 3.1630 2.2408
5.3744 3.3479 2.2407
5.2378 3.5274 2.2407
5.0947 3.7011 2.2407
5.0116 3.9207 2.2707
4.9676 4.1795 2.3236
4.9212 4.4491 2.3817
4.7674 4.6291 2.3931
4.5847 4.7807 2.3931
4.3970 4.9251 2.3931
4.2045 5.0616 2.3931
4.0077 5.1906 2.3931
3.8067 5.3119 2.3931
3.6021 5.4254 2.3931
3.3939 5.5308 2.3931
3.1828 5.6283 2.3931
2.9688 5.7176 2.3931
2.7524 5.7989 2.3931
2.5338 5.8719 2.3931
0.8984 2.3055 0.9294
0.8150 2.3354 0.9325
0.7306 2.3622 0.9357
0.6452 2.3860 0.9388
0.5591 2.4067 0.9420
0.4722 2.4242 0.9451
0.3848 2.4386 0.9483
0.2968 2.4498 0.9514
0.2086 2.4579 0.9546
0.1201 2.4627 0.9577
0.0314 2.4644 0.9608
-0.0572 2.4628 0.9638
-0.1458 2.4581 0.9669
-0.2341 2.4501 0.9699
-0.3220 2.4390 0.9728
-0.4095 2.4247 0.9757
-0.4965 2.4072 0.9786
-0.5827 2.3866 0.9814
-0.6682 2.3629 0.9842
-0.7527 2.3362 0.9869
-0.8362 2.3064 0.9896
-2.2156 5.4838 2.3931
-2.4052 5.3839 2.3931
-2.5908 5.2778 2.3931
-2.7722 5.1659 2.3931
-2.9492 5.0481 2.3931
-3.1218 4.9248 2.3931
-3.2897 4.7960 2.3931
-3.4528 4.6620 2.3931
-3.6109 4.5229 2.3931
-3.7640 4.3788 2.3931
-3.9118 4.2301 2.3931
-4.0543 4.0768 2.3931
-4.1914 3.9191 2.3931
-4.3229 3.7572 2.3931
-4.4487 3.5913 2.3931
-4.5688 3.4216 2.3931
-4.6830 3.2483 2.3931
-4.7913 3.0715 2.3931
-4.8935 2.8914 2.3931
-4.9896 2.7083 2.3931
-5.0795 2.5223 2.3931
-5.1631 2.3336 2.3931
-5.2404 2.1424 2.3931
-5.3112 1.9489 2.3931
-5.3757 1.7533 2.3931
-5.4336 1.5557 2.3931
-5.4849 1.3564 2.3931
-5.5297 1.1556 2.3931
-5.5678 0.9534 2.3931
-5.5992 0.7501 2.3931
-5.6239 0.5458 2.3931
-5.6419 0.3408 2.3931
-5.6531 0.1352 2.3931
-5.6576 -0.0707 2.3931
-5.6552 -0.2768 2.3931
-5.6460 -0.4829 2.3931
-5.6301 -0.6887 2.3931
-5.6073 -0.8940 2.3931
-5.5777 -1.0987 2.3931
-5.5413 -1.3026 2.3931
-5.4981 -1.5054 2.3931
-5.4482 -1.7069 2.3931
-5.3915 -1.9069 2.3931
-4.7176 -2.6794 2.3931
-4.6273 -2.8552 2.3931
-4.5310 -3.0282 2.3931
-4.4288 -3.1982 2.3931
-4.3206 -3.3650 2.3931
-4.2065 -3.5284 2.3931
-4.0868 -3.6882 2.3931
-3.9613 -3.8443 2.3931
-3.8303 -3.9963 2.3931
-3.6939 -4.1442 2.3931
-3.5521 -4.2877 2.3931
-3.4050 -4.4266 2.3931
-3.2529 -4.5608 2.3931
-3.0959 -4.6900 2.3931
-2.9340 -4.8141 2.3931
-2.7674 -4.9328 2.3931
-2.5963 -5.0460 2.3931
-2.4209 -5.1535 2.3931
-2.2413 -5.2551 2.3931
-2.0578 -5.3507 2.3931
-1.8704 -5.4401 2.3931
-1.6794 -5.5231 2.3931
-1.4851 -5.5995 2.3931
-1.2875 -5.6692 2.3931
-1.0870 -5.7321 2.3931
-0.8837 -5.7880 2.3931
-0.6780 -5.8367 2.3931
-0.4700 -5.8782 2.3931
-0.2600 -5.9123 2.3931
-0.0483 -5.9390 2.3931
0.1649 -5.9580 2.3931
0.3793 -5.9693 2.3931
0.5946 -5.9728 2.3931
0.8105 -5.9685 2.3931
1.0268 -5.9563 2.3931
1.2431 -5.9360 2.3931
1.4591 -5.9078 2.3931
1.6745 -5.8715 2.3931
1.8891 -5.8272 2.3931
2.1024 -5.7747 2.3931
2.3142 -5.7142 2.3931
2.5241 -5.6457 2.3931
2.7318 -5.5692 2.3931
2.9370 -5.4847 2.3931
3.1394 -5.3923 2.3931
3.3386 -5.2921 2.3931
3.5343 -5.1842 2.3931
3.7262 -5.0686 2.3931
3.9140 -4.9456 2.3931
4.0973 -4.8153 2.3931
4.2758 -4.6778 2.3931
4.4493 -4.5332 2.3931
4.6173 -4.3818 2.3931
4.7797 -4.2238 2.3931
4.9361 -4.0594 2.3931
5.0862 -3.8888 2.3931
5.2298 -3.7123 2.3931
5.3667 -3.5301 2.3931
5.4965 -3.3427 2.3931
5.6190 -3.1497 2.3931
5.7340 -2.9521 2.3931
5.8413 -2.7500 2.3931
5.8434 -2.5020 2.3539
5.8188 -2.2510 2.3085
5.7945 -2.0087 2.2676
5.7956 -1.7816 2.2407
5.8576 -1.5759 2.2407
5.9114 -1.3677 2.2407
5.9570 -1.1576 2.2407
5.9944 -0.9459 2.2407
6.0234 -0.7329 2.2408
6.0440 -0.5189 2.2408
6.0562 -0.3043 2.2408
6.0599 -0.0895 2.2408
6.0552 0.1251 2.2408
6.0422 0.3394 2.2408
6.0207 0.5527 2.2408
5.9910 0.7650 2.2408
5.9530 0.9757 2.2408
5.9069 1.1845 2.2408
5.8527 1.3912 2.2408
5.7906 1.5954 2.2408
5.7207 1.7967 2.2408
5.6431 1.9949 2.2408
5.5581 2.1896 2.2407
5.4657 2.3806 2.2407
5.3662 2.5677 2.2407
5.2598 2.7504 2.2407
5.1559 2.9338 2.2447
5.1114 3.1539 2.2783
5.0732 3.3850 2.3193
5.0333 3.6234 2.3647
4.9466 3.8353 2.3931
4.7936 3.9975 2.3931
4.6349 4.1536 2.3931
4.4708 4.3031 2.3931
4.3017 4.4461 2.3931
4.1278 4.5823 2.3931
3.9494 4.7115 2.3931
3.7667 4.8337 2.3931
3.5802 4.9487 2.3931
3.3900 5.0565 2.3931
3.1966 5.1568 2.3931
3.0002 5.2497 2.3931
2.8010 5.3351 2.3931
2.5995 5.4130 2.3931
0.9279 2.1237 0.9269
0.8510 2.1547 0.9298
0.7731 2.1829 0.9327
0.6941 2.2083 0.9357
0.6143 2.2308 0.9386
0.5337 2.2505 0.9416
0.4525 2.2672 0.9445
0.3707 2.2809 0.9475
0.2884 2.2918 0.9504
0.2058 2.2996 0.9534
0.1230 2.3044 0.9563
0.0400 2.3063 0.9592
-0.0429 2.3051 0.9620
-0.1258 2.3010 0.9649
-0.2085 2.2938 0.9677
-0.2909 2.2837 0.9705
-0.3728 2.2706 0.9732
-0.4543 2.2546 0.9759
-0.5351 2.2356 0.9786
-0.6151 2.2137 0.9812
-0.6943 2.1890 0.9837
-0.7726 2.1614 0.9862
-0.8498 2.1310 0.9886
-2.2359 5.0659 2.3931
-2.4110 4.9676 2.3931
-2.5822 4.8637 2.3931
-2.7494 4.7543 2.3931
-2.9124 4.6396 2.3931
-3.0711 4.5197 2.3931
-3.2252 4.3948 2.3931
-3.3748 4.2650 2.3931
-3.5196 4.1306 2.3931
-3.6596 3.9916 2.3931
-3.7945 3.8483 2.3931
-3.9244 3.7008 2.3931
-4.0490 3.5493 2.3931
-4.1683 3.3939 2.3931
-4.2822 3.2349 2.3931
-4.3906 3.0724 2.3931
-4.4933 2.9066 2.3931
-4.5904 2.7377 2.3931
-4.6817 2.5658 2.3931
-4.7672 2.3911 2.3931
-4.8467 2.2139 2.3931
-4.9203 2.0343 2.3931
-4.9878 1.8524 2.3931
-5.0492 1.6685 2.3931
-5.1044 1.4828 2.3931
-5.1535 1.2954 2.3931
-5.1963 1.1065 2.3931
-5.2329 0.9163 2.3931
-5.2631 0.7250 2.3931
-5.2870 0.5328 2.3931
-5.3044 0.3399 2.3931
-5.3155 0.1464 2.3931
-5.3202 -0.0474 2.3931
-5.3185 -0.2414 2.3931
-5.3103 -0.4353 2.3931
-5.2957 -0.6290 2.3931
-5.2746 -0.8223 2.3931
-5.2471 -1.0150 2.3931
-5.2132 -1.2068 2.3931
-5.1728 -1.3976 2.3931
-5.1261 -1.5873 2.3931
-5.0730 -1.7755 2.3931
-5.0135 -1.9621 2.3931
-4.9478 -2.1469 2.3931
-4.8757 -2.3297 2.3931
-4.7975 -2.5103 2.3931
-4.7131 -2.6886 2.3931
-4.6225 -2.8642 2.3931
-4.5259 -3.0370 2.3931
-4.4233 -3.2068 2.3931
-4.3148 -3.3735 2.3931
-4.2005 -3.5367 2.3931
-4.0804 -3.6963 2.3931
-3.9547 -3.8522 2.3931
-3.8234 -4.0040 2.3931
-3.6867 -4.1517 2.3931
-3.5446 -4.2950 2.3931
-3.3973 -4.4337 2.3931
-3.2450 -4.5676 2.3931
-3.0876 -4.6965 2.3931
-2.9255 -4.8203 2.3931
-2.7587 -4.9388 2.3931
-2.5874 -5.0517 2.3931
-2.4118 -5.1589 2.3931
-2.2320 -5.2602 2.3931
-2.0482 -5.3555 2.3931
-1.8607 -5.4445 2.3931
-1.6695 -5.5272 2.3931
-1.4750 -5.6033 2.3931
-1.2772 -5.6726 2.3931
-1.0766 -5.7352 2.3931
-0.8732 -5.7907 2.3931
-0.6673 -5.8391 2.3931
-0.4592 -5.8802 2.3931
-0.2491 -5.9139 2.3931
-0.0373 -5.9401 2.3931
0.1759 -5.9587 2.3931
0.3904 -5.9697 2.3931
0.6057 -5.9728 2.3931
0.8217 -5.9681 2.3931
1.0379 -5.9554 2.3931
1.2542 -5.9348 2.3931
1.4702 -5.9061 2.3931
1.6856 -5.8694 2.3931
1.9001 -5.8247 2.3931
2.1133 -5.7718 2.3931
2.3250 -5.7109 2.3931
2.5348 -5.6420 2.3931
2.7425 -5.5650 2.3931
2.9475 -5.4801 2.3931
3.1498 -5.3873 2.3931
3.3488 -5.2867 2.3931
3.5443 -5.1784 2.3931
3.7360 -5.0625 2.3931
3.9236 -4.9391 2.3931
4.1066 -4.8084 2.3931
4.2849 -4.6704 2.3931
4.4581 -4.5257 2.3931
4.6258 -4.3739 2.3931
4.7879 -4.2155 2.3931
4.9440 -4.0508 2.3931
5.0938 -3.8799 2.3931
5.2371 -3.7030 2.3931
5.3735 -3.5205 2.3931
5.5030 -3.3326 2.3931
5.6251 -3.1396 2.3931
5.7397 -2.9418 2.3931
5.8467 -2.7395 2.3931
5.8421 -2.4888 2.3514
5.8175 -2.2383 2.3063
5.7932 -1.9963 2.2656
5.7990 -1.7711 2.2407
5.8606 -1.5654 2.2407
5.9139 -1.3570 2.2407
5.9591 -1.1468 2.2407
5.9961 -0.9350 2.2407
6.0246 -0.7219 2.2408
6.0448 -0.5079 2.2408
6.0566 -0.2933 2.2408
6.0599 -0.0785 2.2408
6.0548 0.1362 2.2408
6.0413 0.3504 2.2408
6.0194 0.5637 2.2408
5.9892 0.7759 2.2408
5.9508 0.9865 2.2408
5.9043 1.1952 2.2408
5.8497 1.4018 2.2408
5.7872 1.6058 2.2408
5.7169 1.8070 2.2408
5.6389 2.0050 2.2408
5.5535 2.1996 2.2407
5.4608 2.3904 2.2407
5.3609 2.5772 2.2407
5.2542 2.7597 2.2407
5.1533 2.9427 2.2461
5.1094 3.1657 2.2803
5.0712 3.3971 2.3216
5.0312 3.6359 2.3672
4.9388 3.8438 2.3931
4.7855 4.0058 2.3931
4.6266 4.1614 2.3931
4.4622 4.3107 2.3931
4.2929 4.4533 2.3931
4.1187 4.5891 2.3931
3.9400 4.7180 2.3931
3.7572 4.8398 2.3931
3.5705 4.9544 2.3931
3.3802 5.0618 2.3931
3.1866 5.1618 2.3931
2.9900 5.2543 2.3931
2.7907 5.3393 2.3931
2.5890 5.4168 2.3931
0.9240 2.1253 0.9270
0.8470 2.1562 0.9299
0.7690 2.1843 0.9329
0.6900 2.2095 0.9358
0.6102 2.2319 0.9388
0.5295 2.2514 0.9417
0.4483 2.2680 0.9447
0.3664 2.2816 0.9476
0.2842 2.2922 0.9506
0.2016 2.2999 0.9535
0.1187 2.3046 0.9564
0.0358 2.3063 0.9593
-0.0472 2.3050 0.9622
-0.1301 2.3007 0.9650
-0.2128 2.2934 0.9678
-0.2951 2.2831 0.9706
-0.3770 2.2699 0.9734
-0.4584 2.2537 0.9760
-0.5392 2.2346 0.9787
-0.6192 2.2125 0.9813
-0.6984 2.1876 0.9838
-0.7766 2.1599 0.9863
-0.8538 2.1293 0.9888
-2.2450 5.0609 2.3931
-2.4199 4.9624 2.3931
-2.5909 4.8582 2.3931
-2.7579 4.7486 2.3931
-2.9207 4.6336 2.3931
-3.0791 4.5134 2.3931
-3.2331 4.3882 2.3931
-3.3824 4.2582 2.3931
-3.5270 4.1235 2.3931
-3.6667 3.9843 2.3931
-3.8014 3.8408 2.3931
-3.9309 3.6931 2.3931
-4.0553 3.5413 2.3931
-4.1743 3.3858 2.3931
-4.2879 3.2266 2.3931
-4.3960 3.0639 2.3931
-4.4985 2.8980 2.3931
-4.5952 2.7289 2.3931
-4.6862 2.5569 2.3931
-4.7714 2.3821 2.3931
-4.8506 2.2047 2.3931
-4.9239 2.0249 2.3931
-4.9911 1.8430 2.3931
-5.0522 1.6590 2.3931
-5.1071 1.4732 2.3931
-5.1559 1.2857 2.3931
-5.1984 1.0967 2.3931
-5.2346 0.9065 2.3931
-5.2645 0.7151 2.3931
-5.2880 0.5229 2.3931
-5.3052 0.3299 2.3931
-5.3159 0.1364 2.3931
-5.3203 -0.0574 2.3931
-5.3182 -0.2514 2.3931
-5.3097 -0.4453 2.3931
-5.2947 -0.6390 2.3931
-5.2733 -0.8322 2.3931
-5.2455 -1.0249 2.3931
-5.2112 -1.2167 2.3931
-5.1706 -1.4074 2.3931
-5.1235 -1.5970 2.3931
-5.0701 -1.7851 2.3931
-5.0103 -1.9717 2.3931
-4.9442 -2.1564 2.3931
-4.8718 -2.3391 2.3931
-4.7933 -2.5196 2.3931
-4.7085 -2.6977 2.3931
-4.6177 -2.8732 2.3931
-4.5208 -3.0458 2.3931
-4.4179 -3.2155 2.3931
-4.3091 -3.3820 2.3931
-4.1945 -3.5450 2.3931
-4.0741 -3.7045 2.3931
-3.9481 -3.8601 2.3931
-3.8165 -4.0118 2.3931
-3.6795 -4.1592 2.3931
-3.5372 -4.3022 2.3931
-3.3896 -4.4407 2.3931
-3.2370 -4.5743 2.3931
-3.0794 -4.7030 2.3931
-2.9170 -4.8265 2.3931
-2.7500 -4.9447 2.3931
-2.5785 -5.0573 2.3931
-2.4026 -5.1643 2.3931
-2.2226 -5.2653 2.3931
-2.0386 -5.3602 2.3931
-1.8509 -5.4489 2.3931
-1.6596 -5.5312 2.3931
-1.4648 -5.6070 2.3931
-1.2670 -5.6760 2.3931
-1.0662 -5.7382 2.3931
-0.8627 -5.7933 2.3931
-0.6567 -5.8414 2.3931
-0.4485 -5.8821 2.3931
-0.2383 -5.9154 2.3931
-0.0264 -5.9413 2.3931
0.1870 -5.9595 2.3931
0.4014 -5.9700 2.3931
0.6168 -5.9727 2.3931
0.8328 -5.9676 2.3931
1.0491 -5.9545 2.3931
1.2654 -5.9335 2.3931
1.4813 -5.9044 2.3931
1.6967 -5.8673 2.3931
1.9111 -5.8221 2.3931
2.1243 -5.7689 2.3931
2.3359 -5.7076 2.3931
2.5456 -5.6382 2.3931
2.7531 -5.5608 2.3931
2.9580 -5.4755 2.3931
3.1601 -5.3823 2.3931
3.3590 -5.2813 2.3931
3.5543 -5.1726 2.3931
3.7458 -5.0563 2.3931
3.9331 -4.9326 2.3931
4.1159 -4.8015 2.3931
4.2939 -4.6632 2.3931
4.4668 -4.5179 2.3931
4.6343 -4.3659 2.3931
4.7961 -4.2072 2.3931
4.9519 -4.0421 2.3931
5.1013 -3.8709 2.3931
5.2443 -3.6938 2.3931
5.3804 -3.5110 2.3931
5.5094 -3.3228 2.3931
5.6312 -3.1295 2.3931
5.7454 -2.9315 2.3931
5.8520 -2.7289 2.3931
5.8409 -2.4757 2.3490
5.8163 -2.2256 2.3041
5.7919 -1.9840 2.2636
5.8024 -1.7605 2.2407
5.8635 -1.5545 2.2407
5.9165 -1.3462 2.2407
5.9612 -1.1359 2.2407
5.9977 -0.9240 2.2408
6.0259 -0.7109 2.2408
6.0456 -0.4968 2.2408
6.0569 -0.2822 2.2408
6.0598 -0.0674 2.2408
6.0543 0.1473 2.2408
6.0404 0.3614 2.2408
6.0181 0.5747 2.2408
5.9875 0.7867 2.2408
5.9486 0.9973 2.2408
5.9017 1.2059 2.2408
5.8466 1.4124 2.2408
5.7837 1.6162 2.2408
5.7130 1.8173 2.2408
5.6347 2.0151 2.2408
5.5489 2.2095 2.2407
5.4558 2.4001 2.2407
5.3582 2.5879 2.2418
5.2485 2.7690 2.2407
5.1502 2.9556 2.2475
5.1075 3.1774 2.2823
5.0692 3.4093 2.3238
5.0290 3.6485 2.3697
4.9311 3.8523 2.3931
4.7775 4.0139 2.3931
4.6182 4.1693 2.3931
4.4536 4.3181 2.3931
4.2840 4.4605 2.3931
4.1096 4.5959 2.3931
3.9307 4.7246 2.3931
3.7477 4.8459 2.3931
3.5607 4.9602 2.3931
3.3703 5.0671 2.3931
3.1765 5.1667 2.3931
2.9798 5.2589 2.3931
2.7804 5.3435 2.3931
2.5786 5.4206 2.3931
0.9200 2.1270 0.9272
0.8430 2.1577 0.9301
0.7650 2.1856 0.9330
0.6859 2.2107 0.9360
0.6060 2.2330 0.9389
0.5254 2.2523 0.9419
0.4441 2.2687 0.9448
0.3622 2.2822 0.9478
0.2799 2.2927 0.9507
0.1973 2.3002 0.9537
0.1144 2.3048 0.9566
0.0315 2.3063 0.9595
-0.0515 2.3048 0.9623
-0.1344 2.3004 0.9652
-0.2170 2.2929 0.9680
-0.2993 2.2825 0.9708
-0.3812 2.2691 0.9735
-0.4626 2.2528 0.9762
-0.5433 2.2335 0.9788
-0.6233 2.2113 0.9814
-0.7024 2.1863 0.9840
-0.7806 2.1584 0.9865
-0.8577 2.1277 0.9889
-2.2541 5.0560 2.3931
-2.4288 4.9572 2.3931
-2.5996 4.8527 2.3931
-2.7664 4.7428 2.3931
-2.9289 4.6275 2.3931
-3.0872 4.5071 2.3931
-3.2409 4.3817 2.3931
-3.3900 4.2514 2.3931
-3.5343 4.1165 2.3931
-3.6737 3.9770 2.3931
-3.8082 3.8333 2.3931
-3.9375 3.6853 2.3931
-4.0616 3.5334 2.3931
-4.1803 3.3777 2.3931
-4.2936 3.2183 2.3931
-4.4014 3.0555 2.3931
-4.5036 2.8893 2.3931
-4.6001 2.7201 2.3931
-4.6908 2.5479 2.3931
-4.7756 2.3730 2.3931
-4.8545 2.1955 2.3931
-4.9275 2.0156 2.3931
-4.9944 1.8336 2.3931
-5.0552 1.6495 2.3931
-5.1098 1.4635 2.3931
-5.1582 1.2760 2.3931
-5.2004 1.0869 2.3931
-5.2363 0.8966 2.3931
-5.2658 0.7052 2.3931
-5.2890 0.5129 2.3931
-5.3059 0.3199 2.3931
-5.3163 0.1264 2.3931
-5.3203 -0.0674 2.3931
-5.3179 -0.2614 2.3931
-5.3091 -0.4553 2.3931
-5.2938 -0.6490 2.3931
-5.2721 -0.8422 2.3931
-5.2439 -1.0348 2.3931
-5.2093 -1.2265 2.3931
-5.1683 -1.4172 2.3931
-5.1209 -1.6067 2.3931
-5.0671 -1.7948 2.3931
-4.4423 -2.5266 2.3931
-4.3568 -2.6920 2.3931
-4.2656 -2.8548 2.3931
-4.1687 -3.0146 2.3931
-4.0663 -3.1714 2.3931
-3.9583 -3.3250 2.3931
-3.8450 -3.4751 2.3931
-3.7263 -3.6216 2.3931
-3.6024 -3.7643 2.3931
-3.4734 -3.9030 2.3931
-3.3394 -4.0376 2.3931
-3.2005 -4.1677 2.3931
-3.0568 -4.2934 2.3931
-2.9085 -4.4143 2.3931
-2.7557 -4.5303 2.3931
-2.5985 -4.6413 2.3931
-2.4372 -4.7470 2.3931
-2.2718 -4.8473 2.3931
-2.1025 -4.9420 2.3931
-1.9296 -5.0310 2.3931
-1.7531 -5.1141 2.3931
-1.5733 -5.1912 2.3931
-1.3904 -5.2621 2.3931
-1.2045 -5.3266 2.3931
-1.0160 -5.3847 2.3931
-0.8249 -5.4362 2.3931
-0.6316 -5.4809 2.3931
-0.4362 -5.5189 2.3931
-0.2390 -5.5498 2.3931
-0.0403 -5.5738 2.3931
0.1598 -5.5906 2.3931
0.3609 -5.6001 2.3931
0.5627 -5.6024 2.3931
0.7651 -5.5973 2.3931
0.9677 -5.5848 2.3931
1.1703 -5.5648 2.3931
1.3725 -5.5373 2.3931
1.5741 -5.5023 2.3931
1.7749 -5.4598 2.3931
1.9744 -5.4097 2.3931
2.1723 -5.3521 2.3931
2.3685 -5.2870 2.3931
2.5626 -5.2145 2.3931
2.7543 -5.1345 2.3931
2.9433 -5.0473 2.3931
3.1292 -4.9527 2.3931
3.3119 -4.8510 2.3931
3.4909 -4.7422 2.3931
3.6660 -4.6265 2.3931
3.8369 -4.5039 2.3931
4.0033 -4.3748 2.3931
4.1650 -4.2390 2.3931
4.3216 -4.0971 2.3931
4.4728 -3.9489 2.3931
4.6185 -3.7948 2.3931
4.7583 -3.6350 2.3931
4.8921 -3.4696 2.3931
5.0195 -3.2991 2.3931
5.1403 -3.1235 2.3931
5.2544 -2.9432 2.3931
5.3615 -2.7584 2.3931
5.4614 -2.5695 2.3931
5.5539 -2.3767 2.3931
5.6390 -2.1802 2.3931
5.7163 -1.9806 2.3931
5.7422 -1.7645 2.3750
5.7188 -1.5380 2.3404
5.6954 -1.3175 2.3097
5.6720 -1.1022 2.2827
5.6487 -0.8915 2.2591
5.6353 -0.6859 2.2429
5.6490 -0.4854 2.2407
5.6605 -0.2851 2.2407
5.6642 -0.0845 2.2407
5.6600 0.1160 2.2407
5.6559 0.3165 2.2438
5.6314 0.5157 2.2419
5.6049 0.7141 2.2423
5.5762 0.9122 2.2449
5.5232 1.1057 2.2407
5.4730 1.2987 2.2407
5.4155 1.4897 2.2407
5.3507 1.6780 2.2407
5.2939 1.8688 2.2472
5.2570 2.0681 2.2653
5.2255 2.2729 2.2895
5.1929 2.4813 2.3170
5.1590 2.6940 2.3481
5.1238 2.9116 2.3830
5.0268 3.0975 2.3931
4.9017 3.2663 2.3931
4.7706 3.4296 2.3931
4.6337 3.5877 2.3931
4.4912 3.7401 2.3931
4.3434 3.8867 2.3931
4.1905 4.0274 2.3931
4.0329 4.1619 2.3931
3.8707 4.2902 2.3931
3.7042 4.4120 2.3931
3.5338 4.5272 2.3931
3.3596 4.6358 2.3931
3.1820 4.7376 2.3931
3.0013 4.8325 2.3931
2.8177 4.9205 2.3931
2.6315 5.0015 2.3931
0.9442 1.9617 0.9250
0.8731 1.9934 0.9277
0.8009 2.0225 0.9304
0.7277 2.0490 0.9332
0.6536 2.0729 0.9360
0.5787 2.0940 0.9387
0.5030 2.1124 0.9415
0.4268 2.1281 0.9443
0.3500 2.1410 0.9471
0.2727 2.1512 0.9498
0.1952 2.1585 0.9526
0.1174 2.1630 0.9553
0.0395 2.1648 0.9580
-0.0383 2.1637 0.9607
-0.1161 2.1598 0.9634
-0.1938 2.1531 0.9660
-0.2711 2.1436 0.9686
-0.3480 2.1313 0.9712
-0.4245 2.1162 0.9737
-0.5003 2.0984 0.9762
-0.5755 2.0779 0.9787
-0.6499 2.0547 0.9811
-0.7233 2.0287 0.9834
-0.7958 2.0002 0.9857
-0.8673 1.9691 0.9879
-2.2660 4.6779 2.3931
-2.4276 4.5807 2.3931
-2.5855 4.4783 2.3931
-2.7394 4.3707 2.3931
-2.8892 4.2583 2.3931
-3.0349 4.1410 2.3931
-3.1762 4.0192 2.3931
-3.3131 3.8929 2.3931
-3.4454 3.7622 2.3931
-3.5729 3.6275 2.3931
-3.6957 3.4887 2.3931
-3.8135 3.3461 2.3931
-3.9264 3.1999 2.3931
-4.0341 3.0502 2.3931
-4.1366 2.8971 2.3931
-4.2338 2.7409 2.3931
-4.3256 2.5817 2.3931
-4.4120 2.4197 2.3931
-4.4928 2.2551 2.3931
-4.5681 2.0879 2.3931
-4.6376 1.9185 2.3931
-4.7015 1.7470 2.3931
-4.7596 1.5735 2.3931
-4.8118 1.3983 2.3931
-4.8582 1.2215 2.3931
-4.8986 1.0433 2.3931
-4.9331 0.8638 2.3931
-4.9616 0.6833 2.3931
-4.9841 0.5019 2.3931
-5.0005 0.3199 2.3931
-5.0109 0.1373 2.3931
-5.0152 -0.0456 2.3931
-5.0134 -0.2286 2.3931
-5.0055 -0.4115 2.3931
-4.9914 -0.5943 2.3931
-4.9713 -0.7766 2.3931
-4.9451 -0.9583 2.3931
-4.9128 -1.1392 2.3931
-4.8744 -1.3191 2.3931
-4.8300 -1.4978 2.3931
-4.7796 -1.6752 2.3931
-4.7231 -1.8511 2.3931
-4.6607 -2.0252 2.3931
-4.5923 -2.1974 2.3931
-4.5181 -2.3674 2.3931
-4.4381 -2.5352 2.3931
-4.3523 -2.7005 2.3931
-4.2607 -2.8631 2.3931
-4.1636 -3.0228 2.3931
-4.0608 -3.1794 2.3931
-3.9526 -3.3328 2.3931
-3.8390 -3.4827 2.3931
-3.7200 -3.6291 2.3931
-3.5959 -3.7716 2.3931
-3.4666 -3.9101 2.3931
-3.3323 -4.0444 2.3931
-3.1932 -4.1743 2.3931
-3.0493 -4.2997 2.3931
-2.9007 -4.4204 2.3931
-2.7477 -4.5362 2.3931
-2.5903 -4.6469 2.3931
-2.4288 -4.7523 2.3931
-2.2632 -4.8523 2.3931
-2.0937 -4.9468 2.3931
-1.9206 -5.0355 2.3931
-1.7439 -5.1183 2.3931
-1.5640 -5.1950 2.3931
-1.3809 -5.2656 2.3931
-1.1949 -5.3298 2.3931
-1.0062 -5.3875 2.3931
-0.8150 -5.4387 2.3931
-0.6215 -5.4831 2.3931
-0.4261 -5.5206 2.3931
-0.2288 -5.5512 2.3931
-0.0300 -5.5748 2.3931
0.1701 -5.5912 2.3931
0.3712 -5.6004 2.3931
0.5731 -5.6023 2.3931
0.7755 -5.5968 2.3931
0.9782 -5.5839 2.3931
1.1807 -5.5636 2.3931
1.3829 -5.5357 2.3931
1.5845 -5.5003 2.3931
1.7852 -5.4574 2.3931
1.9846 -5.4069 2.3931
2.1825 -5.3490 2.3931
2.3786 -5.2835 2.3931
2.5726 -5.2106 2.3931
2.7641 -5.1302 2.3931
2.9529 -5.0426 2.3931
3.1387 -4.9476 2.3931
3.3212 -4.8456 2.3931
3.5000 -4.7364 2.3931
3.6749 -4.6204 2.3931
3.8456 -4.4975 2.3931
4.0118 -4.3679 2.3931
4.1732 -4.2318 2.3931
4.3295 -4.0896 2.3931
4.4805 -3.9411 2.3931
4.6259 -3.7867 2.3931
4.7654 -3.6266 2.3931
4.8988 -3.4610 2.3931
5.0259 -3.2901 2.3931
5.1464 -3.1143 2.3931
5.2601 -2.9338 2.3931
5.3668 -2.7488 2.3931
5.4663 -2.5597 2.3931
5.5585 -2.3666 2.3931
5.6431 -2.1700 2.3931
5.7201 -1.9702 2.3931
5.7410 -1.7526 2.3732
5.7175 -1.5265 2.3388
5.6942 -1.3062 2.3082
5.6708 -1.0912 2.2814
5.6474 -0.8804 2.2580
5.6346 -0.6754 2.2422
5.6498 -0.4751 2.2407
5.6609 -0.2748 2.2407
5.6642 -0.0742 2.2407
5.6596 0.1263 2.2407
5.6546 0.3268 2.2436
5.6301 0.5259 2.2419
5.6035 0.7243 2.2424
5.5638 0.9206 2.2407
5.5208 1.1157 2.2407
5.4702 1.3091 2.2407
5.4123 1.4995 2.2407
5.3472 1.6877 2.2407
5.2918 1.8789 2.2479
5.2555 2.0783 2.2665
5.2238 2.2836 2.2908
5.1911 2.4922 2.3185
5.1572 2.7051 2.3498
5.1219 2.9229 2.3849
5.0205 3.1064 2.3931
4.8951 3.2746 2.3931
4.7637 3.4379 2.3931
4.6265 3.5957 2.3931
4.4837 3.7478 2.3931
4.3356 3.8941 2.3931
4.1825 4.0345 2.3931
4.0246 4.1687 2.3931
3.8622 4.2966 2.3931
3.6955 4.4181 2.3931
3.5249 4.5330 2.3931
3.3505 4.6412 2.3931
3.1728 4.7427 2.3931
2.9919 4.8372 2.3931
2.8081 4.9249 2.3931
2.6218 5.0055 2.3931
0.9406 1.9634 0.9251
0.8694 1.9950 0.9278
0.7972 2.0240 0.9306
0.7239 2.0503 0.9333
0.6498 2.0740 0.9361
0.5748 2.0950 0.9389
0.4991 2.1133 0.9417
0.4228 2.1288 0.9444
0.3460 2.1416 0.9472
0.2687 2.1516 0.9500
0.1912 2.1588 0.9527
0.1134 2.1632 0.9555
0.0355 2.1648 0.9582
-0.0424 2.1636 0.9609
-0.1202 2.1595 0.9635
-0.1978 2.1527 0.9662
-0.2751 2.1430 0.9688
-0.3520 2.1306 0.9713
-0.4284 2.1154 0.9739
-0.5042 2.0974 0.9764
-0.5793 2.0768 0.9788
-0.6537 2.0534 0.9812
-0.7271 2.0273 0.9835
-0.7996 1.9987 0.9858
-0.8709 1.9674 0.9880
-2.2745 4.6731 2.3931
-2.4359 4.5755 2.3931
-2.5935 4.4728 2.3931
-2.7472 4.3651 2.3931
-2.8968 4.2523 2.3931
-3.0423 4.1349 2.3931
-3.1834 4.0128 2.3931
-3.3200 3.8862 2.3931
-3.4520 3.7554 2.3931
-3.5794 3.6204 2.3931
-3.7019 3.4815 2.3931
-3.8195 3.3387 2.3931
-3.9321 3.1923 2.3931
-4.0395 3.0424 2.3931
-4.1417 2.8891 2.3931
-4.2387 2.7328 2.3931
-4.3302 2.5734 2.3931
-4.4163 2.4113 2.3931
-4.4968 2.2465 2.3931
-4.5718 2.0793 2.3931
-4.6411 1.9097 2.3931
-4.7046 1.7381 2.3931
-4.7624 1.5645 2.3931
-4.8143 1.3892 2.3931
-4.8604 1.2123 2.3931
-4.9005 1.0340 2.3931
-4.9347 0.8545 2.3931
-4.9629 0.6740 2.3931
-4.9851 0.4926 2.3931
-5.0012 0.3105 2.3931
-5.0113 0.1279 2.3931
-5.0152 -0.0550 2.3931
-5.0131 -0.2380 2.3931
-5.0049 -0.4210 2.3931
-4.9906 -0.6037 2.3931
-4.9701 -0.7859 2.3931
-4.9436 -0.9676 2.3931
-4.9110 -1.1485 2.3931
-4.8723 -1.3283 2.3931
-4.8276 -1.5070 2.3931
-4.7768 -1.6843 2.3931
-4.7200 -1.8601 2.3931
-4.6573 -2.0341 2.3931
-4.5887 -2.2062 2.3931
-4.5141 -2.3761 2.3931
-4.4338 -2.5438 2.3931
-4.3477 -2.7089 2.3931
-4.2559 -2.8714 2.3931
-4.1584 -3.0309 2.3931
-4.0554 -3.1874 2.3931
-3.9469 -3.3406 2.3931
-3.8330 -3.4904 2.3931
-3.7138 -3.6365 2.3931
-3.5893 -3.7788 2.3931
-3.4598 -3.9171 2.3931
-3.3253 -4.0512 2.3931
-3.1859 -4.1809 2.3931
-3.0417 -4.3061 2.3931
-2.8929 -4.4265 2.3931
-2.7397 -4.5420 2.3931
-2.5821 -4.6524 2.3931
-2.4203 -4.7576 2.3931
-2.2545 -4.8573 2.3931
-2.0849 -4.9515 2.3931
-1.9116 -5.0399 2.3931
-1.7347 -5.1224 2.3931
-1.5546 -5.1988 2.3931
-1.3714 -5.2690 2.3931
-1.1852 -5.3329 2.3931
-0.9964 -5.3903 2.3931
-0.8051 -5.4411 2.3931
-0.6115 -5.4852 2.3931
-0.4159 -5.5224 2.3931
-0.2186 -5.5526 2.3931
-0.0197 -5.5758 2.3931
0.1805 -5.5919 2.3931
0.3816 -5.6007 2.3931
0.5836 -5.6022 2.3931
0.7860 -5.5964 2.3931
0.9886 -5.5831 2.3931
1.1911 -5.5623 2.3931
1.3933 -5.5341 2.3931
1.5949 -5.4983 2.3931
1.7955 -5.4550 2.3931
1.9948 -5.4041 2.3931
2.1927 -5.3458 2.3931
2.3887 -5.2799 2.3931
2.5825 -5.2066 2.3931
2.7739 -5.1259 2.3931
2.9626 -5.0378 2.3931
3.1482 -4.9426 2.3931
3.3305 -4.8401 2.3931
3.5091 -4.7306 2.3931
3.6838 -4.6142 2.3931
3.8543 -4.4910 2.3931
4.0202 -4.3611 2.3931
4.1814 -4.2248 2.3931
4.3374 -4.0821 2.3931
4.4881 -3.9333 2.3931
4.6332 -3.7786 2.3931
4.7724 -3.6182 2.3931
4.9055 -3.4523 2.3931
5.0322 -3.2812 2.3931
5.1524 -3.1052 2.3931
5.2657 -2.9244 2.3931
5.3721 -2.7392 2.3931
5.4713 -2.5498 2.3931
5.5630 -2.3566 2.3931
5.6473 -2.1598 2.3931
5.7239 -1.9598 2.3931
5.7397 -1.7408 2.3713
5.7163 -1.5150 2.3371
5.6930 -1.2950 2.3068
5.6696 -1.0802 2.2801
5.6462 -0.8700 2.2569
5.6340 -0.6649 2.2415
5.6506 -0.4648 2.2407
5.6613 -0.2644 2.2407
5.6641 -0.0638 2.2407
5.6592 0.1366 2.2407
5.6534 0.3371 2.2435
5.6288 0.5361 2.2419
5.6020 0.7346 2.2425
5.5618 0.9307 2.2407
5.5183 1.1257 2.2407
5.4674 1.3187 2.2407
5.4091 1.5093 2.2407
5.3436 1.6973 2.2407
5.2897 1.8891 2.2487
5.2538 2.0892 2.2677
5.2222 2.2942 2.2922
5.1894 2.5030 2.3201
5.1554 2.7162 2.3515
5.1201 2.9343 2.3868
5.0142 3.1152 2.3931
4.8885 3.2833 2.3931
4.7568 3.4462 2.3931
4.6193 3.6036 2.3931
4.4762 3.7555 2.3931
4.3279 3.9015 2.3931
4.1745 4.0416 2.3931
4.0163 4.1755 2.3931
3.8537 4.3030 2.3931
3.6868 4.4242 2.3931
3.5160 4.5387 2.3931
3.3415 4.6466 2.3931
3.1635 4.7477 2.3931
2.9825 4.8419 2.3931
2.7986 4.9292 2.3931
2.6121 5.0095 2.3931
0.9370 1.9651 0.9253
0.8657 1.9965 0.9280
0.7934 2.0254 0.9307
0.7201 2.0516 0.9335
0.6459 2.0752 0.9363
0.5709 2.0960 0.9390
0.4952 2.1142 0.9418
0.4189 2.1296 0.9446
0.3420 2.1422 0.9473
0.2648 2.1520 0.9501
0.1872 2.1591 0.9529
0.1094 2.1633 0.9556
0.0315 2.1648 0.9583
-0.0464 2.1634 0.9610
-0.1242 2.1592 0.9637
-0.2018 2.1522 0.9663
-0.2790 2.1424 0.9689
-0.3559 2.1299 0.9715
-0.4323 2.1145 0.9740
-0.5081 2.0964 0.9765
-0.5832 2.0756 0.9789
-0.6575 2.0521 0.9813
-0.7309 2.0259 0.9837
-0.8033 1.9971 0.9859
-0.8746 1.9657 0.9881
-2.2829 4.6682 2.3931
-2.4441 4.5704 2.3931
-2.6015 4.4674 2.3931
-2.7550 4.3594 2.3931
-2.9044 4.2464 2.3931
-3.0497 4.1287 2.3931
-3.1905 4.0064 2.3931
-3.3269 3.8796 2.3931
-3.4587 3.7486 2.3931
-3.5858 3.6134 2.3931
-3.7081 3.4742 2.3931
-3.8254 3.3312 2.3931
-3.9377 3.1846 2.3931
-4.0449 3.0346 2.3931
-4.1468 2.8812 2.3931
-4.2435 2.7246 2.3931
-4.3348 2.5651 2.3931
-4.4206 2.4029 2.3931
-4.5008 2.2379 2.3931
-4.5755 2.0706 2.3931
-4.6445 1.9010 2.3931
-4.7077 1.7292 2.3931
-4.7652 1.5556 2.3931
-4.8169 1.3802 2.3931
-4.8626 1.2032 2.3931
-4.9024 1.0248 2.3931
-4.9363 0.8452 2.3931
-4.9642 0.6646 2.3931
-4.9861 0.4832 2.3931
-5.0019 0.3011 2.3931
-5.0116 0.1185 2.3931
-5.0153 -0.0644 2.3931
-5.0128 -0.2474 2.3931
-5.0043 -0.4304 2.3931
-4.9897 -0.6131 2.3931
-4.9689 -0.7953 2.3931
-4.9421 -0.9769 2.3931
-4.9091 -1.1577 2.3931
-4.8701 -1.3376 2.3931
-4.8251 -1.5162 2.3931
-4.7740 -1.6934 2.3931
-4.1924 -2.3878 2.3931
-4.1112 -2.5438 2.3931
-4.0246 -2.6973 2.3931
-3.9327 -2.8480 2.3931
-3.8355 -2.9958 2.3931
-3.7331 -3.1404 2.3931
-3.6256 -3.2818 2.3931
-3.5132 -3.4197 2.3931
-3.3958 -3.5540 2.3931
-3.2735 -3.6845 2.3931
-3.1466 -3.8109 2.3931
-3.0151 -3.9333 2.3931
-2.8792 -4.0512 2.3931
-2.7389 -4.1647 2.3931
-2.5943 -4.2736 2.3931
-2.4457 -4.3776 2.3931
-2.2932 -4.4766 2.3931
-2.1370 -4.5704 2.3931
-1.9771 -4.6590 2.3931
-1.8138 -4.7422 2.3931
-1.6472 -4.8197 2.3931
-1.4775 -4.8916 2.3931
-1.3049 -4.9575 2.3931
-1.1297 -5.0175 2.3931
-0.9519 -5.0713 2.3931
-0.7718 -5.1190 2.3931
-0.5897 -5.1602 2.3931
-0.4057 -5.1951 2.3931
-0.2201 -5.2233 2.3931
-0.0330 -5.2450 2.3931
0.1552 -5.2599 2.3931
0.3443 -5.2680 2.3931
0.5341 -5.2692 2.3931
0.7243 -5.2636 2.3931
0.9146 -5.2509 2.3931
1.1049 -5.2313 2.3931
1.2948 -5.2046 2.3931
1.4840 -5.1708 2.3931
1.6723 -5.1300 2.3931
1.8595 -5.0822 2.3931
2.0452 -5.0273 2.3931
2.2291 -4.9654 2.3931
2.4110 -4.8966 2.3931
2.5906 -4.8208 2.3931
2.7676 -4.7382 2.3931
2.9417 -4.6488 2.3931
3.1127 -4.5527 2.3931
3.2802 -4.4500 2.3931
3.4441 -4.3409 2.3931
3.6040 -4.2254 2.3931
3.7596 -4.1037 2.3931
3.9108 -3.9761 2.3931
4.0572 -3.8424 2.3931
4.1986 -3.7031 2.3931
4.3348 -3.5583 2.3931
4.4654 -3.4082 2.3931
4.5904 -3.2529 2.3931
4.7094 -3.0928 2.3931
4.8223 -2.9281 2.3931
4.9289 -2.7589 2.3931
5.0289 -2.5856 2.3931
5.1223 -2.4084 2.3931
5.2087 -2.2276 2.3931
5.2882 -2.0434 2.3931
5.3605 -1.8564 2.3931
5.4255 -1.6665 2.3931
5.4831 -1.4741 2.3931
5.5332 -1.2796 2.3931
5.5757 -1.0833 2.3931
5.6105 -0.8855 2.3931
5.5990 -0.6818 2.3767
5.5757 -0.4796 2.3587
5.5522 -0.2802 2.3439
5.5283 -0.0833 2.3323
5.5042 0.1118 2.3237
5.4797 0.3055 2.3182
5.4548 0.4982 2.3156
5.4293 0.6903 2.3160
5.4034 0.8822 2.3193
5.3769 1.0745 2.3255
5.3497 1.2675 2.3348
5.3218 1.4617 2.3471
5.2931 1.6575 2.3625
5.2635 1.8553 2.3810
5.2118 2.0474 2.3931
5.1265 2.2267 2.3931
5.0345 2.4023 2.3931
4.9361 2.5741 2.3931
4.8314 2.7416 2.3931
4.7205 2.9048 2.3931
4.6038 3.0632 2.3931
4.4814 3.2172 2.3931
4.3535 3.3659 2.3931
4.2204 3.5095 2.3931
4.0822 3.6476 2.3931
3.9393 3.7803 2.3931
3.7918 3.9071 2.3931
3.6401 4.0282 2.3931
3.4843 4.1432 2.3931
3.3247 4.2521 2.3931
3.1616 4.3548 2.3931
2.9952 4.4512 2.3931
2.8258 4.5412 2.3931
2.6537 4.6247 2.3931
2.4790 4.7016 2.3931
0.8907 1.8462 0.9259
0.8238 1.8761 0.9285
0.7558 1.9035 0.9310
0.6869 1.9284 0.9336
0.6171 1.9508 0.9362
0.5466 1.9707 0.9389
0.4754 1.9880 0.9415
0.4036 2.0028 0.9441
0.3313 2.0149 0.9467
0.2586 2.0245 0.9493
0.1856 2.0314 0.9519
0.1124 2.0356 0.9545
0.0391 2.0372 0.9570
-0.0342 2.0362 0.9595
-0.1074 2.0326 0.9621
-0.1805 2.0262 0.9645
-0.2533 2.0173 0.9670
-0.3257 2.0057 0.9694
-0.3976 1.9916 0.9718
-0.4690 1.9748 0.9741
-0.5398 1.9555 0.9764
-0.6098 1.9336 0.9787
-0.6790 1.9092 0.9809
-0.7472 1.8824 0.9830
-0.8144 1.8531 0.9851
-0.8805 1.8213 0.9872
-2.2874 4.3240 2.3931
-2.4367 4.2278 2.3931
-2.5824 4.1267 2.3931
-2.7242 4.0210 2.3931
-2.8621 3.9107 2.3931
-2.9959 3.7959 2.3931
-3.1255 3.6770 2.3931
-3.2507 3.5539 2.3931
-3.3716 3.4269 2.3931
-3.4879 3.2960 2.3931
-3.5995 3.1615 2.3931
-3.7064 3.0236 2.3931
-3.8085 2.8822 2.3931
-3.9057 2.7378 2.3931
-3.9978 2.5902 2.3931
-4.0848 2.4399 2.3931
-4.1667 2.2868 2.3931
-4.2433 2.1313 2.3931
-4.3146 1.9734 2.3931
-4.3805 1.8132 2.3931
-4.4410 1.6511 2.3931
-4.4960 1.4871 2.3931
-4.5455 1.3214 2.3931
-4.5894 1.1543 2.3931
-4.6277 0.9857 2.3931
-4.6603 0.8160 2.3931
-4.6873 0.6454 2.3931
-4.7085 0.4739 2.3931
-4.7240 0.3017 2.3931
-4.7337 0.1291 2.3931
-4.7376 -0.0438 2.3931
-4.7358 -0.2169 2.3931
-4.7282 -0.3899 2.3931
-4.7147 -0.5626 2.3931
-4.6955 -0.7349 2.3931
-4.6705 -0.9067 2.3931
-4.6397 -1.0777 2.3931
-4.6031 -1.2477 2.3931
-4.5608 -1.4165 2.3931
-4.5128 -1.5841 2.3931
-4.4591 -1.7502 2.3931
-4.3998 -1.9146 2.3931
-4.3349 -2.0771 2.3931
-4.2644 -2.2376 2.3931
-4.1883 -2.3959 2.3931
-4.1069 -2.5518 2.3931
-4.0200 -2.7051 2.3931
-3.9278 -2.8557 2.3931
-3.8303 -3.0033 2.3931
-3.7277 -3.1478 2.3931
-3.6200 -3.2890 2.3931
-3.5072 -3.4267 2.3931
-3.3896 -3.5608 2.3931
-3.2671 -3.6911 2.3931
-3.1400 -3.8173 2.3931
-3.0082 -3.9394 2.3931
-2.8720 -4.0572 2.3931
-2.7315 -4.1705 2.3931
-2.5868 -4.2790 2.3931
-2.4380 -4.3828 2.3931
-2.2853 -4.4815 2.3931
-2.1288 -4.5751 2.3931
-1.9688 -4.6634 2.3931
-1.8053 -4.7463 2.3931
-1.6385 -4.8236 2.3931
-1.4687 -4.8951 2.3931
-1.2960 -4.9608 2.3931
-1.1206 -5.0204 2.3931
-0.9427 -5.0740 2.3931
-0.7625 -5.1213 2.3931
-0.5803 -5.1622 2.3931
-0.3962 -5.1967 2.3931
-0.2105 -5.2246 2.3931
-0.0234 -5.2459 2.3931
0.1649 -5.2605 2.3931
0.3540 -5.2682 2.3931
0.5439 -5.2691 2.3931
0.7341 -5.2631 2.3931
0.9244 -5.2501 2.3931
1.1147 -5.2301 2.3931
1.3045 -5.2030 2.3931
1.4937 -5.1689 2.3931
1.6820 -5.1278 2.3931
1.8691 -5.0795 2.3931
2.0547 -5.0243 2.3931
2.2385 -4.9621 2.3931
2.4203 -4.8928 2.3931
2.5997 -4.8167 2.3931
2.7766 -4.7337 2.3931
2.9506 -4.6440 2.3931
3.1214 -4.5476 2.3931
3.2888 -4.4446 2.3931
3.4524 -4.3351 2.3931
3.6121 -4.2193 2.3931
3.7675 -4.0973 2.3931
3.9185 -3.9693 2.3931
4.0646 -3.8354 2.3931
4.2057 -3.6957 2.3931
4.3416 -3.5507 2.3931
4.4720 -3.4003 2.3931
4.5967 -3.2448 2.3931
4.7154 -3.0844 2.3931
4.8280 -2.9194 2.3931
4.9342 -2.7501 2.3931
5.0339 -2.5766 2.3931
5.1269 -2.3992 2.3931
5.2130 -2.2182 2.3931
5.2921 -2.0339 2.3931
5.3640 -1.8466 2.3931
5.4286 -1.6566 2.3931
5.4858 -1.4641 2.3931
5.5355 -1.2696 2.3931
5.5777 -1.0732 2.3931
5.6121 -0.8753 2.3931
5.5978 -0.6713 2.3757
5.5745 -0.4693 2.3579
5.5509 -0.2701 2.3432
5.5271 -0.0732 2.3318
5.5030 0.1218 2.3234
5.4784 0.3154 2.3180
5.4535 0.5081 2.3155
5.4280 0.7002 2.3161
5.4020 0.8921 2.3195
5.3755 1.0844 2.3260
5.3482 1.2775 2.3354
5.3203 1.4717 2.3478
5.2916 1.6676 2.3633
5.2619 1.8656 2.3821
5.2075 2.0568 2.3931
5.1219 2.2359 2.3931
5.0296 2.4114 2.3931
4.9308 2.5828 2.3931
4.8258 2.7501 2.3931
4.7147 2.9131 2.3931
4.5976 3.0715 2.3931
4.4749 3.2250 2.3931
4.3468 3.3735 2.3931
4.2134 3.5167 2.3931
4.0750 3.6547 2.3931
3.9318 3.7869 2.3931
3.7841 3.9135 2.3931
3.6321 4.0342 2.3931
3.4761 4.1490 2.3931
3.3164 4.2576 2.3931
3.1531 4.3600 2.3931
2.9865 4.4560 2.3931
2.8170 4.5457 2.3931
2.6447 4.6288 2.3931
0.9531 1.8158 0.9235
0.8873 1.8478 0.9260
0.8203 1.8775 0.9286
0.7523 1.9048 0.9312
0.6833 1.9296 0.9338
0.6135 1.9519 0.9364
0.5429 1.9716 0.9390
0.4717 1.9888 0.9416
0.3999 2.0035 0.9442
0.3276 2.0155 0.9468
0.2549 2.0249 0.9494
0.1819 2.0316 0.9520
0.1086 2.0358 0.9546
0.0353 2.0373 0.9571
-0.0380 2.0361 0.9597
-0.1112 2.0323 0.9622
-0.1842 2.0258 0.9647
-0.2570 2.0168 0.9671
-0.3294 2.0051 0.9695
-0.4013 1.9908 0.9719
-0.4727 1.9739 0.9743
-0.5434 1.9544 0.9766
-0.6134 1.9324 0.9788
-0.6825 1.9079 0.9810
-0.7507 1.8809 0.9832
-0.8179 1.8515 0.9853
-0.8839 1.8196 0.9873
-2.2952 4.3192 2.3931
-2.4443 4.2227 2.3931
-2.5898 4.1214 2.3931
-2.7314 4.0154 2.3931
-2.8691 3.9049 2.3931
-3.0027 3.7899 2.3931
-3.1320 3.6707 2.3931
-3.2571 3.5474 2.3931
-3.3777 3.4202 2.3931
-3.4938 3.2892 2.3931
-3.6052 3.1545 2.3931
-3.7118 3.0163 2.3931
-3.8136 2.8749 2.3931
-3.9105 2.7302 2.3931
-4.0024 2.5826 2.3931
-4.0891 2.4321 2.3931
-4.1707 2.2789 2.3931
-4.2471 2.1232 2.3931
-4.3181 1.9652 2.3931
-4.3838 1.8049 2.3931
-4.4440 1.6427 2.3931
-4.4987 1.4786 2.3931
-4.5479 1.3129 2.3931
-4.5915 1.1456 2.3931
-4.6295 0.9770 2.3931
-4.6619 0.8073 2.3931
-4.6885 0.6365 2.3931
-4.7094 0.4650 2.3931
-4.7246 0.2928 2.3931
-4.7340 0.1202 2.3931
-4.7377 -0.0528 2.3931
-4.7355 -0.2258 2.3931
-4.7276 -0.3988 2.3931
-4.7139 -0.5715 2.3931
-4.6943 -0.7438 2.3931
-4.6690 -0.9155 2.3931
-4.6379 -1.0864 2.3931
-4.6011 -1.2564 2.3931
-4.5585 -1.4252 2.3931
-4.5102 -1.5927 2.3931
-4.4562 -1.7587 2.3931
-4.3966 -1.9230 2.3931
-4.3314 -2.0854 2.3931
-4.2606 -2.2458 2.3931
-4.1843 -2.4040 2.3931
-4.1025 -2.5598 2.3931
-4.0154 -2.7130 2.3931
-3.9229 -2.8634 2.3931
-3.8252 -3.0108 2.3931
-3.7223 -3.1552 2.3931
-3.6143 -3.2962 2.3931
-3.5013 -3.4337 2.3931
-3.3834 -3.5676 2.3931
-3.2607 -3.6977 2.3931
-3.1333 -3.8237 2.3931
-3.0013 -3.9456 2.3931
-2.8649 -4.0631 2.3931
-2.7241 -4.1762 2.3931
-2.5792 -4.2845 2.3931
-2.4302 -4.3880 2.3931
-2.2773 -4.4865 2.3931
-2.1206 -4.5798 2.3931
-1.9604 -4.6678 2.3931
-1.7967 -4.7504 2.3931
-1.6298 -4.8274 2.3931
-1.4599 -4.8986 2.3931
-1.2870 -4.9640 2.3931
-1.1115 -5.0233 2.3931
-0.9334 -5.0765 2.3931
-0.7532 -5.1235 2.3931
-0.5708 -5.1641 2.3931
-0.3866 -5.1983 2.3931
-0.2008 -5.2259 2.3931
-0.0137 -5.2468 2.3931
0.1746 -5.2610 2.3931
0.3638 -5.2684 2.3931
0.5537 -5.2690 2.3931
0.7439 -5.2626 2.3931
0.9342 -5.2492 2.3931
1.1245 -5.2288 2.3931
1.3143 -5.2014 2.3931
1.5035 -5.1670 2.3931
1.6917 -5.1254 2.3931
1.8787 -5.0769 2.3931
2.0642 -5.0213 2.3931
2.2479 -4.9587 2.3931
2.4296 -4.8891 2.3931
2.6089 -4.8126 2.3931
2.7856 -4.7293 2.3931
2.9595 -4.6392 2.3931
3.1301 -4.5424 2.3931
3.2973 -4.4391 2.3931
3.4608 -4.3293 2.3931
3.6202 -4.2132 2.3931
3.7754 -4.0909 2.3931
3.9261 -3.9625 2.3931
4.0720 -3.8284 2.3931
4.2129 -3.6884 2.3931
4.3485 -3.5431 2.3931
4.4786 -3.3924 2.3931
4.6029 -3.2367 2.3931
4.7214 -3.0760 2.3931
4.8336 -2.9108 2.3931
4.9395 -2.7412 2.3931
5.0389 -2.5675 2.3931
5.1315 -2.3900 2.3931
5.2172 -2.2088 2.3931
5.2960 -2.0244 2.3931
5.3675 -1.8369 2.3931
5.4318 -1.6467 2.3931
5.4886 -1.4542 2.3931
5.5379 -1.2595 2.3931
5.5796 -1.0630 2.3931
5.6137 -0.8650 2.3931
5.5966 -0.6608 2.3747
5.5733 -0.4589 2.3570
5.5497 -0.2598 2.3426
5.5259 -0.0631 2.3313
5.5017 0.1318 2.3230
5.4771 0.3254 2.3178
5.4522 0.5180 2.3155
5.4267 0.7100 2.3162
5.4007 0.9020 2.3198
5.3741 1.0944 2.3264
5.3468 1.2875 2.3359
5.3188 1.4818 2.3485
5.2900 1.6778 2.3642
5.2604 1.8759 2.3831
5.2033 2.0661 2.3931
5.1173 2.2450 2.3931
5.0247 2.4203 2.3931
4.9256 2.5915 2.3931
4.8202 2.7586 2.3931
4.7088 2.9214 2.3931
4.5914 3.0795 2.3931
4.4685 3.2328 2.3931
4.3400 3.3810 2.3931
4.2064 3.5240 2.3931
4.0676 3.6624 2.3931
3.9243 3.7936 2.3931
3.7764 3.9199 2.3931
3.6242 4.0403 2.3931
3.4680 4.1547 2.3931
3.3081 4.2630 2.3931
3.1446 4.3651 2.3931
2.9779 4.4608 2.3931
2.8082 4.5501 2.3931
2.6358 4.6329 2.3931
0.9498 1.8175 0.9236
0.8838 1.8494 0.9262
0.8168 1.8790 0.9287
0.7488 1.9061 0.9313
0.6797 1.9308 0.9339
0.6099 1.9530 0.9365
0.5393 1.9726 0.9391
0.4680 1.9897 0.9417
0.3962 2.0041 0.9443
0.3238 2.0160 0.9470
0.2511 2.0253 0.9496
0.1781 2.0319 0.9521
0.1049 2.0359 0.9547
0.0316 2.0373 0.9573
-0.0417 2.0360 0.9598
-0.1150 2.0320 0.9623
-0.1880 2.0254 0.9648
-0.2608 2.0162 0.9673
-0.3331 2.0044 0.9697
-0.4050 1.9900 0.9720
-0.4764 1.9729 0.9744
-0.5470 1.9533 0.9767
-0.6170 1.9312 0.9789
-0.6860 1.9066 0.9811
-0.7542 1.8794 0.9833
-0.8213 1.8499 0.9854
-2.1505 4.4061 2.3931
-2.3030 4.3143 2.3931
-2.4519 4.2176 2.3931
-2.5972 4.1160 2.3931
-2.7386 4.0098 2.3931
-2.8761 3.8990 2.3931
-3.0094 3.7839 2.3931
-3.1386 3.6645 2.3931
-3.2634 3.5410 2.3931
-3.3838 3.4136 2.3931
-3.4996 3.2823 2.3931
-3.6108 3.1475 2.3931
-3.7172 3.0091 2.3931
-3.8188 2.8675 2.3931
-3.9154 2.7227 2.3931
-4.0070 2.5749 2.3931
-4.0935 2.4242 2.3931
-4.1748 2.2709 2.3931
-4.2509 2.1151 2.3931
-4.3216 1.9570 2.3931
-4.3870 1.7966 2.3931
-4.4469 1.6343 2.3931
-4.5014 1.4701 2.3931
-4.5503 1.3043 2.3931
-4.5936 1.1370 2.3931
-4.6313 0.9683 2.3931
-4.6634 0.7985 2.3931
-4.6897 0.6277 2.3931
-4.7104 0.4561 2.3931
-4.7252 0.2839 2.3931
-4.7344 0.1113 2.3931
-4.7377 -0.0617 2.3931
-4.7353 -0.2347 2.3931
-4.7270 -0.4077 2.3931
-4.7130 -0.5804 2.3931
-4.6932 -0.7527 2.3931
-4.6676 -0.9243 2.3931
-4.6362 -1.0952 2.3931
-4.5990 -1.2651 2.3931
-4.5562 -1.4339 2.3931
-4.5076 -1.6013 2.3931
-3.9641 -2.2611 2.3931
-3.8869 -2.4086 2.3931
-3.8046 -2.5536 2.3931
-3.7172 -2.6959 2.3931
-3.6249 -2.8355 2.3931
-3.5277 -2.9721 2.3931
-3.4256 -3.1055 2.3931
-3.3188 -3.2356 2.3931
-3.2074 -3.3623 2.3931
-3.0914 -3.4853 2.3931
-2.9710 -3.6044 2.3931
-2.8463 -3.7197 2.3931
-2.7174 -3.8307 2.3931
-2.5844 -3.9375 2.3931
-2.4475 -4.0398 2.3931
-2.3067 -4.1376 2.3931
-2.1623 -4.2306 2.3931
-2.0143 -4.3187 2.3931
-1.8630 -4.4017 2.3931
-1.7085 -4.4796 2.3931
-1.5509 -4.5522 2.3931
-1.3905 -4.6194 2.3931
-1.2273 -4.6810 2.3931
-1.0617 -4.7369 2.3931
-0.8938 -4.7870 2.3931
-0.7237 -4.8312 2.3931
-0.5517 -4.8694 2.3931
-0.3781 -4.9015 2.3931
-0.2029 -4.9274 2.3931
-0.0265 -4.9471 2.3931
0.1510 -4.9604 2.3931
0.3293 -4.9673 2.3931
0.5081 -4.9677 2.3931
0.6873 -4.9616 2.3931
0.8666 -4.9489 2.3931
1.0458 -4.9297 2.3931
1.2245 -4.9038 2.3931
1.4026 -4.8713 2.3931
1.5797 -4.8322 2.3931
1.7557 -4.7864 2.3931
1.9303 -4.7341 2.3931
