ply
format ascii 1.0
element vertex 2189
property float32 x
property float32 y
property float32 z
end_header
7.8479 4.4096 2.3879
7.7089 4.7081 2.3879
7.5607 5.0038 2.3879
7.4033 5.2963 2.3879
7.2368 5.5854 2.3879
7.0610 5.8710 2.3879
6.8761 6.1529 2.3879
6.6820 6.4307 2.3879
6.4787 6.7044 2.3879
6.2661 6.9736 2.3879
6.0443 7.2381 2.3879
5.8132 7.4977 2.3879
5.5726 7.7515 2.3878
5.3205 7.9965 2.3866
5.0554 8.2289 2.3836
4.7781 8.4482 2.3787
6.5399 -7.1063 2.3879
6.7473 -6.8191 2.3879
6.9446 -6.5279 2.3879
7.1318 -6.2330 2.3879
7.3090 -5.9348 2.3879
7.4762 -5.6335 2.3879
7.6335 -5.3293 2.3879
7.7809 -5.0225 2.3879
7.9185 -4.7133 2.3879
8.0464 -4.4020 2.3879
8.1644 -4.0885 2.3879
8.2729 -3.7734 2.3879
8.3717 -3.4567 2.3879
8.4610 -3.1387 2.3879
8.5407 -2.8194 2.3879
8.6110 -2.4992 2.3879
8.6719 -2.1782 2.3879
8.7234 -1.8565 2.3879
8.7655 -1.5344 2.3879
8.7984 -1.2119 2.3879
8.8219 -0.8894 2.3879
8.8363 -0.5668 2.3879
8.8414 -0.2444 2.3879
8.8373 0.0777 2.3879
8.8241 0.3992 2.3879
8.8017 0.7202 2.3879
8.7702 1.0403 2.3879
8.7296 1.3595 2.3879
8.6799 1.6776 2.3879
8.6211 1.9944 2.3879
8.5532 2.3098 2.3879
8.4762 2.6237 2.3879
8.3901 2.9357 2.3879
8.2950 3.2459 2.3879
8.1907 3.5540 2.3879
8.0774 3.8598 2.3879
7.9549 4.1633 2.3879
7.8233 4.4641 2.3879
7.6826 4.7622 2.3879
7.5327 5.0573 2.3879
7.3737 5.3492 2.3879
7.2055 5.6377 2.3879
7.0281 5.9226 2.3879
6.8415 6.2038 2.3879
6.6457 6.4809 2.3879
6.4406 6.7537 2.3879
6.2264 7.0221 2.3879
6.0029 7.2857 2.3879
5.7701 7.5444 2.3879
5.5276 7.7970 2.3877
5.2730 8.0396 2.3862
5.0060 8.2701 2.3829
6.5784 -7.0543 2.3879
6.7840 -6.7663 2.3879
6.9794 -6.4745 2.3879
7.1648 -6.1790 2.3879
7.3402 -5.8802 2.3879
7.5056 -5.5783 2.3879
7.6611 -5.2736 2.3879
7.8067 -4.9664 2.3879
7.9424 -4.6566 2.3879
8.0685 -4.3449 2.3879
8.1849 -4.0312 2.3879
8.2916 -3.7158 2.3879
8.3887 -3.3989 2.3879
8.4762 -3.0806 2.3879
8.5542 -2.7612 2.3879
8.6228 -2.4408 2.3879
8.6820 -2.1197 2.3879
8.7318 -1.7979 2.3879
8.7722 -1.4757 2.3879
8.8033 -1.1532 2.3879
8.8252 -0.8306 2.3879
8.8379 -0.5081 2.3879
8.8413 -0.1857 2.3879
8.8356 0.1363 2.3879
8.8207 0.4577 2.3879
8.7967 0.7785 2.3879
8.7635 1.0985 2.3879
8.7212 1.4175 2.3879
8.6699 1.7354 2.3879
8.6094 2.0520 2.3879
8.5398 2.3671 2.3879
8.4612 2.6806 2.3879
8.3735 2.9924 2.3879
8.2767 3.3022 2.3879
8.1708 3.6099 2.3879
8.0557 3.9153 2.3879
7.9316 4.2183 2.3879
7.7983 4.5186 2.3879
7.6560 4.8161 2.3879
7.5044 5.1107 2.3879
7.3437 5.4019 2.3879
7.1738 5.6898 2.3879
2.8760 -9.1978 2.3879
3.1786 -9.0130 2.3879
3.4725 -8.8201 2.3879
3.7577 -8.6197 2.3879
4.0340 -8.4119 2.3879
4.3013 -8.1973 2.3879
4.5596 -7.9761 2.3879
4.8089 -7.7487 2.3879
5.0491 -7.5155 2.3879
5.2801 -7.2767 2.3879
5.5019 -7.0327 2.3879
5.7146 -6.7838 2.3879
5.9181 -6.5303 2.3879
6.1125 -6.2724 2.3879
6.2977 -6.0105 2.3879
6.4736 -5.7448 2.3879
6.6405 -5.4756 2.3879
6.7982 -5.2031 2.3879
6.9469 -4.9276 2.3879
7.0864 -4.6492 2.3879
7.2169 -4.3683 2.3879
7.3384 -4.0851 2.3879
7.4509 -3.7997 2.3879
7.5544 -3.5124 2.3879
7.6490 -3.2234 2.3879
7.7347 -2.9328 2.3879
7.8115 -2.6409 2.3879
7.8795 -2.3479 2.3879
7.9387 -2.0539 2.3879
7.9891 -1.7591 2.3879
8.0308 -1.4637 2.3879
8.0638 -1.1679 2.3879
8.0880 -0.8717 2.3879
8.1036 -0.5755 2.3879
8.1106 -0.2794 2.3879
8.1089 0.0165 2.3879
8.0986 0.3120 2.3879
8.0798 0.6070 2.3879
8.0524 0.9013 2.3879
8.0164 1.1946 2.3879
7.9719 1.4870 2.3879
7.9188 1.7782 2.3879
7.8573 2.0679 2.3879
7.7872 2.3562 2.3879
7.7087 2.6428 2.3879
7.6216 2.9275 2.3879
7.5260 3.2101 2.3879
7.4220 3.4906 2.3879
7.3095 3.7687 2.3879
7.1885 4.0442 2.3879
7.0590 4.3169 2.3879
6.9210 4.5867 2.3879
6.7746 4.8534 2.3879
6.6197 5.1167 2.3879
6.4564 5.3765 2.3879
6.2845 5.6325 2.3879
6.1043 5.8846 2.3879
5.9156 6.1324 2.3879
5.7186 6.3759 2.3879
5.5131 6.6146 2.3879
5.2992 6.8485 2.3879
5.0770 7.0772 2.3879
4.8460 7.2997 2.3877
4.6047 7.5131 2.3864
4.3527 7.7156 2.3836
4.0905 7.9063 2.3792
3.8182 8.0834 2.3731
3.5364 8.2459 2.3649
3.2524 8.4101 2.3596
2.9685 8.5851 2.3595
2.6769 8.7525 2.3594
2.3778 8.9118 2.3593
2.0713 9.0628 2.3593
1.7575 9.2051 2.3592
1.4366 9.3384 2.3591
1.1087 9.4624 2.3590
0.7742 9.5765 2.3590
0.4330 9.6806 2.3589
2.6221 -9.3427 2.3879
2.9317 -9.1648 2.3879
3.2328 -8.9785 2.3879
3.5251 -8.7842 2.3879
3.8086 -8.5824 2.3879
4.0833 -8.3733 2.3879
4.3490 -8.1575 2.3879
4.6057 -7.9351 2.3879
4.8533 -7.7067 2.3879
5.0918 -7.4724 2.3879
5.3212 -7.2327 2.3879
5.5414 -6.9878 2.3879
5.7524 -6.7380 2.3879
5.9542 -6.4837 2.3879
6.1469 -6.2250 2.3879
6.3304 -5.9624 2.3879
6.5047 -5.6960 2.3879
6.6699 -5.4262 2.3879
6.8260 -5.1531 2.3879
6.9730 -4.8771 2.3879
7.1108 -4.5983 2.3879
7.2397 -4.3169 2.3879
7.3595 -4.0333 2.3879
7.4704 -3.7475 2.3879
7.5723 -3.4599 2.3879
7.6653 -3.1706 2.3879
7.7493 -2.8797 2.3879
7.8245 -2.5876 2.3879
7.8909 -2.2944 2.3879
7.9485 -2.0002 2.3879
7.9974 -1.7053 2.3879
8.0374 -1.4098 2.3879
8.0688 -1.1139 2.3879
8.0915 -0.8178 2.3879
8.1055 -0.5216 2.3879
8.1109 -0.2255 2.3879
8.1077 0.0704 2.3879
8.0958 0.3658 2.3879
8.0754 0.6607 2.3879
8.0465 0.9548 2.3879
8.0089 1.2480 2.3879
7.9629 1.5401 2.3879
7.9083 1.8310 2.3879
7.8452 2.1205 2.3879
7.7735 2.4085 2.3879
7.6934 2.6947 2.3879
7.6048 2.9791 2.3879
7.5077 3.2614 2.3879
7.4021 3.5414 2.3879
7.2881 3.8190 2.3879
7.1655 4.0940 2.3879
7.0345 4.3663 2.3879
6.8950 4.6355 2.3879
6.7470 4.9016 2.3879
6.5906 5.1643 2.3879
6.4257 5.4234 2.3879
6.2524 5.6787 2.3879
6.0706 5.9300 2.3879
5.8804 6.1771 2.3879
5.6818 6.4197 2.3879
5.4747 6.6576 2.3879
5.2594 6.8905 2.3879
5.0357 7.1183 2.3879
4.8030 7.3395 2.3876
4.5595 7.5507 2.3859
4.3058 7.7514 2.3829
4.0416 7.9394 2.3782
3.7677 8.1143 2.3718
3.4842 8.2740 2.3633
3.2013 8.4425 2.3596
2.9160 8.6162 2.3595
2.6230 8.7821 2.3594
2.3226 8.9399 2.3593
2.0147 9.0894 2.3593
1.6996 9.2301 2.3592
1.3774 9.3617 2.3591
1.0483 9.4839 2.3590
0.7125 9.5962 2.3589
0.3702 9.6984 2.3589
2.6791 -9.3110 2.3879
2.9872 -9.1314 2.3879
3.2866 -8.9437 2.3879
3.5774 -8.7480 2.3879
3.8593 -8.5448 2.3879
4.1323 -8.3345 2.3879
4.3964 -8.1175 2.3879
4.6515 -7.8940 2.3879
4.8974 -7.6644 2.3879
5.1342 -7.4292 2.3879
5.3619 -7.1884 2.3879
5.5805 -6.9426 2.3879
5.7898 -6.6920 2.3879
5.9900 -6.4369 2.3879
6.1810 -6.1775 2.3879
6.3628 -5.9142 2.3879
6.5355 -5.6472 2.3879
6.6990 -5.3767 2.3879
6.8534 -5.1031 2.3879
6.9987 -4.8265 2.3879
7.1350 -4.5472 2.3879
7.2622 -4.2654 2.3879
7.3804 -3.9814 2.3879
7.4896 -3.6953 2.3879
7.5899 -3.4073 2.3879
7.6812 -3.1177 2.3879
7.7637 -2.8266 2.3879
7.8373 -2.5343 2.3879
7.9021 -2.2409 2.3879
7.9581 -1.9466 2.3879
8.0053 -1.6516 2.3879
8.0438 -1.3560 2.3879
8.0736 -1.0600 2.3879
8.0947 -0.7639 2.3879
8.1072 -0.4677 2.3879
8.1110 -0.1716 2.3879
8.1062 0.1242 2.3879
8.0928 0.4195 2.3879
8.0708 0.7143 2.3879
8.0403 1.0082 2.3879
8.0012 1.3013 2.3879
7.9536 1.5932 2.3879
7.8974 1.8839 2.3879
7.8328 2.1731 2.3879
7.7596 2.4608 2.3879
7.6779 2.7467 2.3879
7.5878 3.0306 2.3879
7.4891 3.3125 2.3879
7.3820 3.5921 2.3879
7.2664 3.8693 2.3879
7.1423 4.1438 2.3879
7.0097 4.4155 2.3879
6.8687 4.6842 2.3879
6.7192 4.9497 2.3879
6.5612 5.2117 2.3879
-3.2109 -8.9840 2.2355
-2.8646 -9.0185 2.2355
-2.5199 -9.0399 2.2355
-2.1772 -9.0484 2.2355
-1.8371 -9.0444 2.2355
-1.4999 -9.0283 2.2355
-1.2109 -9.3440 2.3210
-0.8935 -9.5710 2.3879
-0.5458 -9.5164 2.3879
-0.2029 -9.4502 2.3879
0.1347 -9.3727 2.3879
0.4667 -9.2842 2.3879
0.7929 -9.1852 2.3879
1.1127 -9.0758 2.3879
1.4262 -8.9566 2.3879
1.7329 -8.8280 2.3879
2.0328 -8.6903 2.3879
2.3256 -8.5438 2.3879
2.6110 -8.3889 2.3879
2.8891 -8.2260 2.3879
3.1595 -8.0554 2.3879
3.4222 -7.8775 2.3879
3.6771 -7.6926 2.3879
3.9241 -7.5010 2.3879
4.1630 -7.3030 2.3879
4.3939 -7.0990 2.3879
4.6165 -6.8892 2.3879
4.8310 -6.6740 2.3879
5.0372 -6.4536 2.3879
5.2351 -6.2284 2.3879
5.4246 -5.9987 2.3879
5.6058 -5.7645 2.3879
5.7786 -5.5264 2.3879
5.9431 -5.2844 2.3879
6.0991 -5.0389 2.3879
6.2468 -4.7901 2.3879
6.3861 -4.5382 2.3879
6.5169 -4.2834 2.3879
6.6394 -4.0261 2.3879
6.7536 -3.7663 2.3879
6.8594 -3.5043 2.3879
6.9568 -3.2403 2.3879
7.0459 -2.9745 2.3879
7.1268 -2.7071 2.3879
7.1993 -2.4383 2.3879
7.2636 -2.1683 2.3879
7.3197 -1.8973 2.3879
7.3675 -1.6254 2.3879
7.4071 -1.3529 2.3879
7.4376 -1.0786 2.3879
7.4618 -0.8063 2.3879
7.4769 -0.5327 2.3879
7.4839 -0.2591 2.3879
7.4828 0.0143 2.3879
7.4736 0.2874 2.3879
7.4563 0.5600 2.3879
7.4310 0.8319 2.3879
7.3976 1.1030 2.3879
7.3561 1.3731 2.3879
7.3067 1.6420 2.3879
7.2493 1.9096 2.3879
7.1838 2.1758 2.3879
7.1104 2.4402 2.3879
7.0291 2.7028 2.3879
6.9397 2.9635 2.3879
6.8425 3.2219 2.3879
6.7373 3.4780 2.3879
6.6242 3.7315 2.3879
6.5031 3.9823 2.3879
6.3742 4.2302 2.3879
6.2375 4.4750 2.3879
6.0929 4.7165 2.3879
5.9404 4.9545 2.3879
5.7802 5.1889 2.3879
5.6121 5.4192 2.3879
5.4363 5.6455 2.3879
5.2528 5.8674 2.3879
5.0616 6.0847 2.3879
4.8628 6.2973 2.3879
4.6563 6.5048 2.3879
4.4424 6.7070 2.3879
4.2203 6.9027 2.3876
3.9890 7.0893 2.3862
3.7489 7.2661 2.3836
3.5003 7.4324 2.3798
3.2430 7.5865 2.3744
2.9781 7.7281 2.3675
2.7066 7.8588 2.3597
2.4381 8.0072 2.3597
2.1631 8.1480 2.3596
0.8079 3.5556 1.0131
0.6797 3.5848 1.0063
0.5504 3.6093 0.9993
0.4204 3.6291 0.9923
0.2898 3.6442 0.9852
0.1586 3.6545 0.9781
0.0272 3.6600 0.9708
-0.1043 3.6608 0.9636
-0.2358 3.6568 0.9563
-0.3671 3.6481 0.9490
-0.4980 3.6345 0.9417
-0.6283 3.6163 0.9344
-0.7578 3.5933 0.9271
-0.8865 3.5656 0.9198
-2.6211 9.1333 2.3588
-2.9711 9.1099 2.3587
-3.3227 9.0737 2.3587
-3.8426 -8.8870 2.2355
-3.4950 -8.9459 2.2355
-3.1478 -8.9913 2.2355
-2.8017 -9.0234 2.2355
-2.4573 -9.0424 2.2355
-2.1151 -9.0486 2.2355
-1.7755 -9.0423 2.2355
-1.4451 -9.0623 2.2450
-1.1572 -9.4101 2.3391
-0.8298 -9.5620 2.3879
-0.4829 -9.5053 2.3879
-0.1410 -9.4370 2.3879
0.1956 -9.3574 2.3879
0.5266 -9.2669 2.3879
0.8515 -9.1659 2.3879
1.1703 -9.0548 2.3879
1.4825 -8.9339 2.3879
1.7881 -8.8036 2.3879
2.0866 -8.6643 2.3879
2.3781 -8.5162 2.3879
2.6622 -8.3599 2.3879
2.9389 -8.1955 2.3879
3.2079 -8.0236 2.3879
3.4692 -7.8443 2.3879
3.7227 -7.6582 2.3879
3.9682 -7.4654 2.3879
4.2057 -7.2663 2.3879
4.4350 -7.0612 2.3879
4.6562 -6.8504 2.3879
4.8692 -6.6342 2.3879
5.0738 -6.4130 2.3879
5.2702 -6.1869 2.3879
5.4582 -5.9563 2.3879
5.6379 -5.7215 2.3879
5.8092 -5.4826 2.3879
5.9721 -5.2400 2.3879
6.1266 -4.9938 2.3879
6.2728 -4.7444 2.3879
6.4105 -4.4920 2.3879
6.5399 -4.2368 2.3879
6.6608 -3.9789 2.3879
6.7735 -3.7187 2.3879
6.8777 -3.4564 2.3879
6.9737 -3.1920 2.3879
7.0613 -2.9259 2.3879
7.1406 -2.6583 2.3879
7.2116 -2.3893 2.3879
7.2744 -2.1190 2.3879
7.3290 -1.8478 2.3879
7.3753 -1.5758 2.3879
7.4134 -1.3031 2.3879
7.4434 -1.0299 2.3879
7.4651 -0.7565 2.3879
7.4788 -0.4829 2.3879
7.4843 -0.2093 2.3879
7.4817 0.0641 2.3879
7.4710 0.3371 2.3879
7.4523 0.6096 2.3879
7.4255 0.8813 2.3879
7.3906 1.1523 2.3879
7.3477 1.4222 2.3879
7.2969 1.6909 2.3879
7.2380 1.9582 2.3879
7.1711 2.2241 2.3879
7.0962 2.4882 2.3879
7.0134 2.7504 2.3879
6.9226 3.0107 2.3879
6.8239 3.2687 2.3879
6.7173 3.5243 2.3879
6.6027 3.7774 2.3879
6.4803 4.0277 2.3879
6.3499 4.2751 2.3879
6.2117 4.5193 2.3879
6.0657 4.7601 2.3879
5.9118 4.9975 2.3879
5.7501 5.2311 2.3879
5.5807 5.4608 2.3879
5.4035 5.6862 2.3879
5.2186 5.9073 2.3879
5.0260 6.1238 2.3879
4.8258 6.3354 2.3879
4.6179 6.5420 2.3879
4.4026 6.7432 2.3879
4.1788 6.9373 2.3874
3.9460 7.1222 2.3858
3.7043 7.2973 2.3830
3.4539 7.4612 2.3789
3.1953 7.6133 2.3733
2.9290 7.7525 2.3661
2.6582 7.8864 2.3597
2.3886 8.0334 2.3596
2.1123 8.1728 2.3596
0.7846 3.5613 1.0119
0.6562 3.5896 1.0050
0.5268 3.6133 0.9981
0.3967 3.6322 0.9910
0.2659 3.6464 0.9839
0.1347 3.6558 0.9767
0.0033 3.6605 0.9695
-0.1283 3.6604 0.9623
-0.2598 3.6556 0.9550
-0.3910 3.6459 0.9477
-0.5218 3.6315 0.9404
-0.6519 3.6124 0.9330
-0.7813 3.5886 0.9257
-0.9098 3.5601 0.9184
-2.6847 9.1299 2.3587
-3.0350 9.1043 2.3587
-3.3869 9.0658 2.3587
-4.1270 -8.8286 2.2355
-3.7793 -8.8988 2.2355
-3.4317 -8.9552 2.2355
-3.0847 -8.9981 2.2355
-2.7389 -9.0278 2.2355
-2.3948 -9.0444 2.2355
-2.0530 -9.0484 2.2355
-1.7140 -9.0399 2.2355
-1.3933 -9.1190 2.2602
-1.1028 -9.4771 2.3575
-0.7663 -9.5525 2.3879
-0.4203 -9.4937 2.3879
-0.0793 -9.4233 2.3879
0.2563 -9.3417 2.3879
0.5862 -9.2493 2.3879
0.9101 -9.1464 2.3879
1.2277 -9.0335 2.3879
1.5387 -8.9109 2.3879
1.8430 -8.7789 2.3879
2.1403 -8.6379 2.3879
2.4304 -8.4883 2.3879
2.7132 -8.3305 2.3879
2.9885 -8.1648 2.3879
3.2561 -7.9915 2.3879
3.5160 -7.8110 2.3879
3.7680 -7.6236 2.3879
4.0120 -7.4296 2.3879
4.2480 -7.2294 2.3879
4.4759 -7.0232 2.3879
4.6956 -6.8114 2.3879
4.9070 -6.5943 2.3879
5.1102 -6.3722 2.3879
5.3051 -6.1453 2.3879
5.4916 -5.9139 2.3879
5.6697 -5.6783 2.3879
5.8395 -5.4387 2.3879
6.0009 -5.1954 2.3879
6.1539 -4.9487 2.3879
6.2985 -4.6987 2.3879
6.4347 -4.4457 2.3879
6.5625 -4.1900 2.3879
6.6820 -3.9317 2.3879
6.7931 -3.6711 2.3879
6.8958 -3.4084 2.3879
6.9902 -3.1437 2.3879
7.0763 -2.8773 2.3879
7.1542 -2.6094 2.3879
7.2237 -2.3401 2.3879
7.2850 -2.0697 2.3879
7.3380 -1.7984 2.3879
7.3829 -1.5262 2.3879
7.4195 -1.2534 2.3879
7.4479 -0.9802 2.3879
7.4682 -0.7066 2.3879
7.4804 -0.4330 2.3879
7.4844 -0.1595 2.3879
7.4804 0.1138 2.3879
7.4682 0.3868 2.3879
7.4480 0.6591 2.3879
7.4197 0.9307 2.3879
7.3834 1.2015 2.3879
7.3391 1.4712 2.3879
7.2867 1.7397 2.3879
7.2264 2.0067 2.3879
7.1580 2.2723 2.3879
7.0817 2.5361 2.3879
6.9975 2.7980 2.3879
6.9052 3.0578 2.3879
6.8051 3.3154 2.3879
6.6970 3.5706 2.3879
6.5810 3.8232 2.3879
6.4571 4.0730 2.3879
6.3254 4.3198 2.3879
6.1857 4.5634 2.3879
6.0383 4.8036 2.3879
-2.9242 -8.1504 2.2355
-2.6118 -8.1876 2.2355
-2.3005 -8.2129 2.2355
-2.0080 -8.2991 2.2552
-1.7595 -8.6056 2.3379
-1.4705 -8.7802 2.3879
-1.1468 -8.7589 2.3879
-0.8263 -8.7264 2.3879
-0.5095 -8.6827 2.3879
-0.1967 -8.6283 2.3879
0.1119 -8.5636 2.3879
0.4153 -8.4881 2.3879
0.7139 -8.4031 2.3879
1.0073 -8.3086 2.3879
1.2951 -8.2048 2.3879
1.5772 -8.0921 2.3879
1.8533 -7.9708 2.3879
2.1231 -7.8412 2.3879
2.3866 -7.7037 2.3879
2.6435 -7.5585 2.3879
2.8937 -7.4060 2.3879
3.1370 -7.2465 2.3879
3.3733 -7.0802 2.3879
3.6026 -6.9075 2.3879
3.8246 -6.7286 2.3879
4.0393 -6.5439 2.3879
4.2467 -6.3537 2.3879
4.4466 -6.1581 2.3879
4.6390 -5.9575 2.3879
4.8238 -5.7522 2.3879
5.0010 -5.5423 2.3879
5.1705 -5.3282 2.3879
5.3324 -5.1101 2.3879
5.4865 -4.8882 2.3879
5.6329 -4.6628 2.3879
5.7715 -4.4341 2.3879
5.9024 -4.2024 2.3879
6.0254 -3.9677 2.3879
6.1407 -3.7305 2.3879
6.2482 -3.4908 2.3879
6.3479 -3.2489 2.3879
6.4399 -3.0049 2.3879
6.5240 -2.7591 2.3879
6.6004 -2.5117 2.3879
6.6690 -2.2629 2.3879
6.7299 -2.0127 2.3879
6.7830 -1.7615 2.3879
6.8284 -1.5094 2.3879
6.8661 -1.2566 2.3879
6.8961 -1.0032 2.3879
6.9184 -0.7495 2.3879
6.9330 -0.4955 2.3879
6.9399 -0.2414 2.3879
6.9392 0.0124 2.3879
6.9309 0.2660 2.3879
6.9150 0.5192 2.3879
6.8914 0.7717 2.3879
6.8603 1.0234 2.3879
6.8216 1.2742 2.3879
6.7754 1.5239 2.3879
6.7216 1.7723 2.3879
6.6602 2.0192 2.3879
6.5914 2.2645 2.3879
6.5151 2.5080 2.3879
6.4313 2.7496 2.3879
6.3401 2.9890 2.3879
6.2414 3.2261 2.3879
6.1354 3.4607 2.3879
6.0219 3.6926 2.3879
5.9011 3.9217 2.3879
5.7729 4.1478 2.3879
5.6374 4.3706 2.3879
5.4946 4.5900 2.3879
5.3446 4.8057 2.3879
5.1874 5.0177 2.3879
5.0230 5.2256 2.3879
4.8515 5.4292 2.3879
4.6729 5.6284 2.3879
4.4872 5.8229 2.3879
4.2947 6.0126 2.3879
4.0952 6.1971 2.3879
3.8889 6.3762 2.3879
3.6751 6.5485 2.3875
3.4534 6.7122 2.3861
3.2241 6.8669 2.3837
2.9875 7.0119 2.3803
2.7439 7.1464 2.3757
2.4935 7.2692 2.3698
2.2373 7.3809 2.3627
0.8501 3.2186 1.0130
0.7339 3.2494 1.0068
0.6167 3.2760 1.0006
0.4986 3.2984 0.9942
0.3798 3.3164 0.9878
0.2603 3.3302 0.9813
0.1405 3.3396 0.9748
0.0204 3.3446 0.9682
-0.0999 3.3453 0.9615
-0.2200 3.3417 0.9549
-0.3400 3.3337 0.9482
-0.4596 3.3213 0.9415
-0.5787 3.3046 0.9348
-0.6971 3.2836 0.9282
-0.8147 3.2583 0.9215
-0.9312 3.2287 0.9148
-2.7185 8.2986 2.3590
-3.0368 8.2598 2.3590
-3.3558 8.2092 2.3590
-3.6750 8.1465 2.3590
-3.9939 8.0716 2.3590
-4.3120 7.9844 2.3590
-4.6288 7.8847 2.3590
-4.9437 7.7724 2.3590
-5.2561 7.6475 2.3590
-5.5655 7.5098 2.3590
-5.8714 7.3594 2.3590
-6.1729 7.1963 2.3590
-6.4697 7.0205 2.3591
-6.7610 6.8320 2.3591
-7.0461 6.6310 2.3591
-8.2475 -5.1392 2.2355
-8.0258 -5.4054 2.2355
-7.7937 -5.6611 2.2355
-7.5517 -5.9058 2.2355
-7.3006 -6.1391 2.2355
-7.0409 -6.3608 2.2355
-6.7733 -6.5706 2.2355
-6.4984 -6.7682 2.2355
-6.2170 -6.9535 2.2355
-5.9296 -7.1262 2.2355
-5.6369 -7.2864 2.2355
-5.3396 -7.4338 2.2355
-5.0383 -7.5686 2.2355
-4.7335 -7.6905 2.2355
-4.4260 -7.7998 2.2355
-4.1163 -7.8964 2.2355
-3.8051 -7.9804 2.2355
-3.4928 -8.0519 2.2355
-3.1800 -8.1111 2.2355
-2.8673 -8.1581 2.2355
-2.5551 -8.1930 2.2355
-2.2439 -8.2162 2.2355
-1.9639 -8.3536 2.2697
-1.7126 -8.6633 2.3538
-1.4113 -8.7772 2.3879
-1.0882 -8.7538 2.3879
-0.7683 -8.7193 2.3879
-0.4528 -8.6728 2.3879
-0.1403 -8.6172 2.3879
0.1673 -8.5504 2.3879
0.4700 -8.4734 2.3879
0.7677 -8.3866 2.3879
1.0601 -8.2904 2.3879
1.3469 -8.1849 2.3879
1.6279 -8.0706 2.3879
1.9029 -7.9478 2.3879
2.1716 -7.8167 2.3879
2.4339 -7.6778 2.3879
2.6895 -7.5313 2.3879
2.9385 -7.3775 2.3879
3.1806 -7.2167 2.3879
3.4156 -7.0492 2.3879
3.6435 -6.8754 2.3879
3.8643 -6.6954 2.3879
4.0777 -6.5097 2.3879
4.2837 -6.3184 2.3879
4.4822 -6.1220 2.3879
4.6732 -5.9205 2.3879
4.8566 -5.7143 2.3879
5.0324 -5.5036 2.3879
5.2006 -5.2888 2.3879
5.3610 -5.0700 2.3879
5.5137 -4.8474 2.3879
5.6587 -4.6214 2.3879
5.7959 -4.3921 2.3879
5.9254 -4.1599 2.3879
6.0470 -3.9247 2.3879
6.1609 -3.6870 2.3879
6.2670 -3.4469 2.3879
6.3653 -3.2046 2.3879
6.4558 -2.9603 2.3879
6.5385 -2.7142 2.3879
6.6135 -2.4665 2.3879
6.6807 -2.2174 2.3879
6.7401 -1.9671 2.3879
6.7919 -1.7157 2.3879
6.8359 -1.4634 2.3879
6.8721 -1.2105 2.3879
6.9007 -0.9570 2.3879
6.9216 -0.7032 2.3879
6.9348 -0.4492 2.3879
6.9404 -0.1952 2.3879
6.9383 0.0586 2.3879
6.9286 0.3122 2.3879
6.9113 0.5652 2.3879
6.8863 0.8176 2.3879
6.8538 1.0692 2.3879
6.8137 1.3198 2.3879
6.7661 1.5692 2.3879
6.7110 1.8173 2.3879
6.6483 2.0640 2.3879
6.5781 2.3090 2.3879
6.5004 2.5521 2.3879
6.4153 2.7933 2.3879
6.3227 3.0323 2.3879
6.2227 3.2690 2.3879
6.1153 3.5031 2.3879
6.0004 3.7346 2.3879
5.8783 3.9631 2.3879
5.7488 4.1886 2.3879
5.6119 4.4108 2.3879
5.4678 4.6295 2.3879
5.3165 4.8446 2.3879
5.1580 5.0558 2.3879
4.9923 5.2630 2.3879
4.8195 5.4658 2.3879
4.6396 5.6642 2.3879
4.4527 5.8579 2.3879
4.2588 6.0466 2.3879
4.0581 6.2301 2.3879
3.8505 6.4081 2.3879
3.6353 6.5789 2.3873
3.4122 6.7411 2.3857
3.1816 6.8941 2.3832
2.9437 7.0373 2.3796
2.6987 7.1695 2.3747
2.4473 7.2903 2.3685
2.1901 7.4001 2.3614
0.8290 3.2245 1.0119
0.7126 3.2546 1.0057
0.5953 3.2804 0.9994
0.4770 3.3020 0.9930
0.3581 3.3193 0.9866
0.2385 3.3322 0.9801
0.1186 3.3408 0.9736
-0.0015 3.3451 0.9670
-0.1217 3.3450 0.9603
-0.2419 3.3405 0.9537
-0.3618 3.3317 0.9470
-0.4813 3.3186 0.9403
-0.6003 3.3011 0.9336
-0.7186 3.2793 0.9269
-0.8360 3.2532 0.9203
-0.9523 3.2229 0.9136
-2.7764 8.2924 2.3590
-3.0949 8.2515 2.3590
-3.4140 8.1987 2.3590
-3.7331 8.1338 2.3590
-4.0519 8.0566 2.3590
-4.3698 7.9672 2.3590
-4.6863 7.8652 2.3590
-5.0008 7.7506 2.3590
-5.3127 7.6233 2.3590
-5.6215 7.4834 2.3590
-5.9266 7.3307 2.3590
-6.2274 7.1652 2.3590
-6.5232 6.9871 2.3591
-6.8134 6.7964 2.3591
-7.0974 6.5931 2.3591
-8.2079 -5.1884 2.2355
-7.9843 -5.4528 2.2355
-7.7503 -5.7065 2.2355
-7.5067 -5.9491 2.2355
-7.2539 -6.1804 2.2355
-6.9927 -6.3999 2.2355
-6.7238 -6.6075 2.2355
-6.4477 -6.8029 2.2355
-6.1651 -6.9859 2.2355
-5.8767 -7.1563 2.2355
-5.5831 -7.3142 2.2355
-5.2850 -7.4593 2.2355
-4.9830 -7.5917 2.2355
-4.6777 -7.7114 2.2355
-4.3698 -7.8183 2.2355
-4.0598 -7.9126 2.2355
-3.7483 -7.9943 2.2355
-3.4358 -8.0636 2.2355
-3.1230 -8.1205 2.2355
-2.8103 -8.1653 2.2355
-2.4983 -8.1981 2.2355
-2.1874 -8.2192 2.2355
-1.9192 -8.4088 2.2845
-1.6652 -8.7217 2.3700
-1.3522 -8.7738 2.3879
-1.0296 -8.7484 2.3879
-0.7105 -8.7118 2.3879
-0.3951 -8.6641 2.3879
-0.0839 -8.6058 2.3879
0.2229 -8.5373 2.3879
0.5246 -8.4583 2.3879
0.8214 -8.3698 2.3879
1.1128 -8.2718 2.3879
1.3985 -8.1648 2.3879
1.6784 -8.0489 2.3879
1.9523 -7.9245 2.3879
2.2198 -7.7920 2.3879
2.4809 -7.6517 2.3879
2.7354 -7.5038 2.3879
2.9831 -7.3487 2.3879
3.2239 -7.1867 2.3879
3.4576 -7.0180 2.3879
3.6843 -6.8430 2.3879
3.9037 -6.6620 2.3879
4.1157 -6.4753 2.3879
4.3204 -6.2831 2.3879
4.5175 -6.0856 2.3879
4.7072 -5.8833 2.3879
4.8892 -5.6763 2.3879
5.0636 -5.4648 2.3879
5.2304 -5.2492 2.3879
5.3894 -5.0297 2.3879
5.5407 -4.8065 2.3879
5.6843 -4.5799 2.3879
5.8201 -4.3501 2.3879
5.9481 -4.1172 2.3879
6.0683 -3.8816 2.3879
6.1808 -3.6435 2.3879
6.2854 -3.4029 2.3879
6.3823 -3.1603 2.3879
6.4714 -2.9156 2.3879
6.5527 -2.6692 2.3879
6.6263 -2.4213 2.3879
6.6921 -2.1719 2.3879
6.7501 -1.9214 2.3879
6.8004 -1.6698 2.3879
6.8430 -1.4174 2.3879
6.8779 -1.1644 2.3879
6.9051 -0.9108 2.3879
6.9246 -0.6570 2.3879
6.9364 -0.4029 2.3879
6.9406 -0.1490 2.3879
6.9371 0.1048 2.3879
6.9260 0.3583 2.3879
6.9073 0.6112 2.3879
6.8810 0.8635 2.3879
6.8471 1.1149 2.3879
6.8056 1.3653 2.3879
6.7566 1.6145 2.3879
6.7001 1.8624 2.3879
6.6361 2.1087 2.3879
6.5645 2.3534 2.3879
6.4855 2.5962 2.3879
6.3990 2.8370 2.3879
6.3050 3.0756 2.3879
6.2037 3.3118 2.3879
6.0949 3.5455 2.3879
5.9787 3.7764 2.3879
5.8552 4.0044 2.3879
5.7244 4.2293 2.3879
5.5862 4.4509 2.3879
-2.6834 -7.4504 2.2355
-2.4611 -7.6819 2.2932
-2.2393 -7.9557 2.3661
-1.9581 -8.0472 2.3879
-1.6577 -8.0542 2.3879
-1.3591 -8.0504 2.3879
-1.0629 -8.0357 2.3879
-0.7693 -8.0106 2.3879
-0.4788 -7.9752 2.3879
-0.1916 -7.9298 2.3879
0.0919 -7.8747 2.3879
0.3714 -7.8101 2.3879
0.6466 -7.7362 2.3879
0.9173 -7.6534 2.3879
1.1831 -7.5620 2.3879
1.4439 -7.4622 2.3879
1.6994 -7.3542 2.3879
1.9494 -7.2385 2.3879
2.1938 -7.1152 2.3879
2.4323 -6.9846 2.3879
2.6649 -6.8470 2.3879
2.8913 -6.7028 2.3879
3.1113 -6.5520 2.3879
3.3250 -6.3951 2.3879
3.5322 -6.2323 2.3879
3.7327 -6.0639 2.3879
3.9265 -5.8901 2.3879
4.1135 -5.7111 2.3879
4.2937 -5.5273 2.3879
4.4669 -5.3388 2.3879
4.6330 -5.1460 2.3879
4.7922 -4.9489 2.3879
4.9442 -4.7480 2.3879
5.0891 -4.5434 2.3879
5.2268 -4.3352 2.3879
5.3573 -4.1239 2.3879
5.4805 -3.9095 2.3879
5.5965 -3.6923 2.3879
5.7053 -3.4724 2.3879
5.8068 -3.2501 2.3879
5.9010 -3.0256 2.3879
5.9879 -2.7991 2.3879
6.0675 -2.5707 2.3879
6.1398 -2.3407 2.3879
6.2048 -2.1093 2.3879
6.2625 -1.8765 2.3879
6.3129 -1.6426 2.3879
6.3561 -1.4078 2.3879
6.3919 -1.1723 2.3879
6.4205 -0.9362 2.3879
6.4419 -0.6996 2.3879
6.4560 -0.4628 2.3879
6.4628 -0.2260 2.3879
6.4625 0.0108 2.3879
6.4549 0.2473 2.3879
6.4401 0.4834 2.3879
6.4181 0.7189 2.3879
6.3890 0.9536 2.3879
6.3527 1.1875 2.3879
6.3093 1.4203 2.3879
6.2588 1.6518 2.3879
6.2012 1.8819 2.3879
6.1365 2.1104 2.3879
6.0647 2.3372 2.3879
5.9859 2.5621 2.3879
5.9001 2.7849 2.3879
5.8072 3.0055 2.3879
5.7075 3.2236 2.3879
5.6007 3.4391 2.3879
5.4871 3.6519 2.3879
5.3666 3.8616 2.3879
5.2393 4.0682 2.3879
5.1052 4.2715 2.3879
4.9643 4.4712 2.3879
4.8167 4.6672 2.3879
4.6625 4.8593 2.3879
4.5016 5.0473 2.3879
4.3342 5.2310 2.3879
4.1604 5.4101 2.3879
3.9801 5.5845 2.3879
3.7934 5.7539 2.3879
3.6005 5.9181 2.3879
3.4013 6.0769 2.3879
3.1955 6.2287 2.3873
2.9828 6.3726 2.3860
2.7634 6.5079 2.3839
2.5378 6.6343 2.3808
2.3063 6.7511 2.3769
2.0693 6.8579 2.3719
0.7778 2.9603 1.0071
0.6709 2.9886 1.0014
0.5631 3.0131 0.9957
0.4545 3.0336 0.9898
0.3451 3.0502 0.9839
0.2353 3.0628 0.9780
0.1250 3.0715 0.9719
0.0145 3.0761 0.9659
-0.0960 3.0767 0.9598
-0.2066 3.0734 0.9537
-0.3169 3.0660 0.9475
-0.4270 3.0546 0.9414
-0.5365 3.0392 0.9352
-0.6454 3.0199 0.9291
-0.7535 2.9966 0.9229
-0.8607 2.9695 0.9168
-2.5047 7.6118 2.3593
-2.7951 7.5717 2.3593
-3.0858 7.5207 2.3592
-3.3763 7.4588 2.3592
-3.6662 7.3858 2.3592
-3.9550 7.3015 2.3592
-4.2422 7.2060 2.3592
-4.5274 7.0990 2.3592
-4.8100 6.9807 2.3592
-5.0895 6.8509 2.3593
-5.3655 6.7097 2.3593
-5.6372 6.5571 2.3593
-5.9043 6.3932 2.3593
-6.1662 6.2180 2.3594
-6.4222 6.0316 2.3594
-6.6719 5.8343 2.3594
-6.9146 5.6261 2.3595
-7.1498 5.4073 2.3595
-7.3770 5.1781 2.3596
-7.5956 4.9389 2.3596
-7.8050 4.6898 2.3597
-8.0046 4.4314 2.3598
-8.1909 4.1622 2.3589
-8.3641 3.8837 2.3575
-8.5220 3.5956 2.3549
-8.6770 3.3040 2.3549
-8.8198 3.0053 2.3548
-8.9500 2.6999 2.3548
-9.0672 2.3885 2.3547
-9.1712 2.0717 2.3546
-9.2614 1.7500 2.3545
-9.3377 1.4242 2.3545
-9.3998 1.0948 2.3544
-9.4475 0.7627 2.3543
-9.4806 0.4285 2.3542
-9.4991 0.0928 2.3540
-9.4992 -0.2434 2.3530
-9.4692 -0.5784 2.3482
-9.4451 -0.9134 2.3486
-8.8590 -1.1743 2.2122
-8.8088 -1.4865 2.2125
-8.7546 -1.7981 2.2153
-8.6874 -2.1072 2.2182
-8.6209 -2.4171 2.2248
-8.5288 -2.7203 2.2283
-8.4211 -3.0183 2.2311
-8.3048 -3.3128 2.2350
-8.1633 -3.5963 2.2355
-8.0081 -3.8721 2.2355
-7.8415 -4.1403 2.2355
-7.6640 -4.4005 2.2355
-7.4761 -4.6523 2.2355
-7.2782 -4.8951 2.2355
-7.0709 -5.1287 2.2355
-6.8546 -5.3525 2.2355
-6.6299 -5.5665 2.2355
-6.3974 -5.7701 2.2355
-6.1576 -5.9632 2.2355
-5.9111 -6.1456 2.2355
-5.6585 -6.3171 2.2355
-5.4002 -6.4774 2.2355
-5.1369 -6.6265 2.2355
-4.8692 -6.7644 2.2355
-4.5976 -6.8908 2.2355
-4.3226 -7.0058 2.2355
-4.0448 -7.1095 2.2355
-3.7647 -7.2017 2.2355
-3.4828 -7.2826 2.2355
-3.1997 -7.3523 2.2355
-2.9158 -7.4108 2.2355
-2.6378 -7.4757 2.2408
-2.4215 -7.7308 2.3060
-2.1977 -8.0070 2.3802
-1.9033 -8.0493 2.3879
-1.6031 -8.0544 2.3879
-1.3050 -8.0485 2.3879
-1.0092 -8.0319 2.3879
-0.7162 -8.0049 2.3879
-0.4262 -7.9677 2.3879
-0.1397 -7.9205 2.3879
0.1431 -7.8636 2.3879
0.4219 -7.7973 2.3879
0.6963 -7.7218 2.3879
0.9661 -7.6374 2.3879
1.2310 -7.5444 2.3879
1.4908 -7.4431 2.3879
1.7453 -7.3337 2.3879
1.9944 -7.2166 2.3879
2.2377 -7.0919 2.3879
2.4751 -6.9601 2.3879
2.7066 -6.8212 2.3879
2.9318 -6.6758 2.3879
3.1507 -6.5239 2.3879
3.3632 -6.3659 2.3879
3.5692 -6.2021 2.3879
3.7685 -6.0326 2.3879
3.9611 -5.8579 2.3879
4.1469 -5.6780 2.3879
4.3257 -5.4933 2.3879
4.4976 -5.3040 2.3879
4.6625 -5.1104 2.3879
4.8204 -4.9126 2.3879
4.9711 -4.7110 2.3879
5.1147 -4.5057 2.3879
5.2511 -4.2970 2.3879
5.3802 -4.0851 2.3879
5.5022 -3.8701 2.3879
5.6169 -3.6524 2.3879
5.7243 -3.4321 2.3879
5.8245 -3.2094 2.3879
5.9173 -2.9845 2.3879
6.0029 -2.7577 2.3879
6.0812 -2.5290 2.3879
6.1522 -2.2987 2.3879
6.2158 -2.0670 2.3879
6.2722 -1.8340 2.3879
6.3213 -1.5999 2.3879
6.3631 -1.3650 2.3879
6.3977 -1.1293 2.3879
6.4249 -0.8930 2.3879
6.4450 -0.6565 2.3879
6.4578 -0.4197 2.3879
6.4633 -0.1829 2.3879
6.4616 0.0539 2.3879
6.4527 0.2903 2.3879
6.4366 0.5263 2.3879
6.4134 0.7617 2.3879
6.3829 0.9963 2.3879
6.3454 1.2300 2.3879
6.3007 1.4625 2.3879
6.2488 1.6938 2.3879
6.1899 1.9236 2.3879
6.1239 2.1519 2.3879
6.0509 2.3783 2.3879
5.9708 2.6029 2.3879
5.8837 2.8253 2.3879
5.7896 3.0454 2.3879
5.6885 3.2631 2.3879
5.5806 3.4781 2.3879
5.4657 3.6903 2.3879
5.3440 3.8995 2.3879
5.2154 4.1055 2.3879
5.0801 4.3081 2.3879
4.9379 4.5072 2.3879
4.7891 4.7025 2.3879
4.6337 4.8939 2.3879
4.4717 5.0811 2.3879
4.3031 5.2639 2.3879
4.1280 5.4422 2.3879
3.9465 5.6157 2.3879
3.7587 5.7842 2.3879
3.5647 5.9475 2.3879
3.3644 6.1050 2.3878
3.1572 6.2555 2.3871
2.9433 6.3978 2.3857
2.7227 6.5316 2.3834
2.4962 6.6564 2.3802
2.2636 6.7715 2.3761
0.8643 2.9343 1.0117
0.7584 2.9657 1.0061
0.6513 2.9934 1.0004
0.5434 3.0171 0.9946
0.4346 3.0370 0.9888
0.3252 3.0528 0.9828
0.2152 3.0647 0.9769
0.1049 3.0726 0.9708
-0.0056 3.0765 0.9648
-0.1162 3.0764 0.9587
-0.2267 3.0723 0.9526
-0.3370 3.0642 0.9464
-0.4469 3.0521 0.9403
-0.5564 3.0360 0.9341
-0.6651 3.0159 0.9280
-0.7731 2.9920 0.9218
-0.8802 2.9641 0.9157
-2.5576 7.6053 2.3593
-2.8481 7.5632 2.3593
-3.1388 7.5103 2.3592
-3.4292 7.4463 2.3592
-3.7189 7.3713 2.3592
-4.0074 7.2849 2.3592
-4.2943 7.1873 2.3592
-4.5791 7.0783 2.3592
-4.8612 6.9579 2.3592
-5.1401 6.8261 2.3593
-5.4153 6.6828 2.3593
-5.6862 6.5281 2.3593
-5.9524 6.3621 2.3593
-6.2132 6.1849 2.3594
-6.4682 5.9965 2.3594
-6.7166 5.7972 2.3594
-6.9580 5.5870 2.3595
-7.1918 5.3663 2.3595
-7.4175 5.1353 2.3596
-7.6344 4.8942 2.3596
-7.8421 4.6435 2.3597
-8.0399 4.3833 2.3598
-8.2224 4.1117 2.3584
-8.3936 3.8317 2.3570
-8.5511 3.5431 2.3549
-8.7039 3.2502 2.3549
-8.8444 2.9502 2.3548
-8.9723 2.6437 2.3548
-9.0872 2.3312 2.3547
-9.1886 2.0134 2.3546
-9.2763 1.6910 2.3545
-9.3501 1.3645 2.3544
-9.4096 1.0346 2.3543
-9.4546 0.7020 2.3542
-9.4851 0.3674 2.3541
-9.5008 0.0316 2.3540
-9.4945 -0.3045 2.3521
-9.4636 -0.6393 2.3477
-9.4398 -0.9743 2.3488
-8.8438 -1.2304 2.2105
-8.7999 -1.5434 2.2130
-8.7433 -1.8546 2.2158
-8.6736 -2.1632 2.2187
-8.6052 -2.4726 2.2254
-8.5103 -2.7750 2.2288
-8.3998 -3.0719 2.2315
-8.2805 -3.3651 2.2353
-8.1359 -3.6471 2.2355
-7.9786 -3.9215 2.2355
-7.8100 -4.1883 2.2355
-7.6306 -4.4470 2.2355
-7.4408 -4.6971 2.2355
-7.2411 -4.9383 2.2355
-7.0321 -5.1702 2.2355
-6.8143 -5.3923 2.2355
-6.5882 -5.6043 2.2355
-6.3543 -5.8061 2.2355
-6.1132 -5.9973 2.2355
-5.8656 -6.1777 2.2355
-5.6118 -6.3471 2.2355
-5.3526 -6.5054 2.2355
-5.0885 -6.6525 2.2355
-4.8200 -6.7882 2.2355
-4.5477 -6.9126 2.2355
-4.2722 -7.0256 2.2355
-3.9939 -7.1271 2.2355
-3.7135 -7.2173 2.2355
-3.4313 -7.2962 2.2355
-3.1480 -7.3638 2.2355
-2.8671 -7.4282 2.2379
-2.5971 -7.5142 2.2502
-2.3816 -7.7802 2.3190
-2.1499 -8.0369 2.3879
-1.8485 -8.0511 2.3879
-1.5487 -8.0541 2.3879
-1.2510 -8.0463 2.3879
-0.9557 -8.0278 2.3879
-0.6631 -7.9989 2.3879
-0.3739 -7.9597 2.3879
-0.0879 -7.9109 2.3879
0.1942 -7.8522 2.3879
0.4722 -7.7842 2.3879
0.7457 -7.7071 2.3879
1.0147 -7.6211 2.3879
1.2787 -7.5266 2.3879
1.5376 -7.4238 2.3879
1.7911 -7.3130 2.3879
2.0391 -7.1944 2.3879
2.2814 -7.0684 2.3879
2.5177 -6.9353 2.3879
2.7480 -6.7952 2.3879
2.9721 -6.6486 2.3879
3.1899 -6.4956 2.3879
3.4012 -6.3365 2.3879
3.6060 -6.1716 2.3879
3.8041 -6.0012 2.3879
3.9954 -5.8255 2.3879
4.1799 -5.6447 2.3879
4.3575 -5.4592 2.3879
4.5282 -5.2691 2.3879
4.6918 -5.0747 2.3879
4.8484 -4.8762 2.3879
4.9978 -4.6739 2.3879
5.1400 -4.4680 2.3879
5.2751 -4.2586 2.3879
5.4030 -4.0462 2.3879
5.5236 -3.8307 2.3879
5.6370 -3.6125 2.3879
5.7431 -3.3917 2.3879
5.8419 -3.1686 2.3879
5.9335 -2.9434 2.3879
6.0177 -2.7161 2.3879
6.0946 -2.4872 2.3879
6.1643 -2.2566 2.3879
6.2267 -2.0246 2.3879
6.2817 -1.7914 2.3879
6.3295 -1.5572 2.3879
6.3700 -1.3221 2.3879
6.4032 -1.0863 2.3879
6.4291 -0.8501 2.3879
6.4478 -0.6134 2.3879
6.4593 -0.3766 2.3879
6.4635 -0.1398 2.3879
6.4606 0.0969 2.3879
6.4503 0.3333 2.3879
6.4329 0.5692 2.3879
6.4084 0.8045 2.3879
6.3766 1.0389 2.3879
6.3378 1.2724 2.3879
6.2917 1.5047 2.3879
6.2386 1.7358 2.3879
6.1784 1.9653 2.3879
6.1111 2.1933 2.3879
6.0368 2.4194 2.3879
5.9554 2.6435 2.3879
5.8671 2.8655 2.3879
5.7717 3.0852 2.3879
5.6694 3.3024 2.3879
5.5602 3.5169 2.3879
5.4440 3.7286 2.3879
5.3211 3.9372 2.3879
5.1913 4.1426 2.3879
-2.6470 -7.3209 2.3879
-2.3691 -7.3625 2.3879
-2.0913 -7.3936 2.3879
-1.8143 -7.4142 2.3879
-1.5383 -7.4245 2.3879
-1.2637 -7.4247 2.3879
-0.9909 -7.4151 2.3879
-0.7204 -7.3957 2.3879
-0.4523 -7.3667 2.3879
-0.1871 -7.3285 2.3879
0.0750 -7.2812 2.3879
0.3336 -7.2250 2.3879
0.5885 -7.1602 2.3879
0.8394 -7.0870 2.3879
1.0861 -7.0056 2.3879
1.3284 -6.9164 2.3879
1.5660 -6.8195 2.3879
1.7987 -6.7152 2.3879
2.0263 -6.6038 2.3879
2.2487 -6.4854 2.3879
2.4657 -6.3604 2.3879
2.6771 -6.2290 2.3879
2.8829 -6.0914 2.3879
3.0828 -5.9479 2.3879
3.2767 -5.7988 2.3879
3.4646 -5.6442 2.3879
3.6464 -5.4845 2.3879
3.8219 -5.3197 2.3879
3.9911 -5.1503 2.3879
4.1539 -4.9763 2.3879
4.3102 -4.7981 2.3879
4.4599 -4.6159 2.3879
4.6031 -4.4298 2.3879
4.7396 -4.2401 2.3879
4.8695 -4.0471 2.3879
4.9926 -3.8508 2.3879
5.1090 -3.6515 2.3879
5.2186 -3.4495 2.3879
5.3215 -3.2449 2.3879
5.4174 -3.0379 2.3879
5.5066 -2.8287 2.3879
5.5889 -2.6174 2.3879
5.6643 -2.4044 2.3879
5.7329 -2.1897 2.3879
5.7946 -1.9735 2.3879
5.8494 -1.7561 2.3879
5.8973 -1.5375 2.3879
5.9384 -1.3180 2.3879
5.9725 -1.0976 2.3879
5.9998 -0.8769 2.3879
6.0203 -0.6555 2.3879
6.0338 -0.4340 2.3879
6.0406 -0.2123 2.3879
6.0405 0.0093 2.3879
6.0335 0.2307 2.3879
6.0198 0.4517 2.3879
5.9992 0.6721 2.3879
5.9719 0.8919 2.3879
5.9378 1.1107 2.3879
5.8969 1.3285 2.3879
5.8493 1.5452 2.3879
5.7950 1.7604 2.3879
5.7340 1.9742 2.3879
5.6663 2.1862 2.3879
5.5919 2.3964 2.3879
5.5110 2.6046 2.3879
5.4235 2.8105 2.3879
5.3294 3.0141 2.3879
5.2288 3.2152 2.3879
5.1216 3.4136 2.3879
5.0081 3.6090 2.3879
4.8881 3.8015 2.3879
4.7618 3.9906 2.3879
4.6291 4.1764 2.3879
4.4902 4.3585 2.3879
4.3450 4.5368 2.3879
4.1938 4.7112 2.3879
4.0364 4.8813 2.3879
3.8730 5.0471 2.3879
3.7037 5.2083 2.3879
3.5285 5.3648 2.3879
3.3475 5.5162 2.3879
3.1608 5.6625 2.3879
2.9685 5.8031 2.3878
2.7702 5.9370 2.3873
2.5658 6.0633 2.3860
2.3558 6.1816 2.3841
2.1404 6.2915 2.3814
0.8132 2.7078 1.0072
0.7154 2.7375 1.0021
0.6166 2.7637 0.9968
0.5168 2.7863 0.9915
0.4164 2.8053 0.9861
0.3153 2.8206 0.9806
0.2137 2.8322 0.9751
0.1117 2.8402 0.9695
0.0095 2.8445 0.9639
-0.0928 2.8451 0.9583
-0.1950 2.8419 0.9526
-0.2970 2.8351 0.9469
-0.3988 2.8245 0.9413
-0.5001 2.8103 0.9356
-0.6008 2.7924 0.9299
-0.7008 2.7709 0.9242
-0.7999 2.7458 0.9186
-0.8981 2.7171 0.9129
-2.5879 6.9818 2.3595
-2.8546 6.9312 2.3595
-3.1208 6.8706 2.3595
-3.3862 6.7998 2.3595
-3.6503 6.7187 2.3595
-3.9127 6.6273 2.3595
-4.1729 6.5256 2.3595
-4.4305 6.4135 2.3595
-4.6851 6.2911 2.3595
-4.9361 6.1583 2.3595
-5.1831 6.0152 2.3595
-5.4255 5.8619 2.3596
-5.6630 5.6985 2.3596
-5.8949 5.5250 2.3596
-6.1209 5.3417 2.3597
-6.3403 5.1487 2.3597
-6.5528 4.9463 2.3597
-6.7578 4.7346 2.3598
-6.9548 4.5138 2.3598
-7.1434 4.2845 2.3599
-7.3230 4.0467 2.3600
-7.4933 3.8009 2.3600
-7.6539 3.5475 2.3601
-7.8041 3.2869 2.3602
-7.9438 3.0194 2.3602
-8.0725 2.7457 2.3603
-8.1898 2.4660 2.3604
-8.2954 2.1810 2.3605
-8.3890 1.8913 2.3606
-8.4703 1.5972 2.3607
-8.5394 1.2996 2.3609
-8.5944 0.9986 2.3607
-8.6375 0.6953 2.3607
-8.6684 0.3901 2.3611
-8.6852 0.0837 2.3612
-8.6889 -0.2234 2.3613
-8.6792 -0.5305 2.3614
-8.6703 -0.8384 2.3653
-8.6410 -1.1450 2.3673
-8.0995 -1.3660 2.2318
-8.0296 -1.6480 2.2288
-7.9660 -1.9306 2.2310
-7.8889 -2.2098 2.2327
-7.8011 -2.4857 2.2349
-7.6965 -2.7556 2.2355
-7.5784 -3.0196 2.2355
-7.4493 -3.2779 2.2355
-7.3096 -3.5300 2.2355
-7.1596 -3.7755 2.2355
-6.9998 -4.0138 2.2355
-6.8304 -4.2447 2.2355
-6.6520 -4.4676 2.2355
-6.4649 -4.6823 2.2355
-6.2697 -4.8884 2.2355
-6.0668 -5.0856 2.2355
-5.8567 -5.2737 2.2355
-5.6398 -5.4524 2.2355
-5.4167 -5.6215 2.2355
-5.1878 -5.7808 2.2355
-4.9537 -5.9301 2.2355
-4.7148 -6.0694 2.2355
-4.4716 -6.1985 2.2355
-4.2247 -6.3174 2.2355
-3.9745 -6.4259 2.2355
-3.7215 -6.5242 2.2355
-3.4707 -6.6208 2.2385
-3.2158 -6.7040 2.2403
-3.0252 -6.9285 2.2922
-2.8310 -7.1695 2.3520
-2.5964 -7.3293 2.3879
-2.3185 -7.3690 2.3879
-2.0408 -7.3981 2.3879
-1.7639 -7.4168 2.3879
-1.4881 -7.4253 2.3879
-1.2139 -7.4237 2.3879
-0.9415 -7.4123 2.3879
-0.6714 -7.3911 2.3879
-0.4038 -7.3605 2.3879
-0.1391 -7.3205 2.3879
0.1223 -7.2716 2.3879
0.3803 -7.2138 2.3879
0.6345 -7.1475 2.3879
0.8847 -7.0728 2.3879
1.1306 -6.9900 2.3879
1.3720 -6.8993 2.3879
1.6087 -6.8011 2.3879
1.8405 -6.6955 2.3879
2.0672 -6.5827 2.3879
2.2886 -6.4631 2.3879
2.5046 -6.3370 2.3879
2.7150 -6.2044 2.3879
2.9197 -6.0657 2.3879
3.1185 -5.9212 2.3879
3.3114 -5.7710 2.3879
3.4982 -5.6155 2.3879
3.6788 -5.4548 2.3879
3.8532 -5.2892 2.3879
4.0212 -5.1189 2.3879
4.1828 -4.9442 2.3879
4.3379 -4.7653 2.3879
4.4865 -4.5823 2.3879
4.6284 -4.3956 2.3879
4.7638 -4.2052 2.3879
4.8924 -4.0116 2.3879
5.0143 -3.8147 2.3879
5.1295 -3.6150 2.3879
5.2379 -3.4124 2.3879
5.3394 -3.2074 2.3879
5.4342 -2.9999 2.3879
5.5221 -2.7904 2.3879
5.6031 -2.5788 2.3879
5.6773 -2.3654 2.3879
5.7446 -2.1504 2.3879
5.8051 -1.9340 2.3879
5.8586 -1.7164 2.3879
5.9053 -1.4976 2.3879
5.9451 -1.2779 2.3879
5.9780 -1.0575 2.3879
6.0041 -0.8366 2.3879
6.0233 -0.6152 2.3879
6.0356 -0.3936 2.3879
6.0411 -0.1719 2.3879
6.0397 0.0496 2.3879
6.0315 0.2710 2.3879
6.0165 0.4919 2.3879
5.9947 0.7122 2.3879
5.9662 0.9318 2.3879
5.9308 1.1505 2.3879
5.8887 1.3681 2.3879
5.8399 1.5845 2.3879
5.7844 1.7995 2.3879
5.7221 2.0129 2.3879
5.6532 2.2246 2.3879
5.5777 2.4345 2.3879
5.4956 2.6422 2.3879
5.4068 2.8478 2.3879
5.3115 3.0509 2.3879
5.2097 3.2515 2.3879
5.1014 3.4494 2.3879
4.9867 3.6443 2.3879
4.8656 3.8361 2.3879
4.7381 4.0247 2.3879
4.6043 4.2098 2.3879
4.4642 4.3913 2.3879
4.3180 4.5689 2.3879
4.1655 4.7425 2.3879
4.0071 4.9119 2.3879
3.8426 5.0768 2.3879
3.6722 5.2372 2.3879
3.4959 5.3927 2.3879
3.3139 5.5432 2.3879
3.1263 5.6885 2.3879
2.9328 5.8280 2.3878
2.7334 5.9605 2.3871
2.5280 6.0854 2.3857
2.3170 6.2022 2.3837
2.1006 6.3106 2.3809
0.7955 2.7134 1.0063
0.6975 2.7425 1.0011
0.5985 2.7681 0.9958
0.4986 2.7900 0.9905
0.3980 2.8083 0.9851
0.2968 2.8230 0.9796
0.1951 2.8340 0.9741
0.0931 2.8413 0.9685
-0.0091 2.8449 0.9629
-0.1114 2.8448 0.9573
-0.2136 2.8409 0.9516
-0.3156 2.8334 0.9459
-0.4173 2.8222 0.9402
-0.5185 2.8073 0.9345
-0.6191 2.7888 0.9288
-0.7189 2.7666 0.9232
-0.8179 2.7409 0.9175
-0.9159 2.7115 0.9119
-2.6365 6.9733 2.3595
-2.9031 6.9209 2.3595
-3.1692 6.8584 2.3595
-3.4344 6.7858 2.3595
-3.6982 6.7028 2.3595
-3.9602 6.6096 2.3595
-4.2200 6.5060 2.3595
-4.4771 6.3920 2.3595
-4.7311 6.2677 2.3595
-4.9814 6.1330 2.3595
-5.2276 5.9881 2.3595
-5.4691 5.8329 2.3596
-5.7056 5.6677 2.3596
-5.9365 5.4924 2.3596
-6.1613 5.3073 2.3597
-6.3795 5.1126 2.3597
-6.5907 4.9084 2.3598
-6.7942 4.6950 2.3598
-6.9898 4.4727 2.3599
-7.1768 4.2418 2.3599
-7.3548 4.0025 2.3600
-7.5233 3.7553 2.3600
-7.6820 3.5006 2.3601
-7.8304 3.2387 2.3602
-7.9681 2.9700 2.3603
-8.0947 2.6952 2.3603
-8.2099 2.4145 2.3604
-8.3133 2.1286 2.3605
-8.4047 1.8380 2.3606
-8.4837 1.5433 2.3607
-8.5504 1.2446 2.3608
-8.6032 0.9435 2.3607
-8.6440 0.6398 2.3608
-8.6724 0.3344 2.3611
-8.6869 0.0278 2.3612
-8.6881 -0.2794 2.3613
-8.6761 -0.5864 2.3614
-8.6659 -0.8943 2.3656
-8.5806 -1.1932 2.3529
-8.0724 -1.4149 2.2270
-8.0191 -1.6996 2.2292
-7.9530 -1.9817 2.2313
-7.8733 -2.2602 2.2330
-7.7832 -2.5353 2.2351
-7.6759 -2.8041 2.2355
-7.5557 -3.0671 2.2355
-7.4247 -3.3243 2.2355
-7.2831 -3.5752 2.2355
-7.1312 -3.8194 2.2355
-6.9696 -4.0564 2.2355
-6.7986 -4.2859 2.2355
-6.6185 -4.5073 2.2355
-6.4300 -4.7205 2.2355
-6.2333 -4.9250 2.2355
-6.0291 -5.1206 2.2355
-5.8177 -5.3070 2.2355
-5.5996 -5.4839 2.2355
-5.3754 -5.6512 2.2355
-5.1455 -5.8087 2.2355
-4.9105 -5.9562 2.2355
-4.6708 -6.0937 2.2355
-4.4269 -6.2209 2.2355
-4.1794 -6.3379 2.2355
-3.9286 -6.4446 2.2355
-3.6751 -6.5410 2.2355
-3.4194 -6.6270 2.2355
-3.1795 -6.7399 2.2479
-2.9904 -6.9717 2.3027
-2.7948 -7.2143 2.3635
-2.5458 -7.3373 2.3879
-2.2679 -7.3750 2.3879
-1.9904 -7.4023 2.3879
-1.7136 -7.4191 2.3879
-1.4381 -7.4258 2.3879
-1.1641 -7.4224 2.3879
-0.8917 -7.4096 2.3879
-0.6224 -7.3862 2.3879
-0.3554 -7.3539 2.3879
-0.0913 -7.3123 2.3879
0.1696 -7.2617 2.3879
0.4269 -7.2024 2.3879
0.6804 -7.1345 2.3879
0.9298 -7.0583 2.3879
1.1749 -6.9741 2.3879
1.4155 -6.8820 2.3879
1.6513 -6.7824 2.3879
1.8822 -6.6754 2.3879
2.1079 -6.5615 2.3879
2.3284 -6.4406 2.3879
2.5433 -6.3133 2.3879
2.7527 -6.1796 2.3879
2.9563 -6.0399 2.3879
3.1541 -5.8943 2.3879
3.3459 -5.7431 2.3879
3.5316 -5.5866 2.3879
3.7110 -5.4250 2.3879
3.8843 -5.2585 2.3879
4.0511 -5.0874 2.3879
4.2115 -4.9119 2.3879
4.3655 -4.7322 2.3879
4.5128 -4.5486 2.3879
4.6536 -4.3612 2.3879
4.7877 -4.1702 2.3879
4.9151 -3.9760 2.3879
5.0358 -3.7786 2.3879
5.1497 -3.5783 2.3879
5.2569 -3.3753 2.3879
5.3572 -3.1698 2.3879
5.4507 -2.9619 2.3879
5.5374 -2.7520 2.3879
5.6172 -2.5401 2.3879
5.6901 -2.3264 2.3879
5.7562 -2.1111 2.3879
5.8153 -1.8945 2.3879
5.8676 -1.6766 2.3879
5.9131 -1.4577 2.3879
5.9516 -1.2379 2.3879
5.9833 -1.0173 2.3879
6.0081 -0.7963 2.3879
6.0260 -0.5749 2.3879
6.0371 -0.3533 2.3879
6.0413 -0.1316 2.3879
6.0387 0.0900 2.3879
6.0293 0.3112 2.3879
6.0131 0.5320 2.3879
5.9900 0.7522 2.3879
5.9602 0.9717 2.3879
5.9237 1.1902 2.3879
5.8803 1.4076 2.3879
5.8303 1.6237 2.3879
5.7735 1.8385 2.3879
5.7101 2.0516 2.3879
5.6400 2.2630 2.3879
5.5632 2.4724 2.3879
5.4799 2.6798 2.3879
5.3900 2.8850 2.3879
5.2935 3.0877 2.3879
5.1905 3.2878 2.3879
5.0810 3.4851 2.3879
4.9651 3.6795 2.3879
4.8428 3.8707 2.3879
-2.4577 -6.7706 2.3879
-2.2016 -6.8121 2.3879
-1.9455 -6.8439 2.3879
-1.6898 -6.8661 2.3879
-1.4348 -6.8787 2.3879
-1.1809 -6.8820 2.3879
-0.9285 -6.8761 2.3879
-0.6778 -6.8611 2.3879
-0.4293 -6.8373 2.3879
-0.1832 -6.8048 2.3879
0.0602 -6.7638 2.3879
0.3006 -6.7145 2.3879
0.5377 -6.6571 2.3879
0.7714 -6.5919 2.3879
1.0013 -6.5189 2.3879
1.2273 -6.4385 2.3879
1.4490 -6.3509 2.3879
1.6664 -6.2563 2.3879
1.8793 -6.1548 2.3879
2.0874 -6.0469 2.3879
2.2906 -5.9325 2.3879
2.4887 -5.8121 2.3879
2.6817 -5.6858 2.3879
2.8693 -5.5538 2.3879
3.0514 -5.4164 2.3879
3.2281 -5.2738 2.3879
3.3990 -5.1262 2.3879
3.5642 -4.9738 2.3879
3.7235 -4.8169 2.3879
3.8769 -4.6556 2.3879
4.0243 -4.4902 2.3879
4.1656 -4.3208 2.3879
4.3007 -4.1478 2.3879
4.4297 -3.9712 2.3879
4.5525 -3.7913 2.3879
4.6689 -3.6083 2.3879
4.7790 -3.4224 2.3879
4.8828 -3.2338 2.3879
4.9802 -3.0426 2.3879
5.0712 -2.8491 2.3879
5.1557 -2.6534 2.3879
5.2338 -2.4558 2.3879
5.3054 -2.2563 2.3879
5.3705 -2.0552 2.3879
5.4291 -1.8526 2.3879
5.4813 -1.6488 2.3879
5.5269 -1.4438 2.3879
5.5660 -1.2379 2.3879
5.5986 -1.0312 2.3879
5.6247 -0.8240 2.3879
5.6442 -0.6162 2.3879
5.6573 -0.4082 2.3879
5.6639 -0.2001 2.3879
5.6640 0.0080 2.3879
5.6576 0.2159 2.3879
5.6447 0.4234 2.3879
5.6254 0.6304 2.3879
5.5997 0.8367 2.3879
5.5675 1.0422 2.3879
5.5289 1.2467 2.3879
5.4840 1.4501 2.3879
5.4327 1.6521 2.3879
5.3750 1.8526 2.3879
5.3110 2.0515 2.3879
5.2408 2.2486 2.3879
5.1643 2.4438 2.3879
5.0815 2.6368 2.3879
4.9926 2.8275 2.3879
4.8975 3.0158 2.3879
4.7962 3.2014 2.3879
4.6890 3.3842 2.3879
4.5756 3.5641 2.3879
4.4563 3.7408 2.3879
4.3311 3.9142 2.3879
4.2000 4.0842 2.3879
4.0631 4.2504 2.3879
3.9204 4.4128 2.3879
3.7721 4.5711 2.3879
3.6181 4.7252 2.3879
3.4586 4.8749 2.3879
3.2937 5.0200 2.3879
3.1235 5.1604 2.3879
2.9480 5.2957 2.3879
2.7673 5.4259 2.3879
2.5815 5.5503 2.3878
2.3903 5.6682 2.3872
2.1939 5.7789 2.3861
0.8417 2.4847 1.0072
0.7519 2.5156 1.0025
0.6610 2.5432 0.9976
0.5692 2.5675 0.9928
0.4765 2.5885 0.9878
0.3832 2.6061 0.9828
0.2892 2.6203 0.9777
0.1948 2.6311 0.9726
0.1001 2.6385 0.9674
0.0051 2.6425 0.9622
-0.0899 2.6430 0.9570
-0.1849 2.6401 0.9517
-0.2797 2.6337 0.9464
-0.3742 2.6239 0.9411
-0.4683 2.6107 0.9359
-0.5619 2.5941 0.9306
-0.6548 2.5741 0.9253
-0.7469 2.5508 0.9201
-0.8381 2.5241 0.9148
-0.9283 2.4942 0.9096
-2.6542 6.4202 2.3597
-2.8996 6.3612 2.3597
-3.1440 6.2928 2.3597
-3.3869 6.2150 2.3597
-3.6281 6.1277 2.3597
-3.8671 6.0310 2.3597
-4.1035 5.9248 2.3597
-4.3369 5.8091 2.3597
-4.5667 5.6840 2.3597
-4.7927 5.5495 2.3597
-5.0144 5.4058 2.3598
-5.2313 5.2529 2.3598
-5.4430 5.0909 2.3598
-5.6490 4.9200 2.3598
-5.8489 4.7403 2.3599
-6.0423 4.5521 2.3599
-6.2288 4.3556 2.3600
-6.4078 4.1511 2.3600
-6.5791 3.9387 2.3601
-6.7421 3.7188 2.3601
-6.8965 3.4918 2.3602
-7.0419 3.2579 2.3603
-7.1780 3.0176 2.3603
-7.3043 2.7713 2.3604
-7.4206 2.5193 2.3605
-7.5265 2.2621 2.3605
-7.6218 2.0001 2.3606
-7.7061 1.7339 2.3607
-7.7793 1.4639 2.3608
-7.8412 1.1906 2.3609
-7.8915 0.9146 2.3610
-7.9301 0.6365 2.3611
-7.9569 0.3566 2.3611
-7.9718 0.0757 2.3612
-7.9855 -0.2061 2.3645
-7.9972 -0.4892 2.3708
-7.9932 -0.7728 2.3760
-7.9698 -1.0556 2.3790
-7.9304 -1.3366 2.3808
-7.6019 -1.5589 2.2989
-7.3255 -1.7738 2.2350
-7.2512 -2.0292 2.2354
-7.1650 -2.2806 2.2355
-7.0680 -2.5278 2.2355
-6.9608 -2.7704 2.2355
-6.8436 -3.0078 2.2355
-6.7168 -3.2397 2.2355
-6.5806 -3.4657 2.2355
-6.4354 -3.6853 2.2355
-6.2815 -3.8981 2.2355
-6.1193 -4.1040 2.2355
-5.9492 -4.3024 2.2355
-5.7716 -4.4931 2.2355
-5.5869 -4.6758 2.2355
-5.3955 -4.8503 2.2355
-5.1978 -5.0164 2.2355
-4.9943 -5.1737 2.2355
-4.7854 -5.3223 2.2355
-4.5716 -5.4619 2.2355
-4.3532 -5.5923 2.2355
-4.1308 -5.7135 2.2355
-3.9048 -5.8254 2.2355
-3.7231 -6.0045 2.2644
-3.5549 -6.2158 2.3078
-3.3816 -6.4326 2.3555
-3.1758 -6.6005 2.3879
-2.9220 -6.6699 2.3879
-2.6669 -6.7294 2.3879
-2.4111 -6.7789 2.3879
-2.1550 -6.8186 2.3879
-1.8989 -6.8486 2.3879
-1.6433 -6.8691 2.3879
-1.3884 -6.8800 2.3879
-1.1348 -6.8816 2.3879
-0.8827 -6.8740 2.3879
-0.6324 -6.8575 2.3879
-0.3843 -6.8320 2.3879
-0.1387 -6.7980 2.3879
0.1042 -6.7555 2.3879
0.3440 -6.7047 2.3879
0.5806 -6.6458 2.3879
0.8136 -6.5792 2.3879
1.0427 -6.5048 2.3879
1.2680 -6.4231 2.3879
1.4889 -6.3342 2.3879
1.7055 -6.2383 2.3879
1.9175 -6.1357 2.3879
2.1247 -6.0265 2.3879
2.3270 -5.9111 2.3879
2.5242 -5.7895 2.3879
2.7162 -5.6622 2.3879
2.9029 -5.5292 2.3879
3.0840 -5.3908 2.3879
3.2596 -5.2473 2.3879
3.4295 -5.0988 2.3879
3.5936 -4.9456 2.3879
3.7519 -4.7878 2.3879
3.9042 -4.6258 2.3879
4.0505 -4.4596 2.3879
4.1906 -4.2896 2.3879
4.3247 -4.1159 2.3879
4.4525 -3.9387 2.3879
4.5741 -3.7583 2.3879
4.6894 -3.5747 2.3879
4.7984 -3.3883 2.3879
4.9010 -3.1992 2.3879
4.9972 -3.0076 2.3879
5.0870 -2.8136 2.3879
5.1704 -2.6176 2.3879
5.2473 -2.4196 2.3879
5.3177 -2.2198 2.3879
5.3817 -2.0184 2.3879
5.4391 -1.8156 2.3879
5.4901 -1.6115 2.3879
5.5345 -1.4064 2.3879
5.5724 -1.2003 2.3879
5.6038 -0.9935 2.3879
5.6287 -0.7862 2.3879
5.6471 -0.5784 2.3879
5.6590 -0.3703 2.3879
5.6644 -0.1622 2.3879
5.6633 0.0459 2.3879
5.6557 0.2537 2.3879
5.6417 0.4611 2.3879
5.6212 0.6680 2.3879
5.5943 0.8742 2.3879
5.5610 1.0796 2.3879
5.5212 1.2838 2.3879
5.4751 1.4870 2.3879
5.4226 1.6887 2.3879
5.3638 1.8890 2.3879
5.2987 2.0876 2.3879
5.2273 2.2843 2.3879
5.1497 2.4791 2.3879
5.0658 2.6717 2.3879
4.9757 2.8620 2.3879
4.8795 3.0498 2.3879
4.7772 3.2349 2.3879
4.6688 3.4172 2.3879
4.5544 3.5965 2.3879
4.4340 3.7727 2.3879
4.3077 3.9455 2.3879
4.1755 4.1147 2.3879
4.0375 4.2802 2.3879
3.8938 4.4419 2.3879
3.7445 4.5995 2.3879
3.5895 4.7528 2.3879
3.4290 4.9017 2.3879
3.2631 5.0460 2.3879
3.0919 5.1854 2.3879
2.9154 5.3198 2.3879
2.7339 5.4490 2.3879
2.5470 5.5723 2.3877
2.3549 5.6889 2.3871
2.1576 5.7982 2.3858
0.8254 2.4905 1.0063
0.7354 2.5208 1.0016
0.6443 2.5478 0.9968
0.5524 2.5716 0.9919
0.4596 2.5919 0.9869
0.3661 2.6089 0.9819
0.2721 2.6225 0.9768
0.1776 2.6327 0.9716
0.0828 2.6395 0.9665
-0.0122 2.6428 0.9613
-0.1072 2.6427 0.9560
-0.2021 2.6392 0.9507
-0.2969 2.6322 0.9455
-0.3914 2.6217 0.9402
-0.4854 2.6079 0.9349
-0.5789 2.5907 0.9296
-0.6716 2.5701 0.9244
-0.7636 2.5461 0.9191
-0.8546 2.5189 0.9139
-0.9446 2.4884 0.9087
-2.6989 6.4102 2.3597
-2.9442 6.3494 2.3597
-3.1883 6.2793 2.3597
-3.4310 6.1998 2.3597
-3.6718 6.1108 2.3597
-3.9104 6.0123 2.3597
-4.1462 5.9044 2.3597
-4.3790 5.7870 2.3597
-4.6082 5.6602 2.3597
-4.8334 5.5241 2.3597
-5.0543 5.3786 2.3598
-5.2702 5.2240 2.3598
-5.4809 5.0604 2.3598
-5.6859 4.8879 2.3599
-5.8847 4.7067 2.3599
-6.0768 4.5170 2.3599
-6.2619 4.3190 2.3600
-6.4396 4.1130 2.3600
-6.6094 3.8992 2.3601
-6.7709 3.6780 2.3601
-6.9237 3.4497 2.3602
-7.0674 3.2147 2.3603
-7.2017 2.9732 2.3603
-7.3262 2.7258 2.3604
-7.4406 2.4728 2.3605
-7.5446 2.2147 2.3606
-7.6379 1.9519 2.3606
-7.7203 1.6850 2.3607
-7.7915 1.4144 2.3608
-7.8512 1.1406 2.3609
-7.8994 0.8641 2.3610
-7.9359 0.5856 2.3611
-7.9605 0.3055 2.3612
-7.9732 0.0244 2.3613
-7.9887 -0.2575 2.3657
-7.9975 -0.5408 2.3717
-7.9907 -0.8245 2.3768
-7.9636 -1.1069 2.3794
-7.9220 -1.3876 2.3812
-7.5372 -1.5962 2.2827
-7.3130 -1.8206 2.2351
-7.2364 -2.0753 2.2355
-7.1481 -2.3260 2.2355
-7.0492 -2.5724 2.2355
-6.9402 -2.8140 2.2355
-6.8212 -3.0505 2.2355
-6.6926 -3.2813 2.2355
-6.5548 -3.5061 2.2355
-6.4080 -3.7246 2.2355
-6.2525 -3.9362 2.2355
-6.0889 -4.1406 2.2355
-5.9174 -4.3377 2.2355
-5.7385 -4.5270 2.2355
-5.5525 -4.7082 2.2355
-5.3599 -4.8812 2.2355
-5.1612 -5.0457 2.2355
-4.9566 -5.2015 2.2355
-4.7468 -5.3484 2.2355
-4.5321 -5.4863 2.2355
-4.3130 -5.6150 2.2355
-4.0899 -5.7346 2.2355
-3.8644 -5.8448 2.2358
-3.6928 -6.0426 2.2720
-3.5238 -6.2548 2.3161
-3.3495 -6.4727 2.3647
-3.1297 -6.6139 2.3879
-2.8756 -6.6815 2.3879
-2.6204 -6.7391 2.3879
-2.3645 -6.7869 2.3879
-2.1083 -6.8248 2.3879
-1.8523 -6.8531 2.3879
-1.5968 -6.8718 2.3879
-1.3420 -6.8812 2.3879
-1.0888 -6.8809 2.3879
-0.8370 -6.8717 2.3879
-0.5871 -6.8535 2.3879
-0.3394 -6.8265 2.3879
-0.0942 -6.7909 2.3879
0.1481 -6.7468 2.3879
0.3873 -6.6946 2.3879
0.6233 -6.6343 2.3879
0.8556 -6.5662 2.3879
1.0841 -6.4905 2.3879
1.3085 -6.4074 2.3879
1.5287 -6.3172 2.3879
1.7445 -6.2201 2.3879
1.9556 -6.1163 2.3879
2.1619 -6.0059 2.3879
2.3633 -5.8894 2.3879
2.5596 -5.7668 2.3879
2.7506 -5.6384 2.3879
2.9363 -5.5044 2.3879
3.1164 -5.3651 2.3879
3.2910 -5.2206 2.3879
3.4598 -5.0712 2.3879
3.6229 -4.9172 2.3879
3.7800 -4.7586 2.3879
3.9313 -4.5958 2.3879
4.0764 -4.4290 2.3879
4.2155 -4.2582 2.3879
