ply
format ascii 1.0
element vertex 2171
property float32 x
property float32 y
property float32 z
end_header
4.3624 7.2098 2.3874
4.1003 7.3617 2.3874
3.8330 7.5042 2.3874
3.5607 7.6369 2.3874
3.2839 7.7598 2.3874
3.0028 7.8727 2.3874
2.7179 7.9754 2.3874
2.4294 8.0678 2.3874
0.8508 3.2433 0.9501
0.7337 3.2722 0.9502
0.6157 3.2969 0.9504
0.4969 3.3172 0.9505
0.3774 3.3333 0.9506
0.2574 3.3450 0.9507
0.1370 3.3524 0.9508
0.0164 3.3553 0.9508
-0.1042 3.3539 0.9509
-0.2247 3.3481 0.9509
-0.3449 3.3380 0.9509
-0.4647 3.3235 0.9510
-0.5838 3.3046 0.9510
-0.7022 3.2814 0.9509
-0.8197 3.2540 0.9509
-2.3502 8.0903 2.3874
-2.6395 8.0006 2.3874
-2.9253 7.9006 2.3874
-3.2075 7.7904 2.3874
-3.4854 7.6702 2.3874
-3.7589 7.5400 2.3874
-4.0275 7.4001 2.3874
-4.2910 7.2507 2.3874
-4.5488 7.0919 2.3874
-4.8009 6.9239 2.3874
-5.0467 6.7470 2.3874
-5.2860 6.5613 2.3874
-5.5186 6.3672 2.3874
-5.7439 6.1649 2.3874
-5.9619 5.9546 2.3874
-6.1722 5.7365 2.3874
-6.3746 5.5111 2.3874
-6.5687 5.2786 2.3874
-6.7543 5.0392 2.3874
-6.9313 4.7933 2.3874
-7.0992 4.5412 2.3874
-7.2581 4.2832 2.3874
-7.4075 4.0197 2.3874
-7.5474 3.7510 2.3874
-7.6776 3.4774 2.3874
-7.7979 3.1993 2.3874
-7.9081 2.9170 2.3874
-8.0080 2.6310 2.3874
-8.0977 2.3416 2.3874
-8.1769 2.0491 2.3874
-8.2455 1.7539 2.3874
-8.3035 1.4565 2.3874
-8.3508 1.1572 2.3874
-8.3873 0.8563 2.3874
-8.4129 0.5543 2.3874
-8.4277 0.2516 2.3874
-8.4316 -0.0514 2.3874
-8.4246 -0.3544 2.3874
-8.4068 -0.6570 2.3874
-8.3780 -0.9588 2.3874
-8.3385 -1.2593 2.3874
-8.2881 -1.5582 2.3874
-8.2270 -1.8552 2.3874
-8.1554 -2.1497 2.3874
-8.0731 -2.4415 2.3874
-7.9805 -2.7302 2.3874
-7.8775 -3.0153 2.3874
-7.7643 -3.2966 2.3874
-7.6411 -3.5737 2.3874
-7.5080 -3.8461 2.3874
-7.3651 -4.1136 2.3874
-7.2128 -4.3758 2.3874
-7.0511 -4.6323 2.3874
-6.8803 -4.8829 2.3874
-6.7006 -5.1272 2.3874
-6.5122 -5.3649 2.3874
-6.3154 -5.5956 2.3874
-6.1104 -5.8191 2.3874
-5.8975 -6.0352 2.3874
-5.6770 -6.2434 2.3874
-5.4491 -6.4436 2.3874
-5.2141 -6.6354 2.3874
-4.9724 -6.8187 2.3874
-4.7243 -6.9932 2.3874
-4.4700 -7.1586 2.3874
-4.2100 -7.3148 2.3874
-3.9445 -7.4616 2.3874
-3.6739 -7.5987 2.3874
-3.3985 -7.7259 2.3874
-3.1187 -7.8432 2.3874
-2.8349 -7.9504 2.3874
-2.5474 -8.0473 2.3874
-2.2566 -8.1338 2.3874
-1.9628 -8.2097 2.3874
-1.6665 -8.2751 2.3874
-1.3681 -8.3297 2.3874
-1.0679 -8.3736 2.3874
-0.7662 -8.4067 2.3874
-0.4637 -8.4289 2.3874
-0.1605 -8.4401 2.3874
0.1430 -8.4405 2.3874
0.4462 -8.4300 2.3874
0.7489 -8.4085 2.3874
1.0506 -8.3762 2.3874
1.3509 -8.3330 2.3874
1.6495 -8.2791 2.3874
-5.3119 -5.6656 2.3874
-5.1050 -5.8530 2.3874
-4.8915 -6.0328 2.3874
-4.6717 -6.2049 2.3874
-4.4458 -6.3689 2.3874
-4.2141 -6.5247 2.3874
-3.9770 -6.6721 2.3874
-3.7347 -6.8109 2.3874
-3.4876 -6.9408 2.3874
-3.2360 -7.0618 2.3874
-2.9802 -7.1737 2.3874
-2.7205 -7.2763 2.3874
-2.4573 -7.3695 2.3874
-2.1909 -7.4531 2.3874
-1.9217 -7.5272 2.3874
-1.6500 -7.5915 2.3874
-1.3761 -7.6460 2.3874
-1.1005 -7.6906 2.3874
-0.8234 -7.7252 2.3874
-0.5452 -7.7499 2.3874
-0.2664 -7.7645 2.3874
0.0128 -7.7691 2.3874
0.2920 -7.7637 2.3874
0.5709 -7.7482 2.3874
0.8489 -7.7227 2.3874
1.1259 -7.6872 2.3874
1.4014 -7.6418 2.3874
1.6752 -7.5865 2.3874
1.9467 -7.5214 2.3874
2.2157 -7.4466 2.3874
2.4819 -7.3621 2.3874
2.7449 -7.2681 2.3874
3.0043 -7.1647 2.3874
3.2598 -7.0521 2.3874
3.5111 -6.9303 2.3874
3.7578 -6.7996 2.3874
3.9997 -6.6601 2.3874
4.2364 -6.5119 2.3874
4.4676 -6.3554 2.3874
4.6931 -6.1907 2.3874
4.9124 -6.0179 2.3874
5.1254 -5.8374 2.3874
5.3318 -5.6493 2.3874
5.5313 -5.4540 2.3874
5.7236 -5.2515 2.3874
5.9085 -5.0424 2.3874
6.0858 -4.8266 2.3874
6.2551 -4.6047 2.3874
6.4164 -4.3768 2.3874
6.5694 -4.1433 2.3874
6.7139 -3.9044 2.3874
6.8497 -3.6605 2.3874
6.9766 -3.4119 2.3874
7.0945 -3.1589 2.3874
7.2033 -2.9018 2.3874
7.3027 -2.6410 2.3874
7.3927 -2.3768 2.3874
7.4731 -2.1095 2.3874
7.5438 -1.8395 2.3874
7.6048 -1.5671 2.3874
7.6560 -1.2928 2.3874
7.6973 -1.0168 2.3874
7.7286 -0.7394 2.3874
7.7499 -0.4612 2.3874
7.7612 -0.1823 2.3874
7.7625 0.0967 2.3874
7.7538 0.3756 2.3874
7.7350 0.6540 2.3874
7.7062 0.9315 2.3874
7.6675 1.2079 2.3874
7.6189 1.4826 2.3874
7.5604 1.7554 2.3874
7.4922 2.0259 2.3874
7.4143 2.2938 2.3874
7.3268 2.5587 2.3874
7.2299 2.8203 2.3874
7.1236 3.0782 2.3874
7.0081 3.3321 2.3874
6.8836 3.5817 2.3874
6.7502 3.8267 2.3874
6.6081 4.0667 2.3874
6.4575 4.3014 2.3874
6.2985 4.5306 2.3874
6.1314 4.7539 2.3874
5.9564 4.9711 2.3874
5.7737 5.1818 2.3874
5.5836 5.3858 2.3874
5.3863 5.5829 2.3874
5.1820 5.7727 2.3874
4.9710 5.9550 2.3874
4.7537 6.1297 2.3874
4.5302 6.2964 2.3874
4.3008 6.4550 2.3874
4.0660 6.6053 2.3874
3.8258 6.7470 2.3874
3.5808 6.8800 2.3874
3.3311 7.0041 2.3874
3.0772 7.1192 2.3874
2.8193 7.2251 2.3874
2.5577 7.3216 2.3874
0.9115 2.9454 0.9491
0.8052 2.9767 0.9493
0.6978 3.0041 0.9494
0.5894 3.0276 0.9495
0.4803 3.0471 0.9496
0.3705 3.0627 0.9498
0.2602 3.0743 0.9498
0.1495 3.0819 0.9499
0.0387 3.0855 0.9500
-0.0723 3.0850 0.9500
-0.1831 3.0805 0.9501
-0.2937 3.0720 0.9501
-0.4040 3.0595 0.9501
-0.5137 3.0430 0.9501
-0.6227 3.0226 0.9501
-0.7309 2.9982 0.9501
-0.8382 2.9699 0.9500
-2.3732 7.3826 2.3874
-2.6370 7.2925 2.3874
-2.8974 7.1931 2.3874
-3.1541 7.0843 2.3874
-3.4067 6.9665 2.3874
-3.6550 6.8396 2.3874
-3.8985 6.7039 2.3874
-4.1370 6.5595 2.3874
-4.3701 6.4066 2.3874
-4.5976 6.2455 2.3874
-4.8192 6.0763 2.3874
-5.0346 5.8993 2.3874
-5.2435 5.7146 2.3874
-5.4456 5.5226 2.3874
-5.6407 5.3234 2.3874
-5.8285 5.1173 2.3874
-6.0088 4.9046 2.3874
-6.1813 4.6856 2.3874
-6.3459 4.4605 2.3874
-6.5023 4.2296 2.3874
-6.6502 3.9933 2.3874
-6.7896 3.7518 2.3874
-6.9203 3.5055 2.3874
-7.0420 3.2545 2.3874
-7.1546 2.9994 2.3874
-7.2580 2.7404 2.3874
-7.3520 2.4778 2.3874
-7.4366 2.2121 2.3874
-7.5115 1.9434 2.3874
-7.5768 1.6722 2.3874
-7.6322 1.3989 2.3874
-7.6778 1.1237 2.3874
-7.7134 0.8471 2.3874
-7.7392 0.5693 2.3874
-7.7549 0.2908 2.3874
-7.7606 0.0119 2.3874
-7.7563 -0.2670 2.3874
-7.7419 -0.5456 2.3874
-7.7176 -0.8235 2.3874
-7.6832 -1.1004 2.3874
-7.6390 -1.3758 2.3874
-7.5849 -1.6496 2.3874
-7.5209 -1.9212 2.3874
-7.4473 -2.1903 2.3874
-7.3640 -2.4566 2.3874
-7.2712 -2.7198 2.3874
-7.1690 -2.9795 2.3874
-7.0575 -3.2353 2.3874
-6.9369 -3.4870 2.3874
-6.8073 -3.7341 2.3874
-6.6689 -3.9765 2.3874
-6.5219 -4.2137 2.3874
-6.3665 -4.4455 2.3874
-6.2028 -4.6716 2.3874
-6.0311 -4.8917 2.3874
-5.8516 -5.1054 2.3874
-5.6645 -5.3126 2.3874
-5.4700 -5.5129 2.3874
-5.2685 -5.7060 2.3874
-5.0602 -5.8918 2.3874
-4.8453 -6.0701 2.3874
-4.6241 -6.2404 2.3874
-4.3970 -6.4027 2.3874
-4.1641 -6.5568 2.3874
-3.9259 -6.7023 2.3874
-3.6826 -6.8392 2.3874
-3.4345 -6.9673 2.3874
-3.1820 -7.0864 2.3874
-2.9253 -7.1963 2.3874
-2.6648 -7.2969 2.3874
-2.4009 -7.3881 2.3874
-2.1339 -7.4697 2.3874
-1.8641 -7.5417 2.3874
-1.5919 -7.6039 2.3874
-1.3176 -7.6563 2.3874
-1.0416 -7.6988 2.3874
-0.7643 -7.7313 2.3874
-0.4860 -7.7538 2.3874
-0.2070 -7.7664 2.3874
0.0722 -7.7688 2.3874
0.3514 -7.7613 2.3874
0.6301 -7.7436 2.3874
0.9079 -7.7160 2.3874
1.1846 -7.6784 2.3874
1.4598 -7.6309 2.3874
1.7331 -7.5735 2.3874
2.0041 -7.5063 2.3874
2.2726 -7.4294 2.3874
2.5381 -7.3429 2.3874
2.8003 -7.2469 2.3874
3.0589 -7.1415 2.3874
3.3136 -7.0269 2.3874
3.5639 -6.9033 2.3874
3.8097 -6.7707 2.3874
4.0505 -6.6293 2.3874
4.2860 -6.4794 2.3874
4.5161 -6.3211 2.3874
4.7402 -6.1546 2.3874
4.9583 -5.9802 2.3874
5.1699 -5.7980 2.3874
5.3748 -5.6084 2.3874
5.5728 -5.4115 2.3874
5.7635 -5.2076 2.3874
5.9469 -4.9969 2.3874
6.1224 -4.7800 2.3874
6.2901 -4.5568 2.3874
6.4497 -4.3276 2.3874
6.6008 -4.0930 2.3874
6.7435 -3.8530 2.3874
6.8774 -3.6081 2.3874
7.0025 -3.3585 2.3874
7.1184 -3.1046 2.3874
7.2252 -2.8466 2.3874
7.3226 -2.5851 2.3874
7.4106 -2.3201 2.3874
7.4889 -2.0523 2.3874
7.5576 -1.7817 2.3874
7.6166 -1.5089 2.3874
7.6656 -1.2342 2.3874
7.7048 -0.9579 2.3874
7.7340 -0.6803 2.3874
7.7532 -0.4019 2.3874
7.7623 -0.1230 2.3874
7.7615 0.1560 2.3874
7.7506 0.4348 2.3874
7.7297 0.7131 2.3874
7.6988 0.9904 2.3874
7.6580 1.2664 2.3874
7.6073 1.5408 2.3874
7.5467 1.8131 2.3874
7.4764 2.0831 2.3874
7.3965 2.3505 2.3874
7.3070 2.6146 2.3874
7.2081 2.8754 2.3874
7.0998 3.1325 2.3874
6.9824 3.3856 2.3874
6.8560 3.6342 2.3874
6.7207 3.8781 2.3874
6.5768 4.1171 2.3874
6.4244 4.3506 2.3874
6.2637 4.5786 2.3874
6.0949 4.8006 2.3874
5.9182 5.0164 2.3874
5.7339 5.2257 2.3874
5.5423 5.4283 2.3874
5.3434 5.6238 2.3874
5.1377 5.8121 2.3874
4.9254 5.9928 2.3874
4.7067 6.1658 2.3874
4.4819 6.3308 2.3874
4.2514 6.4877 2.3874
4.0153 6.6361 2.3874
3.7742 6.7760 2.3874
3.5281 6.9072 2.3874
3.2775 7.0294 2.3874
3.0226 7.1425 2.3874
2.7639 7.2464 2.3874
2.5016 7.3409 2.3874
0.8890 2.9523 0.9492
0.7824 2.9828 0.9493
0.6748 3.0094 0.9494
0.5663 3.0321 0.9496
0.4570 3.0508 0.9497
0.3471 3.0655 0.9498
0.2367 3.0763 0.9499
0.1260 3.0830 0.9499
0.0151 3.0857 0.9500
-0.0958 3.0844 0.9500
-0.2067 3.0791 0.9501
-0.3172 3.0697 0.9501
-0.4273 3.0564 0.9501
-0.5369 3.0390 0.9501
-0.6458 3.0177 0.9501
-0.7538 2.9925 0.9501
-0.8609 2.9633 0.9500
-2.4295 7.3642 2.3874
-2.6927 7.2722 2.3874
-2.9523 7.1707 2.3874
-3.2082 7.0600 2.3874
-3.4599 6.9402 2.3874
-3.7071 6.8115 2.3874
-3.9496 6.6739 2.3874
-4.1870 6.5277 2.3874
-4.4190 6.3731 2.3874
-4.6453 6.2102 2.3874
-4.8655 6.0393 2.3874
-5.0796 5.8606 2.3874
-5.2870 5.6744 2.3874
-5.4876 5.4808 2.3874
-5.6812 5.2801 2.3874
-5.8674 5.0726 2.3874
-6.0461 4.8586 2.3874
-6.2170 4.6382 2.3874
-6.3798 4.4119 2.3874
-6.5344 4.1798 2.3874
-6.6806 3.9424 2.3874
-6.8182 3.6998 2.3874
-6.9469 3.4525 2.3874
-7.0667 3.2007 2.3874
-7.1774 2.9446 2.3874
-7.2788 2.6849 2.3874
-7.3708 2.4216 2.3874
-7.4533 2.1552 2.3874
-7.5262 1.8860 2.3874
-7.5893 1.6143 2.3874
-7.6427 1.3405 2.3874
-7.6862 1.0650 2.3874
-7.7197 0.7881 2.3874
-7.7433 0.5102 2.3874
-7.7569 0.2316 2.3874
-7.7605 -0.0474 2.3874
-7.7541 -0.3263 2.3874
-7.7376 -0.6048 2.3874
-7.7111 -0.8825 2.3874
-7.6747 -1.1591 2.3874
-7.6283 -1.4342 2.3874
-7.5721 -1.7075 2.3874
-7.5061 -1.9786 2.3874
-7.4304 -2.2472 2.3874
-7.3451 -2.5129 2.3874
-7.2502 -2.7753 2.3874
-7.1461 -3.0342 2.3874
-7.0326 -3.2892 2.3874
-6.9101 -3.5399 2.3874
-6.7786 -3.7861 2.3874
-6.6384 -4.0274 2.3874
-6.4896 -4.2635 2.3874
-6.3324 -4.4941 2.3874
-6.1669 -4.7189 2.3874
-5.9936 -4.9376 2.3874
-5.8124 -5.1500 2.3874
-5.6237 -5.3557 2.3874
-5.4278 -5.5545 2.3874
-5.2248 -5.7462 2.3874
-5.0150 -5.9304 2.3874
-4.7988 -6.1069 2.3874
-4.5763 -6.2756 2.3874
-4.3480 -6.4362 2.3874
-4.1139 -6.5884 2.3874
-3.8746 -6.7322 2.3874
-3.6302 -6.8672 2.3874
-3.3812 -6.9934 2.3874
-3.1277 -7.1105 2.3874
-2.8702 -7.2184 2.3874
-2.6090 -7.3171 2.3874
-2.3444 -7.4062 2.3874
-2.0768 -7.4858 2.3874
-1.8064 -7.5557 2.3874
-1.5337 -7.6158 2.3874
-1.2591 -7.6661 2.3874
-0.9828 -7.7065 2.3874
-0.7052 -7.7369 2.3874
-0.4267 -7.7573 2.3874
-0.1477 -7.7677 2.3874
0.1316 -7.7681 2.3874
0.4107 -7.7584 2.3874
0.6892 -7.7386 2.3874
0.9669 -7.7089 2.3874
1.2433 -7.6691 2.3874
1.5181 -7.6195 2.3874
-4.9150 -5.2423 2.3874
-4.7235 -5.4156 2.3874
-4.5260 -5.5820 2.3874
-4.3226 -5.7412 2.3874
-4.1135 -5.8930 2.3874
-3.8992 -6.0372 2.3874
-3.6798 -6.1735 2.3874
-3.4556 -6.3019 2.3874
-3.2270 -6.4221 2.3874
-2.9942 -6.5341 2.3874
-2.7574 -6.6376 2.3874
-2.5172 -6.7325 2.3874
-2.2736 -6.8187 2.3874
-2.0272 -6.8961 2.3874
-1.7781 -6.9646 2.3874
-1.5266 -7.0241 2.3874
-1.2732 -7.0745 2.3874
-1.0182 -7.1158 2.3874
-0.7618 -7.1478 2.3874
-0.5045 -7.1706 2.3874
-0.2464 -7.1842 2.3874
0.0119 -7.1885 2.3874
0.2702 -7.1834 2.3874
0.5282 -7.1691 2.3874
0.7855 -7.1455 2.3874
1.0418 -7.1127 2.3874
1.2967 -7.0707 2.3874
1.5500 -7.0195 2.3874
1.8012 -6.9592 2.3874
2.0501 -6.8900 2.3874
2.2964 -6.8118 2.3874
2.5397 -6.7249 2.3874
2.7797 -6.6292 2.3874
3.0161 -6.5250 2.3874
3.2486 -6.4123 2.3874
3.4769 -6.2914 2.3874
3.7007 -6.1623 2.3874
3.9198 -6.0253 2.3874
4.1337 -5.8804 2.3874
4.3423 -5.7280 2.3874
4.5453 -5.5682 2.3874
4.7424 -5.4011 2.3874
4.9333 -5.2271 2.3874
5.1179 -5.0464 2.3874
5.2958 -4.8591 2.3874
5.4669 -4.6656 2.3874
5.6310 -4.4660 2.3874
5.7877 -4.2606 2.3874
5.9369 -4.0498 2.3874
6.0785 -3.8337 2.3874
6.2122 -3.6127 2.3874
6.3378 -3.3871 2.3874
6.4553 -3.1570 2.3874
6.5644 -2.9229 2.3874
6.6651 -2.6850 2.3874
6.7571 -2.4437 2.3874
6.8403 -2.1992 2.3874
6.9147 -1.9519 2.3874
6.9802 -1.7021 2.3874
7.0367 -1.4501 2.3874
7.0840 -1.1962 2.3874
7.1222 -0.9408 2.3874
7.1512 -0.6842 2.3874
7.1710 -0.4268 2.3874
7.1815 -0.1688 2.3874
7.1827 0.0894 2.3874
7.1746 0.3475 2.3874
7.1572 0.6051 2.3874
7.1306 0.8619 2.3874
7.0948 1.1176 2.3874
7.0498 1.3718 2.3874
6.9958 1.6242 2.3874
6.9327 1.8745 2.3874
6.8606 2.1224 2.3874
6.7796 2.3676 2.3874
6.6900 2.6096 2.3874
6.5917 2.8483 2.3874
6.4848 3.0833 2.3874
6.3696 3.3142 2.3874
6.2462 3.5409 2.3874
6.1147 3.7630 2.3874
5.9753 3.9802 2.3874
5.8283 4.1923 2.3874
5.6737 4.3989 2.3874
5.5117 4.5999 2.3874
5.3427 4.7949 2.3874
5.1668 4.9837 2.3874
4.9842 5.1660 2.3874
4.7952 5.3417 2.3874
4.6000 5.5104 2.3874
4.3988 5.6721 2.3874
4.1920 5.8264 2.3874
3.9798 5.9731 2.3874
3.7625 6.1122 2.3874
3.5403 6.2434 2.3874
3.3135 6.3664 2.3874
3.0825 6.4813 2.3874
2.8475 6.5878 2.3874
2.6088 6.6858 2.3874
2.3668 6.7751 2.3874
0.8429 2.7236 0.9485
0.7446 2.7525 0.9486
0.6453 2.7779 0.9487
0.5450 2.7996 0.9488
0.4441 2.8176 0.9490
0.3426 2.8320 0.9490
0.2406 2.8427 0.9491
0.1383 2.8497 0.9492
0.0358 2.8530 0.9493
-0.0668 2.8526 0.9493
-0.1693 2.8484 0.9493
-0.2716 2.8406 0.9494
-0.3735 2.8290 0.9494
-0.4750 2.8138 0.9494
-0.5758 2.7948 0.9494
-0.6758 2.7723 0.9494
-0.7750 2.7461 0.9493
-0.8732 2.7164 0.9493
-2.4402 6.7482 2.3874
-2.6812 6.6562 2.3874
-2.9187 6.5556 2.3874
-3.1525 6.4465 2.3874
-3.3822 6.3291 2.3874
-3.6075 6.2035 2.3874
-3.8282 6.0699 2.3874
-4.0440 5.9284 2.3874
-4.2545 5.7793 2.3874
-4.4595 5.6228 2.3874
-4.6588 5.4589 2.3874
-4.8521 5.2880 2.3874
-5.0391 5.1103 2.3874
-5.2196 4.9260 2.3874
-5.3934 4.7353 2.3874
-5.5602 4.5385 2.3874
-5.7199 4.3358 2.3874
-5.8722 4.1275 2.3874
-6.0169 3.9139 2.3874
-6.1538 3.6952 2.3874
-6.2828 3.4717 2.3874
-6.4037 3.2437 2.3874
-6.5163 3.0115 2.3874
-6.6205 2.7755 2.3874
-6.7161 2.5358 2.3874
-6.8031 2.2928 2.3874
-6.8813 2.0469 2.3874
-6.9506 1.7983 2.3874
-7.0110 1.5474 2.3874
-7.0623 1.2944 2.3874
-7.1045 1.0398 2.3874
-7.1375 0.7838 2.3874
-7.1612 0.5268 2.3874
-7.1758 0.2691 2.3874
-7.1810 0.0110 2.3874
-7.1770 -0.2471 2.3874
-7.1637 -0.5049 2.3874
-7.1412 -0.7621 2.3874
-7.1094 -1.0183 2.3874
-7.0684 -1.2732 2.3874
-7.0183 -1.5264 2.3874
-6.9592 -1.7777 2.3874
-6.8910 -2.0268 2.3874
-6.8139 -2.2732 2.3874
-6.7280 -2.5167 2.3874
-6.6334 -2.7570 2.3874
-6.5303 -2.9937 2.3874
-6.4187 -3.2265 2.3874
-6.2987 -3.4552 2.3874
-6.1707 -3.6795 2.3874
-6.0347 -3.8990 2.3874
-5.8908 -4.1135 2.3874
-5.7393 -4.3226 2.3874
-5.5804 -4.5262 2.3874
-5.4143 -4.7240 2.3874
-5.2412 -4.9156 2.3874
-5.0613 -5.1010 2.3874
-4.8748 -5.2797 2.3874
-4.6820 -5.4516 2.3874
-4.4832 -5.6165 2.3874
-4.2786 -5.7741 2.3874
-4.0684 -5.9243 2.3874
-3.8529 -6.0668 2.3874
-3.6325 -6.2015 2.3874
-3.4074 -6.3281 2.3874
-3.1778 -6.4466 2.3874
-2.9442 -6.5568 2.3874
-2.7067 -6.6585 2.3874
-2.4657 -6.7516 2.3874
-2.2215 -6.8359 2.3874
-1.9744 -6.9114 2.3874
-1.7248 -6.9780 2.3874
-1.4729 -7.0356 2.3874
-1.2191 -7.0841 2.3874
-0.9638 -7.1234 2.3874
-0.7072 -7.1535 2.3874
-0.4496 -7.1743 2.3874
-0.1915 -7.1859 2.3874
0.0668 -7.1882 2.3874
0.3251 -7.1812 2.3874
0.5830 -7.1649 2.3874
0.8401 -7.1393 2.3874
1.0961 -7.1045 2.3874
1.3507 -7.0605 2.3874
1.6035 -7.0074 2.3874
1.8543 -6.9453 2.3874
2.1027 -6.8741 2.3874
2.3484 -6.7941 2.3874
2.5910 -6.7053 2.3874
2.8303 -6.6078 2.3874
3.0659 -6.5018 2.3874
3.2975 -6.3873 2.3874
3.5249 -6.2646 2.3874
3.7477 -6.1338 2.3874
3.9657 -5.9951 2.3874
4.1785 -5.8486 2.3874
4.3859 -5.6946 2.3874
4.5877 -5.5332 2.3874
4.7835 -5.3647 2.3874
4.9731 -5.1893 2.3874
5.1563 -5.0071 2.3874
5.3328 -4.8185 2.3874
5.5024 -4.6236 2.3874
5.6649 -4.4228 2.3874
5.8200 -4.2163 2.3874
5.9677 -4.0043 2.3874
6.1076 -3.7871 2.3874
6.2396 -3.5650 2.3874
6.3635 -3.3385 2.3874
6.4792 -3.1076 2.3874
6.5865 -2.8726 2.3874
6.6853 -2.6340 2.3874
6.7755 -2.3920 2.3874
6.8569 -2.1469 2.3874
6.9294 -1.8990 2.3874
6.9930 -1.6487 2.3874
7.0475 -1.3963 2.3874
7.0929 -1.1420 2.3874
7.1292 -0.8864 2.3874
7.1562 -0.6296 2.3874
7.1740 -0.3720 2.3874
7.1825 -0.1139 2.3874
7.1817 0.1443 2.3874
7.1717 0.4023 2.3874
7.1524 0.6598 2.3874
7.1238 0.9163 2.3874
7.0860 1.1718 2.3874
7.0391 1.4256 2.3874
6.9831 1.6776 2.3874
6.9181 1.9275 2.3874
6.8441 2.1748 2.3874
6.7613 2.4193 2.3874
6.6698 2.6607 2.3874
6.5697 2.8986 2.3874
6.4610 3.1327 2.3874
6.3441 3.3628 2.3874
6.2189 3.5885 2.3874
6.0858 3.8096 2.3874
5.9447 4.0257 2.3874
5.7960 4.2367 2.3874
5.6398 4.4421 2.3874
5.4764 4.6418 2.3874
5.3059 4.8355 2.3874
5.1285 5.0230 2.3874
4.9445 5.2039 2.3874
4.7542 5.3781 2.3874
4.5577 5.5454 2.3874
4.3553 5.7055 2.3874
4.1473 5.8582 2.3874
3.9340 6.0034 2.3874
3.7156 6.1408 2.3874
3.4924 6.2702 2.3874
3.2648 6.3915 2.3874
3.0329 6.5046 2.3874
2.7971 6.6093 2.3874
2.5576 6.7055 2.3874
0.9196 2.6984 0.9484
0.8221 2.7301 0.9485
0.7235 2.7582 0.9486
0.6240 2.7828 0.9488
0.5236 2.8037 0.9489
0.4226 2.8210 0.9490
0.3209 2.8346 0.9491
0.2189 2.8445 0.9491
0.1165 2.8507 0.9492
0.0139 2.8532 0.9493
-0.0886 2.8520 0.9493
-0.1911 2.8471 0.9494
-0.2933 2.8384 0.9494
-0.3951 2.8261 0.9494
-0.4965 2.8100 0.9494
-0.5971 2.7904 0.9494
-0.6970 2.7670 0.9493
-0.7960 2.7401 0.9493
-0.8939 2.7096 0.9493
-2.4917 6.7294 2.3874
-2.7320 6.6355 2.3874
-2.9687 6.5331 2.3874
-3.2017 6.4222 2.3874
-3.4305 6.3030 2.3874
-3.6548 6.1757 2.3874
-3.8745 6.0405 2.3874
-4.0892 5.8974 2.3874
-4.2985 5.7467 2.3874
-4.5024 5.5885 2.3874
-4.7004 5.4232 2.3874
-4.8924 5.2508 2.3874
-5.0780 5.0717 2.3874
-5.2571 4.8860 2.3874
-5.4295 4.6940 2.3874
-5.5948 4.4959 2.3874
-5.7529 4.2920 2.3874
-5.9036 4.0825 2.3874
-6.0466 3.8678 2.3874
-6.1819 3.6480 2.3874
-6.3092 3.4236 2.3874
-6.4283 3.1947 2.3874
-6.5391 2.9616 2.3874
-6.6415 2.7248 2.3874
-6.7354 2.4844 2.3874
-6.8205 2.2408 2.3874
-6.8968 1.9942 2.3874
-6.9642 1.7451 2.3874
-7.0227 1.4937 2.3874
-7.0720 1.2404 2.3874
-7.1122 0.9855 2.3874
-7.1433 0.7292 2.3874
-7.1651 0.4720 2.3874
-7.1777 0.2142 2.3874
-7.1809 -0.0439 2.3874
-7.1750 -0.3020 2.3874
-7.1597 -0.5597 2.3874
-7.1352 -0.8167 2.3874
-7.1014 -1.0726 2.3874
-7.0585 -1.3272 2.3874
-7.0065 -1.5800 2.3874
-6.9454 -1.8309 2.3874
-6.8753 -2.0794 2.3874
-6.7964 -2.3252 2.3874
-6.7086 -2.5680 2.3874
-6.6122 -2.8076 2.3874
-6.5072 -3.0435 2.3874
-6.3939 -3.2755 2.3874
-6.2722 -3.5033 2.3874
-6.1424 -3.7265 2.3874
-6.0047 -3.9450 2.3874
-5.8592 -4.1584 2.3874
-5.7062 -4.3664 2.3874
-5.5457 -4.5688 2.3874
-5.3781 -4.7653 2.3874
-5.2035 -4.9556 2.3874
-5.0222 -5.1395 2.3874
-4.8344 -5.3168 2.3874
-4.6403 -5.4873 2.3874
-4.4402 -5.6506 2.3874
-4.2344 -5.8067 2.3874
-4.0230 -5.9552 2.3874
-3.8065 -6.0961 2.3874
-3.5850 -6.2291 2.3874
-3.3589 -6.3540 2.3874
-3.1285 -6.4708 2.3874
-2.8940 -6.5791 2.3874
-2.6557 -6.6790 2.3874
-2.4140 -6.7702 2.3874
-2.1692 -6.8527 2.3874
-1.9215 -6.9263 2.3874
-1.6714 -6.9910 2.3874
-1.4191 -7.0466 2.3874
-1.1650 -7.0932 2.3874
-0.9093 -7.1305 2.3874
-0.6525 -7.1587 2.3874
-0.3948 -7.1776 2.3874
-0.1366 -7.1872 2.3874
0.1218 -7.1875 2.3874
0.3800 -7.1785 2.3874
0.6377 -7.1602 2.3874
0.8946 -7.1327 2.3874
1.1503 -7.0959 2.3874
1.4046 -7.0500 2.3874
-4.5685 -4.8727 2.3874
-4.3905 -5.0339 2.3874
-4.2069 -5.1885 2.3874
-4.0178 -5.3365 2.3874
-3.8235 -5.4775 2.3874
-3.6242 -5.6115 2.3874
-3.4203 -5.7382 2.3874
-3.2119 -5.8576 2.3874
-2.9994 -5.9693 2.3874
-2.7830 -6.0734 2.3874
-2.5630 -6.1696 2.3874
-2.3397 -6.2578 2.3874
-2.1133 -6.3379 2.3874
-1.8842 -6.4099 2.3874
-1.6526 -6.4735 2.3874
-1.4190 -6.5288 2.3874
-1.1834 -6.5756 2.3874
-0.9464 -6.6140 2.3874
-0.7081 -6.6438 2.3874
-0.4689 -6.6650 2.3874
-0.2291 -6.6776 2.3874
0.0111 -6.6815 2.3874
0.2512 -6.6769 2.3874
0.4910 -6.6635 2.3874
0.7301 -6.6416 2.3874
0.9683 -6.6111 2.3874
1.2053 -6.5720 2.3874
1.4407 -6.5245 2.3874
1.6742 -6.4685 2.3874
1.9056 -6.4041 2.3874
2.1345 -6.3315 2.3874
2.3606 -6.2507 2.3874
2.5837 -6.1617 2.3874
2.8034 -6.0649 2.3874
3.0195 -5.9602 2.3874
3.2318 -5.8478 2.3874
3.4398 -5.7278 2.3874
3.6433 -5.6004 2.3874
3.8422 -5.4658 2.3874
4.0361 -5.3241 2.3874
4.2248 -5.1756 2.3874
4.4079 -5.0203 2.3874
4.5854 -4.8586 2.3874
4.7570 -4.6906 2.3874
4.9224 -4.5165 2.3874
5.0814 -4.3366 2.3874
5.2339 -4.1511 2.3874
5.3796 -3.9603 2.3874
5.5183 -3.7643 2.3874
5.6499 -3.5635 2.3874
5.7742 -3.3580 2.3874
5.8910 -3.1483 2.3874
6.0002 -2.9345 2.3874
6.1016 -2.7169 2.3874
6.1952 -2.4958 2.3874
6.2807 -2.2715 2.3874
6.3581 -2.0442 2.3874
6.4273 -1.8144 2.3874
6.4882 -1.5822 2.3874
6.5407 -1.3479 2.3874
6.5847 -1.1120 2.3874
6.6202 -0.8746 2.3874
6.6472 -0.6361 2.3874
6.6655 -0.3968 2.3874
6.6753 -0.1569 2.3874
6.6764 0.0831 2.3874
6.6689 0.3230 2.3874
6.6528 0.5624 2.3874
6.6281 0.8011 2.3874
6.5948 1.0388 2.3874
6.5530 1.2751 2.3874
6.5028 1.5097 2.3874
6.4441 1.7424 2.3874
6.3772 1.9728 2.3874
6.3019 2.2007 2.3874
6.2186 2.4257 2.3874
6.1272 2.6475 2.3874
6.0279 2.8660 2.3874
5.9208 3.0807 2.3874
5.8061 3.2914 2.3874
5.6839 3.4978 2.3874
5.5544 3.6998 2.3874
5.4177 3.8969 2.3874
5.2740 4.0890 2.3874
5.1235 4.2758 2.3874
4.9663 4.4571 2.3874
4.8028 4.6326 2.3874
4.6331 4.8021 2.3874
4.4574 4.9654 2.3874
4.2759 5.1222 2.3874
4.0890 5.2725 2.3874
3.8968 5.4159 2.3874
3.6995 5.5524 2.3874
3.4975 5.6817 2.3874
3.2909 5.8036 2.3874
3.0802 5.9180 2.3874
2.8654 6.0248 2.3874
2.6470 6.1238 2.3874
2.4251 6.2148 2.3874
0.8734 2.5002 0.9478
0.7831 2.5303 0.9479
0.6917 2.5571 0.9480
0.5994 2.5806 0.9481
0.5063 2.6007 0.9483
0.4126 2.6175 0.9483
0.3183 2.6309 0.9484
0.2235 2.6408 0.9485
0.1285 2.6473 0.9486
0.0332 2.6503 0.9486
-0.0621 2.6499 0.9487
-0.1573 2.6461 0.9487
-0.2523 2.6388 0.9487
-0.3470 2.6280 0.9487
-0.4412 2.6138 0.9487
-0.5349 2.5963 0.9487
-0.6278 2.5753 0.9487
-0.7200 2.5510 0.9487
-0.8112 2.5234 0.9486
-0.9013 2.4925 0.9486
-2.4924 6.1874 2.3874
-2.7132 6.0939 2.3874
-2.9305 5.9925 2.3874
-3.1440 5.8833 2.3874
-3.3535 5.7666 2.3874
-3.5586 5.6424 2.3874
-3.7592 5.5109 2.3874
-3.9548 5.3723 2.3874
-4.1454 5.2267 2.3874
-4.3307 5.0744 2.3874
-4.5104 4.9156 2.3874
-4.6842 4.7504 2.3874
-4.8520 4.5790 2.3874
-5.0135 4.4017 2.3874
-5.1686 4.2188 2.3874
-5.3170 4.0304 2.3874
-5.4585 3.8367 2.3874
-5.5930 3.6381 2.3874
-5.7203 3.4348 2.3874
-5.8402 3.2271 2.3874
-5.9526 3.0152 2.3874
-6.0572 2.7993 2.3874
-6.1541 2.5799 2.3874
-6.2430 2.3571 2.3874
-6.3238 2.1312 2.3874
-6.3965 1.9026 2.3874
-6.4610 1.6715 2.3874
-6.5170 1.4383 2.3874
-6.5647 1.2032 2.3874
-6.6039 0.9665 2.3874
-6.6346 0.7285 2.3874
-6.6567 0.4896 2.3874
-6.6701 0.2501 2.3874
-6.6750 0.0102 2.3874
-6.6713 -0.2297 2.3874
-6.6589 -0.4694 2.3874
-6.6379 -0.7084 2.3874
-6.6084 -0.9466 2.3874
-6.5703 -1.1835 2.3874
-6.5237 -1.4189 2.3874
-6.4687 -1.6525 2.3874
-6.4053 -1.8840 2.3874
-6.3337 -2.1130 2.3874
-6.2538 -2.3393 2.3874
-6.1659 -2.5627 2.3874
-6.0700 -2.7827 2.3874
-5.9662 -2.9991 2.3874
-5.8547 -3.2117 2.3874
-5.7357 -3.4201 2.3874
-5.6092 -3.6242 2.3874
-5.4755 -3.8235 2.3874
-5.3347 -4.0179 2.3874
-5.1870 -4.2072 2.3874
-5.0326 -4.3910 2.3874
-4.8717 -4.5691 2.3874
-4.7044 -4.7414 2.3874
-4.5311 -4.9075 2.3874
-4.3519 -5.0673 2.3874
-4.1671 -5.2205 2.3874
-3.9769 -5.3670 2.3874
-3.7815 -5.5066 2.3874
-3.5813 -5.6391 2.3874
-3.3764 -5.7642 2.3874
-3.1671 -5.8820 2.3874
-2.9537 -5.9921 2.3874
-2.7365 -6.0945 2.3874
-2.5158 -6.1890 2.3874
-2.2918 -6.2755 2.3874
-2.0648 -6.3539 2.3874
-1.8352 -6.4241 2.3874
-1.6031 -6.4860 2.3874
-1.3690 -6.5395 2.3874
-1.1332 -6.5845 2.3874
-0.8958 -6.6210 2.3874
-0.6573 -6.6490 2.3874
-0.4179 -6.6684 2.3874
-0.1780 -6.6791 2.3874
0.0621 -6.6813 2.3874
0.3022 -6.6748 2.3874
0.5419 -6.6596 2.3874
0.7808 -6.6358 2.3874
1.0188 -6.6035 2.3874
1.2555 -6.5626 2.3874
1.4905 -6.5133 2.3874
1.7236 -6.4555 2.3874
1.9544 -6.3894 2.3874
2.1828 -6.3150 2.3874
2.4083 -6.2324 2.3874
2.6307 -6.1418 2.3874
2.8497 -6.0433 2.3874
3.0650 -5.9369 2.3874
3.2763 -5.8229 2.3874
3.4834 -5.7013 2.3874
3.6860 -5.5724 2.3874
3.8839 -5.4362 2.3874
4.0766 -5.2931 2.3874
4.2642 -5.1431 2.3874
4.4462 -4.9865 2.3874
4.6224 -4.8234 2.3874
4.7927 -4.6541 2.3874
4.9568 -4.4787 2.3874
5.1144 -4.2976 2.3874
5.2654 -4.1110 2.3874
5.4097 -3.9190 2.3874
5.5469 -3.7220 2.3874
5.6770 -3.5202 2.3874
5.7997 -3.3138 2.3874
5.9149 -3.1032 2.3874
6.0224 -2.8885 2.3874
6.1222 -2.6702 2.3874
6.2140 -2.4484 2.3874
6.2978 -2.2234 2.3874
6.3735 -1.9956 2.3874
6.4409 -1.7652 2.3874
6.5000 -1.5325 2.3874
6.5507 -1.2979 2.3874
6.5930 -1.0616 2.3874
6.6266 -0.8239 2.3874
6.6518 -0.5852 2.3874
6.6683 -0.3458 2.3874
6.6763 -0.1059 2.3874
6.6756 0.1341 2.3874
6.6662 0.3739 2.3874
6.6483 0.6132 2.3874
6.6217 0.8517 2.3874
6.5866 1.0892 2.3874
6.5431 1.3251 2.3874
6.4910 1.5594 2.3874
6.4306 1.7916 2.3874
6.3618 2.0215 2.3874
6.2849 2.2488 2.3874
6.1998 2.4731 2.3874
6.1068 2.6943 2.3874
6.0058 2.9119 2.3874
5.8971 3.1258 2.3874
5.7808 3.3357 2.3874
5.6570 3.5412 2.3874
5.5259 3.7421 2.3874
5.3877 3.9382 2.3874
5.2425 4.1291 2.3874
5.0906 4.3148 2.3874
4.9321 4.4949 2.3874
4.7672 4.6691 2.3874
4.5962 4.8373 2.3874
4.4193 4.9993 2.3874
4.2367 5.1547 2.3874
4.0486 5.3036 2.3874
3.8552 5.4455 2.3874
3.6569 5.5805 2.3874
3.4539 5.7082 2.3874
3.2465 5.8285 2.3874
3.0348 5.9413 2.3874
2.8193 6.0465 2.3874
2.6001 6.1438 2.3874
2.3775 6.2332 2.3874
0.8543 2.5069 0.9478
0.7638 2.5363 0.9479
0.6722 2.5624 0.9481
0.5797 2.5852 0.9482
0.4865 2.6046 0.9483
0.3926 2.6206 0.9484
0.2981 2.6333 0.9485
0.2033 2.6425 0.9485
0.1082 2.6482 0.9486
0.0130 2.6505 0.9486
-0.0823 2.6494 0.9487
-0.1775 2.6448 0.9487
-0.2725 2.6368 0.9487
-0.3671 2.6253 0.9487
-0.4612 2.6104 0.9487
-0.5547 2.5921 0.9487
-0.6475 2.5704 0.9487
-0.7394 2.5454 0.9487
-0.8304 2.5171 0.9486
-2.3162 6.2555 2.3874
-2.5396 6.1682 2.3874
-2.7597 6.0730 2.3874
-2.9762 5.9699 2.3874
-3.1889 5.8591 2.3874
-3.3975 5.7408 2.3874
-3.6016 5.6150 2.3874
-3.8012 5.4820 2.3874
-3.9958 5.3419 2.3874
-4.1853 5.1949 2.3874
-4.3694 5.0412 2.3874
-4.5478 4.8810 2.3874
-4.7204 4.7144 2.3874
-4.8869 4.5418 2.3874
-5.0471 4.3633 2.3874
-5.2007 4.1792 2.3874
-5.3477 3.9896 2.3874
-5.4877 3.7949 2.3874
-5.6207 3.5953 2.3874
-5.7464 3.3910 2.3874
-5.8647 3.1824 2.3874
-5.9755 2.9696 2.3874
-6.0785 2.7530 2.3874
-6.1737 2.5328 2.3874
-6.2609 2.3093 2.3874
-6.3400 2.0829 2.3874
-6.4109 1.8537 2.3874
-6.4736 1.6221 2.3874
-6.5279 1.3884 2.3874
-6.5738 1.1530 2.3874
-6.6111 0.9160 2.3874
-6.6400 0.6778 2.3874
-6.6602 0.4387 2.3874
-6.6719 0.1991 2.3874
-6.6749 -0.0409 2.3874
-6.6694 -0.2807 2.3874
-6.6552 -0.5203 2.3874
-6.6324 -0.7591 2.3874
-6.6010 -0.9970 2.3874
-6.5611 -1.2337 2.3874
-6.5127 -1.4687 2.3874
-6.4559 -1.7019 2.3874
-6.3908 -1.9329 2.3874
-6.3174 -2.1614 2.3874
-6.2358 -2.3871 2.3874
-6.1461 -2.6097 2.3874
-6.0486 -2.8290 2.3874
-5.9432 -3.0447 2.3874
-5.8301 -3.2564 2.3874
-5.7094 -3.4639 2.3874
-5.5814 -3.6669 2.3874
-5.4462 -3.8653 2.3874
-5.3039 -4.0586 2.3874
-5.1547 -4.2467 2.3874
-4.9989 -4.4294 2.3874
-4.8366 -4.6063 2.3874
-4.6681 -4.7772 2.3874
-4.4935 -4.9420 2.3874
-4.3131 -5.1004 2.3874
-4.1271 -5.2522 2.3874
-3.9358 -5.3973 2.3874
-3.7393 -5.5354 2.3874
-3.5381 -5.6663 2.3874
-3.3322 -5.7899 2.3874
-3.1221 -5.9060 2.3874
-2.9078 -6.0145 2.3874
-2.6899 -6.1152 2.3874
-2.4684 -6.2081 2.3874
-2.2437 -6.2928 2.3874
-2.0162 -6.3695 2.3874
-1.7860 -6.4379 2.3874
-1.5535 -6.4980 2.3874
-1.3190 -6.5497 2.3874
-1.0828 -6.5930 2.3874
-0.8452 -6.6277 2.3874
-0.6064 -6.6539 2.3874
-0.3670 -6.6714 2.3874
-0.1270 -6.6803 2.3874
0.1132 -6.6806 2.3874
0.3532 -6.6723 2.3874
0.5927 -6.6553 2.3874
0.8315 -6.6297 2.3874
1.0692 -6.5955 2.3874
1.3055 -6.5528 2.3874
-4.2630 -4.5470 2.3874
-4.0969 -4.6973 2.3874
-3.9256 -4.8416 2.3874
-3.7491 -4.9797 2.3874
-3.5678 -5.1113 2.3874
-3.3819 -5.2363 2.3874
-3.1916 -5.3546 2.3874
-2.9972 -5.4659 2.3874
-2.7988 -5.5702 2.3874
-2.5969 -5.6673 2.3874
-2.3916 -5.7570 2.3874
-2.1832 -5.8393 2.3874
-1.9720 -5.9141 2.3874
-1.7582 -5.9812 2.3874
-1.5421 -6.0406 2.3874
-1.3241 -6.0922 2.3874
-1.1043 -6.1359 2.3874
-0.8831 -6.1717 2.3874
-0.6607 -6.1995 2.3874
-0.4375 -6.2193 2.3874
-0.2137 -6.2311 2.3874
0.0103 -6.2347 2.3874
0.2344 -6.2304 2.3874
0.4581 -6.2180 2.3874
0.6813 -6.1975 2.3874
0.9035 -6.1690 2.3874
1.1247 -6.1326 2.3874
1.3443 -6.0882 2.3874
1.5622 -6.0359 2.3874
1.7781 -5.9759 2.3874
1.9917 -5.9081 2.3874
2.2027 -5.8327 2.3874
2.4109 -5.7497 2.3874
2.6160 -5.6593 2.3874
2.8176 -5.5616 2.3874
3.0156 -5.4567 2.3874
3.2098 -5.3448 2.3874
3.3997 -5.2259 2.3874
3.5853 -5.1003 2.3874
3.7662 -4.9681 2.3874
3.9423 -4.8295 2.3874
4.1132 -4.6846 2.3874
4.2788 -4.5337 2.3874
4.4389 -4.3770 2.3874
4.5933 -4.2145 2.3874
4.7417 -4.0467 2.3874
4.8839 -3.8736 2.3874
5.0199 -3.6955 2.3874
5.1493 -3.5126 2.3874
5.2722 -3.3253 2.3874
5.3881 -3.1336 2.3874
5.4971 -2.9378 2.3874
5.5990 -2.7383 2.3874
5.6937 -2.5353 2.3874
5.7810 -2.3290 2.3874
5.8608 -2.1197 2.3874
5.9331 -1.9076 2.3874
5.9976 -1.6931 2.3874
6.0544 -1.4764 2.3874
6.1034 -1.2579 2.3874
6.1445 -1.0377 2.3874
6.1777 -0.8161 2.3874
6.2029 -0.5936 2.3874
6.2200 -0.3703 2.3874
6.2291 -0.1465 2.3874
6.2302 0.0775 2.3874
6.2232 0.3013 2.3874
6.2082 0.5248 2.3874
6.1851 0.7475 2.3874
6.1541 0.9693 2.3874
6.1151 1.1898 2.3874
6.0682 1.4088 2.3874
6.0135 1.6259 2.3874
5.9510 1.8410 2.3874
5.8808 2.0536 2.3874
5.8030 2.2636 2.3874
5.7178 2.4706 2.3874
5.6251 2.6744 2.3874
5.5252 2.8748 2.3874
5.4182 3.0714 2.3874
5.3042 3.2641 2.3874
5.1833 3.4525 2.3874
5.0557 3.6365 2.3874
4.9216 3.8158 2.3874
4.7812 3.9901 2.3874
4.6346 4.1593 2.3874
4.4820 4.3230 2.3874
4.3236 4.4812 2.3874
4.1596 4.6336 2.3874
3.9903 4.7800 2.3874
3.8159 4.9203 2.3874
3.6365 5.0541 2.3874
3.4524 5.1815 2.3874
3.2639 5.3021 2.3874
3.0711 5.4159 2.3874
2.8744 5.5227 2.3874
2.6740 5.6223 2.3874
2.4702 5.7147 2.3874
0.8978 2.3009 0.9471
0.8147 2.3320 0.9473
0.7304 2.3600 0.9474
0.6452 2.3850 0.9475
0.5591 2.4069 0.9476
0.4723 2.4257 0.9477
0.3848 2.4413 0.9478
0.2968 2.4537 0.9479
0.2085 2.4630 0.9480
0.1198 2.4690 0.9480
0.0310 2.4719 0.9481
-0.0579 2.4715 0.9481
-0.1467 2.4679 0.9482
-0.2353 2.4611 0.9482
-0.3236 2.4510 0.9482
-0.4115 2.4378 0.9482
-0.4989 2.4214 0.9482
-0.5856 2.4019 0.9482
-0.6715 2.3792 0.9481
-0.7565 2.3535 0.9481
-0.8406 2.3246 0.9480
-2.3259 5.7741 2.3874
-2.5320 5.6869 2.3874
-2.7347 5.5922 2.3874
-2.9340 5.4903 2.3874
-3.1295 5.3814 2.3874
-3.3209 5.2655 2.3874
-3.5081 5.1428 2.3874
-3.6907 5.0134 2.3874
-3.8686 4.8776 2.3874
-4.0414 4.7355 2.3874
-4.2091 4.5872 2.3874
-4.3713 4.4330 2.3874
-4.5279 4.2731 2.3874
-4.6786 4.1077 2.3874
-4.8233 3.9369 2.3874
-4.9618 3.7611 2.3874
-5.0939 3.5804 2.3874
-5.2194 3.3951 2.3874
-5.3382 3.2053 2.3874
-5.4501 3.0115 2.3874
-5.5549 2.8137 2.3874
-5.6526 2.6123 2.3874
-5.7430 2.4075 2.3874
-5.8259 2.1996 2.3874
-5.9014 1.9888 2.3874
-5.9692 1.7755 2.3874
-6.0293 1.5598 2.3874
-6.0816 1.3422 2.3874
-6.1261 1.1227 2.3874
-6.1626 0.9019 2.3874
-6.1912 0.6798 2.3874
-6.2118 0.4569 2.3874
-6.2244 0.2333 2.3874
-6.2290 0.0094 2.3874
-6.2255 -0.2144 2.3874
-6.2139 -0.4381 2.3874
-6.1943 -0.6611 2.3874
-6.1667 -0.8833 2.3874
-6.1312 -1.1044 2.3874
-6.0877 -1.3241 2.3874
-6.0364 -1.5421 2.3874
-5.9772 -1.7581 2.3874
-5.9103 -1.9718 2.3874
-5.8358 -2.1830 2.3874
-5.7537 -2.3914 2.3874
-5.6642 -2.5967 2.3874
-5.5674 -2.7987 2.3874
-5.4634 -2.9971 2.3874
-5.3523 -3.1916 2.3874
-5.2343 -3.3819 2.3874
-5.1095 -3.5680 2.3874
-4.9781 -3.7494 2.3874
-4.8402 -3.9260 2.3874
-4.6961 -4.0975 2.3874
-4.5460 -4.2637 2.3874
-4.3899 -4.4244 2.3874
-4.2282 -4.5794 2.3874
-4.0609 -4.7285 2.3874
-3.8885 -4.8715 2.3874
-3.7110 -5.0082 2.3874
-3.5286 -5.1385 2.3874
-3.3418 -5.2620 2.3874
-3.1506 -5.3788 2.3874
-2.9553 -5.4887 2.3874
-2.7562 -5.5914 2.3874
-2.5535 -5.6870 2.3874
-2.3475 -5.7752 2.3874
-2.1385 -5.8559 2.3874
-1.9267 -5.9290 2.3874
-1.7124 -5.9945 2.3874
-1.4959 -6.0523 2.3874
-1.2775 -6.1022 2.3874
-1.0574 -6.1442 2.3874
-0.8359 -6.1783 2.3874
-0.6133 -6.2044 2.3874
-0.3900 -6.2225 2.3874
-0.1661 -6.2325 2.3874
0.0580 -6.2345 2.3874
0.2820 -6.2284 2.3874
0.5056 -6.2143 2.3874
0.7286 -6.1921 2.3874
0.9507 -6.1619 2.3874
1.1715 -6.1238 2.3874
1.3908 -6.0777 2.3874
1.6083 -6.0238 2.3874
1.8237 -5.9621 2.3874
2.0368 -5.8927 2.3874
2.2472 -5.8157 2.3874
2.4548 -5.7311 2.3874
2.6591 -5.6392 2.3874
2.8600 -5.5399 2.3874
3.0572 -5.4335 2.3874
3.2505 -5.3201 2.3874
3.4395 -5.1998 2.3874
3.6241 -5.0728 2.3874
3.8040 -4.9392 2.3874
3.9790 -4.7992 2.3874
4.1489 -4.6530 2.3874
4.3133 -4.5009 2.3874
4.4722 -4.3429 2.3874
4.6253 -4.1793 2.3874
4.7724 -4.0103 2.3874
4.9134 -3.8361 2.3874
5.0480 -3.6570 2.3874
5.1760 -3.4732 2.3874
5.2974 -3.2848 2.3874
5.4119 -3.0923 2.3874
5.5194 -2.8957 2.3874
5.6198 -2.6954 2.3874
5.7129 -2.4917 2.3874
5.7986 -2.2847 2.3874
5.8768 -2.0748 2.3874
5.9474 -1.8622 2.3874
6.0103 -1.6472 2.3874
6.0655 -1.4301 2.3874
6.1128 -1.2112 2.3874
6.1522 -0.9907 2.3874
6.1837 -0.7689 2.3874
6.2072 -0.5462 2.3874
6.2226 -0.3227 2.3874
6.2300 -0.0989 2.3874
6.2294 0.1251 2.3874
6.2207 0.3489 2.3874
6.2039 0.5722 2.3874
6.1792 0.7948 2.3874
6.1465 1.0163 2.3874
6.1058 1.2365 2.3874
6.0572 1.4551 2.3874
6.0009 1.6718 2.3874
5.9367 1.8864 2.3874
5.8649 2.0985 2.3874
5.7855 2.3078 2.3874
5.6987 2.5142 2.3874
5.6045 2.7173 2.3874
5.5031 2.9169 2.3874
5.3945 3.1127 2.3874
5.2790 3.3045 2.3874
5.1567 3.4920 2.3874
5.0278 3.6750 2.3874
4.8923 3.8533 2.3874
4.7505 4.0265 2.3874
4.6026 4.1945 2.3874
4.4488 4.3571 2.3874
4.2892 4.5141 2.3874
4.1241 4.6653 2.3874
3.9536 4.8104 2.3874
3.7781 4.9492 2.3874
3.5977 5.0817 2.3874
3.4127 5.2077 2.3874
3.2232 5.3269 2.3874
3.0296 5.4392 2.3874
2.8321 5.5444 2.3874
2.6310 5.6426 2.3874
2.4264 5.7334 2.3874
0.8802 2.3077 0.9472
0.7968 2.3382 0.9473
0.7124 2.3656 0.9474
0.6269 2.3899 0.9475
0.5407 2.4112 0.9476
0.4537 2.4293 0.9477
0.3661 2.4442 0.9478
0.2781 2.4560 0.9479
0.1896 2.4645 0.9480
0.1009 2.4699 0.9480
0.0121 2.4721 0.9481
-0.0768 2.4710 0.9481
-0.1655 2.4667 0.9482
-0.2541 2.4592 0.9482
-0.3423 2.4485 0.9482
-0.4301 2.4346 0.9482
-0.5173 2.4175 0.9482
-0.6039 2.3973 0.9482
-0.6897 2.3740 0.9481
-0.7745 2.3476 0.9481
-0.8583 2.3181 0.9480
-2.3700 5.7562 2.3874
-2.5754 5.6673 2.3874
-2.7774 5.5712 2.3874
-2.9759 5.4678 2.3874
-3.1705 5.3573 2.3874
-3.3611 5.2400 2.3874
-3.5473 5.1158 2.3874
-3.7289 4.9851 2.3874
-3.9057 4.8479 2.3874
-4.0775 4.7044 2.3874
-4.2440 4.5549 2.3874
-4.4051 4.3995 2.3874
-4.5604 4.2384 2.3874
-4.7099 4.0718 2.3874
-4.8533 3.9000 2.3874
-4.9905 3.7231 2.3874
-5.1212 3.5414 2.3874
-5.2452 3.3551 2.3874
-5.3626 3.1645 2.3874
-5.4730 2.9697 2.3874
-5.5763 2.7712 2.3874
-5.6724 2.5690 2.3874
-5.7612 2.3635 2.3874
-5.8426 2.1550 2.3874
-5.9164 1.9437 2.3874
-5.9826 1.7298 2.3874
-6.0411 1.5137 2.3874
-6.0917 1.2956 2.3874
-6.1345 1.0759 2.3874
-6.1694 0.8547 2.3874
-6.1963 0.6325 2.3874
-6.2152 0.4094 2.3874
-6.2261 0.1857 2.3874
-6.2289 -0.0382 2.3874
-6.2237 -0.2620 2.3874
-6.2104 -0.4855 2.3874
-6.1891 -0.7084 2.3874
-6.1598 -0.9304 2.3874
-6.1226 -1.1513 2.3874
-6.0774 -1.3706 2.3874
-6.0244 -1.5882 2.3874
-5.9636 -1.8037 2.3874
-5.8951 -2.0170 2.3874
-5.8190 -2.2276 2.3874
-5.7353 -2.4353 2.3874
-5.6442 -2.6400 2.3874
-5.5459 -2.8412 2.3874
-5.4403 -3.0387 2.3874
-5.3278 -3.2324 2.3874
-5.2083 -3.4219 2.3874
-5.0821 -3.6069 2.3874
-4.9493 -3.7873 2.3874
-4.8101 -3.9628 2.3874
-4.6647 -4.1333 2.3874
-4.5133 -4.2983 2.3874
-4.3560 -4.4579 2.3874
-4.1931 -4.6116 2.3874
-4.0247 -4.7595 2.3874
-3.8511 -4.9011 2.3874
-3.6726 -5.0364 2.3874
-3.4893 -5.1653 2.3874
-3.3015 -5.2875 2.3874
-3.1094 -5.4028 2.3874
-2.9133 -5.5111 2.3874
-2.7134 -5.6124 2.3874
-2.5100 -5.7063 2.3874
-2.3033 -5.7930 2.3874
-2.0937 -5.8721 2.3874
-1.8813 -5.9436 2.3874
-1.6666 -6.0075 2.3874
-1.4496 -6.0635 2.3874
-1.2308 -6.1118 2.3874
-1.0104 -6.1521 2.3874
-0.7886 -6.1845 2.3874
-0.5659 -6.2089 2.3874
-0.3424 -6.2253 2.3874
-0.1185 -6.2336 2.3874
0.1056 -6.2339 2.3874
0.3296 -6.2261 2.3874
0.5531 -6.2102 2.3874
0.7759 -6.1863 2.3874
0.9977 -6.1545 2.3874
1.2182 -6.1146 2.3874
-3.9915 -4.2574 2.3874
-3.8360 -4.3982 2.3874
-3.6755 -4.5333 2.3874
-3.5103 -4.6626 2.3874
-3.3406 -4.7858 2.3874
-3.1665 -4.9028 2.3874
-2.9883 -5.0136 2.3874
-2.8062 -5.1178 2.3874
-2.6205 -5.2154 2.3874
-2.4315 -5.3063 2.3874
-2.2393 -5.3903 2.3874
-2.0441 -5.4674 2.3874
-1.8463 -5.5374 2.3874
-1.6462 -5.6003 2.3874
-1.4439 -5.6559 2.3874
-1.2397 -5.7042 2.3874
-1.0339 -5.7451 2.3874
-0.8268 -5.7786 2.3874
-0.6186 -5.8046 2.3874
-0.4096 -5.8231 2.3874
-0.2001 -5.8341 2.3874
0.0097 -5.8376 2.3874
0.2195 -5.8335 2.3874
0.4290 -5.8219 2.3874
0.6379 -5.8027 2.3874
0.8460 -5.7760 2.3874
1.0530 -5.7419 2.3874
1.2587 -5.7004 2.3874
1.4627 -5.6514 2.3874
1.6648 -5.5952 2.3874
1.8648 -5.5317 2.3874
2.0624 -5.4611 2.3874
2.2573 -5.3835 2.3874
2.4493 -5.2988 2.3874
2.6381 -5.2073 2.3874
2.8235 -5.1091 2.3874
3.0053 -5.0043 2.3874
3.1831 -4.8930 2.3874
3.3569 -4.7754 2.3874
3.5263 -4.6517 2.3874
3.6911 -4.5219 2.3874
3.8512 -4.3863 2.3874
4.0063 -4.2450 2.3874
4.1562 -4.0982 2.3874
4.3007 -3.9461 2.3874
4.4396 -3.7889 2.3874
4.5729 -3.6269 2.3874
4.7001 -3.4601 2.3874
4.8214 -3.2889 2.3874
4.9364 -3.1135 2.3874
5.0450 -2.9340 2.3874
5.1470 -2.7508 2.3874
5.2424 -2.5640 2.3874
5.3311 -2.3739 2.3874
5.4128 -2.1807 2.3874
5.4876 -1.9847 2.3874
5.5552 -1.7862 2.3874
5.6157 -1.5853 2.3874
5.6689 -1.3825 2.3874
5.7148 -1.1778 2.3874
5.7533 -0.9716 2.3874
5.7843 -0.7642 2.3874
5.8079 -0.5558 2.3874
5.8240 -0.3467 2.3874
5.8325 -0.1372 2.3874
5.8335 0.0725 2.3874
5.8270 0.2821 2.3874
5.8129 0.4913 2.3874
5.7913 0.6999 2.3874
5.7623 0.9076 2.3874
5.7258 1.1140 2.3874
5.6819 1.3191 2.3874
5.6307 1.5224 2.3874
5.5722 1.7237 2.3874
5.5065 1.9228 2.3874
5.4336 2.1194 2.3874
5.3538 2.3133 2.3874
5.2671 2.5041 2.3874
5.1735 2.6918 2.3874
5.0733 2.8759 2.3874
4.9666 3.0563 2.3874
4.8534 3.2327 2.3874
4.7339 3.4050 2.3874
4.6084 3.5729 2.3874
4.4769 3.7361 2.3874
4.3396 3.8945 2.3874
4.1967 4.0479 2.3874
4.0484 4.1960 2.3874
3.8949 4.3387 2.3874
3.7364 4.4758 2.3874
3.5730 4.6071 2.3874
3.4051 4.7325 2.3874
3.2327 4.8517 2.3874
3.0562 4.9647 2.3874
2.8757 5.0712 2.3874
2.6915 5.1712 2.3874
2.5039 5.2645 2.3874
0.9171 2.1216 0.9466
0.8403 2.1535 0.9467
0.7625 2.1825 0.9468
0.6836 2.2088 0.9469
0.6038 2.2322 0.9471
0.5233 2.2526 0.9472
0.4420 2.2702 0.9473
0.3601 2.2848 0.9473
0.2778 2.2964 0.9474
0.1951 2.3051 0.9475
0.1121 2.3107 0.9475
0.0290 2.3134 0.9476
-0.0542 2.3130 0.9476
-0.1373 2.3096 0.9477
-0.2202 2.3033 0.9477
-0.3029 2.2939 0.9477
-0.3851 2.2815 0.9477
-0.4669 2.2662 0.9477
-0.5480 2.2479 0.9477
-0.6284 2.2267 0.9476
-0.7080 2.2026 0.9476
-0.7867 2.1756 0.9476
-0.8644 2.1458 0.9475
-2.3709 5.3250 2.3874
-2.5607 5.2364 2.3874
-2.7473 5.1410 2.3874
-2.9304 5.0389 2.3874
-3.1096 4.9304 2.3874
-3.2849 4.8155 2.3874
-3.4558 4.6944 2.3874
-3.6224 4.5672 2.3874
-3.7843 4.4341 2.3874
-3.9413 4.2953 2.3874
-4.0932 4.1509 2.3874
-4.2398 4.0012 2.3874
-4.3809 3.8462 2.3874
-4.5164 3.6864 2.3874
-4.6461 3.5217 2.3874
-4.7697 3.3525 2.3874
-4.8873 3.1790 2.3874
-4.9985 3.0013 2.3874
-5.1032 2.8198 2.3874
-5.2014 2.6346 2.3874
-5.2928 2.4460 2.3874
-5.3774 2.2542 2.3874
-5.4551 2.0595 2.3874
-5.5257 1.8622 2.3874
-5.5892 1.6624 2.3874
-5.6455 1.4605 2.3874
-5.6945 1.2567 2.3874
-5.7361 1.0512 2.3874
-5.7704 0.8444 2.3874
-5.7971 0.6365 2.3874
-5.8164 0.4277 2.3874
-5.8282 0.2184 2.3874
-5.8324 0.0088 2.3874
-5.8291 -0.2008 2.3874
-5.8183 -0.4102 2.3874
-5.8000 -0.6191 2.3874
-5.7741 -0.8272 2.3874
-5.7408 -1.0342 2.3874
-5.7001 -1.2399 2.3874
-5.6520 -1.4439 2.3874
-5.5966 -1.6462 2.3874
-5.5340 -1.8463 2.3874
-5.4642 -2.0441 2.3874
-5.3874 -2.2392 2.3874
-5.3035 -2.4314 2.3874
-5.2129 -2.6205 2.3874
-5.1155 -2.8062 2.3874
-5.0114 -2.9884 2.3874
-4.9009 -3.1666 2.3874
-4.7841 -3.3408 2.3874
-4.6610 -3.5106 2.3874
-4.5320 -3.6760 2.3874
-4.3970 -3.8366 2.3874
-4.2564 -3.9922 2.3874
-4.1103 -4.1427 2.3874
-3.9588 -4.2878 2.3874
-3.8023 -4.4274 2.3874
-3.6408 -4.5613 2.3874
-3.4746 -4.6893 2.3874
-3.3039 -4.8112 2.3874
-3.1289 -4.9269 2.3874
-2.9499 -5.0363 2.3874
-2.7671 -5.1391 2.3874
-2.5806 -5.2353 2.3874
-2.3908 -5.3248 2.3874
-2.1980 -5.4073 2.3874
-2.0023 -5.4829 2.3874
-1.8040 -5.5514 2.3874
-1.6033 -5.6127 2.3874
-1.4006 -5.6668 2.3874
-1.1961 -5.7135 2.3874
-0.9900 -5.7528 2.3874
-0.7826 -5.7848 2.3874
-0.5742 -5.8092 2.3874
-0.3651 -5.8261 2.3874
-0.1555 -5.8355 2.3874
0.0543 -5.8373 2.3874
0.2640 -5.8317 2.3874
0.4734 -5.8184 2.3874
0.6822 -5.7977 2.3874
0.8901 -5.7694 2.3874
1.0969 -5.7337 2.3874
1.3022 -5.6906 2.3874
1.5058 -5.6401 2.3874
1.7076 -5.5823 2.3874
1.9071 -5.5173 2.3874
2.1041 -5.4452 2.3874
2.2984 -5.3660 2.3874
2.4897 -5.2799 2.3874
2.6778 -5.1870 2.3874
2.8625 -5.0874 2.3874
3.0434 -4.9812 2.3874
3.2204 -4.8686 2.3874
3.3933 -4.7496 2.3874
3.5617 -4.6246 2.3874
3.7256 -4.4935 2.3874
3.8846 -4.3567 2.3874
4.0386 -4.2142 2.3874
4.1873 -4.0663 2.3874
4.3307 -3.9131 2.3874
4.4684 -3.7549 2.3874
4.6004 -3.5918 2.3874
4.7265 -3.4241 2.3874
4.8463 -3.2520 2.3874
4.9600 -3.0757 2.3874
5.0672 -2.8954 2.3874
5.1679 -2.7113 2.3874
5.2619 -2.5238 2.3874
5.3490 -2.3330 2.3874
5.4293 -2.1392 2.3874
5.5025 -1.9427 2.3874
5.5687 -1.7436 2.3874
5.6276 -1.5424 2.3874
5.6793 -1.3391 2.3874
5.7236 -1.1341 2.3874
5.7605 -0.9276 2.3874
5.7899 -0.7200 2.3874
5.8119 -0.5114 2.3874
5.8264 -0.3022 2.3874
5.8333 -0.0926 2.3874
5.8327 0.1171 2.3874
5.8246 0.3266 2.3874
5.8090 0.5357 2.3874
5.7858 0.7441 2.3874
5.7551 0.9516 2.3874
5.7171 1.1578 2.3874
5.6716 1.3625 2.3874
5.6188 1.5654 2.3874
5.5588 1.7662 2.3874
5.4916 1.9648 2.3874
5.4173 2.1609 2.3874
5.3360 2.3541 2.3874
5.2478 2.5443 2.3874
5.1528 2.7312 2.3874
5.0512 2.9146 2.3874
4.9430 3.0941 2.3874
4.8285 3.2697 2.3874
4.7077 3.4411 2.3874
4.5809 3.6080 2.3874
4.4482 3.7702 2.3874
4.3097 3.9275 2.3874
4.1656 4.0798 2.3874
4.0162 4.2268 2.3874
3.8616 4.3683 2.3874
3.7020 4.5042 2.3874
3.5377 4.6343 2.3874
3.3688 4.7583 2.3874
3.1955 4.8762 2.3874
3.0181 4.9878 2.3874
2.8368 5.0930 2.3874
2.6519 5.1916 2.3874
2.4636 5.2835 2.3874
0.9009 2.1286 0.9466
0.8239 2.1599 0.9467
0.7458 2.1884 0.9469
0.6667 2.2140 0.9470
0.5868 2.2368 0.9471
0.5060 2.2566 0.9472
0.4246 2.2736 0.9473
0.3427 2.2875 0.9474
0.2603 2.2985 0.9474
0.1775 2.3065 0.9475
0.0945 2.3116 0.9476
0.0113 2.3136 0.9476
-0.0718 2.3125 0.9476
-0.1549 2.3085 0.9477
-0.2378 2.3015 0.9477
-0.3204 2.2915 0.9477
-0.4025 2.2785 0.9477
-0.4842 2.2625 0.9477
-0.5652 2.2436 0.9477
-0.6454 2.2218 0.9476
-0.7249 2.1971 0.9476
-0.8033 2.1695 0.9475
-0.8807 2.1391 0.9475
-2.4115 5.3067 2.3874
-2.6007 5.2166 2.3874
-2.7865 5.1198 2.3874
-2.9688 5.0164 2.3874
-3.1472 4.9065 2.3874
-3.3216 4.7903 2.3874
-3.4916 4.6678 2.3874
-3.6572 4.5394 2.3874
-3.8181 4.4050 2.3874
-3.9740 4.2650 2.3874
-4.1248 4.1195 2.3874
-4.2703 3.9686 2.3874
-4.4102 3.8127 2.3874
-4.5445 3.6518 2.3874
-4.6729 3.4861 2.3874
-4.7952 3.3160 2.3874
-4.9114 3.1415 2.3874
-5.0213 2.9630 2.3874
-5.1246 2.7807 2.3874
-5.2214 2.5948 2.3874
-5.3114 2.4055 2.3874
-5.3945 2.2131 2.3874
-5.4707 2.0178 2.3874
-5.5398 1.8199 2.3874
-5.6018 1.6197 2.3874
-5.6565 1.4173 2.3874
-5.7040 1.2131 2.3874
-5.7440 1.0074 2.3874
-5.7767 0.8003 2.3874
-5.8019 0.5922 2.3874
-5.8196 0.3833 2.3874
-5.8297 0.1739 2.3874
-5.8324 -0.0358 2.3874
-5.8275 -0.2454 2.3874
-5.8150 -0.4547 2.3874
-5.7951 -0.6634 2.3874
-5.7677 -0.8713 2.3874
-5.7328 -1.0780 2.3874
-5.6905 -1.2834 2.3874
-5.6409 -1.4871 2.3874
-5.5839 -1.6889 2.3874
-5.5198 -1.8886 2.3874
-5.4485 -2.0858 2.3874
-5.3701 -2.2803 2.3874
-5.2848 -2.4719 2.3874
-5.1927 -2.6603 2.3874
-5.0939 -2.8453 2.3874
-4.9885 -3.0266 2.3874
-4.8766 -3.2040 2.3874
-4.7584 -3.3773 2.3874
-4.6341 -3.5462 2.3874
-4.5038 -3.7105 2.3874
-4.3676 -3.8701 2.3874
-4.2258 -4.0246 2.3874
-4.0785 -4.1740 2.3874
-3.9260 -4.3179 2.3874
-3.7683 -4.4563 2.3874
-3.6058 -4.5890 2.3874
-3.4387 -4.7157 2.3874
-3.2670 -4.8363 2.3874
-3.0912 -4.9507 2.3874
-2.9113 -5.0587 2.3874
-2.7277 -5.1601 2.3874
-2.5405 -5.2549 2.3874
-2.3501 -5.3429 2.3874
-2.1566 -5.4240 2.3874
-1.9603 -5.4981 2.3874
-1.7615 -5.5650 2.3874
-1.5604 -5.6248 2.3874
-1.3573 -5.6773 2.3874
-1.1524 -5.7225 2.3874
-0.9460 -5.7602 2.3874
-0.7384 -5.7906 2.3874
-0.5298 -5.8134 2.3874
-0.3206 -5.8287 2.3874
-0.1109 -5.8365 2.3874
0.0989 -5.8368 2.3874
0.3086 -5.8295 2.3874
0.5179 -5.8146 2.3874
0.7265 -5.7923 2.3874
0.9342 -5.7624 2.3874
1.1406 -5.7251 2.3874
-3.7483 -3.9981 2.3874
-3.6023 -4.1303 2.3874
-3.4516 -4.2571 2.3874
-3.2964 -4.3785 2.3874
-3.1370 -4.4942 2.3874
-2.9735 -4.6042 2.3874
-2.8062 -4.7081 2.3874
-2.6352 -4.8060 2.3874
-2.4609 -4.8977 2.3874
-2.2833 -4.9830 2.3874
-2.1028 -5.0619 2.3874
-1.9195 -5.1343 2.3874
-1.7338 -5.2000 2.3874
-1.5458 -5.2591 2.3874
-1.3559 -5.3113 2.3874
-1.1641 -5.3566 2.3874
-0.9709 -5.3950 2.3874
-0.7764 -5.4265 2.3874
-0.5809 -5.4509 2.3874
-0.3847 -5.4683 2.3874
-0.1879 -5.4787 2.3874
0.0091 -5.4819 2.3874
0.2061 -5.4780 2.3874
0.4028 -5.4671 2.3874
0.5990 -5.4491 2.3874
0.7945 -5.4241 2.3874
0.9889 -5.3920 2.3874
1.1820 -5.3530 2.3874
1.3736 -5.3071 2.3874
1.5634 -5.2543 2.3874
1.7512 -5.1947 2.3874
1.9367 -5.1284 2.3874
2.1198 -5.0554 2.3874
2.3001 -4.9760 2.3874
2.4774 -4.8901 2.3874
2.6515 -4.7978 2.3874
2.8222 -4.6994 2.3874
2.9892 -4.5949 2.3874
3.1523 -4.4845 2.3874
3.3114 -4.3683 2.3874
3.4662 -4.2464 2.3874
3.6165 -4.1190 2.3874
3.7622 -3.9863 2.3874
3.9029 -3.8485 2.3874
4.0386 -3.7057 2.3874
4.1691 -3.5581 2.3874
4.2942 -3.4059 2.3874
4.4138 -3.2494 2.3874
4.5276 -3.0886 2.3874
4.6356 -2.9238 2.3874
4.7376 -2.7553 2.3874
4.8334 -2.5832 2.3874
4.9231 -2.4078 2.3874
5.0063 -2.2293 2.3874
5.0831 -2.0479 2.3874
5.1533 -1.8638 2.3874
5.2168 -1.6774 2.3874
5.2736 -1.4888 2.3874
5.3236 -1.2983 2.3874
5.3667 -1.1061 2.3874
5.4028 -0.9125 2.3874
5.4320 -0.7177 2.3874
5.4541 -0.5220 2.3874
5.4692 -0.3257 2.3874
5.4773 -0.1289 2.3874
5.4782 0.0680 2.3874
5.4721 0.2649 2.3874
5.4589 0.4614 2.3874
5.4386 0.6572 2.3874
5.4114 0.8522 2.3874
5.3771 1.0461 2.3874
5.3359 1.2387 2.3874
5.2878 1.4296 2.3874
5.2328 1.6187 2.3874
5.1711 1.8057 2.3874
5.1028 1.9903 2.3874
5.0278 2.1724 2.3874
4.9464 2.3516 2.3874
4.8585 2.5278 2.3874
4.7644 2.7007 2.3874
4.6642 2.8702 2.3874
4.5579 3.0359 2.3874
4.4457 3.1977 2.3874
4.3278 3.3553 2.3874
4.2043 3.5086 2.3874
4.0754 3.6574 2.3874
3.9412 3.8014 2.3874
3.8020 3.9405 2.3874
3.6578 4.0745 2.3874
3.5089 4.2033 2.3874
3.3555 4.3266 2.3874
3.1978 4.4443 2.3874
3.0359 4.5563 2.3874
2.8701 4.6624 2.3874
2.7007 4.7625 2.3874
2.5277 4.8564 2.3874
2.3515 4.9440 2.3874
0.8609 1.9916 0.9462
0.7889 2.0216 0.9463
0.7158 2.0488 0.9464
0.6417 2.0735 0.9465
0.5668 2.0954 0.9467
0.4912 2.1146 0.9467
0.4149 2.1311 0.9468
0.3381 2.1448 0.9469
0.2608 2.1557 0.9470
0.1831 2.1638 0.9470
0.1053 2.1691 0.9471
0.0272 2.1716 0.9471
-0.0509 2.1712 0.9472
-0.1289 2.1680 0.9472
-0.2067 2.1620 0.9472
-0.2843 2.1532 0.9472
-0.3615 2.1416 0.9472
-0.4382 2.1272 0.9472
-0.5144 2.1101 0.9472
-0.5899 2.0902 0.9472
-0.6646 2.0675 0.9472
-0.7385 2.0422 0.9471
-0.8114 2.0143 0.9471
-0.8832 1.9837 0.9470
-2.4049 4.9176 2.3874
-2.5801 4.8280 2.3874
-2.7520 4.7322 2.3874
-2.9203 4.6303 2.3874
-3.0849 4.5224 2.3874
-3.2455 4.4086 2.3874
-3.4019 4.2892 2.3874
-3.5539 4.1642 2.3874
-3.7014 4.0338 2.3874
-3.8440 3.8982 2.3874
-3.9817 3.7576 2.3874
-4.1142 3.6121 2.3874
-4.2415 3.4619 2.3874
-4.3632 3.3073 2.3874
-4.4794 3.1484 2.3874
-4.5897 2.9854 2.3874
-4.6942 2.8186 2.3874
-4.7925 2.6481 2.3874
-4.8847 2.4742 2.3874
-4.9706 2.2970 2.3874
-5.0501 2.1170 2.3874
-5.1230 1.9341 2.3874
-5.1893 1.7488 2.3874
-5.2489 1.5612 2.3874
-5.3018 1.3715 2.3874
-5.3478 1.1801 2.3874
-5.3869 0.9872 2.3874
-5.4190 0.7930 2.3874
-5.4441 0.5977 2.3874
-5.4622 0.4017 2.3874
-5.4733 0.2051 2.3874
-5.4773 0.0082 2.3874
-5.4742 -0.1886 2.3874
-5.4640 -0.3853 2.3874
-5.4467 -0.5814 2.3874
-5.4225 -0.7768 2.3874
-5.3912 -0.9712 2.3874
-5.3529 -1.1644 2.3874
-5.3078 -1.3560 2.3874
-5.2558 -1.5460 2.3874
-5.1969 -1.7339 2.3874
-5.1314 -1.9196 2.3874
-5.0592 -2.1028 2.3874
-4.9805 -2.2834 2.3874
-4.8953 -2.4609 2.3874
-4.8039 -2.6353 2.3874
-4.7062 -2.8064 2.3874
-4.6024 -2.9737 2.3874
-4.4926 -3.1373 2.3874
-4.3771 -3.2968 2.3874
-4.2559 -3.4521 2.3874
-4.1292 -3.6029 2.3874
-3.9971 -3.7490 2.3874
-3.8599 -3.8903 2.3874
-3.7177 -4.0266 2.3874
-3.5706 -4.1577 2.3874
