ply
format ascii 1.0
element vertex 2168
property float32 x
property float32 y
property float32 z
end_header
5.2470 6.5949 2.3874
5.0066 6.7790 2.3874
4.7597 6.9543 2.3874
4.5067 7.1206 2.3874
4.2479 7.2777 2.3874
3.9837 7.4254 2.3874
3.7142 7.5636 2.3874
3.4401 7.6920 2.3874
3.1614 7.8104 2.3874
2.8788 7.9188 2.3874
2.5924 8.0170 2.3874
0.9163 3.2251 0.9500
0.8000 3.2564 0.9501
0.6826 3.2834 0.9503
0.5642 3.3062 0.9504
0.4451 3.3247 0.9505
0.3254 3.3389 0.9506
0.2053 3.3487 0.9507
0.0849 3.3542 0.9508
-0.0357 3.3553 0.9509
-0.1562 3.3520 0.9509
-0.2765 3.3443 0.9509
-0.3965 3.3323 0.9510
-0.5159 3.3159 0.9510
-0.6347 3.2952 0.9510
-0.7527 3.2702 0.9509
-0.8696 3.2409 0.9509
-2.4743 8.0532 2.3874
-2.7620 7.9592 2.3874
-3.0461 7.8549 2.3874
-3.3264 7.7404 2.3874
-3.6023 7.6160 2.3874
-3.8737 7.4818 2.3874
-4.1400 7.3379 2.3874
-4.4010 7.1845 2.3874
-4.6563 7.0218 2.3874
-4.9056 6.8501 2.3874
-5.1486 6.6696 2.3874
-5.3850 6.4804 2.3874
-5.6144 6.2829 2.3874
-5.8366 6.0773 2.3874
-6.0513 5.8638 2.3874
-6.2581 5.6428 2.3874
-6.4570 5.4145 2.3874
-6.6475 5.1791 2.3874
-6.8294 4.9371 2.3874
-7.0025 4.6887 2.3874
-7.1666 4.4343 2.3874
-7.3215 4.1741 2.3874
-7.4669 3.9085 2.3874
-7.6027 3.6378 2.3874
-7.7287 3.3625 2.3874
-7.8448 3.0828 2.3874
-7.9507 2.7990 2.3874
-8.0464 2.5117 2.3874
-8.1317 2.2211 2.3874
-8.2065 1.9276 2.3874
-8.2707 1.6316 2.3874
-8.3243 1.3335 2.3874
-8.3671 1.0337 2.3874
-8.3991 0.7325 2.3874
-8.4203 0.4303 2.3874
-8.4307 0.1276 2.3874
-8.4301 -0.1754 2.3874
-8.4187 -0.4781 2.3874
-8.3964 -0.7802 2.3874
-8.3632 -1.0814 2.3874
-8.3193 -1.3812 2.3874
-8.2646 -1.6792 2.3874
-8.1992 -1.9750 2.3874
-8.1233 -2.2684 2.3874
-8.0369 -2.5588 2.3874
-7.9400 -2.8459 2.3874
-7.8330 -3.1294 2.3874
-7.7158 -3.4089 2.3874
-7.5886 -3.6840 2.3874
-7.4517 -3.9543 2.3874
-7.3051 -4.2196 2.3874
-7.1490 -4.4794 2.3874
-6.9837 -4.7335 2.3874
-6.8094 -4.9815 2.3874
-6.6263 -5.2230 2.3874
-6.4346 -5.4578 2.3874
-6.2346 -5.6856 2.3874
-6.0266 -5.9061 2.3874
-5.8107 -6.1189 2.3874
-5.5873 -6.3239 2.3874
-5.3567 -6.5207 2.3874
-5.1192 -6.7090 2.3874
-4.8750 -6.8888 2.3874
-4.6246 -7.0596 2.3874
-4.3681 -7.2214 2.3874
-4.1060 -7.3738 2.3874
-3.8386 -7.5167 2.3874
-3.5662 -7.6499 2.3874
-3.2892 -7.7732 2.3874
-3.0079 -7.8865 2.3874
-2.7227 -7.9896 2.3874
-2.4340 -8.0823 2.3874
-2.1422 -8.1647 2.3874
-1.8476 -8.2365 2.3874
-1.5506 -8.2976 2.3874
-1.2515 -8.3481 2.3874
-0.9509 -8.3877 2.3874
-0.6490 -8.4166 2.3874
-0.3463 -8.4345 2.3874
-0.0431 -8.4416 2.3874
0.2601 -8.4377 2.3874
0.5630 -8.4230 2.3874
0.8652 -8.3973 2.3874
1.1663 -8.3609 2.3874
1.4658 -8.3136 2.3874
1.7635 -8.2556 2.3874
2.0589 -8.1869 2.3874
2.3516 -8.1076 2.3874
2.6413 -8.0179 2.3874
2.9276 -7.9178 2.3874
3.2101 -7.8075 2.3874
3.4884 -7.6871 2.3874
3.7622 -7.5567 2.3874
4.0312 -7.4167 2.3874
4.2949 -7.2670 2.3874
4.5531 -7.1079 2.3874
4.8054 -6.9397 2.3874
5.0515 -6.7625 2.3874
5.2911 -6.5766 2.3874
5.5238 -6.3822 2.3874
5.7493 -6.1795 2.3874
5.9675 -5.9689 2.3874
6.1779 -5.7506 2.3874
6.3803 -5.5248 2.3874
6.5745 -5.2920 2.3874
-6.8900 -3.5790 2.3874
-6.7572 -3.8243 2.3874
-6.6157 -4.0647 2.3874
-6.4656 -4.2998 2.3874
-6.3072 -4.5294 2.3874
-6.1406 -4.7532 2.3874
-5.9661 -4.9709 2.3874
-5.7838 -5.1821 2.3874
-5.5941 -5.3867 2.3874
-5.3972 -5.5843 2.3874
-5.1933 -5.7747 2.3874
-4.9826 -5.9577 2.3874
-4.7655 -6.1330 2.3874
-4.5423 -6.3003 2.3874
-4.3132 -6.4596 2.3874
-4.0784 -6.6105 2.3874
-3.8384 -6.7529 2.3874
-3.5935 -6.8865 2.3874
-3.3439 -7.0113 2.3874
-3.0900 -7.1270 2.3874
-2.8320 -7.2336 2.3874
-2.5704 -7.3307 2.3874
-2.3055 -7.4184 2.3874
-2.0376 -7.4966 2.3874
-1.7670 -7.5650 2.3874
-1.4941 -7.6237 2.3874
-1.2194 -7.6726 2.3874
-0.9430 -7.7115 2.3874
-0.6654 -7.7405 2.3874
-0.3870 -7.7594 2.3874
-0.1080 -7.7684 2.3874
0.1711 -7.7673 2.3874
0.4500 -7.7562 2.3874
0.7283 -7.7350 2.3874
1.0056 -7.7039 2.3874
1.2817 -7.6628 2.3874
1.5561 -7.6118 2.3874
1.8285 -7.5510 2.3874
2.0985 -7.4805 2.3874
2.3659 -7.4002 2.3874
2.6301 -7.3104 2.3874
2.8910 -7.2112 2.3874
3.1481 -7.1027 2.3874
3.4012 -6.9849 2.3874
3.6498 -6.8582 2.3874
3.8938 -6.7226 2.3874
4.1327 -6.5783 2.3874
4.3662 -6.4256 2.3874
4.5941 -6.2645 2.3874
4.8161 -6.0953 2.3874
5.0318 -5.9183 2.3874
5.2411 -5.7337 2.3874
5.4435 -5.5416 2.3874
5.6390 -5.3424 2.3874
5.8271 -5.1363 2.3874
6.0077 -4.9236 2.3874
6.1805 -4.7045 2.3874
6.3454 -4.4793 2.3874
6.5020 -4.2484 2.3874
6.6503 -4.0120 2.3874
6.7899 -3.7705 2.3874
6.9208 -3.5241 2.3874
7.0427 -3.2731 2.3874
7.1555 -3.0179 2.3874
7.2591 -2.7588 2.3874
7.3533 -2.4962 2.3874
7.4380 -2.2304 2.3874
7.5131 -1.9618 2.3874
7.5785 -1.6906 2.3874
7.6341 -1.4172 2.3874
7.6798 -1.1421 2.3874
7.7156 -0.8655 2.3874
7.7415 -0.5877 2.3874
7.7573 -0.3092 2.3874
7.7632 -0.0303 2.3874
7.7590 0.2484 2.3874
7.7448 0.5270 2.3874
7.7206 0.8049 2.3874
7.6865 1.0817 2.3874
7.6424 1.3569 2.3874
7.5884 1.6306 2.3874
7.5247 1.9020 2.3874
7.4513 2.1710 2.3874
7.3682 2.4372 2.3874
7.2757 2.7002 2.3874
7.1738 2.9597 2.3874
7.0626 3.2154 2.3874
6.9423 3.4669 2.3874
6.8130 3.7139 2.3874
6.6750 3.9562 2.3874
6.5284 4.1933 2.3874
6.3733 4.4249 2.3874
6.2101 4.6509 2.3874
6.0388 4.8708 2.3874
5.8598 5.0844 2.3874
5.6732 5.2915 2.3874
5.4793 5.4917 2.3874
5.2783 5.6849 2.3874
5.0706 5.8707 2.3874
4.8563 6.0489 2.3874
4.6357 6.2193 2.3874
4.4092 6.3816 2.3874
4.1770 6.5357 2.3874
3.9394 6.6814 2.3874
3.6968 6.8185 2.3874
3.4494 6.9467 2.3874
3.1975 7.0660 2.3874
2.9416 7.1762 2.3874
2.6818 7.2771 2.3874
2.4186 7.3686 2.3874
0.8558 2.9623 0.9492
0.7489 2.9915 0.9493
0.6410 3.0169 0.9495
0.5323 3.0383 0.9496
0.4228 3.0558 0.9497
0.3128 3.0693 0.9498
0.2024 3.0788 0.9499
0.0916 3.0843 0.9500
-0.0192 3.0857 0.9500
-0.1301 3.0832 0.9501
-0.2408 3.0766 0.9501
-0.3511 3.0660 0.9501
-0.4611 3.0515 0.9501
-0.5704 3.0329 0.9501
-0.6789 3.0104 0.9501
-0.7866 2.9840 0.9501
-0.8933 2.9537 0.9500
-2.5100 7.3372 2.3874
-2.7720 7.2423 2.3874
-3.0304 7.1381 2.3874
-3.2849 7.0247 2.3874
-3.5352 6.9022 2.3874
-3.7809 6.7708 2.3874
-4.0218 6.6307 2.3874
-4.2574 6.4820 2.3874
-4.4876 6.3250 2.3874
-4.7120 6.1598 2.3874
-4.9303 5.9866 2.3874
-5.1423 5.8058 2.3874
-5.3476 5.6174 2.3874
-5.5460 5.4218 2.3874
-5.7374 5.2191 2.3874
-5.9213 5.0098 2.3874
-6.0976 4.7939 2.3874
-6.2660 4.5719 2.3874
-6.4263 4.3439 2.3874
-6.5784 4.1104 2.3874
-6.7220 3.8715 2.3874
-6.8569 3.6276 2.3874
-6.9830 3.3790 2.3874
-7.1001 3.1261 2.3874
-7.2080 2.8691 2.3874
-7.3066 2.6084 2.3874
-7.3958 2.3443 2.3874
-7.4755 2.0773 2.3874
-7.5455 1.8074 2.3874
-7.6058 1.5352 2.3874
-7.6563 1.2610 2.3874
-7.6969 0.9852 2.3874
-7.7276 0.7081 2.3874
-7.7483 0.4301 2.3874
-7.7590 0.1515 2.3874
-7.7597 -0.1273 2.3874
-7.7504 -0.4060 2.3874
-7.7310 -0.6842 2.3874
-7.7017 -0.9615 2.3874
-7.6625 -1.2376 2.3874
-7.6133 -1.5121 2.3874
-7.5544 -1.7846 2.3874
-7.4856 -2.0549 2.3874
-7.4072 -2.3225 2.3874
-7.3193 -2.5872 2.3874
-7.2219 -2.8486 2.3874
-7.1151 -3.1062 2.3874
-6.9992 -3.3599 2.3874
-6.8742 -3.6093 2.3874
-6.7403 -3.8540 2.3874
-6.5978 -4.0937 2.3874
-6.4467 -4.3282 2.3874
-6.2872 -4.5571 2.3874
-6.1197 -4.7802 2.3874
-5.9442 -4.9971 2.3874
-5.7610 -5.2075 2.3874
-5.5704 -5.4113 2.3874
-5.3726 -5.6080 2.3874
-5.1678 -5.7975 2.3874
-4.9564 -5.9796 2.3874
-4.7385 -6.1539 2.3874
-4.5145 -6.3203 2.3874
-4.2847 -6.4785 2.3874
-4.0493 -6.6284 2.3874
-3.8087 -6.7697 2.3874
-3.5632 -6.9023 2.3874
-3.3130 -7.0260 2.3874
-3.0586 -7.1406 2.3874
-2.8002 -7.2460 2.3874
-2.5381 -7.3420 2.3874
-2.2728 -7.4285 2.3874
-2.0046 -7.5055 2.3874
-1.7337 -7.5728 2.3874
-1.4606 -7.6302 2.3874
-1.1856 -7.6779 2.3874
-0.9091 -7.7156 2.3874
-0.6314 -7.7433 2.3874
-0.3528 -7.7611 2.3874
-0.0738 -7.7688 2.3874
0.2053 -7.7665 2.3874
0.4841 -7.7541 2.3874
0.7623 -7.7318 2.3874
1.0395 -7.6994 2.3874
1.3154 -7.6571 2.3874
1.5896 -7.6049 2.3874
1.8617 -7.5429 2.3874
2.1314 -7.4712 2.3874
2.3984 -7.3897 2.3874
2.6623 -7.2988 2.3874
2.9227 -7.1984 2.3874
3.1793 -7.0887 2.3874
3.4319 -6.9699 2.3874
3.6800 -6.8421 2.3874
3.9233 -6.7054 2.3874
4.1616 -6.5601 2.3874
4.3944 -6.4063 2.3874
4.6216 -6.2442 2.3874
4.8429 -6.0741 2.3874
5.0578 -5.8961 2.3874
5.2663 -5.7105 2.3874
5.4679 -5.5176 2.3874
5.6624 -5.3175 2.3874
5.8496 -5.1106 2.3874
6.0293 -4.8971 2.3874
6.2012 -4.6772 2.3874
6.3650 -4.4514 2.3874
6.5206 -4.2198 2.3874
6.6678 -3.9827 2.3874
6.8064 -3.7406 2.3874
6.9362 -3.4936 2.3874
7.0570 -3.2421 2.3874
7.1687 -2.9864 2.3874
7.2711 -2.7268 2.3874
7.3642 -2.4639 2.3874
7.4477 -2.1977 2.3874
7.5216 -1.9287 2.3874
7.5858 -1.6572 2.3874
7.6402 -1.3836 2.3874
7.6847 -1.1083 2.3874
7.7193 -0.8315 2.3874
7.7439 -0.5536 2.3874
7.7586 -0.2751 2.3874
7.7632 0.0038 2.3874
7.7578 0.2826 2.3874
7.7424 0.5610 2.3874
7.7170 0.8389 2.3874
7.6816 1.1154 2.3874
7.6363 1.3905 2.3874
7.5812 1.6640 2.3874
7.5163 1.9352 2.3874
7.4416 2.2038 2.3874
7.3574 2.4696 2.3874
7.2637 2.7322 2.3874
7.1606 2.9913 2.3874
7.0483 3.2464 2.3874
6.9269 3.4974 2.3874
6.7966 3.7439 2.3874
6.6575 3.9855 2.3874
6.5098 4.2219 2.3874
6.3538 4.4529 2.3874
6.1895 4.6781 2.3874
6.0173 4.8973 2.3874
5.8373 5.1102 2.3874
5.6498 5.3164 2.3874
5.4551 5.5158 2.3874
5.2532 5.7080 2.3874
5.0447 5.8929 2.3874
4.8296 6.0702 2.3874
4.6083 6.2396 2.3874
4.3811 6.4009 2.3874
4.1482 6.5540 2.3874
3.9100 6.6987 2.3874
3.6667 6.8347 2.3874
3.4188 6.9618 2.3874
3.1664 7.0800 2.3874
2.9100 7.1891 2.3874
2.6498 7.2888 2.3874
2.3862 7.3792 2.3874
0.8427 2.9661 0.9492
0.7357 2.9949 0.9494
0.6277 3.0197 0.9495
0.5189 3.0407 0.9496
0.4094 3.0577 0.9497
0.2993 3.0707 0.9498
0.1888 3.0797 0.9499
0.0781 3.0847 0.9500
-0.0328 3.0856 0.9500
-0.1436 3.0826 0.9501
-0.2543 3.0755 0.9501
-0.3646 3.0645 0.9501
-0.4745 3.0494 0.9501
-0.5837 3.0304 0.9501
-0.6922 3.0074 0.9501
-0.7998 2.9805 0.9501
-0.9063 2.9497 0.9500
-2.5423 7.3261 2.3874
-2.8039 7.2300 2.3874
-3.0618 7.1247 2.3874
-3.3158 7.0102 2.3874
-3.5655 6.8866 2.3874
-3.8107 6.7541 2.3874
-4.0509 6.6130 2.3874
-4.2859 6.4632 2.3874
-4.5154 6.3052 2.3874
-4.7390 6.1390 2.3874
-4.9566 5.9649 2.3874
-5.1678 5.7831 2.3874
-5.3723 5.5938 2.3874
-5.5699 5.3973 2.3874
-5.7603 5.1938 2.3874
-5.9433 4.9837 2.3874
-6.1186 4.7671 2.3874
-6.2861 4.5443 2.3874
-6.4454 4.3156 2.3874
-6.5964 4.0814 2.3874
-6.7390 3.8419 2.3874
-6.8728 3.5974 2.3874
-6.9978 3.3483 2.3874
-7.1138 3.0949 2.3874
-7.2206 2.8374 2.3874
-7.3180 2.5763 2.3874
-7.4061 2.3118 2.3874
-7.4846 2.0443 2.3874
-7.5534 1.7742 2.3874
-7.6125 1.5018 2.3874
-7.6618 1.2273 2.3874
-7.7012 0.9514 2.3874
-7.7306 0.6741 2.3874
-7.7501 0.3960 2.3874
-7.7596 0.1174 2.3874
-7.7591 -0.1615 2.3874
-7.7485 -0.4401 2.3874
-7.7280 -0.7182 2.3874
-7.6975 -0.9954 2.3874
-7.6570 -1.2713 2.3874
-7.6066 -1.5455 2.3874
-7.5465 -1.8178 2.3874
-7.4765 -2.0878 2.3874
-7.3970 -2.3551 2.3874
-7.3079 -2.6194 2.3874
-7.2093 -2.8803 2.3874
-7.1014 -3.1375 2.3874
-6.9844 -3.3907 2.3874
-6.8583 -3.6395 2.3874
-6.7233 -3.8836 2.3874
-6.5797 -4.1228 2.3874
-6.4276 -4.3566 2.3874
-6.2671 -4.5848 2.3874
-6.0986 -4.8071 2.3874
-5.9221 -5.0232 2.3874
-5.7381 -5.2328 2.3874
-5.5466 -5.4357 2.3874
-5.3479 -5.6316 2.3874
-5.1423 -5.8202 2.3874
-4.9300 -6.0013 2.3874
-4.7114 -6.1747 2.3874
-4.4867 -6.3401 2.3874
-4.2562 -6.4973 2.3874
-4.0201 -6.6462 2.3874
-3.7789 -6.7864 2.3874
-3.5328 -6.9179 2.3874
-3.2821 -7.0405 2.3874
-3.0271 -7.1540 2.3874
-2.7683 -7.2582 2.3874
-2.5058 -7.3531 2.3874
-2.2401 -7.4385 2.3874
-1.9715 -7.5143 2.3874
-1.7004 -7.5803 2.3874
-1.4270 -7.6366 2.3874
-1.1518 -7.6830 2.3874
-0.8751 -7.7195 2.3874
-0.5973 -7.7460 2.3874
-0.3187 -7.7626 2.3874
-0.0396 -7.7690 2.3874
0.2394 -7.7655 2.3874
0.5182 -7.7519 2.3874
0.7963 -7.7283 2.3874
1.0734 -7.6948 2.3874
1.3491 -7.6513 2.3874
1.6230 -7.5978 2.3874
1.8948 -7.5346 2.3874
2.1643 -7.4617 2.3874
2.4309 -7.3791 2.3874
2.6943 -7.2870 2.3874
2.9543 -7.1855 2.3874
3.2105 -7.0747 2.3874
3.4625 -6.9547 2.3874
3.7100 -6.8258 2.3874
3.9528 -6.6881 2.3874
4.1904 -6.5417 2.3874
4.4226 -6.3869 2.3874
4.6491 -6.2238 2.3874
4.8695 -6.0527 2.3874
5.0837 -5.8738 2.3874
5.2913 -5.6873 2.3874
5.4921 -5.4935 2.3874
5.6857 -5.2925 2.3874
5.8720 -5.0849 2.3874
6.0508 -4.8705 2.3874
-6.3752 -3.3116 2.3874
-6.2524 -3.5386 2.3874
-6.1214 -3.7610 2.3874
-5.9825 -3.9786 2.3874
-5.8359 -4.1911 2.3874
-5.6818 -4.3981 2.3874
-5.5203 -4.5995 2.3874
-5.3517 -4.7949 2.3874
-5.1761 -4.9842 2.3874
-4.9939 -5.1671 2.3874
-4.8052 -5.3432 2.3874
-4.6103 -5.5125 2.3874
-4.4094 -5.6747 2.3874
-4.2028 -5.8296 2.3874
-3.9908 -5.9769 2.3874
-3.7736 -6.1165 2.3874
-3.5516 -6.2482 2.3874
-3.3249 -6.3719 2.3874
-3.0940 -6.4873 2.3874
-2.8590 -6.5944 2.3874
-2.6203 -6.6930 2.3874
-2.3783 -6.7829 2.3874
-2.1332 -6.8640 2.3874
-1.8853 -6.9363 2.3874
-1.6349 -6.9997 2.3874
-1.3825 -7.0539 2.3874
-1.1282 -7.0991 2.3874
-0.8725 -7.1351 2.3874
-0.6157 -7.1619 2.3874
-0.3580 -7.1795 2.3874
-0.0999 -7.1878 2.3874
0.1583 -7.1868 2.3874
0.4163 -7.1765 2.3874
0.6738 -7.1569 2.3874
0.9305 -7.1281 2.3874
1.1859 -7.0901 2.3874
1.4398 -7.0429 2.3874
1.6918 -6.9866 2.3874
1.9417 -6.9213 2.3874
2.1890 -6.8471 2.3874
2.4335 -6.7640 2.3874
2.6749 -6.6722 2.3874
2.9128 -6.5718 2.3874
3.1470 -6.4629 2.3874
3.3770 -6.3456 2.3874
3.6027 -6.2202 2.3874
3.8238 -6.0867 2.3874
4.0399 -5.9453 2.3874
4.2508 -5.7963 2.3874
4.4562 -5.6398 2.3874
4.6558 -5.4760 2.3874
4.8494 -5.3052 2.3874
5.0367 -5.1275 2.3874
5.2175 -4.9432 2.3874
5.3916 -4.7525 2.3874
5.5587 -4.5557 2.3874
5.7187 -4.3530 2.3874
5.8712 -4.1446 2.3874
6.0161 -3.9310 2.3874
6.1533 -3.7123 2.3874
6.2825 -3.4888 2.3874
6.4036 -3.2608 2.3874
6.5165 -3.0286 2.3874
6.6209 -2.7925 2.3874
6.7167 -2.5528 2.3874
6.8039 -2.3098 2.3874
6.8823 -2.0639 2.3874
6.9518 -1.8153 2.3874
7.0123 -1.5643 2.3874
7.0637 -1.3114 2.3874
7.1060 -1.0568 2.3874
7.1392 -0.8008 2.3874
7.1631 -0.5439 2.3874
7.1778 -0.2862 2.3874
7.1833 -0.0282 2.3874
7.1794 0.2298 2.3874
7.1663 0.4876 2.3874
7.1439 0.7447 2.3874
7.1123 1.0008 2.3874
7.0716 1.2556 2.3874
7.0217 1.5087 2.3874
6.9627 1.7599 2.3874
6.8948 2.0088 2.3874
6.8180 2.2551 2.3874
6.7324 2.4985 2.3874
6.6381 2.7387 2.3874
6.5352 2.9753 2.3874
6.4239 3.2080 2.3874
6.3043 3.4366 2.3874
6.1766 3.6607 2.3874
6.0409 3.8801 2.3874
5.8975 4.0945 2.3874
5.7464 4.3036 2.3874
5.5880 4.5071 2.3874
5.4223 4.7048 2.3874
5.2497 4.8964 2.3874
5.0702 5.0817 2.3874
4.8843 5.2604 2.3874
4.6920 5.4324 2.3874
4.4938 5.5973 2.3874
4.2897 5.7550 2.3874
4.0801 5.9052 2.3874
3.8652 6.0478 2.3874
3.6454 6.1827 2.3874
3.4209 6.3095 2.3874
3.1919 6.4282 2.3874
2.9589 6.5386 2.3874
2.7220 6.6405 2.3874
2.4817 6.7339 2.3874
0.8891 2.7087 0.9484
0.7913 2.7393 0.9485
0.6925 2.7663 0.9487
0.5927 2.7897 0.9488
0.4922 2.8095 0.9489
0.3910 2.8256 0.9490
0.2892 2.8381 0.9491
0.1871 2.8468 0.9492
0.0847 2.8519 0.9492
-0.0178 2.8533 0.9493
-0.1203 2.8509 0.9493
-0.2226 2.8448 0.9494
-0.3247 2.8350 0.9494
-0.4263 2.8215 0.9494
-0.5274 2.8044 0.9494
-0.6278 2.7836 0.9494
-0.7274 2.7592 0.9493
-0.8260 2.7312 0.9493
-2.3227 6.7896 2.3874
-2.5651 6.7018 2.3874
-2.8042 6.6053 2.3874
-3.0397 6.5004 2.3874
-3.2713 6.3870 2.3874
-3.4987 6.2655 2.3874
-3.7216 6.1358 2.3874
-3.9397 5.9982 2.3874
-4.1526 5.8529 2.3874
-4.3603 5.7000 2.3874
-4.5623 5.5398 2.3874
-4.7585 5.3724 2.3874
-4.9485 5.1981 2.3874
-5.1321 5.0170 2.3874
-5.3091 4.8295 2.3874
-5.4793 4.6358 2.3874
-5.6424 4.4360 2.3874
-5.7982 4.2306 2.3874
-5.9466 4.0196 2.3874
-6.0873 3.8035 2.3874
-6.2202 3.5825 2.3874
-6.3450 3.3568 2.3874
-6.4617 3.1268 2.3874
-6.5700 2.8927 2.3874
-6.6698 2.6549 2.3874
-6.7611 2.4136 2.3874
-6.8436 2.1693 2.3874
-6.9173 1.9221 2.3874
-6.9821 1.6724 2.3874
-7.0379 1.4205 2.3874
-7.0846 1.1668 2.3874
-7.1222 0.9116 2.3874
-7.1505 0.6552 2.3874
-7.1697 0.3979 2.3874
-7.1796 0.1401 2.3874
-7.1802 -0.1179 2.3874
-7.1715 -0.3757 2.3874
-7.1536 -0.6331 2.3874
-7.1265 -0.8897 2.3874
-7.0902 -1.1452 2.3874
-7.0447 -1.3992 2.3874
-6.9901 -1.6514 2.3874
-6.9265 -1.9014 2.3874
-6.8539 -2.1491 2.3874
-6.7725 -2.3940 2.3874
-6.6824 -2.6358 2.3874
-6.5836 -2.8742 2.3874
-6.4763 -3.1090 2.3874
-6.3606 -3.3397 2.3874
-6.2368 -3.5661 2.3874
-6.1048 -3.7879 2.3874
-5.9650 -4.0049 2.3874
-5.8175 -4.2167 2.3874
-5.6624 -4.4231 2.3874
-5.5000 -4.6237 2.3874
-5.3305 -4.8185 2.3874
-5.1542 -5.0069 2.3874
-4.9711 -5.1890 2.3874
-4.7816 -5.3643 2.3874
-4.5860 -5.5328 2.3874
-4.3844 -5.6941 2.3874
-4.1771 -5.8480 2.3874
-3.9645 -5.9944 2.3874
-3.7467 -6.1331 2.3874
-3.5241 -6.2638 2.3874
-3.2969 -6.3865 2.3874
-3.0654 -6.5009 2.3874
-2.8300 -6.6069 2.3874
-2.5909 -6.7044 2.3874
-2.3484 -6.7933 2.3874
-2.1029 -6.8734 2.3874
-1.8547 -6.9445 2.3874
-1.6041 -7.0068 2.3874
-1.3514 -7.0600 2.3874
-1.0970 -7.1040 2.3874
-0.8411 -7.1389 2.3874
-0.5841 -7.1646 2.3874
-0.3264 -7.1810 2.3874
-0.0683 -7.1881 2.3874
0.1899 -7.1860 2.3874
0.4479 -7.1746 2.3874
0.7053 -7.1539 2.3874
0.9618 -7.1239 2.3874
1.2171 -7.0848 2.3874
1.4707 -7.0365 2.3874
1.7225 -6.9791 2.3874
1.9721 -6.9127 2.3874
2.2191 -6.8374 2.3874
2.4633 -6.7533 2.3874
2.7042 -6.6604 2.3874
2.9417 -6.5589 2.3874
3.1754 -6.4490 2.3874
3.4049 -6.3307 2.3874
3.6301 -6.2042 2.3874
3.8505 -6.0698 2.3874
4.0660 -5.9275 2.3874
4.2762 -5.7775 2.3874
4.4809 -5.6201 2.3874
4.6798 -5.4555 2.3874
4.8727 -5.2838 2.3874
5.0592 -5.1053 2.3874
5.2392 -4.9201 2.3874
5.4125 -4.7287 2.3874
5.5787 -4.5311 2.3874
5.7377 -4.3277 2.3874
5.8894 -4.1188 2.3874
6.0334 -3.9045 2.3874
6.1696 -3.6851 2.3874
6.2978 -3.4611 2.3874
6.4179 -3.2326 2.3874
6.5297 -2.9999 2.3874
6.6331 -2.7633 2.3874
6.7278 -2.5232 2.3874
6.8139 -2.2798 2.3874
6.8912 -2.0336 2.3874
6.9596 -1.7847 2.3874
7.0190 -1.5335 2.3874
7.0694 -1.2803 2.3874
7.1106 -1.0255 2.3874
7.1426 -0.7694 2.3874
7.1654 -0.5123 2.3874
7.1790 -0.2546 2.3874
7.1833 0.0034 2.3874
7.1783 0.2614 2.3874
7.1641 0.5191 2.3874
7.1406 0.7761 2.3874
7.1079 1.0321 2.3874
7.0660 1.2867 2.3874
7.0150 1.5396 2.3874
6.9549 1.7905 2.3874
6.8859 2.0391 2.3874
6.8080 2.2851 2.3874
6.7213 2.5281 2.3874
6.6259 2.7678 2.3874
6.5220 3.0040 2.3874
6.4097 3.2362 2.3874
6.2891 3.4643 2.3874
6.1604 3.6878 2.3874
6.0238 3.9066 2.3874
5.8794 4.1204 2.3874
5.7274 4.3288 2.3874
5.5681 4.5316 2.3874
5.4015 4.7286 2.3874
5.2280 4.9195 2.3874
5.0478 5.1039 2.3874
4.8611 5.2819 2.3874
4.6681 5.4529 2.3874
4.4690 5.6170 2.3874
4.2643 5.7738 2.3874
4.0540 5.9231 2.3874
3.8386 6.0648 2.3874
3.6181 6.1986 2.3874
3.3931 6.3245 2.3874
3.1636 6.4421 2.3874
2.9301 6.5515 2.3874
2.6928 6.6524 2.3874
2.4520 6.7448 2.3874
0.8772 2.7127 0.9484
0.7793 2.7428 0.9486
0.6803 2.7694 0.9487
0.5805 2.7923 0.9488
0.4798 2.8117 0.9489
0.3786 2.8273 0.9490
0.2768 2.8394 0.9491
0.1746 2.8477 0.9492
0.0722 2.8523 0.9492
-0.0303 2.8532 0.9493
-0.1328 2.8503 0.9493
-0.2351 2.8438 0.9494
-0.3371 2.8336 0.9494
-0.4387 2.8196 0.9494
-0.5397 2.8020 0.9494
-0.6400 2.7808 0.9494
-0.7395 2.7559 0.9493
-0.8380 2.7275 0.9493
-2.3525 6.7793 2.3874
-2.5946 6.6904 2.3874
-2.8333 6.5929 2.3874
-3.0683 6.4869 2.3874
-3.2994 6.3726 2.3874
-3.5262 6.2500 2.3874
-3.7486 6.1194 2.3874
-3.9660 5.9808 2.3874
-4.1784 5.8346 2.3874
-4.3853 5.6808 2.3874
-4.5867 5.5196 2.3874
-4.7820 5.3514 2.3874
-4.9713 5.1763 2.3874
-5.1541 4.9944 2.3874
-5.3303 4.8061 2.3874
-5.4996 4.6116 2.3874
-5.6619 4.4112 2.3874
-5.8168 4.2050 2.3874
-5.9643 3.9934 2.3874
-6.1040 3.7767 2.3874
-6.2359 3.5551 2.3874
-6.3597 3.3288 2.3874
-6.4754 3.0983 2.3874
-6.5827 2.8638 2.3874
-6.6815 2.6255 2.3874
-6.7717 2.3839 2.3874
-6.8531 2.1391 2.3874
-6.9258 1.8916 2.3874
-6.9894 1.6417 2.3874
-7.0441 1.3896 2.3874
-7.0897 1.1357 2.3874
-7.1261 0.8803 2.3874
-7.1534 0.6237 2.3874
-7.1714 0.3664 2.3874
-7.1801 0.1085 2.3874
-7.1796 -0.1495 2.3874
-7.1698 -0.4073 2.3874
-7.1508 -0.6646 2.3874
-7.1226 -0.9211 2.3874
-7.0851 -1.1764 2.3874
-7.0385 -1.4301 2.3874
-6.9828 -1.6821 2.3874
-6.9181 -1.9319 2.3874
-6.8444 -2.1792 2.3874
-6.7620 -2.4238 2.3874
-6.6707 -2.6652 2.3874
-6.5709 -2.9032 2.3874
-6.4626 -3.1374 2.3874
-6.3459 -3.3676 2.3874
-6.2210 -3.5935 2.3874
-6.0881 -3.8148 2.3874
-5.9473 -4.0311 2.3874
-5.7989 -4.2423 2.3874
-5.6429 -4.4480 2.3874
-5.4797 -4.6479 2.3874
-5.3093 -4.8419 2.3874
-5.1321 -5.0296 2.3874
-4.9483 -5.2108 2.3874
-4.7580 -5.3853 2.3874
-4.5616 -5.5529 2.3874
-4.3593 -5.7133 2.3874
-4.1514 -5.8663 2.3874
-3.9381 -6.0118 2.3874
-3.7197 -6.1495 2.3874
-3.4965 -6.2793 2.3874
-3.2688 -6.4009 2.3874
-3.0368 -6.5143 2.3874
-2.8009 -6.6193 2.3874
-2.5614 -6.7158 2.3874
-2.3185 -6.8036 2.3874
-2.0727 -6.8825 2.3874
-1.8242 -6.9527 2.3874
-1.5733 -7.0138 2.3874
-1.3203 -7.0658 2.3874
-1.0657 -7.1088 2.3874
-0.8097 -7.1426 2.3874
-0.5526 -7.1671 2.3874
-0.2949 -7.1824 2.3874
-0.0367 -7.1884 2.3874
0.2215 -7.1851 2.3874
0.4795 -7.1725 2.3874
0.7368 -7.1507 2.3874
0.9932 -7.1196 2.3874
1.2482 -7.0794 2.3874
1.5017 -7.0300 2.3874
1.7532 -6.9715 2.3874
2.0025 -6.9040 2.3874
2.2492 -6.8276 2.3874
2.4930 -6.7424 2.3874
2.7335 -6.6484 2.3874
2.9705 -6.5459 2.3874
3.2037 -6.4349 2.3874
3.4327 -6.3156 2.3874
3.6573 -6.1882 2.3874
3.8772 -6.0528 2.3874
4.0920 -5.9095 2.3874
4.3016 -5.7587 2.3874
4.5056 -5.6004 2.3874
4.7038 -5.4348 2.3874
4.8959 -5.2623 2.3874
5.0816 -5.0829 2.3874
5.2608 -4.8970 2.3874
5.4332 -4.7048 2.3874
5.5986 -4.5065 2.3874
-5.9259 -3.0783 2.3874
-5.8116 -3.2892 2.3874
-5.6899 -3.4960 2.3874
-5.5608 -3.6982 2.3874
-5.4245 -3.8956 2.3874
-5.2812 -4.0881 2.3874
-5.1311 -4.2753 2.3874
-4.9744 -4.4569 2.3874
-4.8112 -4.6329 2.3874
-4.6418 -4.8028 2.3874
-4.4664 -4.9665 2.3874
-4.2852 -5.1239 2.3874
-4.0985 -5.2746 2.3874
-3.9065 -5.4186 2.3874
-3.7094 -5.5555 2.3874
-3.5075 -5.6853 2.3874
-3.3011 -5.8077 2.3874
-3.0905 -5.9226 2.3874
-2.8758 -6.0299 2.3874
-2.6574 -6.1294 2.3874
-2.4355 -6.2210 2.3874
-2.2106 -6.3046 2.3874
-1.9827 -6.3800 2.3874
-1.7523 -6.4472 2.3874
-1.5196 -6.5061 2.3874
-1.2850 -6.5565 2.3874
-1.0487 -6.5985 2.3874
-0.8110 -6.6320 2.3874
-0.5722 -6.6569 2.3874
-0.3328 -6.6732 2.3874
-0.0929 -6.6809 2.3874
0.1472 -6.6799 2.3874
0.3870 -6.6704 2.3874
0.6263 -6.6522 2.3874
0.8649 -6.6254 2.3874
1.1023 -6.5901 2.3874
1.3383 -6.5462 2.3874
1.5725 -6.4939 2.3874
1.8048 -6.4333 2.3874
2.0346 -6.3643 2.3874
2.2619 -6.2871 2.3874
2.4863 -6.2017 2.3874
2.7074 -6.1084 2.3874
2.9250 -6.0071 2.3874
3.1389 -5.8982 2.3874
3.3487 -5.7815 2.3874
3.5541 -5.6575 2.3874
3.7550 -5.5261 2.3874
3.9510 -5.3876 2.3874
4.1419 -5.2421 2.3874
4.3275 -5.0899 2.3874
4.5074 -4.9311 2.3874
4.6816 -4.7660 2.3874
4.8496 -4.5946 2.3874
5.0115 -4.4174 2.3874
5.1668 -4.2345 2.3874
5.3154 -4.0461 2.3874
5.4572 -3.8524 2.3874
5.5919 -3.6539 2.3874
5.7195 -3.4506 2.3874
5.8396 -3.2428 2.3874
5.9521 -3.0309 2.3874
6.0570 -2.8151 2.3874
6.1541 -2.5957 2.3874
6.2432 -2.3729 2.3874
6.3242 -2.1470 2.3874
6.3971 -1.9184 2.3874
6.4617 -1.6873 2.3874
6.5180 -1.4541 2.3874
6.5658 -1.2190 2.3874
6.6052 -0.9824 2.3874
6.6360 -0.7445 2.3874
6.6583 -0.5056 2.3874
6.6719 -0.2661 2.3874
6.6770 -0.0263 2.3874
6.6734 0.2136 2.3874
6.6612 0.4532 2.3874
6.6405 0.6921 2.3874
6.6111 0.9302 2.3874
6.5732 1.1670 2.3874
6.5269 1.4024 2.3874
6.4721 1.6359 2.3874
6.4090 1.8672 2.3874
6.3376 2.0962 2.3874
6.2580 2.3224 2.3874
6.1703 2.5457 2.3874
6.0747 2.7656 2.3874
5.9713 2.9819 2.3874
5.8601 3.1944 2.3874
5.7414 3.4028 2.3874
5.6153 3.6067 2.3874
5.4820 3.8060 2.3874
5.3416 4.0004 2.3874
5.1943 4.1896 2.3874
5.0403 4.3733 2.3874
4.8799 4.5515 2.3874
4.7131 4.7237 2.3874
4.5402 4.8898 2.3874
4.3615 5.0497 2.3874
4.1772 5.2030 2.3874
3.9875 5.3496 2.3874
3.7927 5.4892 2.3874
3.5930 5.6218 2.3874
3.3886 5.7471 2.3874
3.1799 5.8650 2.3874
2.9671 5.9754 2.3874
2.7505 6.0780 2.3874
2.5303 6.1728 2.3874
0.9158 2.4848 0.9477
0.8260 2.5164 0.9478
0.7352 2.5448 0.9480
0.6433 2.5699 0.9481
0.5507 2.5916 0.9482
0.4572 2.6100 0.9483
0.3632 2.6249 0.9484
0.2687 2.6365 0.9485
0.1738 2.6446 0.9485
0.0787 2.6493 0.9486
-0.0165 2.6505 0.9487
-0.1117 2.6483 0.9487
-0.2068 2.6427 0.9487
-0.3016 2.6336 0.9487
-0.3960 2.6211 0.9487
-0.4899 2.6051 0.9487
-0.5832 2.5858 0.9487
-0.6757 2.5631 0.9487
-0.7673 2.5371 0.9487
-0.8579 2.5078 0.9486
-2.3845 6.2298 2.3874
-2.6068 6.1401 2.3874
-2.8257 6.0426 2.3874
-3.0410 5.9372 2.3874
-3.2523 5.8242 2.3874
-3.4595 5.7036 2.3874
-3.6622 5.5757 2.3874
-3.8602 5.4406 2.3874
-4.0532 5.2985 2.3874
-4.2410 5.1496 2.3874
-4.4233 4.9940 2.3874
-4.5999 4.8319 2.3874
-4.7706 4.6636 2.3874
-4.9352 4.4893 2.3874
-5.0934 4.3092 2.3874
-5.2450 4.1235 2.3874
-5.3898 3.9325 2.3874
-5.5277 3.7365 2.3874
-5.6585 3.5355 2.3874
-5.7820 3.3301 2.3874
-5.8980 3.1203 2.3874
-6.0065 2.9065 2.3874
-6.1072 2.6889 2.3874
-6.2000 2.4678 2.3874
-6.2848 2.2436 2.3874
-6.3615 2.0164 2.3874
-6.4300 1.7866 2.3874
-6.4902 1.5545 2.3874
-6.5421 1.3204 2.3874
-6.5854 1.0846 2.3874
-6.6203 0.8473 2.3874
-6.6467 0.6090 2.3874
-6.6645 0.3699 2.3874
-6.6737 0.1302 2.3874
-6.6742 -0.1096 2.3874
-6.6662 -0.3493 2.3874
-6.6495 -0.5886 2.3874
-6.6243 -0.8271 2.3874
-6.5905 -1.0645 2.3874
-6.5482 -1.3006 2.3874
-6.4975 -1.5350 2.3874
-6.4383 -1.7675 2.3874
-6.3709 -1.9977 2.3874
-6.2952 -2.2253 2.3874
-6.2114 -2.4501 2.3874
-6.1195 -2.6717 2.3874
-6.0198 -2.8899 2.3874
-5.9123 -3.1043 2.3874
-5.7971 -3.3148 2.3874
-5.6745 -3.5210 2.3874
-5.5445 -3.7226 2.3874
-5.4073 -3.9195 2.3874
-5.2632 -4.1113 2.3874
-5.1123 -4.2978 2.3874
-4.9547 -4.4788 2.3874
-4.7908 -4.6540 2.3874
-4.6206 -4.8232 2.3874
-4.4445 -4.9862 2.3874
-4.2626 -5.1427 2.3874
-4.0753 -5.2926 2.3874
-3.8826 -5.4357 2.3874
-3.6849 -5.5718 2.3874
-3.4825 -5.7007 2.3874
-3.2756 -5.8222 2.3874
-3.0644 -5.9362 2.3874
-2.8492 -6.0425 2.3874
-2.6304 -6.1411 2.3874
-2.4082 -6.2317 2.3874
-2.1828 -6.3143 2.3874
-1.9546 -6.3887 2.3874
-1.7239 -6.4549 2.3874
-1.4910 -6.5127 2.3874
-1.2561 -6.5621 2.3874
-1.0196 -6.6031 2.3874
-0.7818 -6.6355 2.3874
-0.5429 -6.6594 2.3874
-0.3034 -6.6746 2.3874
-0.0635 -6.6812 2.3874
0.1765 -6.6792 2.3874
0.4163 -6.6686 2.3874
0.6556 -6.6494 2.3874
0.8940 -6.6216 2.3874
1.1313 -6.5852 2.3874
1.3670 -6.5403 2.3874
1.6011 -6.4870 2.3874
1.8330 -6.4253 2.3874
2.0626 -6.3552 2.3874
2.2896 -6.2770 2.3874
2.5135 -6.1907 2.3874
2.7342 -6.0964 2.3874
2.9514 -5.9942 2.3874
3.1648 -5.8843 2.3874
3.3741 -5.7667 2.3874
3.5790 -5.6418 2.3874
3.7793 -5.5095 2.3874
3.9747 -5.3702 2.3874
4.1649 -5.2238 2.3874
4.3498 -5.0708 2.3874
4.5291 -4.9112 2.3874
4.7025 -4.7453 2.3874
4.8698 -4.5732 2.3874
5.0308 -4.3953 2.3874
5.1854 -4.2117 2.3874
5.3332 -4.0226 2.3874
5.4741 -3.8284 2.3874
5.6080 -3.6292 2.3874
5.7346 -3.4254 2.3874
5.8538 -3.2171 2.3874
5.9654 -3.0047 2.3874
6.0693 -2.7884 2.3874
6.1654 -2.5686 2.3874
6.2536 -2.3454 2.3874
6.3336 -2.1192 2.3874
6.4055 -1.8902 2.3874
6.4690 -1.6589 2.3874
6.5243 -1.4254 2.3874
6.5711 -1.1901 2.3874
6.6094 -0.9533 2.3874
6.6392 -0.7152 2.3874
6.6604 -0.4763 2.3874
6.6730 -0.2367 2.3874
6.6770 0.0031 2.3874
6.6724 0.2430 2.3874
6.6591 0.4825 2.3874
6.6373 0.7213 2.3874
6.6069 0.9593 2.3874
6.5680 1.1959 2.3874
6.5206 1.4311 2.3874
6.4648 1.6643 2.3874
6.4007 1.8954 2.3874
6.3283 2.1240 2.3874
6.2477 2.3499 2.3874
6.1591 2.5728 2.3874
6.0625 2.7923 2.3874
5.9581 3.0082 2.3874
5.8460 3.2201 2.3874
5.7264 3.4280 2.3874
5.5994 3.6314 2.3874
5.4652 3.8301 2.3874
5.3239 4.0238 2.3874
5.1758 4.2124 2.3874
5.0210 4.3955 2.3874
4.8598 4.5729 2.3874
4.6922 4.7444 2.3874
4.5187 4.9098 2.3874
4.3393 5.0688 2.3874
4.1543 5.2213 2.3874
3.9639 5.3670 2.3874
3.7685 5.5058 2.3874
3.5682 5.6376 2.3874
3.3633 5.7620 2.3874
3.1541 5.8790 2.3874
2.9408 5.9884 2.3874
2.7237 6.0900 2.3874
2.5031 6.1839 2.3874
0.9048 2.4888 0.9477
0.8149 2.5201 0.9479
0.7240 2.5481 0.9480
0.6320 2.5727 0.9481
0.5393 2.5940 0.9482
0.4458 2.6120 0.9483
0.3517 2.6265 0.9484
0.2571 2.6377 0.9485
0.1622 2.6454 0.9486
0.0671 2.6496 0.9486
-0.0282 2.6505 0.9487
-0.1234 2.6478 0.9487
-0.2184 2.6418 0.9487
-0.3132 2.6322 0.9487
-0.4075 2.6193 0.9487
-0.5014 2.6030 0.9487
-0.5946 2.5832 0.9487
-0.6870 2.5601 0.9487
-0.7785 2.5337 0.9487
-0.8689 2.5040 0.9486
-2.4119 6.2192 2.3874
-2.6338 6.1286 2.3874
-2.8522 6.0301 2.3874
-3.0671 5.9238 2.3874
-3.2779 5.8098 2.3874
-3.4846 5.6884 2.3874
-3.6867 5.5596 2.3874
-3.8841 5.4236 2.3874
-4.0765 5.2807 2.3874
-4.2636 5.1309 2.3874
-4.4453 4.9745 2.3874
-4.6212 4.8116 2.3874
-4.7911 4.6426 2.3874
-4.9549 4.4676 2.3874
-5.1123 4.2868 2.3874
-5.2631 4.1004 2.3874
-5.4071 3.9088 2.3874
-5.5441 3.7121 2.3874
-5.6740 3.5106 2.3874
-5.7966 3.3046 2.3874
-5.9117 3.0943 2.3874
-6.0192 2.8800 2.3874
-6.1190 2.6620 2.3874
-6.2108 2.4405 2.3874
-6.2946 2.2159 2.3874
-6.3703 1.9884 2.3874
-6.4378 1.7583 2.3874
-6.4970 1.5260 2.3874
-6.5478 1.2916 2.3874
-6.5902 1.0556 2.3874
-6.6240 0.8182 2.3874
-6.6493 0.5797 2.3874
-6.6661 0.3405 2.3874
-6.6742 0.1009 2.3874
-6.6737 -0.1390 2.3874
-6.6646 -0.3786 2.3874
-6.6469 -0.6178 2.3874
-6.6206 -0.8562 2.3874
-6.5858 -1.0935 2.3874
-6.5424 -1.3294 2.3874
-6.4907 -1.5636 2.3874
-6.4305 -1.7958 2.3874
-6.3621 -2.0257 2.3874
-6.2854 -2.2530 2.3874
-6.2006 -2.4774 2.3874
-6.1077 -2.6986 2.3874
-6.0070 -2.9163 2.3874
-5.8986 -3.1303 2.3874
-5.7825 -3.3403 2.3874
-5.6589 -3.5459 2.3874
-5.5281 -3.7470 2.3874
-5.3901 -3.9433 2.3874
-5.2451 -4.1344 2.3874
-5.0933 -4.3203 2.3874
-4.9350 -4.5006 2.3874
-4.7703 -4.6750 2.3874
-4.5994 -4.8435 2.3874
-4.4225 -5.0057 2.3874
-4.2400 -5.1614 2.3874
-4.0520 -5.3105 2.3874
-3.8587 -5.4527 2.3874
-3.6604 -5.5880 2.3874
-3.4574 -5.7159 2.3874
-3.2499 -5.8365 2.3874
-3.0383 -5.9496 2.3874
-2.8226 -6.0550 2.3874
-2.6034 -6.1526 2.3874
-2.3807 -6.2422 2.3874
-2.1550 -6.3238 2.3874
-1.9265 -6.3972 2.3874
-1.6955 -6.4624 2.3874
-1.4623 -6.5192 2.3874
-1.2272 -6.5676 2.3874
-0.9905 -6.6075 2.3874
-0.7526 -6.6389 2.3874
-0.5137 -6.6617 2.3874
-0.2741 -6.6759 2.3874
-0.0341 -6.6815 2.3874
0.2059 -6.6784 2.3874
0.4457 -6.6667 2.3874
0.6848 -6.6464 2.3874
0.9231 -6.6176 2.3874
1.1602 -6.5801 2.3874
1.3958 -6.5342 2.3874
1.6296 -6.4799 2.3874
1.8613 -6.4171 2.3874
2.0906 -6.3461 2.3874
2.3171 -6.2669 2.3874
2.5407 -6.1796 2.3874
2.7610 -6.0843 2.3874
2.9778 -5.9812 2.3874
3.1906 -5.8703 2.3874
3.3994 -5.7518 2.3874
3.6038 -5.6260 2.3874
3.8035 -5.4928 2.3874
3.9983 -5.3526 2.3874
4.1879 -5.2055 2.3874
4.3721 -5.0516 2.3874
4.5506 -4.8912 2.3874
4.7233 -4.7246 2.3874
4.8899 -4.5518 2.3874
5.0501 -4.3731 2.3874
5.2038 -4.1888 2.3874
-5.5297 -2.8725 2.3874
-5.4231 -3.0694 2.3874
-5.3095 -3.2623 2.3874
-5.1891 -3.4510 2.3874
-5.0619 -3.6353 2.3874
-4.9282 -3.8148 2.3874
-4.7881 -3.9895 2.3874
-4.6418 -4.1590 2.3874
-4.4895 -4.3232 2.3874
-4.3314 -4.4817 2.3874
-4.1678 -4.6345 2.3874
-3.9987 -4.7813 2.3874
-3.8244 -4.9220 2.3874
-3.6453 -5.0563 2.3874
-3.4614 -5.1841 2.3874
-3.2730 -5.3052 2.3874
-3.0804 -5.4194 2.3874
-2.8838 -5.5266 2.3874
-2.6835 -5.6268 2.3874
-2.4797 -5.7196 2.3874
-2.2727 -5.8051 2.3874
-2.0627 -5.8830 2.3874
-1.8501 -5.9534 2.3874
-1.6351 -6.0161 2.3874
-1.4180 -6.0710 2.3874
-1.1990 -6.1181 2.3874
-0.9785 -6.1573 2.3874
-0.7567 -6.1885 2.3874
-0.5340 -6.2118 2.3874
-0.3105 -6.2270 2.3874
-0.0867 -6.2341 2.3874
0.1373 -6.2333 2.3874
0.3611 -6.2243 2.3874
0.5845 -6.2074 2.3874
0.8070 -6.1824 2.3874
1.0286 -6.1494 2.3874
1.2488 -6.1085 2.3874
1.4674 -6.0597 2.3874
1.6841 -6.0031 2.3874
1.8986 -5.9387 2.3874
2.1107 -5.8666 2.3874
2.3200 -5.7870 2.3874
2.5263 -5.6999 2.3874
2.7294 -5.6054 2.3874
2.9290 -5.5038 2.3874
3.1247 -5.3949 2.3874
3.3164 -5.2792 2.3874
3.5039 -5.1566 2.3874
3.6868 -5.0273 2.3874
3.8649 -4.8916 2.3874
4.0381 -4.7496 2.3874
4.2060 -4.6014 2.3874
4.3685 -4.4473 2.3874
4.5254 -4.2874 2.3874
4.6763 -4.1221 2.3874
4.8213 -3.9514 2.3874
4.9600 -3.7756 2.3874
5.0923 -3.5949 2.3874
5.2181 -3.4096 2.3874
5.3371 -3.2199 2.3874
5.4491 -3.0261 2.3874
5.5542 -2.8283 2.3874
5.6521 -2.6269 2.3874
5.7426 -2.4222 2.3874
5.8258 -2.2143 2.3874
5.9014 -2.0035 2.3874
5.9694 -1.7902 2.3874
6.0297 -1.5746 2.3874
6.0822 -1.3570 2.3874
6.1269 -1.1376 2.3874
6.1636 -0.9167 2.3874
6.1924 -0.6947 2.3874
6.2132 -0.4718 2.3874
6.2260 -0.2483 2.3874
6.2307 -0.0245 2.3874
6.2274 0.1993 2.3874
6.2160 0.4228 2.3874
6.1967 0.6458 2.3874
6.1693 0.8680 2.3874
6.1339 1.0890 2.3874
6.0907 1.3086 2.3874
6.0396 1.5265 2.3874
5.9807 1.7424 2.3874
5.9141 1.9561 2.3874
5.8398 2.1672 2.3874
5.7580 2.3755 2.3874
5.6688 2.5807 2.3874
5.5723 2.7826 2.3874
5.4686 2.9809 2.3874
5.3579 3.1754 2.3874
5.2402 3.3657 2.3874
5.1158 3.5517 2.3874
4.9847 3.7330 2.3874
4.8473 3.9096 2.3874
4.7036 4.0811 2.3874
4.5539 4.2473 2.3874
4.3982 4.4081 2.3874
4.2369 4.5631 2.3874
4.0702 4.7123 2.3874
3.8982 4.8554 2.3874
3.7212 4.9922 2.3874
3.5394 5.1225 2.3874
3.3530 5.2463 2.3874
3.1623 5.3632 2.3874
2.9675 5.4732 2.3874
2.7690 5.5762 2.3874
2.5668 5.6720 2.3874
2.3613 5.7605 2.3874
0.8541 2.3176 0.9472
0.7704 2.3471 0.9473
0.6857 2.3735 0.9475
0.6001 2.3969 0.9476
0.5136 2.4172 0.9477
0.4265 2.4343 0.9478
0.3388 2.4482 0.9479
0.2506 2.4590 0.9479
0.1621 2.4666 0.9480
0.0734 2.4709 0.9481
-0.0154 2.4721 0.9481
-0.1042 2.4700 0.9481
-0.1929 2.4647 0.9482
-0.2813 2.4562 0.9482
-0.3694 2.4446 0.9482
-0.4569 2.4297 0.9482
-0.5439 2.4117 0.9482
-0.6302 2.3905 0.9481
-0.7156 2.3663 0.9481
-0.8002 2.3389 0.9481
-0.8836 2.3086 0.9480
-2.4327 5.7300 2.3874
-2.6370 5.6390 2.3874
-2.8379 5.5406 2.3874
-3.0351 5.4352 2.3874
-3.2284 5.3227 2.3874
-3.4176 5.2033 2.3874
-3.6024 5.0772 2.3874
-3.7825 4.9446 2.3874
-3.9577 4.8056 2.3874
-4.1279 4.6604 2.3874
-4.2927 4.5091 2.3874
-4.4520 4.3521 2.3874
-4.6055 4.1894 2.3874
-4.7531 4.0213 2.3874
-4.8946 3.8481 2.3874
-5.0298 3.6698 2.3874
-5.1585 3.4868 2.3874
-5.2805 3.2993 2.3874
-5.3958 3.1076 2.3874
-5.5040 2.9118 2.3874
-5.6052 2.7123 2.3874
-5.6992 2.5092 2.3874
-5.7858 2.3029 2.3874
-5.8649 2.0936 2.3874
-5.9365 1.8816 2.3874
-6.0004 1.6672 2.3874
-6.0566 1.4506 2.3874
-6.1049 1.2321 2.3874
-6.1454 1.0121 2.3874
-6.1780 0.7907 2.3874
-6.2026 0.5683 2.3874
-6.2191 0.3451 2.3874
-6.2277 0.1215 2.3874
-6.2282 -0.1023 2.3874
-6.2207 -0.3260 2.3874
-6.2052 -0.5493 2.3874
-6.1816 -0.7718 2.3874
-6.1501 -0.9934 2.3874
-6.1106 -1.2137 2.3874
-6.0632 -1.4325 2.3874
-6.0080 -1.6494 2.3874
-5.9451 -1.8642 2.3874
-5.8744 -2.0766 2.3874
-5.7962 -2.2863 2.3874
-5.7105 -2.4931 2.3874
-5.6174 -2.6967 2.3874
-5.5171 -2.8968 2.3874
-5.4096 -3.0932 2.3874
-5.2951 -3.2856 2.3874
-5.1738 -3.4738 2.3874
-5.0458 -3.6575 2.3874
-4.9113 -3.8365 2.3874
-4.7705 -4.0105 2.3874
-4.6235 -4.1794 2.3874
-4.4705 -4.3429 2.3874
-4.3117 -4.5008 2.3874
-4.1473 -4.6528 2.3874
-3.9776 -4.7989 2.3874
-3.8028 -4.9388 2.3874
-3.6230 -5.0723 2.3874
-3.4385 -5.1993 2.3874
-3.2496 -5.3195 2.3874
-3.0565 -5.4329 2.3874
-2.8595 -5.5393 2.3874
-2.6587 -5.6385 2.3874
-2.4545 -5.7305 2.3874
-2.2471 -5.8150 2.3874
-2.0368 -5.8921 2.3874
-1.8239 -5.9615 2.3874
-1.6086 -6.0232 2.3874
-1.3913 -6.0772 2.3874
-1.1721 -6.1233 2.3874
-0.9514 -6.1615 2.3874
-0.7295 -6.1918 2.3874
-0.5066 -6.2140 2.3874
-0.2831 -6.2283 2.3874
-0.0592 -6.2345 2.3874
0.1647 -6.2326 2.3874
0.3885 -6.2227 2.3874
0.6117 -6.2047 2.3874
0.8342 -6.1788 2.3874
1.0556 -6.1448 2.3874
1.2756 -6.1029 2.3874
1.4940 -6.0532 2.3874
1.7105 -5.9956 2.3874
1.9247 -5.9303 2.3874
2.1364 -5.8573 2.3874
2.3454 -5.7767 2.3874
2.5514 -5.6887 2.3874
2.7541 -5.5934 2.3874
2.9531 -5.4908 2.3874
3.1484 -5.3811 2.3874
3.3396 -5.2645 2.3874
3.5265 -5.1411 2.3874
3.7089 -5.0111 2.3874
3.8864 -4.8746 2.3874
4.0589 -4.7318 2.3874
4.2262 -4.5828 2.3874
4.3880 -4.4280 2.3874
4.5442 -4.2675 2.3874
4.6944 -4.1014 2.3874
4.8386 -3.9301 2.3874
4.9766 -3.7537 2.3874
5.1081 -3.5724 2.3874
5.2330 -3.3866 2.3874
5.3512 -3.1964 2.3874
5.4624 -3.0021 2.3874
5.5666 -2.8038 2.3874
5.6636 -2.6020 2.3874
5.7532 -2.3969 2.3874
5.8355 -2.1886 2.3874
5.9102 -1.9775 2.3874
5.9772 -1.7639 2.3874
6.0366 -1.5480 2.3874
6.0881 -1.3302 2.3874
6.1318 -1.1106 2.3874
6.1676 -0.8896 2.3874
6.1954 -0.6675 2.3874
6.2152 -0.4445 2.3874
6.2270 -0.2209 2.3874
6.2307 0.0029 2.3874
6.2264 0.2267 2.3874
6.2141 0.4502 2.3874
6.1937 0.6731 2.3874
6.1654 0.8951 2.3874
6.1291 1.1160 2.3874
6.0849 1.3354 2.3874
6.0328 1.5530 2.3874
5.9729 1.7687 2.3874
5.9054 1.9821 2.3874
5.8302 2.1929 2.3874
5.7475 2.4008 2.3874
5.6574 2.6056 2.3874
5.5600 2.8071 2.3874
5.4554 3.0050 2.3874
5.3438 3.1989 2.3874
5.2253 3.3887 2.3874
5.1001 3.5741 2.3874
4.9683 3.7549 2.3874
4.8300 3.9309 2.3874
4.6856 4.1018 2.3874
4.5351 4.2673 2.3874
4.3788 4.4274 2.3874
4.2168 4.5817 2.3874
4.0494 4.7301 2.3874
3.8768 4.8725 2.3874
3.6992 5.0085 2.3874
3.5168 5.1380 2.3874
3.3299 5.2609 2.3874
3.1387 5.3771 2.3874
2.9434 5.4862 2.3874
2.7444 5.5884 2.3874
2.5418 5.6832 2.3874
0.9267 2.2893 0.9471
0.8440 2.3214 0.9472
0.7601 2.3505 0.9474
0.6753 2.3766 0.9475
0.5895 2.3996 0.9476
0.5030 2.4194 0.9477
0.4158 2.4361 0.9478
0.3280 2.4497 0.9479
0.2398 2.4601 0.9479
0.1513 2.4673 0.9480
0.0625 2.4712 0.9481
-0.0263 2.4720 0.9481
-0.1151 2.4695 0.9481
-0.2037 2.4639 0.9482
-0.2921 2.4550 0.9482
-0.3801 2.4429 0.9482
-0.4676 2.4277 0.9482
-0.5545 2.4093 0.9482
-0.6407 2.3877 0.9481
-0.7260 2.3631 0.9481
-0.8104 2.3354 0.9481
-0.8938 2.3046 0.9480
-2.4578 5.7192 2.3874
-2.6617 5.6273 2.3874
-2.8622 5.5281 2.3874
-3.0590 5.4217 2.3874
-3.2518 5.3084 2.3874
-3.4405 5.1882 2.3874
-3.6247 5.0613 2.3874
-3.8042 4.9279 2.3874
-3.9788 4.7881 2.3874
-4.1483 4.6422 2.3874
-4.3125 4.4902 2.3874
-4.4711 4.3325 2.3874
-4.6239 4.1691 2.3874
-4.7708 4.0004 2.3874
-4.9115 3.8265 2.3874
-5.0459 3.6477 2.3874
-5.1738 3.4641 2.3874
-5.2950 3.2761 2.3874
-5.4094 3.0838 2.3874
-5.5168 2.8876 2.3874
-5.6171 2.6876 2.3874
-5.7102 2.4841 2.3874
-5.7959 2.2774 2.3874
-5.8741 2.0678 2.3874
-5.9447 1.8555 2.3874
-6.0077 1.6408 2.3874
-6.0629 1.4240 2.3874
-6.1103 1.2053 2.3874
-6.1498 0.9850 2.3874
-6.1814 0.7635 2.3874
-6.2050 0.5410 2.3874
-6.2206 0.3177 2.3874
-6.2282 0.0941 2.3874
-6.2277 -0.1297 2.3874
-6.2192 -0.3534 2.3874
-6.2027 -0.5766 2.3874
-6.1782 -0.7990 2.3874
-6.1457 -1.0205 2.3874
-6.1052 -1.2406 2.3874
-6.0569 -1.4591 2.3874
-6.0007 -1.6758 2.3874
-5.9368 -1.8903 2.3874
-5.8652 -2.1024 2.3874
-5.7861 -2.3118 2.3874
-5.6995 -2.5183 2.3874
-5.6055 -2.7214 2.3874
-5.5043 -2.9211 2.3874
-5.3960 -3.1170 2.3874
-5.2806 -3.3089 2.3874
-5.1585 -3.4966 2.3874
-5.0297 -3.6797 2.3874
-4.8944 -3.8581 2.3874
-4.7528 -4.0315 2.3874
-4.6051 -4.1997 2.3874
-4.4513 -4.3625 2.3874
-4.2919 -4.5197 2.3874
-4.1268 -4.6711 2.3874
-3.9565 -4.8164 2.3874
-3.7810 -4.9555 2.3874
-3.6007 -5.0882 2.3874
-3.4156 -5.2144 2.3874
-3.2262 -5.3338 2.3874
-3.0326 -5.4463 2.3874
-2.8351 -5.5518 2.3874
-2.6339 -5.6502 2.3874
-2.4293 -5.7412 2.3874
-2.2215 -5.8249 2.3874
-2.0109 -5.9010 2.3874
-1.7977 -5.9695 2.3874
-1.5821 -6.0303 2.3874
-1.3645 -6.0833 2.3874
-1.1452 -6.1284 2.3874
-0.9243 -6.1657 2.3874
-0.7022 -6.1949 2.3874
-0.4793 -6.2162 2.3874
-0.2557 -6.2295 2.3874
-0.0318 -6.2347 2.3874
0.1922 -6.2318 2.3874
0.4159 -6.2209 2.3874
0.6390 -6.2020 2.3874
0.8614 -6.1750 2.3874
1.0826 -6.1401 2.3874
1.3024 -6.0973 2.3874
1.5206 -6.0466 2.3874
1.7368 -5.9880 2.3874
1.9508 -5.9217 2.3874
2.1622 -5.8478 2.3874
2.3708 -5.7664 2.3874
2.5764 -5.6774 2.3874
2.7786 -5.5812 2.3874
2.9773 -5.4778 2.3874
3.1721 -5.3672 2.3874
3.3628 -5.2498 2.3874
3.5491 -5.1256 2.3874
3.7309 -4.9947 2.3874
3.9078 -4.8574 2.3874
4.0797 -4.7138 2.3874
4.2463 -4.5642 2.3874
4.4075 -4.4087 2.3874
4.5629 -4.2474 2.3874
4.7124 -4.0807 2.3874
4.8559 -3.9088 2.3874
-5.1776 -2.6897 2.3874
-5.0778 -2.8740 2.3874
-4.9714 -3.0546 2.3874
-4.8586 -3.2313 2.3874
-4.7395 -3.4038 2.3874
-4.6143 -3.5719 2.3874
-4.4831 -3.7355 2.3874
-4.3462 -3.8942 2.3874
-4.2036 -4.0479 2.3874
-4.0556 -4.1963 2.3874
-3.9023 -4.3394 2.3874
-3.7440 -4.4769 2.3874
-3.5809 -4.6085 2.3874
-3.4131 -4.7343 2.3874
-3.2409 -4.8539 2.3874
-3.0645 -4.9673 2.3874
-2.8842 -5.0742 2.3874
-2.7001 -5.1746 2.3874
-2.5125 -5.2684 2.3874
-2.3217 -5.3553 2.3874
-2.1279 -5.4353 2.3874
-1.9313 -5.5083 2.3874
-1.7323 -5.5742 2.3874
-1.5309 -5.6329 2.3874
-1.3276 -5.6843 2.3874
-1.1226 -5.7284 2.3874
-0.9162 -5.7651 2.3874
-0.7085 -5.7943 2.3874
-0.4999 -5.8161 2.3874
-0.2907 -5.8303 2.3874
-0.0811 -5.8370 2.3874
0.1286 -5.8362 2.3874
0.3381 -5.8278 2.3874
0.5472 -5.8120 2.3874
0.7556 -5.7886 2.3874
0.9630 -5.7577 2.3874
1.1692 -5.7194 2.3874
1.3739 -5.6737 2.3874
1.5768 -5.6207 2.3874
1.7776 -5.5604 2.3874
1.9762 -5.4929 2.3874
2.1722 -5.4184 2.3874
2.3654 -5.3368 2.3874
2.5556 -5.2484 2.3874
2.7424 -5.1532 2.3874
2.9257 -5.0513 2.3874
3.1052 -4.9429 2.3874
3.2807 -4.8281 2.3874
3.4519 -4.7071 2.3874
3.6187 -4.5801 2.3874
3.7809 -4.4471 2.3874
3.9381 -4.3083 2.3874
4.0902 -4.1640 2.3874
4.2371 -4.0144 2.3874
4.3785 -3.8595 2.3874
4.5142 -3.6997 2.3874
4.6441 -3.5351 2.3874
4.7680 -3.3660 2.3874
4.8857 -3.1925 2.3874
4.9971 -3.0149 2.3874
5.1021 -2.8334 2.3874
5.2005 -2.6482 2.3874
5.2921 -2.4597 2.3874
5.3769 -2.2679 2.3874
5.4548 -2.0733 2.3874
5.5256 -1.8760 2.3874
5.5893 -1.6762 2.3874
5.6458 -1.4744 2.3874
5.6949 -1.2706 2.3874
5.7367 -1.0652 2.3874
5.7711 -0.8584 2.3874
5.7981 -0.6505 2.3874
5.8176 -0.4418 2.3874
5.8295 -0.2326 2.3874
5.8340 -0.0230 2.3874
5.8309 0.1866 2.3874
5.8203 0.3959 2.3874
5.8021 0.6047 2.3874
5.7765 0.8127 2.3874
5.7434 1.0196 2.3874
5.7029 1.2252 2.3874
5.6551 1.4293 2.3874
5.5999 1.6314 2.3874
5.5376 1.8315 2.3874
5.4681 2.0292 2.3874
5.3915 2.2242 2.3874
5.3080 2.4164 2.3874
5.2176 2.6055 2.3874
5.1205 2.7911 2.3874
5.0168 2.9732 2.3874
4.9067 3.1514 2.3874
4.7902 3.3256 2.3874
4.6675 3.4954 2.3874
4.5388 3.6607 2.3874
4.4043 3.8213 2.3874
4.2640 3.9770 2.3874
4.1183 4.1275 2.3874
3.9673 4.2727 2.3874
3.8112 4.4124 2.3874
3.6501 4.5463 2.3874
3.4844 4.6744 2.3874
3.3141 4.7965 2.3874
3.1396 4.9124 2.3874
2.9611 5.0219 2.3874
2.7787 5.1249 2.3874
2.5928 5.2214 2.3874
2.4035 5.3110 2.3874
0.8767 2.1388 0.9466
0.7994 2.1691 0.9468
0.7211 2.1967 0.9469
0.6418 2.2214 0.9470
0.5616 2.2433 0.9471
0.4807 2.2622 0.9472
0.3991 2.2782 0.9473
0.3171 2.2913 0.9474
0.2346 2.3013 0.9475
0.1517 2.3084 0.9475
0.0687 2.3125 0.9476
-0.0144 2.3136 0.9476
-0.0975 2.3116 0.9476
-0.1805 2.3067 0.9477
-0.2633 2.2987 0.9477
-0.3457 2.2878 0.9477
-0.4276 2.2739 0.9477
-0.5090 2.2570 0.9477
-0.5898 2.2373 0.9477
-0.6698 2.2145 0.9476
-0.7488 2.1890 0.9476
-0.8270 2.1606 0.9475
-0.9040 2.1293 0.9475
-2.4692 5.2801 2.3874
-2.6573 5.1881 2.3874
-2.8420 5.0893 2.3874
-3.0230 4.9839 2.3874
-3.2001 4.8722 2.3874
-3.3731 4.7541 2.3874
-3.5418 4.6299 2.3874
-3.7059 4.4998 2.3874
-3.8652 4.3638 2.3874
-4.0195 4.2222 2.3874
-4.1687 4.0751 2.3874
-4.3125 3.9228 2.3874
-4.4507 3.7654 2.3874
-4.5831 3.6031 2.3874
-4.7097 3.4362 2.3874
-4.8302 3.2649 2.3874
-4.9445 3.0893 2.3874
-5.0524 2.9098 2.3874
-5.1538 2.7265 2.3874
-5.2485 2.5396 2.3874
-5.3364 2.3495 2.3874
-5.4175 2.1563 2.3874
-5.4916 1.9603 2.3874
-5.5586 1.7618 2.3874
-5.6185 1.5611 2.3874
-5.6711 1.3582 2.3874
-5.7163 1.1537 2.3874
-5.7542 0.9476 2.3874
-5.7847 0.7403 2.3874
-5.8077 0.5320 2.3874
-5.8233 0.3231 2.3874
-5.8313 0.1137 2.3874
-5.8317 -0.0958 2.3874
-5.8247 -0.3053 2.3874
-5.8101 -0.5143 2.3874
-5.7881 -0.7227 2.3874
-5.7585 -0.9302 2.3874
-5.7215 -1.1365 2.3874
-5.6772 -1.3413 2.3874
-5.6255 -1.5444 2.3874
-5.5665 -1.7455 2.3874
-5.5004 -1.9444 2.3874
-5.4271 -2.1408 2.3874
-5.3469 -2.3344 2.3874
-5.2597 -2.5251 2.3874
-5.1657 -2.7124 2.3874
-5.0651 -2.8963 2.3874
-4.9579 -3.0764 2.3874
-4.8443 -3.2526 2.3874
-4.7245 -3.4246 2.3874
-4.5986 -3.5922 2.3874
-4.4667 -3.7552 2.3874
-4.3290 -3.9133 2.3874
-4.1857 -4.0663 2.3874
-4.0371 -4.2141 2.3874
-3.8832 -4.3565 2.3874
-3.7243 -4.4933 2.3874
-3.5606 -4.6242 2.3874
-3.3922 -4.7493 2.3874
-3.2195 -4.8681 2.3874
-3.0426 -4.9807 2.3874
-2.8618 -5.0869 2.3874
-2.6773 -5.1865 2.3874
-2.4893 -5.2794 2.3874
-2.2981 -5.3655 2.3874
-2.1040 -5.4446 2.3874
-1.9071 -5.5168 2.3874
-1.7077 -5.5818 2.3874
-1.5061 -5.6396 2.3874
-1.3026 -5.6901 2.3874
-1.0974 -5.7333 2.3874
-0.8908 -5.7691 2.3874
-0.6830 -5.7974 2.3874
-0.4743 -5.8182 2.3874
-0.2651 -5.8315 2.3874
-0.0554 -5.8373 2.3874
0.1543 -5.8356 2.3874
0.3637 -5.8263 2.3874
0.5728 -5.8095 2.3874
0.7811 -5.7852 2.3874
0.9884 -5.7534 2.3874
1.1944 -5.7142 2.3874
1.3988 -5.6676 2.3874
1.6015 -5.6137 2.3874
1.8021 -5.5525 2.3874
2.0003 -5.4842 2.3874
2.1960 -5.4088 2.3874
2.3889 -5.3264 2.3874
2.5786 -5.2371 2.3874
2.7650 -5.1411 2.3874
2.9479 -5.0384 2.3874
3.1269 -4.9292 2.3874
3.3019 -4.8137 2.3874
3.4726 -4.6919 2.3874
3.6389 -4.5641 2.3874
3.8004 -4.4304 2.3874
3.9570 -4.2910 2.3874
4.1085 -4.1460 2.3874
4.2547 -3.9957 2.3874
4.3954 -3.8402 2.3874
4.5304 -3.6798 2.3874
4.6596 -3.5146 2.3874
4.7827 -3.3449 2.3874
4.8997 -3.1709 2.3874
5.0103 -2.9928 2.3874
5.1145 -2.8109 2.3874
5.2120 -2.6253 2.3874
5.3029 -2.4364 2.3874
5.3868 -2.2442 2.3874
5.4638 -2.0493 2.3874
5.5338 -1.8516 2.3874
5.5966 -1.6516 2.3874
5.6522 -1.4495 2.3874
5.7004 -1.2455 2.3874
5.7414 -1.0399 2.3874
5.7749 -0.8330 2.3874
5.8009 -0.6250 2.3874
5.8195 -0.4162 2.3874
5.8305 -0.2069 2.3874
5.8340 0.0027 2.3874
5.8300 0.2122 2.3874
5.8185 0.4215 2.3874
5.7994 0.6302 2.3874
5.7729 0.8381 2.3874
5.7389 1.0449 2.3874
5.6975 1.2503 2.3874
5.6487 1.4541 2.3874
5.5927 1.6561 2.3874
5.5295 1.8558 2.3874
5.4591 2.0532 2.3874
5.3816 2.2479 2.3874
5.2973 2.4397 2.3874
5.2061 2.6284 2.3874
5.1082 2.8136 2.3874
5.0037 2.9952 2.3874
4.8927 3.1730 2.3874
4.7755 3.3466 2.3874
4.6520 3.5159 2.3874
4.5226 3.6807 2.3874
4.3874 3.8407 2.3874
4.2465 3.9957 2.3874
4.1001 4.1456 2.3874
3.9485 4.2901 2.3874
3.7917 4.4291 2.3874
3.6301 4.5623 2.3874
3.4638 4.6897 2.3874
3.2930 4.8110 2.3874
3.1180 4.9261 2.3874
2.9389 5.0349 2.3874
2.7561 5.1371 2.3874
2.5698 5.2327 2.3874
2.3801 5.3216 2.3874
0.8673 2.1426 0.9467
0.7899 2.1727 0.9468
0.7114 2.1999 0.9469
0.6320 2.2243 0.9470
0.5517 2.2458 0.9471
0.4707 2.2643 0.9472
0.3891 2.2800 0.9473
0.3070 2.2927 0.9474
0.2244 2.3024 0.9475
0.1416 2.3091 0.9475
0.0585 2.3128 0.9476
-0.0246 2.3135 0.9476
-0.1077 2.3112 0.9476
-0.1906 2.3059 0.9477
-0.2734 2.2976 0.9477
-0.3557 2.2863 0.9477
-0.4376 2.2720 0.9477
-0.5190 2.2548 0.9477
-0.5996 2.2346 0.9476
-0.6795 2.2116 0.9476
-0.7585 2.1856 0.9476
-0.8365 2.1569 0.9475
-0.9134 2.1253 0.9475
-2.4924 5.2692 2.3874
-2.6801 5.1763 2.3874
-2.8643 5.0767 2.3874
-3.0449 4.9706 2.3874
-3.2215 4.8581 2.3874
-3.3940 4.7392 2.3874
-3.5621 4.6143 2.3874
-3.7257 4.4834 2.3874
-3.8844 4.3467 2.3874
-4.0381 4.2045 2.3874
-4.1866 4.0567 2.3874
-4.3297 3.9038 2.3874
-4.4672 3.7458 2.3874
-4.5990 3.5830 2.3874
-4.7248 3.4155 2.3874
-4.8445 3.2436 2.3874
-4.9580 3.0676 2.3874
-5.0652 2.8875 2.3874
-5.1657 2.7038 2.3874
-5.2596 2.5165 2.3874
-5.3468 2.3260 2.3874
-5.4270 2.1324 2.3874
-5.5002 1.9362 2.3874
-5.5663 1.7374 2.3874
-5.6253 1.5363 2.3874
-5.6770 1.3333 2.3874
-5.7214 1.1285 2.3874
-5.7584 0.9223 2.3874
-5.7879 0.7149 2.3874
-5.8100 0.5065 2.3874
-5.8246 0.2975 2.3874
-5.8317 0.0880 2.3874
-5.8313 -0.1215 2.3874
-5.8233 -0.3309 2.3874
-5.8078 -0.5399 2.3874
-5.7848 -0.7482 2.3874
-5.7544 -0.9555 2.3874
-5.7165 -1.1617 2.3874
-5.6712 -1.3663 2.3874
-5.6187 -1.5692 2.3874
-5.5588 -1.7700 2.3874
-5.4918 -1.9686 2.3874
-5.4177 -2.1647 2.3874
-5.3366 -2.3579 2.3874
-5.2486 -2.5482 2.3874
-5.1538 -2.7351 2.3874
-5.0523 -2.9186 2.3874
-4.9444 -3.0982 2.3874
-4.8300 -3.2739 2.3874
-4.7094 -3.4454 2.3874
-4.5827 -3.6124 2.3874
-4.4501 -3.7748 2.3874
-4.3117 -3.9323 2.3874
-4.1678 -4.0847 2.3874
-4.0185 -4.2319 2.3874
-3.8640 -4.3736 2.3874
-3.7045 -4.5096 2.3874
-3.5402 -4.6399 2.3874
-3.3713 -4.7641 2.3874
-3.1981 -4.8823 2.3874
-3.0207 -4.9941 2.3874
-2.8394 -5.0994 2.3874
-2.6545 -5.1982 2.3874
-2.4661 -5.2903 2.3874
-2.2745 -5.3755 2.3874
-2.0800 -5.4538 2.3874
-1.8828 -5.5251 2.3874
-1.6831 -5.5893 2.3874
-1.4813 -5.6462 2.3874
-1.2776 -5.6958 2.3874
-1.0722 -5.7381 2.3874
-0.8654 -5.7729 2.3874
-0.6575 -5.8003 2.3874
-0.4488 -5.8202 2.3874
-0.2394 -5.8326 2.3874
-0.0298 -5.8375 2.3874
0.1799 -5.8348 2.3874
0.3894 -5.8246 2.3874
0.5983 -5.8069 2.3874
0.8065 -5.7817 2.3874
1.0137 -5.7490 2.3874
1.2195 -5.7089 2.3874
1.4237 -5.6614 2.3874
1.6262 -5.6066 2.3874
1.8265 -5.5445 2.3874
2.0244 -5.4753 2.3874
2.2198 -5.3990 2.3874
2.4123 -5.3158 2.3874
2.6016 -5.2257 2.3874
2.7876 -5.1288 2.3874
2.9700 -5.0253 2.3874
3.1486 -4.9154 2.3874
3.3230 -4.7991 2.3874
3.4932 -4.6766 2.3874
3.6589 -4.5480 2.3874
3.8198 -4.4136 2.3874
3.9759 -4.2735 2.3874
4.1267 -4.1279 2.3874
4.2722 -3.9769 2.3874
4.4123 -3.8208 2.3874
4.5466 -3.6598 2.3874
-4.8622 -2.5259 2.3874
-4.7685 -2.6990 2.3874
-4.6686 -2.8686 2.3874
-4.5626 -3.0345 2.3874
-4.4508 -3.1965 2.3874
-4.3332 -3.3544 2.3874
