ply
format ascii 1.0
element vertex 2180
property float32 x
property float32 y
property float32 z
end_header
6.2548 -0.8511 2.3920
6.2802 -0.6282 2.3920
6.2969 -0.4045 2.3920
6.3052 -0.1803 2.3920
6.3048 0.0439 2.3920
6.2958 0.2678 2.3920
6.2782 0.4911 2.3920
6.2521 0.7135 2.3920
6.2176 0.9345 2.3920
6.1746 1.1539 2.3920
6.1234 1.3714 2.3920
6.0639 1.5865 2.3920
5.9964 1.7990 2.3920
5.9209 2.0086 2.3920
5.8375 2.2149 2.3920
5.7465 2.4177 2.3920
5.6480 2.6166 2.3920
5.5422 2.8115 2.3920
5.4292 3.0019 2.3920
5.3093 3.1876 2.3920
5.1827 3.3684 2.3920
5.0496 3.5441 2.3920
4.9103 3.7144 2.3920
4.7648 3.8790 2.3920
4.6136 4.0379 2.3920
4.4569 4.1907 2.3920
4.2949 4.3373 2.3920
4.1278 4.4775 2.3920
3.9560 4.6111 2.3920
3.7798 4.7381 2.3920
3.5993 4.8582 2.3920
3.4149 4.9714 2.3920
3.2269 5.0775 2.3920
3.0355 5.1764 2.3920
2.8411 5.2680 2.3920
2.6438 5.3524 2.3920
2.4441 5.4293 2.3920
0.8742 2.1440 0.9327
0.7967 2.1733 0.9349
0.7181 2.1999 0.9371
0.6386 2.2236 0.9394
0.5583 2.2444 0.9416
0.4772 2.2623 0.9439
0.3956 2.2772 0.9461
0.3135 2.2892 0.9484
0.2310 2.2983 0.9506
0.1482 2.3043 0.9528
0.0653 2.3074 0.9551
-0.0177 2.3074 0.9572
-0.1007 2.3045 0.9594
-0.1835 2.2985 0.9615
-0.2660 2.2896 0.9637
-0.3482 2.2777 0.9658
-0.4299 2.2629 0.9678
-0.5109 2.2451 0.9698
-0.5913 2.2243 0.9718
-0.6709 2.2007 0.9738
-0.7496 2.1743 0.9757
-0.8273 2.1450 0.9775
-2.2077 5.1608 2.3920
-2.3875 5.0667 2.3920
-2.5636 4.9666 2.3920
-2.7358 4.8607 2.3920
-2.9040 4.7492 2.3920
-3.0680 4.6321 2.3920
-3.2275 4.5097 2.3920
-3.3825 4.3820 2.3920
-3.5329 4.2494 2.3920
-3.6784 4.1119 2.3920
-3.8189 3.9697 2.3920
-3.9543 3.8230 2.3920
-4.0845 3.6720 2.3920
-4.2093 3.5168 2.3920
-4.3286 3.3577 2.3920
-4.4423 3.1948 2.3920
-4.5503 3.0283 2.3920
-4.6525 2.8583 2.3920
-4.7488 2.6852 2.3920
-4.8391 2.5090 2.3920
-4.9234 2.3300 2.3920
-5.0015 2.1484 2.3920
-5.0734 1.9643 2.3920
-5.1389 1.7780 2.3920
-5.1982 1.5897 2.3920
-5.2510 1.3995 2.3920
-5.2974 1.2077 2.3920
-5.3372 1.0144 2.3920
-5.3705 0.8200 2.3920
-5.3972 0.6245 2.3920
-5.4174 0.4282 2.3920
-5.4308 0.2312 2.3920
-5.4377 0.0339 2.3920
-5.4378 -0.1636 2.3920
-5.4313 -0.3611 2.3920
-5.4181 -0.5584 2.3920
-5.3982 -0.7552 2.3920
-5.3717 -0.9514 2.3920
-5.3385 -1.1467 2.3920
-5.2986 -1.3409 2.3920
-5.2522 -1.5339 2.3920
-5.1992 -1.7254 2.3920
-5.1396 -1.9151 2.3920
-5.0736 -2.1030 2.3920
-5.0011 -2.2887 2.3920
-4.9222 -2.4721 2.3920
-4.8371 -2.6529 2.3920
-4.7456 -2.8310 2.3920
-4.6480 -3.0061 2.3920
-4.5443 -3.1780 2.3920
-4.4346 -3.3466 2.3920
-4.3189 -3.5115 2.3920
-4.1975 -3.6727 2.3920
-4.0703 -3.8298 2.3920
-3.9376 -3.9828 2.3920
-3.7994 -4.1314 2.3920
-3.6558 -4.2754 2.3920
-3.5071 -4.4146 2.3920
-3.3533 -4.5488 2.3920
-3.1946 -4.6779 2.3920
-3.0312 -4.8016 2.3920
-2.8632 -4.9198 2.3920
-2.6907 -5.0323 2.3920
-2.5141 -5.1389 2.3920
-2.3335 -5.2393 2.3920
-2.1489 -5.3339 2.3920
-1.9608 -5.4219 2.3920
-1.7692 -5.5034 2.3920
-1.5744 -5.5782 2.3920
-1.3766 -5.6462 2.3920
-1.1761 -5.7073 2.3920
-0.9730 -5.7613 2.3920
-0.7677 -5.8081 2.3920
-0.5604 -5.8476 2.3920
-0.3512 -5.8798 2.3920
-0.1406 -5.9044 2.3920
0.0713 -5.9216 2.3920
0.2841 -5.9310 2.3920
0.4976 -5.9327 2.3920
0.7115 -5.9267 2.3920
0.9256 -5.9128 2.3920
1.1394 -5.8911 2.3920
1.3528 -5.8615 2.3920
1.5654 -5.8241 2.3920
1.7769 -5.7787 2.3920
1.9870 -5.7256 2.3920
2.1955 -5.6645 2.3920
2.4020 -5.5957 2.3920
2.6062 -5.5191 2.3920
2.8077 -5.4348 2.3920
3.0064 -5.3429 2.3920
3.2018 -5.2434 2.3920
3.3938 -5.1366 2.3920
3.5819 -5.0224 2.3920
3.7658 -4.9011 2.3920
3.9454 -4.7727 2.3920
4.1203 -4.6375 2.3920
4.2902 -4.4956 2.3920
4.4548 -4.3471 2.3920
4.6139 -4.1923 2.3920
4.7672 -4.0314 2.3920
4.9145 -3.8646 2.3920
5.0555 -3.6921 2.3920
5.1899 -3.5142 2.3920
5.3176 -3.3312 2.3920
5.4383 -3.1432 2.3920
5.5519 -2.9506 2.3920
5.6580 -2.7537 2.3920
5.7567 -2.5527 2.3920
5.8476 -2.3479 2.3920
5.9306 -2.1398 2.3920
6.0056 -1.9285 2.3920
6.0725 -1.7144 2.3920
6.1311 -1.4979 2.3920
6.1814 -1.2793 2.3920
6.2233 -1.0588 2.3920
6.2567 -0.8369 2.3920
6.2815 -0.6139 2.3920
6.2977 -0.3902 2.3920
6.3054 -0.1661 2.3920
6.3044 0.0581 2.3920
6.2949 0.2820 2.3920
6.2768 0.5053 2.3920
6.2502 0.7276 2.3920
6.2151 0.9485 2.3920
6.1716 1.1678 2.3920
6.1198 1.3851 2.3920
6.0599 1.6001 2.3920
5.9918 1.8124 2.3920
5.9158 2.0218 2.3920
5.8320 2.2279 2.3920
5.7405 2.4305 2.3920
5.6415 2.6292 2.3920
5.5352 2.8237 2.3920
5.4218 3.0138 2.3920
5.3015 3.1993 2.3920
5.1744 3.3798 2.3920
5.0409 3.5551 2.3920
4.9012 3.7250 2.3920
4.7554 3.8893 2.3920
4.6038 4.0478 2.3920
4.4467 4.2002 2.3920
4.2844 4.3464 2.3920
4.1170 4.4862 2.3920
3.9450 4.6194 2.3920
3.7684 4.7459 2.3920
3.5877 4.8656 2.3920
3.4031 4.9783 2.3920
3.2148 5.0840 2.3920
3.0232 5.1824 2.3920
2.8286 5.2736 2.3920
2.6312 5.3575 2.3920
0.9459 2.1140 0.9306
0.8693 2.1459 0.9328
0.7917 2.1751 0.9350
0.7130 2.2015 0.9373
0.6335 2.2250 0.9395
0.5531 2.2456 0.9418
0.4721 2.2633 0.9440
0.3904 2.2781 0.9463
0.3083 2.2899 0.9485
0.2257 2.2987 0.9508
0.1430 2.3046 0.9530
0.0600 2.3075 0.9552
-0.0230 2.3073 0.9574
-0.1060 2.3042 0.9595
-0.1887 2.2981 0.9617
-0.2713 2.2889 0.9638
-0.3534 2.2769 0.9659
-0.4350 2.2618 0.9679
-0.5161 2.2438 0.9700
-0.5964 2.2229 0.9719
-0.6760 2.1991 0.9739
-0.7546 2.1725 0.9758
-0.8322 2.1430 0.9776
-2.2192 5.1550 2.3920
-2.3988 5.0605 2.3920
-2.5747 4.9601 2.3920
-2.7466 4.8538 2.3920
-2.9145 4.7419 2.3920
-3.0782 4.6245 2.3920
-3.2375 4.5017 2.3920
-3.3923 4.3737 2.3920
-3.5423 4.2408 2.3920
-3.6875 4.1030 2.3920
-3.8277 3.9605 2.3920
-3.9627 3.8136 2.3920
-4.0926 3.6623 2.3920
-4.2170 3.5068 2.3920
-4.3360 3.3475 2.3920
-4.4493 3.1843 2.3920
-4.5570 3.0176 2.3920
-4.6588 2.8474 2.3920
-4.7547 2.6741 2.3920
-4.8447 2.4977 2.3920
-4.9285 2.3186 2.3920
-5.0062 2.1368 2.3920
-5.0777 1.9526 2.3920
-5.1429 1.7661 2.3920
-5.2017 1.5776 2.3920
-5.2541 1.3874 2.3920
-5.3001 1.1954 2.3920
-5.3395 1.0021 2.3920
-5.3724 0.8075 2.3920
-5.3987 0.6120 2.3920
-5.4184 0.4156 2.3920
-5.4315 0.2187 2.3920
-5.4379 0.0214 2.3920
-5.4376 -0.1762 2.3920
-5.4306 -0.3737 2.3920
-5.4170 -0.5709 2.3920
-5.3967 -0.7677 2.3920
-5.3697 -0.9638 2.3920
-5.3361 -1.1591 2.3920
-5.2959 -1.3532 2.3920
-5.2490 -1.5461 2.3920
-5.1956 -1.7375 2.3920
-5.1356 -1.9271 2.3920
-5.0692 -2.1148 2.3920
-4.9963 -2.3004 2.3920
-4.9170 -2.4837 2.3920
-4.8314 -2.6643 2.3920
-4.7396 -2.8422 2.3920
-4.6416 -3.0171 2.3920
-4.5375 -3.1888 2.3920
-4.4274 -3.3572 2.3920
-4.3114 -3.5219 2.3920
-4.1895 -3.6828 2.3920
-4.0620 -3.8397 2.3920
-3.9289 -3.9924 2.3920
-3.7904 -4.1407 2.3920
-3.6465 -4.2844 2.3920
-3.4975 -4.4233 2.3920
-3.3434 -4.5572 2.3920
-3.1843 -4.6860 2.3920
-3.0206 -4.8093 2.3920
-2.8523 -4.9272 2.3920
-2.6796 -5.0393 2.3920
-2.5027 -5.1455 2.3920
-2.3218 -5.2457 2.3920
-2.1371 -5.3397 2.3920
-1.9487 -5.4273 2.3920
-1.7569 -5.5083 2.3920
-1.5619 -5.5827 2.3920
-1.3639 -5.6503 2.3920
-1.1632 -5.7109 2.3920
-0.9600 -5.7645 2.3920
-0.7546 -5.8108 2.3920
-0.5471 -5.8499 2.3920
-0.3379 -5.8816 2.3920
-0.1271 -5.9058 2.3920
0.0848 -5.9224 2.3920
0.2977 -5.9313 2.3920
0.5112 -5.9325 2.3920
0.7252 -5.9260 2.3920
0.9392 -5.9116 2.3920
1.1530 -5.8895 2.3920
1.3663 -5.8594 2.3920
1.5789 -5.8214 2.3920
1.7903 -5.7756 2.3920
2.0004 -5.7219 2.3920
2.2087 -5.6604 2.3920
2.4151 -5.5910 2.3920
2.6191 -5.5139 2.3920
2.8205 -5.4291 2.3920
3.0189 -5.3368 2.3920
3.2142 -5.2369 2.3920
3.4058 -5.1295 2.3920
3.5937 -5.0149 2.3920
3.7774 -4.8931 2.3920
3.9567 -4.7643 2.3920
4.1313 -4.6287 2.3920
4.3008 -4.4863 2.3920
4.4651 -4.3374 2.3920
4.6239 -4.1823 2.3920
4.7768 -4.0210 2.3920
4.9237 -3.8538 2.3920
5.0642 -3.6810 2.3920
5.1982 -3.5027 2.3920
5.3255 -3.3193 2.3920
5.4458 -3.1311 2.3920
5.5588 -2.9382 2.3920
5.6645 -2.7410 2.3920
5.7627 -2.5398 2.3920
5.8531 -2.3348 2.3920
5.9356 -2.1264 2.3920
6.0101 -1.9150 2.3920
6.0765 -1.7007 2.3920
6.1346 -1.4841 2.3920
6.1843 -1.2653 2.3920
6.2257 -1.0447 2.3920
6.2585 -0.8228 2.3920
6.2828 -0.5997 2.3920
6.2985 -0.3760 2.3920
6.3056 -0.1518 2.3920
6.3041 0.0724 2.3920
6.2940 0.2963 2.3920
6.2753 0.5195 2.3920
6.2482 0.7417 2.3920
6.2126 0.9625 2.3920
6.1686 1.1817 2.3920
6.1163 1.3989 2.3920
6.0558 1.6137 2.3920
5.9872 1.8259 2.3920
5.9107 2.0350 2.3920
5.8263 2.2409 2.3920
5.7344 2.4432 2.3920
5.1907 -2.7723 2.3920
5.2902 -2.5882 2.3920
5.3827 -2.4003 2.3920
5.4680 -2.2090 2.3920
5.5459 -2.0144 2.3920
5.6164 -1.8170 2.3920
5.6793 -1.6169 2.3920
5.7346 -1.4145 2.3920
5.7821 -1.2101 2.3920
5.8217 -1.0040 2.3920
5.8534 -0.7966 2.3920
5.8772 -0.5881 2.3920
5.8930 -0.3790 2.3920
5.9008 -0.1694 2.3920
5.9006 0.0403 2.3920
5.8923 0.2498 2.3920
5.8761 0.4587 2.3920
5.8520 0.6667 2.3920
5.8199 0.8735 2.3920
5.7801 1.0788 2.3920
5.7325 1.2822 2.3920
5.6772 1.4836 2.3920
5.6144 1.6825 2.3920
5.5441 1.8788 2.3920
5.4666 2.0720 2.3920
5.3818 2.2619 2.3920
5.2901 2.4483 2.3920
5.1915 2.6309 2.3920
5.0863 2.8094 2.3920
4.9745 2.9836 2.3920
4.8565 3.1532 2.3920
4.7324 3.3180 2.3920
4.6024 3.4778 2.3920
4.4667 3.6325 2.3920
4.3256 3.7817 2.3920
4.1793 3.9253 2.3920
4.0279 4.0631 2.3920
3.8719 4.1950 2.3920
3.7114 4.3208 2.3920
3.5467 4.4404 2.3920
3.3780 4.5536 2.3920
3.2055 4.6603 2.3920
3.0297 4.7604 2.3920
2.8506 4.8538 2.3920
2.6686 4.9404 2.3920
2.4839 5.0202 2.3920
0.8941 1.9824 0.9311
0.8223 2.0126 0.9332
0.7494 2.0401 0.9353
0.6756 2.0651 0.9374
0.6010 2.0873 0.9395
0.5256 2.1068 0.9416
0.4495 2.1236 0.9437
0.3729 2.1376 0.9458
0.2958 2.1489 0.9479
0.2184 2.1574 0.9500
0.1406 2.1630 0.9521
0.0628 2.1659 0.9542
-0.0151 2.1659 0.9562
-0.0930 2.1632 0.9583
-0.1708 2.1576 0.9603
-0.2482 2.1492 0.9623
-0.3254 2.1380 0.9642
-0.4020 2.1241 0.9662
-0.4782 2.1074 0.9681
-0.5536 2.0879 0.9699
-0.6284 2.0658 0.9717
-0.7022 2.0409 0.9735
-0.7752 2.0134 0.9753
-0.8471 1.9833 0.9770
-2.2434 4.7679 2.3920
-2.4094 4.6742 2.3920
-2.5717 4.5750 2.3920
-2.7303 4.4704 2.3920
-2.8850 4.3606 2.3920
-3.0355 4.2458 2.3920
-3.1817 4.1260 2.3920
-3.3236 4.0014 2.3920
-3.4609 3.8722 2.3920
-3.5935 3.7386 2.3920
-3.7214 3.6007 2.3920
-3.8442 3.4587 2.3920
-3.9621 3.3127 2.3920
-4.0747 3.1630 2.3920
-4.1821 3.0096 2.3920
-4.2841 2.8529 2.3920
-4.3806 2.6929 2.3920
-4.4716 2.5298 2.3920
-4.5569 2.3639 2.3920
-4.6364 2.1953 2.3920
-4.7102 2.0242 2.3920
-4.7781 1.8508 2.3920
-4.8400 1.6752 2.3920
-4.8959 1.4977 2.3920
-4.9458 1.3185 2.3920
-4.9895 1.1377 2.3920
-5.0271 0.9556 2.3920
-5.0585 0.7723 2.3920
-5.0837 0.5880 2.3920
-5.1026 0.4030 2.3920
-5.1152 0.2173 2.3920
-5.1215 0.0314 2.3920
-5.1216 -0.1548 2.3920
-5.1153 -0.3409 2.3920
-5.1027 -0.5268 2.3920
-5.0838 -0.7123 2.3920
-5.0585 -0.8971 2.3920
-5.0270 -1.0812 2.3920
-4.9893 -1.2641 2.3920
-4.9452 -1.4459 2.3920
-4.8950 -1.6262 2.3920
-4.8386 -1.8049 2.3920
-4.7761 -1.9817 2.3920
-4.7075 -2.1566 2.3920
-4.6328 -2.3291 2.3920
-4.5522 -2.4993 2.3920
-4.4657 -2.6668 2.3920
-4.3734 -2.8315 2.3920
-4.2754 -2.9931 2.3920
-4.1717 -3.1515 2.3920
-4.0624 -3.3065 2.3920
-3.9477 -3.4579 2.3920
-3.8276 -3.6055 2.3920
-3.7022 -3.7491 2.3920
-3.5718 -3.8885 2.3920
-3.4363 -4.0236 2.3920
-3.2960 -4.1541 2.3920
-3.1509 -4.2799 2.3920
-3.0014 -4.4003 2.3920
-2.8472 -4.5166 2.3920
-2.6888 -4.6272 2.3920
-2.5263 -4.7325 2.3920
-2.3599 -4.8320 2.3920
-2.1898 -4.9259 2.3920
-2.0161 -5.0140 2.3920
-1.8390 -5.0960 2.3920
-1.6587 -5.1719 2.3920
-1.4754 -5.2415 2.3920
-1.2894 -5.3046 2.3920
-1.1009 -5.3613 2.3920
-0.9100 -5.4112 2.3920
-0.7171 -5.4545 2.3920
-0.5223 -5.4908 2.3920
-0.3259 -5.5202 2.3920
-0.1282 -5.5426 2.3920
0.0707 -5.5578 2.3920
0.2704 -5.5659 2.3920
0.4707 -5.5667 2.3920
0.6713 -5.5603 2.3920
0.8720 -5.5465 2.3920
1.0724 -5.5254 2.3920
1.2723 -5.4969 2.3920
1.4715 -5.4611 2.3920
1.6696 -5.4178 2.3920
1.8664 -5.3673 2.3920
2.0615 -5.3094 2.3920
2.2547 -5.2442 2.3920
2.4457 -5.1717 2.3920
2.6343 -5.0921 2.3920
2.8201 -5.0054 2.3920
3.0028 -4.9117 2.3920
3.1822 -4.8111 2.3920
3.3580 -4.7037 2.3920
3.5299 -4.5896 2.3920
3.6977 -4.4689 2.3920
3.8610 -4.3419 2.3920
4.0197 -4.2086 2.3920
4.1734 -4.0693 2.3920
4.3219 -3.9241 2.3920
4.4650 -3.7732 2.3920
4.6025 -3.6168 2.3920
4.7341 -3.4551 2.3920
4.8595 -3.2885 2.3920
4.9787 -3.1170 2.3920
5.0913 -2.9410 2.3920
5.1972 -2.7607 2.3920
5.2963 -2.5763 2.3920
5.3883 -2.3883 2.3920
5.4731 -2.1967 2.3920
5.5506 -2.0019 2.3920
5.6207 -1.8043 2.3920
5.6831 -1.6041 2.3920
5.7378 -1.4015 2.3920
5.7848 -1.1970 2.3920
5.8240 -0.9909 2.3920
5.8552 -0.7834 2.3920
5.8785 -0.5749 2.3920
5.8937 -0.3656 2.3920
5.9010 -0.1560 2.3920
5.9003 0.0537 2.3920
5.8915 0.2631 2.3920
5.8748 0.4719 2.3920
5.8502 0.6799 2.3920
5.8176 0.8866 2.3920
5.7773 1.0918 2.3920
5.7292 1.2951 2.3920
5.6734 1.4963 2.3920
5.6101 1.6951 2.3920
5.5394 1.8911 2.3920
5.4614 2.0842 2.3920
5.3762 2.2739 2.3920
5.2840 2.4600 2.3920
5.1850 2.6424 2.3920
5.0794 2.8206 2.3920
4.9672 2.9945 2.3920
4.8488 3.1638 2.3920
4.7243 3.3283 2.3920
4.5939 3.4878 2.3920
4.4579 3.6421 2.3920
4.3164 3.7910 2.3920
4.1698 3.9342 2.3920
4.0182 4.0717 2.3920
3.8618 4.2032 2.3920
3.7011 4.3286 2.3920
3.5361 4.4478 2.3920
3.3671 4.5605 2.3920
3.1944 4.6668 2.3920
3.0184 4.7665 2.3920
2.8391 4.8595 2.3920
2.6569 4.9457 2.3920
2.4721 5.0251 2.3920
0.8895 1.9844 0.9312
0.8177 2.0144 0.9333
0.7448 2.0418 0.9354
0.6709 2.0665 0.9375
0.5962 2.0886 0.9396
0.5208 2.1080 0.9417
0.4447 2.1246 0.9438
0.3680 2.1384 0.9460
0.2909 2.1495 0.9481
0.2134 2.1578 0.9502
0.1357 2.1633 0.9522
0.0578 2.1660 0.9543
-0.0201 2.1658 0.9564
-0.0980 2.1629 0.9584
-0.1757 2.1571 0.9604
-0.2532 2.1486 0.9624
-0.3303 2.1372 0.9644
-0.4069 2.1231 0.9663
-0.4830 2.1062 0.9682
-0.5584 2.0866 0.9700
-0.6331 2.0643 0.9719
-0.7069 2.0393 0.9736
-0.7798 2.0116 0.9754
-0.8516 1.9813 0.9771
-2.2540 4.7622 2.3920
-2.4198 4.6681 2.3920
-2.5819 4.5685 2.3920
-2.7403 4.4636 2.3920
-2.8946 4.3535 2.3920
-3.0449 4.2383 2.3920
-3.1909 4.1182 2.3920
-3.3325 3.9933 2.3920
-3.4695 3.8638 2.3920
-3.6018 3.7299 2.3920
-3.7293 3.5918 2.3920
-3.8519 3.4495 2.3920
-3.9694 3.3033 2.3920
-4.0817 3.1533 2.3920
-4.1888 2.9998 2.3920
-4.2904 2.8428 2.3920
-4.3866 2.6826 2.3920
-4.4772 2.5194 2.3920
-4.5621 2.3533 2.3920
-4.6413 2.1845 2.3920
-4.7147 2.0132 2.3920
-4.7822 1.8397 2.3920
-4.8437 1.6640 2.3920
-4.8992 1.4864 2.3920
-4.9487 1.3070 2.3920
-4.9921 1.1262 2.3920
-5.0293 0.9439 2.3920
-5.0603 0.7605 2.3920
-5.0851 0.5762 2.3920
-5.1036 0.3912 2.3920
-5.1158 0.2055 2.3920
-5.1217 0.0195 2.3920
-5.1213 -0.1666 2.3920
-5.1147 -0.3528 2.3920
-5.1017 -0.5386 2.3920
-5.0823 -0.7241 2.3920
-5.0567 -0.9089 2.3920
-5.0248 -1.0928 2.3920
-4.9867 -1.2758 2.3920
-4.9422 -1.4574 2.3920
-4.8916 -1.6376 2.3920
-4.8348 -1.8162 2.3920
-4.7719 -1.9929 2.3920
-4.7029 -2.1676 2.3920
-4.6279 -2.3400 2.3920
-4.5469 -2.5100 2.3920
-4.4600 -2.6773 2.3920
-4.3674 -2.8418 2.3920
-4.2689 -3.0033 2.3920
-4.1649 -3.1615 2.3920
-4.0553 -3.3163 2.3920
-3.9402 -3.4674 2.3920
-3.8197 -3.6148 2.3920
-3.6941 -3.7581 2.3920
-3.5633 -3.8972 2.3920
-3.4275 -4.0320 2.3920
-3.2869 -4.1622 2.3920
-3.1415 -4.2877 2.3920
-2.9916 -4.4083 2.3920
-2.8372 -4.5238 2.3920
-2.6786 -4.6341 2.3920
-2.5159 -4.7389 2.3920
-2.3492 -4.8382 2.3920
-2.1788 -4.9317 2.3920
-2.0049 -5.0194 2.3920
-1.8276 -5.1010 2.3920
-1.6471 -5.1765 2.3920
-1.4637 -5.2457 2.3920
-1.2775 -5.3084 2.3920
-1.0888 -5.3646 2.3920
-0.8978 -5.4142 2.3920
-0.7048 -5.4570 2.3920
-0.5098 -5.4929 2.3920
-0.3134 -5.5218 2.3920
-0.1155 -5.5438 2.3920
0.0834 -5.5586 2.3920
0.2831 -5.5662 2.3920
0.4835 -5.5665 2.3920
0.6841 -5.5596 2.3920
0.8847 -5.5454 2.3920
1.0851 -5.5238 2.3920
1.2850 -5.4949 2.3920
1.4841 -5.4585 2.3920
1.6822 -5.4148 2.3920
1.8788 -5.3638 2.3920
2.0739 -5.3054 2.3920
2.2669 -5.2398 2.3920
2.4578 -5.1669 2.3920
2.6462 -5.0868 2.3920
2.8318 -4.9997 2.3920
3.0143 -4.9055 2.3920
3.1935 -4.8045 2.3920
3.3690 -4.6966 2.3920
3.5407 -4.5821 2.3920
3.7082 -4.4610 2.3920
3.8712 -4.3336 2.3920
4.0296 -4.1999 2.3920
4.1830 -4.0602 2.3920
4.3312 -3.9146 2.3920
4.4739 -3.7634 2.3920
4.6110 -3.6067 2.3920
4.7422 -3.4447 2.3920
4.8673 -3.2777 2.3920
4.9860 -3.1059 2.3920
5.0982 -2.9296 2.3920
5.2038 -2.7491 2.3920
5.3024 -2.5645 2.3920
5.3939 -2.3762 2.3920
5.4783 -2.1844 2.3920
5.5553 -1.9894 2.3920
5.6249 -1.7916 2.3920
5.6868 -1.5912 2.3920
5.7411 -1.3886 2.3920
5.7876 -1.1840 2.3920
5.8262 -0.9777 2.3920
5.8569 -0.7701 2.3920
5.8797 -0.5616 2.3920
5.8944 -0.3523 2.3920
5.9012 -0.1427 2.3920
5.9000 0.0670 2.3920
5.8907 0.2764 2.3920
5.8735 0.4852 2.3920
5.8483 0.6931 2.3920
5.8153 0.8997 2.3920
5.7744 1.1048 2.3920
5.7258 1.3080 2.3920
5.6696 1.5091 2.3920
5.6058 1.7077 2.3920
5.5346 1.9035 2.3920
5.4562 2.0963 2.3920
5.3706 2.2858 2.3920
4.8737 -2.6016 2.3920
4.9669 -2.4288 2.3920
5.0534 -2.2524 2.3920
5.1333 -2.0729 2.3920
5.2063 -1.8903 2.3920
5.2723 -1.7050 2.3920
5.3312 -1.5173 2.3920
5.3830 -1.3275 2.3920
5.4275 -1.1357 2.3920
5.4646 -0.9425 2.3920
5.4944 -0.7479 2.3920
5.5167 -0.5523 2.3920
5.5316 -0.3561 2.3920
5.5390 -0.1595 2.3920
5.5389 0.0372 2.3920
5.5314 0.2337 2.3920
5.5163 0.4296 2.3920
5.4939 0.6248 2.3920
5.4641 0.8188 2.3920
5.4269 1.0115 2.3920
5.3825 1.2025 2.3920
5.3309 1.3915 2.3920
5.2723 1.5782 2.3920
5.2067 1.7625 2.3920
5.1343 1.9440 2.3920
5.0552 2.1224 2.3920
4.9694 2.2975 2.3920
4.8773 2.4691 2.3920
4.7789 2.6369 2.3920
4.6744 2.8006 2.3920
4.5640 2.9602 2.3920
4.4479 3.1152 2.3920
4.3262 3.2657 2.3920
4.1992 3.4112 2.3920
4.0671 3.5517 2.3920
3.9300 3.6870 2.3920
3.7883 3.8170 2.3920
3.6421 3.9413 2.3920
3.4917 4.0600 2.3920
3.3372 4.1729 2.3920
3.1791 4.2798 2.3920
3.0173 4.3806 2.3920
2.8523 4.4753 2.3920
2.6843 4.5637 2.3920
2.5134 4.6457 2.3920
0.9095 1.8350 0.9297
0.8430 1.8658 0.9316
0.7754 1.8942 0.9336
0.7069 1.9201 0.9356
0.6374 1.9435 0.9376
0.5671 1.9645 0.9396
0.4962 1.9828 0.9416
0.4246 1.9986 0.9435
0.3524 2.0118 0.9455
0.2799 2.0224 0.9475
0.2070 2.0304 0.9495
0.1338 2.0357 0.9515
0.0605 2.0384 0.9534
-0.0128 2.0384 0.9553
-0.0861 2.0358 0.9572
-0.1593 2.0306 0.9591
-0.2322 2.0227 0.9610
-0.3048 2.0122 0.9629
-0.3770 1.9990 0.9647
-0.4486 1.9833 0.9665
-0.5197 1.9650 0.9682
-0.5900 1.9441 0.9699
-0.6595 1.9208 0.9716
-0.7282 1.8949 0.9732
-0.7959 1.8666 0.9748
-0.8624 1.8358 0.9764
-2.2697 4.4094 2.3920
-2.4231 4.3162 2.3920
-2.5730 4.2179 2.3920
-2.7191 4.1147 2.3920
-2.8614 4.0066 2.3920
-2.9997 3.8938 2.3920
-3.1339 3.7765 2.3920
-3.2637 3.6549 2.3920
-3.3892 3.5290 2.3920
-3.5101 3.3990 2.3920
-3.6263 3.2651 2.3920
-3.7378 3.1275 2.3920
-3.8444 2.9863 2.3920
-3.9460 2.8416 2.3920
-4.0425 2.6937 2.3920
-4.1339 2.5427 2.3920
-4.2199 2.3888 2.3920
-4.3007 2.2322 2.3920
-4.3759 2.0730 2.3920
-4.4457 1.9114 2.3920
-4.5100 1.7477 2.3920
-4.5685 1.5819 2.3920
-4.6214 1.4142 2.3920
-4.6686 1.2449 2.3920
-4.7100 1.0742 2.3920
-4.7455 0.9021 2.3920
-4.7751 0.7289 2.3920
-4.7989 0.5549 2.3920
-4.8167 0.3801 2.3920
-4.8286 0.2047 2.3920
-4.8345 0.0290 2.3920
-4.8344 -0.1468 2.3920
-4.8284 -0.3226 2.3920
-4.8163 -0.4982 2.3920
-4.7983 -0.6734 2.3920
-4.7743 -0.8479 2.3920
-4.7444 -1.0217 2.3920
-4.7085 -1.1945 2.3920
-4.6667 -1.3660 2.3920
-4.6190 -1.5363 2.3920
-4.5655 -1.7049 2.3920
-4.5062 -1.8718 2.3920
-4.4411 -2.0367 2.3920
-4.3704 -2.1995 2.3920
-4.2940 -2.3600 2.3920
-4.2120 -2.5179 2.3920
-4.1245 -2.6732 2.3920
-4.0317 -2.8255 2.3920
-3.9334 -2.9748 2.3920
-3.8300 -3.1208 2.3920
-3.7214 -3.2634 2.3920
-3.6077 -3.4023 2.3920
-3.4891 -3.5375 2.3920
-3.3657 -3.6686 2.3920
-3.2376 -3.7956 2.3920
-3.1049 -3.9183 2.3920
-2.9678 -4.0366 2.3920
-2.8263 -4.1501 2.3920
-2.6808 -4.2589 2.3920
-2.5312 -4.3626 2.3920
-2.3777 -4.4613 2.3920
-2.2206 -4.5547 2.3920
-2.0600 -4.6426 2.3920
-1.8961 -4.7250 2.3920
-1.7290 -4.8018 2.3920
-1.5589 -4.8726 2.3920
-1.3861 -4.9376 2.3920
-1.2108 -4.9965 2.3920
-1.0331 -5.0492 2.3920
-0.8532 -5.0956 2.3920
-0.6715 -5.1356 2.3920
-0.4880 -5.1692 2.3920
-0.3031 -5.1962 2.3920
-0.1170 -5.2166 2.3920
0.0702 -5.2303 2.3920
0.2581 -5.2372 2.3920
0.4465 -5.2374 2.3920
0.6351 -5.2306 2.3920
0.8238 -5.2170 2.3920
1.0121 -5.1965 2.3920
1.2000 -5.1691 2.3920
1.3871 -5.1347 2.3920
1.5732 -5.0935 2.3920
1.7579 -5.0454 2.3920
1.9411 -4.9903 2.3920
2.1225 -4.9285 2.3920
2.3017 -4.8599 2.3920
2.4786 -4.7846 2.3920
2.6529 -4.7026 2.3920
2.8242 -4.6141 2.3920
2.9924 -4.5191 2.3920
3.1572 -4.4178 2.3920
3.3183 -4.3102 2.3920
3.4755 -4.1966 2.3920
3.6286 -4.0769 2.3920
3.7772 -3.9515 2.3920
3.9212 -3.8203 2.3920
4.0603 -3.6837 2.3920
4.1944 -3.5419 2.3920
4.3231 -3.3949 2.3920
4.4462 -3.2430 2.3920
4.5637 -3.0864 2.3920
4.6752 -2.9253 2.3920
4.7807 -2.7600 2.3920
4.8799 -2.5907 2.3920
4.9726 -2.4177 2.3920
5.0587 -2.2411 2.3920
5.1381 -2.0613 2.3920
5.2107 -1.8786 2.3920
5.2762 -1.6932 2.3920
5.3347 -1.5053 2.3920
5.3860 -1.3153 2.3920
5.4300 -1.1235 2.3920
5.4667 -0.9301 2.3920
5.4960 -0.7355 2.3920
5.5179 -0.5399 2.3920
5.5323 -0.3436 2.3920
5.5392 -0.1470 2.3920
5.5387 0.0497 2.3920
5.5306 0.2461 2.3920
5.5151 0.4421 2.3920
5.4922 0.6372 2.3920
5.4619 0.8311 2.3920
5.4243 1.0237 2.3920
5.3794 1.2145 2.3920
5.3274 1.4034 2.3920
5.2684 1.5900 2.3920
5.2023 1.7741 2.3920
5.1295 1.9554 2.3920
5.0499 2.1336 2.3920
4.9638 2.3085 2.3920
4.8712 2.4799 2.3920
4.7724 2.6474 2.3920
4.6676 2.8109 2.3920
4.5568 2.9702 2.3920
4.4403 3.1250 2.3920
4.3183 3.2751 2.3920
4.1910 3.4203 2.3920
4.0585 3.5605 2.3920
3.9212 3.6955 2.3920
3.7792 3.8250 2.3920
3.6327 3.9491 2.3920
3.4820 4.0674 2.3920
3.3273 4.1798 2.3920
3.1689 4.2864 2.3920
3.0069 4.3868 2.3920
2.8417 4.4811 2.3920
2.6735 4.5691 2.3920
2.5025 4.6507 2.3920
0.9053 1.8371 0.9298
0.8387 1.8677 0.9318
0.7711 1.8959 0.9337
0.7025 1.9217 0.9357
0.6330 1.9449 0.9377
0.5626 1.9657 0.9397
0.4916 1.9839 0.9417
0.4200 1.9995 0.9437
0.3478 2.0126 0.9457
0.2752 2.0230 0.9476
0.2023 2.0308 0.9496
0.1292 2.0359 0.9516
0.0559 2.0385 0.9535
-0.0175 2.0383 0.9555
-0.0908 2.0356 0.9574
-0.1639 2.0301 0.9593
-0.2369 2.0221 0.9611
-0.3094 2.0114 0.9630
-0.3816 1.9981 0.9648
-0.4532 1.9822 0.9666
-0.5242 1.9637 0.9683
-0.5945 1.9427 0.9700
-0.6639 1.9192 0.9717
-0.7325 1.8932 0.9733
-0.8001 1.8647 0.9749
-0.8666 1.8338 0.9765
-2.2795 4.4037 2.3920
-2.4327 4.3101 2.3920
-2.5824 4.2115 2.3920
-2.7283 4.1079 2.3920
-2.8703 3.9996 2.3920
-3.0084 3.8865 2.3920
-3.1422 3.7689 2.3920
-3.2718 3.6470 2.3920
-3.3970 3.5208 2.3920
-3.5176 3.3906 2.3920
-3.6336 3.2565 2.3920
-3.7447 3.1186 2.3920
-3.8510 2.9772 2.3920
-3.9523 2.8323 2.3920
-4.0485 2.6842 2.3920
-4.1395 2.5330 2.3920
-4.2252 2.3790 2.3920
-4.3056 2.2222 2.3920
-4.3806 2.0628 2.3920
-4.4500 1.9011 2.3920
-4.5139 1.7372 2.3920
-4.5721 1.5713 2.3920
-4.6246 1.4035 2.3920
-4.6714 1.2341 2.3920
-4.7124 1.0632 2.3920
-4.7476 0.8911 2.3920
-4.7768 0.7179 2.3920
-4.8002 0.5438 2.3920
-4.8177 0.3689 2.3920
-4.8292 0.1936 2.3920
-4.8347 0.0179 2.3920
-4.8342 -0.1580 2.3920
-4.8278 -0.3338 2.3920
-4.8154 -0.5094 2.3920
-4.7970 -0.6845 2.3920
-4.7726 -0.8590 2.3920
-4.7423 -1.0327 2.3920
-4.7060 -1.2054 2.3920
-4.6638 -1.3769 2.3920
-4.6158 -1.5470 2.3920
-4.5619 -1.7156 2.3920
-4.5022 -1.8823 2.3920
-4.4368 -2.0471 2.3920
-4.3657 -2.2098 2.3920
-4.2889 -2.3701 2.3920
-4.2066 -2.5279 2.3920
-4.1188 -2.6829 2.3920
-4.0256 -2.8351 2.3920
-3.9270 -2.9842 2.3920
-3.8232 -3.1300 2.3920
-3.7143 -3.2723 2.3920
-3.6003 -3.4110 2.3920
-3.4814 -3.5459 2.3920
-3.3577 -3.6768 2.3920
-3.2293 -3.8036 2.3920
-3.0963 -3.9260 2.3920
-2.9589 -4.0439 2.3920
-2.8172 -4.1572 2.3920
-2.6714 -4.2656 2.3920
-2.5215 -4.3691 2.3920
-2.3678 -4.4674 2.3920
-2.2105 -4.5604 2.3920
-2.0497 -4.6481 2.3920
-1.8855 -4.7301 2.3920
-1.7182 -4.8064 2.3920
-1.5480 -4.8770 2.3920
-1.3751 -4.9415 2.3920
-1.1995 -5.0000 2.3920
-1.0217 -5.0523 2.3920
-0.8417 -5.0983 2.3920
-0.6598 -5.1380 2.3920
-0.4763 -5.1711 2.3920
-0.2913 -5.1977 2.3920
-0.1051 -5.2177 2.3920
0.0821 -5.2309 2.3920
0.2700 -5.2374 2.3920
0.4584 -5.2371 2.3920
0.6471 -5.2300 2.3920
0.8357 -5.2159 2.3920
1.0241 -5.1950 2.3920
1.2119 -5.1671 2.3920
1.3990 -5.1323 2.3920
1.5850 -5.0906 2.3920
1.7696 -5.0421 2.3920
1.9527 -4.9866 2.3920
2.1339 -4.9243 2.3920
2.3131 -4.8553 2.3920
2.4898 -4.7796 2.3920
2.6639 -4.6972 2.3920
2.8350 -4.6083 2.3920
3.0030 -4.5129 2.3920
3.1676 -4.4111 2.3920
3.3285 -4.3032 2.3920
3.4854 -4.1891 2.3920
3.6382 -4.0691 2.3920
3.7865 -3.9433 2.3920
3.9302 -3.8118 2.3920
4.0690 -3.6749 2.3920
4.2027 -3.5327 2.3920
4.3311 -3.3853 2.3920
4.4539 -3.2331 2.3920
4.5710 -3.0762 2.3920
4.6821 -2.9149 2.3920
4.7872 -2.7494 2.3920
4.8859 -2.5798 2.3920
4.9783 -2.4065 2.3920
5.0640 -2.2298 2.3920
5.1430 -2.0498 2.3920
5.2151 -1.8669 2.3920
5.2802 -1.6813 2.3920
5.3382 -1.4933 2.3920
5.3890 -1.3032 2.3920
5.4326 -1.1112 2.3920
5.4688 -0.9178 2.3920
5.4977 -0.7231 2.3920
5.5190 -0.5274 2.3920
5.5330 -0.3311 2.3920
5.5394 -0.1345 2.3920
5.5384 0.0622 2.3920
5.5299 0.2586 2.3920
5.5139 0.4545 2.3920
5.4905 0.6495 2.3920
5.4597 0.8434 2.3920
5.4216 1.0359 2.3920
5.3763 1.2266 2.3920
5.3239 1.4154 2.3920
5.2644 1.6018 2.3920
5.1979 1.7857 2.3920
5.1246 1.9668 2.3920
5.0446 2.1448 2.3920
4.5881 -2.4478 2.3920
4.6756 -2.2852 2.3920
4.7568 -2.1192 2.3920
4.8318 -1.9503 2.3920
4.9003 -1.7785 2.3920
4.9623 -1.6042 2.3920
5.0176 -1.4276 2.3920
5.0662 -1.2491 2.3920
5.1080 -1.0688 2.3920
5.1430 -0.8870 2.3920
5.1710 -0.7040 2.3920
5.1920 -0.5201 2.3920
5.2061 -0.3356 2.3920
5.2131 -0.1506 2.3920
5.2132 0.0343 2.3920
5.2062 0.2191 2.3920
5.1922 0.4035 2.3920
5.1712 0.5870 2.3920
5.1434 0.7696 2.3920
5.1086 0.9509 2.3920
5.0671 1.1306 2.3920
5.0189 1.3084 2.3920
4.9640 1.4842 2.3920
4.9026 1.6577 2.3920
4.8347 1.8285 2.3920
4.7606 1.9965 2.3920
4.6802 2.1615 2.3920
4.5939 2.3231 2.3920
4.5016 2.4812 2.3920
4.4036 2.6356 2.3920
4.3000 2.7860 2.3920
4.1911 2.9322 2.3920
4.0769 3.0741 2.3920
3.9577 3.2114 2.3920
3.8336 3.3441 2.3920
3.7049 3.4718 2.3920
3.5718 3.5945 2.3920
3.4344 3.7121 2.3920
3.2931 3.8243 2.3920
3.1479 3.9310 2.3920
2.9991 4.0321 2.3920
2.8470 4.1276 2.3920
2.6918 4.2173 2.3920
2.5337 4.3011 2.3920
0.9211 1.6997 0.9285
0.8595 1.7310 0.9303
0.7967 1.7601 0.9322
0.7329 1.7868 0.9340
0.6683 1.8113 0.9359
0.6027 1.8334 0.9378
0.5364 1.8531 0.9396
0.4695 1.8704 0.9415
0.4019 1.8853 0.9434
0.3339 1.8977 0.9453
0.2654 1.9077 0.9471
0.1966 1.9152 0.9490
0.1276 1.9203 0.9509
0.0585 1.9228 0.9527
-0.0107 1.9228 0.9545
-0.0799 1.9204 0.9563
-0.1489 1.9154 0.9581
-0.2177 1.9080 0.9599
-0.2862 1.8980 0.9616
-0.3543 1.8856 0.9633
-0.4219 1.8708 0.9650
-0.4889 1.8535 0.9667
-0.5552 1.8339 0.9683
-0.6208 1.8118 0.9699
-0.6856 1.7874 0.9714
-0.7494 1.7607 0.9729
-0.8123 1.7317 0.9744
-0.8740 1.7004 0.9758
-2.2877 4.0805 2.3920
-2.4296 3.9879 2.3920
-2.5680 3.8905 2.3920
-2.7028 3.7886 2.3920
-2.8338 3.6822 2.3920
-2.9609 3.5715 2.3920
-3.0839 3.4567 2.3920
-3.2028 3.3378 2.3920
-3.3174 3.2151 2.3920
-3.4275 3.0886 2.3920
-3.5332 2.9585 2.3920
-3.6342 2.8250 2.3920
-3.7306 2.6883 2.3920
-3.8221 2.5485 2.3920
-3.9087 2.4057 2.3920
-3.9903 2.2601 2.3920
-4.0668 2.1120 2.3920
-4.1382 1.9614 2.3920
-4.2043 1.8085 2.3920
-4.2652 1.6535 2.3920
-4.3207 1.4967 2.3920
-4.3709 1.3380 2.3920
-4.4156 1.1778 2.3920
-4.4547 1.0161 2.3920
-4.4884 0.8533 2.3920
-4.5165 0.6894 2.3920
-4.5389 0.5246 2.3920
-4.5558 0.3592 2.3920
-4.5670 0.1932 2.3920
-4.5725 0.0269 2.3920
-4.5723 -0.1395 2.3920
-4.5665 -0.3059 2.3920
-4.5550 -0.4721 2.3920
-4.5378 -0.6378 2.3920
-4.5149 -0.8030 2.3920
-4.4864 -0.9674 2.3920
-4.4523 -1.1309 2.3920
-4.4125 -1.2932 2.3920
-4.3672 -1.4542 2.3920
-4.3163 -1.6137 2.3920
-4.2600 -1.7715 2.3920
-4.1982 -1.9274 2.3920
-4.1310 -2.0813 2.3920
-4.0585 -2.2330 2.3920
-3.9807 -2.3822 2.3920
-3.8977 -2.5289 2.3920
-3.8095 -2.6728 2.3920
-3.7164 -2.8137 2.3920
-3.6182 -2.9516 2.3920
-3.5152 -3.0861 2.3920
-3.4075 -3.2173 2.3920
-3.2951 -3.3447 2.3920
-3.1781 -3.4684 2.3920
-3.0567 -3.5882 2.3920
-2.9310 -3.7038 2.3920
-2.8011 -3.8151 2.3920
-2.6672 -3.9221 2.3920
-2.5294 -4.0244 2.3920
-2.3878 -4.1221 2.3920
-2.2426 -4.2148 2.3920
-2.0940 -4.3026 2.3920
-1.9421 -4.3852 2.3920
-1.7870 -4.4625 2.3920
-1.6291 -4.5345 2.3920
-1.4683 -4.6009 2.3920
-1.3050 -4.6617 2.3920
-1.1394 -4.7167 2.3920
-0.9715 -4.7660 2.3920
-0.8017 -4.8092 2.3920
-0.6301 -4.8464 2.3920
-0.4569 -4.8776 2.3920
-0.2827 -4.9022 2.3920
-0.1068 -4.9211 2.3920
0.0697 -4.9335 2.3920
0.2469 -4.9394 2.3920
0.4245 -4.9390 2.3920
0.6023 -4.9321 2.3920
0.7801 -4.9187 2.3920
0.9576 -4.8988 2.3920
1.1346 -4.8725 2.3920
1.3108 -4.8395 2.3920
1.4859 -4.8002 2.3920
1.6599 -4.7543 2.3920
1.8323 -4.7020 2.3920
2.0029 -4.6432 2.3920
2.1716 -4.5781 2.3920
2.3380 -4.5067 2.3920
2.5018 -4.4291 2.3920
2.6630 -4.3453 2.3920
2.8211 -4.2555 2.3920
2.9760 -4.1597 2.3920
3.1274 -4.0581 2.3920
3.2751 -3.9508 2.3920
3.4189 -3.8379 2.3920
3.5585 -3.7195 2.3920
3.6938 -3.5958 2.3920
3.8244 -3.4670 2.3920
3.9503 -3.3333 2.3920
4.0711 -3.1948 2.3920
4.1868 -3.0517 2.3920
4.2971 -2.9042 2.3920
4.4018 -2.7525 2.3920
4.5008 -2.5969 2.3920
4.5939 -2.4376 2.3920
4.6809 -2.2747 2.3920
4.7618 -2.1086 2.3920
4.8363 -1.9394 2.3920
4.9044 -1.7675 2.3920
4.9660 -1.5930 2.3920
5.0209 -1.4163 2.3920
5.0691 -1.2376 2.3920
5.1105 -1.0572 2.3920
5.1450 -0.8754 2.3920
5.1725 -0.6923 2.3920
5.1931 -0.5084 2.3920
5.2068 -0.3238 2.3920
5.2133 -0.1389 2.3920
5.2129 0.0461 2.3920
5.2055 0.2309 2.3920
5.1911 0.4152 2.3920
5.1697 0.5987 2.3920
5.1414 0.7812 2.3920
5.1062 0.9623 2.3920
5.0642 1.1419 2.3920
5.0156 1.3197 2.3920
4.9603 1.4953 2.3920
4.8984 1.6686 2.3920
4.8302 1.8393 2.3920
4.7556 2.0071 2.3920
4.6749 2.1719 2.3920
4.5882 2.3333 2.3920
4.4955 2.4911 2.3920
4.3972 2.6453 2.3920
4.2932 2.7954 2.3920
4.1839 2.9414 2.3920
4.0694 3.0830 2.3920
3.9499 3.2200 2.3920
3.8256 3.3524 2.3920
3.6966 3.4798 2.3920
3.5632 3.6022 2.3920
3.4256 3.7194 2.3920
3.2839 3.8312 2.3920
3.1385 3.9376 2.3920
2.9896 4.0384 2.3920
2.8373 4.1335 2.3920
2.6819 4.2228 2.3920
2.5236 4.3062 2.3920
0.9172 1.7018 0.9286
0.8555 1.7329 0.9304
0.7927 1.7618 0.9323
0.7289 1.7884 0.9341
0.6641 1.8127 0.9360
0.5985 1.8347 0.9379
0.5322 1.8543 0.9398
0.4652 1.8714 0.9416
0.3976 1.8862 0.9435
0.3295 1.8984 0.9454
0.2610 1.9083 0.9473
0.1922 1.9156 0.9491
0.1232 1.9205 0.9510
0.0541 1.9229 0.9528
-0.0151 1.9227 0.9546
-0.0843 1.9201 0.9564
-0.1533 1.9150 0.9582
-0.2221 1.9074 0.9600
-0.2905 1.8973 0.9617
-0.3586 1.8848 0.9634
-0.4262 1.8698 0.9651
-0.4931 1.8524 0.9668
-0.5594 1.8325 0.9684
-0.6250 1.8103 0.9700
-0.6897 1.7858 0.9715
-0.7535 1.7589 0.9730
-0.8162 1.7298 0.9745
-0.8779 1.6984 0.9759
-2.2968 4.0747 2.3920
-2.4385 3.9818 2.3920
-2.5767 3.8842 2.3920
-2.7112 3.7820 2.3920
-2.8420 3.6753 2.3920
-2.9688 3.5644 2.3920
-3.0916 3.4493 2.3920
-3.2102 3.3301 2.3920
-3.3245 3.2071 2.3920
-3.4344 3.0804 2.3920
-3.5398 2.9501 2.3920
-3.6405 2.8164 2.3920
-3.7365 2.6795 2.3920
-3.8277 2.5395 2.3920
-3.9140 2.3965 2.3920
-3.9953 2.2508 2.3920
-4.0715 2.1025 2.3920
-4.1425 1.9517 2.3920
-4.2084 1.7987 2.3920
-4.2689 1.6436 2.3920
-4.3241 1.4866 2.3920
-4.3739 1.3279 2.3920
-4.4182 1.1675 2.3920
-4.4570 1.0058 2.3920
-4.4903 0.8429 2.3920
-4.5181 0.6789 2.3920
-4.5402 0.5141 2.3920
-4.5566 0.3486 2.3920
-4.5675 0.1826 2.3920
-4.5726 0.0163 2.3920
-4.5721 -0.1501 2.3920
-4.5659 -0.3165 2.3920
-4.5540 -0.4826 2.3920
-4.5365 -0.6484 2.3920
-4.5133 -0.8135 2.3920
-4.4844 -0.9779 2.3920
-4.4499 -1.1412 2.3920
-4.4098 -1.3035 2.3920
-4.3641 -1.4644 2.3920
-4.3129 -1.6238 2.3920
-4.2562 -1.7815 2.3920
-4.1941 -1.9373 2.3920
-4.1265 -2.0910 2.3920
-4.0537 -2.2425 2.3920
-3.9755 -2.3916 2.3920
-3.8922 -2.5381 2.3920
-3.8038 -2.6818 2.3920
-3.7103 -2.8226 2.3920
-3.6118 -2.9602 2.3920
-3.5085 -3.0946 2.3920
-3.4005 -3.2255 2.3920
-3.2878 -3.3527 2.3920
-3.1705 -3.4762 2.3920
-3.0489 -3.5956 2.3920
-2.9228 -3.7111 2.3920
-2.7928 -3.8221 2.3920
-2.6586 -3.9287 2.3920
-2.5205 -4.0308 2.3920
-2.3787 -4.1281 2.3920
-2.2333 -4.2206 2.3920
-2.0844 -4.3080 2.3920
-1.9323 -4.3903 2.3920
-1.7771 -4.4673 2.3920
-1.6189 -4.5389 2.3920
-1.4580 -4.6049 2.3920
-1.2946 -4.6654 2.3920
-1.1287 -4.7200 2.3920
-0.9608 -4.7689 2.3920
-0.7908 -4.8118 2.3920
-0.6191 -4.8486 2.3920
-0.4459 -4.8793 2.3920
-0.2713 -4.9039 2.3920
-0.0956 -4.9221 2.3920
0.0810 -4.9341 2.3920
0.2582 -4.9396 2.3920
0.4358 -4.9388 2.3920
0.6136 -4.9314 2.3920
0.7914 -4.9176 2.3920
0.9689 -4.8974 2.3920
1.1458 -4.8705 2.3920
1.3220 -4.8372 2.3920
1.4971 -4.7974 2.3920
1.6709 -4.7511 2.3920
1.8432 -4.6984 2.3920
2.0137 -4.6393 2.3920
2.1822 -4.5738 2.3920
2.3485 -4.5020 2.3920
2.5122 -4.4240 2.3920
2.6731 -4.3398 2.3920
2.8310 -4.2496 2.3920
2.9857 -4.1534 2.3920
3.1369 -4.0515 2.3920
3.2844 -3.9438 2.3920
3.4279 -3.8305 2.3920
3.5673 -3.7118 2.3920
3.7022 -3.5878 2.3920
3.8326 -3.4587 2.3920
3.9581 -3.3246 2.3920
4.0787 -3.1858 2.3920
4.1940 -3.0424 2.3920
4.3039 -2.8947 2.3920
4.4083 -2.7427 2.3920
4.5069 -2.5869 2.3920
4.5996 -2.4273 2.3920
4.6862 -2.2642 2.3920
4.7667 -2.0979 2.3920
4.8408 -1.9286 2.3920
4.9085 -1.7565 2.3920
4.9697 -1.5819 2.3920
5.0242 -1.4050 2.3920
5.0719 -1.2262 2.3920
5.1129 -1.0457 2.3920
5.1469 -0.8638 2.3920
5.1741 -0.6806 2.3920
5.1941 -0.4965 2.3920
5.2074 -0.3120 2.3920
5.2135 -0.1271 2.3920
5.2127 0.0579 2.3920
5.2048 0.2426 2.3920
5.1899 0.4269 2.3920
5.1681 0.6103 2.3920
5.1393 0.7927 2.3920
5.1037 0.9738 2.3920
5.0613 1.1533 2.3920
5.0122 1.3309 2.3920
4.9565 1.5064 2.3920
4.8943 1.6796 2.3920
4.8256 1.8501 2.3920
4.7507 2.0177 2.3920
4.3292 -2.3084 2.3920
4.4114 -2.1549 2.3920
4.4879 -1.9984 2.3920
4.5584 -1.8391 2.3920
4.6229 -1.6772 2.3920
4.6813 -1.5128 2.3920
4.7334 -1.3464 2.3920
4.7792 -1.1780 2.3920
4.8185 -1.0081 2.3920
4.8515 -0.8367 2.3920
4.8779 -0.6642 2.3920
4.8978 -0.4909 2.3920
4.9111 -0.3169 2.3920
4.9174 -0.1422 2.3920
4.9179 0.0318 2.3920
4.9114 0.2060 2.3920
4.8983 0.3797 2.3920
4.8787 0.5528 2.3920
4.8526 0.7250 2.3920
4.8201 0.8959 2.3920
4.7811 1.0653 2.3920
4.7358 1.2331 2.3920
4.6843 1.3989 2.3920
4.6266 1.5626 2.3920
4.5629 1.7238 2.3920
4.4933 1.8823 2.3920
4.4178 2.0380 2.3920
4.3366 2.1906 2.3920
4.2499 2.3399 2.3920
4.1577 2.4857 2.3920
4.0603 2.6278 2.3920
3.9578 2.7660 2.3920
3.8504 2.9001 2.3920
3.7382 3.0300 2.3920
3.6215 3.1554 2.3920
3.5003 3.2762 2.3920
3.3750 3.3924 2.3920
3.2456 3.5036 2.3920
3.1124 3.6099 2.3920
2.9757 3.7110 2.3920
2.8355 3.8069 2.3920
2.6921 3.8974 2.3920
2.5458 3.9825 2.3920
0.9293 1.5750 0.9274
0.8721 1.6066 0.9292
0.8138 1.6362 0.9309
0.7545 1.6636 0.9326
0.6942 1.6889 0.9344
0.6331 1.7120 0.9362
0.5711 1.7329 0.9379
0.5084 1.7515 0.9397
0.4451 1.7679 0.9415
0.3813 1.7820 0.9433
0.3169 1.7937 0.9450
0.2522 1.8032 0.9468
0.1872 1.8103 0.9486
0.1220 1.8150 0.9503
0.0566 1.8174 0.9520
-0.0088 1.8174 0.9538
-0.0742 1.8151 0.9555
-0.1394 1.8104 0.9572
-0.2045 1.8034 0.9588
-0.2692 1.7940 0.9605
-0.3336 1.7823 0.9621
-0.3975 1.7682 0.9637
-0.4608 1.7519 0.9652
-0.5235 1.7333 0.9668
-0.5855 1.7125 0.9683
-0.6468 1.6894 0.9697
-0.7071 1.6642 0.9712
-0.7665 1.6367 0.9725
-0.8249 1.6072 0.9739
-0.8821 1.5756 0.9752
-2.2983 3.7772 2.3920
-2.4296 3.6852 2.3920
-2.5575 3.5889 2.3920
-2.6818 3.4884 2.3920
-2.8024 3.3837 2.3920
-2.9191 3.2751 2.3920
-3.0320 3.1626 2.3920
-3.1407 3.0465 2.3920
-3.2453 2.9267 2.3920
-3.3456 2.8036 2.3920
-3.4416 2.6772 2.3920
-3.5330 2.5477 2.3920
-3.6199 2.4153 2.3920
-3.7021 2.2800 2.3920
-3.7796 2.1421 2.3920
-3.8523 2.0017 2.3920
-3.9201 1.8590 2.3920
-3.9829 1.7141 2.3920
-4.0407 1.5672 2.3920
-4.0934 1.4185 2.3920
-4.1410 1.2681 2.3920
-4.1834 1.1162 2.3920
-4.2206 0.9629 2.3920
-4.2525 0.8085 2.3920
-4.2791 0.6531 2.3920
-4.3004 0.4969 2.3920
-4.3163 0.3400 2.3920
-4.3269 0.1826 2.3920
-4.3321 0.0250 2.3920
-4.3319 -0.1328 2.3920
-4.3262 -0.2906 2.3920
-4.3152 -0.4481 2.3920
-4.2988 -0.6053 2.3920
-4.2770 -0.7618 2.3920
-4.2498 -0.9177 2.3920
-4.2173 -1.0726 2.3920
-4.1795 -1.2264 2.3920
-4.1363 -1.3789 2.3920
-4.0879 -1.5300 2.3920
-4.0343 -1.6795 2.3920
-3.9755 -1.8272 2.3920
-3.9116 -1.9730 2.3920
-3.8427 -2.1166 2.3920
-3.7687 -2.2579 2.3920
-3.6898 -2.3967 2.3920
-3.6061 -2.5329 2.3920
-3.5175 -2.6662 2.3920
-3.4243 -2.7966 2.3920
-3.3265 -2.9239 2.3920
-3.2242 -3.0478 2.3920
-3.1175 -3.1683 2.3920
-3.0064 -3.2852 2.3920
-2.8912 -3.3983 2.3920
-2.7720 -3.5075 2.3920
-2.6487 -3.6126 2.3920
-2.5217 -3.7135 2.3920
-2.3910 -3.8101 2.3920
-2.2568 -3.9021 2.3920
-2.1191 -3.9896 2.3920
-1.9783 -4.0722 2.3920
-1.8343 -4.1500 2.3920
-1.6875 -4.2228 2.3920
-1.5378 -4.2904 2.3920
-1.3856 -4.3528 2.3920
-1.2310 -4.4099 2.3920
-1.0742 -4.4615 2.3920
-0.9154 -4.5075 2.3920
-0.7547 -4.5480 2.3920
-0.5923 -4.5827 2.3920
-0.4286 -4.6116 2.3920
-0.2636 -4.6347 2.3920
-0.0975 -4.6518 2.3920
0.0693 -4.6630 2.3920
0.2367 -4.6682 2.3920
0.4045 -4.6673 2.3920
0.5725 -4.6603 2.3920
0.7404 -4.6471 2.3920
0.9080 -4.6279 2.3920
1.0750 -4.6025 2.3920
1.2413 -4.5710 2.3920
1.4066 -4.5333 2.3920
1.5707 -4.4895 2.3920
1.7333 -4.4397 2.3920
1.8943 -4.3839 2.3920
2.0533 -4.3220 2.3920
2.2101 -4.2542 2.3920
2.3646 -4.1806 2.3920
2.5165 -4.1012 2.3920
2.6655 -4.0161 2.3920
2.8114 -3.9254 2.3920
2.9540 -3.8292 2.3920
3.0932 -3.7277 2.3920
3.2286 -3.6209 2.3920
3.3601 -3.5090 2.3920
3.4874 -3.3921 2.3920
3.6104 -3.2704 2.3920
3.7289 -3.1441 2.3920
3.8426 -3.0133 2.3920
3.9515 -2.8782 2.3920
4.0553 -2.7390 2.3920
4.1538 -2.5959 2.3920
4.2470 -2.4490 2.3920
4.3346 -2.2987 2.3920
4.4165 -2.1451 2.3920
4.4926 -1.9884 2.3920
4.5627 -1.8289 2.3920
4.6268 -1.6668 2.3920
4.6848 -1.5023 2.3920
4.7365 -1.3357 2.3920
4.7819 -1.1673 2.3920
4.8208 -0.9972 2.3920
4.8533 -0.8257 2.3920
4.8793 -0.6532 2.3920
4.8988 -0.4798 2.3920
4.9117 -0.3058 2.3920
4.9180 -0.1315 2.3920
4.9176 0.0429 2.3920
4.9107 0.2171 2.3920
4.8973 0.3908 2.3920
4.8773 0.5638 2.3920
4.8508 0.7359 2.3920
4.8178 0.9067 2.3920
4.7784 1.0761 2.3920
4.7327 1.2437 2.3920
4.6808 1.4094 2.3920
4.6228 1.5729 2.3920
4.5587 1.7340 2.3920
4.4886 1.8923 2.3920
4.4128 2.0478 2.3920
4.3312 2.2002 2.3920
4.2442 2.3493 2.3920
4.1517 2.4949 2.3920
4.0540 2.6367 2.3920
3.9511 2.7747 2.3920
3.8434 2.9085 2.3920
3.7309 3.0381 2.3920
3.6139 3.1632 2.3920
3.4925 3.2838 2.3920
3.3669 3.3996 2.3920
3.2372 3.5105 2.3920
3.1038 3.6165 2.3920
2.9668 3.7173 2.3920
2.8265 3.8128 2.3920
2.6829 3.9030 2.3920
2.5364 3.9878 2.3920
0.9257 1.5771 0.9276
0.8684 1.6086 0.9293
0.8101 1.6380 0.9310
0.7507 1.6653 0.9327
0.6903 1.6905 0.9345
0.6291 1.7134 0.9363
0.5671 1.7342 0.9380
0.5044 1.7526 0.9398
0.4411 1.7689 0.9416
0.3772 1.7828 0.9434
0.3128 1.7944 0.9451
0.2481 1.8037 0.9469
0.1831 1.8106 0.9487
0.1178 1.8152 0.9504
0.0525 1.8175 0.9522
-0.0130 1.8173 0.9539
-0.0783 1.8149 0.9556
-0.1436 1.8100 0.9573
-0.2086 1.8028 0.9589
-0.2733 1.7933 0.9606
-0.3376 1.7814 0.9622
-0.4015 1.7673 0.9638
-0.4648 1.7508 0.9653
-0.5275 1.7321 0.9669
-0.5895 1.7111 0.9684
-0.6506 1.6879 0.9698
-0.7109 1.6625 0.9713
-0.7702 1.6349 0.9726
-0.8285 1.6052 0.9740
-0.8857 1.5735 0.9753
-2.3068 3.7715 2.3920
-2.4378 3.6792 2.3920
-2.5655 3.5827 2.3920
-2.6896 3.4818 2.3920
-2.8099 3.3769 2.3920
-2.9264 3.2680 2.3920
-3.0390 3.1553 2.3920
-3.1475 3.0389 2.3920
-3.2518 2.9190 2.3920
-3.3519 2.7957 2.3920
-3.4475 2.6691 2.3920
-3.5387 2.5394 2.3920
-3.6253 2.4067 2.3920
-3.7072 2.2713 2.3920
-3.7844 2.1332 2.3920
-3.8567 1.9927 2.3920
-3.9242 1.8498 2.3920
-3.9867 1.7048 2.3920
-4.0442 1.5578 2.3920
-4.0966 1.4089 2.3920
-4.1439 1.2584 2.3920
-4.1859 1.1065 2.3920
-4.2228 0.9531 2.3920
-4.2543 0.7986 2.3920
-4.2806 0.6432 2.3920
-4.3016 0.4869 2.3920
-4.3172 0.3300 2.3920
-4.3274 0.1726 2.3920
-4.3322 0.0149 2.3920
-4.3317 -0.1429 2.3920
-4.3257 -0.3006 2.3920
-4.3143 -0.4581 2.3920
-4.2976 -0.6152 2.3920
-4.2754 -0.7718 2.3920
-4.2479 -0.9275 2.3920
-4.2150 -1.0824 2.3920
-4.1769 -1.2361 2.3920
-4.1334 -1.3886 2.3920
-4.0847 -1.5396 2.3920
-4.0307 -1.6890 2.3920
-3.9716 -1.8366 2.3920
-3.9074 -1.9822 2.3920
-3.8381 -2.1256 2.3920
-3.7638 -2.2668 2.3920
-3.6846 -2.4054 2.3920
-3.6006 -2.5414 2.3920
-3.5117 -2.6746 2.3920
-3.4182 -2.8048 2.3920
-3.3201 -2.9319 2.3920
-3.2175 -3.0556 2.3920
-3.1105 -3.1759 2.3920
-2.9992 -3.2925 2.3920
-2.8838 -3.4054 2.3920
-2.7642 -3.5143 2.3920
-2.6408 -3.6192 2.3920
-2.5135 -3.7198 2.3920
-2.3826 -3.8161 2.3920
-2.2481 -3.9078 2.3920
-2.1103 -3.9950 2.3920
-1.9692 -4.0773 2.3920
-1.8251 -4.1548 2.3920
-1.6780 -4.2272 2.3920
-1.5282 -4.2945 2.3920
-1.3759 -4.3566 2.3920
-1.2211 -4.4133 2.3920
-1.0642 -4.4646 2.3920
-0.9052 -4.5103 2.3920
-0.7444 -4.5503 2.3920
-0.5820 -4.5847 2.3920
-0.4181 -4.6133 2.3920
-0.2530 -4.6360 2.3920
-0.0870 -4.6527 2.3920
0.0799 -4.6635 2.3920
0.2474 -4.6683 2.3920
0.4152 -4.6670 2.3920
0.5832 -4.6596 2.3920
0.7510 -4.6461 2.3920
0.9186 -4.6265 2.3920
1.0856 -4.6007 2.3920
1.2519 -4.5687 2.3920
1.4171 -4.5307 2.3920
1.5811 -4.4866 2.3920
1.7436 -4.4363 2.3920
1.9044 -4.3801 2.3920
2.0633 -4.3179 2.3920
2.2200 -4.2497 2.3920
2.3743 -4.1757 2.3920
2.5260 -4.0959 2.3920
2.6748 -4.0105 2.3920
2.8206 -3.9194 2.3920
2.9630 -3.8229 2.3920
3.1019 -3.7210 2.3920
3.2371 -3.6139 2.3920
3.3683 -3.5017 2.3920
3.4954 -3.3845 2.3920
3.6181 -3.2625 2.3920
3.7363 -3.1359 2.3920
3.8497 -3.0048 2.3920
3.9583 -2.8694 2.3920
4.0617 -2.7300 2.3920
4.1599 -2.5866 2.3920
4.2527 -2.4396 2.3920
4.3399 -2.2890 2.3920
4.4215 -2.1352 2.3920
4.4972 -1.9783 2.3920
4.5670 -1.8186 2.3920
4.6307 -1.6564 2.3920
4.6883 -1.4918 2.3920
4.7396 -1.3250 2.3920
4.7845 -1.1565 2.3920
4.8231 -0.9863 2.3920
4.8552 -0.8148 2.3920
4.8808 -0.6422 2.3920
4.8998 -0.4688 2.3920
4.9123 -0.2947 2.3920
4.9181 -0.1204 2.3920
4.9174 0.0539 2.3920
4.9101 0.2281 2.3920
4.8962 0.4018 2.3920
4.8758 0.5748 2.3920
4.8489 0.7468 2.3920
4.8155 0.9175 2.3920
4.7757 1.0868 2.3920
4.7296 1.2543 2.3920
4.6773 1.4199 2.3920
4.6189 1.5832 2.3920
4.5544 1.7441 2.3920
4.4840 1.9023 2.3920
4.0931 -2.1812 2.3920
4.1707 -2.0362 2.3920
4.2428 -1.8884 2.3920
4.3093 -1.7378 2.3920
4.3701 -1.5848 2.3920
4.4252 -1.4295 2.3920
4.4743 -1.2723 2.3920
4.5175 -1.1133 2.3920
4.5547 -0.9527 2.3920
4.5858 -0.7909 2.3920
4.6107 -0.6280 2.3920
4.6295 -0.4642 2.3920
4.6421 -0.2999 2.3920
4.6485 -0.1353 2.3920
4.6487 0.0294 2.3920
4.6427 0.1940 2.3920
4.6305 0.3581 2.3920
4.6121 0.5216 2.3920
4.5876 0.6842 2.3920
4.5570 0.8458 2.3920
4.5203 1.0059 2.3920
4.4777 1.1644 2.3920
4.4293 1.3212 2.3920
4.3750 1.4758 2.3920
4.3150 1.6282 2.3920
4.2494 1.7782 2.3920
4.1783 1.9254 2.3920
4.1019 2.0698 2.3920
4.0201 2.2110 2.3920
3.9333 2.3489 2.3920
3.8415 2.4834 2.3920
3.7449 2.6142 2.3920
3.6436 2.7412 2.3920
3.5378 2.8642 2.3920
3.4277 2.9830 2.3920
3.3134 3.0976 2.3920
3.1951 3.2076 2.3920
3.0730 3.3131 2.3920
2.9473 3.4139 2.3920
2.8182 3.5099 2.3920
2.6858 3.6009 2.3920
2.5505 3.6869 2.3920
0.9344 1.4595 0.9265
0.8813 1.4913 0.9282
0.8272 1.5213 0.9298
0.7720 1.5493 0.9314
0.7158 1.5753 0.9331
0.6587 1.5992 0.9347
0.6008 1.6211 0.9364
0.5421 1.6408 0.9381
0.4828 1.6585 0.9398
0.4228 1.6740 0.9414
0.3623 1.6873 0.9431
0.3014 1.6984 0.9448
0.2401 1.7074 0.9465
0.1786 1.7141 0.9481
0.1168 1.7186 0.9498
0.0549 1.7208 0.9515
-0.0070 1.7208 0.9531
-0.0689 1.7186 0.9547
-0.1307 1.7142 0.9563
-0.1923 1.7075 0.9579
-0.2536 1.6986 0.9594
-0.3146 1.6875 0.9610
-0.3751 1.6743 0.9625
-0.4351 1.6588 0.9640
-0.4945 1.6412 0.9654
-0.5532 1.6215 0.9668
-0.6112 1.5996 0.9682
-0.6683 1.5757 0.9696
-0.7246 1.5497 0.9709
-0.7798 1.5218 0.9721
-0.8341 1.4918 0.9734
-0.8872 1.4599 0.9746
-2.3022 3.4963 2.3920
-2.4237 3.4051 2.3920
-2.5418 3.3099 2.3920
-2.6564 3.2108 2.3920
-2.7674 3.1079 2.3920
-2.8747 3.0013 2.3920
-2.9781 2.8912 2.3920
-3.0775 2.7777 2.3920
-3.1729 2.6609 2.3920
-3.2641 2.5411 2.3920
-3.3510 2.4182 2.3920
-3.4336 2.2925 2.3920
-3.5118 2.1642 2.3920
-3.5855 2.0333 2.3920
-3.6546 1.9001 2.3920
-3.7191 1.7646 2.3920
-3.7788 1.6271 2.3920
-3.8338 1.4876 2.3920
-3.8839 1.3464 2.3920
-3.9291 1.2036 2.3920
-3.9694 1.0594 2.3920
-4.0048 0.9139 2.3920
-4.0351 0.7672 2.3920
-4.0604 0.6197 2.3920
-4.0806 0.4713 2.3920
-4.0957 0.3223 2.3920
-4.1057 0.1729 2.3920
-4.1105 0.0232 2.3920
-4.1103 -0.1267 2.3920
-4.1048 -0.2765 2.3920
-4.0943 -0.4260 2.3920
-4.0786 -0.5752 2.3920
-4.0578 -0.7239 2.3920
-4.0318 -0.8718 2.3920
-4.0008 -1.0188 2.3920
-3.9647 -1.1648 2.3920
-3.9236 -1.3096 2.3920
-3.8775 -1.4530 2.3920
-3.8265 -1.5948 2.3920
-3.7705 -1.7350 2.3920
-3.7096 -1.8732 2.3920
-3.6440 -2.0094 2.3920
-3.5736 -2.1434 2.3920
-3.4985 -2.2750 2.3920
-3.4188 -2.4041 2.3920
-3.3346 -2.5305 2.3920
-3.2459 -2.6540 2.3920
-3.1529 -2.7746 2.3920
-3.0556 -2.8920 2.3920
-2.9541 -3.0061 2.3920
-2.8486 -3.1167 2.3920
-2.7391 -3.2238 2.3920
-2.6257 -3.3271 2.3920
-2.5087 -3.4265 2.3920
-2.3880 -3.5219 2.3920
-2.2639 -3.6131 2.3920
-2.1364 -3.7001 2.3920
-2.0057 -3.7827 2.3920
-1.8720 -3.8607 2.3920
-1.7354 -3.9341 2.3920
-1.5960 -4.0027 2.3920
-1.4541 -4.0664 2.3920
-1.3097 -4.1252 2.3920
-1.1631 -4.1788 2.3920
-1.0144 -4.2273 2.3920
-0.8639 -4.2706 2.3920
-0.7116 -4.3085 2.3920
-0.5577 -4.3409 2.3920
-0.4026 -4.3679 2.3920
-0.2463 -4.3893 2.3920
-0.0891 -4.4051 2.3920
0.0689 -4.4153 2.3920
0.2274 -4.4198 2.3920
0.3862 -4.4185 2.3920
0.5452 -4.4114 2.3920
0.7040 -4.3986 2.3920
0.8625 -4.3800 2.3920
1.0205 -4.3555 2.3920
1.1778 -4.3253 2.3920
1.3341 -4.2893 2.3920
1.4892 -4.2475 2.3920
1.6429 -4.2000 2.3920
1.7949 -4.1468 2.3920
1.9452 -4.0880 2.3920
2.0934 -4.0235 2.3920
2.2392 -3.9536 2.3920
2.3827 -3.8782 2.3920
2.5233 -3.7974 2.3920
2.6611 -3.7114 2.3920
2.7958 -3.6202 2.3920
2.9271 -3.5240 2.3920
3.0549 -3.4228 2.3920
3.1790 -3.3168 2.3920
3.2991 -3.2062 2.3920
3.4151 -3.0910 2.3920
3.5269 -2.9715 2.3920
3.6342 -2.8478 2.3920
3.7369 -2.7200 2.3920
3.8348 -2.5883 2.3920
3.9277 -2.4530 2.3920
4.0156 -2.3142 2.3920
4.0982 -2.1721 2.3920
4.1754 -2.0269 2.3920
4.2472 -1.8789 2.3920
4.3134 -1.7281 2.3920
4.3738 -1.5750 2.3920
4.4285 -1.4196 2.3920
4.4773 -1.2622 2.3920
4.5201 -1.1031 2.3920
4.5568 -0.9425 2.3920
4.5876 -0.7805 2.3920
4.6121 -0.6176 2.3920
4.6305 -0.4538 2.3920
4.6427 -0.2895 2.3920
4.6487 -0.1248 2.3920
4.6485 0.0399 2.3920
4.6421 0.2044 2.3920
4.6295 0.3686 2.3920
4.6107 0.5320 2.3920
4.5858 0.6946 2.3920
4.5548 0.8560 2.3920
4.5178 1.0160 2.3920
4.4748 1.1745 2.3920
4.4260 1.3311 2.3920
4.3713 1.4856 2.3920
4.3110 1.6379 2.3920
4.2451 1.7876 2.3920
4.1736 1.9347 2.3920
4.0968 2.0788 2.3920
4.0148 2.2199 2.3920
3.9276 2.3576 2.3920
3.8355 2.4918 2.3920
3.7386 2.6224 2.3920
3.6370 2.7492 2.3920
3.5309 2.8719 2.3920
3.4205 2.9905 2.3920
3.3060 3.1047 2.3920
3.1874 3.2145 2.3920
3.0651 3.3197 2.3920
2.9392 3.4202 2.3920
2.8099 3.5158 2.3920
2.6773 3.6065 2.3920
2.5417 3.6922 2.3920
0.9310 1.4615 0.9266
0.8779 1.4933 0.9283
0.8237 1.5231 0.9299
0.7684 1.5510 0.9315
0.7122 1.5768 0.9332
0.6551 1.6007 0.9348
0.5971 1.6224 0.9365
0.5384 1.6420 0.9382
0.4790 1.6595 0.9399
0.4190 1.6749 0.9416
0.3585 1.6881 0.9432
0.2975 1.6991 0.9449
0.2362 1.7078 0.9466
0.1747 1.7144 0.9483
0.1129 1.7188 0.9499
0.0510 1.7209 0.9516
-0.0110 1.7208 0.9532
-0.0729 1.7184 0.9548
-0.1347 1.7138 0.9564
-0.1962 1.7070 0.9580
-0.2575 1.6980 0.9595
-0.3184 1.6868 0.9611
-0.3789 1.6733 0.9626
-0.4389 1.6577 0.9640
-0.4982 1.6400 0.9655
-0.5569 1.6201 0.9669
-0.6148 1.5982 0.9683
-0.6719 1.5741 0.9696
-0.7281 1.5480 0.9709
-0.7833 1.5199 0.9722
-0.8375 1.4898 0.9734
-0.8905 1.4578 0.9746
-2.3101 3.4906 2.3920
-2.4314 3.3992 2.3920
-2.5492 3.3037 2.3920
-2.6636 3.2044 2.3920
-2.7744 3.1012 2.3920
-2.8814 2.9944 2.3920
-2.9845 2.8841 2.3920
-3.0837 2.7703 2.3920
-3.1788 2.6534 2.3920
-3.2697 2.5333 2.3920
-3.3564 2.4103 2.3920
-3.4388 2.2845 2.3920
-3.5166 2.1560 2.3920
-3.5901 2.0249 2.3920
-3.6589 1.8915 2.3920
-3.7230 1.7559 2.3920
-3.7824 1.6183 2.3920
-3.8371 1.4787 2.3920
-3.8869 1.3374 2.3920
-3.9318 1.1945 2.3920
-3.9718 1.0502 2.3920
-4.0068 0.9046 2.3920
-4.0368 0.7579 2.3920
-4.0618 0.6102 2.3920
-4.0817 0.4618 2.3920
-4.0965 0.3128 2.3920
-4.1061 0.1634 2.3920
-4.1107 0.0136 2.3920
-4.1101 -0.1362 2.3920
-4.1043 -0.2860 2.3920
-4.0934 -0.4355 2.3920
-4.0774 -0.5847 2.3920
-4.0563 -0.7333 2.3920
-4.0300 -0.8812 2.3920
-3.9987 -1.0282 2.3920
-3.9623 -1.1741 2.3920
-3.9208 -1.3188 2.3920
-3.8744 -1.4621 2.3920
-3.8230 -1.6038 2.3920
-3.7667 -1.7438 2.3920
-3.7056 -1.8819 2.3920
-3.6396 -2.0180 2.3920
-3.5689 -2.1518 2.3920
-3.4935 -2.2833 2.3920
-3.4136 -2.4122 2.3920
-3.3291 -2.5384 2.3920
-3.2401 -2.6618 2.3920
-3.1468 -2.7822 2.3920
-3.0492 -2.8993 2.3920
-2.9475 -3.0132 2.3920
-2.8417 -3.1236 2.3920
-2.7320 -3.2305 2.3920
-2.6184 -3.3335 2.3920
-2.5011 -3.4327 2.3920
-2.3802 -3.5278 2.3920
-2.2559 -3.6188 2.3920
-2.1282 -3.7055 2.3920
-1.9973 -3.7878 2.3920
-1.8634 -3.8655 2.3920
-1.7266 -3.9386 2.3920
-1.5871 -4.0069 2.3920
