ply
format ascii 1.0
element vertex 2180
property float32 x
property float32 y
property float32 z
end_header
8.6858 4.3344 1.6085
7.8997 -5.1060 1.7704
8.0405 -4.7971 1.7625
8.1976 -4.5001 1.7607
8.1493 -4.1002 1.7179
8.0646 -3.7013 1.6713
8.1108 -3.3757 1.6550
8.1640 -3.0590 1.6427
8.1845 -2.7361 1.6263
8.1835 -2.4130 1.6081
8.2953 -2.1257 1.6143
8.4119 -1.8366 1.6234
8.1735 -1.4795 1.5663
8.2056 -1.1831 1.5636
8.3805 -0.9027 1.5899
8.3750 -0.5992 1.5840
8.4148 -0.2992 1.5887
8.5144 0.0029 1.6067
8.3833 0.3039 1.5832
8.3240 0.6014 1.5753
8.5744 0.9297 1.6281
8.7862 1.2730 1.6761
8.6043 1.5637 1.6513
8.4502 1.8512 1.6335
8.4059 2.1602 1.6391
8.7893 2.5983 1.7311
8.5368 2.8605 1.7006
8.5180 3.1985 1.7188
8.8428 3.6877 1.8100
8.7097 4.0049 1.8111
8.7467 4.4087 1.8506
7.8820 -5.1395 1.7710
7.9869 -4.8086 1.7550
8.1676 -4.5264 1.7581
8.1424 -4.1378 1.7200
8.0445 -3.7312 1.6702
8.0803 -3.4011 1.6515
8.1634 -3.0963 1.6450
8.1070 -2.7464 1.6130
8.2054 -2.4553 1.6143
8.2987 -2.1621 1.6166
8.4166 -1.8731 1.6257
8.1495 -1.5090 1.5629
8.1859 -1.2138 1.5607
8.3775 -0.9365 1.5901
8.3855 -0.6338 1.5865
8.4426 -0.3342 1.5942
8.4177 -0.0309 1.5885
8.3951 0.2706 1.5852
8.3213 0.5676 1.5743
8.4213 0.8789 1.5984
8.7539 1.2325 1.6690
8.6045 1.5281 1.6501
8.4834 1.8228 1.6385
8.4254 2.1292 1.6412
8.8068 2.5651 1.7325
8.6167 2.8488 1.7142
8.5288 3.1636 1.7184
8.8787 3.6609 1.8143
8.7711 3.9905 1.8205
8.7469 4.3649 1.8469
7.8496 -5.0738 1.9781
7.9938 -4.7694 1.9703
8.2279 -4.5170 1.9871
8.0822 -4.0667 1.9157
8.1257 -3.7295 1.8934
8.2239 -3.4230 1.8867
8.1786 -3.0647 1.8502
8.1971 -2.7405 1.8312
8.2677 -2.4380 1.8265
8.4057 -2.1541 1.8390
8.4282 -1.8404 1.8286
8.2279 -1.4895 1.7726
8.2234 -1.1858 1.7616
8.3886 -0.9038 1.7891
8.3892 -0.6004 1.7837
8.4155 -0.2994 1.7861
8.4979 0.0028 1.8027
8.3719 0.3033 1.7773
8.2469 0.5957 1.7544
8.5394 0.9258 1.8227
8.7803 1.2721 1.8828
8.6492 1.5718 1.8658
8.5041 1.8629 1.8479
8.5219 2.1900 1.8678
8.7759 2.5942 1.9428
8.5636 2.8694 1.9175
8.5664 3.2166 1.9429
8.8313 3.6829 2.0318
8.7417 4.0195 2.0432
7.8286 -5.1049 1.9779
7.9888 -4.8101 1.9738
8.2804 -4.5892 2.0042
8.1625 -4.1483 1.9387
8.1765 -3.7927 1.9088
8.2050 -3.4538 1.8855
8.1855 -3.1048 1.8545
8.1807 -2.7716 1.8300
8.2549 -2.4703 1.8259
8.3861 -2.1850 1.8366
8.4377 -1.8780 1.8323
8.2270 -1.5235 1.7737
8.2026 -1.2164 1.7582
8.3448 -0.9330 1.7806
8.3725 -0.6330 1.7807
8.3944 -0.3324 1.7819
8.4289 -0.0311 1.7880
8.3863 0.2702 1.7801
8.2876 0.5652 1.7625
8.5365 0.8908 1.8213
8.7687 1.2344 1.8793
8.6452 1.5352 1.8636
8.5038 1.8271 1.8462
8.5236 2.1539 1.8663
8.8228 2.5696 1.9509
8.6496 2.8596 1.9342
8.5608 3.1753 1.9387
8.8624 3.6541 2.0355
8.7720 3.9909 2.0465
8.7487 4.3657 2.0764
4.9184 -8.3849 2.2825
5.1165 -8.0466 2.2393
5.3928 -7.8447 2.2359
5.6699 -7.6450 2.2359
5.9395 -7.4355 2.2359
6.2015 -7.2166 2.2359
6.4553 -6.9883 2.2359
6.7008 -6.7512 2.2359
6.9376 -6.5054 2.2359
7.1654 -6.2514 2.2359
7.3839 -5.9894 2.2359
7.5928 -5.7197 2.2359
7.7919 -5.4428 2.2359
7.8900 -5.1002 2.2104
8.0763 -4.8189 2.2131
8.2532 -4.5311 2.2159
8.1596 -4.1059 2.1501
8.1717 -3.7508 2.1168
8.2447 -3.4318 2.1027
8.1368 -3.0492 2.0463
8.2509 -2.7587 2.0490
8.2493 -2.4328 2.0259
8.4077 -2.1548 2.0448
8.5134 -1.8591 2.0532
8.2394 -1.4918 1.9732
8.2667 -1.1922 1.9684
8.3464 -0.8994 1.9787
8.3265 -0.5960 1.9678
8.3652 -0.2977 1.9734
8.5913 0.0027 2.0257
8.4170 0.3048 1.9861
8.2815 0.5980 1.9581
8.4886 0.9202 2.0138
8.6700 1.2560 2.0664
8.6599 1.5736 2.0763
8.4894 1.8595 2.0503
8.5282 2.1915 2.0775
8.8976 2.6301 2.1892
8.5741 2.8728 2.1337
8.6199 3.2366 2.1728
8.7445 3.6465 2.2359
8.6076 3.9577 2.2359
8.4597 4.2638 2.2359
8.3009 4.5644 2.2359
8.1315 4.8592 2.2359
7.9517 5.1477 2.2359
7.7616 5.4295 2.2359
7.5617 5.7044 2.2359
7.3520 5.9720 2.2359
7.1330 6.2319 2.2359
6.9047 6.4838 2.2359
6.6677 6.7274 2.2359
6.4221 6.9624 2.2359
6.1969 7.2219 2.2463
5.0765 -8.0550 2.2359
5.3614 -7.8664 2.2359
5.6392 -7.6679 2.2359
5.9097 -7.4595 2.2359
6.1725 -7.2415 2.2359
6.4273 -7.0143 2.2359
6.6738 -6.7782 2.2359
6.9115 -6.5334 2.2359
7.1404 -6.2802 2.2359
7.3599 -6.0191 2.2359
7.5699 -5.7503 2.2359
7.7701 -5.4742 2.2359
7.8677 -5.1307 2.2099
8.0627 -4.8548 2.2146
8.2577 -4.5768 2.2220
8.1777 -4.1562 2.1592
8.2286 -3.8170 2.1354
8.2357 -3.4669 2.1039
8.1506 -3.0918 2.0528
8.1765 -2.7703 2.0332
8.2247 -2.4615 2.0222
8.4059 -2.1904 2.0464
8.5010 -1.8922 2.0520
8.2244 -1.5232 1.9710
8.2329 -1.2211 1.9615
8.3594 -0.9347 1.9826
8.3440 -0.6310 1.9725
8.4742 -0.3357 1.9994
8.5468 -0.0317 2.0152
8.4671 0.2726 1.9976
8.1871 0.5582 1.9352
8.4448 0.8811 2.0025
8.8086 1.2399 2.0982
8.6586 1.5375 2.0745
8.5927 1.8460 2.0734
8.5307 2.1556 2.0759
8.9218 2.5983 2.1925
8.5654 2.8317 2.1287
8.5998 3.1897 2.1645
8.7592 3.6114 2.2359
8.6235 3.9231 2.2359
8.4768 4.2298 2.2359
8.3192 4.5311 2.2359
8.1510 4.8265 2.2359
7.9723 5.1157 2.2359
7.7834 5.3983 2.2359
7.5845 5.6740 2.2359
7.3760 5.9425 2.2359
7.1579 6.2032 2.2359
6.9307 6.4561 2.2359
6.6946 6.7006 2.2359
6.4499 6.9366 2.2359
6.2014 7.1687 2.2375
-9.2502 0.1414 2.3883
-9.2502 -0.1904 2.3883
-9.2383 -0.5221 2.3883
-9.2145 -0.8532 2.3883
-9.1787 -1.1833 2.3883
-9.1311 -1.5118 2.3883
-9.0717 -1.8385 2.3883
-9.0006 -2.1628 2.3883
-8.9179 -2.4844 2.3883
-8.8236 -2.8028 2.3883
-8.7179 -3.1177 2.3883
-8.6010 -3.4285 2.3883
-8.4729 -3.7350 2.3883
-8.3338 -4.0366 2.3883
-8.1840 -4.3331 2.3883
-8.0237 -4.6240 2.3883
-7.8529 -4.9089 2.3883
-7.6720 -5.1875 2.3883
-7.4811 -5.4594 2.3883
-7.2806 -5.7243 2.3883
-7.0707 -5.9818 2.3883
-6.8516 -6.2316 2.3883
-6.6237 -6.4733 2.3883
-6.3873 -6.7066 2.3883
-6.1426 -6.9313 2.3883
-5.8899 -7.1470 2.3883
-5.6297 -7.3535 2.3883
-5.3622 -7.5504 2.3883
-5.0878 -7.7377 2.3883
-4.8068 -7.9149 2.3883
-4.5197 -8.0818 2.3883
-4.2267 -8.2383 2.3883
-3.9283 -8.3842 2.3883
-3.6249 -8.5192 2.3883
-3.3168 -8.6432 2.3883
-3.0045 -8.7560 2.3883
-2.6883 -8.8575 2.3883
-2.3688 -8.9475 2.3883
-2.0462 -9.0260 2.3883
-1.7210 -9.0928 2.3883
-1.3936 -9.1479 2.3883
-1.0645 -9.1911 2.3883
-0.7341 -9.2225 2.3883
-0.4028 -9.2420 2.3883
-0.0711 -9.2495 2.3883
0.2607 -9.2451 2.3883
0.5921 -9.2288 2.3883
0.9226 -9.2005 2.3883
1.2519 -9.1605 2.3883
1.5794 -9.1086 2.3883
1.9049 -9.0449 2.3883
2.2278 -8.9696 2.3883
2.5478 -8.8828 2.3883
2.8644 -8.7846 2.3883
3.1772 -8.6750 2.3883
3.4859 -8.5543 2.3883
3.7900 -8.4226 2.3883
4.0891 -8.2801 2.3883
4.3828 -8.1270 2.3883
4.6709 -7.9634 2.3883
4.9481 -7.7822 2.3860
5.0070 -7.2838 2.2872
5.1462 -6.9393 2.2359
5.3911 -6.7493 2.2359
5.6289 -6.5506 2.2359
5.8594 -6.3435 2.2359
6.0823 -6.1284 2.2359
6.2974 -5.9054 2.2359
6.5042 -5.6748 2.2359
6.7027 -5.4371 2.2359
6.8924 -5.1924 2.2359
7.0732 -4.9411 2.2359
7.2449 -4.6835 2.2359
7.4072 -4.4199 2.2359
7.5600 -4.1508 2.2359
7.7030 -3.8763 2.2359
7.8361 -3.5970 2.2359
7.9590 -3.3131 2.2359
8.0717 -3.0250 2.2359
8.1740 -2.7331 2.2359
8.2657 -2.4378 2.2359
8.3468 -2.1394 2.2359
8.4172 -1.8383 2.2359
8.2389 -1.4918 2.1732
8.3030 -1.1976 2.1776
8.3581 -0.9008 2.1824
8.4338 -0.6039 2.1953
8.4499 -0.3009 2.1955
8.5474 0.0025 2.2196
8.4624 0.3064 2.1992
8.2991 0.5992 2.1612
8.4840 0.9195 2.2167
8.5180 1.2338 2.2359
8.4676 1.5385 2.2359
8.4063 1.8412 2.2359
8.3342 2.1415 2.2359
8.2515 2.4390 2.2359
8.1581 2.7334 2.2359
8.0543 3.0242 2.2359
7.9402 3.3110 2.2359
7.8159 3.5937 2.2359
7.6816 3.8716 2.2359
7.5375 4.1446 2.2359
7.3837 4.4123 2.2359
7.2204 4.6742 2.2359
7.0479 4.9302 2.2359
6.8663 5.1798 2.2359
6.6759 5.4228 2.2359
6.4770 5.6588 2.2359
6.2698 5.8876 2.2359
6.1051 6.1599 2.2546
6.1267 6.6423 2.3491
5.9827 6.9724 2.3883
5.7288 7.1827 2.3883
5.4675 7.3838 2.3883
5.1992 7.5754 2.3883
4.9242 7.7574 2.3883
4.6428 7.9294 2.3883
4.3555 8.0912 2.3883
4.0626 8.2427 2.3883
3.7644 8.3836 2.3883
3.4613 8.5138 2.3883
3.1538 8.6331 2.3883
2.8422 8.7413 2.3883
2.5269 8.8383 2.3883
0.8799 3.5555 0.9516
0.7518 3.5853 0.9516
0.6228 3.6104 0.9516
0.4929 3.6308 0.9517
0.3623 3.6465 0.9517
0.2313 3.6575 0.9517
0.0999 3.6638 0.9516
-0.0316 3.6653 0.9516
-0.1631 3.6620 0.9516
-0.2944 3.6540 0.9515
-0.4253 3.6412 0.9514
-0.5557 3.6237 0.9514
-0.6854 3.6015 0.9513
-0.8142 3.5746 0.9511
-2.3653 8.8978 2.3883
-2.6833 8.8084 2.3883
-2.9981 8.7075 2.3883
-3.3090 8.5955 2.3883
-3.6157 8.4724 2.3883
-3.9179 8.3384 2.3883
-4.2151 8.1936 2.3883
-4.5070 8.0382 2.3883
-4.7931 7.8725 2.3883
-5.0732 7.6965 2.3883
-5.3468 7.5107 2.3883
-5.6136 7.3151 2.3883
-5.8733 7.1100 2.3883
-6.1254 6.8957 2.3883
-6.3698 6.6725 2.3883
-6.6060 6.4407 2.3883
-6.8338 6.2004 2.3883
-7.0528 5.9522 2.3883
-7.2628 5.6962 2.3883
-7.4636 5.4327 2.3883
-7.6547 5.1622 2.3883
-7.8361 4.8850 2.3883
-8.0074 4.6014 2.3883
-8.1684 4.3118 2.3883
-8.3189 4.0166 2.3883
-8.4588 3.7161 2.3883
-8.5878 3.4108 2.3883
-8.7057 3.1009 2.3883
-8.8125 2.7870 2.3883
-8.9079 2.4695 2.3883
-8.9918 2.1486 2.3883
-9.0642 1.8250 2.3883
-9.1249 1.4988 2.3883
-9.1738 1.1707 2.3883
-9.2109 0.8410 2.3883
-9.2361 0.5102 2.3883
-9.2494 0.1786 2.3883
-9.2508 -0.1533 2.3883
-9.2402 -0.4850 2.3883
-9.2177 -0.8162 2.3883
-9.1833 -1.1464 2.3883
-9.1370 -1.4751 2.3883
-9.0790 -1.8020 2.3883
-9.0091 -2.1267 2.3883
-8.9277 -2.4486 2.3883
-8.8347 -2.7674 2.3883
-8.7303 -3.0826 2.3883
-8.6146 -3.3939 2.3883
-8.4878 -3.7009 2.3883
-8.3499 -4.0031 2.3883
-8.2013 -4.3001 2.3883
-8.0421 -4.5917 2.3883
-7.8725 -4.8773 2.3883
-7.6927 -5.1567 2.3883
-7.5030 -5.4293 2.3883
-7.3035 -5.6950 2.3883
-7.0947 -5.9534 2.3883
-6.8766 -6.2040 2.3883
-6.6497 -6.4466 2.3883
-6.4141 -6.6809 2.3883
-6.1704 -6.9066 2.3883
-5.9186 -7.1233 2.3883
-5.6592 -7.3308 2.3883
-5.3925 -7.5289 2.3883
-5.1188 -7.7172 2.3883
-4.8386 -7.8955 2.3883
-4.5521 -8.0636 2.3883
-4.2598 -8.2213 2.3883
-3.9620 -8.3684 2.3883
-3.6591 -8.5046 2.3883
-3.3515 -8.6298 2.3883
-3.0396 -8.7439 2.3883
-2.7239 -8.8467 2.3883
-2.4047 -8.9380 2.3883
-2.0824 -9.0178 2.3883
-1.7575 -9.0859 2.3883
-1.4303 -9.1423 2.3883
-1.1014 -9.1869 2.3883
-0.7711 -9.2196 2.3883
-0.4399 -9.2404 2.3883
-0.1082 -9.2492 2.3883
0.2236 -9.2462 2.3883
0.5550 -9.2312 2.3883
0.8857 -9.2043 2.3883
1.2151 -9.1655 2.3883
1.5429 -9.1150 2.3883
1.8686 -9.0526 2.3883
2.1918 -8.9786 2.3883
2.5121 -8.8931 2.3883
2.8291 -8.7961 2.3883
3.1424 -8.6878 2.3883
3.4515 -8.5684 2.3883
3.7562 -8.4379 2.3883
4.0559 -8.2966 2.3883
4.3503 -8.1446 2.3883
4.6390 -7.9822 2.3883
4.9216 -7.8096 2.3883
5.0007 -7.3376 2.2977
5.1184 -6.9601 2.2359
5.3640 -6.7710 2.2359
5.6027 -6.5733 2.2359
5.8340 -6.3671 2.2359
6.0578 -6.1528 2.2359
6.2737 -5.9307 2.2359
6.4815 -5.7010 2.2359
6.6809 -5.4640 2.2359
6.8716 -5.2201 2.2359
7.0535 -4.9695 2.2359
7.2262 -4.7126 2.2359
7.3896 -4.4497 2.2359
7.5434 -4.1811 2.2359
7.6875 -3.9073 2.2359
7.8217 -3.6285 2.2359
7.9458 -3.3451 2.2359
8.0596 -3.0575 2.2359
8.1631 -2.7660 2.2359
8.2560 -2.4710 2.2359
8.3383 -2.1729 2.2359
8.4099 -1.8722 2.2359
8.2262 -1.5237 2.1714
8.2661 -1.2262 2.1691
8.4294 -0.9428 2.2019
8.4389 -0.6383 2.1972
8.4785 -0.3360 2.2032
8.5254 -0.0317 2.2139
8.4628 0.2724 2.1990
8.2703 0.5637 2.1531
8.4854 0.8852 2.2161
8.5230 1.1996 2.2359
8.4738 1.5045 2.2359
8.4137 1.8075 2.2359
8.3428 2.1081 2.2359
8.2613 2.4059 2.2359
8.1691 2.7006 2.2359
8.0665 2.9918 2.2359
7.9535 3.2791 2.2359
7.8304 3.5622 2.2359
7.6972 3.8408 2.2359
7.5541 4.1143 2.2359
7.4014 4.3826 2.2359
7.2391 4.6452 2.2359
7.0676 4.9019 2.2359
6.8871 5.1522 2.2359
6.6977 5.3960 2.2359
6.4997 5.6328 2.2359
6.2934 5.8624 2.2359
6.1069 6.1123 2.2462
6.1242 6.5863 2.3380
6.0106 6.9482 2.3883
5.7576 7.1596 2.3883
5.4971 7.3617 2.3883
5.2295 7.5545 2.3883
4.9553 7.7375 2.3883
4.6746 7.9106 2.3883
4.3879 8.0736 2.3883
4.0956 8.2263 2.3883
3.7980 8.3684 2.3883
3.4955 8.4998 2.3883
3.1885 8.6203 2.3883
2.8773 8.7297 2.3883
2.5624 8.8280 2.3883
0.8941 3.5519 0.9515
0.7662 3.5822 0.9516
0.6373 3.6078 0.9516
0.5075 3.6287 0.9517
0.3770 3.6450 0.9517
0.2460 3.6565 0.9517
0.1146 3.6633 0.9516
-0.0169 3.6653 0.9516
-0.1484 3.6626 0.9516
-0.2797 3.6551 0.9515
-0.4107 3.6429 0.9514
-0.5412 3.6259 0.9514
-0.6709 3.6042 0.9513
-0.7998 3.5778 0.9512
-2.3296 8.9071 2.3883
-2.6480 8.8189 2.3883
-2.9630 8.7193 2.3883
-3.2744 8.6086 2.3883
-3.5816 8.4867 2.3883
-3.8843 8.3539 2.3883
-4.1821 8.2103 2.3883
-4.4746 8.0561 2.3883
-4.7614 7.8915 2.3883
-5.0421 7.7167 2.3883
-5.3165 7.5319 2.3883
-5.5841 7.3374 2.3883
-5.8446 7.1334 2.3883
-6.0976 6.9202 2.3883
-6.3428 6.6979 2.3883
-6.5800 6.4670 2.3883
-6.8087 6.2277 2.3883
-7.0287 5.9803 2.3883
-7.2398 5.7252 2.3883
-7.4416 5.4626 2.3883
-7.6338 5.1928 2.3883
-7.8163 4.9164 2.3883
-7.9887 4.6334 2.3883
-8.1509 4.3445 2.3883
-8.3026 4.0499 2.3883
-8.4437 3.7500 2.3883
-8.5739 3.4452 2.3883
-8.6931 3.1358 2.3883
-8.8011 2.8224 2.3883
-8.8978 2.5052 2.3883
-8.9830 2.1847 2.3883
-9.0567 1.8613 2.3883
-9.1187 1.5354 2.3883
-9.1689 1.2075 2.3883
-9.2073 0.8780 2.3883
-9.2339 0.5472 2.3883
-9.2485 0.2157 2.3883
-8.4584 0.1292 2.3883
-8.4584 -0.1743 2.3883
-8.4474 -0.4776 2.3883
-8.4256 -0.7803 2.3883
-8.3928 -1.0821 2.3883
-8.3492 -1.3825 2.3883
-8.2949 -1.6812 2.3883
-8.2298 -1.9777 2.3883
-8.1541 -2.2717 2.3883
-8.0679 -2.5629 2.3883
-7.9712 -2.8507 2.3883
-7.8642 -3.1349 2.3883
-7.7471 -3.4151 2.3883
-7.6199 -3.6909 2.3883
-7.4830 -3.9620 2.3883
-7.3363 -4.2279 2.3883
-7.1801 -4.4884 2.3883
-7.0147 -4.7431 2.3883
-6.8402 -4.9917 2.3883
-6.6569 -5.2339 2.3883
-6.4649 -5.4693 2.3883
-6.2647 -5.6977 2.3883
-6.0563 -5.9187 2.3883
-5.8401 -6.1320 2.3883
-5.6163 -6.3375 2.3883
-5.3854 -6.5347 2.3883
-5.1474 -6.7235 2.3883
-4.9029 -6.9036 2.3883
-4.6520 -7.0748 2.3883
-4.3951 -7.2368 2.3883
-4.1326 -7.3895 2.3883
-3.8647 -7.5326 2.3883
-3.5919 -7.6660 2.3883
-3.3145 -7.7895 2.3883
-3.0328 -7.9029 2.3883
-2.7473 -8.0061 2.3883
-2.4582 -8.0989 2.3883
-2.1660 -8.1813 2.3883
-1.8711 -8.2531 2.3883
-1.5737 -8.3143 2.3883
-1.2744 -8.3647 2.3883
-0.9735 -8.4043 2.3883
-0.6714 -8.4330 2.3883
-0.3685 -8.4509 2.3883
-0.0651 -8.4579 2.3883
0.2382 -8.4539 2.3883
0.5412 -8.4391 2.3883
0.8435 -8.4133 2.3883
1.1446 -8.3768 2.3883
1.4442 -8.3294 2.3883
1.7418 -8.2713 2.3883
2.0371 -8.2025 2.3883
2.3297 -8.1232 2.3883
2.6193 -8.0335 2.3883
2.9054 -7.9334 2.3883
3.1877 -7.8231 2.3883
3.4658 -7.7027 2.3883
3.7394 -7.5725 2.3883
4.0081 -7.4325 2.3883
4.2716 -7.2830 2.3883
4.5295 -7.1241 2.3883
4.7815 -6.9561 2.3883
5.0273 -6.7792 2.3883
5.0791 -6.3590 2.3033
5.1480 -5.9912 2.2359
5.3589 -5.8019 2.2359
5.5629 -5.6052 2.2359
5.7596 -5.4013 2.2359
5.9489 -5.1905 2.2359
6.1304 -4.9731 2.2359
6.3040 -4.7494 2.2359
6.4695 -4.5196 2.2359
6.6266 -4.2840 2.2359
6.7752 -4.0430 2.2359
6.9150 -3.7968 2.2359
7.0459 -3.5458 2.2359
7.1676 -3.2904 2.2359
7.2802 -3.0307 2.2359
7.3833 -2.7672 2.2359
7.4770 -2.5003 2.2359
7.5610 -2.2301 2.2359
7.6353 -1.9572 2.2359
7.6997 -1.6818 2.2359
7.7543 -1.4043 2.2359
7.7988 -1.1251 2.2359
7.8334 -0.8444 2.2359
7.8578 -0.5628 2.2359
7.8722 -0.2804 2.2359
7.8765 0.0022 2.2359
7.8706 0.2848 2.2359
7.8547 0.5670 2.2359
7.8286 0.8484 2.2359
7.7925 1.1286 2.2359
7.7464 1.4074 2.2359
7.6904 1.6843 2.2359
7.6245 1.9591 2.2359
7.5489 2.2313 2.2359
7.4635 2.5005 2.2359
7.3686 2.7666 2.2359
7.2642 3.0291 2.2359
7.1505 3.2876 2.2359
7.0277 3.5420 2.2359
6.8958 3.7917 2.2359
6.7551 4.0366 2.2359
6.6058 4.2763 2.2359
6.4479 4.5105 2.2359
6.2818 4.7389 2.2359
6.1077 4.9612 2.2359
6.0288 5.2673 2.2748
6.0469 5.6783 2.3571
5.9167 5.9697 2.3883
5.6987 6.1782 2.3883
5.4734 6.3788 2.3883
5.2411 6.5713 2.3883
5.0020 6.7552 2.3883
4.7565 6.9306 2.3883
4.5049 7.0970 2.3883
4.2475 7.2544 2.3883
3.9846 7.4024 2.3883
3.7166 7.5410 2.3883
3.4438 7.6698 2.3883
3.1665 7.7889 2.3883
2.8852 7.8980 2.3883
2.6001 7.9969 2.3883
0.9201 3.2183 0.9506
0.8041 3.2496 0.9507
0.6871 3.2768 0.9507
0.5691 3.2997 0.9507
0.4504 3.3184 0.9508
0.3311 3.3327 0.9508
0.2113 3.3427 0.9508
0.0913 3.3484 0.9507
-0.0289 3.3498 0.9507
-0.1491 3.3468 0.9507
-0.2691 3.3394 0.9506
-0.3888 3.3277 0.9506
-0.5079 3.3117 0.9505
-0.6264 3.2914 0.9504
-0.7441 3.2669 0.9503
-0.8609 3.2381 0.9502
-2.4547 8.0571 2.3883
-2.7426 7.9648 2.3883
-3.0269 7.8623 2.3883
-3.3075 7.7495 2.3883
-3.5838 7.6269 2.3883
-3.8556 7.4944 2.3883
-4.1226 7.3522 2.3883
-4.3842 7.2005 2.3883
-4.6403 7.0395 2.3883
-4.8905 6.8694 2.3883
-5.1345 6.6904 2.3883
-5.3719 6.5028 2.3883
-5.6025 6.3068 2.3883
-5.8259 6.1026 2.3883
-6.0419 5.8904 2.3883
-6.2502 5.6706 2.3883
-6.4504 5.4435 2.3883
-6.6424 5.2093 2.3883
-6.8259 4.9684 2.3883
-7.0006 4.7209 2.3883
-7.1664 4.4673 2.3883
-7.3230 4.2079 2.3883
-7.4702 3.9431 2.3883
-7.6078 3.6730 2.3883
-7.7356 3.3982 2.3883
-7.8534 3.1189 2.3883
-7.9612 2.8356 2.3883
-8.0588 2.5485 2.3883
-8.1459 2.2581 2.3883
-8.2226 1.9647 2.3883
-8.2887 1.6687 2.3883
-8.3441 1.3704 2.3883
-8.3888 1.0704 2.3883
-8.4226 0.7689 2.3883
-8.4456 0.4663 2.3883
-8.4577 0.1631 2.3883
-8.4589 -0.1403 2.3883
-8.4492 -0.4436 2.3883
-8.4285 -0.7465 2.3883
-8.3970 -1.0484 2.3883
-8.3547 -1.3489 2.3883
-8.3015 -1.6478 2.3883
-8.2376 -1.9446 2.3883
-8.1631 -2.2390 2.3883
-8.0780 -2.5304 2.3883
-7.9825 -2.8187 2.3883
-7.8767 -3.1033 2.3883
-7.7607 -3.3840 2.3883
-7.6347 -3.6603 2.3883
-7.4988 -3.9319 2.3883
-7.3532 -4.1984 2.3883
-7.1981 -4.4595 2.3883
-7.0337 -4.7149 2.3883
-6.8602 -4.9642 2.3883
-6.6778 -5.2071 2.3883
-6.4868 -5.4433 2.3883
-6.2875 -5.6725 2.3883
-6.0800 -5.8943 2.3883
-5.8647 -6.1086 2.3883
-5.6418 -6.3149 2.3883
-5.4116 -6.5131 2.3883
-5.1744 -6.7028 2.3883
-4.9306 -6.8839 2.3883
-4.6804 -7.0561 2.3883
-4.4242 -7.2192 2.3883
-4.1622 -7.3729 2.3883
-3.8950 -7.5171 2.3883
-3.6227 -7.6516 2.3883
-3.3458 -7.7762 2.3883
-3.0646 -7.8907 2.3883
-2.7794 -7.9951 2.3883
-2.4907 -8.0891 2.3883
-2.1989 -8.1726 2.3883
-1.9042 -8.2456 2.3883
-1.6071 -8.3080 2.3883
-1.3080 -8.3596 2.3883
-1.0073 -8.4004 2.3883
-0.7053 -8.4304 2.3883
-0.4024 -8.4495 2.3883
-0.0991 -8.4576 2.3883
0.2043 -8.4549 2.3883
0.5074 -8.4413 2.3883
0.8097 -8.4168 2.3883
1.1110 -8.3814 2.3883
1.4107 -8.3352 2.3883
1.7086 -8.2783 2.3883
2.0042 -8.2108 2.3883
2.2971 -8.1326 2.3883
2.5870 -8.0440 2.3883
2.8736 -7.9451 2.3883
3.1563 -7.8359 2.3883
3.4349 -7.7167 2.3883
3.7090 -7.5875 2.3883
3.9783 -7.4486 2.3883
4.2424 -7.3002 2.3883
4.5009 -7.1424 2.3883
4.7536 -6.9754 2.3883
5.0001 -6.7995 2.3883
5.0737 -6.4048 2.3125
5.1294 -6.0183 2.2383
5.3357 -5.8235 2.2359
5.5404 -5.6276 2.2359
5.7379 -5.4245 2.2359
5.9280 -5.2145 2.2359
6.1105 -4.9978 2.2359
6.2850 -4.7747 2.2359
6.4514 -4.5456 2.2359
6.6095 -4.3106 2.2359
6.7590 -4.0702 2.2359
6.8998 -3.8246 2.2359
7.0316 -3.5741 2.2359
7.1545 -3.3191 2.2359
7.2680 -3.0600 2.2359
7.3723 -2.7969 2.2359
7.4670 -2.5303 2.2359
7.5521 -2.2605 2.2359
7.6274 -1.9879 2.2359
7.6930 -1.7127 2.2359
7.7486 -1.4355 2.2359
7.7943 -1.1564 2.2359
7.8300 -0.8759 2.2359
7.8556 -0.5943 2.2359
7.8711 -0.3121 2.2359
7.8765 -0.0294 2.2359
7.8718 0.2532 2.2359
7.8570 0.5354 2.2359
7.8320 0.8169 2.2359
7.7971 1.0973 2.2359
7.7521 1.3763 2.2359
7.6972 1.6535 2.2359
7.6324 1.9285 2.2359
7.5578 2.2009 2.2359
7.4736 2.4706 2.2359
7.3797 2.7370 2.2359
7.2764 2.9999 2.2359
7.1637 3.2589 2.2359
7.0419 3.5137 2.2359
6.9110 3.7640 2.2359
6.7713 4.0095 2.2359
6.6229 4.2497 2.2359
6.4660 4.4846 2.2359
6.3008 4.7136 2.2359
6.1276 4.9366 2.2359
6.0268 5.2230 2.2661
6.0449 5.6309 2.3474
5.9406 5.9459 2.3883
5.7234 6.1553 2.3883
5.4990 6.3568 2.3883
5.2674 6.5501 2.3883
5.0291 6.7351 2.3883
4.7843 6.9114 2.3883
4.5334 7.0788 2.3883
4.2766 7.2372 2.3883
4.0143 7.3863 2.3883
3.7468 7.5259 2.3883
3.4746 7.6559 2.3883
3.1978 7.7761 2.3883
2.9169 7.8863 2.3883
2.6322 7.9864 2.3883
0.9330 3.2145 0.9506
0.8172 3.2463 0.9507
0.7002 3.2740 0.9507
0.5824 3.2974 0.9507
0.4637 3.3165 0.9508
0.3445 3.3313 0.9508
0.2248 3.3418 0.9508
0.1047 3.3480 0.9507
-0.0155 3.3498 0.9507
-0.1357 3.3473 0.9507
-0.2557 3.3405 0.9506
-0.3754 3.3293 0.9506
-0.4946 3.3137 0.9505
-0.6132 3.2939 0.9504
-0.7310 3.2698 0.9503
-0.8479 3.2415 0.9502
-2.4223 8.0668 2.3883
-2.7105 7.9757 2.3883
-2.9953 7.8742 2.3883
-3.2762 7.7627 2.3883
-3.5531 7.6411 2.3883
-3.8254 7.5097 2.3883
-4.0929 7.3686 2.3883
-4.3552 7.2179 2.3883
-4.6120 7.0580 2.3883
-4.8628 6.8889 2.3883
-5.1075 6.7109 2.3883
-5.3457 6.5242 2.3883
-5.5770 6.3291 2.3883
-5.8013 6.1258 2.3883
-6.0181 5.9145 2.3883
-6.2272 5.6956 2.3883
-6.4284 5.4693 2.3883
-6.6213 5.2359 2.3883
-6.8058 4.9956 2.3883
-6.9815 4.7489 2.3883
-7.1483 4.4960 2.3883
-7.3059 4.2372 2.3883
-7.4542 3.9730 2.3883
-7.5929 3.7035 2.3883
-7.7218 3.4292 2.3883
-7.8408 3.1504 2.3883
-7.9497 2.8675 2.3883
-8.0484 2.5808 2.3883
-8.1367 2.2907 2.3883
-8.2146 1.9976 2.3883
-8.2818 1.7019 2.3883
-8.3385 1.4039 2.3883
-8.3843 1.1040 2.3883
-8.4194 0.8027 2.3883
-8.4436 0.5002 2.3883
-8.4569 0.1971 2.3883
-7.7836 0.1188 2.3883
-7.7835 -0.1605 2.3883
-7.7734 -0.4396 2.3883
-7.7533 -0.7181 2.3883
-7.7231 -0.9958 2.3883
-7.6829 -1.2723 2.3883
-7.6329 -1.5471 2.3883
-7.5730 -1.8200 2.3883
-7.5033 -2.0905 2.3883
-7.4239 -2.3584 2.3883
-7.3349 -2.6232 2.3883
-7.2364 -2.8847 2.3883
-7.1286 -3.1425 2.3883
-7.0116 -3.3963 2.3883
-6.8856 -3.6457 2.3883
-6.7506 -3.8904 2.3883
-6.6069 -4.1301 2.3883
-6.4547 -4.3645 2.3883
-6.2941 -4.5932 2.3883
-6.1254 -4.8161 2.3883
-5.9488 -5.0327 2.3883
-5.7645 -5.2428 2.3883
-5.5728 -5.4461 2.3883
-5.3738 -5.6425 2.3883
-5.1680 -5.8315 2.3883
-4.9554 -6.0130 2.3883
-4.7365 -6.1867 2.3883
-4.5115 -6.3524 2.3883
-4.2806 -6.5100 2.3883
-4.0443 -6.6591 2.3883
-3.8027 -6.7996 2.3883
-3.5563 -6.9313 2.3883
-3.3053 -7.0541 2.3883
-3.0500 -7.1677 2.3883
-2.7908 -7.2721 2.3883
-2.5281 -7.3671 2.3883
-2.2621 -7.4526 2.3883
-1.9933 -7.5284 2.3883
-1.7219 -7.5945 2.3883
-1.4483 -7.6508 2.3883
-1.1729 -7.6973 2.3883
-0.8960 -7.7338 2.3883
-0.6180 -7.7603 2.3883
-0.3392 -7.7768 2.3883
-0.0601 -7.7832 2.3883
0.2191 -7.7796 2.3883
0.4979 -7.7660 2.3883
0.7761 -7.7424 2.3883
1.0532 -7.7088 2.3883
1.3289 -7.6653 2.3883
1.6028 -7.6119 2.3883
1.8745 -7.5487 2.3883
2.1439 -7.4757 2.3883
2.4103 -7.3932 2.3883
2.6737 -7.3012 2.3883
2.9335 -7.1997 2.3883
3.1895 -7.0890 2.3883
3.4413 -6.9692 2.3883
3.6886 -6.8405 2.3883
3.9312 -6.7029 2.3883
4.1686 -6.5568 2.3883
4.4005 -6.4023 2.3883
4.6268 -6.2395 2.3883
4.8470 -6.0688 2.3883
5.0610 -5.8902 2.3883
5.1388 -5.5639 2.3296
5.1794 -5.2191 2.2619
5.3011 -4.9716 2.2359
5.4753 -4.7776 2.2359
5.6425 -4.5775 2.2359
5.8024 -4.3716 2.2359
5.9547 -4.1601 2.2359
6.0994 -3.9433 2.2359
6.2362 -3.7215 2.2359
6.3649 -3.4950 2.2359
6.4855 -3.2640 2.2359
6.5976 -3.0289 2.2359
6.7013 -2.7899 2.2359
6.7963 -2.5474 2.2359
6.8825 -2.3016 2.2359
6.9599 -2.0530 2.2359
7.0284 -1.8018 2.2359
7.0877 -1.5483 2.2359
7.1380 -1.2928 2.2359
7.1791 -1.0358 2.2359
7.2110 -0.7775 2.2359
7.2335 -0.5182 2.2359
7.2468 -0.2583 2.2359
7.2508 0.0019 2.2359
7.2455 0.2621 2.2359
7.2308 0.5218 2.2359
7.2069 0.7809 2.2359
7.1737 1.0389 2.2359
7.1313 1.2956 2.2359
7.0797 1.5505 2.2359
7.0191 1.8034 2.2359
6.9495 2.0540 2.2359
6.8710 2.3019 2.2359
6.7836 2.5469 2.2359
6.6875 2.7885 2.2359
6.5829 3.0266 2.2359
6.4698 3.2607 2.2359
6.3484 3.4907 2.2359
6.2189 3.7162 2.2359
6.0814 3.9368 2.2359
5.9526 4.1640 2.2421
5.9607 4.4966 2.3045
5.9764 4.8546 2.3765
5.8272 5.0910 2.3883
5.6407 5.2969 2.3883
5.4470 5.4959 2.3883
5.2463 5.6878 2.3883
5.0389 5.8725 2.3883
4.8250 6.0496 2.3883
4.6049 6.2190 2.3883
4.3789 6.3804 2.3883
4.1473 6.5336 2.3883
3.9103 6.6785 2.3883
3.6682 6.8148 2.3883
3.4215 6.9423 2.3883
3.1703 7.0609 2.3883
2.9151 7.1705 2.3883
2.6560 7.2709 2.3883
2.3936 7.3620 2.3883
0.8463 2.9604 0.9498
0.7396 2.9892 0.9499
0.6320 3.0142 0.9499
0.5235 3.0352 0.9500
0.4143 3.0523 0.9500
0.3045 3.0655 0.9500
0.1943 3.0747 0.9500
0.0839 3.0799 0.9500
-0.0267 3.0811 0.9500
-0.1372 3.0784 0.9499
-0.2476 3.0716 0.9499
-0.3577 3.0608 0.9498
-0.4673 3.0461 0.9497
-0.5763 3.0275 0.9497
-0.6845 3.0049 0.9496
-0.7919 2.9784 0.9495
-0.8982 2.9480 0.9493
-2.5246 7.3314 2.3883
-2.7864 7.2370 2.3883
-3.0446 7.1332 2.3883
-3.2989 7.0202 2.3883
-3.5491 6.8982 2.3883
-3.7947 6.7672 2.3883
-4.0356 6.6275 2.3883
-4.2713 6.4793 2.3883
-4.5015 6.3227 2.3883
-4.7260 6.1579 2.3883
-4.9445 5.9851 2.3883
-5.1567 5.8046 2.3883
-5.3623 5.6166 2.3883
-5.5610 5.4213 2.3883
-5.7526 5.2190 2.3883
-5.9368 5.0099 2.3883
-6.1135 4.7943 2.3883
-6.2823 4.5725 2.3883
-6.4431 4.3447 2.3883
-6.5956 4.1113 2.3883
-6.7396 3.8725 2.3883
-6.8750 3.6287 2.3883
-7.0016 3.3802 2.3883
-7.1191 3.1272 2.3883
-7.2275 2.8702 2.3883
-7.3267 2.6094 2.3883
-7.4164 2.3452 2.3883
-7.4965 2.0779 2.3883
-7.5670 1.8078 2.3883
-7.6278 1.5354 2.3883
-7.6787 1.2610 2.3883
-7.7198 0.9849 2.3883
-7.7508 0.7074 2.3883
-7.7719 0.4290 2.3883
-7.7830 0.1500 2.3883
-7.7841 -0.1292 2.3883
-7.7750 -0.4084 2.3883
-7.7560 -0.6870 2.3883
-7.7269 -0.9648 2.3883
-7.6879 -1.2414 2.3883
-7.6390 -1.5164 2.3883
-7.5802 -1.7895 2.3883
-7.5115 -2.0603 2.3883
-7.4332 -2.3285 2.3883
-7.3453 -2.5938 2.3883
-7.2479 -2.8557 2.3883
-7.1412 -3.1139 2.3883
-7.0252 -3.3681 2.3883
-6.9001 -3.6180 2.3883
-6.7661 -3.8633 2.3883
-6.6234 -4.1035 2.3883
-6.4721 -4.3385 2.3883
-6.3125 -4.5679 2.3883
-6.1447 -4.7914 2.3883
-5.9689 -5.0087 2.3883
-5.7855 -5.2196 2.3883
-5.5946 -5.4237 2.3883
-5.3964 -5.6209 2.3883
-5.1913 -5.8107 2.3883
-4.9795 -5.9931 2.3883
-4.7613 -6.1677 2.3883
-4.5370 -6.3343 2.3883
-4.3068 -6.4928 2.3883
-4.0710 -6.6428 2.3883
-3.8300 -6.7843 2.3883
-3.5841 -6.9170 2.3883
-3.3336 -7.0408 2.3883
-3.0788 -7.1555 2.3883
-2.8200 -7.2609 2.3883
-2.5577 -7.3569 2.3883
-2.2920 -7.4435 2.3883
-2.0235 -7.5204 2.3883
-1.7523 -7.5876 2.3883
-1.4790 -7.6450 2.3883
-1.2038 -7.6926 2.3883
-0.9270 -7.7302 2.3883
-0.6491 -7.7578 2.3883
-0.3704 -7.7754 2.3883
-0.0913 -7.7830 2.3883
0.1879 -7.7805 2.3883
0.4668 -7.7681 2.3883
0.7450 -7.7456 2.3883
1.0222 -7.7131 2.3883
1.2981 -7.6707 2.3883
1.5722 -7.6183 2.3883
1.8443 -7.5562 2.3883
2.1139 -7.4844 2.3883
2.3807 -7.4029 2.3883
2.6444 -7.3119 2.3883
2.9046 -7.2115 2.3883
3.1610 -7.1019 2.3883
3.4133 -6.9831 2.3883
3.6612 -6.8553 2.3883
3.9043 -6.7188 2.3883
4.1423 -6.5736 2.3883
4.3748 -6.4200 2.3883
4.6018 -6.2581 2.3883
4.8227 -6.0883 2.3883
5.0374 -5.9106 2.3883
5.1341 -5.6038 2.3376
5.1750 -5.2567 2.2691
5.2811 -4.9929 2.2359
5.4562 -4.7996 2.2359
5.6241 -4.6002 2.2359
5.7848 -4.3949 2.2359
5.9381 -4.1841 2.2359
6.0836 -3.9678 2.2359
6.2213 -3.7466 2.2359
6.3509 -3.5206 2.2359
6.4724 -3.2901 2.2359
6.5855 -3.0554 2.2359
6.6901 -2.8168 2.2359
6.7861 -2.5747 2.2359
6.8733 -2.3293 2.2359
6.9517 -2.0810 2.2359
7.0211 -1.8300 2.2359
7.0815 -1.5767 2.2359
7.1328 -1.3215 2.2359
7.1749 -1.0646 2.2359
7.2079 -0.8064 2.2359
7.2315 -0.5472 2.2359
7.2458 -0.2874 2.2359
7.2508 -0.0272 2.2359
7.2465 0.2330 2.2359
7.2329 0.4928 2.2359
7.2100 0.7519 2.2359
7.1779 1.0101 2.2359
7.1365 1.2669 2.2359
7.0860 1.5221 2.2359
7.0264 1.7752 2.2359
6.9578 2.0261 2.2359
6.8802 2.2743 2.2359
6.7938 2.5196 2.2359
6.6987 2.7617 2.2359
6.5950 3.0001 2.2359
6.4829 3.2347 2.2359
6.3624 3.4652 2.2359
6.2338 3.6912 2.2359
6.0972 3.9124 2.2359
5.9552 4.1303 2.2368
5.9590 4.4579 2.2969
5.9746 4.8134 2.3681
5.8476 5.0676 2.3883
5.6619 5.2742 2.3883
5.4690 5.4739 2.3883
5.2691 5.6667 2.3883
5.0624 5.8522 2.3883
4.8493 6.0302 2.3883
4.6299 6.2005 2.3883
4.4045 6.3628 2.3883
4.1734 6.5169 2.3883
3.9370 6.6627 2.3883
3.6956 6.7999 2.3883
3.4493 6.9285 2.3883
3.1986 7.0481 2.3883
2.9438 7.1587 2.3883
2.6852 7.2601 2.3883
2.4231 7.3522 2.3883
0.8582 2.9569 0.9498
0.7516 2.9862 0.9499
0.6441 3.0116 0.9499
0.5357 3.0330 0.9500
0.4265 3.0506 0.9500
0.3168 3.0642 0.9500
0.2067 3.0739 0.9500
0.0963 3.0795 0.9500
-0.0143 3.0812 0.9500
-0.1249 3.0789 0.9499
-0.2353 3.0726 0.9499
-0.3454 3.0622 0.9498
-0.4550 3.0480 0.9497
-0.5641 3.0297 0.9497
-0.6725 3.0076 0.9496
-0.7799 2.9815 0.9495
-0.8864 2.9516 0.9494
-2.4951 7.3414 2.3883
-2.7573 7.2480 2.3883
-3.0159 7.1453 2.3883
-3.2707 7.0333 2.3883
-3.5213 6.9123 2.3883
-3.7675 6.7823 2.3883
-4.0089 6.6436 2.3883
-4.2451 6.4963 2.3883
-4.4760 6.3406 2.3883
-4.7012 6.1767 2.3883
-4.9204 6.0048 2.3883
-5.1332 5.8252 2.3883
-5.3396 5.6380 2.3883
-5.5391 5.4435 2.3883
-5.7315 5.2419 2.3883
-5.9166 5.0336 2.3883
-6.0941 4.8187 2.3883
-6.2638 4.5976 2.3883
-6.4255 4.3705 2.3883
-6.5789 4.1377 2.3883
-6.7239 3.8995 2.3883
-6.8603 3.6562 2.3883
-6.9879 3.4082 2.3883
-7.1064 3.1557 2.3883
-7.2159 2.8991 2.3883
-7.3160 2.6387 2.3883
-7.4068 2.3749 2.3883
-7.4880 2.1079 2.3883
-7.5596 1.8382 2.3883
-7.6215 1.5660 2.3883
-7.6735 1.2918 2.3883
-7.7156 1.0158 2.3883
-7.7479 0.7385 2.3883
-7.7701 0.4602 2.3883
-7.7823 0.1813 2.3883
-7.2011 0.1098 2.3883
-7.2010 -0.1486 2.3883
-7.1916 -0.4068 2.3883
-7.1729 -0.6645 2.3883
-7.1450 -0.9214 2.3883
-7.1078 -1.1771 2.3883
-7.0615 -1.4314 2.3883
-7.0060 -1.6838 2.3883
-6.9415 -1.9341 2.3883
-6.8680 -2.1819 2.3883
-6.7857 -2.4269 2.3883
-6.6946 -2.6688 2.3883
-6.5948 -2.9073 2.3883
-6.4866 -3.1420 2.3883
-6.3699 -3.3727 2.3883
-6.2451 -3.5991 2.3883
-6.1121 -3.8209 2.3883
-5.9713 -4.0377 2.3883
-5.8227 -4.2493 2.3883
-5.6667 -4.4554 2.3883
-5.5033 -4.6558 2.3883
-5.3328 -4.8502 2.3883
-5.1554 -5.0383 2.3883
-4.9714 -5.2199 2.3883
-4.7810 -5.3948 2.3883
-4.5844 -5.5627 2.3883
-4.3819 -5.7234 2.3883
-4.1737 -5.8767 2.3883
-3.9602 -6.0225 2.3883
-3.7415 -6.1604 2.3883
-3.5180 -6.2904 2.3883
-3.2901 -6.4123 2.3883
-3.0579 -6.5259 2.3883
-2.8217 -6.6310 2.3883
-2.5820 -6.7276 2.3883
-2.3389 -6.8155 2.3883
-2.0929 -6.8946 2.3883
-1.8441 -6.9648 2.3883
-1.5931 -7.0260 2.3883
-1.3400 -7.0782 2.3883
-1.0852 -7.1211 2.3883
-0.8290 -7.1549 2.3883
-0.5718 -7.1795 2.3883
-0.3140 -7.1948 2.3883
-0.0557 -7.2008 2.3883
0.2026 -7.1976 2.3883
0.4605 -7.1850 2.3883
0.7179 -7.1632 2.3883
0.9742 -7.1322 2.3883
1.2293 -7.0920 2.3883
1.4827 -7.0426 2.3883
1.7342 -6.9842 2.3883
1.9834 -6.9168 2.3883
2.2300 -6.8405 2.3883
2.4736 -6.7553 2.3883
2.7140 -6.6615 2.3883
2.9509 -6.5592 2.3883
3.1839 -6.4484 2.3883
3.4128 -6.3293 2.3883
3.6372 -6.2021 2.3883
3.8569 -6.0669 2.3883
4.0716 -5.9240 2.3883
4.2810 -5.7734 2.3883
4.4848 -5.6155 2.3883
4.6828 -5.4504 2.3883
4.8747 -5.2783 2.3883
5.0604 -5.0994 2.3883
5.1888 -4.8665 2.3652
5.2248 -4.5592 2.3058
5.2586 -4.2663 2.2520
5.3691 -4.0454 2.2359
5.5101 -3.8497 2.2359
5.6440 -3.6491 2.2359
5.7707 -3.4439 2.2359
5.8899 -3.2343 2.2359
6.0014 -3.0206 2.2359
6.1053 -2.8030 2.2359
6.2012 -2.5819 2.2359
6.2892 -2.3575 2.2359
6.3691 -2.1301 2.2359
6.4408 -1.9000 2.2359
6.5042 -1.6675 2.2359
6.5591 -1.4329 2.2359
6.6057 -1.1966 2.2359
6.6438 -0.9587 2.2359
6.6733 -0.7196 2.2359
6.6942 -0.4797 2.2359
6.7066 -0.2391 2.2359
6.7103 0.0017 2.2359
6.7054 0.2424 2.2359
6.6919 0.4828 2.2359
6.6698 0.7226 2.2359
6.6391 0.9614 2.2359
6.5999 1.1989 2.2359
6.5522 1.4349 2.2359
6.4961 1.6690 2.2359
6.4317 1.9009 2.2359
6.3590 2.1304 2.2359
6.2782 2.3571 2.2359
6.1893 2.5807 2.2359
6.0925 2.8011 2.2359
5.9878 3.0178 2.2359
5.8812 3.2337 2.2381
5.8845 3.5163 2.2860
5.8984 3.8183 2.3432
5.8684 4.1050 2.3883
5.7172 4.3129 2.3883
5.5587 4.5153 2.3883
5.3931 4.7118 2.3883
5.2205 4.9023 2.3883
5.0413 5.0865 2.3883
4.8555 5.2642 2.3883
4.6635 5.4351 2.3883
4.4656 5.5990 2.3883
4.2618 5.7558 2.3883
4.0527 5.9051 2.3883
3.8382 6.0469 2.3883
3.6189 6.1810 2.3883
3.3949 6.3071 2.3883
3.1665 6.4251 2.3883
2.9340 6.5349 2.3883
2.6978 6.6363 2.3883
2.4580 6.7291 2.3883
0.8803 2.7077 0.9491
0.7827 2.7379 0.9492
0.6840 2.7645 0.9492
0.5844 2.7876 0.9493
0.4841 2.8070 0.9493
0.3831 2.8229 0.9493
0.2816 2.8350 0.9493
0.1797 2.8435 0.9493
0.0775 2.8483 0.9493
-0.0247 2.8494 0.9493
-0.1270 2.8469 0.9493
-0.2290 2.8406 0.9492
-0.3308 2.8307 0.9492
-0.4322 2.8170 0.9491
-0.5330 2.7998 0.9490
-0.6331 2.7789 0.9489
-0.7324 2.7544 0.9488
-0.8307 2.7263 0.9487
-2.3364 6.7844 2.3883
-2.5786 6.6969 2.3883
-2.8175 6.6008 2.3883
-3.0529 6.4962 2.3883
-3.2844 6.3832 2.3883
-3.5116 6.2620 2.3883
-3.7345 6.1327 2.3883
-3.9525 5.9955 2.3883
-4.1655 5.8505 2.3883
-4.3733 5.6979 2.3883
-4.5754 5.5380 2.3883
-4.7717 5.3710 2.3883
-4.9619 5.1970 2.3883
-5.1457 5.0162 2.3883
-5.3230 4.8289 2.3883
-5.4934 4.6354 2.3883
-5.6568 4.4359 2.3883
-5.8129 4.2306 2.3883
-5.9617 4.0199 2.3883
-6.1027 3.8039 2.3883
-6.2359 3.5829 2.3883
-6.3611 3.3573 2.3883
-6.4782 3.1273 2.3883
-6.5869 2.8933 2.3883
-6.6872 2.6554 2.3883
-6.7788 2.4141 2.3883
-6.8617 2.1696 2.3883
-6.9359 1.9223 2.3883
-7.0010 1.6725 2.3883
-7.0572 1.4204 2.3883
-7.1043 1.1665 2.3883
-7.1422 0.9110 2.3883
-7.1709 0.6544 2.3883
-7.1904 0.3968 2.3883
-7.2006 0.1387 2.3883
-7.2015 -0.1197 2.3883
-7.1931 -0.3779 2.3883
-7.1755 -0.6357 2.3883
-7.1486 -0.8927 2.3883
-7.1124 -1.1486 2.3883
-7.0671 -1.4030 2.3883
-7.0127 -1.6556 2.3883
-6.9492 -1.9062 2.3883
-6.8767 -2.1543 2.3883
-6.7954 -2.3996 2.3883
-6.7052 -2.6419 2.3883
-6.6064 -2.8808 2.3883
-6.4991 -3.1160 2.3883
-6.3834 -3.3472 2.3883
-6.2594 -3.5740 2.3883
-6.1274 -3.7963 2.3883
-5.9874 -4.0137 2.3883
-5.8397 -4.2259 2.3883
-5.6845 -4.4326 2.3883
-5.5219 -4.6337 2.3883
-5.3522 -4.8287 2.3883
-5.1756 -5.0176 2.3883
-4.9923 -5.1999 2.3883
-4.8026 -5.3755 2.3883
-4.6067 -5.5443 2.3883
-4.4048 -5.7058 2.3883
-4.1972 -5.8599 2.3883
-3.9843 -6.0065 2.3883
-3.7662 -6.1454 2.3883
-3.5433 -6.2763 2.3883
-3.3158 -6.3991 2.3883
-3.0840 -6.5136 2.3883
-2.8483 -6.6197 2.3883
-2.6090 -6.7173 2.3883
-2.3663 -6.8061 2.3883
-2.1205 -6.8862 2.3883
-1.8721 -6.9574 2.3883
-1.6213 -7.0196 2.3883
-1.3684 -7.0728 2.3883
-1.1138 -7.1168 2.3883
-0.8578 -7.1516 2.3883
-0.6007 -7.1772 2.3883
-0.3428 -7.1936 2.3883
-0.0846 -7.2006 2.3883
0.1737 -7.1984 2.3883
0.4317 -7.1869 2.3883
0.6891 -7.1661 2.3883
0.9456 -7.1361 2.3883
1.2008 -7.0969 2.3883
1.4545 -7.0486 2.3883
1.7062 -6.9912 2.3883
1.9556 -6.9248 2.3883
2.2025 -6.8494 2.3883
2.4465 -6.7653 2.3883
2.6873 -6.6725 2.3883
2.9246 -6.5710 2.3883
3.1581 -6.4612 2.3883
3.3874 -6.3430 2.3883
3.6124 -6.2167 2.3883
3.8326 -6.0824 2.3883
4.0478 -5.9404 2.3883
4.2578 -5.7907 2.3883
4.4623 -5.6335 2.3883
4.6610 -5.4692 2.3883
4.8536 -5.2979 2.3883
5.0399 -5.1197 2.3883
5.1847 -4.9019 2.3723
5.2209 -4.5929 2.3122
5.2550 -4.2984 2.2577
5.3529 -4.0670 2.2359
5.4947 -3.8719 2.2359
5.6294 -3.6718 2.2359
5.7569 -3.4671 2.2359
5.8769 -3.2580 2.2359
5.9893 -3.0447 2.2359
6.0940 -2.8275 2.2359
6.1909 -2.6068 2.2359
6.2798 -2.3827 2.2359
6.3606 -2.1557 2.2359
6.4331 -1.9259 2.2359
6.4975 -1.6936 2.2359
6.5534 -1.4593 2.2359
6.6009 -1.2231 2.2359
6.6399 -0.9854 2.2359
6.6704 -0.7464 2.2359
6.6923 -0.5066 2.2359
6.7056 -0.2661 2.2359
6.7103 -0.0253 2.2359
6.7064 0.2155 2.2359
6.6938 0.4559 2.2359
6.6727 0.6958 2.2359
6.6429 0.9347 2.2359
6.6047 1.1724 2.2359
6.5580 1.4086 2.2359
6.5028 1.6429 2.2359
6.4393 1.8751 2.2359
6.3676 2.1048 2.2359
6.2876 2.3319 2.2359
6.1997 2.5559 2.2359
6.1037 2.7766 2.2359
5.9999 2.9937 2.2359
5.8885 3.2070 2.2359
5.8830 3.4834 2.2799
5.8969 3.7838 2.3365
5.8848 4.0814 2.3883
5.7345 4.2899 2.3883
5.5768 4.4929 2.3883
5.4120 4.6901 2.3883
5.2402 4.8813 2.3883
5.0616 5.0662 2.3883
4.8766 5.2446 2.3883
4.6853 5.4163 2.3883
4.4880 5.5810 2.3883
4.2849 5.7386 2.3883
4.0763 5.8888 2.3883
3.8625 6.0314 2.3883
3.6437 6.1663 2.3883
3.4202 6.2934 2.3883
3.1923 6.4123 2.3883
2.9602 6.5230 2.3883
2.7244 6.6253 2.3883
2.4850 6.7192 2.3883
0.8912 2.7041 0.9491
0.7937 2.7347 0.9492
0.6951 2.7617 0.9492
0.5956 2.7852 0.9493
0.4953 2.8050 0.9493
0.3944 2.8213 0.9493
0.2929 2.8339 0.9493
0.1911 2.8428 0.9493
0.0890 2.8480 0.9493
-0.0133 2.8495 0.9493
-0.1155 2.8473 0.9493
-0.2176 2.8415 0.9492
-0.3194 2.8320 0.9492
-0.4209 2.8187 0.9491
-0.5217 2.8019 0.9490
-0.6219 2.7814 0.9489
-0.7213 2.7573 0.9488
-0.8198 2.7296 0.9487
-2.3091 6.7936 2.3883
-2.5517 6.7071 2.3883
-2.7910 6.6120 2.3883
-3.0267 6.5083 2.3883
-3.2587 6.3963 2.3883
-3.4864 6.2760 2.3883
-3.7098 6.1476 2.3883
-3.9284 6.0112 2.3883
-4.1420 5.8671 2.3883
-4.3503 5.7154 2.3883
-4.5531 5.5563 2.3883
-4.7500 5.3900 2.3883
-4.9409 5.2168 2.3883
-5.1254 5.0368 2.3883
-5.3035 4.8502 2.3883
-5.4747 4.6574 2.3883
-5.6389 4.4585 2.3883
-5.7958 4.2539 2.3883
-5.9454 4.0437 2.3883
-6.0873 3.8283 2.3883
-6.2214 3.6079 2.3883
-6.3475 3.3828 2.3883
-6.4655 3.1533 2.3883
-6.5752 2.9196 2.3883
-6.6764 2.6822 2.3883
-6.7690 2.4413 2.3883
-6.8529 2.1971 2.3883
-6.9280 1.9501 2.3883
-6.9942 1.7005 2.3883
-7.0514 1.4487 2.3883
-7.0995 1.1950 2.3883
-7.1384 0.9397 2.3883
-7.1682 0.6831 2.3883
-7.1887 0.4256 2.3883
-7.1999 0.1676 2.3883
-6.6928 0.1019 2.3883
-6.6926 -0.1382 2.3883
-6.6838 -0.3782 2.3883
-6.6665 -0.6177 2.3883
-6.6405 -0.8564 2.3883
-6.6059 -1.0941 2.3883
-6.5628 -1.3304 2.3883
-6.5112 -1.5650 2.3883
-6.4512 -1.7975 2.3883
-6.3829 -2.0278 2.3883
-6.3064 -2.2555 2.3883
-6.2217 -2.4804 2.3883
-6.1290 -2.7020 2.3883
-6.0284 -2.9201 2.3883
-5.9200 -3.1345 2.3883
-5.8039 -3.3449 2.3883
-5.6803 -3.5510 2.3883
-5.5494 -3.7525 2.3883
-5.4114 -3.9491 2.3883
-5.2663 -4.1407 2.3883
-5.1145 -4.3269 2.3883
-4.9561 -4.5075 2.3883
-4.7912 -4.6824 2.3883
-4.6202 -4.8511 2.3883
-4.4432 -5.0137 2.3883
-4.2605 -5.1697 2.3883
-4.0723 -5.3191 2.3883
-3.8789 -5.4616 2.3883
-3.6804 -5.5970 2.3883
-3.4773 -5.7252 2.3883
-3.2696 -5.8461 2.3883
-3.0577 -5.9593 2.3883
-2.8419 -6.0649 2.3883
-2.6225 -6.1627 2.3883
-2.3997 -6.2525 2.3883
-2.1738 -6.3342 2.3883
-1.9452 -6.4077 2.3883
-1.7140 -6.4730 2.3883
-1.4807 -6.5299 2.3883
-1.2455 -6.5783 2.3883
-1.0087 -6.6183 2.3883
-0.7706 -6.6498 2.3883
-0.5316 -6.6726 2.3883
-0.2919 -6.6869 2.3883
-0.0519 -6.6925 2.3883
0.1881 -6.6895 2.3883
0.4279 -6.6779 2.3883
0.6671 -6.6577 2.3883
0.9054 -6.6289 2.3883
1.1424 -6.5915 2.3883
1.3780 -6.5457 2.3883
1.6117 -6.4915 2.3883
1.8433 -6.4288 2.3883
2.0725 -6.3579 2.3883
2.2990 -6.2789 2.3883
2.5225 -6.1917 2.3883
2.7427 -6.0966 2.3883
2.9593 -5.9937 2.3883
3.1720 -5.8831 2.3883
3.3806 -5.7649 2.3883
3.5849 -5.6393 2.3883
3.7844 -5.5065 2.3883
3.9791 -5.3666 2.3883
4.1686 -5.2198 2.3883
4.3526 -5.0663 2.3883
4.5311 -4.9064 2.3883
4.7037 -4.7402 2.3883
4.8701 -4.5679 2.3883
5.0303 -4.3897 2.3883
5.1840 -4.2060 2.3883
5.2633 -3.9659 2.3580
5.2938 -3.6988 2.3109
5.3226 -3.4415 2.2684
5.3642 -3.2015 2.2359
5.4750 -3.0067 2.2359
5.5788 -2.8080 2.2359
5.6754 -2.6058 2.2359
5.7646 -2.4002 2.2359
5.8464 -2.1916 2.2359
5.9207 -1.9803 2.2359
5.9874 -1.7664 2.2359
6.0463 -1.5503 2.2359
6.0975 -1.3322 2.2359
6.1408 -1.1125 2.2359
6.1763 -0.8913 2.2359
6.2038 -0.6691 2.2359
6.2232 -0.4460 2.2359
6.2347 -0.2224 2.2359
6.2382 0.0014 2.2359
6.2337 0.2253 2.2359
6.2212 0.4488 2.2359
6.2006 0.6717 2.2359
6.1721 0.8937 2.2359
6.1357 1.1145 2.2359
6.0914 1.3339 2.2359
6.0393 1.5515 2.2359
5.9794 1.7672 2.2359
5.9119 1.9805 2.2359
5.8368 2.1913 2.2359
5.8013 2.4189 2.2542
5.8143 2.6731 2.2952
5.8273 2.9368 2.3405
5.8348 3.2082 2.3883
5.7157 3.4154 2.3883
5.5894 3.6182 2.3883
5.4558 3.8164 2.3883
5.3153 4.0097 2.3883
5.1679 4.1978 2.3883
5.0139 4.3805 2.3883
4.8535 4.5576 2.3883
4.6868 4.7289 2.3883
4.5141 4.8941 2.3883
4.3357 5.0530 2.3883
4.1516 5.2054 2.3883
3.9622 5.3511 2.3883
3.7677 5.4900 2.3883
3.5684 5.6218 2.3883
3.3644 5.7464 2.3883
3.1561 5.8636 2.3883
2.9438 5.9733 2.3883
2.7277 6.0754 2.3883
2.5080 6.1696 2.3883
0.9075 2.4845 0.9485
0.8179 2.5158 0.9486
0.7272 2.5438 0.9486
0.6355 2.5686 0.9487
0.5430 2.5900 0.9487
0.4497 2.6080 0.9487
0.3559 2.6227 0.9488
0.2616 2.6340 0.9488
0.1669 2.6419 0.9488
0.0720 2.6463 0.9487
-0.0230 2.6474 0.9487
-0.1180 2.6450 0.9487
-0.2128 2.6391 0.9486
-0.3074 2.6299 0.9486
-0.4016 2.6172 0.9485
-0.4952 2.6012 0.9485
-0.5883 2.5818 0.9484
-0.6805 2.5590 0.9483
-0.7719 2.5329 0.9482
-0.8622 2.5036 0.9481
-2.3972 6.2253 2.3883
-2.6193 6.1360 2.3883
-2.8380 6.0387 2.3883
-3.0532 5.9336 2.3883
-3.2644 5.8209 2.3883
-3.4715 5.7006 2.3883
-3.6742 5.5730 2.3883
-3.8722 5.4382 2.3883
-4.0653 5.2964 2.3883
-4.2531 5.1477 2.3883
-4.4355 4.9924 2.3883
-4.6123 4.8306 2.3883
-4.7831 4.6625 2.3883
-4.9479 4.4884 2.3883
-5.1062 4.3085 2.3883
-5.2581 4.1231 2.3883
-5.4032 3.9322 2.3883
-5.5414 3.7363 2.3883
-5.6724 3.5355 2.3883
-5.7962 3.3301 2.3883
-5.9126 3.1204 2.3883
-6.0213 2.9066 2.3883
-6.1223 2.6890 2.3883
-6.2155 2.4679 2.3883
-6.3006 2.2436 2.3883
-6.3777 2.0164 2.3883
-6.4465 1.7865 2.3883
-6.5070 1.5543 2.3883
-6.5592 1.3201 2.3883
-6.6029 1.0841 2.3883
-6.6381 0.8466 2.3883
-6.6647 0.6081 2.3883
-6.6828 0.3687 2.3883
-6.6923 0.1288 2.3883
-6.6931 -0.1113 2.3883
-6.6853 -0.3513 2.3883
-6.6688 -0.5909 2.3883
-6.6438 -0.8298 2.3883
-6.6102 -1.0676 2.3883
-6.5680 -1.3040 2.3883
-6.5174 -1.5388 2.3883
-6.4584 -1.7716 2.3883
-6.3910 -2.0022 2.3883
-6.3154 -2.2302 2.3883
-6.2316 -2.4554 2.3883
-6.1398 -2.6773 2.3883
-6.0400 -2.8959 2.3883
-5.9325 -3.1108 2.3883
-5.8172 -3.3216 2.3883
-5.6945 -3.5281 2.3883
-5.5644 -3.7301 2.3883
-5.4272 -3.9274 2.3883
-5.2829 -4.1195 2.3883
-5.1318 -4.3063 2.3883
-4.9741 -4.4876 2.3883
-4.8100 -4.6631 2.3883
-4.6396 -4.8326 2.3883
-4.4633 -4.9958 2.3883
-4.2812 -5.1526 2.3883
-4.0937 -5.3027 2.3883
-3.9008 -5.4460 2.3883
-3.7029 -5.5822 2.3883
-3.5002 -5.7113 2.3883
-3.2930 -5.8329 2.3883
-3.0816 -5.9471 2.3883
-2.8663 -6.0535 2.3883
-2.6472 -6.1521 2.3883
-2.4248 -6.2428 2.3883
-2.1992 -6.3254 2.3883
-1.9709 -6.3999 2.3883
-1.7400 -6.4661 2.3883
-1.5069 -6.5239 2.3883
-1.2719 -6.5733 2.3883
-1.0352 -6.6143 2.3883
-0.7973 -6.6467 2.3883
-0.5584 -6.6705 2.3883
-0.3187 -6.6857 2.3883
-0.0788 -6.6923 2.3883
0.1613 -6.6903 2.3883
0.4011 -6.6797 2.3883
0.6404 -6.6604 2.3883
0.8788 -6.6325 2.3883
1.1160 -6.5961 2.3883
1.3517 -6.5513 2.3883
1.5857 -6.4979 2.3883
1.8175 -6.4363 2.3883
2.0470 -6.3663 2.3883
2.2738 -6.2881 2.3883
2.4976 -6.2019 2.3883
2.7182 -6.1077 2.3883
2.9352 -6.0056 2.3883
3.1484 -5.8958 2.3883
3.3575 -5.7785 2.3883
3.5622 -5.6537 2.3883
3.7623 -5.5217 2.3883
3.9575 -5.3826 2.3883
4.1476 -5.2366 2.3883
4.3323 -5.0838 2.3883
4.5114 -4.9246 2.3883
4.6846 -4.7591 2.3883
4.8518 -4.5874 2.3883
5.0127 -4.4099 2.3883
5.1671 -4.2268 2.3883
5.2598 -3.9965 2.3636
5.2905 -3.7281 2.3160
5.3194 -3.4698 2.2729
5.3564 -3.2261 2.2380
5.4630 -3.0287 2.2359
5.5675 -2.8304 2.2359
5.6649 -2.6286 2.2359
5.7550 -2.4234 2.2359
5.8376 -2.2151 2.2359
5.9128 -2.0041 2.2359
5.9803 -1.7905 2.2359
6.0401 -1.5746 2.2359
6.0922 -1.3567 2.2359
6.1364 -1.1371 2.2359
6.1727 -0.9162 2.2359
6.2011 -0.6940 2.2359
6.2214 -0.4710 2.2359
6.2339 -0.2475 2.2359
6.2382 -0.0236 2.2359
6.2346 0.2002 2.2359
6.2230 0.4238 2.2359
6.2033 0.6468 2.2359
6.1757 0.8689 2.2359
6.1402 1.0899 2.2359
6.0968 1.3094 2.2359
6.0455 1.5273 2.2359
5.9865 1.7431 2.2359
5.9198 1.9568 2.2359
5.8455 2.1678 2.2359
5.8006 2.3913 2.2502
5.8129 2.6442 2.2904
5.8259 2.9068 2.3352
5.8389 3.1799 2.3847
5.7294 3.3924 2.3883
5.6039 3.5958 2.3883
5.4711 3.7945 2.3883
5.3314 3.9883 2.3883
5.1848 4.1770 2.3883
5.0315 4.3604 2.3883
4.8718 4.5381 2.3883
4.7058 4.7100 2.3883
4.5338 4.8759 2.3883
4.3559 5.0355 2.3883
4.1725 5.1886 2.3883
3.9837 5.3351 2.3883
3.7897 5.4748 2.3883
3.5909 5.6074 2.3883
3.3875 5.7328 2.3883
3.1797 5.8509 2.3883
2.9678 5.9614 2.3883
2.7520 6.0643 2.3883
2.5328 6.1595 2.3883
0.9175 2.4808 0.9485
0.8280 2.5125 0.9486
0.7374 2.5409 0.9486
0.6458 2.5660 0.9487
0.5534 2.5877 0.9487
0.4602 2.6062 0.9487
0.3664 2.6212 0.9488
0.2721 2.6329 0.9488
0.1775 2.6412 0.9488
0.0826 2.6460 0.9487
-0.0124 2.6474 0.9487
-0.1074 2.6454 0.9487
-0.2022 2.6399 0.9486
-0.2968 2.6311 0.9486
-0.3911 2.6188 0.9485
-0.4848 2.6031 0.9485
-0.5779 2.5841 0.9484
-0.6702 2.5617 0.9483
-0.7617 2.5360 0.9482
-0.8522 2.5070 0.9481
-2.3722 6.2348 2.3883
-2.5946 6.1464 2.3883
-2.8137 6.0499 2.3883
-3.0293 5.9457 2.3883
-3.2410 5.8339 2.3883
-3.4486 5.7144 2.3883
-3.6518 5.5877 2.3883
-3.8503 5.4537 2.3883
-4.0439 5.3126 2.3883
-4.2324 5.1647 2.3883
-4.4154 5.0101 2.3883
-4.5928 4.8490 2.3883
-4.7643 4.6816 2.3883
-4.9297 4.5082 2.3883
-5.0888 4.3290 2.3883
-5.2414 4.1441 2.3883
-5.3873 3.9538 2.3883
-5.5263 3.7584 2.3883
-5.6581 3.5582 2.3883
-5.7827 3.3533 2.3883
-5.8999 3.1440 2.3883
-6.0095 2.9307 2.3883
-6.1114 2.7135 2.3883
-6.2054 2.4928 2.3883
-6.2915 2.2689 2.3883
-6.3694 2.0420 2.3883
-6.4392 1.8124 2.3883
-6.5007 1.5804 2.3883
-6.5538 1.3464 2.3883
-6.5984 1.1105 2.3883
-6.6346 0.8732 2.3883
-6.6622 0.6348 2.3883
-6.6812 0.3955 2.3883
-6.6916 0.1556 2.3883
-6.2448 0.0950 2.3883
-6.2446 -0.1291 2.3883
-6.2364 -0.3530 2.3883
-6.2201 -0.5764 2.3883
-6.1959 -0.7992 2.3883
-6.1636 -1.0209 2.3883
-6.1233 -1.2414 2.3883
-6.0752 -1.4602 2.3883
-6.0192 -1.6772 2.3883
-5.9555 -1.8921 2.3883
-5.8841 -2.1046 2.3883
-5.8050 -2.3143 2.3883
-5.7185 -2.5211 2.3883
-5.6246 -2.7246 2.3883
-5.5234 -2.9246 2.3883
-5.4151 -3.1209 2.3883
-5.2999 -3.3132 2.3883
-5.1777 -3.5012 2.3883
-5.0489 -3.6846 2.3883
-4.9136 -3.8634 2.3883
-4.7719 -4.0371 2.3883
-4.6241 -4.2056 2.3883
-4.4703 -4.3687 2.3883
-4.3108 -4.5262 2.3883
-4.1456 -4.6778 2.3883
-3.9752 -4.8234 2.3883
-3.7996 -4.9628 2.3883
-3.6191 -5.0958 2.3883
-3.4340 -5.2221 2.3883
-3.2444 -5.3418 2.3883
-3.0507 -5.4545 2.3883
-2.8530 -5.5602 2.3883
-2.6517 -5.6587 2.3883
-2.4469 -5.7500 2.3883
-2.2391 -5.8337 2.3883
-2.0283 -5.9100 2.3883
-1.8150 -5.9786 2.3883
-1.5993 -6.0395 2.3883
-1.3816 -6.0925 2.3883
-1.1622 -6.1379 2.3883
-0.9412 -6.1752 2.3883
-0.7191 -6.2046 2.3883
-0.4961 -6.2260 2.3883
-0.2725 -6.2393 2.3883
-0.0485 -6.2446 2.3883
0.1754 -6.2418 2.3883
0.3992 -6.2310 2.3883
0.6223 -6.2122 2.3883
0.8446 -6.1853 2.3883
1.0659 -6.1505 2.3883
1.2857 -6.1078 2.3883
1.5037 -6.0572 2.3883
1.7199 -5.9988 2.3883
1.9337 -5.9327 2.3883
2.1451 -5.8589 2.3883
2.3536 -5.7777 2.3883
2.5591 -5.6890 2.3883
2.7612 -5.5930 2.3883
2.9598 -5.4898 2.3883
3.1545 -5.3795 2.3883
3.3451 -5.2623 2.3883
3.5313 -5.1384 2.3883
3.7130 -5.0079 2.3883
3.8898 -4.8710 2.3883
4.0616 -4.7278 2.3883
4.2282 -4.5786 2.3883
4.3892 -4.4235 2.3883
4.5446 -4.2628 2.3883
4.6941 -4.0965 2.3883
4.8375 -3.9250 2.3883
4.9747 -3.7486 2.3883
5.1055 -3.5674 2.3883
5.2297 -3.3816 2.3883
5.3237 -3.1775 2.3779
5.3499 -2.9381 2.3412
5.3749 -2.7056 2.3084
5.3988 -2.4789 2.2792
5.4216 -2.2576 2.2533
5.4561 -2.0452 2.2359
5.5254 -1.8482 2.2359
5.5877 -1.6486 2.2359
5.6521 -1.4493 2.2396
5.6905 -1.2434 2.2359
5.7309 -1.0383 2.2359
5.7641 -0.8320 2.2359
5.7897 -0.6246 2.2359
5.8080 -0.4164 2.2359
5.8187 -0.2077 2.2359
5.8220 0.0012 2.2359
5.8178 0.2101 2.2359
5.8061 0.4187 2.2359
5.7870 0.6268 2.2359
5.7604 0.8340 2.2359
5.7264 1.0401 2.2359
5.7117 1.2507 2.2464
5.7213 1.4698 2.2696
5.7344 1.6947 2.2975
5.7473 1.9253 2.3290
5.7600 2.1624 2.3642
5.7364 2.3918 2.3883
5.6467 2.5960 2.3883
5.5498 2.7969 2.3883
5.4457 2.9942 2.3883
5.3346 3.1876 2.3883
5.2166 3.3769 2.3883
5.0920 3.5619 2.3883
4.9609 3.7423 2.3883
4.8233 3.9179 2.3883
4.6796 4.0884 2.3883
4.5298 4.2537 2.3883
4.3743 4.4136 2.3883
4.2131 4.5677 2.3883
4.0465 4.7160 2.3883
3.8747 4.8583 2.3883
3.6980 4.9943 2.3883
3.5164 5.1239 2.3883
3.3304 5.2469 2.3883
3.1400 5.3632 2.3883
2.9456 5.4726 2.3883
2.7474 5.5750 2.3883
2.5457 5.6702 2.3883
2.3407 5.7582 2.3883
0.8465 2.3176 0.9480
0.7629 2.3468 0.9481
0.6783 2.3729 0.9481
0.5927 2.3960 0.9482
0.5064 2.4159 0.9482
0.4195 2.4327 0.9482
0.3319 2.4464 0.9482
0.2439 2.4569 0.9483
0.1556 2.4643 0.9482
0.0671 2.4684 0.9482
-0.0215 2.4694 0.9482
-0.1101 2.4671 0.9482
-0.1986 2.4617 0.9481
-0.2868 2.4531 0.9481
-0.3746 2.4412 0.9480
-0.4620 2.4263 0.9480
-0.5488 2.4082 0.9479
-0.6348 2.3869 0.9478
-0.7200 2.3626 0.9477
-0.8043 2.3352 0.9476
-0.8876 2.3048 0.9475
-2.4445 5.7261 2.3883
-2.6486 5.6353 2.3883
-2.8494 5.5372 2.3883
-3.0465 5.4320 2.3883
-3.2398 5.3197 2.3883
-3.4289 5.2006 2.3883
-3.6136 5.0748 2.3883
-3.7937 4.9424 2.3883
-3.9690 4.8036 2.3883
-4.1392 4.6586 2.3883
-4.3041 4.5076 2.3883
-4.4636 4.3508 2.3883
-4.6172 4.1883 2.3883
-4.7650 4.0204 2.3883
-4.9067 3.8473 2.3883
-5.0420 3.6692 2.3883
-5.1709 3.4863 2.3883
-5.2932 3.2989 2.3883
-5.4087 3.1073 2.3883
-5.5172 2.9115 2.3883
-5.6186 2.7120 2.3883
-5.7129 2.5090 2.3883
-5.7997 2.3027 2.3883
-5.8791 2.0934 2.3883
-5.9510 1.8814 2.3883
-6.0152 1.6669 2.3883
-6.0716 1.4502 2.3883
-6.1203 1.2316 2.3883
-6.1610 1.0114 2.3883
-6.1938 0.7898 2.3883
-6.2187 0.5672 2.3883
-6.2355 0.3439 2.3883
-6.2443 0.1200 2.3883
-6.2450 -0.1040 2.3883
-6.2377 -0.3279 2.3883
-6.2223 -0.5514 2.3883
-6.1990 -0.7743 2.3883
-6.1676 -0.9962 2.3883
-6.1282 -1.2168 2.3883
-6.0810 -1.4358 2.3883
-6.0259 -1.6531 2.3883
-5.9630 -1.8682 2.3883
-5.8924 -2.0809 2.3883
-5.8143 -2.2910 2.3883
-5.7286 -2.4981 2.3883
-5.6355 -2.7020 2.3883
-5.5351 -2.9025 2.3883
-5.4276 -3.0991 2.3883
-5.3131 -3.2919 2.3883
-5.1917 -3.4803 2.3883
-5.0637 -3.6643 2.3883
-4.9291 -3.8436 2.3883
-4.7881 -4.0179 2.3883
-4.6410 -4.1870 2.3883
-4.4878 -4.3508 2.3883
