ply
format ascii 1.0
element vertex 2161
property float32 x
property float32 y
property float32 z
end_header
6.2173 -5.3071 0.4003
6.3906 -5.0713 0.3865
6.5635 -4.8361 0.3737
6.7363 -4.6010 0.3620
6.9096 -4.3652 0.3512
7.0838 -4.1283 0.3414
7.2593 -3.8896 0.3325
7.4366 -3.6483 0.3245
7.6162 -3.4040 0.3175
7.7987 -3.1558 0.3113
7.9845 -2.9031 0.3062
8.1742 -2.6449 0.3019
8.3685 -2.3806 0.2987
8.5681 -2.1091 0.2964
8.7737 -1.8294 0.2951
8.9861 -1.5405 0.2950
9.2063 -1.2409 0.2960
9.4352 -0.9295 0.2982
9.6741 -0.6044 0.3016
9.9243 -0.2641 0.3065
3.4120 -9.1234 0.9714
3.6531 -8.7953 0.9284
3.8841 -8.4811 0.8886
4.1060 -8.1793 0.8519
4.3199 -7.8883 0.8178
4.5267 -7.6069 0.7862
4.7274 -7.3339 0.7568
4.9226 -7.0683 0.7296
5.1131 -6.8092 0.7044
5.2995 -6.5556 0.6809
5.4825 -6.3067 0.6592
5.6625 -6.0618 0.6391
5.8401 -5.8202 0.6205
6.0158 -5.5812 0.6034
6.1900 -5.3442 0.5876
6.3633 -5.1085 0.5732
6.5360 -4.8735 0.5601
6.7086 -4.6387 0.5482
6.8816 -4.4034 0.5375
7.0554 -4.1669 0.5281
7.2304 -3.9288 0.5198
7.4072 -3.6884 0.5127
7.5862 -3.4449 0.5067
7.7678 -3.1977 0.5020
7.9528 -2.9462 0.4985
8.1415 -2.6894 0.4961
8.3348 -2.4265 0.4951
8.5331 -2.1567 0.4954
8.7373 -1.8789 0.4970
8.9481 -1.5921 0.5000
9.1666 -1.2949 0.5046
9.3936 -0.9861 0.5108
9.6302 -0.6642 0.5187
9.8779 -0.3272 0.5285
3.2071 -9.4021 1.0090
3.4576 -9.0613 0.9631
3.6968 -8.7359 0.9208
3.9260 -8.4242 0.8816
4.1463 -8.1244 0.8453
4.3588 -7.8353 0.8117
4.5644 -7.5556 0.7806
4.7640 -7.2841 0.7516
4.9583 -7.0197 0.7248
5.1480 -6.7617 0.6999
5.3338 -6.5090 0.6768
5.5161 -6.2609 0.6554
5.6957 -6.0167 0.6355
5.8729 -5.7756 0.6172
6.0482 -5.5371 0.6004
6.2223 -5.3003 0.5849
6.3954 -5.0648 0.5707
6.5680 -4.8299 0.5578
6.7407 -4.5950 0.5461
6.9138 -4.3596 0.5357
7.0878 -4.1229 0.5264
7.2631 -3.8844 0.5184
7.4402 -3.6434 0.5115
7.6197 -3.3993 0.5058
7.8019 -3.1514 0.5013
7.9875 -2.8989 0.4979
8.1771 -2.6410 0.4959
8.3712 -2.3769 0.4950
8.5706 -2.1057 0.4956
8.7759 -1.8264 0.4974
8.9881 -1.5377 0.5008
9.2080 -1.2385 0.5056
9.4368 -0.9274 0.5121
9.6754 -0.6027 0.5204
9.9252 -0.2628 0.5305
3.4217 -9.1101 1.1919
3.6624 -8.7827 1.1440
3.8928 -8.4692 1.0999
4.1143 -8.1680 1.0591
4.3278 -7.8776 1.0215
4.5342 -7.5967 0.9866
4.7345 -7.3242 0.9545
4.9294 -7.0591 0.9247
5.1196 -6.8003 0.8972
5.3058 -6.5471 0.8718
5.4885 -6.2986 0.8485
5.6682 -6.0540 0.8270
5.8456 -5.8128 0.8072
6.0210 -5.5741 0.7892
6.1950 -5.3373 0.7728
6.3681 -5.1019 0.7580
6.5406 -4.8673 0.7447
6.7130 -4.6327 0.7329
6.8858 -4.3976 0.7225
7.0594 -4.1614 0.7136
7.2343 -3.9236 0.7061
7.4109 -3.6834 0.7000
7.5897 -3.4401 0.6954
7.7711 -3.1932 0.6922
7.9559 -2.9419 0.6905
8.1445 -2.6854 0.6902
8.3375 -2.4228 0.6916
8.5356 -2.1533 0.6946
8.7396 -1.8758 0.6993
8.9502 -1.5892 0.7057
9.1684 -1.2924 0.7141
9.3951 -0.9840 0.7245
9.6315 -0.6624 0.7371
9.8789 -0.3259 0.7521
3.4673 -9.0481 1.1827
3.7059 -8.7235 1.1356
3.9346 -8.4124 1.0921
4.1545 -8.1133 1.0519
4.3666 -7.8247 1.0148
4.5719 -7.5455 0.9805
4.7711 -7.2744 0.9487
4.9651 -7.0105 0.9194
5.1545 -6.7529 0.8923
5.3400 -6.5006 0.8674
5.5221 -6.2529 0.8443
5.7013 -6.0090 0.8232
5.8783 -5.7683 0.8038
6.0534 -5.5300 0.7861
6.2272 -5.2935 0.7700
6.4002 -5.0583 0.7554
6.5726 -4.8237 0.7424
6.7451 -4.5891 0.7309
6.9180 -4.3538 0.7208
7.0918 -4.1174 0.7121
7.2669 -3.8792 0.7049
7.4439 -3.6384 0.6991
7.6231 -3.3946 0.6947
7.8052 -3.1469 0.6917
7.9906 -2.8947 0.6903
8.1800 -2.6371 0.6904
8.3739 -2.3733 0.6920
8.5730 -2.1023 0.6953
8.7782 -1.8233 0.7003
8.9902 -1.5349 0.7071
9.2098 -1.2361 0.7159
9.4383 -0.9253 0.7267
9.6766 -0.6011 0.7397
9.9262 -0.2616 0.7551
3.4316 -9.0967 1.4133
3.6717 -8.7701 1.3605
3.9016 -8.4573 1.3119
4.1226 -8.1567 1.2672
4.3357 -7.8668 1.2259
4.5418 -7.5864 1.1879
4.7417 -7.3144 1.1528
4.9363 -7.0497 1.1205
5.1262 -6.7914 1.0908
5.3120 -6.5386 1.0635
5.4944 -6.2904 1.0385
5.6739 -6.0462 1.0156
5.8511 -5.8053 0.9947
6.0263 -5.5669 0.9758
6.2001 -5.3305 0.9588
6.3729 -5.0954 0.9436
6.5452 -4.8609 0.9301
6.7175 -4.6266 0.9183
6.8901 -4.3918 0.9083
7.0635 -4.1559 0.8999
7.2382 -3.9183 0.8932
7.4146 -3.6783 0.8881
7.5932 -3.4354 0.8848
7.7745 -3.1887 0.8831
7.9590 -2.9376 0.8832
8.1474 -2.6814 0.8851
8.3402 -2.4191 0.8889
8.5382 -2.1498 0.8946
8.7419 -1.8726 0.9023
8.9523 -1.5864 0.9122
9.1703 -1.2899 0.9244
9.3967 -0.9818 0.9390
9.6328 -0.6606 0.9563
9.8799 -0.3245 0.9765
3.4770 -9.0349 1.4031
3.7151 -8.7110 1.3511
3.9433 -8.4005 1.3033
4.1628 -8.1020 1.2592
4.3745 -7.8140 1.2186
4.5793 -7.5353 1.1812
4.7782 -7.2647 1.1466
4.9719 -7.0013 1.1148
5.1610 -6.7440 1.0856
5.3462 -6.4921 1.0587
5.5280 -6.2448 1.0341
5.7070 -6.0013 1.0116
5.8837 -5.7608 0.9911
6.0587 -5.5229 0.9725
6.2322 -5.2867 0.9558
6.4050 -5.0518 0.9409
6.5772 -4.8174 0.9278
6.7495 -4.5831 0.9163
6.9222 -4.3481 0.9066
7.0958 -4.1119 0.8985
7.2708 -3.8739 0.8921
7.4476 -3.6334 0.8874
7.6266 -3.3899 0.8843
7.8085 -3.1424 0.8830
7.9937 -2.8905 0.8834
8.1829 -2.6331 0.8857
8.3766 -2.3696 0.8898
8.5755 -2.0990 0.8958
8.7805 -1.8202 0.9040
8.9922 -1.5321 0.9143
9.2116 -1.2336 0.9269
9.4398 -0.9232 0.9420
9.6779 -0.5994 0.9598
9.9271 -0.2603 0.9806
-8.3803 4.9102 2.3769
-8.5065 4.5772 2.3769
-8.6229 4.2431 2.3769
-8.7295 3.9079 2.3769
-8.8264 3.5718 2.3769
-8.9138 3.2349 2.3769
-8.9917 2.8973 2.3769
-9.0601 2.5592 2.3769
-9.1192 2.2207 2.3769
-9.1690 1.8819 2.3769
-9.2095 1.5429 2.3769
-9.2409 1.2039 2.3769
-9.2631 0.8648 2.3769
-9.2763 0.5259 2.3769
-9.2803 0.1872 2.3769
-9.2753 -0.1511 2.3769
-9.2612 -0.4890 2.3769
-9.2381 -0.8264 2.3769
-9.2060 -1.1632 2.3769
-9.1648 -1.4992 2.3769
-9.1147 -1.8344 2.3769
-9.0554 -2.1687 2.3769
-8.9871 -2.5019 2.3769
-8.9097 -2.8340 2.3769
-8.8232 -3.1648 2.3769
-8.7275 -3.4943 2.3769
-8.6226 -3.8222 2.3769
-8.5084 -4.1486 2.3769
-8.3850 -4.4732 2.3769
-8.2521 -4.7959 2.3769
-8.1098 -5.1166 2.3769
-7.9579 -5.4351 2.3769
-7.7965 -5.7513 2.3769
3.4414 -9.0833 1.6356
3.6810 -8.7574 1.5779
3.9105 -8.4453 1.5249
4.1310 -8.1453 1.4762
4.3436 -7.8560 1.4314
4.5493 -7.5761 1.3901
4.7489 -7.3046 1.3522
4.9432 -7.0404 1.3174
5.1328 -6.7824 1.2854
5.3183 -6.5300 1.2562
5.5005 -6.2822 1.2295
5.6797 -6.0384 1.2052
5.8566 -5.7978 1.1832
6.0316 -5.5597 1.1634
6.2052 -5.3236 1.1457
6.3778 -5.0887 1.1301
6.5499 -4.8546 1.1164
6.7219 -4.6206 1.1047
6.8944 -4.3860 1.0950
7.0676 -4.1504 1.0872
7.2421 -3.9130 1.0812
7.4183 -3.6733 1.0772
7.5967 -3.4306 1.0751
7.7778 -3.1842 1.0750
7.9622 -2.9333 1.0770
8.1504 -2.6773 1.0810
8.3430 -2.4153 1.0871
8.5407 -2.1463 1.0956
8.7443 -1.8694 1.1064
8.9544 -1.5835 1.1197
9.1721 -1.2874 1.1357
9.3983 -0.9797 1.1546
9.6342 -0.6588 1.1766
9.8809 -0.3232 1.2019
-8.4045 4.8484 2.3769
-8.5289 4.5153 2.3769
-8.6434 4.1809 2.3769
-8.7482 3.8456 2.3769
-8.8434 3.5093 2.3769
-8.9290 3.1722 2.3769
-9.0051 2.8346 2.3769
-9.0718 2.4964 2.3769
-9.1291 2.1578 2.3769
-9.1772 1.8190 2.3769
-9.2161 1.4800 2.3769
-9.2457 1.1409 2.3769
-9.2663 0.8019 2.3769
-9.2777 0.4630 2.3769
-9.2800 0.1244 2.3769
-9.2733 -0.2139 2.3769
-9.2576 -0.5518 2.3769
-9.2328 -0.8890 2.3769
-9.1990 -1.2256 2.3769
-9.1562 -1.5615 2.3769
-9.1044 -1.8966 2.3769
-9.0434 -2.2307 2.3769
-8.9734 -2.5637 2.3769
-8.8944 -2.8955 2.3769
-8.8061 -3.2261 2.3769
-8.7087 -3.5553 2.3769
-8.6021 -3.8830 2.3769
-8.4862 -4.2090 2.3769
-8.3610 -4.5333 2.3769
-8.2264 -4.8556 2.3769
-8.0823 -5.1759 2.3769
-7.9287 -5.4940 2.3769
-7.7655 -5.8097 2.3769
3.4868 -9.0216 1.6245
3.7243 -8.6984 1.5678
3.9521 -8.3887 1.5156
4.1710 -8.0908 1.4676
4.3823 -7.8033 1.4234
4.5868 -7.5251 1.3828
4.7854 -7.2550 1.3455
4.9787 -6.9920 1.3112
5.1675 -6.7352 1.2798
5.3524 -6.4837 1.2510
5.5340 -6.2367 1.2248
5.7127 -5.9935 1.2009
5.8892 -5.7534 1.1793
6.0639 -5.5157 1.1599
6.2373 -5.2799 1.1426
6.4098 -5.0452 1.1274
6.5818 -4.8111 1.1141
6.7539 -4.5770 1.1028
6.9265 -4.3423 1.0934
7.0999 -4.1064 1.0859
7.2746 -3.8687 1.0803
7.4512 -3.6284 1.0767
7.6301 -3.3851 1.0750
7.8118 -3.1379 1.0752
7.9968 -2.8862 1.0775
8.1858 -2.6291 1.0819
8.3793 -2.3659 1.0885
8.5781 -2.0955 1.0974
8.7828 -1.8170 1.1086
8.9943 -1.5293 1.1225
9.2135 -1.2311 1.1390
9.4414 -0.9211 1.1584
9.6791 -0.5977 1.1810
-5.2211 8.1742 2.3769
-5.4653 7.9108 2.3769
-5.6994 7.6430 2.3769
-5.9234 7.3711 2.3769
-6.1375 7.0952 2.3769
-6.3417 6.8157 2.3769
-6.5360 6.5329 2.3769
-6.7207 6.2469 2.3769
-6.8956 5.9581 2.3769
-7.0610 5.6666 2.3769
-7.2169 5.3727 2.3769
-7.3634 5.0766 2.3769
-7.5005 4.7784 2.3769
-7.6283 4.4784 2.3769
-7.7470 4.1767 2.3769
-7.8565 3.8735 2.3769
-7.9570 3.5690 2.3769
-8.0485 3.2632 2.3769
-8.1311 2.9565 2.3769
-8.2048 2.6489 2.3769
-8.2697 2.3405 2.3769
-8.3258 2.0316 2.3769
-8.3732 1.7221 2.3769
-8.4119 1.4123 2.3769
-8.4420 1.1023 2.3769
-8.4635 0.7922 2.3769
-8.4764 0.4821 2.3769
-8.4808 0.1722 2.3769
-8.4766 -0.1375 2.3769
-8.4639 -0.4468 2.3769
-8.4427 -0.7556 2.3769
-8.4130 -1.0639 2.3769
-8.3748 -1.3713 2.3769
-8.3281 -1.6779 2.3769
-8.2728 -1.9836 2.3769
-8.2091 -2.2882 2.3769
-8.1368 -2.5915 2.3769
-8.0560 -2.8936 2.3769
-7.9666 -3.1941 2.3769
-7.8685 -3.4930 2.3769
-7.7619 -3.7902 2.3769
-7.6465 -4.0855 2.3769
-7.5224 -4.3788 2.3769
-7.3896 -4.6699 2.3769
-7.2480 -4.9586 2.3769
-7.0975 -5.2448 2.3769
-6.9381 -5.5283 2.3769
-6.7698 -5.8089 2.3769
-6.5924 -6.0865 2.3769
-6.4061 -6.3608 2.3769
-6.2106 -6.6316 2.3769
-6.0059 -6.8987 2.3769
-5.7921 -7.1619 2.3769
-5.5689 -7.4209 2.3769
-5.3365 -7.6756 2.3769
-5.0947 -7.9255 2.3769
-4.8434 -8.1705 2.3769
-4.5828 -8.4103 2.3769
-4.3126 -8.6445 2.3769
-2.0167 -9.4533 2.2245
3.4514 -9.0698 1.8593
3.6904 -8.7446 1.7967
3.9193 -8.4332 1.7392
4.1394 -8.1338 1.6865
4.3516 -7.8451 1.6380
4.5570 -7.5658 1.5936
4.7562 -7.2947 1.5528
4.9501 -7.0309 1.5154
5.1394 -6.7734 1.4812
5.3247 -6.5214 1.4500
5.5065 -6.2740 1.4216
5.6855 -6.0305 1.3959
5.8621 -5.7902 1.3728
6.0369 -5.5525 1.3521
6.2103 -5.3166 1.3337
6.3827 -5.0821 1.3177
6.5546 -4.8482 1.3039
6.7264 -4.6144 1.2923
6.8986 -4.3802 1.2828
7.0717 -4.1448 1.2756
7.2460 -3.9077 1.2704
7.4220 -3.6682 1.2674
7.6002 -3.4257 1.2667
7.7812 -3.1796 1.2681
7.9654 -2.9290 1.2719
8.1534 -2.6733 1.2780
8.3458 -2.4115 1.2866
8.5433 -2.1428 1.2977
8.7466 -1.8662 1.3116
8.9565 -1.5807 1.3284
9.1740 -1.2848 1.3482
9.3999 -0.9775 1.3714
9.6355 -0.6570 1.3981
9.8819 -0.3218 1.4286
-5.2672 8.1256 2.3769
-5.5095 7.8614 2.3769
-5.7417 7.5928 2.3769
-5.9639 7.3201 2.3769
-6.1762 7.0435 2.3769
-6.3785 6.7634 2.3769
-6.5711 6.4800 2.3769
-6.7539 6.1935 2.3769
-6.9271 5.9041 2.3769
-7.0907 5.6122 2.3769
-7.2448 5.3179 2.3769
-7.3895 5.0213 2.3769
-7.5249 4.7228 2.3769
-7.6511 4.4224 2.3769
-7.7680 4.1205 2.3769
-7.8759 3.8170 2.3769
-7.9747 3.5122 2.3769
-8.0645 3.2064 2.3769
-8.1455 2.8994 2.3769
-8.2175 2.5917 2.3769
-8.2808 2.2832 2.3769
-8.3353 1.9741 2.3769
-8.3811 1.6646 2.3769
-8.4182 1.3548 2.3769
-8.4467 1.0447 2.3769
-8.4665 0.7346 2.3769
-8.4779 0.4245 2.3769
-8.4806 0.1146 2.3769
-8.4749 -0.1950 2.3769
-8.4606 -0.5042 2.3769
-8.4378 -0.8129 2.3769
-8.4065 -1.1210 2.3769
-8.3667 -1.4283 2.3769
-8.3185 -1.7348 2.3769
-8.2617 -2.0403 2.3769
-8.1963 -2.3446 2.3769
-8.1225 -2.6477 2.3769
-8.0400 -2.9495 2.3769
-7.9490 -3.2498 2.3769
-7.8494 -3.5484 2.3769
-7.7411 -3.8452 2.3769
-7.6241 -4.1402 2.3769
-7.4984 -4.4330 2.3769
-7.3640 -4.7237 2.3769
-7.2207 -5.0120 2.3769
-7.0686 -5.2977 2.3769
-6.9075 -5.5807 2.3769
-6.7375 -5.8607 2.3769
-6.5585 -6.1377 2.3769
-6.3704 -6.4113 2.3769
-6.1733 -6.6815 2.3769
-5.9669 -6.9479 2.3769
-5.7513 -7.2103 2.3769
-5.5265 -7.4686 2.3769
-5.2923 -7.7224 2.3769
-5.0487 -7.9714 2.3769
-4.7957 -8.2155 2.3769
-4.5333 -8.4542 2.3769
-4.2614 -8.6874 2.3769
-1.9572 -9.4847 2.2245
3.4966 -9.0083 1.8472
3.7336 -8.6858 1.7856
3.9608 -8.3767 1.7291
4.1794 -8.0794 1.6772
4.3903 -7.7925 1.6295
4.5944 -7.5148 1.5857
4.7926 -7.2452 1.5456
4.9856 -6.9826 1.5088
5.1741 -6.7262 1.4752
5.3587 -6.4751 1.4445
5.5400 -6.2285 1.4166
5.7185 -5.9856 1.3914
5.8947 -5.7459 1.3687
6.0692 -5.5085 1.3485
6.2423 -5.2730 1.3306
6.4146 -5.0386 1.3150
6.5865 -4.8048 1.3016
6.7584 -4.5710 1.2904
6.9307 -4.3365 1.2813
7.1040 -4.1009 1.2744
7.2785 -3.8634 1.2697
7.4549 -3.6234 1.2671
7.6336 -3.3803 1.2668
7.8151 -3.1334 1.2686
8.0000 -2.8819 1.2728
8.1887 -2.6251 1.2794
8.3821 -2.3622 1.2885
8.5806 -2.0921 1.3001
8.7851 -1.8139 1.3145
8.9963 -1.5265 1.3318
9.2153 -1.2287 1.3523
9.4429 -0.9190 1.3761
9.6804 -0.5959 1.4034
-1.9845 9.4749 2.3769
-2.3010 9.3047 2.3769
-2.6086 9.1263 2.3769
-2.9073 8.9402 2.3769
-3.1971 8.7467 2.3769
-3.4780 8.5462 2.3769
-3.7498 8.3391 2.3769
-4.0124 8.1260 2.3769
-4.2656 7.9073 2.3769
-4.5106 7.6819 2.3769
-4.7458 7.4524 2.3769
-4.9721 7.2176 2.3769
-5.1893 6.9783 2.3769
-5.3976 6.7344 2.3769
-5.5970 6.4864 2.3769
-5.7872 6.2348 2.3769
-5.9686 5.9796 2.3769
-6.1411 5.7212 2.3769
-6.3048 5.4596 2.3769
-6.4597 5.1952 2.3769
-6.6059 4.9282 2.3769
-6.7434 4.6587 2.3769
-6.8723 4.3870 2.3769
-6.9926 4.1133 2.3769
-7.1043 3.8377 2.3769
-7.2076 3.5605 2.3769
-7.3024 3.2817 2.3769
-7.3889 3.0016 2.3769
-7.4670 2.7203 2.3769
-7.5368 2.4380 2.3769
-7.5983 2.1547 2.3769
-7.6516 1.8708 2.3769
-7.6967 1.5862 2.3769
-7.7336 1.3012 2.3769
-7.7624 1.0159 2.3769
-7.7831 0.7304 2.3769
-7.7957 0.4448 2.3769
-7.8002 0.1594 2.3769
-7.7967 -0.1259 2.3769
-7.7851 -0.4109 2.3769
-7.7656 -0.6954 2.3769
-7.7379 -0.9793 2.3769
-7.7023 -1.2625 2.3769
-7.6587 -1.5448 2.3769
-7.6070 -1.8261 2.3769
-7.5473 -2.1064 2.3769
-7.4796 -2.3854 2.3769
-7.4039 -2.6630 2.3769
-7.3201 -2.9391 2.3769
-7.2282 -3.2135 2.3769
-7.1282 -3.4861 2.3769
-7.0201 -3.7568 2.3769
-6.9039 -4.0253 2.3769
-6.7796 -4.2915 2.3769
-6.6470 -4.5553 2.3769
-6.5063 -4.8165 2.3769
-6.3573 -5.0748 2.3769
-6.2001 -5.3302 2.3769
-6.0345 -5.5824 2.3769
-5.8607 -5.8313 2.3769
-5.6786 -6.0765 2.3769
-5.4880 -6.3180 2.3769
-5.2891 -6.5554 2.3769
-5.0818 -6.7886 2.3769
-4.8662 -7.0173 2.3769
-4.6420 -7.2413 2.3769
-4.4095 -7.4603 2.3769
-4.1685 -7.6739 2.3769
-3.9190 -7.8821 2.3769
-3.6612 -8.0844 2.3769
-3.3950 -8.2805 2.3769
-3.1204 -8.4701 2.3769
-2.8375 -8.6530 2.3769
-2.5463 -8.8288 2.3769
-2.2469 -8.9970 2.3769
-1.9394 -9.1574 2.3769
-1.5285 -8.7632 2.2374
-1.2169 -8.8471 2.2245
-0.9069 -8.9731 2.2245
-0.5896 -9.0904 2.2245
-0.2654 -9.1984 2.2245
0.0656 -9.2969 2.2245
0.4033 -9.3854 2.2245
0.7474 -9.4635 2.2245
1.0976 -9.5308 2.2245
1.4537 -9.5870 2.2245
3.4614 -9.0562 2.0844
3.6998 -8.7318 2.0169
3.9283 -8.4210 1.9550
4.1479 -8.1223 1.8982
4.3597 -7.8341 1.8462
4.5646 -7.5553 1.7985
4.7635 -7.2848 1.7548
4.9571 -7.0214 1.7148
5.1461 -6.7644 1.6784
5.3310 -6.5127 1.6452
5.5126 -6.2657 1.6151
5.6913 -6.0226 1.5880
5.8677 -5.7826 1.5637
6.0423 -5.5452 1.5421
6.2154 -5.3096 1.5232
6.3876 -5.0754 1.5067
6.5593 -4.8418 1.4927
6.7310 -4.6083 1.4812
6.9030 -4.3743 1.4721
7.0758 -4.1391 1.4653
7.2499 -3.9023 1.4610
7.4258 -3.6631 1.4590
7.6038 -3.4209 1.4596
7.7846 -3.1750 1.4626
7.9686 -2.9247 1.4682
8.1564 -2.6692 1.4764
8.3486 -2.4077 1.4874
8.5459 -2.1393 1.5014
8.7490 -1.8630 1.5183
8.9587 -1.5777 1.5386
9.1759 -1.2823 1.5622
9.4015 -0.9753 1.5896
9.6368 -0.6552 1.6211
-2.0440 9.4439 2.3769
-2.3588 9.2722 2.3769
-2.6647 9.0923 2.3769
-2.9618 8.9048 2.3769
-3.2499 8.7100 2.3769
-3.5293 8.5080 2.3769
-3.7991 8.3002 2.3769
-4.0601 8.0857 2.3769
-4.3120 7.8656 2.3769
-4.5551 7.6395 2.3769
-4.7885 7.4092 2.3769
-5.0133 7.1731 2.3769
-5.2290 6.9328 2.3769
-5.4357 6.6880 2.3769
-5.6331 6.4398 2.3769
-5.8216 6.1877 2.3769
-6.0013 5.9319 2.3769
-6.1722 5.6728 2.3769
-6.3343 5.4107 2.3769
-6.4875 5.1458 2.3769
-6.6321 4.8783 2.3769
-6.7680 4.6084 2.3769
-6.8953 4.3363 2.3769
-7.0139 4.0623 2.3769
-7.1242 3.7863 2.3769
-7.2258 3.5088 2.3769
-7.3191 3.2298 2.3769
-7.4040 2.9494 2.3769
-7.4806 2.6679 2.3769
-7.5488 2.3854 2.3769
-7.6088 2.1021 2.3769
-7.6606 1.8180 2.3769
-7.7041 1.5333 2.3769
-7.7395 1.2483 2.3769
-7.7669 0.9629 2.3769
-7.7860 0.6774 2.3769
-7.7971 0.3918 2.3769
-7.8002 0.1063 2.3769
-7.7952 -0.1789 2.3769
-7.7821 -0.4638 2.3769
-7.7610 -0.7482 2.3769
-7.7319 -1.0319 2.3769
-7.6948 -1.3150 2.3769
-7.6497 -1.5971 2.3769
-7.5965 -1.8783 2.3769
-7.5354 -2.1583 2.3769
-7.4662 -2.4370 2.3769
-7.3889 -2.7144 2.3769
-7.3036 -2.9902 2.3769
-7.2102 -3.2643 2.3769
-7.1088 -3.5365 2.3769
-6.9992 -3.8068 2.3769
-6.8814 -4.0749 2.3769
-6.7556 -4.3407 2.3769
-6.6215 -4.6040 2.3769
-6.4792 -4.8647 2.3769
-6.3287 -5.1225 2.3769
-6.1699 -5.3773 2.3769
-6.0029 -5.6289 2.3769
-5.8275 -5.8771 2.3769
-5.6438 -6.1217 2.3769
-5.4517 -6.3624 2.3769
-5.2513 -6.5991 2.3769
-5.0424 -6.8315 2.3769
-4.8252 -7.0593 2.3769
-4.5995 -7.2824 2.3769
-4.3653 -7.5004 2.3769
-4.1228 -7.7130 2.3769
-3.8718 -7.9201 2.3769
-3.6124 -8.1213 2.3769
-3.3446 -8.3162 2.3769
-3.0685 -8.5047 2.3769
-2.7840 -8.6862 2.3769
-2.4913 -8.8606 2.3769
-2.1904 -9.0274 2.3769
-1.8813 -9.1863 2.3769
-1.4640 -8.7383 2.2245
-1.1599 -8.8712 2.2245
-0.8485 -8.9956 2.2245
-0.5299 -9.1111 2.2245
-0.2044 -9.2174 2.2245
0.1279 -9.3141 2.2245
0.4667 -9.4007 2.2245
0.8120 -9.4768 2.2245
1.1633 -9.5421 2.2245
1.5204 -9.5961 2.2245
3.5065 -8.9948 2.0714
3.7430 -8.6731 2.0050
3.9697 -8.3647 1.9441
4.1878 -8.0680 1.8882
4.3983 -7.7817 1.8370
4.6020 -7.5045 1.7900
4.7998 -7.2353 1.7471
4.9925 -6.9732 1.7078
5.1807 -6.7172 1.6720
5.3650 -6.4665 1.6394
5.5460 -6.2203 1.6099
5.7243 -5.9778 1.5833
5.9003 -5.7383 1.5595
6.0745 -5.5013 1.5384
6.2474 -5.2661 1.5199
6.4195 -5.0320 1.5039
6.5912 -4.7984 1.4904
6.7629 -4.5649 1.4793
6.9350 -4.3307 1.4706
7.1081 -4.0953 1.4643
7.2824 -3.8581 1.4604
7.4587 -3.6183 1.4589
7.6372 -3.3755 1.4599
7.8185 -3.1288 1.4634
8.0031 -2.8776 1.4695
8.1917 -2.6211 1.4783
8.3848 -2.3584 1.4898
8.5831 -2.0886 1.5043
8.7874 -1.8107 1.5218
8.9984 -1.5237 1.5427
9.2171 -1.2262 1.5670
9.4445 -0.9169 1.5952
9.6817 -0.5942 1.6274
-0.7442 3.5805 0.9855
-2.0850 8.4871 2.3769
-2.3676 8.3311 2.3769
-2.6424 8.1677 2.3769
-2.9095 7.9970 2.3769
-3.1687 7.8196 2.3769
-3.4199 7.6357 2.3769
-3.6630 7.4457 2.3769
-3.8981 7.2498 2.3769
-4.1251 7.0484 2.3769
-4.3439 6.8418 2.3769
-4.5545 6.6303 2.3769
-4.7570 6.4141 2.3769
-4.9517 6.1931 2.3769
-5.1374 5.9690 2.3769
-5.3155 5.7404 2.3769
-5.4852 5.5083 2.3769
-5.6469 5.2728 2.3769
-5.8005 5.0341 2.3769
-5.9460 4.7924 2.3769
-6.0834 4.5480 2.3769
-6.2128 4.3011 2.3769
-6.3341 4.0518 2.3769
-6.4475 3.8004 2.3769
-6.5530 3.5470 2.3769
-6.6505 3.2918 2.3769
-6.7401 3.0350 2.3769
-6.8219 2.7767 2.3769
-6.8958 2.5172 2.3769
-6.9619 2.2565 2.3769
-7.0204 1.9948 2.3769
-7.0710 1.7324 2.3769
-7.1139 1.4692 2.3769
-7.1491 1.2055 2.3769
-7.1766 0.9415 2.3769
-7.1965 0.6771 2.3769
-7.2088 0.4127 2.3769
-7.2134 0.1483 2.3769
-7.2104 -0.1159 2.3769
-7.1998 -0.3799 2.3769
-7.1816 -0.6434 2.3769
-7.1558 -0.9063 2.3769
-7.1225 -1.1686 2.3769
-7.0816 -1.4300 2.3769
-7.0331 -1.6904 2.3769
-6.9770 -1.9497 2.3769
-6.9134 -2.2078 2.3769
-6.8422 -2.4644 2.3769
-6.7635 -2.7195 2.3769
-6.6771 -2.9729 2.3769
-6.5832 -3.2245 2.3769
-6.4816 -3.4741 2.3769
-6.3725 -3.7215 2.3769
-6.2557 -3.9666 2.3769
-6.1313 -4.2092 2.3769
-5.9992 -4.4491 2.3769
-5.8596 -4.6862 2.3769
-5.7122 -4.9203 2.3769
-5.5572 -5.1512 2.3769
-5.3945 -5.3786 2.3769
-5.2242 -5.6025 2.3769
-5.0462 -5.8225 2.3769
-4.8605 -6.0385 2.3769
-4.6672 -6.2503 2.3769
-4.4662 -6.4575 2.3769
-4.2575 -6.6601 2.3769
-4.0413 -6.8576 2.3769
-3.8174 -7.0500 2.3769
-3.5860 -7.2368 2.3769
-3.3470 -7.4180 2.3769
-3.1006 -7.5930 2.3769
-2.8468 -7.7618 2.3769
-2.5856 -7.9239 2.3769
-2.3172 -8.0791 2.3769
-2.0416 -8.2270 2.3769
-1.7589 -8.3674 2.3769
-1.4693 -8.4999 2.3769
-1.1137 -8.1891 2.2570
-0.8139 -8.1794 2.2245
-0.5242 -8.2794 2.2245
-0.2285 -8.3706 2.2245
0.0728 -8.4528 2.2245
0.3796 -8.5257 2.2245
0.6917 -8.5888 2.2245
1.0088 -8.6419 2.2245
1.3306 -8.6845 2.2245
1.6568 -8.7164 2.2245
1.9870 -8.7372 2.2245
2.3209 -8.7466 2.2245
2.6582 -8.7441 2.2245
2.9983 -8.7296 2.2245
3.3409 -8.7026 2.2245
3.6855 -8.6628 2.2245
3.9373 -8.4088 2.1725
4.1564 -8.1106 2.1116
4.3678 -7.8231 2.0560
4.5724 -7.5448 2.0050
4.7709 -7.2748 1.9584
4.9641 -7.0119 1.9159
5.1528 -6.7552 1.8771
5.3375 -6.5040 1.8420
5.5188 -6.2573 1.8103
5.6972 -6.0145 1.7817
5.8734 -5.7749 1.7563
6.0477 -5.5378 1.7338
6.2206 -5.3026 1.7141
6.3926 -5.0686 1.6973
6.5641 -4.8353 1.6831
6.7355 -4.6021 1.6717
6.9073 -4.3683 1.6628
7.0800 -4.1335 1.6566
7.2539 -3.8969 1.6531
7.4296 -3.6579 1.6522
7.6074 -3.4160 1.6540
7.7880 -3.1703 1.6586
7.9718 -2.9203 1.6661
8.1594 -2.6651 1.6765
8.3514 -2.4039 1.6899
8.5485 -2.1358 1.7066
8.7514 -1.8598 1.7267
8.9608 -1.5748 1.7504
9.1778 -1.2797 1.7780
9.4032 -0.9731 1.8097
9.6381 -0.6534 1.8458
0.9253 3.5634 0.8762
0.7972 3.5927 0.8845
0.6681 3.6173 0.8929
0.5382 3.6372 0.9014
0.4076 3.6524 0.9100
0.2766 3.6629 0.9185
0.1452 3.6686 0.9271
0.0138 3.6695 0.9357
-0.1176 3.6656 0.9443
-0.2488 3.6570 0.9530
-0.3797 3.6436 0.9616
-0.5099 3.6255 0.9701
-0.6394 3.6026 0.9786
-0.7680 3.5751 0.9871
-2.1380 8.4587 2.3769
-2.4192 8.3013 2.3769
-2.6926 8.1365 2.3769
-2.9582 7.9646 2.3769
-3.2159 7.7859 2.3769
-3.4656 7.6008 2.3769
-3.7073 7.4097 2.3769
-3.9409 7.2128 2.3769
-4.1663 7.0104 2.3769
-4.3836 6.8029 2.3769
-4.5927 6.5905 2.3769
-4.7939 6.3733 2.3769
-4.9860 6.1530 2.3769
-5.1712 5.9267 2.3769
-5.3475 5.6977 2.3769
-5.5159 5.4648 2.3769
-5.6760 5.2287 2.3769
-5.8281 4.9894 2.3769
-5.9721 4.7472 2.3769
-6.1080 4.5023 2.3769
-6.2359 4.2549 2.3769
-6.3558 4.0052 2.3769
-6.4677 3.7534 2.3769
-6.5717 3.4997 2.3769
-6.6677 3.2442 2.3769
-6.7559 2.9871 2.3769
-6.8362 2.7286 2.3769
-6.9087 2.4688 2.3769
-6.9734 2.2080 2.3769
-7.0303 1.9462 2.3769
-7.0795 1.6835 2.3769
-7.1210 1.4203 2.3769
-7.1548 1.1565 2.3769
-7.1809 0.8924 2.3769
-7.1994 0.6280 2.3769
-7.2102 0.3636 2.3769
-7.2134 0.0992 2.3769
-7.2090 -0.1650 2.3769
-7.1970 -0.4289 2.3769
-7.1774 -0.6923 2.3769
-7.1502 -0.9551 2.3769
-7.1155 -1.2172 2.3769
-7.0731 -1.4784 2.3769
-7.0233 -1.7387 2.3769
-6.9658 -1.9977 2.3769
-6.9008 -2.2555 2.3769
-6.8282 -2.5119 2.3769
-6.7480 -2.7667 2.3769
-6.6602 -3.0198 2.3769
-6.5649 -3.2710 2.3769
-6.4619 -3.5202 2.3769
-6.3513 -3.7672 2.3769
-6.2332 -4.0118 2.3769
-6.1073 -4.2540 2.3769
-5.9739 -4.4934 2.3769
-5.8328 -4.7299 2.3769
-5.6840 -4.9634 2.3769
-5.5276 -5.1937 2.3769
-5.3635 -5.4205 2.3769
-5.1917 -5.6436 2.3769
-5.0123 -5.8629 2.3769
-4.8252 -6.0782 2.3769
-4.6304 -6.2891 2.3769
-4.4280 -6.4955 2.3769
-4.2179 -6.6972 2.3769
-4.0002 -6.8938 2.3769
-3.7750 -7.0851 2.3769
-3.5422 -7.2709 2.3769
-3.3018 -7.4509 2.3769
-3.0540 -7.6249 2.3769
-2.7988 -7.7924 2.3769
-2.5363 -7.9532 2.3769
-2.2665 -8.1071 2.3769
-1.9896 -8.2537 2.3769
-1.7056 -8.3926 2.3769
-1.4147 -8.5236 2.3769
-1.0489 -8.1194 2.2320
-0.7606 -8.1987 2.2245
-0.4697 -8.2970 2.2245
-0.1730 -8.3866 2.2245
0.1294 -8.4671 2.2245
0.4372 -8.5381 2.2245
0.7503 -8.5994 2.2245
1.0682 -8.6506 2.2245
1.3908 -8.6913 2.2245
1.7178 -8.7211 2.2245
2.0488 -8.7398 2.2245
2.3834 -8.7470 2.2245
2.7212 -8.7423 2.2245
3.0618 -8.7255 2.2245
3.4048 -8.6962 2.2245
3.8321 -8.8442 2.2733
3.9786 -8.3525 2.1607
4.1963 -8.0564 2.1009
4.4063 -7.7707 2.0461
4.6097 -7.4941 1.9960
4.8072 -7.2254 1.9502
4.9995 -6.9637 1.9084
5.1874 -6.7082 1.8703
5.3714 -6.4578 1.8358
5.5521 -6.2120 1.8047
5.7301 -5.9698 1.7768
5.9059 -5.7307 1.7519
6.0799 -5.4940 1.7299
6.2526 -5.2590 1.7108
6.4245 -5.0253 1.6944
6.5959 -4.7920 1.6808
6.7674 -4.5587 1.6698
6.9393 -4.3248 1.6615
7.1122 -4.0897 1.6558
7.2864 -3.8527 1.6527
7.4624 -3.6132 1.6523
7.6407 -3.3706 1.6547
7.8219 -3.1243 1.6598
8.0063 -2.8733 1.6678
8.1947 -2.6171 1.6787
8.3876 -2.3546 1.6928
8.5857 -2.0851 1.7101
8.7897 -1.8076 1.7308
9.0005 -1.5208 1.7552
9.2190 -1.2236 1.7835
9.4461 -0.9147 1.8160
9.6829 -0.5925 1.8531
0.9016 3.5692 0.8777
0.7733 3.5976 0.8861
-0.6749 3.2727 0.9816
-0.7916 3.2440 0.9893
-2.1630 7.6563 2.3769
-2.4174 7.5111 2.3769
-2.6647 7.3590 2.3769
-2.9052 7.2002 2.3769
-3.1384 7.0353 2.3769
-3.3646 6.8643 2.3769
-3.5834 6.6876 2.3769
-3.7950 6.5055 2.3769
-3.9992 6.3183 2.3769
-4.1960 6.1262 2.3769
-4.3854 5.9295 2.3769
-4.5673 5.7285 2.3769
-4.7417 5.5233 2.3769
-4.9086 5.3143 2.3769
-5.0681 5.1016 2.3769
-5.2200 4.8855 2.3769
-5.3645 4.6662 2.3769
-5.5015 4.4439 2.3769
-5.6309 4.2188 2.3769
-5.7530 3.9912 2.3769
-5.8675 3.7611 2.3769
-5.9746 3.5288 2.3769
-6.0743 3.2945 2.3769
-6.1665 3.0583 2.3769
-6.2514 2.8205 2.3769
-6.3289 2.5811 2.3769
-6.3990 2.3404 2.3769
-6.4617 2.0986 2.3769
-6.5172 1.8556 2.3769
-6.5653 1.6118 2.3769
-6.6062 1.3672 2.3769
-6.6398 1.1221 2.3769
-6.6661 0.8766 2.3769
-6.6852 0.6307 2.3769
-6.6970 0.3847 2.3769
-6.7016 0.1386 2.3769
-6.6991 -0.1072 2.3769
-6.6893 -0.3529 2.3769
-6.6723 -0.5981 2.3769
-6.6482 -0.8428 2.3769
-6.6169 -1.0867 2.3769
-6.5784 -1.3299 2.3769
-6.5328 -1.5721 2.3769
-6.4800 -1.8132 2.3769
-6.4201 -2.0530 2.3769
-6.3530 -2.2914 2.3769
-6.2788 -2.5283 2.3769
-6.1974 -2.7635 2.3769
-6.1089 -2.9969 2.3769
-6.0133 -3.2282 2.3769
-5.9104 -3.4574 2.3769
-5.8005 -3.6842 2.3769
-5.6834 -3.9086 2.3769
-5.5592 -4.1303 2.3769
-5.4279 -4.3492 2.3769
-5.2894 -4.5650 2.3769
-5.1438 -4.7776 2.3769
-4.9911 -4.9869 2.3769
-4.8313 -5.1925 2.3769
-4.6644 -5.3944 2.3769
-4.4905 -5.5923 2.3769
-4.3095 -5.7859 2.3769
-4.1215 -5.9752 2.3769
-3.9265 -6.1597 2.3769
-3.7246 -6.3394 2.3769
-3.5158 -6.5140 2.3769
-3.3002 -6.6832 2.3769
-3.0778 -6.8468 2.3769
-2.8486 -7.0045 2.3769
-2.6129 -7.1561 2.3769
-2.3706 -7.3013 2.3769
-2.1218 -7.4398 2.3769
-1.8667 -7.5713 2.3769
-1.6054 -7.6956 2.3769
-1.3380 -7.8123 2.3769
-1.0647 -7.9211 2.3769
-0.7533 -7.6917 2.2790
-0.4689 -7.5938 2.2245
-0.1974 -7.6719 2.2245
0.0789 -7.7416 2.2245
0.3597 -7.8024 2.2245
0.6450 -7.8542 2.2245
0.9344 -7.8965 2.2245
1.2276 -7.9292 2.2245
1.5243 -7.9519 2.2245
1.8242 -7.9644 2.2245
2.1270 -7.9663 2.2245
2.4323 -7.9574 2.2245
2.7397 -7.9375 2.2245
3.0488 -7.9062 2.2245
3.3591 -7.8634 2.2245
3.6702 -7.8087 2.2245
3.9815 -7.7420 2.2245
4.2927 -7.6631 2.2245
4.5802 -7.5342 2.2134
4.7783 -7.2646 2.1639
4.9712 -7.0022 2.1187
5.1596 -6.7460 2.0777
5.3440 -6.4951 2.0406
5.5250 -6.2489 2.0072
5.7032 -6.0065 1.9772
5.8791 -5.7672 1.9506
6.0531 -5.5304 1.9272
6.2258 -5.2955 1.9069
6.3976 -5.0618 1.8896
6.5689 -4.8288 1.8753
6.7401 -4.5958 1.8639
6.9118 -4.3623 1.8554
7.0842 -4.1277 1.8498
7.2579 -3.8914 1.8470
7.4334 -3.6527 1.8472
7.6111 -3.4110 1.8503
7.7914 -3.1657 1.8565
7.9750 -2.9159 1.8658
8.1624 -2.6609 1.8784
8.3542 -2.4000 1.8943
8.5511 -2.1322 1.9138
8.7538 -1.8565 1.9370
8.9630 -1.5719 1.9642
9.1797 -1.2771 1.9956
9.4048 -0.9708 2.0316
9.6395 -0.6516 2.0726
4.6702 8.4512 2.3769
4.3295 8.5385 2.3769
3.9883 8.6120 2.3769
3.6471 8.6720 2.3769
3.3066 8.7187 2.3769
2.9672 8.7524 2.3769
0.9670 3.2263 0.8741
0.8510 3.2572 0.8816
0.7339 3.2840 0.8892
0.6159 3.3064 0.8969
0.4971 3.3246 0.9047
0.3778 3.3385 0.9125
0.2580 3.3480 0.9203
0.1380 3.3532 0.9282
0.0178 3.3540 0.9360
-0.1023 3.3505 0.9439
-0.2222 3.3426 0.9518
-0.3417 3.3303 0.9596
-0.4607 3.3137 0.9675
-0.5791 3.2928 0.9752
-0.6966 3.2677 0.9830
-0.8132 3.2382 0.9907
-2.2108 7.6299 2.3769
-2.4638 7.4834 2.3769
-2.7100 7.3300 2.3769
-2.9490 7.1701 2.3769
-3.1810 7.0040 2.3769
-3.4058 6.8319 2.3769
-3.6233 6.6542 2.3769
-3.8335 6.4712 2.3769
-4.0363 6.2830 2.3769
-4.2317 6.0900 2.3769
-4.4197 5.8925 2.3769
-4.6002 5.6907 2.3769
-4.7733 5.4848 2.3769
-4.9388 5.2751 2.3769
-5.0969 5.0617 2.3769
-5.2474 4.8450 2.3769
-5.3905 4.6251 2.3769
-5.5261 4.4023 2.3769
-5.6542 4.1767 2.3769
-5.7748 3.9486 2.3769
-5.8880 3.7181 2.3769
-5.9937 3.4854 2.3769
-6.0920 3.2508 2.3769
-6.1829 3.0143 2.3769
-6.2663 2.7762 2.3769
-6.3425 2.5365 2.3769
-6.4112 2.2956 2.3769
-6.4726 2.0535 2.3769
-6.5267 1.8104 2.3769
-6.5735 1.5664 2.3769
-6.6130 1.3218 2.3769
-6.6452 1.0765 2.3769
-6.6702 0.8309 2.3769
-6.6879 0.5850 2.3769
-6.6984 0.3390 2.3769
-6.7017 0.0930 2.3769
-6.6978 -0.1529 2.3769
-6.6867 -0.3985 2.3769
-6.6684 -0.6436 2.3769
-6.6429 -0.8881 2.3769
-6.6103 -1.1320 2.3769
-6.5705 -1.3750 2.3769
-6.5236 -1.6170 2.3769
-6.4695 -1.8579 2.3769
-6.4082 -2.0974 2.3769
-6.3398 -2.3356 2.3769
-6.2642 -2.5722 2.3769
-6.1815 -2.8070 2.3769
-6.0917 -3.0400 2.3769
-5.9947 -3.2710 2.3769
-5.8906 -3.4997 2.3769
-5.7793 -3.7261 2.3769
-5.6609 -3.9500 2.3769
-5.5353 -4.1712 2.3769
-5.4027 -4.3895 2.3769
-5.2629 -4.6047 2.3769
-5.1160 -4.8168 2.3769
-4.9619 -5.0254 2.3769
-4.8008 -5.2303 2.3769
-4.6326 -5.4314 2.3769
-4.4574 -5.6286 2.3769
-4.2751 -5.8214 2.3769
-4.0858 -6.0098 2.3769
-3.8895 -6.1935 2.3769
-3.6864 -6.3723 2.3769
-3.4763 -6.5459 2.3769
-3.2594 -6.7141 2.3769
-3.0357 -6.8766 2.3769
-2.8053 -7.0332 2.3769
-2.5684 -7.1836 2.3769
-2.3249 -7.3275 2.3769
-2.0749 -7.4647 2.3769
-1.8187 -7.5949 2.3769
-1.5562 -7.7178 2.3769
-1.2877 -7.8331 2.3769
-1.0133 -7.9404 2.3769
-0.6949 -7.6204 2.2529
-0.4188 -7.6090 2.2245
-0.1465 -7.6855 2.2245
0.1307 -7.7535 2.2245
0.4124 -7.8127 2.2245
0.6984 -7.8627 2.2245
0.9885 -7.9033 2.2245
1.2824 -7.9342 2.2245
1.5798 -7.9550 2.2245
1.8803 -7.9656 2.2245
2.1835 -7.9655 2.2245
2.4892 -7.9546 2.2245
2.7970 -7.9326 2.2245
3.1063 -7.8991 2.2245
3.4168 -7.8541 2.2245
3.7280 -7.7972 2.2245
4.0394 -7.7283 2.2245
4.3504 -7.6471 2.2245
4.6174 -7.4835 2.2038
4.8145 -7.2154 2.1552
5.0065 -6.9542 2.1108
5.1941 -6.6990 2.0706
5.3778 -6.4491 2.0341
5.5583 -6.2036 2.0014
5.7360 -5.9618 1.9720
5.9115 -5.7230 1.9460
6.0853 -5.4866 1.9232
6.2578 -5.2520 1.9035
6.4294 -5.0185 1.8867
6.6007 -4.7855 1.8730
6.7720 -4.5525 1.8621
6.9437 -4.3189 1.8541
7.1164 -4.0840 1.8490
7.2904 -3.8473 1.8468
7.4662 -3.6081 1.8475
7.6443 -3.3657 1.8512
7.8253 -3.1196 1.8580
8.0095 -2.8689 1.8679
8.1977 -2.6130 1.8811
8.3904 -2.3508 1.8976
8.5883 -2.0816 1.9178
8.7921 -1.8043 1.9417
9.0026 -1.5179 1.9697
9.2208 -1.2211 2.0019
9.4476 -0.9126 2.0389
9.6842 -0.5907 2.0808
4.6070 8.4684 2.3769
4.2661 8.5531 2.3769
3.9249 8.6242 2.3769
3.5838 8.6817 2.3769
3.2434 8.7259 2.3769
2.9044 8.7572 2.3769
0.9456 3.2323 0.8755
0.8293 3.2625 0.8830
0.7120 3.2885 0.8907
-0.6158 3.0105 0.9782
-0.7232 2.9842 0.9852
-0.8296 2.9540 0.9923
-2.2235 6.9457 2.3769
-2.4537 6.8089 2.3769
-2.6777 6.6657 2.3769
-2.8952 6.5164 2.3769
-3.1063 6.3613 2.3769
-3.3109 6.2007 2.3769
-3.5088 6.0348 2.3769
-3.7001 5.8639 2.3769
-3.8845 5.6883 2.3769
-4.0622 5.5081 2.3769
-4.2330 5.3236 2.3769
-4.3969 5.1351 2.3769
-4.5540 4.9427 2.3769
-4.7041 4.7467 2.3769
-4.8473 4.5473 2.3769
-4.9835 4.3448 2.3769
-5.1128 4.1392 2.3769
-5.2351 3.9308 2.3769
-5.3503 3.7198 2.3769
-5.4586 3.5064 2.3769
-5.5600 3.2908 2.3769
-5.6544 3.0731 2.3769
-5.7418 2.8535 2.3769
-5.8223 2.6322 2.3769
-5.8958 2.4094 2.3769
-5.9624 2.1851 2.3769
-6.0220 1.9597 2.3769
-6.0747 1.7332 2.3769
-6.1206 1.5057 2.3769
-6.1595 1.2775 2.3769
-6.1915 1.0487 2.3769
-6.2167 0.8194 2.3769
-6.2350 0.5898 2.3769
-6.2464 0.3600 2.3769
-6.2510 0.1302 2.3769
-6.2488 -0.0996 2.3769
-6.2397 -0.3291 2.3769
-6.2239 -0.5582 2.3769
-6.2012 -0.7868 2.3769
-6.1717 -1.0147 2.3769
-6.1355 -1.2418 2.3769
-6.0924 -1.4680 2.3769
-6.0426 -1.6931 2.3769
-5.9860 -1.9168 2.3769
-5.9227 -2.1393 2.3769
-5.8525 -2.3602 2.3769
-5.7757 -2.5794 2.3769
-5.6921 -2.7968 2.3769
-5.6018 -3.0122 2.3769
-5.5047 -3.2255 2.3769
-5.4009 -3.4364 2.3769
-5.2905 -3.6449 2.3769
-5.1733 -3.8507 2.3769
-5.0495 -4.0538 2.3769
-4.9190 -4.2538 2.3769
-4.7819 -4.4507 2.3769
-4.6381 -4.6442 2.3769
-4.4878 -4.8342 2.3769
-4.3309 -5.0204 2.3769
-4.1674 -5.2027 2.3769
-3.9975 -5.3809 2.3769
-3.8211 -5.5548 2.3769
-3.6383 -5.7241 2.3769
-3.4492 -5.8886 2.3769
-3.2537 -6.0482 2.3769
-3.0520 -6.2025 2.3769
-2.8442 -6.3514 2.3769
-2.6303 -6.4946 2.3769
-2.4104 -6.6319 2.3769
-2.1846 -6.7630 2.3769
-1.9531 -6.8876 2.3769
-1.7159 -7.0056 2.3769
-1.4732 -7.1167 2.3769
-1.2251 -7.2205 2.3769
-0.9718 -7.3169 2.3769
-0.7135 -7.4055 2.3769
-0.4363 -7.2526 2.3027
-0.1708 -7.0738 2.2245
0.0840 -7.1335 2.2245
0.3427 -7.1850 2.2245
0.6052 -7.2279 2.2245
0.8710 -7.2620 2.2245
1.1400 -7.2872 2.2245
1.4118 -7.3031 2.2245
1.6863 -7.3094 2.2245
1.9629 -7.3061 2.2245
2.2414 -7.2928 2.2245
2.5215 -7.2693 2.2245
2.8027 -7.2355 2.2245
3.0845 -7.1911 2.2245
3.3667 -7.1359 2.2245
3.6488 -7.0698 2.2245
3.9302 -6.9927 2.2245
4.2105 -6.9044 2.2245
4.4892 -6.8048 2.2245
4.7657 -6.6938 2.2245
5.0396 -6.5714 2.2245
5.3103 -6.4375 2.2245
5.5313 -6.2404 2.2061
5.7092 -5.9983 2.1747
5.8848 -5.7593 2.1469
6.0587 -5.5229 2.1226
6.2311 -5.2883 2.1017
6.4027 -5.0549 2.0840
6.5737 -4.8222 2.0695
6.7448 -4.5895 2.0581
6.9162 -4.3563 2.0499
7.0885 -4.1220 2.0449
7.2620 -3.8859 2.0429
7.4373 -3.6475 2.0442
7.6147 -3.4060 2.0486
7.7949 -3.1609 2.0564
7.9783 -2.9114 2.0676
8.1655 -2.6568 2.0823
8.3571 -2.3961 2.1007
8.5538 -2.1286 2.1230
8.7562 -1.8532 2.1494
8.9652 -1.5689 2.1801
9.1816 -1.2745 2.2155
9.2756 -0.9551 2.2245
9.3176 -0.6280 2.2245
9.3447 -0.2989 2.2245
9.3567 0.0312 2.2245
9.3537 0.3616 2.2245
9.3356 0.6917 2.2245
9.3024 1.0205 2.2245
9.2542 1.3473 2.2245
9.1912 1.6715 2.2245
9.1136 1.9921 2.2245
9.0216 2.3086 2.2245
8.9155 2.6201 2.2245
8.7956 2.9261 2.2245
8.6623 3.2258 2.2245
8.5160 3.5186 2.2245
8.3571 3.8039 2.2245
8.1862 4.0812 2.2245
8.1559 4.4327 2.2668
8.3453 4.9255 2.3769
8.1272 5.1926 2.3769
7.8987 5.4492 2.3769
7.6602 5.6948 2.3769
7.4125 5.9290 2.3769
7.1561 6.1516 2.3769
6.8918 6.3622 2.3769
6.6202 6.5606 2.3769
6.3420 6.7465 2.3769
6.0580 6.9201 2.3769
5.7687 7.0811 2.3769
5.4747 7.2292 2.3769
5.1768 7.3647 2.3769
4.8757 7.4876 2.3769
4.5718 7.5977 2.3769
4.2658 7.6952 2.3769
3.9584 7.7803 2.3769
3.6500 7.8530 2.3769
3.3412 7.9134 2.3769
3.0326 7.9618 2.3769
2.7247 7.9983 2.3769
0.8944 2.9681 0.8793
0.7877 2.9965 0.8862
0.6800 3.0211 0.8932
0.5714 3.0417 0.9003
0.4622 3.0584 0.9074
0.3524 3.0712 0.9146
0.2423 3.0799 0.9218
0.1318 3.0847 0.9290
0.0213 3.0854 0.9363
-0.0892 3.0821 0.9435
-0.1995 3.0748 0.9508
-0.3094 3.0636 0.9580
-0.4189 3.0483 0.9652
-0.5278 3.0291 0.9724
-0.6359 3.0059 0.9795
-0.7431 2.9789 0.9866
-2.0315 7.0523 2.3769
-2.2667 6.9208 2.3769
-2.4958 6.7828 2.3769
-2.7185 6.6384 2.3769
-2.9349 6.4880 2.3769
-3.1448 6.3319 2.3769
-3.3481 6.1703 2.3769
-3.5449 6.0035 2.3769
-3.7348 5.8317 2.3769
-3.9180 5.6552 2.3769
-4.0944 5.4742 2.3769
-4.2639 5.2889 2.3769
-4.4266 5.0997 2.3769
-4.5824 4.9066 2.3769
-4.7312 4.7100 2.3769
-4.8731 4.5099 2.3769
-5.0080 4.3068 2.3769
-5.1360 4.1007 2.3769
-5.2570 3.8918 2.3769
-5.3710 3.6803 2.3769
-5.4780 3.4665 2.3769
-5.5781 3.2505 2.3769
-5.6712 3.0324 2.3769
-5.7573 2.8125 2.3769
-5.8365 2.5909 2.3769
-5.9087 2.3678 2.3769
-5.9740 2.1434 2.3769
-6.0323 1.9177 2.3769
-6.0838 1.6910 2.3769
-6.1283 1.4634 2.3769
-6.1659 1.2351 2.3769
-6.1967 1.0062 2.3769
-6.2206 0.7768 2.3769
-6.2376 0.5471 2.3769
-6.2478 0.3173 2.3769
-6.2511 0.0875 2.3769
-6.2476 -0.1422 2.3769
-6.2373 -0.3717 2.3769
-6.2202 -0.6007 2.3769
-6.1962 -0.8291 2.3769
-6.1655 -1.0569 2.3769
-6.1280 -1.2839 2.3769
-6.0837 -1.5098 2.3769
-6.0326 -1.7347 2.3769
-5.9747 -1.9583 2.3769
-5.9101 -2.1804 2.3769
-5.8388 -2.4010 2.3769
-5.7607 -2.6199 2.3769
-5.6758 -2.8370 2.3769
-5.5842 -3.0520 2.3769
-5.4859 -3.2648 2.3769
-5.3809 -3.4753 2.3769
-5.2692 -3.6833 2.3769
-5.1508 -3.8887 2.3769
-5.0258 -4.0911 2.3769
-4.8940 -4.2906 2.3769
-4.7557 -4.4869 2.3769
-4.6107 -4.6797 2.3769
-4.4591 -4.8691 2.3769
-4.3010 -5.0546 2.3769
-4.1364 -5.2362 2.3769
-3.9652 -5.4136 2.3769
-3.7877 -5.5866 2.3769
-3.6037 -5.7550 2.3769
-3.4133 -5.9187 2.3769
-3.2167 -6.0773 2.3769
-3.0139 -6.2306 2.3769
-2.8049 -6.3785 2.3769
-2.5899 -6.5206 2.3769
-2.3689 -6.6567 2.3769
-2.1421 -6.7866 2.3769
-1.9094 -6.9101 2.3769
-1.6712 -7.0268 2.3769
-1.4275 -7.1365 2.3769
-1.1784 -7.2390 2.3769
-0.9242 -7.3339 2.3769
-0.6650 -7.4211 2.3769
-0.3843 -7.1895 2.2784
-0.1238 -7.0855 2.2245
0.1318 -7.1437 2.2245
0.3912 -7.1936 2.2245
0.6543 -7.2349 2.2245
0.9207 -7.2674 2.2245
1.1903 -7.2908 2.2245
1.4626 -7.3050 2.2245
1.7375 -7.3096 2.2245
2.0145 -7.3044 2.2245
2.2934 -7.2892 2.2245
2.5736 -7.2638 2.2245
2.8550 -7.2280 2.2245
3.1370 -7.1816 2.2245
3.4192 -7.1244 2.2245
3.7011 -7.0563 2.2245
3.9824 -6.9771 2.2245
4.2624 -6.8867 2.2245
4.5407 -6.7850 2.2245
4.8168 -6.6719 2.2245
5.0902 -6.5474 2.2245
5.3602 -6.4114 2.2245
5.5645 -6.1951 2.2000
5.7420 -5.9537 2.1693
5.9172 -5.7153 2.1422
6.0908 -5.4792 2.1185
6.2630 -5.2448 2.0981
6.4345 -5.0116 2.0810
6.6055 -4.7790 2.0671
6.7766 -4.5462 2.0564
6.9481 -4.3129 2.0488
7.1206 -4.0783 2.0443
7.2944 -3.8418 2.0429
7.4700 -3.6029 2.0448
7.6480 -3.3608 2.0498
7.8287 -3.1149 2.0582
8.0128 -2.8645 2.0701
8.2008 -2.6088 2.0855
8.3932 -2.3470 2.1046
8.5909 -2.0781 2.1276
8.7945 -1.8011 2.1547
9.0048 -1.5150 2.1863
9.3891 -1.2405 2.2627
9.2846 -0.8945 2.2245
9.3238 -0.5670 2.2245
9.3481 -0.2377 2.2245
9.3573 0.0926 2.2245
9.3515 0.4230 2.2245
9.3305 0.7528 2.2245
9.2946 1.0814 2.2245
9.2436 1.4078 2.2245
9.1779 1.7313 2.2245
9.0976 2.0512 2.2245
9.0030 2.3668 2.2245
8.8943 2.6774 2.2245
8.7718 2.9822 2.2245
8.6361 3.2807 2.2245
8.4874 3.5722 2.2245
8.3263 3.8561 2.2245
8.1531 4.1318 2.2245
8.2300 4.5432 2.2975
8.3055 4.9758 2.3769
8.0856 5.2411 2.3769
7.8549 5.4955 2.3769
7.6149 5.7392 2.3769
7.3655 5.9713 2.3769
7.1076 6.1916 2.3769
6.8419 6.3999 2.3769
6.5690 6.5960 2.3769
6.2897 6.7798 2.3769
6.0046 6.9510 2.3769
5.7144 7.1095 2.3769
5.4197 7.2554 2.3769
5.1211 7.3885 2.3769
4.8194 7.5090 2.3769
4.5151 7.6168 2.3769
4.2088 7.7120 2.3769
3.9012 7.7947 2.3769
3.5927 7.8651 2.3769
3.2839 7.9233 2.3769
2.9754 7.9695 2.3769
0.9805 2.9420 0.8737
0.8747 2.9736 0.8806
0.7678 3.0014 0.8875
0.6599 3.0252 0.8945
-0.5649 2.7844 0.9752
-0.6642 2.7601 0.9818
-0.7626 2.7321 0.9883
-2.0547 6.4533 2.3769
-2.2697 6.3292 2.3769
-2.4792 6.1991 2.3769
-2.6828 6.0631 2.3769
-2.8805 5.9215 2.3769
-3.0723 5.7745 2.3769
-3.2581 5.6225 2.3769
-3.4377 5.4655 2.3769
-3.6111 5.3039 2.3769
-3.7783 5.1379 2.3769
-3.9391 4.9678 2.3769
-4.0937 4.7935 2.3769
-4.2418 4.6156 2.3769
-4.3834 4.4341 2.3769
-4.5187 4.2492 2.3769
-4.6474 4.0611 2.3769
-4.7696 3.8701 2.3769
-4.8853 3.6763 2.3769
-4.9945 3.4800 2.3769
-5.0972 3.2812 2.3769
-5.1932 3.0802 2.3769
-5.2828 2.8771 2.3769
-5.3657 2.6721 2.3769
-5.4422 2.4654 2.3769
-5.5120 2.2571 2.3769
-5.5753 2.0475 2.3769
-5.6321 1.8366 2.3769
-5.6822 1.6246 2.3769
-5.7259 1.4116 2.3769
-5.7630 1.1979 2.3769
-5.7936 0.9836 2.3769
-5.8177 0.7687 2.3769
-5.8352 0.5535 2.3769
-5.8463 0.3381 2.3769
-5.8508 0.1226 2.3769
-5.8489 -0.0928 2.3769
-5.8405 -0.3079 2.3769
-5.8256 -0.5227 2.3769
-5.8042 -0.7370 2.3769
-5.7764 -0.9507 2.3769
-5.7421 -1.1635 2.3769
-5.7014 -1.3755 2.3769
-5.6543 -1.5863 2.3769
-5.6007 -1.7960 2.3769
-5.5407 -2.0043 2.3769
-5.4744 -2.2110 2.3769
-5.4016 -2.4161 2.3769
-5.3225 -2.6194 2.3769
-5.2370 -2.8208 2.3769
-5.1452 -3.0200 2.3769
-5.0471 -3.2169 2.3769
-4.9426 -3.4114 2.3769
-4.8319 -3.6033 2.3769
-4.7149 -3.7925 2.3769
-4.5916 -3.9787 2.3769
-4.4621 -4.1618 2.3769
-4.3265 -4.3416 2.3769
-4.1847 -4.5179 2.3769
-4.0368 -4.6906 2.3769
-3.8828 -4.8594 2.3769
-3.7228 -5.0243 2.3769
-3.5568 -5.1848 2.3769
-3.3849 -5.3410 2.3769
-3.2071 -5.4925 2.3769
-3.0236 -5.6392 2.3769
-2.8344 -5.7808 2.3769
-2.6395 -5.9172 2.3769
-2.4391 -6.0481 2.3769
-2.2333 -6.1732 2.3769
-2.0221 -6.2925 2.3769
-1.8058 -6.4055 2.3769
-1.5843 -6.5122 2.3769
-1.3580 -6.6123 2.3769
-1.1268 -6.7054 2.3769
-0.8910 -6.7915 2.3769
-0.6508 -6.8702 2.3769
-0.4063 -6.9414 2.3769
-0.1546 -6.8612 2.3282
0.0885 -6.6072 2.2245
0.3280 -6.6512 2.2245
0.5707 -6.6871 2.2245
0.8163 -6.7149 2.2245
1.0645 -6.7342 2.2245
1.3151 -6.7449 2.2245
1.5677 -6.7468 2.2245
1.8221 -6.7396 2.2245
2.0779 -6.7233 2.2245
2.3348 -6.6975 2.2245
2.5923 -6.6622 2.2245
2.8503 -6.6173 2.2245
3.1081 -6.5624 2.2245
3.3655 -6.4976 2.2245
3.6220 -6.4228 2.2245
3.8772 -6.3377 2.2245
4.1306 -6.2424 2.2245
4.3818 -6.1369 2.2245
4.6302 -6.0210 2.2245
4.8754 -5.8948 2.2245
5.1169 -5.7583 2.2245
5.3541 -5.6115 2.2245
5.5866 -5.4545 2.2245
5.8138 -5.2875 2.2245
6.0351 -5.1105 2.2245
6.2502 -4.9238 2.2245
6.4584 -4.7275 2.2245
6.6592 -4.5218 2.2245
6.8521 -4.3070 2.2245
7.0365 -4.0835 2.2245
7.2121 -3.8515 2.2245
7.3782 -3.6114 2.2245
7.5345 -3.3635 2.2245
7.6805 -3.1084 2.2245
7.8157 -2.8464 2.2245
7.9397 -2.5781 2.2245
8.0521 -2.3041 2.2245
8.1527 -2.0246 2.2245
8.2411 -1.7406 2.2245
8.3169 -1.4523 2.2245
8.3800 -1.1606 2.2245
8.4302 -0.8658 2.2245
8.4671 -0.5689 2.2245
8.4909 -0.2704 2.2245
8.5012 0.0291 2.2245
8.4981 0.3289 2.2245
8.4817 0.6282 2.2245
8.4518 0.9265 2.2245
8.4086 1.2231 2.2245
8.3522 1.5173 2.2245
8.2828 1.8084 2.2245
8.2006 2.0959 2.2245
8.1058 2.3790 2.2245
7.9986 2.6573 2.2245
7.8795 2.9301 2.2245
7.7487 3.1969 2.2245
7.6068 3.4573 2.2245
7.7115 3.8386 2.3014
7.7899 4.2270 2.3769
7.6047 4.4809 2.3769
7.4093 4.7259 2.3769
7.2044 4.9615 2.3769
6.9903 5.1874 2.3769
6.7678 5.4032 2.3769
6.5373 5.6087 2.3769
6.2995 5.8038 2.3769
6.0549 5.9878 2.3769
5.8040 6.1608 2.3769
5.5476 6.3226 2.3769
5.2862 6.4733 2.3769
5.0203 6.6125 2.3769
4.7506 6.7404 2.3769
4.4775 6.8568 2.3769
4.2017 6.9618 2.3769
3.9236 7.0555 2.3769
3.6439 7.1378 2.3769
3.3630 7.2089 2.3769
3.0814 7.2688 2.3769
2.7996 7.3178 2.3769
0.9295 2.7155 0.8774
0.8318 2.7453 0.8838
0.7331 2.7716 0.8902
0.6335 2.7943 0.8967
0.5331 2.8134 0.9032
0.4320 2.8288 0.9098
0.3305 2.8406 0.9165
0.2286 2.8487 0.9231
0.1265 2.8530 0.9298
0.0243 2.8537 0.9365
-0.0779 2.8507 0.9432
-0.1799 2.8439 0.9499
-0.2816 2.8335 0.9566
-0.3828 2.8194 0.9632
-0.4835 2.8016 0.9699
-0.5835 2.7802 0.9765
-0.6826 2.7552 0.9830
-0.7807 2.7266 0.9895
-2.0950 6.4307 2.3769
-2.3090 6.3055 2.3769
-2.5174 6.1743 2.3769
-2.7200 6.0372 2.3769
-2.9166 5.8946 2.3769
-3.1072 5.7467 2.3769
-3.2919 5.5937 2.3769
-3.4704 5.4359 2.3769
-3.6426 5.2735 2.3769
-3.8086 5.1066 2.3769
-3.9683 4.9357 2.3769
-4.1216 4.7608 2.3769
-4.2685 4.5821 2.3769
-4.4090 4.4000 2.3769
-4.5431 4.2145 2.3769
-4.6706 4.0259 2.3769
-4.7916 3.8344 2.3769
-4.9061 3.6401 2.3769
-5.0141 3.4432 2.3769
-5.1155 3.2440 2.3769
-5.2104 3.0426 2.3769
-5.2987 2.8391 2.3769
-5.3804 2.6338 2.3769
-5.4556 2.4268 2.3769
-5.5243 2.2183 2.3769
-5.5863 2.0084 2.3769
-5.6419 1.7973 2.3769
-5.6909 1.5851 2.3769
-5.7333 1.3720 2.3769
-5.7692 1.1581 2.3769
-5.7986 0.9437 2.3769
-5.8214 0.7288 2.3769
-5.8378 0.5135 2.3769
-5.8476 0.2981 2.3769
-5.8510 0.0826 2.3769
-5.8478 -0.1328 2.3769
-5.8382 -0.3479 2.3769
-5.8221 -0.5626 2.3769
-5.7995 -0.7768 2.3769
-5.7705 -0.9903 2.3769
-5.7350 -1.2030 2.3769
-5.6931 -1.4147 2.3769
-5.6448 -1.6254 2.3769
-5.5900 -1.8348 2.3769
-5.5289 -2.0428 2.3769
-5.4613 -2.2492 2.3769
-5.3874 -2.4540 2.3769
-5.3071 -2.6570 2.3769
-5.2205 -2.8579 2.3769
-5.1275 -3.0567 2.3769
-5.0282 -3.2533 2.3769
-4.9225 -3.4473 2.3769
-4.8106 -3.6387 2.3769
-4.6924 -3.8273 2.3769
-4.5680 -4.0129 2.3769
-4.4374 -4.1954 2.3769
-4.3006 -4.3746 2.3769
-4.1577 -4.5503 2.3769
-4.0086 -4.7223 2.3769
-3.8535 -4.8904 2.3769
-3.6924 -5.0544 2.3769
-3.5253 -5.2142 2.3769
-3.3523 -5.3695 2.3769
-3.1735 -5.5201 2.3769
-2.9889 -5.6659 2.3769
-2.7986 -5.8066 2.3769
-2.6027 -5.9419 2.3769
-2.4013 -6.0718 2.3769
-2.1944 -6.1958 2.3769
-1.9823 -6.3140 2.3769
-1.7650 -6.4259 2.3769
-1.5426 -6.5313 2.3769
-1.3154 -6.6301 2.3769
-1.0833 -6.7220 2.3769
-0.8467 -6.8067 2.3769
-0.6057 -6.8840 2.3769
-0.3605 -6.9537 2.3769
-0.1079 -6.8048 2.3055
0.1327 -6.6160 2.2245
0.3729 -6.6584 2.2245
0.6162 -6.6929 2.2245
0.8622 -6.7191 2.2245
1.1109 -6.7368 2.2245
1.3619 -6.7459 2.2245
1.6149 -6.7461 2.2245
1.8695 -6.7373 2.2245
2.1255 -6.7192 2.2245
2.3826 -6.6917 2.2245
2.6402 -6.6546 2.2245
2.8982 -6.6078 2.2245
3.1560 -6.5511 2.2245
3.4133 -6.4845 2.2245
3.6696 -6.4077 2.2245
3.9245 -6.3208 2.2245
4.1775 -6.2236 2.2245
4.4282 -6.1161 2.2245
4.6760 -5.9983 2.2245
4.9205 -5.8702 2.2245
5.1613 -5.7317 2.2245
5.3977 -5.5831 2.2245
5.6292 -5.4242 2.2245
5.8553 -5.2554 2.2245
6.0756 -5.0766 2.2245
6.2894 -4.8880 2.2245
6.4963 -4.6900 2.2245
6.6956 -4.4826 2.2245
6.8870 -4.2662 2.2245
7.0698 -4.0410 2.2245
7.2437 -3.8075 2.2245
7.4081 -3.5658 2.2245
7.5624 -3.3166 2.2245
7.7064 -3.0602 2.2245
7.8395 -2.7971 2.2245
7.9615 -2.5276 2.2245
8.0717 -2.2526 2.2245
8.1701 -1.9722 2.2245
8.2561 -1.6873 2.2245
8.3296 -1.3984 2.2245
8.3903 -1.1060 2.2245
8.4380 -0.8108 2.2245
8.4725 -0.5136 2.2245
8.4938 -0.2148 2.2245
8.5016 0.0848 2.2245
8.4961 0.3845 2.2245
8.4771 0.6837 2.2245
8.4448 0.9818 2.2245
8.3991 1.2779 2.2245
8.3403 1.5716 2.2245
8.2685 1.8621 2.2245
8.1839 2.1488 2.2245
8.0868 2.4311 2.2245
7.9774 2.7084 2.2245
7.8561 2.9801 2.2245
7.7232 3.2458 2.2245
7.5792 3.5049 2.2245
7.7752 3.9341 2.3296
7.7563 4.2748 2.3769
7.5692 4.5271 2.3769
7.3720 4.7704 2.3769
7.1653 5.0042 2.3769
6.9496 5.2283 2.3769
6.7256 5.4422 2.3769
6.4937 5.6458 2.3769
6.2545 5.8386 2.3769
6.0086 6.0206 2.3769
5.7568 6.1917 2.3769
5.4994 6.3515 2.3769
5.2371 6.5000 2.3769
4.9705 6.6372 2.3769
4.7001 6.7629 2.3769
4.4264 6.8772 2.3769
4.1502 6.9801 2.3769
3.8718 7.0716 2.3769
3.5918 7.1518 2.3769
3.3107 7.2208 2.3769
3.0290 7.2788 2.3769
2.7472 7.3257 2.3769
0.9115 2.7213 0.8786
0.8136 2.7505 0.8850
0.7146 2.7761 0.8914
0.6149 2.7981 0.8979
-0.5205 2.5873 0.9727
-0.6128 2.5646 0.9788
-0.7042 2.5387 0.9848
-0.7946 2.5094 0.9908
-2.1077 5.9070 2.3769
-2.3042 5.7879 2.3769
-2.4954 5.6633 2.3769
-2.6812 5.5332 2.3769
-2.8616 5.3980 2.3769
-3.0364 5.2579 2.3769
-3.2056 5.1130 2.3769
-3.3690 4.9636 2.3769
-3.5267 4.8099 2.3769
-3.6785 4.6521 2.3769
-3.8245 4.4905 2.3769
-3.9645 4.3251 2.3769
-4.0985 4.1563 2.3769
-4.2265 3.9841 2.3769
-4.3484 3.8089 2.3769
-4.4642 3.6307 2.3769
-4.5739 3.4498 2.3769
-4.6775 3.2663 2.3769
-4.7749 3.0804 2.3769
-4.8661 2.8923 2.3769
-4.9512 2.7022 2.3769
-5.0301 2.5102 2.3769
-5.1027 2.3165 2.3769
-5.1692 2.1212 2.3769
-5.2295 1.9245 2.3769
-5.2835 1.7265 2.3769
-5.3314 1.5275 2.3769
-5.3730 1.3275 2.3769
-5.4085 1.1267 2.3769
-5.4377 0.9253 2.3769
-5.4607 0.7233 2.3769
-5.4776 0.5210 2.3769
-5.4882 0.3185 2.3769
-5.4927 0.1159 2.3769
-5.4910 -0.0867 2.3769
-5.4831 -0.2890 2.3769
-5.4690 -0.4910 2.3769
-5.4489 -0.6925 2.3769
-5.4226 -0.8934 2.3769
-5.3901 -1.0935 2.3769
-5.3515 -1.2927 2.3769
-5.3069 -1.4909 2.3769
-5.2561 -1.6879 2.3769
-5.1992 -1.8835 2.3769
-5.1363 -2.0776 2.3769
-5.0673 -2.2702 2.3769
-4.9923 -2.4609 2.3769
-4.9112 -2.6497 2.3769
-4.8242 -2.8365 2.3769
-4.7312 -3.0210 2.3769
-4.6322 -3.2031 2.3769
-4.5273 -3.3827 2.3769
-4.4165 -3.5595 2.3769
-4.2998 -3.7335 2.3769
-4.1773 -3.9045 2.3769
-4.0490 -4.0722 2.3769
-3.9150 -4.2365 2.3769
-3.7752 -4.3973 2.3769
-3.6298 -4.5543 2.3769
-3.4787 -4.7074 2.3769
-3.3221 -4.8565 2.3769
-3.1601 -5.0012 2.3769
-2.9926 -5.1414 2.3769
-2.8198 -5.2769 2.3769
-2.6417 -5.4076 2.3769
-2.4584 -5.5331 2.3769
-2.2701 -5.6534 2.3769
-2.0768 -5.7682 2.3769
-1.8787 -5.8773 2.3769
-1.6759 -5.9805 2.3769
-1.4684 -6.0776 2.3769
-1.2566 -6.1684 2.3769
-1.0404 -6.2526 2.3769
-0.8201 -6.3300 2.3769
-0.5958 -6.4005 2.3769
-0.3678 -6.4638 2.3769
-0.1362 -6.5196 2.3769
0.0979 -6.5090 2.3556
0.3182 -6.2435 2.2456
0.5407 -6.2150 2.2245
0.7687 -6.2377 2.2245
0.9988 -6.2525 2.2245
1.2309 -6.2592 2.2245
1.4647 -6.2577 2.2245
1.6999 -6.2478 2.2245
1.9361 -6.2293 2.2245
2.1730 -6.2022 2.2245
2.4104 -6.1663 2.2245
2.6478 -6.1214 2.2245
2.8849 -6.0674 2.2245
3.1213 -6.0043 2.2245
3.3567 -5.9319 2.2245
3.5905 -5.8502 2.2245
3.8225 -5.7592 2.2245
4.0522 -5.6588 2.2245
4.2792 -5.5491 2.2245
4.5029 -5.4299 2.2245
4.7230 -5.3015 2.2245
4.9391 -5.1637 2.2245
5.1506 -5.0168 2.2245
5.3571 -4.8608 2.2245
5.5580 -4.6959 2.2245
5.7531 -4.5222 2.2245
5.9418 -4.3399 2.2245
6.1235 -4.1493 2.2245
6.2980 -3.9505 2.2245
6.4647 -3.7439 2.2245
6.6232 -3.5298 2.2245
6.7731 -3.3085 2.2245
6.9139 -3.0803 2.2245
7.0454 -2.8457 2.2245
7.1670 -2.6050 2.2245
7.2785 -2.3587 2.2245
7.3795 -2.1073 2.2245
7.4698 -1.8513 2.2245
7.5491 -1.5910 2.2245
7.6170 -1.3271 2.2245
7.6735 -1.0602 2.2245
7.7183 -0.7907 2.2245
7.7512 -0.5192 2.2245
7.7723 -0.2463 2.2245
7.7813 0.0274 2.2245
7.7783 0.3013 2.2245
7.7632 0.5748 2.2245
7.7360 0.8474 2.2245
7.6970 1.1185 2.2245
7.6460 1.3875 2.2245
7.5833 1.6537 2.2245
7.5091 1.9167 2.2245
7.4236 2.1759 2.2245
7.3270 2.4308 2.2245
7.2195 2.6809 2.2245
7.1014 2.9255 2.2245
7.3256 3.3243 2.3369
7.3034 3.6298 2.3769
7.1458 3.8712 2.3769
6.9784 4.1050 2.3769
6.8017 4.3309 2.3769
6.6163 4.5484 2.3769
6.4225 4.7572 2.3769
6.2208 4.9571 2.3769
6.0118 5.1477 2.3769
5.7960 5.3289 2.3769
5.5738 5.5003 2.3769
5.3458 5.6618 2.3769
5.1125 5.8133 2.3769
4.8744 5.9546 2.3769
4.6321 6.0857 2.3769
4.3860 6.2064 2.3769
4.1366 6.3168 2.3769
3.8844 6.4168 2.3769
3.6300 6.5065 2.3769
3.3737 6.5858 2.3769
3.1161 6.6549 2.3769
2.8576 6.7138 2.3769
0.9577 2.4924 0.8760
