ply
format ascii 1.0
element vertex 2165
property float32 x
property float32 y
property float32 z
end_header
0.6656 3.2798 0.9560
0.5474 3.3019 0.9562
0.4285 3.3197 0.9563
0.3090 3.3333 0.9564
0.1890 3.3425 0.9565
0.0688 3.3473 0.9566
-0.0515 3.3478 0.9567
-0.1717 3.3440 0.9567
-0.2918 3.3358 0.9567
-0.4114 3.3233 0.9567
-0.5306 3.3064 0.9567
-0.6490 3.2853 0.9566
-0.7666 3.2598 0.9566
-0.8832 3.2302 0.9565
-2.4936 7.9806 2.3880
-2.7790 7.8867 2.3880
-3.0609 7.7827 2.3880
-3.3389 7.6687 2.3880
-3.6127 7.5448 2.3880
-3.8820 7.4113 2.3880
-4.1464 7.2682 2.3880
-4.4056 7.1157 2.3880
-4.6592 6.9541 2.3880
-4.9069 6.7836 2.3880
-5.1485 6.6042 2.3880
-5.3835 6.4164 2.3880
-5.6117 6.2202 2.3880
-5.8328 6.0160 2.3880
-6.0466 5.8040 2.3880
-6.2527 5.5844 2.3880
-6.4508 5.3575 2.3880
-6.6408 5.1237 2.3880
-6.8224 4.8832 2.3880
-6.9953 4.6363 2.3880
-7.1593 4.3833 2.3880
-7.3142 4.1245 2.3880
-7.4598 3.8603 2.3880
-7.5959 3.5910 2.3880
-7.7222 3.3169 2.3880
-7.8388 3.0384 2.3880
-7.9453 2.7558 2.3880
-8.0417 2.4694 2.3880
-8.1278 2.1798 2.3880
-8.2035 1.8871 2.3880
-8.2686 1.5919 2.3880
-8.3232 1.2944 2.3880
-8.3670 0.9950 2.3880
-8.4002 0.6942 2.3880
-8.4225 0.3923 2.3880
-8.4339 0.0897 2.3880
-8.4345 -0.2132 2.3880
-8.4242 -0.5161 2.3880
-8.4031 -0.8185 2.3880
-8.3710 -1.1200 2.3880
-8.3282 -1.4202 2.3880
-8.2746 -1.7188 2.3880
-8.2102 -2.0154 2.3880
-8.1352 -2.3095 2.3880
-8.0496 -2.6009 2.3880
-7.9536 -2.8891 2.3880
-7.8472 -3.1737 2.3880
-7.7306 -3.4543 2.3880
-7.6039 -3.7307 2.3880
-7.4674 -4.0024 2.3880
-7.3210 -4.2691 2.3880
-7.1652 -4.5304 2.3880
-6.9999 -4.7859 2.3880
-6.8255 -5.0354 2.3880
-6.6422 -5.2785 2.3880
-6.4501 -5.5149 2.3879
-6.2496 -5.7443 2.3880
-6.0409 -5.9663 2.3880
-5.8243 -6.1807 2.3880
-5.6000 -6.3871 2.3880
-5.3684 -6.5854 2.3880
-5.1297 -6.7752 2.3880
-4.8843 -6.9562 2.3880
-4.6324 -7.1284 2.3880
-4.3744 -7.2913 2.3880
-4.1107 -7.4448 2.3880
-3.8415 -7.5887 2.3880
-3.5673 -7.7228 2.3880
-3.2883 -7.8468 2.3880
-3.0050 -7.9608 2.3880
-2.7178 -8.0644 2.3880
-2.4270 -8.1575 2.3880
-2.1329 -8.2401 2.3880
-1.8360 -8.3119 2.3880
-1.5367 -8.3730 2.3880
-1.2354 -8.4232 2.3880
-0.9325 -8.4625 2.3880
-0.6283 -8.4908 2.3880
-0.3232 -8.5080 2.3880
-0.0178 -8.5142 2.3880
0.2877 -8.5093 2.3880
0.5928 -8.4933 2.3880
0.8971 -8.4664 2.3880
1.2002 -8.4284 2.3880
1.5018 -8.3794 2.3880
1.8013 -8.3196 2.3880
2.0985 -8.2490 2.3880
2.3929 -8.1677 2.3880
2.6841 -8.0758 2.3880
2.9718 -7.9734 2.3879
3.2556 -7.8606 2.3879
3.5350 -7.7377 2.3879
3.8098 -7.6048 2.3879
4.0796 -7.4620 2.3879
4.3440 -7.3096 2.3879
4.6027 -7.1478 2.3879
4.5454 -6.5315 2.2355
4.7759 -6.3629 2.2355
5.0001 -6.1862 2.2355
5.2177 -6.0015 2.2355
5.4285 -5.8091 2.2355
5.6322 -5.6093 2.2355
5.0323 -4.6643 1.9302
5.1883 -4.4737 1.9277
6.1977 -4.9677 2.2355
6.3703 -4.7409 2.2355
6.5346 -4.5080 2.2355
6.6963 -4.2732 2.2375
6.8396 -4.0267 2.2363
6.9769 -3.7771 2.2361
7.1097 -3.5252 2.2373
7.2336 -3.2686 2.2385
7.3482 -3.0077 2.2398
7.4525 -2.7424 2.2409
7.5439 -2.4724 2.2409
7.6253 -2.1993 2.2409
7.6969 -1.9235 2.2409
7.7584 -1.6455 2.2409
7.8099 -1.3655 2.2409
7.8513 -1.0839 2.2409
7.8826 -0.8010 2.2409
7.9036 -0.5174 2.2409
7.9145 -0.2332 2.2409
7.9151 0.0511 2.2409
7.2692 0.3081 2.0605
5.5401 0.4345 1.5743
5.5507 0.6366 1.5833
5.5614 0.8411 1.5945
6.2482 1.1758 1.8030
6.2606 1.4127 1.8206
6.2733 1.6543 1.8410
6.2862 1.9016 1.8642
6.2995 2.1554 1.8905
6.3132 2.4167 1.9201
6.3274 2.6864 1.9531
6.3420 2.9658 1.9898
6.3572 3.2561 2.0306
6.3731 3.5588 2.0758
6.3897 3.8754 2.1258
6.4071 4.2080 2.1811
6.4215 4.5558 2.2409
6.2521 4.7822 2.2409
6.0747 5.0024 2.2409
5.8896 5.2160 2.2409
5.6970 5.4228 2.2409
5.4963 5.6217 2.2405
5.2887 5.8131 2.2401
5.0745 5.9970 2.2397
4.8539 6.1730 2.2393
4.6273 6.3409 2.2389
4.3948 6.5006 2.2385
4.1569 6.6518 2.2380
3.9138 6.7943 2.2376
3.6659 6.9280 2.2371
3.4134 7.0527 2.2367
3.1568 7.1683 2.2362
2.8962 7.2746 2.2357
2.6445 7.4060 2.2457
2.5270 7.9702 2.3880
0.8960 3.2237 0.9557
0.7797 3.2542 0.9559
0.6623 3.2804 0.9560
0.5441 3.3025 0.9562
0.4251 3.3202 0.9563
0.3056 3.3336 0.9564
0.1857 3.3427 0.9565
0.0655 3.3474 0.9566
-0.0548 3.3478 0.9567
-0.1751 3.3438 0.9567
-0.2951 3.3355 0.9567
-0.4148 3.3228 0.9567
-0.5339 3.3059 0.9567
-0.6523 3.2846 0.9566
-0.7699 3.2590 0.9566
-0.8865 3.2293 0.9565
-2.5017 7.9781 2.3880
-2.7869 7.8839 2.3880
-3.0687 7.7796 2.3880
-3.3467 7.6653 2.3880
-3.6204 7.5412 2.3880
-3.8895 7.4074 2.3880
-4.1538 7.2640 2.3880
-4.4128 7.1113 2.3880
-4.6663 6.9495 2.3880
-4.9138 6.7786 2.3880
-5.1552 6.5991 2.3880
-5.3900 6.4109 2.3880
-5.6180 6.2146 2.3880
-5.8390 6.0101 2.3880
-6.0525 5.7979 2.3880
-6.2584 5.5781 2.3880
-6.4563 5.3511 2.3880
-6.6461 5.1170 2.3880
-6.8274 4.8763 2.3880
-7.0000 4.6292 2.3880
-7.1638 4.3761 2.3880
-7.3184 4.1171 2.3880
-7.4637 3.8528 2.3880
-7.5995 3.5833 2.3880
-7.7257 3.3091 2.3880
-7.8419 3.0305 2.3880
-7.9482 2.7477 2.3880
-8.0443 2.4613 2.3880
-8.1301 2.1716 2.3880
-8.2054 1.8789 2.3880
-8.2703 1.5835 2.3880
-8.3246 1.2860 2.3880
-8.3681 0.9866 2.3880
-8.4009 0.6857 2.3880
-8.4229 0.3838 2.3880
-8.4341 0.0811 2.3880
-8.4344 -0.2218 2.3880
-8.4238 -0.5246 2.3880
-8.4023 -0.8270 2.3880
-8.3700 -1.1284 2.3880
-8.3268 -1.4286 2.3880
-8.2729 -1.7272 2.3880
-8.2082 -2.0237 2.3880
-8.1329 -2.3178 2.3880
-8.0470 -2.6091 2.3880
-7.9507 -2.8971 2.3880
-7.8441 -3.1816 2.3880
-7.7272 -3.4622 2.3880
-7.6002 -3.7384 2.3880
-7.4634 -4.0100 2.3880
-7.3168 -4.2765 2.3880
-7.1606 -4.5376 2.3880
-6.9951 -4.7930 2.3880
-6.8205 -5.0424 2.3880
-6.6369 -5.2853 2.3880
-6.4445 -5.5215 2.3879
-6.2439 -5.7506 2.3880
-6.0349 -5.9724 2.3880
-5.8181 -6.1866 2.3880
-5.5936 -6.3928 2.3880
-5.3618 -6.5908 2.3880
-5.1229 -6.7804 2.3880
-4.8773 -6.9612 2.3880
-4.6252 -7.1331 2.3880
-4.3671 -7.2957 2.3880
-4.1032 -7.4490 2.3880
-3.8339 -7.5926 2.3880
-3.5595 -7.7264 2.3880
-3.2804 -7.8502 2.3880
-2.9970 -7.9638 2.3880
-2.7097 -8.0671 2.3880
-2.4187 -8.1600 2.3880
-2.1246 -8.2422 2.3880
-1.8277 -8.3138 2.3880
-1.5283 -8.3746 2.3880
-1.2269 -8.4245 2.3880
-0.9239 -8.4634 2.3880
-0.6197 -8.4914 2.3880
-0.3146 -8.5083 2.3880
-0.0092 -8.5142 2.3880
0.2963 -8.5090 2.3880
0.6014 -8.4927 2.3880
0.9056 -8.4654 2.3880
1.2087 -8.4271 2.3880
1.5102 -8.3779 2.3880
-7.6098 1.4726 2.3880
-7.6601 1.1987 2.3880
-7.7006 0.9232 2.3880
-7.7312 0.6463 2.3880
-7.7518 0.3684 2.3880
-7.7624 0.0899 2.3880
-7.7631 -0.1889 2.3880
-7.7537 -0.4676 2.3880
-7.7343 -0.7459 2.3880
-7.7049 -1.0234 2.3880
-7.6656 -1.2997 2.3880
-7.6163 -1.5745 2.3880
-7.5572 -1.8475 2.3880
-7.4882 -2.1182 2.3880
-7.4096 -2.3863 2.3880
-7.3213 -2.6515 2.3880
-7.2235 -2.9134 2.3880
-7.1164 -3.1717 2.3880
-6.9999 -3.4260 2.3880
-6.8743 -3.6761 2.3880
-6.7398 -3.9215 2.3880
-6.5965 -4.1620 2.3880
-6.4446 -4.3971 2.3880
-6.2842 -4.6268 2.3880
-6.1157 -4.8505 2.3880
-5.9391 -5.0681 2.3880
-5.7548 -5.2791 2.3880
-5.5628 -5.4835 2.3879
-5.3637 -5.6808 2.3879
-5.1574 -5.8708 2.3880
-4.9445 -6.0533 2.3880
-4.7250 -6.2281 2.3880
-4.4994 -6.3948 2.3880
-4.2678 -6.5532 2.3880
-4.0306 -6.7033 2.3880
-3.7880 -6.8446 2.3880
-3.5406 -6.9771 2.3880
-3.2884 -7.1006 2.3880
-3.0319 -7.2150 2.3880
-2.7714 -7.3199 2.3880
-2.5073 -7.4155 2.3880
-2.2399 -7.5013 2.3880
-1.9695 -7.5775 2.3880
-1.6965 -7.6439 2.3880
-1.4212 -7.7003 2.3880
-1.1441 -7.7467 2.3880
-0.8655 -7.7831 2.3880
-0.5857 -7.8093 2.3880
-0.3052 -7.8255 2.3880
-0.0243 -7.8314 2.3880
0.2567 -7.8272 2.3880
0.5373 -7.8128 2.3880
0.8173 -7.7883 2.3880
1.0961 -7.7537 2.3880
1.3735 -7.7090 2.3880
1.6491 -7.6543 2.3880
1.9225 -7.5897 2.3880
2.1933 -7.5152 2.3880
2.4613 -7.4310 2.3880
2.7261 -7.3371 2.3880
2.9872 -7.2333 2.3879
3.2444 -7.1211 2.3879
3.4973 -6.9991 2.3879
3.7456 -6.8681 2.3879
3.9890 -6.7283 2.3879
3.9594 -6.1629 2.2367
4.1751 -6.0128 2.2355
4.3874 -5.8581 2.2355
4.5939 -5.6958 2.2355
4.7943 -5.5262 2.2355
4.9885 -5.3495 2.2355
5.1761 -5.1659 2.2355
5.0350 -4.6767 2.1012
5.1795 -4.4757 2.0936
5.6973 -4.5765 2.2355
5.8564 -4.3681 2.2355
6.0079 -4.1540 2.2355
6.1519 -3.9350 2.2357
6.2878 -3.7109 2.2358
6.4185 -3.4836 2.2369
6.5409 -3.2518 2.2381
6.6550 -3.0157 2.2393
6.7606 -2.7756 2.2405
6.8552 -2.5309 2.2409
6.9396 -2.2825 2.2409
7.0150 -2.0314 2.2409
7.0812 -1.7777 2.2409
7.1383 -1.5219 2.2409
7.1862 -1.2643 2.2409
7.2247 -1.0052 2.2409
7.2539 -0.7450 2.2409
7.2737 -0.4840 2.2409
7.2841 -0.2224 2.2409
7.2851 0.0392 2.2409
7.2768 0.3006 2.2409
5.5398 0.4285 1.7102
5.5504 0.6305 1.7198
5.5611 0.8349 1.7319
5.5720 1.0424 1.7463
6.2602 1.4055 1.9772
6.2729 1.6471 1.9992
6.2858 1.8942 2.0243
6.2991 2.1478 2.0527
6.3128 2.4088 2.0847
6.3269 2.6783 2.1203
6.3416 2.9574 2.1601
6.4626 3.3014 2.2409
6.3381 3.5304 2.2409
6.2056 3.7547 2.2409
6.0651 3.9742 2.2409
5.9169 4.1884 2.2409
5.7613 4.3971 2.2409
5.5979 4.5998 2.2408
5.4270 4.7961 2.2404
5.2493 4.9861 2.2401
5.0649 5.1695 2.2398
4.8741 5.3461 2.2394
4.6772 5.5157 2.2390
4.4744 5.6781 2.2387
4.2660 5.8331 2.2383
4.0523 5.9804 2.2379
3.8335 6.1200 2.2375
3.6099 6.2517 2.2371
3.3819 6.3752 2.2367
3.1496 6.4904 2.2363
2.9135 6.5973 2.2358
2.6739 6.6961 2.2356
2.5971 7.2498 2.3880
0.9330 2.9324 0.9543
0.8272 2.9644 0.9545
0.7202 2.9925 0.9547
0.6123 3.0167 0.9548
0.5036 3.0371 0.9550
0.3942 3.0535 0.9551
0.2842 3.0659 0.9552
0.1739 3.0743 0.9553
0.0633 3.0788 0.9554
-0.0473 3.0792 0.9554
-0.1579 3.0757 0.9555
-0.2684 3.0681 0.9555
-0.3784 3.0566 0.9555
-0.4880 3.0411 0.9554
-0.5970 3.0216 0.9554
-0.7051 2.9982 0.9553
-0.8124 2.9710 0.9553
-2.2966 7.3496 2.3880
-2.5594 7.2631 2.3880
-2.8190 7.1672 2.3880
-3.0750 7.0621 2.3880
-3.3272 6.9480 2.3880
-3.5751 6.8249 2.3880
-3.8186 6.6931 2.3880
-4.0572 6.5526 2.3880
-4.2907 6.4037 2.3880
-4.5188 6.2465 2.3880
-4.7411 6.0813 2.3880
-4.9575 5.9082 2.3880
-5.1676 5.7275 2.3880
-5.3711 5.5394 2.3880
-5.5679 5.3439 2.3880
-5.7575 5.1417 2.3880
-5.9399 4.9327 2.3880
-6.1147 4.7173 2.3880
-6.2818 4.4958 2.3880
-6.4408 4.2683 2.3880
-6.5917 4.0353 2.3880
-6.7342 3.7970 2.3880
-6.8681 3.5536 2.3880
-6.9932 3.3056 2.3880
-7.1094 3.0532 2.3880
-7.2166 2.7967 2.3880
-7.3145 2.5365 2.3880
-7.4030 2.2729 2.3880
-7.4821 2.0062 2.3880
-7.5516 1.7367 2.3880
-7.6114 1.4649 2.3880
-7.6614 1.1910 2.3880
-7.7016 0.9154 2.3880
-7.7319 0.6385 2.3880
-7.7522 0.3606 2.3880
-7.7626 0.0821 2.3880
-7.7629 -0.1967 2.3880
-7.7533 -0.4754 2.3880
-7.7336 -0.7537 2.3880
-7.7040 -1.0312 2.3880
-7.6643 -1.3075 2.3880
-7.6148 -1.5822 2.3880
-7.5554 -1.8551 2.3880
-7.4862 -2.1258 2.3880
-7.4073 -2.3938 2.3880
-7.3187 -2.6589 2.3880
-7.2207 -2.9207 2.3880
-7.1132 -3.1789 2.3880
-6.9965 -3.4331 2.3880
-6.8707 -3.6831 2.3880
-6.7359 -3.9283 2.3880
-6.5923 -4.1687 2.3880
-6.4402 -4.4037 2.3880
-6.2796 -4.6331 2.3880
-6.1108 -4.8567 2.3880
-5.9340 -5.0741 2.3880
-5.7496 -5.2850 2.3880
-5.5574 -5.4891 2.3879
-5.3580 -5.6863 2.3879
-5.1515 -5.8761 2.3880
-4.9384 -6.0584 2.3880
-4.7188 -6.2329 2.3880
-4.4929 -6.3993 2.3880
-4.2612 -6.5576 2.3880
-4.0238 -6.7074 2.3880
-3.7811 -6.8485 2.3880
-3.5335 -6.9807 2.3880
-3.2812 -7.1040 2.3880
-3.0246 -7.2181 2.3880
-2.7640 -7.3228 2.3880
-2.4998 -7.4180 2.3880
-2.2323 -7.5036 2.3880
-1.9618 -7.5795 2.3880
-1.6887 -7.6456 2.3880
-1.4135 -7.7017 2.3880
-1.1363 -7.7479 2.3880
-0.8576 -7.7839 2.3880
-0.5779 -7.8099 2.3880
-0.2973 -7.8258 2.3880
-0.0164 -7.8314 2.3880
0.2646 -7.8269 2.3880
0.5452 -7.8123 2.3880
0.8251 -7.7875 2.3880
1.1039 -7.7526 2.3880
1.3813 -7.7076 2.3880
1.6568 -7.6526 2.3880
1.9301 -7.5877 2.3880
2.2009 -7.5130 2.3880
2.4688 -7.4285 2.3880
2.7334 -7.3344 2.3880
2.9945 -7.2306 2.3879
3.2516 -7.1177 2.3879
3.5044 -6.9956 2.3879
3.7526 -6.8643 2.3879
3.9958 -6.7242 2.3879
3.9721 -6.1690 2.2403
4.1812 -6.0086 2.2355
4.3933 -5.8536 2.2355
4.5996 -5.6911 2.2355
4.7999 -5.5213 2.2355
4.9939 -5.3444 2.2355
5.1813 -5.1606 2.2355
5.0324 -4.6648 2.0982
5.1880 -4.4738 2.0952
5.7019 -4.5707 2.2355
5.8608 -4.3621 2.2355
6.0120 -4.1479 2.2355
6.1559 -3.9288 2.2357
6.2916 -3.7045 2.2358
6.4220 -3.4772 2.2370
6.5443 -3.2452 2.2381
6.6581 -3.0090 2.2393
6.7635 -2.7688 2.2405
6.8577 -2.5239 2.2409
6.9418 -2.2755 2.2409
7.0170 -2.0243 2.2409
7.0830 -1.7706 2.2409
7.1398 -1.5147 2.2409
7.1874 -1.2570 2.2409
7.2256 -0.9979 2.2409
7.2546 -0.7377 2.2409
7.2741 -0.4766 2.2409
7.2843 -0.2151 2.2409
7.2850 0.0466 2.2409
7.2764 0.3080 2.2409
5.5401 0.4342 1.7104
5.5507 0.6362 1.7202
5.5614 0.8407 1.7323
6.2482 1.1754 1.9587
6.2606 1.4123 1.9778
6.2732 1.6539 1.9999
6.2862 1.9012 2.0251
6.2995 2.1551 2.0536
6.3132 2.4163 2.0856
6.3273 2.6860 2.1214
6.3420 2.9654 2.1613
6.4592 3.3079 2.2409
6.3345 3.5368 2.2409
6.2017 3.7610 2.2409
6.0610 3.9803 2.2409
5.9127 4.1943 2.2409
5.7568 4.4029 2.2409
5.5932 4.6054 2.2408
5.4221 4.8015 2.2404
5.2442 4.9913 2.2401
5.0596 5.1745 2.2398
4.8686 5.3510 2.2394
4.6716 5.5203 2.2390
4.4686 5.6826 2.2387
4.2601 5.8373 2.2383
4.0462 5.9845 2.2379
3.8273 6.1239 2.2375
3.6036 6.2553 2.2371
3.3754 6.3785 2.2367
3.1430 6.4935 2.2362
2.9068 6.6002 2.2358
2.6672 6.6987 2.2356
2.5898 7.2524 2.3880
0.9301 2.9333 0.9543
0.8242 2.9652 0.9545
0.7172 2.9932 0.9547
0.6093 3.0174 0.9548
0.5005 3.0376 0.9550
0.3911 3.0539 0.9551
0.2811 3.0662 0.9552
0.1708 3.0745 0.9553
0.0602 3.0789 0.9554
-0.0504 3.0792 0.9554
-0.1611 3.0755 0.9555
-0.2715 3.0679 0.9555
-0.3815 3.0562 0.9555
-0.4911 3.0406 0.9554
-0.6000 3.0210 0.9554
-0.7082 2.9975 0.9553
-0.8154 2.9701 0.9553
-2.3040 7.3473 2.3880
-2.5667 7.2605 2.3880
-2.8262 7.1644 2.3880
-3.0822 7.0591 2.3880
-3.3342 6.9447 2.3880
-3.5821 6.8213 2.3880
-3.8254 6.6892 2.3880
-4.0639 6.5485 2.3880
-4.2972 6.3994 2.3880
-4.5251 6.2420 2.3880
-4.7473 6.0765 2.3880
-4.9635 5.9032 2.3880
-5.1734 5.7223 2.3880
-5.3768 5.5339 2.3880
-5.5733 5.3383 2.3880
-5.7628 5.1359 2.3880
-5.9449 4.9267 2.3880
-6.1195 4.7112 2.3880
-6.2864 4.4895 2.3880
-6.4452 4.2619 2.3880
-6.5958 4.0287 2.3880
-6.7381 3.7902 2.3880
-6.8717 3.5467 2.3880
-6.9966 3.2986 2.3880
-7.1126 3.0460 2.3880
-7.2194 2.7894 2.3880
-7.3171 2.5291 2.3880
-7.4054 2.2654 2.3880
-7.4842 1.9986 2.3880
-7.5534 1.7291 2.3880
-7.6129 1.4572 2.3880
-7.6627 1.1833 2.3880
-7.7026 0.9077 2.3880
-7.7326 0.6307 2.3880
-7.7527 0.3528 2.3880
-7.7627 0.0742 2.3880
-7.7628 -0.2046 2.3880
-7.7529 -0.4833 2.3880
-7.7329 -0.7615 2.3880
-7.7030 -1.0390 2.3880
-7.6631 -1.3152 2.3880
-7.6132 -1.5899 2.3880
-7.5536 -1.8628 2.3880
-7.4841 -2.1334 2.3880
-7.4049 -2.4013 2.3880
-7.3161 -2.6663 2.3880
-7.2178 -2.9281 2.3880
-7.1100 -3.1861 2.3880
-6.9931 -3.4402 2.3880
-6.8670 -3.6900 2.3880
-6.7320 -3.9352 2.3880
-6.5882 -4.1753 2.3880
-6.4358 -4.4102 2.3880
-6.2749 -4.6395 2.3880
-6.1059 -4.8629 2.3880
-5.9289 -5.0801 2.3880
-5.7441 -5.2908 2.3880
-5.5518 -5.4948 2.3879
-5.3522 -5.6917 2.3879
-5.1456 -5.8813 2.3880
-4.9323 -6.0634 2.3880
-4.7125 -6.2377 2.3880
-4.4865 -6.4039 2.3880
-4.2546 -6.5619 2.3880
-4.0170 -6.7114 2.3880
-3.7742 -6.8523 2.3880
-3.5265 -6.9843 2.3880
-3.2741 -7.1073 2.3880
-3.0174 -7.2211 2.3880
-2.7566 -7.3256 2.3880
-2.4923 -7.4205 2.3880
-2.2247 -7.5059 2.3880
-1.9542 -7.5815 2.3880
-1.6810 -7.6473 2.3880
-1.4057 -7.7032 2.3880
-1.1285 -7.7490 2.3880
-0.8498 -7.7848 2.3880
-0.5700 -7.8105 2.3880
-0.2894 -7.8261 2.3880
-0.0084 -7.8315 2.3880
0.2725 -7.8267 2.3880
0.5531 -7.8117 2.3880
0.8330 -7.7866 2.3880
1.1117 -7.7514 2.3880
1.3891 -7.7062 2.3880
-7.0422 1.3623 2.3880
-7.0886 1.1089 2.3880
-7.1260 0.8539 2.3880
-7.1541 0.5976 2.3880
-7.1730 0.3405 2.3880
-7.1827 0.0828 2.3880
-7.1832 -0.1752 2.3880
-7.1743 -0.4331 2.3880
-7.1562 -0.6906 2.3880
-7.1289 -0.9473 2.3880
-7.0923 -1.2029 2.3880
-7.0466 -1.4572 2.3880
-6.9918 -1.7097 2.3880
-6.9278 -1.9601 2.3880
-6.8549 -2.2081 2.3880
-6.7731 -2.4534 2.3880
-6.6825 -2.6957 2.3880
-6.5833 -2.9345 2.3880
-6.4754 -3.1698 2.3880
-6.3591 -3.4010 2.3880
-6.2346 -3.6280 2.3880
-6.1019 -3.8503 2.3880
-5.9612 -4.0678 2.3880
-5.8128 -4.2801 2.3880
-5.6568 -4.4870 2.3880
-5.4934 -4.6882 2.3880
-5.3228 -4.8833 2.3880
-5.1452 -5.0722 2.3880
-4.9609 -5.2547 2.3880
-4.7701 -5.4304 2.3880
-4.5731 -5.5991 2.3879
-4.3700 -5.7606 2.3879
-4.1613 -5.9147 2.3879
-3.9470 -6.0612 2.3880
-3.7276 -6.1999 2.3880
-3.5033 -6.3305 2.3880
-3.2744 -6.4530 2.3880
-3.0412 -6.5672 2.3880
-2.8039 -6.6729 2.3880
-2.5630 -6.7699 2.3880
-2.3187 -6.8582 2.3880
-2.0714 -6.9376 2.3880
-1.8213 -7.0080 2.3880
-1.5688 -7.0693 2.3880
-1.3143 -7.1214 2.3880
-1.0580 -7.1643 2.3880
-0.8004 -7.1979 2.3880
-0.5417 -7.2222 2.3880
-0.2822 -7.2371 2.3880
-0.0224 -7.2426 2.3880
0.2374 -7.2387 2.3880
0.4969 -7.2255 2.3880
0.7558 -7.2028 2.3880
1.0136 -7.1708 2.3880
1.2702 -7.1295 2.3880
1.5250 -7.0789 2.3880
1.7779 -7.0192 2.3880
2.0284 -6.9504 2.3880
2.2762 -6.8725 2.3880
2.5210 -6.7858 2.3879
2.7626 -6.6902 2.3879
3.0004 -6.5861 2.3879
3.2344 -6.4734 2.3879
3.4641 -6.3523 2.3879
3.4538 -5.8259 2.2355
3.6600 -5.6973 2.2355
3.8614 -5.5614 2.2355
4.0578 -5.4184 2.2355
4.2488 -5.2684 2.2355
4.4343 -5.1116 2.2355
4.6139 -4.9482 2.2355
4.7875 -4.7785 2.2355
4.9548 -4.6026 2.2355
5.1157 -4.4209 2.2355
5.2698 -4.2336 2.2355
5.4171 -4.0408 2.2355
5.5573 -3.8429 2.2355
5.6902 -3.6401 2.2355
5.8188 -3.4345 2.2367
5.9396 -3.2242 2.2378
6.0528 -3.0096 2.2389
6.1583 -2.7910 2.2400
6.2555 -2.5686 2.2409
6.3419 -2.3418 2.2409
6.4201 -2.1121 2.2409
6.4900 -1.8797 2.2409
6.5514 -1.6451 2.2409
6.6044 -1.4085 2.2409
6.6488 -1.1702 2.2409
6.6845 -0.9305 2.2409
6.7117 -0.6897 2.2409
6.7302 -0.4482 2.2409
6.7400 -0.2062 2.2409
6.7410 0.0359 2.2409
6.7334 0.2778 2.2409
5.5398 0.4282 1.8481
5.5504 0.6302 1.8585
5.5611 0.8346 1.8715
5.5720 1.0421 1.8871
6.2602 1.4052 2.1365
6.2729 1.6467 2.1602
6.2858 1.8938 2.1873
6.3642 2.1696 2.2409
6.2804 2.3961 2.2409
6.1886 2.6194 2.2409
6.0890 2.8392 2.2409
5.9815 3.0552 2.2409
5.8664 3.2672 2.2409
5.7438 3.4750 2.2409
5.6139 3.6781 2.2409
5.4762 3.8759 2.2406
5.3315 4.0687 2.2403
5.1801 4.2561 2.2400
5.0221 4.4378 2.2398
4.8577 4.6137 2.2394
4.6872 4.7836 2.2391
4.5108 4.9472 2.2388
4.3287 5.1043 2.2385
4.1411 5.2547 2.2381
3.9483 5.3983 2.2378
3.7506 5.5348 2.2374
3.5482 5.6642 2.2370
3.3413 5.7861 2.2367
3.1303 5.9006 2.2363
2.9154 6.0074 2.2359
2.6970 6.1067 2.2356
2.5793 6.4586 2.3292
2.4045 6.7116 2.3880
0.8629 2.7119 0.9533
0.7650 2.7414 0.9535
0.6661 2.7674 0.9537
0.5663 2.7898 0.9538
0.4657 2.8086 0.9539
0.3645 2.8238 0.9541
0.2629 2.8352 0.9542
0.1608 2.8430 0.9542
0.0586 2.8471 0.9543
-0.0438 2.8476 0.9544
-0.1461 2.8443 0.9544
-0.2482 2.8373 0.9544
-0.3500 2.8266 0.9544
-0.4513 2.8123 0.9544
-0.5521 2.7943 0.9543
-0.6521 2.7726 0.9543
-0.7513 2.7474 0.9542
-0.8495 2.7186 0.9541
-2.3695 6.7239 2.3880
-2.6099 6.6351 2.3880
-2.8469 6.5378 2.3880
-3.0803 6.4320 2.3880
-3.3098 6.3180 2.3880
-3.5352 6.1959 2.3880
-3.7561 6.0658 2.3880
-3.9722 5.9279 2.3880
-4.1833 5.7823 2.3880
-4.3891 5.6293 2.3880
-4.5893 5.4690 2.3880
-4.7837 5.3016 2.3880
-4.9721 5.1273 2.3880
-5.1541 4.9464 2.3880
-5.3296 4.7591 2.3880
-5.4983 4.5656 2.3880
-5.6600 4.3661 2.3880
-5.8146 4.1610 2.3880
-5.9617 3.9504 2.3880
-6.1012 3.7346 2.3880
-6.2330 3.5140 2.3880
-6.3568 3.2887 2.3880
-6.4725 3.0590 2.3880
-6.5799 2.8254 2.3880
-6.6790 2.5879 2.3880
-6.7695 2.3471 2.3880
-6.8513 2.1030 2.3880
-6.9243 1.8562 2.3880
-6.9885 1.6068 2.3880
-7.0437 1.3552 2.3880
-7.0898 1.1017 2.3880
-7.1269 0.8467 2.3880
-7.1547 0.5904 2.3880
-7.1734 0.3332 2.3880
-7.1829 0.0755 2.3880
-7.1830 -0.1825 2.3880
-7.1739 -0.4403 2.3880
-7.1556 -0.6978 2.3880
-7.1280 -0.9545 2.3880
-7.0912 -1.2101 2.3880
-7.0452 -1.4643 2.3880
-6.9901 -1.7168 2.3880
-6.9259 -1.9671 2.3880
-6.8528 -2.2150 2.3880
-6.7707 -2.4603 2.3880
-6.6799 -2.7024 2.3880
-6.5803 -2.9412 2.3880
-6.4723 -3.1763 2.3880
-6.3557 -3.4075 2.3880
-6.2310 -3.6343 2.3880
-6.0980 -3.8565 2.3880
-5.9572 -4.0739 2.3880
-5.8085 -4.2860 2.3880
-5.6523 -4.4927 2.3880
-5.4887 -4.6937 2.3880
-5.3179 -4.8887 2.3880
-5.1401 -5.0775 2.3880
-4.9556 -5.2597 2.3880
-4.7647 -5.4352 2.3880
-4.5674 -5.6037 2.3879
-4.3642 -5.7650 2.3879
-4.1553 -5.9189 2.3879
-3.9409 -6.0652 2.3880
-3.7214 -6.2037 2.3880
-3.4969 -6.3341 2.3880
-3.2679 -6.4564 2.3880
-3.0345 -6.5703 2.3880
-2.7972 -6.6757 2.3880
-2.5562 -6.7725 2.3880
-2.3118 -6.8605 2.3880
-2.0644 -6.9397 2.3880
-1.8142 -7.0098 2.3880
-1.5617 -7.0709 2.3880
-1.3071 -7.1227 2.3880
-1.0508 -7.1654 2.3880
-0.7931 -7.1987 2.3880
-0.5344 -7.2228 2.3880
-0.2749 -7.2374 2.3880
-0.0151 -7.2426 2.3880
0.2447 -7.2385 2.3880
0.5042 -7.2249 2.3880
0.7630 -7.2020 2.3880
1.0209 -7.1698 2.3880
1.2774 -7.1282 2.3880
1.5322 -7.0774 2.3880
1.7850 -7.0174 2.3880
2.0354 -6.9483 2.3880
2.2831 -6.8702 2.3880
2.5279 -6.7832 2.3879
2.7693 -6.6874 2.3879
3.0071 -6.5830 2.3879
3.2409 -6.4701 2.3879
3.4705 -6.3488 2.3879
3.4596 -5.8223 2.2355
3.6657 -5.6936 2.2355
3.8670 -5.5575 2.2355
4.0632 -5.4143 2.2355
4.2541 -5.2640 2.2355
4.4394 -5.1070 2.2355
4.6189 -4.9435 2.2355
4.7923 -4.7736 2.2355
4.9594 -4.5976 2.2355
5.1201 -4.4157 2.2355
5.2741 -4.2282 2.2355
5.4211 -4.0353 2.2355
5.5611 -3.8372 2.2355
5.6939 -3.6343 2.2355
5.8223 -3.4286 2.2368
5.9429 -3.2182 2.2378
6.0559 -3.0035 2.2389
6.1612 -2.7848 2.2400
6.2580 -2.5623 2.2409
6.3442 -2.3354 2.2409
6.4222 -2.1056 2.2409
6.4918 -1.8732 2.2409
6.5530 -1.6385 2.2409
6.6057 -1.4018 2.2409
6.6499 -1.1634 2.2409
6.6854 -0.9237 2.2409
6.7123 -0.6829 2.2409
6.7306 -0.4414 2.2409
6.7401 -0.1994 2.2409
6.7410 0.0427 2.2409
6.7331 0.2846 2.2409
5.5401 0.4339 1.8484
5.5507 0.6359 1.8589
5.5614 0.8404 1.8719
6.2481 1.1750 2.1165
6.2606 1.4119 2.1371
6.2732 1.6535 2.1610
6.2862 1.9008 2.1881
6.3619 2.1760 2.2409
6.2779 2.4024 2.2409
6.1859 2.6256 2.2409
6.0860 2.8453 2.2409
5.9784 3.0612 2.2409
5.8630 3.2732 2.2409
5.7403 3.4807 2.2409
5.6101 3.6837 2.2409
5.4722 3.8814 2.2406
5.3273 4.0741 2.2403
5.1757 4.2613 2.2400
5.0175 4.4429 2.2397
4.8530 4.6186 2.2394
4.6823 4.7883 2.2391
4.5057 4.9517 2.2388
4.3235 5.1086 2.2385
4.1358 5.2588 2.2381
3.9428 5.4022 2.2378
3.7450 5.5386 2.2374
3.5424 5.6677 2.2370
3.3355 5.7895 2.2366
3.1243 5.9037 2.2363
2.9093 6.0103 2.2359
2.6908 6.1096 2.2356
2.5791 6.4773 2.3350
2.3977 6.7140 2.3880
0.8602 2.7128 0.9533
0.7623 2.7422 0.9535
0.6633 2.7681 0.9537
0.5635 2.7904 0.9538
0.4629 2.8091 0.9539
0.3617 2.8241 0.9541
0.2600 2.8355 0.9542
0.1579 2.8432 0.9542
0.0557 2.8472 0.9543
-0.0467 2.8475 0.9544
-0.1489 2.8441 0.9544
-0.2511 2.8370 0.9544
-0.3528 2.8263 0.9544
-0.4542 2.8118 0.9544
-0.5549 2.7937 0.9543
-0.6549 2.7720 0.9543
-0.7541 2.7466 0.9542
-0.8523 2.7177 0.9541
-2.3763 6.7215 2.3880
-2.6166 6.6325 2.3880
-2.8535 6.5349 2.3880
-3.0868 6.4289 2.3880
-3.3162 6.3147 2.3880
-3.5415 6.1924 2.3880
-3.7622 6.0620 2.3880
-3.9782 5.9239 2.3880
-4.1891 5.7781 2.3880
-4.3948 5.6248 2.3880
-4.5949 5.4643 2.3880
-4.7891 5.2967 2.3880
-4.9773 5.1223 2.3880
-5.1591 4.9412 2.3880
-5.3344 4.7536 2.3880
-5.5030 4.5601 2.3880
-5.6645 4.3604 2.3880
-5.8188 4.1551 2.3880
-5.9657 3.9444 2.3880
-6.1051 3.7285 2.3880
-6.2366 3.5077 2.3880
-6.3602 3.2823 2.3880
-6.4757 3.0525 2.3880
-6.5829 2.8187 2.3880
-6.6816 2.5812 2.3880
-6.7719 2.3402 2.3880
-6.8534 2.0961 2.3880
-6.9262 1.8492 2.3880
-6.9901 1.5997 2.3880
-7.0451 1.3481 2.3880
-7.0910 1.0946 2.3880
-7.1278 0.8395 2.3880
-7.1554 0.5832 2.3880
-7.1738 0.3260 2.3880
-7.1830 0.0682 2.3880
-7.1829 -0.1897 2.3880
-7.1736 -0.4476 2.3880
-7.1549 -0.7051 2.3880
-7.1271 -0.9617 2.3880
-7.0900 -1.2173 2.3880
-7.0438 -1.4714 2.3880
-6.9884 -1.7238 2.3880
-6.9240 -1.9741 2.3880
-6.8506 -2.2220 2.3880
-6.7683 -2.4671 2.3880
-6.6772 -2.7092 2.3880
-6.5774 -2.9479 2.3880
-6.4691 -3.1829 2.3880
-6.3523 -3.4139 2.3880
-6.2273 -3.6406 2.3880
-6.0942 -3.8627 2.3880
-5.9531 -4.0799 2.3880
-5.8042 -4.2919 2.3880
-5.6478 -4.4985 2.3880
-5.4840 -4.6993 2.3880
-5.3130 -4.8941 2.3880
-5.1350 -5.0827 2.3880
-4.9504 -5.2648 2.3880
-4.7592 -5.4401 2.3880
-4.5618 -5.6084 2.3879
-4.3584 -5.7695 2.3879
-4.1493 -5.9232 2.3879
-3.9348 -6.0692 2.3880
-3.7151 -6.2074 2.3880
-3.4905 -6.3377 2.3880
-3.2614 -6.4597 2.3880
-3.0279 -6.5734 2.3880
-2.7905 -6.6786 2.3880
-2.5493 -6.7751 2.3880
-2.3049 -6.8629 2.3880
-2.0574 -6.9418 2.3880
-1.8072 -7.0116 2.3880
-1.5546 -7.0724 2.3880
-1.2999 -7.1241 2.3880
-1.0436 -7.1665 2.3880
-0.7859 -7.1996 2.3880
-0.5271 -7.2233 2.3880
-0.2676 -7.2377 2.3880
-0.0078 -7.2427 2.3880
0.2520 -7.2382 2.3880
0.5115 -7.2244 2.3880
0.7703 -7.2012 2.3880
1.0281 -7.1687 2.3880
1.2846 -7.1269 2.3880
-6.5466 1.2660 2.3880
-6.5896 1.0304 2.3880
-6.6242 0.7933 2.3880
-6.6502 0.5551 2.3880
-6.6677 0.3161 2.3880
-6.6766 0.0765 2.3880
-6.6769 -0.1633 2.3880
-6.6685 -0.4030 2.3880
-6.6516 -0.6423 2.3880
-6.6261 -0.8809 2.3880
-6.5920 -1.1185 2.3880
-6.5493 -1.3548 2.3880
-6.4982 -1.5894 2.3880
-6.4387 -1.8221 2.3880
-6.3708 -2.0526 2.3880
-6.2947 -2.2805 2.3880
-6.2104 -2.5056 2.3880
-6.1180 -2.7276 2.3880
-6.0177 -2.9461 2.3880
-5.9096 -3.1610 2.3880
-5.7937 -3.3718 2.3880
-5.6703 -3.5784 2.3880
-5.5395 -3.7804 2.3880
-5.4015 -3.9777 2.3880
-5.2565 -4.1699 2.3880
-5.1045 -4.3567 2.3880
-4.9460 -4.5380 2.3880
-4.7809 -4.7135 2.3880
-4.6096 -4.8829 2.3880
-4.4323 -5.0461 2.3880
-4.2491 -5.2028 2.3880
-4.0603 -5.3528 2.3880
-3.8664 -5.4960 2.3880
-3.6673 -5.6320 2.3879
-3.4634 -5.7608 2.3879
-3.2549 -5.8821 2.3879
-3.0422 -5.9959 2.3879
-2.8255 -6.1019 2.3879
-2.6051 -6.2001 2.3880
-2.3812 -6.2902 2.3880
-2.1543 -6.3721 2.3880
-1.9244 -6.4458 2.3880
-1.6921 -6.5112 2.3880
-1.4575 -6.5682 2.3880
-1.2211 -6.6166 2.3880
-0.9830 -6.6564 2.3880
-0.7436 -6.6876 2.3880
-0.5032 -6.7102 2.3880
-0.2622 -6.7240 2.3880
-0.0209 -6.7291 2.3880
0.2205 -6.7255 2.3880
0.4616 -6.7132 2.3880
0.7021 -6.6921 2.3880
0.9417 -6.6624 2.3880
1.1800 -6.6241 2.3880
1.4168 -6.5771 2.3879
1.6517 -6.5217 2.3879
1.8845 -6.4577 2.3879
2.1147 -6.3855 2.3879
2.3422 -6.3049 2.3879
2.5666 -6.2162 2.3879
2.7877 -6.1194 2.3879
3.0051 -6.0148 2.3879
3.2185 -5.9023 2.3879
3.2089 -5.4133 2.2356
3.4006 -5.2939 2.2356
3.5878 -5.1677 2.2356
3.7702 -5.0348 2.2356
3.9478 -4.8955 2.2355
4.1201 -4.7499 2.2355
4.2871 -4.5981 2.2355
4.4485 -4.4405 2.2355
4.6040 -4.2772 2.2356
4.7536 -4.1084 2.2356
4.8969 -3.9343 2.2356
5.0338 -3.7552 2.2356
5.1641 -3.5714 2.2356
5.2878 -3.3830 2.2356
5.4049 -3.1906 2.2357
5.5215 -2.9976 2.2385
5.6266 -2.7981 2.2395
5.7246 -2.5948 2.2405
5.8135 -2.3875 2.2409
5.8939 -2.1768 2.2409
5.9667 -1.9633 2.2409
6.0317 -1.7474 2.2409
6.0889 -1.5294 2.2409
6.1383 -1.3095 2.2409
6.1796 -1.0880 2.2409
6.2130 -0.8652 2.2409
6.2384 -0.6415 2.2409
6.2557 -0.4170 2.2409
6.2649 -0.1921 2.2409
6.2660 0.0330 2.2409
6.2591 0.2578 2.2409
5.5398 0.4279 1.9881
5.5504 0.6298 1.9993
5.5611 0.8343 2.0132
5.5719 1.0417 2.0300
6.1040 1.3697 2.2409
6.0493 1.5876 2.2409
5.9868 1.8033 2.2409
5.9166 2.0166 2.2409
5.8389 2.2272 2.2409
5.7537 2.4349 2.2409
5.6611 2.6393 2.2409
5.5611 2.8401 2.2408
5.4537 3.0370 2.2406
5.3393 3.2299 2.2404
5.2181 3.4184 2.2402
5.0903 3.6024 2.2399
4.9559 3.7817 2.2397
4.8153 3.9559 2.2394
4.6685 4.1250 2.2391
4.5158 4.2886 2.2389
4.3574 4.4466 2.2386
4.1935 4.5988 2.2383
4.0243 4.7450 2.2380
3.8500 4.8849 2.2376
3.6709 5.0185 2.2373
3.4871 5.1456 2.2370
3.2990 5.2659 2.2366
3.1067 5.3795 2.2363
2.9106 5.4860 2.2359
2.7160 5.5959 2.2398
2.5565 5.7881 2.2787
2.4592 6.1574 2.3880
0.8917 2.4889 0.9523
0.8018 2.5196 0.9525
0.7108 2.5470 0.9526
0.6189 2.5711 0.9528
0.5261 2.5919 0.9529
0.4327 2.6094 0.9530
0.3387 2.6234 0.9531
0.2442 2.6341 0.9532
0.1494 2.6413 0.9533
0.0544 2.6451 0.9534
-0.0407 2.6455 0.9534
-0.1357 2.6424 0.9534
-0.2306 2.6359 0.9535
-0.3252 2.6260 0.9535
-0.4193 2.6127 0.9534
-0.5129 2.5959 0.9534
-0.6059 2.5758 0.9534
-0.6980 2.5524 0.9533
-0.7893 2.5256 0.9532
-0.8795 2.4956 0.9531
-2.4271 6.1700 2.3880
-2.6475 6.0795 2.3880
-2.8645 5.9811 2.3880
-3.0780 5.8750 2.3880
-3.2875 5.7614 2.3880
-3.4929 5.6404 2.3880
-3.6938 5.5121 2.3880
-3.8901 5.3766 2.3880
-4.0814 5.2343 2.3880
-4.2676 5.0851 2.3880
-4.4483 4.9294 2.3880
-4.6234 4.7673 2.3880
-4.7926 4.5991 2.3880
-4.9557 4.4248 2.3880
-5.1125 4.2448 2.3880
-5.2628 4.0593 2.3880
-5.4064 3.8685 2.3880
-5.5431 3.6726 2.3880
-5.6728 3.4720 2.3880
-5.7952 3.2667 2.3880
-5.9102 3.0572 2.3880
-6.0177 2.8437 2.3880
-6.1175 2.6264 2.3880
-6.2094 2.4056 2.3880
-6.2934 2.1816 2.3880
-6.3694 1.9547 2.3880
-6.4372 1.7252 2.3880
-6.4967 1.4933 2.3880
-6.5479 1.2594 2.3880
-6.5907 1.0237 2.3880
-6.6250 0.7867 2.3880
-6.6508 0.5484 2.3880
-6.6681 0.3094 2.3880
-6.6767 0.0698 2.3880
-6.6767 -0.1700 2.3880
-6.6682 -0.4097 2.3880
-6.6510 -0.6490 2.3880
-6.6252 -0.8876 2.3880
-6.5909 -1.1252 2.3880
-6.5480 -1.3614 2.3880
-6.4967 -1.5960 2.3880
-6.4369 -1.8286 2.3880
-6.3688 -2.0590 2.3880
-6.2925 -2.2869 2.3880
-6.2079 -2.5119 2.3880
-6.1153 -2.7338 2.3880
-6.0148 -2.9522 2.3880
-5.9064 -3.1670 2.3880
-5.7903 -3.3777 2.3880
-5.6667 -3.5842 2.3880
-5.5357 -3.7861 2.3880
-5.3975 -3.9832 2.3880
-5.2523 -4.1752 2.3880
-5.1002 -4.3619 2.3880
-4.9414 -4.5430 2.3880
-4.7762 -4.7183 2.3880
-4.6047 -4.8876 2.3880
-4.4272 -5.0506 2.3880
-4.2439 -5.2071 2.3880
-4.0550 -5.3570 2.3880
-3.8609 -5.4999 2.3880
-3.6616 -5.6357 2.3879
-3.4576 -5.7643 2.3879
-3.2490 -5.8855 2.3879
-3.0362 -5.9990 2.3879
-2.8193 -6.1048 2.3879
-2.5988 -6.2027 2.3880
-2.3749 -6.2926 2.3880
-2.1478 -6.3743 2.3880
-1.9179 -6.4478 2.3880
-1.6855 -6.5129 2.3880
-1.4509 -6.5696 2.3880
-1.2144 -6.6178 2.3880
-0.9763 -6.6574 2.3880
-0.7368 -6.6884 2.3880
-0.4965 -6.7107 2.3880
-0.2554 -6.7243 2.3880
-0.0141 -6.7291 2.3880
0.2273 -6.7253 2.3880
0.4684 -6.7127 2.3880
0.7089 -6.6914 2.3880
0.9484 -6.6615 2.3880
1.1867 -6.6229 2.3880
1.4235 -6.5757 2.3879
1.6583 -6.5200 2.3879
1.8910 -6.4558 2.3879
2.1212 -6.3833 2.3879
2.3486 -6.3025 2.3879
2.5729 -6.2136 2.3879
2.7939 -6.1166 2.3879
3.0111 -6.0117 2.3879
3.2244 -5.8991 2.3879
3.2144 -5.4100 2.2356
3.4059 -5.2904 2.2356
3.5930 -5.1640 2.2356
3.7753 -5.0310 2.2356
3.9527 -4.8915 2.2355
4.1249 -4.7457 2.2355
4.2917 -4.5938 2.2355
4.4529 -4.4360 2.2355
4.6083 -4.2725 2.2356
4.7577 -4.1035 2.2356
4.9008 -3.9293 2.2356
5.0375 -3.7501 2.2356
5.1677 -3.5662 2.2356
5.2912 -3.3776 2.2356
5.4083 -3.1852 2.2358
5.5246 -2.9920 2.2386
5.6295 -2.7924 2.2396
5.7272 -2.5891 2.2406
5.8159 -2.3816 2.2409
5.8961 -2.1708 2.2409
5.9686 -1.9572 2.2409
6.0335 -1.7413 2.2409
6.0904 -1.5232 2.2409
6.1395 -1.3033 2.2409
6.1807 -1.0817 2.2409
6.2138 -0.8589 2.2409
6.2390 -0.6352 2.2409
6.2560 -0.4106 2.2409
6.2650 -0.1857 2.2409
6.2659 0.0393 2.2409
6.2587 0.2642 2.2409
5.5401 0.4335 1.9884
5.5507 0.6356 1.9997
5.5614 0.8401 2.0137
6.1497 1.1562 2.2409
6.1026 1.3759 2.2409
6.0476 1.5937 2.2409
5.9849 1.8094 2.2409
5.9146 2.0226 2.2409
5.8366 2.2331 2.2409
5.7512 2.4407 2.2409
5.6584 2.6450 2.2409
5.5582 2.8457 2.2408
5.4506 3.0425 2.2406
5.3360 3.2352 2.2404
5.2146 3.4236 2.2402
5.0866 3.6075 2.2399
4.9520 3.7867 2.2397
4.8112 3.9608 2.2394
4.6643 4.1297 2.2391
4.5114 4.2931 2.2389
4.3529 4.4510 2.2386
4.1888 4.6030 2.2383
4.0194 4.7490 2.2379
3.8450 4.8888 2.2376
3.6657 5.0222 2.2373
3.4819 5.1491 2.2370
3.2936 5.2692 2.2366
3.1012 5.3826 2.2363
2.9050 5.4889 2.2359
2.7137 5.6057 2.2426
2.5563 5.8035 2.2837
2.4529 6.1599 2.3880
0.8892 2.4898 0.9523
0.7992 2.5204 0.9525
0.7082 2.5477 0.9526
0.6163 2.5718 0.9528
0.5235 2.5925 0.9529
0.4301 2.6098 0.9530
0.3360 2.6238 0.9532
0.2416 2.6343 0.9532
0.1467 2.6415 0.9533
0.0517 2.6452 0.9534
-0.0433 2.6454 0.9534
-0.1384 2.6423 0.9534
-0.2332 2.6357 0.9535
-0.3278 2.6257 0.9535
-0.4220 2.6122 0.9534
-0.5156 2.5954 0.9534
-0.6085 2.5752 0.9533
-0.7006 2.5517 0.9533
-0.7919 2.5248 0.9532
-0.8820 2.4947 0.9531
-2.4333 6.1676 2.3880
-2.6536 6.0768 2.3880
-2.8706 5.9782 2.3880
-3.0839 5.8719 2.3880
-3.2934 5.7581 2.3880
-3.4986 5.6369 2.3880
-3.6994 5.5083 2.3880
-3.8955 5.3727 2.3880
-4.0867 5.2302 2.3880
-4.2727 5.0808 2.3880
-4.4533 4.9249 2.3880
-4.6282 4.7627 2.3880
-4.7973 4.5942 2.3880
-4.9602 4.4198 2.3880
-5.1168 4.2397 2.3880
-5.2670 4.0540 2.3880
-5.4104 3.8630 2.3880
-5.5469 3.6670 2.3880
-5.6763 3.4662 2.3880
-5.7986 3.2609 2.3880
-5.9134 3.0513 2.3880
-6.0206 2.8376 2.3880
-6.1202 2.6202 2.3880
-6.2119 2.3993 2.3880
-6.2957 2.1753 2.3880
-6.3714 1.9483 2.3880
-6.4390 1.7187 2.3880
-6.4983 1.4867 2.3880
-6.5492 1.2528 2.3880
-6.5918 1.0171 2.3880
-6.6259 0.7800 2.3880
-6.6514 0.5417 2.3880
-6.6684 0.3026 2.3880
-6.6768 0.0630 2.3880
-6.6766 -0.1768 2.3880
-6.6678 -0.4165 2.3880
-6.6504 -0.6557 2.3880
-6.6244 -0.8943 2.3880
-6.5898 -1.1318 2.3880
-6.5467 -1.3680 2.3880
-6.4951 -1.6026 2.3880
-6.4351 -1.8352 2.3880
-6.3668 -2.0655 2.3880
-6.2902 -2.2933 2.3880
-6.2054 -2.5182 2.3880
-6.1126 -2.7400 2.3880
-6.0118 -2.9583 2.3880
-5.9032 -3.1730 2.3880
-5.7870 -3.3836 2.3880
-5.6631 -3.5899 2.3880
-5.5319 -3.7917 2.3880
-5.3935 -3.9887 2.3880
-5.2481 -4.1805 2.3880
-5.0958 -4.3671 2.3880
-4.9368 -4.5480 2.3880
-4.7714 -4.7232 2.3880
-4.5998 -4.8923 2.3880
-4.4221 -5.0551 2.3880
-4.2386 -5.2115 2.3880
-4.0497 -5.3611 2.3880
-3.8553 -5.5038 2.3880
-3.6559 -5.6394 2.3879
-3.4518 -5.7678 2.3879
-3.2430 -5.8888 2.3879
-3.0301 -6.0021 2.3879
-2.8132 -6.1077 2.3879
-2.5926 -6.2053 2.3880
-2.3685 -6.2950 2.3880
-2.1414 -6.3765 2.3880
-1.9114 -6.4497 2.3880
-1.6790 -6.5146 2.3880
-1.4443 -6.5711 2.3880
-1.2077 -6.6190 2.3880
-0.9695 -6.6584 2.3880
-0.7301 -6.6891 2.3880
-0.4897 -6.7112 2.3880
-0.2486 -6.7245 2.3880
-0.0072 -6.7292 2.3880
0.2341 -6.7251 2.3880
0.4752 -6.7122 2.3880
0.7156 -6.6907 2.3880
0.9552 -6.6605 2.3880
1.1934 -6.6217 2.3879
-6.1096 1.1811 2.3880
-6.1497 0.9612 2.3880
-6.1818 0.7400 2.3880
-6.2060 0.5177 2.3880
-6.2222 0.2946 2.3880
-6.2304 0.0710 2.3880
-6.2306 -0.1527 2.3880
-6.2227 -0.3764 2.3880
-6.2068 -0.5997 2.3880
-6.1829 -0.8224 2.3880
-6.1509 -1.0440 2.3880
-6.1111 -1.2645 2.3880
-6.0633 -1.4834 2.3880
-6.0077 -1.7005 2.3880
-5.9442 -1.9155 2.3880
-5.8731 -2.1282 2.3880
-5.7944 -2.3382 2.3880
-5.7081 -2.5452 2.3880
-5.6144 -2.7491 2.3880
-5.5134 -2.9495 2.3880
-5.4053 -3.1461 2.3880
-5.2901 -3.3388 2.3880
-5.1680 -3.5273 2.3880
-5.0392 -3.7112 2.3880
-4.9038 -3.8905 2.3880
-4.7620 -4.0647 2.3880
-4.6140 -4.2338 2.3880
-4.4600 -4.3975 2.3880
-4.3001 -4.5555 2.3880
-4.1346 -4.7077 2.3880
-3.9637 -4.8538 2.3880
-3.7877 -4.9937 2.3880
-3.6066 -5.1271 2.3880
-3.4209 -5.2540 2.3880
-3.2307 -5.3741 2.3880
-3.0363 -5.4872 2.3880
-2.8377 -5.5933 2.3879
-2.6356 -5.6922 2.3879
-2.4300 -5.7836 2.3879
-2.2211 -5.8677 2.3879
-2.0095 -5.9441 2.3879
-1.7950 -6.0128 2.3879
-1.5783 -6.0738 2.3879
-1.3595 -6.1268 2.3879
-1.1389 -6.1720 2.3879
-0.9169 -6.2091 2.3879
-0.6936 -6.2382 2.3879
-0.4694 -6.2593 2.3879
-0.2446 -6.2722 2.3879
-0.0195 -6.2769 2.3879
0.2057 -6.2736 2.3879
0.4306 -6.2621 2.3879
0.6549 -6.2424 2.3879
0.8784 -6.2147 2.3879
1.1007 -6.1790 2.3879
1.3215 -6.1352 2.3879
1.5407 -6.0835 2.3879
1.7578 -6.0239 2.3879
1.9726 -5.9565 2.3879
2.1848 -5.8814 2.3879
2.3941 -5.7987 2.3880
2.6003 -5.7085 2.3880
2.8031 -5.6109 2.3880
3.0022 -5.5061 2.3880
2.9933 -5.0499 2.2356
3.1721 -4.9386 2.2356
3.3467 -4.8209 2.2356
3.5170 -4.6970 2.2356
3.6826 -4.5671 2.2356
3.8435 -4.4313 2.2356
3.9993 -4.2898 2.2356
4.1498 -4.1428 2.2356
4.2950 -3.9904 2.2356
4.4346 -3.8330 2.2356
4.5683 -3.6707 2.2356
4.6961 -3.5037 2.2356
4.8178 -3.3322 2.2356
4.9332 -3.1565 2.2356
5.0421 -2.9768 2.2356
5.1446 -2.7933 2.2356
5.2524 -2.6123 2.2408
5.3419 -2.4217 2.2409
5.4240 -2.2279 2.2409
5.4992 -2.0313 2.2409
5.5672 -1.8322 2.2409
5.6279 -1.6308 2.2409
5.6814 -1.4274 2.2409
5.7275 -1.2222 2.2409
5.7662 -1.0156 2.2409
5.7974 -0.8077 2.2409
5.8212 -0.5989 2.2409
5.8374 -0.3895 2.2409
5.8461 -0.1796 2.2409
5.8473 0.0304 2.2409
5.8409 0.2402 2.2409
5.5398 0.4275 2.1304
5.5503 0.6295 2.1424
5.5611 0.8339 2.1573
5.5719 1.0414 2.1751
5.6967 1.2779 2.2409
5.6457 1.4813 2.2409
5.5874 1.6827 2.2409
5.5219 1.8817 2.2409
5.4491 2.0782 2.2407
5.3693 2.2718 2.2406
5.2825 2.4624 2.2404
5.1891 2.6497 2.2402
5.0889 2.8335 2.2400
4.9823 3.0135 2.2398
4.8693 3.1895 2.2396
4.7501 3.3613 2.2394
4.6248 3.5287 2.2391
4.4936 3.6914 2.2389
4.3568 3.8492 2.2386
4.2144 4.0020 2.2384
4.0666 4.1495 2.2381
3.9137 4.2916 2.2378
3.7559 4.4281 2.2375
3.5933 4.5588 2.2372
3.4262 4.6836 2.2369
3.2547 4.8023 2.2366
3.0792 4.9147 2.2363
2.8998 5.0208 2.2359
2.7168 5.1203 2.2356
2.5411 5.2353 2.2448
2.5011 5.6623 2.3880
0.9146 2.2899 0.9514
0.8318 2.3216 0.9515
0.7479 2.3502 0.9517
0.6631 2.3758 0.9519
0.5773 2.3982 0.9520
0.4908 2.4176 0.9521
0.4036 2.4339 0.9522
0.3159 2.4470 0.9523
0.2278 2.4569 0.9524
0.1394 2.4636 0.9525
0.0508 2.4672 0.9526
-0.0379 2.4675 0.9526
-0.1266 2.4646 0.9526
-0.2151 2.4586 0.9526
-0.3033 2.4493 0.9526
-0.3911 2.4369 0.9526
-0.4784 2.4213 0.9526
-0.5652 2.4025 0.9525
-0.6511 2.3807 0.9525
-0.7362 2.3557 0.9524
-0.8204 2.3277 0.9523
-0.9035 2.2967 0.9522
-2.4716 5.6751 2.3880
-2.6742 5.5833 2.3880
-2.8734 5.4842 2.3880
-3.0690 5.3781 2.3880
-3.2607 5.2651 2.3880
-3.4482 5.1452 2.3880
-3.6314 5.0188 2.3880
-3.8100 4.8858 2.3880
-3.9837 4.7465 2.3880
-4.1524 4.6011 2.3880
-4.3158 4.4498 2.3880
-4.4737 4.2927 2.3880
-4.6259 4.1300 2.3880
-4.7722 3.9619 2.3880
-4.9125 3.7887 2.3880
-5.0464 3.6105 2.3880
-5.1740 3.4277 2.3880
-5.2949 3.2403 2.3880
-5.4091 3.0487 2.3880
-5.5164 2.8528 2.3880
-5.6166 2.6538 2.3880
-5.7097 2.4509 2.3880
-5.7954 2.2448 2.3880
-5.8737 2.0357 2.3880
-5.9445 1.8239 2.3880
-6.0077 1.6097 2.3880
-6.0632 1.3933 2.3880
-6.1108 1.1749 2.3880
-6.1507 0.9550 2.3880
-6.1826 0.7337 2.3880
-6.2066 0.5114 2.3880
-6.2225 0.2883 2.3880
-6.2305 0.0647 2.3880
-6.2305 -0.1590 2.3880
-6.2223 -0.3827 2.3880
-6.2062 -0.6060 2.3880
-6.1821 -0.8286 2.3880
-6.1499 -1.0503 2.3880
-6.1098 -1.2707 2.3880
-6.0618 -1.4896 2.3880
-6.0060 -1.7066 2.3880
-5.9424 -1.9215 2.3880
-5.8710 -2.1341 2.3880
-5.7921 -2.3440 2.3880
-5.7056 -2.5510 2.3880
-5.6117 -2.7548 2.3880
-5.5105 -2.9551 2.3880
-5.4021 -3.1516 2.3880
-5.2867 -3.3442 2.3880
-5.1645 -3.5325 2.3880
-5.0354 -3.7164 2.3880
-4.8999 -3.8955 2.3880
-4.7579 -4.0696 2.3880
-4.6097 -4.2385 2.3880
-4.4555 -4.4020 2.3880
-4.2955 -4.5599 2.3880
-4.1299 -4.7119 2.3880
-3.9589 -4.8578 2.3880
-3.7826 -4.9975 2.3880
-3.6015 -5.1308 2.3880
-3.4156 -5.2575 2.3880
-3.2252 -5.3774 2.3880
-3.0306 -5.4903 2.3880
-2.8321 -5.5962 2.3879
-2.6299 -5.6948 2.3879
-2.4241 -5.7861 2.3879
-2.2153 -5.8699 2.3879
-2.0034 -5.9461 2.3879
-1.7890 -6.0146 2.3879
-1.5722 -6.0754 2.3879
-1.3533 -6.1282 2.3879
-1.1327 -6.1731 2.3879
-0.9106 -6.2101 2.3879
-0.6873 -6.2389 2.3879
-0.4631 -6.2597 2.3879
-0.2382 -6.2724 2.3879
-0.0131 -6.2769 2.3879
0.2120 -6.2734 2.3879
0.4369 -6.2616 2.3879
0.6612 -6.2418 2.3879
0.8846 -6.2138 2.3879
1.1069 -6.1779 2.3879
1.3277 -6.1339 2.3879
1.5468 -6.0819 2.3879
1.7638 -6.0221 2.3879
1.9786 -5.9545 2.3879
2.1907 -5.8792 2.3879
2.3999 -5.7963 2.3880
2.6061 -5.7058 2.3880
2.8087 -5.6081 2.3880
3.0077 -5.5030 2.3880
2.9984 -5.0468 2.2356
3.1771 -4.9353 2.2356
3.3516 -4.8175 2.2356
3.5217 -4.6934 2.2356
3.6872 -4.5633 2.2356
3.8479 -4.4274 2.2356
4.0036 -4.2857 2.2356
4.1540 -4.1385 2.2356
4.2990 -3.9861 2.2356
4.4384 -3.8285 2.2356
4.5720 -3.6661 2.2356
4.6996 -3.4989 2.2356
4.8211 -3.3273 2.2356
4.9363 -3.1515 2.2356
5.0451 -2.9717 2.2356
5.1473 -2.7881 2.2356
5.2551 -2.6070 2.2408
5.3443 -2.4163 2.2409
5.4263 -2.2224 2.2409
5.5012 -2.0258 2.2409
5.5690 -1.8266 2.2409
5.6295 -1.6251 2.2409
5.6828 -1.4216 2.2409
5.7287 -1.2164 2.2409
5.7672 -1.0097 2.2409
5.7982 -0.8019 2.2409
5.8217 -0.5930 2.2409
5.8378 -0.3836 2.2409
5.8462 -0.1737 2.2409
5.8472 0.0363 2.2409
5.8406 0.2461 2.2409
5.5401 0.4332 2.1307
5.5506 0.6352 2.1428
5.5614 0.8397 2.1577
5.7392 1.0786 2.2409
5.6953 1.2837 2.2409
5.6441 1.4870 2.2409
5.5857 1.6883 2.2409
5.5200 1.8873 2.2409
5.4469 2.0837 2.2407
5.3669 2.2772 2.2405
5.2800 2.4678 2.2404
5.1863 2.6550 2.2402
5.0860 2.8386 2.2400
4.9792 3.0185 2.2398
4.8660 3.1944 2.2396
4.7466 3.3661 2.2394
4.6212 3.5333 2.2391
4.4899 3.6959 2.2389
4.3528 3.8536 2.2386
4.2103 4.0062 2.2383
4.0624 4.1536 2.2381
3.9093 4.2955 2.2378
3.7514 4.4319 2.2375
3.5886 4.5624 2.2372
3.4214 4.6870 2.2369
3.2498 4.8055 2.2366
3.0742 4.9178 2.2363
2.8947 5.0237 2.2359
2.7116 5.1230 2.2356
2.5388 5.2442 2.2475
2.4953 5.6648 2.3880
0.9123 2.2909 0.9514
0.8295 2.3224 0.9515
0.7456 2.3509 0.9517
0.6607 2.3764 0.9519
0.5749 2.3988 0.9520
0.4884 2.4181 0.9521
0.4012 2.4343 0.9522
0.3135 2.4473 0.9523
0.2253 2.4571 0.9524
0.1369 2.4638 0.9525
0.0483 2.4672 0.9526
-0.0404 2.4675 0.9526
-0.1291 2.4645 0.9526
-0.2176 2.4584 0.9526
-0.3058 2.4490 0.9526
-0.3936 2.4365 0.9526
-0.4809 2.4208 0.9526
-0.5676 2.4020 0.9525
-0.6535 2.3800 0.9525
-0.7386 2.3550 0.9524
-0.8228 2.3269 0.9523
-0.9058 2.2958 0.9522
-2.4773 5.6727 2.3880
-2.6798 5.5806 2.3880
-2.8790 5.4813 2.3880
-3.0745 5.3750 2.3880
-3.2660 5.2618 2.3880
-3.4535 5.1418 2.3880
-3.6365 5.0151 2.3880
-3.8150 4.8820 2.3880
-3.9885 4.7425 2.3880
-4.1571 4.5970 2.3880
-4.3203 4.4454 2.3880
-4.4781 4.2882 2.3880
-4.6301 4.1253 2.3880
-4.7762 3.9571 2.3880
-4.9163 3.7837 2.3880
-5.0501 3.6054 2.3880
-5.1775 3.4224 2.3880
-5.2982 3.2350 2.3880
-5.4122 3.0433 2.3880
-5.5193 2.8476 2.3880
-5.6193 2.6481 2.3880
-5.7122 2.4452 2.3880
-5.7977 2.2390 2.3880
-5.8758 2.0298 2.3880
-5.9464 1.8179 2.3880
-6.0094 1.6036 2.3880
-6.0646 1.3871 2.3880
-6.1121 1.1688 2.3880
-6.1517 0.9488 2.3880
-6.1834 0.7275 2.3880
-6.2071 0.5051 2.3880
-6.2229 0.2820 2.3880
-6.2306 0.0584 2.3880
-6.2303 -0.1653 2.3880
-6.2220 -0.3890 2.3880
-6.2056 -0.6123 2.3880
-6.1813 -0.8349 2.3880
-6.1489 -1.0565 2.3880
-6.1086 -1.2769 2.3880
-6.0604 -1.4957 2.3880
-6.0043 -1.7127 2.3880
-5.9405 -1.9276 2.3880
-5.8689 -2.1401 2.3880
-5.7897 -2.3499 2.3880
-5.7030 -2.5568 2.3880
-5.6089 -2.7605 2.3880
-5.5075 -2.9607 2.3880
-5.3990 -3.1571 2.3880
-5.2834 -3.3496 2.3880
-5.1609 -3.5378 2.3880
-5.0317 -3.7215 2.3880
-4.8960 -3.9004 2.3880
-4.7538 -4.0744 2.3880
-4.6055 -4.2432 2.3880
-4.4511 -4.4065 2.3880
-4.2909 -4.5642 2.3880
-4.1251 -4.7161 2.3880
-3.9540 -4.8618 2.3880
-3.7776 -5.0014 2.3880
-3.5963 -5.1345 2.3880
-3.4103 -5.2609 2.3880
-3.2198 -5.3806 2.3880
-3.0252 -5.4934 2.3880
-2.8265 -5.5991 2.3879
-2.6241 -5.6975 2.3879
-2.4183 -5.7886 2.3879
-2.2093 -5.8722 2.3879
-1.9974 -5.9482 2.3879
-1.7829 -6.0165 2.3879
-1.5661 -6.0770 2.3879
-1.3472 -6.1296 2.3879
-1.1265 -6.1743 2.3879
-0.9043 -6.2110 2.3879
-0.6810 -6.2396 2.3879
-0.4568 -6.2602 2.3879
-0.2319 -6.2726 2.3879
-0.0068 -6.2770 2.3879
0.2184 -6.2731 2.3879
0.4432 -6.2612 2.3879
0.6675 -6.2411 2.3879
0.8909 -6.2129 2.3879
1.1132 -6.1767 2.3879
-5.7211 1.1057 2.3880
-5.7585 0.8996 2.3880
-5.7885 0.6925 2.3880
-5.8111 0.4844 2.3880
-5.8262 0.2755 2.3880
-5.8338 0.0661 2.3880
-5.8338 -0.1434 2.3880
-5.8264 -0.3528 2.3880
-5.8114 -0.5619 2.3880
-5.7889 -0.7703 2.3880
-5.7590 -0.9779 2.3880
-5.7215 -1.1843 2.3880
-5.6767 -1.3892 2.3880
-5.6246 -1.5924 2.3880
-5.5651 -1.7937 2.3880
-5.4985 -1.9928 2.3880
-5.4247 -2.1893 2.3880
-5.3438 -2.3831 2.3880
-5.2560 -2.5740 2.3880
-5.1614 -2.7615 2.3880
-5.0601 -2.9456 2.3880
-4.9522 -3.1260 2.3880
-4.8379 -3.3023 2.3880
-4.7172 -3.4745 2.3880
-4.5904 -3.6422 2.3880
-4.4576 -3.8053 2.3880
-4.3190 -3.9636 2.3880
-4.1748 -4.1167 2.3880
-4.0251 -4.2646 2.3880
-3.8702 -4.4070 2.3880
-3.7102 -4.5437 2.3880
-3.5454 -4.6746 2.3880
-3.3759 -4.7995 2.3880
-3.2020 -4.9182 2.3880
-3.0239 -5.0306 2.3880
-2.8419 -5.1364 2.3880
-2.6561 -5.2357 2.3880
-2.4669 -5.3282 2.3880
-2.2744 -5.4138 2.3880
-2.0790 -5.4924 2.3880
-1.8808 -5.5639 2.3880
-1.6801 -5.6282 2.3880
-1.4773 -5.6852 2.3879
-1.2725 -5.7349 2.3879
-1.0660 -5.7771 2.3879
-0.8581 -5.8119 2.3879
-0.6492 -5.8391 2.3879
-0.4393 -5.8588 2.3879
-0.2289 -5.8708 2.3879
-0.0182 -5.8753 2.3879
0.1926 -5.8721 2.3879
0.4030 -5.8614 2.3879
0.6130 -5.8430 2.3879
0.8221 -5.8171 2.3879
1.0302 -5.7836 2.3880
1.2369 -5.7427 2.3880
1.4420 -5.6943 2.3880
1.6452 -5.6386 2.3880
1.8463 -5.5755 2.3880
2.0449 -5.5052 2.3880
2.2408 -5.4279 2.3880
2.4338 -5.3435 2.3880
2.6237 -5.2521 2.3880
2.8100 -5.1541 2.3880
2.8018 -4.7271 2.2356
2.9691 -4.6229 2.2356
3.1326 -4.5128 2.2356
3.2920 -4.3969 2.2356
3.4471 -4.2753 2.2356
3.5977 -4.1482 2.2356
3.7436 -4.0158 2.2356
3.8845 -3.8783 2.2356
4.0205 -3.7357 2.2356
4.1511 -3.5884 2.2356
4.2764 -3.4365 2.2356
4.3961 -3.2802 2.2356
4.5100 -3.1197 2.2356
4.6181 -2.9553 2.2356
4.7202 -2.7870 2.2356
4.8257 -2.6205 2.2400
4.9158 -2.4453 2.2401
4.9996 -2.2669 2.2403
5.0768 -2.0856 2.2404
5.1475 -1.9017 2.2405
5.2114 -1.7155 2.2406
5.2685 -1.5270 2.2407
5.3189 -1.3366 2.2408
5.3622 -1.1446 2.2408
5.3987 -0.9512 2.2409
5.4280 -0.7566 2.2409
5.4504 -0.5611 2.2409
5.4656 -0.3650 2.2409
5.4738 -0.1685 2.2409
5.4750 0.0281 2.2409
5.4691 0.2246 2.2409
5.4561 0.4207 2.2409
5.4360 0.6162 2.2408
5.4089 0.8107 2.2407
5.3747 1.0042 2.2407
5.3337 1.1962 2.2406
5.2858 1.3865 2.2405
5.2311 1.5750 2.2404
5.1696 1.7613 2.2402
5.1015 1.9453 2.2401
5.0269 2.1266 2.2400
4.9458 2.3051 2.2398
4.8583 2.4805 2.2396
4.7647 2.6526 2.2394
4.6649 2.8212 2.2393
4.5592 2.9861 2.2391
4.4477 3.1470 2.2388
4.3304 3.3037 2.2386
4.2077 3.4561 2.2384
4.0796 3.6040 2.2381
3.9463 3.7471 2.2379
3.8081 3.8853 2.2376
3.6649 4.0185 2.2374
3.5172 4.1464 2.2371
3.3650 4.2689 2.2368
3.2085 4.3858 2.2365
3.0481 4.4970 2.2362
2.8837 4.6024 2.2359
2.7158 4.7018 2.2356
2.5447 4.7956 2.2356
2.5104 5.1717 2.3675
2.3427 5.3034 2.3880
0.8561 2.1433 0.9507
0.7786 2.1729 0.9509
0.7001 2.1997 0.9510
0.6206 2.2236 0.9512
0.5404 2.2447 0.9513
0.4594 2.2628 0.9514
0.3778 2.2780 0.9515
0.2957 2.2902 0.9516
0.2132 2.2995 0.9517
0.1305 2.3058 0.9518
0.0475 2.3091 0.9518
-0.0355 2.3094 0.9519
-0.1185 2.3067 0.9519
-0.2013 2.3011 0.9519
-0.2839 2.2924 0.9519
-0.3661 2.2807 0.9519
-0.4478 2.2661 0.9519
-0.5290 2.2486 0.9518
-0.6094 2.2281 0.9517
-0.6891 2.2048 0.9517
-0.7679 2.1786 0.9516
-0.8457 2.1495 0.9515
-2.3151 5.3154 2.3880
-2.5048 5.2293 2.3880
-2.6914 5.1365 2.3880
-2.8746 5.0371 2.3880
-3.0541 4.9312 2.3880
-3.2298 4.8189 2.3880
-3.4013 4.7004 2.3880
-3.5686 4.5758 2.3880
-3.7312 4.4454 2.3880
-3.8892 4.3091 2.3880
-4.0422 4.1673 2.3880
-4.1900 4.0201 2.3880
-4.3325 3.8677 2.3880
-4.4695 3.7102 2.3880
-4.6008 3.5480 2.3880
-4.7263 3.3811 2.3880
-4.8457 3.2098 2.3880
-4.9589 3.0343 2.3880
-5.0657 2.8548 2.3880
-5.1661 2.6716 2.3880
-5.2599 2.4849 2.3880
-5.3470 2.2949 2.3880
-5.4272 2.1018 2.3880
-5.5005 1.9060 2.3880
-5.5667 1.7073 2.3880
-5.6258 1.5070 2.3880
-5.6777 1.3043 2.3880
-5.7222 1.0998 2.3880
-5.7594 0.8939 2.3880
-5.7893 0.6867 2.3880
-5.8116 0.4785 2.3880
-5.8265 0.2696 2.3880
-5.8339 0.0602 2.3880
-5.8337 -0.1493 2.3880
-5.8261 -0.3587 2.3880
-5.8109 -0.5678 2.3880
-5.7882 -0.7762 2.3880
-5.7580 -0.9837 2.3880
-5.7204 -1.1901 2.3880
-5.6754 -1.3950 2.3880
-5.6230 -1.5981 2.3880
-5.5633 -1.7994 2.3880
-5.4965 -1.9983 2.3880
-5.4225 -2.1948 2.3880
-5.3414 -2.3886 2.3880
-5.2535 -2.5793 2.3880
-5.1587 -2.7668 2.3880
-5.0572 -2.9507 2.3880
-4.9491 -3.1310 2.3880
-4.8346 -3.3072 2.3880
-4.7137 -3.4793 2.3880
-4.5868 -3.6469 2.3880
-4.4538 -3.8099 2.3880
-4.3151 -3.9679 2.3880
-4.1707 -4.1209 2.3880
-4.0208 -4.2687 2.3880
-3.8658 -4.4109 2.3880
-3.7057 -4.5475 2.3880
-3.5407 -4.6782 2.3880
-3.3711 -4.8029 2.3880
-3.1970 -4.9214 2.3880
-3.0188 -5.0336 2.3880
-2.8367 -5.1393 2.3880
-2.6508 -5.2384 2.3880
-2.4615 -5.3307 2.3880
-2.2689 -5.4161 2.3880
-2.0733 -5.4945 2.3880
-1.8752 -5.5658 2.3880
-1.6744 -5.6299 2.3880
-1.4715 -5.6867 2.3879
-1.2667 -5.7362 2.3879
-1.0602 -5.7782 2.3879
-0.8523 -5.8127 2.3879
-0.6433 -5.8397 2.3879
-0.4334 -5.8592 2.3879
-0.2229 -5.8711 2.3879
-0.0123 -5.8753 2.3879
0.1985 -5.8719 2.3879
0.4090 -5.8610 2.3879
0.6189 -5.8424 2.3879
0.8280 -5.8163 2.3879
1.0360 -5.7826 2.3880
1.2427 -5.7414 2.3880
1.4478 -5.6928 2.3880
1.6509 -5.6369 2.3880
1.8519 -5.5736 2.3880
2.0504 -5.5032 2.3880
2.2463 -5.4256 2.3880
2.4392 -5.3410 2.3880
2.6290 -5.2495 2.3880
2.8153 -5.1512 2.3880
2.8065 -4.7242 2.2356
2.9738 -4.6199 2.2356
3.1372 -4.5096 2.2356
3.2964 -4.3935 2.2356
3.4514 -4.2718 2.2356
3.6018 -4.1446 2.2356
3.7476 -4.0120 2.2356
3.8884 -3.8743 2.2356
4.0242 -3.7316 2.2356
4.1547 -3.5842 2.2356
4.2798 -3.4321 2.2356
4.3994 -3.2757 2.2356
4.5131 -3.1151 2.2356
4.6211 -2.9506 2.2356
4.7229 -2.7823 2.2356
4.8283 -2.6156 2.2400
4.9183 -2.4403 2.2402
5.0018 -2.2618 2.2403
5.0789 -2.0805 2.2404
5.1493 -1.8965 2.2405
5.2131 -1.7102 2.2406
5.2701 -1.5217 2.2407
5.3202 -1.3313 2.2408
5.3634 -1.1392 2.2408
5.3996 -0.9457 2.2409
5.4288 -0.7511 2.2409
5.4509 -0.5556 2.2409
5.4660 -0.3595 2.2409
5.4740 -0.1630 2.2409
5.4749 0.0336 2.2409
5.4688 0.2301 2.2409
5.4556 0.4262 2.2409
