ply
format ascii 1.0
element vertex 2182
property float32 x
property float32 y
property float32 z
end_header
-6.6884 -0.6737 2.3853
-6.6573 -0.9106 2.3853
-6.6171 -1.1460 2.3853
-6.5680 -1.3797 2.3853
-6.5100 -1.6111 2.3853
-6.4432 -1.8400 2.3853
-6.3677 -2.0660 2.3853
-6.2837 -2.2888 2.3853
-6.1914 -2.5080 2.3853
-6.0909 -2.7233 2.3853
-5.9824 -2.9344 2.3853
-5.8660 -3.1410 2.3853
-5.7420 -3.3428 2.3853
-5.6106 -3.5395 2.3853
-5.4721 -3.7309 2.3853
-5.3266 -3.9165 2.3853
-5.1745 -4.0964 2.3853
-5.0159 -4.2700 2.3853
-4.8511 -4.4374 2.3853
-4.6805 -4.5982 2.3853
-4.5043 -4.7521 2.3853
-4.3228 -4.8992 2.3853
-4.1362 -5.0391 2.3853
-3.9449 -5.1717 2.3853
-3.7492 -5.2969 2.3853
-3.5495 -5.4145 2.3853
-3.3459 -5.5244 2.3853
-3.1388 -5.6265 2.3853
-2.9285 -5.7207 2.3853
-2.7154 -5.8070 2.3853
-2.4997 -5.8852 2.3853
-2.2818 -5.9553 2.3853
-2.0620 -6.0173 2.3853
-1.8406 -6.0711 2.3853
-1.6179 -6.1168 2.3853
-1.3942 -6.1543 2.3853
-1.1698 -6.1836 2.3853
-0.9450 -6.2047 2.3853
-0.7201 -6.2177 2.3853
-0.4955 -6.2226 2.3853
-0.2713 -6.2195 2.3853
-0.0480 -6.2084 2.3853
0.1743 -6.1894 2.3853
0.3953 -6.1627 2.3853
0.6146 -6.1281 2.3853
0.8321 -6.0859 2.3853
1.0475 -6.0362 2.3853
1.2604 -5.9790 2.3853
1.4708 -5.9146 2.3853
1.6783 -5.8430 2.3853
1.8827 -5.7643 2.3853
2.0838 -5.6788 2.3853
2.2813 -5.5865 2.3853
2.4751 -5.4875 2.3853
2.6649 -5.3822 2.3853
2.8506 -5.2706 2.3853
3.0320 -5.1528 2.3853
3.2088 -5.0291 2.3853
3.3809 -4.8996 2.3853
3.5481 -4.7646 2.3853
3.7103 -4.6241 2.3853
3.8673 -4.4784 2.3853
4.0190 -4.3277 2.3853
4.1652 -4.1722 2.3853
4.3057 -4.0120 2.3853
4.4405 -3.8473 2.3853
4.5694 -3.6784 2.3853
4.6923 -3.5055 2.3853
4.8092 -3.3287 2.3853
4.9198 -3.1483 2.3853
5.0241 -2.9645 2.3853
5.1220 -2.7774 2.3853
5.2134 -2.5873 2.3853
5.2982 -2.3945 2.3853
5.3765 -2.1990 2.3853
5.4480 -2.0012 2.3853
5.5127 -1.8012 2.3853
5.5707 -1.5993 2.3853
5.6217 -1.3957 2.3853
5.6659 -1.1905 2.3853
5.7030 -0.9841 2.3853
5.7332 -0.7766 2.3853
5.7564 -0.5682 2.3853
5.7726 -0.3593 2.3853
5.7817 -0.1498 2.3853
5.7838 0.0598 2.3853
5.7788 0.2693 2.3853
5.7667 0.4786 2.3853
5.7476 0.6875 2.3853
5.7215 0.8957 2.3853
5.6883 1.1029 2.3853
5.6482 1.3091 2.3853
5.6011 1.5138 2.3853
5.5471 1.7171 2.3853
5.4862 1.9185 2.3853
5.4184 2.1180 2.3853
5.3439 2.3152 2.3853
5.2627 2.5100 2.3853
5.1748 2.7021 2.3853
5.0804 2.8914 2.3853
4.9795 3.0775 2.3853
4.8721 3.2604 2.3853
4.7585 3.4398 2.3853
4.6386 3.6154 2.3853
4.5126 3.7872 2.3853
4.3806 3.9547 2.3853
4.2428 4.1180 2.3853
4.0992 4.2767 2.3853
3.9499 4.4306 2.3853
3.7952 4.5797 2.3853
3.6352 4.7235 2.3853
3.4700 4.8621 2.3853
3.2997 4.9951 2.3853
3.1246 5.1224 2.3853
5.3676 0.8879 2.3853
5.3348 1.0825 2.3853
5.2953 1.2759 2.3853
5.2493 1.4680 2.3853
5.1968 1.6586 2.3853
5.1378 1.8474 2.3853
5.0724 2.0342 2.3853
5.0006 2.2189 2.3853
4.9225 2.4012 2.3853
4.8381 2.5810 2.3853
4.7476 2.7579 2.3853
4.6510 2.9319 2.3853
4.5484 3.1027 2.3853
4.4399 3.2702 2.3853
4.3256 3.4340 2.3853
4.2055 3.5941 2.3853
4.0799 3.7502 2.3853
3.9488 3.9021 2.3853
3.8123 4.0497 2.3853
3.6706 4.1927 2.3853
3.5238 4.3310 2.3853
3.3720 4.4644 2.3853
3.2154 4.5926 2.3853
3.0542 4.7157 2.3853
2.8885 4.8332 2.3853
2.7185 4.9452 2.3853
2.5444 5.0514 2.3853
2.3663 5.1517 2.3853
0.8847 2.1246 0.9660
0.8080 2.1560 0.9642
0.7303 2.1847 0.9623
0.6516 2.2106 0.9604
0.5719 2.2336 0.9584
0.4915 2.2537 0.9565
0.4104 2.2710 0.9545
0.3288 2.2852 0.9525
0.2466 2.2966 0.9505
0.1642 2.3049 0.9484
0.0814 2.3103 0.9464
-0.0015 2.3127 0.9443
-0.0844 2.3121 0.9423
-0.1672 2.3085 0.9402
-0.2499 2.3019 0.9382
-0.3323 2.2924 0.9361
-0.4143 2.2799 0.9341
-0.4957 2.2644 0.9320
-0.5766 2.2460 0.9300
-0.6568 2.2247 0.9280
-0.7361 2.2005 0.9260
-0.8145 2.1735 0.9240
-0.8919 2.1436 0.9221
-2.5096 5.4723 2.3853
-2.7097 5.3919 2.3853
-2.9070 5.3039 2.3853
-3.1013 5.2086 2.3853
-3.2924 5.1059 2.3853
-3.4798 4.9960 2.3853
-3.6634 4.8791 2.3853
-3.8428 4.7551 2.3853
-4.0177 4.6244 2.3853
-4.1879 4.4870 2.3853
-4.3531 4.3431 2.3853
-4.5130 4.1929 2.3853
-4.6674 4.0365 2.3853
-4.8160 3.8743 2.3853
-4.9586 3.7063 2.3853
-5.0949 3.5328 2.3853
-5.2247 3.3541 2.3853
-5.3478 3.1705 2.3853
-5.4640 2.9821 2.3853
-5.5730 2.7892 2.3853
-5.6747 2.5921 2.3853
-5.7690 2.3912 2.3853
-5.8557 2.1866 2.3853
-5.9344 1.9788 2.3853
-6.0052 1.7681 2.3853
-6.0681 1.5545 2.3853
-6.1227 1.3387 2.3853
-6.1690 1.1209 2.3853
-6.2072 0.9013 2.3853
-6.2368 0.6805 2.3853
-6.2579 0.4586 2.3853
-6.2706 0.2360 2.3853
-6.2747 0.0132 2.3853
-6.2703 -0.2097 2.3853
-6.2574 -0.4321 2.3853
-6.2360 -0.6539 2.3853
-6.2062 -0.8746 2.3853
-6.1680 -1.0940 2.3853
-6.1214 -1.3116 2.3853
-6.0666 -1.5271 2.3853
-6.0037 -1.7403 2.3853
-5.9327 -1.9508 2.3853
-5.8539 -2.1583 2.3853
-5.7673 -2.3625 2.3853
-5.6731 -2.5630 2.3853
-5.5714 -2.7596 2.3853
-5.4625 -2.9521 2.3853
-5.3465 -3.1400 2.3853
-5.2236 -3.3233 2.3853
-5.0941 -3.5015 2.3853
-4.9581 -3.6745 2.3853
-4.8159 -3.8421 2.3853
-4.6677 -4.0039 2.3853
-4.5138 -4.1599 2.3853
-4.3544 -4.3097 2.3853
-4.1898 -4.4533 2.3853
-4.0203 -4.5904 2.3853
-3.8460 -4.7208 2.3853
-3.6674 -4.8445 2.3853
-3.4846 -4.9613 2.3853
-3.2980 -5.0710 2.3853
-3.1078 -5.1735 2.3853
-2.9143 -5.2688 2.3853
-2.7179 -5.3568 2.3853
-2.5187 -5.4373 2.3853
-2.3172 -5.5104 2.3853
-2.1135 -5.5758 2.3853
-1.9081 -5.6338 2.3853
-1.7011 -5.6840 2.3853
-1.4928 -5.7267 2.3853
-1.2837 -5.7617 2.3853
-1.0738 -5.7891 2.3853
-0.8636 -5.8089 2.3853
-0.6532 -5.8210 2.3853
-0.4430 -5.8256 2.3853
-0.2333 -5.8227 2.3853
-0.0242 -5.8124 2.3853
0.1839 -5.7946 2.3853
0.3907 -5.7695 2.3853
0.5961 -5.7370 2.3853
0.7998 -5.6976 2.3853
1.0015 -5.6509 2.3853
1.2010 -5.5974 2.3853
1.3981 -5.5370 2.3853
1.5925 -5.4698 2.3853
1.7840 -5.3960 2.3853
1.9724 -5.3157 2.3853
2.1576 -5.2291 2.3853
2.3392 -5.1363 2.3853
2.5172 -5.0374 2.3853
2.6913 -4.9326 2.3853
2.8613 -4.8220 2.3853
3.0270 -4.7058 2.3853
3.1884 -4.5842 2.3853
3.3452 -4.4573 2.3853
3.4973 -4.3253 2.3853
3.6445 -4.1884 2.3853
3.7866 -4.0467 2.3853
3.9237 -3.9005 2.3853
4.0554 -3.7499 2.3853
4.1817 -3.5951 2.3853
4.3025 -3.4363 2.3853
4.4177 -3.2737 2.3853
4.5271 -3.1074 2.3853
4.6306 -2.9377 2.3853
4.7282 -2.7648 2.3853
4.8198 -2.5889 2.3853
4.9053 -2.4101 2.3853
4.9845 -2.2287 2.3853
5.0575 -2.0448 2.3853
5.1242 -1.8587 2.3853
5.1845 -1.6706 2.3853
5.2384 -1.4807 2.3853
5.2858 -1.2891 2.3853
5.3266 -1.0962 2.3853
5.3609 -0.9020 2.3853
5.3886 -0.7069 2.3853
5.4097 -0.5110 2.3853
5.4242 -0.3145 2.3853
5.4320 -0.1176 2.3853
5.4331 0.0795 2.3853
5.4276 0.2764 2.3853
5.4154 0.4732 2.3853
5.3965 0.6694 2.3853
5.3711 0.8650 2.3853
5.3390 1.0596 2.3853
5.3003 1.2532 2.3853
5.2551 1.4455 2.3853
5.2033 1.6362 2.3853
5.1451 1.8253 2.3853
5.0804 2.0124 2.3853
5.0093 2.1973 2.3853
4.9320 2.3799 2.3853
4.8484 2.5600 2.3853
4.7586 2.7373 2.3853
4.6627 2.9116 2.3853
4.5608 3.0828 2.3853
4.4530 3.2507 2.3853
4.3393 3.4149 2.3853
4.2199 3.5754 2.3853
4.0950 3.7320 2.3853
3.9645 3.8844 2.3853
3.8286 4.0325 2.3853
3.6875 4.1761 2.3853
3.5413 4.3150 2.3853
3.3901 4.4489 2.3853
3.2341 4.5778 2.3853
3.0734 4.7015 2.3853
2.9083 4.8197 2.3853
2.7388 4.9324 2.3853
2.5651 5.0393 2.3853
2.3874 5.1402 2.3853
0.8936 2.1207 0.9663
0.8171 2.1525 0.9644
0.7395 2.1815 0.9625
0.6609 2.2077 0.9606
0.5813 2.2311 0.9587
0.5010 2.2515 0.9567
0.4200 2.2691 0.9547
0.3384 2.2837 0.9527
0.2563 2.2954 0.9507
0.1739 2.3041 0.9487
0.0912 2.3098 0.9466
0.0083 2.3126 0.9446
-0.0746 2.3123 0.9425
-0.1575 2.3091 0.9405
-0.2402 2.3029 0.9384
-0.3226 2.2937 0.9364
-0.4047 2.2815 0.9343
-0.4862 2.2664 0.9323
-0.5671 2.2483 0.9303
-0.6474 2.2273 0.9282
-0.7268 2.2035 0.9263
-0.8053 2.1768 0.9243
-0.8828 2.1473 0.9223
-2.4859 5.4813 2.3853
-2.6863 5.4017 2.3853
-2.8840 5.3147 2.3853
-3.0787 5.2202 2.3853
-3.2701 5.1184 2.3853
-3.4580 5.0093 2.3853
-3.6420 4.8932 2.3853
-3.8219 4.7701 2.3853
-3.9973 4.6401 2.3853
-4.1681 4.5035 2.3853
-4.3339 4.3603 2.3853
-4.4945 4.2108 2.3853
-4.6495 4.0552 2.3853
-4.7988 3.8936 2.3853
-4.9421 3.7263 2.3853
-5.0792 3.5535 2.3853
-5.2098 3.3754 2.3853
-5.3337 3.1923 2.3853
-5.4507 3.0045 2.3853
-5.5606 2.8121 2.3853
-5.6632 2.6155 2.3853
-5.7583 2.4150 2.3853
-5.8458 2.2109 2.3853
-5.9253 2.0035 2.3853
-5.9972 1.7930 2.3853
-6.0611 1.5797 2.3853
-6.1167 1.3642 2.3853
-6.1641 1.1466 2.3853
-6.2031 0.9272 2.3853
-6.2337 0.7065 2.3853
-6.2559 0.4847 2.3853
-6.2695 0.2622 2.3853
-6.2747 0.0394 2.3853
-6.2713 -0.1835 2.3853
-6.2594 -0.4060 2.3853
-6.2390 -0.6279 2.3853
-6.2101 -0.8488 2.3853
-6.1729 -1.0683 2.3853
-6.1273 -1.2861 2.3853
-6.0735 -1.5019 2.3853
-6.0115 -1.7154 2.3853
-5.9415 -1.9262 2.3853
-5.8636 -2.1341 2.3853
-5.7779 -2.3387 2.3853
-5.6845 -2.5396 2.3853
-5.5837 -2.7367 2.3853
-5.4756 -2.9297 2.3853
-5.3605 -3.1182 2.3853
-5.2384 -3.3020 2.3853
-5.1096 -3.4808 2.3853
-4.9744 -3.6545 2.3853
-4.8329 -3.8227 2.3853
-4.6854 -3.9852 2.3853
-4.5322 -4.1418 2.3853
-4.3734 -4.2924 2.3853
-4.2094 -4.4367 2.3853
-4.0404 -4.5746 2.3853
-3.8667 -4.7058 2.3853
-3.6886 -4.8303 2.3853
-3.5063 -4.9479 2.3853
-3.3201 -5.0585 2.3853
-3.1303 -5.1619 2.3853
-2.9372 -5.2580 2.3853
-2.7411 -5.3468 2.3853
-2.5423 -5.4282 2.3853
-2.3410 -5.5022 2.3853
-2.1376 -5.5685 2.3853
-1.9323 -5.6273 2.3853
-1.7255 -5.6785 2.3853
-1.5174 -5.7221 2.3853
-1.3083 -5.7580 2.3853
-1.0985 -5.7863 2.3853
-0.8883 -5.8069 2.3853
-0.6779 -5.8200 2.3853
-0.4677 -5.8255 2.3853
-0.2579 -5.8235 2.3853
-0.0487 -5.8140 2.3853
0.1595 -5.7971 2.3853
0.3665 -5.7728 2.3853
0.5721 -5.7412 2.3853
0.7759 -5.7026 2.3853
0.9779 -5.6568 2.3853
1.1777 -5.6040 2.3853
1.3750 -5.5444 2.3853
1.5698 -5.4780 2.3853
1.7616 -5.4050 2.3853
1.9505 -5.3255 2.3853
2.1360 -5.2396 2.3853
2.3181 -5.1475 2.3853
2.4965 -5.0493 2.3853
2.6710 -4.9452 2.3853
2.8415 -4.8353 2.3853
3.0078 -4.7198 2.3853
3.1697 -4.5988 2.3853
3.3270 -4.4725 2.3853
3.4796 -4.3411 2.3853
3.6274 -4.2047 2.3853
3.7702 -4.0636 2.3853
3.9078 -3.9179 2.3853
4.0402 -3.7678 2.3853
4.1672 -3.6135 2.3853
4.2886 -3.4552 2.3853
4.4044 -3.2930 2.3853
4.5145 -3.1272 2.3853
4.6188 -2.9579 2.3853
4.7171 -2.7853 2.3853
4.8093 -2.6097 2.3853
4.8955 -2.4312 2.3853
4.9755 -2.2501 2.3853
5.0493 -2.0666 2.3853
5.1167 -1.8807 2.3853
5.1778 -1.6928 2.3853
5.2324 -1.5031 2.3853
5.2806 -1.3117 2.3853
5.3222 -1.1189 2.3853
5.3572 -0.9249 2.3853
5.3857 -0.7299 2.3853
5.4076 -0.5340 2.3853
5.4228 -0.3376 2.3853
5.4314 -0.1407 2.3853
5.4333 0.0563 2.3853
5.4286 0.2533 2.3853
5.4172 0.4501 2.3853
5.3991 0.6464 2.3853
5.3744 0.8420 2.3853
5.3431 1.0368 2.3853
5.3052 1.2305 2.3853
5.2607 1.4229 2.3853
5.2097 1.6139 2.3853
5.1522 1.8032 2.3853
5.0883 1.9905 2.3853
5.0180 2.1757 2.3853
4.9414 2.3586 2.3853
4.8585 2.5390 2.3853
4.7695 2.7166 2.3853
4.6743 2.8913 2.3853
4.5731 3.0629 2.3853
4.4660 3.2311 2.3853
4.3530 3.3958 2.3853
4.2343 3.5568 2.3853
4.1099 3.7138 2.3853
3.9801 3.8668 2.3853
3.8449 4.0153 2.3853
3.7044 4.1595 2.3853
3.5587 4.2989 2.3853
3.4081 4.4334 2.3853
3.2527 4.5629 2.3853
3.0925 4.6872 2.3853
2.9279 4.8061 2.3853
5.0548 0.8369 2.3853
5.0237 1.0202 2.3853
4.9864 1.2024 2.3853
4.9429 1.3834 2.3853
4.8932 1.5629 2.3853
4.8374 1.7407 2.3853
4.7755 1.9167 2.3853
4.7076 2.0906 2.3853
4.6338 2.2623 2.3853
4.5541 2.4314 2.3853
4.4685 2.5980 2.3853
4.3772 2.7617 2.3853
4.2803 2.9224 2.3853
4.1778 3.0798 2.3853
4.0698 3.2339 2.3853
3.9564 3.3843 2.3853
3.8378 3.5310 2.3853
3.7140 3.6737 2.3853
3.5852 3.8123 2.3853
3.4515 3.9465 2.3853
3.3129 4.0763 2.3853
3.1698 4.2014 2.3853
3.0221 4.3217 2.3853
2.8701 4.4370 2.3853
2.7139 4.5471 2.3853
2.5537 4.6520 2.3853
2.3896 4.7513 2.3853
0.9000 1.9626 0.9662
0.8291 1.9947 0.9645
0.7572 2.0242 0.9628
0.6842 2.0511 0.9610
0.6102 2.0754 0.9592
0.5355 2.0970 0.9574
0.4600 2.1159 0.9555
0.3839 2.1321 0.9537
0.3072 2.1455 0.9518
0.2301 2.1561 0.9499
0.1527 2.1639 0.9480
0.0750 2.1690 0.9461
-0.0028 2.1712 0.9441
-0.0807 2.1706 0.9422
-0.1585 2.1673 0.9403
-0.2361 2.1611 0.9383
-0.3134 2.1521 0.9364
-0.3904 2.1404 0.9345
-0.4668 2.1258 0.9326
-0.5428 2.1086 0.9307
-0.6180 2.0886 0.9288
-0.6925 2.0659 0.9269
-0.7661 2.0405 0.9251
-0.8387 2.0125 0.9232
-0.9103 1.9819 0.9214
-2.5438 5.0544 2.3853
-2.7284 4.9713 2.3853
-2.9102 4.8814 2.3853
-3.0889 4.7846 2.3853
-3.2641 4.6811 2.3853
-3.4357 4.5710 2.3853
-3.6034 4.4544 2.3853
-3.7668 4.3314 2.3853
-3.9258 4.2023 2.3853
-4.0801 4.0671 2.3853
-4.2294 3.9260 2.3853
-4.3736 3.7793 2.3853
-4.5123 3.6270 2.3853
-4.6454 3.4695 2.3853
-4.7726 3.3068 2.3853
-4.8937 3.1393 2.3853
-5.0086 2.9672 2.3853
-5.1169 2.7907 2.3853
-5.2186 2.6100 2.3853
-5.3136 2.4255 2.3853
-5.4013 2.2374 2.3853
-5.4821 2.0459 2.3853
-5.5556 1.8514 2.3853
-5.6217 1.6541 2.3853
-5.6803 1.4543 2.3853
-5.7312 1.2524 2.3853
-5.7745 1.0486 2.3853
-5.8099 0.8432 2.3853
-5.8376 0.6366 2.3853
-5.8573 0.4291 2.3853
-5.8691 0.2209 2.3853
-5.8730 0.0125 2.3853
-5.8689 -0.1960 2.3853
-5.8570 -0.4041 2.3853
-5.8371 -0.6115 2.3853
-5.8093 -0.8180 2.3853
-5.7737 -1.0232 2.3853
-5.7304 -1.2268 2.3853
-5.6793 -1.4285 2.3853
-5.6207 -1.6281 2.3853
-5.5546 -1.8251 2.3853
-5.4811 -2.0193 2.3853
-5.4004 -2.2105 2.3853
-5.3126 -2.3983 2.3853
-5.2178 -2.5825 2.3853
-5.1162 -2.7627 2.3853
-5.0081 -2.9389 2.3853
-4.8935 -3.1107 2.3853
-4.7726 -3.2778 2.3853
-4.6457 -3.4401 2.3853
-4.5130 -3.5973 2.3853
-4.3747 -3.7492 2.3853
-4.2310 -3.8956 2.3853
-4.0822 -4.0364 2.3853
-3.9284 -4.1713 2.3853
-3.7700 -4.3002 2.3853
-3.6072 -4.4229 2.3853
-3.4402 -4.5393 2.3853
-3.2693 -4.6493 2.3853
-3.0948 -4.7527 2.3853
-2.9169 -4.8494 2.3853
-2.7359 -4.9394 2.3853
-2.5521 -5.0225 2.3853
-2.3656 -5.0986 2.3853
-2.1769 -5.1678 2.3853
-1.9862 -5.2299 2.3853
-1.7937 -5.2849 2.3853
-1.5997 -5.3328 2.3853
-1.4045 -5.3736 2.3853
-1.2084 -5.4072 2.3853
-1.0116 -5.4336 2.3853
-0.8143 -5.4529 2.3853
-0.6170 -5.4651 2.3853
-0.4197 -5.4701 2.3853
-0.2227 -5.4681 2.3853
-0.0264 -5.4591 2.3853
0.1691 -5.4431 2.3853
0.3635 -5.4203 2.3853
0.5565 -5.3905 2.3853
0.7480 -5.3541 2.3853
0.9376 -5.3110 2.3853
1.1253 -5.2613 2.3853
1.3107 -5.2052 2.3853
1.4937 -5.1427 2.3853
1.6740 -5.0739 2.3853
1.8514 -4.9990 2.3853
2.0258 -4.9181 2.3853
2.1969 -4.8314 2.3853
2.3645 -4.7389 2.3853
2.5286 -4.6408 2.3853
2.6888 -4.5372 2.3853
2.8451 -4.4284 2.3853
2.9973 -4.3143 2.3853
3.1452 -4.1953 2.3853
3.2886 -4.0715 2.3853
3.4275 -3.9430 2.3853
3.5617 -3.8099 2.3853
3.6910 -3.6726 2.3853
3.8154 -3.5311 2.3853
3.9346 -3.3856 2.3853
4.0487 -3.2362 2.3853
4.1574 -3.0833 2.3853
4.2608 -2.9269 2.3853
4.3586 -2.7672 2.3853
4.4508 -2.6045 2.3853
4.5373 -2.4389 2.3853
4.6181 -2.2706 2.3853
4.6930 -2.0997 2.3853
4.7620 -1.9266 2.3853
4.8250 -1.7513 2.3853
4.8820 -1.5741 2.3853
4.9329 -1.3952 2.3853
4.9777 -1.2147 2.3853
5.0163 -1.0329 2.3853
5.0487 -0.8500 2.3853
5.0749 -0.6661 2.3853
5.0948 -0.4814 2.3853
5.1084 -0.2962 2.3853
5.1158 -0.1107 2.3853
5.1168 0.0750 2.3853
5.1116 0.2607 2.3853
5.1000 0.4460 2.3853
5.0822 0.6310 2.3853
5.0581 0.8153 2.3853
5.0277 0.9987 2.3853
4.9911 1.1811 2.3853
4.9483 1.3622 2.3853
4.8993 1.5419 2.3853
4.8443 1.7199 2.3853
4.7831 1.8961 2.3853
4.7159 2.0703 2.3853
4.6428 2.2422 2.3853
4.5638 2.4117 2.3853
4.4789 2.5785 2.3853
4.3883 2.7426 2.3853
4.2920 2.9036 2.3853
4.1901 3.0615 2.3853
4.0828 3.2159 2.3853
3.9700 3.3668 2.3853
3.8520 3.5139 2.3853
3.7288 3.6571 2.3853
3.6006 3.7962 2.3853
3.4674 3.9310 2.3853
3.3295 4.0613 2.3853
3.1868 4.1870 2.3853
3.0397 4.3078 2.3853
2.8882 4.4237 2.3853
2.7325 4.5345 2.3853
2.5727 4.6399 2.3853
2.4091 4.7399 2.3853
2.2417 4.8344 2.3853
0.8375 1.9911 0.9647
0.7657 2.0209 0.9630
0.6928 2.0481 0.9612
0.6190 2.0727 0.9594
0.5443 2.0946 0.9576
0.4689 2.1138 0.9557
0.3929 2.1303 0.9539
0.3162 2.1440 0.9520
0.2392 2.1550 0.9501
0.1618 2.1631 0.9482
0.0841 2.1685 0.9463
0.0063 2.1711 0.9444
-0.0715 2.1709 0.9424
-0.1493 2.1678 0.9405
-0.2269 2.1620 0.9386
-0.3043 2.1533 0.9366
-0.3813 2.1419 0.9347
-0.4579 2.1277 0.9328
-0.5339 2.1107 0.9309
-0.6092 2.0911 0.9290
-0.6838 2.0687 0.9271
-0.7575 2.0436 0.9253
-0.8302 2.0159 0.9235
-0.9019 1.9856 0.9216
-2.5219 5.0637 2.3853
-2.7068 4.9815 2.3853
-2.8890 4.8923 2.3853
-3.0680 4.7963 2.3853
-3.2437 4.6936 2.3853
-3.4157 4.5842 2.3853
-3.5839 4.4684 2.3853
-3.7478 4.3462 2.3853
-3.9074 4.2178 2.3853
-4.0622 4.0833 2.3853
-4.2122 3.9429 2.3853
-4.3569 3.7968 2.3853
-4.4963 3.6452 2.3853
-4.6301 3.4883 2.3853
-4.7580 3.3262 2.3853
-4.8798 3.1593 2.3853
-4.9954 2.9877 2.3853
-5.1045 2.8117 2.3853
-5.2070 2.6315 2.3853
-5.3028 2.4474 2.3853
-5.3914 2.2597 2.3853
-5.4730 2.0686 2.3853
-5.5474 1.8744 2.3853
-5.6143 1.6774 2.3853
-5.6738 1.4779 2.3853
-5.7256 1.2762 2.3853
-5.7698 1.0726 2.3853
-5.8062 0.8674 2.3853
-5.8347 0.6610 2.3853
-5.8554 0.4535 2.3853
-5.8681 0.2454 2.3853
-5.8730 0.0370 2.3853
-5.8698 -0.1715 2.3853
-5.8588 -0.3796 2.3853
-5.8398 -0.5872 2.3853
-5.8130 -0.7938 2.3853
-5.7783 -0.9991 2.3853
-5.7358 -1.2030 2.3853
-5.6857 -1.4049 2.3853
-5.6280 -1.6047 2.3853
-5.5627 -1.8020 2.3853
-5.4901 -1.9966 2.3853
-5.4103 -2.1882 2.3853
-5.3233 -2.3764 2.3853
-5.2293 -2.5610 2.3853
-5.1285 -2.7418 2.3853
-5.0211 -2.9184 2.3853
-4.9073 -3.0907 2.3853
-4.7871 -3.2584 2.3853
-4.6610 -3.4212 2.3853
-4.5289 -3.5791 2.3853
-4.3913 -3.7316 2.3853
-4.2482 -3.8787 2.3853
-4.1000 -4.0201 2.3853
-3.9468 -4.1557 2.3853
-3.7889 -4.2853 2.3853
-3.6266 -4.4088 2.3853
-3.4601 -4.5260 2.3853
-3.2896 -4.6367 2.3853
-3.1155 -4.7409 2.3853
-2.9380 -4.8384 2.3853
-2.7573 -4.9291 2.3853
-2.5738 -5.0131 2.3853
-2.3877 -5.0900 2.3853
-2.1992 -5.1600 2.3853
-2.0087 -5.2230 2.3853
-1.8164 -5.2788 2.3853
-1.6226 -5.3276 2.3853
-1.4275 -5.3691 2.3853
-1.2315 -5.4036 2.3853
-1.0347 -5.4309 2.3853
-0.8375 -5.4510 2.3853
-0.6402 -5.4640 2.3853
-0.4428 -5.4699 2.3853
-0.2458 -5.4687 2.3853
-0.0494 -5.4605 2.3853
0.1462 -5.4454 2.3853
0.3407 -5.4233 2.3853
0.5339 -5.3944 2.3853
0.7256 -5.3587 2.3853
0.9155 -5.3164 2.3853
1.1033 -5.2675 2.3853
1.2890 -5.2121 2.3853
1.4723 -5.1503 2.3853
1.6529 -5.0823 2.3853
1.8307 -5.0081 2.3853
2.0054 -4.9280 2.3853
2.1769 -4.8419 2.3853
2.3450 -4.7501 2.3853
2.5095 -4.6526 2.3853
2.6702 -4.5497 2.3853
2.8270 -4.4414 2.3853
2.9796 -4.3280 2.3853
3.1280 -4.2096 2.3853
3.2720 -4.0863 2.3853
3.4114 -3.9583 2.3853
3.5462 -3.8258 2.3853
3.6761 -3.6890 2.3853
3.8010 -3.5479 2.3853
3.9209 -3.4029 2.3853
4.0356 -3.2540 2.3853
4.1449 -3.1015 2.3853
4.2489 -2.9455 2.3853
4.3474 -2.7862 2.3853
4.4402 -2.6238 2.3853
4.5274 -2.4585 2.3853
4.6089 -2.2905 2.3853
4.6845 -2.1199 2.3853
4.7542 -1.9471 2.3853
4.8179 -1.7720 2.3853
4.8756 -1.5950 2.3853
4.9272 -1.4163 2.3853
4.9727 -1.2360 2.3853
5.0121 -1.0543 2.3853
5.0452 -0.8715 2.3853
5.0721 -0.6877 2.3853
5.0928 -0.5031 2.3853
5.1072 -0.3180 2.3853
5.1152 -0.1325 2.3853
5.1170 0.0532 2.3853
5.1125 0.2388 2.3853
5.1017 0.4243 2.3853
5.0846 0.6093 2.3853
5.0612 0.7936 2.3853
5.0316 0.9772 2.3853
4.9957 1.1597 2.3853
4.9537 1.3410 2.3853
4.9054 1.5208 2.3853
4.8511 1.6991 2.3853
4.7906 1.8755 2.3853
4.7241 2.0499 2.3853
4.6517 2.2221 2.3853
4.5734 2.3919 2.3853
4.4892 2.5591 2.3853
4.3992 2.7235 2.3853
4.3036 2.8849 2.3853
4.2024 3.0431 2.3853
4.0957 3.1979 2.3853
3.9836 3.3493 2.3853
3.8662 3.4968 2.3853
3.7436 3.6405 2.3853
3.6159 3.7801 2.3853
3.4833 3.9154 2.3853
3.3459 4.0462 2.3853
3.2039 4.1724 2.3853
3.0572 4.2939 2.3853
2.9062 4.4104 2.3853
2.7510 4.5217 2.3853
4.7709 0.7905 2.3853
4.7414 0.9636 2.3853
4.7060 1.1357 2.3853
4.6648 1.3066 2.3853
4.6177 1.4761 2.3853
4.5648 1.6440 2.3853
4.5062 1.8101 2.3853
4.4419 1.9742 2.3853
4.3719 2.1362 2.3853
4.2964 2.2958 2.3853
4.2154 2.4529 2.3853
4.1290 2.6073 2.3853
4.0372 2.7588 2.3853
3.9402 2.9072 2.3853
3.8379 3.0524 2.3853
3.7307 3.1942 2.3853
3.6184 3.3324 2.3853
3.5013 3.4668 2.3853
3.3795 3.5973 2.3853
3.2530 3.7236 2.3853
3.1220 3.8457 2.3853
2.9867 3.9634 2.3853
2.8471 4.0765 2.3853
2.7035 4.1848 2.3853
2.5559 4.2883 2.3853
2.4046 4.3867 2.3853
2.2496 4.4799 2.3853
0.8458 1.8474 0.9647
0.7791 1.8776 0.9631
0.7113 1.9054 0.9615
0.6426 1.9308 0.9598
0.5730 1.9536 0.9581
0.5027 1.9739 0.9564
0.4316 1.9917 0.9547
0.3599 2.0069 0.9529
0.2878 2.0195 0.9511
0.2152 2.0295 0.9494
0.1423 2.0368 0.9476
0.0692 2.0416 0.9458
-0.0041 2.0437 0.9439
-0.0773 2.0432 0.9421
-0.1505 2.0400 0.9403
-0.2236 2.0342 0.9385
-0.2964 2.0257 0.9367
-0.3688 2.0146 0.9349
-0.4408 2.0010 0.9331
-0.5123 1.9847 0.9313
-0.5831 1.9659 0.9295
-0.6532 1.9445 0.9277
-0.7225 1.9206 0.9260
-0.7908 1.8943 0.9243
-0.8582 1.8655 0.9226
-0.9245 1.8343 0.9209
-2.5680 4.6725 2.3853
-2.7385 4.5875 2.3853
-2.9061 4.4960 2.3853
-3.0705 4.3983 2.3853
-3.2314 4.2944 2.3853
-3.3886 4.1844 2.3853
-3.5418 4.0686 2.3853
-3.6907 3.9469 2.3853
-3.8353 3.8196 2.3853
-3.9752 3.6868 2.3853
-4.1102 3.5487 2.3853
-4.2401 3.4054 2.3853
-4.3647 3.2572 2.3853
-4.4838 3.1043 2.3853
-4.5972 2.9469 2.3853
-4.7047 2.7851 2.3853
-4.8061 2.6193 2.3853
-4.9010 2.4497 2.3853
-4.9901 2.2763 2.3853
-5.0723 2.0997 2.3853
-5.1479 1.9199 2.3853
-5.2166 1.7373 2.3853
-5.2785 1.5521 2.3853
-5.3332 1.3646 2.3853
-5.3808 1.1751 2.3853
-5.4213 0.9839 2.3853
-5.4544 0.7912 2.3853
-5.4803 0.5974 2.3853
-5.4988 0.4027 2.3853
-5.5098 0.2074 2.3853
-5.5135 0.0118 2.3853
-5.5097 -0.1837 2.3853
-5.4986 -0.3790 2.3853
-5.4800 -0.5736 2.3853
-5.4541 -0.7673 2.3853
-5.4208 -0.9599 2.3853
-5.3803 -1.1510 2.3853
-5.3326 -1.3403 2.3853
-5.2778 -1.5275 2.3853
-5.2160 -1.7125 2.3853
-5.1473 -1.8948 2.3853
-5.0718 -2.0743 2.3853
-4.9897 -2.2507 2.3853
-4.9011 -2.4237 2.3853
-4.8061 -2.5931 2.3853
-4.7048 -2.7587 2.3853
-4.5976 -2.9201 2.3853
-4.4845 -3.0773 2.3853
-4.3657 -3.2299 2.3853
-4.2415 -3.3778 2.3853
-4.1120 -3.5207 2.3853
-3.9774 -3.6586 2.3853
-3.8380 -3.7911 2.3853
-3.6939 -3.9182 2.3853
-3.5455 -4.0397 2.3853
-3.3928 -4.1554 2.3853
-3.2363 -4.2653 2.3853
-3.0760 -4.3691 2.3853
-2.9123 -4.4667 2.3853
-2.7454 -4.5582 2.3853
-2.5756 -4.6433 2.3853
-2.4030 -4.7219 2.3853
-2.2280 -4.7941 2.3853
-2.0508 -4.8597 2.3853
-1.8716 -4.9187 2.3853
-1.6908 -4.9710 2.3853
-1.5085 -5.0167 2.3853
-1.3250 -5.0556 2.3853
-1.1406 -5.0879 2.3853
-0.9555 -5.1134 2.3853
-0.7700 -5.1321 2.3853
-0.5843 -5.1442 2.3853
-0.3986 -5.1496 2.3853
-0.2132 -5.1484 2.3853
-0.0284 -5.1405 2.3853
0.1557 -5.1261 2.3853
0.3388 -5.1051 2.3853
0.5207 -5.0778 2.3853
0.7012 -5.0440 2.3853
0.8800 -5.0040 2.3853
1.0569 -4.9578 2.3853
1.2318 -4.9054 2.3853
1.4044 -4.8470 2.3853
1.5745 -4.7828 2.3853
1.7419 -4.7127 2.3853
1.9065 -4.6369 2.3853
2.0681 -4.5556 2.3853
2.2264 -4.4688 2.3853
2.3814 -4.3767 2.3853
2.5327 -4.2795 2.3853
2.6804 -4.1772 2.3853
2.8242 -4.0700 2.3853
2.9640 -3.9581 2.3853
3.0996 -3.8416 2.3853
3.2310 -3.7206 2.3853
3.3578 -3.5954 2.3853
3.4802 -3.4660 2.3853
3.5978 -3.3327 2.3853
3.7106 -3.1956 2.3853
3.8185 -3.0548 2.3853
3.9215 -2.9107 2.3853
4.0193 -2.7632 2.3853
4.1118 -2.6126 2.3853
4.1991 -2.4591 2.3853
4.2810 -2.3028 2.3853
4.3575 -2.1440 2.3853
4.4284 -1.9827 2.3853
4.4938 -1.8193 2.3853
4.5534 -1.6538 2.3853
4.6074 -1.4866 2.3853
4.6556 -1.3176 2.3853
4.6980 -1.1472 2.3853
4.7346 -0.9755 2.3853
4.7653 -0.8027 2.3853
4.7900 -0.6290 2.3853
4.8089 -0.4546 2.3853
4.8218 -0.2797 2.3853
4.8287 -0.1044 2.3853
4.8297 0.0710 2.3853
4.8247 0.2463 2.3853
4.8138 0.4214 2.3853
4.7968 0.5961 2.3853
4.7740 0.7701 2.3853
4.7452 0.9433 2.3853
4.7105 1.1156 2.3853
4.6699 1.2866 2.3853
4.6235 1.4562 2.3853
4.5713 1.6243 2.3853
4.5134 1.7906 2.3853
4.4497 1.9550 2.3853
4.3805 2.1172 2.3853
4.3056 2.2772 2.3853
4.2252 2.4346 2.3853
4.1394 2.5893 2.3853
4.0483 2.7411 2.3853
3.9518 2.8900 2.3853
3.8502 3.0355 2.3853
3.7435 3.1777 2.3853
3.6319 3.3163 2.3853
3.5153 3.4512 2.3853
3.3940 3.5821 2.3853
3.2681 3.7090 2.3853
3.1377 3.8316 2.3853
3.0028 3.9498 2.3853
2.8637 4.0634 2.3853
2.7206 4.1723 2.3853
2.5735 4.2764 2.3853
2.4225 4.3754 2.3853
2.2680 4.4692 2.3853
0.8535 1.8437 0.9649
0.7870 1.8742 0.9633
0.7193 1.9023 0.9617
0.6507 1.9279 0.9600
0.5812 1.9510 0.9583
0.5110 1.9717 0.9566
0.4400 1.9897 0.9549
0.3684 2.0052 0.9531
0.2963 2.0181 0.9513
0.2237 2.0284 0.9496
0.1509 2.0361 0.9478
0.0778 2.0412 0.9460
0.0046 2.0436 0.9442
-0.0687 2.0434 0.9423
-0.1419 2.0405 0.9405
-0.2150 2.0350 0.9387
-0.2878 2.0268 0.9369
-0.3603 2.0161 0.9351
-0.4324 2.0027 0.9333
-0.5039 1.9868 0.9315
-0.5748 1.9682 0.9297
-0.6450 1.9472 0.9280
-0.7144 1.9236 0.9262
-0.7829 1.8975 0.9245
-0.8503 1.8690 0.9228
-0.9168 1.8381 0.9211
-2.5477 4.6821 2.3853
-2.7186 4.5978 2.3853
-2.8866 4.5071 2.3853
-3.0513 4.4101 2.3853
-3.2127 4.3069 2.3853
-3.3703 4.1977 2.3853
-3.5240 4.0825 2.3853
-3.6735 3.9615 2.3853
-3.8186 3.8348 2.3853
-3.9590 3.7026 2.3853
-4.0946 3.5652 2.3853
-4.2251 3.4225 2.3853
-4.3504 3.2749 2.3853
-4.4701 3.1225 2.3853
-4.5842 2.9656 2.3853
-4.6924 2.8044 2.3853
-4.7944 2.6390 2.3853
-4.8904 2.4697 2.3853
-4.9800 2.2969 2.3853
-5.0630 2.1206 2.3853
-5.1393 1.9412 2.3853
-5.2088 1.7589 2.3853
-5.2715 1.5740 2.3853
-5.3271 1.3868 2.3853
-5.3756 1.1975 2.3853
-5.4169 1.0065 2.3853
-5.4509 0.8139 2.3853
-5.4776 0.6202 2.3853
-5.4970 0.4256 2.3853
-5.5089 0.2304 2.3853
-5.5135 0.0348 2.3853
-5.5106 -0.1607 2.3853
-5.5003 -0.3560 2.3853
-5.4826 -0.5507 2.3853
-5.4575 -0.7446 2.3853
-5.4251 -0.9373 2.3853
-5.3854 -1.1286 2.3853
-5.3386 -1.3181 2.3853
-5.2846 -1.5056 2.3853
-5.2236 -1.6909 2.3853
-5.1557 -1.8735 2.3853
-5.0811 -2.0534 2.3853
-4.9997 -2.2301 2.3853
-4.9118 -2.4036 2.3853
-4.8175 -2.5734 2.3853
-4.7171 -2.7394 2.3853
-4.6105 -2.9014 2.3853
-4.4981 -3.0590 2.3853
-4.3800 -3.2122 2.3853
-4.2564 -3.3606 2.3853
-4.1275 -3.5042 2.3853
-3.9935 -3.6426 2.3853
-3.8546 -3.7758 2.3853
-3.7111 -3.9036 2.3853
-3.5631 -4.0257 2.3853
-3.4110 -4.1421 2.3853
-3.2549 -4.2527 2.3853
-3.0950 -4.3572 2.3853
-2.9317 -4.4556 2.3853
-2.7652 -4.5477 2.3853
-2.5957 -4.6336 2.3853
-2.4234 -4.7130 2.3853
-2.2487 -4.7859 2.3853
-2.0717 -4.8523 2.3853
-1.8928 -4.9121 2.3853
-1.7121 -4.9652 2.3853
-1.5300 -5.0117 2.3853
-1.3466 -5.0514 2.3853
-1.1623 -5.0844 2.3853
-0.9773 -5.1107 2.3853
-0.7918 -5.1303 2.3853
-0.6061 -5.1431 2.3853
-0.4204 -5.1493 2.3853
-0.2350 -5.1489 2.3853
-0.0501 -5.1418 2.3853
0.1341 -5.1281 2.3853
0.3174 -5.1079 2.3853
0.4994 -5.0814 2.3853
0.6801 -5.0483 2.3853
0.8591 -5.0090 2.3853
1.0362 -4.9635 2.3853
1.2114 -4.9119 2.3853
1.3842 -4.8542 2.3853
1.5546 -4.7906 2.3853
1.7224 -4.7212 2.3853
1.8873 -4.6461 2.3853
2.0493 -4.5654 2.3853
2.2080 -4.4793 2.3853
2.3633 -4.3878 2.3853
2.5151 -4.2912 2.3853
2.6633 -4.1895 2.3853
2.8075 -4.0829 2.3853
2.9478 -3.9715 2.3853
3.0839 -3.8555 2.3853
3.2157 -3.7351 2.3853
3.3431 -3.6103 2.3853
3.4660 -3.4814 2.3853
3.5842 -3.3486 2.3853
3.6976 -3.2119 2.3853
3.8061 -3.0716 2.3853
3.9096 -2.9278 2.3853
4.0080 -2.7807 2.3853
4.1012 -2.6305 2.3853
4.1891 -2.4773 2.3853
4.2717 -2.3213 2.3853
4.3488 -2.1628 2.3853
4.4204 -2.0018 2.3853
4.4864 -1.8386 2.3853
4.5467 -1.6734 2.3853
4.6014 -1.5063 2.3853
4.6503 -1.3375 2.3853
4.6933 -1.1673 2.3853
4.7306 -0.9957 2.3853
4.7620 -0.8230 2.3853
4.7874 -0.6494 2.3853
4.8070 -0.4751 2.3853
4.8206 -0.3003 2.3853
4.8282 -0.1250 2.3853
4.8299 0.0504 2.3853
4.8256 0.2257 2.3853
4.8153 0.4008 2.3853
4.7991 0.5756 2.3853
4.7770 0.7497 2.3853
4.7489 0.9230 2.3853
4.7149 1.0954 2.3853
4.6750 1.2665 2.3853
4.6293 1.4364 2.3853
4.5778 1.6047 2.3853
4.5205 1.7712 2.3853
4.4575 1.9358 2.3853
4.3889 2.0983 2.3853
4.3147 2.2585 2.3853
4.2350 2.4162 2.3853
4.1498 2.5712 2.3853
4.0593 2.7234 2.3853
3.9635 2.8726 2.3853
3.8624 3.0186 2.3853
3.7563 3.1612 2.3853
3.6452 3.3002 2.3853
3.5293 3.4355 2.3853
3.4085 3.5669 2.3853
3.2831 3.6943 2.3853
3.1532 3.8174 2.3853
3.0189 3.9361 2.3853
2.8803 4.0503 2.3853
2.7376 4.1598 2.3853
2.5910 4.2644 2.3853
4.5117 0.7482 2.3853
4.4837 0.9121 2.3853
4.4501 1.0749 2.3853
4.4110 1.2366 2.3853
4.3663 1.3969 2.3853
4.3161 1.5557 2.3853
4.2605 1.7128 2.3853
4.1994 1.8680 2.3853
4.1331 2.0211 2.3853
4.0614 2.1721 2.3853
3.9846 2.3206 2.3853
3.9026 2.4665 2.3853
3.8156 2.6097 2.3853
3.7235 2.7499 2.3853
3.6266 2.8871 2.3853
3.5249 3.0209 2.3853
3.4185 3.1514 2.3853
3.3075 3.2783 2.3853
3.1921 3.4014 2.3853
3.0722 3.5206 2.3853
2.9482 3.6357 2.3853
2.8200 3.7467 2.3853
2.6878 3.8532 2.3853
2.5518 3.9553 2.3853
2.4121 4.0527 2.3853
2.2689 4.1453 2.3853
0.8585 1.7123 0.9649
0.7966 1.7430 0.9634
0.7337 1.7715 0.9619
0.6697 1.7977 0.9603
0.6049 1.8216 0.9587
0.5393 1.8431 0.9571
0.4729 1.8623 0.9555
0.4058 1.8790 0.9539
0.3382 1.8934 0.9522
0.2701 1.9053 0.9506
0.2017 1.9147 0.9489
0.1329 1.9216 0.9472
0.0639 1.9261 0.9455
-0.0052 1.9281 0.9438
-0.0743 1.9276 0.9421
-0.1434 1.9246 0.9403
-0.2123 1.9191 0.9386
-0.2809 1.9111 0.9369
-0.3493 1.9007 0.9352
-0.4172 1.8878 0.9335
-0.4846 1.8724 0.9318
-0.5514 1.8547 0.9302
-0.6176 1.8345 0.9285
-0.6829 1.8120 0.9268
-0.7474 1.7871 0.9252
-0.8110 1.7599 0.9236
-0.8735 1.7305 0.9220
-0.9350 1.6988 0.9205
-2.5833 4.3218 2.3853
-2.7410 4.2352 2.3853
-2.8955 4.1428 2.3853
-3.0468 4.0446 2.3853
-3.1945 3.9406 2.3853
-3.3385 3.8312 2.3853
-3.4785 3.7163 2.3853
-3.6143 3.5961 2.3853
-3.7457 3.4708 2.3853
-3.8725 3.3405 2.3853
-3.9946 3.2054 2.3853
-4.1115 3.0658 2.3853
-4.2233 2.9217 2.3853
-4.3297 2.7733 2.3853
-4.4307 2.6209 2.3853
-4.5258 2.4648 2.3853
-4.6151 2.3049 2.3853
-4.6984 2.1418 2.3853
-4.7756 1.9755 2.3853
-4.8465 1.8063 2.3853
-4.9110 1.6344 2.3853
-4.9690 1.4602 2.3853
-5.0204 1.2838 2.3853
-5.0650 1.1055 2.3853
-5.1030 0.9256 2.3853
-5.1341 0.7444 2.3853
-5.1584 0.5620 2.3853
-5.1757 0.3789 2.3853
-5.1861 0.1952 2.3853
-5.1896 0.0113 2.3853
-5.1861 -0.1727 2.3853
-5.1756 -0.3563 2.3853
-5.1582 -0.5394 2.3853
-5.1339 -0.7217 2.3853
-5.1028 -0.9028 2.3853
-5.0648 -1.0826 2.3853
-5.0201 -1.2607 2.3853
-4.9687 -1.4369 2.3853
-4.9108 -1.6110 2.3853
-4.8464 -1.7826 2.3853
-4.7756 -1.9516 2.3853
-4.6986 -2.1177 2.3853
-4.6154 -2.2806 2.3853
-4.5263 -2.4401 2.3853
-4.4313 -2.5961 2.3853
-4.3307 -2.7482 2.3853
-4.2245 -2.8963 2.3853
-4.1130 -3.0402 2.3853
-3.9964 -3.1796 2.3853
-3.8748 -3.3145 2.3853
-3.7484 -3.4446 2.3853
-3.6174 -3.5697 2.3853
-3.4821 -3.6897 2.3853
-3.3426 -3.8044 2.3853
-3.1991 -3.9138 2.3853
-3.0519 -4.0176 2.3853
-2.9013 -4.1158 2.3853
-2.7473 -4.2082 2.3853
-2.5903 -4.2948 2.3853
-2.4305 -4.3754 2.3853
-2.2681 -4.4500 2.3853
-2.1034 -4.5185 2.3853
-1.9366 -4.5808 2.3853
-1.7679 -4.6369 2.3853
-1.5976 -4.6868 2.3853
-1.4259 -4.7303 2.3853
-1.2530 -4.7676 2.3853
-1.0792 -4.7985 2.3853
-0.9047 -4.8231 2.3853
-0.7298 -4.8414 2.3853
-0.5546 -4.8533 2.3853
-0.3795 -4.8589 2.3853
-0.2046 -4.8583 2.3853
-0.0301 -4.8514 2.3853
0.1436 -4.8383 2.3853
0.3165 -4.8190 2.3853
0.4882 -4.7937 2.3853
0.6587 -4.7624 2.3853
0.8276 -4.7251 2.3853
0.9948 -4.6819 2.3853
1.1601 -4.6329 2.3853
1.3232 -4.5783 2.3853
1.4841 -4.5180 2.3853
1.6424 -4.4523 2.3853
1.7981 -4.3811 2.3853
1.9509 -4.3047 2.3853
2.1007 -4.2230 2.3853
2.2474 -4.1364 2.3853
2.3907 -4.0448 2.3853
2.5305 -3.9485 2.3853
2.6666 -3.8475 2.3853
2.7990 -3.7420 2.3853
2.9275 -3.6321 2.3853
3.0519 -3.5180 2.3853
3.1721 -3.3999 2.3853
3.2880 -3.2778 2.3853
3.3995 -3.1519 2.3853
3.5064 -3.0224 2.3853
3.6087 -2.8895 2.3853
3.7063 -2.7532 2.3853
3.7990 -2.6139 2.3853
3.8868 -2.4715 2.3853
3.9696 -2.3264 2.3853
4.0472 -2.1787 2.3853
4.1198 -2.0285 2.3853
4.1870 -1.8760 2.3853
4.2490 -1.7214 2.3853
4.3056 -1.5649 2.3853
4.3568 -1.4066 2.3853
4.4026 -1.2468 2.3853
4.4428 -1.0855 2.3853
4.4775 -0.9230 2.3853
4.5066 -0.7595 2.3853
4.5301 -0.5952 2.3853
4.5479 -0.4301 2.3853
4.5602 -0.2646 2.3853
4.5667 -0.0987 2.3853
4.5677 0.0673 2.3853
4.5629 0.2332 2.3853
4.5525 0.3989 2.3853
4.5364 0.5642 2.3853
4.5147 0.7289 2.3853
4.4873 0.8928 2.3853
4.4544 1.0558 2.3853
4.4159 1.2176 2.3853
4.3718 1.3781 2.3853
4.3223 1.5371 2.3853
4.2673 1.6944 2.3853
4.2069 1.8498 2.3853
4.1412 2.0033 2.3853
4.0701 2.1544 2.3853
3.9939 2.3033 2.3853
3.9125 2.4495 2.3853
3.8260 2.5930 2.3853
3.7346 2.7336 2.3853
3.6383 2.8711 2.3853
3.5371 3.0053 2.3853
3.4313 3.1362 2.3853
3.3208 3.2635 2.3853
3.2059 3.3871 2.3853
3.0865 3.5068 2.3853
2.9630 3.6224 2.3853
2.8353 3.7338 2.3853
2.7036 3.8409 2.3853
2.5680 3.9435 2.3853
2.4287 4.0415 2.3853
2.2859 4.1347 2.3853
0.8657 1.7085 0.9651
0.8039 1.7395 0.9636
0.7411 1.7683 0.9620
0.6773 1.7947 0.9605
0.6126 1.8189 0.9589
0.5470 1.8407 0.9573
0.4807 1.8602 0.9557
0.4137 1.8772 0.9541
0.3462 1.8918 0.9524
0.2782 1.9040 0.9508
0.2097 1.9137 0.9491
0.1410 1.9209 0.9474
0.0720 1.9257 0.9457
0.0030 1.9280 0.9440
-0.0662 1.9278 0.9423
-0.1352 1.9250 0.9405
-0.2042 1.9198 0.9388
-0.2729 1.9122 0.9371
-0.3413 1.9020 0.9354
-0.4092 1.8894 0.9337
-0.4767 1.8744 0.9320
-0.5436 1.8569 0.9304
-0.6098 1.8370 0.9287
-0.6753 1.8148 0.9270
-0.7399 1.7902 0.9254
-0.8036 1.7633 0.9238
-0.8662 1.7341 0.9222
-0.9278 1.7027 0.9206
-2.5646 4.3316 2.3853
-2.7226 4.2457 2.3853
-2.8775 4.1540 2.3853
-3.0292 4.0564 2.3853
-3.1773 3.9531 2.3853
-3.3218 3.8443 2.3853
-3.4623 3.7301 2.3853
-3.5986 3.6105 2.3853
-3.7305 3.4858 2.3853
-3.8579 3.3561 2.3853
-3.9805 3.2216 2.3853
-4.0981 3.0824 2.3853
-4.2104 2.9388 2.3853
-4.3175 2.7910 2.3853
-4.4191 2.6390 2.3853
-4.5149 2.4833 2.3853
-4.6049 2.3239 2.3853
-4.6890 2.1611 2.3853
-4.7668 1.9952 2.3853
-4.8385 1.8263 2.3853
-4.9036 1.6548 2.3853
-4.9625 1.4808 2.3853
-5.0147 1.3046 2.3853
-5.0601 1.1266 2.3853
-5.0989 0.9469 2.3853
-5.1308 0.7657 2.3853
-5.1559 0.5835 2.3853
-5.1741 0.4004 2.3853
-5.1853 0.2168 2.3853
-5.1895 0.0329 2.3853
-5.1869 -0.1511 2.3853
-5.1772 -0.3348 2.3853
-5.1606 -0.5179 2.3853
-5.1371 -0.7003 2.3853
-5.1068 -0.8816 2.3853
-5.0696 -1.0615 2.3853
-5.0257 -1.2398 2.3853
-4.9751 -1.4163 2.3853
-4.9180 -1.5906 2.3853
-4.8543 -1.7626 2.3853
-4.7842 -1.9319 2.3853
-4.7080 -2.0983 2.3853
-4.6255 -2.2616 2.3853
-4.5371 -2.4216 2.3853
-4.4428 -2.5779 2.3853
-4.3428 -2.7305 2.3853
-4.2373 -2.8791 2.3853
-4.1264 -3.0235 2.3853
-4.0104 -3.1635 2.3853
-3.8893 -3.2989 2.3853
-3.7635 -3.4295 2.3853
-3.6330 -3.5552 2.3853
-3.4982 -3.6758 2.3853
-3.3592 -3.7912 2.3853
-3.2162 -3.9012 2.3853
-3.0694 -4.0057 2.3853
-2.9191 -4.1045 2.3853
-2.7656 -4.1976 2.3853
-2.6089 -4.2849 2.3853
-2.4494 -4.3662 2.3853
-2.2874 -4.4415 2.3853
-2.1229 -4.5107 2.3853
-1.9563 -4.5738 2.3853
-1.7878 -4.6306 2.3853
-1.6177 -4.6812 2.3853
-1.4461 -4.7255 2.3853
-1.2734 -4.7635 2.3853
-1.0997 -4.7952 2.3853
-0.9253 -4.8205 2.3853
-0.7504 -4.8395 2.3853
-0.5752 -4.8522 2.3853
-0.4001 -4.8586 2.3853
-0.2251 -4.8587 2.3853
-0.0506 -4.8525 2.3853
0.1232 -4.8401 2.3853
0.2962 -4.8216 2.3853
0.4681 -4.7970 2.3853
0.6387 -4.7665 2.3853
0.8078 -4.7298 2.3853
0.9752 -4.6873 2.3853
1.1408 -4.6390 2.3853
1.3042 -4.5850 2.3853
1.4653 -4.5254 2.3853
1.6239 -4.4603 2.3853
1.7799 -4.3897 2.3853
1.9331 -4.3139 2.3853
2.0833 -4.2329 2.3853
2.2303 -4.1469 2.3853
2.3740 -4.0559 2.3853
2.5142 -3.9601 2.3853
2.6508 -3.8596 2.3853
2.7836 -3.7546 2.3853
2.9126 -3.6453 2.3853
3.0375 -3.5317 2.3853
3.1582 -3.4140 2.3853
3.2746 -3.2923 2.3853
3.3866 -3.1669 2.3853
3.4941 -3.0378 2.3853
3.5969 -2.9053 2.3853
3.6951 -2.7694 2.3853
3.7884 -2.6304 2.3853
3.8767 -2.4884 2.3853
3.9601 -2.3436 2.3853
4.0384 -2.1962 2.3853
4.1115 -2.0463 2.3853
4.1794 -1.8940 2.3853
4.2420 -1.7397 2.3853
4.2993 -1.5834 2.3853
4.3511 -1.4253 2.3853
4.3975 -1.2656 2.3853
4.4383 -1.1045 2.3853
4.4737 -0.9422 2.3853
4.5034 -0.7788 2.3853
4.5276 -0.6145 2.3853
4.5461 -0.4495 2.3853
4.5590 -0.2841 2.3853
4.5663 -0.1182 2.3853
4.5678 0.0478 2.3853
4.5637 0.2137 2.3853
4.5540 0.3795 2.3853
4.5386 0.5448 2.3853
4.5175 0.7096 2.3853
4.4908 0.8736 2.3853
4.4586 1.0367 2.3853
4.4207 1.1987 2.3853
4.3773 1.3593 2.3853
4.3284 1.5185 2.3853
4.2740 1.6760 2.3853
4.2143 1.8317 2.3853
4.1492 1.9853 2.3853
4.0788 2.1368 2.3853
4.0031 2.2859 2.3853
3.9223 2.4324 2.3853
3.8365 2.5763 2.3853
3.7456 2.7172 2.3853
3.6498 2.8551 2.3853
3.5493 2.9898 2.3853
3.4439 3.1211 2.3853
3.3340 3.2488 2.3853
3.2196 3.3728 2.3853
3.1008 3.4929 2.3853
2.9777 3.6091 2.3853
2.8505 3.7210 2.3853
2.7193 3.8286 2.3853
2.5841 3.9317 2.3853
2.4453 4.0302 2.3853
4.2741 0.7095 2.3853
4.2474 0.8647 2.3853
4.2155 1.0191 2.3853
4.1782 1.1723 2.3853
4.1357 1.3243 2.3853
4.0880 1.4747 2.3853
4.0352 1.6236 2.3853
3.9772 1.7706 2.3853
3.9141 1.9157 2.3853
3.8460 2.0587 2.3853
3.7730 2.1993 2.3853
3.6951 2.3375 2.3853
3.6124 2.4730 2.3853
3.5250 2.6058 2.3853
3.4330 2.7356 2.3853
3.3364 2.8623 2.3853
3.2354 2.9857 2.3853
3.1301 3.1056 2.3853
3.0205 3.2220 2.3853
2.9068 3.3347 2.3853
2.7890 3.4435 2.3853
2.6674 3.5483 2.3853
2.5421 3.6490 2.3853
2.4131 3.7453 2.3853
2.2806 3.8372 2.3853
0.8676 1.5876 0.9649
0.8103 1.6188 0.9636
0.7518 1.6478 0.9622
0.6923 1.6747 0.9607
0.6318 1.6995 0.9593
0.5706 1.7220 0.9578
0.5085 1.7424 0.9563
0.4457 1.7605 0.9547
0.3823 1.7763 0.9532
0.3184 1.7899 0.9516
0.2541 1.8011 0.9500
0.1893 1.8100 0.9484
0.1243 1.8166 0.9468
0.0591 1.8208 0.9452
-0.0062 1.8227 0.9436
-0.0715 1.8222 0.9420
-0.1368 1.8193 0.9404
-0.2020 1.8141 0.9388
-0.2669 1.8066 0.9371
-0.3315 1.7967 0.9355
-0.3957 1.7845 0.9339
-0.4594 1.7701 0.9323
-0.5226 1.7533 0.9307
-0.5851 1.7342 0.9292
-0.6469 1.7129 0.9276
-0.7078 1.6894 0.9261
-0.7679 1.6637 0.9246
-0.8270 1.6359 0.9231
-0.8851 1.6060 0.9216
-0.9421 1.5739 0.9201
-2.5908 3.9982 2.3853
-2.7365 3.9105 2.3853
-2.8790 3.8175 2.3853
-3.0182 3.7191 2.3853
-3.1538 3.6155 2.3853
-3.2857 3.5068 2.3853
-3.4136 3.3932 2.3853
-3.5374 3.2747 2.3853
-3.6568 3.1516 2.3853
-3.7716 3.0240 2.3853
-3.8817 2.8920 2.3853
-3.9869 2.7559 2.3853
-4.0871 2.6158 2.3853
-4.1820 2.4719 2.3853
-4.2715 2.3246 2.3853
-4.3556 2.1737 2.3853
-4.4340 2.0197 2.3853
-4.5065 1.8629 2.3853
-4.5733 1.7033 2.3853
-4.6338 1.5412 2.3853
-4.6884 1.3769 2.3853
-4.7367 1.2105 2.3853
-4.7788 1.0424 2.3853
-4.8144 0.8728 2.3853
-4.8437 0.7019 2.3853
-4.8665 0.5300 2.3853
-4.8829 0.3573 2.3853
-4.8927 0.1842 2.3853
-4.8959 0.0107 2.3853
-4.8927 -0.1627 2.3853
-4.8828 -0.3358 2.3853
-4.8665 -0.5084 2.3853
-4.8437 -0.6802 2.3853
-4.8144 -0.8510 2.3853
-4.7788 -1.0206 2.3853
-4.7367 -1.1885 2.3853
-4.6885 -1.3547 2.3853
-4.6340 -1.5189 2.3853
-4.5734 -1.6808 2.3853
-4.5069 -1.8403 2.3853
-4.4345 -1.9969 2.3853
-4.3563 -2.1507 2.3853
-4.2724 -2.3013 2.3853
-4.1831 -2.4485 2.3853
-4.0884 -2.5922 2.3853
-3.9885 -2.7321 2.3853
-3.8836 -2.8680 2.3853
-3.7738 -2.9997 2.3853
-3.6594 -3.1272 2.3853
-3.5404 -3.2502 2.3853
-3.4170 -3.3685 2.3853
-3.2896 -3.4820 2.3853
-3.1582 -3.5906 2.3853
-3.0230 -3.6941 2.3853
-2.8844 -3.7924 2.3853
-2.7424 -3.8855 2.3853
-2.5973 -3.9731 2.3853
-2.4493 -4.0552 2.3853
-2.2986 -4.1317 2.3853
-2.1454 -4.2025 2.3853
-1.9900 -4.2676 2.3853
-1.8326 -4.3269 2.3853
-1.6735 -4.3804 2.3853
-1.5127 -4.4279 2.3853
-1.3506 -4.4695 2.3853
-1.1874 -4.5052 2.3853
-1.0232 -4.5348 2.3853
-0.8584 -4.5585 2.3853
-0.6931 -4.5762 2.3853
-0.5276 -4.5880 2.3853
-0.3621 -4.5938 2.3853
-0.1967 -4.5936 2.3853
-0.0318 -4.5875 2.3853
0.1326 -4.5756 2.3853
0.2961 -4.5579 2.3853
0.4586 -4.5344 2.3853
0.6199 -4.5052 2.3853
0.7798 -4.4703 2.3853
0.9381 -4.4298 2.3853
1.0945 -4.3840 2.3853
1.2490 -4.3327 2.3853
1.4014 -4.2760 2.3853
1.5514 -4.2141 2.3853
1.6989 -4.1472 2.3853
1.8438 -4.0752 2.3853
1.9858 -3.9982 2.3853
2.1248 -3.9165 2.3853
2.2606 -3.8302 2.3853
2.3932 -3.7392 2.3853
2.5224 -3.6439 2.3853
2.6480 -3.5442 2.3853
2.7698 -3.4404 2.3853
2.8879 -3.3325 2.3853
3.0019 -3.2208 2.3853
3.1120 -3.1053 2.3853
3.2178 -2.9862 2.3853
3.3193 -2.8637 2.3853
3.4164 -2.7379 2.3853
3.5091 -2.6090 2.3853
3.5971 -2.4770 2.3853
3.6805 -2.3422 2.3853
3.7591 -2.2048 2.3853
3.8329 -2.0649 2.3853
3.9018 -1.9226 2.3853
3.9657 -1.7781 2.3853
4.0246 -1.6316 2.3853
4.0784 -1.4833 2.3853
4.1270 -1.3333 2.3853
4.1705 -1.1818 2.3853
4.2087 -1.0290 2.3853
4.2416 -0.8749 2.3853
4.2693 -0.7199 2.3853
4.2916 -0.5641 2.3853
4.3086 -0.4077 2.3853
4.3202 -0.2507 2.3853
4.3264 -0.0935 2.3853
4.3273 0.0639 2.3853
4.3227 0.2212 2.3853
4.3128 0.3783 2.3853
4.2975 0.5350 2.3853
4.2768 0.6911 2.3853
4.2508 0.8465 2.3853
4.2195 1.0010 2.3853
4.1829 1.1544 2.3853
4.1410 1.3065 2.3853
4.0939 1.4571 2.3853
4.0417 1.6062 2.3853
3.9843 1.7534 2.3853
3.9218 1.8988 2.3853
3.8543 2.0420 2.3853
3.7819 2.1829 2.3853
3.7045 2.3214 2.3853
3.6224 2.4572 2.3853
3.5356 2.5903 2.3853
3.4441 2.7205 2.3853
3.3480 2.8475 2.3853
3.2475 2.9713 2.3853
3.1427 3.0917 2.3853
3.0336 3.2086 2.3853
2.9203 3.3217 2.3853
2.8031 3.4309 2.3853
2.6819 3.5362 2.3853
2.5570 3.6373 2.3853
2.4284 3.7342 2.3853
2.2964 3.8266 2.3853
0.8743 1.5838 0.9651
0.8171 1.6152 0.9637
0.7587 1.6445 0.9623
0.6993 1.6717 0.9609
0.6390 1.6967 0.9594
0.5778 1.7195 0.9579
0.5158 1.7401 0.9564
0.4531 1.7585 0.9549
0.3898 1.7746 0.9534
0.3260 1.7884 0.9518
0.2617 1.7999 0.9502
0.1970 1.8091 0.9486
0.1320 1.8159 0.9470
0.0668 1.8204 0.9454
0.0015 1.8226 0.9438
-0.0639 1.8224 0.9422
-0.1291 1.8198 0.9406
-0.1943 1.8149 0.9389
-0.2593 1.8076 0.9373
-0.3239 1.7980 0.9357
-0.3882 1.7861 0.9341
-0.4519 1.7719 0.9325
-0.5152 1.7554 0.9309
-0.5778 1.7366 0.9294
-0.6396 1.7155 0.9278
-0.7007 1.6923 0.9263
-0.7609 1.6669 0.9247
-0.8201 1.6393 0.9232
-0.8784 1.6096 0.9218
-0.9355 1.5778 0.9203
-2.5735 4.0081 2.3853
-2.7195 3.9211 2.3853
-2.8624 3.8287 2.3853
-3.0020 3.7310 2.3853
-3.1381 3.6279 2.3853
-3.2704 3.5198 2.3853
-3.3988 3.4068 2.3853
-3.5230 3.2889 2.3853
-3.6429 3.1663 2.3853
-3.7583 3.0392 2.3853
-3.8690 2.9077 2.3853
-3.9748 2.7721 2.3853
-4.0756 2.6325 2.3853
-4.1711 2.4891 2.3853
-4.2613 2.3421 2.3853
-4.3460 2.1916 2.3853
-4.4251 2.0380 2.3853
-4.4983 1.8815 2.3853
-4.5657 1.7222 2.3853
-4.6270 1.5604 2.3853
-4.6823 1.3963 2.3853
-4.7314 1.2302 2.3853
-4.7741 1.0623 2.3853
-4.8106 0.8928 2.3853
-4.8406 0.7220 2.3853
-4.8642 0.5502 2.3853
-4.8813 0.3777 2.3853
-4.8919 0.2045 2.3853
-4.8959 0.0311 2.3853
-4.8934 -0.1423 2.3853
-4.8843 -0.3155 2.3853
-4.8688 -0.4882 2.3853
-4.8467 -0.6601 2.3853
-4.8182 -0.8310 2.3853
-4.7833 -1.0007 2.3853
-4.7420 -1.1689 2.3853
-4.6945 -1.3353 2.3853
-4.6407 -1.4997 2.3853
-4.5809 -1.6619 2.3853
-4.5150 -1.8216 2.3853
-4.4433 -1.9787 2.3853
-4.3658 -2.1328 2.3853
-4.2826 -2.2838 2.3853
-4.1939 -2.4314 2.3853
-4.0998 -2.5755 2.3853
-4.0006 -2.7158 2.3853
-3.8962 -2.8522 2.3853
-3.7870 -2.9845 2.3853
-3.6731 -3.1124 2.3853
-3.5546 -3.2359 2.3853
-3.4318 -3.3548 2.3853
-3.3048 -3.4689 2.3853
-3.1738 -3.5781 2.3853
-3.0391 -3.6822 2.3853
-2.9008 -3.7812 2.3853
-2.7592 -3.8748 2.3853
-2.6145 -3.9631 2.3853
-2.4668 -4.0458 2.3853
-2.3164 -4.1230 2.3853
-2.1636 -4.1945 2.3853
-2.0084 -4.2603 2.3853
-1.8512 -4.3203 2.3853
-1.6923 -4.3744 2.3853
-1.5317 -4.4226 2.3853
-1.3697 -4.4649 2.3853
-1.2066 -4.5013 2.3853
-1.0426 -4.5317 2.3853
-0.8778 -4.5561 2.3853
-0.7126 -4.5745 2.3853
-0.5471 -4.5869 2.3853
-0.3815 -4.5934 2.3853
-0.2161 -4.5939 2.3853
-0.0511 -4.5886 2.3853
0.1133 -4.5773 2.3853
0.2769 -4.5603 2.3853
0.4396 -4.5375 2.3853
0.6010 -4.5089 2.3853
0.7611 -4.4747 2.3853
0.9195 -4.4349 2.3853
1.0762 -4.3897 2.3853
1.2310 -4.3390 2.3853
1.3836 -4.2829 2.3853
1.5339 -4.2217 2.3853
1.6817 -4.1553 2.3853
1.8269 -4.0839 2.3853
1.9692 -4.0075 2.3853
2.1086 -3.9264 2.3853
2.2448 -3.8405 2.3853
2.3778 -3.7501 2.3853
2.5074 -3.6553 2.3853
2.6334 -3.5561 2.3853
2.7557 -3.4528 2.3853
2.8742 -3.3454 2.3853
2.9887 -3.2341 2.3853
3.0992 -3.1191 2.3853
3.2056 -3.0004 2.3853
3.3076 -2.8783 2.3853
3.4052 -2.7529 2.3853
3.4984 -2.6243 2.3853
3.5870 -2.4927 2.3853
3.6709 -2.3582 2.3853
3.7501 -2.2211 2.3853
3.8245 -2.0815 2.3853
3.8940 -1.9394 2.3853
3.9585 -1.7952 2.3853
4.0179 -1.6490 2.3853
4.0723 -1.5008 2.3853
4.1216 -1.3510 2.3853
4.1656 -1.1997 2.3853
4.2045 -1.0470 2.3853
4.2380 -0.8931 2.3853
4.2663 -0.7382 2.3853
4.2893 -0.5825 2.3853
4.3069 -0.4261 2.3853
4.3191 -0.2692 2.3853
4.3260 -0.1120 2.3853
4.3274 0.0454 2.3853
4.3235 0.2028 2.3853
4.3143 0.3599 2.3853
4.2996 0.5166 2.3853
4.2796 0.6728 2.3853
4.2542 0.8283 2.3853
4.2235 0.9829 2.3853
4.1875 1.1364 2.3853
4.1462 1.2886 2.3853
4.0997 1.4395 2.3853
4.0481 1.5888 2.3853
3.9913 1.7362 2.3853
3.9294 1.8818 2.3853
3.8625 2.0253 2.3853
3.7906 2.1665 2.3853
3.7139 2.3052 2.3853
3.6323 2.4414 2.3853
3.5460 2.5748 2.3853
3.4551 2.7053 2.3853
3.3595 2.8328 2.3853
3.2596 2.9569 2.3853
3.1552 3.0777 2.3853
3.0466 3.1950 2.3853
2.9339 3.3086 2.3853
2.8171 3.4183 2.3853
2.6964 3.5240 2.3853
2.5719 3.6257 2.3853
2.4437 3.7230 2.3853
2.3121 3.8160 2.3853
4.0551 0.6737 2.3853
4.0297 0.8211 2.3853
3.9993 0.9677 2.3853
3.9638 1.1131 2.3853
3.9234 1.2573 2.3853
3.8780 1.4001 2.3853
3.8276 1.5414 2.3853
3.7725 1.6810 2.3853
3.7124 1.8186 2.3853
3.6477 1.9542 2.3853
3.5782 2.0877 2.3853
3.5041 2.2187 2.3853
3.4255 2.3472 2.3853
3.3423 2.4731 2.3853
3.2548 2.5961 2.3853
3.1630 2.7162 2.3853
3.0669 2.8331 2.3853
2.9668 2.9468 2.3853
2.8626 3.0570 2.3853
2.7545 3.1637 2.3853
2.6427 3.2667 2.3853
2.5271 3.3659 2.3853
2.4080 3.4611 2.3853
2.2855 3.5522 2.3853
0.8737 1.4722 0.9650
0.8204 1.5036 0.9637
0.7661 1.5330 0.9624
0.7107 1.5605 0.9610
0.6543 1.5860 0.9597
0.5971 1.6095 0.9583
0.5391 1.6308 0.9569
0.4803 1.6501 0.9554
0.4208 1.6672 0.9540
0.3608 1.6822 0.9525
0.3003 1.6950 0.9510
0.2393 1.7057 0.9495
0.1781 1.7141 0.9480
0.1165 1.7203 0.9465
0.0547 1.7243 0.9450
-0.0071 1.7261 0.9435
-0.0690 1.7256 0.9419
-0.1308 1.7229 0.9404
-0.1925 1.7180 0.9389
-0.2540 1.7109 0.9373
-0.3152 1.7015 0.9358
-0.3760 1.6900 0.9343
-0.4363 1.6762 0.9328
-0.4961 1.6603 0.9313
-0.5553 1.6423 0.9298
-0.6138 1.6221 0.9283
-0.6716 1.5999 0.9269
-0.7285 1.5756 0.9254
-0.7845 1.5492 0.9240
-0.8395 1.5209 0.9226
-0.8934 1.4905 0.9212
-2.4536 3.7815 2.3853
-2.5912 3.6983 2.3853
-2.7258 3.6101 2.3853
-2.8574 3.5167 2.3853
-2.9852 3.4185 2.3853
-3.1097 3.3155 2.3853
-3.2304 3.2079 2.3853
-3.3470 3.0957 2.3853
-3.4598 2.9791 2.3853
-3.5681 2.8583 2.3853
-3.6721 2.7334 2.3853
-3.7712 2.6046 2.3853
-3.8656 2.4721 2.3853
-3.9552 2.3360 2.3853
-4.0396 2.1966 2.3853
-4.1189 2.0540 2.3853
-4.1927 1.9085 2.3853
-4.2612 1.7602 2.3853
-4.3240 1.6093 2.3853
-4.3811 1.4562 2.3853
-4.4326 1.3009 2.3853
-4.4781 1.1437 2.3853
-4.5177 0.9849 2.3853
-4.5514 0.8246 2.3853
-4.5790 0.6632 2.3853
-4.6005 0.5008 2.3853
-4.6159 0.3377 2.3853
-4.6252 0.1741 2.3853
-4.6282 0.0103 2.3853
-4.6252 -0.1535 2.3853
-4.6159 -0.3171 2.3853
-4.6006 -0.4802 2.3853
-4.5791 -0.6425 2.3853
-4.5515 -0.8039 2.3853
-4.5179 -0.9640 2.3853
-4.4784 -1.1228 2.3853
-4.4329 -1.2798 2.3853
-4.3816 -1.4350 2.3853
-4.3245 -1.5880 2.3853
-4.2618 -1.7387 2.3853
-4.1935 -1.8868 2.3853
-4.1198 -2.0322 2.3853
-4.0408 -2.1747 2.3853
-3.9566 -2.3139 2.3853
-3.8673 -2.4498 2.3853
-3.7732 -2.5821 2.3853
-3.6742 -2.7108 2.3853
-3.5707 -2.8355 2.3853
-3.4627 -2.9562 2.3853
-3.3504 -3.0726 2.3853
-3.2340 -3.1847 2.3853
-3.1137 -3.2923 2.3853
-2.9897 -3.3952 2.3853
-2.8621 -3.4934 2.3853
-2.7312 -3.5867 2.3853
-2.5971 -3.6750 2.3853
-2.4601 -3.7581 2.3853
-2.3203 -3.8361 2.3853
-2.1779 -3.9088 2.3853
-2.0332 -3.9762 2.3853
-1.8863 -4.0382 2.3853
-1.7375 -4.0946 2.3853
-1.5870 -4.1456 2.3853
-1.4350 -4.1909 2.3853
-1.2817 -4.2307 2.3853
-1.1273 -4.2648 2.3853
-0.9720 -4.2933 2.3853
-0.8160 -4.3162 2.3853
-0.6596 -4.3333 2.3853
-0.5029 -4.3448 2.3853
-0.3461 -4.3507 2.3853
-0.1895 -4.3510 2.3853
-0.0333 -4.3456 2.3853
0.1224 -4.3348 2.3853
0.2774 -4.3183 2.3853
0.4314 -4.2965 2.3853
0.5843 -4.2691 2.3853
0.7359 -4.2365 2.3853
0.8859 -4.1986 2.3853
1.0344 -4.1554 2.3853
1.1809 -4.1072 2.3853
1.3255 -4.0538 2.3853
1.4678 -3.9954 2.3853
1.6078 -3.9322 2.3853
1.7453 -3.8643 2.3853
1.8801 -3.7916 2.3853
2.0121 -3.7144 2.3853
2.1411 -3.6328 2.3853
2.2670 -3.5468 2.3853
2.3897 -3.4565 2.3853
2.5090 -3.3622 2.3853
2.6248 -3.2640 2.3853
2.7370 -3.1618 2.3853
2.8454 -3.0560 2.3853
2.9500 -2.9466 2.3853
3.0505 -2.8338 2.3853
3.1471 -2.7177 2.3853
3.2394 -2.5984 2.3853
3.3275 -2.4761 2.3853
3.4112 -2.3510 2.3853
3.4905 -2.2232 2.3853
3.5653 -2.0928 2.3853
3.6355 -1.9601 2.3853
3.7010 -1.8250 2.3853
3.7618 -1.6880 2.3853
3.8178 -1.5489 2.3853
3.8690 -1.4082 2.3853
3.9153 -1.2658 2.3853
3.9566 -1.1220 2.3853
3.9930 -0.9769 2.3853
4.0243 -0.8306 2.3853
4.0506 -0.6835 2.3853
4.0719 -0.5355 2.3853
4.0880 -0.3870 2.3853
4.0991 -0.2379 2.3853
4.1050 -0.0886 2.3853
4.1058 0.0608 2.3853
4.1014 0.2102 2.3853
4.0920 0.3593 2.3853
4.0774 0.5081 2.3853
4.0577 0.6563 2.3853
4.0329 0.8039 2.3853
4.0031 0.9505 2.3853
3.9683 1.0961 2.3853
3.9284 1.2405 2.3853
3.8836 1.3835 2.3853
3.8338 1.5249 2.3853
3.7792 1.6646 2.3853
3.7197 1.8025 2.3853
3.6555 1.9384 2.3853
3.5866 2.0721 2.3853
3.5131 2.2034 2.3853
3.4349 2.3323 2.3853
3.3523 2.4585 2.3853
3.2653 2.5818 2.3853
3.1740 2.7022 2.3853
3.0784 2.8195 2.3853
2.9788 2.9336 2.3853
