ply
format ascii 1.0
element vertex 2167
property float32 x
property float32 y
property float32 z
end_header
-0.6736 2.1998 0.9740
-0.7523 2.1734 0.9756
-0.8299 2.1441 0.9772
-2.2161 5.1636 2.3927
-2.3966 5.0709 2.3927
-2.5736 4.9723 2.3927
-2.7469 4.8677 2.3927
-2.9161 4.7574 2.3927
-3.0812 4.6415 2.3927
-3.2420 4.5202 2.3927
-3.3984 4.3936 2.3927
-3.5501 4.2618 2.3927
-3.6970 4.1251 2.3927
-3.8390 3.9836 2.3927
-3.9760 3.8375 2.3927
-4.1077 3.6870 2.3927
-4.2340 3.5322 2.3927
-4.3549 3.3733 2.3927
-4.4703 3.2105 2.3927
-4.5799 3.0440 2.3927
-4.6837 2.8740 2.3927
-4.7816 2.7006 2.3927
-4.8735 2.5241 2.3927
-4.9593 2.3447 2.3927
-5.0390 2.1626 2.3927
-5.1123 1.9779 2.3927
-5.1794 1.7908 2.3927
-5.2400 1.6017 2.3927
-5.2941 1.4106 2.3927
-5.3418 1.2177 2.3927
-5.3828 1.0234 2.3927
-5.4173 0.8278 2.3927
-5.4450 0.6311 2.3927
-5.4661 0.4334 2.3927
-5.4805 0.2352 2.3927
-5.4881 0.0364 2.3927
-5.4889 -0.1625 2.3927
-5.4830 -0.3615 2.3927
-5.4703 -0.5603 2.3927
-5.4508 -0.7587 2.3927
-5.4245 -0.9565 2.3927
-5.3915 -1.1534 2.3927
-5.3518 -1.3492 2.3927
-5.3053 -1.5437 2.3927
-5.2522 -1.7368 2.3927
-5.1924 -1.9281 2.3927
-5.1260 -2.1175 2.3927
-5.0531 -2.3047 2.3927
-4.9737 -2.4895 2.3927
-4.8879 -2.6718 2.3927
-4.7958 -2.8512 2.3927
-4.6974 -3.0276 2.3927
-4.5928 -3.2008 2.3927
-4.4821 -3.3705 2.3927
-4.3655 -3.5365 2.3927
-4.2429 -3.6987 2.3927
-4.1146 -3.8568 2.3927
-3.9807 -4.0106 2.3927
-3.8412 -4.1599 2.3927
-3.6964 -4.3045 2.3927
-3.5463 -4.4443 2.3927
-3.3912 -4.5789 2.3927
-3.2311 -4.7083 2.3927
-3.0663 -4.8322 2.3927
-2.8969 -4.9506 2.3927
-2.7231 -5.0630 2.3927
-2.5451 -5.1695 2.3927
-2.3631 -5.2699 2.3927
-2.1773 -5.3639 2.3927
-1.9878 -5.4514 2.3927
-1.7950 -5.5324 2.3927
-1.5990 -5.6065 2.3927
-1.4001 -5.6738 2.3927
-1.1985 -5.7341 2.3927
-0.9945 -5.7871 2.3927
-0.7883 -5.8330 2.3927
-0.5801 -5.8714 2.3927
-0.3702 -5.9024 2.3927
-0.1590 -5.9258 2.3927
0.0534 -5.9417 2.3927
0.2667 -5.9498 2.3927
0.4805 -5.9502 2.3927
0.6946 -5.9427 2.3927
0.9087 -5.9274 2.3927
1.1225 -5.9043 2.3927
1.3357 -5.8733 2.3927
1.5482 -5.8341 2.3927
1.7592 -5.7877 2.3927
1.9688 -5.7331 2.3927
2.1766 -5.6707 2.3927
2.3824 -5.6005 2.3927
2.5857 -5.5226 2.3927
2.7863 -5.4371 2.3927
2.9839 -5.3441 2.3927
3.1781 -5.2436 2.3927
3.3688 -5.1358 2.3927
3.5556 -5.0207 2.3927
3.7381 -4.8986 2.3927
3.9162 -4.7696 2.3927
4.0896 -4.6338 2.3927
4.2579 -4.4914 2.3927
4.4208 -4.3426 2.3927
4.5783 -4.1876 2.3927
4.7299 -4.0267 2.3927
4.8755 -3.8599 2.3927
5.0147 -3.6876 2.3927
5.1476 -3.5099 2.3927
5.2733 -3.3278 2.3927
5.3927 -3.1399 2.3927
5.5044 -2.9484 2.3927
5.6093 -2.7519 2.3927
5.7064 -2.5520 2.3927
5.7958 -2.3486 2.3927
5.8775 -2.1417 2.3927
5.9513 -1.9317 2.3927
6.0170 -1.7191 2.3927
6.0747 -1.5041 2.3927
6.1241 -1.2871 2.3927
6.1652 -1.0684 2.3927
6.1979 -0.8483 2.3927
6.2223 -0.6271 2.3927
6.2382 -0.4053 2.3927
6.2456 -0.1830 2.3927
6.2446 0.0392 2.3927
6.2352 0.2611 2.3927
6.2174 0.4824 2.3927
6.1912 0.7028 2.3927
6.1566 0.9218 2.3927
6.1139 1.1391 2.3927
6.0630 1.3546 2.3927
6.0040 1.5677 2.3927
5.9372 1.7783 2.3927
5.8625 1.9860 2.3927
5.7801 2.1905 2.3927
5.6902 2.3915 2.3927
5.5929 2.5888 2.3927
5.4884 2.7820 2.3927
5.3769 2.9710 2.3927
5.2586 3.1554 2.3927
5.1337 3.3349 2.3927
5.0024 3.5095 2.3927
4.8648 3.6787 2.3927
4.7213 3.8425 2.3927
4.5721 4.0006 2.3927
4.4174 4.1529 2.3927
4.2575 4.2990 2.3927
4.0925 4.4389 2.3927
3.9229 4.5724 2.3927
3.7487 4.6994 2.3927
3.5704 4.8196 2.3927
3.3881 4.9331 2.3927
3.2022 5.0396 2.3927
3.0129 5.1391 2.3927
2.8205 5.2315 2.3927
2.6252 5.3166 2.3927
2.4274 5.3945 2.3927
0.8730 2.1422 0.9379
0.7955 2.1716 0.9399
0.7170 2.1982 0.9419
0.6375 2.2219 0.9440
0.5573 2.2428 0.9460
0.4763 2.2608 0.9480
0.3947 2.2758 0.9500
0.3127 2.2879 0.9520
0.2302 2.2970 0.9539
0.1475 2.3031 0.9559
0.0646 2.3062 0.9578
-0.0184 2.3064 0.9597
-0.1013 2.3035 0.9616
-0.1841 2.2977 0.9635
-0.2666 2.2888 0.9653
-0.3487 2.2770 0.9671
-0.4304 2.2623 0.9689
-0.5115 2.2446 0.9706
-0.5918 2.2240 0.9723
-0.6714 2.2005 0.9740
-0.7501 2.1741 0.9756
-0.8278 2.1450 0.9772
-2.2111 5.1660 2.3927
-2.3917 5.0735 2.3927
-2.5688 4.9751 2.3927
-2.7422 4.8707 2.3927
-2.9115 4.7605 2.3927
-3.0768 4.6448 2.3927
-3.2377 4.5236 2.3927
-3.3942 4.3971 2.3927
-3.5460 4.2655 2.3927
-3.6931 4.1289 2.3927
-3.8352 3.9876 2.3927
-3.9723 3.8416 2.3927
-4.1041 3.6912 2.3927
-4.2306 3.5365 2.3927
-4.3517 3.3777 2.3927
-4.4672 3.2150 2.3927
-4.5770 3.0486 2.3927
-4.6810 2.8787 2.3927
-4.7790 2.7054 2.3927
-4.8711 2.5290 2.3927
-4.9571 2.3497 2.3927
-5.0369 2.1676 2.3927
-5.1104 1.9830 2.3927
-5.1776 1.7960 2.3927
-5.2384 1.6069 2.3927
-5.2927 1.4158 2.3927
-5.3405 1.2231 2.3927
-5.3818 1.0288 2.3927
-5.4164 0.8332 2.3927
-5.4444 0.6365 2.3927
-5.4656 0.4389 2.3927
-5.4802 0.2406 2.3927
-5.4879 0.0419 2.3927
-5.4890 -0.1571 2.3927
-5.4832 -0.3561 2.3927
-5.4707 -0.5549 2.3927
-5.4514 -0.7533 2.3927
-5.4253 -0.9510 2.3927
-5.3925 -1.1480 2.3927
-5.3530 -1.3438 2.3927
-5.3067 -1.5384 2.3927
-5.2537 -1.7315 2.3927
-5.1941 -1.9229 2.3927
-5.1280 -2.1123 2.3927
-5.0552 -2.2996 2.3927
-4.9760 -2.4845 2.3927
-4.8904 -2.6668 2.3927
-4.7984 -2.8463 2.3927
-4.7002 -3.0228 2.3927
-4.5957 -3.1961 2.3927
-4.4852 -3.3659 2.3927
-4.3687 -3.5320 2.3927
-4.2464 -3.6943 2.3927
-4.1182 -3.8525 2.3927
-3.9844 -4.0064 2.3927
-3.8451 -4.1559 2.3927
-3.7004 -4.3006 2.3927
-3.5505 -4.4405 2.3927
-3.3955 -4.5753 2.3927
-3.2356 -4.7048 2.3927
-3.0709 -4.8289 2.3927
-2.9016 -4.9474 2.3927
-2.7280 -5.0600 2.3927
-2.5500 -5.1667 2.3927
-2.3681 -5.2672 2.3927
-2.1824 -5.3614 2.3927
-1.9931 -5.4491 2.3927
-1.8003 -5.5302 2.3927
-1.6044 -5.6046 2.3927
-1.4056 -5.6720 2.3927
-1.2041 -5.7325 2.3927
-1.0001 -5.7858 2.3927
-0.7940 -5.8318 2.3927
-0.5858 -5.8705 2.3927
-0.3760 -5.9017 2.3927
-0.1648 -5.9253 2.3927
-4.5089 -2.6894 2.3927
-4.4157 -2.8551 2.3927
-4.3167 -3.0178 2.3927
-4.2120 -3.1771 2.3927
-4.1017 -3.3330 2.3927
-3.9859 -3.4852 2.3927
-3.8646 -3.6334 2.3927
-3.7381 -3.7777 2.3927
-3.6064 -3.9176 2.3927
-3.4696 -4.0531 2.3927
-3.3280 -4.1840 2.3927
-3.1816 -4.3100 2.3927
-3.0306 -4.4310 2.3927
-2.8752 -4.5469 2.3927
-2.7155 -4.6575 2.3927
-2.5517 -4.7625 2.3927
-2.3840 -4.8619 2.3927
-2.2126 -4.9554 2.3927
-2.0376 -5.0430 2.3927
-1.8593 -5.1245 2.3927
-1.6779 -5.1997 2.3927
-1.4935 -5.2685 2.3927
-1.3064 -5.3309 2.3927
-1.1169 -5.3866 2.3927
-0.9251 -5.4356 2.3927
-0.7314 -5.4778 2.3927
-0.5358 -5.5130 2.3927
-0.3387 -5.5412 2.3927
-0.1404 -5.5623 2.3927
0.0589 -5.5762 2.3927
0.2590 -5.5830 2.3927
0.4596 -5.5824 2.3927
0.6604 -5.5746 2.3927
0.8611 -5.5594 2.3927
1.0615 -5.5368 2.3927
1.2613 -5.5069 2.3927
1.4602 -5.4696 2.3927
1.6580 -5.4248 2.3927
1.8541 -5.3730 2.3927
2.0487 -5.3137 2.3927
2.2412 -5.2471 2.3927
2.4314 -5.1734 2.3927
2.6190 -5.0926 2.3927
2.8038 -5.0047 2.3927
2.9854 -4.9099 2.3927
3.1636 -4.8083 2.3927
3.3381 -4.6999 2.3927
3.5087 -4.5850 2.3927
3.6751 -4.4636 2.3927
3.8369 -4.3359 2.3927
3.9941 -4.2021 2.3927
4.1462 -4.0624 2.3927
4.2932 -3.9169 2.3927
4.4347 -3.7658 2.3927
4.5705 -3.6093 2.3927
4.7004 -3.4478 2.3927
4.8243 -3.2813 2.3927
4.9418 -3.1101 2.3927
5.0529 -2.9345 2.3927
5.1572 -2.7548 2.3927
5.2548 -2.5711 2.3927
5.3453 -2.3838 2.3927
5.4288 -2.1932 2.3927
5.5049 -1.9994 2.3927
5.5737 -1.8029 2.3927
5.6350 -1.6039 2.3927
5.6887 -1.4027 2.3927
5.7347 -1.1995 2.3927
5.7730 -0.9949 2.3927
5.8035 -0.7889 2.3927
5.8261 -0.5819 2.3927
5.8409 -0.3744 2.3927
5.8479 -0.1664 2.3927
5.8469 0.0415 2.3927
5.8381 0.2492 2.3927
5.8214 0.4563 2.3927
5.7969 0.6625 2.3927
5.7647 0.8675 2.3927
5.7248 1.0709 2.3927
5.6773 1.2726 2.3927
5.6223 1.4722 2.3927
5.5598 1.6693 2.3927
5.4901 1.8638 2.3927
5.4132 2.0553 2.3927
5.3292 2.2437 2.3927
5.2384 2.4285 2.3927
5.1408 2.6096 2.3927
5.0367 2.7866 2.3927
4.9261 2.9595 2.3927
4.8094 3.1279 2.3927
4.6867 3.2916 2.3927
4.5581 3.4504 2.3927
4.4240 3.6041 2.3927
4.2845 3.7525 2.3927
4.1398 3.8955 2.3927
3.9902 4.0328 2.3927
3.8359 4.1642 2.3927
3.6771 4.2897 2.3927
3.5142 4.4091 2.3927
3.3472 4.5223 2.3927
3.1766 4.6291 2.3927
3.0024 4.7294 2.3927
2.8251 4.8231 2.3927
2.6448 4.9102 2.3927
2.4618 4.9905 2.3927
0.8907 1.9815 0.9363
0.8190 2.0116 0.9381
0.7462 2.0392 0.9400
0.6724 2.0640 0.9419
0.5978 2.0862 0.9438
0.5224 2.1057 0.9457
0.4464 2.1225 0.9476
0.3698 2.1366 0.9495
0.2927 2.1478 0.9513
0.2153 2.1563 0.9532
0.1376 2.1619 0.9550
0.0598 2.1648 0.9568
-0.0181 2.1648 0.9586
-0.0959 2.1621 0.9604
-0.1736 2.1565 0.9622
-0.2511 2.1482 0.9639
-0.3282 2.1370 0.9656
-0.4048 2.1231 0.9672
-0.4809 2.1064 0.9689
-0.5564 2.0870 0.9704
-0.6311 2.0648 0.9720
-0.7049 2.0400 0.9735
-0.7778 2.0126 0.9750
-0.8497 1.9825 0.9764
-2.2523 4.7715 2.3927
-2.4191 4.6790 2.3927
-2.5823 4.5810 2.3927
-2.7419 4.4776 2.3927
-2.8976 4.3688 2.3927
-3.0492 4.2549 2.3927
-3.1966 4.1360 2.3927
-3.3397 4.0123 2.3927
-3.4783 3.8838 2.3927
-3.6122 3.7508 2.3927
-3.7414 3.6134 2.3927
-3.8656 3.4718 2.3927
-3.9849 3.3261 2.3927
-4.0990 3.1767 2.3927
-4.2078 3.0234 2.3927
-4.3112 2.8667 2.3927
-4.4092 2.7067 2.3927
-4.5015 2.5434 2.3927
-4.5883 2.3772 2.3927
-4.6692 2.2083 2.3927
-4.7443 2.0367 2.3927
-4.8135 1.8627 2.3927
-4.8767 1.6865 2.3927
-4.9339 1.5083 2.3927
-4.9849 1.3283 2.3927
-5.0298 1.1466 2.3927
-5.0685 0.9635 2.3927
-5.1009 0.7791 2.3927
-5.1270 0.5938 2.3927
-5.1468 0.4076 2.3927
-5.1602 0.2208 2.3927
-5.1672 0.0335 2.3927
-5.1679 -0.1539 2.3927
-5.1621 -0.3414 2.3927
-5.1500 -0.5286 2.3927
-5.1314 -0.7155 2.3927
-5.1064 -0.9017 2.3927
-5.0751 -1.0871 2.3927
-5.0374 -1.2715 2.3927
-4.9934 -1.4547 2.3927
-4.9431 -1.6364 2.3927
-4.8865 -1.8164 2.3927
-4.8236 -1.9947 2.3927
-4.7547 -2.1708 2.3927
-4.6796 -2.3447 2.3927
-4.5984 -2.5161 2.3927
-4.5113 -2.6848 2.3927
-4.4183 -2.8506 2.3927
-4.3195 -3.0134 2.3927
-4.2150 -3.1728 2.3927
-4.1048 -3.3288 2.3927
-3.9891 -3.4810 2.3927
-3.8680 -3.6294 2.3927
-3.7416 -3.7738 2.3927
-3.6101 -3.9138 2.3927
-3.4735 -4.0495 2.3927
-3.3319 -4.1804 2.3927
-3.1857 -4.3066 2.3927
-3.0348 -4.4278 2.3927
-2.8795 -4.5438 2.3927
-2.7200 -4.6545 2.3927
-2.5563 -4.7597 2.3927
-2.3887 -4.8592 2.3927
-2.2174 -4.9529 2.3927
-2.0425 -5.0407 2.3927
-1.8642 -5.1223 2.3927
-1.6829 -5.1977 2.3927
-1.4986 -5.2667 2.3927
-1.3116 -5.3293 2.3927
-1.1221 -5.3852 2.3927
-0.9304 -5.4343 2.3927
-0.7367 -5.4767 2.3927
-0.5412 -5.5121 2.3927
-0.3442 -5.5405 2.3927
-0.1459 -5.5618 2.3927
0.0535 -5.5760 2.3927
0.2535 -5.5829 2.3927
0.4541 -5.5825 2.3927
0.6549 -5.5749 2.3927
0.8556 -5.5599 2.3927
1.0559 -5.5378 2.3927
1.2558 -5.5078 2.3927
1.4547 -5.4707 2.3927
1.6525 -5.4263 2.3927
1.8488 -5.3744 2.3927
2.0434 -5.3154 2.3927
2.2359 -5.2491 2.3927
2.4262 -5.1756 2.3927
2.6139 -5.0949 2.3927
2.7987 -5.0073 2.3927
2.9805 -4.9126 2.3927
3.1588 -4.8112 2.3927
3.3334 -4.7030 2.3927
3.5041 -4.5882 2.3927
3.6706 -4.4670 2.3927
3.8325 -4.3395 2.3927
3.9898 -4.2059 2.3927
4.1421 -4.0663 2.3927
4.2892 -3.9209 2.3927
4.4309 -3.7700 2.3927
4.5669 -3.6137 2.3927
4.6970 -3.4523 2.3927
4.8210 -3.2859 2.3927
4.9387 -3.1149 2.3927
5.0499 -2.9394 2.3927
5.1545 -2.7598 2.3927
5.2522 -2.5762 2.3927
5.3430 -2.3890 2.3927
5.4266 -2.1984 2.3927
5.5029 -2.0048 2.3927
5.5719 -1.8083 2.3927
5.6334 -1.6094 2.3927
5.6873 -1.4082 2.3927
5.7335 -1.2051 2.3927
5.7720 -1.0005 2.3927
5.8028 -0.7946 2.3927
5.8256 -0.5876 2.3927
5.8406 -0.3801 2.3927
5.8478 -0.1721 2.3927
5.8470 0.0358 2.3927
5.8384 0.2435 2.3927
5.8220 0.4506 2.3927
5.7977 0.6569 2.3927
5.7657 0.8619 2.3927
5.7260 1.0654 2.3927
5.6787 1.2671 2.3927
5.6239 1.4667 2.3927
5.5616 1.6639 2.3927
5.4921 1.8585 2.3927
5.4154 2.0501 2.3927
5.3316 2.2385 2.3927
5.2409 2.4235 2.3927
5.1436 2.6046 2.3927
5.0396 2.7818 2.3927
4.9292 2.9548 2.3927
4.8127 3.1233 2.3927
4.6901 3.2872 2.3927
4.5617 3.4461 2.3927
4.4278 3.6000 2.3927
4.2884 3.7485 2.3927
4.1438 3.8916 2.3927
3.9944 4.0291 2.3927
3.8402 4.1607 2.3927
3.6815 4.2864 2.3927
3.5187 4.4059 2.3927
3.3519 4.5192 2.3927
3.1813 4.6262 2.3927
3.0072 4.7267 2.3927
2.8300 4.8206 2.3927
2.6498 4.9079 2.3927
2.4669 4.9884 2.3927
0.8927 1.9806 0.9362
0.8209 2.0108 0.9381
0.7482 2.0384 0.9400
0.6744 2.0634 0.9419
0.5998 2.0857 0.9438
0.5245 2.1053 0.9457
0.4485 2.1221 0.9475
0.3719 2.1362 0.9494
0.2948 2.1475 0.9513
0.2174 2.1561 0.9531
0.1398 2.1618 0.9550
0.0619 2.1648 0.9568
-0.0160 2.1649 0.9586
-0.0938 2.1622 0.9604
-0.1715 2.1567 0.9621
-0.2490 2.1484 0.9638
-0.3261 2.1373 0.9655
-0.4027 2.1235 0.9672
-0.4788 2.1069 0.9688
-0.5543 2.0875 0.9704
-0.6290 2.0655 0.9720
-0.7029 2.0407 0.9735
-0.7758 2.0133 0.9749
-0.8477 1.9833 0.9764
-2.2477 4.7739 2.3927
-2.4146 4.6817 2.3927
-2.5779 4.5838 2.3927
-2.7376 4.4805 2.3927
-2.8933 4.3719 2.3927
-3.0451 4.2581 2.3927
-3.1926 4.1393 2.3927
-3.3358 4.0157 2.3927
-3.4745 3.8874 2.3927
-3.6086 3.7545 2.3927
-3.7379 3.6172 2.3927
-3.8623 3.4757 2.3927
-3.9817 3.3302 2.3927
-4.0959 3.1808 2.3927
-4.2049 3.0277 2.3927
-4.3084 2.8711 2.3927
-4.4066 2.7111 2.3927
-4.4991 2.5480 2.3927
-4.5860 2.3818 2.3927
-4.6671 2.2129 2.3927
-4.7423 2.0414 2.3927
-4.8117 1.8675 2.3927
-4.8751 1.6914 2.3927
-4.9324 1.5132 2.3927
-4.9836 1.3332 2.3927
-5.0287 1.1516 2.3927
-5.0675 0.9685 2.3927
-5.1001 0.7842 2.3927
-5.1264 0.5989 2.3927
-5.1463 0.4127 2.3927
-5.1599 0.2259 2.3927
-5.1671 0.0387 2.3927
-5.1679 -0.1487 2.3927
-5.1624 -0.3362 2.3927
-5.1504 -0.5235 2.3927
-5.1320 -0.7103 2.3927
-5.1072 -0.8966 2.3927
-5.0761 -1.0821 2.3927
-5.0385 -1.2665 2.3927
-4.9947 -1.4497 2.3927
-4.9445 -1.6314 2.3927
-4.8881 -1.8115 2.3927
-4.8255 -1.9898 2.3927
-4.7566 -2.1660 2.3927
-4.6817 -2.3399 2.3927
-4.6008 -2.5114 2.3927
-4.5138 -2.6802 2.3927
-4.4210 -2.8461 2.3927
-4.3223 -3.0089 2.3927
-4.2179 -3.1685 2.3927
-4.1079 -3.3245 2.3927
-3.9924 -3.4769 2.3927
-3.8714 -3.6254 2.3927
-3.7452 -3.7699 2.3927
-3.6137 -3.9100 2.3927
-3.4773 -4.0458 2.3927
-3.3359 -4.1769 2.3927
-3.1898 -4.3032 2.3927
-3.0390 -4.4245 2.3927
-2.8839 -4.5407 2.3927
-2.7244 -4.6515 2.3927
-2.5608 -4.7569 2.3927
-2.3933 -4.8566 2.3927
-2.2221 -4.9504 2.3927
-2.0473 -5.0384 2.3927
-1.8692 -5.1202 2.3927
-1.6879 -5.1957 2.3927
-1.5037 -5.2649 2.3927
-1.3168 -5.3276 2.3927
-1.1274 -5.3837 2.3927
-0.9357 -5.4331 2.3927
-0.7420 -5.4756 2.3927
-0.5466 -5.5112 2.3927
-0.3496 -5.5398 2.3927
-0.1513 -5.5613 2.3927
-4.2513 -2.5383 2.3927
-4.1631 -2.6945 2.3927
-4.0694 -2.8477 2.3927
-3.9703 -2.9978 2.3927
-3.8659 -3.1446 2.3927
-3.7563 -3.2879 2.3927
-3.6416 -3.4275 2.3927
-3.5220 -3.5632 2.3927
-3.3975 -3.6948 2.3927
-3.2682 -3.8222 2.3927
-3.1344 -3.9452 2.3927
-2.9961 -4.0636 2.3927
-2.8535 -4.1773 2.3927
-2.7067 -4.2861 2.3927
-2.5559 -4.3898 2.3927
-2.4013 -4.4883 2.3927
-2.2430 -4.5815 2.3927
-2.0813 -4.6691 2.3927
-1.9162 -4.7511 2.3927
-1.7481 -4.8273 2.3927
-1.5770 -4.8976 2.3927
-1.4032 -4.9619 2.3927
-1.2269 -5.0201 2.3927
-1.0483 -5.0720 2.3927
-0.8677 -5.1175 2.3927
-0.6852 -5.1566 2.3927
-0.5011 -5.1892 2.3927
-0.3156 -5.2152 2.3927
-0.1289 -5.2344 2.3927
0.0587 -5.2470 2.3927
0.2469 -5.2527 2.3927
0.4355 -5.2516 2.3927
0.6243 -5.2437 2.3927
0.8130 -5.2288 2.3927
1.0013 -5.2070 2.3927
1.1891 -5.1783 2.3927
1.3759 -5.1427 2.3927
1.5618 -5.1000 2.3927
1.7460 -5.0509 2.3927
1.9286 -4.9947 2.3927
2.1093 -4.9317 2.3927
2.2879 -4.8620 2.3927
2.4639 -4.7856 2.3927
2.6373 -4.7026 2.3927
2.8077 -4.6131 2.3927
2.9749 -4.5172 2.3927
3.1385 -4.4151 2.3927
3.2985 -4.3068 2.3927
3.4545 -4.1925 2.3927
3.6062 -4.0723 2.3927
3.7535 -3.9464 2.3927
3.8961 -3.8149 2.3927
4.0339 -3.6781 2.3927
4.1665 -3.5360 2.3927
4.2938 -3.3890 2.3927
4.4155 -3.2372 2.3927
4.5315 -3.0807 2.3927
4.6417 -2.9200 2.3927
4.7457 -2.7551 2.3927
4.8435 -2.5863 2.3927
4.9349 -2.4138 2.3927
5.0198 -2.2380 2.3927
5.0980 -2.0590 2.3927
5.1694 -1.8772 2.3927
5.2339 -1.6927 2.3927
5.2914 -1.5059 2.3927
5.3417 -1.3171 2.3927
5.3849 -1.1265 2.3927
5.4209 -0.9344 2.3927
5.4496 -0.7411 2.3927
5.4709 -0.5470 2.3927
5.4849 -0.3521 2.3927
5.4915 -0.1570 2.3927
5.4908 0.0382 2.3927
5.4827 0.2331 2.3927
5.4672 0.4275 2.3927
5.4445 0.6210 2.3927
5.4145 0.8135 2.3927
5.3773 1.0045 2.3927
5.3330 1.1939 2.3927
5.2816 1.3813 2.3927
5.2233 1.5665 2.3927
5.1582 1.7492 2.3927
5.0863 1.9292 2.3927
5.0078 2.1062 2.3927
4.9229 2.2799 2.3927
4.8316 2.4501 2.3927
4.7342 2.6167 2.3927
4.6308 2.7793 2.3927
4.5215 2.9377 2.3927
4.4066 3.0918 2.3927
4.2862 3.2413 2.3927
4.1606 3.3861 2.3927
4.0298 3.5259 2.3927
3.8942 3.6606 2.3927
3.7540 3.7900 2.3927
3.6094 3.9140 2.3927
3.4604 4.0324 2.3927
3.3076 4.1451 2.3927
3.1509 4.2519 2.3927
2.9907 4.3528 2.3927
2.8273 4.4476 2.3927
2.6608 4.5363 2.3927
2.4914 4.6187 2.3927
0.9062 1.8341 0.9348
0.8397 1.8649 0.9365
0.7721 1.8932 0.9383
0.7036 1.9191 0.9401
0.6342 1.9425 0.9419
0.5639 1.9634 0.9436
0.4930 1.9818 0.9454
0.4214 1.9975 0.9472
0.3493 2.0107 0.9490
0.2768 2.0213 0.9507
0.2039 2.0293 0.9525
0.1308 2.0346 0.9542
0.0575 2.0373 0.9559
-0.0158 2.0373 0.9576
-0.0891 2.0347 0.9593
-0.1622 2.0295 0.9609
-0.2351 2.0216 0.9625
-0.3076 2.0111 0.9641
-0.3798 1.9980 0.9657
-0.4514 1.9823 0.9672
-0.5224 1.9640 0.9687
-0.5927 1.9432 0.9702
-0.6622 1.9198 0.9716
-0.7309 1.8940 0.9730
-0.7985 1.8657 0.9743
-0.8651 1.8350 0.9756
-2.2791 4.4135 2.3927
-2.4333 4.3214 2.3927
-2.5841 4.2241 2.3927
-2.7312 4.1218 2.3927
-2.8744 4.0146 2.3927
-3.0138 3.9026 2.3927
-3.1490 3.7861 2.3927
-3.2800 3.6650 2.3927
-3.4066 3.5397 2.3927
-3.5287 3.4102 2.3927
-3.6462 3.2767 2.3927
-3.7589 3.1393 2.3927
-3.8668 2.9983 2.3927
-3.9697 2.8538 2.3927
-4.0675 2.7059 2.3927
-4.1601 2.5549 2.3927
-4.2475 2.4008 2.3927
-4.3295 2.2440 2.3927
-4.4060 2.0845 2.3927
-4.4770 1.9225 2.3927
-4.5424 1.7582 2.3927
-4.6022 1.5919 2.3927
-4.6562 1.4236 2.3927
-4.7044 1.2536 2.3927
-4.7468 1.0820 2.3927
-4.7833 0.9091 2.3927
-4.8138 0.7350 2.3927
-4.8384 0.5600 2.3927
-4.8570 0.3841 2.3927
-4.8696 0.2077 2.3927
-4.8761 0.0309 2.3927
-4.8766 -0.1461 2.3927
-4.8711 -0.3230 2.3927
-4.8594 -0.4998 2.3927
-4.8417 -0.6762 2.3927
-4.8180 -0.8520 2.3927
-4.7882 -1.0270 2.3927
-4.7524 -1.2011 2.3927
-4.7106 -1.3739 2.3927
-4.6628 -1.5454 2.3927
-4.6091 -1.7152 2.3927
-4.5496 -1.8833 2.3927
-4.4842 -2.0494 2.3927
-4.4130 -2.2134 2.3927
-4.3362 -2.3750 2.3927
-4.2537 -2.5340 2.3927
-4.1656 -2.6903 2.3927
-4.0720 -2.8436 2.3927
-3.9731 -2.9938 2.3927
-3.8688 -3.1406 2.3927
-3.7594 -3.2840 2.3927
-3.6449 -3.4237 2.3927
-3.5253 -3.5595 2.3927
-3.4009 -3.6912 2.3927
-3.2718 -3.8188 2.3927
-3.1381 -3.9419 2.3927
-2.9999 -4.0604 2.3927
-2.8574 -4.1743 2.3927
-2.7108 -4.2832 2.3927
-2.5601 -4.3871 2.3927
-2.4056 -4.4857 2.3927
-2.2474 -4.5790 2.3927
-2.0858 -4.6668 2.3927
-1.9208 -4.7490 2.3927
-1.7527 -4.8253 2.3927
-1.5817 -4.8958 2.3927
-1.4080 -4.9603 2.3927
-1.2318 -5.0186 2.3927
-1.0533 -5.0706 2.3927
-0.8727 -5.1164 2.3927
-0.6902 -5.1556 2.3927
-0.5061 -5.1884 2.3927
-0.3207 -5.2145 2.3927
-0.1340 -5.2340 2.3927
0.0535 -5.2467 2.3927
0.2417 -5.2527 2.3927
0.4303 -5.2517 2.3927
0.6191 -5.2440 2.3927
0.8078 -5.2293 2.3927
0.9962 -5.2077 2.3927
1.1839 -5.1792 2.3927
1.3708 -5.1438 2.3927
1.5566 -5.1015 2.3927
1.7409 -5.0523 2.3927
1.9236 -4.9963 2.3927
2.1044 -4.9334 2.3927
2.2830 -4.8639 2.3927
2.4592 -4.7877 2.3927
2.6326 -4.7049 2.3927
2.8031 -4.6156 2.3927
2.9703 -4.5199 2.3927
3.1341 -4.4180 2.3927
3.2942 -4.3098 2.3927
3.4502 -4.1957 2.3927
3.6021 -4.0757 2.3927
3.7495 -3.9499 2.3927
3.8923 -3.8186 2.3927
4.0302 -3.6819 2.3927
4.1629 -3.5400 2.3927
4.2903 -3.3931 2.3927
4.4122 -3.2414 2.3927
4.5284 -3.0851 2.3927
4.6387 -2.9244 2.3927
4.7430 -2.7596 2.3927
4.8409 -2.5909 2.3927
4.9325 -2.4186 2.3927
5.0176 -2.2429 2.3927
5.0959 -2.0640 2.3927
5.1675 -1.8822 2.3927
5.2322 -1.6978 2.3927
5.2899 -1.5111 2.3927
5.3404 -1.3223 2.3927
5.3839 -1.1318 2.3927
5.4200 -0.9397 2.3927
5.4489 -0.7465 2.3927
5.4704 -0.5523 2.3927
5.4846 -0.3575 2.3927
5.4915 -0.1624 2.3927
5.4909 0.0328 2.3927
5.4830 0.2277 2.3927
5.4678 0.4221 2.3927
5.4452 0.6157 2.3927
5.4154 0.8082 2.3927
5.3784 0.9993 2.3927
5.3343 1.1887 2.3927
5.2831 1.3762 2.3927
5.2250 1.5614 2.3927
5.1600 1.7442 2.3927
5.0884 1.9243 2.3927
5.0101 2.1013 2.3927
4.9253 2.2752 2.3927
4.8342 2.4455 2.3927
4.7369 2.6122 2.3927
4.6337 2.7749 2.3927
4.5246 2.9334 2.3927
4.4098 3.0876 2.3927
4.2896 3.2373 2.3927
4.1641 3.3821 2.3927
4.0335 3.5221 2.3927
3.8980 3.6569 2.3927
3.7579 3.7865 2.3927
3.6134 3.9107 2.3927
3.4646 4.0292 2.3927
3.3118 4.1420 2.3927
3.1553 4.2491 2.3927
2.9952 4.3501 2.3927
2.8318 4.4451 2.3927
2.6654 4.5339 2.3927
2.4961 4.6165 2.3927
0.9080 1.8332 0.9347
0.8415 1.8641 0.9365
0.7740 1.8925 0.9383
0.7055 1.9184 0.9400
0.6361 1.9419 0.9418
0.5659 1.9629 0.9436
0.4949 1.9813 0.9454
0.4234 1.9971 0.9472
0.3513 2.0104 0.9489
0.2788 2.0211 0.9507
0.2059 2.0291 0.9524
0.1328 2.0345 0.9541
0.0595 2.0373 0.9559
-0.0138 2.0374 0.9575
-0.0870 2.0348 0.9592
-0.1602 2.0297 0.9609
-0.2331 2.0219 0.9625
-0.3057 2.0114 0.9641
-0.3778 1.9984 0.9656
-0.4495 1.9828 0.9672
-0.5205 1.9646 0.9687
-0.5908 1.9438 0.9701
-0.6603 1.9205 0.9716
-0.7290 1.8947 0.9729
-0.7967 1.8665 0.9743
-0.8633 1.8359 0.9756
-2.2749 4.4160 2.3927
-2.4292 4.3240 2.3927
-2.5800 4.2268 2.3927
-2.7272 4.1247 2.3927
-2.8706 4.0176 2.3927
-3.0100 3.9058 2.3927
-3.1453 3.7893 2.3927
-3.2764 3.6684 2.3927
-3.4032 3.5432 2.3927
-3.5254 3.4138 2.3927
-3.6430 3.2804 2.3927
-3.7559 3.1432 2.3927
-3.8639 3.0022 2.3927
-3.9669 2.8578 2.3927
-4.0649 2.7100 2.3927
-4.1576 2.5591 2.3927
-4.2451 2.4051 2.3927
-4.3273 2.2483 2.3927
-4.4040 2.0889 2.3927
-4.4751 1.9270 2.3927
-4.5407 1.7628 2.3927
-4.6006 1.5965 2.3927
-4.6548 1.4282 2.3927
-4.7031 1.2582 2.3927
-4.7457 1.0867 2.3927
-4.7823 0.9138 2.3927
-4.8131 0.7398 2.3927
-4.8378 0.5648 2.3927
-4.8566 0.3890 2.3927
-4.8693 0.2126 2.3927
-4.8761 0.0358 2.3927
-4.8767 -0.1412 2.3927
-4.8713 -0.3182 2.3927
-4.8598 -0.4950 2.3927
-4.8423 -0.6714 2.3927
-4.8187 -0.8472 2.3927
-4.7891 -1.0223 2.3927
-4.7534 -1.1963 2.3927
-4.7118 -1.3692 2.3927
-4.6642 -1.5407 2.3927
-4.6107 -1.7106 2.3927
-4.5513 -1.8788 2.3927
-4.4861 -2.0449 2.3927
-4.4151 -2.2089 2.3927
-4.3384 -2.3706 2.3927
-4.2560 -2.5297 2.3927
-4.1681 -2.6860 2.3927
-4.0747 -2.8394 2.3927
-3.9759 -2.9897 2.3927
-3.8718 -3.1367 2.3927
-3.7625 -3.2801 2.3927
-3.6481 -3.4199 2.3927
-3.5287 -3.5558 2.3927
-3.4044 -3.6877 2.3927
-3.2754 -3.8153 2.3927
-3.1418 -3.9386 2.3927
-3.0038 -4.0572 2.3927
-2.8614 -4.1712 2.3927
-2.7148 -4.2803 2.3927
-2.5643 -4.3843 2.3927
-2.4099 -4.4831 2.3927
-2.2518 -4.5765 2.3927
-2.0902 -4.6645 2.3927
-1.9254 -4.7468 2.3927
-1.7574 -4.8233 2.3927
-1.5865 -4.8940 2.3927
-1.4128 -4.9586 2.3927
-1.2367 -5.0171 2.3927
-1.0582 -5.0693 2.3927
-0.8777 -5.1152 2.3927
-0.6953 -5.1546 2.3927
-0.5112 -5.1876 2.3927
-0.3258 -5.2139 2.3927
-0.1392 -5.2336 2.3927
-4.0167 -2.4007 2.3927
-3.9330 -2.5482 2.3927
-3.8442 -2.6929 2.3927
-3.7502 -2.8346 2.3927
-3.6513 -2.9732 2.3927
-3.5474 -3.1083 2.3927
-3.4387 -3.2400 2.3927
-3.3254 -3.3680 2.3927
-3.2074 -3.4921 2.3927
-3.0850 -3.6122 2.3927
-2.9583 -3.7281 2.3927
-2.8274 -3.8396 2.3927
-2.6924 -3.9466 2.3927
-2.5535 -4.0490 2.3927
-2.4109 -4.1466 2.3927
-2.2646 -4.2392 2.3927
-2.1150 -4.3268 2.3927
-1.9620 -4.4091 2.3927
-1.8060 -4.4861 2.3927
-1.6471 -4.5576 2.3927
-1.4854 -4.6235 2.3927
-1.3213 -4.6837 2.3927
-1.1548 -4.7381 2.3927
-0.9861 -4.7866 2.3927
-0.8156 -4.8291 2.3927
-0.6433 -4.8655 2.3927
-0.4696 -4.8957 2.3927
-0.2946 -4.9197 2.3927
-0.1185 -4.9374 2.3927
0.0584 -4.9487 2.3927
0.2359 -4.9536 2.3927
0.4137 -4.9521 2.3927
0.5916 -4.9441 2.3927
0.7695 -4.9296 2.3927
0.9469 -4.9086 2.3927
1.1238 -4.8811 2.3927
1.2997 -4.8471 2.3927
1.4746 -4.8066 2.3927
1.6482 -4.7596 2.3927
1.8201 -4.7062 2.3927
1.9902 -4.6465 2.3927
2.1582 -4.5804 2.3927
2.3238 -4.5081 2.3927
2.4869 -4.4296 2.3927
2.6472 -4.3450 2.3927
2.8044 -4.2544 2.3927
2.9583 -4.1579 2.3927
3.1087 -4.0556 2.3927
3.2553 -3.9477 2.3927
3.3980 -3.8343 2.3927
3.5364 -3.7156 2.3927
3.6705 -3.5916 2.3927
3.7999 -3.4626 2.3927
3.9245 -3.3288 2.3927
4.0441 -3.1902 2.3927
4.1585 -3.0472 2.3927
4.2675 -2.8999 2.3927
4.3710 -2.7485 2.3927
4.4688 -2.5932 2.3927
4.5607 -2.4343 2.3927
4.6466 -2.2720 2.3927
4.7263 -2.1065 2.3927
4.7998 -1.9381 2.3927
4.8669 -1.7669 2.3927
4.9275 -1.5934 2.3927
4.9816 -1.4176 2.3927
5.0290 -1.2400 2.3927
5.0696 -1.0607 2.3927
5.1035 -0.8799 2.3927
5.1305 -0.6981 2.3927
5.1507 -0.5154 2.3927
5.1639 -0.3321 2.3927
5.1703 -0.1485 2.3927
5.1697 0.0351 2.3927
5.1622 0.2186 2.3927
5.1479 0.4015 2.3927
5.1266 0.5836 2.3927
5.0986 0.7647 2.3927
5.0638 0.9445 2.3927
5.0224 1.1228 2.3927
4.9743 1.2993 2.3927
4.9197 1.4737 2.3927
4.8586 1.6458 2.3927
4.7913 1.8153 2.3927
4.7177 1.9820 2.3927
4.6380 2.1457 2.3927
4.5524 2.3062 2.3927
4.4610 2.4632 2.3927
4.3640 2.6165 2.3927
4.2614 2.7659 2.3927
4.1535 2.9112 2.3927
4.0405 3.0523 2.3927
3.9224 3.1889 2.3927
3.7996 3.3209 2.3927
3.6722 3.4481 2.3927
3.5404 3.5704 2.3927
3.4044 3.6876 2.3927
3.2644 3.7995 2.3927
3.1206 3.9061 2.3927
2.9732 4.0072 2.3927
2.8225 4.1027 2.3927
2.6687 4.1925 2.3927
2.5120 4.2766 2.3927
0.9178 1.6988 0.9334
0.8561 1.7301 0.9351
0.7934 1.7591 0.9368
0.7297 1.7858 0.9385
0.6650 1.8103 0.9401
0.5995 1.8323 0.9418
0.5332 1.8520 0.9435
0.4663 1.8693 0.9452
0.3988 1.8842 0.9468
0.3307 1.8967 0.9485
0.2623 1.9066 0.9502
0.1936 1.9141 0.9518
0.1246 1.9192 0.9534
0.0555 1.9217 0.9551
-0.0137 1.9217 0.9566
-0.0828 1.9193 0.9582
-0.1518 1.9143 0.9598
-0.2206 1.9069 0.9613
-0.2890 1.8970 0.9628
-0.3571 1.8846 0.9643
-0.4247 1.8698 0.9657
-0.4916 1.8526 0.9671
-0.5580 1.8329 0.9685
-0.6236 1.8109 0.9699
-0.6883 1.7865 0.9712
-0.7521 1.7598 0.9724
-0.8149 1.7308 0.9737
-0.8766 1.6996 0.9748
-2.2976 4.0849 2.3927
-2.4403 3.9932 2.3927
-2.5795 3.8967 2.3927
-2.7152 3.7956 2.3927
-2.8471 3.6899 2.3927
-2.9752 3.5799 2.3927
-3.0992 3.4656 2.3927
-3.2192 3.3472 2.3927
-3.3348 3.2249 2.3927
-3.4461 3.0988 2.3927
-3.5529 2.9690 2.3927
-3.6551 2.8357 2.3927
-3.7525 2.6991 2.3927
-3.8452 2.5593 2.3927
-3.9330 2.4164 2.3927
-4.0157 2.2708 2.3927
-4.0934 2.1224 2.3927
-4.1659 1.9715 2.3927
-4.2331 1.8183 2.3927
-4.2951 1.6629 2.3927
-4.3516 1.5055 2.3927
-4.4028 1.3463 2.3927
-4.4484 1.1854 2.3927
-4.4885 1.0231 2.3927
-4.5230 0.8595 2.3927
-4.5519 0.6948 2.3927
-4.5752 0.5291 2.3927
-4.5927 0.3628 2.3927
-4.6045 0.1958 2.3927
-4.6106 0.0286 2.3927
-4.6110 -0.1389 2.3927
-4.6056 -0.3063 2.3927
-4.5944 -0.4736 2.3927
-4.5775 -0.6405 2.3927
-4.5549 -0.8067 2.3927
-4.5266 -0.9723 2.3927
-4.4925 -1.1369 2.3927
-4.4527 -1.3003 2.3927
-4.4074 -1.4624 2.3927
-4.3564 -1.6230 2.3927
-4.2998 -1.7819 2.3927
-4.2377 -1.9389 2.3927
-4.1702 -2.0938 2.3927
-4.0972 -2.2464 2.3927
-4.0189 -2.3967 2.3927
-3.9354 -2.5442 2.3927
-3.8467 -2.6890 2.3927
-3.7529 -2.8308 2.3927
-3.6540 -2.9694 2.3927
-3.5503 -3.1047 2.3927
-3.4418 -3.2364 2.3927
-3.3285 -3.3645 2.3927
-3.2107 -3.4887 2.3927
-3.0884 -3.6089 2.3927
-2.9618 -3.7249 2.3927
-2.8310 -3.8366 2.3927
-2.6961 -3.9438 2.3927
-2.5574 -4.0463 2.3927
-2.4148 -4.1440 2.3927
-2.2687 -4.2368 2.3927
-2.1191 -4.3245 2.3927
-1.9663 -4.4069 2.3927
-1.8103 -4.4841 2.3927
-1.6515 -4.5557 2.3927
-1.4899 -4.6218 2.3927
-1.3258 -4.6821 2.3927
-1.1594 -4.7367 2.3927
-0.9908 -4.7853 2.3927
-0.8203 -4.8280 2.3927
-0.6481 -4.8645 2.3927
-0.4744 -4.8950 2.3927
-0.2994 -4.9191 2.3927
-0.1233 -4.9370 2.3927
0.0535 -4.9485 2.3927
0.2310 -4.9536 2.3927
0.4088 -4.9522 2.3927
0.5868 -4.9444 2.3927
0.7646 -4.9301 2.3927
0.9421 -4.9093 2.3927
1.1189 -4.8819 2.3927
1.2949 -4.8481 2.3927
1.4698 -4.8078 2.3927
1.6434 -4.7610 2.3927
1.8154 -4.7078 2.3927
1.9855 -4.6482 2.3927
2.1536 -4.5823 2.3927
2.3193 -4.5101 2.3927
2.4825 -4.4318 2.3927
2.6428 -4.3474 2.3927
2.8001 -4.2569 2.3927
2.9541 -4.1606 2.3927
3.1046 -4.0585 2.3927
3.2514 -3.9508 2.3927
3.3941 -3.8375 2.3927
3.5327 -3.7189 2.3927
3.6669 -3.5951 2.3927
3.7964 -3.4662 2.3927
3.9212 -3.3325 2.3927
4.0409 -3.1941 2.3927
4.1554 -3.0512 2.3927
4.2646 -2.9040 2.3927
4.3682 -2.7527 2.3927
4.4662 -2.5975 2.3927
4.5582 -2.4387 2.3927
4.6443 -2.2765 2.3927
4.7242 -2.1111 2.3927
4.7979 -1.9427 2.3927
4.8651 -1.7717 2.3927
4.9259 -1.5982 2.3927
4.9802 -1.4225 2.3927
5.0277 -1.2449 2.3927
5.0686 -1.0656 2.3927
5.1026 -0.8849 2.3927
5.1299 -0.7031 2.3927
5.1502 -0.5204 2.3927
5.1636 -0.3372 2.3927
5.1702 -0.1535 2.3927
5.1698 0.0301 2.3927
5.1625 0.2135 2.3927
5.1483 0.3965 2.3927
5.1273 0.5786 2.3927
5.0995 0.7598 2.3927
5.0649 0.9397 2.3927
5.0236 1.1179 2.3927
4.9757 1.2945 2.3927
4.9213 1.4689 2.3927
4.8604 1.6411 2.3927
4.7932 1.8107 2.3927
4.7198 1.9775 2.3927
4.6403 2.1413 2.3927
4.5549 2.3018 2.3927
4.4636 2.4589 2.3927
4.3667 2.6123 2.3927
4.2643 2.7619 2.3927
4.1565 2.9073 2.3927
4.0436 3.0485 2.3927
3.9258 3.1853 2.3927
3.8031 3.3174 2.3927
3.6758 3.4447 2.3927
3.5441 3.5671 2.3927
3.4082 3.6844 2.3927
3.2683 3.7965 2.3927
3.1246 3.9032 2.3927
2.9773 4.0045 2.3927
2.8267 4.1002 2.3927
2.6730 4.1901 2.3927
2.5163 4.2743 2.3927
0.9194 1.6980 0.9334
0.8578 1.7293 0.9351
0.7951 1.7583 0.9367
0.7314 1.7851 0.9384
0.6668 1.8096 0.9401
0.6013 1.8318 0.9418
0.5351 1.8515 0.9434
0.4681 1.8689 0.9451
0.4006 1.8839 0.9468
0.3326 1.8964 0.9485
0.2642 1.9064 0.9501
0.1955 1.9140 0.9518
0.1265 1.9191 0.9534
0.0574 1.9217 0.9550
-0.0118 1.9218 0.9566
-0.0809 1.9194 0.9582
-0.1499 1.9145 0.9597
-0.2187 1.9071 0.9613
-0.2872 1.8973 0.9628
-0.3552 1.8850 0.9642
-0.4228 1.8702 0.9657
-0.4898 1.8531 0.9671
-0.5562 1.8335 0.9685
-0.6218 1.8115 0.9698
-0.6865 1.7872 0.9711
-0.7504 1.7606 0.9724
-0.8132 1.7317 0.9736
-0.8749 1.7005 0.9748
-2.2937 4.0874 2.3927
-2.4364 3.9958 2.3927
-2.5758 3.8994 2.3927
-2.7115 3.7984 2.3927
-2.8436 3.6929 2.3927
-2.9717 3.5830 2.3927
-3.0959 3.4688 2.3927
-3.2159 3.3505 2.3927
-3.3317 3.2283 2.3927
-3.4431 3.1023 2.3927
-3.5500 2.9726 2.3927
-3.6523 2.8394 2.3927
-3.7499 2.7029 2.3927
-3.8427 2.5632 2.3927
-3.9306 2.4204 2.3927
-4.0135 2.2748 2.3927
-4.0913 2.1265 2.3927
-4.1639 1.9757 2.3927
-4.2314 1.8225 2.3927
-4.2934 1.6672 2.3927
-4.3502 1.5098 2.3927
-4.4014 1.3507 2.3927
-4.4472 1.1898 2.3927
-4.4875 1.0276 2.3927
-4.5222 0.8640 2.3927
-4.5512 0.6993 2.3927
-4.5746 0.5337 2.3927
-4.5923 0.3673 2.3927
-4.6043 0.2004 2.3927
-4.6105 0.0332 2.3927
-4.6110 -0.1343 2.3927
-4.6058 -0.3018 2.3927
-4.5948 -0.4690 2.3927
-4.5781 -0.6359 2.3927
-4.5556 -0.8022 2.3927
-4.5274 -0.9677 2.3927
-4.4935 -1.1323 2.3927
-4.4539 -1.2958 2.3927
-4.4087 -1.4579 2.3927
-4.3578 -1.6186 2.3927
-4.3014 -1.7775 2.3927
-4.2395 -1.9346 2.3927
-4.1721 -2.0896 2.3927
-4.0993 -2.2423 2.3927
-4.0212 -2.3925 2.3927
-3.9378 -2.5402 2.3927
-3.8492 -2.6851 2.3927
-3.7555 -2.8269 2.3927
-3.6568 -2.9656 2.3927
-3.5532 -3.1010 2.3927
-3.4448 -3.2329 2.3927
-3.3317 -3.3610 2.3927
-3.2140 -3.4854 2.3927
-3.0918 -3.6057 2.3927
-2.9654 -3.7218 2.3927
-2.8347 -3.8336 2.3927
-2.6999 -3.9409 2.3927
-2.5612 -4.0435 2.3927
-2.4188 -4.1414 2.3927
-2.2728 -4.2343 2.3927
-2.1233 -4.3221 2.3927
-1.9705 -4.4047 2.3927
-1.8147 -4.4820 2.3927
-1.6559 -4.5538 2.3927
-1.4944 -4.6200 2.3927
-1.3303 -4.6806 2.3927
-1.1640 -4.7353 2.3927
-0.9955 -4.7841 2.3927
-0.8250 -4.8269 2.3927
-0.6528 -4.8636 2.3927
-0.4792 -4.8942 2.3927
-0.3042 -4.9185 2.3927
-0.1282 -4.9366 2.3927
-3.8019 -2.2748 2.3927
-3.7224 -2.4143 2.3927
-3.6380 -2.5512 2.3927
-3.5488 -2.6852 2.3927
-3.4548 -2.8162 2.3927
-3.3562 -2.9440 2.3927
-3.2531 -3.0685 2.3927
-3.1455 -3.1894 2.3927
-3.0336 -3.3067 2.3927
-2.9175 -3.4201 2.3927
-2.7973 -3.5295 2.3927
-2.6731 -3.6348 2.3927
-2.5452 -3.7358 2.3927
-2.4135 -3.8324 2.3927
-2.2784 -3.9244 2.3927
-2.1398 -4.0117 2.3927
-1.9980 -4.0942 2.3927
-1.8531 -4.1717 2.3927
-1.7054 -4.2441 2.3927
-1.5549 -4.3114 2.3927
-1.4019 -4.3733 2.3927
-1.2465 -4.4298 2.3927
-1.0890 -4.4809 2.3927
-0.9294 -4.5263 2.3927
-0.7681 -4.5660 2.3927
-0.6052 -4.6000 2.3927
-0.4409 -4.6282 2.3927
-0.2754 -4.6504 2.3927
-0.1090 -4.6667 2.3927
0.0582 -4.6770 2.3927
0.2259 -4.6812 2.3927
0.3938 -4.6793 2.3927
0.5619 -4.6713 2.3927
0.7298 -4.6572 2.3927
0.8974 -4.6370 2.3927
1.0643 -4.6106 2.3927
1.2304 -4.5781 2.3927
1.3955 -4.5395 2.3927
1.5592 -4.4947 2.3927
1.7214 -4.4440 2.3927
1.8818 -4.3872 2.3927
2.0403 -4.3245 2.3927
2.1965 -4.2559 2.3927
2.3503 -4.1815 2.3927
2.5014 -4.1013 2.3927
2.6495 -4.0156 2.3927
2.7946 -3.9242 2.3927
2.9363 -3.8275 2.3927
3.0745 -3.7255 2.3927
3.2089 -3.6183 2.3927
3.3393 -3.5060 2.3927
3.4656 -3.3889 2.3927
3.5875 -3.2671 2.3927
3.7049 -3.1406 2.3927
3.8175 -3.0098 2.3927
3.9253 -2.8748 2.3927
4.0280 -2.7358 2.3927
4.1254 -2.5929 2.3927
4.2175 -2.4464 2.3927
4.3041 -2.2965 2.3927
4.3850 -2.1433 2.3927
4.4601 -1.9872 2.3927
4.5293 -1.8284 2.3927
4.5925 -1.6670 2.3927
4.6496 -1.5033 2.3927
4.7006 -1.3376 2.3927
4.7453 -1.1700 2.3927
4.7836 -1.0009 2.3927
4.8156 -0.8305 2.3927
4.8411 -0.6591 2.3927
4.8602 -0.4868 2.3927
4.8727 -0.3139 2.3927
4.8788 -0.1408 2.3927
4.8784 0.0324 2.3927
4.8715 0.2054 2.3927
4.8581 0.3779 2.3927
4.8382 0.5497 2.3927
4.8120 0.7205 2.3927
4.7794 0.8902 2.3927
4.7405 1.0584 2.3927
4.6953 1.2249 2.3927
4.6440 1.3894 2.3927
4.5867 1.5519 2.3927
4.5234 1.7119 2.3927
4.4542 1.8693 2.3927
4.3794 2.0239 2.3927
4.2988 2.1754 2.3927
4.2129 2.3237 2.3927
4.1216 2.4686 2.3927
4.0250 2.6098 2.3927
3.9235 2.7472 2.3927
3.8171 2.8805 2.3927
3.7060 3.0097 2.3927
3.5903 3.1346 2.3927
3.4703 3.2550 2.3927
3.3461 3.3707 2.3927
3.2179 3.4816 2.3927
3.0860 3.5876 2.3927
2.9504 3.6886 2.3927
2.8115 3.7844 2.3927
2.6694 3.8750 2.3927
2.5243 3.9602 2.3927
0.9259 1.5741 0.9323
0.8688 1.6057 0.9339
0.8105 1.6352 0.9354
0.7512 1.6627 0.9370
0.6909 1.6879 0.9386
0.6298 1.7110 0.9402
0.5679 1.7319 0.9418
0.5052 1.7505 0.9434
0.4420 1.7668 0.9449
0.3781 1.7809 0.9465
0.3138 1.7927 0.9481
0.2491 1.8021 0.9497
0.1842 1.8092 0.9512
0.1189 1.8139 0.9528
0.0536 1.8163 0.9543
-0.0118 1.8163 0.9558
-0.0771 1.8140 0.9573
-0.1423 1.8093 0.9587
-0.2073 1.8023 0.9602
-0.2721 1.7929 0.9616
-0.3364 1.7812 0.9630
-0.4003 1.7672 0.9644
-0.4636 1.7509 0.9657
-0.5263 1.7324 0.9670
-0.5883 1.7115 0.9683
-0.6495 1.6885 0.9695
-0.7098 1.6633 0.9707
-0.7692 1.6359 0.9719
-0.8275 1.6064 0.9730
-0.8848 1.5748 0.9741
-2.3087 3.7818 2.3927
-2.4407 3.6906 2.3927
-2.5694 3.5950 2.3927
-2.6945 3.4951 2.3927
-2.8160 3.3910 2.3927
-2.9336 3.2829 2.3927
-3.0474 3.1709 2.3927
-3.1572 3.0551 2.3927
-3.2627 2.9357 2.3927
-3.3641 2.8129 2.3927
-3.4610 2.6867 2.3927
-3.5535 2.5573 2.3927
-3.6414 2.4248 2.3927
-3.7247 2.2895 2.3927
-3.8032 2.1515 2.3927
-3.8769 2.0109 2.3927
-3.9457 1.8680 2.3927
-4.0095 1.7228 2.3927
-4.0683 1.5755 2.3927
-4.1219 1.4263 2.3927
-4.1704 1.2754 2.3927
-4.2137 1.1229 2.3927
-4.2517 0.9691 2.3927
-4.2844 0.8140 2.3927
-4.3118 0.6578 2.3927
-4.3338 0.5008 2.3927
-4.3503 0.3431 2.3927
-4.3615 0.1849 2.3927
-4.3672 0.0264 2.3927
-4.3674 -0.1323 2.3927
-4.3622 -0.2910 2.3927
-4.3515 -0.4495 2.3927
-4.3354 -0.6077 2.3927
-4.3138 -0.7652 2.3927
-4.2868 -0.9221 2.3927
-4.2543 -1.0780 2.3927
-4.2165 -1.2328 2.3927
-4.1733 -1.3864 2.3927
-4.1248 -1.5385 2.3927
-4.0710 -1.6889 2.3927
-4.0119 -1.8376 2.3927
-3.9477 -1.9842 2.3927
-3.8784 -2.1287 2.3927
-3.8040 -2.2709 2.3927
-3.7247 -2.4105 2.3927
-3.6404 -2.5475 2.3927
-3.5513 -2.6816 2.3927
-3.4575 -2.8127 2.3927
-3.3590 -2.9406 2.3927
-3.2560 -3.0651 2.3927
-3.1485 -3.1862 2.3927
-3.0367 -3.3035 2.3927
-2.9207 -3.4170 2.3927
-2.8006 -3.5266 2.3927
-2.6766 -3.6320 2.3927
-2.5487 -3.7331 2.3927
-2.4172 -3.8298 2.3927
-2.2821 -3.9219 2.3927
-2.1436 -4.0094 2.3927
-2.0019 -4.0920 2.3927
-1.8571 -4.1696 2.3927
-1.7095 -4.2422 2.3927
-1.5591 -4.3096 2.3927
-1.4061 -4.3717 2.3927
-1.2508 -4.4284 2.3927
-1.0933 -4.4796 2.3927
-0.9338 -4.5251 2.3927
-0.7725 -4.5650 2.3927
-0.6097 -4.5992 2.3927
-0.4454 -4.6275 2.3927
-0.2800 -4.6499 2.3927
-0.1136 -4.6663 2.3927
0.0536 -4.6768 2.3927
0.2212 -4.6811 2.3927
0.3892 -4.6794 2.3927
0.5573 -4.6716 2.3927
0.7252 -4.6577 2.3927
0.8928 -4.6376 2.3927
1.0597 -4.6116 2.3927
1.2259 -4.5790 2.3927
1.3909 -4.5406 2.3927
1.5547 -4.4960 2.3927
1.7170 -4.4455 2.3927
1.8775 -4.3889 2.3927
2.0360 -4.3263 2.3927
2.1922 -4.2579 2.3927
2.3461 -4.1836 2.3927
2.4972 -4.1036 2.3927
2.6455 -4.0180 2.3927
2.7907 -3.9268 2.3927
2.9325 -3.8302 2.3927
3.0707 -3.7284 2.3927
3.2053 -3.6213 2.3927
3.3358 -3.5092 2.3927
3.4622 -3.3922 2.3927
3.5842 -3.2705 2.3927
3.7017 -3.1442 2.3927
3.8145 -3.0135 2.3927
3.9224 -2.8786 2.3927
4.0252 -2.7396 2.3927
4.1228 -2.5968 2.3927
4.2151 -2.4504 2.3927
4.3018 -2.3006 2.3927
4.3828 -2.1476 2.3927
4.4581 -1.9915 2.3927
4.5275 -1.8328 2.3927
4.5909 -1.6714 2.3927
4.6482 -1.5078 2.3927
4.6993 -1.3421 2.3927
4.7441 -1.1746 2.3927
4.7826 -1.0056 2.3927
4.8148 -0.8352 2.3927
4.8405 -0.6638 2.3927
4.8597 -0.4915 2.3927
4.8725 -0.3187 2.3927
4.8787 -0.1456 2.3927
4.8785 0.0276 2.3927
4.8718 0.2006 2.3927
4.8585 0.3732 2.3927
4.8389 0.5450 2.3927
4.8128 0.7158 2.3927
4.7804 0.8855 2.3927
4.7416 1.0538 2.3927
4.6966 1.2203 2.3927
4.6455 1.3850 2.3927
4.5883 1.5474 2.3927
4.5252 1.7075 2.3927
4.4562 1.8650 2.3927
4.3815 2.0197 2.3927
4.3011 2.1713 2.3927
4.2153 2.3197 2.3927
4.1241 2.4646 2.3927
4.0278 2.6060 2.3927
3.9263 2.7434 2.3927
3.8201 2.8769 2.3927
3.7091 3.0062 2.3927
3.5935 3.1312 2.3927
3.4736 3.2517 2.3927
3.3496 3.3675 2.3927
3.2215 3.4786 2.3927
3.0897 3.5848 2.3927
2.9542 3.6859 2.3927
2.8154 3.7819 2.3927
2.6733 3.8726 2.3927
2.5283 3.9580 2.3927
0.9275 1.5732 0.9322
0.8703 1.6049 0.9338
0.8121 1.6345 0.9354
0.7528 1.6619 0.9370
0.6926 1.6873 0.9385
0.6315 1.7104 0.9401
0.5696 1.7313 0.9417
0.5070 1.7500 0.9433
0.4437 1.7664 0.9449
0.3799 1.7806 0.9465
0.3156 1.7924 0.9481
0.2509 1.8019 0.9496
0.1859 1.8090 0.9512
0.1207 1.8138 0.9527
0.0554 1.8163 0.9542
-0.0100 1.8164 0.9557
-0.0753 1.8141 0.9572
-0.1405 1.8095 0.9587
-0.2056 1.8025 0.9602
-0.2703 1.7932 0.9616
-0.3346 1.7816 0.9630
-0.3985 1.7677 0.9643
-0.4619 1.7514 0.9657
-0.5246 1.7329 0.9670
-0.5866 1.7121 0.9682
-0.6478 1.6892 0.9695
-0.7082 1.6640 0.9707
-0.7676 1.6367 0.9718
-0.8259 1.6072 0.9730
-0.8832 1.5757 0.9740
-2.3050 3.7842 2.3927
-2.4371 3.6931 2.3927
-2.5659 3.5976 2.3927
-2.6911 3.4979 2.3927
-2.8127 3.3939 2.3927
-2.9305 3.2859 2.3927
-3.0443 3.1740 2.3927
-3.1542 3.0584 2.3927
-3.2599 2.9391 2.3927
-3.3613 2.8163 2.3927
-3.4584 2.6902 2.3927
-3.5510 2.5609 2.3927
-3.6391 2.4285 2.3927
-3.7225 2.2933 2.3927
-3.8011 2.1553 2.3927
-3.8750 2.0148 2.3927
-3.9439 1.8719 2.3927
-4.0078 1.7268 2.3927
-4.0667 1.5796 2.3927
-4.1205 1.4304 2.3927
-4.1692 1.2796 2.3927
-4.2126 1.1271 2.3927
-4.2508 0.9733 2.3927
-4.2836 0.8182 2.3927
-4.3111 0.6621 2.3927
-4.3332 0.5052 2.3927
-4.3500 0.3475 2.3927
-4.3613 0.1893 2.3927
-4.3671 0.0307 2.3927
-4.3675 -0.1280 2.3927
-4.3624 -0.2867 2.3927
-4.3519 -0.4452 2.3927
-4.3359 -0.6033 2.3927
-4.3145 -0.7609 2.3927
-4.2876 -0.9178 2.3927
-4.2553 -1.0737 2.3927
-4.2176 -1.2286 2.3927
-4.1745 -1.3822 2.3927
-4.1262 -1.5343 2.3927
-4.0725 -1.6848 2.3927
-4.0136 -1.8335 2.3927
-3.9496 -1.9802 2.3927
-3.8804 -2.1248 2.3927
-3.8061 -2.2670 2.3927
-3.7269 -2.4067 2.3927
-3.6428 -2.5438 2.3927
-3.5538 -2.6780 2.3927
-3.4601 -2.8091 2.3927
-3.3617 -2.9371 2.3927
-3.2588 -3.0618 2.3927
-3.1515 -3.1829 2.3927
-3.0398 -3.3003 2.3927
-2.9240 -3.4140 2.3927
-2.8040 -3.5236 2.3927
-2.6801 -3.6291 2.3927
-2.5523 -3.7304 2.3927
-2.4209 -3.8272 2.3927
-2.2859 -3.9195 2.3927
-2.1475 -4.0070 2.3927
-2.0059 -4.0898 2.3927
-1.8612 -4.1676 2.3927
-1.7136 -4.2403 2.3927
-1.5632 -4.3078 2.3927
-1.4104 -4.3701 2.3927
-1.2551 -4.4269 2.3927
-1.0977 -4.4782 2.3927
-0.9382 -4.5240 2.3927
-0.7770 -4.5640 2.3927
-0.6142 -4.5983 2.3927
-0.4499 -4.6268 2.3927
-0.2845 -4.6493 2.3927
-0.1182 -4.6660 2.3927
-3.6043 -2.1589 2.3927
-3.5287 -2.2911 2.3927
-3.4484 -2.4209 2.3927
-3.3635 -2.5479 2.3927
-3.2742 -2.6720 2.3927
-3.1805 -2.7930 2.3927
-3.0824 -2.9108 2.3927
-2.9802 -3.0253 2.3927
-2.8739 -3.1363 2.3927
-2.7636 -3.2436 2.3927
-2.6494 -3.3471 2.3927
-2.5315 -3.4467 2.3927
-2.4100 -3.5422 2.3927
-2.2850 -3.6335 2.3927
-2.1567 -3.7204 2.3927
-2.0252 -3.8028 2.3927
-1.8906 -3.8807 2.3927
-1.7532 -3.9538 2.3927
-1.6131 -4.0221 2.3927
-1.4704 -4.0855 2.3927
-1.3253 -4.1439 2.3927
-1.1780 -4.1971 2.3927
-1.0286 -4.2450 2.3927
-0.8774 -4.2877 2.3927
-0.7246 -4.3250 2.3927
-0.5702 -4.3568 2.3927
-0.4146 -4.3831 2.3927
-0.2579 -4.4037 2.3927
-0.1003 -4.4188 2.3927
0.0579 -4.4281 2.3927
0.2167 -4.4318 2.3927
0.3757 -4.4296 2.3927
0.5347 -4.4217 2.3927
0.6936 -4.4080 2.3927
0.8521 -4.3885 2.3927
1.0100 -4.3632 2.3927
1.1670 -4.3321 2.3927
1.3231 -4.2952 2.3927
1.4779 -4.2526 2.3927
1.6312 -4.2042 2.3927
1.7828 -4.1502 2.3927
1.9325 -4.0907 2.3927
2.0801 -4.0255 2.3927
2.2254 -3.9548 2.3927
2.3681 -3.8788 2.3927
2.5081 -3.7974 2.3927
2.6451 -3.7109 2.3927
2.7789 -3.6192 2.3927
2.9094 -3.5225 2.3927
3.0363 -3.4210 2.3927
3.1594 -3.3148 2.3927
3.2786 -3.2039 2.3927
3.3937 -3.0886 2.3927
3.5045 -2.9690 2.3927
3.6108 -2.8452 2.3927
3.7125 -2.7175 2.3927
3.8094 -2.5860 2.3927
3.9014 -2.4509 2.3927
3.9883 -2.3124 2.3927
4.0700 -2.1707 2.3927
4.1463 -2.0260 2.3927
4.2172 -1.8784 2.3927
4.2826 -1.7283 2.3927
4.3423 -1.5758 2.3927
4.3962 -1.4211 2.3927
4.4443 -1.2645 2.3927
4.4865 -1.1062 2.3927
4.5228 -0.9465 2.3927
4.5530 -0.7855 2.3927
4.5771 -0.6235 2.3927
4.5952 -0.4607 2.3927
4.6072 -0.2974 2.3927
4.6130 -0.1338 2.3927
4.6127 0.0299 2.3927
4.6063 0.1933 2.3927
4.5937 0.3564 2.3927
4.5751 0.5187 2.3927
4.5504 0.6802 2.3927
4.5198 0.8406 2.3927
4.4832 0.9995 2.3927
4.4407 1.1569 2.3927
4.3925 1.3126 2.3927
4.3385 1.4661 2.3927
4.2788 1.6175 2.3927
4.2137 1.7664 2.3927
4.1431 1.9126 2.3927
4.0673 2.0560 2.3927
3.9862 2.1963 2.3927
3.9001 2.3335 2.3927
3.8091 2.4671 2.3927
3.7133 2.5972 2.3927
3.6129 2.7235 2.3927
3.5081 2.8459 2.3927
3.3989 2.9642 2.3927
3.2857 3.0783 2.3927
3.1684 3.1880 2.3927
3.0474 3.2932 2.3927
2.9228 3.3938 2.3927
2.7948 3.4896 2.3927
2.6635 3.5806 2.3927
2.5292 3.6666 2.3927
0.9310 1.4586 0.9313
0.8780 1.4905 0.9327
0.8239 1.5204 0.9342
0.7687 1.5483 0.9357
0.7125 1.5743 0.9372
0.6555 1.5982 0.9387
0.5976 1.6201 0.9402
0.5389 1.6398 0.9417
0.4796 1.6574 0.9432
0.4197 1.6729 0.9447
0.3592 1.6862 0.9462
0.2983 1.6973 0.9477
0.2371 1.7063 0.9492
0.1755 1.7130 0.9507
0.1138 1.7175 0.9521
0.0519 1.7197 0.9536
-0.0100 1.7198 0.9550
-0.0719 1.7176 0.9564
-0.1337 1.7131 0.9578
-0.1952 1.7065 0.9592
-0.2565 1.6976 0.9605
-0.3174 1.6865 0.9618
-0.3779 1.6733 0.9631
-0.4379 1.6578 0.9644
-0.4973 1.6402 0.9656
-0.5560 1.6205 0.9668
-0.6139 1.5987 0.9680
-0.6710 1.5748 0.9691
-0.7273 1.5489 0.9702
-0.7825 1.5209 0.9713
-0.8367 1.4910 0.9723
-0.8898 1.4592 0.9733
-2.3130 3.5009 2.3927
-2.4352 3.4104 2.3927
-2.5540 3.3158 2.3927
-2.6694 3.2172 2.3927
-2.7812 3.1148 2.3927
-2.8893 3.0086 2.3927
-2.9936 2.8989 2.3927
-3.0939 2.7857 2.3927
-3.1902 2.6691 2.3927
-3.2823 2.5494 2.3927
-3.3702 2.4267 2.3927
-3.4538 2.3010 2.3927
-3.5329 2.1727 2.3927
-3.6075 2.0417 2.3927
-3.6776 1.9083 2.3927
-3.7429 1.7726 2.3927
-3.8036 1.6348 2.3927
-3.8594 1.4950 2.3927
-3.9104 1.3534 2.3927
-3.9564 1.2101 2.3927
-3.9975 1.0654 2.3927
-4.0336 0.9193 2.3927
-4.0646 0.7721 2.3927
-4.0906 0.6238 2.3927
-4.1114 0.4748 2.3927
-4.1271 0.3251 2.3927
-4.1376 0.1749 2.3927
-4.1430 0.0244 2.3927
-4.1431 -0.1263 2.3927
-4.1381 -0.2770 2.3927
-4.1278 -0.4274 2.3927
-4.1124 -0.5775 2.3927
-4.0918 -0.7270 2.3927
-4.0660 -0.8759 2.3927
-4.0350 -1.0238 2.3927
-3.9990 -1.1707 2.3927
-3.9578 -1.3164 2.3927
-3.9116 -1.4607 2.3927
-3.8604 -1.6034 2.3927
-3.8042 -1.7444 2.3927
-3.7431 -1.8834 2.3927
-3.6771 -2.0204 2.3927
-3.6063 -2.1552 2.3927
-3.5308 -2.2876 2.3927
-3.4507 -2.4174 2.3927
-3.3659 -2.5444 2.3927
-3.2767 -2.6686 2.3927
-3.1831 -2.7897 2.3927
-3.0852 -2.9077 2.3927
-2.9830 -3.0222 2.3927
-2.8768 -3.1333 2.3927
-2.7666 -3.2407 2.3927
-2.6526 -3.3444 2.3927
-2.5348 -3.4440 2.3927
-2.4134 -3.5396 2.3927
-2.2885 -3.6310 2.3927
-2.1603 -3.7181 2.3927
-2.0288 -3.8006 2.3927
-1.8944 -3.8786 2.3927
-1.7570 -3.9519 2.3927
-1.6170 -4.0203 2.3927
-1.4743 -4.0838 2.3927
-1.3293 -4.1423 2.3927
-1.1820 -4.1957 2.3927
-1.0327 -4.2438 2.3927
-0.8816 -4.2866 2.3927
-0.7288 -4.3240 2.3927
-0.5745 -4.3560 2.3927
-0.4189 -4.3824 2.3927
-0.2622 -4.4033 2.3927
-0.1046 -4.4184 2.3927
0.0536 -4.4280 2.3927
0.2123 -4.4317 2.3927
0.3713 -4.4298 2.3927
0.5303 -4.4220 2.3927
0.6892 -4.4085 2.3927
0.8477 -4.3891 2.3927
1.0056 -4.3640 2.3927
1.1627 -4.3330 2.3927
1.3188 -4.2963 2.3927
1.4736 -4.2538 2.3927
1.6270 -4.2056 2.3927
1.7787 -4.1518 2.3927
1.9283 -4.0926 2.3927
2.0761 -4.0273 2.3927
2.2215 -3.9568 2.3927
2.3643 -3.8809 2.3927
2.5043 -3.7997 2.3927
2.6414 -3.7133 2.3927
2.7753 -3.6218 2.3927
2.9058 -3.5253 2.3927
3.0329 -3.4238 2.3927
3.1561 -3.3177 2.3927
3.2754 -3.2070 2.3927
3.3906 -3.0918 2.3927
3.5015 -2.9723 2.3927
3.6080 -2.8487 2.3927
3.7098 -2.7211 2.3927
3.8068 -2.5897 2.3927
3.8989 -2.4547 2.3927
3.9860 -2.3163 2.3927
4.0678 -2.1746 2.3927
4.1443 -2.0300 2.3927
4.2154 -1.8825 2.3927
4.2809 -1.7324 2.3927
4.3407 -1.5800 2.3927
4.3948 -1.4254 2.3927
4.4431 -1.2688 2.3927
4.4854 -1.1106 2.3927
4.5218 -0.9509 2.3927
4.5522 -0.7899 2.3927
4.5766 -0.6279 2.3927
4.5948 -0.4652 2.3927
4.6069 -0.3019 2.3927
4.6129 -0.1383 2.3927
4.6128 0.0254 2.3927
4.6065 0.1888 2.3927
4.5941 0.3519 2.3927
4.5757 0.5143 2.3927
4.5512 0.6758 2.3927
4.5207 0.8362 2.3927
4.4843 0.9952 2.3927
4.4420 1.1527 2.3927
4.3939 1.3083 2.3927
4.3400 1.4620 2.3927
4.2806 1.6134 2.3927
4.2156 1.7623 2.3927
4.1451 1.9086 2.3927
4.0694 2.0521 2.3927
3.9885 2.1925 2.3927
3.9025 2.3297 2.3927
3.8117 2.4635 2.3927
3.7160 2.5937 2.3927
3.6158 2.7201 2.3927
3.5110 2.8426 2.3927
3.4020 2.9611 2.3927
3.2888 3.0753 2.3927
3.1717 3.1851 2.3927
3.0508 3.2904 2.3927
2.9263 3.3911 2.3927
2.7983 3.4871 2.3927
2.6672 3.5782 2.3927
2.5330 3.6643 2.3927
0.9325 1.4577 0.9312
0.8795 1.4896 0.9327
0.8254 1.5196 0.9342
0.7702 1.5476 0.9357
0.7141 1.5736 0.9372
0.6570 1.5976 0.9387
0.5992 1.6195 0.9402
0.5405 1.6393 0.9417
0.4812 1.6570 0.9432
0.4213 1.6725 0.9447
0.3609 1.6859 0.9462
0.3000 1.6971 0.9477
0.2387 1.7061 0.9492
0.1772 1.7128 0.9506
0.1155 1.7174 0.9521
0.0536 1.7197 0.9535
-0.0083 1.7198 0.9550
-0.0702 1.7176 0.9564
-0.1320 1.7133 0.9578
-0.1935 1.7067 0.9591
-0.2548 1.6979 0.9605
-0.3158 1.6869 0.9618
-0.3763 1.6736 0.9631
-0.4362 1.6583 0.9644
-0.4956 1.6407 0.9656
-0.5544 1.6211 0.9668
-0.6123 1.5993 0.9680
-0.6695 1.5755 0.9691
-0.7257 1.5496 0.9702
-0.7810 1.5217 0.9713
-0.8353 1.4919 0.9723
-0.8884 1.4601 0.9733
-2.3096 3.5034 2.3927
-2.4319 3.4130 2.3927
-2.5508 3.3185 2.3927
-2.6663 3.2200 2.3927
-2.7782 3.1176 2.3927
-2.8864 3.0116 2.3927
-2.9908 2.9019 2.3927
-3.0912 2.7888 2.3927
-3.1876 2.6724 2.3927
-3.2799 2.5527 2.3927
-3.3679 2.4301 2.3927
-3.4516 2.3045 2.3927
-3.5308 2.1762 2.3927
-3.6055 2.0453 2.3927
-3.6757 1.9120 2.3927
-3.7412 1.7764 2.3927
-3.8020 1.6386 2.3927
-3.8579 1.4988 2.3927
-3.9090 1.3573 2.3927
-3.9552 1.2141 2.3927
-3.9965 1.0694 2.3927
-4.0327 0.9233 2.3927
-4.0639 0.7761 2.3927
-4.0900 0.6279 2.3927
-4.1109 0.4789 2.3927
-4.1268 0.3292 2.3927
-4.1374 0.1790 2.3927
-4.1429 0.0285 2.3927
-4.1432 -0.1222 2.3927
-4.1383 -0.2728 2.3927
-4.1282 -0.4233 2.3927
-4.1129 -0.5734 2.3927
-4.0924 -0.7229 2.3927
-4.0668 -0.8718 2.3927
-4.0360 -1.0198 2.3927
-4.0000 -1.1667 2.3927
-3.9590 -1.3124 2.3927
-3.9129 -1.4567 2.3927
-3.8619 -1.5995 2.3927
-3.8058 -1.7405 2.3927
-3.7448 -1.8797 2.3927
-3.6790 -2.0167 2.3927
-3.6083 -2.1515 2.3927
-3.5329 -2.2840 2.3927
-3.4529 -2.4138 2.3927
-3.3683 -2.5410 2.3927
-3.2792 -2.6652 2.3927
-3.1857 -2.7864 2.3927
-3.0879 -2.9045 2.3927
-2.9859 -3.0191 2.3927
-2.8798 -3.1303 2.3927
-2.7697 -3.2378 2.3927
-2.6558 -3.3416 2.3927
-2.5381 -3.4413 2.3927
-2.4167 -3.5371 2.3927
-2.2919 -3.6286 2.3927
-2.1638 -3.7157 2.3927
-2.0325 -3.7984 2.3927
-1.8981 -3.8765 2.3927
-1.7608 -3.9499 2.3927
-1.6208 -4.0185 2.3927
-1.4783 -4.0822 2.3927
-1.3333 -4.1408 2.3927
-1.1861 -4.1943 2.3927
-1.0369 -4.2425 2.3927
-0.8858 -4.2855 2.3927
-0.7330 -4.3231 2.3927
-0.5787 -4.3552 2.3927
-0.4232 -4.3818 2.3927
-0.2665 -4.4028 2.3927
-0.1090 -4.4181 2.3927
-3.4217 -2.0518 2.3927
-3.3497 -2.1774 2.3927
-3.2732 -2.3005 2.3927
-3.1924 -2.4210 2.3927
-3.1074 -2.5387 2.3927
-3.0182 -2.6535 2.3927
-2.9249 -2.7653 2.3927
-2.8276 -2.8739 2.3927
-2.7264 -2.9791 2.3927
-2.6215 -3.0808 2.3927
-2.5129 -3.1788 2.3927
-2.4008 -3.2732 2.3927
-2.2853 -3.3636 2.3927
-2.1664 -3.4500 2.3927
-2.0445 -3.5323 2.3927
-1.9195 -3.6103 2.3927
-1.7917 -3.6839 2.3927
-1.6611 -3.7530 2.3927
