ply
format ascii 1.0
element vertex 2200
property float32 x
property float32 y
property float32 z
end_header
8.8120 0.8931 0.7322
8.9421 1.2334 0.7466
8.7718 1.5340 0.7363
8.4938 1.8031 0.7171
8.2671 2.0690 0.7023
8.3075 2.4004 0.7106
8.3175 2.7317 0.7167
8.2781 3.0535 0.7189
8.0858 3.3184 0.7083
8.0724 3.6581 0.7136
7.9832 3.9705 0.7127
7.9408 4.3131 0.7164
7.7835 4.5983 0.7102
7.4917 4.7982 0.6919
7.3390 5.0822 0.6867
7.4936 5.5991 0.7110
7.3687 5.9310 0.7098
7.4557 6.4570 0.7299
7.1765 6.6822 0.7149
9.6005 -2.1046 0.7792
9.4576 -1.7187 0.7683
9.5428 -1.3810 0.7764
9.5792 -1.0354 0.7808
9.1826 -0.6588 0.7502
9.0875 -0.3234 0.7444
9.2015 0.0044 0.7561
9.0950 0.3324 0.7501
8.7829 0.6387 0.7272
8.8007 0.9599 0.7320
8.9590 1.3056 0.7488
8.6264 1.5766 0.7249
8.5062 1.8738 0.7191
8.2629 2.1351 0.7030
8.2796 2.4610 0.7093
8.2729 2.7873 0.7140
8.2723 3.1234 0.7197
8.1509 3.4181 0.7153
8.0349 3.7154 0.7117
7.9953 4.0529 0.7153
7.9278 4.3847 0.7169
7.6126 4.5761 0.6963
7.4239 4.8351 0.6875
7.2962 5.1354 0.6846
7.4361 5.6451 0.7078
7.4039 6.0531 0.7155
7.3308 6.4473 0.7202
7.1344 6.7454 0.7135
9.6865 -2.2055 1.0117
9.4468 -1.7952 0.9857
9.5334 -1.4575 0.9944
9.6408 -1.1197 1.0059
9.1740 -0.7311 0.9581
9.0478 -0.3932 0.9464
9.0958 -0.0668 0.9536
9.0363 0.2599 0.9500
8.7737 0.5698 0.9256
8.7678 0.8882 0.9288
8.9274 1.2313 0.9501
8.6865 1.5194 0.9295
8.4393 1.7923 0.9085
8.3776 2.0978 0.9080
8.2514 2.3857 0.9009
8.3176 2.7338 0.9156
8.2352 3.0401 0.9147
8.0961 3.3255 0.9080
8.0382 3.6460 0.9111
7.9996 3.9825 0.9172
7.9404 4.3172 0.9217
7.7890 4.6065 0.9163
7.5390 4.8339 0.8997
7.3833 5.1189 0.8949
7.4252 5.5548 0.9152
7.3817 5.9491 0.9264
7.3907 6.4093 0.9457
7.1264 6.6449 0.9313
7.0268 7.0422 0.9393
9.3868 -2.0620 0.9801
9.3968 -1.7114 0.9803
9.5337 -1.3830 0.9944
9.6587 -1.0470 1.0079
9.1985 -0.6623 0.9609
9.0605 -0.3244 0.9482
9.2111 0.0028 0.9662
9.0341 0.3290 0.9504
8.6694 0.6297 0.9153
8.8475 0.9647 0.9381
8.9096 1.2984 0.9493
8.6112 1.5742 0.9226
8.4585 1.8641 0.9118
8.4101 2.1744 0.9129
8.3425 2.4813 0.9124
8.2379 2.7775 0.9085
8.2390 3.1133 0.9169
8.1585 3.4243 0.9170
8.0236 3.7136 0.9116
7.9518 4.0348 0.9140
7.9499 4.4015 0.9253
7.7142 4.6422 0.9102
7.4638 4.8666 0.8936
7.5062 5.2895 0.9130
7.4770 5.6832 0.9250
7.3554 6.0212 0.9268
7.2765 6.4082 0.9352
7.1092 6.7311 0.9334
9.3391 -1.7786 1.1913
9.5103 -1.4574 1.2115
9.5816 -1.1158 1.2199
9.2317 -0.7382 1.1755
9.0397 -0.3949 1.1521
9.1166 -0.0686 1.1638
9.1201 0.2611 1.1671
8.7681 0.5686 1.1256
8.7209 0.8830 1.1239
8.8854 1.2255 1.1504
8.7447 1.5300 1.1384
8.5145 1.8090 1.1153
8.4464 2.1162 1.1142
8.3429 2.4137 1.1092
8.2815 2.7239 1.1107
8.2847 3.0609 1.1218
8.1123 3.3350 1.1101
8.0436 3.6518 1.1134
7.9686 3.9710 1.1169
7.9398 4.3214 1.1280
7.7587 4.5935 1.1186
7.4780 4.8002 1.0953
7.4019 5.1380 1.1029
7.4093 5.5498 1.1246
7.4076 5.9777 1.1470
7.3479 6.3808 1.1624
7.0940 6.6240 1.1486
9.5044 -2.0921 1.2144
9.3341 -1.7037 1.1903
9.5198 -1.3844 1.2125
9.4884 -1.0314 1.2080
9.1939 -0.6644 1.1709
9.0587 -0.3263 1.1549
9.0944 0.0012 1.1615
8.8194 0.3201 1.1293
8.7414 0.6342 1.1230
8.6717 0.9452 1.1186
8.8783 1.2939 1.1508
8.6048 1.5735 1.1216
8.4921 1.8723 1.1140
8.3710 2.1655 1.1060
8.2684 2.4609 1.1013
8.2338 2.7782 1.1065
8.2451 3.1182 1.1189
8.0985 3.4020 1.1108
8.0479 3.7283 1.1168
7.9319 4.0287 1.1148
7.9078 4.3827 1.1268
7.6850 4.6297 1.1116
7.4604 4.8699 1.0966
7.4122 5.2295 1.1086
7.4509 5.6705 1.1356
7.3568 6.0302 1.1441
7.2848 6.4243 1.1580
7.1285 6.7590 1.1602
9.3881 -1.7918 1.4169
9.4764 -1.4557 1.4273
9.6159 -1.1229 1.4464
9.3592 -0.7510 1.4073
9.0717 -0.3984 1.3646
9.0712 -0.0699 1.3663
9.2274 0.2629 1.3927
8.7862 0.5690 1.3300
8.7357 0.8841 1.3274
8.8476 1.2202 1.3506
8.6939 1.5214 1.3344
8.5191 1.8107 1.3159
8.3589 2.0954 1.3005
8.1980 2.3734 1.2859
8.2332 2.7100 1.3033
8.2918 3.0660 1.3258
8.1749 3.3637 1.3217
8.0118 3.6407 1.3111
7.9351 3.9581 1.3158
7.9247 4.3176 1.3331
7.7209 4.5761 1.3192
7.4610 4.7948 1.2965
7.5049 5.2156 1.3281
7.4552 5.5911 1.3456
7.3276 5.9209 1.3509
7.3349 6.3782 1.3836
7.1303 6.6674 1.3787
9.6498 -2.1285 1.4598
9.3566 -1.7116 1.4114
9.5230 -1.3882 1.4338
9.5895 -1.0454 1.4422
9.1943 -0.6669 1.3825
9.0314 -0.3273 1.3588
9.1164 -0.0004 1.3736
8.9806 0.3248 1.3562
8.7529 0.6343 1.3260
8.7612 0.9546 1.3325
8.8397 1.2883 1.3509
8.6059 1.5741 1.3226
8.4916 1.8730 1.3136
8.3696 2.1664 1.3044
8.2315 2.4516 1.2936
8.2123 2.7731 1.3026
8.2860 3.1362 1.3279
8.1293 3.4180 1.3175
7.9809 3.7008 1.3096
7.9342 4.0339 1.3195
7.9125 4.3900 1.3353
7.6599 4.6196 1.3133
7.5050 4.9047 1.3091
7.5031 5.3000 1.3332
7.3811 5.6243 1.3380
7.3725 6.0510 1.3656
7.3482 6.4891 1.3932
7.0403 6.6850 1.3688
9.4202 -1.8019 1.6434
9.5088 -1.4642 1.6544
9.6066 -1.1249 1.6686
9.1832 -0.7394 1.5937
9.0620 -0.4001 1.5728
9.0824 -0.0717 1.5779
9.0308 0.2560 1.5719
8.7108 0.5633 1.5204
8.7141 0.8814 1.5266
8.8730 1.2236 1.5615
8.5956 1.5046 1.5211
8.4357 1.7938 1.5024
8.4321 2.1150 1.5129
8.3301 2.4132 1.5072
8.1964 2.6999 1.4969
8.2506 3.0532 1.5226
8.1786 3.3681 1.5268
8.0278 3.6514 1.5176
7.9430 3.9660 1.5224
7.9356 4.3281 1.5440
7.7474 4.5969 1.5321
7.5238 4.8406 1.5143
7.4198 5.1627 1.5221
7.4506 5.5946 1.5602
7.3033 5.9090 1.5637
7.2867 6.3449 1.5980
7.1377 6.6839 1.6063
9.4351 -1.7298 1.6449
9.5551 -1.3963 1.6617
9.6495 -1.0549 1.6756
9.1868 -0.6688 1.5942
9.0158 -0.3287 1.5650
9.1735 -0.0020 1.5942
8.8605 0.3193 1.5430
8.7442 0.6329 1.5273
8.7656 0.9547 1.5370
8.8497 1.2898 1.5592
8.5944 1.5725 1.5228
8.4885 1.8732 1.5141
8.3710 2.1680 1.5045
8.3134 2.4777 1.5070
8.2355 2.7830 1.5073
8.2545 3.1269 1.5269
8.1049 3.4108 1.5169
7.9857 3.7065 1.5139
7.9443 4.0431 1.5273
7.9751 4.4293 1.5568
7.6874 4.6413 1.5257
7.5023 4.9085 1.5159
7.3826 5.2212 1.5209
7.3817 5.6319 1.5529
7.3692 6.0563 1.5856
7.2660 6.4255 1.6020
7.1002 6.7517 1.6071
9.4028 -1.8025 1.8633
9.4363 -1.4565 1.8642
9.6395 -1.1319 1.9003
9.3798 -0.7578 1.8470
9.0172 -0.4002 1.7753
9.0815 -0.0733 1.7893
9.0901 0.2564 1.7940
8.7517 0.5651 1.7319
8.7587 0.8855 1.7395
8.9210 1.2303 1.7798
8.6108 1.5076 1.7275
8.4712 1.8021 1.7106
8.4880 2.1301 1.7269
8.3191 2.4116 1.7070
8.2568 2.7218 1.7106
8.2372 3.0507 1.7249
8.1587 3.3629 1.7287
8.0504 3.6651 1.7281
7.9109 3.9539 1.7224
8.0472 4.3935 1.7794
7.7496 4.6032 1.7426
7.5274 4.8485 1.7237
7.4431 5.1851 1.7383
7.3913 5.5572 1.7634
7.3645 5.9663 1.7978
7.2862 6.3533 1.8233
7.1085 6.6662 1.8270
9.4000 -1.7272 1.8613
9.5169 -1.3942 1.8791
9.6400 -1.0569 1.8998
9.2306 -0.6744 1.8174
9.0750 -0.3329 1.7868
9.1556 -0.0036 1.8044
9.0515 0.3250 1.7873
8.7451 0.6322 1.7317
8.7166 0.9490 1.7327
8.8096 1.2840 1.7595
8.5428 1.5635 1.7160
8.4134 1.8575 1.7015
8.4169 2.1811 1.7154
8.3231 2.4823 1.7112
8.2259 2.7819 1.7079
8.2466 3.1265 1.7310
8.1312 3.4249 1.7275
7.9676 3.7016 1.7152
7.9643 4.0573 1.7395
7.9817 4.4377 1.7710
7.6641 4.6324 1.7298
7.4927 4.9080 1.7227
7.5470 5.3439 1.7703
7.4136 5.6635 1.7771
7.3747 6.0689 1.8095
7.2799 6.4467 1.8318
9.3323 -1.7930 2.0725
9.5758 -1.4817 2.1194
9.4216 -0.7639 2.0773
9.1289 -0.4073 2.0120
9.1763 -0.0758 2.0236
9.2730 0.2602 2.0482
8.7856 0.5664 1.9455
8.7451 0.8837 1.9434
8.8400 1.2191 1.9735
8.6351 1.5122 1.9385
8.5176 1.8127 1.9247
8.4301 2.1168 1.9195
8.3373 2.4185 1.9149
8.2674 2.7274 1.9175
8.2419 3.0550 1.9325
8.1398 3.3581 1.9318
8.0211 3.6553 1.9291
7.9682 3.9865 1.9444
7.9806 4.3617 1.9785
7.8584 4.6730 1.9821
7.5343 4.8586 1.9362
7.5708 5.2804 1.9853
7.3984 5.5696 1.9829
7.4126 6.0133 2.0341
7.0876 6.6563 2.0504
9.4540 -1.7411 2.0979
9.5376 -1.4007 2.1097
9.6841 -1.0648 2.1374
9.3846 -0.6882 2.0688
9.1229 -0.3367 2.0108
9.1235 -0.0052 2.0125
9.0129 0.3224 1.9917
8.7712 0.6333 1.9436
8.7223 0.9493 1.9401
8.8234 1.2861 1.9719
8.6001 1.5744 1.9331
8.4272 1.8614 1.9072
8.3914 2.1758 1.9140
8.3156 2.4817 1.9137
8.3396 2.8225 1.9385
8.3691 3.1756 1.9672
8.1014 3.4154 1.9279
8.0214 3.7302 1.9349
7.9321 4.0450 1.9419
7.9726 4.4373 1.9835
7.7855 4.7111 1.9712
7.4999 4.9185 1.9353
7.5753 5.3706 1.9954
7.3641 5.6329 1.9833
7.3798 6.0812 2.0357
7.2077 6.3917 2.0402
7.0703 6.7429 2.0579
8.0825 -5.4050 2.2402
8.2250 -5.0790 2.2402
8.3572 -4.7512 2.2402
8.4792 -4.4218 2.2402
8.5911 -4.0909 2.2402
8.6929 -3.7589 2.2402
8.7848 -3.4259 2.2402
8.8668 -3.0920 2.2402
8.9390 -2.7575 2.2402
9.0014 -2.4225 2.2402
9.0542 -2.0872 2.2402
9.0974 -1.7518 2.2402
9.1310 -1.4163 2.2402
9.1551 -1.0810 2.2402
9.1697 -0.7461 2.2402
9.1750 -0.4115 2.2402
9.1710 -0.0775 2.2402
9.1576 0.2557 2.2402
8.7891 0.5658 2.1554
8.8257 0.8914 2.1719
8.9493 1.2341 2.2124
8.6876 1.5218 2.1597
8.4808 1.8057 2.1223
8.5782 2.1552 2.1632
8.3247 2.4165 2.1179
8.2932 2.7379 2.1309
8.3315 3.0908 2.1646
8.1246 3.3548 2.1369
8.0131 3.6551 2.1363
8.0698 4.0414 2.1836
7.9831 4.3678 2.1953
7.8983 4.7020 2.2105
7.6378 4.9312 2.1788
7.6404 5.3355 2.2249
7.4093 5.5849 2.2063
7.3442 5.9658 2.2402
7.1560 6.2572 2.2402
6.9586 6.5447 2.2402
6.7518 6.8282 2.2402
6.5356 7.1073 2.2402
6.3101 7.3818 2.2402
8.1136 -5.3361 2.2402
8.2539 -5.0097 2.2402
8.3839 -4.6815 2.2402
8.5037 -4.3518 2.2402
8.6135 -4.0207 2.2402
8.7132 -3.6884 2.2402
8.8030 -3.3552 2.2402
8.8829 -3.0212 2.2402
8.9530 -2.6866 2.2402
9.0134 -2.3515 2.2402
9.0642 -2.0162 2.2402
9.1053 -1.6807 2.2402
9.1369 -1.3453 2.2402
9.1590 -1.0100 2.2402
9.1717 -0.6751 2.2402
9.1625 -0.3402 2.2371
9.1689 -0.0069 2.2402
9.1535 0.3262 2.2402
8.7851 0.6335 2.1558
8.9088 0.9692 2.1943
8.8826 1.2947 2.1983
8.7006 1.5933 2.1658
8.4518 1.8677 2.1183
8.4556 2.1938 2.1361
8.3293 2.4875 2.1233
8.3486 2.8277 2.1500
8.4094 3.1936 2.1903
8.1353 3.4328 2.1457
8.1084 3.7743 2.1683
8.0454 4.1070 2.1842
7.9961 4.4552 2.2068
7.8155 4.7346 2.1959
7.6296 5.0095 2.1857
7.6576 5.4356 2.2402
7.3834 5.6549 2.2095
7.3051 6.0278 2.2402
7.1150 6.3185 2.2402
6.9155 6.6051 2.2402
6.7068 6.8877 2.2402
6.4886 7.1658 2.2402
6.2611 7.4394 2.2402
6.9549 -6.7632 2.3926
7.1482 -6.4647 2.3926
7.3312 -6.1627 2.3926
7.5039 -5.8574 2.3926
7.6664 -5.5493 2.3926
7.5695 -5.0713 2.3163
7.4678 -4.6199 2.2443
7.5776 -4.3159 2.2402
7.6920 -4.0186 2.2402
7.7970 -3.7196 2.2402
7.8928 -3.4192 2.2402
7.9794 -3.1176 2.2402
8.0569 -2.8149 2.2402
8.1252 -2.5114 2.2402
8.1846 -2.2071 2.2402
8.2349 -1.9024 2.2402
8.2763 -1.5973 2.2402
8.3087 -1.2920 2.2402
8.3324 -0.9867 2.2402
8.3472 -0.6815 2.2402
8.3532 -0.3766 2.2402
8.3505 -0.0722 2.2402
8.3391 0.2316 2.2402
8.3190 0.5347 2.2402
8.2902 0.8368 2.2402
8.2528 1.1380 2.2402
8.2068 1.4379 2.2402
8.1523 1.7364 2.2402
8.0891 2.0335 2.2402
8.0174 2.3288 2.2402
7.9372 2.6224 2.2402
7.8485 2.9140 2.2402
7.7512 3.2035 2.2402
7.6455 3.4907 2.2402
7.5312 3.7755 2.2402
7.4084 4.0577 2.2402
7.2771 4.3370 2.2402
7.1374 4.6134 2.2402
6.9891 4.8867 2.2402
6.8323 5.1567 2.2402
6.6671 5.4231 2.2402
6.4934 5.6858 2.2402
6.3111 5.9446 2.2402
6.1204 6.1993 2.2402
5.9212 6.4497 2.2402
5.7136 6.6955 2.2402
5.4974 6.9365 2.2402
5.2728 7.1725 2.2402
5.0398 7.4032 2.2402
4.7983 7.6284 2.2402
4.5485 7.8478 2.2402
4.2903 8.0611 2.2402
4.0238 8.2681 2.2402
3.8066 8.5984 2.2746
6.9967 -6.7002 2.3926
7.1878 -6.4010 2.3926
7.3687 -6.0983 2.3926
7.5392 -5.7924 2.3926
7.6639 -5.4582 2.3815
7.5450 -4.9714 2.2997
7.4809 -4.5489 2.2402
7.6026 -4.2530 2.2402
7.7150 -3.9554 2.2402
7.8181 -3.6561 2.2402
7.9119 -3.3554 2.2402
7.9966 -3.0536 2.2402
8.0721 -2.7507 2.2402
8.1386 -2.4470 2.2402
8.1960 -2.1426 2.2402
8.2444 -1.8378 2.2402
8.2839 -1.5326 2.2402
8.3145 -1.2273 2.2402
8.3362 -0.9220 2.2402
8.3492 -0.6169 2.2402
8.3533 -0.3121 2.2402
8.3488 -0.0078 2.2402
8.3355 0.2959 2.2402
8.3136 0.5988 2.2402
8.2830 0.9007 2.2402
8.2438 1.2016 2.2402
8.1960 1.5012 2.2402
8.1396 1.7995 2.2402
8.0746 2.0962 2.2402
8.0012 2.3912 2.2402
7.9191 2.6844 2.2402
7.8286 2.9756 2.2402
7.7295 3.2646 2.2402
7.6219 3.5513 2.2402
7.5059 3.8355 2.2402
7.3813 4.1171 2.2402
7.2482 4.3959 2.2402
7.1067 4.6716 2.2402
6.9566 4.9442 2.2402
6.7980 5.2134 2.2402
6.6310 5.4791 2.2402
6.4555 5.7410 2.2402
6.2714 5.9989 2.2402
6.0789 6.2527 2.2402
5.8779 6.5022 2.2402
5.6685 6.7470 2.2402
5.4505 6.9869 2.2402
5.2241 7.2218 2.2402
4.9893 7.4514 2.2402
4.7461 7.6753 2.2402
4.4945 7.8935 2.2402
4.2346 8.1055 2.2402
3.9663 8.3111 2.2402
3.7777 8.7127 2.2935
3.4413 -9.0053 2.3926
3.7330 -8.8041 2.3926
4.0157 -8.5953 2.3926
4.2892 -8.3793 2.3926
4.5536 -8.1565 2.3926
4.8086 -7.9272 2.3926
5.0544 -7.6918 2.3926
5.2908 -7.4507 2.3926
5.5178 -7.2041 2.3926
5.7354 -6.9524 2.3926
5.9436 -6.6959 2.3926
6.1423 -6.4349 2.3926
6.3317 -6.1698 2.3926
6.5116 -5.9007 2.3926
6.6821 -5.6280 2.3926
6.8433 -5.3520 2.3926
6.9951 -5.0729 2.3926
7.1376 -4.7910 2.3926
7.2707 -4.5064 2.3926
7.3112 -4.1718 2.3656
7.2146 -3.7761 2.2987
7.1357 -3.4104 2.2420
7.2201 -3.1336 2.2402
7.3017 -2.8582 2.2402
7.3750 -2.5816 2.2402
7.4397 -2.3040 2.2402
7.4960 -2.0256 2.2402
7.5439 -1.7465 2.2402
7.5835 -1.4669 2.2402
7.6147 -1.1870 2.2402
7.6377 -0.9070 2.2402
7.6524 -0.6270 2.2402
7.6588 -0.3472 2.2402
7.6571 -0.0677 2.2402
7.6472 0.2113 2.2402
7.6292 0.4896 2.2402
7.6031 0.7671 2.2402
7.5688 1.0436 2.2402
7.5265 1.3190 2.2402
7.4762 1.5931 2.2402
7.4178 1.8658 2.2402
7.3515 2.1369 2.2402
7.2771 2.4062 2.2402
7.1948 2.6736 2.2402
7.1045 2.9389 2.2402
7.0063 3.2020 2.2402
6.9001 3.4627 2.2402
6.7861 3.7209 2.2402
6.6641 3.9762 2.2402
6.5343 4.2287 2.2402
6.3966 4.4780 2.2402
6.2510 4.7241 2.2402
6.0977 4.9667 2.2402
5.9365 5.2056 2.2402
5.7675 5.4407 2.2402
5.5907 5.6717 2.2402
5.4062 5.8985 2.2402
5.2140 6.1207 2.2402
5.0140 6.3382 2.2402
4.8065 6.5508 2.2402
4.5913 6.7583 2.2402
4.3685 6.9603 2.2402
4.1811 7.2308 2.2634
4.0562 7.6404 2.3296
3.9040 8.0438 2.3926
3.6344 8.2338 2.3926
3.3570 8.4167 2.3926
3.0720 8.5920 2.3926
2.7794 8.7597 2.3926
2.4795 8.9192 2.3926
2.1722 9.0704 2.3926
1.8577 9.2128 2.3926
1.5364 9.3462 2.3926
1.2083 9.4702 2.3926
0.8735 9.5845 2.3926
0.5324 9.6887 2.3926
3.2052 -9.1583 2.3926
3.5039 -8.9633 2.3926
3.7937 -8.7605 2.3926
4.0744 -8.5502 2.3926
4.3460 -8.3327 2.3926
4.6084 -8.1085 2.3926
4.8615 -7.8779 2.3926
5.1053 -7.6412 2.3926
5.3397 -7.3989 2.3926
5.5647 -7.1512 2.3926
5.7803 -6.8984 2.3926
5.9865 -6.6410 2.3926
6.1832 -6.3791 2.3926
6.3706 -6.1131 2.3926
6.5485 -5.8432 2.3926
6.7171 -5.5698 2.3926
6.8762 -5.2931 2.3926
7.0260 -5.0134 2.3926
7.1666 -4.7309 2.3926
7.2978 -4.4458 2.3926
7.2902 -4.0858 2.3508
7.1949 -3.6955 2.2853
7.1497 -3.3497 2.2402
7.2381 -3.0754 2.2402
7.3180 -2.7997 2.2402
7.3894 -2.5229 2.2402
7.4523 -2.2451 2.2402
7.5068 -1.9665 2.2402
7.5530 -1.6873 2.2402
7.5908 -1.4076 2.2402
7.6203 -1.1277 2.2402
7.6415 -0.8477 2.2402
7.6544 -0.5677 2.2402
7.6591 -0.2879 2.2402
7.6557 -0.0086 2.2402
7.6441 0.2703 2.2402
7.6243 0.5484 2.2402
7.5965 0.8258 2.2402
7.5605 1.1020 2.2402
7.5165 1.3772 2.2402
7.4645 1.6510 2.2402
7.4044 1.9234 2.2402
7.3364 2.1941 2.2402
7.2603 2.4630 2.2402
7.1763 2.7300 2.2402
7.0844 2.9949 2.2402
6.9844 3.2575 2.2402
6.8766 3.5176 2.2402
6.7609 3.7752 2.2402
6.6373 4.0300 2.2402
6.5058 4.2818 2.2402
6.3664 4.5305 2.2402
6.2192 4.7758 2.2402
6.0642 5.0176 2.2402
5.9013 5.2558 2.2402
5.7307 5.4900 2.2402
5.5523 5.7201 2.2402
5.3661 5.9459 2.2402
5.1722 6.1672 2.2402
4.9707 6.3837 2.2402
4.7615 6.5952 2.2402
4.5447 6.8015 2.2402
4.3203 7.0024 2.2402
4.1553 7.3153 2.2768
4.0285 7.7309 2.3445
3.8475 8.0847 2.3926
3.5762 8.2732 2.3926
3.2972 8.4545 2.3926
3.0106 8.6282 2.3926
2.7165 8.7942 2.3926
2.4150 8.9519 2.3926
2.1062 9.1013 2.3926
1.7903 9.2418 2.3926
1.4675 9.3733 2.3926
1.1379 9.4952 2.3926
0.8018 9.6074 2.3926
3.2692 -9.1177 2.3926
3.5661 -8.9210 2.3926
3.8539 -8.7165 2.3926
4.1327 -8.5047 2.3926
4.4024 -8.2857 2.3926
4.6628 -8.0601 2.3926
4.9139 -7.8282 2.3926
5.1557 -7.5903 2.3926
5.3881 -7.3468 2.3926
5.6112 -7.0980 2.3926
5.8248 -6.8443 2.3926
-0.6480 -9.6508 2.3926
-0.2997 -9.5888 2.3926
0.0435 -9.5152 2.3926
0.3813 -9.4301 2.3926
0.7132 -9.3340 2.3926
1.0391 -9.2274 2.3926
1.3585 -9.1104 2.3926
1.6713 -8.9837 2.3926
1.9771 -8.8474 2.3926
2.2759 -8.7020 2.3926
2.5672 -8.5479 2.3926
2.8511 -8.3854 2.3926
3.1274 -8.2149 2.3926
3.3957 -8.0368 2.3926
3.6562 -7.8513 2.3926
3.9085 -7.6589 2.3926
4.1528 -7.4599 2.3926
4.3887 -7.2546 2.3926
4.6163 -7.0433 2.3926
4.8355 -6.8264 2.3926
5.0463 -6.6041 2.3926
5.2486 -6.3768 2.3926
5.4423 -6.1447 2.3926
5.6275 -5.9082 2.3926
5.8041 -5.6675 2.3926
5.9722 -5.4229 2.3926
6.1316 -5.1746 2.3926
6.2824 -4.9230 2.3926
6.4247 -4.6682 2.3926
6.5583 -4.4105 2.3926
6.6833 -4.1501 2.3926
6.7998 -3.8873 2.3926
6.9078 -3.6223 2.3926
7.0072 -3.3553 2.3926
7.0004 -3.0440 2.3596
6.9194 -2.7137 2.3056
6.8420 -2.3997 2.2565
6.8537 -2.1267 2.2402
6.9071 -1.8703 2.2402
6.9527 -1.6131 2.2402
6.9905 -1.3553 2.2402
7.0205 -1.0971 2.2402
7.0427 -0.8387 2.2402
7.0571 -0.5803 2.2402
7.0638 -0.3219 2.2402
7.0629 -0.0638 2.2402
7.0542 0.1938 2.2402
7.0379 0.4509 2.2402
7.0140 0.7073 2.2402
6.9824 0.9627 2.2402
6.9433 1.2171 2.2402
6.8967 1.4703 2.2402
6.8424 1.7221 2.2402
6.7807 1.9723 2.2402
6.7115 2.2209 2.2402
6.6347 2.4676 2.2402
6.5506 2.7123 2.2402
6.4590 2.9548 2.2402
6.3600 3.1950 2.2402
6.2536 3.4327 2.2402
6.1398 3.6677 2.2402
6.0187 3.8998 2.2402
5.8903 4.1289 2.2402
5.7546 4.3547 2.2402
5.6116 4.5772 2.2402
5.4615 4.7961 2.2402
5.3041 5.0112 2.2402
5.1395 5.2223 2.2402
4.9678 5.4293 2.2402
4.7891 5.6318 2.2402
4.6033 5.8298 2.2402
4.4824 6.1213 2.2767
4.3794 6.4600 2.3299
4.2699 6.8184 2.3888
4.0488 7.0186 2.3926
3.8137 7.2021 2.3926
3.5715 7.3792 2.3926
3.3224 7.5496 2.3926
3.0663 7.7132 2.3926
2.8034 7.8697 2.3926
2.5339 8.0187 2.3926
2.2579 8.1601 2.3926
0.8443 3.5443 1.0225
0.7163 3.5748 1.0160
0.5873 3.6006 1.0093
0.4575 3.6217 1.0026
0.3269 3.6380 0.9958
0.1959 3.6497 0.9889
0.0645 3.6565 0.9819
-0.0671 3.6586 0.9749
-0.1987 3.6559 0.9679
-0.3300 3.6485 0.9608
-0.4611 3.6362 0.9537
-0.5916 3.6193 0.9465
-0.7214 3.5976 0.9394
-0.8503 3.5712 0.9322
-2.5300 9.1560 2.3926
-2.8798 9.1340 2.3926
-3.2313 9.0993 2.3926
-0.5738 -9.6386 2.3926
-0.2265 -9.5742 2.3926
0.1156 -9.4981 2.3926
0.4521 -9.4107 2.3926
0.7828 -9.3123 2.3926
1.1073 -9.2034 2.3926
1.4253 -9.0844 2.3926
1.7367 -8.9556 2.3926
2.0410 -8.8174 2.3926
2.3382 -8.6701 2.3926
2.6280 -8.5142 2.3926
2.9103 -8.3500 2.3926
3.1849 -8.1778 2.3926
3.4516 -7.9981 2.3926
3.7103 -7.8111 2.3926
3.9610 -7.6173 2.3926
4.2034 -7.4169 2.3926
4.4376 -7.2103 2.3926
4.6635 -6.9978 2.3926
4.8809 -6.7797 2.3926
5.0899 -6.5563 2.3926
5.2904 -6.3280 2.3926
5.4823 -6.0950 2.3926
5.6657 -5.8575 2.3926
5.8405 -5.6160 2.3926
6.0067 -5.3706 2.3926
6.1643 -5.1216 2.3926
6.3133 -4.8692 2.3926
6.4537 -4.6138 2.3926
6.5855 -4.3555 2.3926
6.7087 -4.0946 2.3926
6.8234 -3.8313 2.3926
6.9295 -3.5659 2.3926
7.0271 -3.2985 2.3926
6.9829 -2.9725 2.3477
6.9027 -2.6459 2.2948
6.8318 -2.3371 2.2487
6.8656 -2.0725 2.2402
6.9174 -1.8158 2.2402
6.9614 -1.5585 2.2402
6.9975 -1.3006 2.2402
7.0258 -1.0424 2.2402
7.0464 -0.7840 2.2402
7.0592 -0.5255 2.2402
7.0643 -0.2672 2.2402
7.0617 -0.0092 2.2402
7.0514 0.2484 2.2402
7.0335 0.5053 2.2402
7.0079 0.7615 2.2402
6.9748 1.0167 2.2402
6.9341 1.2708 2.2402
6.8858 1.5237 2.2402
6.8300 1.7752 2.2402
6.7666 2.0251 2.2402
6.6958 2.2733 2.2402
6.6175 2.5196 2.2402
6.5318 2.7639 2.2402
6.4386 3.0059 2.2402
6.3381 3.2456 2.2402
6.2301 3.4827 2.2402
6.1148 3.7171 2.2402
5.9921 3.9486 2.2402
5.8622 4.1770 2.2402
5.7249 4.4021 2.2402
5.5804 4.6239 2.2402
5.4287 4.8420 2.2402
5.2698 5.0562 2.2402
5.1037 5.2665 2.2402
4.9305 5.4725 2.2402
4.7503 5.6742 2.2402
4.5672 5.8765 2.2422
4.4611 6.1915 2.2875
4.3568 6.5342 2.3419
4.2289 6.8698 2.3926
3.9996 7.0580 2.3926
3.7630 7.2401 2.3926
3.5193 7.4158 2.3926
3.2687 7.5849 2.3926
3.0112 7.7470 2.3926
2.7469 7.9019 2.3926
2.4760 8.0493 2.3926
2.1986 8.1890 2.3926
0.8173 3.5512 1.0211
0.6890 3.5806 1.0146
0.5599 3.6054 1.0079
0.4299 3.6255 1.0012
0.2992 3.6409 0.9943
0.1680 3.6515 0.9874
0.0366 3.6574 0.9805
-0.0950 3.6585 0.9734
-0.2265 3.6547 0.9664
-0.3578 3.6463 0.9593
-0.4888 3.6330 0.9521
-0.6192 3.6151 0.9450
-0.7488 3.5924 0.9378
-0.8775 3.5650 0.9307
-2.6039 9.1524 2.3926
-2.9541 9.1277 2.3926
-3.3060 9.0904 2.3926
-0.4998 -9.6260 2.3926
-0.1536 -9.5590 2.3926
0.1873 -9.4805 2.3926
0.5227 -9.3907 2.3926
0.8521 -9.2901 2.3926
1.1752 -9.1790 2.3926
1.4919 -9.0579 2.3926
1.8017 -8.9271 2.3926
2.1046 -8.7869 2.3926
2.4003 -8.6378 2.3926
2.6885 -8.4801 2.3926
2.9691 -8.3141 2.3926
3.2421 -8.1403 2.3926
3.5071 -7.9591 2.3926
3.7641 -7.7706 2.3926
4.0130 -7.5754 2.3926
4.2538 -7.3736 2.3926
4.4862 -7.1657 2.3926
4.7102 -6.9520 2.3926
4.9259 -6.7328 2.3926
5.1331 -6.5084 2.3926
5.3317 -6.2790 2.3926
-4.9138 -8.3445 2.3926
-4.5832 -8.4578 2.3926
-4.2503 -8.5575 2.3926
-3.9157 -8.6437 2.3926
-3.5801 -8.7164 2.3926
-3.2440 -8.7758 2.3926
-2.9080 -8.8221 2.3926
-2.5726 -8.8554 2.3926
-2.2384 -8.8760 2.3926
-1.9059 -8.8841 2.3926
-1.5756 -8.8799 2.3926
-1.2478 -8.8637 2.3926
-0.9232 -8.8358 2.3926
-0.6020 -8.7965 2.3926
-0.2847 -8.7460 2.3926
0.0284 -8.6846 2.3926
0.3370 -8.6128 2.3926
0.6406 -8.5307 2.3926
0.9391 -8.4387 2.3926
1.2320 -8.3372 2.3926
1.5192 -8.2264 2.3926
1.8004 -8.1067 2.3926
2.0754 -7.9784 2.3926
2.3441 -7.8418 2.3926
2.6061 -7.6973 2.3926
2.8613 -7.5452 2.3926
3.1096 -7.3858 2.3926
3.3508 -7.2194 2.3926
3.5848 -7.0463 2.3926
3.8115 -6.8668 2.3926
4.0308 -6.6812 2.3926
4.2425 -6.4899 2.3926
4.4467 -6.2931 2.3926
4.6432 -6.0911 2.3926
4.8319 -5.8841 2.3926
5.0129 -5.6725 2.3926
5.1861 -5.4566 2.3926
5.3514 -5.2364 2.3926
5.5088 -5.0125 2.3926
5.6583 -4.7848 2.3926
5.7999 -4.5538 2.3926
5.9335 -4.3197 2.3926
6.0592 -4.0827 2.3926
6.1769 -3.8429 2.3926
6.2866 -3.6007 2.3926
6.3884 -3.3563 2.3926
6.4822 -3.1098 2.3926
6.5681 -2.8615 2.3926
6.6461 -2.6115 2.3926
6.7161 -2.3602 2.3926
6.7342 -2.0939 2.3770
6.6636 -1.8081 2.3334
6.5952 -1.5335 2.2939
6.5288 -1.2687 2.2582
6.5055 -1.0193 2.2402
6.5269 -0.7796 2.2402
6.5410 -0.5398 2.2402
6.5479 -0.3000 2.2402
6.5474 -0.0605 2.2402
6.5398 0.1787 2.2402
6.5249 0.4174 2.2402
6.5029 0.6554 2.2402
6.4737 0.8925 2.2402
6.4373 1.1287 2.2402
6.3938 1.3637 2.2402
6.3432 1.5974 2.2402
6.2856 1.8296 2.2402
6.2209 2.0602 2.2402
6.1491 2.2890 2.2402
6.0704 2.5158 2.2402
5.9846 2.7406 2.2402
5.8920 2.9631 2.2402
5.7924 3.1831 2.2402
5.6859 3.4005 2.2402
5.5725 3.6151 2.2402
5.4523 3.8267 2.2402
5.3253 4.0353 2.2402
5.1916 4.2405 2.2402
5.0511 4.4423 2.2402
4.9079 4.6440 2.2420
4.8187 4.9042 2.2725
4.7343 5.1828 2.3107
4.6458 5.4732 2.3531
4.5387 5.7589 2.3926
4.3467 5.9477 2.3926
4.1479 6.1313 2.3926
3.9424 6.3096 2.3926
3.7303 6.4822 2.3926
3.5117 6.6490 2.3926
3.2866 6.8096 2.3926
3.0552 6.9639 2.3926
2.8177 7.1117 2.3926
2.5740 7.2526 2.3926
2.3244 7.3864 2.3926
0.8832 3.2069 1.0213
0.7673 3.2389 1.0154
0.6503 3.2667 1.0094
0.5324 3.2902 1.0033
0.4137 3.3095 0.9972
0.2944 3.3244 0.9910
0.1747 3.3350 0.9847
0.0546 3.3413 0.9783
-0.0657 3.3431 0.9719
-0.1859 3.3407 0.9655
-0.3060 3.3338 0.9590
-0.4258 3.3227 0.9525
-0.5450 3.3071 0.9459
-0.6637 3.2873 0.9394
-0.7815 3.2632 0.9329
-0.8984 3.2348 0.9263
-2.6379 8.3292 2.3926
-2.9566 8.2919 2.3926
-3.2759 8.2429 2.3926
-3.5956 8.1820 2.3926
-3.9150 8.1090 2.3926
-4.2337 8.0237 2.3926
-4.5512 7.9261 2.3926
-4.8669 7.8161 2.3926
-5.1803 7.6935 2.3926
-5.4909 7.5583 2.3926
-5.7981 7.4104 2.3926
-6.1012 7.2499 2.3926
-6.3997 7.0768 2.3926
-6.6929 6.8911 2.3926
-6.9803 6.6930 2.3926
-4.8440 -8.3697 2.3926
-4.5129 -8.4801 2.3926
-4.1795 -8.5769 2.3926
-3.8447 -8.6602 2.3926
-3.5089 -8.7301 2.3926
-3.1727 -8.7867 2.3926
-2.8368 -8.8302 2.3926
-2.5017 -8.8608 2.3926
-2.1678 -8.8787 2.3926
-1.8357 -8.8842 2.3926
-1.5059 -8.8775 2.3926
-1.1788 -8.8588 2.3926
-0.8548 -8.8284 2.3926
-0.5344 -8.7867 2.3926
-0.2180 -8.7339 2.3926
0.0942 -8.6703 2.3926
0.4017 -8.5962 2.3926
0.7043 -8.5120 2.3926
1.0016 -8.4180 2.3926
1.2934 -8.3145 2.3926
1.5793 -8.2018 2.3926
1.8592 -8.0802 2.3926
2.1329 -7.9501 2.3926
2.4001 -7.8119 2.3926
2.6607 -7.6657 2.3926
2.9145 -7.5120 2.3926
3.1613 -7.3511 2.3926
3.4010 -7.1832 2.3926
3.6335 -7.0087 2.3926
3.8586 -6.8280 2.3926
4.0763 -6.6412 2.3926
4.2864 -6.4487 2.3926
4.4890 -6.2507 2.3926
4.6838 -6.0476 2.3926
4.8710 -5.8397 2.3926
5.0503 -5.6271 2.3926
5.2218 -5.4103 2.3926
5.3854 -5.1893 2.3926
5.5412 -4.9645 2.3926
5.6890 -4.7362 2.3926
5.8289 -4.5045 2.3926
5.9608 -4.2697 2.3926
6.0848 -4.0321 2.3926
6.2008 -3.7918 2.3926
6.3089 -3.5491 2.3926
6.4090 -3.3042 2.3926
6.5011 -3.0573 2.3926
6.5853 -2.8087 2.3926
6.6616 -2.5584 2.3926
6.7299 -2.3067 2.3926
6.7191 -2.0323 2.3674
6.6489 -1.7490 2.3247
6.5810 -1.4766 2.2860
6.5178 -1.2143 2.2520
6.5106 -0.9685 2.2402
6.5305 -0.7288 2.2402
6.5431 -0.4890 2.2402
6.5484 -0.2493 2.2402
6.5464 -0.0098 2.2402
6.5373 0.2293 2.2402
6.5209 0.4679 2.2402
6.4973 0.7057 2.2402
6.4666 0.9427 2.2402
6.4287 1.1786 2.2402
6.3837 1.4133 2.2402
6.3316 1.6467 2.2402
6.2725 1.8786 2.2402
6.2062 2.1088 2.2402
6.1330 2.3372 2.2402
6.0528 2.5636 2.2402
5.9656 2.7879 2.2402
5.8714 3.0099 2.2402
5.7704 3.2294 2.2402
5.6624 3.4462 2.2402
5.5476 3.6602 2.2402
5.4260 3.8712 2.2402
5.2975 4.0791 2.2402
5.1624 4.2836 2.2402
5.0205 4.4845 2.2402
4.8876 4.6969 2.2474
4.8011 4.9623 2.2802
4.7159 5.2433 2.3193
4.6265 5.5363 2.3626
4.4986 5.7993 2.3926
4.3051 5.9870 2.3926
4.1049 6.1696 2.3926
3.8980 6.3467 2.3926
3.6845 6.5180 2.3926
3.4645 6.6835 2.3926
3.2381 6.8429 2.3926
3.0054 6.9958 2.3926
2.7666 7.1421 2.3926
2.5216 7.2815 2.3926
2.2708 7.4138 2.3926
0.8587 3.2140 1.0200
0.7426 3.2451 1.0141
0.6254 3.2720 1.0081
0.5073 3.2947 1.0020
0.3885 3.3130 0.9959
0.2691 3.3270 0.9896
0.1492 3.3367 0.9833
0.0291 3.3420 0.9770
-0.0912 3.3430 0.9705
-0.2114 3.3396 0.9641
-0.3314 3.3318 0.9576
-0.4511 3.3197 0.9511
-0.5702 3.3033 0.9445
-0.6887 3.2825 0.9380
-0.8063 3.2575 0.9315
-0.9230 3.2282 0.9250
-2.7053 8.3222 2.3926
-3.0242 8.2825 2.3926
-3.3437 8.2310 2.3926
-3.6633 8.1675 2.3926
-3.9826 8.0919 2.3926
-4.3011 8.0041 2.3926
-4.6182 7.9039 2.3926
-4.9335 7.7911 2.3926
-5.2464 7.6659 2.3926
-5.5563 7.5280 2.3926
-5.8626 7.3775 2.3926
-6.1648 7.2143 2.3926
-6.4623 7.0385 2.3926
-6.7543 6.8502 2.3926
-7.0404 6.6494 2.3926
-4.7740 -8.3942 2.3926
-4.4424 -8.5017 2.3926
-4.1087 -8.5957 2.3926
-3.7736 -8.6761 2.3926
-3.4377 -8.7432 2.3926
-3.1016 -8.7970 2.3926
-2.7657 -8.8377 2.3926
-2.4308 -8.8657 2.3926
-2.0973 -8.8809 2.3926
-1.7657 -8.8838 2.3926
-1.4363 -8.8745 2.3926
-1.1099 -8.8533 2.3926
-0.7866 -8.8205 2.3926
-0.4670 -8.7764 2.3926
-0.1514 -8.7213 2.3926
0.1598 -8.6555 2.3926
0.4662 -8.5792 2.3926
0.7677 -8.4929 2.3926
1.0639 -8.3968 2.3926
1.3544 -8.2913 2.3926
1.6391 -8.1767 2.3926
1.9178 -8.0533 2.3926
2.1901 -7.9215 2.3926
2.4559 -7.7815 2.3926
2.7150 -7.6338 2.3926
2.9674 -7.4785 2.3926
3.2127 -7.3161 2.3926
3.4508 -7.1468 2.3926
3.6818 -6.9710 2.3926
3.9053 -6.7889 2.3926
4.1214 -6.6009 2.3926
4.3300 -6.4072 2.3926
4.5309 -6.2081 2.3926
4.7241 -6.0040 2.3926
4.9096 -5.7950 2.3926
-9.5743 -0.7701 2.3926
-9.5444 -1.1090 2.3926
-9.4998 -1.4462 2.3926
-9.4404 -1.7812 2.3926
-9.3665 -2.1132 2.3926
-9.2782 -2.4415 2.3926
-9.1757 -2.7653 2.3926
-9.0593 -3.0841 2.3926
-8.9293 -3.3972 2.3926
-8.7861 -3.7040 2.3926
-8.6300 -4.0038 2.3926
-8.4613 -4.2961 2.3926
-8.2806 -4.5803 2.3926
-8.0884 -4.8559 2.3926
-7.8850 -5.1224 2.3926
-7.6711 -5.3794 2.3926
-7.4471 -5.6264 2.3926
-7.2136 -5.8630 2.3926
-6.9712 -6.0890 2.3926
-6.7205 -6.3039 2.3926
-6.4620 -6.5075 2.3926
-6.1964 -6.6997 2.3926
-5.9243 -6.8800 2.3926
-5.6462 -7.0485 2.3926
-5.3628 -7.2048 2.3926
-5.0746 -7.3491 2.3926
-4.7823 -7.4811 2.3926
-4.4864 -7.6008 2.3926
-4.1876 -7.7083 2.3926
-3.8864 -7.8035 2.3926
-3.5833 -7.8866 2.3926
-3.2790 -7.9575 2.3926
-2.9738 -8.0163 2.3926
-2.6685 -8.0633 2.3926
-2.3633 -8.0985 2.3926
-2.0589 -8.1221 2.3926
-1.7556 -8.1343 2.3926
-1.4540 -8.1352 2.3926
-1.1544 -8.1252 2.3926
-0.8573 -8.1043 2.3926
-0.5630 -8.0729 2.3926
-0.2719 -8.0312 2.3926
0.0156 -7.9795 2.3926
0.2993 -7.9180 2.3926
0.5788 -7.8469 2.3926
0.8538 -7.7667 2.3926
1.1241 -7.6774 2.3926
1.3893 -7.5795 2.3926
1.6493 -7.4732 2.3926
1.9039 -7.3588 2.3926
2.1527 -7.2366 2.3926
2.3958 -7.1069 2.3926
2.6327 -6.9699 2.3926
2.8635 -6.8260 2.3926
3.0879 -6.6754 2.3926
3.3058 -6.5184 2.3926
3.5172 -6.3552 2.3926
3.7218 -6.1863 2.3926
3.9195 -6.0117 2.3926
4.1104 -5.8319 2.3926
4.2942 -5.6470 2.3926
4.4710 -5.4573 2.3926
4.6406 -5.2631 2.3926
4.8031 -5.0646 2.3926
4.9583 -4.8621 2.3926
5.1062 -4.6557 2.3926
5.2468 -4.4458 2.3926
5.3800 -4.2326 2.3926
5.5058 -4.0163 2.3926
5.6243 -3.7970 2.3926
5.7353 -3.5751 2.3926
5.8389 -3.3507 2.3926
5.9351 -3.1241 2.3926
6.0238 -2.8954 2.3926
6.1051 -2.6649 2.3926
6.1790 -2.4328 2.3926
6.2454 -2.1991 2.3926
6.3044 -1.9643 2.3926
6.3560 -1.7283 2.3926
6.4002 -1.4914 2.3926
6.4369 -1.2539 2.3926
6.4339 -1.0107 2.3806
6.3715 -0.7633 2.3495
6.3103 -0.5226 2.3217
6.2501 -0.2880 2.2969
6.1908 -0.0584 2.2751
6.1322 0.1667 2.2561
6.0836 0.3885 2.2433
6.0548 0.6099 2.2402
6.0276 0.8310 2.2402
5.9937 1.0512 2.2402
5.9530 1.2703 2.2402
5.9057 1.4881 2.2402
5.8516 1.7045 2.2402
5.7909 1.9194 2.2402
5.7236 2.1325 2.2402
5.6497 2.3437 2.2402
5.5692 2.5529 2.2402
5.4822 2.7599 2.2402
5.3886 2.9646 2.2402
5.3071 3.1778 2.2480
5.2361 3.4011 2.2635
5.1683 3.6322 2.2839
5.0984 3.8686 2.3073
5.0262 4.1113 2.3338
4.9514 4.3611 2.3636
4.8646 4.6102 2.3926
4.7106 4.8021 2.3926
4.5500 4.9897 2.3926
4.3830 5.1730 2.3926
4.2096 5.3516 2.3926
4.0299 5.5255 2.3926
3.8440 5.6944 2.3926
3.6519 5.8580 2.3926
3.4537 6.0163 2.3926
3.2496 6.1689 2.3926
3.0396 6.3157 2.3926
2.8238 6.4564 2.3926
2.6024 6.5908 2.3926
2.3756 6.7187 2.3926
2.1434 6.8399 2.3926
0.8084 2.9494 1.0147
0.7018 2.9788 1.0093
0.5942 3.0043 1.0038
0.4857 3.0259 0.9983
0.3765 3.0436 0.9926
0.2668 3.0573 0.9869
0.1566 3.0671 0.9811
0.0461 3.0728 0.9752
-0.0645 3.0745 0.9693
-0.1751 3.0722 0.9634
-0.2855 3.0659 0.9574
-0.3957 3.0557 0.9514
-0.5054 3.0414 0.9454
-0.6145 3.0231 0.9394
-0.7229 3.0009 0.9334
-0.8304 2.9748 0.9274
-0.9369 2.9448 0.9214
-2.7238 7.6079 2.3926
-3.0152 7.5585 2.3926
-3.3065 7.4982 2.3926
-3.5972 7.4269 2.3926
-3.8870 7.3445 2.3926
-4.1753 7.2509 2.3926
-4.4616 7.1459 2.3926
-4.7455 7.0297 2.3926
-5.0265 6.9021 2.3926
-5.3040 6.7631 2.3926
-5.5776 6.6127 2.3926
-5.8467 6.4511 2.3926
-6.1107 6.2782 2.3926
-6.3691 6.0942 2.3926
-6.6214 5.8993 2.3926
-6.8669 5.6934 2.3926
-7.1052 5.4770 2.3926
-7.3357 5.2501 2.3926
-7.5578 5.0131 2.3926
-7.7711 4.7662 2.3926
-7.9749 4.5098 2.3926
-8.1687 4.2442 2.3926
-8.3521 3.9699 2.3926
-8.5245 3.6871 2.3926
-8.6854 3.3965 2.3926
-8.8344 3.0985 2.3926
-8.9711 2.7935 2.3926
-9.0951 2.4822 2.3926
-9.2060 2.1652 2.3926
-9.3034 1.8430 2.3926
-9.3871 1.5162 2.3926
-9.4567 1.1855 2.3926
-9.5120 0.8516 2.3926
-9.5529 0.5152 2.3926
-9.5792 0.1769 2.3926
-9.5907 -0.1625 2.3926
-9.5873 -0.5024 2.3926
-9.5692 -0.8420 2.3926
-9.5362 -1.1806 2.3926
-9.4884 -1.5174 2.3926
-9.4260 -1.8518 2.3926
-9.3490 -2.1831 2.3926
-9.2576 -2.5105 2.3926
-9.1522 -2.8333 2.3926
-9.0329 -3.1510 2.3926
-8.9001 -3.4628 2.3926
-8.7541 -3.7681 2.3926
-8.5953 -4.0664 2.3926
-8.4240 -4.3570 2.3926
-8.2409 -4.6394 2.3926
-8.0462 -4.9131 2.3926
-7.8406 -5.1777 2.3926
-7.6244 -5.4325 2.3926
-7.3984 -5.6774 2.3926
-7.1630 -5.9118 2.3926
-6.9188 -6.1354 2.3926
-6.6664 -6.3480 2.3926
-6.4064 -6.5492 2.3926
-6.1393 -6.7388 2.3926
-5.8658 -6.9167 2.3926
-5.5866 -7.0826 2.3926
-5.3021 -7.2364 2.3926
-5.0130 -7.3781 2.3926
-4.7199 -7.5075 2.3926
-4.4234 -7.6246 2.3926
-4.1240 -7.7295 2.3926
-3.8223 -7.8221 2.3926
-3.5189 -7.9026 2.3926
-3.2144 -7.9709 2.3926
-2.9091 -8.0273 2.3926
-2.6038 -8.0717 2.3926
-2.2987 -8.1045 2.3926
-1.9945 -8.1256 2.3926
-1.6916 -8.1354 2.3926
-1.3903 -8.1340 2.3926
-1.0912 -8.1216 2.3926
-0.7947 -8.0986 2.3926
-0.5010 -8.0650 2.3926
-0.2107 -8.0211 2.3926
0.0761 -7.9673 2.3926
0.3589 -7.9037 2.3926
0.6375 -7.8307 2.3926
0.9115 -7.7485 2.3926
1.1807 -7.6574 2.3926
1.4449 -7.5577 2.3926
1.7037 -7.4497 2.3926
1.9571 -7.3336 2.3926
2.2047 -7.2097 2.3926
2.4465 -7.0785 2.3926
2.6822 -6.9400 2.3926
2.9116 -6.7946 2.3926
3.1346 -6.6426 2.3926
3.3512 -6.4843 2.3926
3.5611 -6.3199 2.3926
3.7642 -6.1497 2.3926
3.9605 -5.9741 2.3926
4.1499 -5.7931 2.3926
4.3323 -5.6072 2.3926
4.5075 -5.4165 2.3926
4.6756 -5.2214 2.3926
4.8366 -5.0220 2.3926
4.9902 -4.8187 2.3926
5.1366 -4.6116 2.3926
5.2756 -4.4009 2.3926
5.4073 -4.1870 2.3926
5.5315 -3.9700 2.3926
5.6484 -3.7502 2.3926
5.7579 -3.5278 2.3926
5.8599 -3.3029 2.3926
5.9545 -3.0758 2.3926
6.0417 -2.8467 2.3926
6.1214 -2.6159 2.3926
6.1937 -2.3834 2.3926
6.2585 -2.1495 2.3926
6.3160 -1.9143 2.3926
6.3660 -1.6782 2.3926
6.4086 -1.4412 2.3926
6.4438 -1.2034 2.3926
6.4206 -0.9576 2.3737
6.3584 -0.7118 2.3433
6.2975 -0.4724 2.3162
6.2375 -0.2389 2.2921
6.1783 -0.0104 2.2709
6.1217 0.2139 2.2531
6.0732 0.4352 2.2408
6.0496 0.6568 2.2402
6.0210 0.8777 2.2402
5.9857 1.0977 2.2402
5.9436 1.3165 2.2402
5.8948 1.5341 2.2402
5.8393 1.7502 2.2402
5.7772 1.9647 2.2402
5.7085 2.1774 2.2402
5.6332 2.3882 2.2402
5.5513 2.5970 2.2402
5.4629 2.8035 2.2402
5.3680 3.0076 2.2402
5.2915 3.2243 2.2508
5.2219 3.4497 2.2676
5.1537 3.6818 2.2886
5.0833 3.9195 2.3127
5.0106 4.1636 2.3398
4.9352 4.4150 2.3704
4.8325 4.6512 2.3926
4.6771 4.8422 2.3926
4.5152 5.0289 2.3926
4.3468 5.2112 2.3926
4.1721 5.3889 2.3926
3.9911 5.5617 2.3926
3.8038 5.7295 2.3926
3.6104 5.8920 2.3926
3.4109 6.0491 2.3926
3.2055 6.2005 2.3926
2.9943 6.3460 2.3926
2.7774 6.4854 2.3926
2.5548 6.6185 2.3926
2.3268 6.7450 2.3926
2.0935 6.8647 2.3926
0.7859 2.9559 1.0136
0.6790 2.9845 1.0082
0.5712 3.0092 1.0027
0.4626 3.0300 0.9971
0.3533 3.0469 0.9914
0.2435 3.0597 0.9856
0.1332 3.0686 0.9798
0.0227 3.0735 0.9740
-0.0879 3.0744 0.9681
-0.1985 3.0712 0.9621
-0.3089 3.0641 0.9562
-0.4190 3.0530 0.9502
-0.5286 3.0378 0.9442
-0.6375 3.0187 0.9382
-0.7457 2.9957 0.9321
-0.8530 2.9688 0.9261
-2.4943 7.6392 2.3926
-2.7855 7.5983 2.3926
-3.0770 7.5466 2.3926
-3.3682 7.4840 2.3926
-3.6587 7.4104 2.3926
-3.9482 7.3256 2.3926
-4.2361 7.2296 2.3926
-4.5220 7.1223 2.3926
-4.8053 7.0036 2.3926
-5.0856 6.8736 2.3926
-5.3624 6.7322 2.3926
-5.6350 6.5794 2.3926
-5.9030 6.4154 2.3926
-6.1659 6.2402 2.3926
-6.4231 6.0538 2.3926
-6.6740 5.8565 2.3926
-6.9180 5.6485 2.3926
-7.1547 5.4298 2.3926
-7.3835 5.2007 2.3926
-7.6038 4.9616 2.3926
-7.8151 4.7127 2.3926
-8.0168 4.4543 2.3926
-8.2085 4.1868 2.3926
-8.3895 3.9106 2.3926
-8.5595 3.6262 2.3926
-8.7180 3.3340 2.3926
-8.8644 3.0344 2.3926
-8.9985 2.7281 2.3926
-9.1197 2.4155 2.3926
-9.2278 2.0973 2.3926
-9.3223 1.7741 2.3926
-9.4030 1.4464 2.3926
-9.4696 1.1150 2.3926
-9.5219 0.7805 2.3926
-9.5597 0.4436 2.3926
-9.5828 0.1051 2.3926
-9.5912 -0.2345 2.3926
-9.5847 -0.5744 2.3926
-9.5634 -0.9139 2.3926
-9.5273 -1.2521 2.3926
-9.4764 -1.5885 2.3926
-9.4108 -1.9223 2.3926
-9.3308 -2.2528 2.3926
-9.2364 -2.5793 2.3926
-9.1281 -2.9011 2.3926
-9.0059 -3.2176 2.3926
-8.8702 -3.5280 2.3926
-8.7215 -3.8319 2.3926
-8.5600 -4.1286 2.3926
-8.3862 -4.4175 2.3926
-8.2006 -4.6981 2.3926
-8.0035 -4.9700 2.3926
-7.7956 -5.2325 2.3926
-7.5774 -5.4853 2.3926
-7.3493 -5.7279 2.3926
-7.1120 -5.9601 2.3926
-6.8660 -6.1814 2.3926
-6.6119 -6.3916 2.3926
-6.3503 -6.5904 2.3926
-6.0819 -6.7775 2.3926
-5.8071 -6.9528 2.3926
-5.5267 -7.1162 2.3926
-5.2412 -7.2674 2.3926
-4.9512 -7.4065 2.3926
-4.6573 -7.5333 2.3926
-4.3601 -7.6479 2.3926
-4.0602 -7.7501 2.3926
-3.7582 -7.8402 2.3926
-3.4545 -7.9181 2.3926
-3.1497 -7.9839 2.3926
-2.8444 -8.0377 2.3926
-2.5391 -8.0796 2.3926
-2.2342 -8.1099 2.3926
-1.9302 -8.1286 2.3926
-1.6276 -8.1360 2.3926
-1.3268 -8.1323 2.3926
-1.0282 -8.1176 2.3926
-0.7322 -8.0923 2.3926
-0.4392 -8.0565 2.3926
-0.1496 -8.0105 2.3926
0.1363 -7.9546 2.3926
0.4183 -7.8890 2.3926
0.6959 -7.8140 2.3926
0.9689 -7.7299 2.3926
1.2371 -7.6370 2.3926
1.5001 -7.5355 2.3926
1.7579 -7.4257 2.3926
2.0101 -7.3080 2.3926
2.2565 -7.1825 2.3926
2.4969 -7.0497 2.3926
2.7313 -6.9097 2.3926
2.9594 -6.7629 2.3926
3.1811 -6.6096 2.3926
3.3962 -6.4500 2.3926
3.6047 -6.2843 2.3926
3.8064 -6.1130 2.3926
4.0012 -5.9362 2.3926
4.1891 -5.7541 2.3926
4.3700 -5.5672 2.3926
4.5437 -5.3756 2.3926
-8.7310 -0.7030 2.3926
-8.7035 -1.0116 2.3926
-8.6628 -1.3187 2.3926
-8.6089 -1.6238 2.3926
-8.5420 -1.9262 2.3926
-8.4621 -2.2253 2.3926
-8.3696 -2.5206 2.3926
-8.2645 -2.8113 2.3926
-8.1473 -3.0970 2.3926
-8.0180 -3.3770 2.3926
-7.8772 -3.6509 2.3926
-7.7251 -3.9181 2.3926
-7.5621 -4.1782 2.3926
-7.3886 -4.4306 2.3926
-7.2051 -4.6749 2.3926
-7.0119 -4.9108 2.3926
-6.8096 -5.1378 2.3926
-6.5986 -5.3556 2.3926
-6.3794 -5.5639 2.3926
-6.1526 -5.7623 2.3926
-5.9186 -5.9507 2.3926
-5.6780 -6.1287 2.3926
-5.4313 -6.2962 2.3926
-5.1789 -6.4531 2.3926
-4.9216 -6.5991 2.3926
-4.6597 -6.7341 2.3926
-4.3939 -6.8582 2.3926
-4.1246 -6.9711 2.3926
-3.8523 -7.0730 2.3926
-3.5776 -7.1638 2.3926
-3.3010 -7.2435 2.3926
-3.0229 -7.3122 2.3926
-2.7439 -7.3699 2.3926
-2.4644 -7.4168 2.3926
-2.1848 -7.4529 2.3926
-1.9056 -7.4783 2.3926
-1.6271 -7.4933 2.3926
-1.3500 -7.4979 2.3926
-1.0744 -7.4924 2.3926
-0.8008 -7.4769 2.3926
-0.5295 -7.4517 2.3926
-0.2609 -7.4169 2.3926
0.0046 -7.3727 2.3926
0.2669 -7.3195 2.3926
0.5255 -7.2573 2.3926
0.7802 -7.1866 2.3926
1.0308 -7.1074 2.3926
1.2770 -7.0200 2.3926
1.5185 -6.9248 2.3926
1.7552 -6.8219 2.3926
1.9868 -6.7116 2.3926
2.2132 -6.5942 2.3926
2.4341 -6.4699 2.3926
2.6494 -6.3390 2.3926
2.8590 -6.2017 2.3926
3.0628 -6.0583 2.3926
3.2605 -5.9091 2.3926
3.4520 -5.7542 2.3926
3.6374 -5.5940 2.3926
3.8164 -5.4287 2.3926
3.9889 -5.2585 2.3926
4.1549 -5.0836 2.3926
4.3144 -4.9044 2.3926
4.4672 -4.7210 2.3926
4.6133 -4.5336 2.3926
4.7527 -4.3426 2.3926
4.8852 -4.1480 2.3926
5.0109 -3.9502 2.3926
5.1297 -3.7494 2.3926
5.2416 -3.5457 2.3926
5.3466 -3.3393 2.3926
5.4446 -3.1305 2.3926
5.5356 -2.9195 2.3926
5.6197 -2.7065 2.3926
5.6968 -2.4916 2.3926
5.7669 -2.2750 2.3926
5.8299 -2.0570 2.3926
5.8860 -1.8377 2.3926
5.9351 -1.6173 2.3926
5.9772 -1.3960 2.3926
6.0124 -1.1739 2.3926
6.0405 -0.9513 2.3926
6.0617 -0.7283 2.3926
6.0759 -0.5051 2.3926
6.0832 -0.2818 2.3926
6.0836 -0.0587 2.3926
6.0771 0.1642 2.3926
6.0467 0.3855 2.3859
5.9894 0.6030 2.3712
5.9323 0.8178 2.3592
5.8752 1.0307 2.3498
5.8181 1.2420 2.3429
5.7608 1.4525 2.3385
5.7031 1.6624 2.3365
5.6448 1.8725 2.3371
5.5860 2.0831 2.3402
5.5264 2.2948 2.3457
5.4658 2.5081 2.3538
5.4041 2.7236 2.3645
5.3412 2.9419 2.3779
5.2736 3.1615 2.3926
5.1665 3.3602 2.3926
5.0530 3.5559 2.3926
4.9332 3.7484 2.3926
4.8070 3.9377 2.3926
4.6745 4.1234 2.3926
4.5358 4.3055 2.3926
4.3910 4.4837 2.3926
4.2401 4.6579 2.3926
4.0831 4.8279 2.3926
3.9202 4.9934 2.3926
3.7515 5.1543 2.3926
3.5770 5.3104 2.3926
3.3968 5.4616 2.3926
3.2110 5.6075 2.3926
3.0197 5.7480 2.3926
2.8230 5.8829 2.3926
2.6211 6.0120 2.3926
2.4141 6.1351 2.3926
2.2020 6.2519 2.3926
0.8413 2.6965 1.0140
0.7438 2.7272 1.0091
0.6452 2.7544 1.0041
0.5457 2.7780 0.9990
0.4454 2.7980 0.9939
0.3444 2.8143 0.9886
0.2429 2.8270 0.9833
0.1410 2.8360 0.9780
0.0389 2.8413 0.9726
-0.0634 2.8428 0.9671
-0.1657 2.8407 0.9616
-0.2679 2.8349 0.9561
-0.3697 2.8254 0.9506
-0.4712 2.8121 0.9450
-0.5721 2.7953 0.9395
-0.6723 2.7747 0.9339
-0.7718 2.7506 0.9283
-0.8702 2.7229 0.9228
-2.5239 7.0204 2.3926
-2.7915 6.9713 2.3926
-3.0588 6.9123 2.3926
-3.3253 6.8431 2.3926
-3.5905 6.7637 2.3926
-3.8542 6.6741 2.3926
-4.1158 6.5742 2.3926
-4.3750 6.4639 2.3926
-4.6311 6.3434 2.3926
-4.8839 6.2125 2.3926
-5.1328 6.0714 2.3926
-5.3774 5.9201 2.3926
-5.6171 5.7586 2.3926
-5.8514 5.5872 2.3926
-6.0800 5.4058 2.3926
-6.3023 5.2148 2.3926
-6.5178 5.0142 2.3926
-6.7260 4.8044 2.3926
-6.9264 4.5855 2.3926
-7.1187 4.3578 2.3926
-7.3022 4.1216 2.3926
-7.4766 3.8773 2.3926
-7.6414 3.6252 2.3926
-7.7962 3.3657 2.3926
-7.9406 3.0992 2.3926
-8.0741 2.8262 2.3926
-8.1965 2.5472 2.3926
-8.3073 2.2625 2.3926
-8.4063 1.9728 2.3926
-8.4932 1.6786 2.3926
-8.5676 1.3804 2.3926
-8.6295 1.0788 2.3926
-8.6784 0.7744 2.3926
-8.7144 0.4677 2.3926
-8.7373 0.1595 2.3926
-8.7469 -0.1497 2.3926
-8.7432 -0.4592 2.3926
-8.7263 -0.7685 2.3926
-8.6960 -1.0768 2.3926
-8.6525 -1.3835 2.3926
-8.5959 -1.6881 2.3926
-8.5262 -1.9899 2.3926
-8.4436 -2.2882 2.3926
-8.3484 -2.5825 2.3926
-8.2407 -2.8723 2.3926
-8.1209 -3.1568 2.3926
-7.9892 -3.4356 2.3926
-7.8459 -3.7081 2.3926
-7.6915 -3.9738 2.3926
-7.5262 -4.2323 2.3926
-7.3506 -4.4831 2.3926
-7.1649 -4.7257 2.3926
-6.9698 -4.9597 2.3926
-6.7656 -5.1848 2.3926
-6.5528 -5.4006 2.3926
-6.3320 -5.6068 2.3926
-6.1036 -5.8031 2.3926
-5.8682 -5.9893 2.3926
-5.6262 -6.1651 2.3926
-5.3782 -6.3304 2.3926
-5.1248 -6.4849 2.3926
-4.8665 -6.6286 2.3926
-4.6037 -6.7613 2.3926
-4.3371 -6.8830 2.3926
-4.0671 -6.9937 2.3926
-3.7943 -7.0932 2.3926
-3.5192 -7.1816 2.3926
-3.2422 -7.2590 2.3926
-2.9639 -7.3253 2.3926
-2.6847 -7.3807 2.3926
-2.4051 -7.4253 2.3926
-2.1256 -7.4591 2.3926
-1.8465 -7.4824 2.3926
-1.5683 -7.4951 2.3926
-1.2914 -7.4976 2.3926
-1.0162 -7.4900 2.3926
-0.7431 -7.4724 2.3926
-0.4724 -7.4451 2.3926
-0.2044 -7.4083 2.3926
0.0605 -7.3622 2.3926
0.3220 -7.3071 2.3926
0.5798 -7.2431 2.3926
0.8337 -7.1705 2.3926
1.0833 -7.0895 2.3926
1.3286 -7.0005 2.3926
1.5691 -6.9036 2.3926
1.8047 -6.7991 2.3926
2.0352 -6.6873 2.3926
2.2604 -6.5684 2.3926
2.4802 -6.4427 2.3926
2.6944 -6.3104 2.3926
2.9027 -6.1718 2.3926
3.1052 -6.0272 2.3926
3.3016 -5.8767 2.3926
3.4918 -5.7207 2.3926
3.6758 -5.5594 2.3926
3.8534 -5.3930 2.3926
4.0246 -5.2218 2.3926
4.1893 -5.0460 2.3926
4.3473 -4.8659 2.3926
4.4987 -4.6816 2.3926
4.6434 -4.4934 2.3926
4.7813 -4.3017 2.3926
4.9124 -4.1064 2.3926
5.0366 -3.9079 2.3926
5.1540 -3.7064 2.3926
5.2644 -3.5021 2.3926
5.3679 -3.2953 2.3926
5.4644 -3.0860 2.3926
5.5540 -2.8745 2.3926
5.6366 -2.6611 2.3926
5.7122 -2.4458 2.3926
5.7808 -2.2289 2.3926
5.8424 -2.0106 2.3926
5.8970 -1.7911 2.3926
5.9446 -1.5705 2.3926
5.9853 -1.3490 2.3926
6.0189 -1.1268 2.3926
6.0456 -0.9041 2.3926
6.0653 -0.6811 2.3926
6.0780 -0.4578 2.3926
6.0839 -0.2345 2.3926
6.0828 -0.0114 2.3926
6.0748 0.2113 2.3926
6.0346 0.4318 2.3826
5.9773 0.6487 2.3684
5.9202 0.8631 2.3570
5.8631 1.0756 2.3481
5.8060 1.2867 2.3417
5.7486 1.4970 2.3378
5.6907 1.7069 2.3365
5.6324 1.9170 2.3375
5.5734 2.1278 2.3411
5.5136 2.3398 2.3472
5.4528 2.5536 2.3558
5.3909 2.7696 2.3671
5.3277 2.9885 2.3811
5.2514 3.2038 2.3926
5.1430 3.4019 2.3926
5.0282 3.5969 2.3926
4.9069 3.7888 2.3926
4.7794 3.9773 2.3926
4.6456 4.1623 2.3926
4.5056 4.3436 2.3926
4.3595 4.5210 2.3926
4.2073 4.6943 2.3926
4.0491 4.8633 2.3926
3.8850 5.0279 2.3926
3.7150 5.1878 2.3926
3.5393 5.3429 2.3926
3.3579 5.4929 2.3926
3.1709 5.6377 2.3926
2.9785 5.7770 2.3926
2.7807 5.9107 2.3926
2.5777 6.0386 2.3926
2.3696 6.1603 2.3926
2.1565 6.2759 2.3926
0.8208 2.7033 1.0130
0.7230 2.7333 1.0081
0.6242 2.7597 1.0030
0.5245 2.7825 0.9979
0.4240 2.8017 0.9928
0.3229 2.8173 0.9875
0.2214 2.8292 0.9822
0.1194 2.8374 0.9768
0.0172 2.8419 0.9714
-0.0851 2.8427 0.9659
-0.1874 2.8398 0.9605
-0.2895 2.8332 0.9549
-0.3913 2.8229 0.9494
-0.4926 2.8089 0.9438
-0.5934 2.7912 0.9383
-0.6935 2.7699 0.9327
-0.7927 2.7450 0.9272
-0.8910 2.7165 0.9216
-2.5806 7.0108 2.3926
-2.8482 6.9597 2.3926
-3.1153 6.8984 2.3926
-3.3816 6.8271 2.3926
-3.6466 6.7456 2.3926
-3.9098 6.6538 2.3926
-4.1709 6.5517 2.3926
-4.4295 6.4393 2.3926
-4.6850 6.3165 2.3926
-4.9370 6.1835 2.3926
-5.1850 6.0402 2.3926
-5.4285 5.8867 2.3926
-5.6672 5.7231 2.3926
-5.9004 5.5496 2.3926
-6.1276 5.3662 2.3926
-6.3485 5.1731 2.3926
-6.5625 4.9705 2.3926
-6.7691 4.7587 2.3926
-6.9679 4.5379 2.3926
-7.1583 4.3084 2.3926
-7.3399 4.0705 2.3926
-7.5123 3.8245 2.3926
-7.6750 3.5708 2.3926
-7.8277 3.3098 2.3926
-7.9697 3.0419 2.3926
-8.1010 2.7676 2.3926
-8.2209 2.4873 2.3926
-8.3293 2.2016 2.3926
-8.4257 1.9108 2.3926
-8.5100 1.6157 2.3926
-8.5818 1.3167 2.3926
-8.6409 1.0145 2.3926
-8.6871 0.7095 2.3926
-8.7204 0.4025 2.3926
-8.7404 0.0941 2.3926
-8.7473 -0.2153 2.3926
-8.7408 -0.5248 2.3926
-8.7210 -0.8339 2.3926
-8.6879 -1.1419 2.3926
-8.6416 -1.4483 2.3926
-8.5822 -1.7523 2.3926
-8.5097 -2.0534 2.3926
-8.4245 -2.3509 2.3926
-8.3266 -2.6443 2.3926
-8.2163 -2.9330 2.3926
-8.0939 -3.2163 2.3926
-7.9598 -3.4938 2.3926
-7.8141 -3.7650 2.3926
-7.6573 -4.0292 2.3926
-7.4898 -4.2861 2.3926
-7.3120 -4.5351 2.3926
-7.1244 -4.7759 2.3926
-6.9273 -5.0081 2.3926
-6.7212 -5.2313 2.3926
-6.5067 -5.4451 2.3926
-6.2842 -5.6492 2.3926
-6.0543 -5.8434 2.3926
-5.8174 -6.0274 2.3926
-5.5741 -6.2010 2.3926
-5.3250 -6.3640 2.3926
-5.0705 -6.5163 2.3926
-4.8111 -6.6576 2.3926
-4.5475 -6.7880 2.3926
-4.2801 -6.9074 2.3926
-4.0095 -7.0157 2.3926
-3.7362 -7.1128 2.3926
-3.4606 -7.1989 2.3926
-3.1833 -7.2740 2.3926
-2.9048 -7.3380 2.3926
-2.6255 -7.3911 2.3926
-2.3459 -7.4334 2.3926
-2.0664 -7.4649 2.3926
-1.7875 -7.4859 2.3926
-1.5095 -7.4965 2.3926
-1.2330 -7.4968 2.3926
-0.9582 -7.4871 2.3926
-0.6855 -7.4674 2.3926
-0.4154 -7.4381 2.3926
-0.1480 -7.3993 2.3926
0.1162 -7.3513 2.3926
0.3769 -7.2942 2.3926
0.6339 -7.2284 2.3926
0.8869 -7.1540 2.3926
1.1357 -7.0713 2.3926
1.3799 -6.9806 2.3926
1.6194 -6.8821 2.3926
1.8540 -6.7760 2.3926
2.0834 -6.6627 2.3926
2.3075 -6.5424 2.3926
2.5261 -6.4152 2.3926
2.7390 -6.2816 2.3926
2.9461 -6.1417 2.3926
3.1473 -5.9958 2.3926
3.3424 -5.8441 2.3926
3.5313 -5.6870 2.3926
3.7140 -5.5246 2.3926
3.8903 -5.3571 2.3926
4.0601 -5.1849 2.3926
4.2233 -5.0082 2.3926
-8.0162 -0.6461 2.3926
-7.9908 -0.9290 2.3926
-7.9535 -1.2106 2.3926
-7.9042 -1.4904 2.3926
-7.8431 -1.7677 2.3926
-7.7703 -2.0421 2.3926
-7.6860 -2.3130 2.3926
-7.5904 -2.5799 2.3926
-7.4838 -2.8422 2.3926
-7.3662 -3.0995 2.3926
-7.2382 -3.3513 2.3926
-7.0999 -3.5971 2.3926
-6.9516 -3.8365 2.3926
-6.7938 -4.0691 2.3926
-6.6268 -4.2944 2.3926
-6.4510 -4.5121 2.3926
-6.2668 -4.7219 2.3926
-6.0747 -4.9234 2.3926
-5.8750 -5.1163 2.3926
-5.6682 -5.3004 2.3926
-5.4547 -5.4754 2.3926
-5.2351 -5.6410 2.3926
-5.0097 -5.7972 2.3926
-4.7792 -5.9437 2.3926
-4.5438 -6.0804 2.3926
-4.3042 -6.2071 2.3926
-4.0608 -6.3239 2.3926
-3.8139 -6.4306 2.3926
-3.5643 -6.5272 2.3926
-3.3121 -6.6137 2.3926
-3.0580 -6.6900 2.3926
-2.8024 -6.7563 2.3926
-2.5456 -6.8125 2.3926
-2.2882 -6.8587 2.3926
-2.0305 -6.8951 2.3926
-1.7730 -6.9216 2.3926
-1.5159 -6.9385 2.3926
-1.2598 -6.9458 2.3926
-1.0050 -6.9437 2.3926
-0.7517 -6.9324 2.3926
-0.5004 -6.9120 2.3926
-0.2514 -6.8827 2.3926
-0.0050 -6.8446 2.3926
0.2386 -6.7981 2.3926
0.4790 -6.7432 2.3926
0.7160 -6.6802 2.3926
0.9493 -6.6094 2.3926
1.1788 -6.5308 2.3926
1.4040 -6.4449 2.3926
1.6250 -6.3516 2.3926
1.8413 -6.2514 2.3926
2.0530 -6.1444 2.3926
2.2597 -6.0309 2.3926
2.4614 -5.9111 2.3926
2.6578 -5.7852 2.3926
2.8488 -5.6535 2.3926
3.0344 -5.5162 2.3926
3.2143 -5.3735 2.3926
3.3885 -5.2256 2.3926
3.5569 -5.0728 2.3926
3.7193 -4.9153 2.3926
3.8756 -4.7534 2.3926
4.0259 -4.5872 2.3926
4.1700 -4.4169 2.3926
4.3079 -4.2428 2.3926
4.4395 -4.0652 2.3926
4.5647 -3.8841 2.3926
4.6836 -3.6998 2.3926
4.7960 -3.5126 2.3926
4.9019 -3.3225 2.3926
5.0013 -3.1299 2.3926
5.0942 -2.9349 2.3926
5.1806 -2.7377 2.3926
5.2604 -2.5384 2.3926
5.3336 -2.3373 2.3926
5.4002 -2.1346 2.3926
5.4602 -1.9305 2.3926
5.5135 -1.7250 2.3926
5.5603 -1.5185 2.3926
5.6005 -1.3110 2.3926
5.6341 -1.1028 2.3926
5.6611 -0.8939 2.3926
5.6814 -0.6847 2.3926
5.6952 -0.4752 2.3926
5.7024 -0.2657 2.3926
5.7031 -0.0562 2.3926
5.6972 0.1530 2.3926
5.6848 0.3618 2.3926
5.6658 0.5701 2.3926
5.6404 0.7776 2.3926
5.6085 0.9841 2.3926
5.5702 1.1897 2.3926
5.5254 1.3940 2.3926
5.4742 1.5969 2.3926
5.4167 1.7983 2.3926
5.3528 1.9980 2.3926
5.2827 2.1958 2.3926
5.2063 2.3916 2.3926
5.1236 2.5851 2.3926
5.0348 2.7763 2.3926
4.9398 2.9650 2.3926
4.8387 3.1510 2.3926
4.7316 3.3342 2.3926
4.6185 3.5143 2.3926
4.4994 3.6912 2.3926
4.3744 3.8647 2.3926
4.2436 4.0347 2.3926
4.1070 4.2009 2.3926
3.9648 4.3633 2.3926
3.8169 4.5216 2.3926
3.6634 4.6756 2.3926
3.5046 4.8252 2.3926
3.3403 4.9701 2.3926
3.1708 5.1103 2.3926
2.9960 5.2455 2.3926
2.8163 5.3755 2.3926
2.6315 5.5001 2.3926
2.4420 5.6192 2.3926
2.2477 5.7325 2.3926
0.8677 2.4732 1.0132
0.7781 2.5049 1.0088
0.6875 2.5335 1.0042
0.5959 2.5587 0.9996
0.5034 2.5806 0.9948
0.4102 2.5991 0.9900
0.3164 2.6143 0.9852
0.2221 2.6261 0.9802
0.1274 2.6344 0.9753
0.0325 2.6393 0.9702
-0.0625 2.6408 0.9652
-0.1576 2.6388 0.9601
-0.2525 2.6333 0.9549
-0.3471 2.6245 0.9498
-0.4414 2.6122 0.9446
-0.5351 2.5965 0.9395
-0.6282 2.5775 0.9343
-0.7206 2.5550 0.9292
-0.8121 2.5293 0.9240
-0.9026 2.5002 0.9189
-2.5974 6.4616 2.3926
-2.8440 6.4040 2.3926
-3.0896 6.3372 2.3926
-3.3339 6.2609 2.3926
-3.5765 6.1752 2.3926
-3.8170 6.0801 2.3926
