ply
format ascii 1.0
element vertex 2176
property float32 x
property float32 y
property float32 z
end_header
5.5142 -3.1976 2.2481
5.6140 -2.9902 2.2485
5.7066 -2.7799 2.2489
5.7851 -2.5640 2.2466
5.8624 -2.3488 2.2468
5.9323 -2.1315 2.2469
5.9948 -1.9123 2.2471
6.0497 -1.6916 2.2473
6.0972 -1.4695 2.2475
6.1372 -1.2462 2.2476
6.1696 -1.0220 2.2478
6.1946 -0.7972 2.2480
6.2119 -0.5719 2.2482
6.2218 -0.3464 2.2484
6.2242 -0.1209 2.2486
6.2191 0.1043 2.2488
6.2061 0.3291 2.2489
6.1845 0.5530 2.2485
6.1555 0.7759 2.2482
6.1191 0.9975 2.2478
6.0746 1.2175 2.2471
5.3349 1.2718 1.9898
5.9624 1.6516 2.2452
5.8956 1.8655 2.2442
5.8238 2.0776 2.2440
5.7455 2.2874 2.2440
5.6603 2.4945 2.2440
5.5682 2.6987 2.2440
5.4693 2.8999 2.2440
5.3638 3.0977 2.2440
5.2517 3.2921 2.2440
5.1331 3.4827 2.2440
5.0081 3.6695 2.2440
4.8769 3.8521 2.2440
5.0614 4.3042 2.3964
4.9083 4.4899 2.3964
4.7488 4.6707 2.3964
4.5833 4.8462 2.3964
4.4117 5.0162 2.3964
4.2342 5.1807 2.3964
4.0511 5.3394 2.3964
3.8624 5.4922 2.3964
3.6684 5.6388 2.3964
3.4691 5.7791 2.3964
3.2649 5.9128 2.3965
3.0559 6.0397 2.3965
2.8422 6.1598 2.3965
2.6242 6.2729 2.3965
2.4019 6.3787 2.3965
0.9017 2.6845 0.9933
0.8047 2.7164 0.9911
0.7065 2.7447 0.9889
0.6074 2.7695 0.9867
0.5075 2.7907 0.9844
0.4068 2.8082 0.9820
0.3056 2.8221 0.9796
0.2039 2.8324 0.9771
0.1019 2.8389 0.9746
-0.0003 2.8418 0.9720
-0.1025 2.8410 0.9694
-0.2046 2.8365 0.9668
-0.3065 2.8283 0.9641
-0.4080 2.8165 0.9614
-0.5091 2.8009 0.9586
-0.6095 2.7818 0.9559
-0.7091 2.7590 0.9531
-0.8079 2.7326 0.9503
-0.9056 2.7027 0.9475
-2.5423 6.7713 2.3965
-2.7925 6.6977 2.3965
-3.0405 6.6150 2.3965
-3.2862 6.5231 2.3965
-3.5291 6.4222 2.3965
-3.7689 6.3122 2.3965
-4.0052 6.1933 2.3965
-4.2377 6.0655 2.3965
-4.4661 5.9289 2.3965
-4.6899 5.7836 2.3965
-4.9089 5.6298 2.3965
-5.1226 5.4676 2.3965
-5.3308 5.2972 2.3965
-5.5331 5.1187 2.3965
-5.7290 4.9324 2.3965
-5.9184 4.7384 2.3965
-6.1009 4.5370 2.3965
-6.2761 4.3284 2.3965
-6.4438 4.1128 2.3965
-6.6036 3.8906 2.3965
-6.7553 3.6620 2.3965
-6.8985 3.4273 2.3965
-7.0329 3.1869 2.3965
-7.1584 2.9411 2.3965
-7.2747 2.6901 2.3965
-7.3814 2.4345 2.3965
-7.4785 2.1745 2.3965
-7.5657 1.9105 2.3965
-7.6428 1.6429 2.3965
-7.7096 1.3722 2.3965
-7.7660 1.0987 2.3965
-7.8119 0.8229 2.3965
-7.8470 0.5452 2.3965
-7.8714 0.2660 2.3965
-7.8850 -0.0142 2.3965
-7.8877 -0.2949 2.3965
-7.8794 -0.5758 2.3965
-7.8602 -0.8564 2.3965
-7.8301 -1.1362 2.3965
-7.7890 -1.4147 2.3965
-7.7371 -1.6915 2.3965
-7.6743 -1.9661 2.3965
-7.6009 -2.2382 2.3965
-7.5169 -2.5072 2.3965
-7.4225 -2.7727 2.3965
-7.3177 -3.0343 2.3965
-7.2029 -3.2915 2.3965
-7.0781 -3.5440 2.3965
-6.9436 -3.7913 2.3965
-6.9123 -2.4224 2.3965
-6.8210 -2.6661 2.3965
-6.7204 -2.9062 2.3965
-6.6105 -3.1420 2.3965
-6.4916 -3.3734 2.3965
-6.3639 -3.5999 2.3965
-6.2276 -3.8211 2.3965
-6.0829 -4.0367 2.3965
-5.9301 -4.2465 2.3965
-5.7694 -4.4500 2.3965
-5.6011 -4.6470 2.3965
-5.4256 -4.8371 2.3965
-5.2430 -5.0202 2.3965
-5.0537 -5.1959 2.3965
-4.8581 -5.3639 2.3965
-4.6564 -5.5242 2.3965
-4.4491 -5.6763 2.3965
-4.2364 -5.8203 2.3965
-4.0187 -5.9558 2.3965
-3.7964 -6.0827 2.3965
-3.5699 -6.2008 2.3965
-3.3394 -6.3101 2.3965
-3.1054 -6.4104 2.3965
-2.8683 -6.5017 2.3965
-2.6284 -6.5837 2.3965
-2.3860 -6.6566 2.3965
-2.1417 -6.7202 2.3965
-1.8957 -6.7745 2.3965
-1.6484 -6.8194 2.3965
-1.4002 -6.8551 2.3965
-1.1514 -6.8815 2.3965
-0.9024 -6.8986 2.3965
-0.6536 -6.9066 2.3965
-0.4052 -6.9053 2.3965
-0.1577 -6.8950 2.3965
0.0886 -6.8757 2.3965
0.3334 -6.8475 2.3965
0.5763 -6.8105 2.3965
0.8171 -6.7648 2.3965
1.0555 -6.7107 2.3965
1.2911 -6.6481 2.3965
1.5237 -6.5773 2.3965
1.7529 -6.4984 2.3965
1.9786 -6.4115 2.3965
2.2004 -6.3170 2.3965
2.4181 -6.2149 2.3965
2.6315 -6.1054 2.3965
2.8403 -5.9888 2.3965
3.0443 -5.8652 2.3965
3.2432 -5.7349 2.3965
3.4370 -5.5980 2.3965
3.6253 -5.4548 2.3965
3.8080 -5.3056 2.3965
3.9347 -5.0855 2.3662
3.8916 -4.6723 2.2441
4.0461 -4.5166 2.2441
4.1950 -4.3565 2.2442
4.3384 -4.1922 2.2447
4.4757 -4.0234 2.2451
4.6069 -3.8503 2.2455
4.7317 -3.6732 2.2460
4.8502 -3.4923 2.2463
4.9621 -3.3078 2.2467
5.0674 -3.1199 2.2471
5.1660 -2.9289 2.2474
5.2579 -2.7350 2.2478
5.3429 -2.5384 2.2481
5.4211 -2.3394 2.2484
5.4923 -2.1381 2.2487
5.5554 -1.9347 2.2485
5.6093 -1.7286 2.2475
5.6592 -1.5222 2.2476
5.7021 -1.3146 2.2478
5.7379 -1.1059 2.2480
5.7667 -0.8964 2.2481
5.7884 -0.6863 2.2483
5.8031 -0.4758 2.2485
5.7311 -0.2615 2.2179
5.8112 -0.0545 2.2489
5.8043 0.1559 2.2489
5.7894 0.3657 2.2486
5.7676 0.5746 2.2482
5.7374 0.7824 2.2474
5.7007 0.9890 2.2466
5.4241 1.1448 2.1534
5.3181 1.3254 2.1295
5.5489 1.5986 2.2441
5.4870 1.7985 2.2441
5.4185 1.9962 2.2441
5.3434 2.1915 2.2441
5.2619 2.3843 2.2441
5.1739 2.5743 2.2441
5.0796 2.7613 2.2440
4.9790 2.9452 2.2440
4.8723 3.1257 2.2440
4.7596 3.3027 2.2440
4.6409 3.4759 2.2440
4.6951 3.7894 2.3328
4.6841 4.0692 2.3964
4.5390 4.2411 2.3964
4.3881 4.4082 2.3964
4.2315 4.5702 2.3964
4.0693 4.7273 2.3964
3.9017 4.8789 2.3964
3.7288 5.0250 2.3964
3.5508 5.1654 2.3965
3.3679 5.3001 2.3965
3.1802 5.4286 2.3965
2.9879 5.5509 2.3965
2.7912 5.6669 2.3965
2.5903 5.7763 2.3965
2.3854 5.8791 2.3965
0.9000 2.4706 0.9909
0.8106 2.5025 0.9890
0.7201 2.5311 0.9870
0.6287 2.5565 0.9849
0.5363 2.5785 0.9828
0.4433 2.5972 0.9807
0.3496 2.6126 0.9784
0.2554 2.6245 0.9762
0.1608 2.6331 0.9739
0.0660 2.6382 0.9715
-0.0289 2.6399 0.9691
-0.1239 2.6381 0.9667
-0.2187 2.6330 0.9642
-0.3133 2.6244 0.9617
-0.4075 2.6124 0.9592
-0.5012 2.5970 0.9567
-0.5943 2.5783 0.9541
-0.6867 2.5562 0.9515
-0.7782 2.5307 0.9489
-0.8687 2.5020 0.9463
-2.4332 6.2726 2.3965
-2.6646 6.2005 2.3965
-2.8939 6.1200 2.3965
-3.1207 6.0310 2.3965
-3.3448 5.9336 2.3965
-3.5659 5.8279 2.3965
-3.7835 5.7139 2.3965
-3.9975 5.5918 2.3965
-4.2073 5.4616 2.3965
-4.4128 5.3235 2.3965
-4.6137 5.1775 2.3965
-4.8095 5.0239 2.3965
-5.0000 4.8628 2.3965
-5.1848 4.6943 2.3965
-5.3637 4.5187 2.3965
-5.5364 4.3361 2.3965
-5.7025 4.1468 2.3965
-5.8618 3.9510 2.3965
-6.0140 3.7489 2.3965
-6.1588 3.5408 2.3965
-6.2959 3.3270 2.3965
-6.4252 3.1077 2.3965
-6.5462 2.8833 2.3965
-6.6589 2.6540 2.3965
-6.7630 2.4202 2.3965
-6.8583 2.1823 2.3965
-6.9445 1.9404 2.3965
-7.0216 1.6951 2.3965
-7.0893 1.4466 2.3965
-7.1476 1.1954 2.3965
-7.1962 0.9419 2.3965
-7.2350 0.6863 2.3965
-7.2641 0.4292 2.3965
-7.2832 0.1708 2.3965
-7.2923 -0.0883 2.3965
-7.2914 -0.3478 2.3965
-7.2805 -0.6072 2.3965
-7.2595 -0.8662 2.3965
-7.2284 -1.1243 2.3965
-7.1874 -1.3812 2.3965
-7.1364 -1.6363 2.3965
-7.0755 -1.8894 2.3965
-7.0048 -2.1399 2.3965
-6.9244 -2.3875 2.3965
-6.8345 -2.6318 2.3965
-6.7352 -2.8723 2.3965
-6.6267 -3.1088 2.3965
-6.5091 -3.3408 2.3965
-6.3826 -3.5680 2.3965
-6.2475 -3.7900 2.3965
-6.1040 -4.0065 2.3965
-5.9523 -4.2171 2.3965
-5.7927 -4.4215 2.3965
-5.6255 -4.6194 2.3965
-5.4509 -4.8105 2.3965
-5.2693 -4.9946 2.3965
-5.0810 -5.1714 2.3965
-4.8862 -5.3405 2.3965
-4.6854 -5.5019 2.3965
-4.4789 -5.6552 2.3965
-4.2669 -5.8003 2.3965
-4.0499 -5.9371 2.3965
-3.8283 -6.0652 2.3965
-3.6023 -6.1846 2.3965
-3.3724 -6.2952 2.3965
-3.1389 -6.3967 2.3965
-2.9021 -6.4893 2.3965
-2.6626 -6.5726 2.3965
-2.4206 -6.6468 2.3965
-2.1765 -6.7117 2.3965
-1.9307 -6.7673 2.3965
-1.6835 -6.8136 2.3965
-1.4354 -6.8506 2.3965
-1.1867 -6.8783 2.3965
-0.9377 -6.8968 2.3965
-0.6889 -6.9060 2.3965
-0.4404 -6.9061 2.3965
-0.1928 -6.8970 2.3965
0.0537 -6.8789 2.3965
0.2987 -6.8520 2.3965
0.5419 -6.8163 2.3965
0.7831 -6.7718 2.3965
1.0218 -6.7189 2.3965
1.2578 -6.6575 2.3965
1.4909 -6.5878 2.3965
1.7206 -6.5100 2.3965
1.9468 -6.4243 2.3965
2.1692 -6.3309 2.3965
2.3875 -6.2298 2.3965
2.6015 -6.1214 2.3965
2.8109 -6.0058 2.3965
3.0156 -5.8832 2.3965
3.2153 -5.7538 2.3965
3.4098 -5.6179 2.3965
3.5989 -5.4756 2.3965
3.7824 -5.3271 2.3965
3.9439 -5.1515 2.3866
3.8869 -4.7154 2.2543
4.0245 -4.5390 2.2441
4.1741 -4.3795 2.2442
4.3184 -4.2158 2.2446
4.4566 -4.0476 2.2451
4.5887 -3.8752 2.2455
4.7144 -3.6986 2.2459
4.8337 -3.5182 2.2463
4.9466 -3.3342 2.2467
5.0528 -3.1468 2.2470
5.1524 -2.9562 2.2474
5.2452 -2.7627 2.2477
5.3312 -2.5665 2.2481
5.4104 -2.3678 2.2484
5.4826 -2.1668 2.2487
5.5478 -1.9639 2.2489
5.6016 -1.7578 2.2474
5.6525 -1.5516 2.2476
5.6964 -1.3441 2.2478
5.7333 -1.1356 2.2479
5.7630 -0.9262 2.2481
5.7858 -0.7161 2.2483
5.8014 -0.5057 2.2485
5.7152 -0.2902 2.2120
5.8116 -0.0844 2.2489
5.8058 0.1260 2.2490
5.7920 0.3359 2.2486
5.7711 0.5450 2.2483
5.7422 0.7530 2.2475
5.7063 0.9597 2.2467
5.6635 1.1650 2.2459
5.3220 1.2973 2.1283
5.5572 1.5700 2.2441
5.4962 1.7702 2.2441
5.4287 1.9683 2.2441
5.3545 2.1640 2.2441
5.2738 2.3571 2.2441
5.1868 2.5475 2.2441
5.0934 2.7350 2.2440
4.9937 2.9193 2.2440
4.8879 3.1003 2.2440
4.7760 3.2778 2.2440
4.6581 3.4516 2.2440
4.5527 3.6360 2.2531
4.7042 4.0444 2.3964
4.5600 4.2169 2.3964
4.4099 4.3847 2.3964
4.2541 4.5476 2.3964
4.0926 4.7053 2.3964
3.9258 4.8577 2.3964
3.7537 5.0046 2.3964
3.5764 5.1459 2.3964
3.3941 5.2814 2.3965
3.2071 5.4107 2.3965
3.0155 5.5340 2.3965
2.8194 5.6508 2.3965
2.6191 5.7612 2.3965
2.4147 5.8649 2.3965
2.2065 5.9618 2.3965
0.8234 2.4982 0.9893
0.7331 2.5273 0.9873
0.6417 2.5531 0.9852
0.5495 2.5756 0.9831
0.4565 2.5948 0.9810
0.3629 2.6106 0.9788
0.2688 2.6230 0.9765
0.1743 2.6321 0.9742
0.0795 2.6377 0.9718
-0.0155 2.6398 0.9695
-0.1104 2.6386 0.9670
-0.2053 2.6339 0.9646
-0.2999 2.6258 0.9621
-0.3942 2.6143 0.9596
-0.4880 2.5994 0.9570
-0.5812 2.5811 0.9545
-0.6736 2.5595 0.9519
-0.7653 2.5345 0.9493
-0.8559 2.5063 0.9467
-2.4002 6.2822 2.3965
-2.6318 6.2113 2.3965
-2.8614 6.1319 2.3965
-3.0887 6.0441 2.3965
-3.3132 5.9479 2.3965
-3.5347 5.8434 2.3965
-3.7528 5.7306 2.3965
-3.9673 5.6096 2.3965
-4.1778 5.4806 2.3965
-4.3839 5.3435 2.3965
-4.5855 5.1987 2.3965
-4.7820 5.0462 2.3965
-4.9733 4.8861 2.3965
-5.1589 4.7187 2.3965
-5.3387 4.5441 2.3965
-5.5123 4.3625 2.3965
-5.6794 4.1741 2.3965
-5.8396 3.9792 2.3965
-5.9928 3.7780 2.3965
-6.1387 3.5707 2.3965
-6.2769 3.3577 2.3965
-6.4073 3.1392 2.3965
-6.5295 2.9155 2.3965
-6.6434 2.6869 2.3965
-6.7487 2.4537 2.3965
-6.8453 2.2163 2.3965
-6.9328 1.9750 2.3965
-7.0112 1.7301 2.3965
-7.0803 1.4821 2.3965
-7.1399 1.2313 2.3965
-7.1899 0.9780 2.3965
-7.2301 0.7227 2.3965
-7.2606 0.4657 2.3965
-7.2811 0.2076 2.3965
-7.2916 -0.0515 2.3965
-7.2921 -0.3109 2.3965
-7.2826 -0.5704 2.3965
-7.2631 -0.8295 2.3965
-7.2334 -1.0878 2.3965
-7.1938 -1.3448 2.3965
-7.1442 -1.6002 2.3965
-7.0847 -1.8536 2.3965
-7.0154 -2.1045 2.3965
-6.9364 -2.3525 2.3965
-6.8479 -2.5973 2.3965
-6.7499 -2.8384 2.3965
-6.6426 -3.0755 2.3965
-6.5263 -3.3082 2.3965
-6.4011 -3.5361 2.3965
-6.2672 -3.7588 2.3965
-6.1249 -3.9761 2.3965
-5.9743 -4.1875 2.3965
-5.8158 -4.3929 2.3965
-5.6497 -4.5917 2.3965
-5.4761 -4.7838 2.3965
-5.2955 -4.9689 2.3965
-5.1081 -5.1467 2.3965
-4.9143 -5.3170 2.3965
-4.7143 -5.4795 2.3965
-4.5085 -5.6340 2.3965
-4.2973 -5.7803 2.3965
-4.0810 -5.9183 2.3965
-3.8600 -6.0475 2.3965
-3.6346 -6.1682 2.3965
-3.4052 -6.2800 2.3965
-3.1722 -6.3829 2.3965
-2.9359 -6.4767 2.3965
-2.6968 -6.5614 2.3965
-2.4551 -6.6368 2.3965
-2.2112 -6.7031 2.3965
-1.9657 -6.7600 2.3965
-1.7187 -6.8076 2.3965
-1.4707 -6.8459 2.3965
-1.2220 -6.8750 2.3965
-0.9731 -6.8947 2.3965
-0.7242 -6.9052 2.3965
-0.4757 -6.9066 2.3965
-0.2279 -6.8988 2.3965
0.0188 -6.8821 2.3965
0.2640 -6.8564 2.3965
0.5075 -6.8219 2.3965
0.7490 -6.7787 2.3965
0.9881 -6.7269 2.3965
1.2245 -6.6667 2.3965
1.4580 -6.5982 2.3965
1.6882 -6.5216 2.3965
1.9149 -6.4370 2.3965
2.1378 -6.3446 2.3965
2.3567 -6.2446 2.3965
2.5714 -6.1373 2.3965
2.7815 -6.0226 2.3965
2.9869 -5.9010 2.3965
3.1872 -5.7726 2.3965
3.3825 -5.6376 2.3965
3.5724 -5.4961 2.3965
3.7567 -5.3486 2.3965
3.9353 -5.1950 2.3965
3.8905 -4.7692 2.2696
4.0028 -4.5613 2.2441
4.1531 -4.4023 2.2441
4.2983 -4.2393 2.2446
4.4374 -4.0718 2.2450
4.5703 -3.8999 2.2454
4.6969 -3.7239 2.2458
4.8172 -3.5441 2.2462
4.9310 -3.3605 2.2466
5.0382 -3.1736 2.2470
5.1387 -2.9835 2.2473
5.2325 -2.7903 2.2477
5.3195 -2.5945 2.2480
5.3996 -2.3961 2.2483
5.4727 -2.1955 2.2486
5.5390 -1.9928 2.2489
5.5938 -1.7869 2.2474
5.6457 -1.5810 2.2476
5.6906 -1.3737 2.2478
5.7285 -1.1652 2.2479
5.7592 -0.9559 2.2481
5.7830 -0.7460 2.2483
5.7996 -0.5356 2.2485
5.8092 -0.3249 2.2486
5.8118 -0.1143 2.2488
5.8072 0.0962 2.2490
5.7944 0.3062 2.2487
5.7745 0.5154 2.2483
5.7469 0.7236 2.2477
5.7117 0.9305 2.2468
5.6700 1.1359 2.2460
5.3351 1.2715 2.1308
5.5653 1.5414 2.2441
5.5053 1.7419 2.2441
5.4386 1.9403 2.2441
5.3654 2.1363 2.2441
5.2857 2.3298 2.2441
5.1995 2.5206 2.2441
5.1070 2.7085 2.2440
5.0082 2.8933 2.2440
4.9033 3.0748 2.2440
4.7922 3.2528 2.2440
4.6752 3.4271 2.2440
4.5524 3.5976 2.2440
4.7242 4.0196 2.3964
4.5808 4.1927 2.3964
4.4315 4.3612 2.3964
4.2765 4.5247 2.3964
4.1159 4.6832 2.3964
3.9498 4.8364 2.3964
3.7784 4.9841 2.3964
3.6019 5.1262 2.3964
3.4203 5.2626 2.3965
3.2340 5.3927 2.3965
3.0430 5.5168 2.3965
2.8475 5.6346 2.3965
2.6477 5.7459 2.3965
2.4440 5.8506 2.3965
2.2363 5.9485 2.3965
0.8361 2.4938 0.9895
0.7459 2.5233 0.9876
0.6547 2.5496 0.9855
0.5626 2.5726 0.9834
0.4698 2.5923 0.9813
0.3762 2.6086 0.9791
0.2822 2.6215 0.9768
0.1877 2.6310 0.9745
0.0929 2.6371 0.9722
-0.0020 2.6397 0.9698
-0.0969 2.6390 0.9674
-0.1918 2.6348 0.9649
-0.2865 2.6272 0.9624
-0.3808 2.6162 0.9599
-0.4747 2.6017 0.9574
-0.5680 2.5839 0.9548
-0.6605 2.5628 0.9522
-0.7523 2.5383 0.9496
-0.8431 2.5105 0.9470
-0.9329 2.4795 0.9444
-2.5991 6.2219 2.3965
-2.8290 6.1437 2.3965
-3.0566 6.0571 2.3965
-3.2815 5.9621 2.3965
-3.5035 5.8587 2.3965
-3.7221 5.7471 2.3965
-3.9371 5.6273 2.3965
-4.1482 5.4994 2.3965
-4.3550 5.3635 2.3965
-4.5571 5.2197 2.3965
-4.7544 5.0683 2.3965
-4.9465 4.9093 2.3965
-5.1329 4.7429 2.3965
-5.3136 4.5693 2.3965
-5.4880 4.3887 2.3965
-5.6560 4.2012 2.3965
-5.8173 4.0073 2.3965
-5.9715 3.8069 2.3965
-6.1184 3.6005 2.3965
-6.2578 3.3883 2.3965
-6.3893 3.1705 2.3965
-6.5127 2.9476 2.3965
-6.6278 2.7196 2.3965
-6.7343 2.4871 2.3965
-6.8321 2.2502 2.3965
-6.9210 2.0095 2.3965
-7.0007 1.7651 2.3965
-7.0711 1.5175 2.3965
-7.1320 1.2670 2.3965
-7.1834 1.0141 2.3965
-7.2250 0.7591 2.3965
-7.2568 0.5023 2.3965
-7.2788 0.2443 2.3965
-7.2907 -0.0147 2.3965
-7.2927 -0.2741 2.3965
-7.2846 -0.5336 2.3965
-7.2664 -0.7927 2.3965
-7.2382 -1.0512 2.3965
-7.2000 -1.3084 2.3965
-7.1519 -1.5641 2.3965
-7.0938 -1.8177 2.3965
-7.0259 -2.0690 2.3965
-6.9482 -2.3175 2.3965
-6.8610 -2.5627 2.3965
-6.7644 -2.8044 2.3965
-6.6584 -3.0421 2.3965
-6.5434 -3.2754 2.3965
-6.4194 -3.5040 2.3965
-6.4194 -2.2496 2.3965
-6.3348 -2.4758 2.3965
-6.2415 -2.6986 2.3965
-6.1397 -2.9176 2.3965
-6.0295 -3.1324 2.3965
-5.9112 -3.3427 2.3965
-5.7850 -3.5482 2.3965
-5.6509 -3.7486 2.3965
-5.5094 -3.9435 2.3965
-5.3606 -4.1327 2.3965
-5.2048 -4.3159 2.3965
-5.0421 -4.4928 2.3965
-4.8730 -4.6632 2.3965
-4.6977 -4.8268 2.3965
-4.5165 -4.9834 2.3965
-4.3297 -5.1327 2.3965
-4.1375 -5.2747 2.3965
-3.9404 -5.4090 2.3965
-3.7386 -5.5356 2.3965
-3.5325 -5.6542 2.3965
-3.3224 -5.7648 2.3965
-3.1086 -5.8672 2.3965
-2.8915 -5.9613 2.3965
-2.6714 -6.0470 2.3965
-2.4487 -6.1243 2.3965
-2.2237 -6.1930 2.3965
-1.9967 -6.2531 2.3965
-1.7681 -6.3047 2.3965
-1.5383 -6.3476 2.3965
-1.3075 -6.3819 2.3965
-1.0761 -6.4075 2.3965
-0.8445 -6.4246 2.3965
-0.6129 -6.4331 2.3965
-0.3817 -6.4331 2.3965
-0.1512 -6.4246 2.3965
0.0783 -6.4078 2.3965
0.3064 -6.3827 2.3965
0.5330 -6.3494 2.3965
0.7576 -6.3080 2.3965
0.9800 -6.2586 2.3965
1.1999 -6.2014 2.3965
1.4171 -6.1365 2.3965
1.6313 -6.0640 2.3965
1.8421 -5.9841 2.3965
2.0495 -5.8970 2.3965
2.2531 -5.8027 2.3965
2.4527 -5.7016 2.3965
2.6481 -5.5937 2.3965
2.8391 -5.4792 2.3965
3.0255 -5.3583 2.3965
3.2070 -5.2315 2.3965
3.3836 -5.0986 2.3965
3.5549 -4.9599 2.3965
3.7209 -4.8157 2.3965
3.8414 -4.6181 2.3718
3.7947 -4.2415 2.2531
3.9243 -4.0806 2.2471
4.0531 -3.9214 2.2441
4.1822 -3.7641 2.2446
4.3054 -3.6027 2.2449
4.4228 -3.4375 2.2453
4.5341 -3.2687 2.2457
4.6394 -3.0964 2.2461
4.7385 -2.9209 2.2464
4.8314 -2.7425 2.2467
4.9179 -2.5613 2.2470
4.9980 -2.3775 2.2473
5.0717 -2.1914 2.2476
5.1389 -2.0032 2.2479
5.1995 -1.8131 2.2482
5.2535 -1.6213 2.2484
5.3010 -1.4281 2.2486
5.3417 -1.2335 2.2488
5.3749 -1.0380 2.2486
5.4012 -0.8413 2.2484
5.4219 -0.6444 2.2486
5.4360 -0.4472 2.2487
5.4434 -0.2497 2.2489
5.4440 -0.0523 2.2490
5.4370 0.1449 2.2487
5.4223 0.3415 2.2480
5.4009 0.5373 2.2472
5.3723 0.7319 2.2461
5.3364 0.9252 2.2446
5.2961 1.1174 2.2441
5.2508 1.3083 2.2441
5.1991 1.4976 2.2441
5.1410 1.6851 2.2441
5.0768 1.8704 2.2441
5.0064 2.0536 2.2441
4.9298 2.2343 2.2441
4.8472 2.4124 2.2441
4.7587 2.5877 2.2441
4.6643 2.7600 2.2441
4.5641 2.9291 2.2441
4.4582 3.0949 2.2441
4.3468 3.2571 2.2441
4.5171 3.6476 2.3964
4.3864 3.8127 2.3964
4.2502 3.9736 2.3964
4.1085 4.1299 2.3964
3.9614 4.2815 2.3964
3.8091 4.4282 2.3964
3.6517 4.5699 2.3965
3.4894 4.7065 2.3965
3.3223 4.8375 2.3965
3.1507 4.9631 2.3965
2.9745 5.0830 2.3965
2.7941 5.1970 2.3965
2.6096 5.3050 2.3965
2.4212 5.4068 2.3965
2.2291 5.5023 2.3965
0.8379 2.3041 0.9876
0.7545 2.3339 0.9857
0.6701 2.3606 0.9839
0.5848 2.3842 0.9820
0.4987 2.4048 0.9800
0.4118 2.4222 0.9780
0.3244 2.4365 0.9759
0.2366 2.4476 0.9738
0.1484 2.4556 0.9716
0.0599 2.4603 0.9695
-0.0286 2.4619 0.9672
-0.1172 2.4603 0.9649
-0.2057 2.4555 0.9626
-0.2939 2.4474 0.9603
-0.3818 2.4363 0.9580
-0.4692 2.4219 0.9556
-0.5560 2.4044 0.9532
-0.6422 2.3838 0.9508
-0.7275 2.3601 0.9484
-0.8120 2.3333 0.9459
-0.8954 2.3035 0.9435
-2.4897 5.7825 2.3965
-2.7031 5.7063 2.3965
-2.9141 5.6222 2.3965
-3.1225 5.5304 2.3965
-3.3280 5.4308 2.3965
-3.5302 5.3236 2.3965
-3.7289 5.2088 2.3965
-3.9238 5.0866 2.3965
-4.1145 4.9570 2.3965
-4.3008 4.8202 2.3965
-4.4824 4.6763 2.3965
-4.6590 4.5255 2.3965
-4.8302 4.3679 2.3965
-4.9959 4.2038 2.3965
-5.1557 4.0332 2.3965
-5.3094 3.8564 2.3965
-5.4568 3.6736 2.3965
-5.5974 3.4851 2.3965
-5.7312 3.2911 2.3965
-5.8579 3.0918 2.3965
-5.9772 2.8875 2.3965
-6.0889 2.6785 2.3965
-6.1928 2.4651 2.3965
-6.2887 2.2475 2.3965
-6.3764 2.0261 2.3965
-6.4558 1.8012 2.3965
-6.5267 1.5731 2.3965
-6.5889 1.3422 2.3965
-6.6423 1.1087 2.3965
-6.6869 0.8732 2.3965
-6.7223 0.6358 2.3965
-6.7488 0.3970 2.3965
-6.7660 0.1571 2.3965
-6.7740 -0.0834 2.3965
-6.7728 -0.3243 2.3965
-6.7622 -0.5651 2.3965
-6.7424 -0.8055 2.3965
-6.7134 -1.0450 2.3965
-6.6751 -1.2833 2.3965
-6.6276 -1.5201 2.3965
-6.5710 -1.7549 2.3965
-6.5053 -1.9874 2.3965
-6.4307 -2.2172 2.3965
-6.3473 -2.4439 2.3965
-6.2553 -2.6672 2.3965
-6.1546 -2.8867 2.3965
-6.0457 -3.1022 2.3965
-5.9285 -3.3131 2.3965
-5.8034 -3.5193 2.3965
-5.6704 -3.7205 2.3965
-5.5300 -3.9162 2.3965
-5.3822 -4.1062 2.3965
-5.2273 -4.2903 2.3965
-5.0656 -4.4681 2.3965
-4.8974 -4.6394 2.3965
-4.7230 -4.8040 2.3965
-4.5426 -4.9616 2.3965
-4.3565 -5.1120 2.3965
-4.1651 -5.2550 2.3965
-3.9687 -5.3904 2.3965
-3.7676 -5.5181 2.3965
-3.5620 -5.6379 2.3965
-3.3525 -5.7496 2.3965
-3.1392 -5.8532 2.3965
-2.9225 -5.9485 2.3965
-2.7028 -6.0354 2.3965
-2.4805 -6.1138 2.3965
-2.2558 -6.1838 2.3965
-2.0291 -6.2451 2.3965
-1.8007 -6.2979 2.3965
-1.5710 -6.3420 2.3965
-1.3403 -6.3775 2.3965
-1.1090 -6.4044 2.3965
-0.8774 -6.4227 2.3965
-0.6457 -6.4324 2.3965
-0.4145 -6.4336 2.3965
-0.1839 -6.4264 2.3965
0.0458 -6.4107 2.3965
0.2741 -6.3868 2.3965
0.5009 -6.3546 2.3965
0.7258 -6.3144 2.3965
0.9486 -6.2661 2.3965
1.1689 -6.2100 2.3965
1.3864 -6.1462 2.3965
1.6010 -6.0748 2.3965
1.8124 -5.9959 2.3965
2.0203 -5.9098 2.3965
2.2244 -5.8165 2.3965
2.4246 -5.7163 2.3965
2.6207 -5.6094 2.3965
2.8123 -5.4959 2.3965
2.9993 -5.3760 2.3965
3.1816 -5.2499 2.3965
3.3588 -5.1178 2.3965
3.5309 -4.9799 2.3965
3.6977 -4.8365 2.3965
3.8493 -4.6760 2.3905
3.7960 -4.2868 2.2660
3.8996 -4.0966 2.2441
4.0344 -3.9434 2.2441
4.1642 -3.7867 2.2445
4.2883 -3.6259 2.2449
4.4065 -3.4612 2.2453
4.5187 -3.2928 2.2456
4.6248 -3.1210 2.2460
4.7248 -2.9460 2.2464
4.8186 -2.7680 2.2467
4.9060 -2.5872 2.2470
4.9870 -2.4038 2.2473
5.0616 -2.2180 2.2476
5.1297 -2.0301 2.2479
5.1913 -1.8402 2.2481
5.2463 -1.6486 2.2484
5.2946 -1.4556 2.2486
5.3363 -1.2612 2.2488
5.3713 -1.0658 2.2490
5.3977 -0.8692 2.2484
5.4194 -0.6724 2.2485
5.4344 -0.4752 2.2487
5.4428 -0.2777 2.2489
5.4445 -0.0803 2.2491
5.4384 0.1169 2.2488
5.4248 0.3136 2.2480
5.4044 0.5095 2.2473
5.3768 0.7044 2.2462
5.3420 0.8979 2.2449
5.3020 1.0902 2.2441
5.2576 1.2813 2.2441
5.2068 1.4709 2.2441
5.1497 1.6586 2.2441
5.0863 1.8442 2.2441
5.0167 2.0277 2.2441
4.9410 2.2088 2.2441
4.8593 2.3873 2.2441
4.7716 2.5630 2.2441
4.6780 2.7357 2.2441
4.5787 2.9053 2.2441
4.4736 3.0715 2.2441
4.3629 3.2343 2.2441
4.4124 3.5257 2.3316
4.4053 3.7895 2.3964
4.2699 3.9510 2.3964
4.1289 4.1079 2.3964
3.9826 4.2602 2.3964
3.8310 4.4077 2.3964
3.6744 4.5502 2.3965
3.5128 4.6873 2.3965
3.3463 4.8193 2.3965
3.1753 4.9456 2.3965
2.9998 5.0663 2.3965
2.8200 5.1812 2.3965
2.6361 5.2900 2.3965
2.4482 5.3927 2.3965
2.2566 5.4891 2.3965
0.8497 2.2997 0.9878
0.7665 2.3298 0.9860
0.6822 2.3570 0.9842
0.5970 2.3810 0.9823
0.5109 2.4020 0.9803
0.4242 2.4199 0.9783
0.3369 2.4346 0.9762
0.2491 2.4462 0.9741
0.1609 2.4546 0.9720
0.0725 2.4598 0.9698
-0.0161 2.4619 0.9675
-0.1046 2.4607 0.9653
-0.1931 2.4563 0.9630
-0.2814 2.4488 0.9607
-0.3693 2.4380 0.9583
-0.4568 2.4241 0.9559
-0.5437 2.4071 0.9535
-0.6300 2.3869 0.9511
-0.7155 2.3636 0.9487
-0.8000 2.3373 0.9463
-0.8836 2.3079 0.9438
-2.4592 5.7927 2.3965
-2.6729 5.7176 2.3965
-2.8843 5.6346 2.3965
-3.0931 5.5439 2.3965
-3.2990 5.4454 2.3965
-3.5017 5.3393 2.3965
-3.7010 5.2256 2.3965
-3.8964 5.1044 2.3965
-4.0877 4.9759 2.3965
-4.2746 4.8401 2.3965
-4.4569 4.6972 2.3965
-4.6342 4.5474 2.3965
-4.8062 4.3907 2.3965
-4.9727 4.2275 2.3965
-5.1334 4.0578 2.3965
-5.2880 3.8819 2.3965
-5.4362 3.6999 2.3965
-5.5779 3.5122 2.3965
-5.7127 3.3190 2.3965
-5.8403 3.1204 2.3965
-5.9607 2.9168 2.3965
-6.0735 2.7085 2.3965
-6.1785 2.4956 2.3965
-6.2756 2.2786 2.3965
-6.3645 2.0577 2.3965
-6.4451 1.8333 2.3965
-6.5172 1.6057 2.3965
-6.5806 1.3751 2.3965
-6.6353 1.1420 2.3965
-6.6810 0.9068 2.3965
-6.7178 0.6696 2.3965
-6.7456 0.4310 2.3965
-6.7641 0.1912 2.3965
-6.7735 -0.0492 2.3965
-6.7735 -0.2901 2.3965
-6.7643 -0.5309 2.3965
-6.7458 -0.7714 2.3965
-6.7181 -1.0111 2.3965
-6.6811 -1.2496 2.3965
-6.6349 -1.4866 2.3965
-6.5796 -1.7217 2.3965
-6.5152 -1.9545 2.3965
-6.4419 -2.1847 2.3965
-6.3597 -2.4119 2.3965
-6.2689 -2.6357 2.3965
-6.1694 -2.8558 2.3965
-6.0616 -3.0718 2.3965
-5.9456 -3.2835 2.3965
-5.8216 -3.4904 2.3965
-5.6898 -3.6922 2.3965
-5.5503 -3.8887 2.3965
-5.4036 -4.0796 2.3965
-5.2497 -4.2645 2.3965
-5.0890 -4.4432 2.3965
-4.9217 -4.6155 2.3965
-4.7481 -4.7810 2.3965
-4.5686 -4.9396 2.3965
-4.3833 -5.0910 2.3965
-4.1927 -5.2349 2.3965
-3.9969 -5.3717 2.3965
-3.7964 -5.5004 2.3965
-3.5915 -5.6214 2.3965
-3.3825 -5.7342 2.3965
-3.1697 -5.8390 2.3965
-2.9535 -5.9355 2.3965
-2.7343 -6.0235 2.3965
-2.5122 -6.1032 2.3965
-2.2878 -6.1744 2.3965
-2.0613 -6.2369 2.3965
-1.8332 -6.2909 2.3965
-1.6037 -6.3363 2.3965
-1.3731 -6.3730 2.3965
-1.1419 -6.4011 2.3965
-0.9102 -6.4206 2.3965
-0.6786 -6.4316 2.3965
-0.4473 -6.4340 2.3965
-0.2165 -6.4279 2.3965
0.0133 -6.4134 2.3965
0.2418 -6.3907 2.3965
0.4688 -6.3597 2.3965
0.6940 -6.3206 2.3965
0.9171 -6.2735 2.3965
1.1377 -6.2185 2.3965
1.3557 -6.1557 2.3965
1.5708 -6.0854 2.3965
1.7826 -6.0075 2.3965
1.9910 -5.9224 2.3965
2.1957 -5.8302 2.3965
2.3965 -5.7310 2.3965
2.5931 -5.6250 2.3965
2.7854 -5.5124 2.3965
2.9730 -5.3934 2.3965
3.1560 -5.2682 2.3965
3.3339 -5.1369 2.3965
3.5068 -4.9999 2.3965
3.6743 -4.8572 2.3965
3.8364 -4.7091 2.3965
3.8032 -4.3396 2.2827
3.8800 -4.1180 2.2441
4.0155 -3.9654 2.2441
4.1461 -3.8092 2.2444
4.2710 -3.6489 2.2448
4.3900 -3.4848 2.2452
4.5031 -3.3170 2.2456
4.6101 -3.1456 2.2460
4.7110 -2.9711 2.2463
4.8056 -2.7935 2.2466
4.8940 -2.6130 2.2470
4.9759 -2.4299 2.2473
5.0514 -2.2445 2.2476
5.1205 -2.0569 2.2478
5.1830 -1.8673 2.2481
5.2389 -1.6759 2.2483
5.2882 -1.4831 2.2486
5.3308 -1.2889 2.2488
5.3668 -1.0936 2.2490
5.3941 -0.8971 2.2483
5.4167 -0.7004 2.2485
5.4327 -0.5032 2.2487
5.4420 -0.3058 2.2489
5.4446 -0.1083 2.2490
5.4397 0.0890 2.2488
5.4271 0.2857 2.2481
5.4078 0.4818 2.2474
5.3811 0.6768 2.2464
5.3474 0.8705 2.2451
5.3078 1.0629 2.2441
5.2643 1.2543 2.2441
5.2144 1.4440 2.2441
5.1582 1.6320 2.2441
5.0957 1.8180 2.2441
5.0270 2.0018 2.2441
4.9522 2.1832 2.2441
4.8713 2.3621 2.2441
4.7844 2.5382 2.2441
4.6917 2.7113 2.2441
4.5931 2.8814 2.2441
4.4889 3.0481 2.2441
4.3790 3.2114 2.2441
4.3256 3.4200 2.2767
4.4241 3.7663 2.3964
4.2895 3.9283 2.3964
4.1493 4.0860 2.3964
4.0037 4.2389 2.3964
3.8529 4.3871 2.3964
3.6969 4.5302 2.3965
3.5360 4.6682 2.3965
3.3703 4.8009 2.3965
3.1999 4.9280 2.3965
3.0250 5.0495 2.3965
2.8458 5.1652 2.3965
2.6624 5.2749 2.3965
2.4751 5.3785 2.3965
2.2840 5.4758 2.3965
0.8614 2.2952 0.9881
0.7783 2.3257 0.9863
0.6942 2.3533 0.9844
0.6091 2.3778 0.9825
0.5232 2.3992 0.9806
0.4366 2.4176 0.9786
0.3493 2.4327 0.9765
0.2616 2.4448 0.9744
0.1734 2.4536 0.9723
0.0851 2.4593 0.9701
-0.0035 2.4618 0.9679
-0.0921 2.4611 0.9656
-0.1806 2.4571 0.9633
-0.2689 2.4500 0.9610
-0.3568 2.4398 0.9586
-0.4444 2.4263 0.9563
-0.5314 2.4097 0.9539
-0.6178 2.3900 0.9515
-0.7034 2.3671 0.9491
-0.7881 2.3412 0.9466
-0.8718 2.3123 0.9442
-2.4287 5.8027 2.3965
-2.6427 5.7287 2.3965
-2.8545 5.6469 2.3965
-3.0636 5.5573 2.3965
-3.2700 5.4599 2.3965
-3.4732 5.3548 2.3965
-3.6729 5.2422 2.3965
-3.8689 5.1221 2.3965
-4.0608 4.9946 2.3965
-4.2484 4.8598 2.3965
-4.4313 4.7179 2.3965
-4.6093 4.5690 2.3965
-4.7821 4.4134 2.3965
-4.9494 4.2510 2.3965
-5.1110 4.0823 2.3965
-5.2664 3.9072 2.3965
-5.4156 3.7261 2.3965
-5.5582 3.5392 2.3965
-5.6940 3.3467 2.3965
-5.8227 3.1489 2.3965
-5.9441 2.9460 2.3965
-6.0579 2.7383 2.3965
-6.1641 2.5261 2.3965
-6.2623 2.3097 2.3965
-6.3524 2.0893 2.3965
-6.4341 1.8654 2.3965
-6.5074 1.6382 2.3965
-6.5721 1.4080 2.3965
-6.6281 1.1753 2.3965
-6.6751 0.9402 2.3965
-6.7132 0.7034 2.3965
-6.7422 0.4649 2.3965
-6.7620 0.2253 2.3965
-6.7727 -0.0151 2.3965
-6.7741 -0.2559 2.3965
-6.7662 -0.4968 2.3965
-6.7490 -0.7373 2.3965
-6.7226 -0.9771 2.3965
-6.6869 -1.2158 2.3965
-6.6420 -1.4531 2.3965
-6.5880 -1.6885 2.3965
-6.5249 -1.9216 2.3965
-6.4528 -2.1522 2.3965
-6.3719 -2.3798 2.3965
-6.2823 -2.6042 2.3965
-6.1841 -2.8248 2.3965
-6.0775 -3.0414 2.3965
-5.9626 -3.2537 2.3965
-5.9858 -2.0975 2.3965
-5.9070 -2.3084 2.3965
-5.8201 -2.5160 2.3965
-5.7254 -2.7201 2.3965
-5.6229 -2.9203 2.3965
-5.5128 -3.1164 2.3965
-5.3954 -3.3081 2.3965
-5.2707 -3.4950 2.3965
-5.1391 -3.6768 2.3965
-5.0007 -3.8534 2.3965
-4.8557 -4.0244 2.3965
-4.7045 -4.1896 2.3965
-4.5472 -4.3487 2.3965
-4.3841 -4.5016 2.3965
-4.2155 -4.6480 2.3965
-4.0417 -4.7878 2.3965
-3.8629 -4.9206 2.3965
-3.6794 -5.0464 2.3965
-3.4916 -5.1650 2.3965
-3.2997 -5.2763 2.3965
-3.1041 -5.3801 2.3965
-2.9049 -5.4763 2.3965
-2.7027 -5.5648 2.3965
-2.4976 -5.6456 2.3965
-2.2900 -5.7185 2.3965
-2.0802 -5.7834 2.3965
-1.8686 -5.8404 2.3965
-1.6554 -5.8893 2.3965
-1.4409 -5.9303 2.3965
-1.2255 -5.9632 2.3965
-1.0095 -5.9881 2.3965
-0.7932 -6.0050 2.3965
-0.5769 -6.0139 2.3965
-0.3608 -6.0148 2.3965
-0.1454 -6.0079 2.3965
0.0692 -5.9931 2.3965
0.2826 -5.9706 2.3965
0.4945 -5.9404 2.3965
0.7047 -5.9026 2.3965
0.9130 -5.8574 2.3965
1.1189 -5.8048 2.3965
1.3224 -5.7450 2.3965
1.5231 -5.6781 2.3965
1.7208 -5.6042 2.3965
1.9153 -5.5235 2.3965
2.1063 -5.4361 2.3965
2.2937 -5.3422 2.3965
2.4771 -5.2420 2.3965
2.6565 -5.1356 2.3965
2.8316 -5.0232 2.3965
3.0022 -4.9049 2.3965
3.1681 -4.7811 2.3965
3.3293 -4.6518 2.3965
3.4854 -4.5172 2.3965
3.6364 -4.3776 2.3965
3.7583 -4.2064 2.3813
3.7123 -3.8652 2.2681
3.7992 -3.6804 2.2441
3.9201 -3.5327 2.2441
4.0362 -3.3816 2.2444
4.1468 -3.2270 2.2448
4.2518 -3.0689 2.2451
4.3511 -2.9075 2.2455
4.4446 -2.7431 2.2458
4.5322 -2.5759 2.2461
4.6139 -2.4060 2.2464
4.6896 -2.2336 2.2467
4.7592 -2.0591 2.2469
4.8227 -1.8825 2.2472
4.8801 -1.7041 2.2474
4.9312 -1.5241 2.2477
4.9761 -1.3427 2.2479
5.0148 -1.1600 2.2481
5.0472 -0.9764 2.2483
5.0732 -0.7919 2.2484
5.0930 -0.6069 2.2486
5.1064 -0.4215 2.2487
5.1136 -0.2359 2.2489
5.1032 -0.0502 2.2441
5.0976 0.1348 2.2441
5.0857 0.3194 2.2441
5.0676 0.5033 2.2441
5.0433 0.6864 2.2441
5.0129 0.8686 2.2441
4.9764 1.0495 2.2441
4.9338 1.2291 2.2441
4.8852 1.4071 2.2441
4.8307 1.5833 2.2441
4.7703 1.7576 2.2441
4.7040 1.9298 2.2441
4.6320 2.0997 2.2441
4.5542 2.2671 2.2441
4.4709 2.4319 2.2441
4.3820 2.5938 2.2441
4.2876 2.7528 2.2441
4.1879 2.9085 2.2441
4.0830 3.0609 2.2441
4.2427 3.4278 2.3964
4.1196 3.5828 2.3964
3.9913 3.7338 2.3964
3.8579 3.8804 2.3965
3.7194 4.0228 2.3965
3.5760 4.1603 2.3965
3.4278 4.2932 2.3965
3.2750 4.4211 2.3965
3.1178 4.5439 2.3965
2.9562 4.6615 2.3965
2.7905 4.7736 2.3965
2.6207 4.8802 2.3965
2.4472 4.9811 2.3965
2.2700 5.0762 2.3965
0.8598 2.1257 0.9862
0.7828 2.1563 0.9846
0.7047 2.1841 0.9829
0.6257 2.2090 0.9811
0.5458 2.2312 0.9793
0.4652 2.2504 0.9775
0.3839 2.2667 0.9756
0.3021 2.2800 0.9737
0.2199 2.2905 0.9717
0.1373 2.2979 0.9697
0.0545 2.3023 0.9676
-0.0284 2.3038 0.9655
-0.1113 2.3023 0.9634
-0.1941 2.2978 0.9613
-0.2766 2.2903 0.9591
-0.3589 2.2798 0.9569
-0.4407 2.2664 0.9546
-0.5220 2.2500 0.9524
-0.6026 2.2307 0.9501
-0.6825 2.2085 0.9479
-0.7615 2.1834 0.9456
-0.8396 2.1555 0.9433
-0.9166 2.1248 0.9410
-2.5337 5.3389 2.3965
-2.7307 5.2594 2.3965
-2.9253 5.1726 2.3965
-3.1170 5.0786 2.3965
-3.3056 4.9775 2.3965
-3.4909 4.8694 2.3965
-3.6725 4.7543 2.3965
-3.8502 4.6324 2.3965
-4.0238 4.5038 2.3965
-4.1928 4.3687 2.3965
-4.3572 4.2271 2.3965
-4.5165 4.0792 2.3965
-4.6706 3.9252 2.3965
-4.8192 3.7653 2.3965
-4.9620 3.5997 2.3965
-5.0989 3.4286 2.3965
-5.2295 3.2521 2.3965
-5.3537 3.0705 2.3965
-5.4712 2.8841 2.3965
-5.5818 2.6931 2.3965
-5.6853 2.4978 2.3965
-5.7816 2.2984 2.3965
-5.8704 2.0951 2.3965
-5.9516 1.8884 2.3965
-6.0250 1.6785 2.3965
-6.0905 1.4656 2.3965
-6.1479 1.2501 2.3965
-6.1972 1.0324 2.3965
-6.2382 0.8126 2.3965
-6.2708 0.5913 2.3965
-6.2950 0.3687 2.3965
-6.3107 0.1451 2.3965
-6.3178 -0.0791 2.3965
-6.3163 -0.3036 2.3965
-6.3062 -0.5280 2.3965
-6.2875 -0.7520 2.3965
-6.2602 -0.9752 2.3965
-6.2243 -1.1973 2.3965
-6.1799 -1.4179 2.3965
-6.1271 -1.6366 2.3965
-6.0659 -1.8532 2.3965
-5.9964 -2.0673 2.3965
-5.9187 -2.2786 2.3965
-5.8330 -2.4867 2.3965
-5.7393 -2.6914 2.3965
-5.6379 -2.8922 2.3965
-5.5289 -3.0889 2.3965
-5.4125 -3.2811 2.3965
-5.2889 -3.4687 2.3965
-5.1582 -3.6513 2.3965
-5.0207 -3.8286 2.3965
-4.8767 -4.0005 2.3965
-4.7263 -4.1665 2.3965
-4.5699 -4.3265 2.3965
-4.4076 -4.4803 2.3965
-4.2398 -4.6276 2.3965
-4.0667 -4.7683 2.3965
-3.8886 -4.9022 2.3965
-3.7058 -5.0290 2.3965
-3.5185 -5.1486 2.3965
-3.3272 -5.2610 2.3965
-3.1321 -5.3658 2.3965
-2.9334 -5.4631 2.3965
-2.7316 -5.5527 2.3965
-2.5269 -5.6346 2.3965
-2.3196 -5.7086 2.3965
-2.1102 -5.7747 2.3965
-1.8987 -5.8328 2.3965
-1.6857 -5.8829 2.3965
-1.4714 -5.9250 2.3965
-1.2561 -5.9590 2.3965
-1.0402 -5.9851 2.3965
-0.8239 -6.0031 2.3965
-0.6076 -6.0131 2.3965
-0.3915 -6.0151 2.3965
-0.1759 -6.0093 2.3965
0.0388 -5.9957 2.3965
0.2524 -5.9742 2.3965
0.4645 -5.9451 2.3965
0.6750 -5.9084 2.3965
0.8835 -5.8643 2.3965
1.0898 -5.8127 2.3965
1.2937 -5.7539 2.3965
1.4948 -5.6880 2.3965
1.6930 -5.6151 2.3965
1.8879 -5.5353 2.3965
2.0794 -5.4489 2.3965
2.2673 -5.3559 2.3965
2.4513 -5.2566 2.3965
2.6313 -5.1510 2.3965
2.8070 -5.0395 2.3965
2.9782 -4.9221 2.3965
3.1448 -4.7990 2.3965
3.3067 -4.6704 2.3965
3.4635 -4.5366 2.3965
3.6153 -4.3977 2.3965
3.7618 -4.2539 2.3965
3.7186 -3.9116 2.2833
3.7816 -3.7011 2.2441
3.9033 -3.5539 2.2441
4.0200 -3.4033 2.2444
4.1314 -3.2491 2.2447
4.2372 -3.0915 2.2451
4.3373 -2.9306 2.2454
4.4316 -2.7666 2.2457
4.5201 -2.5998 2.2460
4.6027 -2.4302 2.2463
4.6792 -2.2583 2.2466
4.7497 -2.0840 2.2469
4.8141 -1.9077 2.2472
4.8723 -1.7295 2.2474
4.9243 -1.5497 2.2476
4.9702 -1.3685 2.2479
5.0097 -1.1860 2.2481
5.0430 -1.0025 2.2482
5.0699 -0.8182 2.2484
5.0906 -0.6332 2.2486
5.1049 -0.4478 2.2487
5.1129 -0.2622 2.2488
5.1035 -0.0765 2.2441
5.0987 0.1086 2.2441
5.0877 0.2932 2.2441
5.0705 0.4772 2.2441
5.0471 0.6605 2.2441
5.0176 0.8428 2.2441
4.9819 1.0239 2.2441
4.9402 1.2037 2.2441
4.8925 1.3819 2.2441
4.8388 1.5584 2.2441
4.7792 1.7330 2.2441
4.7138 1.9055 2.2441
4.6425 2.0757 2.2441
4.5656 2.2435 2.2441
4.4831 2.4087 2.2441
4.3949 2.5710 2.2441
4.3014 2.7304 2.2441
4.2024 2.8866 2.2441
4.0982 3.0395 2.2441
4.2597 3.4054 2.3964
4.1374 3.5611 2.3964
4.0099 3.7126 2.3964
3.8771 3.8599 2.3964
3.7394 4.0027 2.3965
3.5966 4.1411 2.3965
3.4491 4.2746 2.3965
3.2970 4.4032 2.3965
3.1404 4.5268 2.3965
2.9794 4.6451 2.3965
2.8142 4.7580 2.3965
2.6451 4.8654 2.3965
2.4720 4.9672 2.3965
2.2953 5.0631 2.3965
0.8706 2.1211 0.9864
0.7938 2.1521 0.9848
0.7159 2.1803 0.9831
0.6370 2.2057 0.9814
0.5572 2.2282 0.9796
0.4767 2.2478 0.9778
0.3955 2.2645 0.9759
0.3138 2.2783 0.9740
0.2316 2.2892 0.9720
0.1491 2.2970 0.9700
0.0663 2.3019 0.9679
-0.0166 2.3038 0.9658
-0.0995 2.3027 0.9637
-0.1823 2.2986 0.9616
-0.2649 2.2915 0.9594
-0.3472 2.2815 0.9572
-0.4291 2.2684 0.9550
-0.5105 2.2525 0.9527
-0.5912 2.2336 0.9505
-0.6712 2.2118 0.9482
-0.7504 2.1872 0.9459
-0.8286 2.1597 0.9436
-0.9058 2.1294 0.9414
-2.5055 5.3496 2.3965
-2.7029 5.2711 2.3965
-2.8978 5.1854 2.3965
-3.0900 5.0924 2.3965
-3.2791 4.9923 2.3965
-3.4648 4.8852 2.3965
-3.6470 4.7711 2.3965
-3.8253 4.6502 2.3965
-3.9994 4.5225 2.3965
-4.1691 4.3883 2.3965
-4.3341 4.2476 2.3965
-4.4942 4.1006 2.3965
-4.6490 3.9475 2.3965
-4.7984 3.7884 2.3965
-4.9421 3.6236 2.3965
-5.0798 3.4532 2.3965
-5.2113 3.2775 2.3965
-5.3364 3.0966 2.3965
-5.4549 2.9109 2.3965
-5.5665 2.7205 2.3965
-5.6711 2.5258 2.3965
-5.7684 2.3269 2.3965
-5.8583 2.1242 2.3965
-5.9406 1.9180 2.3965
-6.0151 1.7084 2.3965
-6.0817 1.4960 2.3965
-6.1403 1.2809 2.3965
-6.1907 1.0634 2.3965
-6.2329 0.8440 2.3965
-6.2667 0.6228 2.3965
-6.2921 0.4003 2.3965
-6.3090 0.1768 2.3965
-6.3173 -0.0473 2.3965
-6.3170 -0.2718 2.3965
-6.3081 -0.4962 2.3965
-6.2906 -0.7202 2.3965
-6.2646 -0.9436 2.3965
-6.2299 -1.1658 2.3965
-6.1867 -1.3866 2.3965
-6.1351 -1.6057 2.3965
-6.0751 -1.8226 2.3965
-6.0067 -2.0371 2.3965
-5.9302 -2.2488 2.3965
-5.8456 -2.4574 2.3965
-5.7531 -2.6625 2.3965
-5.6528 -2.8639 2.3965
-5.5448 -3.0612 2.3965
-5.4295 -3.2541 2.3965
-5.3068 -3.4424 2.3965
-5.1772 -3.6257 2.3965
-5.0407 -3.8038 2.3965
-4.8975 -3.9764 2.3965
-4.7481 -4.1433 2.3965
-4.5925 -4.3042 2.3965
-4.4310 -4.4589 2.3965
-4.2639 -4.6071 2.3965
-4.0916 -4.7488 2.3965
-3.9141 -4.8836 2.3965
-3.7320 -5.0114 2.3965
-3.5454 -5.1321 2.3965
-3.3546 -5.2455 2.3965
-3.1600 -5.3514 2.3965
-2.9618 -5.4498 2.3965
-2.7604 -5.5405 2.3965
-2.5561 -5.6234 2.3965
-2.3492 -5.6986 2.3965
-2.1400 -5.7658 2.3965
-1.9289 -5.8250 2.3965
-1.7161 -5.8763 2.3965
-1.5019 -5.9195 2.3965
-1.2868 -5.9547 2.3965
-1.0709 -5.9818 2.3965
-0.8546 -6.0010 2.3965
-0.6383 -6.0121 2.3965
-0.4221 -6.0153 2.3965
-0.2065 -6.0106 2.3965
0.0084 -5.9981 2.3965
0.2221 -5.9777 2.3965
0.4345 -5.9497 2.3965
0.6452 -5.9141 2.3965
0.8541 -5.8710 2.3965
1.0607 -5.8205 2.3965
1.2649 -5.7627 2.3965
1.4664 -5.6978 2.3965
1.6650 -5.6259 2.3965
1.8604 -5.5471 2.3965
2.0524 -5.4616 2.3965
2.2408 -5.3695 2.3965
2.4254 -5.2711 2.3965
2.6060 -5.1664 2.3965
2.7823 -5.0557 2.3965
2.9542 -4.9391 2.3965
3.1215 -4.8168 2.3965
3.2840 -4.6890 2.3965
3.4416 -4.5559 2.3965
3.5941 -4.4177 2.3965
3.7413 -4.2746 2.3965
3.7250 -3.9586 2.2988
3.7639 -3.7217 2.2441
3.8863 -3.5750 2.2441
4.0038 -3.4249 2.2443
4.1159 -3.2712 2.2447
4.2225 -3.1141 2.2450
4.3235 -2.9536 2.2454
4.4186 -2.7901 2.2457
4.5079 -2.6236 2.2460
4.5913 -2.4545 2.2463
4.6687 -2.2828 2.2466
4.7401 -2.1089 2.2469
4.8053 -1.9329 2.2471
4.8644 -1.7549 2.2474
4.9173 -1.5754 2.2476
4.9640 -1.3943 2.2478
5.0045 -1.2120 2.2480
5.0386 -1.0286 2.2482
5.0665 -0.8444 2.2484
5.0880 -0.6595 2.2485
5.1033 -0.4742 2.2487
5.1122 -0.2886 2.2488
5.1037 -0.1027 2.2441
5.0998 0.0823 2.2441
5.0897 0.2670 2.2441
5.0733 0.4512 2.2441
5.0508 0.6345 2.2441
5.0222 0.8170 2.2441
4.9874 0.9983 2.2441
4.9465 1.1782 2.2441
4.8996 1.3567 2.2441
4.8468 1.5335 2.2441
4.7880 1.7084 2.2441
4.7234 1.8812 2.2441
4.6530 2.0517 2.2441
4.5769 2.2199 2.2441
4.4951 2.3854 2.2441
4.4078 2.5481 2.2441
4.3150 2.7079 2.2441
4.2168 2.8646 2.2441
4.1133 3.0180 2.2441
4.2419 3.3555 2.3770
4.1551 3.5392 2.3964
4.0283 3.6913 2.3964
3.8963 3.8392 2.3964
3.7592 3.9828 2.3965
3.6172 4.1217 2.3965
3.4704 4.2559 2.3965
3.3189 4.3853 2.3965
3.1629 4.5096 2.3965
3.0025 4.6286 2.3965
2.8379 4.7423 2.3965
2.6693 4.8505 2.3965
2.4968 4.9531 2.3965
2.3206 5.0498 2.3965
0.8814 2.1165 0.9866
0.8048 2.1478 0.9850
0.7270 2.1765 0.9834
0.6482 2.2022 0.9816
0.5686 2.2252 0.9799
0.4882 2.2452 0.9780
0.4071 2.2623 0.9762
0.3254 2.2766 0.9742
0.2433 2.2878 0.9723
0.1608 2.2961 0.9703
0.0781 2.3014 0.9682
-0.0048 2.3037 0.9661
-0.0877 2.3030 0.9640
-0.1706 2.2993 0.9619
-0.2532 2.2927 0.9597
-0.3356 2.2831 0.9575
-0.4175 2.2705 0.9553
-0.4990 2.2549 0.9530
-0.5798 2.2365 0.9508
-0.6599 2.2151 0.9485
-0.7392 2.1908 0.9463
-0.8176 2.1637 0.9440
-0.8949 2.1338 0.9417
-2.4773 5.3602 2.3965
-2.6750 5.2827 2.3965
-2.8703 5.1980 2.3965
-3.0629 5.1060 2.3965
-3.2524 5.0070 2.3965
-3.4386 4.9008 2.3965
-3.6213 4.7877 2.3965
-3.8002 4.6677 2.3965
-3.9749 4.5410 2.3965
-4.1453 4.4077 2.3965
-4.3110 4.2679 2.3965
-4.4718 4.1218 2.3965
-4.6274 3.9696 2.3965
-4.7775 3.8113 2.3965
-4.9221 3.6473 2.3965
-5.0606 3.4777 2.3965
-5.1930 3.3027 2.3965
-5.3191 3.1226 2.3965
-5.4385 2.9376 2.3965
-5.5511 2.7478 2.3965
-5.6567 2.5537 2.3965
-5.7550 2.3554 2.3965
-5.8460 2.1532 2.3965
-5.9293 1.9474 2.3965
-6.0050 1.7384 2.3965
-6.0728 1.5263 2.3965
-6.1325 1.3115 2.3965
-6.1841 1.0944 2.3965
-6.2274 0.8752 2.3965
-6.2625 0.6543 2.3965
-6.2890 0.4320 2.3965
-6.3071 0.2086 2.3965
-6.3166 -0.0154 2.3965
-6.3176 -0.2399 2.3965
-6.3099 -0.4643 2.3965
-6.2936 -0.6885 2.3965
-6.2688 -0.9119 2.3965
-6.2353 -1.1343 2.3965
-6.1934 -1.3554 2.3965
-6.1429 -1.5747 2.3965
-6.0841 -1.7920 2.3965
-6.0169 -2.0068 2.3965
-5.9416 -2.2189 2.3965
-5.8581 -2.4280 2.3965
-5.7667 -2.6336 2.3965
-5.6675 -2.8355 2.3965
-5.5606 -3.0334 2.3965
-5.6010 -1.9626 2.3965
-5.5273 -2.1598 2.3965
-5.4462 -2.3539 2.3965
-5.3577 -2.5448 2.3965
-5.2620 -2.7321 2.3965
-5.1592 -2.9156 2.3965
-5.0495 -3.0949 2.3965
-4.9332 -3.2698 2.3965
-4.8103 -3.4400 2.3965
-4.6811 -3.6053 2.3965
-4.5458 -3.7655 2.3965
-4.4046 -3.9203 2.3965
-4.2577 -4.0694 2.3965
-4.1055 -4.2127 2.3965
-3.9481 -4.3500 2.3965
-3.7857 -4.4811 2.3965
-3.6188 -4.6059 2.3965
-3.4474 -4.7240 2.3965
-3.2719 -4.8356 2.3965
-3.0926 -4.9402 2.3965
-2.9098 -5.0378 2.3965
-2.7237 -5.1285 2.3965
-2.5346 -5.2119 2.3965
-2.3428 -5.2881 2.3965
-2.1487 -5.3570 2.3965
-1.9525 -5.4185 2.3965
-1.7544 -5.4726 2.3965
-1.5549 -5.5192 2.3965
-1.3541 -5.5583 2.3965
-1.1524 -5.5899 2.3965
-0.9501 -5.6139 2.3965
-0.7474 -5.6305 2.3965
-0.5447 -5.6396 2.3965
-0.3422 -5.6413 2.3965
-0.1402 -5.6356 2.3965
0.0610 -5.6226 2.3965
0.2612 -5.6023 2.3965
0.4602 -5.5748 2.3965
0.6575 -5.5401 2.3965
0.8530 -5.4985 2.3965
1.0465 -5.4499 2.3965
1.2377 -5.3946 2.3965
1.4263 -5.3325 2.3965
1.6122 -5.2639 2.3965
1.7951 -5.1889 2.3965
1.9748 -5.1075 2.3965
2.1511 -5.0201 2.3965
2.3238 -4.9266 2.3965
2.4926 -4.8273 2.3965
2.6576 -4.7223 2.3965
2.8183 -4.6118 2.3965
2.9747 -4.4960 2.3965
3.1266 -4.3750 2.3965
3.2739 -4.2491 2.3965
3.4164 -4.1183 2.3965
3.5539 -3.9829 2.3965
3.6835 -3.8402 2.3946
3.6429 -3.5335 2.2892
3.6852 -3.3252 2.2441
3.7943 -3.1830 2.2441
3.8986 -3.0376 2.2443
3.9978 -2.8891 2.2446
4.0916 -2.7375 2.2449
4.1800 -2.5830 2.2452
4.2629 -2.4258 2.2455
4.3402 -2.2661 2.2458
4.4118 -2.1041 2.2461
4.4778 -1.9399 2.2463
4.5379 -1.7738 2.2466
4.5923 -1.6059 2.2468
4.6408 -1.4365 2.2470
4.6834 -1.2657 2.2472
4.7201 -1.0937 2.2474
4.7509 -0.9208 2.2476
4.7757 -0.7471 2.2477
4.7946 -0.5729 2.2479
4.8075 -0.3982 2.2480
4.8057 -0.2229 2.2441
4.8065 -0.0484 2.2441
4.8013 0.1260 2.2441
4.7903 0.2999 2.2441
4.7734 0.4733 2.2441
4.7506 0.6460 2.2441
4.7221 0.8177 2.2441
4.6877 0.9882 2.2441
4.6476 1.1575 2.2441
4.6019 1.3253 2.2441
4.5505 1.4915 2.2441
4.4935 1.6558 2.2441
4.4310 1.8181 2.2441
4.3631 1.9782 2.2441
4.2897 2.1360 2.2441
4.2111 2.2913 2.2441
4.1272 2.4439 2.2441
4.0381 2.5936 2.2441
3.9440 2.7403 2.2441
3.9482 2.9613 2.3043
3.9950 3.2294 2.3965
3.8789 3.3754 2.3965
3.7578 3.5175 2.3965
3.6318 3.6555 2.3965
3.5011 3.7893 2.3965
3.3657 3.9187 2.3965
3.2259 4.0436 2.3965
3.0817 4.1638 2.3965
2.9333 4.2792 2.3965
2.7809 4.3895 2.3965
2.6246 4.4948 2.3965
2.4645 4.5948 2.3965
2.3008 4.6894 2.3965
0.8769 1.9639 0.9849
0.8057 1.9952 0.9834
0.7334 2.0239 0.9819
0.6601 2.0500 0.9803
0.5859 2.0734 0.9787
0.5109 2.0942 0.9770
0.4353 2.1122 0.9753
0.3590 2.1275 0.9735
0.2822 2.1400 0.9717
0.2049 2.1498 0.9698
0.1274 2.1568 0.9679
0.0497 2.1609 0.9660
-0.0281 2.1623 0.9640
-0.1059 2.1609 0.9620
-0.1837 2.1566 0.9600
-0.2612 2.1496 0.9580
-0.3384 2.1397 0.9559
-0.4152 2.1271 0.9538
-0.4915 2.1118 0.9517
-0.5672 2.0936 0.9496
-0.6422 2.0728 0.9474
-0.7164 2.0493 0.9453
-0.7897 2.0231 0.9432
-0.8620 1.9943 0.9410
-0.9332 1.9629 0.9389
-2.5667 4.9348 2.3965
-2.7489 4.8527 2.3965
-2.9284 4.7638 2.3965
-3.1049 4.6682 2.3965
-3.2783 4.5661 2.3965
-3.4481 4.4576 2.3965
-3.6143 4.3426 2.3965
-3.7765 4.2214 2.3965
-3.9344 4.0941 2.3965
-4.0879 3.9608 2.3965
-4.2367 3.8217 2.3965
-4.3805 3.6769 2.3965
-4.5192 3.5266 2.3965
-4.6524 3.3710 2.3965
-4.7800 3.2102 2.3965
-4.9018 3.0446 2.3965
-5.0175 2.8742 2.3965
-5.1269 2.6993 2.3965
-5.2299 2.5202 2.3965
-5.3263 2.3370 2.3965
-5.4159 2.1501 2.3965
-5.4984 1.9596 2.3965
-5.5739 1.7660 2.3965
-5.6421 1.5693 2.3965
-5.7029 1.3700 2.3965
-5.7561 1.1683 2.3965
-5.8018 0.9645 2.3965
-5.8397 0.7589 2.3965
-5.8698 0.5518 2.3965
-5.8920 0.3435 2.3965
-5.9063 0.1344 2.3965
-5.9127 -0.0753 2.3965
-5.9110 -0.2853 2.3965
-5.9013 -0.4951 2.3965
-5.8836 -0.7045 2.3965
-5.8579 -0.9132 2.3965
-5.8242 -1.1209 2.3965
-5.7826 -1.3271 2.3965
-5.7331 -1.5317 2.3965
-5.6758 -1.7342 2.3965
-5.6109 -1.9344 2.3965
-5.5382 -2.1319 2.3965
-5.4582 -2.3266 2.3965
-5.3707 -2.5179 2.3965
-5.2760 -2.7058 2.3965
-5.1742 -2.8898 2.3965
-5.0655 -3.0697 2.3965
-4.9501 -3.2452 2.3965
-4.8281 -3.4161 2.3965
-4.6998 -3.5822 2.3965
-4.5654 -3.7431 2.3965
-4.4250 -3.8986 2.3965
-4.2789 -4.0486 2.3965
-4.1274 -4.1927 2.3965
-3.9707 -4.3309 2.3965
-3.8091 -4.4629 2.3965
-3.6427 -4.5885 2.3965
-3.4720 -4.7077 2.3965
-3.2971 -4.8201 2.3965
-3.1183 -4.9257 2.3965
-2.9359 -5.0244 2.3965
-2.7503 -5.1160 2.3965
-2.5616 -5.2005 2.3965
-2.3702 -5.2778 2.3965
-2.1764 -5.3477 2.3965
-1.9804 -5.4102 2.3965
-1.7826 -5.4654 2.3965
-1.5833 -5.5130 2.3965
-1.3827 -5.5532 2.3965
-1.1811 -5.5858 2.3965
-0.9789 -5.6110 2.3965
-0.7762 -5.6286 2.3965
-0.5735 -5.6388 2.3965
-0.3709 -5.6415 2.3965
-0.1688 -5.6369 2.3965
0.0325 -5.6249 2.3965
0.2329 -5.6056 2.3965
0.4320 -5.5791 2.3965
0.6296 -5.5455 2.3965
0.8254 -5.5048 2.3965
1.0192 -5.4572 2.3965
1.2107 -5.4028 2.3965
1.3997 -5.3417 2.3965
1.5860 -5.2740 2.3965
1.7693 -5.1999 2.3965
1.9495 -5.1195 2.3965
2.1263 -5.0329 2.3965
2.2995 -4.9402 2.3965
2.4689 -4.8417 2.3965
2.6344 -4.7376 2.3965
2.7957 -4.6278 2.3965
2.9528 -4.5128 2.3965
3.1053 -4.3925 2.3965
3.2533 -4.2672 2.3965
3.3964 -4.1371 2.3965
3.5347 -4.0024 2.3965
3.6678 -3.8632 2.3965
3.6485 -3.5754 2.3034
3.6693 -3.3451 2.2441
3.7791 -3.2034 2.2441
3.8840 -3.0584 2.2442
3.9840 -2.9104 2.2446
4.0786 -2.7592 2.2449
4.1678 -2.6051 2.2452
4.2515 -2.4483 2.2455
4.3296 -2.2889 2.2458
4.4020 -2.1272 2.2460
4.4688 -1.9633 2.2463
4.5297 -1.7975 2.2465
4.5849 -1.6298 2.2468
4.6343 -1.4606 2.2470
4.6777 -1.2900 2.2472
4.7153 -1.1182 2.2474
4.7469 -0.9454 2.2475
4.7726 -0.7718 2.2477
4.7923 -0.5976 2.2479
4.8060 -0.4230 2.2480
4.8051 -0.2477 2.2441
4.8067 -0.0732 2.2441
4.8024 0.1012 2.2441
4.7922 0.2753 2.2441
4.7761 0.4487 2.2441
4.7542 0.6215 2.2441
4.7265 0.7933 2.2441
4.6929 0.9641 2.2441
4.6537 1.1336 2.2441
4.6087 1.3016 2.2441
4.5581 1.4680 2.2441
4.5019 1.6326 2.2441
4.4402 1.7952 2.2441
4.3730 1.9556 2.2441
4.3004 2.1138 2.2441
4.2225 2.2694 2.2441
4.1394 2.4224 2.2441
4.0511 2.5725 2.2441
3.9577 2.7197 2.2441
3.9159 2.9057 2.2770
4.0111 3.2083 2.3965
3.8957 3.3549 2.3965
3.7753 3.4975 2.3965
3.6500 3.6361 2.3965
3.5199 3.7705 2.3965
3.3852 3.9006 2.3965
3.2460 4.0261 2.3965
3.1024 4.1470 2.3965
2.9547 4.2631 2.3965
2.8028 4.3742 2.3965
2.6470 4.4802 2.3965
2.4874 4.5809 2.3965
2.3243 4.6763 2.3965
0.8869 1.9592 0.9851
0.8159 1.9909 0.9836
0.7437 2.0200 0.9821
0.6706 2.0464 0.9805
0.5965 2.0702 0.9789
0.5216 2.0914 0.9772
0.4460 2.1098 0.9755
0.3698 2.1255 0.9737
0.2931 2.1384 0.9719
0.2159 2.1486 0.9701
0.1384 2.1559 0.9682
0.0607 2.1605 0.9663
-0.0171 2.1623 0.9643
-0.0949 2.1612 0.9623
-0.1726 2.1574 0.9603
-0.2502 2.1507 0.9582
-0.3275 2.1413 0.9562
-0.4043 2.1291 0.9541
-0.4807 2.1141 0.9520
-0.5565 2.0964 0.9499
-0.6316 2.0759 0.9478
-0.7059 2.0528 0.9456
-0.7794 2.0270 0.9435
-0.8518 1.9985 0.9413
-0.9232 1.9675 0.9392
-2.5406 4.9459 2.3965
-2.7232 4.8647 2.3965
-2.9031 4.7768 2.3965
-3.0800 4.6822 2.3965
-3.2538 4.5810 2.3965
-3.4242 4.4734 2.3965
-3.5909 4.3593 2.3965
-3.7537 4.2390 2.3965
-3.9123 4.1126 2.3965
-4.0664 3.9801 2.3965
-4.2159 3.8418 2.3965
-4.3604 3.6978 2.3965
-4.4998 3.5483 2.3965
-4.6338 3.3934 2.3965
-4.7623 3.2334 2.3965
-4.8849 3.0684 2.3965
-5.0014 2.8986 2.3965
-5.1118 2.7244 2.3965
-5.2157 2.5458 2.3965
-5.3130 2.3633 2.3965
-5.4036 2.1768 2.3965
-5.4871 1.9869 2.3965
-5.5636 1.7937 2.3965
-5.6329 1.5974 2.3965
-5.6947 1.3985 2.3965
-5.7490 1.1971 2.3965
-5.7958 0.9936 2.3965
-5.8348 0.7882 2.3965
-5.8660 0.5813 2.3965
-5.8894 0.3731 2.3965
-5.9048 0.1641 2.3965
-5.9123 -0.0456 2.3965
-5.9117 -0.2555 2.3965
-5.9032 -0.4653 2.3965
-5.8866 -0.6749 2.3965
-5.8620 -0.8837 2.3965
-5.8295 -1.0915 2.3965
-5.7890 -1.2979 2.3965
-5.7406 -1.5027 2.3965
-5.6844 -1.7056 2.3965
-5.6205 -1.9061 2.3965
-5.5490 -2.1041 2.3965
-5.4700 -2.2991 2.3965
-5.3835 -2.4910 2.3965
-5.2899 -2.6793 2.3965
-5.1891 -2.8639 2.3965
-5.0814 -3.0444 2.3965
-4.9669 -3.2206 2.3965
-4.8458 -3.3922 2.3965
-4.7184 -3.5589 2.3965
-4.5848 -3.7206 2.3965
-4.4453 -3.8769 2.3965
-4.3000 -4.0276 2.3965
-4.1493 -4.1727 2.3965
-3.9933 -4.3117 2.3965
-3.8323 -4.4446 2.3965
-3.6666 -4.5711 2.3965
-3.4965 -4.6912 2.3965
-3.3221 -4.8046 2.3965
-3.1439 -4.9112 2.3965
-2.9621 -5.0108 2.3965
-2.7768 -5.1035 2.3965
-2.5886 -5.1890 2.3965
-2.3975 -5.2672 2.3965
-2.2041 -5.3382 2.3965
-2.0084 -5.4018 2.3965
-1.8108 -5.4580 2.3965
-1.6117 -5.5067 2.3965
-1.4112 -5.5479 2.3965
-1.2098 -5.5816 2.3965
-1.0076 -5.6079 2.3965
-0.8050 -5.6266 2.3965
-0.6023 -5.6378 2.3965
-0.3997 -5.6416 2.3965
-0.1975 -5.6380 2.3965
0.0040 -5.6270 2.3965
0.2045 -5.6088 2.3965
0.4038 -5.5833 2.3965
0.6016 -5.5507 2.3965
0.7977 -5.5110 2.3965
0.9918 -5.4644 2.3965
1.1836 -5.4110 2.3965
1.3730 -5.3508 2.3965
1.5597 -5.2841 2.3965
1.7435 -5.2108 2.3965
1.9241 -5.1313 2.3965
2.1014 -5.0455 2.3965
2.2751 -4.9537 2.3965
2.4451 -4.8561 2.3965
2.6111 -4.7527 2.3965
2.7731 -4.6438 2.3965
2.9307 -4.5294 2.3965
3.0840 -4.4099 2.3965
3.2326 -4.2853 2.3965
3.3764 -4.1559 2.3965
3.5153 -4.0218 2.3965
3.6492 -3.8833 2.3965
3.6541 -3.6178 2.3179
3.6533 -3.3649 2.2441
3.7638 -3.2237 2.2441
3.8694 -3.0791 2.2442
3.9701 -2.9316 2.2445
4.0655 -2.7809 2.2448
4.1555 -2.6272 2.2451
4.2399 -2.4708 2.2454
4.3188 -2.3117 2.2457
4.3921 -2.1503 2.2460
4.4596 -1.9867 2.2463
4.5214 -1.8211 2.2465
4.5774 -1.6537 2.2467
4.6276 -1.4847 2.2469
4.6719 -1.3143 2.2472
4.7103 -1.1427 2.2473
4.7428 -0.9700 2.2475
4.7693 -0.7965 2.2477
4.7898 -0.6224 2.2478
4.8044 -0.4478 2.2480
4.8131 -0.2730 2.2481
4.8069 -0.0979 2.2441
4.8034 0.0765 2.2441
4.7940 0.2506 2.2441
4.7788 0.4242 2.2441
4.7577 0.5970 2.2441
4.7308 0.7690 2.2441
4.6980 0.9399 2.2441
4.6596 1.1096 2.2441
4.6155 1.2778 2.2441
4.5657 1.4445 2.2441
4.5103 1.6093 2.2441
4.4493 1.7722 2.2441
4.3829 1.9330 2.2441
4.3111 2.0915 2.2441
4.2339 2.2475 2.2441
4.1515 2.4008 2.2441
4.0639 2.5514 2.2441
3.9809 2.7055 2.2495
3.8925 2.8573 2.2550
4.0270 3.1872 2.3965
3.9124 3.3343 2.3965
3.7927 3.4775 2.3965
3.6681 3.6167 2.3965
3.5387 3.7517 2.3965
3.4046 3.8824 2.3965
3.2661 4.0086 2.3965
3.1231 4.1301 2.3965
2.9759 4.2469 2.3965
2.8246 4.3587 2.3965
2.6694 4.4654 2.3965
2.5103 4.5669 2.3965
2.3476 4.6631 2.3965
0.8969 1.9545 0.9853
0.8260 1.9865 0.9838
0.7541 2.0160 0.9823
0.6810 2.0428 0.9808
0.6071 2.0670 0.9791
0.5323 2.0885 0.9775
