ply
format ascii 1.0
element vertex 2177
property float32 x
property float32 y
property float32 z
end_header
3.4198 -4.7151 2.4179
3.5720 -4.5664 2.4179
3.7185 -4.4134 2.4179
3.8593 -4.2564 2.4179
3.9943 -4.0954 2.4179
4.1235 -3.9309 2.4179
4.2468 -3.7628 2.4179
4.3641 -3.5915 2.4179
4.4754 -3.4170 2.4179
4.5807 -3.2397 2.4179
4.6798 -3.0597 2.4179
4.7728 -2.8772 2.4179
4.8597 -2.6924 2.4179
4.9403 -2.5053 2.4179
5.0147 -2.3164 2.4179
5.0829 -2.1256 2.4179
5.1448 -1.9332 2.4179
5.2005 -1.7394 2.4179
5.2498 -1.5443 2.4179
0.4194 -5.9123 2.4179
0.6278 -5.8609 2.4179
0.8332 -5.8024 2.4179
1.0354 -5.7372 2.4179
1.2343 -5.6652 2.4179
1.4296 -5.5868 2.4179
1.6212 -5.5022 2.4179
1.8089 -5.4113 2.4179
1.9924 -5.3146 2.4179
2.1718 -5.2122 2.4179
2.3467 -5.1042 2.4179
2.5171 -4.9908 2.4179
2.6828 -4.8723 2.4179
2.8438 -4.7489 2.4179
2.9998 -4.6206 2.4179
3.1508 -4.4879 2.4179
3.2967 -4.3507 2.4179
3.4374 -4.2093 2.4179
3.5728 -4.0639 2.4179
3.7028 -3.9148 2.4179
3.8274 -3.7620 2.4179
3.9465 -3.6058 2.4179
4.0599 -3.4463 2.4179
4.1678 -3.2838 2.4179
4.2700 -3.1183 2.4179
4.3664 -2.9502 2.4179
4.4570 -2.7796 2.4179
4.5418 -2.6066 2.4179
4.6208 -2.4315 2.4179
4.6939 -2.2543 2.4179
4.7611 -2.0754 2.4179
4.8224 -1.8948 2.4179
4.8777 -1.7127 2.4179
4.9271 -1.5293 2.4179
4.9705 -1.3447 2.4179
5.0079 -1.1592 2.4179
5.0393 -0.9729 2.4179
5.0647 -0.7858 2.4179
5.0842 -0.5984 2.4179
5.0972 -0.4105 2.4177
5.1034 -0.2225 2.4172
5.1028 -0.0345 2.4162
5.0950 0.1531 2.4147
5.0802 0.3402 2.4126
5.0581 0.5262 2.4099
5.0286 0.7111 2.4064
4.9918 0.8944 2.4023
4.9474 1.0757 2.3973
4.8961 1.2549 2.3916
4.8466 1.4342 2.3896
4.7953 1.6130 2.3896
4.7383 1.7904 2.3895
4.6756 1.9660 2.3894
4.6072 2.1398 2.3894
4.5332 2.3116 2.3893
4.4537 2.4812 2.3893
4.3686 2.6485 2.3892
4.2779 2.8132 2.3892
4.1819 2.9754 2.3891
4.0805 3.1347 2.3891
3.9737 3.2911 2.3890
3.8616 3.4443 2.3890
3.7444 3.5943 2.3889
3.6220 3.7408 2.3889
3.4945 3.8837 2.3888
3.3621 4.0228 2.3888
3.2247 4.1580 2.3888
3.0825 4.2891 2.3887
2.9356 4.4159 2.3887
2.7840 4.5382 2.3886
2.6280 4.6560 2.3886
2.4675 4.7689 2.3886
2.3027 4.8770 2.3886
2.1337 4.9799 2.3885
0.8234 2.1322 1.0030
0.7462 2.1626 0.9991
0.6679 2.1901 0.9952
0.5887 2.2148 0.9911
0.5087 2.2366 0.9870
0.4279 2.2555 0.9829
0.3465 2.2714 0.9786
0.2645 2.2844 0.9744
0.1822 2.2945 0.9700
0.0995 2.3015 0.9657
0.0166 2.3056 0.9613
-0.0663 2.3066 0.9569
-0.1493 2.3047 0.9524
-0.2321 2.2998 0.9480
-0.3147 2.2918 0.9435
-0.3970 2.2809 0.9390
-0.4788 2.2670 0.9346
-0.5601 2.2502 0.9301
-0.6407 2.2304 0.9256
-0.7205 2.2077 0.9212
-0.7994 2.1822 0.9168
-0.8774 2.1538 0.9124
-0.9543 2.1226 0.9081
-2.7224 5.5202 2.3886
-2.9330 5.4490 2.3886
-3.1418 5.3698 2.3887
-3.3483 5.2824 2.3887
-3.5524 5.1869 2.3888
-3.7536 5.0834 2.3888
-3.9515 4.9719 2.3889
-4.1459 4.8525 2.3889
-4.3363 4.7253 2.3890
-4.5224 4.5903 2.3890
-4.7038 4.4477 2.3891
-4.8802 4.2976 2.3892
-5.0513 4.1403 2.3892
-5.2166 3.9758 2.3893
-5.3759 3.8043 2.3894
-5.5288 3.6262 2.3894
-5.6749 3.4416 2.3895
-5.8140 3.2508 2.3896
-5.9457 3.0540 2.3896
-6.0697 2.8516 2.3897
-6.1858 2.6439 2.3898
-6.2936 2.4312 2.3899
-6.3929 2.2138 2.3900
-6.4835 1.9921 2.3900
-6.5652 1.7664 2.3901
-6.6376 1.5373 2.3902
-6.7007 1.3050 2.3903
-6.7543 1.0699 2.3904
-6.7982 0.8326 2.3905
-6.8323 0.5935 2.3905
-6.8566 0.3529 2.3906
-6.8708 0.1113 2.3907
-6.8751 -0.1308 2.3908
-6.8693 -0.3730 2.3909
-6.8535 -0.6147 2.3910
-6.8332 -0.8564 2.3930
-6.8170 -1.0994 2.4000
-6.7871 -1.3413 2.4057
-6.7432 -1.5812 2.4101
-6.6864 -1.8185 2.4134
-6.6172 -2.0526 2.4157
-6.5360 -2.2827 2.4171
-6.4433 -2.5083 2.4178
-6.3402 -2.7291 2.4179
-6.2278 -2.9451 2.4179
-6.1069 -3.1559 2.4179
-5.9777 -3.3613 2.4179
-5.8405 -3.5608 2.4179
-5.6956 -3.7542 2.4179
-5.5433 -3.9412 2.4179
-5.3839 -4.1215 2.4179
-5.2178 -4.2948 2.4179
-5.0454 -4.4608 2.4179
-4.8669 -4.6195 2.4179
-4.6828 -4.7704 2.4179
-4.4935 -4.9135 2.4179
-4.2993 -5.0486 2.4179
-4.1006 -5.1756 2.4179
-3.8977 -5.2943 2.4179
-3.6911 -5.4046 2.4179
-3.4812 -5.5065 2.4179
-3.2683 -5.5999 2.4179
-3.0528 -5.6847 2.4179
-2.8352 -5.7609 2.4179
-2.6156 -5.8285 2.4179
-2.3946 -5.8876 2.4179
-2.1725 -5.9380 2.4179
-1.9496 -5.9800 2.4179
-1.7263 -6.0134 2.4179
-1.5029 -6.0385 2.4179
-1.2798 -6.0552 2.4179
-1.0572 -6.0637 2.4179
-0.8355 -6.0641 2.4179
-0.6150 -6.0565 2.4179
-0.3960 -6.0410 2.4179
-0.1786 -6.0177 2.4179
0.0367 -5.9868 2.4179
0.2497 -5.9485 2.4179
0.4602 -5.9028 2.4179
0.6680 -5.8500 2.4179
0.8728 -5.7902 2.4179
1.0744 -5.7237 2.4179
1.2726 -5.6505 2.4179
1.4672 -5.5708 2.4179
1.6581 -5.4849 2.4179
1.8450 -5.3930 2.4179
2.0277 -5.2951 2.4179
2.2062 -5.1915 2.4179
2.3803 -5.0825 2.4179
2.5498 -4.9681 2.4179
2.7146 -4.8487 2.4179
2.8746 -4.7243 2.4179
3.0296 -4.5951 2.4179
3.1797 -4.4615 2.4179
3.3245 -4.3235 2.4179
3.4642 -4.1813 2.4179
3.5986 -4.0352 2.4179
3.7275 -3.8853 2.4179
3.8510 -3.7318 2.4179
3.9690 -3.5749 2.4179
4.0814 -3.4149 2.4179
4.1882 -3.2517 2.4179
4.2892 -3.0858 2.4179
4.3845 -2.9172 2.4179
4.4740 -2.7461 2.4179
4.5577 -2.5727 2.4179
4.6355 -2.3971 2.4179
4.7075 -2.2196 2.4179
4.7735 -2.0403 2.4179
4.8337 -1.8594 2.4179
4.8878 -1.6770 2.4179
4.9360 -1.4934 2.4179
4.9783 -1.3087 2.4179
5.0145 -1.1230 2.4179
5.0447 -0.9365 2.4179
5.0690 -0.7494 2.4179
5.0873 -0.5618 2.4179
5.0990 -0.3739 2.4177
5.1039 -0.1858 2.4170
5.1018 0.0021 2.4159
5.0926 0.1896 2.4143
5.0763 0.3765 2.4121
5.0528 0.5624 2.4092
5.0220 0.7469 2.4057
4.9837 0.9299 2.4014
4.9379 1.1108 2.3962
4.8854 1.2895 2.3905
4.8371 1.4691 2.3896
4.7847 1.6477 2.3895
4.7265 1.8248 2.3895
4.6627 2.0000 2.3894
4.5933 2.1734 2.3894
4.5182 2.3448 2.3893
4.4375 2.5140 2.3893
4.3513 2.6808 2.3892
4.2597 2.8451 2.3892
4.1626 3.0067 2.3891
4.0601 3.1654 2.3891
3.9523 3.3212 2.3890
3.8392 3.4738 2.3890
3.7209 3.6231 2.3889
3.5975 3.7689 2.3889
3.4691 3.9111 2.3888
3.3357 4.0495 2.3888
3.1974 4.1839 2.3887
3.0542 4.3141 2.3887
2.9064 4.4401 2.3887
2.7540 4.5615 2.3886
2.5970 4.6783 2.3886
2.4357 4.7904 2.3886
2.2701 4.8974 2.3885
2.1003 4.9993 2.3885
0.8084 2.1384 1.0023
0.7310 2.1681 0.9984
0.6526 2.1951 0.9944
0.5732 2.2192 0.9903
0.4930 2.2405 0.9862
0.4121 2.2588 0.9820
0.3306 2.2742 0.9778
0.2485 2.2866 0.9735
0.1661 2.2961 0.9692
0.0834 2.3026 0.9648
0.0005 2.3060 0.9604
-0.0825 2.3065 0.9560
-0.1654 2.3040 0.9516
-0.2482 2.2984 0.9471
-0.3308 2.2899 0.9426
-0.4130 2.2784 0.9382
-0.4947 2.2640 0.9337
-0.5758 2.2465 0.9292
-0.6563 2.2262 0.9248
-0.7359 2.2029 0.9203
-0.8147 2.1768 0.9159
-0.8925 2.1479 0.9115
-2.5517 5.5716 2.3886
-2.7636 5.5070 2.3886
-2.9738 5.4342 2.3887
-3.1822 5.3534 2.3887
-3.3883 5.2644 2.3887
-3.5918 5.1674 2.3888
-3.7924 5.0623 2.3888
-3.9897 4.9493 2.3889
-4.1833 4.8283 2.3889
-4.3729 4.6996 2.3890
-4.5581 4.5631 2.3890
-4.7386 4.4190 2.3891
-4.9140 4.2675 2.3892
-5.0840 4.1088 2.3892
-5.2482 3.9429 2.3893
-5.4062 3.7701 2.3894
-5.5578 3.5907 2.3894
-5.7026 3.4049 2.3895
-5.8402 3.2129 2.3896
-5.9704 3.0150 2.3897
-6.0929 2.8116 2.3897
-6.2074 2.6028 2.3898
-6.3136 2.3892 2.3899
-6.4113 2.1709 2.3900
-6.5001 1.9484 2.3901
-6.5800 1.7220 2.3901
-6.6506 1.4922 2.3902
-6.7119 1.2594 2.3903
-6.7636 1.0239 2.3904
-6.8056 0.7862 2.3905
-6.8378 0.5467 2.3906
-6.8601 0.3059 2.3906
-6.8725 0.0642 2.3907
-6.8748 -0.1780 2.3908
-6.8670 -0.4201 2.3909
-6.8493 -0.6618 2.3910
-6.8311 -0.9038 2.3945
-6.8125 -1.1466 2.4013
-6.7794 -1.3882 2.4066
-6.7331 -1.6277 2.4108
-6.6739 -1.8644 2.4139
-6.6023 -2.0978 2.4161
-6.5189 -2.3271 2.4174
-6.4240 -2.5517 2.4179
-6.3190 -2.7716 2.4179
-6.2049 -2.9866 2.4179
-6.0824 -3.1964 2.4179
-5.9516 -3.4006 2.4179
-5.8128 -3.5990 2.4179
-5.6665 -3.7912 2.4179
-5.5127 -3.9769 2.4179
-5.3520 -4.1558 2.4179
-5.1847 -4.3277 2.4179
-5.0111 -4.4923 2.4179
-4.8315 -4.6495 2.4179
-4.6463 -4.7989 2.4179
-4.4560 -4.9405 2.4179
-4.2609 -5.0740 2.4179
-4.0613 -5.1994 2.4179
-3.8577 -5.3165 2.4179
-3.6505 -5.4252 2.4179
-3.4400 -5.5254 2.4179
-3.2265 -5.6171 2.4179
-3.0106 -5.7002 2.4179
-2.7925 -5.7748 2.4179
-2.5727 -5.8407 2.4179
-2.3514 -5.8981 2.4179
-2.1291 -5.9469 2.4179
-1.9061 -5.9871 2.4179
-1.6828 -6.0190 2.4179
-1.4594 -6.0424 2.4179
-1.2364 -6.0575 2.4179
-1.0140 -6.0645 2.4179
-0.7925 -6.0633 2.4179
-0.5722 -6.0541 2.4179
-0.3535 -6.0370 2.4179
-0.1365 -6.0123 2.4179
0.0784 -5.9799 2.4179
0.2909 -5.9401 2.4179
0.5009 -5.8931 2.4179
0.7082 -5.8389 2.4179
0.9124 -5.7778 2.4179
1.1133 -5.7099 2.4179
1.3108 -5.6355 2.4179
1.5047 -5.5546 2.4179
1.6948 -5.4675 2.4179
1.8809 -5.3743 2.4179
2.0628 -5.2754 2.4179
2.2405 -5.1707 2.4179
2.4137 -5.0606 2.4179
2.5823 -4.9453 2.4179
2.7461 -4.8248 2.4179
2.9052 -4.6995 2.4179
3.0593 -4.5694 2.4179
3.2083 -4.4349 2.4179
3.3522 -4.2961 2.4179
3.4908 -4.1531 2.4179
3.6241 -4.0063 2.4179
3.7520 -3.8557 2.4179
3.8745 -3.7015 2.4179
3.9914 -3.5440 2.4179
4.1027 -3.3833 2.4179
4.2083 -3.2196 2.4179
4.3082 -3.0531 2.4179
4.4024 -2.8840 2.4179
4.4908 -2.7125 2.4179
4.5733 -2.5386 2.4179
4.6500 -2.3627 2.4179
4.7208 -2.1848 2.4179
4.7857 -2.0052 2.4179
4.8447 -1.8240 2.4179
4.8977 -1.6414 2.4179
4.9447 -1.4575 2.4179
0.3859 -5.5526 2.4179
0.5818 -5.5059 2.4179
0.7749 -5.4526 2.4179
0.9653 -5.3928 2.4179
1.1525 -5.3266 2.4179
1.3366 -5.2544 2.4179
1.5172 -5.1761 2.4179
1.6942 -5.0921 2.4179
1.8674 -5.0024 2.4179
2.0368 -4.9072 2.4179
2.2020 -4.8068 2.4179
2.3631 -4.7012 2.4179
2.5198 -4.5907 2.4179
2.6721 -4.4755 2.4179
2.8198 -4.3556 2.4179
2.9628 -4.2314 2.4179
3.1010 -4.1030 2.4179
3.2344 -3.9705 2.4179
3.3628 -3.8342 2.4179
3.4862 -3.6943 2.4179
3.6044 -3.5508 2.4179
3.7175 -3.4040 2.4179
3.8253 -3.2540 2.4179
3.9278 -3.1011 2.4179
4.0249 -2.9454 2.4179
4.1166 -2.7871 2.4179
4.2028 -2.6263 2.4179
4.2836 -2.4633 2.4179
4.3588 -2.2981 2.4179
4.4284 -2.1310 2.4179
4.4925 -1.9621 2.4179
4.5509 -1.7916 2.4179
4.6037 -1.6197 2.4179
4.6508 -1.4465 2.4179
4.6922 -1.2721 2.4179
4.7280 -1.0968 2.4179
4.7580 -0.9206 2.4179
4.7823 -0.7439 2.4179
4.8009 -0.5666 2.4179
4.8133 -0.3889 2.4176
4.8191 -0.2111 2.4169
4.8183 -0.0334 2.4158
4.8110 0.1441 2.4142
4.7970 0.3209 2.4121
4.7764 0.4969 2.4095
4.7488 0.6718 2.4063
4.7143 0.8452 2.4023
4.6728 1.0168 2.3975
4.6248 1.1864 2.3922
4.5767 1.3556 2.3897
4.5280 1.5247 2.3896
4.4738 1.6924 2.3895
4.4142 1.8583 2.3895
4.3493 2.0226 2.3894
4.2790 2.1848 2.3894
4.2034 2.3449 2.3893
4.1225 2.5029 2.3893
4.0365 2.6584 2.3892
3.9452 2.8113 2.3892
3.8489 2.9616 2.3891
3.7475 3.1089 2.3891
3.6412 3.2533 2.3890
3.5299 3.3945 2.3890
3.4137 3.5324 2.3890
3.2928 3.6668 2.3889
3.1672 3.7975 2.3889
3.0370 3.9245 2.3888
2.9022 4.0475 2.3888
2.7630 4.1664 2.3888
2.6195 4.2811 2.3887
2.4717 4.3913 2.3887
2.3198 4.4970 2.3887
2.1639 4.5979 2.3887
0.8413 1.9704 1.0027
0.7699 2.0015 0.9991
0.6974 2.0300 0.9955
0.6240 2.0558 0.9918
0.5496 2.0790 0.9880
0.4745 2.0994 0.9841
0.3986 2.1171 0.9802
0.3222 2.1321 0.9763
0.2453 2.1443 0.9723
0.1679 2.1537 0.9682
0.0903 2.1604 0.9641
0.0125 2.1642 0.9600
-0.0654 2.1651 0.9558
-0.1433 2.1633 0.9517
-0.2210 2.1587 0.9475
-0.2986 2.1512 0.9433
-0.3758 2.1410 0.9391
-0.4526 2.1279 0.9349
-0.5289 2.1121 0.9307
-0.6045 2.0935 0.9265
-0.6795 2.0722 0.9223
-0.7536 2.0483 0.9182
-0.8268 2.0216 0.9141
-0.8990 1.9923 0.9100
-2.5578 5.1691 2.3887
-2.7543 5.1009 2.3888
-2.9489 5.0252 2.3888
-3.1414 4.9420 2.3888
-3.3314 4.8512 2.3889
-3.5186 4.7530 2.3889
-3.7027 4.6474 2.3890
-3.8833 4.5345 2.3890
-4.0602 4.4143 2.3891
-4.2329 4.2870 2.3891
-4.4013 4.1527 2.3892
-4.5649 4.0115 2.3892
-4.7234 3.8636 2.3893
-4.8765 3.7091 2.3894
-5.0240 3.5483 2.3894
-5.1654 3.3813 2.3895
-5.3005 3.2084 2.3896
-5.4291 3.0298 2.3896
-5.5507 2.8458 2.3897
-5.6652 2.6566 2.3898
-5.7723 2.4625 2.3898
-5.8718 2.2639 2.3899
-5.9633 2.0610 2.3900
-6.0468 1.8542 2.3901
-6.1220 1.6439 2.3901
-6.1886 1.4303 2.3902
-6.2466 1.2139 2.3903
-6.2959 0.9950 2.3904
-6.3361 0.7740 2.3905
-6.3674 0.5514 2.3905
-6.3895 0.3274 2.3906
-6.4024 0.1026 2.3907
-6.4062 -0.1226 2.3908
-6.4006 -0.3480 2.3909
-6.3858 -0.5729 2.3909
-6.3689 -0.7980 2.3937
-6.3526 -1.0239 2.4002
-6.3239 -1.2489 2.4055
-6.2829 -1.4721 2.4097
-6.2301 -1.6929 2.4129
-6.1662 -1.9108 2.4152
-6.0914 -2.1252 2.4168
-6.0063 -2.3356 2.4177
-5.9113 -2.5416 2.4179
-5.8073 -2.7429 2.4179
-5.6955 -2.9396 2.4179
-5.5760 -3.1313 2.4179
-5.4490 -3.3176 2.4179
-5.3149 -3.4984 2.4179
-5.1739 -3.6732 2.4179
-5.0264 -3.8419 2.4179
-4.8725 -4.0042 2.4179
-4.7127 -4.1599 2.4179
-4.5473 -4.3087 2.4179
-4.3766 -4.4504 2.4179
-4.2010 -4.5850 2.4179
-4.0207 -4.7122 2.4179
-3.8362 -4.8319 2.4179
-3.6478 -4.9440 2.4179
-3.4558 -5.0483 2.4179
-3.2605 -5.1448 2.4179
-3.0625 -5.2334 2.4179
-2.8619 -5.3142 2.4179
-2.6591 -5.3869 2.4179
-2.4546 -5.4517 2.4179
-2.2485 -5.5085 2.4179
-2.0413 -5.5573 2.4179
-1.8332 -5.5982 2.4179
-1.6246 -5.6312 2.4179
-1.4159 -5.6563 2.4179
-1.2072 -5.6737 2.4179
-0.9989 -5.6834 2.4179
-0.7914 -5.6854 2.4179
-0.5848 -5.6800 2.4179
-0.3795 -5.6671 2.4179
-0.1756 -5.6469 2.4179
0.0264 -5.6196 2.4179
0.2265 -5.5853 2.4179
0.4243 -5.5440 2.4179
0.6196 -5.4960 2.4179
0.8122 -5.4414 2.4179
1.0020 -5.3804 2.4179
1.1887 -5.3130 2.4179
1.3720 -5.2396 2.4179
1.5520 -5.1602 2.4179
1.7282 -5.0750 2.4179
1.9007 -4.9843 2.4179
2.0693 -4.8881 2.4179
2.2337 -4.7866 2.4179
2.3940 -4.6801 2.4179
2.5498 -4.5686 2.4179
2.7012 -4.4525 2.4179
2.8480 -4.3318 2.4179
2.9901 -4.2067 2.4179
3.1274 -4.0775 2.4179
3.2598 -3.9443 2.4179
3.3872 -3.8072 2.4179
3.5096 -3.6666 2.4179
3.6269 -3.5224 2.4179
3.7389 -3.3750 2.4179
3.8457 -3.2245 2.4179
3.9471 -3.0710 2.4179
4.0432 -2.9148 2.4179
4.1338 -2.7560 2.4179
4.2190 -2.5947 2.4179
4.2987 -2.4313 2.4179
4.3728 -2.2657 2.4179
4.4414 -2.0982 2.4179
4.5043 -1.9290 2.4179
4.5616 -1.7582 2.4179
4.6133 -1.5860 2.4179
4.6593 -1.4126 2.4179
4.6996 -1.2380 2.4179
4.7343 -1.0625 2.4179
4.7632 -0.8862 2.4179
4.7864 -0.7094 2.4179
4.8037 -0.5320 2.4178
4.8149 -0.3543 2.4175
4.8195 -0.1765 2.4168
4.8174 0.0013 2.4155
4.8088 0.1786 2.4138
4.7935 0.3553 2.4116
4.7714 0.5311 2.4089
4.7425 0.7057 2.4055
4.7067 0.8788 2.4014
4.6640 1.0500 2.3966
4.6148 1.2192 2.3912
4.5676 1.3887 2.3896
4.5178 1.5575 2.3896
4.4626 1.7248 2.3895
4.4020 1.8905 2.3895
4.3360 2.0543 2.3894
4.2647 2.2162 2.3894
4.1880 2.3759 2.3893
4.1062 2.5333 2.3893
4.0191 2.6884 2.3892
3.9269 2.8408 2.3892
3.8296 2.9905 2.3891
3.7272 3.1373 2.3891
3.6199 3.2811 2.3890
3.5076 3.4216 2.3890
3.3906 3.5588 2.3890
3.2687 3.6926 2.3889
3.1422 3.8226 2.3889
3.0111 3.9488 2.3888
2.8754 4.0710 2.3888
2.7354 4.1891 2.3888
2.5910 4.3029 2.3887
2.4424 4.4123 2.3887
2.2898 4.5170 2.3887
2.1331 4.6170 2.3887
0.8275 1.9767 1.0020
0.7559 2.0073 0.9984
0.6832 2.0352 0.9948
0.6095 2.0605 0.9910
0.5350 2.0832 0.9872
0.4597 2.1031 0.9834
0.3838 2.1203 0.9795
0.3072 2.1347 0.9755
0.2302 2.1464 0.9715
0.1528 2.1552 0.9674
0.0752 2.1613 0.9633
-0.0027 2.1646 0.9592
-0.0806 2.1650 0.9550
-0.1584 2.1626 0.9508
-0.2361 2.1574 0.9467
-0.3136 2.1494 0.9425
-0.3908 2.1386 0.9383
-0.4675 2.1250 0.9341
-0.5437 2.1087 0.9299
-0.6192 2.0896 0.9257
-0.6940 2.0678 0.9215
-0.7679 2.0433 0.9174
-0.8410 2.0161 0.9133
-0.9129 1.9863 0.9092
-2.5962 5.1564 2.3887
-2.7924 5.0868 2.3888
-2.9866 5.0096 2.3888
-3.1786 4.9249 2.3888
-3.3681 4.8327 2.3889
-3.5547 4.7330 2.3889
-3.7381 4.6260 2.3890
-3.9181 4.5117 2.3890
-4.0942 4.3901 2.3891
-4.2661 4.2614 2.3891
-4.4335 4.1257 2.3892
-4.5962 3.9832 2.3892
-4.7537 3.8340 2.3893
-4.9057 3.6783 2.3894
-5.0520 3.5162 2.3894
-5.1923 3.3481 2.3895
-5.3261 3.1741 2.3896
-5.4533 2.9944 2.3896
-5.5736 2.8093 2.3897
-5.6867 2.6192 2.3898
-5.7923 2.4242 2.3899
-5.8903 2.2247 2.3899
-5.9803 2.0210 2.3900
-6.0621 1.8135 2.3901
-6.1356 1.6025 2.3902
-6.2006 1.3883 2.3902
-6.2569 1.1714 2.3903
-6.3044 0.9521 2.3904
-6.3429 0.7308 2.3905
-6.3724 0.5078 2.3906
-6.3928 0.2837 2.3906
-6.4039 0.0588 2.3907
-6.4058 -0.1665 2.3908
-6.3984 -0.3918 2.3909
-6.3818 -0.6167 2.3909
-6.3667 -0.8421 2.3951
-6.3481 -1.0679 2.4013
-6.3167 -1.2925 2.4064
-6.2734 -1.5153 2.4103
-6.2185 -1.7356 2.4134
-6.1524 -1.9529 2.4156
-6.0756 -2.1665 2.4170
-5.9884 -2.3761 2.4177
-5.8916 -2.5812 2.4179
-5.7862 -2.7816 2.4179
-5.6728 -2.9773 2.4179
-5.5518 -3.1680 2.4179
-5.4234 -3.3533 2.4179
-5.2880 -3.5329 2.4179
-5.1457 -3.7066 2.4179
-4.9969 -3.8741 2.4179
-4.8418 -4.0351 2.4179
-4.6809 -4.1894 2.4179
-4.5145 -4.3369 2.4179
-4.3428 -4.4772 2.4179
-4.1662 -4.6104 2.4179
-3.9851 -4.7361 2.4179
-3.7998 -4.8543 2.4179
-3.6106 -4.9649 2.4179
-3.4180 -5.0677 2.4179
-3.2222 -5.1627 2.4179
-3.0236 -5.2498 2.4179
-2.8225 -5.3290 2.4179
-2.6194 -5.4002 2.4179
-2.4145 -5.4634 2.4179
-2.2082 -5.5186 2.4179
-2.0008 -5.5659 2.4179
-1.7926 -5.6053 2.4179
-1.5840 -5.6367 2.4179
-1.3752 -5.6603 2.4179
-1.1666 -5.6762 2.4179
-0.9584 -5.6844 2.4179
-0.7511 -5.6850 2.4179
-0.5447 -5.6780 2.4179
-0.3396 -5.6637 2.4179
-0.1361 -5.6422 2.4179
0.0656 -5.6135 2.4179
0.2652 -5.5778 2.4179
0.4625 -5.5352 2.4179
0.6574 -5.4859 2.4179
0.8495 -5.4300 2.4179
1.0386 -5.3677 2.4179
1.2247 -5.2992 2.4179
1.4074 -5.2246 2.4179
1.5866 -5.1441 2.4179
1.7621 -5.0578 2.4179
1.9339 -4.9659 2.4179
2.1016 -4.8687 2.4179
2.2653 -4.7662 2.4179
2.4247 -4.6587 2.4179
2.5797 -4.5464 2.4179
2.7302 -4.4293 2.4179
2.8761 -4.3077 2.4179
3.0172 -4.1819 2.4179
3.1536 -4.0519 2.4179
3.2850 -3.9179 2.4179
3.4115 -3.7801 2.4179
3.5329 -3.6387 2.4179
3.6491 -3.4940 2.4179
3.7601 -3.3459 2.4179
3.8658 -3.1948 2.4179
3.9663 -3.0408 2.4179
4.0613 -2.8840 2.4179
4.1509 -2.7247 2.4179
4.2350 -2.5631 2.4179
4.3136 -2.3992 2.4179
4.3866 -2.2332 2.4179
4.4541 -2.0654 2.4179
4.5159 -1.8959 2.4179
4.5721 -1.7248 2.4179
4.6227 -1.5523 2.4179
4.6676 -1.3786 2.4179
0.3557 -5.2283 2.4179
0.5402 -5.1857 2.4179
0.7224 -5.1368 2.4179
0.9019 -5.0817 2.4179
1.0787 -5.0207 2.4179
1.2525 -4.9538 2.4179
1.4231 -4.8813 2.4179
1.5904 -4.8032 2.4179
1.7542 -4.7197 2.4179
1.9144 -4.6310 2.4179
2.0709 -4.5373 2.4179
2.2234 -4.4386 2.4179
2.3719 -4.3353 2.4179
2.5162 -4.2273 2.4179
2.6563 -4.1150 2.4179
2.7920 -3.9985 2.4179
2.9232 -3.8779 2.4179
3.0499 -3.7535 2.4179
3.1718 -3.6253 2.4179
3.2891 -3.4936 2.4179
3.4015 -3.3585 2.4179
3.5090 -3.2203 2.4179
3.6116 -3.0789 2.4179
3.7091 -2.9347 2.4179
3.8016 -2.7878 2.4179
3.8889 -2.6384 2.4179
3.9711 -2.4866 2.4179
4.0481 -2.3325 2.4179
4.1198 -2.1765 2.4179
4.1862 -2.0185 2.4179
4.2473 -1.8588 2.4179
4.3030 -1.6975 2.4179
4.3534 -1.5348 2.4179
4.3984 -1.3708 2.4179
4.4380 -1.2058 2.4179
4.4722 -1.0397 2.4179
4.5010 -0.8729 2.4179
4.5243 -0.7055 2.4179
4.5419 -0.5375 2.4178
4.5536 -0.3692 2.4174
4.5592 -0.2007 2.4167
4.5584 -0.0323 2.4154
4.5515 0.1358 2.4138
4.5383 0.3034 2.4117
4.5188 0.4702 2.4092
4.4930 0.6359 2.4061
4.4606 0.8002 2.4023
4.4217 0.9629 2.3978
4.3767 1.1238 2.3928
4.3300 1.2838 2.3897
4.2837 1.4440 2.3896
4.2321 1.6028 2.3896
4.1754 1.7600 2.3895
4.1136 1.9154 2.3895
4.0468 2.0690 2.3894
3.9748 2.2205 2.3894
3.8979 2.3699 2.3893
3.8160 2.5169 2.3893
3.7292 2.6615 2.3892
3.6376 2.8035 2.3892
3.5412 2.9428 2.3892
3.4401 3.0791 2.3891
3.3343 3.2123 2.3891
3.2239 3.3424 2.3890
3.1090 3.4691 2.3890
2.9897 3.5923 2.3890
2.8660 3.7118 2.3889
2.7381 3.8276 2.3889
2.6060 3.9394 2.3889
2.4698 4.0471 2.3888
2.3296 4.1506 2.3888
2.1856 4.2497 2.3888
0.8551 1.8228 1.0023
0.7890 1.8545 0.9990
0.7217 1.8837 0.9957
0.6535 1.9105 0.9922
0.5844 1.9348 0.9887
0.5144 1.9566 0.9852
0.4436 1.9758 0.9815
0.3722 1.9925 0.9779
0.3003 2.0066 0.9741
0.2279 2.0181 0.9703
0.1551 2.0269 0.9665
0.0820 2.0331 0.9627
0.0088 2.0367 0.9588
-0.0645 2.0376 0.9549
-0.1378 2.0359 0.9510
-0.2110 2.0315 0.9470
-0.2840 2.0245 0.9431
-0.3567 2.0148 0.9391
-0.4290 2.0026 0.9352
-0.5008 1.9877 0.9312
-0.5720 1.9702 0.9273
-0.6425 1.9502 0.9234
-0.7123 1.9276 0.9195
-0.7812 1.9025 0.9156
-0.8492 1.8750 0.9117
-0.9161 1.8450 0.9079
-2.5941 4.7888 2.3889
-2.7761 4.7165 2.3889
-2.9560 4.6371 2.3889
-3.1335 4.5508 2.3890
-3.3084 4.4575 2.3890
-3.4802 4.3573 2.3891
-3.6487 4.2503 2.3891
-3.8136 4.1366 2.3891
-3.9746 4.0163 2.3892
-4.1314 3.8895 2.3893
-4.2836 3.7564 2.3893
-4.4311 3.6170 2.3894
-4.5736 3.4716 2.3894
-4.7106 3.3203 2.3895
-4.8420 3.1633 2.3895
-4.9675 3.0009 2.3896
-5.0868 2.8333 2.3897
-5.1996 2.6606 2.3897
-5.3058 2.4833 2.3898
-5.4051 2.3014 2.3899
-5.4972 2.1154 2.3899
-5.5820 1.9255 2.3900
-5.6592 1.7319 2.3901
-5.7287 1.5351 2.3902
-5.7903 1.3354 2.3902
-5.8439 1.1331 2.3903
-5.8894 0.9285 2.3904
-5.9265 0.7221 2.3905
-5.9553 0.5141 2.3905
-5.9756 0.3049 2.3906
-5.9874 0.0950 2.3907
-5.9906 -0.1154 2.3907
-5.9853 -0.3258 2.3908
-5.9714 -0.5358 2.3909
-5.9573 -0.7462 2.3943
-5.9409 -0.9571 2.4003
-5.9135 -1.1670 2.4053
-5.8750 -1.3754 2.4093
-5.8259 -1.5816 2.4124
-5.7665 -1.7852 2.4148
-5.6973 -1.9856 2.4164
-5.6185 -2.1824 2.4174
-5.5306 -2.3751 2.4178
-5.4343 -2.5636 2.4179
-5.3305 -2.7477 2.4179
-5.2194 -2.9271 2.4179
-5.1015 -3.1017 2.4179
-4.9768 -3.2711 2.4179
-4.8458 -3.4351 2.4179
-4.7086 -3.5935 2.4179
-4.5655 -3.7459 2.4179
-4.4169 -3.8922 2.4179
-4.2629 -4.0322 2.4179
-4.1040 -4.1656 2.4179
-3.9405 -4.2925 2.4179
-3.7725 -4.4124 2.4179
-3.6005 -4.5255 2.4179
-3.4248 -4.6315 2.4179
-3.2457 -4.7303 2.4179
-3.0636 -4.8219 2.4179
-2.8786 -4.9062 2.4179
-2.6912 -4.9830 2.4179
-2.5018 -5.0525 2.4179
-2.3105 -5.1146 2.4179
-2.1177 -5.1692 2.4179
-1.9237 -5.2164 2.4179
-1.7289 -5.2561 2.4179
-1.5335 -5.2885 2.4179
-1.3377 -5.3135 2.4179
-1.1420 -5.3312 2.4179
-0.9466 -5.3418 2.4179
-0.7517 -5.3451 2.4179
-0.5576 -5.3414 2.4179
-0.3646 -5.3307 2.4179
-0.1729 -5.3132 2.4179
0.0172 -5.2889 2.4179
0.2055 -5.2579 2.4179
0.3918 -5.2205 2.4179
0.5759 -5.1766 2.4179
0.7576 -5.1265 2.4179
0.9366 -5.0703 2.4179
1.1128 -5.0081 2.4179
1.2860 -4.9401 2.4179
1.4560 -4.8665 2.4179
1.6226 -4.7873 2.4179
1.7857 -4.7028 2.4179
1.9452 -4.6131 2.4179
2.1009 -4.5184 2.4179
2.2527 -4.4188 2.4179
2.4004 -4.3146 2.4179
2.5439 -4.2058 2.4179
2.6831 -4.0927 2.4179
2.8179 -3.9753 2.4179
2.9482 -3.8540 2.4179
3.0740 -3.7288 2.4179
3.1951 -3.5999 2.4179
3.3113 -3.4676 2.4179
3.4228 -3.3318 2.4179
3.5294 -3.1930 2.4179
3.6310 -3.0511 2.4179
3.7275 -2.9063 2.4179
3.8190 -2.7589 2.4179
3.9053 -2.6090 2.4179
3.9865 -2.4567 2.4179
4.0624 -2.3023 2.4179
4.1331 -2.1458 2.4179
4.1985 -1.9875 2.4179
4.2586 -1.8275 2.4179
4.3133 -1.6659 2.4179
4.3626 -1.5029 2.4179
4.4066 -1.3387 2.4179
4.4451 -1.1735 2.4179
4.4782 -1.0073 2.4179
4.5059 -0.8404 2.4179
4.5282 -0.6728 2.4179
4.5446 -0.5047 2.4177
4.5551 -0.3364 2.4173
4.5595 -0.1679 2.4165
4.5576 0.0005 2.4152
4.5494 0.1685 2.4135
4.5350 0.3359 2.4113
4.5142 0.5025 2.4086
4.4871 0.6680 2.4053
4.4536 0.8321 2.4015
4.4135 0.9944 2.3969
4.3673 1.1549 2.3918
4.3214 1.3152 2.3897
4.2740 1.4751 2.3896
4.2215 1.6336 2.3896
4.1638 1.7904 2.3895
4.1010 1.9455 2.3895
4.0331 2.0987 2.3894
3.9602 2.2498 2.3894
3.8823 2.3987 2.3893
3.7995 2.5453 2.3893
3.7118 2.6894 2.3892
3.6192 2.8309 2.3892
3.5219 2.9695 2.3891
3.4198 3.1053 2.3891
3.3131 3.2379 2.3891
3.2019 3.3673 2.3890
3.0861 3.4934 2.3890
2.9659 3.6159 2.3890
2.8414 3.7347 2.3889
2.7127 3.8497 2.3889
2.5797 3.9607 2.3889
2.4428 4.0676 2.3888
2.3019 4.1703 2.3888
2.1571 4.2685 2.3888
0.8423 1.8292 1.0017
0.7759 1.8603 0.9984
0.7085 1.8891 0.9950
0.6401 1.9154 0.9916
0.5708 1.9392 0.9880
0.5006 1.9605 0.9845
0.4298 1.9793 0.9808
0.3583 1.9954 0.9771
0.2862 2.0090 0.9734
0.2137 2.0200 0.9696
0.1409 2.0283 0.9658
0.0678 2.0340 0.9619
-0.0055 2.0371 0.9580
-0.0788 2.0375 0.9541
-0.1521 2.0353 0.9502
-0.2252 2.0304 0.9463
-0.2982 2.0228 0.9423
-0.3708 2.0127 0.9383
-0.4430 1.9999 0.9344
-0.5147 1.9845 0.9304
-0.5858 1.9665 0.9265
-0.6562 1.9460 0.9226
-0.7258 1.9229 0.9187
-0.7945 1.8973 0.9148
-0.8623 1.8693 0.9110
-0.9290 1.8388 0.9072
-2.6297 4.7753 2.3889
-2.8113 4.7016 2.3889
-2.9908 4.6208 2.3889
-3.1678 4.5331 2.3890
-3.3421 4.4385 2.3890
-3.5133 4.3370 2.3891
-3.6811 4.2287 2.3891
-3.8453 4.1137 2.3892
-4.0055 3.9921 2.3892
-4.1614 3.8641 2.3893
-4.3128 3.7297 2.3893
-4.4593 3.5891 2.3894
-4.6007 3.4425 2.3894
-4.7366 3.2902 2.3895
-4.8669 3.1321 2.3896
-4.9912 2.9687 2.3896
-5.1093 2.8000 2.3897
-5.2208 2.6264 2.3898
-5.3257 2.4482 2.3898
-5.4236 2.2655 2.3899
-5.5143 2.0787 2.3900
-5.5976 1.8880 2.3900
-5.6734 1.6938 2.3901
-5.7414 1.4965 2.3902
-5.8014 1.2962 2.3902
-5.8534 1.0934 2.3903
-5.8973 0.8884 2.3904
-5.9328 0.6817 2.3905
-5.9599 0.4734 2.3905
-5.9785 0.2641 2.3906
-5.9887 0.0540 2.3907
-5.9902 -0.1564 2.3908
-5.9832 -0.3668 2.3908
-5.9677 -0.5767 2.3909
-5.9550 -0.7874 2.3956
-5.9366 -0.9981 2.4014
-5.9067 -1.2078 2.4061
-5.8661 -1.4157 2.4099
-5.8150 -1.6215 2.4129
-5.7537 -1.8245 2.4151
-5.6827 -2.0242 2.4167
-5.6022 -2.2203 2.4176
-5.5125 -2.4122 2.4179
-5.4147 -2.5998 2.4179
-5.3094 -2.7830 2.4179
-5.1970 -2.9615 2.4179
-5.0777 -3.1351 2.4179
-4.9518 -3.3035 2.4179
-4.8195 -3.4664 2.4179
-4.6812 -3.6236 2.4179
-4.5370 -3.7749 2.4179
-4.3873 -3.9199 2.4179
-4.2324 -4.0587 2.4179
-4.0725 -4.1909 2.4179
-3.9081 -4.3164 2.4179
-3.7393 -4.4350 2.4179
-3.5666 -4.5467 2.4179
-3.3902 -4.6513 2.4179
-3.2105 -4.7487 2.4179
-3.0277 -4.8389 2.4179
-2.8423 -4.9217 2.4179
-2.6545 -4.9972 2.4179
-2.4646 -5.0652 2.4179
-2.2730 -5.1258 2.4179
-2.0800 -5.1790 2.4179
-1.8858 -5.2247 2.4179
-1.6908 -5.2630 2.4179
-1.4953 -5.2939 2.4179
-1.2996 -5.3175 2.4179
-1.1039 -5.3339 2.4179
-0.9086 -5.3430 2.4179
-0.7138 -5.3449 2.4179
-0.5199 -5.3399 2.4179
-0.3272 -5.3279 2.4179
-0.1358 -5.3090 2.4179
0.0540 -5.2834 2.4179
0.2420 -5.2512 2.4179
0.4279 -5.2124 2.4179
0.6115 -5.1674 2.4179
0.7927 -5.1161 2.4179
0.9712 -5.0587 2.4179
1.1468 -4.9953 2.4179
1.3193 -4.9262 2.4179
1.4887 -4.8515 2.4179
1.6547 -4.7713 2.4179
1.8171 -4.6858 2.4179
1.9759 -4.5951 2.4179
2.1308 -4.4994 2.4179
2.2818 -4.3989 2.4179
2.4287 -4.2937 2.4179
2.5713 -4.1841 2.4179
2.7097 -4.0701 2.4179
2.8437 -3.9520 2.4179
2.9731 -3.8299 2.4179
3.0979 -3.7040 2.4179
3.2181 -3.5744 2.4179
3.3334 -3.4414 2.4179
3.4440 -3.3050 2.4179
3.5496 -3.1655 2.4179
3.6502 -3.0231 2.4179
3.7457 -2.8778 2.4179
3.8362 -2.7299 2.4179
3.9216 -2.5795 2.4179
4.0017 -2.4268 2.4179
4.0766 -2.2720 2.4179
4.1463 -2.1151 2.4179
4.2106 -1.9564 2.4179
4.2696 -1.7961 2.4179
4.3233 -1.6342 2.4179
4.3716 -1.4710 2.4179
4.4145 -1.3066 2.4179
0.3283 -4.9341 2.4179
0.5026 -4.8951 2.4179
0.6747 -4.8501 2.4179
0.8444 -4.7992 2.4179
1.0116 -4.7427 2.4179
1.1760 -4.6806 2.4179
1.3375 -4.6130 2.4179
1.4960 -4.5402 2.4179
1.6512 -4.4623 2.4179
1.8030 -4.3794 2.4179
1.9514 -4.2916 2.4179
2.0961 -4.1992 2.4179
2.2370 -4.1023 2.4179
2.3741 -4.0009 2.4179
2.5071 -3.8954 2.4179
2.6360 -3.7858 2.4179
2.7608 -3.6723 2.4179
2.8812 -3.5551 2.4179
2.9972 -3.4343 2.4179
3.1088 -3.3101 2.4179
3.2158 -3.1827 2.4179
3.3182 -3.0521 2.4179
3.4159 -2.9187 2.4179
3.5089 -2.7824 2.4179
3.5970 -2.6435 2.4179
3.6803 -2.5022 2.4179
3.7587 -2.3585 2.4179
3.8322 -2.2127 2.4179
3.9006 -2.0649 2.4179
3.9640 -1.9153 2.4179
4.0224 -1.7640 2.4179
4.0757 -1.6111 2.4179
4.1238 -1.4569 2.4179
4.1669 -1.3014 2.4179
4.2047 -1.1449 2.4179
4.2375 -0.9874 2.4179
4.2650 -0.8291 2.4179
4.2873 -0.6703 2.4179
4.3041 -0.5109 2.4177
4.3150 -0.3511 2.4171
4.3203 -0.1912 2.4163
4.3198 -0.0313 2.4151
4.3132 0.1282 2.4134
4.3007 0.2873 2.4114
4.2824 0.4456 2.4089
4.2581 0.6029 2.4059
4.2276 0.7589 2.4023
4.1910 0.9135 2.3980
4.1487 1.0663 2.3933
4.1034 1.2179 2.3897
4.0593 1.3699 2.3897
4.0102 1.5206 2.3896
3.9562 1.6696 2.3896
3.8973 1.8171 2.3895
3.8336 1.9627 2.3895
3.7651 2.1063 2.3894
3.6918 2.2479 2.3894
3.6138 2.3872 2.3893
3.5311 2.5242 2.3893
3.4438 2.6586 2.3893
3.3520 2.7904 2.3892
3.2557 2.9193 2.3892
3.1550 3.0454 2.3891
3.0500 3.1683 2.3891
2.9407 3.2880 2.3891
2.8271 3.4043 2.3890
2.7095 3.5172 2.3890
2.5879 3.6263 2.3890
2.4623 3.7317 2.3889
2.3329 3.8332 2.3889
2.1997 3.9306 2.3889
0.8651 1.6874 1.0018
0.8039 1.7195 0.9988
0.7415 1.7493 0.9957
0.6781 1.7769 0.9925
0.6137 1.8021 0.9893
0.5484 1.8250 0.9860
0.4824 1.8456 0.9826
0.4157 1.8637 0.9792
0.3483 1.8794 0.9757
0.2804 1.8927 0.9722
0.2121 1.9036 0.9686
0.1435 1.9119 0.9650
0.0745 1.9178 0.9614
0.0054 1.9211 0.9577
-0.0637 1.9220 0.9540
-0.1329 1.9204 0.9503
-0.2019 1.9162 0.9466
-0.2708 1.9096 0.9429
-0.3394 1.9005 0.9392
-0.4076 1.8889 0.9354
-0.4753 1.8749 0.9317
-0.5425 1.8584 0.9280
-0.6090 1.8395 0.9243
-0.6748 1.8182 0.9206
-0.7399 1.7945 0.9170
-0.8040 1.7686 0.9133
-0.8671 1.7403 0.9097
-0.9292 1.7097 0.9062
-2.6202 4.4380 2.3890
-2.7889 4.3623 2.3890
-2.9553 4.2800 2.3891
-3.1190 4.1912 2.3891
-3.2799 4.0961 2.3891
-3.4376 3.9946 2.3892
-3.5918 3.8868 2.3892
-3.7423 3.7729 2.3893
-3.8888 3.6530 2.3893
-4.0310 3.5272 2.3894
-4.1687 3.3956 2.3894
-4.3016 3.2584 2.3895
-4.4295 3.1158 2.3895
-4.5520 2.9679 2.3896
-4.6689 2.8149 2.3897
-4.7800 2.6572 2.3897
-4.8851 2.4948 2.3898
-4.9839 2.3281 2.3898
-5.0763 2.1572 2.3899
-5.1620 1.9825 2.3900
-5.2408 1.8041 2.3900
-5.3125 1.6225 2.3901
-5.3771 1.4379 2.3902
-5.4343 1.2506 2.3902
-5.4840 1.0609 2.3903
-5.5261 0.8692 2.3904
-5.5605 0.6757 2.3904
-5.5871 0.4808 2.3905
-5.6058 0.2848 2.3906
-5.6166 0.0881 2.3907
-5.6195 -0.1089 2.3907
-5.6144 -0.3060 2.3908
-5.6013 -0.5028 2.3909
-5.5895 -0.7000 2.3949
-5.5733 -0.8974 2.4005
-5.5469 -1.0939 2.4051
-5.5106 -1.2890 2.4089
-5.4646 -1.4822 2.4119
-5.4093 -1.6729 2.4143
-5.3449 -1.8608 2.4159
-5.2718 -2.0454 2.4171
-5.1903 -2.2263 2.4177
-5.1009 -2.4033 2.4179
-5.0040 -2.5760 2.4179
-4.9005 -2.7446 2.4179
-4.7905 -2.9086 2.4179
-4.6743 -3.0678 2.4179
-4.5521 -3.2220 2.4179
-4.4240 -3.3710 2.4179
-4.2905 -3.5145 2.4179
-4.1518 -3.6523 2.4179
-4.0080 -3.7843 2.4179
-3.8596 -3.9102 2.4179
-3.7067 -4.0300 2.4179
-3.5498 -4.1434 2.4179
-3.3890 -4.2504 2.4179
-3.2246 -4.3508 2.4179
-3.0570 -4.4446 2.4179
-2.8865 -4.5316 2.4179
-2.7132 -4.6118 2.4179
-2.5377 -4.6851 2.4179
-2.3601 -4.7515 2.4179
-2.1807 -4.8109 2.4179
-1.9998 -4.8634 2.4179
-1.8177 -4.9089 2.4179
-1.6348 -4.9475 2.4179
-1.4512 -4.9792 2.4179
-1.2672 -5.0039 2.4179
-1.0832 -5.0218 2.4179
-0.8993 -5.0330 2.4179
-0.7158 -5.0373 2.4179
-0.5331 -5.0351 2.4179
-0.3512 -5.0262 2.4179
-0.1705 -5.0109 2.4179
0.0088 -4.9892 2.4179
0.1865 -4.9612 2.4179
0.3624 -4.9270 2.4179
0.5363 -4.8868 2.4179
0.7079 -4.8406 2.4179
0.8772 -4.7886 2.4179
1.0438 -4.7310 2.4179
1.2077 -4.6678 2.4179
1.3686 -4.5993 2.4179
1.5265 -4.5255 2.4179
1.6810 -4.4465 2.4179
1.8322 -4.3627 2.4179
1.9799 -4.2740 2.4179
2.1238 -4.1807 2.4179
2.2640 -4.0829 2.4179
2.4003 -3.9807 2.4179
2.5326 -3.8744 2.4179
2.6607 -3.7640 2.4179
2.7846 -3.6498 2.4179
2.9042 -3.5319 2.4179
3.0193 -3.4104 2.4179
3.1300 -3.2856 2.4179
3.2361 -3.1575 2.4179
3.3376 -3.0264 2.4179
3.4344 -2.8923 2.4179
3.5264 -2.7555 2.4179
3.6136 -2.6161 2.4179
3.6960 -2.4743 2.4179
3.7734 -2.3303 2.4179
3.8459 -2.1841 2.4179
3.9134 -2.0359 2.4179
3.9758 -1.8859 2.4179
4.0332 -1.7343 2.4179
4.0854 -1.5812 2.4179
4.1326 -1.4267 2.4179
4.1746 -1.2710 2.4179
4.2115 -1.1143 2.4179
4.2432 -0.9566 2.4179
4.2698 -0.7982 2.4179
4.2910 -0.6392 2.4179
4.3067 -0.4798 2.4176
4.3165 -0.3199 2.4170
4.3206 -0.1600 2.4161
4.3190 -0.0002 2.4148
4.3113 0.1593 2.4131
4.2976 0.3182 2.4109
4.2781 0.4763 2.4083
4.2526 0.6334 2.4052
4.2210 0.7892 2.4015
4.1833 0.9434 2.3972
4.1398 1.0958 2.3924
4.0952 1.2477 2.3897
4.0501 1.3994 2.3897
4.0001 1.5497 2.3896
3.9451 1.6985 2.3896
3.8853 1.8456 2.3895
3.8206 1.9908 2.3895
3.7511 2.1341 2.3894
3.6769 2.2752 2.3894
3.5980 2.4141 2.3893
3.5145 2.5506 2.3893
3.4263 2.6845 2.3893
3.3336 2.8157 2.3892
3.2365 2.9441 2.3892
3.1349 3.0696 2.3891
3.0290 3.1919 2.3891
2.9189 3.3109 2.3891
2.8045 3.4266 2.3890
2.6861 3.5387 2.3890
2.5637 3.6472 2.3890
2.4374 3.7518 2.3889
2.3072 3.8525 2.3889
2.1733 3.9490 2.3889
0.8533 1.6938 1.0012
0.7918 1.7254 0.9982
0.7292 1.7548 0.9951
0.6656 1.7820 0.9919
0.6010 1.8068 0.9886
0.5356 1.8292 0.9853
0.4694 1.8493 0.9819
0.4026 1.8670 0.9785
0.3351 1.8822 0.9750
0.2672 1.8950 0.9715
0.1988 1.9054 0.9679
0.1300 1.9132 0.9643
0.0611 1.9186 0.9607
-0.0080 1.9215 0.9570
-0.0772 1.9219 0.9533
-0.1463 1.9198 0.9496
-0.2154 1.9151 0.9459
-0.2842 1.9080 0.9422
-0.3527 1.8984 0.9384
-0.4208 1.8864 0.9347
-0.4884 1.8719 0.9310
-0.5555 1.8549 0.9273
-0.6219 1.8355 0.9236
-0.6876 1.8138 0.9199
-0.7524 1.7897 0.9163
-0.8163 1.7632 0.9126
-0.8793 1.7345 0.9091
-0.9411 1.7035 0.9055
-2.6533 4.4238 2.3890
-2.8215 4.3467 2.3890
-2.9874 4.2632 2.3891
-3.1506 4.1732 2.3891
-3.3109 4.0768 2.3891
-3.4679 3.9741 2.3892
-3.6214 3.8651 2.3892
-3.7712 3.7500 2.3893
-3.9169 3.6289 2.3893
-4.0582 3.5020 2.3894
-4.1950 3.3693 2.3894
-4.3270 3.2310 2.3895
-4.4538 3.0873 2.3895
-4.5752 2.9385 2.3896
-4.6910 2.7846 2.3897
-4.8010 2.6259 2.3897
-4.9049 2.4627 2.3898
-5.0025 2.2951 2.3899
-5.0935 2.1234 2.3899
-5.1779 1.9480 2.3900
-5.2553 1.7690 2.3901
-5.3257 1.5868 2.3901
-5.3888 1.4016 2.3902
-5.4446 1.2138 2.3903
-5.4928 1.0237 2.3903
-5.5334 0.8316 2.3904
-5.5663 0.6378 2.3905
-5.5914 0.4426 2.3905
-5.6085 0.2465 2.3906
-5.6178 0.0497 2.3907
-5.6191 -0.1473 2.3907
-5.6124 -0.3444 2.3908
-5.5978 -0.5410 2.3909
-5.5872 -0.7385 2.3961
-5.5690 -0.9358 2.4015
-5.5406 -1.1321 2.4059
-5.5024 -1.3268 2.4096
-5.4547 -1.5196 2.4125
-5.3975 -1.7098 2.4147
-5.3314 -1.8970 2.4162
-5.2566 -2.0809 2.4173
-5.1735 -2.2611 2.4178
-5.0825 -2.4372 2.4179
-4.9844 -2.6092 2.4179
-4.8796 -2.7769 2.4179
-4.7684 -2.9400 2.4179
-4.6509 -3.0982 2.4179
-4.5276 -3.2514 2.4179
-4.3985 -3.3994 2.4179
-4.2639 -3.5418 2.4179
-4.1241 -3.6785 2.4179
-3.9795 -3.8093 2.4179
-3.8301 -3.9341 2.4179
-3.6765 -4.0526 2.4179
-3.5187 -4.1648 2.4179
-3.3572 -4.2705 2.4179
-3.1922 -4.3696 2.4179
-3.0240 -4.4621 2.4179
-2.8529 -4.5477 2.4179
-2.6792 -4.6266 2.4179
-2.5032 -4.6985 2.4179
-2.3252 -4.7636 2.4179
-2.1455 -4.8217 2.4179
-1.9644 -4.8728 2.4179
-1.7822 -4.9170 2.4179
-1.5990 -4.9542 2.4179
-1.4153 -4.9845 2.4179
-1.2314 -5.0080 2.4179
-1.0473 -5.0245 2.4179
-0.8635 -5.0343 2.4179
-0.6802 -5.0374 2.4179
-0.4975 -5.0339 2.4179
-0.3159 -5.0237 2.4179
-0.1355 -5.0072 2.4179
0.0436 -4.9842 2.4179
0.2209 -4.9550 2.4179
0.3965 -4.9196 2.4179
0.5699 -4.8782 2.4179
0.7411 -4.8309 2.4179
0.9099 -4.7779 2.4179
1.0760 -4.7191 2.4179
1.2393 -4.6549 2.4179
1.3996 -4.5853 2.4179
1.5568 -4.5105 2.4179
1.7108 -4.4306 2.4179
1.8613 -4.3458 2.4179
2.0082 -4.2562 2.4179
2.1515 -4.1620 2.4179
2.2909 -4.0633 2.4179
2.4264 -3.9603 2.4179
2.5578 -3.8532 2.4179
2.6852 -3.7421 2.4179
2.8082 -3.6271 2.4179
2.9269 -3.5085 2.4179
3.0412 -3.3863 2.4179
3.1510 -3.2609 2.4179
3.2563 -3.1322 2.4179
3.3569 -3.0005 2.4179
3.4527 -2.8659 2.4179
3.5438 -2.7286 2.4179
3.6301 -2.5887 2.4179
3.7115 -2.4465 2.4179
3.7879 -2.3019 2.4179
3.8594 -2.1553 2.4179
3.9259 -2.0068 2.4179
3.9874 -1.8565 2.4179
4.0437 -1.7046 2.4179
4.0950 -1.5512 2.4179
4.1412 -1.3964 2.4179
4.1822 -1.2405 2.4179
0.3033 -4.6658 2.4179
0.4682 -4.6299 2.4179
0.6311 -4.5883 2.4179
0.7919 -4.5412 2.4179
0.9502 -4.4886 2.4179
1.1061 -4.4308 2.4179
1.2592 -4.3677 2.4179
1.4095 -4.2997 2.4179
1.5569 -4.2267 2.4179
1.7010 -4.1490 2.4179
1.8419 -4.0667 2.4179
1.9794 -3.9798 2.4179
2.1134 -3.8887 2.4179
2.2437 -3.7933 2.4179
2.3702 -3.6939 2.4179
2.4929 -3.5906 2.4179
2.6116 -3.4836 2.4179
2.7263 -3.3730 2.4179
2.8369 -3.2589 2.4179
2.9432 -3.1415 2.4179
3.0452 -3.0211 2.4179
3.1428 -2.8976 2.4179
3.2360 -2.7712 2.4179
3.3247 -2.6422 2.4179
3.4088 -2.5107 2.4179
3.4883 -2.3768 2.4179
3.5632 -2.2406 2.4179
3.6333 -2.1023 2.4179
3.6987 -1.9622 2.4179
3.7594 -1.8202 2.4179
3.8152 -1.6766 2.4179
3.8661 -1.5315 2.4179
3.9122 -1.3851 2.4179
3.9534 -1.2374 2.4179
3.9896 -1.0887 2.4179
4.0210 -0.9391 2.4179
4.0474 -0.7888 2.4179
4.0686 -0.6377 2.4178
4.0846 -0.4862 2.4176
4.0951 -0.3344 2.4169
4.1000 -0.1824 2.4159
4.0995 -0.0305 2.4147
4.0934 0.1212 2.4131
4.0816 0.2724 2.4110
4.0643 0.4229 2.4086
4.0414 0.5724 2.4057
4.0127 0.7208 2.4023
3.9782 0.8678 2.3983
3.9383 1.0132 2.3938
3.8944 1.1571 2.3898
3.8523 1.3016 2.3897
3.8055 1.4447 2.3897
3.7540 1.5863 2.3896
3.6978 1.7264 2.3896
3.6370 1.8647 2.3895
3.5717 2.0011 2.3895
3.5018 2.1354 2.3894
3.4274 2.2677 2.3894
3.3485 2.3976 2.3894
3.2653 2.5251 2.3893
3.1778 2.6500 2.3893
3.0860 2.7722 2.3892
2.9900 2.8916 2.3892
2.8899 3.0081 2.3892
2.7857 3.1214 2.3891
2.6776 3.2314 2.3891
2.5656 3.3381 2.3891
2.4497 3.4413 2.3890
2.3302 3.5408 2.3890
2.2070 3.6366 2.3890
2.0803 3.7284 2.3890
0.8151 1.5949 0.9984
0.7572 1.6252 0.9956
0.6982 1.6534 0.9926
0.6382 1.6794 0.9896
0.5774 1.7033 0.9866
0.5157 1.7250 0.9834
0.4533 1.7444 0.9803
0.3902 1.7615 0.9770
0.3265 1.7764 0.9737
0.2623 1.7889 0.9704
0.1978 1.7992 0.9670
0.1328 1.8071 0.9636
0.0677 1.8126 0.9602
0.0024 1.8158 0.9567
-0.0630 1.8166 0.9533
-0.1284 1.8150 0.9498
-0.1936 1.8111 0.9462
-0.2587 1.8049 0.9427
-0.3236 1.7963 0.9392
-0.3880 1.7853 0.9357
-0.4521 1.7720 0.9321
-0.5156 1.7565 0.9286
-0.5785 1.7386 0.9251
-0.6407 1.7185 0.9217
-0.7022 1.6961 0.9182
-0.7628 1.6715 0.9148
-0.8224 1.6448 0.9114
-0.8811 1.6159 0.9080
-0.9387 1.5849 0.9047
-2.6373 4.1129 2.3891
-2.7936 4.0345 2.3891
-2.9474 3.9500 2.3892
-3.0984 3.8595 2.3892
-3.2464 3.7630 2.3892
-3.3910 3.6608 2.3893
-3.5321 3.5528 2.3893
-3.6694 3.4391 2.3894
-3.8027 3.3200 2.3894
-3.9316 3.1955 2.3895
-4.0560 3.0658 2.3895
-4.1756 2.9311 2.3896
-4.2902 2.7914 2.3896
-4.3995 2.6471 2.3897
-4.5034 2.4983 2.3898
-4.6015 2.3453 2.3898
-4.6938 2.1881 2.3899
-4.7800 2.0272 2.3899
-4.8599 1.8627 2.3900
-4.9334 1.6949 2.3901
-5.0003 1.5240 2.3901
-5.0605 1.3504 2.3902
-5.1138 1.1743 2.3903
-5.1601 0.9959 2.3903
-5.1992 0.8157 2.3904
-5.2312 0.6339 2.3904
-5.2559 0.4508 2.3905
-5.2732 0.2667 2.3906
-5.2832 0.0820 2.3906
-5.2857 -0.1031 2.3907
-5.2808 -0.2882 2.3908
-5.2684 -0.4730 2.3908
-5.2586 -0.6584 2.3954
-5.2426 -0.8437 2.4006
-5.2173 -1.0282 2.4050
-5.1829 -1.2113 2.4086
-5.1397 -1.3927 2.4115
-5.0880 -1.5719 2.4138
-5.0279 -1.7485 2.4155
-4.9599 -1.9221 2.4168
-4.8841 -2.0924 2.4176
-4.8005 -2.2589 2.4179
-4.7101 -2.4215 2.4179
-4.6133 -2.5801 2.4179
-4.5104 -2.7346 2.4179
-4.4017 -2.8846 2.4179
-4.2873 -3.0299 2.4179
-4.1675 -3.1704 2.4179
-4.0425 -3.3058 2.4179
-3.9126 -3.4359 2.4179
-3.7780 -3.5606 2.4179
-3.6389 -3.6797 2.4179
-3.4957 -3.7930 2.4179
-3.3485 -3.9004 2.4179
-3.1978 -4.0018 2.4179
-3.0436 -4.0971 2.4179
-2.8863 -4.1862 2.4179
-2.7262 -4.2689 2.4179
-2.5636 -4.3453 2.4179
-2.3986 -4.4152 2.4179
-2.2317 -4.4787 2.4179
-2.0630 -4.5357 2.4179
-1.8929 -4.5861 2.4179
-1.7216 -4.6300 2.4179
-1.5494 -4.6674 2.4179
-1.3765 -4.6983 2.4179
-1.2031 -4.7227 2.4179
-1.0297 -4.7406 2.4179
-0.8563 -4.7522 2.4179
-0.6832 -4.7574 2.4179
-0.5107 -4.7563 2.4179
-0.3390 -4.7490 2.4179
-0.1683 -4.7355 2.4179
0.0012 -4.7160 2.4179
0.1692 -4.6906 2.4179
0.3356 -4.6593 2.4179
0.5001 -4.6222 2.4179
0.6626 -4.5796 2.4179
0.8229 -4.5314 2.4179
0.9808 -4.4778 2.4179
1.1361 -4.4189 2.4179
1.2887 -4.3549 2.4179
1.4385 -4.2859 2.4179
1.5852 -4.2120 2.4179
1.7287 -4.1333 2.4179
1.8690 -4.0501 2.4179
2.0058 -3.9624 2.4179
2.1390 -3.8704 2.4179
2.2686 -3.7743 2.4179
2.3944 -3.6741 2.4179
2.5164 -3.5701 2.4179
2.6343 -3.4623 2.4179
2.7482 -3.3510 2.4179
2.8579 -3.2363 2.4179
2.9634 -3.1183 2.4179
3.0645 -2.9972 2.4179
3.1613 -2.8732 2.4179
3.2536 -2.7463 2.4179
3.3414 -2.6168 2.4179
3.4247 -2.4848 2.4179
3.5033 -2.3504 2.4179
3.5772 -2.2138 2.4179
3.6465 -2.0752 2.4179
3.7109 -1.9346 2.4179
3.7706 -1.7923 2.4179
3.8255 -1.6484 2.4179
3.8755 -1.5031 2.4179
3.9206 -1.3564 2.4179
3.9608 -1.2085 2.4179
3.9961 -1.0596 2.4179
4.0265 -0.9099 2.4179
4.0519 -0.7594 2.4179
4.0721 -0.6083 2.4178
4.0871 -0.4567 2.4174
4.0965 -0.3048 2.4168
4.1003 -0.1528 2.4157
4.0987 -0.0009 2.4144
4.0916 0.1507 2.4128
4.0787 0.3018 2.4106
4.0602 0.4521 2.4080
4.0362 0.6014 2.4050
4.0065 0.7496 2.4016
3.9709 0.8963 2.3974
3.9300 1.0413 2.3929
3.8866 1.1854 2.3898
3.8436 1.3296 2.3897
3.7959 1.4724 2.3897
3.7434 1.6138 2.3896
3.6864 1.7535 2.3896
3.6247 1.8914 2.3895
3.5584 2.0274 2.3895
3.4876 2.1614 2.3894
3.4124 2.2932 2.3894
3.3327 2.4226 2.3894
3.2486 2.5496 2.3893
3.1602 2.6741 2.3893
3.0676 2.7957 2.3892
2.9708 2.9146 2.3892
2.8699 3.0304 2.3892
2.7650 3.1431 2.3891
2.6561 3.2525 2.3891
2.5433 3.3585 2.3891
2.4267 3.4610 2.3890
2.3065 3.5598 2.3890
2.1826 3.6548 2.3890
0.8609 1.5690 1.0007
0.8039 1.6010 0.9979
0.7457 1.6309 0.9950
0.6866 1.6586 0.9920
0.6264 1.6843 0.9890
0.5654 1.7077 0.9860
0.5036 1.7289 0.9828
0.4410 1.7479 0.9796
0.3778 1.7646 0.9764
0.3140 1.7790 0.9731
0.2498 1.7911 0.9698
0.1851 1.8009 0.9664
0.1202 1.8083 0.9630
0.0550 1.8134 0.9595
-0.0104 1.8161 0.9561
-0.0757 1.8165 0.9526
-0.1411 1.8145 0.9491
-0.2063 1.8101 0.9456
-0.2714 1.8034 0.9420
-0.3361 1.7943 0.9385
-0.4005 1.7829 0.9350
-0.4645 1.7692 0.9315
-0.5279 1.7532 0.9280
-0.5907 1.7348 0.9245
-0.6527 1.7143 0.9210
-0.7140 1.6915 0.9175
-0.7745 1.6665 0.9141
-0.8339 1.6393 0.9107
-0.8924 1.6100 0.9074
-0.9498 1.5787 0.9041
-2.6680 4.0981 2.3891
-2.8238 4.0185 2.3891
-2.9771 3.9328 2.3892
-3.1275 3.8411 2.3892
-3.2748 3.7436 2.3893
-3.4188 3.6402 2.3893
-3.5592 3.5311 2.3893
-3.6957 3.4163 2.3894
-3.8282 3.2962 2.3894
-3.9562 3.1707 2.3895
-4.0797 3.0399 2.3895
-4.1983 2.9042 2.3896
-4.3119 2.7637 2.3897
-4.4202 2.6185 2.3897
-4.5229 2.4688 2.3898
-4.6200 2.3150 2.3898
-4.7111 2.1571 2.3899
-4.7961 1.9954 2.3899
-4.8748 1.8303 2.3900
-4.9470 1.6618 2.3901
-5.0126 1.4904 2.3901
-5.0714 1.3163 2.3902
-5.1234 1.1397 2.3903
-5.1683 0.9610 2.3903
-5.2060 0.7804 2.3904
-5.2366 0.5983 2.3905
-5.2598 0.4150 2.3905
-5.2757 0.2307 2.3906
-5.2842 0.0459 2.3907
-5.2853 -0.1392 2.3907
-5.2790 -0.3242 2.3908
-5.2652 -0.5089 2.3908
-5.2562 -0.6945 2.3965
-5.2384 -0.8797 2.4015
-5.2114 -1.0640 2.4058
-5.1753 -1.2469 2.4092
-5.1304 -1.4278 2.4120
-5.0770 -1.6066 2.4142
-5.0153 -1.7826 2.4158
-4.9456 -1.9555 2.4169
-4.8683 -2.1251 2.4177
-4.7835 -2.2909 2.4179
-4.6917 -2.4527 2.4179
-4.5937 -2.6105 2.4179
-4.4897 -2.7641 2.4179
-4.3799 -2.9133 2.4179
-4.2644 -3.0577 2.4179
-4.1436 -3.1972 2.4179
-4.0176 -3.3315 2.4179
-3.8867 -3.4606 2.4179
-3.7512 -3.5842 2.4179
-3.6113 -3.7022 2.4179
-3.4673 -3.8144 2.4179
-3.3194 -3.9206 2.4179
-3.1680 -4.0209 2.4179
-3.0132 -4.1149 2.4179
-2.8553 -4.2028 2.4179
-2.6947 -4.2843 2.4179
-2.5316 -4.3594 2.4179
-2.3663 -4.4281 2.4179
-2.1990 -4.4903 2.4179
-2.0300 -4.5460 2.4179
-1.8596 -4.5952 2.4179
-1.6881 -4.6378 2.4179
-1.5157 -4.6740 2.4179
-1.3427 -4.7036 2.4179
-1.1693 -4.7267 2.4179
-0.9959 -4.7434 2.4179
-0.8225 -4.7537 2.4179
-0.6495 -4.7576 2.4179
-0.4772 -4.7553 2.4179
-0.3056 -4.7468 2.4179
-0.1352 -4.7322 2.4179
0.0340 -4.7115 2.4179
0.2018 -4.6849 2.4179
0.3678 -4.6525 2.4179
0.5319 -4.6144 2.4179
0.6940 -4.5706 2.4179
0.8539 -4.5213 2.4179
1.0113 -4.4667 2.4179
1.1661 -4.4068 2.4179
1.3182 -4.3418 2.4179
1.4673 -4.2718 2.4179
1.6134 -4.1970 2.4179
1.7563 -4.1175 2.4179
1.8959 -4.0333 2.4179
2.0320 -3.9448 2.4179
2.1646 -3.8520 2.4179
2.2934 -3.7551 2.4179
2.4185 -3.6541 2.4179
2.5397 -3.5494 2.4179
2.6568 -3.4409 2.4179
2.7699 -3.3289 2.4179
2.8788 -3.2136 2.4179
2.9834 -3.0950 2.4179
3.0837 -2.9733 2.4179
3.1796 -2.8487 2.4179
3.2711 -2.7213 2.4179
3.3580 -2.5913 2.4179
3.4404 -2.4588 2.4179
3.5181 -2.3240 2.4179
3.5911 -2.1870 2.4179
3.6594 -2.0479 2.4179
3.7229 -1.9070 2.4179
3.7817 -1.7644 2.4179
3.8356 -1.6202 2.4179
3.8847 -1.4746 2.4179
3.9288 -1.3277 2.4179
3.9681 -1.1796 2.4179
0.2804 -4.4199 2.4179
0.4367 -4.3867 2.4179
0.5912 -4.3482 2.4179
0.7436 -4.3044 2.4179
0.8939 -4.2554 2.4179
1.0419 -4.2013 2.4179
1.1873 -4.1423 2.4179
1.3301 -4.0786 2.4179
1.4701 -4.0101 2.4179
1.6072 -3.9371 2.4179
1.7412 -3.8596 2.4179
1.8720 -3.7779 2.4179
1.9995 -3.6920 2.4179
2.1235 -3.6020 2.4179
2.2441 -3.5082 2.4179
2.3610 -3.4107 2.4179
2.4741 -3.3095 2.4179
2.5834 -3.2049 2.4179
2.6889 -3.0970 2.4179
2.7903 -2.9859 2.4179
2.8876 -2.8718 2.4179
2.9808 -2.7548 2.4179
3.0698 -2.6351 2.4179
3.1545 -2.5127 2.4179
3.2349 -2.3879 2.4179
3.3108 -2.2608 2.4179
3.3824 -2.1316 2.4179
3.4495 -2.0003 2.4179
3.5120 -1.8671 2.4179
3.5700 -1.7323 2.4179
3.6234 -1.5958 2.4179
3.6722 -1.4578 2.4179
3.7163 -1.3186 2.4179
3.7557 -1.1782 2.4179
3.7905 -1.0367 2.4179
3.8205 -0.8944 2.4179
3.8458 -0.7513 2.4179
3.8661 -0.6076 2.4177
3.8812 -0.4634 2.4173
3.8913 -0.3189 2.4167
3.8960 -0.1742 2.4156
3.8955 -0.0296 2.4143
3.8899 0.1147 2.4128
3.8787 0.2586 2.4107
3.8623 0.4019 2.4083
3.8407 0.5442 2.4056
3.8136 0.6855 2.4023
3.7810 0.8255 2.3985
3.7434 0.9640 2.3943
3.7008 1.1008 2.3898
3.6607 1.2383 2.3897
3.6159 1.3745 2.3897
3.5668 1.5092 2.3897
3.5131 1.6424 2.3896
3.4551 1.7739 2.3896
3.3926 1.9036 2.3895
3.3259 2.0313 2.3895
3.2549 2.1570 2.3894
3.1796 2.2805 2.3894
3.1002 2.4016 2.3894
3.0166 2.5202 2.3893
2.9290 2.6362 2.3893
2.8374 2.7495 2.3893
2.7419 2.8599 2.3892
2.6425 2.9673 2.3892
2.5394 3.0717 2.3892
2.4326 3.1727 2.3891
2.3222 3.2704 2.3891
2.2082 3.3645 2.3891
2.0909 3.4551 2.3891
0.8230 1.4795 0.9979
0.7692 1.5101 0.9953
0.7144 1.5388 0.9926
0.6585 1.5655 0.9898
0.6017 1.5902 0.9870
0.5441 1.6128 0.9841
0.4857 1.6333 0.9811
0.4266 1.6517 0.9781
0.3668 1.6679 0.9750
0.3065 1.6820 0.9719
0.2457 1.6938 0.9688
0.1846 1.7035 0.9656
0.1231 1.7110 0.9624
0.0614 1.7162 0.9591
-0.0004 1.7192 0.9558
-0.0623 1.7200 0.9525
-0.1242 1.7185 0.9492
-0.1861 1.7148 0.9459
-0.2477 1.7089 0.9426
-0.3091 1.7007 0.9392
-0.3701 1.6904 0.9359
-0.4308 1.6778 0.9326
-0.4909 1.6630 0.9292
-0.5505 1.6461 0.9259
-0.6094 1.6271 0.9226
-0.6676 1.6059 0.9194
-0.7250 1.5826 0.9161
-0.7815 1.5573 0.9129
-0.8371 1.5300 0.9097
-0.8916 1.5006 0.9066
-0.9450 1.4693 0.9035
-2.6463 3.8106 2.3892
-2.7910 3.7301 2.3892
-2.9331 3.6439 2.3893
-3.0723 3.5522 2.3893
-3.2083 3.4550 2.3894
-3.3409 3.3524 2.3894
-3.4699 3.2446 2.3894
-3.5951 3.1316 2.3895
-3.7161 3.0137 2.3895
-3.8328 2.8908 2.3896
-3.9450 2.7633 2.3896
-4.0525 2.6312 2.3897
-4.1549 2.4948 2.3897
-4.2523 2.3542 2.3898
-4.3442 2.2096 2.3898
-4.4306 2.0612 2.3899
-4.5113 1.9093 2.3900
-4.5861 1.7541 2.3900
-4.6549 1.5959 2.3901
-4.7175 1.4348 2.3901
-4.7737 1.2711 2.3902
-4.8235 1.1051 2.3903
-4.8667 0.9371 2.3903
-4.9032 0.7673 2.3904
-4.9330 0.5961 2.3904
-4.9560 0.4236 2.3905
-4.9721 0.2503 2.3906
-4.9813 0.0764 2.3906
-4.9836 -0.0979 2.3907
-4.9789 -0.2721 2.3907
-4.9672 -0.4460 2.3908
-4.9589 -0.6207 2.3959
-4.9432 -0.7951 2.4007
-4.9190 -0.9687 2.4048
-4.8864 -1.1411 2.4082
-4.8457 -1.3118 2.4110
-4.7972 -1.4805 2.4133
-4.7411 -1.6469 2.4151
-4.6774 -1.8105 2.4165
-4.6063 -1.9709 2.4173
-4.5284 -2.1280 2.4177
-4.4438 -2.2815 2.4179
-4.3531 -2.4311 2.4179
-4.2566 -2.5769 2.4179
-4.1546 -2.7185 2.4179
-4.0473 -2.8557 2.4179
-3.9348 -2.9884 2.4179
-3.8175 -3.1164 2.4179
-3.6956 -3.2395 2.4179
-3.5692 -3.3575 2.4179
-3.4386 -3.4703 2.4179
-3.3040 -3.5777 2.4179
-3.1657 -3.6796 2.4179
-3.0239 -3.7759 2.4179
-2.8790 -3.8664 2.4179
-2.7310 -3.9511 2.4179
-2.5804 -4.0299 2.4179
-2.4273 -4.1027 2.4179
-2.2720 -4.1695 2.4179
-2.1148 -4.2302 2.4179
-1.9558 -4.2849 2.4179
-1.7955 -4.3333 2.4179
-1.6339 -4.3757 2.4179
-1.4714 -4.4119 2.4179
-1.3083 -4.4419 2.4179
-1.1446 -4.4659 2.4179
-0.9808 -4.4837 2.4179
-0.8169 -4.4955 2.4179
-0.6534 -4.5014 2.4179
-0.4902 -4.5012 2.4179
-0.3278 -4.4952 2.4179
-0.1662 -4.4834 2.4179
-0.0058 -4.4658 2.4179
0.1533 -4.4426 2.4179
0.3110 -4.4139 2.4179
0.4669 -4.3796 2.4179
0.6210 -4.3401 2.4179
0.7731 -4.2952 2.4179
0.9229 -4.2452 2.4179
1.0704 -4.1902 2.4179
1.2153 -4.1303 2.4179
1.3576 -4.0656 2.4179
1.4971 -3.9962 2.4179
1.6335 -3.9223 2.4179
1.7669 -3.8440 2.4179
1.8971 -3.7615 2.4179
2.0239 -3.6748 2.4179
2.1473 -3.5841 2.4179
2.2671 -3.4895 2.4179
2.3833 -3.3913 2.4179
2.4957 -3.2894 2.4179
2.6043 -3.1842 2.4179
2.7089 -3.0756 2.4179
2.8096 -2.9639 2.4179
2.9061 -2.8492 2.4179
2.9985 -2.7317 2.4179
3.0866 -2.6114 2.4179
3.1705 -2.4886 2.4179
3.2500 -2.3634 2.4179
3.3251 -2.2358 2.4179
3.3958 -2.1062 2.4179
3.4620 -1.9745 2.4179
3.5237 -1.8410 2.4179
3.5808 -1.7058 2.4179
3.6333 -1.5690 2.4179
3.6811 -1.4308 2.4179
3.7244 -1.2913 2.4179
3.7629 -1.1507 2.4179
3.7967 -1.0091 2.4179
3.8259 -0.8666 2.4179
3.8501 -0.7234 2.4179
3.8695 -0.5796 2.4177
3.8836 -0.4353 2.4172
3.8927 -0.2907 2.4165
3.8963 -0.1460 2.4154
3.8948 -0.0015 2.4140
3.8881 0.1428 2.4124
3.8760 0.2866 2.4103
3.8585 0.4297 2.4078
3.8357 0.5719 2.4049
3.8077 0.7129 2.4016
3.7741 0.8526 2.3977
3.7355 0.9908 2.3934
3.6934 1.1277 2.3898
3.6523 1.2649 2.3897
3.6067 1.4008 2.3897
3.5567 1.5353 2.3896
3.5022 1.6682 2.3896
3.4432 1.7993 2.3896
3.3800 1.9287 2.3895
3.3124 2.0560 2.3895
3.2405 2.1812 2.3894
3.1644 2.3042 2.3894
3.0842 2.4249 2.3894
2.9999 2.5430 2.3893
2.9115 2.6585 2.3893
2.8191 2.7712 2.3893
