ply
format ascii 1.0
element vertex 2167
property float32 x
property float32 y
property float32 z
end_header
-0.0734 -6.7845 2.3900
0.1683 -6.7407 2.3900
0.4069 -6.6887 2.3900
0.6423 -6.6288 2.3900
0.8741 -6.5611 2.3900
1.1021 -6.4857 2.3900
1.3262 -6.4031 2.3900
1.5460 -6.3132 2.3900
1.7615 -6.2165 2.3900
1.9724 -6.1131 2.3900
2.1785 -6.0031 2.3900
2.3797 -5.8870 2.3900
2.5759 -5.7648 2.3900
2.7668 -5.6367 2.3900
2.9524 -5.5031 2.3900
3.1326 -5.3641 2.3900
3.3072 -5.2199 2.3900
3.4761 -5.0709 2.3900
3.6393 -4.9170 2.3900
3.7966 -4.7588 2.3900
3.9480 -4.5961 2.3900
4.0933 -4.4295 2.3900
4.2326 -4.2589 2.3900
4.3658 -4.0847 2.3900
4.4927 -3.9070 2.3900
4.6134 -3.7260 2.3900
4.7278 -3.5420 2.3900
4.8359 -3.3551 2.3900
4.9377 -3.1655 2.3900
5.0330 -2.9733 2.3900
5.1219 -2.7789 2.3900
5.2044 -2.5824 2.3900
5.2804 -2.3839 2.3900
5.3500 -2.1836 2.3900
5.4130 -1.9817 2.3900
5.4695 -1.7785 2.3900
5.5196 -1.5739 2.3900
5.5631 -1.3683 2.3900
5.6000 -1.1618 2.3900
5.6305 -0.9546 2.3900
5.6544 -0.7468 2.3900
5.6718 -0.5386 2.3900
5.6827 -0.3301 2.3900
5.6870 -0.1216 2.3900
5.6849 0.0869 2.3900
5.6763 0.2951 2.3900
5.6612 0.5029 2.3900
5.6396 0.7101 2.3900
5.6115 0.9166 2.3900
5.5771 1.1222 2.3900
5.5362 1.3267 2.3900
5.4889 1.5301 2.3900
5.4352 1.7320 2.3900
5.3752 1.9325 2.3900
5.3088 2.1312 2.3900
5.2361 2.3280 2.3900
5.1572 2.5229 2.3900
5.0720 2.7155 2.3900
4.9807 2.9058 2.3900
4.8832 3.0935 2.3900
4.7795 3.2785 2.3900
4.6698 3.4607 2.3900
4.5541 3.6398 2.3900
4.4323 3.8156 2.3900
4.3047 3.9881 2.3900
4.1712 4.1570 2.3900
4.0318 4.3221 2.3900
3.8868 4.4833 2.3900
3.7361 4.6403 2.3900
3.5798 4.7931 2.3900
3.4180 4.9413 2.3900
3.2509 5.0848 2.3900
3.0784 5.2235 2.3900
2.9007 5.3570 2.3900
2.7179 5.4853 2.3900
2.5301 5.6081 2.3900
2.3375 5.7253 2.3900
2.1401 5.8366 2.3900
0.8140 2.4954 1.0037
0.7239 2.5252 0.9991
0.6329 2.5517 0.9943
0.5409 2.5749 0.9895
0.4481 2.5948 0.9846
0.3547 2.6113 0.9797
0.2607 2.6245 0.9747
0.1664 2.6342 0.9697
0.0717 2.6405 0.9646
-0.0231 2.6434 0.9595
-0.1180 2.6428 0.9544
-0.2128 2.6389 0.9492
-0.3075 2.6315 0.9441
-0.4017 2.6207 0.9389
-0.4956 2.6064 0.9337
-0.5888 2.5888 0.9286
-0.6814 2.5679 0.9234
-0.7731 2.5436 0.9183
-0.8639 2.5160 0.9132
-0.9536 2.4851 0.9081
-2.7581 6.4863 2.3900
-3.0056 6.4231 2.3900
-3.2519 6.3504 2.3900
-3.4966 6.2681 2.3900
-3.7393 6.1764 2.3900
-3.9796 6.0751 2.3900
-4.2171 5.9642 2.3900
-4.4513 5.8438 2.3900
-4.6819 5.7140 2.3900
-4.9083 5.5748 2.3900
-5.1302 5.4262 2.3900
-5.3470 5.2685 2.3900
-5.5585 5.1017 2.3900
-5.7640 4.9260 2.3900
-5.9632 4.7416 2.3900
-6.1557 4.5488 2.3900
-6.3410 4.3476 2.3900
-6.5187 4.1385 2.3900
-6.6883 3.9217 2.3900
-6.8495 3.6974 2.3900
-7.0020 3.4661 2.3900
-7.1452 3.2281 2.3900
-7.2789 2.9838 2.3900
-7.4027 2.7335 2.3900
-7.5162 2.4778 2.3900
-7.6193 2.2169 2.3900
-7.7116 1.9516 2.3900
-7.7929 1.6821 2.3900
-7.8629 1.4091 2.3900
-7.9214 1.1329 2.3900
-7.9683 0.8542 2.3900
-8.0034 0.5735 2.3900
-8.0267 0.2913 2.3900
-8.0380 0.0082 2.3900
-8.0373 -0.2752 2.3900
-8.0246 -0.5585 2.3900
-7.9998 -0.8409 2.3900
-7.9631 -1.1221 2.3900
-7.9146 -1.4013 2.3900
-7.8543 -1.6781 2.3900
-7.7823 -1.9520 2.3900
-7.6989 -2.2223 2.3900
-7.6043 -2.4886 2.3900
-7.4987 -2.7503 2.3900
-7.3823 -3.0070 2.3900
-7.2555 -3.2582 2.3900
-7.1185 -3.5035 2.3900
-6.9717 -3.7424 2.3900
-6.8154 -3.9745 2.3900
-6.6501 -4.1994 2.3900
-6.4760 -4.4168 2.3900
-6.2936 -4.6262 2.3900
-6.1034 -4.8275 2.3900
-5.9057 -5.0203 2.3900
-5.7010 -5.2044 2.3900
-5.4897 -5.3794 2.3900
-5.2724 -5.5452 2.3900
-5.0494 -5.7017 2.3900
-4.8213 -5.8487 2.3900
-4.5884 -5.9860 2.3900
-4.3513 -6.1135 2.3900
-4.1104 -6.2312 2.3900
-3.8662 -6.3389 2.3900
-3.6191 -6.4367 2.3900
-3.3697 -6.5245 2.3900
-3.1182 -6.6024 2.3900
-2.8652 -6.6704 2.3900
-2.6110 -6.7284 2.3900
-2.3561 -6.7767 2.3900
-2.1009 -6.8152 2.3900
-1.8458 -6.8441 2.3900
-1.5912 -6.8634 2.3900
-1.3374 -6.8734 2.3900
-1.0848 -6.8741 2.3900
-0.8336 -6.8657 2.3900
-0.5844 -6.8484 2.3900
-0.3372 -6.8223 2.3900
-0.0926 -6.7876 2.3900
0.1493 -6.7444 2.3900
0.3883 -6.6931 2.3900
0.6239 -6.6338 2.3900
0.8560 -6.5667 2.3900
1.0843 -6.4919 2.3900
1.3087 -6.4098 2.3900
1.5289 -6.3206 2.3900
1.7447 -6.2244 2.3900
1.9559 -6.1214 2.3900
2.1625 -6.0120 2.3900
2.3641 -5.8963 2.3900
2.5606 -5.7746 2.3900
2.7520 -5.6470 2.3900
2.9380 -5.5138 2.3900
3.1186 -5.3752 2.3900
-7.4225 -0.0344 2.3900
-7.4199 -0.2958 2.3900
-7.4063 -0.5568 2.3900
-7.3818 -0.8171 2.3900
-7.3464 -1.0761 2.3900
-7.3002 -1.3333 2.3900
-7.2433 -1.5883 2.3900
-7.1758 -1.8405 2.3900
-7.0979 -2.0894 2.3900
-7.0098 -2.3346 2.3900
-6.9116 -2.5757 2.3900
-6.8037 -2.8122 2.3900
-6.6862 -3.0436 2.3900
-6.5595 -3.2696 2.3900
-6.4238 -3.4898 2.3900
-6.2795 -3.7038 2.3900
-6.1268 -3.9113 2.3900
-5.9662 -4.1118 2.3900
-5.7980 -4.3053 2.3900
-5.6226 -4.4912 2.3900
-5.4402 -4.6694 2.3900
-5.2515 -4.8396 2.3900
-5.0567 -5.0017 2.3900
-4.8563 -5.1553 2.3900
-4.6506 -5.3004 2.3900
-4.4401 -5.4368 2.3900
-4.2252 -5.5644 2.3900
-4.0063 -5.6830 2.3900
-3.7839 -5.7926 2.3900
-3.5583 -5.8931 2.3900
-3.3301 -5.9844 2.3900
-3.0994 -6.0667 2.3900
-2.8668 -6.1398 2.3900
-2.6327 -6.2037 2.3900
-2.3974 -6.2585 2.3900
-2.1614 -6.3043 2.3900
-1.9249 -6.3411 2.3900
-1.6884 -6.3690 2.3900
-1.4522 -6.3881 2.3900
-1.2166 -6.3984 2.3900
-0.9820 -6.4002 2.3900
-0.7487 -6.3935 2.3900
-0.5170 -6.3784 2.3900
-0.2871 -6.3552 2.3900
-0.0594 -6.3240 2.3900
0.1658 -6.2849 2.3900
0.3884 -6.2382 2.3900
0.6080 -6.1839 2.3900
0.8245 -6.1223 2.3900
1.0376 -6.0536 2.3900
1.2471 -5.9779 2.3900
1.4527 -5.8955 2.3900
1.6544 -5.8065 2.3900
1.8519 -5.7112 2.3900
2.0451 -5.6098 2.3900
2.2338 -5.5024 2.3900
2.4178 -5.3892 2.3900
2.5971 -5.2705 2.3900
2.7714 -5.1465 2.3900
2.9407 -5.0174 2.3900
3.1048 -4.8833 2.3900
3.2637 -4.7445 2.3900
3.4172 -4.6011 2.3900
3.5653 -4.4535 2.3900
3.7078 -4.3017 2.3900
3.8448 -4.1460 2.3900
3.9760 -3.9866 2.3900
4.1015 -3.8236 2.3900
4.2212 -3.6573 2.3900
4.3351 -3.4878 2.3900
4.4430 -3.3153 2.3900
4.5450 -3.1400 2.3900
4.6410 -2.9622 2.3900
4.7310 -2.7819 2.3900
4.8149 -2.5993 2.3900
4.8928 -2.4147 2.3900
4.9645 -2.2282 2.3900
5.0301 -2.0400 2.3900
5.0896 -1.8502 2.3900
5.1429 -1.6590 2.3900
5.1900 -1.4666 2.3900
5.2310 -1.2732 2.3900
5.2657 -1.0789 2.3900
5.2943 -0.8838 2.3900
5.3167 -0.6882 2.3900
5.3328 -0.4922 2.3900
5.3428 -0.2960 2.3900
5.3467 -0.0997 2.3900
5.3443 0.0966 2.3900
5.3358 0.2926 2.3900
5.3211 0.4882 2.3900
5.3002 0.6832 2.3900
5.2733 0.8776 2.3900
5.2402 1.0710 2.3900
5.2010 1.2635 2.3900
5.1558 1.4548 2.3900
5.1045 1.6447 2.3900
5.0472 1.8331 2.3900
4.9838 2.0199 2.3900
4.9145 2.2049 2.3900
4.8393 2.3878 2.3900
4.7582 2.5686 2.3900
4.6712 2.7471 2.3900
4.5784 2.9232 2.3900
4.4799 3.0966 2.3900
4.3755 3.2673 2.3900
4.2656 3.4349 2.3900
4.1500 3.5995 2.3900
4.0288 3.7607 2.3900
3.9021 3.9184 2.3900
3.7700 4.0726 2.3900
3.6327 4.2226 2.3900
3.4898 4.3691 2.3900
3.3419 4.5113 2.3900
3.1888 4.6491 2.3900
3.0307 4.7823 2.3900
2.8677 4.9109 2.3900
2.6998 5.0345 2.3900
2.5273 5.1531 2.3900
2.3501 5.2665 2.3900
2.1685 5.3744 2.3900
0.8323 2.2992 1.0034
0.7493 2.3298 0.9991
0.6652 2.3573 0.9947
0.5802 2.3818 0.9903
0.4943 2.4032 0.9858
0.4077 2.4215 0.9813
0.3206 2.4366 0.9767
0.2329 2.4486 0.9720
0.1448 2.4574 0.9673
0.0565 2.4631 0.9626
-0.0320 2.4655 0.9578
-0.1205 2.4647 0.9530
-0.2089 2.4608 0.9482
-0.2972 2.4536 0.9434
-0.3851 2.4433 0.9386
-0.4726 2.4297 0.9338
-0.5595 2.4131 0.9289
-0.6458 2.3933 0.9241
-0.7313 2.3704 0.9194
-0.8159 2.3444 0.9146
-0.8995 2.3154 0.9099
-2.5928 6.0286 2.3900
-2.8220 5.9668 2.3900
-3.0498 5.8962 2.3900
-3.2759 5.8169 2.3900
-3.5000 5.7287 2.3900
-3.7217 5.6318 2.3900
-3.9405 5.5261 2.3900
-4.1562 5.4117 2.3900
-4.3682 5.2886 2.3900
-4.5763 5.1570 2.3900
-4.7800 5.0168 2.3900
-4.9789 4.8683 2.3900
-5.1726 4.7115 2.3900
-5.3608 4.5466 2.3900
-5.5430 4.3739 2.3900
-5.7189 4.1935 2.3900
-5.8880 4.0055 2.3900
-6.0501 3.8104 2.3900
-6.2046 3.6083 2.3900
-6.3514 3.3996 2.3900
-6.4899 3.1845 2.3900
-6.6200 2.9634 2.3900
-6.7412 2.7366 2.3900
-6.8534 2.5046 2.3900
-6.9561 2.2676 2.3900
-7.0492 2.0261 2.3900
-7.1323 1.7806 2.3900
-7.2054 1.5314 2.3900
-7.2683 1.2793 2.3900
-7.3205 1.0240 2.3900
-7.3621 0.7667 2.3900
-7.3930 0.5076 2.3900
-7.4131 0.2473 2.3900
-7.4223 -0.0138 2.3900
-7.4205 -0.2752 2.3900
-7.4078 -0.5363 2.3900
-7.3841 -0.7967 2.3900
-7.3495 -1.0558 2.3900
-7.3042 -1.3132 2.3900
-7.2481 -1.5683 2.3900
-7.1815 -1.8207 2.3900
-7.1044 -2.0699 2.3900
-7.0171 -2.3155 2.3900
-6.9197 -2.5569 2.3900
-6.8125 -2.7937 2.3900
-6.6958 -3.0256 2.3900
-6.5698 -3.2520 2.3900
-6.4348 -3.4727 2.3900
-6.2912 -3.6872 2.3900
-6.1391 -3.8952 2.3900
-5.9791 -4.0963 2.3900
-5.8115 -4.2903 2.3900
-5.6366 -4.4768 2.3900
-5.4548 -4.6557 2.3900
-5.2666 -4.8265 2.3900
-5.0722 -4.9892 2.3900
-4.8722 -5.1435 2.3900
-4.6669 -5.2893 2.3900
-4.4568 -5.4264 2.3900
-4.2423 -5.5546 2.3900
-4.0237 -5.6740 2.3900
-3.8015 -5.7843 2.3900
-3.5762 -5.8855 2.3900
-3.3481 -5.9776 2.3900
-3.1176 -6.0606 2.3900
-2.8852 -6.1343 2.3900
-2.6512 -6.1990 2.3900
-2.4160 -6.2546 2.3900
-2.1800 -6.3011 2.3900
-1.9435 -6.3385 2.3900
-1.7070 -6.3671 2.3900
-1.4708 -6.3869 2.3900
-1.2351 -6.3979 2.3900
-1.0005 -6.4003 2.3900
-0.7670 -6.3943 2.3900
-0.5352 -6.3799 2.3900
-0.3052 -6.3573 2.3900
-0.0773 -6.3267 2.3900
0.1482 -6.2883 2.3900
0.3710 -6.2421 2.3900
0.5909 -6.1884 2.3900
0.8076 -6.1274 2.3900
1.0209 -6.0592 2.3900
1.2307 -5.9841 2.3900
1.4367 -5.9022 2.3900
1.6387 -5.8138 2.3900
1.8366 -5.7189 2.3900
2.0301 -5.6180 2.3900
2.2191 -5.5110 2.3900
2.4035 -5.3983 2.3900
2.5831 -5.2801 2.3900
2.7578 -5.1564 2.3900
2.9275 -5.0277 2.3900
3.0921 -4.8940 2.3900
3.2514 -4.7556 2.3900
3.4053 -4.6126 2.3900
3.5538 -4.4653 2.3900
3.6968 -4.3138 2.3900
3.8342 -4.1584 2.3900
3.9659 -3.9992 2.3900
4.0919 -3.8365 2.3900
4.2120 -3.6705 2.3900
4.3263 -3.5012 2.3900
4.4348 -3.3290 2.3900
4.5372 -3.1539 2.3900
4.6337 -2.9763 2.3900
4.7241 -2.7961 2.3900
4.8086 -2.6138 2.3900
4.8869 -2.4293 2.3900
4.9591 -2.2430 2.3900
5.0252 -2.0548 2.3900
5.0851 -1.8652 2.3900
5.1389 -1.6741 2.3900
5.1865 -1.4818 2.3900
5.2280 -1.2885 2.3900
5.2632 -1.0942 2.3900
5.2923 -0.8992 2.3900
5.3151 -0.7036 2.3900
5.3318 -0.5077 2.3900
5.3423 -0.3114 2.3900
5.3466 -0.1151 2.3900
5.3447 0.0811 2.3900
5.3367 0.2771 2.3900
5.3225 0.4728 2.3900
5.3021 0.6679 2.3900
5.2756 0.8623 2.3900
5.2430 1.0559 2.3900
5.2043 1.2484 2.3900
5.1596 1.4398 2.3900
5.1087 1.6298 2.3900
5.0519 1.8183 2.3900
4.9890 2.0052 2.3900
4.9203 2.1903 2.3900
4.8455 2.3735 2.3900
4.7648 2.5545 2.3900
4.6783 2.7332 2.3900
4.5859 2.9094 2.3900
4.4878 3.0831 2.3900
4.3841 3.2537 2.3900
4.2744 3.4218 2.3900
4.1593 3.5866 2.3900
4.0385 3.7481 2.3900
3.9123 3.9062 2.3900
3.7806 4.0606 2.3900
3.6436 4.2112 2.3900
3.5012 4.3578 2.3900
3.3537 4.5003 2.3900
3.2010 4.6384 2.3900
3.0433 4.7720 2.3900
2.8807 4.9009 2.3900
2.7132 5.0250 2.3900
2.5410 5.1440 2.3900
2.3642 5.2578 2.3900
2.1829 5.3661 2.3900
0.8388 2.2967 1.0037
0.7559 2.3275 0.9994
0.6719 2.3553 0.9951
0.5869 2.3800 0.9907
0.5011 2.4016 0.9862
0.4146 2.4202 0.9816
0.3274 2.4356 0.9770
0.2398 2.4478 0.9724
0.1517 2.4569 0.9677
0.0634 2.4627 0.9629
-0.0250 2.4654 0.9582
-0.1135 2.4649 0.9534
-0.2020 2.4612 0.9486
-0.2902 2.4543 0.9438
-0.3782 2.4442 0.9390
-0.4657 2.4309 0.9341
-0.5527 2.4145 0.9293
-0.6390 2.3949 0.9245
-0.7246 2.3723 0.9197
-0.8093 2.3465 0.9150
-0.8930 2.3178 0.9103
-2.5748 6.0331 2.3900
-2.8040 5.9720 2.3900
-3.0319 5.9021 2.3900
-3.2582 5.8234 2.3900
-3.4825 5.7360 2.3900
-3.7043 5.6398 2.3900
-3.9234 5.5348 2.3900
-4.1393 5.4210 2.3900
-4.3517 5.2986 2.3900
-4.5601 5.1676 2.3900
-4.7641 5.0281 2.3900
-4.9634 4.8802 2.3900
-5.1576 4.7241 2.3900
-5.3462 4.5599 2.3900
-5.5289 4.3878 2.3900
-5.7053 4.2079 2.3900
-5.8750 4.0206 2.3900
-6.0376 3.8260 2.3900
-6.1927 3.6245 2.3900
-6.3401 3.4162 2.3900
-6.4793 3.2016 2.3900
-6.6101 2.9810 2.3900
-6.7320 2.7547 2.3900
-6.8449 2.5230 2.3900
-6.9484 2.2864 2.3900
-7.0422 2.0453 2.3900
-7.1262 1.8000 2.3900
-7.2000 1.5511 2.3900
-7.2636 1.2990 2.3900
-7.3167 1.0441 2.3900
-7.3592 0.7870 2.3900
-7.3910 0.5280 2.3900
-7.4119 0.2678 2.3900
-7.4219 0.0067 2.3900
-7.4210 -0.2546 2.3900
-7.4092 -0.5158 2.3900
-7.3864 -0.7762 2.3900
-7.3527 -1.0355 2.3900
-7.3082 -1.2930 2.3900
-7.2529 -1.5483 2.3900
-7.1871 -1.8010 2.3900
-7.1108 -2.0505 2.3900
-7.0243 -2.2963 2.3900
-6.9277 -2.5381 2.3900
-6.8213 -2.7753 2.3900
-6.7053 -3.0075 2.3900
-6.5800 -3.2344 2.3900
-6.4458 -3.4556 2.3900
-6.3028 -3.6706 2.3900
-6.1514 -3.8791 2.3900
-5.9920 -4.0808 2.3900
-5.8250 -4.2753 2.3900
-5.6506 -4.4624 2.3900
-5.4694 -4.6419 2.3900
-5.2816 -4.8134 2.3900
-5.0877 -4.9767 2.3900
-4.8881 -5.1317 2.3900
-4.6833 -5.2782 2.3900
-4.4735 -5.4159 2.3900
-4.2593 -5.5449 2.3900
-4.0410 -5.6649 2.3900
-3.8191 -5.7759 2.3900
-3.5940 -5.8779 2.3900
-3.3661 -5.9707 2.3900
-3.1358 -6.0544 2.3900
-2.9035 -6.1289 2.3900
-2.6696 -6.1943 2.3900
-2.4345 -6.2505 2.3900
-2.1985 -6.2977 2.3900
-1.9623 -6.3354 2.3900
-1.7256 -6.3652 2.3900
-1.4893 -6.3856 2.3900
-1.2536 -6.3974 2.3900
-1.0189 -6.4005 2.3900
-0.7853 -6.3951 2.3900
-0.5533 -6.3813 2.3900
-0.3232 -6.3594 2.3900
-0.0951 -6.3294 2.3900
0.1305 -6.2916 2.3900
0.3536 -6.2460 2.3900
0.5737 -6.1929 2.3900
0.7907 -6.1325 2.3900
1.0043 -6.0649 2.3900
1.2144 -5.9903 2.3900
1.4206 -5.9089 2.3900
1.6230 -5.8210 2.3900
1.8212 -5.7266 2.3900
2.0150 -5.6261 2.3900
2.2044 -5.5196 2.3900
2.3892 -5.4074 2.3900
2.5692 -5.2895 2.3900
2.7443 -5.1664 2.3900
2.9144 -5.0380 2.3900
-6.8869 -0.0327 2.3900
-6.8843 -0.2748 2.3900
-6.8716 -0.5167 2.3900
-6.8489 -0.7579 2.3900
-6.8162 -0.9979 2.3900
-6.7737 -1.2363 2.3900
-6.7213 -1.4726 2.3900
-6.6592 -1.7063 2.3900
-6.5875 -1.9372 2.3900
-6.5064 -2.1646 2.3900
-6.4162 -2.3883 2.3900
-6.3169 -2.6079 2.3900
-6.2089 -2.8228 2.3900
-6.0923 -3.0328 2.3900
-5.9674 -3.2376 2.3900
-5.8346 -3.4367 2.3900
-5.6941 -3.6298 2.3900
-5.5462 -3.8167 2.3900
-5.3912 -3.9970 2.3900
-5.2295 -4.1706 2.3900
-5.0614 -4.3371 2.3900
-4.8873 -4.4963 2.3900
-4.7076 -4.6480 2.3900
-4.5225 -4.7920 2.3900
-4.3325 -4.9283 2.3900
-4.1380 -5.0565 2.3900
-3.9393 -5.1766 2.3900
-3.7368 -5.2885 2.3900
-3.5309 -5.3921 2.3900
-3.3219 -5.4874 2.3900
-3.1103 -5.5743 2.3900
-2.8964 -5.6527 2.3900
-2.6805 -5.7226 2.3900
-2.4631 -5.7841 2.3900
-2.2445 -5.8371 2.3900
-2.0250 -5.8819 2.3900
-1.8050 -5.9181 2.3900
-1.5848 -5.9461 2.3900
-1.3647 -5.9659 2.3900
-1.1451 -5.9776 2.3900
-0.9262 -5.9813 2.3900
-0.7084 -5.9771 2.3900
-0.4919 -5.9650 2.3900
-0.2770 -5.9453 2.3900
-0.0640 -5.9180 2.3900
0.1469 -5.8834 2.3900
0.3554 -5.8416 2.3900
0.5612 -5.7926 2.3900
0.7643 -5.7368 2.3900
0.9642 -5.6742 2.3900
1.1610 -5.6050 2.3900
1.3543 -5.5295 2.3900
1.5439 -5.4477 2.3900
1.7298 -5.3599 2.3900
1.9116 -5.2662 2.3900
2.0894 -5.1669 2.3900
2.2628 -5.0621 2.3900
2.4319 -4.9519 2.3900
2.5964 -4.8367 2.3900
2.7562 -4.7166 2.3900
2.9112 -4.5918 2.3900
3.0614 -4.4624 2.3900
3.2066 -4.3286 2.3900
3.3467 -4.1907 2.3900
3.4816 -4.0488 2.3900
3.6113 -3.9032 2.3900
3.7357 -3.7539 2.3900
3.8546 -3.6012 2.3900
3.9681 -3.4452 2.3900
4.0762 -3.2862 2.3900
4.1786 -3.1243 2.3900
4.2755 -2.9596 2.3900
4.3667 -2.7925 2.3900
4.4522 -2.6230 2.3900
4.5320 -2.4512 2.3900
4.6060 -2.2775 2.3900
4.6742 -2.1019 2.3900
4.7367 -1.9246 2.3900
4.7933 -1.7458 2.3900
4.8441 -1.5657 2.3900
4.8890 -1.3843 2.3900
4.9281 -1.2019 2.3900
4.9613 -1.0186 2.3900
4.9886 -0.8347 2.3900
5.0100 -0.6501 2.3900
5.0255 -0.4652 2.3900
5.0351 -0.2800 2.3900
5.0389 -0.0947 2.3900
5.0368 0.0905 2.3900
5.0288 0.2755 2.3900
5.0149 0.4601 2.3900
4.9952 0.6442 2.3900
4.9697 0.8276 2.3900
4.9384 1.0102 2.3900
4.9012 1.1918 2.3900
4.8583 1.3723 2.3900
4.8096 1.5514 2.3900
4.7553 1.7291 2.3900
4.6952 1.9052 2.3900
4.6294 2.0796 2.3900
4.5581 2.2520 2.3900
4.4811 2.4224 2.3900
4.3986 2.5905 2.3900
4.3105 2.7562 2.3900
4.2170 2.9194 2.3900
4.1181 3.0799 2.3900
4.0139 3.2376 2.3900
3.9043 3.3922 2.3900
3.7895 3.5436 2.3900
3.6695 3.6917 2.3900
3.5443 3.8362 2.3900
3.4142 3.9771 2.3900
3.2791 4.1141 2.3900
3.1391 4.2471 2.3900
2.9943 4.3760 2.3900
2.8448 4.5005 2.3900
2.6908 4.6204 2.3900
2.5322 4.7357 2.3900
2.3693 4.8461 2.3900
2.2021 4.9516 2.3900
0.8525 2.1205 1.0032
0.7758 2.1519 0.9993
0.6981 2.1805 0.9953
0.6194 2.2062 0.9912
0.5398 2.2291 0.9871
0.4594 2.2492 0.9829
0.3784 2.2663 0.9786
0.2968 2.2804 0.9743
0.2147 2.2916 0.9699
0.1323 2.2999 0.9655
0.0496 2.3051 0.9611
-0.0332 2.3074 0.9567
-0.1161 2.3067 0.9522
-0.1988 2.3030 0.9477
-0.2814 2.2963 0.9432
-0.3637 2.2866 0.9387
-0.4456 2.2739 0.9341
-0.5270 2.2583 0.9296
-0.6077 2.2398 0.9251
-0.6877 2.2184 0.9207
-0.7669 2.1940 0.9162
-0.8452 2.1669 0.9118
-0.9225 2.1369 0.9074
-2.6427 5.5686 2.3900
-2.8544 5.5009 2.3900
-3.0644 5.4250 2.3900
-3.2724 5.3410 2.3900
-3.4780 5.2489 2.3900
-3.6808 5.1487 2.3900
-3.8805 5.0404 2.3900
-4.0768 4.9242 2.3900
-4.2693 4.8001 2.3900
-4.4575 4.6681 2.3900
-4.6411 4.5283 2.3900
-4.8201 4.3813 2.3900
-4.9938 4.2268 2.3900
-5.1618 4.0650 2.3900
-5.3238 3.8962 2.3900
-5.4796 3.7206 2.3900
-5.6287 3.5384 2.3900
-5.7709 3.3499 2.3900
-5.9057 3.1553 2.3900
-6.0331 2.9549 2.3900
-6.1525 2.7491 2.3900
-6.2638 2.5382 2.3900
-6.3666 2.3224 2.3900
-6.4608 2.1022 2.3900
-6.5461 1.8780 2.3900
-6.6222 1.6500 2.3900
-6.6891 1.4188 2.3900
-6.7465 1.1847 2.3900
-6.7942 0.9482 2.3900
-6.8322 0.7097 2.3900
-6.8603 0.4695 2.3900
-6.8785 0.2283 2.3900
-6.8867 -0.0137 2.3900
-6.8849 -0.2558 2.3900
-6.8730 -0.4977 2.3900
-6.8511 -0.7390 2.3900
-6.8192 -0.9791 2.3900
-6.7774 -1.2176 2.3900
-6.7257 -1.4540 2.3900
-6.6644 -1.6880 2.3900
-6.5935 -1.9191 2.3900
-6.5132 -2.1469 2.3900
-6.4236 -2.3709 2.3900
-6.3250 -2.5907 2.3900
-6.2177 -2.8061 2.3900
-6.1018 -3.0165 2.3900
-5.9776 -3.2217 2.3900
-5.8453 -3.4212 2.3900
-5.7054 -3.6148 2.3900
-5.5580 -3.8022 2.3900
-5.4036 -3.9831 2.3900
-5.2424 -4.1572 2.3900
-5.0749 -4.3242 2.3900
-4.9012 -4.4840 2.3900
-4.7219 -4.6363 2.3900
-4.5373 -4.7810 2.3900
-4.3476 -4.9178 2.3900
-4.1535 -5.0467 2.3900
-3.9550 -5.1677 2.3900
-3.7528 -5.2800 2.3900
-3.5472 -5.3843 2.3900
-3.3384 -5.4802 2.3900
-3.1270 -5.5677 2.3900
-2.9133 -5.6468 2.3900
-2.6976 -5.7174 2.3900
-2.4803 -5.7796 2.3900
-2.2617 -5.8333 2.3900
-2.0423 -5.8786 2.3900
-1.8223 -5.9156 2.3900
-1.6021 -5.9442 2.3900
-1.3820 -5.9647 2.3900
-1.1623 -5.9770 2.3900
-0.9434 -5.9813 2.3900
-0.7255 -5.9777 2.3900
-0.5089 -5.9662 2.3900
-0.2938 -5.9471 2.3900
-0.0807 -5.9205 2.3900
0.1304 -5.8864 2.3900
0.3391 -5.8451 2.3900
0.5451 -5.7967 2.3900
0.7484 -5.7414 2.3900
0.9486 -5.6794 2.3900
1.1456 -5.6107 2.3900
1.3392 -5.5356 2.3900
1.5291 -5.4543 2.3900
1.7153 -5.3670 2.3900
1.8975 -5.2738 2.3900
2.0755 -5.1749 2.3900
2.2493 -5.0705 2.3900
2.4187 -4.9608 2.3900
2.5836 -4.8460 2.3900
2.7438 -4.7262 2.3900
2.8992 -4.6017 2.3900
3.0498 -4.4727 2.3900
3.1954 -4.3393 2.3900
3.3358 -4.2017 2.3900
3.4712 -4.0601 2.3900
3.6013 -3.9147 2.3900
3.7261 -3.7657 2.3900
3.8455 -3.6133 2.3900
3.9594 -3.4576 2.3900
4.0679 -3.2988 2.3900
4.1708 -3.1371 2.3900
4.2680 -2.9727 2.3900
4.3597 -2.8057 2.3900
4.4456 -2.6364 2.3900
4.5259 -2.4648 2.3900
4.6004 -2.2912 2.3900
4.6691 -2.1158 2.3900
4.7320 -1.9386 2.3900
4.7891 -1.7599 2.3900
4.8403 -1.5799 2.3900
4.8857 -1.3986 2.3900
4.9252 -1.2163 2.3900
4.9589 -1.0331 2.3900
4.9866 -0.8492 2.3900
5.0085 -0.6646 2.3900
5.0245 -0.4797 2.3900
5.0346 -0.2946 2.3900
5.0388 -0.1093 2.3900
5.0371 0.0760 2.3900
5.0296 0.2610 2.3900
5.0162 0.4456 2.3900
4.9970 0.6298 2.3900
4.9719 0.8132 2.3900
4.9410 0.9959 2.3900
4.9043 1.1776 2.3900
4.8619 1.3581 2.3900
4.8137 1.5374 2.3900
4.7598 1.7152 2.3900
4.7001 1.8914 2.3900
4.6348 2.0659 2.3900
4.5639 2.2385 2.3900
4.4873 2.4090 2.3900
4.4053 2.5774 2.3900
4.3177 2.7433 2.3900
4.2246 2.9067 2.3900
4.1261 3.0674 2.3900
4.0223 3.2253 2.3900
3.9131 3.3801 2.3900
3.7987 3.5318 2.3900
3.6791 3.6802 2.3900
3.5544 3.8250 2.3900
3.4246 3.9662 2.3900
3.2899 4.1035 2.3900
3.1503 4.2368 2.3900
3.0059 4.3660 2.3900
2.8568 4.4908 2.3900
2.7031 4.6112 2.3900
2.5449 4.7268 2.3900
2.3823 4.8376 2.3900
2.2154 4.9434 2.3900
0.8584 2.1180 1.0035
0.7819 2.1495 0.9996
0.7042 2.1783 0.9956
0.6256 2.2043 0.9915
0.5461 2.2275 0.9874
0.4658 2.2477 0.9832
0.3848 2.2650 0.9790
0.3032 2.2794 0.9746
0.2212 2.2909 0.9703
0.1388 2.2993 0.9659
0.0561 2.3048 0.9615
-0.0267 2.3073 0.9570
-0.1096 2.3069 0.9525
-0.1923 2.3034 0.9480
-0.2749 2.2969 0.9435
-0.3572 2.2875 0.9390
-0.4392 2.2750 0.9345
-0.5206 2.2597 0.9300
-0.6014 2.2414 0.9255
-0.6815 2.2202 0.9210
-0.7607 2.1961 0.9166
-0.8391 2.1691 0.9122
-0.9164 2.1394 0.9078
-2.6260 5.5736 2.3900
-2.8378 5.5065 2.3900
-3.0480 5.4313 2.3900
-3.2561 5.3479 2.3900
-3.4619 5.2564 2.3900
-3.6650 5.1569 2.3900
-3.8649 5.0493 2.3900
-4.0615 4.9336 2.3900
-4.2543 4.8101 2.3900
-4.4429 4.6788 2.3900
-4.6270 4.5398 2.3900
-4.8063 4.3932 2.3900
-4.9803 4.2392 2.3900
-5.1488 4.0780 2.3900
-5.3113 3.9097 2.3900
-5.4675 3.7346 2.3900
-5.6172 3.5529 2.3900
-5.7599 3.3649 2.3900
-5.8954 3.1708 2.3900
-6.0233 2.9709 2.3900
-6.1434 2.7655 2.3900
-6.2553 2.5549 2.3900
-6.3588 2.3396 2.3900
-6.4537 2.1197 2.3900
-6.5397 1.8957 2.3900
-6.6166 1.6681 2.3900
-6.6842 1.4371 2.3900
-6.7423 1.2032 2.3900
-6.7908 0.9669 2.3900
-6.8296 0.7285 2.3900
-6.8585 0.4885 2.3900
-6.8775 0.2473 2.3900
-6.8864 0.0054 2.3900
-6.8854 -0.2367 2.3900
-6.8743 -0.4787 2.3900
-6.8532 -0.7200 2.3900
-6.8220 -0.9602 2.3900
-6.7810 -1.1989 2.3900
-6.7302 -1.4355 2.3900
-6.6696 -1.6697 2.3900
-6.5994 -1.9011 2.3900
-6.5198 -2.1291 2.3900
-6.4310 -2.3534 2.3900
-6.3331 -2.5736 2.3900
-6.2264 -2.7893 2.3900
-6.1112 -3.0001 2.3900
-5.9876 -3.2057 2.3900
-5.8560 -3.4057 2.3900
-5.7167 -3.5998 2.3900
-5.5699 -3.7877 2.3900
-5.4160 -3.9691 2.3900
-5.2554 -4.1438 2.3900
-5.0883 -4.3114 2.3900
-4.9151 -4.4717 2.3900
-4.7362 -4.6247 2.3900
-4.5520 -4.7699 2.3900
-4.3627 -4.9074 2.3900
-4.1689 -5.0369 2.3900
-3.9708 -5.1583 2.3900
-3.7689 -5.2715 2.3900
-3.5635 -5.3764 2.3900
-3.3550 -5.4730 2.3900
-3.1437 -5.5612 2.3900
-2.9302 -5.6409 2.3900
-2.7146 -5.7122 2.3900
-2.4974 -5.7750 2.3900
-2.2790 -5.8294 2.3900
-2.0596 -5.8753 2.3900
-1.8396 -5.9130 2.3900
-1.6194 -5.9423 2.3900
-1.3993 -5.9634 2.3900
-1.1796 -5.9763 2.3900
-0.9606 -5.9813 2.3900
-0.7426 -5.9782 2.3900
-0.5258 -5.9674 2.3900
-0.3107 -5.9489 2.3900
-0.0974 -5.9228 2.3900
0.1138 -5.8894 2.3900
0.3227 -5.8486 2.3900
0.5290 -5.8008 2.3900
0.7325 -5.7460 2.3900
0.9330 -5.6845 2.3900
1.1303 -5.6163 2.3900
1.3241 -5.5418 2.3900
1.5143 -5.4610 2.3900
1.7008 -5.3741 2.3900
1.8833 -5.2813 2.3900
2.0617 -5.1829 2.3900
2.2358 -5.0789 2.3900
2.4056 -4.9696 2.3900
2.5708 -4.8552 2.3900
2.7314 -4.7358 2.3900
-6.4166 -0.0312 2.3900
-6.4140 -0.2565 2.3900
-6.4021 -0.4816 2.3900
-6.3811 -0.7059 2.3900
-6.3507 -0.9292 2.3900
-6.3113 -1.1510 2.3900
-6.2628 -1.3709 2.3900
-6.2054 -1.5885 2.3900
-6.1391 -1.8035 2.3900
-6.0642 -2.0153 2.3900
-5.9808 -2.2237 2.3900
-5.8890 -2.4283 2.3900
-5.7892 -2.6287 2.3900
-5.6814 -2.8246 2.3900
-5.5659 -3.0156 2.3900
-5.4431 -3.2016 2.3900
-5.3131 -3.3820 2.3900
-5.1762 -3.5568 2.3900
-5.0328 -3.7255 2.3900
-4.8830 -3.8880 2.3900
-4.7273 -4.0440 2.3900
-4.5660 -4.1934 2.3900
-4.3994 -4.3358 2.3900
-4.2278 -4.4712 2.3900
-4.0515 -4.5995 2.3900
-3.8709 -4.7203 2.3900
-3.6864 -4.8336 2.3900
-3.4982 -4.9394 2.3900
-3.3068 -5.0376 2.3900
-3.1124 -5.1280 2.3900
-2.9155 -5.2106 2.3900
-2.7163 -5.2853 2.3900
-2.5152 -5.3523 2.3900
-2.3125 -5.4114 2.3900
-2.1086 -5.4626 2.3900
-1.9037 -5.5060 2.3900
-1.6982 -5.5417 2.3900
-1.4925 -5.5696 2.3900
-1.2867 -5.5898 2.3900
-1.0813 -5.6024 2.3900
-0.8764 -5.6076 2.3900
-0.6723 -5.6053 2.3900
-0.4694 -5.5956 2.3900
-0.2679 -5.5788 2.3900
-0.0681 -5.5549 2.3900
0.1299 -5.5241 2.3900
0.3258 -5.4864 2.3900
0.5193 -5.4420 2.3900
0.7103 -5.3911 2.3900
0.8985 -5.3338 2.3900
1.0837 -5.2703 2.3900
1.2658 -5.2006 2.3900
1.4446 -5.1251 2.3900
1.6199 -5.0439 2.3900
1.7915 -4.9570 2.3900
1.9593 -4.8648 2.3900
2.1232 -4.7673 2.3900
2.2830 -4.6648 2.3900
2.4385 -4.5574 2.3900
2.5897 -4.4453 2.3900
2.7365 -4.3286 2.3900
2.8787 -4.2076 2.3900
3.0163 -4.0824 2.3900
3.1491 -3.9532 2.3900
3.2770 -3.8201 2.3900
3.4001 -3.6834 2.3900
3.5181 -3.5433 2.3900
3.6311 -3.3998 2.3900
3.7389 -3.2531 2.3900
3.8416 -3.1035 2.3900
3.9389 -2.9511 2.3900
4.0311 -2.7961 2.3900
4.1178 -2.6386 2.3900
4.1992 -2.4788 2.3900
4.2752 -2.3168 2.3900
4.3457 -2.1529 2.3900
4.4107 -1.9872 2.3900
4.4702 -1.8199 2.3900
4.5242 -1.6510 2.3900
4.5727 -1.4808 2.3900
4.6155 -1.3095 2.3900
4.6528 -1.1371 2.3900
4.6845 -0.9639 2.3900
4.7106 -0.7900 2.3900
4.7311 -0.6155 2.3900
4.7460 -0.4406 2.3900
4.7553 -0.2654 2.3900
4.7590 -0.0902 2.3900
4.7571 0.0850 2.3900
4.7496 0.2600 2.3900
4.7365 0.4346 2.3900
4.7179 0.6088 2.3900
4.6936 0.7822 2.3900
4.6639 0.9549 2.3900
4.6286 1.1266 2.3900
4.5878 1.2972 2.3900
4.5416 1.4666 2.3900
4.4899 1.6346 2.3900
4.4328 1.8010 2.3900
4.3703 1.9658 2.3900
4.3025 2.1286 2.3900
4.2294 2.2895 2.3900
4.1509 2.4482 2.3900
4.0673 2.6046 2.3900
3.9784 2.7586 2.3900
3.8845 2.9099 2.3900
3.7855 3.0585 2.3900
3.6814 3.2042 2.3900
3.5724 3.3468 2.3900
3.4585 3.4861 2.3900
3.3398 3.6221 2.3900
3.2163 3.7545 2.3900
3.0882 3.8832 2.3900
2.9555 4.0080 2.3900
2.8183 4.1289 2.3900
2.6767 4.2455 2.3900
2.5308 4.3578 2.3900
2.3808 4.4657 2.3900
2.2266 4.5688 2.3900
0.8680 1.9586 1.0030
0.7972 1.9906 0.9994
0.7252 2.0200 0.9957
0.6523 2.0468 0.9919
0.5784 2.0710 0.9881
0.5036 2.0925 0.9842
0.4282 2.1113 0.9802
0.3521 2.1273 0.9762
0.2755 2.1406 0.9722
0.1984 2.1511 0.9681
0.1210 2.1589 0.9640
0.0434 2.1638 0.9598
-0.0343 2.1659 0.9556
-0.1121 2.1652 0.9514
-0.1898 2.1617 0.9472
-0.2673 2.1554 0.9430
-0.3446 2.1463 0.9387
-0.4214 2.1345 0.9345
-0.4978 2.1198 0.9303
-0.5736 2.1024 0.9260
-0.6488 2.0823 0.9218
-0.7231 2.0595 0.9177
-0.7966 2.0340 0.9135
-0.8691 2.0058 0.9094
-0.9406 1.9751 0.9053
-2.6806 5.1491 2.3900
-2.8764 5.0766 2.3900
-3.0701 4.9965 2.3900
-3.2615 4.9088 2.3900
-3.4503 4.8137 2.3900
-3.6360 4.7111 2.3900
-3.8185 4.6011 2.3900
-3.9972 4.4839 2.3900
-4.1720 4.3594 2.3900
-4.3425 4.2279 2.3900
-4.5084 4.0894 2.3900
-4.6693 3.9441 2.3900
-4.8249 3.7921 2.3900
-4.9749 3.6337 2.3900
-5.1191 3.4691 2.3900
-5.2570 3.2984 2.3900
-5.3884 3.1220 2.3900
-5.5130 2.9400 2.3900
-5.6306 2.7527 2.3900
-5.7408 2.5604 2.3900
-5.8434 2.3635 2.3900
-5.9383 2.1621 2.3900
-6.0251 1.9568 2.3900
-6.1036 1.7477 2.3900
-6.1737 1.5353 2.3900
-6.2352 1.3199 2.3900
-6.2880 1.1019 2.3900
-6.3319 0.8816 2.3900
-6.3667 0.6596 2.3900
-6.3925 0.4361 2.3900
-6.4091 0.2116 2.3900
-6.4165 -0.0135 2.3900
-6.4146 -0.2388 2.3900
-6.4034 -0.4639 2.3900
-6.3830 -0.6883 2.3900
-6.3535 -0.9117 2.3900
-6.3148 -1.1336 2.3900
-6.2670 -1.3537 2.3900
-6.2102 -1.5715 2.3900
-6.1447 -1.7866 2.3900
-6.0704 -1.9988 2.3900
-5.9877 -2.2074 2.3900
-5.8965 -2.4123 2.3900
-5.7973 -2.6131 2.3900
-5.6901 -2.8094 2.3900
-5.5753 -3.0008 2.3900
-5.4530 -3.1871 2.3900
-5.3235 -3.3680 2.3900
-5.1872 -3.5432 2.3900
-5.0443 -3.7124 2.3900
-4.8950 -3.8754 2.3900
-4.7398 -4.0320 2.3900
-4.5789 -4.1819 2.3900
-4.4127 -4.3249 2.3900
-4.2414 -4.4608 2.3900
-4.0655 -4.5896 2.3900
-3.8853 -4.7110 2.3900
-3.7010 -4.8250 2.3900
-3.5131 -4.9314 2.3900
-3.3220 -5.0301 2.3900
-3.1278 -5.1211 2.3900
-2.9311 -5.2044 2.3900
-2.7320 -5.2797 2.3900
-2.5310 -5.3473 2.3900
-2.3285 -5.4070 2.3900
-2.1246 -5.4589 2.3900
-1.9199 -5.5029 2.3900
-1.7144 -5.5391 2.3900
-1.5087 -5.5677 2.3900
-1.3029 -5.5885 2.3900
-1.0974 -5.6017 2.3900
-0.8925 -5.6074 2.3900
-0.6884 -5.6057 2.3900
-0.4854 -5.5967 2.3900
-0.2838 -5.5804 2.3900
-0.0837 -5.5571 2.3900
0.1144 -5.5267 2.3900
0.3104 -5.4896 2.3900
0.5042 -5.4457 2.3900
0.6953 -5.3953 2.3900
0.8838 -5.3385 2.3900
1.0693 -5.2755 2.3900
1.2516 -5.2063 2.3900
1.4306 -5.1313 2.3900
1.6062 -5.0505 2.3900
1.7781 -4.9641 2.3900
1.9463 -4.8723 2.3900
2.1105 -4.7753 2.3900
2.2706 -4.6731 2.3900
2.4264 -4.5660 2.3900
2.5780 -4.4543 2.3900
2.7251 -4.3379 2.3900
2.8677 -4.2173 2.3900
3.0056 -4.0924 2.3900
3.1388 -3.9635 2.3900
3.2672 -3.8307 2.3900
3.3906 -3.6943 2.3900
3.5090 -3.5544 2.3900
3.6224 -3.4112 2.3900
3.7306 -3.2648 2.3900
3.8337 -3.1154 2.3900
3.9315 -2.9632 2.3900
4.0240 -2.8084 2.3900
4.1112 -2.6511 2.3900
4.1930 -2.4914 2.3900
4.2694 -2.3297 2.3900
4.3403 -2.1659 2.3900
4.4058 -2.0003 2.3900
4.4658 -1.8331 2.3900
4.5202 -1.6643 2.3900
4.5691 -1.4943 2.3900
4.6124 -1.3230 2.3900
4.6501 -1.1507 2.3900
4.6823 -0.9775 2.3900
4.7088 -0.8037 2.3900
4.7297 -0.6292 2.3900
4.7451 -0.4543 2.3900
4.7548 -0.2792 2.3900
4.7589 -0.1040 2.3900
4.7575 0.0712 2.3900
4.7504 0.2462 2.3900
4.7377 0.4209 2.3900
4.7195 0.5951 2.3900
4.6957 0.7686 2.3900
4.6664 0.9413 2.3900
4.6316 1.1132 2.3900
4.5913 1.2839 2.3900
4.5455 1.4534 2.3900
4.4942 1.6214 2.3900
4.4375 1.7880 2.3900
4.3754 1.9529 2.3900
4.3080 2.1159 2.3900
4.2353 2.2769 2.3900
4.1573 2.4358 2.3900
4.0740 2.5924 2.3900
3.9856 2.7466 2.3900
3.8921 2.8981 2.3900
3.7934 3.0469 2.3900
3.6898 3.1928 2.3900
3.5812 3.3357 2.3900
3.4676 3.4753 2.3900
3.3493 3.6115 2.3900
3.2262 3.7442 2.3900
3.0985 3.8732 2.3900
2.9661 3.9984 2.3900
2.8293 4.1195 2.3900
2.6880 4.2365 2.3900
2.5425 4.3492 2.3900
2.3927 4.4573 2.3900
2.2389 4.5609 2.3900
2.0811 4.6596 2.3900
0.8028 1.9882 0.9996
0.7309 2.0178 0.9960
0.6580 2.0448 0.9922
0.5842 2.0692 0.9884
0.5095 2.0909 0.9845
0.4341 2.1099 0.9806
0.3581 2.1262 0.9766
0.2815 2.1397 0.9725
0.2045 2.1504 0.9684
0.1271 2.1584 0.9643
0.0495 2.1635 0.9601
-0.0282 2.1658 0.9560
-0.1060 2.1654 0.9517
-0.1837 2.1621 0.9475
-0.2612 2.1560 0.9433
-0.3385 2.1472 0.9391
-0.4154 2.1355 0.9348
-0.4918 2.1211 0.9306
-0.5677 2.1039 0.9264
-0.6429 2.0840 0.9222
-0.7173 2.0614 0.9180
-0.7909 2.0361 0.9138
-0.8635 2.0082 0.9097
-0.9350 1.9776 0.9057
-2.6651 5.1545 2.3900
-2.8610 5.0826 2.3900
-3.0550 5.0031 2.3900
-3.2466 4.9160 2.3900
-3.4355 4.8215 2.3900
-3.6215 4.7195 2.3900
-3.8042 4.6101 2.3900
-3.9833 4.4934 2.3900
-4.1585 4.3695 2.3900
-4.3293 4.2385 2.3900
-4.4955 4.1005 2.3900
-4.6568 3.9557 2.3900
-4.8129 3.8043 2.3900
-4.9634 3.6464 2.3900
-5.1079 3.4821 2.3900
-5.2464 3.3121 2.3900
-5.3783 3.1360 2.3900
-5.5034 2.9545 2.3900
-5.6216 2.7676 2.3900
-5.7324 2.5757 2.3900
-5.8356 2.3791 2.3900
-5.9311 2.1781 2.3900
-6.0185 1.9731 2.3900
-6.0977 1.7643 2.3900
-6.1685 1.5521 2.3900
-6.2307 1.3369 2.3900
-6.2842 1.1191 2.3900
-6.3287 0.8990 2.3900
-6.3643 0.6771 2.3900
-6.3908 0.4537 2.3900
-6.4081 0.2293 2.3900
-6.4162 0.0043 2.3900
-6.4150 -0.2210 2.3900
-6.4047 -0.4460 2.3900
-6.3850 -0.6707 2.3900
-6.3561 -0.8942 2.3900
-6.3181 -1.1162 2.3900
-6.2711 -1.3365 2.3900
-6.2150 -1.5545 2.3900
-6.1502 -1.7698 2.3900
-6.0766 -1.9822 2.3900
-5.9945 -2.1911 2.3900
-5.9040 -2.3964 2.3900
-5.8054 -2.5974 2.3900
-5.6988 -2.7941 2.3900
-5.5846 -2.9859 2.3900
-5.4629 -3.1726 2.3900
-5.3340 -3.3540 2.3900
-5.1982 -3.5297 2.3900
-5.0557 -3.6993 2.3900
-4.9070 -3.8628 2.3900
-4.7522 -4.0199 2.3900
-4.5918 -4.1703 2.3900
-4.4260 -4.3138 2.3900
-4.2551 -4.4504 2.3900
-4.0795 -4.5797 2.3900
-3.8996 -4.7017 2.3900
-3.7156 -4.8163 2.3900
-3.5280 -4.9233 2.3900
-3.3371 -5.0227 2.3900
-3.1432 -5.1143 2.3900
-2.9466 -5.1981 2.3900
-2.7477 -5.2741 2.3900
-2.5469 -5.3423 2.3900
-2.3445 -5.4026 2.3900
-2.1407 -5.4551 2.3900
-1.9360 -5.4997 2.3900
-1.7306 -5.5366 2.3900
-1.5249 -5.5657 2.3900
-1.3191 -5.5871 2.3900
-1.1136 -5.6010 2.3900
-0.9085 -5.6073 2.3900
-0.7044 -5.6061 2.3900
-0.5013 -5.5976 2.3900
-0.2995 -5.5819 2.3900
-0.0994 -5.5591 2.3900
0.0989 -5.5294 2.3900
0.2951 -5.4927 2.3900
0.4890 -5.4494 2.3900
0.6804 -5.3995 2.3900
0.8690 -5.3432 2.3900
1.0548 -5.2806 2.3900
1.2374 -5.2120 2.3900
1.4167 -5.1374 2.3900
1.5925 -5.0570 2.3900
1.7648 -4.9711 2.3900
1.9332 -4.8797 2.3900
2.0977 -4.7831 2.3900
2.2581 -4.6813 2.3900
2.4143 -4.5746 2.3900
2.5663 -4.4632 2.3900
-6.0000 -0.0299 2.3900
-5.9974 -0.2402 2.3900
-5.9863 -0.4503 2.3900
-5.9666 -0.6598 2.3900
-5.9384 -0.8683 2.3900
-5.9017 -1.0754 2.3900
-5.8567 -1.2809 2.3900
-5.8033 -1.4841 2.3900
-5.7420 -1.6846 2.3900
-5.6722 -1.8830 2.3900
-5.5948 -2.0777 2.3900
-5.5096 -2.2690 2.3900
-5.4169 -2.4565 2.3900
-5.3168 -2.6398 2.3900
-5.2096 -2.8188 2.3900
-5.0955 -2.9929 2.3900
-4.9747 -3.1620 2.3900
-4.8476 -3.3258 2.3900
-4.7143 -3.4842 2.3900
-4.5750 -3.6368 2.3900
-4.4303 -3.7834 2.3900
-4.2802 -3.9238 2.3900
-4.1251 -4.0580 2.3900
-3.9653 -4.1856 2.3900
-3.8011 -4.3065 2.3900
-3.6329 -4.4206 2.3900
-3.4608 -4.5278 2.3900
-3.2854 -4.6280 2.3900
-3.1067 -4.7211 2.3900
-2.9253 -4.8069 2.3900
-2.7414 -4.8856 2.3900
-2.5553 -4.9570 2.3900
-2.3673 -5.0210 2.3900
-2.1777 -5.0776 2.3900
-1.9868 -5.1272 2.3900
-1.7950 -5.1693 2.3900
-1.6026 -5.2041 2.3900
-1.4097 -5.2318 2.3900
-1.2167 -5.2522 2.3900
-1.0239 -5.2655 2.3900
-0.8316 -5.2717 2.3900
-0.6400 -5.2710 2.3900
-0.4493 -5.2634 2.3900
-0.2598 -5.2489 2.3900
-0.0717 -5.2279 2.3900
0.1146 -5.2002 2.3900
0.2991 -5.1661 2.3900
0.4815 -5.1256 2.3900
0.6615 -5.0790 2.3900
0.8390 -5.0263 2.3900
1.0139 -4.9677 2.3900
1.1858 -4.9034 2.3900
1.3547 -4.8334 2.3900
1.5204 -4.7579 2.3900
1.6827 -4.6771 2.3900
1.8415 -4.5912 2.3900
1.9966 -4.5002 2.3900
2.1480 -4.4044 2.3900
2.2966 -4.3058 2.3900
2.4387 -4.1990 2.3900
2.5779 -4.0897 2.3900
2.7128 -3.9762 2.3900
2.8433 -3.8586 2.3900
2.9694 -3.7372 2.3900
3.0910 -3.6121 2.3900
3.2079 -3.4835 2.3900
3.3201 -3.3516 2.3900
3.4275 -3.2164 2.3900
3.5301 -3.0782 2.3900
3.6278 -2.9371 2.3900
3.7205 -2.7933 2.3900
3.8082 -2.6470 2.3900
3.8909 -2.4982 2.3900
3.9685 -2.3473 2.3900
4.0409 -2.1942 2.3900
4.1081 -2.0393 2.3900
4.1701 -1.8826 2.3900
4.2269 -1.7242 2.3900
4.2785 -1.5644 2.3900
4.3247 -1.4034 2.3900
4.3657 -1.2411 2.3900
4.4014 -1.0779 2.3900
4.4317 -0.9139 2.3900
4.4567 -0.7491 2.3900
4.4763 -0.5838 2.3900
4.4906 -0.4181 2.3900
4.4996 -0.2521 2.3900
4.5032 -0.0860 2.3900
4.5014 0.0800 2.3900
4.4944 0.2458 2.3900
4.4820 0.4113 2.3900
4.4643 0.5763 2.3900
4.4413 0.7407 2.3900
4.4130 0.9043 2.3900
4.3794 1.0670 2.3900
4.3407 1.2287 2.3900
4.2967 1.3891 2.3900
4.2475 1.5482 2.3900
4.1931 1.7058 2.3900
4.1336 1.8618 2.3900
4.0691 2.0159 2.3900
3.9994 2.1682 2.3900
3.9248 2.3183 2.3900
3.8452 2.4662 2.3900
3.7607 2.6118 2.3900
3.6713 2.7548 2.3900
3.5771 2.8952 2.3900
3.4781 3.0327 2.3900
3.3745 3.1673 2.3900
3.2662 3.2987 2.3900
3.1534 3.4269 2.3900
3.0361 3.5517 2.3900
2.9144 3.6728 2.3900
2.7884 3.7903 2.3900
2.6581 3.9040 2.3900
2.5238 4.0136 2.3900
2.3854 4.1190 2.3900
2.2431 4.2202 2.3900
2.0969 4.3168 2.3900
0.8141 1.8433 0.9993
0.7474 1.8735 0.9959
0.6796 1.9012 0.9924
0.6110 1.9264 0.9888
0.5414 1.9491 0.9852
0.4710 1.9693 0.9816
0.4000 1.9870 0.9779
0.3284 2.0021 0.9741
0.2563 2.0146 0.9703
0.1838 2.0245 0.9664
0.1109 2.0318 0.9625
0.0379 2.0364 0.9586
-0.0353 2.0384 0.9547
-0.1085 2.0377 0.9507
-0.1817 2.0345 0.9468
-0.2546 2.0285 0.9428
-0.3273 2.0200 0.9388
-0.3997 2.0088 0.9348
-0.4716 1.9950 0.9308
-0.5429 1.9786 0.9269
-0.6137 1.9597 0.9229
-0.6837 1.9382 0.9190
-0.7528 1.9142 0.9151
-0.8211 1.8877 0.9112
-0.8883 1.8588 0.9074
-0.9545 1.8275 0.9036
-2.7079 4.7644 2.3900
-2.8890 4.6880 2.3900
-3.0679 4.6045 2.3900
-3.2441 4.5141 2.3900
-3.4175 4.4167 2.3900
-3.5877 4.3125 2.3900
-3.7544 4.2015 2.3900
-3.9172 4.0839 2.3900
-4.0760 3.9597 2.3900
-4.2304 3.8290 2.3900
-4.3801 3.6921 2.3900
-4.5249 3.5490 2.3900
-4.6643 3.4000 2.3900
-4.7982 3.2453 2.3900
-4.9263 3.0850 2.3900
-5.0483 2.9193 2.3900
-5.1639 2.7486 2.3900
-5.2730 2.5730 2.3900
-5.3751 2.3928 2.3900
-5.4702 2.2083 2.3900
-5.5581 2.0199 2.3900
-5.6384 1.8277 2.3900
-5.7111 1.6321 2.3900
-5.7760 1.4335 2.3900
-5.8328 1.2321 2.3900
-5.8816 1.0284 2.3900
-5.9221 0.8226 2.3900
-5.9542 0.6152 2.3900
-5.9779 0.4065 2.3900
-5.9931 0.1969 2.3900
-5.9998 -0.0133 2.3900
-5.9979 -0.2237 2.3900
-5.9874 -0.4338 2.3900
-5.9684 -0.6434 2.3900
-5.9409 -0.8520 2.3900
-5.9049 -1.0592 2.3900
-5.8605 -1.2648 2.3900
-5.8078 -1.4682 2.3900
-5.7469 -1.6692 2.3900
-5.6780 -1.8675 2.3900
-5.6012 -2.0625 2.3900
-5.5166 -2.2541 2.3900
-5.4244 -2.4419 2.3900
-5.3249 -2.6256 2.3900
-5.2183 -2.8048 2.3900
-5.1047 -2.9793 2.3900
-4.9845 -3.1489 2.3900
-4.8578 -3.3131 2.3900
-4.7250 -3.4719 2.3900
-4.5862 -3.6250 2.3900
-4.4419 -3.7721 2.3900
-4.2922 -3.9130 2.3900
-4.1375 -4.0476 2.3900
-3.9780 -4.1758 2.3900
-3.8142 -4.2972 2.3900
-3.6462 -4.4119 2.3900
-3.4745 -4.5196 2.3900
-3.2993 -4.6204 2.3900
-3.1209 -4.7140 2.3900
-2.9397 -4.8004 2.3900
-2.7559 -4.8797 2.3900
-2.5700 -4.9516 2.3900
-2.3821 -5.0162 2.3900
-2.1926 -5.0736 2.3900
-2.0019 -5.1235 2.3900
-1.8101 -5.1662 2.3900
-1.6177 -5.2017 2.3900
-1.4249 -5.2299 2.3900
-1.2319 -5.2508 2.3900
-1.0391 -5.2647 2.3900
-0.8467 -5.2715 2.3900
-0.6550 -5.2713 2.3900
-0.4642 -5.2642 2.3900
-0.2746 -5.2503 2.3900
-0.0865 -5.2298 2.3900
0.1000 -5.2026 2.3900
0.2847 -5.1690 2.3900
0.4672 -5.1291 2.3900
0.6474 -5.0829 2.3900
0.8252 -5.0307 2.3900
1.0002 -4.9725 2.3900
1.1724 -4.9086 2.3900
1.3416 -4.8391 2.3900
1.5075 -4.7640 2.3900
1.6701 -4.6837 2.3900
1.8291 -4.5981 2.3900
1.9846 -4.5075 2.3900
2.1362 -4.4121 2.3900
2.2839 -4.3120 2.3900
2.4276 -4.2074 2.3900
2.5671 -4.0984 2.3900
2.7023 -3.9852 2.3900
2.8332 -3.8680 2.3900
2.9597 -3.7469 2.3900
3.0816 -3.6221 2.3900
3.1989 -3.4938 2.3900
3.3114 -3.3621 2.3900
3.4193 -3.2271 2.3900
3.5222 -3.0892 2.3900
3.6203 -2.9483 2.3900
3.7134 -2.8047 2.3900
3.8015 -2.6586 2.3900
3.8846 -2.5100 2.3900
3.9626 -2.3592 2.3900
4.0354 -2.2063 2.3900
4.1030 -2.0515 2.3900
4.1655 -1.8949 2.3900
4.2227 -1.7367 2.3900
4.2746 -1.5771 2.3900
4.3213 -1.4161 2.3900
4.3627 -1.2539 2.3900
4.3988 -1.0908 2.3900
4.4295 -0.9268 2.3900
4.4549 -0.7621 2.3900
4.4750 -0.5968 2.3900
4.4897 -0.4311 2.3900
4.4991 -0.2652 2.3900
4.5031 -0.0991 2.3900
4.5018 0.0669 2.3900
4.4951 0.2328 2.3900
4.4832 0.3983 2.3900
4.4659 0.5634 2.3900
4.4433 0.7278 2.3900
4.4154 0.8915 2.3900
4.3823 1.0543 2.3900
4.3439 1.2160 2.3900
4.3003 1.3766 2.3900
4.2515 1.5358 2.3900
4.1976 1.6935 2.3900
4.1385 1.8496 2.3900
4.0743 2.0039 2.3900
4.0051 2.1563 2.3900
3.9309 2.3066 2.3900
3.8516 2.4547 2.3900
3.7675 2.6004 2.3900
3.6785 2.7437 2.3900
3.5847 2.8842 2.3900
3.4861 3.0220 2.3900
3.3828 3.1568 2.3900
3.2749 3.2885 2.3900
3.1624 3.4169 2.3900
3.0455 3.5420 2.3900
2.9241 3.6635 2.3900
2.7984 3.7812 2.3900
2.6685 3.8952 2.3900
2.5345 4.0051 2.3900
2.3964 4.1109 2.3900
2.2544 4.2124 2.3900
2.1086 4.3094 2.3900
0.8193 1.8409 0.9995
0.7527 1.8712 0.9961
0.6850 1.8991 0.9927
0.6164 1.9245 0.9891
0.5469 1.9474 0.9855
0.4766 1.9678 0.9819
0.4056 1.9857 0.9782
0.3340 2.0010 0.9744
0.2620 2.0137 0.9706
0.1895 2.0238 0.9667
0.1166 2.0313 0.9629
0.0436 2.0361 0.9589
-0.0296 2.0383 0.9550
-0.1028 2.0379 0.9510
-0.1759 2.0348 0.9471
-0.2489 2.0291 0.9431
-0.3216 2.0207 0.9391
-0.3940 2.0098 0.9351
-0.4659 1.9962 0.9311
-0.5374 1.9800 0.9272
-0.6081 1.9613 0.9232
-0.6782 1.9400 0.9193
-0.7474 1.9162 0.9154
-0.8157 1.8899 0.9115
-0.8831 1.8612 0.9077
-0.9493 1.8300 0.9039
-2.6935 4.7701 2.3900
-2.8748 4.6942 2.3900
-3.0539 4.6113 2.3900
-3.2304 4.5215 2.3900
-3.4040 4.4246 2.3900
-3.5744 4.3210 2.3900
-3.7414 4.2105 2.3900
-3.9046 4.0934 2.3900
-4.0637 3.9697 2.3900
-4.2185 3.8395 2.3900
-4.3685 3.7031 2.3900
-4.5137 3.5605 2.3900
-4.6536 3.4120 2.3900
-4.7879 3.2577 2.3900
-4.9165 3.0978 2.3900
-5.0389 2.9325 2.3900
-5.1551 2.7622 2.3900
-5.2646 2.5870 2.3900
-5.3673 2.4071 2.3900
-5.4630 2.2230 2.3900
-5.5514 2.0348 2.3900
-5.6324 1.8429 2.3900
-5.7057 1.6476 2.3900
-5.7712 1.4492 2.3900
-5.8287 1.2481 2.3900
-5.8781 1.0445 2.3900
-5.9192 0.8389 2.3900
-5.9520 0.6316 2.3900
-5.9764 0.4230 2.3900
-5.9922 0.2134 2.3900
-5.9996 0.0032 2.3900
-5.9984 -0.2071 2.3900
-5.9886 -0.4173 2.3900
-5.9702 -0.6269 2.3900
-5.9434 -0.8356 2.3900
-5.9080 -1.0430 2.3900
-5.8643 -1.2486 2.3900
-5.8122 -1.4523 2.3900
-5.7520 -1.6535 2.3900
-5.6837 -1.8520 2.3900
-5.6075 -2.0474 2.3900
-5.5235 -2.2392 2.3900
-5.4320 -2.4273 2.3900
-5.3331 -2.6112 2.3900
-5.2270 -2.7908 2.3900
-5.1140 -2.9657 2.3900
-4.9937 -3.1366 2.3900
-4.8680 -3.3004 2.3900
-4.7356 -3.4596 2.3900
-4.5973 -3.6132 2.3900
-4.4534 -3.7607 2.3900
-4.3041 -3.9022 2.3900
-4.1498 -4.0373 2.3900
-3.9908 -4.1659 2.3900
-3.8272 -4.2879 2.3900
-3.6596 -4.4031 2.3900
-3.4881 -4.5114 2.3900
-3.3132 -4.6127 2.3900
-3.1350 -4.7069 2.3900
-2.9540 -4.7939 2.3900
-2.7705 -4.8737 2.3900
-2.5847 -4.9462 2.3900
-2.3969 -5.0114 2.3900
-2.2076 -5.0693 2.3900
-2.0169 -5.1199 2.3900
-1.8253 -5.1632 2.3900
-1.6329 -5.1992 2.3900
-1.4401 -5.2279 2.3900
-1.2471 -5.2495 2.3900
-1.0542 -5.2639 2.3900
-0.8618 -5.2712 2.3900
-0.6700 -5.2716 2.3900
-0.4792 -5.2650 2.3900
-0.2895 -5.2517 2.3900
-0.1012 -5.2316 2.3900
0.0854 -5.2050 2.3900
0.2702 -5.1719 2.3900
0.4529 -5.1324 2.3900
0.6333 -5.0868 2.3900
0.8113 -5.0350 2.3900
0.9866 -4.9773 2.3900
1.1590 -4.9139 2.3900
1.3284 -4.8447 2.3900
1.4946 -4.7701 2.3900
1.6574 -4.6902 2.3900
1.8168 -4.6050 2.3900
1.9725 -4.5149 2.3900
2.1244 -4.4198 2.3900
2.2724 -4.3201 2.3900
2.4164 -4.2158 2.3900
-5.6279 -0.0287 2.3900
-5.6254 -0.2257 2.3900
-5.6149 -0.4225 2.3900
-5.5965 -0.6187 2.3900
-5.5701 -0.8140 2.3900
-5.5359 -1.0080 2.3900
-5.4939 -1.2004 2.3900
-5.4442 -1.3909 2.3900
-5.3869 -1.5791 2.3900
-5.3221 -1.7646 2.3900
-5.2499 -1.9473 2.3900
-5.1705 -2.1267 2.3900
-5.0841 -2.3026 2.3900
-4.9909 -2.4746 2.3900
-4.8910 -2.6426 2.3900
-4.7846 -2.8062 2.3900
-4.6720 -2.9651 2.3900
-4.5534 -3.1192 2.3900
-4.4291 -3.2681 2.3900
-4.2992 -3.4118 2.3900
-4.1641 -3.5499 2.3900
-4.0240 -3.6823 2.3900
-3.8792 -3.8088 2.3900
-3.7299 -3.9293 2.3900
-3.5765 -4.0436 2.3900
-3.4192 -4.1516 2.3900
-3.2583 -4.2531 2.3900
-3.0941 -4.3481 2.3900
-2.9269 -4.4365 2.3900
-2.7570 -4.5182 2.3900
-2.5847 -4.5931 2.3900
-2.4103 -4.6613 2.3900
-2.2340 -4.7226 2.3900
-2.0562 -4.7771 2.3900
-1.8771 -4.8248 2.3900
-1.6970 -4.8656 2.3900
-1.5162 -4.8995 2.3900
-1.3349 -4.9267 2.3900
-1.1535 -4.9472 2.3900
-0.9721 -4.9609 2.3900
-0.7911 -4.9680 2.3900
-0.6106 -4.9685 2.3900
-0.4310 -4.9625 2.3900
-0.2524 -4.9502 2.3900
-0.0751 -4.9315 2.3900
0.1008 -4.9066 2.3900
0.2749 -4.8755 2.3900
0.4471 -4.8385 2.3900
0.6173 -4.7956 2.3900
0.7851 -4.7470 2.3900
0.9504 -4.6928 2.3900
1.1131 -4.6330 2.3900
1.2730 -4.5679 2.3900
1.4299 -4.4976 2.3900
1.5837 -4.4222 2.3900
1.7342 -4.3419 2.3900
1.8813 -4.2567 2.3900
2.0249 -4.1671 2.3900
2.1647 -4.0728 2.3900
2.3008 -3.9742 2.3900
2.4330 -3.8715 2.3900
2.5612 -3.7648 2.3900
2.6853 -3.6542 2.3900
2.8052 -3.5398 2.3900
2.9209 -3.4220 2.3900
3.0321 -3.3007 2.3900
3.1389 -3.1762 2.3900
3.2412 -3.0486 2.3900
3.3390 -2.9180 2.3900
3.4321 -2.7847 2.3900
3.5204 -2.6488 2.3900
3.6041 -2.5103 2.3900
3.6829 -2.3696 2.3900
3.7569 -2.2267 2.3900
3.8260 -2.0818 2.3900
3.8903 -1.9350 2.3900
3.9495 -1.7865 2.3900
4.0037 -1.6365 2.3900
4.0530 -1.4850 2.3900
4.0972 -1.3323 2.3900
4.1364 -1.1784 2.3900
4.1705 -1.0236 2.3900
4.1995 -0.8679 2.3900
4.2234 -0.7116 2.3900
4.2423 -0.5547 2.3900
4.2560 -0.3974 2.3900
4.2647 -0.2399 2.3900
4.2682 -0.0823 2.3900
4.2666 0.0753 2.3900
4.2599 0.2328 2.3900
4.2482 0.3899 2.3900
4.2314 0.5465 2.3900
4.2095 0.7026 2.3900
4.1825 0.8579 2.3900
4.1506 1.0123 2.3900
4.1136 1.1657 2.3900
4.0717 1.3180 2.3900
4.0248 1.4689 2.3900
3.9730 1.6184 2.3900
3.9163 1.7663 2.3900
3.8548 1.9125 2.3900
3.7884 2.0568 2.3900
3.7173 2.1991 2.3900
3.6414 2.3393 2.3900
3.5609 2.4771 2.3900
3.4757 2.6125 2.3900
3.3860 2.7454 2.3900
3.2918 2.8755 2.3900
3.1931 3.0028 2.3900
3.0900 3.1270 2.3900
2.9826 3.2481 2.3900
2.8710 3.3659 2.3900
2.7553 3.4803 2.3900
2.6354 3.5911 2.3900
2.5116 3.6982 2.3900
2.3839 3.8014 2.3900
2.2524 3.9007 2.3900
2.1172 3.9958 2.3900
0.8270 1.7082 0.9990
0.7651 1.7389 0.9959
0.7022 1.7672 0.9927
0.6383 1.7934 0.9894
0.5735 1.8172 0.9861
0.5079 1.8386 0.9827
0.4415 1.8577 0.9792
0.3745 1.8743 0.9757
0.3069 1.8886 0.9722
0.2389 1.9004 0.9686
0.1705 1.9097 0.9649
0.1017 1.9165 0.9613
0.0328 1.9209 0.9576
-0.0362 1.9228 0.9538
-0.1053 1.9222 0.9501
-0.1743 1.9191 0.9464
-0.2431 1.9135 0.9426
-0.3117 1.9054 0.9388
-0.3800 1.8948 0.9351
-0.4478 1.8818 0.9313
-0.5151 1.8664 0.9276
-0.5818 1.8485 0.9239
-0.6479 1.8283 0.9201
-0.7131 1.8056 0.9165
-0.7775 1.7806 0.9128
-0.8410 1.7534 0.9092
-0.9034 1.7238 0.9056
-0.9647 1.6920 0.9021
-2.7257 4.4099 2.3900
-2.8933 4.3303 2.3900
-3.0584 4.2443 2.3900
-3.2208 4.1518 2.3900
-3.3800 4.0528 2.3900
-3.5359 3.9476 2.3900
-3.6882 3.8362 2.3900
-3.8366 3.7187 2.3900
-3.9808 3.5952 2.3900
-4.1206 3.4659 2.3900
-4.2557 3.3309 2.3900
-4.3858 3.1904 2.3900
-4.5106 3.0446 2.3900
-4.6300 2.8937 2.3900
-4.7436 2.7378 2.3900
-4.8513 2.5772 2.3900
-4.9528 2.4121 2.3900
-5.0479 2.2428 2.3900
-5.1363 2.0696 2.3900
-5.2180 1.8926 2.3900
-5.2927 1.7123 2.3900
-5.3602 1.5288 2.3900
-5.4205 1.3425 2.3900
-5.4732 1.1537 2.3900
-5.5185 0.9628 2.3900
-5.5560 0.7699 2.3900
-5.5857 0.5756 2.3900
-5.6077 0.3801 2.3900
-5.6217 0.1837 2.3900
-5.6278 -0.0132 2.3900
-5.6259 -0.2102 2.3900
-5.6160 -0.4070 2.3900
-5.5982 -0.6033 2.3900
-5.5725 -0.7987 2.3900
-5.5389 -0.9928 2.3900
-5.4975 -1.1854 2.3900
-5.4484 -1.3760 2.3900
-5.3917 -1.5644 2.3900
-5.3274 -1.7502 2.3900
-5.2558 -1.9330 2.3900
-5.1770 -2.1127 2.3900
-5.0912 -2.2889 2.3900
-4.9985 -2.4612 2.3900
-4.8991 -2.6295 2.3900
-4.7932 -2.7934 2.3900
-4.6811 -2.9528 2.3900
-4.5630 -3.1072 2.3900
-4.4391 -3.2566 2.3900
-4.3096 -3.4007 2.3900
-4.1749 -3.5392 2.3900
-4.0352 -3.6721 2.3900
-3.8907 -3.7991 2.3900
-3.7418 -3.9201 2.3900
-3.5887 -4.0348 2.3900
-3.4317 -4.1433 2.3900
-3.2711 -4.2454 2.3900
-3.1071 -4.3409 2.3900
-2.9402 -4.4298 2.3900
-2.7705 -4.5120 2.3900
-2.5984 -4.5875 2.3900
-2.4240 -4.6564 2.3900
-2.2479 -4.7181 2.3900
-2.0702 -4.7731 2.3900
-1.8912 -4.8213 2.3900
-1.7112 -4.8626 2.3900
-1.5304 -4.8971 2.3900
-1.3492 -4.9248 2.3900
-1.1678 -4.9458 2.3900
-0.9864 -4.9600 2.3900
-0.8053 -4.9677 2.3900
-0.6248 -4.9687 2.3900
-0.4451 -4.9632 2.3900
-0.2664 -4.9514 2.3900
-0.0890 -4.9332 2.3900
0.0870 -4.9087 2.3900
0.2613 -4.8782 2.3900
0.4336 -4.8417 2.3900
0.6039 -4.7992 2.3900
0.7719 -4.7511 2.3900
0.9375 -4.6972 2.3900
1.1004 -4.6379 2.3900
1.2605 -4.5732 2.3900
1.4177 -4.5033 2.3900
1.5717 -4.4283 2.3900
1.7225 -4.3484 2.3900
1.8698 -4.2636 2.3900
2.0137 -4.1742 2.3900
2.1538 -4.0804 2.3900
2.2903 -3.9822 2.3900
2.4228 -3.8797 2.3900
2.5513 -3.7733 2.3900
2.6757 -3.6630 2.3900
2.7960 -3.5490 2.3900
2.9119 -3.4314 2.3900
3.0235 -3.3103 2.3900
3.1307 -3.1861 2.3900
3.2334 -3.0587 2.3900
3.3315 -2.9284 2.3900
3.4249 -2.7953 2.3900
3.5137 -2.6595 2.3900
3.5977 -2.5213 2.3900
3.6769 -2.3808 2.3900
3.7513 -2.2380 2.3900
3.8208 -2.0933 2.3900
3.8854 -1.9466 2.3900
3.9450 -1.7983 2.3900
3.9997 -1.6483 2.3900
4.0493 -1.4970 2.3900
4.0939 -1.3443 2.3900
4.1335 -1.1906 2.3900
4.1680 -1.0358 2.3900
4.1974 -0.8802 2.3900
4.2217 -0.7239 2.3900
4.2410 -0.5671 2.3900
4.2551 -0.4098 2.3900
4.2642 -0.2523 2.3900
4.2681 -0.0947 2.3900
4.2669 0.0630 2.3900
4.2606 0.2204 2.3900
4.2493 0.3775 2.3900
4.2329 0.5342 2.3900
4.2114 0.6903 2.3900
4.1848 0.8457 2.3900
4.1533 1.0002 2.3900
4.1167 1.1537 2.3900
4.0752 1.3060 2.3900
4.0287 1.4571 2.3900
3.9773 1.6067 2.3900
3.9210 1.7547 2.3900
3.8598 1.9011 2.3900
3.7938 2.0455 2.3900
3.7231 2.1880 2.3900
3.6476 2.3283 2.3900
3.5674 2.4664 2.3900
3.4826 2.6020 2.3900
3.3932 2.7350 2.3900
3.2993 2.8654 2.3900
3.2010 2.9928 2.3900
3.0983 3.1173 2.3900
2.9912 3.2387 2.3900
2.8800 3.3568 2.3900
2.7645 3.4714 2.3900
2.6450 3.5825 2.3900
2.5215 3.6899 2.3900
2.3941 3.7935 2.3900
2.2629 3.8930 2.3900
2.1280 3.9885 2.3900
0.8318 1.7057 0.9993
0.7700 1.7365 0.9961
0.7072 1.7651 0.9929
0.6434 1.7914 0.9897
0.5786 1.8154 0.9863
0.5131 1.8370 0.9829
0.4467 1.8563 0.9795
0.3798 1.8731 0.9760
0.3123 1.8875 0.9724
0.2443 1.8995 0.9688
0.1759 1.9090 0.9652
0.1072 1.9161 0.9616
0.0382 1.9207 0.9579
-0.0308 1.9227 0.9541
-0.0998 1.9223 0.9504
-0.1689 1.9194 0.9467
-0.2377 1.9140 0.9429
-0.3063 1.9061 0.9391
-0.3746 1.8958 0.9354
-0.4425 1.8829 0.9316
-0.5098 1.8677 0.9279
-0.5766 1.8500 0.9241
-0.6427 1.8299 0.9204
-0.7080 1.8075 0.9168
-0.7725 1.7827 0.9131
-0.8360 1.7556 0.9095
-0.8985 1.7262 0.9059
-0.9599 1.6946 0.9024
-2.7125 4.4159 2.3900
-2.8803 4.3368 2.3900
-3.0456 4.2513 2.3900
-3.2081 4.1593 2.3900
-3.3676 4.0608 2.3900
-3.5238 3.9561 2.3900
-3.6764 3.8452 2.3900
-3.8251 3.7282 2.3900
-3.9696 3.6052 2.3900
-4.1098 3.4763 2.3900
-4.2452 3.3418 2.3900
-4.3757 3.2017 2.3900
-4.5010 3.0563 2.3900
-4.6208 2.9057 2.3900
-4.7349 2.7502 2.3900
