ply
format ascii 1.0
element vertex 2183
property float32 x
property float32 y
property float32 z
end_header
3.9328 -5.2146 2.3760
4.1222 -5.0750 2.3760
4.3066 -4.9287 2.3760
4.4860 -4.7758 2.3760
4.6600 -4.6164 2.3760
4.8284 -4.4508 2.3760
4.9910 -4.2792 2.3760
5.1475 -4.1017 2.3760
5.2978 -3.9186 2.3760
5.4416 -3.7301 2.3760
5.5788 -3.5363 2.3760
5.7091 -3.3375 2.3760
5.8323 -3.1341 2.3760
5.9483 -2.9261 2.3760
6.0569 -2.7138 2.3760
6.1579 -2.4976 2.3760
6.2512 -2.2776 2.3760
6.3366 -2.0542 2.3760
6.4141 -1.8277 2.3760
6.4834 -1.5982 2.3760
6.5444 -1.3662 2.3760
6.5971 -1.1318 2.3760
6.6413 -0.8954 2.3760
6.6770 -0.6574 2.3760
6.7041 -0.4180 2.3760
6.7225 -0.1775 2.3760
6.7322 0.0638 2.3760
6.7332 0.3055 2.3760
6.7253 0.5473 2.3760
6.7086 0.7888 2.3760
6.6832 1.0299 2.3760
6.6489 1.2700 2.3760
6.6058 1.5090 2.3760
6.5540 1.7465 2.3760
6.4935 1.9821 2.3760
6.4244 2.2155 2.3760
6.3467 2.4464 2.3760
6.2605 2.6745 2.3760
6.1660 2.8995 2.3760
6.0632 3.1210 2.3760
5.9522 3.3387 2.3760
5.8332 3.5523 2.3760
5.7064 3.7616 2.3760
5.5719 3.9661 2.3760
5.4298 4.1657 2.3760
5.2804 4.3600 2.3760
5.1239 4.5488 2.3760
5.5362 -2.7593 2.3760
5.6382 -2.5616 2.3760
5.7331 -2.3602 2.3760
5.8209 -2.1553 2.3760
5.9013 -1.9471 2.3760
5.9743 -1.7360 2.3760
6.0396 -1.5223 2.3760
6.0973 -1.3060 2.3760
6.1472 -1.0876 2.3760
6.1893 -0.8674 2.3760
6.2234 -0.6455 2.3760
6.2494 -0.4224 2.3760
6.2674 -0.1982 2.3760
6.2773 0.0267 2.3760
6.2790 0.2520 2.3760
6.2725 0.4774 2.3760
6.2578 0.7026 2.3760
6.2349 0.9274 2.3760
6.2038 1.1513 2.3760
6.1645 1.3742 2.3760
6.1171 1.5957 2.3760
6.0616 1.8154 2.3760
5.9981 2.0332 2.3760
5.9265 2.2486 2.3760
5.8471 2.4615 2.3760
5.7599 2.6714 2.3760
5.6650 2.8782 2.3760
5.5625 3.0814 2.3760
5.4525 3.2809 2.3760
5.3352 3.4764 2.3760
5.2108 3.6675 2.3760
5.0793 3.8539 2.3760
4.9410 4.0356 2.3760
4.7960 4.2121 2.3760
4.6445 4.3832 2.3760
4.4868 4.5486 2.3760
4.3231 4.7083 2.3760
4.1535 4.8618 2.3760
3.9783 5.0090 2.3760
3.7977 5.1497 2.3760
3.6120 5.2836 2.3760
3.4215 5.4106 2.3760
3.2263 5.5305 2.3760
3.0269 5.6432 2.3760
2.8234 5.7484 2.3760
2.6161 5.8460 2.3760
0.9306 2.2966 0.9192
0.8480 2.3286 0.9194
0.7642 2.3577 0.9195
0.6795 2.3837 0.9197
0.5938 2.4067 0.9199
0.5074 2.4265 0.9202
0.4203 2.4433 0.9204
0.3326 2.4568 0.9207
0.2445 2.4672 0.9210
0.1561 2.4744 0.9214
0.0675 2.4784 0.9218
-0.0212 2.4792 0.9222
-0.1099 2.4768 0.9226
-0.1985 2.4712 0.9230
-0.2868 2.4624 0.9235
-0.3747 2.4505 0.9240
-0.4621 2.4353 0.9245
-0.5489 2.4170 0.9250
-0.6350 2.3956 0.9256
-0.7203 2.3711 0.9262
-0.8046 2.3435 0.9268
-0.8879 2.3129 0.9274
-2.4835 5.8357 2.3760
-2.6886 5.7381 2.3760
-2.8898 5.6332 2.3760
-3.0870 5.5211 2.3760
-3.2797 5.4019 2.3760
-3.4678 5.2759 2.3760
-3.6511 5.1432 2.3760
-3.8292 5.0041 2.3760
-4.0020 4.8587 2.3760
-4.1693 4.7072 2.3760
-4.3307 4.5499 2.3760
-4.4863 4.3870 2.3760
-4.6357 4.2188 2.3760
-4.7787 4.0454 2.3760
-4.9153 3.8671 2.3760
-5.0452 3.6841 2.3760
-5.1683 3.4968 2.3760
-5.2844 3.3053 2.3760
-5.3935 3.1100 2.3760
-5.4953 2.9110 2.3760
-5.5898 2.7088 2.3760
-5.6769 2.5034 2.3760
-5.7565 2.2953 2.3760
-5.8285 2.0847 2.3760
-5.8929 1.8718 2.3760
-5.9495 1.6570 2.3760
-5.9984 1.4406 2.3760
-6.0394 1.2227 2.3760
-6.0727 1.0037 2.3760
-6.0980 0.7839 2.3760
-6.1155 0.5635 2.3760
-6.1252 0.3429 2.3760
-6.1270 0.1223 2.3760
-6.1210 -0.0980 2.3760
-6.1071 -0.3178 2.3760
-6.0855 -0.5368 2.3760
-6.0562 -0.7546 2.3760
-6.0192 -0.9711 2.3760
-5.9746 -1.1860 2.3760
-5.9225 -1.3990 2.3760
-5.8630 -1.6098 2.3760
-5.7961 -1.8183 2.3760
-5.7219 -2.0241 2.3760
-5.6407 -2.2270 2.3760
-5.5523 -2.4267 2.3760
-5.4571 -2.6231 2.3760
-5.3551 -2.8159 2.3760
-5.2464 -3.0049 2.3760
-5.1313 -3.1898 2.3760
-5.0098 -3.3705 2.3760
-4.8821 -3.5467 2.3760
-4.7484 -3.7182 2.3760
-4.6088 -3.8848 2.3760
-4.4635 -4.0464 2.3760
-4.3128 -4.2027 2.3760
-4.1567 -4.3536 2.3760
-3.9955 -4.4989 2.3760
-3.8293 -4.6384 2.3760
-3.6584 -4.7720 2.3760
-3.4830 -4.8994 2.3760
-3.3033 -5.0207 2.3760
-3.1196 -5.1355 2.3760
-2.9319 -5.2439 2.3760
-2.7406 -5.3456 2.3760
-2.5458 -5.4405 2.3760
-2.3479 -5.5286 2.3760
-2.1470 -5.6098 2.3760
-1.9434 -5.6838 2.3760
-1.7374 -5.7507 2.3760
-1.5290 -5.8104 2.3760
-1.3187 -5.8628 2.3760
-1.1067 -5.9078 2.3760
-0.8932 -5.9453 2.3760
-0.6784 -5.9754 2.3760
-0.4627 -5.9979 2.3760
-0.2463 -6.0129 2.3760
-0.0293 -6.0204 2.3760
0.1878 -6.0202 2.3760
0.4049 -6.0124 2.3760
0.6217 -5.9970 2.3760
0.8379 -5.9740 2.3760
1.0532 -5.9434 2.3760
1.2675 -5.9053 2.3760
1.4804 -5.8596 2.3760
1.6918 -5.8065 2.3760
1.9012 -5.7460 2.3760
2.1086 -5.6780 2.3760
2.3135 -5.6028 2.3760
2.5159 -5.5203 2.3760
2.7153 -5.4307 2.3760
2.9116 -5.3341 2.3760
3.1046 -5.2305 2.3760
3.2939 -5.1200 2.3760
3.4793 -5.0029 2.3760
3.6606 -4.8792 2.3760
3.8376 -4.7490 2.3760
4.0101 -4.6125 2.3760
4.1777 -4.4698 2.3760
4.3403 -4.3212 2.3760
4.4977 -4.1667 2.3760
4.6496 -4.0066 2.3760
4.7959 -3.8411 2.3760
4.9364 -3.6702 2.3760
5.0707 -3.4943 2.3760
5.1989 -3.3136 2.3760
5.3206 -3.1282 2.3760
5.4358 -2.9383 2.3760
5.5442 -2.7443 2.3760
5.6457 -2.5463 2.3760
5.7401 -2.3446 2.3760
5.8273 -2.1395 2.3760
5.9071 -1.9311 2.3760
5.9795 -1.7198 2.3760
6.0443 -1.5058 2.3760
6.1014 -1.2894 2.3760
6.1507 -1.0709 2.3760
6.1921 -0.8505 2.3760
6.2256 -0.6285 2.3760
6.2511 -0.4053 2.3760
6.2684 -0.1811 2.3760
6.2777 0.0439 2.3760
6.2788 0.2692 2.3760
6.2716 0.4946 2.3760
6.2563 0.7198 2.3760
6.2328 0.9445 2.3760
6.2011 1.1684 2.3760
6.1612 1.3912 2.3760
6.1132 1.6125 2.3760
6.0570 1.8321 2.3760
5.9929 2.0497 2.3760
5.9207 2.2650 2.3760
5.8407 2.4776 2.3760
5.7529 2.6873 2.3760
5.6574 2.8938 2.3760
5.5543 3.0968 2.3760
5.4438 3.2960 2.3760
5.3260 3.4911 2.3760
5.2010 3.6819 2.3760
5.0690 3.8680 2.3760
4.9301 4.0492 2.3760
4.7846 4.2253 2.3760
4.6327 4.3960 2.3760
4.4745 4.5610 2.3760
4.3103 4.7202 2.3760
4.1403 4.8732 2.3760
3.9647 5.0200 2.3760
3.7837 5.1601 2.3760
3.5976 5.2935 2.3760
3.4067 5.4200 2.3760
3.2112 5.5394 2.3760
3.0115 5.6515 2.3760
2.8077 5.7561 2.3760
2.6001 5.8532 2.3760
0.9243 2.2991 0.9193
0.8416 2.3310 0.9194
0.7578 2.3598 0.9195
0.6729 2.3856 0.9197
0.5872 2.4083 0.9199
0.5007 2.4279 0.9202
0.4136 2.4444 0.9205
0.3259 2.4577 0.9207
0.2378 2.4679 0.9211
0.1493 2.4748 0.9214
0.0607 2.4786 0.9218
-0.0280 2.4792 0.9222
-0.1167 2.4765 0.9226
-0.2052 2.4707 0.9231
-0.2935 2.4616 0.9235
-0.3814 2.4494 0.9240
-0.4688 2.4340 0.9245
-0.5555 2.4155 0.9251
-0.6416 2.3938 0.9256
-0.7268 2.3691 0.9262
-0.8110 2.3413 0.9268
-0.8942 2.3104 0.9274
-2.4993 5.8285 2.3760
-2.7041 5.7303 2.3760
-2.9051 5.6249 2.3760
-3.1018 5.5122 2.3760
-3.2943 5.3925 2.3760
-3.4820 5.2660 2.3760
-3.6648 5.1328 2.3760
-3.8426 4.9932 2.3760
-4.0150 4.8473 2.3760
-4.1818 4.6954 2.3760
-4.3428 4.5377 2.3760
-4.4979 4.3744 2.3760
-4.6468 4.2057 2.3760
-4.7894 4.0319 2.3760
-4.9255 3.8532 2.3760
-5.0548 3.6700 2.3760
-5.1774 3.4823 2.3760
-5.2930 3.2905 2.3760
-5.4015 3.0949 2.3760
-5.5028 2.8957 2.3760
-5.5967 2.6932 2.3760
-5.6832 2.4876 2.3760
-5.7623 2.2793 2.3760
-5.8337 2.0685 2.3760
-5.8975 1.8555 2.3760
-5.9535 1.6406 2.3760
-6.0018 1.4240 2.3760
-6.0422 1.2060 2.3760
-6.0749 0.9870 2.3760
-6.0996 0.7671 2.3760
-6.1165 0.5467 2.3760
-6.1256 0.3261 2.3760
-6.1268 0.1055 2.3760
-6.1202 -0.1149 2.3760
-6.1057 -0.3346 2.3760
-6.0835 -0.5535 2.3760
-6.0536 -0.7712 2.3760
-6.0161 -0.9876 2.3760
-5.9709 -1.2023 2.3760
-5.9182 -1.4152 2.3760
-5.8581 -1.6258 2.3760
-5.7907 -1.8341 2.3760
-5.7160 -2.0397 2.3760
-5.6342 -2.2423 2.3760
-5.5453 -2.4418 2.3760
-5.4496 -2.6380 2.3760
-5.3470 -2.8305 2.3760
-5.2379 -3.0192 2.3760
-5.1222 -3.2038 2.3760
-5.0003 -3.3841 2.3760
-4.8721 -3.5599 2.3760
-4.7379 -3.7311 2.3760
-4.5979 -3.8974 2.3760
-4.4522 -4.0585 2.3760
-4.3010 -4.2144 2.3760
-4.1445 -4.3649 2.3760
-3.9829 -4.5097 2.3760
-3.8164 -4.6488 2.3760
-3.6452 -4.7819 2.3760
-3.4695 -4.9089 2.3760
-3.2894 -5.0297 2.3760
-3.1054 -5.1440 2.3760
-2.9174 -5.2519 2.3760
-2.7258 -5.3531 2.3760
-2.5308 -5.4475 2.3760
-2.3327 -5.5351 2.3760
-2.1316 -5.6157 2.3760
-1.9278 -5.6892 2.3760
-1.7215 -5.7555 2.3760
-1.5131 -5.8147 2.3760
-1.3026 -5.8665 2.3760
-1.0905 -5.9109 2.3760
-0.8768 -5.9479 2.3760
-0.6620 -5.9774 2.3760
-0.4462 -5.9994 2.3760
-0.2297 -6.0138 2.3760
-0.0127 -6.0206 2.3760
0.2044 -6.0199 2.3760
0.4214 -6.0115 2.3760
0.6382 -5.9955 2.3760
0.8543 -5.9719 2.3760
1.0696 -5.9408 2.3760
1.2838 -5.9021 2.3760
1.4967 -5.8559 2.3760
1.7078 -5.8022 2.3760
1.9172 -5.7410 2.3760
2.1243 -5.6725 2.3760
2.3291 -5.5967 2.3760
2.5312 -5.5137 2.3760
2.7304 -5.4236 2.3760
2.9265 -5.3264 2.3760
3.1191 -5.2223 2.3760
3.3082 -5.1113 2.3760
3.4933 -4.9937 2.3760
3.6743 -4.8694 2.3760
3.8510 -4.7388 2.3760
4.0231 -4.6018 2.3760
4.1903 -4.4587 2.3760
4.3525 -4.3096 2.3760
4.5095 -4.1547 2.3760
4.6610 -3.9942 2.3760
4.8069 -3.8282 2.3760
4.9468 -3.6570 2.3760
5.0808 -3.4807 2.3760
5.2084 -3.2996 2.3760
5.3297 -3.1138 2.3760
5.4443 -2.9236 2.3760
5.5522 -2.7293 2.3760
5.6531 -2.5310 2.3760
5.7470 -2.3291 2.3760
5.8336 -2.1237 2.3760
5.9129 -1.9151 2.3760
5.9847 -1.7036 2.3760
6.0489 -1.4894 2.3760
6.1055 -1.2728 2.3760
6.1542 -1.0541 2.3760
6.1950 -0.8336 2.3760
6.2279 -0.6115 2.3760
6.2527 -0.3882 2.3760
6.2694 -0.1639 2.3760
6.2780 0.0611 2.3760
6.2785 0.2864 2.3760
6.2707 0.5118 2.3760
6.2548 0.7370 2.3760
6.2306 0.9616 2.3760
6.1983 1.1855 2.3760
6.1578 1.4081 2.3760
6.1091 1.6294 2.3760
6.0524 1.8488 2.3760
5.9876 2.0663 2.3760
5.9149 2.2813 2.3760
5.8343 2.4938 2.3760
5.7459 2.7032 2.3760
5.6498 2.9095 2.3760
5.5462 3.1122 2.3760
5.4351 3.3110 2.3760
5.3167 3.5058 2.3760
5.1911 3.6962 2.3760
5.0586 3.8820 2.3760
4.9192 4.0629 2.3760
4.7733 4.2386 2.3760
5.1850 -2.5824 2.3760
5.2802 -2.3972 2.3760
5.3688 -2.2084 2.3760
5.4506 -2.0164 2.3760
5.5255 -1.8215 2.3760
5.5935 -1.6237 2.3760
5.6543 -1.4235 2.3760
5.7080 -1.2210 2.3760
5.7543 -1.0165 2.3760
5.7933 -0.8103 2.3760
5.8248 -0.6026 2.3760
5.8489 -0.3937 2.3760
5.8653 -0.1840 2.3760
5.8742 0.0265 2.3760
5.8754 0.2373 2.3760
5.8690 0.4482 2.3760
5.8549 0.6588 2.3760
5.8332 0.8691 2.3760
5.8038 1.0785 2.3760
5.7667 1.2869 2.3760
5.7221 1.4940 2.3760
5.6698 1.6994 2.3760
5.6101 1.9030 2.3760
5.5430 2.1044 2.3760
5.4684 2.3033 2.3760
5.3866 2.4996 2.3760
5.2976 2.6928 2.3760
5.2016 2.8827 2.3760
5.0985 3.0691 2.3760
4.9887 3.2517 2.3760
4.8721 3.4302 2.3760
4.7491 3.6045 2.3760
4.6196 3.7741 2.3760
4.4839 3.9390 2.3760
4.3422 4.0988 2.3760
4.1947 4.2534 2.3760
4.0415 4.4025 2.3760
3.8829 4.5459 2.3760
3.7191 4.6834 2.3760
3.5502 4.8148 2.3760
3.3766 4.9399 2.3760
3.1985 5.0586 2.3760
3.0161 5.1706 2.3760
2.8296 5.2758 2.3760
2.6394 5.3741 2.3760
2.4457 5.4654 2.3760
0.8713 2.1503 0.9206
0.7940 2.1803 0.9208
0.7156 2.2075 0.9209
0.6362 2.2318 0.9211
0.5561 2.2533 0.9213
0.4752 2.2719 0.9215
0.3936 2.2875 0.9218
0.3116 2.3002 0.9220
0.2291 2.3099 0.9223
0.1464 2.3167 0.9227
0.0634 2.3204 0.9230
-0.0196 2.3211 0.9234
-0.1026 2.3189 0.9238
-0.1855 2.3136 0.9242
-0.2681 2.3054 0.9246
-0.3504 2.2942 0.9251
-0.4323 2.2800 0.9256
-0.5135 2.2629 0.9261
-0.5941 2.2428 0.9266
-0.6739 2.2199 0.9271
-0.7529 2.1941 0.9277
-0.8308 2.1654 0.9283
-0.9077 2.1340 0.9289
-2.5137 5.3677 2.3760
-2.7021 5.2699 2.3760
-2.8866 5.1653 2.3760
-3.0670 5.0541 2.3760
-3.2431 4.9365 2.3760
-3.4147 4.8127 2.3760
-3.5816 4.6828 2.3760
-3.7434 4.5470 2.3760
-3.9001 4.4056 2.3760
-4.0515 4.2587 2.3760
-4.1972 4.1065 2.3760
-4.3373 3.9493 2.3760
-4.4714 3.7873 2.3760
-4.5995 3.6206 2.3760
-4.7214 3.4496 2.3760
-4.8369 3.2745 2.3760
-4.9459 3.0955 2.3760
-5.0483 2.9128 2.3760
-5.1440 2.7268 2.3760
-5.2328 2.5376 2.3760
-5.3147 2.3455 2.3760
-5.3895 2.1507 2.3760
-5.4573 1.9537 2.3760
-5.5179 1.7544 2.3760
-5.5713 1.5534 2.3760
-5.6174 1.3507 2.3760
-5.6563 1.1467 2.3760
-5.6877 0.9417 2.3760
-5.7119 0.7358 2.3760
-5.7286 0.5294 2.3760
-5.7380 0.3228 2.3760
-5.7400 0.1161 2.3760
-5.7347 -0.0904 2.3760
-5.7220 -0.2963 2.3760
-5.7021 -0.5015 2.3760
-5.6749 -0.7057 2.3760
-5.6406 -0.9087 2.3760
-5.5991 -1.1101 2.3760
-5.5506 -1.3098 2.3760
-5.4950 -1.5075 2.3760
-5.4326 -1.7029 2.3760
-5.3633 -1.8959 2.3760
-5.2874 -2.0862 2.3760
-5.2048 -2.2736 2.3760
-5.1157 -2.4579 2.3760
-5.0203 -2.6387 2.3760
-4.9186 -2.8160 2.3760
-4.8108 -2.9895 2.3760
-4.6971 -3.1590 2.3760
-4.5775 -3.3243 2.3760
-4.4522 -3.4853 2.3760
-4.3215 -3.6417 2.3760
-4.1853 -3.7933 2.3760
-4.0440 -3.9400 2.3760
-3.8978 -4.0816 2.3760
-3.7466 -4.2179 2.3760
-3.5909 -4.3488 2.3760
-3.4307 -4.4742 2.3760
-3.2662 -4.5938 2.3760
-3.0977 -4.7076 2.3760
-2.9253 -4.8154 2.3760
-2.7493 -4.9170 2.3760
-2.5699 -5.0125 2.3760
-2.3873 -5.1015 2.3760
-2.2016 -5.1842 2.3760
-2.0132 -5.2603 2.3760
-1.8222 -5.3297 2.3760
-1.6289 -5.3925 2.3760
-1.4336 -5.4484 2.3760
-1.2363 -5.4975 2.3760
-1.0374 -5.5396 2.3760
-0.8371 -5.5747 2.3760
-0.6357 -5.6028 2.3760
-0.4334 -5.6239 2.3760
-0.2304 -5.6378 2.3760
-0.0269 -5.6447 2.3760
0.1767 -5.6444 2.3760
0.3803 -5.6369 2.3760
0.5836 -5.6223 2.3760
0.7863 -5.6006 2.3760
0.9882 -5.5718 2.3760
1.1891 -5.5358 2.3760
1.3888 -5.4928 2.3760
1.5868 -5.4428 2.3760
1.7832 -5.3858 2.3760
1.9775 -5.3219 2.3760
2.1695 -5.2511 2.3760
2.3591 -5.1736 2.3760
2.5460 -5.0894 2.3760
2.7299 -4.9985 2.3760
2.9106 -4.9012 2.3760
3.0879 -4.7974 2.3760
3.2615 -4.6874 2.3760
3.4313 -4.5712 2.3760
3.5970 -4.4489 2.3760
3.7583 -4.3208 2.3760
3.9152 -4.1869 2.3760
4.0674 -4.0473 2.3760
4.2146 -3.9024 2.3760
4.3567 -3.7522 2.3760
4.4935 -3.5968 2.3760
4.6247 -3.4366 2.3760
4.7503 -3.2716 2.3760
4.8701 -3.1021 2.3760
4.9838 -2.9283 2.3760
5.0913 -2.7503 2.3760
5.1925 -2.5684 2.3760
5.2872 -2.3829 2.3760
5.3752 -2.1939 2.3760
5.4565 -2.0016 2.3760
5.5310 -1.8064 2.3760
5.5984 -1.6085 2.3760
5.6587 -1.4081 2.3760
5.7118 -1.2054 2.3760
5.7575 -1.0008 2.3760
5.7960 -0.7945 2.3760
5.8269 -0.5867 2.3760
5.8504 -0.3777 2.3760
5.8663 -0.1679 2.3760
5.8746 0.0426 2.3760
5.8752 0.2534 2.3760
5.8682 0.4642 2.3760
5.8535 0.6749 2.3760
5.8312 0.8851 2.3760
5.8012 1.0945 2.3760
5.7636 1.3028 2.3760
5.7183 1.5097 2.3760
5.6656 1.7151 2.3760
5.6053 1.9185 2.3760
5.5375 2.1197 2.3760
5.4624 2.3184 2.3760
5.3801 2.5144 2.3760
5.2905 2.7074 2.3760
5.1939 2.8971 2.3760
5.0904 3.0832 2.3760
4.9800 3.2655 2.3760
4.8630 3.4437 2.3760
4.7394 3.6176 2.3760
4.6095 3.7869 2.3760
4.4733 3.9514 2.3760
4.3312 4.1108 2.3760
4.1832 4.2650 2.3760
4.0296 4.4136 2.3760
3.8706 4.5566 2.3760
3.7064 4.6936 2.3760
3.5371 4.8246 2.3760
3.3632 4.9492 2.3760
3.1847 5.0674 2.3760
3.0020 5.1789 2.3760
2.8152 5.2836 2.3760
2.6247 5.3814 2.3760
2.4308 5.4720 2.3760
0.8655 2.1527 0.9207
0.7880 2.1825 0.9208
0.7095 2.2094 0.9209
0.6301 2.2336 0.9211
0.5499 2.2548 0.9213
0.4689 2.2732 0.9215
0.3874 2.2886 0.9218
0.3053 2.3010 0.9221
0.2228 2.3105 0.9224
0.1400 2.3170 0.9227
0.0571 2.3206 0.9230
-0.0260 2.3211 0.9234
-0.1090 2.3186 0.9238
-0.1918 2.3131 0.9242
-0.2745 2.3047 0.9247
-0.3567 2.2932 0.9251
-0.4385 2.2788 0.9256
-0.5197 2.2614 0.9261
-0.6002 2.2412 0.9266
-0.6800 2.2180 0.9272
-0.7589 2.1920 0.9277
-0.8367 2.1631 0.9283
-2.3366 5.4520 2.3760
-2.5282 5.3605 2.3760
-2.7163 5.2621 2.3760
-2.9005 5.1570 2.3760
-3.0806 5.0454 2.3760
-3.2564 4.9273 2.3760
-3.4276 4.8030 2.3760
-3.5941 4.6726 2.3760
-3.7556 4.5364 2.3760
-3.9119 4.3946 2.3760
-4.0628 4.2473 2.3760
-4.2081 4.0947 2.3760
-4.3477 3.9371 2.3760
-4.4814 3.7747 2.3760
-4.6090 3.6077 2.3760
-4.7304 3.4364 2.3760
-4.8454 3.2609 2.3760
-4.9539 3.0816 2.3760
-5.0559 2.8987 2.3760
-5.1510 2.7124 2.3760
-5.2393 2.5230 2.3760
-5.3206 2.3307 2.3760
-5.3950 2.1358 2.3760
-5.4622 1.9385 2.3760
-5.5222 1.7392 2.3760
-5.5751 1.5380 2.3760
-5.6207 1.3352 2.3760
-5.6589 1.1311 2.3760
-5.6898 0.9260 2.3760
-5.7134 0.7201 2.3760
-5.7296 0.5137 2.3760
-5.7384 0.3070 2.3760
-5.7398 0.1003 2.3760
-5.7340 -0.1061 2.3760
-5.7208 -0.3120 2.3760
-5.7003 -0.5172 2.3760
-5.6726 -0.7213 2.3760
-5.6377 -0.9241 2.3760
-5.5956 -1.1254 2.3760
-5.5466 -1.3250 2.3760
-5.4905 -1.5225 2.3760
-5.4275 -1.7178 2.3760
-5.3578 -1.9106 2.3760
-5.2813 -2.1007 2.3760
-5.1982 -2.2878 2.3760
-5.1087 -2.4718 2.3760
-5.0128 -2.6524 2.3760
-4.9106 -2.8294 2.3760
-4.8023 -3.0026 2.3760
-4.6881 -3.1718 2.3760
-4.5681 -3.3368 2.3760
-4.4424 -3.4974 2.3760
-4.3113 -3.6534 2.3760
-4.1747 -3.8047 2.3760
-4.0330 -3.9510 2.3760
-3.8864 -4.0922 2.3760
-3.7349 -4.2281 2.3760
-3.5788 -4.3586 2.3760
-3.4183 -4.4835 2.3760
-3.2535 -4.6027 2.3760
-3.0847 -4.7160 2.3760
-2.9120 -4.8233 2.3760
-2.7358 -4.9245 2.3760
-2.5561 -5.0195 2.3760
-2.3732 -5.1081 2.3760
-2.1874 -5.1902 2.3760
-1.9987 -5.2658 2.3760
-1.8076 -5.3348 2.3760
-1.6141 -5.3970 2.3760
-1.4185 -5.4524 2.3760
-1.2212 -5.5009 2.3760
-1.0222 -5.5425 2.3760
-0.8218 -5.5771 2.3760
-0.6203 -5.6047 2.3760
-0.4179 -5.6252 2.3760
-0.2148 -5.6386 2.3760
-0.0114 -5.6449 2.3760
0.1923 -5.6441 2.3760
0.3958 -5.6361 2.3760
0.5991 -5.6209 2.3760
0.8017 -5.5987 2.3760
1.0036 -5.5693 2.3760
1.2044 -5.5328 2.3760
1.4039 -5.4892 2.3760
1.6019 -5.4387 2.3760
1.7981 -5.3812 2.3760
1.9922 -5.3167 2.3760
2.1841 -5.2454 2.3760
2.3735 -5.1674 2.3760
2.5601 -5.0826 2.3760
2.7438 -4.9913 2.3760
2.9242 -4.8935 2.3760
3.1013 -4.7892 2.3760
3.2746 -4.6787 2.3760
3.4441 -4.5620 2.3760
3.6094 -4.4393 2.3760
3.7705 -4.3107 2.3760
3.9270 -4.1764 2.3760
4.0788 -4.0365 2.3760
4.2256 -3.8911 2.3760
4.3673 -3.7405 2.3760
4.5037 -3.5848 2.3760
4.6345 -3.4241 2.3760
4.7597 -3.2588 2.3760
4.8790 -3.0890 2.3760
4.9922 -2.9148 2.3760
5.0993 -2.7365 2.3760
5.2000 -2.5544 2.3760
5.2941 -2.3686 2.3760
5.3817 -2.1793 2.3760
5.4625 -1.9868 2.3760
5.5363 -1.7914 2.3760
5.6032 -1.5933 2.3760
5.6630 -1.3927 2.3760
5.7155 -1.1899 2.3760
5.7607 -0.9851 2.3760
5.7986 -0.7787 2.3760
5.8290 -0.5708 2.3760
5.8519 -0.3618 2.3760
5.8672 -0.1519 2.3760
5.8749 0.0587 2.3760
5.8749 0.2695 2.3760
5.8673 0.4804 2.3760
5.8521 0.6910 2.3760
5.8292 0.9011 2.3760
5.7986 1.1104 2.3760
5.7604 1.3186 2.3760
5.7146 1.5255 2.3760
5.6612 1.7307 2.3760
5.6004 1.9339 2.3760
5.5321 2.1350 2.3760
5.4564 2.3335 2.3760
5.3735 2.5293 2.3760
5.2834 2.7220 2.3760
5.1863 2.9114 2.3760
5.0822 3.0972 2.3760
4.9713 3.2792 2.3760
4.8538 3.4571 2.3760
4.7297 3.6307 2.3760
4.5993 3.7996 2.3760
4.4627 3.9637 2.3760
4.8704 -2.4240 2.3760
4.9595 -2.2499 2.3760
5.0424 -2.0725 2.3760
5.1189 -1.8921 2.3760
5.1890 -1.7089 2.3760
5.2525 -1.5231 2.3760
5.3094 -1.3350 2.3760
5.3594 -1.1449 2.3760
5.4026 -0.9528 2.3760
5.4389 -0.7592 2.3760
5.4682 -0.5642 2.3760
5.4905 -0.3681 2.3760
5.5056 -0.1712 2.3760
5.5137 0.0263 2.3760
5.5145 0.2241 2.3760
5.5082 0.4220 2.3760
5.4947 0.6197 2.3760
5.4740 0.8169 2.3760
5.4461 1.0134 2.3760
5.4111 1.2089 2.3760
5.3690 1.4031 2.3760
5.3197 1.5958 2.3760
5.2635 1.7867 2.3760
5.2002 1.9755 2.3760
5.1301 2.1620 2.3760
5.0532 2.3460 2.3760
4.9695 2.5271 2.3760
4.8792 2.7052 2.3760
4.7824 2.8799 2.3760
4.6792 3.0510 2.3760
4.5698 3.2184 2.3760
4.4542 3.3816 2.3760
4.3327 3.5406 2.3760
4.2053 3.6952 2.3760
4.0723 3.8449 2.3760
3.9339 3.9898 2.3760
3.7902 4.1295 2.3760
3.6414 4.2639 2.3760
3.4877 4.3927 2.3760
3.3293 4.5159 2.3760
3.1665 4.6331 2.3760
2.9995 4.7443 2.3760
2.8284 4.8493 2.3760
2.6536 4.9479 2.3760
2.4753 5.0401 2.3760
0.8898 1.9886 0.9218
0.8183 2.0193 0.9219
0.7456 2.0475 0.9220
0.6720 2.0730 0.9221
0.5975 2.0959 0.9223
0.5223 2.1160 0.9225
0.4463 2.1334 0.9227
0.3698 2.1481 0.9229
0.2927 2.1600 0.9232
0.2153 2.1691 0.9235
0.1376 2.1754 0.9238
0.0598 2.1789 0.9241
-0.0182 2.1796 0.9245
-0.0961 2.1775 0.9248
-0.1739 2.1726 0.9252
-0.2515 2.1649 0.9256
-0.3288 2.1543 0.9261
-0.4056 2.1410 0.9265
-0.4819 2.1249 0.9270
-0.5575 2.1061 0.9275
-0.6324 2.0846 0.9280
-0.7066 2.0603 0.9285
-0.7797 2.0335 0.9290
-0.8519 2.0039 0.9296
-2.3575 5.0368 2.3760
-2.5342 4.9452 2.3760
-2.7075 4.8473 2.3760
-2.8769 4.7432 2.3760
-3.0423 4.6331 2.3760
-3.2034 4.5172 2.3760
-3.3601 4.3955 2.3760
-3.5122 4.2683 2.3760
-3.6594 4.1358 2.3760
-3.8017 3.9982 2.3760
-3.9387 3.8556 2.3760
-4.0703 3.7082 2.3760
-4.1965 3.5563 2.3760
-4.3169 3.4001 2.3760
-4.4316 3.2398 2.3760
-4.5403 3.0755 2.3760
-4.6429 2.9076 2.3760
-4.7393 2.7363 2.3760
-4.8294 2.5618 2.3760
-4.9131 2.3842 2.3760
-4.9902 2.2040 2.3760
-5.0609 2.0213 2.3760
-5.1248 1.8363 2.3760
-5.1820 1.6493 2.3760
-5.2325 1.4605 2.3760
-5.2761 1.2702 2.3760
-5.3128 1.0787 2.3760
-5.3427 0.8861 2.3760
-5.3656 0.6927 2.3760
-5.3817 0.4988 2.3760
-5.3908 0.3047 2.3760
-5.3930 0.1105 2.3760
-5.3882 -0.0835 2.3760
-5.3766 -0.2771 2.3760
-5.3582 -0.4699 2.3760
-5.3329 -0.6619 2.3760
-5.3009 -0.8526 2.3760
-5.2621 -1.0420 2.3760
-5.2167 -1.2297 2.3760
-5.1648 -1.4156 2.3760
-5.1063 -1.5994 2.3760
-5.0414 -1.7809 2.3760
-4.9702 -1.9599 2.3760
-4.8928 -2.1362 2.3760
-4.8092 -2.3095 2.3760
-4.7197 -2.4796 2.3760
-4.6242 -2.6464 2.3760
-4.5230 -2.8096 2.3760
-4.4162 -2.9691 2.3760
-4.3038 -3.1246 2.3760
-4.1862 -3.2761 2.3760
-4.0633 -3.4232 2.3760
-3.9354 -3.5659 2.3760
-3.8026 -3.7039 2.3760
-3.6651 -3.8372 2.3760
-3.5231 -3.9655 2.3760
-3.3766 -4.0887 2.3760
-3.2260 -4.2066 2.3760
-3.0714 -4.3192 2.3760
-2.9129 -4.4262 2.3760
-2.7508 -4.5277 2.3760
-2.5853 -4.6233 2.3760
-2.4166 -4.7131 2.3760
-2.2448 -4.7969 2.3760
-2.0702 -4.8746 2.3760
-1.8930 -4.9462 2.3760
-1.7133 -5.0115 2.3760
-1.5315 -5.0705 2.3760
-1.3478 -5.1231 2.3760
-1.1622 -5.1692 2.3760
-0.9751 -5.2087 2.3760
-0.7868 -5.2417 2.3760
-0.5973 -5.2681 2.3760
-0.4070 -5.2878 2.3760
-0.2161 -5.3009 2.3760
-0.0247 -5.3072 2.3760
0.1668 -5.3068 2.3760
0.3582 -5.2997 2.3760
0.5494 -5.2858 2.3760
0.7400 -5.2652 2.3760
0.9299 -5.2379 2.3760
1.1187 -5.2040 2.3760
1.3064 -5.1634 2.3760
1.4926 -5.1162 2.3760
1.6771 -5.0624 2.3760
1.8598 -5.0021 2.3760
2.0403 -4.9354 2.3760
2.2184 -4.8623 2.3760
2.3940 -4.7829 2.3760
2.5668 -4.6973 2.3760
2.7365 -4.6056 2.3760
2.9030 -4.5079 2.3760
3.0661 -4.4043 2.3760
3.2255 -4.2948 2.3760
3.3811 -4.1797 2.3760
3.5326 -4.0591 2.3760
3.6798 -3.9331 2.3760
3.8226 -3.8018 2.3760
3.9607 -3.6654 2.3760
4.0940 -3.5240 2.3760
4.2223 -3.3779 2.3760
4.3454 -3.2271 2.3760
4.4631 -3.0720 2.3760
4.5754 -2.9126 2.3760
4.6819 -2.7491 2.3760
4.7827 -2.5818 2.3760
4.8774 -2.4108 2.3760
4.9661 -2.2364 2.3760
5.0485 -2.0588 2.3760
5.1245 -1.8782 2.3760
5.1941 -1.6948 2.3760
5.2571 -1.5088 2.3760
5.3134 -1.3206 2.3760
5.3630 -1.1303 2.3760
5.4056 -0.9381 2.3760
5.4414 -0.7443 2.3760
5.4702 -0.5493 2.3760
5.4919 -0.3531 2.3760
5.5065 -0.1561 2.3760
5.5140 0.0414 2.3760
5.5143 0.2392 2.3760
5.5074 0.4371 2.3760
5.4934 0.6348 2.3760
5.4721 0.8319 2.3760
5.4437 1.0284 2.3760
5.4081 1.2237 2.3760
5.3654 1.4179 2.3760
5.3157 1.6104 2.3760
5.2589 1.8012 2.3760
5.1951 1.9898 2.3760
5.1245 2.1762 2.3760
5.0470 2.3599 2.3760
4.9628 2.5408 2.3760
4.8720 2.7186 2.3760
4.7747 2.8931 2.3760
4.6711 3.0639 2.3760
4.5611 3.2310 2.3760
4.4451 3.3939 2.3760
4.3231 3.5526 2.3760
4.1953 3.7068 2.3760
4.0620 3.8562 2.3760
3.9231 4.0006 2.3760
3.7790 4.1399 2.3760
3.6298 4.2739 2.3760
3.4758 4.4023 2.3760
3.3171 4.5250 2.3760
3.1539 4.6418 2.3760
2.9865 4.7526 2.3760
2.8152 4.8571 2.3760
2.6401 4.9552 2.3760
2.4615 5.0469 2.3760
0.8844 1.9910 0.9218
0.8128 2.0216 0.9219
0.7401 2.0495 0.9220
0.6664 2.0749 0.9222
0.5918 2.0975 0.9223
0.5165 2.1174 0.9225
0.4405 2.1347 0.9227
0.3639 2.1491 0.9230
0.2868 2.1608 0.9232
0.2094 2.1697 0.9235
0.1317 2.1758 0.9238
0.0538 2.1791 0.9241
-0.0241 2.1796 0.9245
-0.1021 2.1772 0.9249
-0.1799 2.1721 0.9253
-0.2574 2.1641 0.9257
-0.3346 2.1534 0.9261
-0.4114 2.1399 0.9266
-0.4877 2.1236 0.9270
-0.5633 2.1046 0.9275
-0.6381 2.0828 0.9280
-0.7122 2.0584 0.9285
-0.7853 2.0313 0.9291
-0.8574 2.0016 0.9296
-2.3711 5.0300 2.3760
-2.5476 4.9380 2.3760
-2.7205 4.8396 2.3760
-2.8897 4.7350 2.3760
-3.0547 4.6245 2.3760
-3.2155 4.5081 2.3760
-3.3719 4.3860 2.3760
-3.5236 4.2584 2.3760
-3.6705 4.1255 2.3760
-3.8123 3.9875 2.3760
-3.9489 3.8445 2.3760
-4.0802 3.6968 2.3760
-4.2059 3.5445 2.3760
-4.3259 3.3880 2.3760
-4.4401 3.2274 2.3760
-4.5483 3.0628 2.3760
-4.6505 2.8947 2.3760
-4.7464 2.7231 2.3760
-4.8360 2.5483 2.3760
-4.9192 2.3706 2.3760
-4.9959 2.1901 2.3760
-5.0660 2.0072 2.3760
-5.1294 1.8220 2.3760
-5.1861 1.6349 2.3760
-5.2360 1.4460 2.3760
-5.2791 1.2556 2.3760
-5.3154 1.0640 2.3760
-5.3447 0.8713 2.3760
-5.3671 0.6779 2.3760
-5.3826 0.4840 2.3760
-5.3912 0.2899 2.3760
-5.3929 0.0957 2.3760
-5.3876 -0.0983 2.3760
-5.3755 -0.2918 2.3760
-5.3565 -0.4846 2.3760
-5.3307 -0.6765 2.3760
-5.2982 -0.8671 2.3760
-5.2589 -1.0564 2.3760
-5.2130 -1.2440 2.3760
-5.1605 -1.4298 2.3760
-5.1016 -1.6134 2.3760
-5.0362 -1.7947 2.3760
-4.9645 -1.9735 2.3760
-4.8866 -2.1495 2.3760
-4.8026 -2.3226 2.3760
-4.7126 -2.4925 2.3760
-4.6167 -2.6590 2.3760
-4.5151 -2.8219 2.3760
-4.4078 -2.9811 2.3760
-4.2951 -3.1364 2.3760
-4.1770 -3.2875 2.3760
-4.0537 -3.4343 2.3760
-3.9254 -3.5766 2.3760
-3.7923 -3.7143 2.3760
-3.6544 -3.8471 2.3760
-3.5120 -3.9751 2.3760
-3.3653 -4.0979 2.3760
-3.2143 -4.2154 2.3760
-3.0594 -4.3276 2.3760
-2.9007 -4.4342 2.3760
-2.7383 -4.5352 2.3760
-2.5726 -4.6304 2.3760
-2.4036 -4.7197 2.3760
-2.2316 -4.8031 2.3760
-2.0568 -4.8803 2.3760
-1.8793 -4.9514 2.3760
-1.6995 -5.0162 2.3760
-1.5176 -5.0747 2.3760
-1.3336 -5.1268 2.3760
-1.1480 -5.1724 2.3760
-0.9608 -5.2115 2.3760
-0.7723 -5.2440 2.3760
-0.5828 -5.2699 2.3760
-0.3924 -5.2891 2.3760
-0.2015 -5.3016 2.3760
-0.0101 -5.3074 2.3760
0.1814 -5.3065 2.3760
0.3728 -5.2988 2.3760
0.5640 -5.2845 2.3760
0.7545 -5.2634 2.3760
0.9443 -5.2356 2.3760
1.1331 -5.2011 2.3760
1.3207 -5.1600 2.3760
1.5067 -5.1123 2.3760
1.6912 -5.0580 2.3760
1.8736 -4.9973 2.3760
2.0540 -4.9301 2.3760
2.2319 -4.8565 2.3760
2.4073 -4.7766 2.3760
2.5798 -4.6906 2.3760
2.7493 -4.5984 2.3760
2.9156 -4.5002 2.3760
3.0784 -4.3961 2.3760
3.2375 -4.2862 2.3760
3.3928 -4.1707 2.3760
3.5439 -4.0497 2.3760
3.6908 -3.9232 2.3760
3.8333 -3.7915 2.3760
3.9710 -3.6547 2.3760
4.1040 -3.5130 2.3760
4.2319 -3.3665 2.3760
4.3546 -3.2154 2.3760
4.4719 -3.0599 2.3760
4.5837 -2.9002 2.3760
4.6898 -2.7365 2.3760
4.7901 -2.5689 2.3760
4.8844 -2.3976 2.3760
4.9726 -2.2230 2.3760
5.0545 -2.0451 2.3760
5.1301 -1.8643 2.3760
5.1992 -1.6807 2.3760
5.2616 -1.4945 2.3760
5.3175 -1.3061 2.3760
5.3665 -1.1156 2.3760
5.4086 -0.9233 2.3760
5.4439 -0.7295 2.3760
5.4721 -0.5343 2.3760
5.4932 -0.3381 2.3760
5.5073 -0.1411 2.3760
5.5142 0.0565 2.3760
5.5140 0.2544 2.3760
5.5066 0.4522 2.3760
5.4920 0.6499 2.3760
5.4702 0.8470 2.3760
5.4412 1.0433 2.3760
5.4051 1.2386 2.3760
5.3619 1.4326 2.3760
5.3116 1.6251 2.3760
5.2543 1.8156 2.3760
5.1900 2.0042 2.3760
5.1188 2.1903 2.3760
5.0408 2.3738 2.3760
4.9561 2.5545 2.3760
4.8648 2.7321 2.3760
4.7670 2.9063 2.3760
4.6629 3.0768 2.3760
4.5525 3.2436 2.3760
4.4360 3.4062 2.3760
4.3136 3.5645 2.3760
4.1854 3.7183 2.3760
4.5866 -2.2811 2.3760
4.6703 -2.1171 2.3760
4.7481 -1.9499 2.3760
4.8200 -1.7800 2.3760
4.8857 -1.6074 2.3760
4.9452 -1.4325 2.3760
4.9984 -1.2553 2.3760
5.0453 -1.0763 2.3760
5.0857 -0.8954 2.3760
5.1196 -0.7132 2.3760
5.1469 -0.5296 2.3760
5.1676 -0.3451 2.3760
5.1816 -0.1597 2.3760
5.1889 0.0261 2.3760
5.1895 0.2123 2.3760
5.1833 0.3985 2.3760
5.1703 0.5844 2.3760
5.1506 0.7700 2.3760
5.1242 0.9548 2.3760
5.0910 1.1386 2.3760
5.0511 1.3213 2.3760
5.0046 1.5025 2.3760
4.9515 1.6820 2.3760
4.8918 1.8595 2.3760
4.8257 2.0349 2.3760
4.7531 2.2078 2.3760
4.6743 2.3781 2.3760
4.5892 2.5455 2.3760
4.4980 2.7097 2.3760
4.4008 2.8706 2.3760
4.2978 3.0278 2.3760
4.1890 3.1813 2.3760
4.0746 3.3307 2.3760
3.9548 3.4759 2.3760
3.8296 3.6167 2.3760
3.6994 3.7528 2.3760
3.5642 3.8841 2.3760
3.4242 4.0103 2.3760
3.2797 4.1314 2.3760
3.1307 4.2471 2.3760
2.9776 4.3573 2.3760
2.8206 4.4618 2.3760
2.6597 4.5605 2.3760
2.4953 4.6532 2.3760
0.9041 1.8410 0.9229
0.8378 1.8724 0.9229
0.7705 1.9013 0.9230
0.7021 1.9278 0.9231
0.6328 1.9518 0.9233
0.5627 1.9733 0.9234
0.4918 1.9923 0.9236
0.4203 2.0087 0.9238
0.3483 2.0225 0.9240
0.2758 2.0337 0.9243
0.2029 2.0422 0.9245
0.1298 2.0482 0.9248
0.0565 2.0515 0.9251
-0.0169 2.0521 0.9254
-0.0903 2.0501 0.9258
-0.1635 2.0455 0.9262
-0.2365 2.0382 0.9265
-0.3092 2.0283 0.9269
-0.3815 2.0158 0.9274
-0.4533 2.0006 0.9278
-0.5245 1.9829 0.9283
-0.5951 1.9626 0.9288
-0.6648 1.9398 0.9292
-0.7337 1.9145 0.9298
-0.8016 1.8868 0.9303
-0.8685 1.8566 0.9308
-2.3832 4.6530 2.3760
-2.5463 4.5611 2.3760
-2.7057 4.4634 2.3760
-2.8614 4.3600 2.3760
-3.0132 4.2511 2.3760
-3.1608 4.1369 2.3760
-3.3040 4.0174 2.3760
-3.4427 3.8929 2.3760
-3.5767 3.7636 2.3760
-3.7058 3.6296 2.3760
-3.8299 3.4911 2.3760
-3.9488 3.3483 2.3760
-4.0624 3.2014 2.3760
-4.1705 3.0507 2.3760
-4.2730 2.8962 2.3760
-4.3698 2.7383 2.3760
-4.4608 2.5772 2.3760
-4.5458 2.4130 2.3760
-4.6248 2.2460 2.3760
-4.6977 2.0764 2.3760
-4.7645 1.9045 2.3760
-4.8249 1.7304 2.3760
-4.8790 1.5544 2.3760
-4.9268 1.3767 2.3760
-4.9681 1.1976 2.3760
-5.0030 1.0172 2.3760
-5.0314 0.8359 2.3760
-5.0532 0.6538 2.3760
-5.0686 0.4712 2.3760
-5.0774 0.2884 2.3760
-5.0797 0.1054 2.3760
-5.0755 -0.0773 2.3760
-5.0648 -0.2597 2.3760
-5.0476 -0.4414 2.3760
-5.0240 -0.6222 2.3760
-4.9941 -0.8020 2.3760
-4.9578 -0.9805 2.3760
-4.9152 -1.1574 2.3760
-4.8664 -1.3327 2.3760
-4.8115 -1.5059 2.3760
-4.7505 -1.6770 2.3760
-4.6836 -1.8458 2.3760
-4.6108 -2.0120 2.3760
-4.5322 -2.1753 2.3760
-4.4479 -2.3358 2.3760
-4.3581 -2.4931 2.3760
-4.2629 -2.6470 2.3760
-4.1623 -2.7974 2.3760
-4.0565 -2.9441 2.3760
-3.9457 -3.0869 2.3760
-3.8299 -3.2257 2.3760
-3.7095 -3.3603 2.3760
-3.5844 -3.4905 2.3760
-3.4548 -3.6162 2.3760
-3.3209 -3.7372 2.3760
-3.1829 -3.8534 2.3760
-3.0409 -3.9647 2.3760
-2.8952 -4.0708 2.3760
-2.7458 -4.1718 2.3760
-2.5930 -4.2675 2.3760
-2.4370 -4.3577 2.3760
-2.2779 -4.4424 2.3760
-2.1160 -4.5214 2.3760
-1.9513 -4.5947 2.3760
-1.7842 -4.6622 2.3760
-1.6149 -4.7237 2.3760
-1.4434 -4.7793 2.3760
-1.2701 -4.8289 2.3760
-1.0952 -4.8723 2.3760
-0.9188 -4.9096 2.3760
-0.7412 -4.9406 2.3760
-0.5626 -4.9654 2.3760
-0.3832 -4.9839 2.3760
-0.2031 -4.9961 2.3760
-0.0228 -5.0020 2.3760
0.1578 -5.0015 2.3760
0.3382 -4.9947 2.3760
0.5184 -4.9815 2.3760
0.6981 -4.9620 2.3760
0.8771 -4.9362 2.3760
1.0551 -4.9040 2.3760
1.2319 -4.8656 2.3760
1.4074 -4.8210 2.3760
1.5813 -4.7701 2.3760
1.7534 -4.7132 2.3760
1.9235 -4.6501 2.3760
2.0913 -4.5811 2.3760
2.2566 -4.5061 2.3760
2.4194 -4.4253 2.3760
2.5792 -4.3386 2.3760
2.7360 -4.2464 2.3760
2.8896 -4.1486 2.3760
3.0397 -4.0453 2.3760
3.1861 -3.9367 2.3760
3.3287 -3.8228 2.3760
3.4672 -3.7039 2.3760
3.6016 -3.5800 2.3760
3.7315 -3.4514 2.3760
3.8569 -3.3181 2.3760
3.9775 -3.1803 2.3760
4.0933 -3.0381 2.3760
4.2040 -2.8919 2.3760
4.3095 -2.7416 2.3760
4.4096 -2.5875 2.3760
4.5042 -2.4298 2.3760
4.5932 -2.2687 2.3760
4.6765 -2.1044 2.3760
4.7538 -1.9371 2.3760
4.8252 -1.7669 2.3760
4.8904 -1.5941 2.3760
4.9495 -1.4190 2.3760
5.0022 -1.2417 2.3760
5.0486 -1.0625 2.3760
5.0885 -0.8816 2.3760
5.1219 -0.6992 2.3760
5.1487 -0.5156 2.3760
5.1689 -0.3309 2.3760
5.1824 -0.1455 2.3760
5.1892 0.0403 2.3760
5.1892 0.2265 2.3760
5.1826 0.4127 2.3760
5.1691 0.5986 2.3760
5.1488 0.7841 2.3760
5.1219 0.9689 2.3760
5.0882 1.1526 2.3760
5.0478 1.3352 2.3760
5.0008 1.5162 2.3760
4.9472 1.6956 2.3760
4.8870 1.8730 2.3760
4.8204 2.0482 2.3760
4.7473 2.2209 2.3760
4.6680 2.3910 2.3760
4.5824 2.5581 2.3760
4.4908 2.7221 2.3760
4.3932 2.8827 2.3760
4.2897 3.0397 2.3760
4.1804 3.1928 2.3760
4.0656 3.3419 2.3760
3.9454 3.4868 2.3760
3.8199 3.6272 2.3760
3.6892 3.7630 2.3760
3.5537 3.8939 2.3760
3.4134 4.0198 2.3760
3.2685 4.1404 2.3760
3.1192 4.2557 2.3760
2.9658 4.3655 2.3760
2.8084 4.4695 2.3760
2.6473 4.5678 2.3760
2.4826 4.6600 2.3760
0.8991 1.8435 0.9229
0.8327 1.8747 0.9230
0.7653 1.9034 0.9230
0.6968 1.9297 0.9231
0.6275 1.9536 0.9233
0.5573 1.9749 0.9234
0.4864 1.9936 0.9236
0.4148 2.0098 0.9238
0.3428 2.0234 0.9240
0.2702 2.0344 0.9243
0.1973 2.0428 0.9245
0.1242 2.0485 0.9248
0.0509 2.0516 0.9251
-0.0225 2.0521 0.9255
-0.0958 2.0499 0.9258
-0.1691 2.0450 0.9262
-0.2421 2.0375 0.9266
-0.3147 2.0274 0.9270
-0.3870 2.0147 0.9274
-0.4588 1.9994 0.9279
-0.5299 1.9814 0.9283
-0.6004 1.9610 0.9288
-0.6701 1.9380 0.9293
-0.7389 1.9125 0.9298
-0.8068 1.8845 0.9303
-0.8735 1.8541 0.9309
-2.3958 4.6462 2.3760
-2.5586 4.5539 2.3760
-2.7178 4.4557 2.3760
-2.8732 4.3519 2.3760
-3.0246 4.2426 2.3760
-3.1718 4.1279 2.3760
-3.3147 4.0081 2.3760
-3.4531 3.8832 2.3760
-3.5867 3.7535 2.3760
-3.7155 3.6191 2.3760
-3.8392 3.4803 2.3760
-3.9576 3.3372 2.3760
-4.0708 3.1900 2.3760
-4.1785 3.0390 2.3760
-4.2806 2.8843 2.3760
-4.3769 2.7262 2.3760
-4.4675 2.5648 2.3760
-4.5521 2.4004 2.3760
-4.6306 2.2332 2.3760
-4.7031 2.0634 2.3760
-4.7693 1.8912 2.3760
-4.8293 1.7170 2.3760
-4.8829 1.5409 2.3760
-4.9302 1.3631 2.3760
-4.9710 1.1838 2.3760
-5.0054 1.0034 2.3760
-5.0333 0.8220 2.3760
-5.0546 0.6399 2.3760
-5.0695 0.4573 2.3760
-5.0778 0.2744 2.3760
-5.0796 0.0915 2.3760
-5.0749 -0.0913 2.3760
-5.0637 -0.2736 2.3760
-5.0460 -0.4552 2.3760
-5.0220 -0.6360 2.3760
-4.9915 -0.8157 2.3760
-4.9547 -0.9941 2.3760
-4.9117 -1.1709 2.3760
-4.8625 -1.3460 2.3760
-4.8071 -1.5191 2.3760
-4.7456 -1.6900 2.3760
-4.6783 -1.8586 2.3760
-4.6050 -2.0245 2.3760
-4.5260 -2.1877 2.3760
-4.4413 -2.3479 2.3760
-4.3510 -2.5049 2.3760
-4.2554 -2.6586 2.3760
-4.1544 -2.8087 2.3760
-4.0482 -2.9552 2.3760
-3.9370 -3.0977 2.3760
-3.8209 -3.2362 2.3760
-3.7001 -3.3704 2.3760
-3.5746 -3.5003 2.3760
-3.4447 -3.6256 2.3760
-3.3105 -3.7463 2.3760
-3.1722 -3.8621 2.3760
-3.0299 -3.9730 2.3760
-2.8839 -4.0787 2.3760
-2.7343 -4.1793 2.3760
-2.5812 -4.2746 2.3760
-2.4250 -4.3644 2.3760
-2.2656 -4.4486 2.3760
-2.1035 -4.5272 2.3760
-1.9387 -4.6001 2.3760
-1.7714 -4.6671 2.3760
-1.6018 -4.7282 2.3760
-1.4303 -4.7833 2.3760
-1.2568 -4.8324 2.3760
-1.0818 -4.8754 2.3760
-0.9053 -4.9122 2.3760
-0.7276 -4.9427 2.3760
-0.5489 -4.9671 2.3760
-0.3694 -4.9851 2.3760
-0.1894 -4.9968 2.3760
-0.0090 -5.0022 2.3760
0.1716 -5.0012 2.3760
0.3520 -4.9939 2.3760
0.5322 -4.9803 2.3760
0.7118 -4.9603 2.3760
0.8907 -4.9339 2.3760
1.0686 -4.9013 2.3760
1.2454 -4.8624 2.3760
1.4208 -4.8173 2.3760
1.5945 -4.7660 2.3760
1.7665 -4.7086 2.3760
1.9363 -4.6451 2.3760
2.1040 -4.5756 2.3760
2.2692 -4.5001 2.3760
2.4317 -4.4188 2.3760
2.5913 -4.3318 2.3760
2.7479 -4.2391 2.3760
2.9012 -4.1409 2.3760
3.0510 -4.0372 2.3760
3.1971 -3.9281 2.3760
3.3394 -3.8139 2.3760
3.4776 -3.6946 2.3760
3.6116 -3.5704 2.3760
3.7412 -3.4414 2.3760
3.8663 -3.3077 2.3760
3.9866 -3.1696 2.3760
4.1019 -3.0271 2.3760
4.2122 -2.8805 2.3760
4.3173 -2.7299 2.3760
4.4170 -2.5756 2.3760
4.5112 -2.4176 2.3760
4.5998 -2.2563 2.3760
4.6826 -2.0917 2.3760
4.7595 -1.9242 2.3760
4.8304 -1.7538 2.3760
4.8952 -1.5809 2.3760
4.9537 -1.4055 2.3760
5.0060 -1.2281 2.3760
5.0519 -1.0487 2.3760
5.0913 -0.8677 2.3760
5.1242 -0.6852 2.3760
5.1505 -0.5015 2.3760
5.1702 -0.3168 2.3760
5.1832 -0.1314 2.3760
5.1894 0.0546 2.3760
5.1890 0.2407 2.3760
5.1817 0.4269 2.3760
5.1678 0.6128 2.3760
5.1470 0.7982 2.3760
5.1196 0.9829 2.3760
5.0854 1.1666 2.3760
5.0445 1.3491 2.3760
4.9969 1.5300 2.3760
4.9428 1.7092 2.3760
4.8821 1.8865 2.3760
4.8150 2.0615 2.3760
4.7415 2.2340 2.3760
4.6617 2.4039 2.3760
4.5757 2.5708 2.3760
4.4836 2.7345 2.3760
4.3855 2.8948 2.3760
4.2815 3.0515 2.3760
4.1719 3.2044 2.3760
4.0567 3.3532 2.3760
3.9360 3.4977 2.3760
4.3292 -2.1515 2.3760
4.4079 -1.9965 2.3760
4.4812 -1.8387 2.3760
4.5487 -1.6783 2.3760
4.6105 -1.5154 2.3760
4.6665 -1.3502 2.3760
4.7165 -1.1831 2.3760
4.7605 -1.0140 2.3760
4.7984 -0.8434 2.3760
4.8301 -0.6714 2.3760
4.8557 -0.4983 2.3760
4.8750 -0.3241 2.3760
4.8880 -0.1493 2.3760
4.8946 0.0260 2.3760
4.8949 0.2016 2.3760
4.8889 0.3771 2.3760
4.8765 0.5525 2.3760
4.8577 0.7274 2.3760
4.8326 0.9017 2.3760
4.8011 1.0750 2.3760
4.7633 1.2472 2.3760
4.7193 1.4180 2.3760
4.6690 1.5872 2.3760
4.6126 1.7545 2.3760
4.5501 1.9198 2.3760
4.4815 2.0828 2.3760
4.4070 2.2432 2.3760
4.3267 2.4009 2.3760
4.2406 2.5556 2.3760
4.1489 2.7072 2.3760
4.0516 2.8554 2.3760
3.9490 2.9999 2.3760
3.8411 3.1407 2.3760
3.7280 3.2775 2.3760
3.6100 3.4101 2.3760
3.4872 3.5383 2.3760
3.3597 3.6620 2.3760
3.2278 3.7809 2.3760
3.0915 3.8950 2.3760
2.9511 4.0040 2.3760
2.8068 4.1078 2.3760
2.6587 4.2062 2.3760
2.5071 4.2992 2.3760
0.9146 1.7057 0.9239
0.8532 1.7375 0.9239
0.7907 1.7670 0.9240
0.7271 1.7943 0.9241
0.6626 1.8193 0.9242
0.5972 1.8419 0.9243
0.5311 1.8622 0.9244
0.4642 1.8801 0.9246
0.3968 1.8955 0.9248
0.3288 1.9086 0.9250
0.2604 1.9191 0.9252
0.1916 1.9272 0.9255
0.1227 1.9328 0.9257
0.0535 1.9359 0.9260
-0.0157 1.9365 0.9263
-0.0849 1.9346 0.9267
-0.1540 1.9302 0.9270
-0.2229 1.9234 0.9274
-0.2915 1.9140 0.9278
-0.3597 1.9022 0.9282
-0.4274 1.8879 0.9286
-0.4946 1.8712 0.9290
-0.5612 1.8521 0.9295
-0.6270 1.8306 0.9299
-0.6919 1.8067 0.9304
-0.7560 1.7805 0.9309
-0.8191 1.7520 0.9314
-0.8811 1.7213 0.9319
-2.4003 4.3020 2.3760
-2.5507 4.2100 2.3760
-2.6977 4.1127 2.3760
-2.8409 4.0101 2.3760
-2.9801 3.9025 2.3760
-3.1154 3.7900 2.3760
-3.2463 3.6728 2.3760
-3.3728 3.5510 2.3760
-3.4947 3.4247 2.3760
-3.6119 3.2942 2.3760
-3.7243 3.1597 2.3760
-3.8316 3.0213 2.3760
-3.9337 2.8792 2.3760
-4.0306 2.7337 2.3760
-4.1222 2.5848 2.3760
-4.2082 2.4329 2.3760
-4.2886 2.2781 2.3760
-4.3634 2.1206 2.3760
-4.4324 1.9607 2.3760
-4.4956 1.7985 2.3760
-4.5528 1.6343 2.3760
-4.6041 1.4683 2.3760
-4.6494 1.3007 2.3760
-4.6886 1.1317 2.3760
-4.7217 0.9615 2.3760
-4.7487 0.7904 2.3760
-4.7696 0.6185 2.3760
-4.7843 0.4462 2.3760
-4.7928 0.2736 2.3760
-4.7952 0.1009 2.3760
-4.7915 -0.0717 2.3760
-4.7816 -0.2438 2.3760
-4.7655 -0.4154 2.3760
-4.7435 -0.5862 2.3760
-4.7154 -0.7560 2.3760
-4.6813 -0.9246 2.3760
-4.6412 -1.0917 2.3760
-4.5953 -1.2573 2.3760
-4.5436 -1.4209 2.3760
-4.4862 -1.5826 2.3760
-4.4231 -1.7420 2.3760
-4.3545 -1.8990 2.3760
-4.2804 -2.0534 2.3760
-4.2009 -2.2050 2.3760
-4.1162 -2.3537 2.3760
-4.0263 -2.4992 2.3760
-3.9314 -2.6413 2.3760
-3.8316 -2.7800 2.3760
-3.7270 -2.9150 2.3760
-3.6177 -3.0461 2.3760
-3.5040 -3.1733 2.3760
-3.3858 -3.2964 2.3760
-3.2635 -3.4152 2.3760
-3.1370 -3.5296 2.3760
-3.0067 -3.6394 2.3760
-2.8726 -3.7446 2.3760
-2.7349 -3.8450 2.3760
-2.5938 -3.9404 2.3760
-2.4495 -4.0308 2.3760
-2.3021 -4.1161 2.3760
-2.1518 -4.1961 2.3760
-1.9987 -4.2708 2.3760
-1.8432 -4.3400 2.3760
-1.6853 -4.4038 2.3760
-1.5253 -4.4620 2.3760
-1.3633 -4.5145 2.3760
-1.1996 -4.5613 2.3760
-1.0343 -4.6023 2.3760
-0.8676 -4.6374 2.3760
-0.6998 -4.6667 2.3760
-0.5310 -4.6901 2.3760
-0.3615 -4.7075 2.3760
-0.1914 -4.7190 2.3760
-0.0210 -4.7245 2.3760
0.1496 -4.7239 2.3760
0.3201 -4.7174 2.3760
0.4903 -4.7048 2.3760
0.6600 -4.6863 2.3760
0.8291 -4.6618 2.3760
0.9972 -4.6313 2.3760
1.1643 -4.5949 2.3760
1.3300 -4.5526 2.3760
1.4942 -4.5044 2.3760
1.6567 -4.4505 2.3760
1.8173 -4.3908 2.3760
1.9757 -4.3255 2.3760
2.1318 -4.2545 2.3760
2.2854 -4.1780 2.3760
2.4364 -4.0961 2.3760
2.5843 -4.0088 2.3760
2.7292 -3.9162 2.3760
2.8708 -3.8186 2.3760
3.0090 -3.7158 2.3760
3.1435 -3.6082 2.3760
3.2742 -3.4958 2.3760
3.4009 -3.3787 2.3760
3.5234 -3.2571 2.3760
3.6416 -3.1311 2.3760
3.7554 -3.0009 2.3760
3.8645 -2.8666 2.3760
3.9688 -2.7283 2.3760
4.0682 -2.5864 2.3760
4.1625 -2.4409 2.3760
4.2516 -2.2919 2.3760
4.3354 -2.1398 2.3760
4.4137 -1.9846 2.3760
4.4865 -1.8266 2.3760
4.5536 -1.6659 2.3760
4.6150 -1.5029 2.3760
4.6705 -1.3375 2.3760
4.7201 -1.1702 2.3760
4.7636 -1.0011 2.3760
4.8010 -0.8303 2.3760
4.8323 -0.6582 2.3760
4.8574 -0.4850 2.3760
4.8762 -0.3108 2.3760
4.8887 -0.1359 2.3760
4.8949 0.0394 2.3760
4.8947 0.2150 2.3760
4.8882 0.3905 2.3760
4.8753 0.5659 2.3760
4.8560 0.7408 2.3760
4.8304 0.9149 2.3760
4.7984 1.0882 2.3760
4.7602 1.2603 2.3760
4.7156 1.4310 2.3760
4.6649 1.6000 2.3760
4.6080 1.7672 2.3760
4.5450 1.9323 2.3760
4.4760 2.0951 2.3760
4.4011 2.2553 2.3760
4.3203 2.4128 2.3760
4.2338 2.5673 2.3760
4.1417 2.7186 2.3760
4.0440 2.8665 2.3760
3.9409 3.0108 2.3760
3.8326 3.1513 2.3760
3.7192 3.2878 2.3760
3.6008 3.4200 2.3760
3.4776 3.5479 2.3760
3.3498 3.6712 2.3760
3.2175 3.7898 2.3760
3.0809 3.9035 2.3760
2.9402 4.0121 2.3760
2.7956 4.1155 2.3760
2.6472 4.2135 2.3760
2.4954 4.3061 2.3760
0.9100 1.7082 0.9239
0.8485 1.7398 0.9239
0.7859 1.7692 0.9240
0.7222 1.7963 0.9241
0.6576 1.8211 0.9242
0.5922 1.8436 0.9243
0.5260 1.8637 0.9244
0.4591 1.8814 0.9246
0.3916 1.8966 0.9248
0.3236 1.9095 0.9250
0.2551 1.9198 0.9252
0.1864 1.9277 0.9255
0.1174 1.9331 0.9257
0.0482 1.9360 0.9260
-0.0210 1.9364 0.9264
-0.0902 1.9344 0.9267
-0.1593 1.9298 0.9270
-0.2281 1.9227 0.9274
-0.2967 1.9132 0.9278
-0.3649 1.9012 0.9282
-0.4326 1.8867 0.9286
-0.4997 1.8698 0.9290
-0.5662 1.8505 0.9295
-0.6320 1.8288 0.9300
-0.6969 1.8048 0.9304
-0.7609 1.7784 0.9309
-0.8239 1.7497 0.9314
-0.8858 1.7188 0.9320
-2.4119 4.2951 2.3760
-2.5621 4.2027 2.3760
-2.7087 4.1050 2.3760
-2.8516 4.0021 2.3760
-2.9906 3.8941 2.3760
-3.1255 3.7813 2.3760
-3.2561 3.6637 2.3760
-3.3823 3.5415 2.3760
-3.5039 3.4149 2.3760
-3.6207 3.2841 2.3760
-3.7326 3.1493 2.3760
-3.8396 3.0106 2.3760
-3.9413 2.8682 2.3760
-4.0378 2.7224 2.3760
-4.1289 2.5733 2.3760
-4.2145 2.4212 2.3760
-4.2945 2.2662 2.3760
-4.3689 2.1085 2.3760
-4.4374 1.9484 2.3760
-4.5001 1.7861 2.3760
-4.5569 1.6217 2.3760
-4.6078 1.4556 2.3760
-4.6526 1.2878 2.3760
-4.6914 1.1187 2.3760
-4.7240 0.9485 2.3760
-4.7505 0.7773 2.3760
-4.7709 0.6054 2.3760
-4.7852 0.4330 2.3760
-4.7932 0.2604 2.3760
-4.7951 0.0877 2.3760
-4.7909 -0.0848 2.3760
-4.7805 -0.2570 2.3760
-4.7641 -0.4285 2.3760
-4.7415 -0.5992 2.3760
-4.7130 -0.7689 2.3760
-4.6784 -0.9374 2.3760
-4.6379 -1.1044 2.3760
-4.5916 -1.2698 2.3760
-4.5395 -1.4334 2.3760
-4.4816 -1.5949 2.3760
-4.4181 -1.7541 2.3760
-4.3490 -1.9109 2.3760
-4.2745 -2.0651 2.3760
-4.1946 -2.2165 2.3760
-4.1095 -2.3649 2.3760
-4.0192 -2.5101 2.3760
-3.9240 -2.6520 2.3760
-3.8238 -2.7904 2.3760
-3.7188 -2.9251 2.3760
-3.6092 -3.0560 2.3760
-3.4951 -3.1829 2.3760
-3.3766 -3.3056 2.3760
-3.2540 -3.4241 2.3760
-3.1272 -3.5381 2.3760
-2.9966 -3.6476 2.3760
-2.8622 -3.7524 2.3760
-2.7243 -3.8524 2.3760
-2.5829 -3.9475 2.3760
-2.4383 -4.0375 2.3760
-2.2907 -4.1224 2.3760
-2.1402 -4.2020 2.3760
-1.9869 -4.2763 2.3760
-1.8312 -4.3451 2.3760
-1.6732 -4.4084 2.3760
-1.5130 -4.4662 2.3760
-1.3509 -4.5182 2.3760
-1.1870 -4.5646 2.3760
-1.0216 -4.6052 2.3760
-0.8548 -4.6399 2.3760
-0.6869 -4.6687 2.3760
-0.5181 -4.6916 2.3760
-0.3485 -4.7086 2.3760
-0.1784 -4.7196 2.3760
-0.0079 -4.7246 2.3760
0.1626 -4.7236 2.3760
0.3331 -4.7166 2.3760
0.5033 -4.7036 2.3760
0.6730 -4.6846 2.3760
0.8420 -4.6597 2.3760
1.0100 -4.6287 2.3760
1.1770 -4.5919 2.3760
1.3426 -4.5491 2.3760
1.5067 -4.5005 2.3760
1.6690 -4.4461 2.3760
1.8295 -4.3860 2.3760
1.9877 -4.3202 2.3760
2.1437 -4.2488 2.3760
2.2971 -4.1719 2.3760
2.4478 -4.0896 2.3760
2.5955 -4.0019 2.3760
2.7402 -3.9090 2.3760
2.8815 -3.8109 2.3760
3.0194 -3.7078 2.3760
3.1536 -3.5998 2.3760
3.2840 -3.4870 2.3760
3.4104 -3.3696 2.3760
3.5326 -3.2476 2.3760
3.6505 -3.1213 2.3760
3.7639 -2.9908 2.3760
3.8726 -2.8561 2.3760
3.9765 -2.7176 2.3760
4.0755 -2.5754 2.3760
4.1695 -2.4296 2.3760
4.2582 -2.2804 2.3760
4.3416 -2.1280 2.3760
4.4195 -1.9726 2.3760
4.4919 -1.8144 2.3760
4.5585 -1.6536 2.3760
4.6195 -1.4903 2.3760
4.6745 -1.3248 2.3760
4.7236 -1.1574 2.3760
4.7667 -0.9881 2.3760
4.8036 -0.8172 2.3760
4.8344 -0.6451 2.3760
4.8591 -0.4717 2.3760
4.8774 -0.2975 2.3760
4.8894 -0.1226 2.3760
4.8951 0.0528 2.3760
4.8944 0.2284 2.3760
4.8874 0.4039 2.3760
4.8740 0.5793 2.3760
4.8543 0.7541 2.3760
4.8282 0.9282 2.3760
4.7957 1.1014 2.3760
4.7570 1.2734 2.3760
4.7120 1.4439 2.3760
4.6608 1.6129 2.3760
4.6034 1.7799 2.3760
4.5400 1.9448 2.3760
4.4705 2.1074 2.3760
4.3951 2.2675 2.3760
4.3139 2.4247 2.3760
4.2270 2.5790 2.3760
4.1344 2.7300 2.3760
4.0363 2.8777 2.3760
3.9328 3.0217 2.3760
3.8241 3.1619 2.3760
3.7103 3.2980 2.3760
4.0943 -2.0332 2.3760
4.1686 -1.8866 2.3760
4.2376 -1.7373 2.3760
4.3013 -1.5855 2.3760
4.3596 -1.4315 2.3760
4.4123 -1.2753 2.3760
4.4594 -1.1171 2.3760
4.5008 -0.9573 2.3760
4.5364 -0.7960 2.3760
4.5662 -0.6334 2.3760
4.5902 -0.4697 2.3760
4.6082 -0.3051 2.3760
4.6203 -0.1398 2.3760
4.6265 0.0259 2.3760
4.6266 0.1918 2.3760
4.6207 0.3577 2.3760
4.6088 0.5234 2.3760
4.5908 0.6887 2.3760
4.5669 0.8533 2.3760
4.5370 1.0170 2.3760
4.5011 1.1797 2.3760
4.4594 1.3410 2.3760
4.4117 1.5008 2.3760
4.3583 1.6589 2.3760
4.2991 1.8150 2.3760
4.2342 1.9689 2.3760
4.1637 2.1204 2.3760
4.0877 2.2693 2.3760
4.0063 2.4154 2.3760
3.9195 2.5585 2.3760
3.8276 2.6984 2.3760
3.7305 2.8349 2.3760
3.6285 2.9678 2.3760
3.5217 3.0969 2.3760
3.4102 3.2221 2.3760
3.2941 3.3431 2.3760
3.1737 3.4599 2.3760
3.0490 3.5722 2.3760
2.9202 3.6798 2.3760
2.7876 3.7828 2.3760
2.6513 3.8807 2.3760
2.5114 3.9737 2.3760
0.9218 1.5809 0.9248
0.8649 1.6130 0.9248
0.8068 1.6430 0.9249
0.7477 1.6710 0.9249
0.6876 1.6967 0.9250
0.6266 1.7204 0.9251
0.5648 1.7418 0.9252
0.5022 1.7609 0.9253
0.4390 1.7778 0.9255
0.3753 1.7924 0.9257
0.3110 1.8047 0.9259
0.2464 1.8147 0.9261
0.1814 1.8223 0.9263
0.1162 1.8276 0.9266
0.0508 1.8305 0.9268
-0.0147 1.8311 0.9271
-0.0801 1.8293 0.9274
-0.1454 1.8252 0.9278
-0.2105 1.8187 0.9281
-0.2753 1.8098 0.9285
-0.3398 1.7986 0.9289
-0.4039 1.7851 0.9293
-0.4674 1.7694 0.9297
-0.5303 1.7513 0.9301
-0.5925 1.7309 0.9305
-0.6539 1.7084 0.9310
-0.7145 1.6836 0.9315
-0.7741 1.6567 0.9319
-0.8327 1.6276 0.9324
-0.8903 1.5965 0.9329
-2.4096 3.9792 2.3760
-2.5485 3.8873 2.3760
-2.6839 3.7906 2.3760
-2.8156 3.6891 2.3760
-2.9435 3.5829 2.3760
-3.0673 3.4722 2.3760
-3.1870 3.3572 2.3760
-3.3024 3.2380 2.3760
-3.4133 3.1149 2.3760
-3.5196 2.9878 2.3760
-3.6212 2.8571 2.3760
-3.7179 2.7229 2.3760
-3.8097 2.5855 2.3760
-3.8963 2.4449 2.3760
-3.9778 2.3013 2.3760
-4.0541 2.1551 2.3760
-4.1249 2.0063 2.3760
-4.1903 1.8552 2.3760
-4.2502 1.7019 2.3760
-4.3046 1.5467 2.3760
-4.3533 1.3897 2.3760
-4.3963 1.2313 2.3760
-4.4336 1.0715 2.3760
-4.4651 0.9106 2.3760
-4.4908 0.7488 2.3760
-4.5107 0.5863 2.3760
-4.5248 0.4233 2.3760
-4.5330 0.2600 2.3760
-4.5355 0.0967 2.3760
-4.5321 -0.0665 2.3760
-4.5229 -0.2294 2.3760
-4.5079 -0.3918 2.3760
-4.4872 -0.5534 2.3760
-4.4608 -0.7140 2.3760
-4.4287 -0.8735 2.3760
-4.3910 -1.0317 2.3760
-4.3477 -1.1884 2.3760
-4.2989 -1.3433 2.3760
-4.2447 -1.4963 2.3760
-4.1851 -1.6472 2.3760
-4.1203 -1.7959 2.3760
-4.0503 -1.9420 2.3760
-3.9752 -2.0856 2.3760
-3.8951 -2.2263 2.3760
-3.8101 -2.3640 2.3760
-3.7204 -2.4986 2.3760
-3.6260 -2.6299 2.3760
-3.5271 -2.7577 2.3760
-3.4237 -2.8820 2.3760
-3.3161 -3.0024 2.3760
-3.2043 -3.1189 2.3760
-3.0886 -3.2314 2.3760
-2.9689 -3.3398 2.3760
-2.8456 -3.4438 2.3760
-2.7187 -3.5434 2.3760
-2.5884 -3.6384 2.3760
-2.4548 -3.7288 2.3760
-2.3182 -3.8144 2.3760
-2.1787 -3.8951 2.3760
-2.0364 -3.9709 2.3760
-1.8916 -4.0416 2.3760
-1.7443 -4.1072 2.3760
-1.5949 -4.1675 2.3760
-1.4434 -4.2226 2.3760
-1.2900 -4.2723 2.3760
-1.1350 -4.3165 2.3760
-0.9785 -4.3553 2.3760
-0.8208 -4.3886 2.3760
-0.6619 -4.4163 2.3760
-0.5021 -4.4384 2.3760
-0.3417 -4.4548 2.3760
-0.1806 -4.4656 2.3760
-0.0193 -4.4707 2.3760
0.1421 -4.4701 2.3760
0.3035 -4.4639 2.3760
0.4646 -4.4519 2.3760
0.6252 -4.4343 2.3760
0.7852 -4.4110 2.3760
0.9443 -4.3820 2.3760
1.1024 -4.3475 2.3760
1.2592 -4.3073 2.3760
1.4146 -4.2616 2.3760
1.5683 -4.2105 2.3760
1.7202 -4.1539 2.3760
1.8701 -4.0919 2.3760
2.0178 -4.0246 2.3760
2.1631 -3.9521 2.3760
2.3058 -3.8744 2.3760
2.4457 -3.7917 2.3760
2.5828 -3.7040 2.3760
2.7166 -3.6115 2.3760
2.8472 -3.5142 2.3760
2.9744 -3.4122 2.3760
3.0979 -3.3057 2.3760
3.2176 -3.1948 2.3760
3.3334 -3.0797 2.3760
3.4451 -2.9604 2.3760
3.5525 -2.8371 2.3760
3.6556 -2.7100 2.3760
3.7541 -2.5791 2.3760
3.8479 -2.4448 2.3760
3.9370 -2.3070 2.3760
4.0211 -2.1661 2.3760
4.1001 -2.0221 2.3760
4.1740 -1.8753 2.3760
4.2427 -1.7258 2.3760
4.3060 -1.5738 2.3760
4.3638 -1.4196 2.3760
4.4161 -1.2632 2.3760
4.4627 -1.1050 2.3760
4.5037 -0.9451 2.3760
4.5389 -0.7836 2.3760
4.5683 -0.6209 2.3760
4.5918 -0.4571 2.3760
4.6094 -0.2925 2.3760
4.6210 -0.1272 2.3760
4.6267 0.0385 2.3760
4.6263 0.2044 2.3760
4.6200 0.3704 2.3760
4.6076 0.5360 2.3760
4.5892 0.7013 2.3760
4.5648 0.8658 2.3760
4.5345 1.0295 2.3760
4.4982 1.1921 2.3760
4.4560 1.3533 2.3760
4.4079 1.5130 2.3760
4.3540 1.6709 2.3760
4.2943 1.8268 2.3760
4.2290 1.9805 2.3760
4.1581 2.1318 2.3760
4.0817 2.2805 2.3760
3.9999 2.4264 2.3760
3.9127 2.5693 2.3760
3.8203 2.7089 2.3760
3.7229 2.8452 2.3760
3.6205 2.9778 2.3760
3.5133 3.1066 2.3760
3.4015 3.2315 2.3760
3.2851 3.3522 2.3760
3.1643 3.4686 2.3760
3.0393 3.5806 2.3760
2.9102 3.6879 2.3760
2.7773 3.7904 2.3760
2.6407 3.8880 2.3760
