ply
format ascii 1.0
element vertex 2186
property float32 x
property float32 y
property float32 z
end_header
2.3129 -4.6547 2.3969
2.4746 -4.5621 2.3969
2.6327 -4.4640 2.3969
2.7870 -4.3603 2.3969
2.9373 -4.2513 2.3969
3.0835 -4.1372 2.3969
3.2253 -4.0180 2.3969
3.3626 -3.8940 2.3969
3.4952 -3.7654 2.3969
3.6230 -3.6322 2.3969
3.7459 -3.4948 2.3969
3.8636 -3.3533 2.3969
3.9762 -3.2078 2.3969
4.0834 -3.0586 2.3969
4.1851 -2.9059 2.3969
4.2813 -2.7499 2.3969
4.3718 -2.5907 2.3969
4.4565 -2.4286 2.3968
4.5354 -2.2638 2.3968
4.6083 -2.0965 2.3968
4.6753 -1.9269 2.3968
4.7362 -1.7552 2.3968
4.7910 -1.5817 2.3968
4.8396 -1.4065 2.3968
4.8820 -1.2299 2.3968
4.9182 -1.0520 2.3968
4.9481 -0.8732 2.3968
4.9716 -0.6935 2.3968
4.9889 -0.5133 2.3968
4.9999 -0.3327 2.3968
5.0046 -0.1520 2.3968
5.0029 0.0287 2.3968
4.9950 0.2091 2.3968
4.9808 0.3890 2.3968
4.9604 0.5682 2.3968
4.9337 0.7465 2.3968
4.9009 0.9236 2.3968
4.8619 1.0995 2.3968
4.8169 1.2738 2.3968
4.7659 1.4464 2.3968
4.7089 1.6170 2.3968
4.6460 1.7855 2.3968
4.5774 1.9517 2.3968
4.5030 2.1154 2.3968
4.4230 2.2764 2.3968
4.3375 2.4345 2.3968
4.2465 2.5895 2.3968
4.1503 2.7412 2.3969
4.0488 2.8896 2.3969
3.9422 3.0345 2.3969
3.8306 3.1753 2.3969
3.7142 3.3123 2.3969
3.5931 3.4452 2.3969
3.4674 3.5739 2.3969
3.3373 3.6982 2.3969
3.2029 3.8179 2.3969
3.0643 3.9329 2.3969
2.9218 4.0431 2.3969
2.7755 4.1483 2.3969
2.6255 4.2484 2.3969
2.4721 4.3433 2.3969
2.3154 4.4328 2.3969
0.8737 1.8308 0.9715
0.8072 1.8616 0.9710
0.7397 1.8900 0.9704
0.6713 1.9159 0.9698
0.6019 1.9394 0.9692
0.5317 1.9603 0.9685
0.4608 1.9787 0.9678
0.3893 1.9946 0.9670
0.3172 2.0078 0.9662
0.2447 2.0185 0.9654
0.1719 2.0265 0.9646
0.0988 2.0319 0.9637
0.0256 2.0347 0.9628
-0.0476 2.0348 0.9619
-0.1209 2.0323 0.9609
-0.1940 2.0272 0.9599
-0.2668 2.0194 0.9589
-0.3394 2.0090 0.9579
-0.4115 1.9960 0.9568
-0.4831 1.9804 0.9558
-0.5541 1.9622 0.9547
-0.6244 1.9415 0.9536
-0.6939 1.9183 0.9524
-0.7625 1.8925 0.9513
-0.8301 1.8644 0.9501
-0.8967 1.8338 0.9490
-2.4332 4.5540 2.3969
-2.5987 4.4703 2.3969
-2.7614 4.3807 2.3969
-2.9210 4.2851 2.3969
-3.0772 4.1838 2.3969
-3.2299 4.0767 2.3969
-3.3788 3.9642 2.3969
-3.5237 3.8462 2.3969
-3.6644 3.7229 2.3969
-3.8008 3.5944 2.3969
-3.9326 3.4610 2.3969
-4.0596 3.3227 2.3969
-4.1817 3.1798 2.3969
-4.2986 3.0324 2.3969
-4.4103 2.8806 2.3969
-4.5164 2.7247 2.3969
-4.6170 2.5649 2.3969
-4.7117 2.4014 2.3969
-4.8005 2.2343 2.3969
-4.8833 2.0639 2.3969
-4.9598 1.8905 2.3969
-5.0300 1.7142 2.3969
-5.0938 1.5353 2.3969
-5.1510 1.3540 2.3969
-5.2016 1.1706 2.3969
-5.2454 0.9852 2.3969
-5.2825 0.7983 2.3969
-5.3126 0.6100 2.3969
-5.3360 0.4206 2.3969
-5.3521 0.2301 2.3969
-5.3613 0.0392 2.3969
-5.3635 -0.1521 2.3969
-5.3586 -0.3434 2.3969
-5.3466 -0.5345 2.3969
-5.3275 -0.7252 2.3969
-5.3014 -0.9151 2.3969
-5.2683 -1.1040 2.3969
-5.2282 -1.2916 2.3969
-5.1812 -1.4777 2.3969
-5.1272 -1.6619 2.3969
-5.0665 -1.8441 2.3969
-4.9990 -2.0240 2.3969
-4.9249 -2.2013 2.3969
-4.8442 -2.3757 2.3969
-4.7572 -2.5470 2.3969
-4.6638 -2.7150 2.3969
-4.5642 -2.8794 2.3969
-4.4586 -3.0401 2.3969
-4.3471 -3.1966 2.3969
-4.2299 -3.3490 2.3969
-4.1072 -3.4968 2.3969
-3.9790 -3.6400 2.3969
-3.8457 -3.7782 2.3969
-3.7074 -3.9114 2.3969
-3.5642 -4.0394 2.3969
-3.4165 -4.1619 2.3969
-3.2644 -4.2788 2.3969
-3.1082 -4.3900 2.3969
-2.9480 -4.4952 2.3969
-2.7841 -4.5944 2.3969
-2.6168 -4.6874 2.3969
-2.4462 -4.7742 2.3969
-2.2726 -4.8545 2.3969
-2.0963 -4.9283 2.3969
-1.9176 -4.9955 2.3969
-1.7366 -5.0561 2.3969
-1.5537 -5.1099 2.3969
-1.3690 -5.1569 2.3969
-1.1829 -5.1970 2.3969
-0.9956 -5.2303 2.3969
-0.8074 -5.2567 2.3969
-0.6185 -5.2761 2.3969
-0.4292 -5.2886 2.3969
-0.2397 -5.2941 2.3969
-0.0504 -5.2928 2.3969
0.1385 -5.2845 2.3969
0.3269 -5.2694 2.3969
0.5143 -5.2474 2.3969
0.7007 -5.2187 2.3969
0.8857 -5.1832 2.3969
1.0690 -5.1412 2.3969
1.2505 -5.0925 2.3969
1.4299 -5.0374 2.3969
1.6071 -4.9759 2.3969
1.7816 -4.9081 2.3969
1.9534 -4.8342 2.3969
2.1223 -4.7542 2.3969
2.2879 -4.6683 2.3969
2.4502 -4.5766 2.3969
2.6088 -4.4793 2.3969
2.7637 -4.3765 2.3969
2.9147 -4.2683 2.3969
3.0614 -4.1549 2.3969
3.2039 -4.0365 2.3969
3.3419 -3.9133 2.3969
3.4753 -3.7853 2.3969
3.6038 -3.6529 2.3969
3.7274 -3.5161 2.3969
3.8460 -3.3752 2.3969
3.9593 -3.2303 2.3969
4.0674 -3.0817 2.3969
4.1699 -2.9295 2.3969
4.2670 -2.7739 2.3969
4.3583 -2.6152 2.3969
4.4439 -2.4536 2.3969
4.5237 -2.2892 2.3968
4.5976 -2.1222 2.3968
4.6655 -1.9530 2.3968
4.7273 -1.7816 2.3968
4.7830 -1.6083 2.3968
4.8326 -1.4334 2.3968
4.8759 -1.2569 2.3968
4.9130 -1.0793 2.3968
4.9439 -0.9005 2.3968
4.9685 -0.7210 2.3968
4.9867 -0.5409 2.3968
4.9986 -0.3604 2.3968
5.0043 -0.1796 2.3968
5.0036 0.0011 2.3968
4.9966 0.1816 2.3968
4.9834 0.3616 2.3968
4.9639 0.5408 2.3968
4.9382 0.7193 2.3968
4.9063 0.8967 2.3968
4.8683 1.0727 2.3968
4.8242 1.2473 2.3968
4.7740 1.4201 2.3968
4.7180 1.5911 2.3968
4.6560 1.7599 2.3968
4.5882 1.9265 2.3968
4.5147 2.0906 2.3968
4.4356 2.2520 2.3968
4.3509 2.4105 2.3968
4.2608 2.5659 2.3968
4.1653 2.7183 2.3969
4.0646 2.8672 2.3969
3.9588 3.0125 2.3969
3.8480 3.1540 2.3969
3.7323 3.2916 2.3969
3.6119 3.4252 2.3969
3.4869 3.5546 2.3969
3.3574 3.6795 2.3969
3.2237 3.7999 2.3969
3.0858 3.9157 2.3969
2.9438 4.0266 2.3969
2.7981 4.1326 2.3969
2.6487 4.2334 2.3969
2.4957 4.3291 2.3969
2.3395 4.4195 2.3969
0.8837 1.8259 0.9716
0.8175 1.8570 0.9711
0.7501 1.8858 0.9705
0.6818 1.9121 0.9699
0.6125 1.9359 0.9693
0.5425 1.9573 0.9686
0.4717 1.9761 0.9679
0.4002 1.9923 0.9671
0.3283 2.0060 0.9664
0.2558 2.0170 0.9656
0.1831 2.0255 0.9647
0.1100 2.0313 0.9638
0.0368 2.0344 0.9629
-0.0365 2.0350 0.9620
-0.1097 2.0329 0.9611
-0.1828 2.0281 0.9601
-0.2557 2.0207 0.9591
-0.3283 2.0107 0.9580
-0.4005 1.9981 0.9570
-0.4722 1.9829 0.9559
-0.5433 1.9652 0.9548
-0.6137 1.9448 0.9537
-0.6833 1.9220 0.9526
-0.7521 1.8966 0.9515
-0.8199 1.8688 0.9503
-0.8866 1.8386 0.9491
-2.4076 4.5663 2.3969
-2.5736 4.4835 2.3969
-2.7368 4.3947 2.3969
-2.8968 4.3001 2.3969
-3.0536 4.1996 2.3969
-3.2068 4.0934 2.3969
-3.3563 3.9817 2.3969
-3.5018 3.8645 2.3969
-3.6432 3.7420 2.3969
-3.7803 3.6144 2.3969
-3.9128 3.4817 2.3969
-4.0405 3.3442 2.3969
-4.1634 3.2019 2.3969
-4.2811 3.0551 2.3969
-4.3936 2.9040 2.3969
-4.5006 2.7488 2.3969
-4.6020 2.5895 2.3969
-4.6976 2.4266 2.3969
-4.7874 2.2600 2.3969
-4.8710 2.0902 2.3969
-4.9485 1.9172 2.3969
-5.0197 1.7413 2.3969
-5.0845 1.5628 2.3969
-5.1427 1.3818 2.3969
-5.1943 1.1987 2.3969
-5.2392 1.0137 2.3969
-5.2773 0.8269 2.3969
-5.3076 0.6378 2.3969
-5.3327 0.4495 2.3969
-5.3500 0.2592 2.3969
-5.3603 0.0684 2.3969
-5.3636 -0.1228 2.3969
-5.3598 -0.3142 2.3969
-5.3489 -0.5053 2.3969
-5.3309 -0.6961 2.3969
0.7123 -4.9125 2.3969
0.8864 -4.8775 2.3969
1.0588 -4.8362 2.3969
1.2295 -4.7888 2.3969
1.3982 -4.7353 2.3969
1.5646 -4.6757 2.3969
1.7286 -4.6103 2.3969
1.8900 -4.5392 2.3969
2.0485 -4.4623 2.3969
2.2040 -4.3799 2.3969
2.3562 -4.2920 2.3969
2.5050 -4.1989 2.3969
2.6502 -4.1005 2.3969
2.7917 -3.9972 2.3969
2.9292 -3.8890 2.3969
3.0626 -3.7761 2.3969
3.1917 -3.6586 2.3969
3.3165 -3.5367 2.3969
3.4367 -3.4107 2.3969
3.5521 -3.2805 2.3969
3.6628 -3.1465 2.3969
3.7686 -3.0087 2.3969
3.8692 -2.8676 2.3969
3.9648 -2.7231 2.3969
4.0550 -2.5753 2.3969
4.1399 -2.4247 2.3969
4.2193 -2.2714 2.3969
4.2932 -2.1155 2.3969
4.3615 -1.9572 2.3969
4.4241 -1.7968 2.3968
4.4810 -1.6344 2.3968
4.5321 -1.4703 2.3968
4.5774 -1.3047 2.3968
4.6168 -1.1376 2.3968
4.6502 -0.9694 2.3968
4.6778 -0.8003 2.3968
4.6994 -0.6305 2.3968
4.7150 -0.4601 2.3968
4.7246 -0.2894 2.3968
4.7283 -0.1186 2.3968
4.7260 0.0521 2.3968
4.7178 0.2226 2.3968
4.7036 0.3925 2.3968
4.6835 0.5618 2.3968
4.6575 0.7302 2.3968
4.6257 0.8975 2.3968
4.5881 1.0636 2.3968
4.5448 1.2281 2.3968
4.4957 1.3910 2.3968
4.4411 1.5520 2.3968
4.3809 1.7110 2.3968
4.3152 1.8678 2.3968
4.2441 2.0222 2.3968
4.1677 2.1740 2.3969
4.0861 2.3230 2.3969
3.9993 2.4691 2.3969
3.9075 2.6121 2.3969
3.8108 2.7519 2.3969
3.7093 2.8881 2.3969
3.6031 3.0208 2.3969
3.4923 3.1497 2.3969
3.3771 3.2747 2.3969
3.2576 3.3957 2.3969
3.1339 3.5125 2.3969
3.0062 3.6249 2.3969
2.8746 3.7329 2.3969
2.7393 3.8362 2.3969
2.6003 3.9348 2.3969
2.4580 4.0286 2.3969
2.3124 4.1173 2.3969
0.8758 1.7004 0.9702
0.8141 1.7314 0.9697
0.7512 1.7601 0.9692
0.6874 1.7865 0.9687
0.6226 1.8106 0.9681
0.5571 1.8324 0.9675
0.4907 1.8518 0.9668
0.4238 1.8688 0.9662
0.3562 1.8833 0.9654
0.2882 1.8955 0.9647
0.2197 1.9051 0.9639
0.1510 1.9123 0.9631
0.0820 1.9170 0.9623
0.0129 1.9193 0.9614
-0.0562 1.9190 0.9606
-0.1253 1.9163 0.9597
-0.1942 1.9110 0.9587
-0.2629 1.9033 0.9578
-0.3313 1.8931 0.9568
-0.3993 1.8805 0.9558
-0.4667 1.8654 0.9548
-0.5336 1.8479 0.9537
-0.5998 1.8280 0.9527
-0.6653 1.8057 0.9516
-0.7298 1.7811 0.9505
-0.7935 1.7542 0.9495
-0.8562 1.7250 0.9483
-0.9177 1.6935 0.9472
-2.4779 4.2050 2.3969
-2.6308 4.1193 2.3969
-2.7807 4.0280 2.3969
-2.9274 3.9313 2.3969
-3.0707 3.8292 2.3969
-3.2104 3.7220 2.3969
-3.3463 3.6096 2.3969
-3.4782 3.4924 2.3969
-3.6060 3.3703 2.3969
-3.7294 3.2435 2.3969
-3.8482 3.1122 2.3969
-3.9624 2.9765 2.3969
-4.0716 2.8367 2.3969
-4.1758 2.6928 2.3969
-4.2749 2.5451 2.3969
-4.3686 2.3937 2.3969
-4.4568 2.2388 2.3969
-4.5394 2.0807 2.3969
-4.6162 1.9196 2.3969
-4.6872 1.7556 2.3969
-4.7522 1.5889 2.3969
-4.8111 1.4198 2.3969
-4.8638 1.2486 2.3969
-4.9103 1.0754 2.3969
-4.9504 0.9005 2.3969
-4.9841 0.7240 2.3969
-5.0113 0.5464 2.3969
-5.0319 0.3677 2.3969
-5.0460 0.1883 2.3969
-5.0535 0.0083 2.3969
-5.0543 -0.1719 2.3969
-5.0485 -0.3521 2.3969
-5.0360 -0.5321 2.3969
-5.0169 -0.7116 2.3969
-4.9912 -0.8903 2.3969
-4.9589 -1.0681 2.3969
-4.9200 -1.2446 2.3969
-4.8745 -1.4196 2.3969
-4.8227 -1.5928 2.3969
-4.7644 -1.7641 2.3969
-4.6998 -1.9331 2.3969
-4.6290 -2.0996 2.3969
-4.5521 -2.2634 2.3969
-4.4691 -2.4243 2.3969
-4.3803 -2.5821 2.3969
-4.2856 -2.7364 2.3969
-4.1853 -2.8871 2.3969
-4.0795 -3.0340 2.3969
-3.9684 -3.1768 2.3969
-3.8520 -3.3154 2.3969
-3.7306 -3.4496 2.3969
-3.6044 -3.5792 2.3969
-3.4734 -3.7040 2.3969
-3.3380 -3.8238 2.3969
-3.1983 -3.9385 2.3969
-3.0545 -4.0479 2.3969
-2.9068 -4.1519 2.3969
-2.7555 -4.2502 2.3969
-2.6007 -4.3429 2.3969
-2.4426 -4.4298 2.3969
-2.2816 -4.5108 2.3969
-2.1177 -4.5857 2.3969
-1.9514 -4.6545 2.3969
-1.7827 -4.7171 2.3969
-1.6119 -4.7734 2.3969
-1.4393 -4.8233 2.3969
-1.2652 -4.8669 2.3969
-1.0897 -4.9040 2.3969
-0.9131 -4.9346 2.3969
-0.7356 -4.9587 2.3969
-0.5575 -4.9763 2.3969
-0.3791 -4.9873 2.3969
-0.2005 -4.9918 2.3969
-0.0221 -4.9898 2.3969
0.1560 -4.9814 2.3969
0.3334 -4.9664 2.3969
0.5101 -4.9450 2.3969
0.6856 -4.9173 2.3969
0.8599 -4.8832 2.3969
1.0326 -4.8429 2.3969
1.2036 -4.7964 2.3969
1.3725 -4.7438 2.3969
1.5393 -4.6852 2.3969
1.7037 -4.6207 2.3969
1.8655 -4.5504 2.3969
2.0245 -4.4744 2.3969
2.1804 -4.3928 2.3969
2.3332 -4.3058 2.3969
2.4825 -4.2134 2.3969
2.6283 -4.1159 2.3969
2.7703 -4.0133 2.3969
2.9085 -3.9058 2.3969
3.0425 -3.7936 2.3969
3.1723 -3.6768 2.3969
3.2977 -3.5556 2.3969
3.4186 -3.4302 2.3969
3.5348 -3.3006 2.3969
3.6462 -3.1672 2.3969
3.7527 -3.0300 2.3969
3.8542 -2.8894 2.3969
3.9505 -2.7453 2.3969
4.0416 -2.5981 2.3969
4.1273 -2.4479 2.3969
4.2075 -2.2950 2.3969
4.2823 -2.1395 2.3969
4.3515 -1.9815 2.3969
4.4149 -1.8214 2.3968
4.4727 -1.6593 2.3968
4.5247 -1.4955 2.3968
4.5708 -1.3300 2.3968
4.6111 -1.1632 2.3968
4.6455 -0.9952 2.3968
4.6740 -0.8262 2.3968
4.6965 -0.6565 2.3968
4.7130 -0.4862 2.3968
4.7235 -0.3155 2.3968
4.7281 -0.1447 2.3968
4.7267 0.0261 2.3968
4.7194 0.1966 2.3968
4.7061 0.3666 2.3968
4.6869 0.5360 2.3968
4.6619 0.7045 2.3968
4.6309 0.8720 2.3968
4.5942 1.0383 2.3968
4.5517 1.2031 2.3968
4.5036 1.3662 2.3968
4.4498 1.5276 2.3968
4.3904 1.6869 2.3968
4.3256 1.8440 2.3968
4.2553 1.9988 2.3968
4.1797 2.1510 2.3969
4.0989 2.3004 2.3969
4.0129 2.4469 2.3969
3.9219 2.5905 2.3969
3.8259 2.7308 2.3969
3.7251 2.8675 2.3969
3.6196 3.0007 2.3969
3.5095 3.1303 2.3969
3.3950 3.2559 2.3969
3.2761 3.3775 2.3969
3.1531 3.4949 2.3969
3.0260 3.6080 2.3969
2.8949 3.7167 2.3969
2.7602 3.8207 2.3969
2.6218 3.9201 2.3969
2.4800 4.0146 2.3969
2.3349 4.1041 2.3969
0.8851 1.6955 0.9702
0.8236 1.7268 0.9698
0.7609 1.7558 0.9693
0.6972 1.7826 0.9687
0.6326 1.8071 0.9682
0.5671 1.8292 0.9676
0.5009 1.8490 0.9669
0.4340 1.8663 0.9663
0.3666 1.8813 0.9656
0.2986 1.8938 0.9648
0.2302 1.9038 0.9641
0.1615 1.9114 0.9633
0.0925 1.9165 0.9624
0.0235 1.9191 0.9616
-0.0457 1.9192 0.9607
-0.1147 1.9169 0.9598
-0.1837 1.9120 0.9589
-0.2524 1.9047 0.9579
-0.3209 1.8948 0.9569
-0.3889 1.8826 0.9559
-0.4565 1.8679 0.9549
-0.5234 1.8507 0.9539
-0.5898 1.8312 0.9528
-0.6553 1.8093 0.9518
-0.7200 1.7850 0.9507
-0.7839 1.7584 0.9496
-0.8467 1.7296 0.9485
-0.9084 1.6985 0.9474
-2.4543 4.2177 2.3969
-2.6076 4.1327 2.3969
-2.7580 4.0423 2.3969
-2.9052 3.9464 2.3969
-3.0491 3.8452 2.3969
-3.1893 3.7387 2.3969
-3.3258 3.6271 2.3969
-3.4584 3.5106 2.3969
-3.5868 3.3892 2.3969
-3.7108 3.2631 2.3969
-3.8304 3.1325 2.3969
-3.9452 2.9975 2.3969
-4.0553 2.8583 2.3969
-4.1603 2.7150 2.3969
-4.2601 2.5679 2.3969
-4.3546 2.4170 2.3969
-4.4437 2.2627 2.3969
-4.5271 2.1051 2.3969
-4.6049 1.9444 2.3969
-4.6768 1.7808 2.3969
-4.7427 1.6145 2.3969
-4.8025 1.4458 2.3969
-4.8562 1.2749 2.3969
-4.9036 1.1020 2.3969
-4.9447 0.9273 2.3969
-4.9793 0.7511 2.3969
-5.0075 0.5736 2.3969
-5.0292 0.3950 2.3969
-5.0444 0.2158 2.3969
-5.0527 0.0357 2.3969
-5.0546 -0.1444 2.3969
-5.0498 -0.3246 2.3969
-5.0384 -0.5046 2.3969
-5.0203 -0.6842 2.3969
-4.9955 -0.8631 2.3969
-4.9642 -1.0410 2.3969
-4.9263 -1.2177 2.3969
-4.8819 -1.3929 2.3969
-4.8310 -1.5665 2.3969
-4.7737 -1.7380 2.3969
-4.7101 -1.9074 2.3969
-4.6402 -2.0744 2.3969
-4.5642 -2.2386 2.3969
-4.4822 -2.4000 2.3969
-4.3942 -2.5582 2.3969
-4.3005 -2.7130 2.3969
-4.2010 -2.8643 2.3969
-4.0960 -3.0118 2.3969
-3.9857 -3.1553 2.3969
-3.8701 -3.2945 2.3969
-3.7495 -3.4294 2.3969
-3.6239 -3.5597 2.3969
-3.4937 -3.6852 2.3969
-3.3590 -3.8058 2.3969
-3.2199 -3.9213 2.3969
-3.0767 -4.0315 2.3969
-2.9296 -4.1363 2.3969
-2.7788 -4.2356 2.3969
-2.6245 -4.3292 2.3969
-2.4669 -4.4169 2.3969
-2.3063 -4.4988 2.3969
-2.1429 -4.5747 2.3969
-1.9769 -4.6444 2.3969
-1.8086 -4.7079 2.3969
-1.6381 -4.7652 2.3969
-1.4658 -4.8161 2.3969
-1.2919 -4.8606 2.3969
-1.1166 -4.8987 2.3969
-0.9401 -4.9303 2.3969
-0.7627 -4.9554 2.3969
-0.5848 -4.9740 2.3969
-0.4064 -4.9860 2.3969
-0.2278 -4.9916 2.3969
-0.0493 -4.9906 2.3969
0.1288 -4.9831 2.3969
0.3064 -4.9691 2.3969
0.4831 -4.9487 2.3969
0.6589 -4.9219 2.3969
0.8334 -4.8888 2.3969
1.0063 -4.8495 2.3969
1.1776 -4.8039 2.3969
1.3469 -4.7522 2.3969
1.5140 -4.6946 2.3969
1.6788 -4.6309 2.3969
1.8410 -4.5615 2.3969
2.0004 -4.4864 2.3969
2.1568 -4.4056 2.3969
2.3101 -4.3194 2.3969
2.4599 -4.2279 2.3969
2.6063 -4.1311 2.3969
2.7489 -4.0293 2.3969
2.8876 -3.9225 2.3969
3.0223 -3.8111 2.3969
3.1528 -3.6950 2.3969
3.2789 -3.5744 2.3969
3.4004 -3.4496 2.3969
3.5174 -3.3207 2.3969
3.6295 -3.1878 2.3969
3.7368 -3.0512 2.3969
3.8390 -2.9111 2.3969
3.9361 -2.7676 2.3969
4.0280 -2.6208 2.3969
4.1145 -2.4711 2.3969
4.1956 -2.3186 2.3969
4.2712 -2.1634 2.3969
4.3413 -2.0058 2.3969
4.4056 -1.8460 2.3968
4.4643 -1.6842 2.3968
4.5171 -1.5206 2.3968
4.5642 -1.3554 2.3968
4.6054 -1.1887 2.3968
4.6406 -1.0209 2.3968
4.6700 -0.8521 2.3968
4.6934 -0.6824 2.3968
4.7109 -0.5122 2.3968
4.7223 -0.3416 2.3968
4.7278 -0.1708 2.3968
4.7273 0.0000 2.3968
4.7209 0.1705 2.3968
4.7085 0.3407 2.3968
4.6902 0.5102 2.3968
4.6661 0.6789 2.3968
4.6360 0.8465 2.3968
4.6002 1.0131 2.3968
4.5586 1.1780 2.3968
4.5113 1.3414 2.3968
4.4584 1.5030 2.3968
4.3998 1.6627 2.3968
4.3358 1.8201 2.3968
4.2664 1.9753 2.3968
4.1916 2.1279 2.3969
4.1115 2.2778 2.3969
4.0263 2.4248 2.3969
3.9361 2.5688 2.3969
3.8409 2.7095 2.3969
3.7408 2.8468 2.3969
3.6360 2.9806 2.3969
3.5267 3.1107 2.3969
3.4128 3.2370 2.3969
3.2946 3.3592 2.3969
3.1721 3.4773 2.3969
3.0456 3.5910 2.3969
2.9152 3.7004 2.3969
2.7810 3.8051 2.3969
2.6431 3.9052 2.3969
2.5018 4.0004 2.3969
2.3572 4.0908 2.3969
0.8944 1.6906 0.9703
0.8330 1.7222 0.9698
0.7705 1.7516 0.9694
0.7070 1.7787 0.9688
0.6425 1.8035 0.9683
0.5772 1.8260 0.9677
0.5111 1.8461 0.9670
0.4443 1.8638 0.9664
0.3769 1.8791 0.9657
0.3090 1.8920 0.9649
0.2407 1.9024 0.9642
0.1720 1.9104 0.9634
0.1031 1.9159 0.9626
0.0340 1.9189 0.9617
-0.0351 1.9194 0.9608
-0.1042 1.9174 0.9599
-0.1732 1.9129 0.9590
-0.2420 1.9059 0.9581
-0.3105 1.8965 0.9571
-0.3786 1.8846 0.9561
-0.4462 1.8703 0.9551
-0.5133 1.8535 0.9541
-0.5797 1.8343 0.9530
-0.6454 1.8128 0.9519
-0.7102 1.7889 0.9509
-0.7742 1.7626 0.9498
-0.8371 1.7341 0.9487
-0.8990 1.7033 0.9476
-2.4306 4.2301 2.3969
-2.5844 4.1461 2.3969
-2.7352 4.0565 2.3969
-2.8830 3.9614 2.3969
-3.0273 3.8610 2.3969
-3.1681 3.7553 2.3969
-3.3052 3.6445 2.3969
-3.4384 3.5287 2.3969
-3.5674 3.4080 2.3969
-3.6922 3.2827 2.3969
-3.8124 3.1527 2.3969
-3.9280 3.0184 2.3969
-4.0388 2.8798 2.3969
-4.1446 2.7371 2.3969
-4.2452 2.5906 2.3969
-4.3405 2.4403 2.3969
-4.4304 2.2865 2.3969
-4.5148 2.1294 2.3969
-4.5934 1.9691 2.3969
-4.6662 1.8059 2.3969
-4.7330 1.6401 2.3969
-4.7938 1.4717 2.3969
-4.8484 1.3011 2.3969
-4.8968 1.1285 2.3969
-4.9388 0.9541 2.3969
-4.9745 0.7781 2.3969
-5.0036 0.6007 2.3969
-5.0263 0.4223 2.3969
-5.0424 0.2431 2.3969
-5.0520 0.0634 2.3969
-5.0548 -0.1169 2.3969
-5.0510 -0.2971 2.3969
-5.0405 -0.4772 2.3969
-5.0235 -0.6568 2.3969
0.6713 -4.6428 2.3969
0.8358 -4.6100 2.3969
0.9988 -4.5713 2.3969
1.1602 -4.5267 2.3969
1.3197 -4.4764 2.3969
1.4771 -4.4204 2.3969
1.6322 -4.3589 2.3969
1.7848 -4.2919 2.3969
1.9348 -4.2195 2.3969
2.0819 -4.1418 2.3969
2.2260 -4.0590 2.3969
2.3668 -3.9711 2.3969
2.5043 -3.8784 2.3969
2.6382 -3.7809 2.3969
2.7684 -3.6789 2.3969
2.8947 -3.5723 2.3969
3.0170 -3.4614 2.3969
3.1352 -3.3463 2.3969
3.2491 -3.2273 2.3969
3.3585 -3.1044 2.3969
3.4634 -2.9777 2.3969
3.5637 -2.8476 2.3969
3.6591 -2.7142 2.3969
3.7497 -2.5775 2.3969
3.8353 -2.4380 2.3969
3.9158 -2.2954 2.3969
3.9912 -2.1506 2.3969
4.0614 -2.0031 2.3969
4.1262 -1.8535 2.3969
4.1857 -1.7017 2.3969
4.2397 -1.5481 2.3969
4.2883 -1.3928 2.3969
4.3313 -1.2360 2.3968
4.3688 -1.0779 2.3968
4.4007 -0.9188 2.3968
4.4269 -0.7587 2.3968
4.4475 -0.5979 2.3968
4.4625 -0.4367 2.3968
4.4718 -0.2751 2.3968
4.4754 -0.1133 2.3968
4.4734 0.0483 2.3968
4.4657 0.2097 2.3968
4.4524 0.3707 2.3968
4.4335 0.5310 2.3968
4.4090 0.6904 2.3968
4.3789 0.8489 2.3968
4.3434 1.0062 2.3968
4.3025 1.1620 2.3968
4.2561 1.3164 2.3968
4.2044 1.4688 2.3969
4.1474 1.6194 2.3969
4.0852 1.7680 2.3969
4.0179 1.9142 2.3969
3.9456 2.0581 2.3969
3.8683 2.1992 2.3969
3.7861 2.3375 2.3969
3.6992 2.4729 2.3969
3.6076 2.6052 2.3969
3.5115 2.7343 2.3969
3.4108 2.8599 2.3969
3.3059 2.9820 2.3969
3.1968 3.1004 2.3969
3.0835 3.2149 2.3969
2.9663 3.3255 2.3969
2.8453 3.4319 2.3969
2.7206 3.5341 2.3969
2.5924 3.6318 2.3969
2.4608 3.7251 2.3969
2.3260 3.8138 2.3969
0.8846 1.5758 0.9690
0.8273 1.6071 0.9686
0.7689 1.6363 0.9681
0.7095 1.6635 0.9677
0.6491 1.6884 0.9672
0.5879 1.7112 0.9666
0.5259 1.7318 0.9660
0.4632 1.7501 0.9654
0.3999 1.7662 0.9648
0.3360 1.7799 0.9641
0.2717 1.7914 0.9634
0.2070 1.8005 0.9627
0.1420 1.8073 0.9619
0.0768 1.8118 0.9611
0.0115 1.8139 0.9603
-0.0538 1.8136 0.9595
-0.1191 1.8110 0.9586
-0.1843 1.8061 0.9578
-0.2492 1.7988 0.9569
-0.3139 1.7891 0.9559
-0.3781 1.7772 0.9550
-0.4419 1.7629 0.9540
-0.5051 1.7464 0.9530
-0.5677 1.7276 0.9521
-0.6295 1.7065 0.9510
-0.6906 1.6832 0.9500
-0.7508 1.6578 0.9490
-0.8100 1.6302 0.9479
-0.8682 1.6005 0.9469
-0.9253 1.5687 0.9458
-2.4892 3.8938 2.3969
-2.6308 3.8073 2.3969
-2.7693 3.7156 2.3969
-2.9046 3.6189 2.3969
-3.0365 3.5173 2.3969
-3.1648 3.4109 2.3969
-3.2893 3.2998 2.3969
-3.4098 3.1842 2.3969
-3.5262 3.0642 2.3969
-3.6383 2.9399 2.3969
-3.7460 2.8116 2.3969
-3.8490 2.6792 2.3969
-3.9472 2.5432 2.3969
-4.0406 2.4034 2.3969
-4.1289 2.2603 2.3969
-4.2120 2.1139 2.3969
-4.2898 1.9644 2.3969
-4.3621 1.8121 2.3969
-4.4290 1.6571 2.3969
-4.4901 1.4996 2.3969
-4.5455 1.3399 2.3969
-4.5951 1.1781 2.3969
-4.6388 1.0144 2.3969
-4.6764 0.8492 2.3969
-4.7080 0.6826 2.3969
-4.7335 0.5148 2.3969
-4.7528 0.3461 2.3969
-4.7660 0.1767 2.3969
-4.7728 0.0067 2.3969
-4.7734 -0.1634 2.3969
-4.7677 -0.3336 2.3969
-4.7559 -0.5034 2.3969
-4.7378 -0.6728 2.3969
-4.7133 -0.8416 2.3969
-4.6827 -1.0093 2.3969
-4.6459 -1.1759 2.3969
-4.6029 -1.3411 2.3969
-4.5539 -1.5046 2.3969
-4.4988 -1.6662 2.3969
-4.4378 -1.8257 2.3969
-4.3710 -1.9829 2.3969
-4.2983 -2.1375 2.3969
-4.2200 -2.2893 2.3969
-4.1361 -2.4382 2.3969
-4.0468 -2.5838 2.3969
-3.9521 -2.7261 2.3969
-3.8523 -2.8647 2.3969
-3.7474 -2.9996 2.3969
-3.6376 -3.1304 2.3969
-3.5230 -3.2571 2.3969
-3.4039 -3.3795 2.3969
-3.2804 -3.4973 2.3969
-3.1526 -3.6105 2.3969
-3.0208 -3.7188 2.3969
-2.8851 -3.8222 2.3969
-2.7458 -3.9204 2.3969
-2.6030 -4.0134 2.3969
-2.4569 -4.1010 2.3969
-2.3078 -4.1832 2.3969
-2.1558 -4.2598 2.3969
-2.0012 -4.3306 2.3969
-1.8442 -4.3957 2.3969
-1.6850 -4.4550 2.3969
-1.5238 -4.5083 2.3969
-1.3609 -4.5557 2.3969
-1.1965 -4.5970 2.3969
-1.0308 -4.6323 2.3969
-0.8641 -4.6614 2.3969
-0.6965 -4.6844 2.3969
-0.5283 -4.7012 2.3969
-0.3598 -4.7119 2.3969
-0.1912 -4.7164 2.3969
-0.0226 -4.7148 2.3969
0.1455 -4.7070 2.3969
0.3133 -4.6932 2.3969
0.4802 -4.6732 2.3969
0.6461 -4.6473 2.3969
0.8108 -4.6154 2.3969
0.9740 -4.5775 2.3969
1.1357 -4.5339 2.3969
1.2955 -4.4845 2.3969
1.4532 -4.4293 2.3969
1.6087 -4.3686 2.3969
1.7617 -4.3024 2.3969
1.9121 -4.2309 2.3969
2.0596 -4.1540 2.3969
2.2042 -4.0720 2.3969
2.3455 -3.9849 2.3969
2.4835 -3.8929 2.3969
2.6180 -3.7961 2.3969
2.7488 -3.6947 2.3969
2.8757 -3.5888 2.3969
2.9986 -3.4786 2.3969
3.1174 -3.3642 2.3969
3.2320 -3.2457 2.3969
3.3421 -3.1234 2.3969
3.4477 -2.9973 2.3969
3.5487 -2.8677 2.3969
3.6449 -2.7348 2.3969
3.7362 -2.5986 2.3969
3.8226 -2.4595 2.3969
3.9039 -2.3176 2.3969
3.9800 -2.1729 2.3969
4.0510 -2.0258 2.3969
4.1167 -1.8764 2.3969
4.1770 -1.7250 2.3969
4.2318 -1.5717 2.3969
4.2812 -1.4166 2.3969
4.3251 -1.2601 2.3968
4.3634 -1.1022 2.3968
4.3962 -0.9432 2.3968
4.4233 -0.7832 2.3968
4.4448 -0.6225 2.3968
4.4606 -0.4613 2.3968
4.4707 -0.2998 2.3968
4.4752 -0.1380 2.3968
4.4740 0.0236 2.3968
4.4672 0.1851 2.3968
4.4548 0.3461 2.3968
4.4367 0.5065 2.3968
4.4131 0.6661 2.3968
4.3839 0.8248 2.3968
4.3492 0.9822 2.3968
4.3091 1.1383 2.3968
4.2635 1.2928 2.3968
4.2126 1.4456 2.3969
4.1565 1.5966 2.3969
4.0951 1.7454 2.3969
4.0286 1.8920 2.3969
3.9570 2.0361 2.3969
3.8804 2.1777 2.3969
3.7990 2.3166 2.3969
3.7128 2.4524 2.3969
3.6219 2.5852 2.3969
3.5264 2.7148 2.3969
3.4265 2.8410 2.3969
3.3222 2.9636 2.3969
3.2137 3.0826 2.3969
3.1011 3.1977 2.3969
2.9845 3.3088 2.3969
2.8640 3.4159 2.3969
2.7399 3.5187 2.3969
2.6122 3.6172 2.3969
2.4811 3.7112 2.3969
2.3468 3.8006 2.3969
0.8932 1.5708 0.9690
0.8361 1.6024 0.9686
0.7779 1.6320 0.9682
0.7186 1.6595 0.9677
0.6584 1.6848 0.9672
0.5973 1.7079 0.9667
0.5354 1.7288 0.9661
0.4728 1.7475 0.9655
0.4096 1.7639 0.9649
0.3458 1.7780 0.9642
0.2816 1.7898 0.9635
0.2169 1.7993 0.9628
0.1520 1.8064 0.9620
0.0868 1.8112 0.9613
0.0215 1.8137 0.9605
-0.0438 1.8138 0.9596
-0.1091 1.8116 0.9588
-0.1743 1.8070 0.9579
-0.2393 1.8000 0.9570
-0.3040 1.7908 0.9561
-0.3683 1.7792 0.9551
-0.4322 1.7653 0.9542
-0.4955 1.7491 0.9532
-0.5582 1.7306 0.9522
-0.6201 1.7099 0.9512
-0.6813 1.6869 0.9502
-0.7417 1.6618 0.9492
-0.8010 1.6345 0.9481
-0.8594 1.6051 0.9471
-0.9166 1.5737 0.9460
-2.4673 3.9066 2.3969
-2.6094 3.8208 2.3969
-2.7484 3.7299 2.3969
-2.8842 3.6340 2.3969
-3.0166 3.5331 2.3969
-3.1455 3.4274 2.3969
-3.2705 3.3171 2.3969
-3.3917 3.2022 2.3969
-3.5087 3.0828 2.3969
-3.6215 2.9592 2.3969
-3.7298 2.8314 2.3969
-3.8336 2.6997 2.3969
-3.9326 2.5642 2.3969
-4.0267 2.4250 2.3969
-4.1157 2.2824 2.3969
-4.1996 2.1365 2.3969
-4.2783 1.9874 2.3969
-4.3515 1.8355 2.3969
-4.4191 1.6809 2.3969
-4.4812 1.5238 2.3969
-4.5375 1.3644 2.3969
-4.5879 1.2029 2.3969
-4.6325 1.0395 2.3969
-4.6711 0.8745 2.3969
-4.7036 0.7081 2.3969
-4.7300 0.5405 2.3969
-4.7503 0.3719 2.3969
-4.7644 0.2026 2.3969
-4.7722 0.0327 2.3969
-4.7738 -0.1374 2.3969
-4.7691 -0.3076 2.3969
-4.7581 -0.4775 2.3969
-4.7409 -0.6470 2.3969
-4.7175 -0.8159 2.3969
-4.6878 -0.9838 2.3969
-4.6519 -1.1505 2.3969
-4.6099 -1.3159 2.3969
-4.5618 -1.4797 2.3969
-4.5076 -1.6416 2.3969
-4.4475 -1.8015 2.3969
-4.3816 -1.9590 2.3969
-4.3098 -2.1140 2.3969
-4.2323 -2.2663 2.3969
-4.1493 -2.4157 2.3969
-4.0608 -2.5618 2.3969
-3.9669 -2.7046 2.3969
-3.8678 -2.8438 2.3969
-3.7637 -2.9792 2.3969
-3.6546 -3.1107 2.3969
-3.5408 -3.2381 2.3969
-3.4224 -3.3611 2.3969
-3.2995 -3.4796 2.3969
-3.1724 -3.5935 2.3969
-3.0412 -3.7026 2.3969
-2.9061 -3.8067 2.3969
-2.7673 -3.9057 2.3969
-2.6250 -3.9995 2.3969
-2.4794 -4.0880 2.3969
-2.3307 -4.1710 2.3969
-2.1792 -4.2484 2.3969
-2.0250 -4.3202 2.3969
-1.8683 -4.3862 2.3969
-1.7094 -4.4463 2.3969
-1.5486 -4.5006 2.3969
-1.3859 -4.5489 2.3969
-1.2217 -4.5911 2.3969
-1.0562 -4.6273 2.3969
-0.8896 -4.6573 2.3969
-0.7221 -4.6813 2.3969
-0.5541 -4.6990 2.3969
-0.3856 -4.7107 2.3969
-0.2169 -4.7161 2.3969
-0.0484 -4.7154 2.3969
0.1199 -4.7086 2.3969
0.2877 -4.6957 2.3969
0.4547 -4.6767 2.3969
0.6208 -4.6516 2.3969
0.7857 -4.6206 2.3969
0.9492 -4.5837 2.3969
1.1111 -4.5409 2.3969
1.2712 -4.4924 2.3969
1.4292 -4.4381 2.3969
1.5851 -4.3783 2.3969
1.7385 -4.3129 2.3969
1.8893 -4.2421 2.3969
2.0373 -4.1661 2.3969
2.1823 -4.0848 2.3969
2.3241 -3.9985 2.3969
2.4627 -3.9073 2.3969
2.5977 -3.8112 2.3969
2.7290 -3.7105 2.3969
2.8566 -3.6053 2.3969
2.9801 -3.4957 2.3969
3.0996 -3.3819 2.3969
3.2148 -3.2640 2.3969
3.3256 -3.1423 2.3969
3.4319 -3.0168 2.3969
3.5336 -2.8877 2.3969
3.6305 -2.7553 2.3969
3.7226 -2.6196 2.3969
3.8097 -2.4809 2.3969
3.8918 -2.3394 2.3969
3.9688 -2.1951 2.3969
4.0405 -2.0484 2.3969
4.1070 -1.8993 2.3969
4.1681 -1.7482 2.3969
4.2238 -1.5952 2.3969
4.2740 -1.4404 2.3969
4.3188 -1.2840 2.3968
4.3579 -1.1263 2.3968
4.3915 -0.9675 2.3968
4.4195 -0.8077 2.3968
4.4418 -0.6471 2.3968
4.4585 -0.4860 2.3968
4.4695 -0.3245 2.3968
4.4749 -0.1627 2.3968
4.4746 -0.0010 2.3968
4.4686 0.1605 2.3968
4.4570 0.3216 2.3968
4.4398 0.4821 2.3968
4.4170 0.6418 2.3968
4.3887 0.8006 2.3968
4.3549 0.9583 2.3968
4.3155 1.1146 2.3968
4.2708 1.2693 2.3968
4.2207 1.4225 2.3969
4.1654 1.5737 2.3969
4.1048 1.7228 2.3969
4.0390 1.8698 2.3969
3.9682 2.0142 2.3969
3.8924 2.1563 2.3969
3.8118 2.2956 2.3969
3.7263 2.4319 2.3969
3.6361 2.5652 2.3969
3.5413 2.6952 2.3969
3.4420 2.8219 2.3969
3.3384 2.9451 2.3969
3.2305 3.0646 2.3969
3.1185 3.1804 2.3969
3.0025 3.2921 2.3969
2.8827 3.3998 2.3969
2.7591 3.5033 2.3969
2.6319 3.6024 2.3969
2.5014 3.6971 2.3969
2.3675 3.7872 2.3969
0.9018 1.5658 0.9691
0.8449 1.5977 0.9687
0.7868 1.6276 0.9683
0.7277 1.6554 0.9678
0.6677 1.6810 0.9673
0.6067 1.7045 0.9668
0.5449 1.7257 0.9662
0.4825 1.7447 0.9656
0.4193 1.7615 0.9650
0.3556 1.7760 0.9643
0.2914 1.7881 0.9636
0.2268 1.7980 0.9629
0.1619 1.8055 0.9622
0.0968 1.8107 0.9614
0.0315 1.8135 0.9606
-0.0339 1.8140 0.9598
-0.0992 1.8121 0.9589
-0.1644 1.8078 0.9580
-0.2294 1.8013 0.9571
-0.2942 1.7923 0.9562
-0.3585 1.7811 0.9553
-0.4225 1.7675 0.9543
-0.4859 1.7517 0.9533
-0.5486 1.7336 0.9524
-0.6107 1.7132 0.9514
-0.6721 1.6906 0.9503
-0.7325 1.6658 0.9493
-0.7920 1.6388 0.9483
-0.8505 1.6098 0.9472
-0.9080 1.5786 0.9462
-2.4454 3.9192 2.3969
-2.5879 3.8343 2.3969
-2.7274 3.7441 2.3969
-2.8637 3.6490 2.3969
-2.9966 3.5488 2.3969
-3.1260 3.4439 2.3969
-3.2517 3.3342 2.3969
-3.3734 3.2200 2.3969
-3.4911 3.1013 2.3969
-3.6045 2.9783 2.3969
-3.7136 2.8512 2.3969
-3.8180 2.7201 2.3969
-3.9178 2.5851 2.3969
-4.0126 2.4465 2.3969
-4.1025 2.3044 2.3969
-4.1872 2.1589 2.3969
-4.2666 2.0104 2.3969
-4.3406 1.8589 2.3969
-4.4091 1.7047 2.3969
-4.4720 1.5480 2.3969
-4.5292 1.3889 2.3969
-4.5806 1.2277 2.3969
-4.6261 1.0646 2.3969
-4.6656 0.8998 2.3969
-4.6990 0.7336 2.3969
-4.7264 0.5661 2.3969
-4.7476 0.3977 2.3969
-4.7627 0.2285 2.3969
-4.7714 0.0587 2.3969
-4.7739 -0.1114 2.3969
-4.7702 -0.2816 2.3969
-4.7602 -0.4516 2.3969
-4.7440 -0.6212 2.3969
0.6338 -4.3959 2.3969
0.7895 -4.3650 2.3969
0.9439 -4.3286 2.3969
1.0967 -4.2867 2.3969
1.2478 -4.2393 2.3969
1.3969 -4.1865 2.3969
1.5438 -4.1285 2.3969
1.6885 -4.0652 2.3969
1.8306 -3.9969 2.3969
1.9700 -3.9236 2.3969
2.1066 -3.8454 2.3969
2.2401 -3.7624 2.3969
2.3705 -3.6748 2.3969
2.4974 -3.5827 2.3969
2.6209 -3.4861 2.3969
2.7408 -3.3854 2.3969
2.8568 -3.2805 2.3969
2.9689 -3.1717 2.3969
3.0770 -3.0590 2.3969
3.1809 -2.9427 2.3969
3.2804 -2.8229 2.3969
3.3756 -2.6997 2.3969
3.4663 -2.5734 2.3969
3.5523 -2.4440 2.3969
3.6336 -2.3119 2.3969
3.7101 -2.1770 2.3969
3.7818 -2.0396 2.3969
3.8484 -1.9000 2.3969
3.9101 -1.7581 2.3969
3.9667 -1.6143 2.3969
4.0181 -1.4688 2.3969
4.0643 -1.3216 2.3969
4.1053 -1.1730 2.3969
4.1410 -1.0231 2.3969
4.1713 -0.8723 2.3969
4.1964 -0.7205 2.3969
4.2161 -0.5680 2.3969
4.2304 -0.4152 2.3969
4.2393 -0.2619 2.3969
4.2429 -0.1085 2.3969
4.2411 0.0448 2.3969
4.2339 0.1979 2.3969
4.2214 0.3505 2.3969
4.2036 0.5026 2.3969
4.1804 0.6539 2.3969
4.1520 0.8042 2.3969
4.1184 0.9534 2.3969
4.0796 1.1013 2.3969
4.0357 1.2476 2.3969
3.9867 1.3922 2.3969
3.9327 1.5376 2.3969
3.8738 1.6761 2.3969
3.8100 1.8148 2.3969
3.7414 1.9513 2.3969
3.6680 2.0852 2.3969
3.5901 2.2164 2.3969
3.5076 2.3449 2.3969
3.4207 2.4704 2.3969
3.3295 2.5928 2.3969
3.2340 2.7120 2.3969
3.1344 2.8278 2.3969
3.0309 2.9401 2.3969
2.9234 3.0487 2.3969
2.8122 3.1535 2.3969
2.6974 3.2544 2.3969
2.5791 3.3512 2.3969
2.4574 3.4439 2.3969
2.3325 3.5324 2.3969
0.8902 1.4603 0.9679
0.8370 1.4919 0.9675
0.7828 1.5215 0.9671
0.7275 1.5492 0.9667
0.6712 1.5749 0.9663
0.6141 1.5985 0.9658
0.5561 1.6201 0.9653
0.4974 1.6396 0.9647
0.4380 1.6569 0.9641
0.3781 1.6721 0.9635
0.3176 1.6852 0.9629
0.2567 1.6960 0.9622
0.1954 1.7047 0.9615
0.1338 1.7111 0.9608
0.0721 1.7153 0.9601
0.0103 1.7173 0.9593
-0.0516 1.7171 0.9585
-0.1135 1.7146 0.9577
-0.1752 1.7099 0.9569
-0.2367 1.7030 0.9560
-0.2979 1.6939 0.9551
-0.3587 1.6825 0.9542
-0.4191 1.6690 0.9533
-0.4790 1.6534 0.9524
-0.5382 1.6356 0.9515
-0.5968 1.6156 0.9505
-0.6546 1.5936 0.9495
-0.7116 1.5695 0.9486
-0.7677 1.5433 0.9476
-0.8228 1.5152 0.9466
-0.8769 1.4851 0.9456
-0.9298 1.4531 0.9446
-2.4934 3.6049 2.3969
-2.6244 3.5179 2.3969
-2.7524 3.4261 2.3969
-2.8772 3.3297 2.3969
-2.9985 3.2288 2.3969
-3.1162 3.1234 2.3969
-3.2301 3.0138 2.3969
-3.3402 2.9000 2.3969
-3.4461 2.7822 2.3969
-3.5478 2.6605 2.3969
-3.6452 2.5351 2.3969
-3.7380 2.4062 2.3969
-3.8261 2.2738 2.3969
-3.9095 2.1382 2.3969
-3.9879 1.9995 2.3969
-4.0614 1.8580 2.3969
-4.1297 1.7137 2.3969
-4.1927 1.5670 2.3969
-4.2504 1.4179 2.3969
-4.3026 1.2667 2.3969
-4.3493 1.1136 2.3969
-4.3904 0.9587 2.3969
-4.4259 0.8023 2.3969
-4.4556 0.6447 2.3969
-4.4796 0.4859 2.3969
-4.4977 0.3263 2.3969
-4.5099 0.1660 2.3969
-4.5163 0.0053 2.3969
-4.5168 -0.1556 2.3969
-4.5112 -0.3166 2.3969
-4.4999 -0.4772 2.3969
-4.4826 -0.6375 2.3969
-4.4594 -0.7970 2.3969
-4.4304 -0.9556 2.3969
-4.3954 -1.1131 2.3969
-4.3548 -1.2693 2.3969
-4.3083 -1.4239 2.3969
-4.2562 -1.5767 2.3969
-4.1984 -1.7276 2.3969
-4.1352 -1.8762 2.3969
-4.0664 -2.0224 2.3969
-3.9924 -2.1660 2.3969
-3.9130 -2.3067 2.3969
-3.8285 -2.4445 2.3969
-3.7390 -2.5790 2.3969
-3.6446 -2.7101 2.3969
-3.5454 -2.8377 2.3969
-3.4416 -2.9614 2.3969
-3.3334 -3.0813 2.3969
-3.2207 -3.1970 2.3969
-3.1040 -3.3085 2.3969
-2.9832 -3.4156 2.3969
-2.8586 -3.5181 2.3969
-2.7303 -3.6159 2.3969
-2.5986 -3.7089 2.3969
-2.4636 -3.7969 2.3969
-2.3255 -3.8799 2.3969
-2.1845 -3.9577 2.3969
-2.0408 -4.0303 2.3969
-1.8947 -4.0975 2.3969
-1.7462 -4.1592 2.3969
-1.5957 -4.2154 2.3969
-1.4433 -4.2660 2.3969
-1.2892 -4.3110 2.3969
-1.1337 -4.3502 2.3969
-0.9770 -4.3838 2.3969
-0.8193 -4.4115 2.3969
-0.6607 -4.4335 2.3969
-0.5016 -4.4496 2.3969
-0.3422 -4.4599 2.3969
-0.1826 -4.4644 2.3969
-0.0231 -4.4631 2.3969
0.1361 -4.4560 2.3969
0.2948 -4.4431 2.3969
0.4528 -4.4244 2.3969
0.6099 -4.4001 2.3969
0.7658 -4.3701 2.3969
0.9204 -4.3345 2.3969
1.0735 -4.2934 2.3969
1.2248 -4.2469 2.3969
1.3743 -4.1949 2.3969
1.5216 -4.1377 2.3969
1.6665 -4.0752 2.3969
1.8091 -4.0077 2.3969
1.9489 -3.9351 2.3969
2.0859 -3.8576 2.3969
2.2199 -3.7754 2.3969
2.3508 -3.6885 2.3969
2.4783 -3.5970 2.3969
2.6023 -3.5012 2.3969
2.7227 -3.4010 2.3969
2.8393 -3.2968 2.3969
2.9521 -3.1885 2.3969
3.0608 -3.0765 2.3969
3.1653 -2.9607 2.3969
3.2655 -2.8414 2.3969
3.3614 -2.7187 2.3969
3.4527 -2.5929 2.3969
3.5395 -2.4640 2.3969
3.6215 -2.3322 2.3969
3.6988 -2.1978 2.3969
3.7711 -2.0608 2.3969
3.8386 -1.9214 2.3969
3.9010 -1.7799 2.3969
3.9583 -1.6365 2.3969
4.0105 -1.4911 2.3969
4.0576 -1.3442 2.3969
4.0993 -1.1958 2.3969
4.1358 -1.0461 2.3969
4.1670 -0.8954 2.3969
4.1929 -0.7437 2.3969
4.2134 -0.5913 2.3969
4.2286 -0.4385 2.3969
4.2383 -0.2853 2.3969
4.2427 -0.1320 2.3969
4.2417 0.0214 2.3969
4.2354 0.1745 2.3969
4.2237 0.3272 2.3969
4.2066 0.4794 2.3969
4.1843 0.6309 2.3969
4.1567 0.7813 2.3969
4.1239 0.9307 2.3969
4.0859 1.0788 2.3969
4.0427 1.2254 2.3969
3.9945 1.3704 2.3969
3.9413 1.5135 2.3969
3.8831 1.6547 2.3969
3.8200 1.7938 2.3969
3.7521 1.9306 2.3969
3.6795 2.0649 2.3969
3.6023 2.1966 2.3969
3.5205 2.3255 2.3969
3.4343 2.4515 2.3969
3.3437 2.5744 2.3969
3.2489 2.6940 2.3969
3.1499 2.8104 2.3969
3.0469 2.9232 2.3969
2.9401 3.0323 2.3969
2.8294 3.1377 2.3969
2.7151 3.2392 2.3969
2.5973 3.3367 2.3969
2.4762 3.4301 2.3969
2.3518 3.5191 2.3969
0.8982 1.4553 0.9679
0.8452 1.4872 0.9676
0.7911 1.5171 0.9672
0.7360 1.5451 0.9668
0.6799 1.5711 0.9663
0.6229 1.5951 0.9658
0.5650 1.6170 0.9653
0.5064 1.6368 0.9648
0.4471 1.6544 0.9642
0.3872 1.6700 0.9636
0.3268 1.6833 0.9630
0.2660 1.6945 0.9623
0.2048 1.7035 0.9616
0.1433 1.7103 0.9609
0.0815 1.7148 0.9602
0.0197 1.7171 0.9594
-0.0422 1.7172 0.9586
-0.1040 1.7151 0.9578
-0.1657 1.7108 0.9570
-0.2273 1.7042 0.9561
-0.2885 1.6954 0.9553
-0.3494 1.6844 0.9544
-0.4099 1.6712 0.9535
-0.4699 1.6559 0.9526
-0.5292 1.6384 0.9516
-0.5879 1.6188 0.9507
-0.6459 1.5971 0.9497
-0.7030 1.5733 0.9487
-0.7592 1.5475 0.9477
-0.8145 1.5196 0.9467
-0.8687 1.4898 0.9457
-0.9218 1.4581 0.9447
-2.4731 3.6178 2.3969
-2.6046 3.5315 2.3969
-2.7331 3.4405 2.3969
-2.8583 3.3447 2.3969
-2.9802 3.2445 2.3969
-3.0985 3.1398 2.3969
-3.2130 3.0308 2.3969
-3.3236 2.9176 2.3969
-3.4302 2.8004 2.3969
-3.5326 2.6794 2.3969
-3.6306 2.5545 2.3969
-3.7241 2.4261 2.3969
-3.8130 2.2942 2.3969
-3.8971 2.1591 2.3969
-3.9763 2.0209 2.3969
-4.0505 1.8798 2.3969
-4.1196 1.7359 2.3969
-4.1834 1.5895 2.3969
-4.2419 1.4408 2.3969
-4.2950 1.2899 2.3969
-4.3426 1.1371 2.3969
-4.3845 0.9825 2.3969
-4.4209 0.8263 2.3969
-4.4515 0.6688 2.3969
-4.4763 0.5102 2.3969
-4.4953 0.3507 2.3969
-4.5084 0.1905 2.3969
-4.5157 0.0299 2.3969
-4.5171 -0.1310 2.3969
-4.5125 -0.2920 2.3969
-4.5020 -0.4528 2.3969
-4.4856 -0.6131 2.3969
-4.4633 -0.7727 2.3969
-4.4352 -0.9315 2.3969
-4.4012 -1.0892 2.3969
-4.3613 -1.2456 2.3969
-4.3158 -1.4004 2.3969
-4.2645 -1.5535 2.3969
-4.2076 -1.7047 2.3969
-4.1452 -1.8536 2.3969
-4.0773 -2.0002 2.3969
-4.0040 -2.1442 2.3969
-3.9255 -2.2854 2.3969
-3.8418 -2.4236 2.3969
-3.7530 -2.5587 2.3969
-3.6594 -2.6903 2.3969
-3.5609 -2.8184 2.3969
-3.4578 -2.9428 2.3969
-3.3502 -3.0632 2.3969
-3.2382 -3.1796 2.3969
-3.1221 -3.2917 2.3969
-3.0019 -3.3995 2.3969
-2.8779 -3.5027 2.3969
-2.7501 -3.6013 2.3969
-2.6189 -3.6950 2.3969
-2.4844 -3.7838 2.3969
-2.3468 -3.8676 2.3969
-2.2062 -3.9462 2.3969
-2.0629 -4.0196 2.3969
-1.9171 -4.0876 2.3969
-1.7690 -4.1501 2.3969
-1.6188 -4.2072 2.3969
-1.4666 -4.2586 2.3969
-1.3128 -4.3045 2.3969
-1.1575 -4.3446 2.3969
-1.0010 -4.3790 2.3969
-0.8434 -4.4076 2.3969
-0.6850 -4.4305 2.3969
-0.5260 -4.4475 2.3969
-0.3666 -4.4587 2.3969
-0.2070 -4.4641 2.3969
-0.0475 -4.4636 2.3969
0.1118 -4.4574 2.3969
0.2706 -4.4454 2.3969
0.4287 -4.4276 2.3969
0.5860 -4.4042 2.3969
0.7421 -4.3751 2.3969
0.8969 -4.3403 2.3969
1.0502 -4.3001 2.3969
1.2019 -4.2543 2.3969
1.3516 -4.2032 2.3969
1.4992 -4.1468 2.3969
1.6446 -4.0851 2.3969
1.7875 -4.0183 2.3969
1.9277 -3.9465 2.3969
2.0652 -3.8698 2.3969
2.1997 -3.7882 2.3969
2.3310 -3.7020 2.3969
2.4590 -3.6113 2.3969
2.5836 -3.5161 2.3969
2.7046 -3.4166 2.3969
2.8218 -3.3130 2.3969
2.9351 -3.2053 2.3969
3.0444 -3.0938 2.3969
3.1496 -2.9786 2.3969
3.2505 -2.8598 2.3969
3.3470 -2.7377 2.3969
3.4391 -2.6123 2.3969
3.5265 -2.4839 2.3969
3.6093 -2.3525 2.3969
3.6873 -2.2185 2.3969
3.7604 -2.0819 2.3969
3.8286 -1.9428 2.3969
3.8918 -1.8017 2.3969
3.9499 -1.6585 2.3969
4.0029 -1.5134 2.3969
4.0507 -1.3667 2.3969
4.0933 -1.2185 2.3969
4.1306 -1.0691 2.3969
4.1626 -0.9185 2.3969
4.1893 -0.7669 2.3969
4.2106 -0.6147 2.3969
4.2266 -0.4619 2.3969
4.2372 -0.3088 2.3969
4.2424 -0.1554 2.3969
4.2422 -0.0020 2.3969
4.2367 0.1512 2.3969
4.2258 0.3040 2.3969
4.2096 0.4562 2.3969
4.1881 0.6078 2.3969
4.1613 0.7584 2.3969
4.1292 0.9080 2.3969
4.0920 1.0562 2.3969
4.0497 1.2031 2.3969
4.0022 1.3483 2.3969
3.9497 1.4921 2.3969
3.8923 1.6333 2.3969
3.8300 1.7728 2.3969
3.7628 1.9098 2.3969
3.6909 2.0445 2.3969
3.6144 2.1766 2.3969
3.5333 2.3060 2.3969
3.4477 2.4324 2.3969
3.3578 2.5558 2.3969
3.2636 2.6760 2.3969
3.1653 2.7928 2.3969
3.0629 2.9062 2.3969
2.9566 3.0159 2.3969
2.8466 3.1219 2.3969
2.7328 3.2240 2.3969
2.6156 3.3221 2.3969
2.4949 3.4161 2.3969
2.3710 3.5058 2.3969
0.9062 1.4503 0.9680
0.8534 1.4824 0.9676
0.7995 1.5127 0.9672
0.7445 1.5410 0.9668
0.6885 1.5673 0.9664
0.6316 1.5915 0.9659
0.5739 1.6137 0.9654
0.5154 1.6339 0.9649
0.4562 1.6519 0.9643
0.3964 1.6677 0.9637
0.3361 1.6814 0.9631
0.2753 1.6929 0.9624
0.2141 1.7022 0.9618
0.1527 1.7094 0.9610
0.0910 1.7143 0.9603
0.0292 1.7169 0.9595
-0.0327 1.7174 0.9588
-0.0946 1.7156 0.9580
-0.1563 1.7116 0.9571
-0.2179 1.7053 0.9563
-0.2792 1.6969 0.9554
-0.3402 1.6862 0.9545
-0.4007 1.6734 0.9536
-0.4608 1.6584 0.9527
-0.5202 1.6412 0.9518
-0.5790 1.6219 0.9508
-0.6371 1.6005 0.9498
-0.6943 1.5771 0.9489
-0.7507 1.5515 0.9479
-0.8061 1.5240 0.9469
-0.8605 1.4945 0.9459
-0.9138 1.4631 0.9449
-2.4528 3.6306 2.3969
-2.5847 3.5450 2.3969
-2.7137 3.4547 2.3969
-2.8394 3.3597 2.3969
-2.9618 3.2601 2.3969
-3.0806 3.1561 2.3969
-3.1957 3.0477 2.3969
-3.3070 2.9352 2.3969
-3.4142 2.8186 2.3969
-3.5172 2.6981 2.3969
-3.6159 2.5738 2.3969
-3.7101 2.4459 2.3969
-3.7997 2.3146 2.3969
-3.8845 2.1799 2.3969
-3.9645 2.0422 2.3969
-4.0395 1.9015 2.3969
-4.1093 1.7581 2.3969
-4.1740 1.6121 2.3969
-4.2333 1.4637 2.3969
-4.2872 1.3131 2.3969
-4.3356 1.1605 2.3969
-4.3785 1.0062 2.3969
-4.4157 0.8502 2.3969
-4.4472 0.6930 2.3969
-4.4729 0.5345 2.3969
-4.4928 0.3751 2.3969
-4.5068 0.2150 2.3969
-4.5150 0.0544 2.3969
-4.5172 -0.1065 2.3969
-4.5136 -0.2674 2.3969
-4.5040 -0.4281 2.3969
-4.4885 -0.5886 2.3969
0.5992 -4.1687 2.3969
0.7469 -4.1397 2.3969
0.8934 -4.1054 2.3969
1.0383 -4.0658 2.3969
1.1816 -4.0211 2.3969
1.3231 -3.9713 2.3969
1.4625 -3.9164 2.3969
1.5998 -3.8566 2.3969
1.7347 -3.7920 2.3969
1.8670 -3.7227 2.3969
1.9966 -3.6487 2.3969
2.1234 -3.5702 2.3969
2.2472 -3.4872 2.3969
2.3678 -3.4000 2.3969
2.4851 -3.3086 2.3969
2.5989 -3.2132 2.3969
2.7091 -3.1138 2.3969
2.8157 -3.0107 2.3969
2.9184 -2.9039 2.3969
3.0171 -2.7937 2.3969
3.1118 -2.6801 2.3969
3.2022 -2.5634 2.3969
3.2884 -2.4436 2.3969
3.3703 -2.3209 2.3969
3.4476 -2.1955 2.3969
3.5204 -2.0676 2.3969
3.5886 -1.9373 2.3969
3.6520 -1.8048 2.3969
3.7107 -1.6702 2.3969
3.7646 -1.5337 2.3969
3.8135 -1.3956 2.3969
3.8576 -1.2559 2.3969
3.8966 -1.1148 2.3969
3.9307 -0.9727 2.3969
3.9597 -0.8293 2.3969
3.9836 -0.6852 2.3969
4.0024 -0.5405 2.3969
4.0161 -0.3953 2.3969
4.0248 -0.2497 2.3969
4.0283 -0.1041 2.3969
4.0266 0.0416 2.3969
4.0199 0.1870 2.3969
4.0081 0.3320 2.3969
3.9913 0.4764 2.3969
3.9694 0.6199 2.3969
3.9425 0.7631 2.3969
3.9106 0.9047 2.3969
3.8738 1.0451 2.3969
3.8322 1.1842 2.3969
3.7857 1.3218 2.3969
3.7344 1.4574 2.3969
3.6784 1.5913 2.3969
3.6178 1.7231 2.3969
3.5527 1.8527 2.3969
3.4830 1.9799 2.3969
3.4090 2.1046 2.3969
3.3306 2.2267 2.3969
3.2481 2.3459 2.3969
3.1614 2.4622 2.3969
3.0707 2.5754 2.3969
2.9761 2.6854 2.3969
2.8776 2.7920 2.3969
2.7755 2.8951 2.3969
2.6699 2.9947 2.3969
2.5607 3.0905 2.3969
2.4483 3.1824 2.3969
2.3327 3.2704 2.3969
0.8930 1.3530 0.9668
0.8437 1.3847 0.9665
0.7933 1.4147 0.9661
0.7418 1.4428 0.9658
0.6894 1.4690 0.9654
0.6360 1.4934 0.9650
0.5818 1.5158 0.9645
0.5268 1.5362 0.9640
0.4711 1.5547 0.9635
0.4148 1.5712 0.9629
0.3579 1.5856 0.9624
0.3006 1.5979 0.9618
0.2428 1.6082 0.9611
0.1847 1.6164 0.9605
0.1263 1.6225 0.9598
0.0678 1.6265 0.9591
0.0091 1.6284 0.9584
-0.0496 1.6282 0.9576
-0.1082 1.6258 0.9568
-0.1668 1.6214 0.9561
-0.2251 1.6148 0.9552
-0.2832 1.6062 0.9544
-0.3409 1.5954 0.9536
-0.3981 1.5826 0.9527
-0.4549 1.5677 0.9518
-0.5111 1.5508 0.9509
-0.5667 1.5319 0.9500
-0.6215 1.5110 0.9491
-0.6756 1.4882 0.9482
-0.7288 1.4634 0.9472
-0.7811 1.4367 0.9463
-0.8323 1.4082 0.9454
-0.8825 1.3778 0.9444
-0.9316 1.3456 0.9434
-2.4910 3.3359 2.3969
-2.6123 3.2487 2.3969
-2.7305 3.1570 2.3969
-2.8454 3.0612 2.3969
-2.9569 2.9611 2.3969
-3.0648 2.8570 2.3969
-3.1689 2.7489 2.3969
-3.2693 2.6371 2.3969
-3.3655 2.5216 2.3969
-3.4576 2.4026 2.3969
-3.5455 2.2802 2.3969
-3.6289 2.1546 2.3969
-3.7077 2.0259 2.3969
-3.7819 1.8944 2.3969
-3.8514 1.7601 2.3969
-3.9159 1.6233 2.3969
-3.9755 1.4842 2.3969
-4.0300 1.3428 2.3969
-4.0793 1.1994 2.3969
-4.1234 1.0543 2.3969
-4.1622 0.9075 2.3969
-4.1957 0.7593 2.3969
-4.2237 0.6098 2.3969
-4.2462 0.4594 2.3969
-4.2633 0.3081 2.3969
-4.2747 0.1563 2.3969
-4.2806 0.0040 2.3969
-4.2810 -0.1485 2.3969
-4.2757 -0.3009 2.3969
-4.2648 -0.4531 2.3969
-4.2483 -0.6049 2.3969
-4.2262 -0.7561 2.3969
-4.1986 -0.9064 2.3969
-4.1655 -1.0555 2.3969
-4.1269 -1.2034 2.3969
-4.0828 -1.3499 2.3969
-4.0334 -1.4946 2.3969
-3.9786 -1.6375 2.3969
-3.9187 -1.7783 2.3969
-3.8536 -1.9167 2.3969
-3.7834 -2.0527 2.3969
-3.7082 -2.1861 2.3969
-3.6282 -2.3165 2.3969
-3.5434 -2.4439 2.3969
-3.4540 -2.5682 2.3969
-3.3601 -2.6890 2.3969
-3.2618 -2.8062 2.3969
-3.1592 -2.9198 2.3969
-3.0526 -3.0295 2.3969
-2.9420 -3.1351 2.3969
-2.8276 -3.2366 2.3969
-2.7096 -3.3337 2.3969
-2.5882 -3.4265 2.3969
-2.4635 -3.5147 2.3969
-2.3356 -3.5981 2.3969
-2.2048 -3.6769 2.3969
-2.0713 -3.7507 2.3969
-1.9352 -3.8195 2.3969
-1.7968 -3.8833 2.3969
-1.6562 -3.9419 2.3969
-1.5136 -3.9953 2.3969
-1.3692 -4.0433 2.3969
-1.2233 -4.0861 2.3969
-1.0760 -4.1235 2.3969
-0.9275 -4.1554 2.3969
-0.7781 -4.1819 2.3969
-0.6279 -4.2028 2.3969
-0.4771 -4.2183 2.3969
-0.3260 -4.2282 2.3969
-0.1748 -4.2327 2.3969
-0.0236 -4.2316 2.3969
0.1274 -4.2251 2.3969
0.2778 -4.2130 2.3969
0.4276 -4.1956 2.3969
0.5766 -4.1727 2.3969
0.7245 -4.1445 2.3969
0.8711 -4.1110 2.3969
1.0163 -4.0722 2.3969
1.1599 -4.0283 2.3969
1.3016 -3.9792 2.3969
1.4414 -3.9251 2.3969
1.5790 -3.8661 2.3969
1.7142 -3.8022 2.3969
1.8470 -3.7336 2.3969
1.9770 -3.6603 2.3969
2.1043 -3.5824 2.3969
2.2285 -3.5002 2.3969
2.3496 -3.4136 2.3969
2.4674 -3.3228 2.3969
2.5817 -3.2280 2.3969
2.6925 -3.1292 2.3969
2.7997 -3.0267 2.3969
2.9029 -2.9205 2.3969
3.0023 -2.8107 2.3969
3.0976 -2.6977 2.3969
3.1887 -2.5814 2.3969
3.2756 -2.4621 2.3969
3.3580 -2.3398 2.3969
3.4361 -2.2148 2.3969
3.5096 -2.0873 2.3969
3.5785 -1.9573 2.3969
3.6426 -1.8251 2.3969
3.7021 -1.6909 2.3969
3.7567 -1.5547 2.3969
3.8064 -1.4168 2.3969
3.8512 -1.2773 2.3969
3.8910 -1.1364 2.3969
3.9258 -0.9940 2.3969
3.9556 -0.8512 2.3969
3.9803 -0.7073 2.3969
3.9999 -0.5626 2.3969
4.0144 -0.4175 2.3969
4.0238 -0.2720 2.3969
4.0281 -0.1263 2.3969
4.0272 0.0193 2.3969
4.0213 0.1648 2.3969
4.0103 0.3099 2.3969
3.9942 0.4544 2.3969
3.9731 0.5982 2.3969
3.9469 0.7411 2.3969
3.9158 0.8831 2.3969
3.8798 1.0238 2.3969
3.8388 1.1630 2.3969
3.7931 1.3009 2.3969
3.7425 1.4368 2.3969
3.6873 1.5710 2.3969
3.6274 1.7031 2.3969
3.5629 1.8331 2.3969
3.4940 1.9606 2.3969
3.4206 2.0857 2.3969
3.3429 2.2082 2.3969
3.2610 2.3279 2.3969
3.1749 2.4446 2.3969
3.0848 2.5583 2.3969
2.9908 2.6688 2.3969
2.8929 2.7759 2.3969
2.7914 2.8796 2.3969
2.6862 2.9797 2.3969
2.5776 3.0761 2.3969
2.4657 3.1686 2.3969
2.3505 3.2572 2.3969
0.9004 1.3480 0.9668
0.8513 1.3800 0.9665
0.8011 1.4102 0.9662
0.7498 1.4386 0.9658
0.6974 1.4651 0.9654
0.6442 1.4898 0.9650
0.5901 1.5125 0.9646
0.5353 1.5333 0.9641
0.4797 1.5520 0.9636
0.4234 1.5688 0.9630
0.3666 1.5835 0.9625
0.3094 1.5962 0.9619
0.2516 1.6068 0.9612
0.1936 1.6153 0.9606
0.1352 1.6217 0.9599
0.0767 1.6260 0.9592
0.0181 1.6282 0.9585
-0.0406 1.6283 0.9577
-0.0993 1.6263 0.9570
-0.1578 1.6222 0.9562
-0.2162 1.6159 0.9554
-0.2743 1.6076 0.9545
-0.3321 1.5972 0.9537
-0.3894 1.5847 0.9528
-0.4463 1.5701 0.9520
-0.5026 1.5536 0.9511
-0.5583 1.5350 0.9502
-0.6132 1.5144 0.9493
-0.6674 1.4918 0.9483
-0.7207 1.4673 0.9474
-0.7731 1.4409 0.9465
-0.8246 1.4126 0.9455
-0.8749 1.3825 0.9445
-0.9242 1.3507 0.9436
-2.4723 3.3488 2.3969
-2.5940 3.2623 2.3969
-2.7126 3.1713 2.3969
-2.8281 3.0761 2.3969
-2.9401 2.9766 2.3969
-3.0485 2.8731 2.3969
-3.1533 2.7657 2.3969
-3.2542 2.6544 2.3969
-3.3511 2.5394 2.3969
-3.4439 2.4210 2.3969
-3.5323 2.2991 2.3969
-3.6164 2.1740 2.3969
-3.6960 2.0458 2.3969
-3.7709 1.9147 2.3969
-3.8411 1.7808 2.3969
-3.9064 1.6444 2.3969
-3.9667 1.5056 2.3969
-4.0220 1.3645 2.3969
-4.0721 1.2215 2.3969
-4.1170 1.0765 2.3969
-4.1567 0.9300 2.3969
-4.1909 0.7820 2.3969
-4.2198 0.6327 2.3969
-4.2432 0.4824 2.3969
-4.2610 0.3313 2.3969
-4.2734 0.1795 2.3969
-4.2801 0.0273 2.3969
-4.2813 -0.1252 2.3969
-4.2769 -0.2776 2.3969
-4.2666 -0.4301 2.3969
-4.2511 -0.5819 2.3969
-4.2299 -0.7330 2.3969
-4.2033 -0.8833 2.3969
-4.1709 -1.0328 2.3969
-4.1331 -1.1809 2.3969
-4.0899 -1.3276 2.3969
-4.0413 -1.4726 2.3969
-3.9873 -1.6158 2.3969
-3.9282 -1.7569 2.3969
-3.8638 -1.8957 2.3969
-3.7944 -2.0321 2.3969
-3.7200 -2.1659 2.3969
-3.6407 -2.2968 2.3969
-3.5566 -2.4247 2.3969
-3.4679 -2.5494 2.3969
-3.3747 -2.6707 2.3969
-3.2770 -2.7886 2.3969
-3.1751 -2.9027 2.3969
-3.0691 -3.0130 2.3969
-2.9591 -3.1192 2.3969
-2.8453 -3.2214 2.3969
-2.7279 -3.3192 2.3969
-2.6070 -3.4126 2.3969
-2.4827 -3.5015 2.3969
-2.3553 -3.5857 2.3969
-2.2250 -3.6651 2.3969
-2.0919 -3.7397 2.3969
-1.9562 -3.8093 2.3969
-1.8181 -3.8739 2.3969
-1.6778 -3.9333 2.3969
-1.5355 -3.9874 2.3969
-1.3914 -4.0363 2.3969
-1.2457 -4.0799 2.3969
-1.0986 -4.1181 2.3969
-0.9503 -4.1509 2.3969
-0.8009 -4.1782 2.3969
-0.6508 -4.2000 2.3969
-0.5002 -4.2163 2.3969
-0.3491 -4.2271 2.3969
-0.1979 -4.2324 2.3969
-0.0466 -4.2321 2.3969
0.1043 -4.2264 2.3969
0.2549 -4.2152 2.3969
0.4048 -4.1986 2.3969
0.5539 -4.1766 2.3969
0.7020 -4.1491 2.3969
0.8488 -4.1164 2.3969
0.9942 -4.0785 2.3969
1.1380 -4.0353 2.3969
1.2801 -3.9870 2.3969
1.4202 -3.9337 2.3969
1.5581 -3.8754 2.3969
1.6937 -3.8123 2.3969
1.8269 -3.7444 2.3969
1.9573 -3.6718 2.3969
2.0850 -3.5946 2.3969
2.2097 -3.5130 2.3969
2.3313 -3.4271 2.3969
2.4496 -3.3369 2.3969
2.5645 -3.2427 2.3969
2.6759 -3.1445 2.3969
2.7835 -3.0426 2.3969
2.8874 -2.9369 2.3969
2.9874 -2.8277 2.3969
3.0833 -2.7152 2.3969
3.1751 -2.5993 2.3969
3.2626 -2.4805 2.3969
3.3457 -2.3587 2.3969
3.4245 -2.2341 2.3969
3.4987 -2.1069 2.3969
3.5682 -1.9773 2.3969
3.6331 -1.8455 2.3969
3.6933 -1.7115 2.3969
3.7486 -1.5756 2.3969
3.7991 -1.4379 2.3969
3.8446 -1.2987 2.3969
3.8852 -1.1581 2.3969
3.9208 -1.0161 2.3969
3.9513 -0.8733 2.3969
3.9768 -0.7293 2.3969
3.9972 -0.5848 2.3969
4.0125 -0.4397 2.3969
4.0227 -0.2942 2.3969
4.0277 -0.1485 2.3969
4.0277 -0.0029 2.3969
4.0225 0.1426 2.3969
4.0123 0.2877 2.3969
3.9970 0.4324 2.3969
3.9766 0.5764 2.3969
3.9512 0.7195 2.3969
3.9209 0.8615 2.3969
3.8856 1.0024 2.3969
3.8454 1.1419 2.3969
3.8004 1.2799 2.3969
3.7506 1.4162 2.3969
3.6960 1.5506 2.3969
3.6368 1.6831 2.3969
3.5731 1.8134 2.3969
3.5048 1.9413 2.3969
3.4321 2.0668 2.3969
3.3550 2.1897 2.3969
3.2737 2.3098 2.3969
3.1883 2.4270 2.3969
3.0988 2.5412 2.3969
3.0054 2.6521 2.3969
2.9081 2.7598 2.3969
2.8071 2.8640 2.3969
2.7025 2.9646 2.3969
2.5944 3.0616 2.3969
2.4830 3.1547 2.3969
2.3683 3.2440 2.3969
2.2506 3.3291 2.3969
0.8589 1.3752 0.9666
0.8088 1.4057 0.9662
0.7577 1.4344 0.9659
0.7055 1.4612 0.9655
0.6524 1.4861 0.9651
0.5984 1.5092 0.9646
0.5437 1.5302 0.9642
0.4882 1.5493 0.9637
0.4321 1.5663 0.9631
0.3754 1.5814 0.9626
0.3181 1.5944 0.9620
0.2605 1.6053 0.9613
0.2025 1.6141 0.9607
0.1442 1.6209 0.9600
0.0857 1.6255 0.9593
0.0270 1.6280 0.9586
-0.0317 1.6284 0.9579
-0.0903 1.6268 0.9571
-0.1489 1.6229 0.9563
-0.2073 1.6170 0.9555
-0.2655 1.6090 0.9547
-0.3233 1.5989 0.9538
-0.3807 1.5867 0.9530
-0.4376 1.5725 0.9521
