ply
format ascii 1.0
element vertex 2171
property float32 x
property float32 y
property float32 z
end_header
-7.9863 -1.7732 2.3961
-7.9225 -2.0591 2.3961
-7.8480 -2.3430 2.3961
-7.7628 -2.6234 2.3961
-7.6671 -2.9010 2.3961
-7.5609 -3.1745 2.3961
-7.4445 -3.4438 2.3961
-7.3179 -3.7088 2.3961
-7.1815 -3.9689 2.3961
-7.0354 -4.2237 2.3961
-6.8797 -4.4727 2.3961
-6.7148 -4.7158 2.3961
-6.5408 -4.9524 2.3961
-6.3581 -5.1823 2.3961
-6.1669 -5.4050 2.3961
-5.9674 -5.6204 2.3961
-5.7601 -5.8280 2.3961
-5.5452 -6.0276 2.3961
-5.3230 -6.2189 2.3961
-5.0939 -6.4016 2.3961
-4.8583 -6.5755 2.3961
-4.6164 -6.7403 2.3961
-4.3687 -6.8958 2.3961
-4.1155 -7.0418 2.3961
-3.8572 -7.1781 2.3961
-3.5942 -7.3045 2.3961
-3.3269 -7.4209 2.3961
-3.0557 -7.5272 2.3961
-2.7809 -7.6231 2.3961
-2.5031 -7.7087 2.3961
-2.2226 -7.7838 2.3961
-1.9398 -7.8483 2.3961
-1.6551 -7.9022 2.3961
-1.3690 -7.9455 2.3961
-1.0818 -7.9780 2.3961
-0.7940 -8.0000 2.3961
-0.5059 -8.0112 2.3961
-0.2181 -8.0119 2.3961
0.0692 -8.0019 2.3961
0.3556 -7.9814 2.3961
0.6406 -7.9505 2.3961
0.9238 -7.9092 2.3961
1.2049 -7.8578 2.3961
1.4834 -7.7962 2.3961
1.7592 -7.7242 2.3961
2.0317 -7.6426 2.3961
2.3007 -7.5513 2.3961
2.5657 -7.4505 2.3961
2.8265 -7.3401 2.3961
3.0826 -7.2210 2.3961
3.3340 -7.0925 2.3961
3.5800 -6.9556 2.3961
3.8206 -6.8100 2.3961
3.9558 -6.4927 2.3373
4.0599 -6.1544 2.2707
4.2200 -5.9224 2.2437
4.4222 -5.7562 2.2437
4.6179 -5.5834 2.2437
4.8071 -5.4040 2.2437
4.9894 -5.2183 2.2437
5.1648 -5.0265 2.2437
5.3330 -4.8290 2.2437
5.4938 -4.6259 2.2437
5.6471 -4.4177 2.2437
5.7927 -4.2045 2.2437
5.9305 -3.9866 2.2437
6.0603 -3.7644 2.2437
6.1821 -3.5380 2.2437
6.2956 -3.3079 2.2437
6.4009 -3.0742 2.2437
6.4978 -2.8374 2.2437
6.5862 -2.5976 2.2437
6.6661 -2.3553 2.2437
6.7374 -2.1105 2.2437
6.8001 -1.8638 2.2437
6.8540 -1.6154 2.2437
6.8992 -1.3655 2.2437
6.9357 -1.1145 2.2437
6.9635 -0.8627 2.2437
6.9824 -0.6103 2.2437
6.9926 -0.3576 2.2437
6.9941 -0.1050 2.2437
6.9868 0.1472 2.2437
6.9708 0.3989 2.2437
6.9462 0.6496 2.2437
6.9129 0.8992 2.2437
6.8711 1.1473 2.2437
6.8208 1.3936 2.2437
6.7621 1.6379 2.2437
6.6951 1.8800 2.2437
6.6198 2.1195 2.2437
6.5363 2.3561 2.2437
6.4448 2.5898 2.2437
6.4966 2.8870 2.2972
6.5708 3.2090 2.3635
6.5389 3.4912 2.3961
6.4081 3.7248 2.3961
6.2692 3.9535 2.3961
6.1226 4.1775 2.3961
5.9684 4.3962 2.3961
5.8068 4.6096 2.3961
5.6378 4.8173 2.3961
5.4618 5.0192 2.3961
5.2789 5.2149 2.3961
5.0893 5.4043 2.3961
4.8932 5.5872 2.3961
4.6909 5.7633 2.3961
4.4825 5.9323 2.3961
4.2683 6.0943 2.3961
4.0484 6.2488 2.3961
3.8233 6.3958 2.3961
3.5930 6.5350 2.3961
3.3578 6.6663 2.3961
3.1181 6.7895 2.3961
2.8740 6.9045 2.3961
2.6258 7.0110 2.3961
2.3738 7.1089 2.3961
0.8665 2.9445 0.9802
0.7600 2.9745 0.9792
0.6524 3.0006 0.9782
0.5439 3.0229 0.9772
0.4347 3.0412 0.9761
0.3248 3.0555 0.9749
0.2146 3.0659 0.9737
0.1040 3.0722 0.9725
-0.0068 3.0746 0.9712
-0.1175 3.0729 0.9699
-0.2282 3.0672 0.9686
-0.3386 3.0575 0.9672
-0.4485 3.0439 0.9658
-0.5579 3.0262 0.9643
-0.6665 3.0047 0.9629
-0.7744 2.9792 0.9614
-0.8812 2.9498 0.9598
-2.4677 7.2928 2.3961
-2.7333 7.2121 2.3961
-2.9962 7.1218 2.3961
-3.2563 7.0221 2.3961
-3.5130 6.9129 2.3961
-3.7661 6.7945 2.3961
-4.0152 6.6669 2.3961
-4.2600 6.5302 2.3961
-4.5001 6.3846 2.3961
-4.7352 6.2302 2.3961
-4.9650 6.0672 2.3961
-5.1892 5.8956 2.3961
-5.4073 5.7158 2.3961
-5.6192 5.5280 2.3961
-5.8244 5.3322 2.3961
-6.0227 5.1289 2.3961
-6.2138 4.9181 2.3961
-6.3974 4.6999 2.3961
-6.5732 4.4750 2.3961
-6.7409 4.2435 2.3961
-6.9002 4.0057 2.3961
-7.0510 3.7618 2.3961
-7.1928 3.5121 2.3961
-7.3256 3.2571 2.3961
-7.4491 2.9970 2.3961
-7.5631 2.7321 2.3961
-7.6673 2.4629 2.3961
-7.7616 2.1896 2.3961
-7.8459 1.9127 2.3961
-7.9199 1.6325 2.3961
-7.9835 1.3494 2.3961
-8.0366 1.0639 2.3961
-8.0790 0.7762 2.3961
-8.1108 0.4869 2.3961
-8.1317 0.1963 2.3961
-8.1418 -0.0951 2.3961
-8.1410 -0.3870 2.3961
-8.1292 -0.6788 2.3961
-8.1065 -0.9702 2.3961
-8.0729 -1.2608 2.3961
-8.0283 -1.5501 2.3961
-7.9729 -1.8378 2.3961
-7.9067 -2.1232 2.3961
-7.8297 -2.4063 2.3961
-7.7421 -2.6858 2.3961
-7.6441 -2.9630 2.3961
-7.5356 -3.2355 2.3961
-7.4168 -3.5039 2.3961
-7.2881 -3.7678 2.3961
-7.1494 -4.0267 2.3961
-7.0011 -4.2803 2.3961
-6.8434 -4.5280 2.3961
-6.6764 -4.7696 2.3961
-6.5004 -5.0048 2.3961
-6.3158 -5.2331 2.3961
-6.1227 -5.4542 2.3961
-5.9214 -5.6679 2.3961
-5.7124 -5.8737 2.3961
-5.4958 -6.0714 2.3961
-5.2720 -6.2608 2.3961
-5.0414 -6.4415 2.3961
-4.8043 -6.6134 2.3961
-4.5611 -6.7761 2.3961
-4.3121 -6.9295 2.3961
-4.0578 -7.0733 2.3961
-3.7984 -7.2074 2.3961
-3.5343 -7.3316 2.3961
-3.2661 -7.4457 2.3961
-2.9941 -7.5497 2.3961
-2.7186 -7.6433 2.3961
-2.4401 -7.7265 2.3961
-2.1591 -7.7992 2.3961
-1.8758 -7.8613 2.3961
-1.5908 -7.9129 2.3961
-1.3044 -7.9537 2.3961
-1.0170 -7.9839 2.3961
-0.7291 -8.0034 2.3961
-0.4411 -8.0123 2.3961
-0.1533 -8.0105 2.3961
0.1338 -7.9982 2.3961
0.4199 -7.9754 2.3961
0.7045 -7.9421 2.3961
0.9873 -7.8984 2.3961
1.2679 -7.8444 2.3961
1.5458 -7.7811 2.3961
1.8209 -7.7067 2.3961
2.0926 -7.6229 2.3961
2.3607 -7.5295 2.3961
2.6248 -7.4265 2.3961
2.8846 -7.3143 2.3961
3.1396 -7.1929 2.3961
3.3898 -7.0626 2.3961
3.6347 -6.9235 2.3961
3.8702 -6.7697 2.3938
3.9799 -6.4147 2.3217
4.0832 -6.0835 2.2572
4.2662 -5.8851 2.2437
4.4668 -5.7179 2.2437
4.6611 -5.5436 2.2437
4.8487 -5.3627 2.2437
5.0295 -5.1756 2.2437
5.2033 -4.9825 2.2437
-2.8780 -6.9247 2.3961
-2.6255 -7.0160 2.3961
-2.3699 -7.0977 2.3961
-2.1118 -7.1698 2.3961
-1.8514 -7.2322 2.3961
-1.5892 -7.2848 2.3961
-1.3255 -7.3277 2.3961
-1.0607 -7.3607 2.3961
-0.7952 -7.3839 2.3961
-0.5293 -7.3973 2.3961
-0.2634 -7.4009 2.3961
0.0021 -7.3947 2.3961
0.2668 -7.3788 2.3961
0.5304 -7.3532 2.3961
0.7925 -7.3181 2.3961
1.0528 -7.2734 2.3961
1.3109 -7.2195 2.3961
1.5665 -7.1563 2.3961
1.8194 -7.0835 2.3961
2.0690 -7.0020 2.3961
2.3151 -6.9116 2.3961
2.5574 -6.8125 2.3961
2.7957 -6.7049 2.3961
3.0294 -6.5892 2.3961
3.2586 -6.4648 2.3961
3.4828 -6.3326 2.3961
3.7017 -6.1928 2.3961
3.9151 -6.0454 2.3961
4.1123 -5.8757 2.3900
4.2059 -5.5716 2.3304
4.2943 -5.2825 2.2765
4.4097 -5.0423 2.2437
4.5805 -4.8723 2.2437
4.7449 -4.6966 2.2437
4.9027 -4.5153 2.2437
5.0538 -4.3289 2.2437
5.1980 -4.1376 2.2437
5.3351 -3.9415 2.2437
5.4650 -3.7410 2.2437
5.5876 -3.5363 2.2437
5.7027 -3.3278 2.2437
5.8103 -3.1156 2.2437
5.9102 -2.9000 2.2437
6.0024 -2.6814 2.2437
6.0867 -2.4599 2.2437
6.1632 -2.2359 2.2437
6.2316 -2.0097 2.2437
6.2921 -1.7815 2.2437
6.3445 -1.5515 2.2437
6.3888 -1.3201 2.2437
6.4250 -1.0876 2.2437
6.4530 -0.8542 2.2437
6.4729 -0.6202 2.2437
6.4847 -0.3859 2.2437
6.4883 -0.1515 2.2437
6.4837 0.0827 2.2437
6.4711 0.3164 2.2437
6.4504 0.5493 2.2437
6.4217 0.7813 2.2437
6.3849 1.0119 2.2437
6.3403 1.2410 2.2437
6.2878 1.4683 2.2437
6.2276 1.6936 2.2437
6.2460 1.9434 2.2752
6.3097 2.2160 2.3270
6.3759 2.5016 2.3840
6.3116 2.7432 2.3961
6.2071 2.9688 2.3961
6.0949 3.1905 2.3961
5.9751 3.4082 2.3961
5.8479 3.6216 2.3961
5.7134 3.8306 2.3961
5.5717 4.0348 2.3961
5.4231 4.2340 2.3961
5.2678 4.4280 2.3961
5.1057 4.6165 2.3961
4.9373 4.7994 2.3961
4.7625 4.9765 2.3961
4.5817 5.1474 2.3961
4.3950 5.3122 2.3961
4.2026 5.4704 2.3961
4.0049 5.6222 2.3961
3.8018 5.7667 2.3961
3.5937 5.9044 2.3961
3.3808 6.0349 2.3961
3.1634 6.1581 2.3961
2.9417 6.2737 2.3961
2.7159 6.3817 2.3961
2.4863 6.4819 2.3961
0.9198 2.6839 0.9782
0.8226 2.7160 0.9774
0.7243 2.7445 0.9765
0.6250 2.7695 0.9756
0.5248 2.7908 0.9747
0.4239 2.8086 0.9737
0.3225 2.8226 0.9726
0.2206 2.8330 0.9715
0.1184 2.8397 0.9704
0.0160 2.8427 0.9692
-0.0865 2.8420 0.9680
-0.1889 2.8376 0.9668
-0.2910 2.8294 0.9655
-0.3928 2.8176 0.9642
-0.4941 2.8022 0.9629
-0.5947 2.7830 0.9615
-0.6946 2.7602 0.9601
-0.7936 2.7339 0.9587
-0.8916 2.7039 0.9573
-2.4779 6.6944 2.3961
-2.7216 6.6120 2.3961
-2.9627 6.5209 2.3961
-3.2007 6.4210 2.3961
-3.4353 6.3125 2.3961
-3.6663 6.1956 2.3961
-3.8932 6.0702 2.3961
-4.1159 5.9366 2.3961
-4.3340 5.7948 2.3961
-4.5471 5.6451 2.3961
-4.7551 5.4875 2.3961
-4.9575 5.3222 2.3961
-5.1541 5.1495 2.3961
-5.3446 4.9695 2.3961
-5.5287 4.7825 2.3961
-5.7062 4.5885 2.3961
-5.8768 4.3880 2.3961
-6.0401 4.1811 2.3961
-6.1961 3.9676 2.3961
-6.3443 3.7490 2.3961
-6.4846 3.5247 2.3961
-6.6168 3.2947 2.3961
-6.7406 3.0601 2.3961
-6.8559 2.8205 2.3961
-6.9625 2.5761 2.3961
-7.0599 2.3287 2.3961
-7.1483 2.0770 2.3961
-7.2275 1.8219 2.3961
-7.2972 1.5638 2.3961
-7.3575 1.3029 2.3961
-7.4080 1.0398 2.3961
-7.4488 0.7747 2.3961
-7.4797 0.5080 2.3961
-7.5007 0.2402 2.3961
-7.5117 -0.0285 2.3961
-7.5128 -0.2984 2.3961
-7.5037 -0.5672 2.3961
-7.4845 -0.8359 2.3961
-7.4554 -1.1041 2.3961
-7.4161 -1.3709 2.3961
-7.3669 -1.6367 2.3961
-7.3078 -1.9002 2.3961
-7.2387 -2.1614 2.3961
-7.1599 -2.4202 2.3961
-7.0714 -2.6759 2.3961
-6.9734 -2.9281 2.3961
-6.8659 -3.1766 2.3961
-6.7492 -3.4208 2.3961
-6.6233 -3.6606 2.3961
-6.4886 -3.8954 2.3961
-6.3450 -4.1251 2.3961
-6.1930 -4.3492 2.3961
-6.0327 -4.5674 2.3961
-5.8643 -4.7794 2.3961
-5.6881 -4.9849 2.3961
-5.5044 -5.1836 2.3961
-5.3134 -5.3752 2.3961
-5.1154 -5.5594 2.3961
-4.9107 -5.7360 2.3961
-4.6997 -5.9047 2.3961
-4.4826 -6.0653 2.3961
-4.2597 -6.2176 2.3961
-4.0315 -6.3614 2.3961
-3.7982 -6.4965 2.3961
-3.5602 -6.6226 2.3961
-3.3178 -6.7397 2.3961
-3.0715 -6.8476 2.3961
-2.8215 -6.9461 2.3961
-2.5682 -7.0352 2.3961
-2.3120 -7.1148 2.3961
-2.0534 -7.1847 2.3961
-1.7925 -7.2449 2.3961
-1.5299 -7.2953 2.3961
-1.2660 -7.3360 2.3961
-1.0010 -7.3668 2.3961
-0.7353 -7.3878 2.3961
-0.4694 -7.3990 2.3961
-0.2036 -7.4003 2.3961
0.0617 -7.3920 2.3961
0.3262 -7.3739 2.3961
0.5895 -7.3461 2.3961
0.8513 -7.3088 2.3961
1.1112 -7.2620 2.3961
1.3688 -7.2058 2.3961
1.6237 -7.1406 2.3961
1.8759 -7.0659 2.3961
2.1247 -6.9824 2.3961
2.3700 -6.8901 2.3961
2.6115 -6.7890 2.3961
2.8487 -6.6795 2.3961
3.0815 -6.5617 2.3961
3.3095 -6.4357 2.3961
3.5325 -6.3019 2.3961
3.7503 -6.1602 2.3961
3.9624 -6.0112 2.3961
4.1339 -5.8057 2.3761
4.2262 -5.5053 2.3178
4.3136 -5.2192 2.2651
4.4486 -5.0047 2.2437
4.6180 -4.8332 2.2437
4.7810 -4.6562 2.2437
4.9373 -4.4738 2.2437
5.0869 -4.2863 2.2437
5.2295 -4.0938 2.2437
5.3649 -3.8967 2.2437
5.4932 -3.6953 2.2437
5.6141 -3.4897 2.2437
5.7276 -3.2803 2.2437
5.8334 -3.0673 2.2437
5.9316 -2.8510 2.2437
6.0220 -2.6318 2.2437
6.1046 -2.4097 2.2437
6.1793 -2.1852 2.2437
6.2460 -1.9585 2.2437
6.3046 -1.7298 2.2437
6.3552 -1.4995 2.2437
6.3977 -1.2679 2.2437
6.4320 -1.0351 2.2437
6.4582 -0.8016 2.2437
6.4763 -0.5674 2.2437
6.4862 -0.3331 2.2437
6.4879 -0.0987 2.2437
6.4816 0.1354 2.2437
6.4671 0.3689 2.2437
6.4446 0.6017 2.2437
6.4141 0.8333 2.2437
6.3756 1.0636 2.2437
6.3292 1.2923 2.2437
6.2749 1.5192 2.2437
6.2129 1.7440 2.2437
6.2601 2.0036 2.2865
6.3244 2.2792 2.3394
6.3873 2.5661 2.3961
6.2888 2.7945 2.3961
6.1825 3.0189 2.3961
6.0686 3.2399 2.3961
5.9471 3.4566 2.3961
5.8182 3.6691 2.3961
5.6821 3.8770 2.3961
5.5389 4.0801 2.3961
5.3887 4.2781 2.3961
5.2318 4.4709 2.3961
5.0683 4.6582 2.3961
4.8984 4.8398 2.3961
4.7223 5.0155 2.3961
4.5402 5.1851 2.3961
4.3522 5.3483 2.3961
4.1586 5.5051 2.3961
3.9595 5.6551 2.3961
3.7553 5.7983 2.3961
3.5462 5.9344 2.3961
3.3322 6.0633 2.3961
3.1138 6.1848 2.3961
2.8912 6.2987 2.3961
2.6645 6.4050 2.3961
2.4341 6.5033 2.3961
0.8981 2.6914 0.9781
0.8006 2.7227 0.9772
0.7020 2.7505 0.9763
0.6025 2.7746 0.9754
0.5022 2.7951 0.9744
0.4011 2.8121 0.9734
0.2996 2.8253 0.9724
0.1976 2.8348 0.9713
0.0953 2.8407 0.9701
-0.0071 2.8429 0.9690
-0.1096 2.8413 0.9678
-0.2119 2.8361 0.9665
-0.3140 2.8271 0.9652
-0.4156 2.8145 0.9639
-0.5168 2.7982 0.9626
-0.6173 2.7782 0.9612
-0.7170 2.7546 0.9598
-0.8158 2.7274 0.9584
-0.9135 2.6967 0.9570
-2.5330 6.6767 2.3961
-2.7762 6.5923 2.3961
-3.0165 6.4991 2.3961
-3.2538 6.3973 2.3961
-3.4876 6.2870 2.3961
-3.7177 6.1681 2.3961
-3.9438 6.0408 2.3961
-4.1654 5.9054 2.3961
-4.3824 5.7618 2.3961
-4.5944 5.6102 2.3961
-4.8011 5.4509 2.3961
-5.0023 5.2840 2.3961
-5.1975 5.1096 2.3961
-5.3866 4.9280 2.3961
-5.5693 4.7394 2.3961
-5.7452 4.5439 2.3961
-5.9142 4.3420 2.3961
-6.0759 4.1336 2.3961
-6.2301 3.9192 2.3961
-6.3766 3.6991 2.3961
-6.5151 3.4733 2.3961
-6.6454 3.2424 2.3961
-6.7674 3.0062 2.3961
-6.8806 2.7661 2.3961
-6.9851 2.5209 2.3961
-7.0806 2.2723 2.3961
-7.1670 2.0198 2.3961
-7.2440 1.7640 2.3961
-7.3116 1.5053 2.3961
-7.3697 1.2439 2.3961
-7.4180 0.9803 2.3961
-7.4566 0.7148 2.3961
-7.4853 0.4478 2.3961
-7.5040 0.1797 2.3961
-7.5128 -0.0891 2.3961
-7.5116 -0.3586 2.3961
-7.5002 -0.6277 2.3961
-7.4789 -0.8967 2.3961
-7.4474 -1.1643 2.3961
-7.4059 -1.4311 2.3961
-7.3545 -1.6964 2.3961
-7.2930 -1.9592 2.3961
-7.2218 -2.2198 2.3961
-7.1408 -2.4781 2.3961
-7.0502 -2.7330 2.3961
-6.9500 -2.9844 2.3961
-6.8404 -3.2319 2.3961
-6.7216 -3.4752 2.3961
-6.5938 -3.7139 2.3961
-6.4570 -3.9476 2.3961
-6.3115 -4.1761 2.3961
-6.1576 -4.3988 2.3961
-5.9955 -4.6156 2.3961
-5.8253 -4.8263 2.3961
-5.6474 -5.0302 2.3961
-5.4620 -5.2273 2.3961
-5.2694 -5.4173 2.3961
-5.0699 -5.5998 2.3961
-4.8637 -5.7747 2.3961
-4.6513 -5.9416 2.3961
-4.4329 -6.1004 2.3961
-4.2088 -6.2507 2.3961
-3.9794 -6.3926 2.3961
-3.7450 -6.5256 2.3961
-3.5060 -6.6498 2.3961
-3.2627 -6.7648 2.3961
-3.0154 -6.8706 2.3961
-2.7647 -6.9670 2.3961
-2.5107 -7.0540 2.3961
-2.2540 -7.1313 2.3961
-1.9948 -7.1991 2.3961
-1.7335 -7.2571 2.3961
-1.4706 -7.3053 2.3961
-1.2064 -7.3437 2.3961
-0.9412 -7.3724 2.3961
-0.6755 -7.3912 2.3961
-0.4095 -7.4001 2.3961
-0.1438 -7.3993 2.3961
0.1214 -7.3887 2.3961
0.3857 -7.3685 2.3961
0.6486 -7.3386 2.3961
0.9100 -7.2991 2.3961
1.1694 -7.2502 2.3961
1.4264 -7.1918 2.3961
1.6807 -7.1249 2.3961
1.9322 -7.0479 2.3961
2.1803 -6.9624 2.3961
2.4247 -6.8680 2.3961
2.6653 -6.7651 2.3961
2.9016 -6.6535 2.3961
3.1333 -6.5339 2.3961
3.3602 -6.4062 2.3961
3.5821 -6.2705 2.3961
3.7986 -6.1272 2.3961
4.0094 -5.9765 2.3961
4.1552 -5.7367 2.3624
4.2463 -5.4396 2.3054
4.3349 -5.1594 2.2551
4.4874 -4.9664 2.2437
4.6553 -4.7939 2.2437
4.8168 -4.6156 2.2437
-2.6705 -6.4217 2.3961
-2.4365 -6.5067 2.3961
-2.1997 -6.5829 2.3961
-1.9605 -6.6503 2.3961
-1.7192 -6.7087 2.3961
-1.4761 -6.7580 2.3961
-1.2316 -6.7983 2.3961
-0.9861 -6.8296 2.3961
-0.7398 -6.8517 2.3961
-0.4932 -6.8648 2.3961
-0.2465 -6.8688 2.3961
-0.0002 -6.8637 2.3961
0.2455 -6.8496 2.3961
0.4902 -6.8265 2.3961
0.7336 -6.7946 2.3961
0.9753 -6.7538 2.3961
1.2151 -6.7044 2.3961
1.4526 -6.6462 2.3961
1.6875 -6.5796 2.3961
1.9196 -6.5046 2.3961
2.1484 -6.4213 2.3961
2.3737 -6.3300 2.3961
2.5953 -6.2307 2.3961
2.8129 -6.1236 2.3961
3.0261 -6.0088 2.3961
3.2348 -5.8867 2.3961
3.4386 -5.7574 2.3961
3.6374 -5.6210 2.3961
3.8309 -5.4777 2.3961
4.0189 -5.3277 2.3961
4.2011 -5.1716 2.3961
4.3547 -4.9828 2.3837
4.4346 -4.7204 2.3366
4.5109 -4.4681 2.2942
4.5855 -4.2253 2.2567
4.7000 -4.0288 2.2437
4.8346 -3.8510 2.2437
4.9627 -3.6690 2.2437
5.0841 -3.4827 2.2437
5.1987 -3.2926 2.2437
5.3063 -3.0987 2.2437
5.4069 -2.9015 2.2437
5.5005 -2.7011 2.2437
5.5868 -2.4977 2.2437
5.6658 -2.2917 2.2437
5.7374 -2.0833 2.2437
5.8017 -1.8728 2.2437
5.8584 -1.6604 2.2437
5.9077 -1.4463 2.2437
5.9494 -1.2309 2.2437
5.9835 -1.0144 2.2437
6.0100 -0.7970 2.2437
6.0290 -0.5790 2.2437
6.0403 -0.3607 2.2437
6.0439 -0.1423 2.2437
6.0401 0.0759 2.2437
6.0286 0.2937 2.2437
6.0096 0.5108 2.2437
5.9831 0.7270 2.2437
5.9827 0.9473 2.2564
6.0367 1.1807 2.2927
6.0940 1.4223 2.3338
6.1530 1.6727 2.3791
6.1296 1.9065 2.3961
6.0545 2.1259 2.3961
5.9718 2.3424 2.3961
5.8818 2.5560 2.3961
5.7844 2.7663 2.3961
5.6798 2.9730 2.3961
5.5682 3.1760 2.3961
5.4496 3.3750 2.3961
5.3242 3.5698 2.3961
5.1922 3.7601 2.3961
5.0536 3.9458 2.3961
4.9087 4.1265 2.3961
4.7576 4.3023 2.3961
4.6004 4.4727 2.3961
4.4374 4.6376 2.3961
4.2688 4.7969 2.3961
4.0946 4.9502 2.3961
3.9152 5.0975 2.3961
3.7307 5.2386 2.3961
3.5413 5.3733 2.3961
3.3472 5.5014 2.3961
3.1487 5.6228 2.3961
2.9459 5.7373 2.3961
2.7391 5.8447 2.3961
2.5286 5.9450 2.3961
2.3145 6.0380 2.3961
0.8539 2.4932 0.9756
0.7635 2.5230 0.9748
0.6721 2.5495 0.9740
0.5799 2.5727 0.9732
0.4868 2.5925 0.9723
0.3931 2.6090 0.9714
0.2988 2.6220 0.9704
0.2041 2.6317 0.9694
0.1092 2.6379 0.9683
0.0140 2.6406 0.9672
-0.0812 2.6400 0.9661
-0.1763 2.6359 0.9650
-0.2712 2.6283 0.9638
-0.3657 2.6173 0.9626
-0.4598 2.6029 0.9613
-0.5534 2.5852 0.9601
-0.6462 2.5640 0.9588
-0.7382 2.5395 0.9575
-0.8292 2.5117 0.9561
-0.9192 2.4806 0.9548
-2.5332 6.1480 2.3961
-2.7571 6.0626 2.3961
-2.9781 5.9691 2.3961
-3.1959 5.8676 2.3961
-3.4102 5.7582 2.3961
-3.6208 5.6411 2.3961
-3.8274 5.5162 2.3961
-4.0296 5.3839 2.3961
-4.2273 5.2441 2.3961
-4.4200 5.0971 2.3961
-4.6076 4.9431 2.3961
-4.7897 4.7821 2.3961
-4.9661 4.6144 2.3961
-5.1366 4.4402 2.3961
-5.3009 4.2596 2.3961
-5.4587 4.0730 2.3961
-5.6098 3.8805 2.3961
-5.7539 3.6823 2.3961
-5.8910 3.4787 2.3961
-6.0206 3.2700 2.3961
-6.1427 3.0564 2.3961
-6.2570 2.8382 2.3961
-6.3634 2.6156 2.3961
-6.4615 2.3894 2.3961
-6.5515 2.1589 2.3961
-6.6330 1.9252 2.3961
-6.7058 1.6885 2.3961
-6.7699 1.4492 2.3961
-6.8254 1.2064 2.3961
-6.8716 0.9628 2.3961
-6.9089 0.7173 2.3961
-6.9371 0.4697 2.3961
-6.9561 0.2214 2.3961
-6.9658 -0.0276 2.3961
-6.9664 -0.2774 2.3961
-6.9576 -0.5267 2.3961
-6.9395 -0.7760 2.3961
-6.9121 -1.0245 2.3961
-6.8754 -1.2720 2.3961
-6.8296 -1.5180 2.3961
-6.7745 -1.7623 2.3961
-6.7103 -2.0044 2.3961
-6.6371 -2.2441 2.3961
-6.5549 -2.4810 2.3961
-6.4639 -2.7146 2.3961
-6.3642 -2.9448 2.3961
-6.2560 -3.1711 2.3961
-6.1393 -3.3932 2.3961
-6.0144 -3.6108 2.3961
-5.8814 -3.8236 2.3961
-5.7406 -4.0313 2.3961
-5.5921 -4.2335 2.3961
-5.4361 -4.4300 2.3961
-5.2729 -4.6205 2.3961
-5.1028 -4.8047 2.3961
-4.9259 -4.9823 2.3961
-4.7426 -5.1532 2.3961
-4.5531 -5.3171 2.3961
-4.3576 -5.4736 2.3961
-4.1566 -5.6228 2.3961
-3.9502 -5.7641 2.3961
-3.7389 -5.8977 2.3961
-3.5228 -6.0232 2.3961
-3.3024 -6.1404 2.3961
-3.0779 -6.2494 2.3961
-2.8497 -6.3498 2.3961
-2.6181 -6.4416 2.3961
-2.3834 -6.5246 2.3961
-2.1461 -6.5989 2.3961
-1.9063 -6.6642 2.3961
-1.6646 -6.7206 2.3961
-1.4212 -6.7679 2.3961
-1.1764 -6.8062 2.3961
-0.9307 -6.8354 2.3961
-0.6843 -6.8555 2.3961
-0.4376 -6.8665 2.3961
-0.1910 -6.8684 2.3961
0.0552 -6.8613 2.3961
0.3007 -6.8452 2.3961
0.5451 -6.8201 2.3961
0.7882 -6.7861 2.3961
1.0295 -6.7434 2.3961
1.2688 -6.6920 2.3961
1.5058 -6.6318 2.3961
1.7401 -6.5634 2.3961
1.9714 -6.4866 2.3961
2.1995 -6.4014 2.3961
2.4240 -6.3083 2.3961
2.6447 -6.2072 2.3961
2.8613 -6.0984 2.3961
3.0734 -5.9823 2.3961
3.2811 -5.8582 2.3961
3.4839 -5.7272 2.3961
3.6815 -5.5892 2.3961
3.8738 -5.4444 2.3961
4.0604 -5.2931 2.3961
4.2414 -5.1354 2.3961
4.3731 -4.9226 2.3727
4.4520 -4.6629 2.3267
4.5276 -4.4125 2.2852
4.6055 -4.1750 2.2506
4.7309 -3.9889 2.2437
4.8640 -3.8104 2.2437
4.9906 -3.6274 2.2437
5.1105 -3.4402 2.2437
5.2235 -3.2492 2.2437
5.3296 -3.0546 2.2437
5.4286 -2.8566 2.2437
5.5205 -2.6555 2.2437
5.6052 -2.4516 2.2437
5.6826 -2.2450 2.2437
5.7526 -2.0361 2.2437
5.8151 -1.8251 2.2437
5.8702 -1.6123 2.2437
5.9177 -1.3979 2.2437
5.9577 -1.1822 2.2437
5.9901 -0.9655 2.2437
6.0150 -0.7479 2.2437
6.0322 -0.5299 2.2437
6.0417 -0.3115 2.2437
6.0437 -0.0931 2.2437
6.0381 0.1250 2.2437
6.0250 0.3427 2.2437
6.0043 0.5596 2.2437
5.9761 0.7756 2.2437
5.9931 0.9989 2.2637
6.0495 1.2344 2.3016
6.1071 1.4778 2.3436
6.1664 1.7302 2.3899
6.1134 1.9561 2.3961
6.0365 2.1749 2.3961
5.9522 2.3909 2.3961
5.8605 2.6037 2.3961
5.7615 2.8132 2.3961
5.6553 3.0191 2.3961
5.5421 3.2212 2.3961
5.4220 3.4192 2.3961
5.2951 3.6130 2.3961
5.1615 3.8023 2.3961
5.0215 3.9869 2.3961
4.8752 4.1666 2.3961
4.7227 4.3411 2.3961
4.5642 4.5103 2.3961
4.3999 4.6740 2.3961
4.2300 4.8319 2.3961
4.0547 4.9839 2.3961
3.8741 5.1299 2.3961
3.6885 5.2697 2.3961
3.4980 5.4027 2.3961
3.3029 5.5293 2.3961
3.1034 5.6492 2.3961
2.8997 5.7621 2.3961
2.6920 5.8680 2.3961
2.4807 5.9666 2.3961
2.2658 6.0579 2.3961
0.8336 2.5002 0.9754
0.7430 2.5293 0.9747
0.6514 2.5550 0.9738
0.5590 2.5774 0.9730
0.4658 2.5965 0.9721
0.3719 2.6122 0.9711
0.2775 2.6245 0.9702
0.1828 2.6334 0.9691
0.0877 2.6388 0.9681
-0.0074 2.6408 0.9670
-0.1026 2.6393 0.9659
-0.1977 2.6345 0.9647
-0.2925 2.6261 0.9635
-0.3870 2.6144 0.9623
-0.4809 2.5992 0.9611
-0.5743 2.5807 0.9598
-0.6670 2.5588 0.9585
-0.7587 2.5335 0.9572
-0.8496 2.5050 0.9558
-2.3579 6.2086 2.3961
-2.5838 6.1295 2.3961
-2.8071 6.0422 2.3961
-3.0274 5.9469 2.3961
-3.2445 5.8436 2.3961
-3.4580 5.7325 2.3961
-3.6677 5.6136 2.3961
-3.8733 5.4871 2.3961
-4.0746 5.3530 2.3961
-4.2711 5.2117 2.3961
-4.4627 5.0631 2.3961
-4.6491 4.9074 2.3961
-4.8299 4.7449 2.3961
-5.0050 4.5757 2.3961
-5.1742 4.4001 2.3961
-5.3370 4.2181 2.3961
-5.4933 4.0301 2.3961
-5.6429 3.8363 2.3961
-5.7854 3.6369 2.3961
-5.9208 3.4321 2.3961
-6.0488 3.2223 2.3961
-6.1691 3.0076 2.3961
-6.2817 2.7885 2.3961
-6.3862 2.5651 2.3961
-6.4825 2.3378 2.3961
-6.5706 2.1066 2.3961
-6.6501 1.8725 2.3961
-6.7210 1.6349 2.3961
-6.7832 1.3946 2.3961
-6.8365 1.1519 2.3961
-6.8809 0.9073 2.3961
-6.9161 0.6613 2.3961
-6.9422 0.4138 2.3961
-6.9591 0.1651 2.3961
-6.9668 -0.0841 2.3961
-6.9652 -0.3333 2.3961
-6.9543 -0.5828 2.3961
-6.9341 -0.8321 2.3961
-6.9047 -1.0804 2.3961
-6.8659 -1.3275 2.3961
-6.8179 -1.5732 2.3961
-6.7608 -1.8170 2.3961
-6.6946 -2.0586 2.3961
-6.6193 -2.2977 2.3961
-6.5352 -2.5339 2.3961
-6.4422 -2.7668 2.3961
-6.3406 -2.9961 2.3961
-6.2304 -3.2215 2.3961
-6.1119 -3.4426 2.3961
-5.9851 -3.6592 2.3961
-5.8504 -3.8708 2.3961
-5.7078 -4.0773 2.3961
-5.5576 -4.2783 2.3961
-5.4000 -4.4734 2.3961
-5.2352 -4.6625 2.3961
-5.0635 -4.8453 2.3961
-4.8852 -5.0214 2.3961
-4.7004 -5.1907 2.3961
-4.5095 -5.3530 2.3961
-4.3128 -5.5079 2.3961
-4.1106 -5.6552 2.3961
-3.9031 -5.7949 2.3961
-3.6906 -5.9266 2.3961
-3.4736 -6.0503 2.3961
-3.2522 -6.1657 2.3961
-3.0268 -6.2727 2.3961
-2.7978 -6.3712 2.3961
-2.5655 -6.4610 2.3961
-2.3302 -6.5421 2.3961
-2.0923 -6.6144 2.3961
-1.8521 -6.6777 2.3961
-1.6099 -6.7320 2.3961
-1.3661 -6.7773 2.3961
-1.1211 -6.8135 2.3961
-0.8752 -6.8407 2.3961
-0.6288 -6.8587 2.3961
-0.3821 -6.8677 2.3961
-0.1355 -6.8676 2.3961
0.1106 -6.8584 2.3961
0.3559 -6.8403 2.3961
0.6000 -6.8132 2.3961
0.8427 -6.7773 2.3961
1.0836 -6.7326 2.3961
1.3224 -6.6793 2.3961
1.5588 -6.6172 2.3961
1.7925 -6.5463 2.3961
2.0230 -6.4681 2.3961
2.2503 -6.3812 2.3961
2.4740 -6.2862 2.3961
2.6938 -6.1834 2.3961
2.9095 -6.0728 2.3961
3.1206 -5.9552 2.3961
3.3272 -5.8293 2.3961
3.5288 -5.6968 2.3961
3.7252 -5.5573 2.3961
3.9163 -5.4109 2.3961
4.1017 -5.2582 2.3961
4.2812 -5.0992 2.3961
4.3911 -4.8635 2.3619
4.4693 -4.6057 2.3170
4.5441 -4.3574 2.2765
-2.4885 -5.9803 2.3961
-2.2707 -6.0599 2.3961
-2.0504 -6.1312 2.3961
-1.8277 -6.1943 2.3961
-1.6031 -6.2492 2.3961
-1.3768 -6.2956 2.3961
-1.1492 -6.3336 2.3961
-0.9205 -6.3632 2.3961
-0.6912 -6.3843 2.3961
-0.4615 -6.3970 2.3961
-0.2317 -6.4012 2.3961
-0.0022 -6.3970 2.3961
0.2268 -6.3844 2.3961
0.4549 -6.3635 2.3961
0.6818 -6.3343 2.3961
0.9072 -6.2969 2.3961
1.1308 -6.2513 2.3961
1.3523 -6.1978 2.3961
1.5715 -6.1363 2.3961
1.7880 -6.0668 2.3961
2.0015 -5.9903 2.3961
2.2120 -5.9051 2.3961
2.4189 -5.8130 2.3961
2.6221 -5.7136 2.3961
2.8213 -5.6072 2.3961
3.0162 -5.4938 2.3961
3.2067 -5.3736 2.3961
3.3927 -5.2463 2.3961
3.5735 -5.1136 2.3961
3.7493 -4.9742 2.3961
3.9197 -4.8288 2.3961
4.0847 -4.6776 2.3961
4.2439 -4.5208 2.3961
4.3973 -4.3586 2.3961
4.5446 -4.1914 2.3961
4.6306 -3.9721 2.3680
4.6982 -3.7451 2.3354
4.7634 -3.5241 2.3065
4.8265 -3.3087 2.2811
4.8876 -3.0980 2.2588
4.9574 -2.8960 2.2443
5.0505 -2.7121 2.2437
5.1383 -2.5250 2.2437
5.2192 -2.3356 2.2437
5.2935 -2.1430 2.2437
5.3681 -1.9505 2.2467
5.4213 -1.7517 2.2437
5.4747 -1.5532 2.2437
5.5289 -1.3544 2.2468
5.5605 -1.1519 2.2437
5.5927 -0.9495 2.2437
5.6179 -0.7462 2.2437
5.6359 -0.5425 2.2437
5.6480 -0.3387 2.2443
5.6886 -0.1331 2.2587
5.7393 0.0710 2.2804
5.7913 0.2811 2.3053
5.8439 0.4957 2.3335
5.8972 0.7156 2.3651
5.9408 0.9398 2.3961
5.8997 1.1531 2.3961
5.8512 1.3649 2.3961
5.7954 1.5747 2.3961
5.7324 1.7824 2.3961
5.6622 1.9876 2.3961
5.5850 2.1902 2.3961
5.5008 2.3901 2.3961
5.4098 2.5870 2.3961
5.3120 2.7803 2.3961
5.2076 2.9702 2.3961
5.0966 3.1564 2.3961
4.9793 3.3386 2.3961
4.8558 3.5167 2.3961
4.7261 3.6903 2.3961
4.5904 3.8594 2.3961
4.4490 4.0237 2.3961
4.3019 4.1831 2.3961
4.1493 4.3373 2.3961
3.9915 4.4866 2.3961
3.8285 4.6296 2.3961
3.6605 4.7672 2.3961
3.4878 4.8990 2.3961
3.3105 5.0250 2.3961
3.1288 5.1445 2.3961
2.9430 5.2578 2.3961
2.7533 5.3646 2.3961
2.5598 5.4648 2.3961
2.3627 5.5584 2.3961
0.8790 2.2945 0.9740
0.7957 2.3253 0.9733
0.7115 2.3531 0.9726
0.6262 2.3778 0.9718
0.5401 2.3994 0.9710
0.4533 2.4178 0.9702
0.3659 2.4332 0.9693
0.2780 2.4453 0.9684
0.1896 2.4543 0.9675
0.1010 2.4601 0.9665
0.0123 2.4627 0.9655
-0.0765 2.4620 0.9644
-0.1652 2.4582 0.9634
-0.2537 2.4512 0.9623
-0.3419 2.4409 0.9611
-0.4297 2.4275 0.9600
-0.5169 2.4109 0.9588
-0.6035 2.3912 0.9576
-0.6893 2.3683 0.9564
-0.7742 2.3424 0.9551
-0.8581 2.3134 0.9539
-2.3669 5.7385 2.3961
-2.5757 5.6583 2.3961
-2.7817 5.5704 2.3961
-2.9848 5.4752 2.3961
-3.1845 5.3726 2.3961
-3.3807 5.2628 2.3961
-3.5732 5.1458 2.3961
-3.7615 5.0218 2.3961
-3.9455 4.8909 2.3961
-4.1249 4.7534 2.3961
-4.2995 4.6092 2.3961
-4.4689 4.4586 2.3961
-4.6330 4.3018 2.3961
-4.7915 4.1390 2.3961
-4.9442 3.9702 2.3961
-5.0909 3.7959 2.3961
-5.2313 3.6160 2.3961
-5.3652 3.4310 2.3961
-5.4924 3.2410 2.3961
-5.6128 3.0462 2.3961
-5.7261 2.8469 2.3961
-5.8321 2.6433 2.3961
-5.9307 2.4358 2.3961
-6.0217 2.2246 2.3961
-6.1050 2.0099 2.3961
-6.1804 1.7921 2.3961
-6.2478 1.5715 2.3961
-6.3071 1.3483 2.3961
-6.3582 1.1228 2.3961
-6.4009 0.8954 2.3961
-6.4352 0.6664 2.3961
-6.4611 0.4361 2.3961
-6.4784 0.2048 2.3961
-6.4871 -0.0271 2.3961
-6.4873 -0.2594 2.3961
-6.4787 -0.4917 2.3961
-6.4616 -0.7236 2.3961
-6.4358 -0.9549 2.3961
-6.4015 -1.1852 2.3961
-6.3585 -1.4141 2.3961
-6.3070 -1.6414 2.3961
-6.2471 -1.8667 2.3961
-6.1788 -2.0898 2.3961
-6.1022 -2.3101 2.3961
-6.0174 -2.5275 2.3961
-5.9246 -2.7417 2.3961
-5.8238 -2.9522 2.3961
-5.7151 -3.1589 2.3961
-5.5989 -3.3614 2.3961
-5.4751 -3.5594 2.3961
-5.3441 -3.7527 2.3961
-5.2059 -3.9409 2.3961
-5.0609 -4.1238 2.3961
-4.9091 -4.3011 2.3961
-4.7508 -4.4726 2.3961
-4.5863 -4.6381 2.3961
-4.4158 -4.7972 2.3961
-4.2396 -4.9499 2.3961
-4.0578 -5.0958 2.3961
-3.8708 -5.2347 2.3961
-3.6789 -5.3665 2.3961
-3.4823 -5.4911 2.3961
-3.2814 -5.6081 2.3961
-3.0763 -5.7176 2.3961
-2.8675 -5.8193 2.3961
-2.6552 -5.9131 2.3961
-2.4397 -5.9989 2.3961
-2.2213 -6.0767 2.3961
-2.0004 -6.1462 2.3961
-1.7773 -6.2074 2.3961
-1.5523 -6.2603 2.3961
-1.3257 -6.3049 2.3961
-1.0978 -6.3410 2.3961
-0.8689 -6.3687 2.3961
-0.6395 -6.3879 2.3961
-0.4097 -6.3987 2.3961
-0.1800 -6.4010 2.3961
0.0495 -6.3949 2.3961
0.2783 -6.3804 2.3961
0.5061 -6.3576 2.3961
0.7327 -6.3266 2.3961
0.9577 -6.2873 2.3961
1.1809 -6.2399 2.3961
1.4019 -6.1845 2.3961
1.6205 -6.1212 2.3961
1.8364 -6.0501 2.3961
2.0493 -5.9713 2.3961
2.2589 -5.8850 2.3961
2.4650 -5.7912 2.3961
2.6673 -5.6903 2.3961
2.8655 -5.5822 2.3961
3.0595 -5.4673 2.3961
3.2491 -5.3452 2.3961
3.4337 -5.2173 2.3961
3.6135 -5.0828 2.3961
3.7882 -4.9419 2.3961
3.9574 -4.7951 2.3961
4.1211 -4.6427 2.3961
4.2790 -4.4847 2.3961
4.4310 -4.3213 2.3961
4.5766 -4.1524 2.3960
4.6461 -3.9204 2.3604
4.7131 -3.6948 2.3286
4.7778 -3.4752 2.3005
4.8404 -3.2608 2.2758
4.9036 -3.0525 2.2554
4.9779 -2.8550 2.2437
5.0708 -2.6701 2.2437
5.1572 -2.4823 2.2437
5.2366 -2.2922 2.2437
5.3093 -2.0994 2.2437
5.3813 -1.9041 2.2461
5.4339 -1.7072 2.2437
5.4858 -1.5083 2.2437
5.5403 -1.3093 2.2476
5.5684 -1.1064 2.2437
5.5991 -0.9035 2.2437
5.6225 -0.7005 2.2437
5.6390 -0.4965 2.2437
5.6574 -0.2923 2.2473
5.6994 -0.0890 2.2632
5.7510 0.1180 2.2857
5.8031 0.3290 2.3114
5.8558 0.5448 2.3403
5.9093 0.7659 2.3727
5.9322 0.9879 2.3961
5.8894 1.2010 2.3961
5.8392 1.4123 2.3961
5.7818 1.6215 2.3961
5.7172 1.8287 2.3961
5.6454 2.0334 2.3961
5.5666 2.2355 2.3961
5.4809 2.4346 2.3961
5.3883 2.6307 2.3961
5.2891 2.8234 2.3961
5.1832 3.0125 2.3961
5.0708 3.1978 2.3961
4.9520 3.3791 2.3961
4.8271 3.5562 2.3961
4.6961 3.7288 2.3961
4.5591 3.8969 2.3961
4.4164 4.0600 2.3961
4.2680 4.2183 2.3961
4.1143 4.3713 2.3961
3.9552 4.5190 2.3961
3.7911 4.6611 2.3961
3.6220 4.7974 2.3961
3.4483 4.9279 2.3961
3.2700 5.0523 2.3961
3.0874 5.1705 2.3961
2.9006 5.2824 2.3961
2.7100 5.3878 2.3961
2.5157 5.4865 2.3961
2.3179 5.5785 2.3961
0.8603 2.3017 0.9738
0.7769 2.3318 0.9731
0.6923 2.3589 0.9724
0.6069 2.3829 0.9716
0.5207 2.4038 0.9708
0.4337 2.4216 0.9700
0.3461 2.4362 0.9691
0.2581 2.4476 0.9682
0.1697 2.4559 0.9673
0.0811 2.4610 0.9663
-0.0077 2.4628 0.9653
-0.0965 2.4615 0.9642
-0.1851 2.4569 0.9631
-0.2736 2.4491 0.9620
-0.3617 2.4382 0.9609
-0.4494 2.4240 0.9597
-0.5365 2.4067 0.9585
-0.6229 2.3863 0.9573
-0.7085 2.3627 0.9561
-0.7932 2.3361 0.9549
-0.8769 2.3064 0.9536
-2.4141 5.7211 2.3961
-2.6223 5.6391 2.3961
-2.8277 5.5496 2.3961
-3.0300 5.4527 2.3961
-3.2290 5.3485 2.3961
-3.4244 5.2370 2.3961
-3.6159 5.1185 2.3961
-3.8033 4.9929 2.3961
-3.9863 4.8605 2.3961
-4.1646 4.7215 2.3961
-4.3381 4.5759 2.3961
-4.5063 4.4239 2.3961
-4.6692 4.2657 2.3961
-4.8264 4.1015 2.3961
-4.9778 3.9315 2.3961
-5.1231 3.7558 2.3961
-5.2620 3.5748 2.3961
-5.3944 3.3886 2.3961
-5.5201 3.1975 2.3961
-5.6389 3.0017 2.3961
-5.7506 2.8014 2.3961
-5.8549 2.5969 2.3961
-5.9519 2.3886 2.3961
-6.0411 2.1765 2.3961
-6.1227 1.9611 2.3961
-6.1963 1.7426 2.3961
-6.2619 1.5214 2.3961
-6.3193 1.2977 2.3961
-6.3685 1.0717 2.3961
-6.4094 0.8440 2.3961
-6.4418 0.6146 2.3961
-6.4657 0.3841 2.3961
-6.4811 0.1526 2.3961
-6.4879 -0.0794 2.3961
-6.4861 -0.3117 2.3961
-6.4756 -0.5439 2.3961
-6.4565 -0.7758 2.3961
-6.4288 -1.0069 2.3961
-6.3925 -1.2369 2.3961
-6.3477 -1.4655 2.3961
-6.2943 -1.6924 2.3961
-6.2325 -1.9172 2.3961
-6.1623 -2.1396 2.3961
-6.0838 -2.3594 2.3961
-5.9972 -2.5761 2.3961
-5.9026 -2.7894 2.3961
-5.8000 -2.9991 2.3961
-5.6896 -3.2049 2.3961
-5.5717 -3.4064 2.3961
-5.4463 -3.6034 2.3961
-5.3136 -3.7955 2.3961
-5.1739 -3.9826 2.3961
-5.0273 -4.1643 2.3961
-4.8740 -4.3403 2.3961
-4.7143 -4.5104 2.3961
-4.5484 -4.6745 2.3961
-4.3766 -4.8322 2.3961
-4.1991 -4.9833 2.3961
-4.0162 -5.1277 2.3961
-3.8280 -5.2650 2.3961
-3.6351 -5.3952 2.3961
-3.4375 -5.5181 2.3961
-3.2355 -5.6335 2.3961
-3.0296 -5.7412 2.3961
-2.8200 -5.8411 2.3961
-2.6069 -5.9331 2.3961
-2.3907 -6.0171 2.3961
-2.1718 -6.0930 2.3961
-1.9504 -6.1607 2.3961
-1.7268 -6.2201 2.3961
-1.5014 -6.2711 2.3961
-1.2744 -6.3138 2.3961
-1.0463 -6.3480 2.3961
-0.8173 -6.3737 2.3961
-0.5878 -6.3911 2.3961
-0.3580 -6.3999 2.3961
-0.1283 -6.4004 2.3961
0.1011 -6.3924 2.3961
0.3297 -6.3760 2.3961
0.5572 -6.3513 2.3961
0.7835 -6.3184 2.3961
1.0082 -6.2773 2.3961
1.2309 -6.2281 2.3961
1.4514 -6.1708 2.3961
1.6694 -6.1059 2.3961
1.8846 -6.0328 2.3961
2.0968 -5.9525 2.3961
2.3056 -5.8645 2.3961
2.5109 -5.7691 2.3961
2.7123 -5.6665 2.3961
2.9096 -5.5569 2.3961
3.1026 -5.4404 2.3961
3.2910 -5.3173 2.3961
3.4747 -5.1876 2.3961
3.6533 -5.0516 2.3961
3.8267 -4.9094 2.3961
3.9947 -4.7613 2.3961
4.1571 -4.6076 2.3961
4.3137 -4.4485 2.3961
4.4644 -4.2839 2.3961
-2.3273 -5.5896 2.3961
-2.1239 -5.6643 2.3961
-1.9181 -5.7313 2.3961
-1.7102 -5.7906 2.3961
-1.5003 -5.8422 2.3961
-1.2889 -5.8860 2.3961
-1.0762 -5.9219 2.3961
-0.8625 -5.9499 2.3961
-0.6481 -5.9701 2.3961
-0.4334 -5.9824 2.3961
-0.2185 -5.9868 2.3961
-0.0039 -5.9833 2.3961
0.2102 -5.9720 2.3961
0.4236 -5.9528 2.3961
0.6358 -5.9260 2.3961
0.8467 -5.8915 2.3961
1.0560 -5.8493 2.3961
1.2634 -5.7997 2.3961
1.4686 -5.7425 2.3961
1.6713 -5.6781 2.3961
1.8713 -5.6064 2.3961
2.0684 -5.5272 2.3961
2.2622 -5.4420 2.3961
2.4525 -5.3495 2.3961
2.6392 -5.2503 2.3961
2.8220 -5.1445 2.3961
3.0006 -5.0324 2.3961
3.1749 -4.9141 2.3961
3.3446 -4.7898 2.3961
3.5095 -4.6597 2.3961
3.6695 -4.5239 2.3961
3.8243 -4.3827 2.3961
3.9737 -4.2362 2.3961
4.1177 -4.0846 2.3961
4.2561 -3.9281 2.3961
4.3886 -3.7671 2.3961
4.5152 -3.6017 2.3961
4.6357 -3.4319 2.3961
4.7499 -3.2585 2.3961
4.8578 -3.0812 2.3961
4.9237 -2.8794 2.3789
4.9815 -2.6773 2.3617
5.0381 -2.4780 2.3475
5.0934 -2.2810 2.3363
5.1477 -2.0858 2.3279
5.2011 -1.8921 2.3224
5.2538 -1.6992 2.3195
5.3057 -1.5068 2.3195
5.3571 -1.3146 2.3221
5.4081 -1.1219 2.3275
5.4589 -0.9282 2.3357
5.5094 -0.7333 2.3466
5.5599 -0.5365 2.3604
5.6105 -0.3372 2.3772
5.6592 -0.1356 2.3961
5.6561 0.0689 2.3961
5.6458 0.2730 2.3961
5.6285 0.4767 2.3961
5.6040 0.6791 2.3961
5.5726 0.8807 2.3961
5.5341 1.0809 2.3961
5.4888 1.2796 2.3961
5.4366 1.4765 2.3961
5.3775 1.6715 2.3961
5.3119 1.8643 2.3961
5.2394 2.0543 2.3961
5.1605 2.2419 2.3961
5.0751 2.4266 2.3961
4.9834 2.6081 2.3961
4.8854 2.7864 2.3961
4.7813 2.9611 2.3961
4.6712 3.1321 2.3961
4.5552 3.2992 2.3961
4.4335 3.4621 2.3961
4.3062 3.6208 2.3961
4.1734 3.7750 2.3961
4.0353 3.9245 2.3961
3.8920 4.0691 2.3961
3.7438 4.2087 2.3961
3.5908 4.3431 2.3961
3.4331 4.4722 2.3961
3.2709 4.5958 2.3961
3.1044 4.7136 2.3961
2.9339 4.8257 2.3961
2.7594 4.9319 2.3961
2.5813 5.0319 2.3961
2.3997 5.1257 2.3961
0.8988 2.1157 0.9724
0.8220 2.1473 0.9719
0.7441 2.1761 0.9712
0.6652 2.2021 0.9706
0.5854 2.2252 0.9699
0.5049 2.2454 0.9691
0.4236 2.2627 0.9683
0.3418 2.2770 0.9675
0.2594 2.2884 0.9667
0.1768 2.2968 0.9658
0.0939 2.3022 0.9649
0.0108 2.3046 0.9639
-0.0723 2.3040 0.9630
-0.1553 2.3004 0.9619
-0.2382 2.2938 0.9609
-0.3208 2.2842 0.9599
-0.4029 2.2716 0.9588
-0.4846 2.2561 0.9577
-0.5656 2.2376 0.9565
-0.6459 2.2162 0.9554
-0.7254 2.1920 0.9542
-0.8039 2.1648 0.9531
-0.8815 2.1349 0.9519
-2.4143 5.2986 2.3961
-2.6071 5.2159 2.3961
-2.7970 5.1262 2.3961
-2.9838 5.0297 2.3961
-3.1673 4.9265 2.3961
-3.3472 4.8165 2.3961
-3.5232 4.7000 2.3961
-3.6952 4.5771 2.3961
-3.8628 4.4480 2.3961
-4.0258 4.3127 2.3961
-4.1840 4.1714 2.3961
-4.3373 4.0243 2.3961
-4.4852 3.8716 2.3961
-4.6277 3.7134 2.3961
-4.7646 3.5500 2.3961
-4.8955 3.3815 2.3961
-5.0204 3.2081 2.3961
-5.1390 3.0301 2.3961
-5.2511 2.8477 2.3961
-5.3567 2.6611 2.3961
-5.4554 2.4706 2.3961
-5.5472 2.2763 2.3961
-5.6319 2.0787 2.3961
-5.7094 1.8779 2.3961
-5.7795 1.6741 2.3961
-5.8421 1.4678 2.3961
-5.8972 1.2590 2.3961
-5.9445 1.0482 2.3961
-5.9841 0.8357 2.3961
-6.0159 0.6216 2.3961
-6.0397 0.4063 2.3961
-6.0556 0.1902 2.3961
-6.0634 -0.0265 2.3961
-6.0633 -0.2436 2.3961
-6.0550 -0.4606 2.3961
-6.0388 -0.6773 2.3961
-6.0145 -0.8933 2.3961
-5.9821 -1.1084 2.3961
-5.9418 -1.3222 2.3961
-5.8936 -1.5345 2.3961
-5.8375 -1.7450 2.3961
-5.7735 -1.9532 2.3961
-5.7019 -2.1590 2.3961
-5.6226 -2.3621 2.3961
-5.5358 -2.5621 2.3961
-5.4415 -2.7587 2.3961
-5.3401 -2.9517 2.3961
-5.2314 -3.1409 2.3961
-5.1159 -3.3258 2.3961
-4.9935 -3.5064 2.3961
-4.8645 -3.6822 2.3961
-4.7290 -3.8530 2.3961
-4.5873 -4.0187 2.3961
-4.4395 -4.1790 2.3961
-4.2860 -4.3336 2.3961
-4.1268 -4.4824 2.3961
-3.9623 -4.6251 2.3961
-3.7926 -4.7615 2.3961
-3.6180 -4.8914 2.3961
-3.4389 -5.0148 2.3961
-3.2553 -5.1313 2.3961
-3.0677 -5.2409 2.3961
-2.8762 -5.3434 2.3961
-2.6812 -5.4387 2.3961
-2.4830 -5.5266 2.3961
-2.2817 -5.6071 2.3961
-2.0778 -5.6800 2.3961
-1.8715 -5.7453 2.3961
-1.6630 -5.8029 2.3961
-1.4528 -5.8527 2.3961
-1.2411 -5.8947 2.3961
-1.0281 -5.9289 2.3961
-0.8143 -5.9552 2.3961
-0.5998 -5.9736 2.3961
-0.3850 -5.9841 2.3961
-0.1702 -5.9867 2.3961
0.0444 -5.9814 2.3961
0.2584 -5.9683 2.3961
0.4715 -5.9475 2.3961
0.6835 -5.9189 2.3961
0.8940 -5.8826 2.3961
1.1029 -5.8388 2.3961
1.3098 -5.7874 2.3961
1.5144 -5.7288 2.3961
1.7165 -5.6627 2.3961
1.9159 -5.5893 2.3961
2.1123 -5.5090 2.3961
2.3054 -5.4217 2.3961
2.4949 -5.3277 2.3961
2.6807 -5.2270 2.3961
2.8626 -5.1198 2.3961
3.0403 -5.0063 2.3961
3.2135 -4.8866 2.3961
3.3817 -4.7625 2.3961
3.5460 -4.6294 2.3961
3.7048 -4.4925 2.3961
3.8584 -4.3501 2.3961
4.0066 -4.2025 2.3961
4.1494 -4.0498 2.3961
4.2864 -3.8923 2.3961
4.4176 -3.7302 2.3961
4.5428 -3.5639 2.3961
4.6619 -3.3933 2.3961
4.7747 -3.2189 2.3961
4.8777 -3.0385 2.3944
4.9368 -2.8337 2.3748
4.9944 -2.6322 2.3583
5.0507 -2.4334 2.3448
5.1058 -2.2369 2.3342
5.1598 -2.0421 2.3264
5.2131 -1.8486 2.3215
5.2655 -1.6559 2.3193
5.3173 -1.4637 2.3198
5.3687 -1.2713 2.3231
5.4196 -1.0784 2.3291
5.4703 -0.8845 2.3379
5.5208 -0.6891 2.3495
5.5713 -0.4919 2.3640
5.6219 -0.2923 2.3814
5.6591 -0.0895 2.3961
5.6544 0.1149 2.3961
5.6426 0.3191 2.3961
5.6236 0.5222 2.3961
5.5976 0.7246 2.3961
5.5645 0.9259 2.3961
5.5245 1.1258 2.3961
5.4776 1.3241 2.3961
5.4239 1.5206 2.3961
5.3633 1.7150 2.3961
5.2961 1.9072 2.3961
5.2222 2.0968 2.3961
5.1418 2.2837 2.3961
5.0550 2.4677 2.3961
4.9619 2.6485 2.3961
4.8625 2.8260 2.3961
4.7570 2.9999 2.3961
4.6456 3.1701 2.3961
4.5283 3.3362 2.3961
4.4053 3.4983 2.3961
4.2767 3.6559 2.3961
4.1427 3.8090 2.3961
4.0035 3.9575 2.3961
3.8590 4.1008 2.3961
3.7098 4.2394 2.3961
3.5556 4.3727 2.3961
3.3969 4.5005 2.3961
3.2338 4.6228 2.3961
3.0664 4.7394 2.3961
2.8949 4.8502 2.3961
2.7196 4.9549 2.3961
2.5407 5.0536 2.3961
2.3583 5.1460 2.3961
0.8816 2.1231 0.9723
0.8046 2.1540 0.9717
0.7264 2.1822 0.9711
0.6473 2.2075 0.9704
0.5674 2.2300 0.9697
0.4866 2.2495 0.9689
0.4052 2.2662 0.9682
0.3233 2.2798 0.9673
0.2409 2.2905 0.9665
0.1581 2.2983 0.9656
0.0752 2.3030 0.9647
-0.0079 2.3047 0.9637
-0.0910 2.3034 0.9627
-0.1740 2.2992 0.9617
-0.2568 2.2919 0.9607
-0.3393 2.2816 0.9596
-0.4213 2.2684 0.9585
-0.5029 2.2522 0.9574
-0.5837 2.2331 0.9563
-0.6639 2.2110 0.9551
-0.7432 2.1861 0.9540
-0.8215 2.1583 0.9528
-0.8988 2.1278 0.9516
-2.4580 5.2806 2.3961
-2.6501 5.1963 2.3961
-2.8394 5.1051 2.3961
-3.0254 5.0071 2.3961
-3.2081 4.9023 2.3961
-3.3872 4.7909 2.3961
-3.5623 4.6729 2.3961
-3.7333 4.5486 2.3961
-3.8999 4.4181 2.3961
-4.0619 4.2814 2.3961
-4.2190 4.1388 2.3961
-4.3710 3.9904 2.3961
-4.5178 3.8364 2.3961
-4.6590 3.6771 2.3961
-4.7946 3.5125 2.3961
-4.9242 3.3428 2.3961
-5.0476 3.1684 2.3961
-5.1648 2.9894 2.3961
-5.2755 2.8060 2.3961
-5.3795 2.6185 2.3961
-5.4767 2.4271 2.3961
-5.5669 2.2321 2.3961
-5.6500 2.0337 2.3961
-5.7258 1.8322 2.3961
-5.7943 1.6279 2.3961
-5.8552 1.4209 2.3961
-5.9085 1.2117 2.3961
-5.9541 1.0005 2.3961
-5.9920 0.7876 2.3961
-6.0219 0.5733 2.3961
-6.0440 0.3577 2.3961
-6.0580 0.1414 2.3961
-6.0641 -0.0754 2.3961
-6.0621 -0.2924 2.3961
-6.0521 -0.5094 2.3961
-6.0340 -0.7260 2.3961
-6.0079 -0.9418 2.3961
-5.9738 -1.1567 2.3961
-5.9317 -1.3702 2.3961
-5.8816 -1.5821 2.3961
-5.8237 -1.7921 2.3961
-5.7581 -1.9998 2.3961
-5.6847 -2.2050 2.3961
-5.6037 -2.4074 2.3961
-5.5152 -2.6067 2.3961
-5.4193 -2.8025 2.3961
-5.3162 -2.9947 2.3961
-5.2060 -3.1829 2.3961
-5.0889 -3.3669 2.3961
-4.9650 -3.5463 2.3961
-4.8345 -3.7211 2.3961
-4.6976 -3.8908 2.3961
-4.5545 -4.0553 2.3961
-4.4055 -4.2143 2.3961
-4.2506 -4.3676 2.3961
-4.0902 -4.5150 2.3961
-3.9245 -4.6564 2.3961
-3.7537 -4.7912 2.3961
-3.5781 -4.9198 2.3961
-3.3979 -5.0416 2.3961
-3.2134 -5.1566 2.3961
-3.0249 -5.2646 2.3961
-2.8326 -5.3655 2.3961
-2.6369 -5.4591 2.3961
-2.4379 -5.5454 2.3961
-2.2360 -5.6242 2.3961
-2.0315 -5.6954 2.3961
-1.8247 -5.7590 2.3961
-1.6158 -5.8148 2.3961
-1.4052 -5.8629 2.3961
-1.1932 -5.9031 2.3961
-0.9800 -5.9355 2.3961
-0.7660 -5.9600 2.3961
-0.5514 -5.9766 2.3961
-0.3366 -5.9853 2.3961
-0.1218 -5.9862 2.3961
0.0926 -5.9791 2.3961
0.3064 -5.9643 2.3961
0.5193 -5.9417 2.3961
0.7310 -5.9114 2.3961
0.9412 -5.8734 2.3961
1.1497 -5.8278 2.3961
1.3561 -5.7749 2.3961
1.5602 -5.7144 2.3961
1.7617 -5.6467 2.3961
1.9604 -5.5719 2.3961
2.1560 -5.4900 2.3961
2.3484 -5.4012 2.3961
2.5371 -5.3056 2.3961
2.7221 -5.2034 2.3961
2.9030 -5.0948 2.3961
3.0797 -4.9799 2.3961
3.2519 -4.8589 2.3961
3.4195 -4.7318 2.3961
3.5822 -4.5991 2.3961
3.7398 -4.4609 2.3961
3.8923 -4.3173 2.3961
4.0393 -4.1685 2.3961
4.1808 -4.0147 2.3961
-2.1835 -5.2410 2.3961
-1.9930 -5.3112 2.3961
-1.8001 -5.3743 2.3961
-1.6052 -5.4302 2.3961
-1.4085 -5.4789 2.3961
-1.2103 -5.5202 2.3961
-1.0110 -5.5543 2.3961
-0.8106 -5.5809 2.3961
-0.6096 -5.6002 2.3961
-0.4083 -5.6120 2.3961
-0.2068 -5.6165 2.3961
-0.0055 -5.6136 2.3961
0.1954 -5.6034 2.3961
0.3956 -5.5858 2.3961
0.5948 -5.5610 2.3961
0.7927 -5.5290 2.3961
0.9891 -5.4898 2.3961
1.1838 -5.4436 2.3961
1.3764 -5.3904 2.3961
1.5668 -5.3303 2.3961
1.7547 -5.2635 2.3961
1.9398 -5.1900 2.3961
2.1219 -5.1099 2.3961
2.3008 -5.0235 2.3961
2.4763 -4.9307 2.3961
2.6481 -4.8318 2.3961
2.8160 -4.7269 2.3961
2.9799 -4.6161 2.3961
3.1395 -4.4997 2.3961
3.2946 -4.3778 2.3961
3.4452 -4.2506 2.3961
3.5909 -4.1180 2.3961
3.7316 -3.9807 2.3961
3.8671 -3.8388 2.3961
3.9974 -3.6922 2.3961
4.1222 -3.5411 2.3961
4.2415 -3.3858 2.3961
4.3550 -3.2267 2.3961
4.4627 -3.0638 2.3961
4.5644 -2.8973 2.3961
4.6601 -2.7275 2.3961
4.7496 -2.5547 2.3961
4.8328 -2.3789 2.3961
4.9098 -2.2006 2.3961
4.9803 -2.0196 2.3961
5.0443 -1.8370 2.3961
5.1019 -1.6516 2.3961
5.1528 -1.4651 2.3961
5.1971 -1.2769 2.3961
5.2347 -1.0872 2.3961
5.2657 -0.8964 2.3961
5.2898 -0.7053 2.3961
5.3073 -0.5133 2.3961
5.3180 -0.3211 2.3961
5.3220 -0.1287 2.3961
5.3193 0.0638 2.3961
5.3098 0.2557 2.3961
5.2937 0.4472 2.3961
5.2709 0.6379 2.3961
5.2414 0.8275 2.3961
5.2054 1.0160 2.3961
5.1629 1.2030 2.3961
5.1138 1.3882 2.3961
5.0584 1.5717 2.3961
4.9966 1.7530 2.3961
4.9286 1.9321 2.3961
4.8544 2.1086 2.3961
4.7741 2.2824 2.3961
4.6878 2.4532 2.3961
4.5956 2.6210 2.3961
4.4977 2.7854 2.3961
4.3940 2.9463 2.3961
4.2849 3.1036 2.3961
4.1703 3.2569 2.3961
4.0505 3.4061 2.3961
3.9255 3.5512 2.3961
3.7955 3.6918 2.3961
3.6606 3.8279 2.3961
3.5210 3.9591 2.3961
3.3770 4.0856 2.3961
3.2285 4.2069 2.3961
3.0758 4.3229 2.3961
2.9191 4.4338 2.3961
2.7586 4.5391 2.3961
2.5944 4.6388 2.3961
2.4267 4.7328 2.3961
2.2557 4.8209 2.3961
0.8431 1.9859 0.9705
0.7710 2.0155 0.9700
0.6979 2.0426 0.9694
0.6238 2.0669 0.9688
0.5489 2.0886 0.9681
0.4733 2.1076 0.9674
0.3970 2.1238 0.9667
0.3201 2.1372 0.9659
0.2429 2.1479 0.9651
0.1653 2.1558 0.9643
0.0874 2.1608 0.9634
0.0094 2.1631 0.9625
-0.0686 2.1625 0.9616
-0.1465 2.1591 0.9607
-0.2243 2.1529 0.9597
-0.3018 2.1439 0.9587
-0.3789 2.1321 0.9577
-0.4556 2.1176 0.9567
-0.5317 2.1002 0.9556
-0.6071 2.0801 0.9545
-0.6817 2.0574 0.9534
-0.7554 2.0319 0.9523
-0.8282 2.0038 0.9512
-0.8999 1.9731 0.9501
-2.4506 4.8982 2.3961
-2.6288 4.8136 2.3961
-2.8041 4.7226 2.3961
-2.9761 4.6253 2.3961
-3.1448 4.5217 2.3961
-3.3099 4.4120 2.3961
-3.4711 4.2963 2.3961
-3.6281 4.1747 2.3961
-3.7809 4.0473 2.3961
-3.9292 3.9144 2.3961
-4.0727 3.7761 2.3961
-4.2112 3.6324 2.3961
-4.3447 3.4837 2.3961
-4.4727 3.3301 2.3961
-4.5953 3.1717 2.3961
-4.7121 3.0089 2.3961
-4.8230 2.8416 2.3961
-4.9279 2.6703 2.3961
-5.0266 2.4951 2.3961
-5.1189 2.3162 2.3961
-5.2046 2.1339 2.3961
-5.2837 1.9484 2.3961
-5.3561 1.7599 2.3961
-5.4215 1.5688 2.3961
-5.4799 1.3752 2.3961
-5.5312 1.1794 2.3961
-5.5753 0.9817 2.3961
-5.6121 0.7823 2.3961
-5.6416 0.5816 2.3961
-5.6637 0.3798 2.3961
-5.6783 0.1771 2.3961
-5.6854 -0.0260 2.3961
-5.6850 -0.2294 2.3961
-5.6771 -0.4328 2.3961
-5.6616 -0.6359 2.3961
-5.6387 -0.8383 2.3961
-5.6082 -1.0399 2.3961
-5.5703 -1.2403 2.3961
-5.5249 -1.4392 2.3961
-5.4722 -1.6364 2.3961
-5.4121 -1.8315 2.3961
-5.3449 -2.0243 2.3961
-5.2705 -2.2146 2.3961
-5.1891 -2.4019 2.3961
-5.1008 -2.5862 2.3961
-5.0057 -2.7670 2.3961
-4.9039 -2.9442 2.3961
-4.7956 -3.1176 2.3961
-4.6809 -3.2867 2.3961
-4.5600 -3.4515 2.3961
-4.4331 -3.6116 2.3961
-4.3004 -3.7669 2.3961
-4.1620 -3.9172 2.3961
-4.0182 -4.0621 2.3961
-3.8691 -4.2016 2.3961
-3.7150 -4.3355 2.3961
-3.5561 -4.4634 2.3961
-3.3926 -4.5853 2.3961
-3.2248 -4.7011 2.3961
-3.0529 -4.8104 2.3961
-2.8771 -4.9133 2.3961
-2.6978 -5.0096 2.3961
-2.5151 -5.0991 2.3961
-2.3294 -5.1818 2.3961
-2.1408 -5.2574 2.3961
-1.9497 -5.3261 2.3961
-1.7564 -5.3875 2.3961
-1.5611 -5.4418 2.3961
-1.3640 -5.4888 2.3961
-1.1655 -5.5285 2.3961
-0.9659 -5.5609 2.3961
-0.7654 -5.5859 2.3961
-0.5643 -5.6035 2.3961
-0.3629 -5.6137 2.3961
-0.1614 -5.6165 2.3961
0.0398 -5.6119 2.3961
0.2406 -5.6001 2.3961
0.4405 -5.5809 2.3961
0.6395 -5.5544 2.3961
0.8371 -5.5208 2.3961
1.0331 -5.4800 2.3961
1.2274 -5.4323 2.3961
1.4195 -5.3775 2.3961
1.6094 -5.3159 2.3961
1.7966 -5.2479 2.3961
1.9811 -5.1723 2.3961
2.1625 -5.0910 2.3961
2.3406 -5.0031 2.3961
2.5153 -4.9090 2.3961
2.6862 -4.8087 2.3961
2.8533 -4.7025 2.3961
3.0162 -4.5904 2.3961
3.1748 -4.4728 2.3961
3.3290 -4.3496 2.3961
3.4784 -4.2212 2.3961
3.6229 -4.0879 2.3961
3.7625 -3.9494 2.3961
3.8969 -3.8061 2.3961
4.0260 -3.6585 2.3961
4.1495 -3.5066 2.3961
4.2675 -3.3504 2.3961
4.3797 -3.1903 2.3961
4.4861 -3.0266 2.3961
4.5864 -2.8594 2.3961
4.6808 -2.6889 2.3961
4.7689 -2.5153 2.3961
4.8507 -2.3390 2.3961
4.9262 -2.1600 2.3961
4.9953 -1.9785 2.3961
5.0578 -1.7954 2.3961
5.1139 -1.6098 2.3961
5.1633 -1.4228 2.3961
5.2062 -1.2340 2.3961
5.2423 -1.0442 2.3961
5.2717 -0.8537 2.3961
5.2944 -0.6621 2.3961
5.3103 -0.4700 2.3961
5.3195 -0.2777 2.3961
5.3220 -0.0852 2.3961
5.3178 0.1070 2.3961
5.3068 0.2989 2.3961
5.2891 0.4902 2.3961
5.2648 0.6807 2.3961
5.2339 0.8701 2.3961
5.1964 1.0582 2.3961
5.1524 1.2448 2.3961
5.1018 1.4294 2.3961
5.0450 1.6127 2.3961
4.9818 1.7936 2.3961
4.9124 1.9720 2.3961
4.8368 2.1480 2.3961
4.7552 2.3211 2.3961
4.6675 2.4913 2.3961
4.5741 2.6583 2.3961
4.4748 2.8220 2.3961
4.3699 2.9821 2.3961
4.2596 3.1384 2.3961
4.1438 3.2909 2.3961
4.0228 3.4392 2.3961
3.8966 3.5833 2.3961
3.7655 3.7229 2.3961
3.6296 3.8578 2.3961
3.4890 3.9880 2.3961
3.3439 4.1133 2.3961
3.1945 4.2335 2.3961
3.0409 4.3485 2.3961
2.8833 4.4580 2.3961
2.7219 4.5621 2.3961
2.5569 4.6605 2.3961
2.3885 4.7531 2.3961
0.8982 1.9611 0.9709
0.8270 1.9928 0.9704
0.7547 2.0218 0.9698
0.6813 2.0483 0.9692
0.6070 2.0720 0.9686
0.5319 2.0931 0.9679
0.4561 2.1115 0.9672
0.3797 2.1271 0.9665
0.3028 2.1399 0.9657
0.2254 2.1499 0.9649
0.1477 2.1572 0.9641
0.0699 2.1616 0.9632
-0.0081 2.1632 0.9623
-0.0862 2.1620 0.9614
-0.1641 2.1580 0.9605
-0.2418 2.1512 0.9595
-0.3192 2.1415 0.9585
-0.3963 2.1291 0.9575
-0.4728 2.1139 0.9564
-0.5487 2.0959 0.9554
-0.6239 2.0753 0.9543
-0.6984 2.0519 0.9532
-0.7719 2.0258 0.9521
-0.8445 1.9971 0.9509
-0.9159 1.9658 0.9498
-2.4910 4.8797 2.3961
-2.6685 4.7937 2.3961
-2.8431 4.7013 2.3961
-3.0144 4.6025 2.3961
-3.1823 4.4975 2.3961
-3.3465 4.3864 2.3961
-3.5068 4.2694 2.3961
-3.6629 4.1465 2.3961
-3.8147 4.0179 2.3961
-3.9619 3.8837 2.3961
-4.1043 3.7442 2.3961
-4.2417 3.5994 2.3961
-4.3740 3.4495 2.3961
-4.5008 3.2948 2.3961
-4.6221 3.1354 2.3961
-4.7376 2.9716 2.3961
-4.8472 2.8034 2.3961
-4.9507 2.6312 2.3961
-5.0479 2.4551 2.3961
-5.1388 2.2755 2.3961
-5.2230 2.0924 2.3961
-5.3006 1.9062 2.3961
-5.3714 1.7171 2.3961
-5.4353 1.5254 2.3961
-5.4921 1.3313 2.3961
-5.5418 1.1350 2.3961
-5.5842 0.9369 2.3961
-5.6194 0.7372 2.3961
-5.6472 0.5362 2.3961
-5.6676 0.3342 2.3961
-5.6805 0.1314 2.3961
-5.6860 -0.0718 2.3961
-5.6839 -0.2753 2.3961
-5.6743 -0.4786 2.3961
-5.6571 -0.6815 2.3961
-5.6325 -0.8838 2.3961
-5.6003 -1.0852 2.3961
-5.5607 -1.2852 2.3961
-5.5137 -1.4838 2.3961
-5.4593 -1.6805 2.3961
-5.3976 -1.8751 2.3961
-5.3288 -2.0674 2.3961
-5.2528 -2.2570 2.3961
-5.1698 -2.4437 2.3961
-5.0799 -2.6272 2.3961
-4.9833 -2.8073 2.3961
-4.8801 -2.9836 2.3961
-4.7703 -3.1561 2.3961
-4.6542 -3.3242 2.3961
-4.5320 -3.4880 2.3961
-4.4038 -3.6470 2.3961
-4.2697 -3.8012 2.3961
-4.1301 -3.9503 2.3961
-3.9851 -4.0940 2.3961
-3.8348 -4.2323 2.3961
-3.6796 -4.3648 2.3961
-3.5196 -4.4914 2.3961
-3.3552 -4.6119 2.3961
-3.1864 -4.7262 2.3961
-3.0136 -4.8342 2.3961
-2.8370 -4.9356 2.3961
-2.6569 -5.0303 2.3961
-2.4735 -5.1183 2.3961
-2.2871 -5.1994 2.3961
-2.0980 -5.2735 2.3961
-1.9064 -5.3405 2.3961
-1.7126 -5.4004 2.3961
-1.5168 -5.4530 2.3961
-1.3194 -5.4984 2.3961
-1.1207 -5.5365 2.3961
-0.9208 -5.5672 2.3961
-0.7202 -5.5905 2.3961
-0.5190 -5.6064 2.3961
-0.3175 -5.6150 2.3961
-0.1161 -5.6161 2.3961
0.0851 -5.6099 2.3961
0.2857 -5.5964 2.3961
0.4854 -5.5755 2.3961
0.6841 -5.5475 2.3961
0.8814 -5.5122 2.3961
1.0770 -5.4699 2.3961
1.2708 -5.4205 2.3961
1.4625 -5.3642 2.3961
1.6518 -5.3010 2.3961
1.8384 -5.2312 2.3961
2.0222 -5.1548 2.3961
2.2029 -5.0718 2.3961
2.3803 -4.9824 2.3961
2.5541 -4.8869 2.3961
2.7242 -4.7853 2.3961
2.8903 -4.6777 2.3961
3.0523 -4.5644 2.3961
3.2099 -4.4455 2.3961
3.3630 -4.3212 2.3961
3.5114 -4.1916 2.3961
3.6549 -4.0568 2.3961
3.7933 -3.9175 2.3961
3.9264 -3.7733 2.3961
-2.0543 -4.9277 2.3961
-1.8752 -4.9940 2.3961
-1.6940 -5.0535 2.3961
-1.5109 -5.1063 2.3961
-1.3260 -5.1523 2.3961
-1.1397 -5.1914 2.3961
-0.9523 -5.2237 2.3961
-0.7640 -5.2490 2.3961
-0.5750 -5.2674 2.3961
-0.3857 -5.2789 2.3961
-0.1962 -5.2834 2.3961
-0.0069 -5.2810 2.3961
0.1821 -5.2717 2.3961
0.3704 -5.2555 2.3961
0.5578 -5.2325 2.3961
