ply
format ascii 1.0
element vertex 2168
property float32 x
property float32 y
property float32 z
end_header
-2.6190 -6.6072 2.3927
-2.3728 -6.6717 2.3927
-2.1250 -6.7267 2.3927
-1.8763 -6.7723 2.3927
-1.6268 -6.8085 2.3927
-1.3770 -6.8354 2.3927
-1.1272 -6.8530 2.3927
-0.8779 -6.8613 2.3927
-0.6292 -6.8606 2.3927
-0.3817 -6.8507 2.3927
-0.1355 -6.8320 2.3927
0.1089 -6.8045 2.3927
0.3513 -6.7683 2.3927
0.5913 -6.7236 2.3927
0.8288 -6.6705 2.3927
1.0633 -6.6093 2.3927
1.2946 -6.5400 2.3927
1.5225 -6.4628 2.3927
1.7467 -6.3779 2.3927
1.9670 -6.2856 2.3927
2.1831 -6.1859 2.3927
2.3949 -6.0791 2.3927
2.6020 -5.9655 2.3927
2.8043 -5.8451 2.3927
3.0017 -5.7183 2.3927
3.1939 -5.5852 2.3927
3.3808 -5.4461 2.3927
3.5622 -5.3011 2.3927
3.7379 -5.1505 2.3927
3.9078 -4.9946 2.3927
4.0718 -4.8334 2.3927
4.2297 -4.6673 2.3927
4.3815 -4.4965 2.3927
4.5269 -4.3212 2.3927
4.6660 -4.1417 2.3927
4.7986 -3.9581 2.3927
4.9246 -3.7706 2.3927
5.0440 -3.5796 2.3927
5.1566 -3.3851 2.3927
5.2624 -3.1876 2.3927
5.3614 -2.9871 2.3927
5.4535 -2.7839 2.3927
5.5385 -2.5782 2.3927
5.6166 -2.3702 2.3927
5.6877 -2.1603 2.3927
5.7516 -1.9483 2.3927
5.8084 -1.7349 2.3927
5.8581 -1.5201 2.3927
5.9006 -1.3039 2.3927
5.9360 -1.0868 2.3927
5.9642 -0.8690 2.3927
5.9773 -0.6497 2.3895
5.8813 -0.4233 2.3457
5.7883 -0.2052 2.3061
5.6980 0.0055 2.2702
5.6206 0.2104 2.2423
5.6019 0.4145 2.2403
5.5814 0.6180 2.2403
5.5543 0.8208 2.2403
5.5207 1.0226 2.2403
5.4804 1.2231 2.2403
5.4336 1.4223 2.2403
5.3803 1.6199 2.2403
5.3206 1.8158 2.2404
5.2544 2.0097 2.2404
5.1819 2.2014 2.2404
5.1031 2.3909 2.2404
5.0181 2.5778 2.2404
4.9268 2.7621 2.2404
4.8295 2.9435 2.2404
4.7261 3.1218 2.2404
4.6168 3.2969 2.2403
4.5015 3.4685 2.2403
4.3805 3.6366 2.2403
4.2538 3.8009 2.2403
4.1215 3.9612 2.2403
3.9836 4.1173 2.2403
3.8404 4.2692 2.2403
3.6919 4.4165 2.2403
3.5702 4.6000 2.2605
3.4637 4.8141 2.2962
3.3529 5.0357 2.3358
3.2371 5.2660 2.3798
3.0698 5.4250 2.3927
2.8801 5.5495 2.3927
2.6857 5.6681 2.3927
2.4869 5.7802 2.3927
2.2838 5.8860 2.3927
0.8617 2.4836 0.9929
0.7718 2.5145 0.9900
0.6809 2.5421 0.9870
0.5890 2.5664 0.9840
0.4962 2.5874 0.9809
0.4028 2.6050 0.9777
0.3088 2.6193 0.9745
0.2143 2.6301 0.9713
0.1195 2.6375 0.9680
0.0245 2.6415 0.9647
-0.0706 2.6420 0.9613
-0.1657 2.6391 0.9579
-0.2606 2.6327 0.9545
-0.3552 2.6230 0.9511
-0.4494 2.6098 0.9477
-0.5430 2.5932 0.9442
-0.6360 2.5732 0.9408
-0.7282 2.5499 0.9374
-0.8195 2.5232 0.9339
-0.9098 2.4933 0.9305
-2.5782 6.3495 2.3927
-2.8153 6.2786 2.3927
-3.0505 6.1989 2.3927
-3.2835 6.1104 2.3927
-3.5139 6.0130 2.3927
-3.7413 5.9068 2.3927
-3.9654 5.7919 2.3927
-4.1858 5.6683 2.3927
-4.4022 5.5362 2.3927
-4.6141 5.3957 2.3927
-4.8213 5.2468 2.3927
-5.0233 5.0897 2.3927
-5.2199 4.9246 2.3927
-5.4106 4.7517 2.3927
-5.5951 4.5712 2.3927
-5.7731 4.3832 2.3927
-5.9442 4.1880 2.3927
-6.1081 3.9858 2.3927
-6.2645 3.7770 2.3927
-6.4130 3.5617 2.3927
-6.5533 3.3404 2.3927
-6.6853 3.1132 2.3927
-6.8085 2.8807 2.3927
-6.9227 2.6430 2.3927
-7.0278 2.4005 2.3927
-7.1234 2.1537 2.3927
-7.2093 1.9029 2.3927
-7.2853 1.6486 2.3927
-7.3514 1.3910 2.3927
-7.4072 1.1308 2.3927
-7.4527 0.8682 2.3927
-7.4878 0.6038 2.3927
-7.5123 0.3378 2.3927
-7.5262 0.0709 2.3927
-7.5295 -0.1963 2.3927
-7.5220 -0.4639 2.3927
-7.5039 -0.7308 2.3927
-7.4751 -0.9969 2.3927
-7.4357 -1.2617 2.3927
-7.3857 -1.5248 2.3927
-7.3253 -1.7855 2.3927
-7.2544 -2.0437 2.3927
-7.1734 -2.2986 2.3927
-7.0822 -2.5501 2.3927
-6.9812 -2.7973 2.3927
-6.8705 -3.0404 2.3927
-6.7503 -3.2786 2.3927
-6.6208 -3.5116 2.3927
-6.4823 -3.7390 2.3927
-6.3351 -3.9605 2.3927
-6.1795 -4.1756 2.3927
-6.0157 -4.3842 2.3927
-5.8441 -4.5857 2.3927
-5.6651 -4.7801 2.3927
-5.4788 -4.9669 2.3927
-5.2858 -5.1460 2.3927
-5.0863 -5.3171 2.3927
-4.8808 -5.4798 2.3927
-4.6696 -5.6342 2.3927
-4.4531 -5.7799 2.3927
-4.2317 -5.9168 2.3927
-4.0058 -6.0447 2.3927
-3.7757 -6.1636 2.3927
-3.5419 -6.2733 2.3927
-3.3048 -6.3737 2.3927
-3.0647 -6.4649 2.3927
-2.8221 -6.5466 2.3927
-2.5773 -6.6189 2.3927
-2.3307 -6.6817 2.3927
-2.0828 -6.7352 2.3927
-1.8339 -6.7792 2.3927
-1.5843 -6.8138 2.3927
-1.3345 -6.8390 2.3927
-1.0848 -6.8550 2.3927
-0.8356 -6.8618 2.3927
-0.5871 -6.8595 2.3927
-0.3397 -6.8482 2.3927
-0.0939 -6.8280 2.3927
0.1502 -6.7990 2.3927
0.3923 -6.7613 2.3927
0.6319 -6.7152 2.3927
0.8688 -6.6607 2.3927
1.1028 -6.5981 2.3927
1.3336 -6.5274 2.3927
1.5609 -6.4489 2.3927
1.7845 -6.3627 2.3927
2.0040 -6.2691 2.3927
2.2194 -6.1683 2.3927
2.4304 -6.0603 2.3927
2.6367 -5.9455 2.3927
2.8382 -5.8240 2.3927
3.0348 -5.6961 2.3927
3.2261 -5.5620 2.3927
3.4120 -5.4219 2.3927
3.5924 -5.2759 2.3927
3.7672 -5.1244 2.3927
3.9361 -4.9675 2.3927
4.0991 -4.8055 2.3927
4.2559 -4.6386 2.3927
4.4066 -4.4670 2.3927
4.5510 -4.2910 2.3927
4.6890 -4.1107 2.3927
4.8205 -3.9265 2.3927
4.9454 -3.7384 2.3927
5.0637 -3.5468 2.3927
5.1751 -3.3518 2.3927
5.2797 -3.1537 2.3927
5.3775 -2.9528 2.3927
5.4684 -2.7491 2.3927
5.5523 -2.5430 2.3927
5.6292 -2.3347 2.3927
5.6990 -2.1243 2.3927
5.7617 -1.9122 2.3927
5.8173 -1.6984 2.3927
5.8658 -1.4833 2.3927
5.9071 -1.2671 2.3927
5.9413 -1.0499 2.3927
5.9683 -0.8319 2.3927
5.9608 -0.6106 2.3818
5.8653 -0.3857 2.3387
5.7728 -0.1689 2.2997
5.6829 0.0405 2.2645
5.6138 0.2450 2.2403
5.5989 0.4491 2.2403
5.5830 0.6532 2.2426
5.5491 0.8552 2.2403
5.5143 1.0567 2.2403
5.4729 1.2571 2.2403
5.4250 1.4560 2.2403
-4.7953 4.6283 2.3927
-4.9733 4.4690 2.3927
-5.1456 4.3027 2.3927
-5.3119 4.1296 2.3927
-5.4719 3.9497 2.3927
-5.6253 3.7634 2.3927
-5.7718 3.5710 2.3927
-5.9110 3.3726 2.3927
-6.0428 3.1685 2.3927
-6.1669 2.9590 2.3927
-6.2829 2.7445 2.3927
-6.3908 2.5252 2.3927
-6.4901 2.3015 2.3927
-6.5809 2.0737 2.3927
-6.6627 1.8422 2.3927
-6.7355 1.6073 2.3927
-6.7992 1.3694 2.3927
-6.8534 1.1289 2.3927
-6.8982 0.8862 2.3927
-6.9334 0.6417 2.3927
-6.9590 0.3957 2.3927
-6.9748 0.1488 2.3927
-6.9808 -0.0988 2.3927
-6.9770 -0.3465 2.3927
-6.9634 -0.5939 2.3927
-6.9399 -0.8408 2.3927
-6.9067 -1.0865 2.3927
-6.8637 -1.3307 2.3927
-6.8111 -1.5731 2.3927
-6.7489 -1.8131 2.3927
-6.6772 -2.0503 2.3927
-6.5963 -2.2844 2.3927
-6.5061 -2.5150 2.3927
-6.4070 -2.7417 2.3927
-6.2990 -2.9642 2.3927
-6.1825 -3.1819 2.3927
-6.0576 -3.3947 2.3927
-5.9245 -3.6022 2.3927
-5.7835 -3.8041 2.3927
-5.6350 -4.0000 2.3927
-5.4791 -4.1896 2.3927
-5.3161 -4.3727 2.3927
-5.1464 -4.5490 2.3927
-4.9703 -4.7183 2.3927
-4.7881 -4.8803 2.3927
-4.6001 -5.0348 2.3927
-4.4067 -5.1816 2.3927
-4.2082 -5.3206 2.3927
-4.0049 -5.4515 2.3927
-3.7973 -5.5742 2.3927
-3.5857 -5.6887 2.3927
-3.3703 -5.7947 2.3927
-3.1518 -5.8922 2.3927
-2.9302 -5.9811 2.3927
-2.7061 -6.0614 2.3927
-2.4798 -6.1330 2.3927
-2.2516 -6.1958 2.3927
-2.0219 -6.2500 2.3927
-1.7910 -6.2954 2.3927
-1.5593 -6.3321 2.3927
-1.3272 -6.3601 2.3927
-1.0949 -6.3795 2.3927
-0.8629 -6.3903 2.3927
-0.6313 -6.3925 2.3927
-0.4006 -6.3864 2.3927
-0.1710 -6.3720 2.3927
0.0571 -6.3493 2.3927
0.2835 -6.3185 2.3927
0.5079 -6.2797 2.3927
0.7300 -6.2330 2.3927
0.9495 -6.1786 2.3927
1.1662 -6.1167 2.3927
1.3798 -6.0473 2.3927
1.5901 -5.9707 2.3927
1.7969 -5.8871 2.3927
2.0000 -5.7965 2.3927
2.1990 -5.6992 2.3927
2.3939 -5.5953 2.3927
2.5844 -5.4851 2.3927
2.7703 -5.3687 2.3927
2.9515 -5.2464 2.3927
3.1278 -5.1183 2.3927
3.2991 -4.9846 2.3927
3.4651 -4.8455 2.3927
3.6258 -4.7013 2.3927
3.7810 -4.5522 2.3927
3.9306 -4.3983 2.3927
4.0745 -4.2398 2.3927
4.2125 -4.0771 2.3927
4.3445 -3.9102 2.3927
4.4706 -3.7394 2.3927
4.5905 -3.5649 2.3927
4.7041 -3.3869 2.3927
4.8115 -3.2057 2.3927
4.9125 -3.0213 2.3927
5.0071 -2.8342 2.3927
5.0952 -2.6444 2.3927
5.1767 -2.4522 2.3927
5.2517 -2.2577 2.3927
5.3200 -2.0612 2.3927
5.3817 -1.8629 2.3927
5.4367 -1.6630 2.3927
5.4849 -1.4617 2.3927
5.5265 -1.2592 2.3927
5.5612 -1.0557 2.3927
5.5892 -0.8514 2.3927
5.6105 -0.6465 2.3927
5.6249 -0.4412 2.3927
5.6326 -0.2358 2.3927
5.6335 -0.0302 2.3927
5.5974 0.1741 2.3798
5.5116 0.3729 2.3486
5.4275 0.5667 2.3208
5.3448 0.7559 2.2961
5.2633 0.9413 2.2744
5.1829 1.1231 2.2556
5.1120 1.3048 2.2435
5.0556 1.4887 2.2403
5.0004 1.6728 2.2403
4.9391 1.8551 2.2403
4.8717 2.0357 2.2403
4.7985 2.2138 2.2403
4.7195 2.3893 2.2403
4.6345 2.5626 2.2403
4.5438 2.7332 2.2403
4.4474 2.9007 2.2403
4.3454 3.0653 2.2403
4.2378 3.2267 2.2403
4.1382 3.3957 2.2476
4.0456 3.5737 2.2622
3.9556 3.7590 2.2824
3.8632 3.9481 2.3056
3.7680 4.1418 2.3320
3.6698 4.3407 2.3618
3.5642 4.5405 2.3927
3.4056 4.6787 2.3927
3.2420 4.8118 2.3927
3.0738 4.9396 2.3927
2.9008 5.0620 2.3927
2.7234 5.1787 2.3927
2.5415 5.2899 2.3927
2.3556 5.3950 2.3927
2.1656 5.4940 2.3927
0.8157 2.3112 0.9898
0.7320 2.3405 0.9871
0.6474 2.3668 0.9844
0.5618 2.3900 0.9815
0.4754 2.4101 0.9786
0.3883 2.4270 0.9757
0.3007 2.4408 0.9727
0.2127 2.4515 0.9697
0.1243 2.4589 0.9667
0.0357 2.4631 0.9636
-0.0530 2.4642 0.9605
-0.1417 2.4620 0.9573
-0.2303 2.4566 0.9541
-0.3186 2.4480 0.9510
-0.4065 2.4363 0.9478
-0.4940 2.4213 0.9445
-0.5808 2.4032 0.9413
-0.6670 2.3820 0.9381
-0.7523 2.3577 0.9349
-0.8367 2.3303 0.9317
-0.9200 2.2998 0.9285
-2.5914 5.8605 2.3927
-2.8102 5.7862 2.3927
-3.0268 5.7037 2.3927
-3.2410 5.6130 2.3927
-3.4524 5.5142 2.3927
-3.6607 5.4073 2.3927
-3.8655 5.2924 2.3927
-4.0665 5.1696 2.3927
-4.2633 5.0390 2.3927
-4.4558 4.9007 2.3927
-4.6434 4.7549 2.3927
-4.8259 4.6017 2.3927
-5.0030 4.4413 2.3927
-5.1743 4.2738 2.3927
-5.3396 4.0995 2.3927
-5.4985 3.9185 2.3927
-5.6507 3.7312 2.3927
-5.7960 3.5377 2.3927
-5.9340 3.3383 2.3927
-6.0645 3.1333 2.3927
-6.1872 2.9229 2.3927
-6.3018 2.7076 2.3927
-6.4082 2.4875 2.3927
-6.5062 2.2631 2.3927
-6.5954 2.0347 2.3927
-6.6757 1.8025 2.3927
-6.7470 1.5671 2.3927
-6.8090 1.3287 2.3927
-6.8617 1.0878 2.3927
-6.9049 0.8448 2.3927
-6.9385 0.6000 2.3927
-6.9624 0.3538 2.3927
-6.9765 0.1067 2.3927
-6.9809 -0.1408 2.3927
-6.9754 -0.3886 2.3927
-6.9601 -0.6360 2.3927
-6.9350 -0.8827 2.3927
-6.9001 -1.1282 2.3927
-6.8554 -1.3721 2.3927
-6.8012 -1.6140 2.3927
-6.7374 -1.8536 2.3927
-6.6641 -2.0903 2.3927
-6.5816 -2.3238 2.3927
-6.4899 -2.5538 2.3927
-6.3892 -2.7798 2.3927
-6.2798 -3.0015 2.3927
-6.1618 -3.2185 2.3927
-6.0355 -3.4303 2.3927
-5.9011 -3.6370 2.3927
-5.7588 -3.8378 2.3927
-5.6090 -4.0326 2.3927
-5.4518 -4.2213 2.3927
-5.2877 -4.4032 2.3927
-5.1169 -4.5783 2.3927
-4.9398 -4.7464 2.3927
-4.7565 -4.9071 2.3927
-4.5676 -5.0603 2.3927
-4.3733 -5.2058 2.3927
-4.1740 -5.3434 2.3927
-3.9699 -5.4729 2.3927
-3.7616 -5.5943 2.3927
-3.5493 -5.7073 2.3927
-3.3334 -5.8118 2.3927
-3.1143 -5.9079 2.3927
-2.8923 -5.9954 2.3927
-2.6678 -6.0742 2.3927
-2.4411 -6.1443 2.3927
-2.2126 -6.2056 2.3927
-1.9827 -6.2583 2.3927
-1.7517 -6.3022 2.3927
-1.5199 -6.3374 2.3927
-1.2877 -6.3640 2.3927
-1.0555 -6.3819 2.3927
-0.8235 -6.3912 2.3927
-0.5920 -6.3921 2.3927
-0.3615 -6.3845 2.3927
-0.1321 -6.3687 2.3927
0.0957 -6.3446 2.3927
0.3218 -6.3124 2.3927
0.5458 -6.2723 2.3927
0.7675 -6.2243 2.3927
0.9865 -6.1686 2.3927
1.2027 -6.1054 2.3927
1.4158 -6.0348 2.3927
1.6255 -5.9570 2.3927
1.8317 -5.8721 2.3927
2.0341 -5.7804 2.3927
2.2324 -5.6820 2.3927
2.4266 -5.5770 2.3927
2.6163 -5.4657 2.3927
2.8015 -5.3483 2.3927
2.9818 -5.2250 2.3927
3.1573 -5.0959 2.3927
3.3277 -4.9613 2.3927
3.4928 -4.8214 2.3927
3.6526 -4.6763 2.3927
3.8069 -4.5263 2.3927
3.9555 -4.3717 2.3927
4.0983 -4.2125 2.3927
4.2354 -4.0490 2.3927
4.3664 -3.8814 2.3927
4.4914 -3.7100 2.3927
4.6102 -3.5349 2.3927
4.7229 -3.3564 2.3927
4.8291 -3.1745 2.3927
4.9291 -2.9898 2.3927
5.0225 -2.8022 2.3927
5.1095 -2.6119 2.3927
5.1899 -2.4193 2.3927
5.2638 -2.2245 2.3927
5.3310 -2.0277 2.3927
5.3915 -1.8291 2.3927
5.4454 -1.6289 2.3927
5.4925 -1.4274 2.3927
5.5328 -1.2247 2.3927
5.5665 -1.0210 2.3927
5.5933 -0.8166 2.3927
5.6134 -0.6116 2.3927
5.6267 -0.4063 2.3927
5.6332 -0.2008 2.3927
5.6330 0.0047 2.3927
5.5827 0.2083 2.3743
5.4972 0.4062 2.3437
5.4134 0.5991 2.3163
5.3309 0.7877 2.2922
5.2497 0.9721 2.2710
5.1708 1.1543 2.2534
5.0998 1.3354 2.2416
5.0466 1.5201 2.2403
4.9904 1.7039 2.2403
4.9281 1.8859 2.2403
4.8598 2.0659 2.2403
4.7855 2.2438 2.2403
4.7055 2.4188 2.2403
4.6197 2.5914 2.2403
4.5279 2.7618 2.2403
4.4305 2.9289 2.2403
4.3275 3.0930 2.2403
4.2190 3.2538 2.2403
4.1222 3.4254 2.2497
4.0304 3.6050 2.2655
3.9401 3.7908 2.2861
3.8472 3.9807 2.3098
3.7515 4.1752 2.3368
3.6527 4.3750 2.3672
3.5376 4.5644 2.3927
3.3782 4.7017 2.3927
3.2137 4.8340 2.3927
3.0447 4.9608 2.3927
2.8709 5.0823 2.3927
2.6928 5.1980 2.3927
2.5102 5.3082 2.3927
2.3236 5.4123 2.3927
0.8843 2.2846 0.9920
0.8016 2.3164 0.9894
0.7177 2.3452 0.9867
0.6329 2.3709 0.9839
0.5471 2.3936 0.9810
0.4606 2.4132 0.9782
0.3735 2.4296 0.9752
0.2858 2.4429 0.9722
0.1977 2.4529 0.9692
0.1092 2.4598 0.9661
0.0206 2.4635 0.9630
-0.0681 2.4640 0.9599
-0.1568 2.4613 0.9568
-0.2453 2.4554 0.9536
-0.3335 2.4462 0.9504
-0.4214 2.4339 0.9472
-0.5088 2.4185 0.9440
-0.5955 2.3998 0.9408
-0.6815 2.3781 0.9376
-0.7667 2.3532 0.9344
-0.8509 2.3253 0.9312
-0.9340 2.2944 0.9280
-2.6287 5.8484 2.3927
-2.8472 5.7727 2.3927
-3.0634 5.6888 2.3927
-3.2772 5.5968 2.3927
-3.4880 5.4966 2.3927
-3.6957 5.3883 2.3927
-3.8999 5.2721 2.3927
-4.1002 5.1479 2.3927
-4.2964 5.0160 2.3927
-4.4880 4.8765 2.3927
-4.6748 4.7294 2.3927
-4.8564 4.5749 2.3927
-5.0325 4.4133 2.3927
-5.2028 4.2446 2.3927
-5.3670 4.0692 2.3927
-5.5248 3.8871 2.3927
-5.6759 3.6987 2.3927
-5.8199 3.5042 2.3927
-5.9567 3.3038 2.3927
-6.0859 3.0979 2.3927
-6.2072 2.8867 2.3927
-6.3205 2.6705 2.3927
-6.4255 2.4497 2.3927
-6.5220 2.2246 2.3927
-6.6097 1.9955 2.3927
-6.6885 1.7627 2.3927
-6.7582 1.5268 2.3927
-6.8187 1.2880 2.3927
-6.8697 1.0467 2.3927
-6.9113 0.8033 2.3927
-6.9432 0.5582 2.3927
-6.9655 0.3119 2.3927
-6.9779 0.0647 2.3927
-6.9806 -0.1830 2.3927
-6.9735 -0.4307 2.3927
-6.9565 -0.6780 2.3927
-6.9297 -0.9244 2.3927
-6.8932 -1.1697 2.3927
-6.8469 -1.4133 2.3927
-6.7910 -1.6549 2.3927
-6.7256 -1.8940 2.3927
-6.6507 -2.1303 2.3927
-6.5666 -2.3632 2.3927
-6.4734 -2.5925 2.3927
-6.3713 -2.8178 2.3927
-6.2604 -3.0388 2.3927
-6.1409 -3.2549 2.3927
-6.0132 -3.4659 2.3927
-5.8775 -3.6715 2.3927
-5.7339 -3.8713 2.3927
-5.5828 -4.0652 2.3927
-5.4244 -4.2527 2.3927
-5.2592 -4.4334 2.3927
-5.0873 -4.6074 2.3927
-4.9090 -4.7742 2.3927
-4.7248 -4.9337 2.3927
-4.5349 -5.0856 2.3927
-4.3397 -5.2298 2.3927
-4.1396 -5.3660 2.3927
-3.9348 -5.4941 2.3927
-3.7258 -5.6141 2.3927
-3.5129 -5.7256 2.3927
-3.2964 -5.8288 2.3927
-3.0768 -5.9234 2.3927
-2.8543 -6.0094 2.3927
-2.6294 -6.0867 2.3927
-2.4024 -6.1553 2.3927
-2.1736 -6.2152 2.3927
-1.9435 -6.2664 2.3927
-1.7123 -6.3088 2.3927
-1.4805 -6.3426 2.3927
-1.2482 -6.3676 2.3927
-1.0160 -6.3841 2.3927
-0.7841 -6.3920 2.3927
-0.5528 -6.3914 2.3927
-0.3224 -6.3824 2.3927
-0.0933 -6.3652 2.3927
0.1343 -6.3397 2.3927
0.3600 -6.3062 2.3927
0.5837 -6.2647 2.3927
0.8049 -6.2154 2.3927
1.0235 -6.1584 2.3927
1.2392 -6.0939 2.3927
1.4517 -6.0221 2.3927
1.6608 -5.9431 2.3927
1.8664 -5.8570 2.3927
2.0681 -5.7641 2.3927
2.2657 -5.6646 2.3927
2.4591 -5.5585 2.3927
2.6481 -5.4462 2.3927
2.8325 -5.3278 2.3927
3.0120 -5.2035 2.3927
3.1866 -5.0734 2.3927
3.3561 -4.9379 2.3927
3.5204 -4.7971 2.3927
3.6792 -4.6512 2.3927
3.8325 -4.5004 2.3927
3.9802 -4.3449 2.3927
4.1221 -4.1850 2.3927
4.2580 -4.0208 2.3927
4.3881 -3.8525 2.3927
4.5120 -3.6805 2.3927
4.6298 -3.5048 2.3927
4.7413 -3.3257 2.3927
4.8466 -3.1434 2.3927
4.9454 -2.9581 2.3927
5.0377 -2.7700 2.3927
5.1236 -2.5793 2.3927
5.2029 -2.3863 2.3927
5.2757 -2.1912 2.3927
5.3417 -1.9940 2.3927
5.4011 -1.7952 2.3927
5.4538 -1.5947 2.3927
5.4998 -1.3930 2.3927
5.5390 -1.1901 2.3927
5.5715 -0.9863 2.3927
5.5972 -0.7818 2.3927
5.6161 -0.5767 2.3927
5.6283 -0.3714 2.3927
5.6336 -0.1658 2.3927
5.6323 0.0396 2.3927
5.5681 0.2423 2.3688
5.4829 0.4393 2.3388
5.3993 0.6315 2.3120
5.3170 0.8193 2.2884
5.2359 1.0034 2.2677
5.1588 1.1852 2.2512
5.0887 1.3662 2.2403
-4.4791 4.3166 2.3927
-4.6443 4.1672 2.3927
-4.8041 4.0114 2.3927
-4.9583 3.8492 2.3927
-5.1066 3.6808 2.3927
-5.2487 3.5066 2.3927
-5.3843 3.3266 2.3927
-5.5131 3.1412 2.3927
-5.6350 2.9506 2.3927
-5.7497 2.7551 2.3927
-5.8570 2.5549 2.3927
-5.9566 2.3504 2.3927
-6.0484 2.1418 2.3927
-6.1321 1.9295 2.3927
-6.2076 1.7137 2.3927
-6.2747 1.4949 2.3927
-6.3333 1.2734 2.3927
-6.3833 1.0495 2.3927
-6.4244 0.8236 2.3927
-6.4567 0.5960 2.3927
-6.4801 0.3671 2.3927
-6.4944 0.1374 2.3927
-6.4997 -0.0929 2.3927
-6.4960 -0.3234 2.3927
-6.4831 -0.5535 2.3927
-6.4612 -0.7831 2.3927
-6.4302 -1.0117 2.3927
-6.3902 -1.2388 2.3927
-6.3414 -1.4642 2.3927
-6.2836 -1.6874 2.3927
-6.2172 -1.9082 2.3927
-6.1421 -2.1261 2.3927
-6.0585 -2.3407 2.3927
-5.9666 -2.5517 2.3927
-5.8666 -2.7588 2.3927
-5.7585 -2.9617 2.3927
-5.6428 -3.1600 2.3927
-5.5194 -3.3534 2.3927
-5.3888 -3.5416 2.3927
-5.2511 -3.7243 2.3927
-5.1065 -3.9013 2.3927
-4.9555 -4.0722 2.3927
-4.7981 -4.2370 2.3927
-4.6347 -4.3952 2.3927
-4.4656 -4.5467 2.3927
-4.2912 -4.6913 2.3927
-4.1116 -4.8289 2.3927
-3.9273 -4.9591 2.3927
-3.7385 -5.0820 2.3927
-3.5456 -5.1973 2.3927
-3.3489 -5.3049 2.3927
-3.1488 -5.4048 2.3927
-2.9455 -5.4968 2.3927
-2.7393 -5.5808 2.3927
-2.5308 -5.6568 2.3927
-2.3200 -5.7248 2.3927
-2.1075 -5.7846 2.3927
-1.8934 -5.8364 2.3927
-1.6782 -5.8800 2.3927
-1.4621 -5.9155 2.3927
-1.2456 -5.9430 2.3927
-1.0288 -5.9624 2.3927
-0.8121 -5.9737 2.3927
-0.5958 -5.9772 2.3927
-0.3801 -5.9728 2.3927
-0.1655 -5.9606 2.3927
0.0479 -5.9406 2.3927
0.2598 -5.9131 2.3927
0.4699 -5.8781 2.3927
0.6779 -5.8357 2.3927
0.8836 -5.7861 2.3927
1.0867 -5.7293 2.3927
1.2871 -5.6656 2.3927
1.4844 -5.5950 2.3927
1.6785 -5.5177 2.3927
1.8692 -5.4340 2.3927
2.0562 -5.3439 2.3927
2.2394 -5.2475 2.3927
2.4185 -5.1452 2.3927
2.5934 -5.0371 2.3927
2.7640 -4.9232 2.3927
2.9299 -4.8039 2.3927
3.0912 -4.6794 2.3927
3.2477 -4.5497 2.3927
3.3992 -4.4151 2.3927
3.5455 -4.2758 2.3927
3.6866 -4.1319 2.3927
3.8224 -3.9838 2.3927
3.9526 -3.8315 2.3927
4.0774 -3.6752 2.3927
4.1964 -3.5153 2.3927
4.3097 -3.3517 2.3927
4.4172 -3.1849 2.3927
4.5187 -3.0149 2.3927
4.6143 -2.8420 2.3927
4.7039 -2.6665 2.3927
4.7872 -2.4881 2.3927
4.8644 -2.3075 2.3927
4.9355 -2.1248 2.3927
5.0003 -1.9402 2.3927
5.0588 -1.7538 2.3927
5.1109 -1.5658 2.3927
5.1568 -1.3765 2.3927
5.1962 -1.1860 2.3927
5.2293 -0.9945 2.3927
5.2560 -0.8022 2.3927
5.2763 -0.6094 2.3927
5.2901 -0.4162 2.3927
5.2976 -0.2228 2.3927
5.2986 -0.0293 2.3927
5.2933 0.1640 2.3927
5.2815 0.3569 2.3927
5.2635 0.5492 2.3927
5.2390 0.7408 2.3927
5.2083 0.9315 2.3927
5.1584 1.1182 2.3867
5.0791 1.2968 2.3699
5.0003 1.4730 2.3558
4.9218 1.6473 2.3445
4.8434 1.8201 2.3359
4.7650 1.9920 2.3299
4.6863 2.1631 2.3266
4.6072 2.3341 2.3258
4.5275 2.5052 2.3277
4.4470 2.6769 2.3321
4.3655 2.8497 2.3392
4.2828 3.0238 2.3490
4.1986 3.1998 2.3616
4.1128 3.3781 2.3770
4.0206 3.5552 2.3927
3.8959 3.7062 2.3927
3.7660 3.8532 2.3927
3.6311 3.9960 2.3927
3.4911 4.1345 2.3927
3.3463 4.2685 2.3927
3.1967 4.3979 2.3927
3.0426 4.5224 2.3927
2.8839 4.6419 2.3927
2.7210 4.7563 2.3927
2.5538 4.8653 2.3927
2.3828 4.9685 2.3927
2.2075 5.0668 2.3927
0.8387 2.1327 0.9891
0.7614 2.1630 0.9867
0.6831 2.1904 0.9841
0.6038 2.2150 0.9815
0.5237 2.2367 0.9789
0.4428 2.2555 0.9762
0.3613 2.2713 0.9735
0.2793 2.2843 0.9707
0.1969 2.2942 0.9679
0.1142 2.3011 0.9650
0.0312 2.3051 0.9621
-0.0518 2.3061 0.9592
-0.1348 2.3040 0.9562
-0.2177 2.2990 0.9533
-0.3003 2.2909 0.9503
-0.3826 2.2799 0.9473
-0.4645 2.2659 0.9443
-0.5458 2.2490 0.9413
-0.6264 2.2291 0.9383
-0.7063 2.2064 0.9353
-0.7853 2.1807 0.9323
-0.8633 2.1523 0.9293
-0.9402 2.1210 0.9263
-2.6325 5.4080 2.3927
-2.8345 5.3297 2.3927
-3.0340 5.2438 2.3927
-3.2308 5.1503 2.3927
-3.4247 5.0494 2.3927
-3.6152 4.9410 2.3927
-3.8021 4.8253 2.3927
-3.9851 4.7025 2.3927
-4.1639 4.5725 2.3927
-4.3381 4.4355 2.3927
-4.5075 4.2917 2.3927
-4.6718 4.1412 2.3927
-4.8307 3.9842 2.3927
-4.9839 3.8210 2.3927
-5.1312 3.6516 2.3927
-5.2722 3.4764 2.3927
-5.4066 3.2955 2.3927
-5.5343 3.1092 2.3927
-5.6550 2.9177 2.3927
-5.7685 2.7214 2.3927
-5.8745 2.5204 2.3927
-5.9728 2.3152 2.3927
-6.0632 2.1059 2.3927
-6.1455 1.8930 2.3927
-6.2196 1.6767 2.3927
-6.2853 1.4575 2.3927
-6.3424 1.2355 2.3927
-6.3909 1.0112 2.3927
-6.4305 0.7850 2.3927
-6.4613 0.5572 2.3927
-6.4832 0.3281 2.3927
-6.4960 0.0983 2.3927
-6.4997 -0.1321 2.3927
-6.4944 -0.3625 2.3927
-6.4800 -0.5926 2.3927
-6.4566 -0.8220 2.3927
-6.4241 -1.0504 2.3927
-6.3826 -1.2773 2.3927
-6.3322 -1.5023 2.3927
-6.2729 -1.7252 2.3927
-6.2050 -1.9455 2.3927
-6.1285 -2.1628 2.3927
-6.0435 -2.3768 2.3927
-5.9502 -2.5872 2.3927
-5.8488 -2.7936 2.3927
-5.7394 -2.9958 2.3927
-5.6223 -3.1932 2.3927
-5.4978 -3.3858 2.3927
-5.3659 -3.5730 2.3927
-5.2270 -3.7548 2.3927
-5.0813 -3.9308 2.3927
-4.9291 -4.1007 2.3927
-4.7707 -4.2643 2.3927
-4.6064 -4.4214 2.3927
-4.4364 -4.5718 2.3927
-4.2610 -4.7152 2.3927
-4.0806 -4.8515 2.3927
-3.8955 -4.9805 2.3927
-3.7060 -5.1021 2.3927
-3.5125 -5.2161 2.3927
-3.3152 -5.3225 2.3927
-3.1144 -5.4210 2.3927
-2.9106 -5.5116 2.3927
-2.7041 -5.5943 2.3927
-2.4951 -5.6689 2.3927
-2.2840 -5.7355 2.3927
-2.0712 -5.7940 2.3927
-1.8569 -5.8443 2.3927
-1.6415 -5.8866 2.3927
-1.4254 -5.9207 2.3927
-1.2087 -5.9468 2.3927
-0.9919 -5.9649 2.3927
-0.7753 -5.9749 2.3927
-0.5591 -5.9770 2.3927
-0.3436 -5.9712 2.3927
-0.1291 -5.9577 2.3927
0.0841 -5.9365 2.3927
0.2956 -5.9077 2.3927
0.5054 -5.8714 2.3927
0.7130 -5.8278 2.3927
0.9183 -5.7769 2.3927
1.1210 -5.7190 2.3927
1.3209 -5.6540 2.3927
1.5177 -5.5823 2.3927
1.7112 -5.5040 2.3927
1.9007 -5.4182 2.3927
2.0876 -5.3279 2.3927
2.2701 -5.2306 2.3927
2.4485 -5.1272 2.3927
2.6227 -5.0181 2.3927
2.7925 -4.9033 2.3927
2.9577 -4.7831 2.3927
3.1182 -4.6577 2.3927
3.2738 -4.5271 2.3927
3.4244 -4.3917 2.3927
3.5699 -4.2516 2.3927
3.7101 -4.1070 2.3927
3.8449 -3.9582 2.3927
3.9742 -3.8052 2.3927
4.0980 -3.6483 2.3927
4.2161 -3.4877 2.3927
4.3284 -3.3236 2.3927
4.4349 -3.1562 2.3927
4.5354 -2.9857 2.3927
4.6299 -2.8123 2.3927
4.7184 -2.6362 2.3927
4.8008 -2.4576 2.3927
4.8770 -2.2766 2.3927
4.9469 -2.0936 2.3927
5.0106 -1.9086 2.3927
5.0681 -1.7219 2.3927
5.1192 -1.5337 2.3927
5.1639 -1.3442 2.3927
5.2023 -1.1535 2.3927
5.2343 -0.9619 2.3927
5.2599 -0.7695 2.3927
5.2791 -0.5766 2.3927
5.2918 -0.3833 2.3927
5.2982 -0.1899 2.3927
5.2982 0.0036 2.3927
5.2917 0.1968 2.3927
5.2789 0.3896 2.3927
5.2597 0.5820 2.3927
5.2343 0.7733 2.3927
5.2025 0.9638 2.3927
5.1449 1.1488 2.3837
5.0656 1.3269 2.3673
4.9869 1.5027 2.3537
4.9084 1.6768 2.3429
4.8301 1.8494 2.3347
4.7516 2.0211 2.3292
4.6729 2.1922 2.3263
4.5937 2.3631 2.3260
4.5139 2.5344 2.3282
4.4332 2.7062 2.3331
4.3515 2.8791 2.3407
4.2686 3.0536 2.3510
4.1842 3.2299 2.3640
4.0981 3.4087 2.3799
3.9998 3.5811 2.3927
3.8742 3.7314 2.3927
3.7435 3.8778 2.3927
3.6077 4.0198 2.3927
3.4668 4.1576 2.3927
3.3212 4.2909 2.3927
3.1709 4.4194 2.3927
3.0160 4.5429 2.3927
2.8565 4.6617 2.3927
2.6928 4.7752 2.3927
2.5250 4.8833 2.3927
2.3531 4.9859 2.3927
2.1774 5.0829 2.3927
0.8256 2.1381 0.9887
0.7482 2.1678 0.9862
0.6697 2.1948 0.9837
0.5902 2.2189 0.9811
0.5100 2.2401 0.9785
0.4290 2.2584 0.9757
0.3474 2.2737 0.9730
0.2654 2.2862 0.9702
0.1829 2.2956 0.9674
0.1001 2.3020 0.9645
0.0171 2.3055 0.9616
-0.0659 2.3059 0.9587
-0.1489 2.3034 0.9557
-0.2318 2.2978 0.9528
-0.3143 2.2893 0.9498
-0.3966 2.2778 0.9468
-0.4783 2.2633 0.9438
-0.5595 2.2458 0.9408
-0.6400 2.2255 0.9378
-0.7198 2.2022 0.9348
-0.7986 2.1761 0.9318
-0.8764 2.1471 0.9288
-2.4633 5.4672 2.3927
-2.6670 5.3952 2.3927
-2.8686 5.3156 2.3927
-3.0677 5.2284 2.3927
-3.2640 5.1337 2.3927
-3.4573 5.0315 2.3927
-3.6472 4.9219 2.3927
-3.8335 4.8050 2.3927
-4.0158 4.6808 2.3927
-4.1939 4.5497 2.3927
-4.3673 4.4115 2.3927
-4.5358 4.2666 2.3927
-4.6992 4.1150 2.3927
-4.8572 3.9569 2.3927
-5.0094 3.7926 2.3927
-5.1556 3.6223 2.3927
-5.2955 3.4460 2.3927
-5.4288 3.2642 2.3927
-5.5554 3.0770 2.3927
-5.6749 2.8847 2.3927
-5.7870 2.6875 2.3927
-5.8917 2.4859 2.3927
-5.9887 2.2799 2.3927
-6.0778 2.0700 2.3927
-6.1587 1.8565 2.3927
-6.2314 1.6397 2.3927
-6.2956 1.4199 2.3927
-6.3513 1.1975 2.3927
-6.3982 0.9729 2.3927
-6.4364 0.7464 2.3927
-6.4657 0.5183 2.3927
-6.4860 0.2891 2.3927
-6.4973 0.0591 2.3927
-6.4995 -0.1713 2.3927
-6.4926 -0.4016 2.3927
-6.4767 -0.6317 2.3927
-6.4517 -0.8609 2.3927
-6.4176 -1.0890 2.3927
-6.3746 -1.3156 2.3927
-6.3227 -1.5403 2.3927
-6.2620 -1.7628 2.3927
-6.1926 -1.9826 2.3927
-6.1146 -2.1994 2.3927
-6.0282 -2.4128 2.3927
-5.9335 -2.6226 2.3927
-5.8307 -2.8283 2.3927
-5.7201 -3.0297 2.3927
-5.6017 -3.2263 2.3927
-5.4758 -3.4180 2.3927
-5.3428 -3.6044 2.3927
-5.2027 -3.7851 2.3927
-5.0559 -3.9601 2.3927
-4.9027 -4.1289 2.3927
-4.7432 -4.2915 2.3927
-4.5779 -4.4475 2.3927
-4.4069 -4.5967 2.3927
-4.2307 -4.7389 2.3927
-4.0495 -4.8740 2.3927
-3.8636 -5.0017 2.3927
-3.6734 -5.1220 2.3927
-3.4792 -5.2348 2.3927
-3.2813 -5.3398 2.3927
-3.0800 -5.4369 2.3927
-2.8757 -5.5262 2.3927
-2.6687 -5.6075 2.3927
-2.4593 -5.6808 2.3927
-2.2480 -5.7460 2.3927
-2.0348 -5.8031 2.3927
-1.8204 -5.8521 2.3927
-1.6048 -5.8930 2.3927
-1.3886 -5.9258 2.3927
-1.1719 -5.9505 2.3927
-0.9551 -5.9671 2.3927
-0.7385 -5.9758 2.3927
-0.5224 -5.9766 2.3927
-0.3070 -5.9695 2.3927
-0.0928 -5.9546 2.3927
0.1201 -5.9321 2.3927
0.3314 -5.9020 2.3927
0.5408 -5.8645 2.3927
0.7481 -5.8196 2.3927
0.9529 -5.7676 2.3927
1.1552 -5.7084 2.3927
1.3545 -5.6423 2.3927
1.5508 -5.5695 2.3927
1.7437 -5.4900 2.3927
1.9332 -5.4041 2.3927
2.1189 -5.3118 2.3927
2.3007 -5.2134 2.3927
2.4784 -5.1091 2.3927
2.6519 -4.9990 2.3927
2.8209 -4.8833 2.3927
2.9853 -4.7622 2.3927
3.1450 -4.6359 2.3927
3.2997 -4.5045 2.3927
3.4495 -4.3682 2.3927
3.5941 -4.2274 2.3927
3.7333 -4.0820 2.3927
3.8673 -3.9325 2.3927
3.9957 -3.7788 2.3927
4.1185 -3.6213 2.3927
4.2356 -3.4601 2.3927
4.3469 -3.2954 2.3927
4.4524 -3.1275 2.3927
4.5519 -2.9564 2.3927
4.6454 -2.7826 2.3927
4.7328 -2.6060 2.3927
4.8142 -2.4270 2.3927
4.8893 -2.2457 2.3927
4.9582 -2.0623 2.3927
5.0208 -1.8770 2.3927
5.0772 -1.6900 2.3927
5.1272 -1.5016 2.3927
5.1709 -1.3118 2.3927
5.2082 -1.1210 2.3927
5.2391 -0.9292 2.3927
5.2636 -0.7368 2.3927
5.2817 -0.5438 2.3927
5.2934 -0.3506 2.3927
5.2986 -0.1570 2.3927
5.2975 0.0364 2.3927
5.2900 0.2296 2.3927
5.2761 0.4223 2.3927
5.2559 0.6144 2.3927
5.2293 0.8057 2.3927
5.1964 0.9960 2.3927
5.1314 1.1792 2.3807
5.0522 1.3569 2.3648
-4.1979 4.0394 2.3927
-4.3518 3.8989 2.3927
-4.5006 3.7524 2.3927
-4.6441 3.6000 2.3927
-4.7821 3.4420 2.3927
-4.9142 3.2785 2.3927
-5.0403 3.1097 2.3927
-5.1601 2.9359 2.3927
-5.2733 2.7573 2.3927
-5.3798 2.5742 2.3927
-5.4794 2.3868 2.3927
-5.5718 2.1954 2.3927
-5.6570 2.0002 2.3927
-5.7346 1.8016 2.3927
-5.8045 1.5999 2.3927
-5.8667 1.3954 2.3927
-5.9209 1.1884 2.3927
-5.9671 0.9792 2.3927
-6.0051 0.7681 2.3927
-6.0349 0.5555 2.3927
-6.0563 0.3418 2.3927
-6.0695 0.1273 2.3927
-6.0742 -0.0877 2.3927
-6.0704 -0.3029 2.3927
-6.0583 -0.5178 2.3927
-6.0377 -0.7321 2.3927
-6.0088 -0.9454 2.3927
-5.9714 -1.1575 2.3927
-5.9259 -1.3679 2.3927
-5.8721 -1.5764 2.3927
-5.8102 -1.7825 2.3927
-5.7402 -1.9860 2.3927
-5.6625 -2.1865 2.3927
-5.5769 -2.3837 2.3927
-5.4838 -2.5772 2.3927
-5.3833 -2.7668 2.3927
-5.2756 -2.9522 2.3927
-5.1608 -3.1330 2.3927
-5.0392 -3.3091 2.3927
-4.9111 -3.4801 2.3927
-4.7765 -3.6458 2.3927
-4.6359 -3.8060 2.3927
-4.4893 -3.9603 2.3927
-4.3372 -4.1087 2.3927
-4.1797 -4.2509 2.3927
-4.0172 -4.3866 2.3927
-3.8498 -4.5158 2.3927
-3.6780 -4.6383 2.3927
-3.5020 -4.7539 2.3927
-3.3221 -4.8625 2.3927
-3.1386 -4.9640 2.3927
-2.9518 -5.0583 2.3927
-2.7620 -5.1452 2.3927
-2.5696 -5.2247 2.3927
-2.3747 -5.2968 2.3927
-2.1778 -5.3614 2.3927
-1.9791 -5.4184 2.3927
-1.7790 -5.4679 2.3927
-1.5777 -5.5098 2.3927
-1.3755 -5.5441 2.3927
-1.1728 -5.5709 2.3927
-0.9697 -5.5902 2.3927
-0.7667 -5.6019 2.3927
-0.5640 -5.6063 2.3927
-0.3618 -5.6032 2.3927
-0.1605 -5.5928 2.3927
0.0397 -5.5753 2.3927
0.2386 -5.5505 2.3927
0.4358 -5.5187 2.3927
0.6312 -5.4800 2.3927
0.8245 -5.4345 2.3927
1.0155 -5.3822 2.3927
1.2040 -5.3233 2.3927
1.3896 -5.2580 2.3927
1.5723 -5.1864 2.3927
1.7519 -5.1087 2.3927
1.9280 -5.0249 2.3927
2.1006 -4.9352 2.3927
2.2695 -4.8399 2.3927
2.4344 -4.7390 2.3927
2.5953 -4.6327 2.3927
2.7520 -4.5212 2.3927
2.9042 -4.4047 2.3927
3.0520 -4.2834 2.3927
3.1951 -4.1574 2.3927
3.3334 -4.0268 2.3927
3.4668 -3.8920 2.3927
3.5952 -3.7530 2.3927
3.7184 -3.6101 2.3927
3.8364 -3.4634 2.3927
3.9491 -3.3131 2.3927
4.0564 -3.1594 2.3927
4.1582 -3.0026 2.3927
4.2544 -2.8427 2.3927
4.3450 -2.6800 2.3927
4.4299 -2.5147 2.3927
4.5090 -2.3469 2.3927
4.5823 -2.1769 2.3927
4.6497 -2.0047 2.3927
4.7112 -1.8308 2.3927
4.7668 -1.6551 2.3927
4.8164 -1.4779 2.3927
4.8600 -1.2994 2.3927
4.8975 -1.1197 2.3927
4.9291 -0.9391 2.3927
4.9545 -0.7578 2.3927
4.9739 -0.5759 2.3927
4.9872 -0.3936 2.3927
4.9944 -0.2110 2.3927
4.9955 -0.0285 2.3927
4.9906 0.1539 2.3927
4.9797 0.3359 2.3927
4.9627 0.5175 2.3927
4.9397 0.6983 2.3927
4.9107 0.8783 2.3927
4.8757 1.0572 2.3927
4.8348 1.2348 2.3927
4.7880 1.4111 2.3927
4.7354 1.5857 2.3927
4.6771 1.7584 2.3927
4.6128 1.9296 2.3927
4.5430 2.0983 2.3927
4.4675 2.2649 2.3927
4.3865 2.4290 2.3927
4.2999 2.5904 2.3927
4.2078 2.7491 2.3927
4.1105 2.9047 2.3927
4.0079 3.0573 2.3927
3.9001 3.2065 2.3927
3.7871 3.3522 2.3927
3.6692 3.4943 2.3927
3.5464 3.6326 2.3927
3.4188 3.7669 2.3927
3.2864 3.8971 2.3927
3.1495 4.0230 2.3927
3.0082 4.1444 2.3927
2.8625 4.2612 2.3927
2.7127 4.3733 2.3927
2.5589 4.4802 2.3927
2.4009 4.5826 2.3927
2.2393 4.6796 2.3927
0.8568 1.9710 0.9884
0.7853 2.0020 0.9862
0.7128 2.0303 0.9839
0.6392 2.0561 0.9815
0.5648 2.0791 0.9790
0.4896 2.0995 0.9766
0.4137 2.1171 0.9740
0.3372 2.1320 0.9715
0.2602 2.1441 0.9688
0.1828 2.1534 0.9662
0.1051 2.1600 0.9635
0.0273 2.1637 0.9608
-0.0507 2.1646 0.9580
-0.1286 2.1626 0.9553
-0.2064 2.1579 0.9525
-0.2840 2.1504 0.9497
-0.3613 2.1400 0.9469
-0.4381 2.1269 0.9441
-0.5144 2.1110 0.9412
-0.5901 2.0923 0.9384
-0.6651 2.0710 0.9356
-0.7392 2.0469 0.9328
-0.8125 2.0202 0.9300
-0.8847 1.9908 0.9272
-2.4739 5.0703 2.3927
-2.6628 4.9959 2.3927
-2.8493 4.9144 2.3927
-3.0332 4.8258 2.3927
-3.2143 4.7303 2.3927
-3.3922 4.6279 2.3927
-3.5667 4.5187 2.3927
-3.7374 4.4028 2.3927
-3.9041 4.2803 2.3927
-4.0665 4.1513 2.3927
-4.2244 4.0159 2.3927
-4.3774 3.8744 2.3927
-4.5254 3.7269 2.3927
-4.6680 3.5736 2.3927
-4.8050 3.4146 2.3927
-4.9361 3.2502 2.3927
-5.0611 3.0805 2.3927
-5.1798 2.9059 2.3927
-5.2919 2.7265 2.3927
-5.3973 2.5426 2.3927
-5.4956 2.3545 2.3927
-5.5868 2.1625 2.3927
-5.6707 1.9667 2.3927
-5.7470 1.7676 2.3927
-5.8156 1.5654 2.3927
-5.8764 1.3604 2.3927
-5.9293 1.1530 2.3927
-5.9741 0.9434 2.3927
-6.0107 0.7321 2.3927
-6.0391 0.5193 2.3927
-6.0592 0.3054 2.3927
-6.0708 0.0908 2.3927
-6.0741 -0.1243 2.3927
-6.0690 -0.3394 2.3927
-6.0554 -0.5542 2.3927
-6.0334 -0.7684 2.3927
-6.0030 -0.9816 2.3927
-5.9643 -1.1934 2.3927
-5.9173 -1.4035 2.3927
-5.8621 -1.6116 2.3927
-5.7988 -1.8173 2.3927
-5.7276 -2.0203 2.3927
-5.6485 -2.2202 2.3927
-5.5616 -2.4168 2.3927
-5.4673 -2.6097 2.3927
-5.3655 -2.7986 2.3927
-5.2566 -2.9833 2.3927
-5.1406 -3.1633 2.3927
-5.0179 -3.3386 2.3927
-4.8886 -3.5087 2.3927
-4.7530 -3.6735 2.3927
-4.6114 -3.8326 2.3927
-4.4639 -3.9860 2.3927
-4.3108 -4.1333 2.3927
-4.1524 -4.2744 2.3927
-3.9891 -4.4091 2.3927
-3.8210 -4.5371 2.3927
-3.6484 -4.6585 2.3927
-3.4717 -4.7729 2.3927
-3.2912 -4.8803 2.3927
-3.1071 -4.9805 2.3927
-2.9198 -5.0735 2.3927
-2.7295 -5.1592 2.3927
-2.5366 -5.2375 2.3927
-2.3414 -5.3083 2.3927
-2.1442 -5.3716 2.3927
-1.9452 -5.4274 2.3927
-1.7448 -5.4756 2.3927
-1.5434 -5.5162 2.3927
-1.3411 -5.5492 2.3927
-1.1383 -5.5747 2.3927
-0.9352 -5.5927 2.3927
-0.7323 -5.6032 2.3927
-0.5296 -5.6063 2.3927
-0.3276 -5.6020 2.3927
-0.1264 -5.5904 2.3927
0.0736 -5.5716 2.3927
0.2722 -5.5456 2.3927
0.4692 -5.5126 2.3927
0.6642 -5.4728 2.3927
0.8572 -5.4260 2.3927
1.0477 -5.3727 2.3927
1.2357 -5.3127 2.3927
1.4209 -5.2463 2.3927
1.6031 -5.1737 2.3927
1.7820 -5.0948 2.3927
1.9576 -5.0100 2.3927
2.1296 -4.9194 2.3927
2.2978 -4.8231 2.3927
2.4621 -4.7213 2.3927
2.6222 -4.6141 2.3927
2.7781 -4.5018 2.3927
2.9297 -4.3845 2.3927
3.0766 -4.2623 2.3927
3.2189 -4.1355 2.3927
3.3564 -4.0042 2.3927
3.4889 -3.8686 2.3927
3.6165 -3.7290 2.3927
3.7388 -3.5854 2.3927
3.8559 -3.4381 2.3927
3.9677 -3.2872 2.3927
4.0741 -3.1330 2.3927
4.1749 -2.9756 2.3927
4.2702 -2.8152 2.3927
4.3598 -2.6521 2.3927
4.4438 -2.4863 2.3927
4.5219 -2.3181 2.3927
4.5942 -2.1477 2.3927
4.6606 -1.9753 2.3927
4.7211 -1.8010 2.3927
4.7757 -1.6251 2.3927
4.8242 -1.4476 2.3927
4.8668 -1.2689 2.3927
4.9033 -1.0891 2.3927
4.9338 -0.9084 2.3927
4.9582 -0.7269 2.3927
4.9766 -0.5449 2.3927
4.9888 -0.3625 2.3927
4.9950 -0.1800 2.3927
4.9951 0.0025 2.3927
4.9892 0.1849 2.3927
4.9772 0.3668 2.3927
4.9592 0.5483 2.3927
4.9351 0.7290 2.3927
4.9051 0.9088 2.3927
4.8692 1.0874 2.3927
4.8273 1.2649 2.3927
4.7795 1.4409 2.3927
4.7259 1.6152 2.3927
4.6665 1.7879 2.3927
4.6014 1.9582 2.3927
4.5305 2.1270 2.3927
4.4542 2.2929 2.3927
4.3721 2.4566 2.3927
4.2846 2.6176 2.3927
4.1917 2.7757 2.3927
4.0934 2.9309 2.3927
3.9899 3.0829 2.3927
3.8812 3.2315 2.3927
3.7674 3.3766 2.3927
3.6487 3.5181 2.3927
3.5250 3.6557 2.3927
3.3966 3.7892 2.3927
3.2635 3.9188 2.3927
3.1258 4.0439 2.3927
2.9837 4.1646 2.3927
2.8374 4.2806 2.3927
2.6868 4.3919 2.3927
2.5322 4.4982 2.3927
2.3737 4.5995 2.3927
2.2115 4.6955 2.3927
0.8447 1.9764 0.9881
0.7731 2.0070 0.9858
0.7003 2.0349 0.9835
0.6266 2.0602 0.9811
0.5521 2.0828 0.9786
0.4767 2.1027 0.9761
0.4007 2.1198 0.9736
0.3241 2.1343 0.9710
0.2471 2.1459 0.9684
0.1696 2.1547 0.9657
0.0919 2.1608 0.9630
0.0140 2.1640 0.9603
-0.0639 2.1644 0.9576
-0.1418 2.1620 0.9548
-0.2196 2.1568 0.9520
-0.2972 2.1488 0.9492
-0.3744 2.1380 0.9464
-0.4511 2.1244 0.9436
-0.5273 2.1080 0.9408
-0.6029 2.0889 0.9379
-0.6778 2.0671 0.9351
-0.7518 2.0425 0.9323
-0.8248 2.0154 0.9295
-0.8968 1.9856 0.9267
-2.5062 5.0581 2.3927
-2.6946 4.9825 2.3927
-2.8808 4.8998 2.3927
-3.0642 4.8101 2.3927
-3.2448 4.7134 2.3927
-3.4221 4.6098 2.3927
-3.5959 4.4995 2.3927
-3.7660 4.3824 2.3927
-3.9320 4.2588 2.3927
-4.0937 4.1287 2.3927
-4.2508 3.9923 2.3927
-4.4030 3.8498 2.3927
-4.5500 3.7013 2.3927
-4.6917 3.5470 2.3927
-4.8277 3.3870 2.3927
-4.9578 3.2217 2.3927
-5.0817 3.0512 2.3927
-5.1993 2.8757 2.3927
-5.3103 2.6956 2.3927
-5.4145 2.5110 2.3927
-5.5116 2.3222 2.3927
-5.6016 2.1294 2.3927
-5.6842 1.9331 2.3927
-5.7592 1.7334 2.3927
-5.8265 1.5307 2.3927
-5.8860 1.3253 2.3927
-5.9375 1.1175 2.3927
-5.9809 0.9076 2.3927
-6.0161 0.6960 2.3927
-6.0431 0.4830 2.3927
-6.0617 0.2690 2.3927
-6.0720 0.0542 2.3927
-6.0738 -0.1609 2.3927
-6.0673 -0.3759 2.3927
-6.0522 -0.5907 2.3927
-6.0288 -0.8047 2.3927
-5.9970 -1.0177 2.3927
-5.9569 -1.2292 2.3927
-5.9085 -1.4390 2.3927
-5.8519 -1.6468 2.3927
-5.7873 -1.8520 2.3927
-5.7147 -2.0545 2.3927
-5.6342 -2.2539 2.3927
-5.5461 -2.4499 2.3927
-5.4505 -2.6421 2.3927
-5.3475 -2.8303 2.3927
-5.2374 -3.0142 2.3927
-5.1203 -3.1934 2.3927
-4.9964 -3.3678 2.3927
-4.8660 -3.5371 2.3927
-4.7294 -3.7009 2.3927
-4.5867 -3.8591 2.3927
-4.4382 -4.0114 2.3927
-4.2842 -4.1577 2.3927
-4.1250 -4.2977 2.3927
-3.9608 -4.4313 2.3927
-3.7919 -4.5582 2.3927
-3.6187 -4.6784 2.3927
-3.4413 -4.7916 2.3927
-3.2601 -4.8978 2.3927
-3.0755 -4.9968 2.3927
-2.8876 -5.0886 2.3927
-2.6969 -5.1731 2.3927
-2.5036 -5.2501 2.3927
-2.3080 -5.3196 2.3927
-2.1105 -5.3816 2.3927
-1.9112 -5.4361 2.3927
-1.7107 -5.4830 2.3927
-1.5090 -5.5223 2.3927
-1.3066 -5.5541 2.3927
-1.1038 -5.5783 2.3927
-0.9007 -5.5950 2.3927
-0.6978 -5.6042 2.3927
-0.4952 -5.6061 2.3927
-0.2933 -5.6005 2.3927
-0.0923 -5.5877 2.3927
0.1075 -5.5677 2.3927
0.3058 -5.5405 2.3927
0.5025 -5.5064 2.3927
0.6972 -5.4653 2.3927
0.8897 -5.4174 2.3927
1.0799 -5.3629 2.3927
1.2674 -5.3019 2.3927
1.4521 -5.2344 2.3927
1.6337 -5.1607 2.3927
1.8122 -5.0809 2.3927
1.9871 -4.9951 2.3927
2.1584 -4.9034 2.3927
2.3260 -4.8062 2.3927
2.4896 -4.7034 2.3927
2.6490 -4.5954 2.3927
2.8042 -4.4822 2.3927
2.9550 -4.3640 2.3927
3.1011 -4.2411 2.3927
3.2426 -4.1135 2.3927
3.3793 -3.9815 2.3927
3.5110 -3.8452 2.3927
3.6376 -3.7048 2.3927
3.7591 -3.5606 2.3927
3.8753 -3.4127 2.3927
3.9862 -3.2612 2.3927
4.0916 -3.1064 2.3927
4.1915 -2.9485 2.3927
4.2859 -2.7877 2.3927
4.3745 -2.6241 2.3927
4.4574 -2.4579 2.3927
4.5350 -2.2900 2.3927
4.6059 -2.1186 2.3927
4.6713 -1.9458 2.3927
4.7308 -1.7712 2.3927
4.7843 -1.5950 2.3927
4.8319 -1.4173 2.3927
4.8734 -1.2384 2.3927
4.9089 -1.0585 2.3927
4.9384 -0.8776 2.3927
4.9618 -0.6960 2.3927
4.9791 -0.5139 2.3927
4.9903 -0.3315 2.3927
4.9955 -0.1490 2.3927
4.9946 0.0335 2.3927
4.9876 0.2158 2.3927
4.9746 0.3977 2.3927
4.9555 0.5790 2.3927
4.9305 0.7596 2.3927
4.8994 0.9392 2.3927
4.8625 1.1177 2.3927
4.8196 1.2949 2.3927
-3.9459 3.7910 2.3927
-4.0898 3.6585 2.3927
-4.2288 3.5205 2.3927
-4.3629 3.3770 2.3927
-4.4917 3.2283 2.3927
-4.6150 3.0744 2.3927
-4.7327 2.9157 2.3927
-4.8444 2.7524 2.3927
-4.9500 2.5846 2.3927
-5.0493 2.4125 2.3927
-5.1420 2.2366 2.3927
-5.2281 2.0569 2.3927
-5.3074 1.8738 2.3927
-5.3796 1.6875 2.3927
-5.4447 1.4983 2.3927
-5.5024 1.3066 2.3927
-5.5528 1.1125 2.3927
-5.5957 0.9164 2.3927
-5.6310 0.7186 2.3927
-5.6585 0.5195 2.3927
-5.6784 0.3193 2.3927
-5.6904 0.1183 2.3927
-5.6946 -0.0831 2.3927
-5.6910 -0.2846 2.3927
-5.6795 -0.4859 2.3927
-5.6601 -0.6866 2.3927
-5.6330 -0.8864 2.3927
-5.5980 -1.0850 2.3927
-5.5554 -1.2821 2.3927
-5.5051 -1.4774 2.3927
-5.4472 -1.6705 2.3927
-5.3819 -1.8611 2.3927
-5.3092 -2.0489 2.3927
-5.2294 -2.2337 2.3927
-5.1424 -2.4151 2.3927
-5.0485 -2.5929 2.3927
-4.9479 -2.7667 2.3927
-4.8408 -2.9364 2.3927
-4.7272 -3.1016 2.3927
-4.6075 -3.2621 2.3927
-4.4818 -3.4177 2.3927
-4.3504 -3.5682 2.3927
-4.2135 -3.7132 2.3927
-4.0713 -3.8527 2.3927
-3.9241 -3.9864 2.3927
-3.7722 -4.1142 2.3927
-3.6157 -4.2359 2.3927
-3.4551 -4.3513 2.3927
-3.2904 -4.4604 2.3927
-3.1221 -4.5629 2.3927
-2.9503 -4.6588 2.3927
-2.7755 -4.7479 2.3927
-2.5977 -4.8302 2.3927
-2.4174 -4.9056 2.3927
-2.2349 -4.9741 2.3927
-2.0503 -5.0355 2.3927
-1.8640 -5.0899 2.3927
-1.6763 -5.1373 2.3927
-1.4874 -5.1775 2.3927
-1.2977 -5.2106 2.3927
-1.1074 -5.2367 2.3927
-0.9167 -5.2557 2.3927
-0.7260 -5.2677 2.3927
-0.5355 -5.2727 2.3927
-0.3454 -5.2707 2.3927
-0.1561 -5.2619 2.3927
0.0323 -5.2463 2.3927
0.2195 -5.2240 2.3927
0.4052 -5.1950 2.3927
0.5892 -5.1594 2.3927
0.7713 -5.1174 2.3927
0.9513 -5.0691 2.3927
1.1290 -5.0145 2.3927
1.3041 -4.9539 2.3927
1.4764 -4.8873 2.3927
1.6459 -4.8148 2.3927
1.8122 -4.7366 2.3927
1.9752 -4.6529 2.3927
2.1347 -4.5638 2.3927
2.2906 -4.4693 2.3927
2.4427 -4.3698 2.3927
2.5908 -4.2654 2.3927
2.7349 -4.1561 2.3927
2.8747 -4.0422 2.3927
3.0102 -3.9239 2.3927
3.1411 -3.8012 2.3927
3.2675 -3.6744 2.3927
3.3891 -3.5437 2.3927
3.5059 -3.4092 2.3927
3.6178 -3.2711 2.3927
3.7247 -3.1296 2.3927
3.8265 -2.9849 2.3927
3.9231 -2.8370 2.3927
4.0144 -2.6863 2.3927
4.1004 -2.5329 2.3927
4.1810 -2.3769 2.3927
4.2562 -2.2186 2.3927
4.3259 -2.0581 2.3927
4.3900 -1.8956 2.3927
4.4485 -1.7313 2.3927
4.5013 -1.5653 2.3927
4.5485 -1.3979 2.3927
4.5901 -1.2293 2.3927
4.6258 -1.0595 2.3927
4.6559 -0.8888 2.3927
4.6802 -0.7174 2.3927
4.6987 -0.5454 2.3927
4.7115 -0.3730 2.3927
4.7185 -0.2004 2.3927
4.7197 -0.0277 2.3927
4.7152 0.1448 2.3927
4.7049 0.3169 2.3927
4.6889 0.4886 2.3927
4.6671 0.6596 2.3927
4.6397 0.8298 2.3927
4.6066 0.9990 2.3927
4.5679 1.1670 2.3927
4.5236 1.3337 2.3927
4.4738 1.4989 2.3927
4.4184 1.6623 2.3927
4.3576 1.8239 2.3927
4.2914 1.9835 2.3927
4.2198 2.1409 2.3927
4.1430 2.2960 2.3927
4.0609 2.4485 2.3927
3.9737 2.5982 2.3927
3.8814 2.7453 2.3927
3.7841 2.8893 2.3927
3.6819 3.0302 2.3927
3.5749 3.1677 2.3927
3.4631 3.3017 2.3927
3.3467 3.4321 2.3927
3.2258 3.5587 2.3927
3.1005 3.6814 2.3927
2.9708 3.7999 2.3927
2.8370 3.9143 2.3927
2.6991 4.0242 2.3927
2.5572 4.1296 2.3927
2.4116 4.2303 2.3927
2.2622 4.3262 2.3927
0.8707 1.8234 0.9877
0.8045 1.8549 0.9856
0.7373 1.8841 0.9835
0.6689 1.9108 0.9813
0.5997 1.9350 0.9791
0.5297 1.9567 0.9768
0.4589 1.9758 0.9744
0.3874 1.9924 0.9721
0.3154 2.0064 0.9696
0.2429 2.0178 0.9672
0.1701 2.0266 0.9647
0.0970 2.0327 0.9622
0.0237 2.0362 0.9596
-0.0497 2.0370 0.9570
-0.1230 2.0352 0.9544
-0.1963 2.0308 0.9518
-0.2693 2.0237 0.9492
-0.3420 2.0139 0.9465
-0.4143 2.0016 0.9439
-0.4862 1.9866 0.9412
-0.5574 1.9691 0.9385
-0.6280 1.9489 0.9359
-0.6978 1.9263 0.9332
-0.7667 1.9011 0.9306
-0.8347 1.8735 0.9280
-0.9016 1.8434 0.9254
-2.5084 4.6958 2.3927
-2.6834 4.6184 2.3927
-2.8558 4.5344 2.3927
-3.0254 4.4439 2.3927
-3.1920 4.3469 2.3927
-3.3554 4.2436 2.3927
-3.5152 4.1340 2.3927
-3.6712 4.0183 2.3927
-3.8231 3.8965 2.3927
-3.9707 3.7689 2.3927
-4.1137 3.6355 2.3927
-4.2520 3.4965 2.3927
-4.3852 3.3521 2.3927
-4.5130 3.2025 2.3927
-4.6354 3.0478 2.3927
-4.7521 2.8883 2.3927
-4.8628 2.7242 2.3927
-4.9673 2.5556 2.3927
-5.0655 2.3829 2.3927
-5.1571 2.2063 2.3927
-5.2421 2.0260 2.3927
-5.3201 1.8423 2.3927
-5.3912 1.6556 2.3927
-5.4550 1.4659 2.3927
-5.5115 1.2737 2.3927
-5.5606 1.0793 2.3927
-5.6022 0.8829 2.3927
-5.6362 0.6849 2.3927
-5.6625 0.4855 2.3927
-5.6810 0.2851 2.3927
-5.6917 0.0841 2.3927
-5.6945 -0.1174 2.3927
-5.6896 -0.3188 2.3927
-5.6767 -0.5200 2.3927
-5.6561 -0.7206 2.3927
-5.6276 -0.9202 2.3927
-5.5913 -1.1186 2.3927
-5.5474 -1.3154 2.3927
-5.4958 -1.5103 2.3927
-5.4366 -1.7030 2.3927
-5.3701 -1.8932 2.3927
-5.2962 -2.0806 2.3927
-5.2151 -2.2648 2.3927
-5.1269 -2.4456 2.3927
-5.0319 -2.6227 2.3927
-4.9302 -2.7959 2.3927
-4.8219 -2.9648 2.3927
-4.7073 -3.1292 2.3927
-4.5866 -3.2889 2.3927
-4.4599 -3.4437 2.3927
-4.3275 -3.5932 2.3927
-4.1897 -3.7373 2.3927
-4.0467 -3.8758 2.3927
-3.8987 -4.0086 2.3927
-3.7459 -4.1353 2.3927
-3.5887 -4.2560 2.3927
-3.4274 -4.3703 2.3927
-3.2621 -4.4783 2.3927
-3.0931 -4.5797 2.3927
-2.9208 -4.6744 2.3927
-2.7454 -4.7624 2.3927
-2.5673 -4.8435 2.3927
-2.3866 -4.9178 2.3927
-2.2036 -4.9850 2.3927
-2.0188 -5.0453 2.3927
-1.8322 -5.0985 2.3927
-1.6443 -5.1446 2.3927
-1.4552 -5.1836 2.3927
-1.2654 -5.2156 2.3927
-1.0750 -5.2404 2.3927
-0.8843 -5.2582 2.3927
-0.6936 -5.2690 2.3927
-0.5031 -5.2729 2.3927
-0.3132 -5.2697 2.3927
-0.1240 -5.2598 2.3927
0.0642 -5.2430 2.3927
0.2511 -5.2195 2.3927
0.4366 -5.1894 2.3927
0.6203 -5.1527 2.3927
0.8021 -5.1097 2.3927
0.9817 -5.0603 2.3927
1.1589 -5.0047 2.3927
1.3336 -4.9430 2.3927
1.5055 -4.8754 2.3927
1.6744 -4.8019 2.3927
1.8401 -4.7228 2.3927
2.0025 -4.6381 2.3927
2.1615 -4.5481 2.3927
2.3167 -4.4528 2.3927
2.4682 -4.3524 2.3927
2.6156 -4.2471 2.3927
2.7590 -4.1371 2.3927
2.8980 -4.0224 2.3927
3.0327 -3.9033 2.3927
3.1629 -3.7800 2.3927
3.2885 -3.6525 2.3927
3.4093 -3.5211 2.3927
3.5253 -3.3860 2.3927
3.6363 -3.2473 2.3927
3.7424 -3.1053 2.3927
3.8433 -2.9600 2.3927
3.9390 -2.8116 2.3927
4.0294 -2.6604 2.3927
4.1145 -2.5065 2.3927
4.1942 -2.3501 2.3927
4.2684 -2.1914 2.3927
4.3371 -2.0306 2.3927
4.4003 -1.8678 2.3927
4.4579 -1.7032 2.3927
4.5098 -1.5370 2.3927
4.5560 -1.3693 2.3927
4.5965 -1.2005 2.3927
4.6314 -1.0305 2.3927
4.6604 -0.8597 2.3927
4.6837 -0.6882 2.3927
4.7013 -0.5161 2.3927
4.7131 -0.3436 2.3927
4.7191 -0.1711 2.3927
4.7193 0.0016 2.3927
4.7138 0.1740 2.3927
4.7026 0.3461 2.3927
4.6856 0.5177 2.3927
4.6629 0.6886 2.3927
4.6345 0.8587 2.3927
4.6005 1.0277 2.3927
4.5608 1.1955 2.3927
4.5156 1.3619 2.3927
4.4648 1.5267 2.3927
4.4085 1.6899 2.3927
4.3467 1.8512 2.3927
4.2796 2.0104 2.3927
4.2071 2.1674 2.3927
4.1294 2.3221 2.3927
4.0464 2.4741 2.3927
3.9584 2.6235 2.3927
3.8652 2.7700 2.3927
3.7671 2.9135 2.3927
3.6641 3.0538 2.3927
3.5562 3.1907 2.3927
3.4437 3.3241 2.3927
3.3265 3.4539 2.3927
3.2048 3.5798 2.3927
3.0788 3.7018 2.3927
2.9484 3.8197 2.3927
2.8139 3.9332 2.3927
2.6752 4.0424 2.3927
2.5327 4.1470 2.3927
2.3864 4.2469 2.3927
2.2365 4.3420 2.3927
0.8596 1.8289 0.9874
0.7932 1.8601 0.9853
0.7257 1.8888 0.9831
0.6572 1.9151 0.9809
0.5879 1.9388 0.9787
0.5177 1.9601 0.9764
0.4468 1.9788 0.9740
0.3752 1.9950 0.9717
0.3031 2.0086 0.9692
0.2306 2.0195 0.9668
0.1577 2.0278 0.9643
0.0845 2.0335 0.9617
0.0112 2.0365 0.9592
-0.0621 2.0369 0.9566
-0.1355 2.0347 0.9540
-0.2087 2.0297 0.9513
-0.2817 2.0222 0.9487
-0.3543 2.0120 0.9461
-0.4266 1.9992 0.9434
-0.4983 1.9838 0.9408
-0.5695 1.9658 0.9381
-0.6399 1.9453 0.9354
-0.7096 1.9222 0.9328
-0.7783 1.8966 0.9301
-0.8461 1.8686 0.9275
-0.9129 1.8381 0.9249
-2.5383 4.6831 2.3927
-2.7128 4.6046 2.3927
-2.8848 4.5195 2.3927
-3.0539 4.4278 2.3927
-3.2200 4.3298 2.3927
-3.3828 4.2254 2.3927
-3.5420 4.1148 2.3927
-3.6973 3.9980 2.3927
-3.8485 3.8752 2.3927
-3.9953 3.7466 2.3927
-4.1376 3.6122 2.3927
-4.2750 3.4723 2.3927
-4.4073 3.3270 2.3927
-4.5342 3.1765 2.3927
-4.6557 3.0210 2.3927
-4.7713 2.8607 2.3927
-4.8810 2.6958 2.3927
-4.9844 2.5266 2.3927
-5.0815 2.3532 2.3927
-5.1721 2.1759 2.3927
-5.2558 1.9950 2.3927
-5.3327 1.8108 2.3927
-5.4025 1.6235 2.3927
-5.4651 1.4334 2.3927
-5.5204 1.2408 2.3927
-5.5682 1.0460 2.3927
-5.6085 0.8494 2.3927
-5.6412 0.6511 2.3927
-5.6661 0.4515 2.3927
-5.6833 0.2510 2.3927
-5.6927 0.0499 2.3927
-5.6943 -0.1516 2.3927
-5.6879 -0.3530 2.3927
-5.6738 -0.5541 2.3927
-5.6518 -0.7546 2.3927
-5.6220 -0.9540 2.3927
-5.5844 -1.1522 2.3927
-5.5391 -1.3487 2.3927
-5.4862 -1.5432 2.3927
-5.4258 -1.7355 2.3927
-5.3580 -1.9253 2.3927
-5.2829 -2.1121 2.3927
-5.2006 -2.2958 2.3927
-5.1113 -2.4760 2.3927
-5.0151 -2.6524 2.3927
-4.9122 -2.8249 2.3927
-4.8029 -2.9931 2.3927
-4.6872 -3.1567 2.3927
-4.5654 -3.3156 2.3927
-4.4378 -3.4694 2.3927
-4.3045 -3.6181 2.3927
-4.1658 -3.7613 2.3927
-4.0219 -3.8988 2.3927
-3.8730 -4.0306 2.3927
-3.7195 -4.1563 2.3927
-3.5616 -4.2759 2.3927
-3.3995 -4.3891 2.3927
-3.2336 -4.4960 2.3927
-3.0641 -4.5962 2.3927
-2.8912 -4.6898 2.3927
-2.7154 -4.7767 2.3927
-2.5367 -4.8566 2.3927
-2.3556 -4.9297 2.3927
-2.1723 -4.9958 2.3927
-1.9872 -5.0548 2.3927
-1.8004 -5.1068 2.3927
-1.6122 -5.1517 2.3927
-1.4230 -5.1896 2.3927
-1.2331 -5.2203 2.3927
-1.0426 -5.2440 2.3927
-0.8519 -5.2606 2.3927
-0.6612 -5.2702 2.3927
-0.4708 -5.2728 2.3927
-0.2809 -5.2685 2.3927
-0.0919 -5.2574 2.3927
0.0961 -5.2395 2.3927
0.2828 -5.2148 2.3927
0.4679 -5.1836 2.3927
0.6513 -5.1459 2.3927
0.8327 -5.1017 2.3927
1.0120 -5.0512 2.3927
1.1888 -4.9946 2.3927
1.3630 -4.9319 2.3927
1.5344 -4.8633 2.3927
1.7028 -4.7889 2.3927
1.8680 -4.7088 2.3927
2.0298 -4.6232 2.3927
2.1881 -4.5323 2.3927
2.3427 -4.4361 2.3927
2.4935 -4.3349 2.3927
2.6403 -4.2287 2.3927
2.7829 -4.1179 2.3927
2.9212 -4.0025 2.3927
3.0552 -3.8826 2.3927
3.1846 -3.7586 2.3927
3.3094 -3.6304 2.3927
3.4294 -3.4984 2.3927
3.5445 -3.3627 2.3927
3.6547 -3.2234 2.3927
3.7599 -3.0808 2.3927
3.8599 -2.9349 2.3927
3.9547 -2.7861 2.3927
4.0443 -2.6345 2.3927
4.1284 -2.4801 2.3927
4.2072 -2.3233 2.3927
4.2805 -2.1642 2.3927
4.3483 -2.0031 2.3927
4.4105 -1.8399 2.3927
4.4671 -1.6750 2.3927
4.5180 -1.5086 2.3927
4.5633 -1.3407 2.3927
4.6029 -1.1717 2.3927
4.6367 -1.0016 2.3927
4.6648 -0.8306 2.3927
4.6871 -0.6589 2.3927
4.7037 -0.4868 2.3927
4.7145 -0.3143 2.3927
4.7196 -0.1418 2.3927
4.7188 0.0309 2.3927
4.7123 0.2033 2.3927
4.7001 0.3753 2.3927
4.6821 0.5468 2.3927
4.6584 0.7176 2.3927
4.6291 0.8875 2.3927
4.5941 1.0563 2.3927
4.5535 1.2239 2.3927
-3.7187 3.5669 2.3927
-3.8535 3.4418 2.3927
-3.9838 3.3114 2.3927
-4.1094 3.1760 2.3927
-4.2300 3.0357 2.3927
-4.3455 2.8906 2.3927
-4.4556 2.7410 2.3927
-4.5601 2.5871 2.3927
-4.6589 2.4290 2.3927
-4.7518 2.2671 2.3927
-4.8385 2.1014 2.3927
-4.9189 1.9324 2.3927
-4.9929 1.7601 2.3927
-5.0604 1.5849 2.3927
-5.1211 1.4070 2.3927
-5.1750 1.2267 2.3927
-5.2220 1.0443 2.3927
-5.2620 0.8600 2.3927
-5.2948 0.6742 2.3927
-5.3204 0.4871 2.3927
-5.3388 0.2990 2.3927
-5.3499 0.1102 2.3927
-5.3537 -0.0790 2.3927
-5.3501 -0.2682 2.3927
-5.3392 -0.4572 2.3927
-5.3210 -0.6457 2.3927
-5.2955 -0.8334 2.3927
-5.2626 -1.0199 2.3927
-5.2226 -1.2050 2.3927
-5.1755 -1.3884 2.3927
-5.1212 -1.5698 2.3927
-5.0600 -1.7489 2.3927
-4.9919 -1.9254 2.3927
-4.9171 -2.0990 2.3927
-4.8356 -2.2695 2.3927
-4.7477 -2.4366 2.3927
-4.6535 -2.6001 2.3927
-4.5531 -2.7597 2.3927
-4.4467 -2.9151 2.3927
-4.3346 -3.0661 2.3927
-4.2168 -3.2126 2.3927
-4.0937 -3.3543 2.3927
-3.9654 -3.4909 2.3927
-3.8321 -3.6224 2.3927
-3.6941 -3.7485 2.3927
-3.5517 -3.8690 2.3927
-3.4050 -3.9839 2.3927
-3.2542 -4.0929 2.3927
-3.0998 -4.1960 2.3927
-2.9418 -4.2929 2.3927
-2.7806 -4.3837 2.3927
-2.6164 -4.4681 2.3927
-2.4495 -4.5462 2.3927
-2.2802 -4.6178 2.3927
-2.1087 -4.6829 2.3927
-1.9352 -4.7414 2.3927
-1.7601 -4.7933 2.3927
-1.5836 -4.8386 2.3927
-1.4059 -4.8772 2.3927
-1.2274 -4.9092 2.3927
-1.0482 -4.9345 2.3927
-0.8687 -4.9532 2.3927
-0.6891 -4.9653 2.3927
