ply
format ascii 1.0
element vertex 2175
property float32 x
property float32 y
property float32 z
end_header
2.5115 -6.5273 2.3954
2.7473 -6.4439 2.3954
2.9802 -6.3516 2.3954
3.2098 -6.2505 2.3954
3.4358 -6.1408 2.3954
3.6577 -6.0226 2.3954
3.7317 -5.6776 2.3066
3.8281 -5.3946 2.2430
4.0228 -5.2608 2.2430
4.2126 -5.1197 2.2430
4.3970 -4.9715 2.2430
4.5760 -4.8162 2.2431
4.7490 -4.6542 2.2431
4.9159 -4.4856 2.2431
5.0765 -4.3107 2.2431
5.2304 -4.1297 2.2432
5.3774 -3.9430 2.2432
5.5173 -3.7507 2.2432
5.6498 -3.5532 2.2432
5.7748 -3.3508 2.2432
5.8921 -3.1437 2.2433
6.0014 -2.9322 2.2433
6.1027 -2.7167 2.2433
6.1957 -2.4976 2.2433
6.2806 -2.2752 2.2434
6.3571 -2.0497 2.2436
6.4248 -1.8215 2.2437
6.4838 -1.5909 2.2437
6.5338 -1.3583 2.2438
6.5750 -1.1240 2.2438
6.6072 -0.8885 2.2438
6.6303 -0.6520 2.2438
6.6444 -0.4149 2.2438
6.6495 -0.1776 2.2437
6.6455 0.0595 2.2437
6.6326 0.2961 2.2436
6.6107 0.5318 2.2434
6.5798 0.7664 2.2433
6.5406 0.9993 2.2433
6.4927 1.2305 2.2432
6.4362 1.4594 2.2432
6.3713 1.6858 2.2432
6.2980 1.9093 2.2432
6.2165 2.1297 2.2432
6.1270 2.3466 2.2431
6.0295 2.5597 2.2431
5.9244 2.7687 2.2431
5.8117 2.9733 2.2431
5.6916 3.1734 2.2430
5.5645 3.3686 2.2430
5.4304 3.5586 2.2430
5.2897 3.7432 2.2430
5.2260 3.9860 2.2794
5.2612 4.3189 2.3653
5.1579 4.5526 2.3954
4.9816 4.7243 2.3954
4.7995 4.8894 2.3954
4.6117 5.0474 2.3954
4.4188 5.1982 2.3954
4.2208 5.3416 2.3954
4.0181 5.4775 2.3954
3.8111 5.6057 2.3954
3.5999 5.7262 2.3954
3.3850 5.8387 2.3954
3.1666 5.9431 2.3954
2.9450 6.0395 2.3954
2.7205 6.1277 2.3954
2.4935 6.2077 2.3954
0.8972 2.4882 0.9492
0.8072 2.5184 0.9511
0.7162 2.5454 0.9530
0.6242 2.5691 0.9550
0.5315 2.5894 0.9569
0.4380 2.6064 0.9587
0.3440 2.6200 0.9606
0.2496 2.6303 0.9624
0.1548 2.6371 0.9642
0.0599 2.6404 0.9660
-0.0351 2.6404 0.9678
-0.1300 2.6369 0.9695
-0.2248 2.6300 0.9711
-0.3192 2.6196 0.9728
-0.4133 2.6059 0.9744
-0.5067 2.5888 0.9759
-0.5995 2.5683 0.9774
-0.6915 2.5445 0.9789
-0.7826 2.5174 0.9803
-0.8726 2.4870 0.9817
-2.3429 5.9785 2.3954
-2.5531 5.8813 2.3954
-2.7596 5.7771 2.3954
-2.9620 5.6659 2.3954
-3.1603 5.5481 2.3954
-3.3542 5.4236 2.3954
-3.5435 5.2927 2.3954
-3.7280 5.1555 2.3954
-3.9075 5.0122 2.3954
-4.0818 4.8631 2.3954
-4.2508 4.7081 2.3954
-4.4142 4.5477 2.3954
-4.5720 4.3818 2.3954
-4.7239 4.2108 2.3954
-4.8697 4.0348 2.3954
-5.0095 3.8541 2.3954
-5.1429 3.6688 2.3954
-5.2698 3.4791 2.3954
-5.3902 3.2853 2.3954
-5.5039 3.0875 2.3954
-5.6108 2.8861 2.3954
-5.7107 2.6811 2.3954
-5.8036 2.4729 2.3954
-5.8893 2.2617 2.3954
-5.9678 2.0476 2.3954
-6.0390 1.8310 2.3954
-6.1028 1.6120 2.3954
-6.1591 1.3909 2.3954
-6.2079 1.1679 2.3954
-6.2490 0.9434 2.3954
-6.2825 0.7174 2.3954
-6.3083 0.4903 2.3954
-6.3264 0.2623 2.3954
-6.3366 0.0337 2.3954
-6.3391 -0.1953 2.3954
-6.3337 -0.4244 2.3954
-6.3204 -0.6535 2.3954
-6.2993 -0.8821 2.3954
-6.2704 -1.1101 2.3954
-6.2336 -1.3373 2.3954
-6.1890 -1.5633 2.3954
-6.1366 -1.7879 2.3954
-6.0765 -2.0108 2.3954
-6.0086 -2.2318 2.3954
-5.9331 -2.4506 2.3954
-5.8499 -2.6671 2.3954
-5.7591 -2.8807 2.3954
-5.6609 -3.0915 2.3954
-5.5553 -3.2990 2.3954
-5.4424 -3.5031 2.3954
-5.3222 -3.7034 2.3954
-5.1949 -3.8998 2.3954
-5.0607 -4.0920 2.3954
-4.9196 -4.2796 2.3954
-4.7718 -4.4626 2.3954
-4.6173 -4.6405 2.3954
-4.4565 -4.8133 2.3954
-4.2893 -4.9806 2.3954
-4.1161 -5.1422 2.3954
-3.9369 -5.2980 2.3954
-3.7520 -5.4475 2.3954
-3.5616 -5.5908 2.3954
-3.3658 -5.7274 2.3954
-3.1649 -5.8573 2.3954
-2.9591 -5.9801 2.3954
-2.7487 -6.0958 2.3954
-2.5338 -6.2041 2.3954
-2.3148 -6.3049 2.3954
-2.0918 -6.3979 2.3954
-1.8653 -6.4830 2.3954
-1.6353 -6.5601 2.3954
-1.4023 -6.6289 2.3954
-1.1665 -6.6894 2.3954
-0.9282 -6.7415 2.3954
-0.6877 -6.7849 2.3954
-0.4454 -6.8197 2.3954
-0.2015 -6.8456 2.3954
0.0437 -6.8626 2.3954
0.2897 -6.8707 2.3954
0.5363 -6.8698 2.3954
0.7831 -6.8598 2.3954
1.0298 -6.8408 2.3954
1.2761 -6.8125 2.3954
1.5216 -6.7752 2.3954
1.7658 -6.7288 2.3954
2.0086 -6.6732 2.3954
2.2495 -6.6086 2.3954
2.4882 -6.5350 2.3954
2.7244 -6.4524 2.3954
2.9576 -6.3610 2.3954
3.1875 -6.2608 2.3954
3.4138 -6.1519 2.3954
3.6362 -6.0345 2.3954
3.7250 -5.7107 2.3151
3.8088 -5.4073 2.2430
4.0040 -5.2742 2.2430
4.1942 -5.1339 2.2430
4.3792 -4.9863 2.2430
4.5587 -4.8317 2.2431
4.7323 -4.6703 2.2431
4.8999 -4.5024 2.2431
5.0610 -4.3281 2.2431
5.2156 -4.1477 2.2432
5.3633 -3.9615 2.2432
5.5039 -3.7698 2.2432
5.6372 -3.5728 2.2432
5.7629 -3.3708 2.2432
5.8809 -3.1641 2.2433
5.9911 -2.9531 2.2433
6.0931 -2.7381 2.2433
6.1869 -2.5192 2.2433
6.2727 -2.2971 2.2434
6.3500 -2.0719 2.2436
6.4185 -1.8439 2.2437
6.4784 -1.6136 2.2437
6.5293 -1.3812 2.2438
6.5714 -1.1471 2.2438
6.6044 -0.9116 2.2438
6.6285 -0.6752 2.2438
6.6435 -0.4382 2.2438
6.6494 -0.2009 2.2437
6.6463 0.0363 2.2437
6.6342 0.2729 2.2436
6.6132 0.5088 2.2434
6.5832 0.7435 2.2433
6.5448 0.9766 2.2433
6.4978 1.2080 2.2432
6.4422 1.4371 2.2432
6.3780 1.6638 2.2432
6.3056 1.8876 2.2432
6.2249 2.1083 2.2432
6.1361 2.3255 2.2431
6.0394 2.5390 2.2431
5.9350 2.7484 2.2431
5.8230 2.9535 2.2431
5.7037 3.1540 2.2430
5.5772 3.3497 2.2430
5.4438 3.5402 2.2430
5.3037 3.7255 2.2430
5.2226 3.9545 2.2714
5.2577 4.2853 2.3565
5.1749 4.5355 2.3954
4.9991 4.7078 2.3954
4.8175 4.8735 2.3954
4.6304 5.0323 2.3954
4.4379 5.1838 2.3954
4.2404 5.3279 2.3954
4.0382 5.4646 2.3954
-4.5828 3.7438 2.3954
-4.7126 3.5738 2.3954
-4.8364 3.3996 2.3954
-4.9542 3.2213 2.3954
-5.0658 3.0391 2.3954
-5.1711 2.8533 2.3954
-5.2700 2.6640 2.3954
-5.3623 2.4715 2.3954
-5.4480 2.2760 2.3954
-5.5269 2.0776 2.3954
-5.5991 1.8767 2.3954
-5.6643 1.6734 2.3954
-5.7226 1.4679 2.3954
-5.7738 1.2605 2.3954
-5.8180 1.0514 2.3954
-5.8549 0.8408 2.3954
-5.8847 0.6290 2.3954
-5.9072 0.4162 2.3954
-5.9224 0.2026 2.3954
-5.9303 -0.0116 2.3954
-5.9309 -0.2260 2.3954
-5.9241 -0.4405 2.3954
-5.9100 -0.6548 2.3954
-5.8884 -0.8686 2.3954
-5.8595 -1.0818 2.3954
-5.8233 -1.2941 2.3954
-5.7797 -1.5053 2.3954
-5.7288 -1.7150 2.3954
-5.6707 -1.9232 2.3954
-5.6053 -2.1294 2.3954
-5.5327 -2.3335 2.3954
-5.4530 -2.5353 2.3954
-5.3663 -2.7344 2.3954
-5.2726 -2.9306 2.3954
-5.1719 -3.1238 2.3954
-5.0645 -3.3136 2.3954
-4.9503 -3.4999 2.3954
-4.8295 -3.6824 2.3954
-4.7023 -3.8608 2.3954
-4.5686 -4.0349 2.3954
-4.4287 -4.2045 2.3954
-4.2827 -4.3694 2.3954
-4.1308 -4.5293 2.3954
-3.9730 -4.6840 2.3954
-3.8096 -4.8334 2.3954
-3.6407 -4.9771 2.3954
-3.4666 -5.1150 2.3954
-3.2873 -5.2469 2.3954
-3.1031 -5.3726 2.3954
-2.9143 -5.4919 2.3954
-2.7210 -5.6046 2.3954
-2.5234 -5.7105 2.3954
-2.3218 -5.8094 2.3954
-2.1164 -5.9013 2.3954
-1.9074 -5.9859 2.3954
-1.6952 -6.0630 2.3954
-1.4799 -6.1326 2.3954
-1.2619 -6.1945 2.3954
-1.0414 -6.2486 2.3954
-0.8187 -6.2947 2.3954
-0.5941 -6.3328 2.3954
-0.3678 -6.3628 2.3954
-0.1402 -6.3845 2.3954
0.0884 -6.3980 2.3954
0.3178 -6.4031 2.3954
0.5476 -6.3998 2.3954
0.7774 -6.3881 2.3954
1.0071 -6.3679 2.3954
1.2361 -6.3392 2.3954
1.4644 -6.3021 2.3954
1.6914 -6.2565 2.3954
1.9169 -6.2024 2.3954
2.1406 -6.1400 2.3954
2.3621 -6.0692 2.3954
2.5811 -5.9901 2.3954
2.7973 -5.9029 2.3954
3.0104 -5.8075 2.3954
3.2199 -5.7041 2.3954
3.4258 -5.5929 2.3954
3.6275 -5.4739 2.3954
3.7807 -5.2856 2.3677
3.8415 -4.9850 2.2905
3.9375 -4.7493 2.2430
4.1083 -4.6105 2.2430
4.2739 -4.4652 2.2430
4.4340 -4.3137 2.2430
4.5884 -4.1561 2.2430
4.7369 -3.9928 2.2431
4.8791 -3.8238 2.2431
5.0150 -3.6496 2.2431
5.1442 -3.4702 2.2431
5.2666 -3.2861 2.2431
5.3820 -3.0974 2.2432
5.4902 -2.9044 2.2432
5.5911 -2.7074 2.2432
5.6844 -2.5068 2.2432
5.7701 -2.3027 2.2432
5.8480 -2.0956 2.2432
5.9180 -1.8856 2.2432
5.9800 -1.6733 2.2432
6.0339 -1.4587 2.2432
6.0797 -1.2424 2.2432
6.1172 -1.0245 2.2432
6.1465 -0.8055 2.2432
6.1675 -0.5857 2.2432
6.1802 -0.3653 2.2432
6.1845 -0.1447 2.2432
6.1806 0.0757 2.2432
6.1683 0.2956 2.2432
6.1479 0.5148 2.2432
6.1192 0.7328 2.2432
6.0824 0.9495 2.2432
6.0375 1.1644 2.2432
5.9847 1.3772 2.2431
5.9240 1.5877 2.2431
5.8556 1.7956 2.2431
5.7796 2.0005 2.2431
5.6961 2.2022 2.2431
5.6053 2.4004 2.2430
5.5073 2.5948 2.2430
5.4023 2.7852 2.2430
5.2905 2.9713 2.2430
5.1720 3.1529 2.2430
5.1333 3.3866 2.2812
5.1642 3.6784 2.3561
5.1038 3.9176 2.3954
4.9512 4.0899 2.3954
4.7927 4.2562 2.3954
4.6285 4.4163 2.3954
4.4588 4.5701 2.3954
4.2839 4.7173 2.3954
4.1041 4.8578 2.3954
3.9196 4.9914 2.3954
3.7307 5.1181 2.3954
3.5377 5.2376 2.3954
3.3409 5.3499 2.3954
3.1405 5.4548 2.3954
2.9369 5.5523 2.3954
2.7302 5.6422 2.3954
2.5208 5.7244 2.3954
0.9128 2.2926 0.9470
0.8299 2.3235 0.9488
0.7458 2.3514 0.9506
0.6608 2.3762 0.9524
0.5750 2.3980 0.9542
0.4884 2.4167 0.9560
0.4012 2.4322 0.9577
0.3134 2.4446 0.9595
0.2253 2.4538 0.9612
0.1369 2.4598 0.9628
0.0483 2.4626 0.9645
-0.0403 2.4622 0.9661
-0.1288 2.4587 0.9677
-0.2172 2.4519 0.9693
-0.3053 2.4419 0.9708
-0.3929 2.4288 0.9723
-0.4800 2.4125 0.9737
-0.5665 2.3931 0.9751
-0.6522 2.3706 0.9765
-0.7371 2.3450 0.9778
-0.8210 2.3164 0.9790
-2.2084 5.5829 2.3954
-2.4049 5.4918 2.3954
-2.5979 5.3941 2.3954
-2.7872 5.2899 2.3954
-2.9725 5.1794 2.3954
-3.1538 5.0627 2.3954
-3.3307 4.9400 2.3954
-3.5032 4.8113 2.3954
-3.6709 4.6770 2.3954
-3.8338 4.5370 2.3954
-3.9917 4.3917 2.3954
-4.1444 4.2412 2.3954
-4.2917 4.0856 2.3954
-4.4336 3.9253 2.3954
-4.5697 3.7602 2.3954
-4.7001 3.5906 2.3954
-4.8246 3.4168 2.3954
-4.9430 3.2389 2.3954
-5.0552 3.0571 2.3954
-5.1611 2.8716 2.3954
-5.2606 2.6827 2.3954
-5.3535 2.4905 2.3954
-5.4399 2.2952 2.3954
-5.5195 2.0971 2.3954
-5.5923 1.8964 2.3954
-5.6582 1.6933 2.3954
-5.7172 1.4881 2.3954
-5.7691 1.2808 2.3954
-5.8140 1.0719 2.3954
-5.8516 0.8615 2.3954
-5.8821 0.6498 2.3954
-5.9053 0.4370 2.3954
-5.9213 0.2235 2.3954
-5.9299 0.0094 2.3954
-5.9312 -0.2050 2.3954
-5.9251 -0.4195 2.3954
-5.9117 -0.6338 2.3954
-5.8909 -0.8477 2.3954
-5.8627 -1.0610 2.3954
-5.8272 -1.2734 2.3954
-5.7843 -1.4847 2.3954
-5.7341 -1.6946 2.3954
-5.6767 -1.9028 2.3954
-5.6120 -2.1093 2.3954
-5.5401 -2.3136 2.3954
-5.4612 -2.5156 2.3954
-5.3751 -2.7150 2.3954
-5.2820 -2.9116 2.3954
-5.1821 -3.1050 2.3954
-5.0753 -3.2952 2.3954
-4.9618 -3.4818 2.3954
-4.8417 -3.6647 2.3954
-4.7150 -3.8435 2.3954
-4.5820 -4.0180 2.3954
-4.4427 -4.1881 2.3954
-4.2973 -4.3535 2.3954
-4.1459 -4.5139 2.3954
-3.9887 -4.6691 2.3954
-3.8258 -4.8190 2.3954
-3.6575 -4.9633 2.3954
-3.4838 -5.1018 2.3954
-3.3051 -5.2343 2.3954
-3.1214 -5.3606 2.3954
-2.9330 -5.4805 2.3954
-2.7401 -5.5938 2.3954
-2.5429 -5.7004 2.3954
-2.3417 -5.8001 2.3954
-2.1366 -5.8926 2.3954
-1.9280 -5.9779 2.3954
-1.7161 -6.0558 2.3954
-1.5011 -6.1261 2.3954
-1.2834 -6.1888 2.3954
-1.0631 -6.2436 2.3954
-0.8406 -6.2906 2.3954
-0.6161 -6.3294 2.3954
-0.3900 -6.3602 2.3954
-0.1625 -6.3828 2.3954
0.0660 -6.3970 2.3954
0.2953 -6.4030 2.3954
0.5250 -6.4005 2.3954
0.7549 -6.3896 2.3954
0.9846 -6.3702 2.3954
1.2137 -6.3424 2.3954
1.4421 -6.3061 2.3954
1.6692 -6.2613 2.3954
1.8949 -6.2081 2.3954
2.1188 -6.1465 2.3954
2.3405 -6.0765 2.3954
2.5598 -5.9982 2.3954
2.7763 -5.9118 2.3954
2.9896 -5.8172 2.3954
3.1996 -5.7146 2.3954
3.4058 -5.6041 2.3954
3.6079 -5.4859 2.3954
3.7745 -5.3161 2.3757
3.8357 -5.0136 2.2977
3.9205 -4.7626 2.2430
4.0918 -4.6243 2.2430
4.2579 -4.4797 2.2430
4.4186 -4.3288 2.2430
4.5736 -4.1718 2.2430
4.7226 -4.0090 2.2431
4.8655 -3.8406 2.2431
5.0020 -3.6669 2.2431
5.1319 -3.4880 2.2431
5.2550 -3.3043 2.2431
5.3710 -3.1160 2.2432
5.4800 -2.9235 2.2432
5.5815 -2.7269 2.2432
5.6756 -2.5266 2.2432
5.7621 -2.3228 2.2432
5.8407 -2.1160 2.2432
5.9115 -1.9063 2.2432
5.9743 -1.6942 2.2432
6.0290 -1.4798 2.2432
6.0756 -1.2636 2.2432
6.1139 -1.0459 2.2432
6.1440 -0.8270 2.2432
6.1658 -0.6072 2.2432
6.1793 -0.3869 2.2432
6.1845 -0.1663 2.2432
6.1813 0.0541 2.2432
6.1699 0.2741 2.2432
6.1502 0.4934 2.2432
6.1224 0.7116 2.2432
6.0863 0.9283 2.2432
6.0423 1.1434 2.2432
5.9902 1.3565 2.2431
5.9303 1.5672 2.2431
5.8627 1.7753 2.2431
5.7874 1.9805 2.2431
5.7046 2.1826 2.2431
5.6145 2.3811 2.2430
5.5172 2.5759 2.2430
5.4129 2.7667 2.2430
5.3017 2.9533 2.2430
5.1839 3.1353 2.2430
5.1303 3.3589 2.2743
5.1611 3.6490 2.3485
5.1184 3.9005 2.3954
4.9664 4.0733 2.3954
4.8085 4.2402 2.3954
4.6448 4.4009 2.3954
4.4756 4.5553 2.3954
4.3012 4.7032 2.3954
4.1219 4.8443 2.3954
3.9378 4.9787 2.3954
3.7494 5.1060 2.3954
3.5568 5.2262 2.3954
3.3603 5.3392 2.3954
3.1603 5.4449 2.3954
2.9569 5.5431 2.3954
2.7506 5.6337 2.3954
2.5415 5.7168 2.3954
0.9209 2.2894 0.9468
0.8380 2.3206 0.9486
0.7541 2.3488 0.9504
0.6692 2.3739 0.9522
0.5834 2.3960 0.9540
0.4969 2.4150 0.9558
0.4097 2.4308 0.9575
0.3220 2.4435 0.9593
0.2339 2.4530 0.9610
0.1456 2.4593 0.9627
0.0570 2.4625 0.9643
-0.0316 2.4624 0.9660
-0.1202 2.4592 0.9676
-0.2086 2.4527 0.9691
-0.2967 2.4431 0.9706
-0.3843 2.4302 0.9721
-0.4715 2.4143 0.9736
-0.5581 2.3952 0.9750
-0.6439 2.3730 0.9763
-0.7288 2.3477 0.9777
-0.8128 2.3193 0.9789
-2.1889 5.5915 2.3954
-2.3858 5.5011 2.3954
-2.5791 5.4040 2.3954
-2.7688 5.3004 2.3954
-2.9546 5.1905 2.3954
-3.1362 5.0744 2.3954
-3.3136 4.9522 2.3954
-3.4865 4.8242 2.3954
-3.6547 4.6904 2.3954
-3.8181 4.5510 2.3954
-3.9765 4.4062 2.3954
-4.1297 4.2562 2.3954
-4.2775 4.1011 2.3954
-4.4199 3.9412 2.3954
-4.5567 3.7765 2.3954
-4.6876 3.6074 2.3954
-4.8127 3.4340 2.3954
-4.9317 3.2565 2.3954
-5.0445 3.0751 2.3954
-5.1510 2.8900 2.3954
-5.2511 2.7013 2.3954
-5.3447 2.5094 2.3954
-5.4317 2.3145 2.3954
-5.5120 2.1167 2.3954
-5.5855 1.9162 2.3954
-5.6521 1.7133 2.3954
-5.7117 1.5083 2.3954
-5.7644 1.3012 2.3954
-5.8099 1.0924 2.3954
-5.8483 0.8821 2.3954
-5.8794 0.6705 2.3954
-5.9034 0.4579 2.3954
-5.9200 0.2444 2.3954
-5.9294 0.0304 2.3954
-5.9314 -0.1840 2.3954
-5.9260 -0.3985 2.3954
-5.9133 -0.6128 2.3954
-5.8932 -0.8268 2.3954
-5.8658 -1.0401 2.3954
-5.8310 -1.2526 2.3954
-5.7888 -1.4640 2.3954
-5.7394 -1.6741 2.3954
-5.6826 -1.8826 2.3954
-5.6187 -2.0892 2.3954
-5.5475 -2.2937 2.3954
-5.4692 -2.4959 2.3954
-5.3838 -2.6956 2.3954
-5.2915 -2.8924 2.3954
-5.1922 -3.0862 2.3954
-5.0861 -3.2767 2.3954
-4.9732 -3.4637 2.3954
-4.8537 -3.6469 2.3954
-4.7277 -3.8262 2.3954
-4.5953 -4.0011 2.3954
-4.4566 -4.1717 2.3954
-4.3118 -4.3375 2.3954
-4.1610 -4.4984 2.3954
-4.0043 -4.6542 2.3954
-3.8420 -4.8046 2.3954
-3.6742 -4.9494 2.3954
-3.5011 -5.0885 2.3954
-3.3228 -5.2216 2.3954
-3.1396 -5.3485 2.3954
-2.9516 -5.4691 2.3954
-2.7592 -5.5830 2.3954
-2.5624 -5.6903 2.3954
-2.3616 -5.7906 2.3954
-2.1569 -5.8839 2.3954
-1.9486 -5.9699 2.3954
-1.7370 -6.0485 2.3954
-1.5223 -6.1196 2.3954
-1.3048 -6.1830 2.3954
-1.0848 -6.2386 2.3954
-0.8625 -6.2863 2.3954
-0.6382 -6.3260 2.3954
-0.4122 -6.3576 2.3954
-0.1849 -6.3809 2.3954
0.0436 -6.3960 2.3954
0.2728 -6.4028 2.3954
0.5025 -6.4011 2.3954
0.7324 -6.3910 2.3954
0.9621 -6.3725 2.3954
1.1913 -6.3455 2.3954
1.4198 -6.3100 2.3954
1.6470 -6.2661 2.3954
1.8729 -6.2137 2.3954
2.0970 -6.1529 2.3954
2.3189 -6.0837 2.3954
2.5384 -6.0061 2.3954
2.7552 -5.9206 2.3954
2.9689 -5.8268 2.3954
3.1792 -5.7250 2.3954
3.3858 -5.6153 2.3954
3.5883 -5.4978 2.3954
3.7683 -5.3468 2.3838
3.8299 -5.0424 2.3050
3.9035 -4.7758 2.2430
4.0753 -4.6382 2.2430
4.2419 -4.4941 2.2430
4.4031 -4.3438 2.2430
4.5587 -4.1874 2.2430
4.7083 -4.0252 2.2431
4.8518 -3.8573 2.2431
4.9889 -3.6841 2.2431
5.1195 -3.5057 2.2431
5.2432 -3.3225 2.2431
5.3600 -3.1347 2.2432
5.4696 -2.9425 2.2432
5.5719 -2.7463 2.2432
5.6667 -2.5463 2.2432
5.7539 -2.3429 2.2432
5.8334 -2.1363 2.2432
5.9049 -1.9270 2.2432
5.9685 -1.7150 2.2432
6.0240 -1.5009 2.2432
6.0714 -1.2849 2.2432
6.1105 -1.0673 2.2432
6.1414 -0.8485 2.2432
6.1641 -0.6288 2.2432
6.1784 -0.4085 2.2432
6.1843 -0.1879 2.2432
6.1820 0.0325 2.2432
6.1714 0.2526 2.2432
6.1525 0.4720 2.2432
6.1254 0.6903 2.2432
6.0902 0.9072 2.2432
6.0469 1.1224 2.2432
5.9957 1.3357 2.2431
5.9365 1.5467 2.2431
5.8696 1.7551 2.2431
5.7951 1.9606 2.2431
5.7130 2.1629 2.2431
5.6236 2.3618 2.2430
5.5270 2.5570 2.2430
5.4234 2.7482 2.2430
5.3129 2.9352 2.2430
5.1957 3.1177 2.2430
5.1274 3.3313 2.2674
5.1581 3.6198 2.3409
5.1330 3.8832 2.3954
4.9816 4.0566 2.3954
4.8242 4.2241 2.3954
4.6611 4.3854 2.3954
4.4924 4.5405 2.3954
4.3185 4.6890 2.3954
4.1397 4.8308 2.3954
3.9561 4.9658 2.3954
3.7680 5.0938 2.3954
-4.3011 3.5147 2.3954
-4.4231 3.3552 2.3954
-4.5396 3.1916 2.3954
-4.6503 3.0242 2.3954
-4.7552 2.8532 2.3954
-4.8541 2.6787 2.3954
-4.9470 2.5010 2.3954
-5.0338 2.3202 2.3954
-5.1142 2.1365 2.3954
-5.1884 1.9502 2.3954
-5.2561 1.7615 2.3954
-5.3174 1.5705 2.3954
-5.3720 1.3775 2.3954
-5.4200 1.1827 2.3954
-5.4614 0.9863 2.3954
-5.4960 0.7885 2.3954
-5.5238 0.5896 2.3954
-5.5447 0.3897 2.3954
-5.5588 0.1891 2.3954
-5.5660 -0.0120 2.3954
-5.5663 -0.2133 2.3954
-5.5597 -0.4146 2.3954
-5.5461 -0.6158 2.3954
-5.5256 -0.8166 2.3954
-5.4981 -1.0167 2.3954
-5.4638 -1.2160 2.3954
-5.4225 -1.4141 2.3954
-5.3744 -1.6108 2.3954
-5.3195 -1.8060 2.3954
-5.2577 -1.9995 2.3954
-5.1892 -2.1908 2.3954
-5.1140 -2.3800 2.3954
-5.0322 -2.5666 2.3954
-4.9439 -2.7505 2.3954
-4.8490 -2.9315 2.3954
-4.7478 -3.1093 2.3954
-4.6403 -3.2837 2.3954
-4.5266 -3.4545 2.3954
-4.4068 -3.6215 2.3954
-4.2810 -3.7844 2.3954
-4.1494 -3.9430 2.3954
-4.0121 -4.0972 2.3954
-3.8693 -4.2467 2.3954
-3.7210 -4.3912 2.3954
-3.5674 -4.5307 2.3954
-3.4088 -4.6649 2.3954
-3.2452 -4.7936 2.3954
-3.0769 -4.9167 2.3954
-2.9041 -5.0338 2.3954
-2.7269 -5.1450 2.3954
-2.5455 -5.2499 2.3954
-2.3602 -5.3485 2.3954
-2.1711 -5.4405 2.3954
-1.9786 -5.5259 2.3954
-1.7828 -5.6044 2.3954
-1.5839 -5.6760 2.3954
-1.3823 -5.7404 2.3954
-1.1781 -5.7977 2.3954
-0.9716 -5.8476 2.3954
-0.7632 -5.8901 2.3954
-0.5529 -5.9251 2.3954
-0.3412 -5.9524 2.3954
-0.1283 -5.9721 2.3954
0.0855 -5.9840 2.3954
0.2999 -5.9881 2.3954
0.5147 -5.9844 2.3954
0.7295 -5.9728 2.3954
0.9441 -5.9533 2.3954
1.1581 -5.9259 2.3954
1.3713 -5.8906 2.3954
1.5833 -5.8474 2.3954
1.7939 -5.7964 2.3954
2.0027 -5.7375 2.3954
2.2094 -5.6708 2.3954
2.4138 -5.5965 2.3954
2.6155 -5.5145 2.3954
2.8143 -5.4250 2.3954
3.0098 -5.3280 2.3954
3.2018 -5.2237 2.3954
3.3899 -5.1123 2.3954
3.5739 -4.9937 2.3954
3.7535 -4.8683 2.3954
3.8759 -4.6728 2.3633
3.9293 -4.4077 2.2965
3.9920 -4.1690 2.2430
4.1412 -4.0273 2.2430
4.2851 -3.8801 2.2430
4.4235 -3.7275 2.2430
4.5561 -3.5697 2.2430
4.6828 -3.4070 2.2430
4.8032 -3.2395 2.2431
4.9173 -3.0676 2.2431
5.0249 -2.8914 2.2431
5.1258 -2.7113 2.2431
5.2199 -2.5275 2.2431
5.3070 -2.3403 2.2431
5.3869 -2.1498 2.2431
5.4596 -1.9566 2.2431
5.5250 -1.7607 2.2431
5.5829 -1.5625 2.2432
5.6334 -1.3624 2.2432
5.6762 -1.1605 2.2432
5.7114 -0.9573 2.2432
5.7389 -0.7529 2.2432
5.7587 -0.5477 2.2432
5.7707 -0.3421 2.2432
5.7751 -0.1362 2.2431
5.7717 0.0695 2.2431
5.7605 0.2748 2.2431
5.7418 0.4794 2.2431
5.7153 0.6830 2.2431
5.6814 0.8853 2.2431
5.6399 1.0860 2.2431
5.5910 1.2849 2.2431
5.5347 1.4815 2.2431
5.4713 1.6758 2.2430
5.4007 1.8673 2.2430
5.3232 2.0558 2.2430
5.2388 2.2412 2.2430
5.1558 2.4268 2.2465
5.0502 2.6012 2.2430
5.0464 2.8316 2.2884
5.0741 3.0904 2.3534
5.0406 3.3224 2.3954
4.9103 3.4943 2.3954
4.7739 3.6611 2.3954
4.6318 3.8226 2.3954
4.4841 3.9785 2.3954
4.3310 4.1286 2.3954
4.1728 4.2729 2.3954
4.0096 4.4111 2.3954
3.8419 4.5430 2.3954
3.6697 4.6686 2.3954
3.4934 4.7876 2.3954
3.3132 4.9000 2.3954
3.1294 5.0057 2.3954
2.9422 5.1045 2.3954
2.7519 5.1963 2.3954
2.5588 5.2811 2.3954
0.9321 2.1138 0.9449
0.8555 2.1455 0.9466
0.7779 2.1744 0.9483
0.6992 2.2005 0.9500
0.6196 2.2237 0.9517
0.5393 2.2441 0.9534
0.4582 2.2616 0.9550
0.3766 2.2761 0.9567
0.2944 2.2877 0.9583
0.2120 2.2963 0.9599
0.1292 2.3019 0.9614
0.0463 2.3045 0.9630
-0.0366 2.3042 0.9645
-0.1195 2.3008 0.9660
-0.2022 2.2945 0.9675
-0.2846 2.2852 0.9689
-0.3667 2.2729 0.9703
-0.4482 2.2577 0.9716
-0.5292 2.2395 0.9729
-0.6094 2.2184 0.9742
-0.6888 2.1944 0.9754
-0.7673 2.1676 0.9766
-0.8448 2.1380 0.9777
-2.2543 5.1528 2.3954
-2.4356 5.0615 2.3954
-2.6134 4.9640 2.3954
-2.7876 4.8606 2.3954
-2.9579 4.7514 2.3954
-3.1242 4.6364 2.3954
-3.2862 4.5159 2.3954
-3.4439 4.3900 2.3954
-3.5971 4.2588 2.3954
-3.7455 4.1226 2.3954
-3.8890 3.9814 2.3954
-4.0275 3.8355 2.3954
-4.1608 3.6850 2.3954
-4.2889 3.5301 2.3954
-4.4114 3.3710 2.3954
-4.5284 3.2078 2.3954
-4.6397 3.0408 2.3954
-4.7452 2.8701 2.3954
-4.8447 2.6960 2.3954
-4.9382 2.5185 2.3954
-5.0255 2.3380 2.3954
-5.1066 2.1546 2.3954
-5.1814 1.9686 2.3954
-5.2498 1.7801 2.3954
-5.3116 1.5893 2.3954
-5.3670 1.3965 2.3954
-5.4156 1.2018 2.3954
-5.4576 1.0056 2.3954
-5.4929 0.8079 2.3954
-5.5213 0.6091 2.3954
-5.5430 0.4093 2.3954
-5.5577 0.2088 2.3954
-5.5656 0.0077 2.3954
-5.5666 -0.1936 2.3954
-5.5606 -0.3950 2.3954
-5.5477 -0.5961 2.3954
-5.5279 -0.7970 2.3954
-5.5011 -0.9971 2.3954
-5.4675 -1.1965 2.3954
-5.4269 -1.3947 2.3954
-5.3794 -1.5916 2.3954
-5.3251 -1.7870 2.3954
-5.2640 -1.9806 2.3954
-5.1962 -2.1722 2.3954
-5.1217 -2.3615 2.3954
-5.0405 -2.5484 2.3954
-4.9528 -2.7326 2.3954
-4.8586 -2.9139 2.3954
-4.7580 -3.0920 2.3954
-4.6511 -3.2668 2.3954
-4.5380 -3.4380 2.3954
-4.4188 -3.6053 2.3954
-4.2936 -3.7686 2.3954
-4.1626 -3.9277 2.3954
-4.0258 -4.0823 2.3954
-3.8835 -4.2322 2.3954
-3.7357 -4.3773 2.3954
-3.5827 -4.5173 2.3954
-3.4246 -4.6520 2.3954
-3.2615 -4.7813 2.3954
-3.0936 -4.9049 2.3954
-2.9212 -5.0226 2.3954
-2.7444 -5.1344 2.3954
-2.5634 -5.2399 2.3954
-2.3785 -5.3391 2.3954
-2.1898 -5.4318 2.3954
-1.9976 -5.5178 2.3954
-1.8021 -5.5970 2.3954
-1.6035 -5.6693 2.3954
-1.4021 -5.7344 2.3954
-1.1982 -5.7924 2.3954
-0.9919 -5.8431 2.3954
-0.7836 -5.8863 2.3954
-0.5736 -5.9220 2.3954
-0.3620 -5.9501 2.3954
-0.1492 -5.9705 2.3954
0.0645 -5.9832 2.3954
0.2789 -5.9881 2.3954
0.4937 -5.9851 2.3954
0.7085 -5.9743 2.3954
0.9231 -5.9556 2.3954
1.1372 -5.9289 2.3954
1.3505 -5.8944 2.3954
1.5626 -5.8520 2.3954
1.7733 -5.8017 2.3954
1.9823 -5.7436 2.3954
2.1893 -5.6777 2.3954
2.3939 -5.6041 2.3954
2.5959 -5.5229 2.3954
2.7950 -5.4341 2.3954
2.9908 -5.3378 2.3954
3.1831 -5.2343 2.3954
3.3716 -5.1235 2.3954
3.5561 -5.0057 2.3954
3.7361 -4.8809 2.3954
3.8705 -4.6996 2.3703
3.9242 -4.4330 2.3028
3.9826 -4.1883 2.2460
4.1269 -4.0415 2.2430
4.2713 -3.8948 2.2430
4.4102 -3.7427 2.2430
4.5434 -3.5854 2.2430
4.6706 -3.4231 2.2430
4.7917 -3.2561 2.2431
4.9065 -3.0846 2.2431
5.0147 -2.9089 2.2431
5.1163 -2.7291 2.2431
5.2110 -2.5457 2.2431
5.2987 -2.3587 2.2431
5.3794 -2.1686 2.2431
5.4528 -1.9756 2.2431
5.5189 -1.7800 2.2431
5.5776 -1.5820 2.2432
5.6288 -1.3821 2.2432
5.6723 -1.1803 2.2432
5.7083 -0.9772 2.2432
5.7365 -0.7729 2.2432
5.7571 -0.5678 2.2432
5.7699 -0.3622 2.2432
5.7750 -0.1564 2.2431
5.7723 0.0494 2.2431
5.7620 0.2548 2.2431
5.7439 0.4594 2.2431
5.7183 0.6632 2.2431
5.6850 0.8656 2.2431
5.6443 1.0665 2.2431
5.5961 1.2655 2.2431
5.5405 1.4624 2.2431
5.4778 1.6569 2.2430
5.4079 1.8487 2.2430
5.3311 2.0375 2.2430
5.2474 2.2232 2.2430
5.1569 2.4054 2.2430
5.0600 2.5839 2.2430
5.0438 2.8070 2.2824
5.0714 3.0644 2.3467
5.0530 3.3053 2.3954
4.9233 3.4777 2.3954
4.7876 3.6450 2.3954
4.6460 3.8070 2.3954
4.4988 3.9634 2.3954
4.3462 4.1142 2.3954
4.1885 4.2590 2.3954
4.0258 4.3978 2.3954
3.8585 4.5304 2.3954
3.6868 4.6566 2.3954
3.5109 4.7762 2.3954
3.3310 4.8893 2.3954
3.1476 4.9956 2.3954
2.9607 5.0950 2.3954
2.7707 5.1877 2.3954
2.5778 5.2731 2.3954
0.9395 2.1105 0.9447
0.8631 2.1425 0.9464
0.7855 2.1717 0.9481
0.7069 2.1981 0.9498
0.6274 2.2216 0.9515
0.5472 2.2422 0.9532
0.4662 2.2600 0.9548
0.3846 2.2748 0.9565
0.3025 2.2867 0.9581
0.2201 2.2956 0.9597
0.1373 2.3015 0.9613
0.0544 2.3044 0.9628
-0.0285 2.3043 0.9644
-0.1114 2.3013 0.9659
-0.1941 2.2952 0.9673
-0.2766 2.2862 0.9688
-0.3587 2.2742 0.9701
-0.4403 2.2593 0.9715
-0.5213 2.2414 0.9728
-0.6016 2.2206 0.9741
-0.6811 2.1969 0.9753
-0.7597 2.1704 0.9765
-0.8373 2.1410 0.9776
-2.2363 5.1614 2.3954
-2.4180 5.0707 2.3954
-2.5961 4.9738 2.3954
-2.7707 4.8710 2.3954
-2.9414 4.7623 2.3954
-3.1081 4.6479 2.3954
-3.2706 4.5279 2.3954
-3.4287 4.4025 2.3954
-3.5823 4.2719 2.3954
-3.7311 4.1362 2.3954
-3.8752 3.9955 2.3954
-4.0142 3.8500 2.3954
-4.1480 3.6999 2.3954
-4.2766 3.5455 2.3954
-4.3997 3.3867 2.3954
-4.5172 3.2240 2.3954
-4.6291 3.0573 2.3954
-4.7351 2.8870 2.3954
-4.8352 2.7132 2.3954
-4.9293 2.5360 2.3954
-5.0173 2.3558 2.3954
-5.0990 2.1727 2.3954
-5.1744 1.9869 2.3954
-5.2434 1.7986 2.3954
-5.3059 1.6081 2.3954
-5.3618 1.4154 2.3954
-5.4112 1.2210 2.3954
-5.4538 1.0248 2.3954
-5.4897 0.8274 2.3954
-5.5188 0.6286 2.3954
-5.5412 0.4289 2.3954
-5.5566 0.2284 2.3954
-5.5651 0.0274 2.3954
-5.5668 -0.1738 2.3954
-5.5615 -0.3752 2.3954
-5.5493 -0.5765 2.3954
-5.5301 -0.7773 2.3954
-5.5041 -0.9776 2.3954
-5.4711 -1.1770 2.3954
-5.4311 -1.3754 2.3954
-5.3844 -1.5724 2.3954
-5.3307 -1.7680 2.3954
-5.2703 -1.9617 2.3954
-5.2031 -2.1535 2.3954
-5.1293 -2.3431 2.3954
-5.0488 -2.5303 2.3954
-4.9617 -2.7147 2.3954
-4.8681 -2.8963 2.3954
-4.7681 -3.0747 2.3954
-4.6618 -3.2498 2.3954
-4.5493 -3.4214 2.3954
-4.4307 -3.5891 2.3954
-4.3061 -3.7528 2.3954
-4.1757 -3.9123 2.3954
-4.0395 -4.0674 2.3954
-3.8977 -4.2178 2.3954
-3.7504 -4.3633 2.3954
-3.5979 -4.5038 2.3954
-3.4403 -4.6391 2.3954
-3.2777 -4.7689 2.3954
-3.1103 -4.8930 2.3954
-2.9383 -5.0114 2.3954
-2.7619 -5.1237 2.3954
-2.5813 -5.2299 2.3954
-2.3968 -5.3297 2.3954
-2.2084 -5.4230 2.3954
-2.0166 -5.5097 2.3954
-1.8214 -5.5896 2.3954
-1.6231 -5.6625 2.3954
-1.4220 -5.7284 2.3954
-1.2183 -5.7871 2.3954
-1.0122 -5.8384 2.3954
-0.8041 -5.8824 2.3954
-0.5942 -5.9188 2.3954
-0.3828 -5.9477 2.3954
-0.1701 -5.9689 2.3954
0.0436 -5.9823 2.3954
0.2579 -5.9880 2.3954
0.4726 -5.9858 2.3954
0.6875 -5.9757 2.3954
0.9021 -5.9578 2.3954
1.1163 -5.9319 2.3954
1.3296 -5.8981 2.3954
1.5419 -5.8565 2.3954
1.7528 -5.8070 2.3954
1.9619 -5.7496 2.3954
2.1691 -5.6845 2.3954
2.3740 -5.6117 2.3954
2.5763 -5.5312 2.3954
2.7756 -5.4431 2.3954
2.9718 -5.3476 2.3954
3.1645 -5.2447 2.3954
3.3534 -5.1347 2.3954
3.5382 -5.0175 2.3954
3.7187 -4.8934 2.3954
3.8651 -4.7265 2.3772
3.9191 -4.4585 2.3091
3.9751 -4.2097 2.2502
4.1124 -4.0555 2.2430
4.2574 -3.9094 2.2430
4.3969 -3.7578 2.2430
4.5306 -3.6010 2.2430
4.6584 -3.4392 2.2430
4.7801 -3.2727 2.2431
4.8955 -3.1016 2.2431
5.0044 -2.9263 2.2431
5.1066 -2.7469 2.2431
5.2020 -2.5638 2.2431
5.2905 -2.3772 2.2431
5.3718 -2.1874 2.2431
5.4460 -1.9946 2.2431
5.5128 -1.7992 2.2431
5.5722 -1.6015 2.2432
5.6241 -1.4017 2.2432
5.6684 -1.2002 2.2432
5.7051 -0.9972 2.2432
5.7341 -0.7930 2.2432
5.7554 -0.5880 2.2432
5.7690 -0.3824 2.2432
5.7748 -0.1765 2.2431
5.7729 0.0292 2.2431
5.7633 0.2347 2.2431
5.7460 0.4394 2.2431
5.7211 0.6433 2.2431
5.6886 0.8458 2.2431
5.6486 1.0469 2.2431
5.6011 1.2461 2.2431
5.5463 1.4432 2.2431
5.4843 1.6379 2.2430
5.4151 1.8300 2.2430
5.3389 2.0192 2.2430
5.2559 2.2051 2.2430
5.1661 2.3877 2.2430
5.0698 2.5666 2.2430
5.0411 2.7824 2.2764
5.0686 3.0386 2.3401
5.0654 3.2881 2.3954
4.9363 3.4610 2.3954
4.8011 3.6289 2.3954
4.6601 3.7914 2.3954
4.5134 3.9484 2.3954
4.3614 4.0997 2.3954
4.2041 4.2451 2.3954
4.0420 4.3845 2.3954
3.8751 4.5177 2.3954
3.7038 4.6445 2.3954
3.5283 4.7648 2.3954
-4.0474 3.3084 2.3954
-4.1624 3.1583 2.3954
-4.2722 3.0043 2.3954
-4.3765 2.8468 2.3954
-4.4754 2.6858 2.3954
-4.5686 2.5215 2.3954
-4.6561 2.3541 2.3954
-4.7378 2.1839 2.3954
-4.8136 2.0109 2.3954
-4.8834 1.8355 2.3954
-4.9472 1.6577 2.3954
-5.0048 1.4779 2.3954
-5.0562 1.2961 2.3954
-5.1013 1.1126 2.3954
-5.1402 0.9277 2.3954
-5.1726 0.7414 2.3954
-5.1986 0.5541 2.3954
-5.2182 0.3659 2.3954
-5.2313 0.1770 2.3954
-5.2379 -0.0123 2.3954
-5.2380 -0.2019 2.3954
-5.2315 -0.3914 2.3954
-5.2185 -0.5808 2.3954
-5.1989 -0.7698 2.3954
-5.1728 -0.9581 2.3954
-5.1402 -1.1456 2.3954
-5.1011 -1.3320 2.3954
-5.0555 -1.5171 2.3954
-5.0035 -1.7007 2.3954
-4.9450 -1.8826 2.3954
-4.8802 -2.0625 2.3954
-4.8092 -2.2403 2.3954
-4.7318 -2.4158 2.3954
-4.6484 -2.5886 2.3954
-4.5588 -2.7586 2.3954
-4.4632 -2.9257 2.3954
-4.3617 -3.0895 2.3954
-4.2544 -3.2498 2.3954
-4.1414 -3.4065 2.3954
-4.0228 -3.5594 2.3954
-3.8987 -3.7083 2.3954
-3.7692 -3.8529 2.3954
-3.6346 -3.9930 2.3954
-3.4949 -4.1285 2.3954
-3.3502 -4.2592 2.3954
-3.2008 -4.3849 2.3954
-3.0468 -4.5054 2.3954
-2.8883 -4.6206 2.3954
-2.7257 -4.7302 2.3954
-2.5589 -4.8341 2.3954
-2.3883 -4.9322 2.3954
-2.2140 -5.0242 2.3954
-2.0362 -5.1101 2.3954
-1.8552 -5.1897 2.3954
-1.6712 -5.2629 2.3954
-1.4843 -5.3296 2.3954
-1.2949 -5.3895 2.3954
-1.1031 -5.4427 2.3954
-0.9092 -5.4890 2.3954
-0.7135 -5.5283 2.3954
-0.5162 -5.5605 2.3954
-0.3175 -5.5856 2.3954
-0.1177 -5.6035 2.3954
0.0829 -5.6142 2.3954
0.2840 -5.6175 2.3954
0.4854 -5.6134 2.3954
0.6868 -5.6020 2.3954
0.8879 -5.5832 2.3954
1.0885 -5.5570 2.3954
1.2882 -5.5234 2.3954
1.4869 -5.4824 2.3954
1.6841 -5.4341 2.3954
1.8797 -5.3785 2.3954
2.0733 -5.3156 2.3954
2.2646 -5.2455 2.3954
2.4535 -5.1683 2.3954
2.6395 -5.0840 2.3954
2.8225 -4.9928 2.3954
3.0022 -4.8948 2.3954
3.1782 -4.7901 2.3954
3.3504 -4.6788 2.3954
3.5184 -4.5610 2.3954
3.6821 -4.4370 2.3954
3.8411 -4.3068 2.3954
3.9576 -4.1314 2.3728
4.0051 -3.8935 2.3149
4.0500 -3.6659 2.2624
4.1446 -3.4914 2.2430
4.2686 -3.3435 2.2430
4.3871 -3.1911 2.2430
4.4997 -3.0342 2.2430
4.6065 -2.8732 2.2430
4.7072 -2.7082 2.2430
4.8016 -2.5395 2.2430
4.8896 -2.3674 2.2430
4.9711 -2.1921 2.2431
5.0459 -2.0138 2.2431
5.1140 -1.8329 2.2431
5.1753 -1.6495 2.2431
5.2296 -1.4640 2.2431
5.2769 -1.2766 2.2431
5.3171 -1.0876 2.2431
5.3502 -0.8974 2.2431
5.3761 -0.7060 2.2431
5.3948 -0.5140 2.2431
5.4063 -0.3214 2.2431
5.4105 -0.1286 2.2431
5.4076 0.0640 2.2431
5.3974 0.2563 2.2431
5.3801 0.4480 2.2431
5.3556 0.6387 2.2430
5.3241 0.8282 2.2430
5.2856 1.0163 2.2430
5.2401 1.2026 2.2430
5.1878 1.3869 2.2430
5.1287 1.5690 2.2430
5.0630 1.7486 2.2430
4.9907 1.9254 2.2430
4.9426 2.1123 2.2569
4.9663 2.3353 2.3076
4.9917 2.5686 2.3640
4.9543 2.7773 2.3954
4.8445 2.9477 2.3954
4.7286 3.1138 2.3954
4.6068 3.2753 2.3954
4.4794 3.4321 2.3954
4.3465 3.5838 2.3954
4.2082 3.7294 2.3954
4.0652 3.8716 2.3954
3.9171 4.0073 2.3954
3.7645 4.1373 2.3954
3.6075 4.2616 2.3954
3.4463 4.3798 2.3954
3.2812 4.4920 2.3954
3.1124 4.5980 2.3954
2.9402 4.6976 2.3954
2.7647 4.7909 2.3954
2.5863 4.8776 2.3954
2.4052 4.9577 2.3954
0.8761 1.9841 0.9446
0.8042 2.0138 0.9462
0.7313 2.0410 0.9478
0.6575 2.0654 0.9494
0.5827 2.0873 0.9510
0.5073 2.1064 0.9526
0.4312 2.1228 0.9542
0.3546 2.1364 0.9557
0.2775 2.1472 0.9572
0.2000 2.1553 0.9587
0.1223 2.1606 0.9602
0.0445 2.1630 0.9617
-0.0333 2.1627 0.9631
-0.1112 2.1596 0.9645
-0.1888 2.1536 0.9658
-0.2662 2.1449 0.9672
-0.3432 2.1333 0.9685
-0.4198 2.1190 0.9698
-0.4957 2.1020 0.9710
-0.5711 2.0822 0.9722
-0.6456 2.0597 0.9733
-0.7193 2.0345 0.9744
-0.7921 2.0067 0.9755
-0.8638 1.9763 0.9765
-2.2895 4.7622 2.3954
-2.4570 4.6708 2.3954
-2.6211 4.5737 2.3954
-2.7816 4.4712 2.3954
-2.9383 4.3632 2.3954
-3.0910 4.2500 2.3954
-3.2396 4.1316 2.3954
-3.3839 4.0084 2.3954
-3.5237 3.8803 2.3954
-3.6590 3.7475 2.3954
-3.7896 3.6102 2.3954
-3.9152 3.4686 2.3954
-4.0359 3.3229 2.3954
-4.1514 3.1731 2.3954
-4.2617 3.0196 2.3954
-4.3665 2.8623 2.3954
-4.4659 2.7017 2.3954
-4.5597 2.5377 2.3954
-4.6478 2.3706 2.3954
-4.7301 2.2007 2.3954
-4.8064 2.0280 2.3954
-4.8768 1.8528 2.3954
-4.9412 1.6752 2.3954
-4.9994 1.4956 2.3954
-5.0514 1.3140 2.3954
-5.0972 1.1307 2.3954
-5.1366 0.9458 2.3954
-5.1697 0.7597 2.3954
-5.1964 0.5725 2.3954
-5.2166 0.3843 2.3954
-5.2303 0.1955 2.3954
-5.2376 0.0062 2.3954
-5.2383 -0.1833 2.3954
-5.2324 -0.3729 2.3954
-5.2201 -0.5623 2.3954
-5.2011 -0.7513 2.3954
-5.1757 -0.9397 2.3954
-5.1437 -1.1272 2.3954
-5.1052 -1.3138 2.3954
-5.0603 -1.4990 2.3954
-5.0088 -1.6828 2.3954
-4.9510 -1.8649 2.3954
-4.8869 -2.0450 2.3954
-4.8164 -2.2230 2.3954
-4.7397 -2.3987 2.3954
-4.6568 -2.5718 2.3954
-4.5678 -2.7421 2.3954
-4.4728 -2.9095 2.3954
-4.3719 -3.0736 2.3954
-4.2652 -3.2343 2.3954
-4.1527 -3.3914 2.3954
-4.0346 -3.5446 2.3954
-3.9111 -3.6939 2.3954
-3.7821 -3.8389 2.3954
-3.6480 -3.9795 2.3954
-3.5087 -4.1155 2.3954
-3.3646 -4.2466 2.3954
-3.2156 -4.3728 2.3954
-3.0621 -4.4938 2.3954
-2.9040 -4.6095 2.3954
-2.7418 -4.7197 2.3954
-2.5754 -4.8242 2.3954
-2.4052 -4.9228 2.3954
-2.2312 -5.0155 2.3954
-2.0538 -5.1020 2.3954
-1.8731 -5.1822 2.3954
-1.6893 -5.2561 2.3954
-1.5027 -5.3233 2.3954
-1.3135 -5.3840 2.3954
-1.1220 -5.4378 2.3954
-0.9283 -5.4848 2.3954
-0.7327 -5.5248 2.3954
-0.5355 -5.5577 2.3954
-0.3370 -5.5835 2.3954
-0.1373 -5.6021 2.3954
0.0632 -5.6135 2.3954
0.2643 -5.6175 2.3954
0.4656 -5.6142 2.3954
0.6671 -5.6035 2.3954
0.8682 -5.5854 2.3954
1.0689 -5.5599 2.3954
1.2687 -5.5270 2.3954
1.4675 -5.4868 2.3954
1.6649 -5.4392 2.3954
1.8606 -5.3842 2.3954
2.0544 -5.3221 2.3954
2.2460 -5.2527 2.3954
2.4351 -5.1762 2.3954
2.6214 -5.0926 2.3954
2.8047 -5.0021 2.3954
2.9847 -4.9047 2.3954
3.1611 -4.8006 2.3954
3.3337 -4.6900 2.3954
3.5021 -4.5728 2.3954
3.6662 -4.4494 2.3954
3.8257 -4.3198 2.3954
3.9528 -4.1553 2.3788
4.0006 -3.9163 2.3203
4.0457 -3.6878 2.2673
4.1322 -3.5056 2.2430
4.2634 -3.3635 2.2465
4.3757 -3.2062 2.2430
4.4890 -3.0497 2.2430
4.5963 -2.8891 2.2430
4.6976 -2.7245 2.2430
4.7926 -2.5562 2.2430
4.8812 -2.3844 2.2430
4.9634 -2.2094 2.2431
5.0389 -2.0314 2.2431
5.1077 -1.8507 2.2431
5.1696 -1.6676 2.2431
5.2246 -1.4823 2.2431
5.2726 -1.2951 2.2431
5.3135 -1.1062 2.2431
5.3472 -0.9160 2.2431
5.3739 -0.7248 2.2431
5.3933 -0.5328 2.2431
5.4055 -0.3403 2.2431
5.4104 -0.1475 2.2431
5.4082 0.0452 2.2431
5.3987 0.2375 2.2431
5.3821 0.4292 2.2431
5.3584 0.6200 2.2430
5.3275 0.8097 2.2430
5.2897 0.9979 2.2430
5.2449 1.1844 2.2430
5.1932 1.3690 2.2430
5.1348 1.5513 2.2430
5.0697 1.7311 2.2430
4.9981 1.9082 2.2430
4.9430 2.0921 2.2534
4.9639 2.3130 2.3024
4.9892 2.5453 2.3582
4.9647 2.7603 2.3954
4.8555 2.9312 2.3954
4.7402 3.0977 2.3954
4.6190 3.2597 2.3954
4.4921 3.4169 2.3954
4.3598 3.5692 2.3954
4.2221 3.7162 2.3954
4.0794 3.8580 2.3954
3.9319 3.9943 2.3954
3.7796 4.1249 2.3954
3.6230 4.2497 2.3954
3.4623 4.3685 2.3954
3.2975 4.4813 2.3954
3.1291 4.5880 2.3954
2.9572 4.6882 2.3954
2.7820 4.7820 2.3954
2.6039 4.8694 2.3954
2.4231 4.9502 2.3954
0.8831 1.9810 0.9445
0.8113 2.0110 0.9461
0.7385 2.0384 0.9477
0.6647 2.0632 0.9493
0.5901 2.0852 0.9509
0.5147 2.1046 0.9524
0.4387 2.1213 0.9540
0.3621 2.1352 0.9555
0.2850 2.1463 0.9571
0.2076 2.1546 0.9586
0.1300 2.1602 0.9601
0.0521 2.1629 0.9615
-0.0257 2.1629 0.9629
-0.1035 2.1600 0.9643
-0.1812 2.1543 0.9657
-0.2586 2.1458 0.9671
-0.3357 2.1346 0.9684
-0.4123 2.1205 0.9696
-0.4883 2.1038 0.9709
-0.5637 2.0842 0.9721
-0.6384 2.0620 0.9732
-0.7121 2.0371 0.9743
-0.7850 2.0096 0.9754
-0.8568 1.9794 0.9764
-2.2730 4.7708 2.3954
-2.4408 4.6800 2.3954
-2.6052 4.5835 2.3954
-2.7660 4.4814 2.3954
-2.9231 4.3740 2.3954
-3.0762 4.2613 2.3954
-3.2252 4.1434 2.3954
-3.3699 4.0206 2.3954
-3.5102 3.8930 2.3954
-3.6460 3.7607 2.3954
-3.7770 3.6239 2.3954
-3.9031 3.4827 2.3954
-4.0243 3.3374 2.3954
-4.1403 3.1880 2.3954
-4.2511 3.0348 2.3954
-4.3565 2.8779 2.3954
-4.4564 2.7176 2.3954
-4.5508 2.5539 2.3954
-4.6394 2.3871 2.3954
-4.7223 2.2174 2.3954
-4.7992 2.0450 2.3954
-4.8702 1.8700 2.3954
-4.9352 1.6927 2.3954
-4.9940 1.5133 2.3954
-5.0466 1.3318 2.3954
-5.0930 1.1487 2.3954
-5.1330 0.9640 2.3954
-5.1668 0.7780 2.3954
-5.1940 0.5908 2.3954
-5.2149 0.4028 2.3954
-5.2293 0.2140 2.3954
-5.2371 0.0248 2.3954
-5.2385 -0.1647 2.3954
-5.2333 -0.3543 2.3954
-5.2216 -0.5437 2.3954
-5.2033 -0.7328 2.3954
-5.1785 -0.9213 2.3954
-5.1471 -1.1089 2.3954
-5.1093 -1.2956 2.3954
-5.0649 -1.4809 2.3954
-5.0142 -1.6649 2.3954
-4.9570 -1.8471 2.3954
-4.8934 -2.0275 2.3954
-4.8236 -2.2057 2.3954
-4.7475 -2.3816 2.3954
-4.6652 -2.5550 2.3954
-4.5768 -2.7256 2.3954
-4.4824 -2.8932 2.3954
-4.3820 -3.0576 2.3954
-4.2759 -3.2187 2.3954
-4.1640 -3.3762 2.3954
-4.0464 -3.5298 2.3954
-3.9234 -3.6794 2.3954
-3.7950 -3.8249 2.3954
-3.6613 -3.9659 2.3954
-3.5226 -4.1023 2.3954
-3.3789 -4.2340 2.3954
-3.2304 -4.3607 2.3954
-3.0773 -4.4822 2.3954
-2.9197 -4.5984 2.3954
-2.7578 -4.7091 2.3954
-2.5919 -4.8142 2.3954
-2.4220 -4.9134 2.3954
-2.2484 -5.0067 2.3954
-2.0713 -5.0938 2.3954
-1.8909 -5.1747 2.3954
-1.7074 -5.2491 2.3954
-1.5211 -5.3170 2.3954
-1.3322 -5.3783 2.3954
-1.1408 -5.4328 2.3954
-0.9473 -5.4805 2.3954
-0.7519 -5.5212 2.3954
-0.5549 -5.5548 2.3954
-0.3565 -5.5813 2.3954
-0.1569 -5.6006 2.3954
0.0435 -5.6127 2.3954
0.2446 -5.6174 2.3954
0.4459 -5.6148 2.3954
0.6474 -5.6049 2.3954
0.8486 -5.5875 2.3954
1.0493 -5.5627 2.3954
1.2492 -5.5306 2.3954
1.4481 -5.4910 2.3954
1.6456 -5.4442 2.3954
1.8415 -5.3899 2.3954
2.0355 -5.3285 2.3954
2.2273 -5.2598 2.3954
2.4167 -5.1839 2.3954
2.6033 -5.1012 2.3954
2.7869 -5.0112 2.3954
2.9673 -4.9145 2.3954
3.1440 -4.8111 2.3954
3.3170 -4.7011 2.3954
3.4858 -4.5846 2.3954
3.6504 -4.4618 2.3954
3.8103 -4.3328 2.3954
3.9480 -4.1793 2.3848
3.9960 -3.9393 2.3258
4.0414 -3.7098 2.2723
4.1197 -3.5198 2.2430
4.2448 -3.3728 2.2430
4.3643 -3.2213 2.2430
4.4781 -3.0652 2.2430
4.5861 -2.9050 2.2430
4.6879 -2.7408 2.2430
4.7836 -2.5728 2.2430
4.8728 -2.4014 2.2430
4.9556 -2.2267 2.2431
5.0318 -2.0489 2.2431
5.1012 -1.8685 2.2431
5.1638 -1.6856 2.2431
5.2195 -1.5005 2.2431
5.2682 -1.3135 2.2431
5.3098 -1.1248 2.2431
5.3443 -0.9347 2.2431
5.3716 -0.7436 2.2431
5.3917 -0.5516 2.2431
5.4046 -0.3591 2.2431
5.4103 -0.1664 2.2431
5.4087 0.0263 2.2431
5.4000 0.2187 2.2431
5.3841 0.4105 2.2431
5.3610 0.6014 2.2430
5.3308 0.7912 2.2430
5.2937 0.9796 2.2430
5.2496 1.1662 2.2430
5.1986 1.3510 2.2430
5.1408 1.5335 2.2430
5.0764 1.7136 2.2430
5.0054 1.8910 2.2430
4.9434 2.0719 2.2500
4.9614 2.2908 2.2972
4.9867 2.5221 2.3525
4.9751 2.7434 2.3954
4.8664 2.9147 2.3954
4.7517 3.0816 2.3954
4.6311 3.2439 2.3954
4.5048 3.4017 2.3954
4.3730 3.5545 2.3954
4.2358 3.7021 2.3954
4.0936 3.8444 2.3954
3.9465 3.9812 2.3954
3.7948 4.1123 2.3954
3.6386 4.2377 2.3954
3.4782 4.3572 2.3954
3.3138 4.4705 2.3954
-3.8175 3.1214 2.3954
-3.9262 2.9798 2.3954
-4.0298 2.8346 2.3954
-4.1284 2.6859 2.3954
-4.2217 2.5340 2.3954
-4.3097 2.3789 2.3954
-4.3924 2.2210 2.3954
-4.4695 2.0603 2.3954
-4.5411 1.8971 2.3954
-4.6069 1.7315 2.3954
-4.6671 1.5637 2.3954
-4.7214 1.3939 2.3954
-4.7699 1.2223 2.3954
-4.8124 1.0491 2.3954
-4.8490 0.8745 2.3954
-4.8795 0.6987 2.3954
-4.9040 0.5219 2.3954
-4.9223 0.3443 2.3954
-4.9346 0.1660 2.3954
-4.9406 -0.0126 2.3954
-4.9405 -0.1915 2.3954
-4.9342 -0.3704 2.3954
-4.9217 -0.5491 2.3954
-4.9031 -0.7273 2.3954
-4.8782 -0.9050 2.3954
-4.8472 -1.0818 2.3954
-4.8100 -1.2576 2.3954
-4.7668 -1.4322 2.3954
-4.7174 -1.6053 2.3954
-4.6620 -1.7768 2.3954
-4.6006 -1.9464 2.3954
-4.5333 -2.1140 2.3954
-4.4600 -2.2793 2.3954
-4.3810 -2.4421 2.3954
-4.2962 -2.6023 2.3954
-4.2058 -2.7596 2.3954
-4.1098 -2.9138 2.3954
-4.0083 -3.0648 2.3954
-3.9014 -3.2122 2.3954
-3.7893 -3.3561 2.3954
-3.6721 -3.4961 2.3954
-3.5498 -3.6321 2.3954
-3.4226 -3.7638 2.3954
-3.2906 -3.8912 2.3954
-3.1540 -4.0140 2.3954
-3.0130 -4.1321 2.3954
-2.8676 -4.2452 2.3954
-2.7181 -4.3533 2.3954
-2.5646 -4.4561 2.3954
-2.4074 -4.5536 2.3954
-2.2465 -4.6455 2.3954
-2.0821 -4.7318 2.3954
-1.9146 -4.8122 2.3954
-1.7440 -4.8867 2.3954
-1.5706 -4.9551 2.3954
-1.3946 -5.0174 2.3954
-1.2161 -5.0734 2.3954
-1.0355 -5.1229 2.3954
-0.8530 -5.1660 2.3954
-0.6688 -5.2025 2.3954
-0.4831 -5.2324 2.3954
-0.2961 -5.2555 2.3954
-0.1082 -5.2719 2.3954
0.0805 -5.2814 2.3954
0.2696 -5.2841 2.3954
0.4590 -5.2798 2.3954
0.6483 -5.2686 2.3954
0.8374 -5.2505 2.3954
1.0259 -5.2254 2.3954
1.2136 -5.1934 2.3954
1.4002 -5.1545 2.3954
1.5855 -5.1087 2.3954
1.7692 -5.0560 2.3954
1.9510 -4.9965 2.3954
2.1307 -4.9303 2.3954
2.3080 -4.8574 2.3954
2.4826 -4.7779 2.3954
2.6544 -4.6920 2.3954
2.8230 -4.5996 2.3954
2.9882 -4.5009 2.3954
3.1498 -4.3961 2.3954
3.3075 -4.2853 2.3954
3.4610 -4.1686 2.3954
3.6102 -4.0461 2.3954
3.7549 -3.9181 2.3954
3.8947 -3.7848 2.3954
4.0284 -3.6452 2.3947
4.0712 -3.4285 2.3447
4.1118 -3.2198 2.2994
4.1505 -3.0185 2.2585
4.2277 -2.8501 2.2430
4.3278 -2.6988 2.2430
4.4223 -2.5439 2.2430
4.5108 -2.3855 2.2430
4.5935 -2.2239 2.2430
4.6700 -2.0593 2.2430
4.7402 -1.8919 2.2430
4.8042 -1.7220 2.2430
4.8617 -1.5498 2.2430
4.9128 -1.3757 2.2430
4.9573 -1.1997 2.2430
4.9951 -1.0223 2.2430
5.0263 -0.8437 2.2430
5.0507 -0.6640 2.2430
5.0684 -0.4837 2.2430
5.0794 -0.3029 2.2430
5.0836 -0.1218 2.2430
5.0810 0.0591 2.2430
5.0717 0.2397 2.2430
5.0556 0.4197 2.2430
5.0329 0.5989 2.2430
5.0036 0.7769 2.2430
4.9676 0.9536 2.2430
4.9252 1.1287 2.2430
4.8764 1.3020 2.2430
4.8472 1.4811 2.2550
4.8678 1.6793 2.2939
4.8912 1.8850 2.3381
4.9150 2.0983 2.3868
4.8476 2.2772 2.3954
4.7566 2.4452 2.3954
4.6596 2.6095 2.3954
4.5566 2.7698 2.3954
4.4481 2.9263 2.3954
4.3340 3.0784 2.3954
4.2145 3.2261 2.3954
4.0899 3.3690 2.3954
3.9604 3.5072 2.3954
3.8260 3.6403 2.3954
3.6871 3.7683 2.3954
3.5439 3.8910 2.3954
3.3965 4.0082 2.3954
3.2451 4.1198 2.3954
3.0901 4.2258 2.3954
2.9315 4.3259 2.3954
2.7697 4.4201 2.3954
2.6048 4.5083 2.3954
2.4371 4.5903 2.3954
0.8923 1.8368 0.9429
0.8257 1.8672 0.9444
0.7580 1.8952 0.9459
0.6894 1.9207 0.9474
0.6198 1.9437 0.9489
0.5495 1.9643 0.9504
0.4785 1.9822 0.9519
0.4069 1.9976 0.9534
0.3347 2.0105 0.9548
0.2622 2.0207 0.9563
0.1893 2.0283 0.9577
0.1161 2.0332 0.9591
0.0429 2.0355 0.9604
-0.0304 2.0352 0.9618
-0.1036 2.0322 0.9631
-0.1767 2.0266 0.9644
-0.2495 2.0184 0.9656
-0.3220 2.0075 0.9669
-0.3941 1.9941 0.9681
-0.4656 1.9780 0.9692
-0.5365 1.9594 0.9703
-0.6067 1.9382 0.9714
-0.6761 1.9146 0.9725
-0.7445 1.8884 0.9735
-0.8120 1.8598 0.9744
-0.8784 1.8288 0.9754
-2.3155 4.4053 2.3954
-2.4704 4.3139 2.3954
-2.6219 4.2174 2.3954
-2.7699 4.1157 2.3954
-2.9141 4.0091 2.3954
-3.0544 3.8976 2.3954
-3.1907 3.7814 2.3954
-3.3228 3.6607 2.3954
-3.4506 3.5355 2.3954
-3.5739 3.4061 2.3954
-3.6926 3.2726 2.3954
-3.8066 3.1351 2.3954
-3.9157 2.9938 2.3954
-4.0199 2.8489 2.3954
-4.1189 2.7006 2.3954
-4.2128 2.5490 2.3954
-4.3014 2.3942 2.3954
-4.3845 2.2366 2.3954
-4.4622 2.0761 2.3954
-4.5343 1.9131 2.3954
-4.6007 1.7478 2.3954
-4.6615 1.5802 2.3954
-4.7164 1.4106 2.3954
-4.7654 1.2392 2.3954
-4.8085 1.0662 2.3954
-4.8457 0.8917 2.3954
-4.8768 0.7160 2.3954
-4.9019 0.5393 2.3954
-4.9208 0.3617 2.3954
-4.9336 0.1835 2.3954
-4.9403 0.0049 2.3954
-4.9408 -0.1740 2.3954
-4.9351 -0.3529 2.3954
-4.9232 -0.5316 2.3954
-4.9052 -0.7099 2.3954
-4.8809 -0.8876 2.3954
-4.8505 -1.0645 2.3954
-4.8139 -1.2405 2.3954
-4.7713 -1.4152 2.3954
-4.7225 -1.5884 2.3954
-4.6677 -1.7601 2.3954
-4.6069 -1.9299 2.3954
-4.5401 -2.0977 2.3954
-4.4675 -2.2632 2.3954
-4.3890 -2.4263 2.3954
-4.3048 -2.5867 2.3954
-4.2149 -2.7443 2.3954
-4.1194 -2.8988 2.3954
-4.0185 -3.0501 2.3954
-3.9121 -3.1980 2.3954
-3.8005 -3.3422 2.3954
-3.6838 -3.4826 2.3954
-3.5619 -3.6189 2.3954
-3.4352 -3.7511 2.3954
-3.3037 -3.8789 2.3954
-3.1676 -4.0022 2.3954
-3.0270 -4.1207 2.3954
-2.8820 -4.2344 2.3954
-2.7329 -4.3429 2.3954
-2.5798 -4.4463 2.3954
-2.4229 -4.5443 2.3954
-2.2624 -4.6368 2.3954
-2.0984 -4.7236 2.3954
-1.9311 -4.8046 2.3954
-1.7608 -4.8797 2.3954
-1.5877 -4.9487 2.3954
-1.4119 -5.0116 2.3954
-1.2337 -5.0682 2.3954
-1.0533 -5.1184 2.3954
-0.8710 -5.1621 2.3954
-0.6869 -5.1992 2.3954
-0.5013 -5.2298 2.3954
-0.3145 -5.2536 2.3954
-0.1266 -5.2706 2.3954
0.0620 -5.2808 2.3954
0.2511 -5.2841 2.3954
0.4404 -5.2805 2.3954
0.6298 -5.2700 2.3954
0.8189 -5.2526 2.3954
1.0075 -5.2282 2.3954
1.1953 -5.1968 2.3954
1.3820 -5.1586 2.3954
1.5674 -5.1135 2.3954
1.7513 -5.0615 2.3954
1.9333 -5.0026 2.3954
2.1132 -4.9371 2.3954
2.2907 -4.8648 2.3954
2.4657 -4.7859 2.3954
2.6377 -4.7007 2.3954
2.8066 -4.6089 2.3954
2.9722 -4.5109 2.3954
3.1341 -4.4067 2.3954
3.2922 -4.2964 2.3954
3.4462 -4.1803 2.3954
3.5958 -4.0584 2.3954
3.7409 -3.9309 2.3954
3.8812 -3.7981 2.3954
4.0166 -3.6600 2.3954
4.0671 -3.4493 2.3494
4.1079 -3.2399 2.3036
4.1469 -3.0377 2.2623
4.2176 -2.8647 2.2430
4.3183 -2.7138 2.2430
4.4133 -2.5592 2.2430
4.5024 -2.4012 2.2430
4.5856 -2.2398 2.2430
4.6627 -2.0755 2.2430
4.7336 -1.9084 2.2430
4.7982 -1.7387 2.2430
4.8564 -1.5668 2.2430
4.9081 -1.3928 2.2430
4.9532 -1.2170 2.2430
4.9917 -1.0398 2.2430
5.0235 -0.8612 2.2430
5.0486 -0.6816 2.2430
5.0670 -0.5013 2.2430
5.0786 -0.3206 2.2430
5.0835 -0.1396 2.2430
5.0816 0.0414 2.2430
5.0729 0.2220 2.2430
5.0575 0.4021 2.2430
5.0354 0.5814 2.2430
5.0067 0.7595 2.2430
4.9715 0.9364 2.2430
4.9297 1.1117 2.2430
4.8815 1.2851 2.2430
4.8471 1.4626 2.2523
4.8655 1.6595 2.2898
4.8889 1.8645 2.3336
4.9126 2.0770 2.3819
4.8562 2.2606 2.3954
4.7658 2.4289 2.3954
4.6693 2.5936 2.3954
4.5670 2.7544 2.3954
4.4590 2.9112 2.3954
4.3454 3.0637 2.3954
4.2265 3.2118 2.3954
4.1024 3.3552 2.3954
3.9733 3.4939 2.3954
3.8394 3.6275 2.3954
3.7009 3.7560 2.3954
3.5581 3.8792 2.3954
3.4111 3.9970 2.3954
3.2601 4.1092 2.3954
3.1054 4.2157 2.3954
2.9472 4.3164 2.3954
2.7856 4.4112 2.3954
2.6211 4.4999 2.3954
2.4536 4.5826 2.3954
0.8988 1.8337 0.9427
0.8323 1.8643 0.9443
0.7647 1.8925 0.9458
0.6961 1.9183 0.9473
0.6267 1.9416 0.9488
0.5564 1.9624 0.9503
0.4855 1.9806 0.9518
0.4139 1.9963 0.9532
0.3418 2.0093 0.9547
0.2693 2.0198 0.9561
0.1964 2.0276 0.9575
0.1233 2.0329 0.9589
0.0501 2.0354 0.9603
-0.0232 2.0354 0.9617
-0.0965 2.0327 0.9630
-0.1696 2.0273 0.9643
-0.2424 2.0193 0.9655
-0.3150 2.0087 0.9668
-0.3871 1.9955 0.9679
-0.4586 1.9797 0.9691
-0.5296 1.9613 0.9702
-0.5999 1.9404 0.9713
-0.6693 1.9170 0.9724
-0.7379 1.8911 0.9734
-0.8055 1.8627 0.9743
-0.8720 1.8319 0.9753
-2.3001 4.4139 2.3954
-2.4554 4.3231 2.3954
-2.6072 4.2271 2.3954
-2.7556 4.1259 2.3954
-2.9001 4.0197 2.3954
-3.0409 3.9087 2.3954
-3.1776 3.7930 2.3954
-3.3101 3.6727 2.3954
-3.4383 3.5480 2.3954
-3.5621 3.4190 2.3954
-3.6812 3.2858 2.3954
-3.7957 3.1487 2.3954
-3.9053 3.0078 2.3954
-4.0099 2.8633 2.3954
-4.1095 2.7153 2.3954
-4.2038 2.5640 2.3954
-4.2929 2.4095 2.3954
-4.3766 2.2521 2.3954
-4.4548 2.0920 2.3954
-4.5275 1.9292 2.3954
-4.5945 1.7641 2.3954
-4.6558 1.5967 2.3954
-4.7113 1.4273 2.3954
-4.7609 1.2561 2.3954
-4.8046 1.0832 2.3954
-4.8423 0.9088 2.3954
-4.8740 0.7332 2.3954
-4.8997 0.5566 2.3954
-4.9192 0.3791 2.3954
-4.9327 0.2010 2.3954
-4.9399 0.0224 2.3954
-4.9410 -0.1565 2.3954
-4.9359 -0.3354 2.3954
-4.9247 -0.5141 2.3954
-4.9072 -0.6925 2.3954
-4.8836 -0.8703 2.3954
-4.8538 -1.0473 2.3954
-4.8178 -1.2233 2.3954
-4.7757 -1.3981 2.3954
-4.7275 -1.5715 2.3954
-4.6733 -1.7434 2.3954
-4.6131 -1.9134 2.3954
-4.5469 -2.0813 2.3954
-4.4748 -2.2471 2.3954
-4.3969 -2.4104 2.3954
-4.3133 -2.5711 2.3954
-4.2239 -2.7290 2.3954
-4.1290 -2.8838 2.3954
-4.0286 -3.0355 2.3954
-3.9228 -3.1836 2.3954
-3.8117 -3.3282 2.3954
-3.6954 -3.4690 2.3954
-3.5741 -3.6058 2.3954
-3.4478 -3.7384 2.3954
-3.3168 -3.8666 2.3954
-3.1811 -3.9903 2.3954
-3.0410 -4.1093 2.3954
-2.8964 -4.2234 2.3954
-2.7477 -4.3325 2.3954
-2.5950 -4.4364 2.3954
-2.4385 -4.5349 2.3954
-2.2783 -4.6280 2.3954
-2.1146 -4.7153 2.3954
-1.9476 -4.7969 2.3954
-1.7776 -4.8726 2.3954
-1.6047 -4.9422 2.3954
-1.4292 -5.0057 2.3954
-1.2513 -5.0629 2.3954
-1.0711 -5.1137 2.3954
-0.8889 -5.1581 2.3954
-0.7050 -5.1959 2.3954
-0.5195 -5.2271 2.3954
-0.3328 -5.2515 2.3954
-0.1451 -5.2692 2.3954
0.0435 -5.2801 2.3954
0.2326 -5.2841 2.3954
0.4219 -5.2812 2.3954
0.6113 -5.2713 2.3954
0.8004 -5.2546 2.3954
0.9890 -5.2309 2.3954
1.1769 -5.2002 2.3954
1.3638 -5.1626 2.3954
1.5493 -5.1182 2.3954
1.7333 -5.0668 2.3954
1.9155 -5.0087 2.3954
2.0957 -4.9438 2.3954
2.2735 -4.8722 2.3954
2.4486 -4.7940 2.3954
2.6210 -4.7094 2.3954
2.7903 -4.6182 2.3954
2.9561 -4.5208 2.3954
3.1185 -4.4171 2.3954
3.2769 -4.3075 2.3954
3.4313 -4.1919 2.3954
3.5814 -4.0706 2.3954
3.7269 -3.9436 2.3954
3.8677 -3.8113 2.3954
4.0036 -3.6737 2.3954
4.0630 -3.4703 2.3541
4.1040 -3.2601 2.3079
4.1431 -3.0572 2.2662
4.2074 -2.8793 2.2430
4.3087 -2.7288 2.2430
4.4042 -2.5745 2.2430
4.4940 -2.4168 2.2430
4.5778 -2.2558 2.2430
4.6555 -2.0917 2.2430
4.7270 -1.9249 2.2430
4.7922 -1.7554 2.2430
4.8510 -1.5837 2.2430
4.9033 -1.4099 2.2430
4.9491 -1.2343 2.2430
4.9882 -1.0572 2.2430
5.0207 -0.8787 2.2430
5.0465 -0.6993 2.2430
5.0655 -0.5190 2.2430
5.0778 -0.3383 2.2430
5.0833 -0.1573 2.2430
5.0820 0.0237 2.2430
5.0740 0.2044 2.2430
5.0593 0.3845 2.2430
5.0379 0.5639 2.2430
5.0098 0.7421 2.2430
4.9752 0.9191 2.2430
4.9340 1.0946 2.2430
4.8865 1.2682 2.2430
4.8469 1.4441 2.2496
4.8633 1.6398 2.2857
4.8866 1.8441 2.3291
4.9103 2.0559 2.3769
4.8647 2.2439 2.3954
4.7749 2.4126 2.3954
4.6790 2.5776 2.3954
4.5773 2.7388 2.3954
4.4698 2.8960 2.3954
4.3567 3.0490 2.3954
4.2383 3.1975 2.3954
4.1147 3.3414 2.3954
3.9861 3.4805 2.3954
3.8527 3.6146 2.3954
3.7147 3.7437 2.3954
3.5723 3.8674 2.3954
3.4256 3.9857 2.3954
3.2750 4.0984 2.3954
3.1207 4.2055 2.3954
-3.6080 2.9510 2.3954
-3.7108 2.8171 2.3954
-3.8089 2.6798 2.3954
