ply
format ascii 1.0
element vertex 2190
property float32 x
property float32 y
property float32 z
end_header
-0.7505 -6.0968 2.3645
-0.5344 -6.1528 2.3644
-0.3154 -6.2014 2.3644
-0.0938 -6.2424 2.3643
0.1301 -6.2757 2.3643
0.3563 -6.3012 2.3642
0.5842 -6.3185 2.3642
0.8137 -6.3278 2.3642
1.0445 -6.3287 2.3642
1.2762 -6.3212 2.3641
1.5086 -6.3051 2.3641
1.7413 -6.2805 2.3641
1.9739 -6.2471 2.3641
2.2062 -6.2049 2.3641
2.4378 -6.1539 2.3641
2.6682 -6.0940 2.3641
2.8972 -6.0252 2.3641
3.1244 -5.9474 2.3641
3.3493 -5.8608 2.3642
3.5716 -5.7652 2.3642
3.7910 -5.6608 2.3642
4.0069 -5.5476 2.3642
4.2190 -5.4257 2.3643
4.4270 -5.2951 2.3643
4.6304 -5.1561 2.3644
4.8297 -5.0097 2.3649
5.0219 -4.8534 2.3646
5.2084 -4.6891 2.3643
5.3891 -4.5175 2.3642
5.5638 -4.3387 2.3643
5.7320 -4.1530 2.3646
5.8936 -3.9605 2.3652
6.0458 -3.7600 2.3650
6.1908 -3.5535 2.3651
6.3275 -3.3409 2.3652
6.4557 -3.1226 2.3653
6.5750 -2.8988 2.3654
6.6853 -2.6700 2.3655
6.7924 -2.4388 2.3678
6.9029 -2.2070 2.3744
6.9967 -1.9680 2.3786
7.0760 -1.7236 2.3812
7.0697 -1.4602 2.3586
6.9204 -1.1768 2.2923
6.8106 -0.9125 2.2432
6.8277 -0.6709 2.2395
6.8472 -0.4298 2.2399
6.8557 -0.1882 2.2399
6.8542 0.0535 2.2399
6.8427 0.2948 2.2399
6.8212 0.5353 2.2399
6.7899 0.7745 2.2399
6.7489 1.0120 2.2399
6.6981 1.2473 2.2399
6.6378 1.4800 2.2399
6.5682 1.7097 2.2399
6.4893 1.9360 2.2399
6.4338 2.1694 2.2512
6.4251 2.4222 2.2826
6.4187 2.6822 2.3190
6.4115 2.9493 2.3596
6.3706 3.2077 2.3923
6.2326 3.4194 2.3923
6.0866 3.6248 2.3923
5.9331 3.8237 2.3923
5.7722 4.0159 2.3923
5.6044 4.2009 2.3923
5.4300 4.3787 2.3923
5.2495 4.5489 2.3923
5.0630 4.7115 2.3923
4.8711 4.8661 2.3923
4.6741 5.0126 2.3923
4.4724 5.1510 2.3923
4.2664 5.2811 2.3923
4.0564 5.4027 2.3923
3.8429 5.5159 2.3923
3.6261 5.6205 2.3923
3.4066 5.7165 2.3923
3.1845 5.8039 2.3923
2.9604 5.8826 2.3923
2.7345 5.9527 2.3923
0.9547 2.2901 0.9109
0.8720 2.3214 0.9153
0.7882 2.3497 0.9198
0.7034 2.3751 0.9243
0.6178 2.3973 0.9288
0.5314 2.4164 0.9333
0.4444 2.4324 0.9378
0.3568 2.4452 0.9423
0.2689 2.4549 0.9469
0.1806 2.4614 0.9514
0.0921 2.4647 0.9559
0.0036 2.4648 0.9604
6.5904 -0.3692 2.3208
6.5319 -0.1356 2.2980
6.4889 0.0938 2.2839
6.4579 0.3210 2.2773
6.4353 0.5475 2.2770
6.4252 0.7753 2.2843
6.4207 1.0053 2.2971
6.4179 1.2378 2.3138
6.4145 1.4732 2.3340
6.4104 1.7121 2.3576
6.4056 1.9551 2.3848
6.3379 2.1814 2.3923
6.2415 2.3975 2.3923
6.1367 2.6091 2.3923
6.0238 2.8159 2.3923
5.9030 3.0176 2.3923
5.7745 3.2138 2.3923
5.6387 3.4043 2.3923
5.4959 3.5889 2.3923
5.3463 3.7671 2.3923
5.1904 3.9390 2.3923
5.0283 4.1040 2.3923
4.8605 4.2621 2.3923
4.6872 4.4132 2.3923
4.5088 4.5569 2.3923
4.3257 4.6933 2.3923
4.1382 4.8220 2.3923
3.9466 4.9432 2.3923
3.7514 5.0565 2.3923
3.5527 5.1620 2.3923
3.3511 5.2596 2.3923
3.1467 5.3492 2.3923
2.9400 5.4309 2.3923
2.7313 5.5045 2.3923
0.9584 2.1176 0.9095
0.8818 2.1491 0.9136
0.8042 2.1779 0.9177
0.7256 2.2039 0.9219
0.6461 2.2270 0.9261
0.5658 2.2473 0.9303
0.4848 2.2646 0.9345
0.4032 2.2790 0.9388
0.3212 2.2904 0.9430
0.2388 2.2989 0.9472
0.1561 2.3044 0.9515
0.0733 2.3069 0.9557
-0.0096 2.3064 0.9599
-0.0924 2.3029 0.9640
-0.1750 2.2964 0.9682
-0.2573 2.2870 0.9723
-0.3392 2.2746 0.9763
-0.4207 2.2592 0.9804
-0.5015 2.2409 0.9843
-0.5816 2.2197 0.9882
-0.6609 2.1956 0.9921
-0.7393 2.1686 0.9958
-0.8166 2.1389 0.9995
-2.1292 5.0232 2.3923
-2.3000 4.9217 2.3923
-2.4666 4.8151 2.3923
-2.6291 4.7033 2.3923
-2.7871 4.5867 2.3923
-2.9406 4.4653 2.3923
-3.0896 4.3394 2.3923
-3.2338 4.2091 2.3923
-3.3733 4.0745 2.3923
-3.5078 3.9359 2.3923
-3.6374 3.7934 2.3923
-3.7619 3.6471 2.3923
-3.8812 3.4973 2.3923
-3.9953 3.3441 2.3923
-4.1042 3.1876 2.3923
-4.2076 3.0281 2.3923
-4.3057 2.8657 2.3923
-4.3982 2.7005 2.3923
-4.4852 2.5327 2.3923
-4.5667 2.3626 2.3923
-4.6424 2.1901 2.3923
-4.7126 2.0156 2.3923
-4.7770 1.8392 2.3923
-4.8356 1.6609 2.3923
-4.8884 1.4811 2.3923
-4.9354 1.2998 2.3923
-4.9766 1.1172 2.3923
-5.0119 0.9335 2.3923
-5.0412 0.7489 2.3923
-5.0647 0.5634 2.3923
-5.0822 0.3772 2.3923
-5.0937 0.1906 2.3923
-5.0989 0.0037 2.3921
-5.0962 -0.1833 2.3910
-5.0850 -0.3700 2.3888
-5.0643 -0.5558 2.3848
-5.0411 -0.7411 2.3825
-5.0148 -0.9261 2.3816
-4.9826 -1.1104 2.3807
-4.9445 -1.2937 2.3798
-4.9005 -1.4758 2.3788
-4.8506 -1.6567 2.3779
-4.7948 -1.8361 2.3770
-4.7331 -2.0140 2.3762
-4.6594 -2.1871 2.3721
-4.5780 -2.3567 2.3669
-4.5008 -2.5290 2.3668
-4.4178 -2.6990 2.3667
-4.3290 -2.8668 2.3666
-4.2346 -3.0320 2.3665
-4.1346 -3.1945 2.3664
-4.0290 -3.3541 2.3663
-3.9178 -3.5107 2.3662
-3.8012 -3.6640 2.3661
-3.6792 -3.8139 2.3660
-3.5519 -3.9602 2.3659
-3.4194 -4.1027 2.3658
-3.2817 -4.2412 2.3658
-3.1389 -4.3756 2.3657
-2.9912 -4.5056 2.3656
-2.8386 -4.6311 2.3655
-2.6812 -4.7519 2.3654
-2.5192 -4.8678 2.3653
-2.3527 -4.9786 2.3653
-2.1818 -5.0841 2.3652
-2.0067 -5.1842 2.3651
-1.8275 -5.2786 2.3650
-1.6444 -5.3672 2.3650
-1.4575 -5.4498 2.3649
-1.2670 -5.5263 2.3648
-1.0732 -5.5964 2.3648
-0.8761 -5.6600 2.3647
-0.6760 -5.7169 2.3647
-0.4732 -5.7670 2.3646
-0.2678 -5.8101 2.3646
-0.0601 -5.8461 2.3645
0.1497 -5.8748 2.3645
0.3614 -5.8960 2.3645
0.5746 -5.9097 2.3644
0.7891 -5.9158 2.3644
1.0046 -5.9140 2.3644
1.2209 -5.9044 2.3644
1.4376 -5.8869 2.3643
1.6544 -5.8612 2.3643
1.8710 -5.8275 2.3643
2.0872 -5.7856 2.3643
2.3024 -5.7355 2.3643
2.5165 -5.6771 2.3643
2.7291 -5.6104 2.3644
2.9399 -5.5356 2.3644
3.1484 -5.4524 2.3644
3.3543 -5.3611 2.3644
3.5573 -5.2616 2.3645
3.7571 -5.1540 2.3645
3.9531 -5.0384 2.3645
4.1452 -4.9149 2.3646
4.3329 -4.7836 2.3646
4.5159 -4.6447 2.3647
4.6938 -4.4982 2.3647
4.8662 -4.3445 2.3648
5.0329 -4.1837 2.3649
5.1935 -4.0159 2.3649
5.3476 -3.8415 2.3650
5.4950 -3.6607 2.3651
5.6353 -3.4738 2.3652
5.7682 -3.2809 2.3653
5.8935 -3.0826 2.3654
6.0109 -2.8790 2.3655
6.1200 -2.6705 2.3656
6.2243 -2.4589 2.3670
6.3327 -2.2473 2.3732
6.4237 -2.0279 2.3760
6.5029 -1.8038 2.3778
6.5908 -1.5806 2.3861
6.6528 -1.3497 2.3882
6.7039 -1.1160 2.3899
6.7444 -0.8801 2.3912
6.6678 -0.6323 2.3545
6.5964 -0.3919 2.3233
6.5361 -0.1578 2.2995
6.4930 0.0718 2.2851
6.4604 0.2991 2.2777
6.4362 0.5256 2.2764
6.4262 0.7533 2.2835
6.4210 0.9830 2.2956
6.4182 1.2153 2.3121
6.4148 1.4504 2.3319
6.4108 1.6889 2.3551
6.4061 1.9315 2.3820
6.3468 2.1603 2.3923
6.2512 2.3768 2.3923
6.1472 2.5889 2.3923
6.0350 2.7962 2.3923
5.9149 2.9983 2.3923
5.7872 3.1951 2.3923
5.6521 3.3862 2.3923
5.5100 3.5714 2.3923
5.3610 3.7502 2.3923
5.2057 3.9227 2.3923
5.0442 4.0884 2.3923
4.8769 4.2472 2.3923
4.7041 4.3989 2.3923
4.5263 4.5434 2.3923
4.3436 4.6804 2.3923
4.1565 4.8100 2.3923
3.9653 4.9318 2.3923
3.7703 5.0459 2.3923
3.5720 5.1522 2.3923
3.3706 5.2505 2.3923
3.1665 5.3409 2.3923
2.9600 5.4233 2.3923
2.7515 5.4978 2.3923
0.9657 2.1144 0.9091
0.8893 2.1462 0.9132
0.8117 2.1753 0.9173
0.7332 2.2015 0.9215
0.6538 2.2249 0.9257
0.5735 2.2454 0.9299
0.4926 2.2631 0.9341
0.4111 2.2777 0.9384
0.3291 2.2895 0.9426
0.2467 2.2982 0.9468
0.1641 2.3040 0.9511
0.0813 2.3068 0.9553
-0.0016 2.3066 0.9595
-0.0844 2.3034 0.9636
-0.1670 2.2972 0.9678
-0.2494 2.2880 0.9719
-0.3313 2.2759 0.9760
-0.4128 2.2608 0.9800
-0.4937 2.2428 0.9839
-0.5739 2.2218 0.9878
-0.6533 2.1980 0.9917
-0.7318 2.1714 0.9955
-0.8092 2.1419 0.9992
-2.1126 5.0327 2.3923
-2.2837 4.9317 2.3923
-2.4508 4.8256 2.3923
-2.6136 4.7143 2.3923
-2.7720 4.5982 2.3923
-2.9260 4.4772 2.3923
-3.0754 4.3518 2.3923
-3.2201 4.2218 2.3923
-3.3601 4.0877 2.3923
-3.4951 3.9494 2.3923
-3.6251 3.8073 2.3923
-3.7501 3.6614 2.3923
-3.8700 3.5119 2.3923
-3.9846 3.3590 2.3923
-4.0939 3.2028 2.3923
-4.1979 3.0436 2.3923
-4.2964 2.8815 2.3923
-4.3895 2.7165 2.3923
-4.4771 2.5490 2.3923
-4.5590 2.3791 2.3923
-4.6354 2.2068 2.3923
-4.7060 2.0325 2.3923
-4.7710 1.8562 2.3923
-4.8302 1.6782 2.3923
-4.8836 1.4985 2.3923
-4.9312 1.3173 2.3923
-4.9729 1.1349 2.3923
-5.0087 0.9513 2.3923
-5.0387 0.7667 2.3923
-5.0627 0.5813 2.3923
-5.0808 0.3952 2.3923
-5.0929 0.2086 2.3923
-5.0987 0.0217 2.3921
-5.0968 -0.1653 2.3911
-5.0866 -0.3520 2.3891
-5.0668 -0.5379 2.3853
-5.0433 -0.7232 2.3826
-5.0176 -0.9083 2.3817
-4.9860 -1.0926 2.3808
-4.9484 -1.2760 2.3798
-4.9050 -1.4583 2.3789
-4.8556 -1.6393 2.3780
-4.8004 -1.8189 2.3771
-4.7394 -1.9969 2.3762
-4.6668 -2.1705 2.3725
-4.5862 -2.3405 2.3675
-4.5085 -2.5124 2.3668
-4.4260 -2.6827 2.3667
-4.3378 -2.8507 2.3666
-4.2440 -3.0162 2.3665
-4.1445 -3.1790 2.3664
-4.0394 -3.3389 2.3663
-3.9288 -3.4957 2.3662
-3.8127 -3.6494 2.3661
-3.6912 -3.7996 2.3660
-3.5644 -3.9463 2.3659
-3.4324 -4.0892 2.3659
-3.2952 -4.2281 2.3658
-3.1529 -4.3629 2.3657
-3.0056 -4.4933 2.3656
-2.8535 -4.6192 2.3655
-2.6966 -4.7405 2.3654
-2.5350 -4.8568 2.3653
-2.3689 -4.9681 2.3653
-2.1985 -5.0742 2.3652
-2.0238 -5.1748 2.3651
-1.8449 -5.2698 2.3650
-1.6622 -5.3589 2.3650
-1.4757 -5.4421 2.3649
-1.2855 -5.5192 2.3648
-1.0920 -5.5899 2.3648
-0.8952 -5.6542 2.3647
-0.6955 -5.7117 2.3647
-0.4929 -5.7625 2.3646
-0.2877 -5.8063 2.3646
-0.0802 -5.8429 2.3645
0.1294 -5.8723 2.3645
0.3409 -5.8943 2.3645
0.5540 -5.9087 2.3644
0.7684 -5.9155 2.3644
0.9838 -5.9146 2.3644
1.2000 -5.9057 2.3644
1.4167 -5.8889 2.3644
1.6335 -5.8641 2.3643
1.8502 -5.8311 2.3643
2.0664 -5.7900 2.3643
2.2817 -5.7407 2.3643
2.4960 -5.6831 2.3643
2.7087 -5.6172 2.3644
2.9196 -5.5431 2.3644
3.1284 -5.4608 2.3644
3.3346 -5.3702 2.3644
3.5379 -5.2715 2.3645
3.7380 -5.1647 2.3645
3.9344 -5.0499 2.3645
4.1269 -4.9271 2.3646
4.3150 -4.7966 2.3646
4.4984 -4.6584 2.3647
4.6768 -4.5127 2.3647
4.8498 -4.3596 2.3648
5.0171 -4.1995 2.3649
5.1783 -4.0324 2.3649
5.3330 -3.8586 2.3650
5.4811 -3.6784 2.3651
5.6221 -3.4920 2.3652
5.7557 -3.2998 2.3653
5.8817 -3.1019 2.3654
5.9999 -2.8988 2.3655
6.1099 -2.6908 2.3656
6.2134 -2.4789 2.3664
6.3227 -2.2679 2.3726
6.4158 -2.0494 2.3759
6.4940 -1.8251 2.3770
6.5834 -1.6024 2.3855
6.6474 -1.3721 2.3881
6.6995 -1.1386 2.3898
6.7410 -0.9029 2.3911
6.6755 -0.6559 2.3580
6.6024 -0.4148 2.3259
6.5407 -0.1802 2.3012
6.4972 0.0498 2.2864
6.4630 0.2773 2.2780
6.4372 0.5037 2.2759
6.4272 0.7313 2.2827
6.4212 0.9607 2.2942
6.4185 1.1928 2.3103
6.4152 1.4276 2.3298
6.4112 1.6657 2.3527
6.4066 1.9079 2.3792
6.3555 2.1392 2.3923
6.2608 2.3561 2.3923
6.1576 2.5686 2.3923
6.0462 2.7764 2.3923
5.9269 2.9791 2.3923
5.7999 3.1764 2.3923
5.6655 3.3681 2.3923
5.5240 3.5538 2.3923
5.3757 3.7333 2.3923
5.2209 3.9062 2.3923
5.0600 4.0727 2.3923
4.8933 4.2322 2.3923
4.7210 4.3846 2.3923
4.5436 4.5298 2.3923
4.3614 4.6676 2.3923
4.1747 4.7978 2.3923
3.9839 4.9204 2.3923
3.7893 5.0353 2.3923
3.5913 5.1423 2.3923
3.3902 5.2414 2.3923
3.1863 5.3326 2.3923
2.9800 5.4157 2.3923
2.7717 5.4909 2.3923
2.5616 5.5581 2.3923
0.8967 2.1433 0.9128
0.8193 2.1726 0.9169
0.7408 2.1991 0.9211
0.6615 2.2228 0.9253
0.5813 2.2436 0.9295
0.5004 2.2615 0.9337
0.4190 2.2764 0.9380
0.3370 2.2884 0.9422
0.2547 2.2975 0.9464
0.1720 2.3036 0.9507
0.0893 2.3066 0.9549
0.0064 2.3067 0.9591
6.3337 -0.3552 2.3923
6.3400 -0.1323 2.3923
6.3373 0.0906 2.3923
6.3255 0.3131 2.3923
6.3048 0.5348 2.3923
6.2751 0.7554 2.3923
6.2365 0.9743 2.3923
6.1892 1.1913 2.3923
6.1333 1.4059 2.3923
6.0688 1.6178 2.3923
5.9960 1.8267 2.3923
5.9150 2.0322 2.3923
5.8260 2.2339 2.3923
5.7292 2.4315 2.3923
5.6249 2.6248 2.3923
5.5132 2.8133 2.3923
5.3944 2.9969 2.3923
5.2687 3.1752 2.3923
5.1365 3.3481 2.3923
4.9980 3.5152 2.3923
4.8534 3.6764 2.3923
4.7032 3.8313 2.3923
4.5475 3.9799 2.3923
4.3867 4.1220 2.3923
4.2211 4.2573 2.3923
4.0510 4.3858 2.3923
3.8767 4.5073 2.3923
3.6985 4.6218 2.3923
3.5168 4.7290 2.3923
3.3318 4.8290 2.3923
3.1439 4.9216 2.3923
2.9534 5.0069 2.3923
2.7607 5.0847 2.3923
2.5659 5.1551 2.3923
0.9026 1.9878 0.9113
0.8308 2.0174 0.9152
0.7579 2.0444 0.9191
0.6841 2.0688 0.9230
0.6094 2.0905 0.9269
0.5340 2.1095 0.9309
0.4580 2.1257 0.9349
0.3814 2.1392 0.9388
0.3044 2.1500 0.9428
0.2270 2.1579 0.9468
0.1494 2.1630 0.9508
0.0717 2.1654 0.9547
-0.0061 2.1649 0.9587
-0.0838 2.1616 0.9626
-0.1614 2.1556 0.9665
-0.2386 2.1467 0.9703
-0.3156 2.1350 0.9741
-0.3920 2.1206 0.9779
-0.4679 2.1034 0.9816
-0.5431 2.0835 0.9853
-0.6175 2.0609 0.9889
-0.6911 2.0356 0.9924
-0.7638 2.0077 0.9959
-0.8353 1.9772 0.9993
-2.1611 4.6386 2.3923
-2.3187 4.5390 2.3923
-2.4723 4.4345 2.3923
-2.6219 4.3253 2.3923
-2.7672 4.2116 2.3923
-2.9082 4.0935 2.3923
-3.0449 3.9712 2.3923
-3.1770 3.8449 2.3923
-3.3045 3.7146 2.3923
-3.4273 3.5806 2.3923
-3.5454 3.4430 2.3923
-3.6586 3.3020 2.3923
-3.7668 3.1577 2.3923
-3.8701 3.0103 2.3923
-3.9683 2.8599 2.3923
-4.0613 2.7068 2.3923
-4.1492 2.5510 2.3923
-4.2318 2.3927 2.3923
-4.3091 2.2320 2.3923
-4.3810 2.0692 2.3923
-4.4476 1.9044 2.3923
-4.5087 1.7377 2.3923
-4.5644 1.5694 2.3923
-4.6146 1.3994 2.3923
-4.6592 1.2281 2.3923
-4.6982 1.0555 2.3923
-4.7317 0.8819 2.3923
-4.7595 0.7073 2.3923
-4.7817 0.5320 2.3923
-4.7982 0.3560 2.3923
-4.8091 0.1795 2.3923
-4.8135 0.0028 2.3919
-4.8105 -0.1740 2.3906
-4.7993 -0.3504 2.3881
-4.7789 -0.5258 2.3839
-4.7589 -0.7013 2.3827
-4.7339 -0.8761 2.3818
-4.7033 -1.0503 2.3810
-4.6670 -1.2234 2.3801
-4.6251 -1.3956 2.3792
-4.5777 -1.5664 2.3784
-4.5246 -1.7359 2.3775
-4.4660 -1.9038 2.3767
-4.4009 -2.0695 2.3754
-4.3248 -2.2304 2.3710
-4.2440 -2.3891 2.3669
-4.1651 -2.5494 2.3668
-4.0807 -2.7074 2.3667
-3.9910 -2.8630 2.3666
-3.8960 -3.0160 2.3665
-3.7957 -3.1662 2.3664
-3.6902 -3.3134 2.3663
-3.5795 -3.4575 2.3662
-3.4638 -3.5983 2.3661
-3.3431 -3.7356 2.3660
-3.2175 -3.8693 2.3660
-3.0870 -3.9991 2.3659
-2.9518 -4.1250 2.3658
-2.8119 -4.2467 2.3657
-2.6675 -4.3640 2.3656
-2.5187 -4.4768 2.3655
-2.3655 -4.5850 2.3655
-2.2082 -4.6882 2.3654
-2.0468 -4.7865 2.3653
-1.8815 -4.8795 2.3653
-1.7124 -4.9672 2.3652
-1.5397 -5.0493 2.3651
-1.3635 -5.1257 2.3651
-1.1841 -5.1963 2.3650
-1.0015 -5.2609 2.3650
-0.8161 -5.3193 2.3649
-0.6279 -5.3713 2.3649
-0.4372 -5.4170 2.3648
-0.2442 -5.4560 2.3648
-0.0491 -5.4882 2.3647
0.1478 -5.5137 2.3647
0.3464 -5.5321 2.3647
0.5463 -5.5434 2.3646
0.7473 -5.5476 2.3646
0.9492 -5.5444 2.3646
1.1516 -5.5339 2.3646
1.3543 -5.5159 2.3646
1.5571 -5.4904 2.3646
1.7595 -5.4573 2.3645
1.9614 -5.4166 2.3645
2.1623 -5.3682 2.3645
2.3621 -5.3122 2.3646
2.5604 -5.2485 2.3646
2.7568 -5.1771 2.3646
2.9510 -5.0980 2.3646
3.1428 -5.0114 2.3646
3.3317 -4.9171 2.3647
3.5175 -4.8154 2.3647
3.6998 -4.7063 2.3647
3.8783 -4.5899 2.3648
4.0527 -4.4663 2.3648
4.2226 -4.3357 2.3649
4.3878 -4.1982 2.3649
4.5478 -4.0539 2.3650
4.7024 -3.9031 2.3651
4.8513 -3.7460 2.3651
4.9942 -3.5827 2.3652
5.1307 -3.4135 2.3653
5.2607 -3.2387 2.3654
5.3839 -3.0586 2.3654
5.4999 -2.8733 2.3655
5.6086 -2.6833 2.3656
5.7097 -2.4887 2.3657
5.8175 -2.2957 2.3717
5.9126 -2.0961 2.3757
5.9924 -1.8900 2.3767
6.0639 -1.6806 2.3778
6.1363 -1.4704 2.3824
6.2029 -1.2576 2.3881
6.2534 -1.0405 2.3910
6.2903 -0.8206 2.3920
6.3163 -0.5991 2.3923
6.3326 -0.3766 2.3923
6.3398 -0.1538 2.3923
6.3379 0.0692 2.3923
6.3271 0.2917 2.3923
6.3072 0.5135 2.3923
6.2783 0.7341 2.3923
6.2406 0.9533 2.3923
6.1942 1.1704 2.3923
6.1390 1.3853 2.3923
6.0754 1.5975 2.3923
6.0034 1.8067 2.3923
5.9232 2.0125 2.3923
5.8349 2.2146 2.3923
5.7389 2.4126 2.3923
5.6352 2.6063 2.3923
5.5242 2.7954 2.3923
5.4061 2.9794 2.3923
5.2811 3.1584 2.3923
5.1495 3.3317 2.3923
5.0116 3.4994 2.3923
4.8676 3.6611 2.3923
4.7179 3.8167 2.3923
4.5627 3.9659 2.3923
4.4024 4.1086 2.3923
4.2372 4.2446 2.3923
4.0675 4.3737 2.3923
3.8936 4.4959 2.3923
3.7158 4.6111 2.3923
3.5344 4.7190 2.3923
3.3498 4.8197 2.3923
3.1622 4.9130 2.3923
2.9719 4.9990 2.3923
2.7793 5.0775 2.3923
2.5848 5.1486 2.3923
0.9095 1.9848 0.9110
0.8378 2.0147 0.9148
0.7650 2.0419 0.9187
0.6912 2.0666 0.9226
0.6167 2.0885 0.9266
0.5413 2.1078 0.9305
0.4653 2.1243 0.9345
0.3888 2.1380 0.9385
0.3118 2.1490 0.9424
0.2345 2.1573 0.9464
0.1569 2.1627 0.9504
0.0792 2.1653 0.9543
0.0014 2.1651 0.9583
-0.0763 2.1621 0.9622
-0.1539 2.1563 0.9661
-0.2312 2.1477 0.9699
-0.3082 2.1363 0.9738
-0.3847 2.1221 0.9775
-0.4606 2.1052 0.9812
-0.5359 2.0855 0.9849
-0.6104 2.0632 0.9885
-0.6841 2.0382 0.9921
-0.7568 2.0105 0.9956
-0.8285 1.9802 0.9990
-2.1457 4.6479 2.3923
-2.3037 4.5488 2.3923
-2.4577 4.4448 2.3923
-2.6076 4.3360 2.3923
-2.7534 4.2228 2.3923
-2.8948 4.1051 2.3923
-3.0319 3.9832 2.3923
-3.1644 3.8572 2.3923
-3.2924 3.7273 2.3923
-3.4157 3.5937 2.3923
-3.5342 3.4564 2.3923
-3.6479 3.3157 2.3923
-3.7566 3.1718 2.3923
-3.8603 3.0246 2.3923
-3.9590 2.8746 2.3923
-4.0526 2.7217 2.3923
-4.1409 2.5661 2.3923
-4.2240 2.4080 2.3923
-4.3019 2.2476 2.3923
-4.3743 2.0850 2.3923
-4.4414 1.9204 2.3923
-4.5031 1.7539 2.3923
-4.5593 1.5857 2.3923
-4.6100 1.4159 2.3923
-4.6551 1.2447 2.3923
-4.6947 1.0722 2.3923
-4.7287 0.8987 2.3923
-4.7571 0.7242 2.3923
-4.7797 0.5489 2.3923
-4.7969 0.3730 2.3923
-4.8083 0.1966 2.3923
-4.8134 0.0198 2.3919
-4.8111 -0.1569 2.3908
-4.8007 -0.3334 2.3884
-4.7813 -0.5090 2.3844
-4.7610 -0.6844 2.3828
-4.7366 -0.8593 2.3819
-4.7065 -1.0335 2.3811
-4.6708 -1.2068 2.3802
-4.6294 -1.3790 2.3793
-4.5825 -1.5500 2.3785
-4.5300 -1.7196 2.3776
-4.4719 -1.8877 2.3768
-4.4080 -2.0539 2.3758
-4.3324 -2.2150 2.3714
-4.2514 -2.3735 2.3669
-4.1729 -2.5340 2.3668
-4.0891 -2.6923 2.3667
-3.9999 -2.8481 2.3666
-3.9054 -3.0014 2.3665
-3.8056 -3.1518 2.3664
-3.7006 -3.2993 2.3663
-3.5904 -3.4437 2.3662
-3.4752 -3.5849 2.3661
-3.3549 -3.7225 2.3660
-3.2298 -3.8565 2.3660
-3.0998 -3.9868 2.3659
-2.9650 -4.1130 2.3658
-2.8256 -4.2351 2.3657
-2.6816 -4.3529 2.3656
-2.5332 -4.4661 2.3656
-2.3805 -4.5747 2.3655
-2.2235 -4.6785 2.3654
-2.0625 -4.7772 2.3653
-1.8976 -4.8708 2.3653
-1.7289 -4.9590 2.3652
-1.5565 -5.0416 2.3651
-1.3807 -5.1186 2.3651
-1.2015 -5.1898 2.3650
-1.0193 -5.2549 2.3650
-0.8341 -5.3139 2.3649
-0.6461 -5.3666 2.3649
-0.4557 -5.4128 2.3648
-0.2629 -5.4525 2.3648
-0.0680 -5.4854 2.3647
0.1288 -5.5115 2.3647
0.3272 -5.5306 2.3647
0.5270 -5.5427 2.3646
0.7279 -5.5475 2.3646
0.9297 -5.5451 2.3646
1.1321 -5.5353 2.3646
1.3348 -5.5180 2.3646
1.5375 -5.4932 2.3646
1.7400 -5.4608 2.3645
1.9419 -5.4209 2.3645
2.1430 -5.3732 2.3645
2.3429 -5.3179 2.3646
2.5413 -5.2549 2.3646
2.7379 -5.1843 2.3646
2.9324 -5.1060 2.3646
3.1244 -5.0200 2.3646
3.3136 -4.9265 2.3647
3.4997 -4.8256 2.3647
3.6824 -4.7172 2.3647
3.8613 -4.6015 2.3648
4.0361 -4.4786 2.3648
4.2065 -4.3486 2.3649
4.3721 -4.2117 2.3649
4.5326 -4.0681 2.3650
4.6877 -3.9179 2.3651
4.8372 -3.7614 2.3651
4.9807 -3.5987 2.3652
5.1179 -3.4301 2.3653
5.2485 -3.2558 2.3654
5.3723 -3.0762 2.3654
5.4890 -2.8914 2.3655
5.5984 -2.7018 2.3656
5.7003 -2.5077 2.3657
5.8075 -2.3146 2.3712
5.9045 -2.1158 2.3756
5.9851 -1.9100 2.3766
6.0574 -1.7009 2.3777
6.1289 -1.4907 2.3817
6.1973 -1.2784 2.3878
6.2491 -1.0615 2.3908
6.2873 -0.8419 2.3920
6.3142 -0.6205 2.3922
6.3314 -0.3981 2.3923
6.3395 -0.1753 2.3923
6.3385 0.0477 2.3923
6.3285 0.2703 2.3923
6.3095 0.4922 2.3923
6.2815 0.7129 2.3923
6.2447 0.9322 2.3923
6.1990 1.1496 2.3923
6.1447 1.3647 2.3923
6.0819 1.5772 2.3923
6.0107 1.7867 2.3923
5.9312 1.9928 2.3923
5.8438 2.1953 2.3923
5.7485 2.3937 2.3923
5.6456 2.5879 2.3923
5.5353 2.7773 2.3923
5.4178 2.9619 2.3923
5.2934 3.1414 2.3923
5.1625 3.3152 2.3923
5.0252 3.4835 2.3923
4.8818 3.6458 2.3923
4.7326 3.8019 2.3923
4.5779 3.9518 2.3923
4.4181 4.0951 2.3923
4.2534 4.2317 2.3923
4.0841 4.3616 2.3923
3.9106 4.4845 2.3923
3.7331 4.6003 2.3923
3.5521 4.7089 2.3923
3.3677 4.8103 2.3923
3.1804 4.9043 2.3923
2.9904 4.9910 2.3923
2.7980 5.0703 2.3923
2.6036 5.1421 2.3923
0.9164 1.9818 0.9106
0.8447 2.0119 0.9144
0.7720 2.0394 0.9183
0.6984 2.0643 0.9222
0.6239 2.0865 0.9262
0.5486 2.1060 0.9301
0.4727 2.1228 0.9341
0.3962 2.1368 0.9381
0.3193 2.1481 0.9421
0.2420 2.1566 0.9460
0.1644 2.1623 0.9500
0.0867 2.1651 0.9540
0.0089 2.1652 0.9579
5.9259 -0.3327 2.3923
5.9319 -0.1244 2.3923
5.9296 0.0839 2.3923
5.9188 0.2918 2.3923
5.8998 0.4990 2.3923
5.8724 0.7051 2.3923
5.8368 0.9098 2.3923
5.7930 1.1127 2.3923
5.7413 1.3134 2.3923
5.6816 1.5117 2.3923
5.6142 1.7072 2.3923
5.5391 1.8995 2.3923
5.4566 2.0884 2.3923
5.3668 2.2736 2.3923
5.2700 2.4548 2.3923
5.1663 2.6316 2.3923
5.0559 2.8038 2.3923
4.9392 2.9713 2.3923
4.8163 3.1336 2.3923
4.6875 3.2907 2.3923
4.5530 3.4422 2.3923
4.4132 3.5881 2.3923
4.2682 3.7281 2.3923
4.1184 3.8620 2.3923
3.9640 3.9897 2.3923
3.8054 4.1111 2.3923
3.6428 4.2260 2.3923
3.4765 4.3343 2.3923
3.3068 4.4359 2.3923
3.1340 4.5308 2.3923
2.9584 4.6188 2.3923
2.7802 4.7000 2.3923
2.5998 4.7742 2.3923
0.9190 1.8405 0.9094
0.8524 1.8708 0.9130
0.7848 1.8987 0.9166
0.7162 1.9241 0.9203
0.6467 1.9470 0.9240
0.5764 1.9674 0.9277
0.5054 1.9853 0.9314
0.4339 2.0006 0.9352
0.3618 2.0133 0.9389
0.2893 2.0234 0.9427
0.2165 2.0308 0.9464
0.1434 2.0357 0.9501
0.0702 2.0379 0.9539
-0.0030 2.0374 0.9576
-0.0761 2.0343 0.9612
-0.1491 2.0286 0.9649
-0.2219 2.0203 0.9685
-0.2942 2.0093 0.9721
-0.3662 1.9957 0.9757
-0.4376 1.9795 0.9792
-0.5084 1.9608 0.9826
-0.5785 1.9395 0.9860
-0.6477 1.9157 0.9893
-0.7161 1.8894 0.9926
-0.7835 1.8607 0.9958
-0.8498 1.8296 0.9989
-2.1843 4.2881 2.3923
-2.3299 4.1901 2.3923
-2.4716 4.0877 2.3923
-2.6095 3.9809 2.3923
-2.7433 3.8698 2.3923
-2.8729 3.7548 2.3923
-2.9983 3.6358 2.3923
-3.1194 3.5131 2.3923
-3.2360 3.3868 2.3923
-3.3481 3.2571 2.3923
-3.4556 3.1240 2.3923
-3.5585 2.9878 2.3923
-3.6566 2.8486 2.3923
-3.7500 2.7066 2.3923
-3.8384 2.5618 2.3923
-3.9219 2.4145 2.3923
-4.0005 2.2648 2.3923
-4.0740 2.1129 2.3923
-4.1424 1.9589 2.3923
-4.2057 1.8029 2.3923
-4.2639 1.6452 2.3923
-4.3168 1.4858 2.3923
-4.3645 1.3249 2.3923
-4.4069 1.1626 2.3923
-4.4440 0.9992 2.3923
-4.4758 0.8347 2.3923
-4.5022 0.6694 2.3923
-4.5232 0.5032 2.3923
-4.5389 0.3366 2.3923
-4.5490 0.1694 2.3922
-4.5528 0.0020 2.3916
-4.5494 -0.1654 2.3902
-4.5383 -0.3324 2.3875
-4.5197 -0.4987 2.3837
-4.5013 -0.6649 2.3829
-4.4775 -0.8305 2.3821
-4.4483 -0.9954 2.3812
-4.4137 -1.1594 2.3804
-4.3738 -1.3223 2.3796
-4.3286 -1.4840 2.3788
-4.2780 -1.6444 2.3780
-4.2222 -1.8032 2.3772
-4.1612 -1.9604 2.3764
-4.0924 -2.1145 2.3742
-4.0152 -2.2645 2.3700
-3.9348 -2.4130 2.3668
-3.8545 -2.5623 2.3667
-3.7691 -2.7091 2.3666
-3.6787 -2.8534 2.3666
-3.5833 -2.9951 2.3665
-3.4830 -3.1339 2.3664
-3.3778 -3.2696 2.3663
-3.2679 -3.4022 2.3662
-3.1532 -3.5314 2.3661
-3.0339 -3.6571 2.3660
-2.9101 -3.7792 2.3660
-2.7818 -3.8974 2.3659
-2.6492 -4.0116 2.3658
-2.5123 -4.1216 2.3657
-2.3713 -4.2273 2.3657
-2.2262 -4.3285 2.3656
-2.0773 -4.4251 2.3655
-1.9245 -4.5169 2.3655
-1.7681 -4.6037 2.3654
-1.6082 -4.6853 2.3653
-1.4450 -4.7617 2.3653
-1.2786 -4.8327 2.3652
-1.1091 -4.8981 2.3652
-0.9368 -4.9578 2.3651
-0.7619 -5.0117 2.3651
-0.5844 -5.0595 2.3650
-0.4047 -5.1013 2.3650
-0.2229 -5.1367 2.3649
-0.0392 -5.1659 2.3649
0.1461 -5.1885 2.3649
0.3329 -5.2046 2.3648
0.5208 -5.2140 2.3648
0.7097 -5.2166 2.3648
0.8993 -5.2123 2.3648
1.0894 -5.2011 2.3648
1.2796 -5.1830 2.3647
1.4697 -5.1577 2.3647
1.6595 -5.1254 2.3647
1.8486 -5.0859 2.3647
2.0368 -5.0393 2.3647
2.2238 -4.9855 2.3647
2.4093 -4.9245 2.3648
2.5930 -4.8564 2.3648
2.7746 -4.7812 2.3648
2.9538 -4.6989 2.3648
3.1302 -4.6095 2.3649
3.3037 -4.5132 2.3649
3.4738 -4.4101 2.3649
3.6403 -4.3001 2.3650
3.8029 -4.1835 2.3650
3.9613 -4.0604 2.3651
4.1152 -3.9309 2.3651
4.2642 -3.7952 2.3652
4.4082 -3.6534 2.3652
4.5468 -3.5057 2.3653
4.6798 -3.3524 2.3654
4.8068 -3.1937 2.3654
4.9278 -3.0298 2.3655
5.0423 -2.8609 2.3656
5.1502 -2.6874 2.3657
5.2512 -2.5094 2.3658
5.3559 -2.3320 2.3706
5.4537 -2.1499 2.3754
5.5353 -1.9604 2.3764
5.6094 -1.7675 2.3773
5.6758 -1.5716 2.3783
5.7343 -1.3730 2.3793
5.7975 -1.1746 2.3855
5.8477 -0.9725 2.3896
5.8842 -0.7674 2.3915
5.9095 -0.5605 2.3922
5.9249 -0.3527 2.3923
5.9317 -0.1445 2.3923
5.9302 0.0638 2.3923
5.9202 0.2718 2.3923
5.9020 0.4791 2.3923
5.8754 0.6853 2.3923
5.8406 0.8901 2.3923
5.7976 1.0932 2.3923
5.7466 1.2942 2.3923
5.6877 1.4927 2.3923
5.6210 1.6885 2.3923
5.5467 1.8811 2.3923
5.4649 2.0704 2.3923
5.3758 2.2559 2.3923
5.2796 2.4375 2.3923
5.1766 2.6147 2.3923
5.0669 2.7874 2.3923
4.9507 2.9553 2.3923
4.8284 3.1182 2.3923
4.7002 3.2758 2.3923
4.5662 3.4279 2.3923
4.4269 3.5743 2.3923
4.2824 3.7148 2.3923
4.1330 3.8493 2.3923
3.9791 3.9777 2.3923
3.8209 4.0997 2.3923
3.6586 4.2152 2.3923
3.4927 4.3241 2.3923
3.3233 4.4264 2.3923
3.1508 4.5219 2.3923
2.9754 4.6106 2.3923
2.7975 4.6925 2.3923
2.6173 4.7674 2.3923
0.9254 1.8374 0.9091
0.8589 1.8680 0.9127
0.7913 1.8961 0.9163
0.7228 1.9217 0.9199
0.6534 1.9449 0.9236
0.5832 1.9656 0.9273
0.5123 1.9837 0.9311
0.4408 1.9992 0.9348
0.3687 2.0122 0.9386
0.2963 2.0225 0.9423
0.2235 2.0302 0.9460
0.1505 2.0353 0.9498
0.0773 2.0378 0.9535
0.0041 2.0376 0.9572
-0.0691 2.0348 0.9609
-0.1421 2.0293 0.9646
-0.2149 2.0212 0.9682
-0.2873 2.0105 0.9718
-0.3593 1.9971 0.9753
-0.4308 1.9812 0.9788
-0.5016 1.9627 0.9823
-0.5718 1.9417 0.9857
-0.6411 1.9181 0.9890
-0.7096 1.8921 0.9923
-0.7770 1.8636 0.9955
-0.8434 1.8327 0.9986
-2.1701 4.2973 2.3923
-2.3160 4.1998 2.3923
-2.4581 4.0977 2.3923
-2.5963 3.9913 2.3923
-2.7305 3.8807 2.3923
-2.8606 3.7660 2.3923
-2.9864 3.6475 2.3923
-3.1079 3.5251 2.3923
-3.2249 3.3991 2.3923
-3.3375 3.2697 2.3923
-3.4455 3.1370 2.3923
-3.5488 3.0011 2.3923
-3.6474 2.8621 2.3923
-3.7412 2.7204 2.3923
-3.8301 2.5759 2.3923
-3.9141 2.4288 2.3923
-3.9931 2.2794 2.3923
-4.0671 2.1277 2.3923
-4.1361 1.9738 2.3923
-4.1999 1.8180 2.3923
-4.2585 1.6604 2.3923
-4.3119 1.5012 2.3923
-4.3601 1.3404 2.3923
-4.4030 1.1783 2.3923
-4.4407 1.0150 2.3923
-4.4729 0.8506 2.3923
-4.4999 0.6853 2.3923
-4.5214 0.5193 2.3923
-4.5376 0.3526 2.3923
-4.5483 0.1855 2.3922
-4.5527 0.0181 2.3917
-4.5501 -0.1493 2.3904
-4.5398 -0.3164 2.3879
-4.5212 -0.4826 2.3838
-4.5033 -0.6489 2.3830
-4.4800 -0.8146 2.3821
-4.4513 -0.9795 2.3813
-4.4173 -1.1436 2.3805
-4.3779 -1.3066 2.3797
-4.3332 -1.4685 2.3789
-4.2831 -1.6290 2.3781
-4.2278 -1.7880 2.3773
-4.1673 -1.9454 2.3765
-4.0996 -2.0999 2.3746
-4.0230 -2.2502 2.3704
-3.9423 -2.3985 2.3668
-3.8625 -2.5480 2.3667
-3.7776 -2.6951 2.3666
-3.6876 -2.8396 2.3666
-3.5927 -2.9815 2.3665
-3.4929 -3.1206 2.3664
-3.3882 -3.2567 2.3663
-3.2787 -3.3895 2.3662
-3.1645 -3.5191 2.3661
-3.0456 -3.6452 2.3661
-2.9223 -3.7676 2.3660
-2.7944 -3.8861 2.3659
-2.6622 -4.0007 2.3658
-2.5257 -4.1112 2.3657
-2.3851 -4.2173 2.3657
-2.2404 -4.3190 2.3656
-2.0918 -4.4160 2.3655
-1.9394 -4.5082 2.3655
-1.7833 -4.5955 2.3654
-1.6238 -4.6777 2.3653
-1.4609 -4.7546 2.3653
-1.2948 -4.8261 2.3652
-1.1256 -4.8921 2.3652
-0.9536 -4.9523 2.3651
-0.7789 -5.0067 2.3651
-0.6017 -5.0552 2.3650
-0.4221 -5.0975 2.3650
-0.2405 -5.1336 2.3649
-0.0570 -5.1633 2.3649
0.1282 -5.1866 2.3649
0.3148 -5.2033 2.3648
0.5027 -5.2134 2.3648
0.6915 -5.2166 2.3648
0.8810 -5.2130 2.3648
1.0710 -5.2025 2.3648
1.2612 -5.1850 2.3647
1.4514 -5.1605 2.3647
1.6412 -5.1288 2.3647
1.8304 -5.0900 2.3647
2.0187 -5.0441 2.3647
2.2059 -4.9910 2.3647
2.3915 -4.9307 2.3648
2.5754 -4.8633 2.3648
2.7572 -4.7887 2.3648
2.9366 -4.7071 2.3648
3.1133 -4.6184 2.3648
3.2871 -4.5228 2.3649
3.4576 -4.4203 2.3649
3.6244 -4.3110 2.3650
3.7874 -4.1950 2.3650
3.9462 -4.0725 2.3651
4.1005 -3.9436 2.3651
4.2501 -3.8085 2.3652
4.3945 -3.6673 2.3652
4.5337 -3.5202 2.3653
4.6672 -3.3675 2.3654
4.7949 -3.2093 2.3654
4.9164 -3.0458 2.3655
5.0315 -2.8774 2.3656
5.1401 -2.7043 2.3657
5.2418 -2.5267 2.3657
5.3461 -2.3493 2.3701
5.4451 -2.1678 2.3751
5.5278 -1.9788 2.3763
5.6026 -1.7863 2.3772
5.6697 -1.5906 2.3782
5.7290 -1.3923 2.3792
5.7918 -1.1939 2.3849
5.8434 -0.9921 2.3893
5.8812 -0.7872 2.3914
5.9075 -0.5805 2.3921
5.9238 -0.3728 2.3923
5.9314 -0.1646 2.3923
5.9307 0.0437 2.3923
5.9216 0.2518 2.3923
5.9041 0.4591 2.3923
5.8783 0.6655 2.3923
5.8443 0.8705 2.3923
5.8021 1.0737 2.3923
5.7519 1.2749 2.3923
5.6937 1.4737 2.3923
5.6278 1.6697 2.3923
5.5541 1.8627 2.3923
5.4731 2.0523 2.3923
5.3847 2.2382 2.3923
5.2892 2.4202 2.3923
5.1868 2.5978 2.3923
5.0777 2.7710 2.3923
4.9622 2.9394 2.3923
4.8405 3.1027 2.3923
4.7128 3.2608 2.3923
4.5794 3.4135 2.3923
4.4405 3.5604 2.3923
4.2965 3.7016 2.3923
4.1476 3.8366 2.3923
3.9941 3.9656 2.3923
3.8363 4.0882 2.3923
3.6744 4.2043 2.3923
3.5088 4.3139 2.3923
3.3398 4.4168 2.3923
3.1675 4.5130 2.3923
2.9924 4.6024 2.3923
2.8148 4.6849 2.3923
2.6348 4.7605 2.3923
0.9317 1.8344 0.9087
0.8653 1.8651 0.9123
0.7979 1.8935 0.9159
0.7295 1.9194 0.9196
0.6601 1.9428 0.9233
0.5900 1.9637 0.9270
0.5192 1.9820 0.9307
0.4477 1.9978 0.9344
0.3757 2.0110 0.9382
0.3033 2.0216 0.9419
0.2305 2.0296 0.9457
0.1575 2.0349 0.9494
0.0844 2.0377 0.9531
0.0111 2.0377 0.9569
5.5613 -0.3125 2.3923
5.5671 -0.1174 2.3923
5.5650 0.0778 2.3923
5.5551 0.2727 2.3923
5.5375 0.4669 2.3923
5.5122 0.6602 2.3923
5.4791 0.8521 2.3923
5.4385 1.0424 2.3923
5.3905 1.2307 2.3923
5.3350 1.4167 2.3923
5.2723 1.6002 2.3923
5.2025 1.7808 2.3923
5.1257 1.9582 2.3923
5.0421 2.1321 2.3923
4.9519 2.3024 2.3923
4.8553 2.4686 2.3923
4.7525 2.6307 2.3923
4.6436 2.7882 2.3923
4.5290 2.9411 2.3923
4.4088 3.0891 2.3923
4.2832 3.2320 2.3923
4.1526 3.3696 2.3923
4.0172 3.5017 2.3923
3.8772 3.6282 2.3923
3.7328 3.7490 2.3923
3.5844 3.8638 2.3923
3.4323 3.9726 2.3923
3.2765 4.0753 2.3923
3.1176 4.1718 2.3923
2.9557 4.2620 2.3923
2.7910 4.3458 2.3923
2.6239 4.4231 2.3923
0.9315 1.7053 0.9078
0.8697 1.7361 0.9111
0.8069 1.7647 0.9145
0.7431 1.7910 0.9180
0.6783 1.8150 0.9214
0.6128 1.8366 0.9249
0.5465 1.8558 0.9284
0.4795 1.8727 0.9319
0.4120 1.8871 0.9354
0.3440 1.8991 0.9390
0.2756 1.9086 0.9425
0.2069 1.9156 0.9460
0.1380 1.9202 0.9496
0.0689 1.9223 0.9531
-0.0001 1.9218 0.9566
-0.0691 1.9189 0.9600
-0.1380 1.9135 0.9635
-0.2066 1.9056 0.9669
-0.2749 1.8953 0.9703
-0.3428 1.8825 0.9736
-0.4102 1.8672 0.9769
-0.4770 1.8495 0.9802
-0.5431 1.8295 0.9834
-0.6084 1.8070 0.9865
-0.6729 1.7822 0.9896
-0.7365 1.7551 0.9926
-0.7990 1.7257 0.9956
-0.8604 1.6941 0.9985
-2.1997 3.9669 2.3923
-2.3343 3.8705 2.3923
-2.4652 3.7699 2.3923
-2.5924 3.6653 2.3923
-2.7156 3.5568 2.3923
-2.8348 3.4445 2.3923
-2.9499 3.3287 2.3923
-3.0608 3.2094 2.3923
-3.1674 3.0868 2.3923
-3.2698 2.9610 2.3923
-3.3676 2.8321 2.3923
-3.4610 2.7004 2.3923
-3.5499 2.5660 2.3923
-3.6341 2.4289 2.3923
-3.7136 2.2894 2.3923
-3.7884 2.1476 2.3923
-3.8584 2.0037 2.3923
-3.9236 1.8577 2.3923
-3.9838 1.7098 2.3923
-4.0392 1.5602 2.3923
-4.0896 1.4090 2.3923
-4.1350 1.2564 2.3923
-4.1754 1.1025 2.3923
-4.2107 0.9475 2.3923
-4.2409 0.7914 2.3923
-4.2660 0.6345 2.3923
-4.2860 0.4769 2.3923
-4.3009 0.3187 2.3923
-4.3103 0.1601 2.3921
-4.3135 0.0013 2.3914
-4.3098 -0.1575 2.3897
-4.2987 -0.3160 2.3868
-4.2824 -0.4738 2.3838
-4.2648 -0.6315 2.3831
-4.2421 -0.7886 2.3823
-4.2143 -0.9450 2.3815
-4.1813 -1.1006 2.3807
-4.1432 -1.2551 2.3799
-4.1001 -1.4084 2.3792
-4.0519 -1.5605 2.3784
-3.9987 -1.7110 2.3777
-3.9405 -1.8600 2.3769
-3.8773 -2.0072 2.3762
-3.8058 -2.1505 2.3733
-3.7277 -2.2905 2.3693
-3.6474 -2.4293 2.3668
-3.5660 -2.5682 2.3667
-3.4799 -2.7047 2.3666
-3.3890 -2.8385 2.3665
-3.2935 -2.9696 2.3664
-3.1934 -3.0978 2.3664
-3.0888 -3.2229 2.3663
-2.9797 -3.3448 2.3662
-2.8663 -3.4633 2.3661
-2.7486 -3.5783 2.3661
-2.6267 -3.6896 2.3660
-2.5007 -3.7970 2.3659
-2.3707 -3.9005 2.3658
-2.2369 -3.9998 2.3658
-2.0992 -4.0948 2.3657
-1.9579 -4.1853 2.3656
-1.8131 -4.2713 2.3656
-1.6649 -4.3525 2.3655
-1.5134 -4.4288 2.3655
-1.3589 -4.5001 2.3654
-1.2013 -4.5663 2.3654
-1.0410 -4.6271 2.3653
-0.8781 -4.6825 2.3653
-0.7127 -4.7323 2.3652
-0.5450 -4.7765 2.3652
-0.3752 -4.8148 2.3651
-0.2036 -4.8472 2.3651
-0.0303 -4.8736 2.3651
0.1446 -4.8939 2.3650
0.3207 -4.9080 2.3650
0.4978 -4.9157 2.3650
0.6757 -4.9171 2.3650
0.8542 -4.9120 2.3649
1.0331 -4.9003 2.3649
1.2120 -4.8821 2.3649
1.3908 -4.8573 2.3649
1.5692 -4.8257 2.3649
1.7469 -4.7875 2.3649
1.9236 -4.7426 2.3649
2.0992 -4.6910 2.3649
2.2732 -4.6327 2.3649
2.4455 -4.5676 2.3650
2.6157 -4.4960 2.3650
2.7837 -4.4177 2.3650
2.9490 -4.3328 2.3650
3.1114 -4.2415 2.3651
3.2707 -4.1438 2.3651
3.4265 -4.0397 2.3651
3.5786 -3.9295 2.3652
3.7267 -3.8132 2.3652
3.8705 -3.6910 2.3653
4.0099 -3.5630 2.3653
4.1444 -3.4294 2.3654
4.2738 -3.2904 2.3654
4.3980 -3.1461 2.3655
4.5166 -2.9968 2.3656
4.6295 -2.8427 2.3656
4.7364 -2.6839 2.3657
4.8371 -2.5209 2.3658
4.9394 -2.3576 2.3697
5.0370 -2.1906 2.3744
5.1216 -2.0168 2.3761
5.1976 -1.8389 2.3770
5.2666 -1.6579 2.3779
5.3285 -1.4742 2.3788
5.3830 -1.2879 2.3797
5.4305 -1.0995 2.3808
5.4832 -0.9114 2.3875
5.5200 -0.7197 2.3905
5.5453 -0.5261 2.3920
5.5603 -0.3314 2.3923
5.5668 -0.1362 2.3923
5.5655 0.0590 2.3923
5.5564 0.2540 2.3923
5.5395 0.4483 2.3923
5.5149 0.6416 2.3923
5.4827 0.8337 2.3923
5.4428 1.0241 2.3923
5.3954 1.2126 2.3923
5.3407 1.3989 2.3923
5.2786 1.5826 2.3923
5.2095 1.7635 2.3923
5.1334 1.9412 2.3923
5.0504 2.1155 2.3923
4.9609 2.2861 2.3923
4.8649 2.4528 2.3923
4.7626 2.6152 2.3923
4.6544 2.7733 2.3923
4.5403 2.9266 2.3923
4.4206 3.0751 2.3923
4.2956 3.2184 2.3923
4.1654 3.3565 2.3923
4.0304 3.4892 2.3923
3.8909 3.6163 2.3923
3.7469 3.7376 2.3923
3.5989 3.8530 2.3923
3.4471 3.9624 2.3923
3.2917 4.0657 2.3923
3.1331 4.1628 2.3923
2.9714 4.2536 2.3923
2.8070 4.3380 2.3923
2.6401 4.4159 2.3923
0.9374 1.7022 0.9075
0.8757 1.7333 0.9108
0.8130 1.7621 0.9142
0.7493 1.7886 0.9176
0.6846 1.8128 0.9211
0.6191 1.8346 0.9246
0.5529 1.8541 0.9281
0.4860 1.8712 0.9316
0.4185 1.8858 0.9351
0.3506 1.8980 0.9386
0.2822 1.9078 0.9422
0.2135 1.9151 0.9457
0.1446 1.9199 0.9492
0.0756 1.9222 0.9527
0.0065 1.9220 0.9562
-0.0625 1.9193 0.9597
-0.1314 1.9141 0.9632
-0.2000 1.9065 0.9666
-0.2684 1.8964 0.9700
-0.3363 1.8838 0.9733
-0.4037 1.8688 0.9766
-0.4706 1.8513 0.9799
-0.5367 1.8315 0.9831
-0.6022 1.8093 0.9862
-0.6667 1.7847 0.9893
-0.7304 1.7578 0.9924
-0.7930 1.7287 0.9953
-0.8546 1.6973 0.9982
-2.1865 3.9760 2.3923
-2.3215 3.8799 2.3923
-2.4528 3.7797 2.3923
-2.5803 3.6755 2.3923
-2.7039 3.5674 2.3923
-2.8234 3.4555 2.3923
-2.9390 3.3400 2.3923
-3.0503 3.2210 2.3923
-3.1574 3.0987 2.3923
-3.2601 2.9732 2.3923
-3.3584 2.8447 2.3923
-3.4522 2.7132 2.3923
-3.5415 2.5791 2.3923
-3.6262 2.4423 2.3923
-3.7061 2.3030 2.3923
-3.7814 2.1614 2.3923
-3.8519 2.0176 2.3923
-3.9175 1.8718 2.3923
-3.9782 1.7241 2.3923
-4.0341 1.5747 2.3923
-4.0850 1.4237 2.3923
-4.1308 1.2712 2.3923
-4.1717 1.1174 2.3923
-4.2075 0.9625 2.3923
-4.2382 0.8065 2.3923
-4.2638 0.6497 2.3923
-4.2843 0.4921 2.3923
-4.2997 0.3340 2.3923
-4.3096 0.1754 2.3921
-4.3135 0.0166 2.3915
-4.3104 -0.1422 2.3899
-4.3001 -0.3007 2.3871
-4.2838 -0.4586 2.3839
-4.2668 -0.6163 2.3831
-4.2445 -0.7735 2.3823
-4.2172 -0.9300 2.3816
-4.1847 -1.0856 2.3808
-4.1471 -1.2402 2.3800
-4.1045 -1.3937 2.3792
-4.0568 -1.5459 2.3785
-4.0040 -1.6966 2.3777
-3.9463 -1.8457 2.3770
-3.8837 -1.9931 2.3763
-3.8130 -2.1369 2.3736
-3.7355 -2.2771 2.3697
-3.6550 -2.4158 2.3668
-3.5741 -2.5549 2.3667
-3.4884 -2.6916 2.3666
-3.3980 -2.8257 2.3665
-3.3029 -2.9571 2.3665
-3.2032 -3.0856 2.3664
-3.0991 -3.2110 2.3663
-2.9904 -3.3332 2.3662
-2.8774 -3.4520 2.3661
-2.7601 -3.5674 2.3661
-2.6386 -3.6790 2.3660
-2.5130 -3.7868 2.3659
-2.3834 -3.8907 2.3658
-2.2499 -3.9904 2.3658
-2.1126 -4.0858 2.3657
-1.9717 -4.1768 2.3656
-1.8272 -4.2632 2.3656
-1.6793 -4.3449 2.3655
-1.5282 -4.4217 2.3655
-1.3739 -4.4935 2.3654
-1.2166 -4.5601 2.3654
-1.0566 -4.6215 2.3653
-0.8939 -4.6774 2.3653
-0.7287 -4.7278 2.3652
-0.5613 -4.7725 2.3652
-0.3917 -4.8114 2.3651
-0.2202 -4.8444 2.3651
-0.0470 -4.8714 2.3651
0.1277 -4.8922 2.3650
0.3036 -4.9069 2.3650
0.4807 -4.9153 2.3650
0.6585 -4.9172 2.3650
0.8370 -4.9127 2.3649
1.0158 -4.9017 2.3649
1.1948 -4.8842 2.3649
1.3736 -4.8599 2.3649
1.5520 -4.8291 2.3649
1.7298 -4.7915 2.3649
1.9067 -4.7472 2.3649
2.0823 -4.6963 2.3649
2.2565 -4.6386 2.3649
2.4290 -4.5742 2.3649
2.5994 -4.5032 2.3650
2.7676 -4.4255 2.3650
2.9332 -4.3413 2.3650
3.0959 -4.2506 2.3651
3.2555 -4.1535 2.3651
3.4116 -4.0500 2.3651
3.5641 -3.9404 2.3652
3.7126 -3.8247 2.3652
3.8569 -3.7031 2.3653
3.9966 -3.5756 2.3653
4.1316 -3.4425 2.3654
4.2616 -3.3040 2.3654
4.3863 -3.1602 2.3655
4.5055 -3.0114 2.3656
4.6189 -2.8577 2.3656
4.7264 -2.6994 2.3657
4.8276 -2.5368 2.3658
4.9296 -2.3734 2.3692
5.0278 -2.2069 2.3740
5.1139 -2.0338 2.3760
5.1906 -1.8562 2.3769
5.2603 -1.6755 2.3778
5.3228 -1.4920 2.3787
5.3780 -1.3059 2.3796
5.4258 -1.1177 2.3806
5.4789 -0.9297 2.3871
5.5169 -0.7383 2.3903
5.5433 -0.5448 2.3919
5.5593 -0.3502 2.3923
5.5666 -0.1550 2.3923
5.5660 0.0402 2.3923
5.5577 0.2352 2.3923
5.5415 0.4296 2.3923
5.5176 0.6230 2.3923
5.4861 0.8152 2.3923
5.4470 1.0058 2.3923
5.4003 1.1946 2.3923
5.3463 1.3811 2.3923
5.2849 1.5650 2.3923
5.2165 1.7462 2.3923
5.1410 1.9242 2.3923
5.0587 2.0989 2.3923
4.9698 2.2699 2.3923
4.8744 2.4369 2.3923
4.7728 2.5998 2.3923
4.6650 2.7582 2.3923
4.5515 2.9120 2.3923
4.4324 3.0610 2.3923
4.3078 3.2048 2.3923
4.1782 3.3435 2.3923
4.0437 3.4767 2.3923
3.9045 3.6043 2.3923
3.7610 3.7262 2.3923
3.6133 3.8422 2.3923
3.4619 3.9521 2.3923
3.3068 4.0560 2.3923
3.1485 4.1537 2.3923
2.9871 4.2451 2.3923
2.8230 4.3301 2.3923
2.6563 4.4087 2.3923
0.9432 1.6991 0.9071
0.8817 1.7304 0.9105
0.8191 1.7594 0.9139
0.7554 1.7861 0.9173
0.6909 1.8105 0.9207
0.6255 1.8326 0.9242
0.5593 1.8523 0.9277
0.4925 1.8696 0.9312
0.4250 1.8845 0.9348
0.3571 1.8970 0.9383
0.2888 1.9070 0.9418
0.2202 1.9145 0.9454
0.1513 1.9195 0.9489
0.0823 1.9221 0.9524
0.0132 1.9221 0.9559
5.2328 -0.2944 2.3921
5.2385 -0.1110 2.3923
5.2367 0.0724 2.3923
5.2276 0.2555 2.3923
5.2113 0.4381 2.3923
5.1877 0.6197 2.3923
5.1570 0.8001 2.3923
5.1192 0.9790 2.3923
5.0744 1.1561 2.3923
5.0226 1.3311 2.3923
4.9641 1.5037 2.3923
4.8990 1.6737 2.3923
4.8273 1.8407 2.3923
4.7492 2.0045 2.3923
4.6649 2.1649 2.3923
4.5746 2.3216 2.3923
4.4785 2.4744 2.3923
4.3767 2.6230 2.3923
4.2694 2.7673 2.3923
4.1569 2.9070 2.3923
4.0394 3.0419 2.3923
3.9170 3.1720 2.3923
3.7901 3.2970 2.3923
3.6589 3.4167 2.3923
3.5235 3.5311 2.3923
3.3843 3.6399 2.3923
3.2415 3.7432 2.3923
3.0954 3.8407 2.3923
2.9461 3.9324 2.3923
2.7939 4.0182 2.3923
2.6392 4.0980 2.3923
0.9404 1.5807 0.9064
0.8831 1.6119 0.9095
0.8248 1.6410 0.9127
0.7654 1.6680 0.9159
0.7050 1.6928 0.9192
0.6438 1.7155 0.9224
0.5818 1.7359 0.9257
0.5192 1.7541 0.9290
0.4559 1.7700 0.9324
0.3920 1.7836 0.9357
0.3278 1.7950 0.9390
0.2631 1.8040 0.9424
0.1982 1.8106 0.9457
0.1330 1.8149 0.9490
0.0678 1.8169 0.9524
0.0025 1.8165 0.9557
-0.0628 1.8137 0.9589
-0.1279 1.8086 0.9622
-0.1927 1.8011 0.9654
-0.2573 1.7913 0.9686
-0.3215 1.7792 0.9718
-0.3852 1.7648 0.9749
-0.4483 1.7481 0.9780
-0.5108 1.7291 0.9810
-0.5726 1.7079 0.9840
-0.6335 1.6845 0.9869
-0.6936 1.6589 0.9898
-0.7527 1.6311 0.9926
-0.8108 1.6012 0.9953
-0.8678 1.5693 0.9979
-2.2082 3.6710 2.3923
-2.3328 3.5760 2.3923
-2.4537 3.4772 2.3923
-2.5709 3.3747 2.3923
-2.6844 3.2686 2.3923
-2.7940 3.1590 2.3923
-2.8996 3.0461 2.3923
-3.0012 2.9301 2.3923
-3.0987 2.8109 2.3923
-3.1920 2.6889 2.3923
-3.2809 2.5640 2.3923
-3.3656 2.4365 2.3923
-3.4459 2.3066 2.3923
-3.5217 2.1742 2.3923
-3.5930 2.0396 2.3923
-3.6597 1.9030 2.3923
-3.7219 1.7644 2.3923
-3.7794 1.6240 2.3923
-3.8321 1.4819 2.3923
-3.8802 1.3383 2.3923
-3.9235 1.1934 2.3923
-3.9619 1.0471 2.3923
-3.9956 0.8998 2.3923
-4.0244 0.7515 2.3923
-4.0483 0.6024 2.3923
-4.0673 0.4526 2.3923
-4.0814 0.3023 2.3923
-4.0901 0.1515 2.3920
-4.0927 0.0006 2.3910
-4.0888 -0.1503 2.3892
-4.0778 -0.3008 2.3860
-4.0637 -0.4509 2.3840
-4.0469 -0.6007 2.3832
-4.0252 -0.7500 2.3825
-3.9986 -0.8986 2.3817
-3.9671 -1.0464 2.3810
-3.9308 -1.1931 2.3803
-3.8896 -1.3388 2.3795
-3.8436 -1.4832 2.3788
-3.7928 -1.6261 2.3781
-3.7372 -1.7675 2.3774
-3.6769 -1.9072 2.3767
-3.6120 -2.0451 2.3760
-3.5383 -2.1784 2.3726
-3.4597 -2.3089 2.3688
-3.3792 -2.4386 2.3667
-3.2970 -2.5679 2.3667
-3.2104 -2.6946 2.3666
-3.1193 -2.8187 2.3665
-3.0239 -2.9399 2.3664
-2.9243 -3.0582 2.3664
-2.8204 -3.1734 2.3663
-2.7124 -3.2854 2.3662
-2.6003 -3.3939 2.3661
-2.4844 -3.4989 2.3661
-2.3645 -3.6002 2.3660
-2.2409 -3.6977 2.3659
-2.1136 -3.7912 2.3659
-1.9829 -3.8806 2.3658
-1.8486 -3.9657 2.3657
-1.7111 -4.0464 2.3657
-1.5704 -4.1226 2.3656
-1.4267 -4.1942 2.3656
-1.2801 -4.2609 2.3655
-1.1307 -4.3227 2.3655
-0.9788 -4.3794 2.3654
-0.8244 -4.4310 2.3654
-0.6677 -4.4773 2.3653
-0.5090 -4.5181 2.3653
-0.3484 -4.5535 2.3653
-0.1860 -4.5832 2.3652
-0.0221 -4.6073 2.3652
0.1432 -4.6255 2.3652
0.3095 -4.6378 2.3651
0.4768 -4.6442 2.3651
0.6448 -4.6446 2.3651
0.8132 -4.6388 2.3651
0.9819 -4.6269 2.3651
1.1507 -4.6087 2.3651
1.3192 -4.5843 2.3651
1.4872 -4.5537 2.3651
1.6546 -4.5167 2.3651
1.8210 -4.4735 2.3651
1.9861 -4.4239 2.3651
2.1499 -4.3681 2.3651
2.3119 -4.3060 2.3651
2.4719 -4.2376 2.3651
2.6297 -4.1631 2.3651
2.7849 -4.0824 2.3652
2.9375 -3.9957 2.3652
3.0869 -3.9029 2.3652
3.2332 -3.8043 2.3653
3.3759 -3.7000 2.3653
3.5147 -3.5899 2.3654
3.6496 -3.4744 2.3654
3.7802 -3.3534 2.3655
3.9062 -3.2272 2.3655
4.0275 -3.0960 2.3656
4.1438 -2.9599 2.3656
4.2549 -2.8192 2.3657
4.3606 -2.6739 2.3658
4.4606 -2.5244 2.3658
4.5610 -2.3741 2.3691
4.6578 -2.2205 2.3735
4.7447 -2.0611 2.3759
4.8222 -1.8969 2.3767
4.8933 -1.7295 2.3775
4.9578 -1.5592 2.3784
5.0156 -1.3864 2.3792
5.0665 -1.2112 2.3801
5.1105 -1.0340 2.3810
5.1524 -0.8559 2.3842
5.1907 -0.6766 2.3890
5.2165 -0.4949 2.3913
5.2318 -0.3121 2.3921
5.2383 -0.1287 2.3923
5.2372 0.0547 2.3923
5.2288 0.2379 2.3923
5.2132 0.4205 2.3923
5.1903 0.6023 2.3923
5.1603 0.7828 2.3923
5.1231 0.9619 2.3923
5.0790 1.1392 2.3923
5.0279 1.3144 2.3923
4.9701 1.4872 2.3923
4.9055 1.6574 2.3923
4.8345 1.8247 2.3923
4.7570 1.9889 2.3923
4.6733 2.1496 2.3923
4.5836 2.3066 2.3923
4.4880 2.4598 2.3923
4.3867 2.6088 2.3923
4.2800 2.7535 2.3923
4.1680 2.8937 2.3923
4.0509 3.0291 2.3923
3.9290 3.1597 2.3923
3.8026 3.2852 2.3923
3.6717 3.4054 2.3923
3.5368 3.5203 2.3923
3.3979 3.6297 2.3923
3.2554 3.7335 2.3923
3.1096 3.8315 2.3923
2.9606 3.9238 2.3923
2.8087 4.0101 2.3923
2.6542 4.0905 2.3923
0.9459 1.5775 0.9061
0.8887 1.6089 0.9092
0.8304 1.6383 0.9124
0.7711 1.6655 0.9156
0.7109 1.6905 0.9189
0.6498 1.7134 0.9221
0.5879 1.7340 0.9254
0.5252 1.7525 0.9287
0.4620 1.7686 0.9320
0.3982 1.7824 0.9354
0.3340 1.7940 0.9387
0.2693 1.8032 0.9420
0.2044 1.8101 0.9454
0.1393 1.8146 0.9487
0.0740 1.8168 0.9520
0.0088 1.8166 0.9553
-0.0565 1.8141 0.9586
-0.1216 1.8092 0.9619
-0.1865 1.8019 0.9651
-0.2511 1.7924 0.9683
-0.3153 1.7805 0.9715
-0.3790 1.7663 0.9746
-0.4422 1.7498 0.9777
-0.5048 1.7310 0.9807
-0.5666 1.7100 0.9837
-0.6277 1.6868 0.9866
-0.6878 1.6614 0.9895
-0.7471 1.6339 0.9923
-0.8052 1.6042 0.9950
-0.8623 1.5724 0.9977
-2.1960 3.6799 2.3923
-2.3209 3.5854 2.3923
-2.4422 3.4869 2.3923
-2.5598 3.3848 2.3923
-2.6736 3.2790 2.3923
-2.7836 3.1698 2.3923
-2.8896 3.0572 2.3923
-2.9916 2.9414 2.3923
-3.0895 2.8225 2.3923
-3.1831 2.7007 2.3923
-3.2726 2.5762 2.3923
-3.3576 2.4489 2.3923
-3.4383 2.3192 2.3923
-3.5146 2.1871 2.3923
-3.5863 2.0527 2.3923
-3.6535 1.9163 2.3923
-3.7161 1.7778 2.3923
-3.7740 1.6376 2.3923
-3.8273 1.4957 2.3923
-3.8758 1.3522 2.3923
-3.9195 1.2074 2.3923
-3.9584 1.0613 2.3923
-3.9926 0.9141 2.3923
-4.0218 0.7659 2.3923
-4.0462 0.6168 2.3923
-4.0657 0.4671 2.3923
-4.0803 0.3168 2.3923
-4.0896 0.1661 2.3921
-4.0927 0.0151 2.3912
-4.0895 -0.1358 2.3894
-4.0793 -0.2863 2.3864
-4.0651 -0.4364 2.3840
-4.0487 -0.5863 2.3833
-4.0275 -0.7357 2.3825
-4.0014 -0.8843 2.3818
-3.9704 -1.0322 2.3811
-3.9345 -1.1790 2.3803
-3.8938 -1.3248 2.3796
-3.8482 -1.4693 2.3789
-3.7979 -1.6124 2.3782
-3.7428 -1.7539 2.3774
-3.6830 -1.8938 2.3767
-3.6185 -2.0319 2.3761
-3.5456 -2.1657 2.3729
-3.4675 -2.2965 2.3692
-3.3868 -2.4260 2.3667
-3.3051 -2.5555 2.3667
-3.2189 -2.6825 2.3666
-3.1283 -2.8068 2.3665
-3.0333 -2.9284 2.3664
-2.9340 -3.0470 2.3664
-2.8306 -3.1625 2.3663
-2.7230 -3.2747 2.3662
-2.6113 -3.3836 2.3661
-2.4957 -3.4890 2.3661
-2.3762 -3.5906 2.3660
-2.2530 -3.6885 2.3659
-2.1261 -3.7824 2.3659
-1.9956 -3.8722 2.3658
-1.8617 -3.9577 2.3658
-1.7245 -4.0389 2.3657
-1.5841 -4.1155 2.3656
-1.4407 -4.1875 2.3656
-1.2943 -4.2547 2.3655
-1.1452 -4.3169 2.3655
-0.9935 -4.3742 2.3654
-0.8394 -4.4262 2.3654
-0.6829 -4.4730 2.3653
-0.5244 -4.5144 2.3653
-0.3639 -4.5503 2.3653
-0.2017 -4.5806 2.3652
-0.0379 -4.6052 2.3652
0.1272 -4.6240 2.3652
0.2934 -4.6369 2.3652
0.4606 -4.6439 2.3651
0.6286 -4.6448 2.3651
0.7970 -4.6396 2.3651
0.9657 -4.6283 2.3651
1.1344 -4.6107 2.3651
1.3030 -4.5870 2.3651
1.4711 -4.5569 2.3651
1.6385 -4.5206 2.3651
1.8050 -4.4779 2.3651
1.9703 -4.4290 2.3651
2.1341 -4.3737 2.3651
2.2963 -4.3122 2.3651
2.4565 -4.2445 2.3651
2.6145 -4.1705 2.3651
2.7701 -4.0904 2.3652
2.9229 -4.0043 2.3652
3.0727 -3.9121 2.3652
3.2192 -3.8141 2.3653
3.3623 -3.7103 2.3653
3.5015 -3.6008 2.3654
3.6368 -3.4857 2.3654
3.7678 -3.3653 2.3655
3.8943 -3.2396 2.3655
4.0160 -3.1089 2.3656
4.1328 -2.9733 2.3656
4.2444 -2.8329 2.3657
4.3506 -2.6881 2.3658
4.4512 -2.5390 2.3658
4.5513 -2.3886 2.3687
4.6488 -2.2355 2.3731
4.7369 -2.0768 2.3758
4.8150 -1.9128 2.3766
4.8867 -1.7457 2.3774
4.9519 -1.5757 2.3783
5.0103 -1.4031 2.3792
5.0619 -1.2282 2.3800
5.1066 -1.0512 2.3809
5.1475 -0.8730 2.3834
5.1877 -0.6940 2.3887
5.2144 -0.5125 2.3911
5.2307 -0.3298 2.3921
5.2380 -0.1464 2.3923
5.2376 0.0370 2.3923
5.2300 0.2203 2.3923
5.2150 0.4029 2.3923
5.1928 0.5848 2.3923
5.1635 0.7655 2.3923
5.1270 0.9447 2.3923
5.0835 1.1222 2.3923
5.0331 1.2976 2.3923
4.9759 1.4707 2.3923
4.9120 1.6411 2.3923
4.8416 1.8087 2.3923
4.7647 1.9732 2.3923
4.6817 2.1342 2.3923
4.5925 2.2917 2.3923
4.4975 2.4452 2.3923
4.3967 2.5947 2.3923
4.2905 2.7398 2.3923
4.1790 2.8804 2.3923
4.0624 3.0163 2.3923
3.9410 3.1473 2.3923
3.8149 3.2733 2.3923
3.6845 3.3941 2.3923
3.5500 3.5095 2.3923
3.4115 3.6194 2.3923
3.2693 3.7237 2.3923
3.1238 3.8223 2.3923
2.9751 3.9152 2.3923
2.8235 4.0021 2.3923
2.6692 4.0830 2.3923
0.9513 1.5744 0.9058
0.8943 1.6060 0.9089
0.8361 1.6355 0.9121
0.7769 1.6629 0.9153
0.7167 1.6882 0.9185
0.6557 1.7113 0.9218
0.5939 1.7322 0.9251
0.5313 1.7508 0.9284
0.4681 1.7671 0.9317
0.4044 1.7812 0.9350
0.3402 1.7930 0.9384
0.2756 1.8024 0.9417
0.2107 1.8095 0.9451
0.1456 1.8143 0.9484
0.0803 1.8167 0.9517
0.0150 1.8167 0.9550
4.9346 -0.2780 2.3917
4.9409 -0.1053 2.3922
4.9393 0.0675 2.3923
4.9309 0.2400 2.3923
4.9157 0.4119 2.3923
4.8937 0.5830 2.3923
4.8650 0.7530 2.3923
4.8297 0.9216 2.3923
4.7878 1.0885 2.3923
4.7394 1.2535 2.3923
4.6847 1.4163 2.3923
4.6237 1.5766 2.3923
4.5565 1.7341 2.3923
4.4834 1.8887 2.3923
4.4045 2.0401 2.3923
4.3198 2.1881 2.3923
4.2297 2.3324 2.3923
4.1342 2.4729 2.3923
4.0336 2.6093 2.3923
3.9280 2.7414 2.3923
3.8177 2.8692 2.3923
3.7028 2.9923 2.3923
3.5836 3.1107 2.3923
3.4602 3.2242 2.3923
3.3330 3.3327 2.3923
3.2021 3.4361 2.3923
3.0678 3.5341 2.3923
2.9302 3.6268 2.3923
2.7897 3.7141 2.3923
2.6464 3.7958 2.3923
0.9463 1.4652 0.9053
0.8931 1.4967 0.9082
0.8389 1.5262 0.9112
0.7836 1.5538 0.9142
0.7273 1.5793 0.9172
0.6702 1.6029 0.9203
0.6122 1.6243 0.9234
0.5535 1.6437 0.9265
0.4942 1.6609 0.9296
0.4342 1.6759 0.9328
0.3738 1.6888 0.9359
0.3129 1.6996 0.9391
0.2516 1.7081 0.9422
0.1901 1.7144 0.9454
0.1285 1.7184 0.9486
0.0667 1.7203 0.9517
0.0048 1.7199 0.9548
-0.0569 1.7173 0.9579
-0.1186 1.7124 0.9610
-0.1800 1.7054 0.9641
-0.2412 1.6961 0.9671
-0.3019 1.6846 0.9701
-0.3622 1.6710 0.9731
-0.4220 1.6551 0.9760
-0.4812 1.6372 0.9788
-0.5397 1.6171 0.9817
-0.5974 1.5949 0.9844
-0.6543 1.5706 0.9871
-0.7103 1.5444 0.9898
-0.7653 1.5161 0.9923
-0.8193 1.4858 0.9949
-2.0919 3.4869 2.3923
-2.2105 3.3972 2.3923
-2.3257 3.3037 2.3923
-2.4374 3.2067 2.3923
-2.5456 3.1062 2.3923
-2.6500 3.0024 2.3923
-2.7508 2.8953 2.3923
-2.8476 2.7853 2.3923
-2.9406 2.6722 2.3923
-3.0295 2.5564 2.3923
-3.1145 2.4379 2.3923
-3.1952 2.3168 2.3923
-3.2718 2.1934 2.3923
-3.3442 2.0676 2.3923
-3.4122 1.9397 2.3923
-3.4759 1.8099 2.3923
-3.5352 1.6781 2.3923
-3.5901 1.5446 2.3923
-3.6405 1.4095 2.3923
-3.6863 1.2729 2.3923
-3.7277 1.1350 2.3923
-3.7644 0.9959 2.3923
-3.7965 0.8557 2.3923
-3.8239 0.7146 2.3923
-3.8467 0.5727 2.3923
-3.8648 0.4301 2.3923
-3.8782 0.2871 2.3922
-3.8862 0.1436 2.3918
-3.8884 -0.0000 2.3907
-3.8843 -0.1436 2.3886
-3.8732 -0.2867 2.3852
-3.8612 -0.4296 2.3841
-3.8452 -0.5722 2.3834
-3.8244 -0.7143 2.3826
-3.7990 -0.8557 2.3819
-3.7689 -0.9962 2.3812
-3.7341 -1.1358 2.3805
-3.6948 -1.2743 2.3798
-3.6508 -1.4116 2.3792
-3.6023 -1.5475 2.3785
-3.5492 -1.6819 2.3778
-3.4916 -1.8147 2.3771
-3.4296 -1.9457 2.3765
-3.3626 -2.0744 2.3755
-3.2880 -2.1988 2.3721
-3.2090 -2.3206 2.3685
-3.1281 -2.4415 2.3667
-3.0454 -2.5617 2.3666
-2.9585 -2.6793 2.3666
-2.8675 -2.7942 2.3665
-2.7724 -2.9063 2.3664
