ply
format ascii 1.0
element vertex 2167
property float32 x
property float32 y
property float32 z
end_header
-8.4590 -0.7925 2.2610
-8.4300 -1.0926 2.2612
-8.4003 -1.3929 2.2646
-8.3699 -1.6952 2.2712
-8.3387 -1.9988 2.2810
-8.3066 -2.3055 2.2940
-8.2736 -2.6156 2.3104
-8.2395 -2.9301 2.3302
-8.2042 -3.2496 2.3537
-8.1677 -3.5753 2.3808
-8.0681 -3.8780 2.3936
-7.9132 -4.1556 2.3936
-7.7475 -4.4260 2.3936
-7.5712 -4.6888 2.3936
-7.3847 -4.9446 2.3936
-7.1883 -5.1917 2.3936
-6.9826 -5.4304 2.3936
-6.7679 -5.6601 2.3936
-6.5446 -5.8806 2.3936
-6.3132 -6.0915 2.3936
-6.0743 -6.2925 2.3936
-5.8281 -6.4834 2.3936
-5.5754 -6.6640 2.3936
-5.3164 -6.8339 2.3936
-5.0518 -6.9932 2.3936
-4.7820 -7.1415 2.3936
-4.5075 -7.2790 2.3936
-4.2289 -7.4046 2.3936
-3.9466 -7.5198 2.3936
-3.6610 -7.6234 2.3936
-3.3728 -7.7157 2.3936
-3.0824 -7.7967 2.3936
-2.7902 -7.8664 2.3936
-2.4968 -7.9247 2.3936
-2.2026 -7.9718 2.3936
-1.9080 -8.0078 2.3936
-1.6135 -8.0327 2.3936
-1.3196 -8.0466 2.3936
-1.0266 -8.0497 2.3936
-0.7349 -8.0421 2.3936
-0.4450 -8.0240 2.3936
-0.1572 -7.9954 2.3936
0.1280 -7.9567 2.3936
0.4105 -7.9079 2.3936
0.6897 -7.8493 2.3936
0.9654 -7.7811 2.3936
1.2373 -7.7035 2.3936
1.5051 -7.6168 2.3936
1.7684 -7.5211 2.3936
2.0270 -7.4168 2.3936
2.2807 -7.3040 2.3936
2.5292 -7.1830 2.3936
2.7723 -7.0541 2.3936
3.0097 -6.9175 2.3936
3.2412 -6.7734 2.3936
3.4667 -6.6222 2.3936
3.6860 -6.4641 2.3936
3.8988 -6.2993 2.3936
4.1051 -6.1281 2.3936
4.3047 -5.9509 2.3936
4.4974 -5.7677 2.3936
4.6831 -5.5790 2.3936
4.8618 -5.3850 2.3936
5.0331 -5.1855 2.3936
5.1973 -4.9819 2.3936
5.3540 -4.7736 2.3936
5.5031 -4.5606 2.3936
5.6447 -4.3438 2.3936
5.7787 -4.1232 2.3936
5.9049 -3.8990 2.3936
6.0234 -3.6715 2.3936
6.1341 -3.4410 2.3936
6.2370 -3.2077 2.3936
6.3319 -2.9718 2.3936
6.4190 -2.7335 2.3936
6.4980 -2.4932 2.3936
6.5692 -2.2510 2.3936
6.6325 -2.0091 2.3936
6.6875 -1.7622 2.3936
6.7346 -1.5154 2.3936
6.7737 -1.2681 2.3936
6.8049 -1.0200 2.3936
6.8280 -0.7714 2.3936
6.8431 -0.5225 2.3936
6.8503 -0.2735 2.3936
6.8495 -0.0247 2.3936
6.8408 0.2238 2.3936
6.8242 0.4718 2.3936
6.7996 0.7188 2.3936
6.7673 0.9649 2.3936
6.7270 1.2099 2.3936
6.6790 1.4534 2.3936
6.6233 1.6953 2.3936
6.5598 1.9353 2.3936
6.4887 2.1734 2.3936
6.4100 2.4091 2.3936
6.3237 2.6423 2.3936
6.2299 2.8730 2.3936
6.1287 3.1009 2.3936
6.0201 3.3256 2.3936
5.9042 3.5471 2.3936
5.7811 3.7650 2.3936
5.6509 3.9792 2.3936
5.5135 4.1896 2.3936
5.3692 4.3958 2.3936
5.2180 4.5977 2.3936
5.0600 4.7950 2.3936
4.8953 4.9876 2.3936
4.7240 5.1753 2.3936
4.5462 5.3578 2.3936
4.3621 5.5349 2.3936
4.1718 5.7064 2.3936
3.9753 5.8721 2.3936
3.7729 6.0319 2.3936
3.5647 6.1853 2.3936
3.3508 6.3324 2.3936
3.1314 6.4728 2.3936
2.9067 6.6064 2.3936
2.6768 6.7329 2.3936
2.4419 6.8522 2.3936
2.2023 6.9640 2.3936
0.8178 2.9519 0.9997
0.7113 2.9810 0.9960
0.6038 3.0063 0.9922
0.4955 3.0276 0.9883
0.3865 3.0450 0.9844
0.2769 3.0585 0.9804
0.1669 3.0680 0.9764
0.0567 3.0735 0.9723
-0.0538 3.0751 0.9682
-0.1642 3.0726 0.9641
-0.2744 3.0662 0.9599
-0.3843 3.0558 0.9557
-0.4938 3.0414 0.9515
-0.6027 3.0231 0.9472
-0.7109 3.0008 0.9430
-0.8182 2.9746 0.9387
-0.9245 2.9446 0.9345
-2.6494 7.4899 2.3936
-2.9299 7.4269 2.3936
-3.2091 7.3535 2.3936
-3.4868 7.2696 2.3936
-3.7624 7.1753 2.3936
-4.0356 7.0705 2.3936
-4.3059 6.9552 2.3936
-4.5729 6.8295 2.3936
-4.8362 6.6934 2.3936
-5.0953 6.5470 2.3936
-5.3497 6.3904 2.3936
-5.5990 6.2237 2.3936
-5.8428 6.0469 2.3936
-6.0806 5.8603 2.3936
-6.3120 5.6641 2.3936
-6.5366 5.4589 2.3936
-6.7537 5.2439 2.3936
-6.9631 5.0197 2.3936
-7.1643 4.7870 2.3936
-7.3568 4.5460 2.3936
-7.5404 4.2969 2.3936
-7.7145 4.0400 2.3936
-7.8789 3.7763 2.3936
-8.0329 3.5043 2.3936
-8.1765 3.2265 2.3936
-8.3093 2.9426 2.3936
-8.4308 2.6526 2.3936
-8.5408 2.3576 2.3936
-8.6390 2.0578 2.3936
-8.6819 1.7450 2.3818
-8.6558 1.4223 2.3546
-8.6295 1.1052 2.3312
-8.6030 0.7929 2.3113
-8.5762 0.4845 2.2948
-8.5492 0.1792 2.2816
-8.5217 -0.1239 2.2717
-8.4939 -0.4248 2.2649
-8.4655 -0.7252 2.2613
-8.4365 -1.0254 2.2609
-8.4070 -1.3253 2.2636
-8.3768 -1.6269 2.2694
-8.3457 -1.9304 2.2785
-8.3139 -2.2364 2.2908
-8.2811 -2.5457 2.3064
-8.2472 -2.8590 2.3255
-8.2122 -3.1774 2.3481
-8.1760 -3.5016 2.3744
-8.1012 -3.8152 2.3936
-7.9489 -4.0939 2.3936
-7.7856 -4.3659 2.3936
-7.6117 -4.6305 2.3936
-7.4274 -4.8879 2.3936
-7.2332 -5.1370 2.3936
-7.0295 -5.3776 2.3936
-6.8168 -5.6094 2.3936
-6.5954 -5.8320 2.3936
-6.3658 -6.0450 2.3936
-6.1285 -6.2483 2.3936
-5.8840 -6.4415 2.3936
-5.6326 -6.6244 2.3936
-5.3750 -6.7968 2.3936
-5.1116 -6.9584 2.3936
-4.8430 -7.1092 2.3936
-4.5695 -7.2488 2.3936
-4.2917 -7.3776 2.3936
-4.0102 -7.4950 2.3936
-3.7253 -7.6012 2.3936
-3.4377 -7.6960 2.3936
-3.1477 -7.7795 2.3936
-2.8559 -7.8517 2.3936
-2.5627 -7.9126 2.3936
-7.7340 -2.8179 2.3936
-7.6221 -3.0878 2.3936
-7.4996 -3.3522 2.3936
-7.3666 -3.6112 2.3936
-7.2233 -3.8650 2.3936
-7.0703 -4.1112 2.3936
-6.9077 -4.3513 2.3936
-6.7358 -4.5845 2.3936
-6.5551 -4.8102 2.3936
-6.3658 -5.0281 2.3936
-6.1684 -5.2379 2.3936
-5.9632 -5.4392 2.3936
-5.7507 -5.6319 2.3936
-5.5312 -5.8157 2.3936
-5.3053 -5.9902 2.3936
-5.0733 -6.1554 2.3936
-4.8356 -6.3108 2.3936
-4.5927 -6.4568 2.3936
-4.3451 -6.5923 2.3936
-4.0932 -6.7184 2.3936
-3.8374 -6.8340 2.3936
-3.5782 -6.9395 2.3936
-3.3160 -7.0346 2.3936
-3.0513 -7.1195 2.3936
-2.7845 -7.1940 2.3936
-2.5161 -7.2581 2.3936
-2.2464 -7.3120 2.3936
-1.9759 -7.3555 2.3936
-1.7050 -7.3889 2.3936
-1.4340 -7.4121 2.3936
-1.1635 -7.4252 2.3936
-0.8938 -7.4284 2.3936
-0.6252 -7.4217 2.3936
-0.3581 -7.4053 2.3936
-0.0928 -7.3794 2.3936
0.1702 -7.3440 2.3936
0.4307 -7.2994 2.3936
0.6884 -7.2457 2.3936
0.9429 -7.1831 2.3936
1.1940 -7.1118 2.3936
1.4414 -7.0320 2.3936
1.6847 -6.9440 2.3936
1.9239 -6.8478 2.3936
2.1585 -6.7438 2.3936
2.3884 -6.6321 2.3936
2.6133 -6.5131 2.3936
2.8331 -6.3868 2.3936
3.0476 -6.2536 2.3936
3.2565 -6.1137 2.3936
3.4596 -5.9673 2.3936
3.6569 -5.8147 2.3936
3.8482 -5.6560 2.3936
4.0332 -5.4917 2.3936
4.2120 -5.3218 2.3936
4.3842 -5.1466 2.3936
4.5499 -4.9664 2.3936
4.7089 -4.7814 2.3936
4.8612 -4.5919 2.3936
5.0065 -4.3981 2.3936
5.1448 -4.1995 2.3936
5.2764 -3.9993 2.3936
5.4004 -3.7932 2.3936
5.5175 -3.5844 2.3936
5.6273 -3.3726 2.3936
5.7298 -3.1578 2.3936
5.8249 -2.9404 2.3936
5.9127 -2.7206 2.3936
5.9931 -2.4985 2.3936
6.0660 -2.2745 2.3936
6.1315 -2.0486 2.3936
6.1895 -1.8213 2.3936
6.2399 -1.5925 2.3936
6.2829 -1.3627 2.3936
6.3184 -1.1320 2.3936
6.3463 -0.9005 2.3936
6.3667 -0.6686 2.3936
6.3797 -0.4364 2.3936
6.3851 -0.2042 2.3936
6.3830 0.0279 2.3936
6.3735 0.2596 2.3936
6.3565 0.4908 2.3936
6.3322 0.7212 2.3936
6.3004 0.9506 2.3936
6.2613 1.1788 2.3936
6.2148 1.4057 2.3936
6.1611 1.6310 2.3936
6.1001 1.8546 2.3936
6.0319 2.0761 2.3936
5.9567 2.2955 2.3936
5.8743 2.5125 2.3936
5.7849 2.7269 2.3936
5.6885 2.9386 2.3936
5.5852 3.1473 2.3936
5.4751 3.3528 2.3936
5.3582 3.5549 2.3936
5.2347 3.7535 2.3936
5.1045 3.9483 2.3936
4.9679 4.1391 2.3936
4.8248 4.3258 2.3936
4.6755 4.5081 2.3936
4.5199 4.6858 2.3936
4.3582 4.8588 2.3936
4.1905 5.0269 2.3936
4.0169 5.1897 2.3936
3.8376 5.3473 2.3936
3.6527 5.4992 2.3936
3.4622 5.6459 2.3936
3.2666 5.7858 2.3936
3.0657 5.9199 2.3936
2.8598 6.0475 2.3936
2.6490 6.1691 2.3936
2.4335 6.2837 2.3936
2.2136 6.3914 2.3936
0.8293 2.7064 0.9978
0.7316 2.7360 0.9945
0.6330 2.7621 0.9910
0.5334 2.7846 0.9875
0.4330 2.8035 0.9839
0.3321 2.8188 0.9803
0.2306 2.8304 0.9766
0.1288 2.8383 0.9729
0.0268 2.8426 0.9691
-0.0753 2.8432 0.9653
-0.1774 2.8401 0.9614
-0.2793 2.8333 0.9576
-0.3809 2.8228 0.9537
-0.4820 2.8087 0.9498
-0.5826 2.7909 0.9458
-0.6825 2.7695 0.9419
-0.7815 2.7446 0.9380
-0.8796 2.7160 0.9340
-2.5130 6.9070 2.3936
-2.7711 6.8442 2.3936
-3.0277 6.7719 2.3936
-3.2826 6.6900 2.3936
-3.5354 6.5985 2.3936
-3.7856 6.4974 2.3936
-4.0329 6.3867 2.3936
-4.2770 6.2665 2.3936
-4.5173 6.1369 2.3936
-4.7535 5.9978 2.3936
-4.9853 5.8495 2.3936
-5.2121 5.6920 2.3936
-5.4336 5.5255 2.3936
-5.6493 5.3501 2.3936
-5.8590 5.1660 2.3936
-6.0621 4.9734 2.3936
-6.2584 4.7725 2.3936
-6.4472 4.5632 2.3936
-6.6286 4.3469 2.3936
-6.8018 4.1226 2.3936
-6.9666 3.8911 2.3936
-7.1227 3.6528 2.3936
-7.2696 3.4079 2.3936
-7.4072 3.1568 2.3936
-7.5350 2.8999 2.3936
-7.6528 2.6376 2.3936
-7.7604 2.3702 2.3936
-7.8573 2.0982 2.3936
-7.9435 1.8222 2.3936
-8.0188 1.5425 2.3936
-8.0828 1.2596 2.3936
-8.1355 0.9739 2.3936
-8.1767 0.6859 2.3936
-8.2063 0.3962 2.3936
-8.2241 0.1054 2.3936
-8.2302 -0.1862 2.3936
-8.2245 -0.4780 2.3936
-8.2070 -0.7695 2.3936
-8.1776 -1.0602 2.3936
-8.1365 -1.3494 2.3936
-8.0837 -1.6368 2.3936
-8.0192 -1.9219 2.3936
-7.9433 -2.2039 2.3936
-7.8560 -2.4827 2.3936
-7.7576 -2.7572 2.3936
-7.6482 -3.0278 2.3936
-7.5280 -3.2933 2.3936
-7.3973 -3.5537 2.3936
-7.2564 -3.8082 2.3936
-7.1055 -4.0564 2.3936
-6.9450 -4.2981 2.3936
-6.7752 -4.5328 2.3936
-6.5964 -4.7602 2.3936
-6.4090 -4.9799 2.3936
-6.2134 -5.1915 2.3936
-6.0099 -5.3948 2.3936
-5.7990 -5.5895 2.3936
-5.5811 -5.7753 2.3936
-5.3565 -5.9519 2.3936
-5.1258 -6.1192 2.3936
-4.8895 -6.2760 2.3936
-4.6476 -6.4249 2.3936
-4.4010 -6.5629 2.3936
-4.1500 -6.6910 2.3936
-3.8951 -6.8090 2.3936
-3.6366 -6.9167 2.3936
-3.3751 -7.0142 2.3936
-3.1109 -7.1013 2.3936
-2.8445 -7.1781 2.3936
-2.5764 -7.2446 2.3936
-2.3070 -7.3008 2.3936
-2.0366 -7.3467 2.3936
-1.7658 -7.3823 2.3936
-1.4948 -7.4078 2.3936
-1.2242 -7.4231 2.3936
-0.9542 -7.4285 2.3936
-0.6853 -7.4241 2.3936
-0.4178 -7.4098 2.3936
-0.1522 -7.3860 2.3936
0.1114 -7.3528 2.3936
0.3725 -7.3102 2.3936
0.6309 -7.2585 2.3936
0.8861 -7.1979 2.3936
1.1380 -7.1286 2.3936
1.3862 -7.0507 2.3936
1.6305 -6.9644 2.3936
1.8706 -6.8701 2.3936
2.1062 -6.7678 2.3936
2.3372 -6.6578 2.3936
2.5633 -6.5404 2.3936
2.7843 -6.4158 2.3936
2.9999 -6.2841 2.3936
3.2101 -6.1457 2.3936
3.4146 -6.0007 2.3936
3.6132 -5.8494 2.3936
3.8058 -5.6921 2.3936
3.9923 -5.5290 2.3936
4.1724 -5.3604 2.3936
4.3462 -5.1864 2.3936
4.5133 -5.0073 2.3936
4.6739 -4.8234 2.3936
4.8276 -4.6348 2.3936
4.9745 -4.4419 2.3936
5.1145 -4.2449 2.3936
5.2474 -4.0440 2.3936
5.3732 -3.8395 2.3936
5.4918 -3.6315 2.3936
5.6033 -3.4203 2.3936
5.7074 -3.2063 2.3936
5.8042 -2.9894 2.3936
5.8937 -2.7701 2.3936
5.9757 -2.5485 2.3936
6.0503 -2.3249 2.3936
6.1174 -2.0995 2.3936
6.1771 -1.8724 2.3936
6.2293 -1.6439 2.3936
6.2739 -1.4144 2.3936
6.3111 -1.1838 2.3936
6.3407 -0.9525 2.3936
6.3628 -0.7207 2.3936
6.3774 -0.4885 2.3936
6.3845 -0.2563 2.3936
6.3841 -0.0242 2.3936
6.3763 0.2077 2.3936
6.3610 0.4390 2.3936
6.3383 0.6695 2.3936
6.3081 0.8992 2.3936
6.2707 1.1278 2.3936
6.2259 1.3550 2.3936
6.1738 1.5806 2.3936
6.1144 1.8046 2.3936
6.0479 2.0266 2.3936
5.9742 2.2465 2.3936
5.8934 2.4640 2.3936
5.8055 2.6791 2.3936
5.7107 2.8913 2.3936
5.6090 3.1007 2.3936
5.5004 3.3070 2.3936
5.3850 3.5099 2.3936
5.2630 3.7092 2.3936
5.1343 3.9049 2.3936
4.9991 4.0967 2.3936
4.8575 4.2843 2.3936
4.7095 4.4676 2.3936
4.5553 4.6464 2.3936
4.3950 4.8204 2.3936
4.2286 4.9896 2.3936
4.0564 5.1536 2.3936
3.8783 5.3124 2.3936
3.6947 5.4656 2.3936
3.5055 5.6132 2.3936
3.3109 5.7548 2.3936
3.1112 5.8904 2.3936
2.9064 6.0196 2.3936
2.6967 6.1424 2.3936
2.4823 6.2586 2.3936
2.2633 6.3678 2.3936
0.8511 2.6992 0.9986
0.7536 2.7297 0.9952
0.6552 2.7565 0.9918
0.5558 2.7799 0.9883
0.4556 2.7996 0.9847
0.3548 2.8157 0.9811
0.2534 2.8281 0.9774
0.1517 2.8369 0.9737
0.0497 2.8420 0.9700
-0.0524 2.8434 0.9661
-0.1545 2.8411 0.9623
-0.2565 2.8352 0.9584
-0.3581 2.8255 0.9546
-0.4594 2.8122 0.9506
-0.5601 2.7952 0.9467
-0.6601 2.7747 0.9428
-0.7594 2.7505 0.9389
-0.8577 2.7227 0.9349
-2.4550 6.9197 2.3936
-2.7133 6.8592 2.3936
-2.9703 6.7890 2.3936
-3.2256 6.7092 2.3936
-3.4789 6.6199 2.3936
-3.7297 6.5209 2.3936
-3.9777 6.4124 2.3936
-4.2225 6.2943 2.3936
-4.4637 6.1667 2.3936
-4.7009 6.0298 2.3936
-4.9337 5.8836 2.3936
-5.1616 5.7281 2.3936
-5.3843 5.5636 2.3936
-5.6014 5.3902 2.3936
-5.8125 5.2080 2.3936
-6.0171 5.0173 2.3936
-6.2150 4.8183 2.3936
-6.4055 4.6107 2.3936
-6.5886 4.3963 2.3936
-6.7637 4.1735 2.3936
-6.9304 3.9436 2.3936
-7.0884 3.7069 2.3936
-7.2375 3.4634 2.3936
-7.3772 3.2137 2.3936
-7.5072 2.9580 2.3936
-7.6273 2.6969 2.3936
-7.7371 2.4306 2.3936
-7.8365 2.1597 2.3936
-7.9252 1.8845 2.3936
-8.0029 1.6056 2.3936
-8.0694 1.3233 2.3936
-8.1247 1.0384 2.3936
-8.1684 0.7506 2.3936
-8.2006 0.4613 2.3936
-8.2211 0.1707 2.3936
-8.2299 -0.1208 2.3936
-8.2268 -0.4126 2.3936
-8.2119 -0.7042 2.3936
-8.1852 -0.9951 2.3936
-8.1468 -1.2846 2.3936
-8.0965 -1.5726 2.3936
-8.0347 -1.8582 2.3936
-7.9613 -2.1409 2.3936
-7.8766 -2.4205 2.3936
-7.7807 -2.6958 2.3936
-7.6737 -2.9675 2.3936
-7.5559 -3.2342 2.3936
-7.4275 -3.4957 2.3936
-7.2889 -3.7515 2.3936
-7.1403 -4.0004 2.3936
-6.9819 -4.2444 2.3936
-6.8141 -4.4808 2.3936
-6.6373 -4.7098 2.3936
-6.4518 -4.9313 2.3936
-6.2580 -5.1447 2.3936
-6.0562 -5.3499 2.3936
-5.8469 -5.5466 2.3936
-5.6305 -5.7344 2.3936
-5.4075 -5.9131 2.3936
-5.1781 -6.0824 2.3936
-4.9429 -6.2423 2.3936
-4.7023 -6.3924 2.3936
-4.4568 -6.5326 2.3936
-4.2068 -6.6626 2.3936
-3.9526 -6.7834 2.3936
-3.6949 -6.8934 2.3936
-3.4340 -6.9932 2.3936
-3.1704 -7.0827 2.3936
-2.9044 -7.1618 2.3936
-2.6367 -7.2306 2.3936
-2.3675 -7.2891 2.3936
-7.1314 -2.5976 2.3936
-7.0288 -2.8459 2.3936
-6.9165 -3.0897 2.3936
-6.7946 -3.3286 2.3936
-6.6633 -3.5622 2.3936
-6.5231 -3.7901 2.3936
-6.3740 -4.0120 2.3936
-6.2165 -4.2275 2.3936
-6.0507 -4.4362 2.3936
-5.8772 -4.6379 2.3936
-5.6961 -4.8322 2.3936
-5.5079 -5.0188 2.3936
-5.3129 -5.1976 2.3936
-5.1114 -5.3682 2.3936
-4.9039 -5.5303 2.3936
-4.6908 -5.6839 2.3936
-4.4724 -5.8291 2.3936
-4.2491 -5.9651 2.3936
-4.0213 -6.0921 2.3936
-3.7895 -6.2099 2.3936
-3.5540 -6.3184 2.3936
-3.3153 -6.4176 2.3936
-3.0737 -6.5073 2.3936
-2.8296 -6.5876 2.3936
-2.5835 -6.6584 2.3936
-2.3357 -6.7197 2.3936
-2.0866 -6.7715 2.3936
-1.8367 -6.8138 2.3936
-1.5862 -6.8467 2.3936
-1.3356 -6.8702 2.3936
-1.0852 -6.8844 2.3936
-0.8353 -6.8894 2.3936
-0.5864 -6.8852 2.3936
-0.3388 -6.8721 2.3936
-0.0926 -6.8501 2.3936
0.1516 -6.8193 2.3936
0.3936 -6.7799 2.3936
0.6331 -6.7320 2.3936
0.8698 -6.6759 2.3936
1.1034 -6.6116 2.3936
1.3338 -6.5393 2.3936
1.5605 -6.4593 2.3936
1.7834 -6.3717 2.3936
2.0023 -6.2767 2.3936
2.2169 -6.1745 2.3936
2.4270 -6.0653 2.3936
2.6324 -5.9494 2.3936
2.8329 -5.8269 2.3936
3.0283 -5.6980 2.3936
3.2184 -5.5630 2.3936
3.4032 -5.4221 2.3936
3.5824 -5.2755 2.3936
3.7559 -5.1235 2.3936
3.9236 -4.9662 2.3936
4.0852 -4.8038 2.3936
4.2408 -4.6367 2.3936
4.3902 -4.4650 2.3936
4.5333 -4.2890 2.3936
4.6700 -4.1088 2.3936
4.8002 -3.9247 2.3936
4.9238 -3.7370 2.3936
5.0408 -3.5458 2.3936
5.1511 -3.3513 2.3936
5.2546 -3.1539 2.3936
5.3513 -2.9536 2.3936
5.4411 -2.7507 2.3936
5.5240 -2.5455 2.3936
5.5999 -2.3382 2.3936
5.6689 -2.1288 2.3936
5.7308 -1.9178 2.3936
5.7857 -1.7053 2.3936
5.8336 -1.4914 2.3936
5.8744 -1.2764 2.3936
5.9081 -1.0606 2.3936
5.9347 -0.8440 2.3936
5.9543 -0.6270 2.3936
5.9668 -0.4097 2.3936
5.9722 -0.1923 2.3936
5.9705 0.0250 2.3936
5.9618 0.2420 2.3936
5.9461 0.4584 2.3936
5.9234 0.6742 2.3936
5.8937 0.8890 2.3936
5.8571 1.1028 2.3936
5.8136 1.3152 2.3936
5.7632 1.5262 2.3936
5.7060 1.7354 2.3936
5.6420 1.9428 2.3936
5.5713 2.1481 2.3936
5.4939 2.3512 2.3936
5.4099 2.5518 2.3936
5.3193 2.7498 2.3936
5.2222 2.9449 2.3936
5.1187 3.1370 2.3936
5.0089 3.3259 2.3936
4.8928 3.5114 2.3936
4.7705 3.6933 2.3936
4.6421 3.8715 2.3936
4.5077 4.0456 2.3936
4.3674 4.2156 2.3936
4.2213 4.3813 2.3936
4.0694 4.5424 2.3936
3.9120 4.6988 2.3936
3.7491 4.8503 2.3936
3.5809 4.9967 2.3936
3.4074 5.1379 2.3936
3.2289 5.2735 2.3936
3.0455 5.4036 2.3936
2.8572 5.5278 2.3936
2.6643 5.6460 2.3936
2.4670 5.7581 2.3936
2.2654 5.8638 2.3936
0.8577 2.4834 0.9969
0.7680 2.5141 0.9938
0.6773 2.5416 0.9906
0.5856 2.5659 0.9874
0.4931 2.5868 0.9842
0.3998 2.6043 0.9808
0.3060 2.6185 0.9775
0.2118 2.6293 0.9740
0.1172 2.6366 0.9706
0.0224 2.6406 0.9671
-0.0725 2.6411 0.9635
-0.1673 2.6382 0.9600
-0.2620 2.6319 0.9564
-0.3564 2.6222 0.9527
-0.4504 2.6091 0.9491
-0.5438 2.5925 0.9455
-0.6366 2.5727 0.9418
-0.7286 2.5495 0.9382
-0.8197 2.5229 0.9345
-0.9098 2.4932 0.9309
-2.5783 6.3508 2.3936
-2.8157 6.2818 2.3936
-3.0513 6.2039 2.3936
-3.2847 6.1172 2.3936
-3.5157 6.0216 2.3936
-3.7439 5.9173 2.3936
-3.9689 5.8042 2.3936
-4.1904 5.6824 2.3936
-4.4079 5.5520 2.3936
-4.6212 5.4131 2.3936
-4.8297 5.2658 2.3936
-5.0333 5.1103 2.3936
-5.2315 4.9467 2.3936
-5.4240 4.7751 2.3936
-5.6103 4.5958 2.3936
-5.7903 4.4090 2.3936
-5.9634 4.2148 2.3936
-6.1294 4.0136 2.3936
-6.2879 3.8057 2.3936
-6.4386 3.5911 2.3936
-6.5813 3.3702 2.3936
-6.7155 3.1436 2.3936
-6.8411 2.9112 2.3936
-6.9577 2.6737 2.3936
-7.0651 2.4313 2.3936
-7.1630 2.1843 2.3936
-7.2513 1.9333 2.3936
-7.3297 1.6785 2.3936
-7.3980 1.4204 2.3936
-7.4560 1.1595 2.3936
-7.5037 0.8961 2.3936
-7.5409 0.6307 2.3936
-7.5675 0.3638 2.3936
-7.5833 0.0958 2.3936
-7.5884 -0.1733 2.3936
-7.5828 -0.4421 2.3936
-7.5664 -0.7101 2.3936
-7.5391 -0.9778 2.3936
-7.5011 -1.2448 2.3936
-7.4523 -1.5104 2.3936
-7.3932 -1.7714 2.3936
-7.3235 -2.0309 2.3936
-7.2433 -2.2881 2.3936
-7.1530 -2.5413 2.3936
-7.0527 -2.7906 2.3936
-6.9425 -3.0354 2.3936
-6.8227 -3.2754 2.3936
-6.6936 -3.5103 2.3936
-6.5553 -3.7395 2.3936
-6.4082 -3.9628 2.3936
-6.2525 -4.1797 2.3936
-6.0886 -4.3900 2.3936
-5.9168 -4.5933 2.3936
-5.7374 -4.7892 2.3936
-5.5507 -4.9776 2.3936
-5.3572 -5.1582 2.3936
-5.1571 -5.3307 2.3936
-4.9510 -5.4948 2.3936
-4.7391 -5.6502 2.3936
-4.5218 -5.7972 2.3936
-4.2996 -5.9354 2.3936
-4.0728 -6.0644 2.3936
-3.8418 -6.1843 2.3936
-3.6071 -6.2949 2.3936
-3.3691 -6.3962 2.3936
-3.1281 -6.4880 2.3936
-2.8846 -6.5704 2.3936
-2.6389 -6.6433 2.3936
-2.3914 -6.7068 2.3936
-2.1426 -6.7607 2.3936
-1.8928 -6.8051 2.3936
-1.6424 -6.8401 2.3936
-1.3918 -6.8657 2.3936
-1.1413 -6.8820 2.3936
-0.8913 -6.8891 2.3936
-0.6422 -6.8870 2.3936
-0.3942 -6.8758 2.3936
-0.1477 -6.8558 2.3936
0.0969 -6.8270 2.3936
0.3395 -6.7895 2.3936
0.5796 -6.7435 2.3936
0.8169 -6.6892 2.3936
1.0513 -6.6267 2.3936
1.2824 -6.5562 2.3936
1.5100 -6.4779 2.3936
1.7338 -6.3920 2.3936
1.9536 -6.2986 2.3936
2.1691 -6.1980 2.3936
2.3802 -6.0904 2.3936
2.5867 -5.9760 2.3936
2.7883 -5.8549 2.3936
2.9849 -5.7275 2.3936
3.1762 -5.5938 2.3936
3.3622 -5.4542 2.3936
3.5427 -5.3089 2.3936
3.7175 -5.1581 2.3936
3.8865 -5.0019 2.3936
4.0495 -4.8407 2.3936
4.2064 -4.6746 2.3936
4.3572 -4.5039 2.3936
4.5017 -4.3289 2.3936
4.6399 -4.1496 2.3936
4.7715 -3.9664 2.3936
4.8966 -3.7794 2.3936
5.0151 -3.5890 2.3936
5.1269 -3.3952 2.3936
5.2320 -3.1984 2.3936
5.3302 -2.9988 2.3936
5.4215 -2.7965 2.3936
5.5060 -2.5917 2.3936
5.5835 -2.3848 2.3936
5.6540 -2.1760 2.3936
5.7176 -1.9653 2.3936
5.7740 -1.7531 2.3936
5.8235 -1.5395 2.3936
5.8658 -1.3247 2.3936
5.9011 -1.1091 2.3936
5.9294 -0.8927 2.3936
5.9505 -0.6757 2.3936
5.9646 -0.4584 2.3936
5.9716 -0.2410 2.3936
5.9715 -0.0237 2.3936
5.9644 0.1933 2.3936
5.9502 0.4099 2.3936
5.9291 0.6259 2.3936
5.9010 0.8409 2.3936
5.8659 1.0549 2.3936
5.8240 1.2677 2.3936
5.7751 1.4790 2.3936
5.7194 1.6886 2.3936
5.6569 1.8965 2.3936
5.5877 2.1023 2.3936
5.5118 2.3058 2.3936
5.4293 2.5070 2.3936
5.3402 2.7056 2.3936
5.2446 2.9014 2.3936
5.1425 3.0942 2.3936
5.0341 3.2838 2.3936
4.9194 3.4701 2.3936
4.7985 3.6528 2.3936
4.6714 3.8318 2.3936
4.5384 4.0069 2.3936
4.3994 4.1778 2.3936
4.2545 4.3445 2.3936
4.1040 4.5067 2.3936
3.9478 4.6641 2.3936
3.7861 4.8167 2.3936
3.6191 4.9643 2.3936
3.4468 5.1067 2.3936
3.2694 5.2436 2.3936
3.0870 5.3749 2.3936
2.8999 5.5005 2.3936
2.7080 5.6200 2.3936
2.5116 5.7335 2.3936
2.3110 5.8407 2.3936
0.8777 2.4760 0.9975
0.7883 2.5075 0.9945
0.6977 2.5357 0.9914
0.6062 2.5607 0.9882
0.5139 2.5824 0.9849
0.4208 2.6007 0.9816
0.3271 2.6156 0.9782
0.2330 2.6271 0.9748
0.1384 2.6353 0.9714
0.0437 2.6400 0.9679
-0.0512 2.6413 0.9643
-0.1461 2.6392 0.9608
-0.2408 2.6336 0.9572
-0.3353 2.6247 0.9536
-0.4293 2.6123 0.9499
-0.5229 2.5966 0.9463
-0.6158 2.5774 0.9426
-0.7080 2.5550 0.9390
-0.7994 2.5292 0.9353
-0.8897 2.5001 0.9317
-2.5248 6.3650 2.3936
-2.7625 6.2980 2.3936
-2.9986 6.2222 2.3936
-3.2325 6.1374 2.3936
-3.4641 6.0438 2.3936
-3.6930 5.9415 2.3936
-3.9187 5.8303 2.3936
-4.1410 5.7105 2.3936
-4.3595 5.5820 2.3936
-4.5737 5.4450 2.3936
-4.7834 5.2996 2.3936
-4.9881 5.1459 2.3936
-5.1875 4.9841 2.3936
-5.3813 4.8143 2.3936
-5.5691 4.6367 2.3936
-5.7505 4.4515 2.3936
-5.9251 4.2590 2.3936
-6.0928 4.0594 2.3936
-6.2530 3.8529 2.3936
-6.4055 3.6400 2.3936
-6.5500 3.4203 2.3936
-6.6861 3.1949 2.3936
-6.8137 2.9638 2.3936
-6.9323 2.7274 2.3936
-7.0418 2.4861 2.3936
-7.1419 2.2401 2.3936
-7.2323 1.9899 2.3936
-7.3129 1.7360 2.3936
-7.3835 1.4786 2.3936
-7.4439 1.2182 2.3936
-7.4939 0.9554 2.3936
-7.5335 0.6904 2.3936
-7.5625 0.4240 2.3936
-7.5807 0.1560 2.3936
-7.5881 -0.1143 2.3936
-7.5850 -0.3813 2.3936
-7.5710 -0.6499 2.3936
-7.5462 -0.9179 2.3936
-7.5105 -1.1855 2.3936
-7.4643 -1.4496 2.3936
-7.4074 -1.7127 2.3936
-7.3401 -1.9725 2.3936
-7.2622 -2.2308 2.3936
-7.1742 -2.4848 2.3936
-7.0761 -2.7350 2.3936
-6.9681 -2.9809 2.3936
-6.8504 -3.2220 2.3936
-6.7234 -3.4581 2.3936
-6.5871 -3.6886 2.3936
-6.4420 -3.9132 2.3936
-6.2882 -4.1316 2.3936
-6.1261 -4.3434 2.3936
-5.9560 -4.5483 2.3936
-5.7783 -4.7459 2.3936
-5.5932 -4.9360 2.3936
-5.4012 -5.1184 2.3936
-5.2026 -5.2927 2.3936
-4.9977 -5.4589 2.3936
-4.7871 -5.6164 2.3936
-4.5710 -5.7651 2.3936
-4.3498 -5.9052 2.3936
-4.1240 -6.0363 2.3936
-3.8940 -6.1582 2.3936
-3.6601 -6.2709 2.3936
-3.4228 -6.3743 2.3936
-3.1824 -6.4683 2.3936
-2.9394 -6.5528 2.3936
-2.6941 -6.6278 2.3936
-2.4471 -6.6934 2.3936
-2.1985 -6.7494 2.3936
-6.6091 -2.4062 2.3936
-6.5146 -2.6362 2.3936
-6.4110 -2.8621 2.3936
-6.2986 -3.0836 2.3936
-6.1776 -3.3002 2.3936
-6.0483 -3.5117 2.3936
-5.9109 -3.7176 2.3936
-5.7657 -3.9177 2.3936
-5.6129 -4.1116 2.3936
-5.4529 -4.2990 2.3936
-5.2859 -4.4797 2.3936
-5.1122 -4.6536 2.3936
-4.9323 -4.8199 2.3936
-4.7464 -4.9789 2.3936
-4.5547 -5.1306 2.3936
-4.3579 -5.2741 2.3936
-4.1561 -5.4096 2.3936
-3.9497 -5.5369 2.3936
-3.7391 -5.6560 2.3936
-3.5247 -5.7666 2.3936
-3.3068 -5.8687 2.3936
-3.0858 -5.9622 2.3936
-2.8620 -6.0469 2.3936
-2.6359 -6.1230 2.3936
-2.4078 -6.1903 2.3936
-2.1780 -6.2488 2.3936
-1.9469 -6.2985 2.3936
-1.7148 -6.3395 2.3936
-1.4822 -6.3717 2.3936
-1.2493 -6.3952 2.3936
-1.0165 -6.4101 2.3936
-0.7841 -6.4164 2.3936
-0.5524 -6.4143 2.3936
-0.3218 -6.4037 2.3936
-0.0925 -6.3848 2.3936
0.1351 -6.3578 2.3936
0.3608 -6.3228 2.3936
0.5843 -6.2798 2.3936
0.8053 -6.2290 2.3936
1.0236 -6.1706 2.3936
1.2389 -6.1048 2.3936
1.4509 -6.0316 2.3936
1.6595 -5.9513 2.3936
1.8644 -5.8640 2.3936
2.0653 -5.7700 2.3936
2.2622 -5.6694 2.3936
2.4547 -5.5624 2.3936
2.6428 -5.4491 2.3936
2.8262 -5.3299 2.3936
3.0047 -5.2048 2.3936
3.1783 -5.0742 2.3936
3.3467 -4.9381 2.3936
3.5098 -4.7968 2.3936
3.6676 -4.6505 2.3936
3.8197 -4.4995 2.3936
3.9662 -4.3438 2.3936
4.1069 -4.1838 2.3936
4.2418 -4.0196 2.3936
4.3706 -3.8514 2.3936
4.4935 -3.6797 2.3936
4.6101 -3.5043 2.3936
4.7206 -3.3255 2.3936
4.8247 -3.1437 2.3936
4.9225 -2.9589 2.3936
5.0139 -2.7715 2.3936
5.0989 -2.5816 2.3936
5.1774 -2.3894 2.3936
5.2493 -2.1951 2.3936
5.3146 -1.9989 2.3936
5.3733 -1.8011 2.3936
5.4254 -1.6017 2.3936
5.4708 -1.4011 2.3936
5.5096 -1.1994 2.3936
5.5417 -0.9968 2.3936
5.5671 -0.7935 2.3936
5.5858 -0.5898 2.3936
5.5978 -0.3857 2.3936
5.6032 -0.1816 2.3936
5.6019 0.0225 2.3936
5.5939 0.2263 2.3936
5.5793 0.4296 2.3936
5.5581 0.6322 2.3936
5.5303 0.8340 2.3936
5.4959 1.0348 2.3936
5.4550 1.2343 2.3936
5.4076 1.4324 2.3936
5.3538 1.6289 2.3936
5.2935 1.8237 2.3936
5.2269 2.0165 2.3936
5.1540 2.2071 2.3936
5.0748 2.3953 2.3936
4.9895 2.5811 2.3936
4.8980 2.7642 2.3936
4.8005 2.9444 2.3936
4.6970 3.1215 2.3936
4.5876 3.2953 2.3936
4.4723 3.4658 2.3936
4.3514 3.6326 2.3936
4.2248 3.7956 2.3936
4.0926 3.9547 2.3936
3.9550 4.1097 2.3936
3.8120 4.2603 2.3936
3.6638 4.4064 2.3936
3.5105 4.5479 2.3936
3.3523 4.6844 2.3936
3.1891 4.8161 2.3936
3.0212 4.9425 2.3936
2.8487 5.0635 2.3936
2.6718 5.1791 2.3936
2.4906 5.2889 2.3936
2.3052 5.3929 2.3936
0.8803 2.2845 0.9959
0.7977 2.3161 0.9931
0.7141 2.3448 0.9902
0.6294 2.3704 0.9873
0.5438 2.3930 0.9843
0.4575 2.4125 0.9812
0.3706 2.4289 0.9781
0.2831 2.4421 0.9750
0.1951 2.4521 0.9718
0.1069 2.4590 0.9686
0.0185 2.4627 0.9653
-0.0700 2.4632 0.9620
-0.1585 2.4605 0.9587
-0.2468 2.4546 0.9553
-0.3348 2.4455 0.9519
-0.4225 2.4332 0.9485
-0.5097 2.4178 0.9451
-0.5962 2.3993 0.9417
-0.6820 2.3776 0.9383
-0.7670 2.3529 0.9349
-0.8510 2.3251 0.9315
-0.9340 2.2943 0.9281
-2.6294 5.8512 2.3936
-2.8481 5.7772 2.3936
-3.0648 5.6949 2.3936
-3.2791 5.6044 2.3936
-3.4906 5.5059 2.3936
-3.6991 5.3992 2.3936
-3.9042 5.2845 2.3936
-4.1055 5.1619 2.3936
-4.3027 5.0315 2.3936
-4.4956 4.8933 2.3936
-4.6837 4.7476 2.3936
-4.8667 4.5944 2.3936
-5.0443 4.4340 2.3936
-5.2162 4.2665 2.3936
-5.3821 4.0921 2.3936
-5.5416 3.9109 2.3936
-5.6945 3.7234 2.3936
-5.8404 3.5296 2.3936
-5.9791 3.3299 2.3936
-6.1103 3.1246 2.3936
-6.2337 2.9138 2.3936
-6.3489 2.6976 2.3936
-6.4560 2.4771 2.3936
-6.5545 2.2521 2.3936
-6.6443 2.0229 2.3936
-6.7251 1.7900 2.3936
-6.7969 1.5537 2.3936
-6.8593 1.3145 2.3936
-6.9124 1.0726 2.3936
-6.9558 0.8286 2.3936
-6.9897 0.5828 2.3936
-7.0137 0.3356 2.3936
-7.0279 0.0874 2.3936
-7.0323 -0.1613 2.3936
-7.0267 -0.4101 2.3936
-7.0112 -0.6586 2.3936
-6.9858 -0.9064 2.3936
-6.9506 -1.1530 2.3936
-6.9056 -1.3981 2.3936
-6.8508 -1.6411 2.3936
-6.7863 -1.8817 2.3936
-6.7124 -2.1195 2.3936
-6.6291 -2.3540 2.3936
-6.5366 -2.5849 2.3936
-6.4350 -2.8118 2.3936
-6.3246 -3.0343 2.3936
-6.2055 -3.2521 2.3936
-6.0781 -3.4647 2.3936
-5.9425 -3.6719 2.3936
-5.7990 -3.8733 2.3936
-5.6478 -4.0686 2.3936
-5.4894 -4.2575 2.3936
-5.3239 -4.4398 2.3936
-5.1517 -4.6153 2.3936
-4.9732 -4.7832 2.3936
-4.7885 -4.9440 2.3936
-4.5982 -5.0971 2.3936
-4.4025 -5.2425 2.3936
-4.2018 -5.3799 2.3936
-3.9964 -5.5091 2.3936
-3.7867 -5.6300 2.3936
-3.5731 -5.7425 2.3936
-3.3560 -5.8465 2.3936
-3.1356 -5.9419 2.3936
-2.9125 -6.0287 2.3936
-2.6868 -6.1067 2.3936
-2.4591 -6.1759 2.3936
-2.2296 -6.2364 2.3936
-1.9988 -6.2881 2.3936
-1.7670 -6.3310 2.3936
-1.5344 -6.3652 2.3936
-1.3016 -6.3907 2.3936
-1.0687 -6.4075 2.3936
-0.8362 -6.4158 2.3936
-0.6043 -6.4155 2.3936
-0.3734 -6.4068 2.3936
-0.1438 -6.3898 2.3936
0.0842 -6.3646 2.3936
0.3104 -6.3313 2.3936
0.5344 -6.2901 2.3936
0.7560 -6.2411 2.3936
0.9749 -6.1844 2.3936
1.1909 -6.1202 2.3936
1.4036 -6.0486 2.3936
1.6130 -5.9699 2.3936
1.8187 -5.8842 2.3936
2.0206 -5.7917 2.3936
2.2184 -5.6925 2.3936
2.4119 -5.5869 2.3936
2.6010 -5.4751 2.3936
2.7854 -5.3572 2.3936
2.9651 -5.2334 2.3936
3.1398 -5.1040 2.3936
3.3094 -4.9691 2.3936
3.4737 -4.8289 2.3936
3.6326 -4.6838 2.3936
3.7861 -4.5338 2.3936
3.9338 -4.3791 2.3936
4.0759 -4.2201 2.3936
4.2120 -4.0568 2.3936
4.3423 -3.8896 2.3936
4.4664 -3.7184 2.3936
4.5845 -3.5439 2.3936
4.6963 -3.3658 2.3936
4.8019 -3.1848 2.3936
4.9012 -3.0007 2.3936
4.9940 -2.8138 2.3936
5.0804 -2.6244 2.3936
5.1603 -2.4327 2.3936
5.2337 -2.2389 2.3936
5.3005 -2.0431 2.3936
5.3607 -1.8456 2.3936
5.4143 -1.6465 2.3936
5.4612 -1.4462 2.3936
5.5015 -1.2447 2.3936
5.5351 -1.0423 2.3936
5.5620 -0.8392 2.3936
5.5822 -0.6355 2.3936
5.5957 -0.4315 2.3936
5.6026 -0.2274 2.3936
5.6028 -0.0233 2.3936
5.5963 0.1806 2.3936
5.5832 0.3840 2.3936
5.5634 0.5868 2.3936
5.5371 0.7888 2.3936
5.5042 0.9898 2.3936
5.4647 1.1897 2.3936
5.4188 1.3881 2.3936
5.3664 1.5850 2.3936
5.3076 1.7802 2.3936
5.2424 1.9734 2.3936
5.1709 2.1645 2.3936
5.0931 2.3533 2.3936
5.0092 2.5397 2.3936
4.9191 2.7233 2.3936
4.8229 2.9042 2.3936
4.7207 3.0820 2.3936
4.6126 3.2566 2.3936
4.4987 3.4278 2.3936
4.3790 3.5955 2.3936
4.2537 3.7594 2.3936
4.1227 3.9194 2.3936
3.9863 4.0752 2.3936
3.8446 4.2269 2.3936
3.6975 4.3740 2.3936
3.5454 4.5165 2.3936
3.3882 4.6543 2.3936
3.2260 4.7874 2.3936
3.0593 4.9146 2.3936
2.8878 5.0369 2.3936
2.7119 5.1536 2.3936
2.5316 5.2648 2.3936
2.3472 5.3701 2.3936
2.1587 5.4694 2.3936
0.8164 2.3093 0.9937
0.7329 2.3386 0.9909
0.6485 2.3650 0.9879
0.5631 2.3882 0.9850
0.4770 2.4084 0.9819
0.3901 2.4255 0.9788
0.3027 2.4394 0.9757
0.2149 2.4501 0.9725
0.1267 2.4577 0.9693
0.0383 2.4621 0.9660
-0.0502 2.4633 0.9627
-0.1386 2.4613 0.9594
-0.2270 2.4562 0.9560
-0.3151 2.4478 0.9527
-0.4029 2.4363 0.9493
-0.4901 2.4216 0.9459
-0.5768 2.4037 0.9425
-0.6628 2.3828 0.9391
-0.7480 2.3587 0.9357
-0.8323 2.3316 0.9323
-0.9155 2.3015 0.9289
-2.5800 5.8667 2.3936
-2.7992 5.7945 2.3936
-3.0164 5.7141 2.3936
-3.2312 5.6254 2.3936
-3.4434 5.5287 2.3936
-3.6526 5.4238 2.3936
-3.8585 5.3109 2.3936
-4.0606 5.1901 2.3936
-4.2588 5.0614 2.3936
-4.4527 4.9250 2.3936
-4.6419 4.7809 2.3936
-4.8261 4.6294 2.3936
-5.0050 4.4706 2.3936
-5.1782 4.3047 2.3936
-5.3454 4.1318 2.3936
-5.5064 3.9522 2.3936
-5.6608 3.7660 2.3936
-5.8083 3.5736 2.3936
-5.9486 3.3752 2.3936
-6.0815 3.1710 2.3936
-6.2066 2.9615 2.3936
-6.3238 2.7468 2.3936
-6.4327 2.5270 2.3936
-6.5332 2.3029 2.3936
-6.6249 2.0746 2.3936
-6.7078 1.8426 2.3936
-6.7816 1.6070 2.3936
-6.8461 1.3684 2.3936
-6.9013 1.1271 2.3936
-6.9469 0.8835 2.3936
-6.9829 0.6381 2.3936
-7.0092 0.3911 2.3936
-7.0256 0.1432 2.3936
-7.0322 -0.1055 2.3936
-7.0288 -0.3543 2.3936
-7.0156 -0.6029 2.3936
-6.9924 -0.8509 2.3936
-6.9594 -1.0978 2.3936
-6.9165 -1.3433 2.3936
-6.8639 -1.5868 2.3936
-6.8016 -1.8279 2.3936
-6.7298 -2.0664 2.3936
-6.6486 -2.3017 2.3936
-6.5581 -2.5335 2.3936
-6.4586 -2.7613 2.3936
-6.3501 -2.9848 2.3936
-6.2330 -3.2036 2.3936
-6.1074 -3.4175 2.3936
-5.9736 -3.6259 2.3936
-5.8318 -3.8286 2.3936
-5.6824 -4.0253 2.3936
-5.5256 -4.2157 2.3936
-5.3616 -4.3995 2.3936
-5.1910 -4.5760 2.3936
-5.0138 -4.7460 2.3936
-4.8305 -4.9086 2.3936
-4.6414 -5.0634 2.3936
-4.4469 -5.2106 2.3936
-4.2472 -5.3498 2.3936
-4.0429 -5.4808 2.3936
-3.8341 -5.6036 2.3936
-3.6214 -5.7180 2.3936
-3.4050 -5.8239 2.3936
-3.1853 -5.9213 2.3936
-2.9628 -6.0100 2.3936
-2.7376 -6.0899 2.3936
-2.5104 -6.1612 2.3936
-2.2813 -6.2236 2.3936
-2.0507 -6.2773 2.3936
-6.1517 -2.2385 2.3936
-6.0641 -2.4525 2.3936
-5.9681 -2.6628 2.3936
-5.8640 -2.8689 2.3936
-5.7520 -3.0706 2.3936
-5.6322 -3.2676 2.3936
-5.5050 -3.4595 2.3936
-5.3704 -3.6460 2.3936
-5.2289 -3.8267 2.3936
-5.0806 -4.0017 2.3936
-4.9258 -4.1706 2.3936
-4.7649 -4.3327 2.3936
-4.5980 -4.4884 2.3936
-4.4256 -4.6373 2.3936
-4.2479 -4.7790 2.3936
-4.0653 -4.9135 2.3936
-3.8780 -5.0407 2.3936
-3.6864 -5.1603 2.3936
-3.4908 -5.2722 2.3936
-3.2916 -5.3763 2.3936
-3.0891 -5.4725 2.3936
-2.8836 -5.5608 2.3936
-2.6755 -5.6410 2.3936
-2.4651 -5.7132 2.3936
-2.2527 -5.7772 2.3936
-2.0387 -5.8330 2.3936
-1.8234 -5.8808 2.3936
-1.6072 -5.9203 2.3936
-1.3902 -5.9518 2.3936
-1.1730 -5.9751 2.3936
-0.9557 -5.9904 2.3936
-0.7387 -5.9977 2.3936
-0.5223 -5.9970 2.3936
-0.3068 -5.9886 2.3936
-0.0924 -5.9723 2.3936
0.1206 -5.9484 2.3936
0.3318 -5.9170 2.3936
0.5410 -5.8781 2.3936
0.7481 -5.8320 2.3936
0.9526 -5.7787 2.3936
1.1545 -5.7183 2.3936
1.3534 -5.6510 2.3936
1.5491 -5.5771 2.3936
1.7415 -5.4966 2.3936
1.9303 -5.4096 2.3936
2.1153 -5.3164 2.3936
2.2963 -5.2172 2.3936
2.4732 -5.1121 2.3936
2.6458 -5.0013 2.3936
2.8139 -4.8850 2.3936
2.9774 -4.7633 2.3936
3.1361 -4.6365 2.3936
3.2898 -4.5047 2.3936
3.4386 -4.3682 2.3936
3.5821 -4.2271 2.3936
3.7204 -4.0816 2.3936
3.8533 -3.9320 2.3936
3.9806 -3.7784 2.3936
4.1024 -3.6210 2.3936
4.2185 -3.4600 2.3936
4.3288 -3.2956 2.3936
4.4333 -3.1280 2.3936
4.5319 -2.9574 2.3936
4.6245 -2.7841 2.3936
4.7112 -2.6083 2.3936
4.7916 -2.4298 2.3936
4.8660 -2.2492 2.3936
4.9342 -2.0666 2.3936
4.9962 -1.8822 2.3936
5.0520 -1.6961 2.3936
5.1015 -1.5087 2.3936
5.1446 -1.3199 2.3936
5.1816 -1.1301 2.3936
5.2121 -0.9395 2.3936
5.2364 -0.7481 2.3936
5.2543 -0.5563 2.3936
5.2659 -0.3642 2.3936
5.2712 -0.1720 2.3936
5.2702 0.0202 2.3936
5.2628 0.2121 2.3936
5.2492 0.4036 2.3936
5.2293 0.5944 2.3936
5.2031 0.7845 2.3936
5.1708 0.9736 2.3936
5.1323 1.1615 2.3936
5.0876 1.3481 2.3936
5.0368 1.5331 2.3936
4.9799 1.7165 2.3936
4.9170 1.8980 2.3936
4.8482 2.0774 2.3936
4.7734 2.2546 2.3936
4.6928 2.4294 2.3936
4.6064 2.6016 2.3936
4.5143 2.7711 2.3936
4.4165 2.9376 2.3936
4.3132 3.1011 2.3936
4.2043 3.2612 2.3936
4.0901 3.4179 2.3936
3.9706 3.5703 2.3936
3.8457 3.7204 2.3936
3.7158 3.8657 2.3936
3.5809 4.0070 2.3936
3.4411 4.1439 2.3936
3.2964 4.2764 2.3936
3.1471 4.4043 2.3936
2.9932 4.5275 2.3936
2.8349 4.6457 2.3936
2.6724 4.7587 2.3936
2.5057 4.8666 2.3936
2.3350 4.9690 2.3936
2.1604 5.0659 2.3936
0.8217 2.1379 0.9923
0.7444 2.1676 0.9897
0.6661 2.1944 0.9870
0.5868 2.2184 0.9843
0.5068 2.2395 0.9815
0.4260 2.2577 0.9786
0.3446 2.2730 0.9757
0.2627 2.2854 0.9728
0.1804 2.2948 0.9698
0.0978 2.3012 0.9668
0.0150 2.3046 0.9637
-0.0678 2.3051 0.9606
-0.1506 2.3025 0.9575
-0.2333 2.2970 0.9543
-0.3157 2.2885 0.9512
-0.3977 2.2771 0.9480
-0.4793 2.2626 0.9448
-0.5603 2.2453 0.9416
-0.6406 2.2250 0.9385
-0.7202 2.2019 0.9353
-0.7988 2.1759 0.9321
-0.8765 2.1470 0.9289
-2.4643 5.4697 2.3936
-2.6682 5.3991 2.3936
-2.8701 5.3210 2.3936
-3.0697 5.2352 2.3936
-3.2666 5.1419 2.3936
-3.4605 5.0412 2.3936
-3.6512 4.9329 2.3936
-3.8384 4.8174 2.3936
-4.0216 4.6946 2.3936
-4.2007 4.5646 2.3936
-4.3753 4.4277 2.3936
-4.5451 4.2839 2.3936
-4.7098 4.1334 2.3936
-4.8691 3.9764 2.3936
-5.0228 3.8130 2.3936
-5.1705 3.6435 2.3936
-5.3120 3.4681 2.3936
-5.4470 3.2869 2.3936
-5.5752 3.1003 2.3936
-5.6964 2.9085 2.3936
-5.8104 2.7118 2.3936
-5.9168 2.5103 2.3936
-6.0156 2.3048 2.3936
-6.1065 2.0950 2.3936
-6.1892 1.8814 2.3936
-6.2637 1.6643 2.3936
-6.3297 1.4443 2.3936
-6.3871 1.2216 2.3936
-6.4359 0.9965 2.3936
-6.4757 0.7695 2.3936
-6.5067 0.5408 2.3936
-6.5286 0.3109 2.3936
-6.5414 0.0801 2.3936
-6.5451 -0.1512 2.3936
-6.5397 -0.3825 2.3936
-6.5251 -0.6135 2.3936
-6.5014 -0.8439 2.3936
-6.4685 -1.0732 2.3936
-6.4266 -1.3010 2.3936
-6.3758 -1.5270 2.3936
-6.3160 -1.7507 2.3936
-6.2474 -1.9718 2.3936
-6.1702 -2.1900 2.3936
-6.0845 -2.4048 2.3936
-5.9904 -2.6160 2.3936
-5.8881 -2.8231 2.3936
-5.7778 -3.0258 2.3936
-5.6598 -3.2238 2.3936
-5.5342 -3.4168 2.3936
-5.4012 -3.6046 2.3936
-5.2613 -3.7865 2.3936
-5.1144 -3.9630 2.3936
-4.9611 -4.1331 2.3936
-4.8015 -4.2968 2.3936
-4.6359 -4.4543 2.3936
-4.4648 -4.6045 2.3936
-4.2882 -4.7478 2.3936
-4.1066 -4.8840 2.3936
-3.9204 -5.0128 2.3936
-3.7297 -5.1341 2.3936
-3.5350 -5.2477 2.3936
-3.3366 -5.3536 2.3936
-3.1348 -5.4516 2.3936
-2.9299 -5.5417 2.3936
-2.7224 -5.6237 2.3936
-2.5125 -5.6977 2.3936
-2.3005 -5.7635 2.3936
-2.0868 -5.8212 2.3936
-1.8718 -5.8708 2.3936
-1.6557 -5.9122 2.3936
-1.4389 -5.9454 2.3936
-1.2217 -5.9706 2.3936
-1.0044 -5.9876 2.3936
-0.7874 -5.9967 2.3936
-0.5708 -5.9979 2.3936
-0.3550 -5.9911 2.3936
-0.1404 -5.9766 2.3936
0.0729 -5.9545 2.3936
0.2846 -5.9247 2.3936
0.4943 -5.8875 2.3936
0.7018 -5.8430 2.3936
0.9070 -5.7912 2.3936
1.1094 -5.7324 2.3936
1.3090 -5.6667 2.3936
1.5055 -5.5943 2.3936
1.6986 -5.5152 2.3936
1.8882 -5.4297 2.3936
2.0741 -5.3379 2.3936
2.2561 -5.2400 2.3936
2.4339 -5.1362 2.3936
2.6074 -5.0266 2.3936
2.7766 -4.9115 2.3936
2.9411 -4.7910 2.3936
3.1009 -4.6654 2.3936
3.2558 -4.5347 2.3936
3.4056 -4.3992 2.3936
3.5504 -4.2591 2.3936
3.6898 -4.1146 2.3936
3.8239 -3.9659 2.3936
3.9525 -3.8132 2.3936
4.0756 -3.6566 2.3936
4.1930 -3.4964 2.3936
4.3046 -3.3328 2.3936
4.4104 -3.1659 2.3936
4.5103 -2.9960 2.3936
4.6043 -2.8232 2.3936
4.6922 -2.6478 2.3936
4.7741 -2.4700 2.3936
4.8498 -2.2899 2.3936
4.9194 -2.1077 2.3936
4.9828 -1.9237 2.3936
5.0400 -1.7380 2.3936
5.0909 -1.5508 2.3936
5.1355 -1.3624 2.3936
5.1738 -1.1728 2.3936
5.2058 -0.9823 2.3936
5.2315 -0.7911 2.3936
5.2509 -0.5994 2.3936
5.2639 -0.4073 2.3936
5.2706 -0.2151 2.3936
5.2709 -0.0229 2.3936
5.2650 0.1691 2.3936
5.2528 0.3607 2.3936
5.2343 0.5517 2.3936
5.2096 0.7419 2.3936
5.1786 0.9312 2.3936
5.1414 1.1194 2.3936
5.0981 1.3063 2.3936
5.0487 1.4917 2.3936
4.9932 1.6755 2.3936
4.9316 1.8574 2.3936
4.8641 2.0373 2.3936
4.7907 2.2150 2.3936
4.7114 2.3904 2.3936
4.6263 2.5632 2.3936
4.5354 2.7333 2.3936
4.4389 2.9005 2.3936
4.3368 3.0647 2.3936
4.2292 3.2256 2.3936
4.1162 3.3831 2.3936
3.9978 3.5370 2.3936
3.8742 3.6872 2.3936
3.7454 3.8335 2.3936
3.6116 3.9756 2.3936
3.4728 4.1136 2.3936
3.3292 4.2474 2.3936
3.1810 4.3762 2.3936
3.0282 4.5001 2.3936
2.8708 4.6196 2.3936
2.7092 4.7338 2.3936
2.5434 4.8428 2.3936
2.3736 4.9465 2.3936
2.1999 5.0446 2.3936
0.8389 2.1309 0.9929
0.7619 2.1611 0.9903
0.6838 2.1886 0.9876
0.6047 2.2132 0.9849
0.5248 2.2350 0.9821
0.4442 2.2539 0.9793
0.3629 2.2698 0.9764
0.2811 2.2828 0.9734
0.1989 2.2929 0.9705
0.1163 2.3000 0.9674
0.0336 2.3041 0.9644
-0.0492 2.3052 0.9613
-0.1320 2.3034 0.9582
-0.2147 2.2985 0.9551
-0.2972 2.2907 0.9519
-0.3794 2.2799 0.9487
-0.4610 2.2661 0.9455
-0.5422 2.2494 0.9424
-0.6227 2.2298 0.9392
-0.7024 2.2073 0.9360
-0.7813 2.1819 0.9328
-0.8592 2.1538 0.9296
-0.9360 2.1228 0.9265
-2.6226 5.4156 2.3936
-2.8250 5.3392 2.3936
-3.0251 5.2551 2.3936
-3.2227 5.1635 2.3936
-3.4173 5.0644 2.3936
-3.6088 4.9578 2.3936
-3.7967 4.8439 2.3936
-3.9809 4.7227 2.3936
-4.1609 4.5944 2.3936
-4.3365 4.4590 2.3936
-4.5074 4.3168 2.3936
-4.6733 4.1678 2.3936
-4.8339 4.0122 2.3936
-4.9888 3.8502 2.3936
-5.1379 3.6821 2.3936
-5.2808 3.5079 2.3936
-5.4173 3.3280 2.3936
-5.5470 3.1426 2.3936
-5.6698 2.9520 2.3936
-5.7854 2.7563 2.3936
-5.8936 2.5559 2.3936
-5.9941 2.3512 2.3936
-6.0868 2.1424 2.3936
-6.1714 1.9299 2.3936
-6.2476 1.7127 2.3936
-6.3156 1.4939 2.3936
-6.3750 1.2718 2.3936
-6.4257 1.0472 2.3936
-6.4676 0.8206 2.3936
-6.5005 0.5922 2.3936
-6.5244 0.3625 2.3936
-6.5393 0.1319 2.3936
-6.5451 -0.0992 2.3936
-6.5417 -0.3306 2.3936
-6.5292 -0.5618 2.3936
-6.5075 -0.7923 2.3936
-6.4767 -1.0219 2.3936
-6.4368 -1.2500 2.3936
-6.3880 -1.4764 2.3936
-6.3302 -1.7007 2.3936
-6.2636 -1.9225 2.3936
-6.1883 -2.1413 2.3936
-6.1044 -2.3569 2.3936
-6.0122 -2.5689 2.3936
-5.9117 -2.7770 2.3936
-5.8033 -2.9807 2.3936
-5.6869 -3.1798 2.3936
-5.5630 -3.3740 2.3936
-5.4317 -3.5629 2.3936
-5.2933 -3.7462 2.3936
-5.1480 -3.9238 2.3936
-4.9961 -4.0952 2.3936
-4.8378 -4.2609 2.3936
-4.6736 -4.4194 2.3936
-4.5036 -4.5714 2.3936
-4.3283 -4.7163 2.3936
-4.1478 -4.8541 2.3936
-3.9625 -4.9846 2.3936
-3.7729 -5.1075 2.3936
-3.5790 -5.2229 2.3936
-3.3814 -5.3305 2.3936
-3.1803 -5.4303 2.3936
-2.9762 -5.5222 2.3936
-2.7692 -5.6060 2.3936
-2.5597 -5.6818 2.3936
-2.3482 -5.7494 2.3936
-2.1349 -5.8090 2.3936
-1.9202 -5.8604 2.3936
-5.7474 -2.0903 2.3936
-5.6658 -2.2901 2.3936
-5.5766 -2.4865 2.3936
-5.4798 -2.6788 2.3936
-5.3756 -2.8674 2.3936
-5.2642 -3.0516 2.3936
-5.1458 -3.2310 2.3936
-5.0207 -3.4054 2.3936
-4.8890 -3.5747 2.3936
-4.7510 -3.7385 2.3936
-4.6070 -3.8966 2.3936
-4.4572 -4.0487 2.3936
-4.3019 -4.1947 2.3936
-4.1414 -4.3343 2.3936
-3.9759 -4.4674 2.3936
-3.8057 -4.5938 2.3936
-3.6312 -4.7134 2.3936
-3.4527 -4.8260 2.3936
-3.2703 -4.9314 2.3936
-3.0846 -5.0297 2.3936
-2.8956 -5.1206 2.3936
-2.7039 -5.2041 2.3936
-2.5096 -5.2801 2.3936
-2.3131 -5.3486 2.3936
-2.1147 -5.4096 2.3936
-1.9148 -5.4630 2.3936
-1.7135 -5.5087 2.3936
-1.5112 -5.5469 2.3936
-1.3083 -5.5775 2.3936
-1.1049 -5.6005 2.3936
-0.9015 -5.6159 2.3936
-0.6982 -5.6239 2.3936
-0.4954 -5.6245 2.3936
-0.2933 -5.6177 2.3936
-0.0923 -5.6037 2.3936
0.1075 -5.5824 2.3936
0.3058 -5.5541 2.3936
0.5023 -5.5188 2.3936
0.6968 -5.4766 2.3936
0.8891 -5.4276 2.3936
1.0789 -5.3720 2.3936
1.2660 -5.3099 2.3936
1.4502 -5.2415 2.3936
1.6313 -5.1669 2.3936
1.8091 -5.0861 2.3936
1.9834 -4.9995 2.3936
2.1540 -4.9072 2.3936
2.3208 -4.8092 2.3936
2.4836 -4.7059 2.3936
2.6423 -4.5973 2.3936
2.7966 -4.4836 2.3936
2.9465 -4.3650 2.3936
3.0917 -4.2417 2.3936
3.2323 -4.1139 2.3936
3.3680 -3.9817 2.3936
3.4988 -3.8453 2.3936
3.6245 -3.7049 2.3936
3.7451 -3.5608 2.3936
3.8604 -3.4129 2.3936
3.9704 -3.2617 2.3936
4.0749 -3.1072 2.3936
4.1740 -2.9496 2.3936
4.2675 -2.7893 2.3936
4.3553 -2.6261 2.3936
4.4375 -2.4605 2.3936
4.5139 -2.2925 2.3936
4.5845 -2.1224 2.3936
4.6493 -1.9504 2.3936
4.7082 -1.7765 2.3936
4.7613 -1.6012 2.3936
4.8084 -1.4244 2.3936
4.8495 -1.2464 2.3936
4.8847 -1.0674 2.3936
4.9139 -0.8876 2.3936
4.9371 -0.7071 2.3936
4.9542 -0.5260 2.3936
4.9654 -0.3447 2.3936
4.9706 -0.1633 2.3936
4.9698 0.0181 2.3936
4.9630 0.1993 2.3936
4.9502 0.3800 2.3936
4.9315 0.5602 2.3936
4.9069 0.7396 2.3936
4.8764 0.9181 2.3936
4.8400 1.0955 2.3936
4.7977 1.2716 2.3936
4.7497 1.4464 2.3936
4.6959 1.6194 2.3936
4.6364 1.7907 2.3936
4.5713 1.9600 2.3936
4.5005 2.1272 2.3936
4.4242 2.2920 2.3936
4.3424 2.4544 2.3936
4.2552 2.6142 2.3936
4.1627 2.7712 2.3936
4.0649 2.9252 2.3936
3.9619 3.0761 2.3936
3.8538 3.2238 2.3936
3.7406 3.3679 2.3936
3.6225 3.5084 2.3936
3.4996 3.6452 2.3936
3.3720 3.7780 2.3936
3.2398 3.9068 2.3936
3.1030 4.0313 2.3936
2.9619 4.1513 2.3936
2.8164 4.2669 2.3936
2.6668 4.3777 2.3936
2.5133 4.4837 2.3936
2.3558 4.5847 2.3936
2.1946 4.6805 2.3936
0.8408 1.9764 0.9915
0.7693 2.0068 0.9892
0.6967 2.0346 0.9867
0.6232 2.0597 0.9842
0.5488 2.0822 0.9816
0.4736 2.1021 0.9790
0.3977 2.1192 0.9763
0.3213 2.1335 0.9736
0.2444 2.1451 0.9708
0.1672 2.1539 0.9680
0.0896 2.1599 0.9652
0.0119 2.1632 0.9623
-0.0658 2.1636 0.9594
-0.1436 2.1612 0.9564
-0.2212 2.1560 0.9535
-0.2985 2.1480 0.9505
-0.3756 2.1373 0.9476
-0.4521 2.1237 0.9446
-0.5282 2.1074 0.9416
-0.6036 2.0884 0.9386
-0.6783 2.0667 0.9356
-0.7521 2.0423 0.9326
-0.8250 2.0152 0.9296
-0.8969 1.9856 0.9267
-2.5076 5.0616 2.3936
-2.6964 4.9873 2.3936
-2.8829 4.9059 2.3936
-3.0668 4.8175 2.3936
-3.2479 4.7220 2.3936
-3.4259 4.6197 2.3936
-3.6005 4.5106 2.3936
-3.7714 4.3947 2.3936
-3.9383 4.2722 2.3936
-4.1010 4.1432 2.3936
-4.2591 4.0079 2.3936
-4.4125 3.8663 2.3936
-4.5608 3.7187 2.3936
-4.7037 3.5653 2.3936
-4.8410 3.4061 2.3936
-4.9725 3.2415 2.3936
-5.0979 3.0717 2.3936
-5.2170 2.8967 2.3936
-5.3295 2.7170 2.3936
-5.4352 2.5328 2.3936
-5.5340 2.3443 2.3936
-5.6255 2.1518 2.3936
-5.7097 1.9555 2.3936
-5.7863 1.7559 2.3936
-5.8553 1.5531 2.3936
-5.9164 1.3477 2.3936
-5.9694 1.1394 2.3936
-6.0145 0.9297 2.3936
-6.0511 0.7173 2.3936
-6.0796 0.5037 2.3936
-6.0997 0.2890 2.3936
-6.1113 0.0737 2.3936
-6.1145 -0.1422 2.3936
-6.1092 -0.3581 2.3936
-6.0954 -0.5737 2.3936
-6.0732 -0.7887 2.3936
-6.0425 -1.0026 2.3936
-6.0034 -1.2152 2.3936
-5.9560 -1.4261 2.3936
-5.9003 -1.6349 2.3936
-5.8365 -1.8413 2.3936
-5.7646 -2.0450 2.3936
-5.6848 -2.2456 2.3936
-5.5973 -2.4428 2.3936
-5.5021 -2.6362 2.3936
-5.3996 -2.8256 2.3936
-5.2898 -3.0107 2.3936
-5.1730 -3.1911 2.3936
-5.0493 -3.3669 2.3936
-4.9191 -3.5372 2.3936
-4.7825 -3.7022 2.3936
-4.6398 -3.8616 2.3936
-4.4913 -4.0151 2.3936
-4.3372 -4.1625 2.3936
-4.1778 -4.3036 2.3936
-4.0134 -4.4381 2.3936
-3.8443 -4.5661 2.3936
-3.6707 -4.6872 2.3936
-3.4931 -4.8013 2.3936
-3.3115 -4.9084 2.3936
-3.1265 -5.0083 2.3936
-2.9383 -5.1008 2.3936
-2.7471 -5.1860 2.3936
-2.5534 -5.2637 2.3936
-2.3574 -5.3339 2.3936
-2.1594 -5.3966 2.3936
-1.9597 -5.4516 2.3936
-1.7587 -5.4991 2.3936
-1.5567 -5.5390 2.3936
-1.3539 -5.5713 2.3936
-1.1506 -5.5960 2.3936
-0.9471 -5.6131 2.3936
-0.7438 -5.6228 2.3936
-0.5409 -5.6250 2.3936
-0.3386 -5.6199 2.3936
-0.1373 -5.6075 2.3936
0.0628 -5.5878 2.3936
0.2615 -5.5611 2.3936
0.4584 -5.5273 2.3936
0.6534 -5.4866 2.3936
0.8462 -5.4392 2.3936
1.0365 -5.3850 2.3936
1.2242 -5.3244 2.3936
1.4091 -5.2574 2.3936
1.5909 -5.1842 2.3936
1.7695 -5.1048 2.3936
1.9446 -5.0195 2.3936
2.1161 -4.9284 2.3936
2.2837 -4.8317 2.3936
2.4474 -4.7295 2.3936
2.6070 -4.6221 2.3936
2.7623 -4.5095 2.3936
2.9132 -4.3920 2.3936
3.0596 -4.2698 2.3936
3.2012 -4.1430 2.3936
3.3380 -4.0117 2.3936
3.4699 -3.8763 2.3936
3.5968 -3.7368 2.3936
3.7185 -3.5934 2.3936
3.8350 -3.4464 2.3936
3.9462 -3.2959 2.3936
4.0520 -3.1422 2.3936
4.1523 -2.9853 2.3936
4.2470 -2.8255 2.3936
4.3361 -2.6629 2.3936
4.4195 -2.4978 2.3936
4.4973 -2.3303 2.3936
4.5692 -2.1608 2.3936
4.6353 -1.9891 2.3936
4.6956 -1.8157 2.3936
4.7500 -1.6410 2.3936
4.7983 -1.4642 2.3936
4.8408 -1.2865 2.3936
4.8773 -1.1077 2.3936
4.9078 -0.9280 2.3936
4.9324 -0.7476 2.3936
4.9509 -0.5667 2.3936
4.9634 -0.3854 2.3936
4.9700 -0.2040 2.3936
4.9705 -0.0226 2.3936
4.9650 0.1587 2.3936
4.9536 0.3395 2.3936
4.9362 0.5198 2.3936
4.9129 0.6995 2.3936
4.8837 0.8782 2.3936
4.8486 1.0558 2.3936
4.8077 1.2323 2.3936
4.7610 1.4073 2.3936
4.7085 1.5807 2.3936
4.6503 1.7524 2.3936
4.5864 1.9222 2.3936
4.5169 2.0898 2.3936
4.4418 2.2552 2.3936
4.3613 2.4182 2.3936
4.2753 2.5786 2.3936
4.1839 2.7363 2.3936
4.0873 2.8908 2.3936
3.9854 3.0426 2.3936
3.8784 3.1909 2.3936
3.7664 3.3359 2.3936
3.6495 3.4772 2.3936
3.5276 3.6148 2.3936
3.4010 3.7486 2.3936
3.2698 3.8783 2.3936
3.1341 4.0035 2.3936
2.9939 4.1248 2.3936
2.8494 4.2414 2.3936
2.7007 4.3533 2.3936
2.5481 4.4603 2.3936
2.3914 4.5624 2.3936
2.2311 4.6594 2.3936
0.8567 1.9692 0.9921
0.7855 2.0002 0.9897
0.7131 2.0286 0.9872
0.6398 2.0543 0.9847
0.5655 2.0774 0.9822
0.4905 2.0979 0.9796
0.4148 2.1156 0.9769
0.3385 2.1305 0.9742
0.2617 2.1427 0.9714
0.1845 2.1522 0.9686
0.1070 2.1588 0.9658
0.0294 2.1627 0.9629
-0.0484 2.1637 0.9600
-0.1261 2.1620 0.9571
-0.2038 2.1574 0.9542
-0.2812 2.1501 0.9512
-0.3583 2.1399 0.9482
-0.4350 2.1270 0.9452
-0.5112 2.1113 0.9422
-0.5867 2.0929 0.9392
-0.6616 2.0718 0.9363
-0.7356 2.0480 0.9333
-0.8088 2.0215 0.9303
-0.8809 1.9924 0.9273
-2.4650 5.0773 2.3936
-2.6542 5.0046 2.3936
-2.8412 4.9248 2.3936
-3.0258 4.8379 2.3936
-3.2076 4.7441 2.3936
-3.3863 4.6433 2.3936
-3.5617 4.5356 2.3936
-3.7334 4.4213 2.3936
-3.9012 4.3002 2.3936
-4.0649 4.1727 2.3936
-4.2241 4.0388 2.3936
-4.3785 3.8986 2.3936
-4.5280 3.7524 2.3936
-4.6721 3.6002 2.3936
-4.8107 3.4423 2.3936
-4.9436 3.2789 2.3936
-5.0703 3.1102 2.3936
-5.1909 2.9364 2.3936
-5.3048 2.7578 2.3936
-5.4121 2.5745 2.3936
-5.5124 2.3869 2.3936
-5.6056 2.1953 2.3936
-5.6915 1.9999 2.3936
-5.7698 1.8009 2.3936
-5.8405 1.5991 2.3936
-5.9034 1.3942 2.3936
-5.9582 1.1862 2.3936
-6.0050 0.9766 2.3936
-6.0436 0.7651 2.3936
-6.0739 0.5517 2.3936
-6.0959 0.3373 2.3936
-6.1094 0.1220 2.3936
-6.1145 -0.0937 2.3936
-6.1112 -0.3097 2.3936
-6.0993 -0.5254 2.3936
-6.0789 -0.7405 2.3936
-6.0501 -0.9547 2.3936
-6.0129 -1.1677 2.3936
-5.9673 -1.3789 2.3936
-5.9135 -1.5883 2.3936
-5.8515 -1.7953 2.3936
-5.7814 -1.9996 2.3936
-5.7034 -2.2009 2.3936
-5.6176 -2.3989 2.3936
-5.5241 -2.5932 2.3936
-5.4232 -2.7836 2.3936
-5.3151 -2.9692 2.3936
-5.1998 -3.1509 2.3936
-5.0777 -3.3277 2.3936
-4.9489 -3.4994 2.3936
-4.8137 -3.6659 2.3936
-4.6724 -3.8264 2.3936
-4.5251 -3.9812 2.3936
-4.3723 -4.1300 2.3936
-4.2140 -4.2725 2.3936
-4.0507 -4.4085 2.3936
-3.8826 -4.5379 2.3936
-3.7100 -4.6606 2.3936
-3.5333 -4.7763 2.3936
-3.3526 -4.8850 2.3936
-3.1683 -4.9865 2.3936
-2.9808 -5.0807 2.3936
-2.7903 -5.1675 2.3936
-2.5971 -5.2469 2.3936
-2.4015 -5.3188 2.3936
-2.2040 -5.3832 2.3936
-2.0047 -5.4400 2.3936
-1.8039 -5.4891 2.3936
-5.3871 -1.9580 2.3936
-5.3109 -2.1456 2.3936
-5.2276 -2.3295 2.3936
-5.1372 -2.5098 2.3936
-5.0400 -2.6865 2.3936
-4.9360 -2.8591 2.3936
-4.8255 -3.0274 2.3936
-4.7087 -3.1911 2.3936
-4.5857 -3.3499 2.3936
-4.4569 -3.5037 2.3936
-4.3224 -3.6521 2.3936
-4.1825 -3.7951 2.3936
-4.0375 -3.9324 2.3936
-3.8875 -4.0637 2.3936
-3.7328 -4.1890 2.3936
-3.5738 -4.3081 2.3936
-3.4107 -4.4208 2.3936
-3.2437 -4.5270 2.3936
-3.0731 -4.6266 2.3936
-2.8993 -4.7195 2.3936
-2.7225 -4.8055 2.3936
-2.5430 -4.8847 2.3936
-2.3610 -4.9569 2.3936
-2.1770 -5.0220 2.3936
-1.9911 -5.0801 2.3936
-1.8036 -5.1311 2.3936
-1.6149 -5.1750 2.3936
-1.4251 -5.2118 2.3936
-1.2347 -5.2414 2.3936
-1.0438 -5.2640 2.3936
-0.8528 -5.2795 2.3936
-0.6618 -5.2880 2.3936
-0.4712 -5.2896 2.3936
-0.2813 -5.2842 2.3936
-0.0922 -5.2719 2.3936
0.0958 -5.2529 2.3936
0.2824 -5.2272 2.3936
0.4674 -5.1950 2.3936
0.6506 -5.1562 2.3936
0.8318 -5.1111 2.3936
1.0107 -5.0597 2.3936
1.1871 -5.0021 2.3936
1.3608 -4.9386 2.3936
1.5317 -4.8691 2.3936
1.6996 -4.7939 2.3936
1.8642 -4.7131 2.3936
2.0254 -4.6269 2.3936
2.1830 -4.5353 2.3936
2.3369 -4.4386 2.3936
2.4869 -4.3369 2.3936
2.6329 -4.2304 2.3936
2.7747 -4.1192 2.3936
2.9123 -4.0035 2.3936
3.0454 -3.8834 2.3936
3.1740 -3.7592 2.3936
3.2979 -3.6310 2.3936
3.4171 -3.4990 2.3936
3.5314 -3.3633 2.3936
3.6408 -3.2242 2.3936
3.7452 -3.0817 2.3936
3.8444 -2.9362 2.3936
3.9384 -2.7877 2.3936
4.0272 -2.6364 2.3936
4.1107 -2.4825 2.3936
4.1888 -2.3262 2.3936
4.2614 -2.1677 2.3936
4.3286 -2.0072 2.3936
4.3903 -1.8447 2.3936
4.4463 -1.6803 2.3936
4.4969 -1.5149 2.3936
4.5417 -1.3478 2.3936
4.5810 -1.1796 2.3936
4.6145 -1.0104 2.3936
