ply
format ascii 1.0
element vertex 2174
property float32 x
property float32 y
property float32 z
end_header
3.6345 -4.1682 2.2441
3.7861 -4.0428 2.2441
3.9329 -3.9117 2.2441
4.0748 -3.7749 2.2441
4.2115 -3.6326 2.2441
4.3428 -3.4850 2.2441
4.4685 -3.3324 2.2441
4.5883 -3.1749 2.2441
4.7021 -3.0129 2.2441
4.8096 -2.8464 2.2441
4.9107 -2.6759 2.2441
5.0052 -2.5015 2.2441
5.2187 -2.3810 2.2995
5.5252 -2.2878 2.3965
5.6040 -2.0910 2.3965
5.6752 -1.8913 2.3965
5.7387 -1.6890 2.3965
5.7942 -1.4844 2.3965
5.8419 -1.2778 2.3965
5.8816 -1.0696 2.3965
5.9132 -0.8601 2.3965
5.9367 -0.6496 2.3965
5.9521 -0.4384 2.3965
5.9593 -0.2270 2.3965
5.9584 -0.0155 2.3965
5.9494 0.1956 2.3965
5.9323 0.4060 2.3965
5.9072 0.6155 2.3965
5.8741 0.8235 2.3965
5.8332 1.0300 2.3965
5.7844 1.2346 2.3965
5.7280 1.4369 2.3965
5.6639 1.6366 2.3965
5.5924 1.8335 2.3965
5.5137 2.0272 2.3965
5.4277 2.2176 2.3965
5.3348 2.4042 2.3965
5.2351 2.5870 2.3965
5.1287 2.7655 2.3965
5.0159 2.9396 2.3965
4.8969 3.1091 2.3965
4.7719 3.2736 2.3965
4.6411 3.4331 2.3965
4.5046 3.5873 2.3965
4.3629 3.7360 2.3965
-2.8146 3.9719 2.3965
-2.9522 3.8610 2.3965
-3.0857 3.7455 2.3965
-3.2151 3.6258 2.3965
-3.3402 3.5018 2.3965
-3.4609 3.3739 2.3965
-3.5770 3.2420 2.3965
-3.6885 3.1065 2.3965
-3.7953 2.9673 2.3965
-3.8972 2.8247 2.3965
-3.9942 2.6789 2.3965
-4.0861 2.5300 2.3965
-4.1729 2.3782 2.3965
-4.2544 2.2236 2.3965
-4.3307 2.0663 2.3965
-4.4016 1.9067 2.3965
-4.4671 1.7448 2.3965
-4.5270 1.5808 2.3965
-4.5814 1.4149 2.3965
-4.6302 1.2472 2.3965
-4.6733 1.0780 2.3965
-4.7106 0.9074 2.3965
-4.7422 0.7356 2.3965
-4.7680 0.5627 2.3965
-4.7880 0.3890 2.3965
-4.8020 0.2147 2.3965
-4.8102 0.0398 2.3965
-4.8125 -0.1353 2.3965
-4.8088 -0.3105 2.3965
-4.7993 -0.4857 2.3965
-4.7837 -0.6606 2.3965
-4.7623 -0.8350 2.3965
-4.7349 -1.0088 2.3965
-4.7016 -1.1818 2.3965
-4.6623 -1.3537 2.3965
-4.6173 -1.5245 2.3965
-4.5663 -1.6938 2.3965
-4.5095 -1.8615 2.3965
-4.4469 -2.0275 2.3965
-4.3786 -2.1914 2.3965
-4.3046 -2.3532 2.3965
-4.2250 -2.5126 2.3965
-4.1398 -2.6695 2.3965
-4.0491 -2.8236 2.3965
-3.9529 -2.9748 2.3965
-3.8515 -3.1229 2.3965
-3.7447 -3.2676 2.3965
-3.6328 -3.4088 2.3965
-3.5159 -3.5464 2.3965
-3.3940 -3.6801 2.3965
-3.2672 -3.8098 2.3965
-3.1357 -3.9352 2.3965
-2.9996 -4.0562 2.3965
-2.8591 -4.1726 2.3965
-2.7142 -4.2843 2.3965
-2.5652 -4.3911 2.3965
-2.4122 -4.4928 2.3965
-2.2552 -4.5893 2.3965
-2.0947 -4.6803 2.3965
-1.9306 -4.7658 2.3965
-1.7632 -4.8456 2.3965
-1.5926 -4.9196 2.3965
-1.4192 -4.9876 2.3965
-1.2430 -5.0495 2.3965
-1.0642 -5.1052 2.3965
-0.8832 -5.1546 2.3965
-0.7001 -5.1975 2.3965
-0.5151 -5.2338 2.3965
-0.3285 -5.2635 2.3965
-0.1406 -5.2864 2.3965
0.0485 -5.3026 2.3965
0.2385 -5.3119 2.3965
0.4291 -5.3142 2.3965
0.6201 -5.3095 2.3965
0.8112 -5.2979 2.3965
1.0021 -5.2791 2.3965
1.1926 -5.2533 2.3965
1.3774 -5.2016 2.3879
1.5046 -4.9605 2.2948
1.6470 -4.8069 2.2441
1.8212 -4.7563 2.2441
1.9937 -4.6991 2.2441
2.1643 -4.6353 2.2441
2.3326 -4.5652 2.2441
2.4985 -4.4886 2.2441
2.6616 -4.4057 2.2441
2.8217 -4.3166 2.2441
2.9787 -4.2214 2.2441
3.1321 -4.1202 2.2441
3.2818 -4.0131 2.2441
3.4275 -3.9003 2.2441
3.5690 -3.7819 2.2441
3.7060 -3.6581 2.2441
3.8384 -3.5290 2.2441
3.9658 -3.3948 2.2441
4.0882 -3.2557 2.2441
4.2053 -3.1120 2.2441
4.3169 -2.9637 2.2441
4.4228 -2.8113 2.2441
4.5229 -2.6547 2.2441
4.6277 -2.5002 2.2493
4.8867 -2.4207 2.3309
5.1113 -2.3102 2.3965
5.1915 -2.1284 2.3965
5.2647 -1.9436 2.3965
5.3307 -1.7562 2.3965
5.3895 -1.5663 2.3965
5.4409 -1.3742 2.3965
5.4850 -1.1804 2.3965
5.5215 -0.9851 2.3965
5.5506 -0.7886 2.3965
5.5720 -0.5912 2.3965
5.5859 -0.3932 2.3965
5.5922 -0.1950 2.3965
5.5909 0.0033 2.3965
5.5820 0.2012 2.3965
5.5655 0.3984 2.3965
5.5416 0.5948 2.3965
5.5102 0.7899 2.3965
5.4715 0.9834 2.3965
5.4255 1.1752 2.3965
5.3723 1.3649 2.3965
5.3120 1.5521 2.3965
5.2447 1.7366 2.3965
5.1707 1.9184 2.3965
5.0899 2.0969 2.3965
5.0026 2.2720 2.3965
4.9089 2.4435 2.3965
4.8090 2.6109 2.3965
4.7031 2.7742 2.3965
4.5914 2.9333 2.3965
4.4740 3.0878 2.3965
4.3511 3.2375 2.3965
4.2230 3.3823 2.3965
4.0899 3.5219 2.3965
3.9520 3.6563 2.3965
3.8095 3.7852 2.3965
3.6627 3.9085 2.3965
3.5117 4.0261 2.3965
3.3569 4.1378 2.3965
3.1984 4.2436 2.3965
3.0365 4.3433 2.3965
2.8715 4.4369 2.3965
2.7036 4.5241 2.3965
2.5330 4.6051 2.3965
0.9210 1.8264 0.9353
0.8547 1.8575 0.9376
0.7873 1.8861 0.9398
0.7190 1.9124 0.9421
0.6497 1.9361 0.9444
0.5796 1.9574 0.9467
0.5087 1.9761 0.9489
0.4373 1.9922 0.9512
0.3653 2.0058 0.9534
0.2928 2.0167 0.9557
0.2200 2.0250 0.9579
0.1469 2.0307 0.9601
0.0737 2.0338 0.9622
0.0004 2.0342 0.9644
-0.0728 2.0320 0.9665
-0.1460 2.0271 0.9685
-0.2189 2.0196 0.9706
-0.2915 2.0095 0.9726
-0.3637 1.9967 0.9745
-0.4354 1.9814 0.9764
-0.5065 1.9635 0.9783
-0.5769 1.9430 0.9801
-0.6465 1.9200 0.9819
-0.7152 1.8945 0.9836
-0.7830 1.8666 0.9852
-0.8497 1.8362 0.9868
-2.2192 4.3727 2.3965
-2.3717 4.2812 2.3965
-2.5207 4.1847 2.3965
-2.6662 4.0833 2.3965
-2.8078 3.9772 2.3965
-2.9456 3.8664 2.3965
-3.0794 3.7512 2.3965
-3.2089 3.6317 2.3965
-3.3342 3.5079 2.3965
-3.4551 3.3802 2.3965
-3.5715 3.2485 2.3965
-3.6832 3.1131 2.3965
-3.7902 2.9741 2.3965
-3.8924 2.8317 2.3965
-3.9896 2.6861 2.3965
-4.0817 2.5373 2.3965
-4.1688 2.3856 2.3965
-4.2506 2.2311 2.3965
-4.3271 2.0740 2.3965
-4.3983 1.9145 2.3965
-4.4640 1.7527 2.3965
-4.5243 1.5888 2.3965
-4.5789 1.4229 2.3965
-4.6280 1.2554 2.3965
-4.6713 1.0862 2.3965
-4.7090 0.9157 2.3965
-4.7408 0.7439 2.3965
-4.7669 0.5711 2.3965
-4.7871 0.3975 2.3965
-4.8015 0.2231 2.3965
-4.8100 0.0483 2.3965
-4.8125 -0.1268 2.3965
-4.8092 -0.3021 2.3965
-4.7999 -0.4772 2.3965
-4.7846 -0.6521 2.3965
-4.7634 -0.8266 2.3965
-4.7363 -1.0004 2.3965
-4.7033 -1.1735 2.3965
-4.6644 -1.3454 2.3965
-4.6196 -1.5162 2.3965
-4.5689 -1.6856 2.3965
-4.5124 -1.8534 2.3965
-4.4501 -2.0195 2.3965
-4.3821 -2.1835 2.3965
-4.3083 -2.3454 2.3965
-4.2290 -2.5050 2.3965
-4.1440 -2.6620 2.3965
-4.0536 -2.8162 2.3965
-3.9577 -2.9675 2.3965
-3.8565 -3.1158 2.3965
-3.7500 -3.2607 2.3965
-3.6384 -3.4021 2.3965
-3.5216 -3.5398 2.3965
-3.3999 -3.6737 2.3965
-3.2734 -3.8036 2.3965
-3.1422 -3.9292 2.3965
-3.0063 -4.0505 2.3965
-2.8660 -4.1671 2.3965
-2.7213 -4.2790 2.3965
-2.5725 -4.3861 2.3965
-2.4196 -4.4880 2.3965
-2.2629 -4.5847 2.3965
-2.1025 -4.6760 2.3965
-1.9386 -4.7618 2.3965
-1.7713 -4.8419 2.3965
-1.6010 -4.9162 2.3965
-1.4276 -4.9845 2.3965
-1.2515 -5.0467 2.3965
-1.0729 -5.1027 2.3965
-0.8920 -5.1523 2.3965
-0.7090 -5.1955 2.3965
-0.5241 -5.2322 2.3965
-0.3376 -5.2622 2.3965
-0.1497 -5.2855 2.3965
0.0394 -5.3020 2.3965
0.2293 -5.3116 2.3965
0.4199 -5.3142 2.3965
0.6109 -5.3099 2.3965
0.8019 -5.2986 2.3965
0.9929 -5.2802 2.3965
1.1834 -5.2547 2.3965
1.3713 -5.2147 2.3931
1.4986 -4.9717 2.2990
1.6385 -4.8092 2.2441
1.8128 -4.7589 2.2441
1.9854 -4.7020 2.2441
2.1560 -4.6386 2.2441
2.3245 -4.5687 2.2441
2.4905 -4.4924 2.2441
2.6538 -4.4099 2.2441
2.8141 -4.3211 2.2441
2.9711 -4.2262 2.2441
3.1247 -4.1252 2.2441
3.2746 -4.0184 2.2441
3.4205 -3.9059 2.2441
3.5622 -3.7878 2.2441
3.6995 -3.6642 2.2441
3.8321 -3.5353 2.2441
3.9598 -3.4014 2.2441
4.0824 -3.2626 2.2441
4.1998 -3.1190 2.2441
4.3116 -2.9710 2.2441
4.4178 -2.8187 2.2441
4.5182 -2.6624 2.2441
4.6181 -2.5053 2.2468
4.8730 -2.4243 2.3264
5.1073 -2.3189 2.3965
5.1878 -2.1373 2.3965
5.2613 -1.9526 2.3965
5.3277 -1.7652 2.3965
5.3868 -1.5755 2.3965
5.4386 -1.3836 2.3965
5.4830 -1.1899 2.3965
5.5199 -0.9946 2.3965
5.5493 -0.7982 2.3965
5.5711 -0.6008 2.3965
5.5854 -0.4029 2.3965
5.5920 -0.2046 2.3965
5.5911 -0.0063 2.3965
5.5826 0.1916 2.3965
5.5665 0.3889 2.3965
5.5429 0.5853 2.3965
5.5119 0.7805 2.3965
5.4736 0.9741 2.3965
5.4279 1.1660 2.3965
5.3750 1.3558 2.3965
5.3151 1.5431 2.3965
5.2482 1.7279 2.3965
5.1744 1.9097 2.3965
5.0940 2.0884 2.3965
5.0070 2.2636 2.3965
4.9136 2.4352 2.3965
4.8140 2.6029 2.3965
4.7084 2.7665 2.3965
4.5969 2.9257 2.3965
4.4798 3.0805 2.3965
4.3572 3.2303 2.3965
4.2293 3.3754 2.3965
4.0965 3.5153 2.3965
3.9588 3.6499 2.3965
3.8165 3.7791 2.3965
3.6699 3.9027 2.3965
3.5191 4.0205 2.3965
3.3645 4.1326 2.3965
3.2062 4.2386 2.3965
3.0444 4.3386 2.3965
2.8796 4.4325 2.3965
2.7118 4.5201 2.3965
2.5413 4.6013 2.3965
0.9242 1.8248 0.9352
0.8580 1.8560 0.9375
0.7906 1.8848 0.9397
0.7223 1.9112 0.9420
0.6530 1.9350 0.9443
0.5830 1.9564 0.9466
0.5122 1.9752 0.9488
0.4407 1.9915 0.9511
0.3688 2.0052 0.9533
0.2963 2.0162 0.9556
0.2235 2.0247 0.9578
0.1505 2.0305 0.9600
0.0773 2.0337 0.9621
0.0040 2.0342 0.9643
-0.0693 2.0321 0.9664
-0.1424 2.0274 0.9684
-0.2154 2.0200 0.9705
-0.2880 2.0100 0.9725
-0.3602 1.9974 0.9744
-0.4319 1.9822 0.9763
-0.5030 1.9644 0.9782
-0.5735 1.9440 0.9800
-0.6431 1.9212 0.9818
-0.7119 1.8958 0.9835
-0.7797 1.8680 0.9852
-0.8465 1.8377 0.9868
-2.2118 4.3770 2.3965
-2.3644 4.2858 2.3965
-2.5136 4.1895 2.3965
-2.6592 4.0883 2.3965
-2.8011 3.9824 2.3965
-2.9390 3.8719 2.3965
-3.0730 3.7569 2.3965
-3.2028 3.6376 2.3965
-3.3283 3.5140 2.3965
-3.4494 3.3864 2.3965
-3.5660 3.2550 2.3965
-3.6780 3.1197 2.3965
-3.7852 2.9809 2.3965
-3.8876 2.8387 2.3965
-3.9850 2.6932 2.3965
-4.0774 2.5446 2.3965
-4.1647 2.3930 2.3965
-4.2468 2.2386 2.3965
-4.3236 2.0817 2.3965
-4.3950 1.9222 2.3965
-4.4610 1.7605 2.3965
-4.5215 1.5968 2.3965
-4.5764 1.4310 2.3965
-4.6257 1.2635 2.3965
-4.6693 1.0944 2.3965
-4.7073 0.9239 2.3965
-4.7394 0.7522 2.3965
-4.7658 0.5795 2.3965
-4.7863 0.4059 2.3965
-4.8009 0.2316 2.3965
-4.8097 0.0568 2.3965
-4.8125 -0.1183 2.3965
-4.8095 -0.2936 2.3965
-4.8005 -0.4688 2.3965
-4.7855 -0.6437 2.3965
-4.7646 -0.8182 2.3965
-4.7378 -0.9920 2.3965
-4.7050 -1.1651 2.3965
-4.6664 -1.3372 2.3965
-4.6219 -1.5080 2.3965
-4.5715 -1.6775 2.3965
-4.5152 -1.8454 2.3965
-4.4533 -2.0115 2.3965
-4.3855 -2.1756 2.3965
-4.3120 -2.3376 2.3965
-4.2329 -2.4973 2.3965
-4.1482 -2.6544 2.3965
-4.0581 -2.8088 2.3965
-3.9625 -2.9603 2.3965
-3.8615 -3.1087 2.3965
-3.7553 -3.2537 2.3965
-3.6439 -3.3953 2.3965
-3.5274 -3.5333 2.3965
-3.4060 -3.6673 2.3965
-3.2797 -3.7974 2.3965
-3.1486 -3.9232 2.3965
-3.0130 -4.0447 2.3965
-2.8729 -4.1616 2.3965
-2.7284 -4.2737 2.3965
-2.5798 -4.3810 2.3965
-2.4272 -4.4832 2.3965
-2.2706 -4.5802 2.3965
-2.1103 -4.6717 2.3965
-1.9467 -4.7578 2.3965
-1.7795 -4.8382 2.3965
-1.6093 -4.9127 2.3965
-1.4361 -4.9813 2.3965
-1.2601 -5.0438 2.3965
-1.0816 -5.1001 2.3965
-0.9008 -5.1501 2.3965
-0.7179 -5.1936 2.3965
-0.5331 -5.2306 2.3965
-0.3467 -5.2609 2.3965
-0.1588 -5.2845 2.3965
0.0302 -5.3013 2.3965
0.2201 -5.3113 2.3965
0.4107 -5.3143 2.3965
0.6016 -5.3103 2.3965
0.7927 -5.2993 2.3965
0.9837 -5.2812 2.3965
1.1742 -5.2561 2.3965
1.3641 -5.2239 2.3965
1.4926 -4.9829 2.3033
1.6300 -4.8115 2.2441
1.8061 -4.7660 2.2462
1.9771 -4.7049 2.2441
2.1478 -4.6418 2.2441
2.3164 -4.5722 2.2441
2.4825 -4.4963 2.2441
2.6459 -4.4140 2.2441
2.8064 -4.3255 2.2441
2.9636 -4.2309 2.2441
3.1174 -4.1303 2.2441
3.2674 -4.0237 2.2441
3.4135 -3.9115 2.2441
3.5554 -3.7936 2.2441
3.6929 -3.6703 2.2441
3.8258 -3.5417 2.2441
3.9537 -3.4080 2.2441
4.0766 -3.2694 2.2441
4.1942 -3.1261 2.2441
4.3063 -2.9783 2.2441
4.4128 -2.8262 2.2441
4.5134 -2.6700 2.2441
4.6086 -2.5103 2.2443
4.8594 -2.4279 2.3219
5.1032 -2.3276 2.3965
5.1841 -2.1461 2.3965
5.2579 -1.9616 2.3965
5.3246 -1.7744 2.3965
5.3841 -1.5847 2.3965
5.4363 -1.3929 2.3965
5.4810 -1.1992 2.3965
5.5183 -1.0041 2.3965
5.5481 -0.8077 2.3965
5.5703 -0.6104 2.3965
5.5849 -0.4124 2.3965
5.5919 -0.2142 2.3965
5.5913 -0.0159 2.3965
5.5831 0.1820 2.3965
5.5675 0.3794 2.3965
5.5443 0.5758 2.3965
5.5136 0.7711 2.3965
5.4756 0.9648 2.3965
5.4303 1.1567 2.3965
5.3777 1.3466 2.3965
5.3182 1.5341 2.3965
5.2516 1.7191 2.3965
5.1781 1.9010 2.3965
5.0980 2.0798 2.3965
5.0113 2.2552 2.3965
4.9183 2.4270 2.3965
4.8190 2.5949 2.3965
4.7136 2.7586 2.3965
4.6024 2.9181 2.3965
4.4856 3.0730 2.3965
4.3632 3.2232 2.3965
4.2356 3.3685 2.3965
4.1030 3.5086 2.3965
-2.6597 3.7574 2.3965
-2.7901 3.6527 2.3965
-2.9167 3.5437 2.3965
-3.0393 3.4305 2.3965
-3.1579 3.3134 2.3965
-3.2723 3.1925 2.3965
-3.3824 3.0678 2.3965
-3.4882 2.9396 2.3965
-3.5894 2.8080 2.3965
-3.6860 2.6732 2.3965
-3.7779 2.5352 2.3965
-3.8651 2.3943 2.3965
-3.9474 2.2506 2.3965
-4.0247 2.1042 2.3965
-4.0970 1.9554 2.3965
-4.1642 1.8043 2.3965
-4.2262 1.6510 2.3965
-4.2830 1.4957 2.3965
-4.3345 1.3386 2.3965
-4.3807 1.1798 2.3965
-4.4214 1.0196 2.3965
-4.4568 0.8580 2.3965
-4.4866 0.6953 2.3965
-4.5109 0.5317 2.3965
-4.5297 0.3672 2.3965
-4.5429 0.2021 2.3965
-4.5505 0.0366 2.3965
-4.5525 -0.1292 2.3965
-4.5489 -0.2951 2.3965
-4.5396 -0.4609 2.3965
-4.5247 -0.6265 2.3965
-4.5041 -0.7916 2.3965
-4.4780 -0.9560 2.3965
-4.4461 -1.1197 2.3965
-4.4087 -1.2823 2.3965
-4.3658 -1.4438 2.3965
-4.3173 -1.6039 2.3965
-4.2632 -1.7625 2.3965
-4.2036 -1.9194 2.3965
-4.1387 -2.0743 2.3965
-4.0683 -2.2272 2.3965
-3.9927 -2.3778 2.3965
-3.9117 -2.5260 2.3965
-3.8256 -2.6715 2.3965
-3.7343 -2.8142 2.3965
-3.6379 -2.9539 2.3965
-3.5367 -3.0905 2.3965
-3.4305 -3.2237 2.3965
-3.3195 -3.3533 2.3965
-3.2039 -3.4793 2.3965
-3.0838 -3.6015 2.3965
-2.9592 -3.7196 2.3965
-2.8302 -3.8335 2.3965
-2.6971 -3.9430 2.3965
-2.5600 -4.0481 2.3965
-2.4189 -4.1484 2.3965
-2.2740 -4.2439 2.3965
-2.1256 -4.3345 2.3965
-1.9737 -4.4199 2.3965
-1.8186 -4.5000 2.3965
-1.6603 -4.5748 2.3965
-1.4992 -4.6440 2.3965
-1.3353 -4.7076 2.3965
-1.1688 -4.7654 2.3965
-1.0001 -4.8173 2.3965
-0.8292 -4.8632 2.3965
-0.6564 -4.9030 2.3965
-0.4818 -4.9366 2.3965
-0.3059 -4.9640 2.3965
-0.1286 -4.9850 2.3965
0.0497 -4.9995 2.3965
0.2287 -5.0076 2.3965
0.4083 -5.0092 2.3965
0.5883 -5.0042 2.3965
0.7682 -4.9926 2.3965
0.9480 -4.9743 2.3965
1.1273 -4.9494 2.3965
1.3059 -4.9178 2.3965
1.4836 -4.8796 2.3965
1.6215 -4.7225 2.3409
1.7431 -4.5436 2.2764
1.8805 -4.4247 2.2441
2.0409 -4.3642 2.2441
2.1991 -4.2977 2.2441
2.3550 -4.2252 2.2441
2.5083 -4.1468 2.2441
2.6587 -4.0626 2.2441
2.8061 -3.9727 2.2441
2.9502 -3.8771 2.2441
3.0908 -3.7761 2.2441
3.2276 -3.6697 2.2441
3.3604 -3.5580 2.2441
3.4890 -3.4414 2.2441
3.6133 -3.3197 2.2441
3.7329 -3.1934 2.2441
3.8478 -3.0624 2.2441
3.9577 -2.9271 2.2441
4.0624 -2.7876 2.2441
4.1649 -2.6461 2.2458
4.3594 -2.5577 2.2987
4.5893 -2.4785 2.3708
4.7271 -2.3408 2.3965
4.8089 -2.1729 2.3965
4.8842 -2.0020 2.3965
4.9529 -1.8283 2.3965
5.0149 -1.6520 2.3965
5.0702 -1.4735 2.3965
5.1186 -1.2931 2.3965
5.1600 -1.1109 2.3965
5.1945 -0.9273 2.3965
5.2219 -0.7426 2.3965
5.2422 -0.5571 2.3965
5.2554 -0.3710 2.3965
5.2615 -0.1846 2.3965
5.2605 0.0018 2.3965
5.2524 0.1878 2.3965
5.2372 0.3733 2.3965
5.2150 0.5580 2.3965
5.1858 0.7415 2.3965
5.1497 0.9236 2.3965
5.1068 1.1040 2.3965
5.0571 1.2825 2.3965
5.0008 1.4587 2.3965
4.9380 1.6325 2.3965
4.8687 1.8037 2.3965
4.7932 1.9718 2.3965
4.7115 2.1367 2.3965
4.6238 2.2982 2.3965
4.5302 2.4560 2.3965
4.4310 2.6101 2.3965
4.3262 2.7601 2.3965
4.2162 2.9058 2.3965
4.1010 3.0471 2.3965
3.9808 3.1838 2.3965
3.8559 3.3157 2.3965
3.7265 3.4427 2.3965
3.5927 3.5646 2.3965
3.4548 3.6812 2.3965
3.3130 3.7925 2.3965
3.1675 3.8983 2.3965
3.0185 3.9985 2.3965
2.8663 4.0930 2.3965
2.7111 4.1817 2.3965
2.5531 4.2645 2.3965
0.9319 1.6911 0.9335
0.8705 1.7226 0.9356
0.8079 1.7519 0.9377
0.7443 1.7790 0.9399
0.6798 1.8037 0.9420
0.6144 1.8261 0.9442
0.5483 1.8462 0.9463
0.4815 1.8638 0.9485
0.4140 1.8790 0.9506
0.3461 1.8918 0.9527
0.2778 1.9021 0.9548
0.2091 1.9100 0.9569
0.1401 1.9153 0.9590
0.0711 1.9182 0.9610
0.0019 1.9186 0.9630
-0.0672 1.9165 0.9650
-0.1362 1.9119 0.9670
-0.2050 1.9048 0.9689
-0.2735 1.8952 0.9708
-0.3416 1.8832 0.9726
-0.4092 1.8688 0.9744
-0.4763 1.8519 0.9762
-0.5427 1.8325 0.9779
-0.6084 1.8109 0.9795
-0.6732 1.7868 0.9812
-0.7371 1.7604 0.9827
-0.8001 1.7318 0.9842
-0.8619 1.7009 0.9857
-2.2401 4.0492 2.3965
-2.3813 3.9582 2.3965
-2.5191 3.8625 2.3965
-2.6533 3.7624 2.3965
-2.7839 3.6578 2.3965
-2.9107 3.5490 2.3965
-3.0335 3.4361 2.3965
-3.1523 3.3192 2.3965
-3.2669 3.1984 2.3965
-3.3772 3.0740 2.3965
-3.4832 2.9459 2.3965
-3.5846 2.8145 2.3965
-3.6814 2.6798 2.3965
-3.7736 2.5420 2.3965
-3.8610 2.4012 2.3965
-3.9435 2.2576 2.3965
-4.0211 2.1114 2.3965
-4.0936 1.9627 2.3965
-4.1610 1.8116 2.3965
-4.2233 1.6584 2.3965
-4.2804 1.5033 2.3965
-4.3321 1.3462 2.3965
-4.3786 1.1876 2.3965
-4.4196 1.0274 2.3965
-4.4552 0.8659 2.3965
-4.4853 0.7032 2.3965
-4.5099 0.5396 2.3965
-4.5289 0.3752 2.3965
-4.5424 0.2101 2.3965
-4.5503 0.0446 2.3965
-4.5526 -0.1212 2.3965
-4.5492 -0.2871 2.3965
-4.5402 -0.4529 2.3965
-4.5255 -0.6185 2.3965
-4.5053 -0.7836 2.3965
-4.4793 -0.9481 2.3965
-4.4478 -1.1118 2.3965
-4.4107 -1.2745 2.3965
-4.3680 -1.4360 2.3965
-4.3198 -1.5962 2.3965
-4.2659 -1.7549 2.3965
-4.2066 -1.9118 2.3965
-4.1420 -2.0669 2.3965
-4.0718 -2.2199 2.3965
-3.9964 -2.3706 2.3965
-3.9157 -2.5189 2.3965
-3.8298 -2.6645 2.3965
-3.7388 -2.8074 2.3965
-3.6427 -2.9472 2.3965
-3.5416 -3.0839 2.3965
-3.4357 -3.2173 2.3965
-3.3250 -3.3472 2.3965
-3.2096 -3.4733 2.3965
-3.0897 -3.5957 2.3965
-2.9653 -3.7140 2.3965
-2.8365 -3.8281 2.3965
-2.7037 -3.9378 2.3965
-2.5667 -4.0431 2.3965
-2.4258 -4.1437 2.3965
-2.2811 -4.2394 2.3965
-2.1329 -4.3302 2.3965
-1.9812 -4.4159 2.3965
-1.8262 -4.4963 2.3965
-1.6681 -4.5713 2.3965
-1.5070 -4.6408 2.3965
-1.3433 -4.7046 2.3965
-1.1769 -4.7627 2.3965
-1.0083 -4.8149 2.3965
-0.8375 -4.8611 2.3965
-0.6648 -4.9012 2.3965
-0.4903 -4.9351 2.3965
-0.3144 -4.9628 2.3965
-0.1372 -4.9841 2.3965
0.0410 -4.9990 2.3965
0.2201 -5.0074 2.3965
0.3996 -5.0093 2.3965
0.5795 -5.0046 2.3965
0.7595 -4.9933 2.3965
0.9393 -4.9753 2.3965
1.1186 -4.9507 2.3965
1.2973 -4.9195 2.3965
1.4750 -4.8816 2.3965
1.6155 -4.7314 2.3442
1.7374 -4.5520 2.2794
1.8727 -4.4275 2.2441
2.0332 -4.3673 2.2441
2.1915 -4.3011 2.2441
2.3475 -4.2289 2.2441
2.5009 -4.1508 2.2441
2.6515 -4.0668 2.2441
2.7991 -3.9772 2.2441
2.9433 -3.8819 2.2441
3.0840 -3.7811 2.2441
3.2210 -3.6750 2.2441
3.3541 -3.5636 2.2441
3.4829 -3.4471 2.2441
3.6074 -3.3257 2.2441
3.7273 -3.1996 2.2441
3.8424 -3.0689 2.2441
3.9525 -2.9338 2.2441
4.0575 -2.7945 2.2441
4.1571 -2.6512 2.2441
4.3489 -2.5616 2.2956
4.5775 -2.4823 2.3669
4.7230 -2.3489 2.3965
4.8050 -2.1811 2.3965
4.8807 -2.0103 2.3965
4.9497 -1.8367 2.3965
5.0121 -1.6606 2.3965
5.0677 -1.4822 2.3965
5.1164 -1.3019 2.3965
5.1582 -1.1198 2.3965
5.1929 -0.9363 2.3965
5.2207 -0.7516 2.3965
5.2413 -0.5661 2.3965
5.2549 -0.3800 2.3965
5.2613 -0.1936 2.3965
5.2607 -0.0072 2.3965
5.2529 0.1789 2.3965
5.2381 0.3644 2.3965
5.2162 0.5491 2.3965
5.1874 0.7327 2.3965
5.1516 0.9148 2.3965
5.1090 1.0953 2.3965
5.0597 1.2739 2.3965
5.0037 1.4503 2.3965
4.9412 1.6242 2.3965
4.8722 1.7954 2.3965
4.7970 1.9637 2.3965
4.7156 2.1288 2.3965
4.6281 2.2905 2.3965
4.5349 2.4485 2.3965
4.4359 2.6028 2.3965
4.3314 2.7530 2.3965
4.2216 2.8989 2.3965
4.1067 3.0404 2.3965
3.9868 3.1773 2.3965
3.8621 3.3095 2.3965
3.7328 3.4367 2.3965
3.5993 3.5588 2.3965
3.4616 3.6757 2.3965
3.3199 3.7872 2.3965
3.1746 3.8933 2.3965
3.0258 3.9938 2.3965
2.8737 4.0885 2.3965
2.7187 4.1775 2.3965
2.5608 4.2607 2.3965
0.9349 1.6895 0.9334
0.8735 1.7211 0.9355
0.8110 1.7506 0.9376
0.7474 1.7777 0.9398
0.6830 1.8026 0.9419
0.6176 1.8251 0.9441
0.5515 1.8452 0.9462
0.4847 1.8630 0.9484
0.4173 1.8783 0.9505
0.3494 1.8912 0.9526
0.2811 1.9017 0.9547
0.2124 1.9096 0.9568
0.1435 1.9151 0.9589
0.0744 1.9181 0.9609
0.0053 1.9186 0.9629
-0.0639 1.9166 0.9649
-0.1329 1.9122 0.9669
-0.2017 1.9052 0.9688
-0.2702 1.8958 0.9707
-0.3383 1.8839 0.9725
-0.4060 1.8695 0.9743
-0.4730 1.8527 0.9761
-0.5395 1.8335 0.9778
-0.6052 1.8120 0.9795
-0.6701 1.7880 0.9811
-0.7341 1.7618 0.9826
-0.7971 1.7332 0.9842
-0.8590 1.7024 0.9856
-2.2332 4.0535 2.3965
-2.3745 3.9627 2.3965
-2.5125 3.8673 2.3965
-2.6469 3.7673 2.3965
-2.7777 3.6630 2.3965
-2.9046 3.5544 2.3965
-3.0276 3.4417 2.3965
-3.1466 3.3249 2.3965
-3.2614 3.2044 2.3965
-3.3720 3.0801 2.3965
-3.4781 2.9522 2.3965
-3.5798 2.8209 2.3965
-3.6769 2.6864 2.3965
-3.7693 2.5487 2.3965
-3.8569 2.4081 2.3965
-3.9396 2.2646 2.3965
-4.0174 2.1185 2.3965
-4.0902 1.9699 2.3965
-4.1579 1.8190 2.3965
-4.2204 1.6659 2.3965
-4.2777 1.5108 2.3965
-4.3298 1.3539 2.3965
-4.3764 1.1953 2.3965
-4.4177 1.0352 2.3965
-4.4536 0.8737 2.3965
-4.4840 0.7111 2.3965
-4.5088 0.5475 2.3965
-4.5281 0.3831 2.3965
-4.5419 0.2181 2.3965
-4.5500 0.0526 2.3965
-4.5526 -0.1132 2.3965
-4.5495 -0.2791 2.3965
-4.5407 -0.4449 2.3965
-4.5264 -0.6105 2.3965
-4.5064 -0.7756 2.3965
-4.4807 -0.9401 2.3965
-4.4495 -1.1039 2.3965
-4.4126 -1.2666 2.3965
-4.3702 -1.4282 2.3965
-4.3222 -1.5885 2.3965
-4.2686 -1.7472 2.3965
-4.2096 -1.9043 2.3965
-4.1452 -2.0594 2.3965
-4.0754 -2.2125 2.3965
-4.0002 -2.3633 2.3965
-3.9198 -2.5117 2.3965
-3.8341 -2.6575 2.3965
-3.7433 -2.8005 2.3965
-3.6475 -2.9405 2.3965
-3.5467 -3.0774 2.3965
-3.4410 -3.2109 2.3965
-3.3305 -3.3410 2.3965
-3.2154 -3.4673 2.3965
-3.0956 -3.5898 2.3965
-2.9714 -3.7083 2.3965
-2.8429 -3.8226 2.3965
-2.7102 -3.9326 2.3965
-2.5734 -4.0381 2.3965
-2.4327 -4.1389 2.3965
-2.2883 -4.2349 2.3965
-2.1401 -4.3259 2.3965
-1.9886 -4.4118 2.3965
-1.8337 -4.4925 2.3965
-1.6758 -4.5678 2.3965
-1.5149 -4.6376 2.3965
-1.3512 -4.7017 2.3965
-1.1850 -4.7600 2.3965
-1.0165 -4.8125 2.3965
-0.8458 -4.8590 2.3965
-0.6732 -4.8994 2.3965
-0.4988 -4.9336 2.3965
-0.3230 -4.9616 2.3965
-0.1458 -4.9832 2.3965
0.0324 -4.9984 2.3965
0.2114 -5.0071 2.3965
0.3909 -5.0093 2.3965
0.5708 -5.0050 2.3965
0.7508 -4.9940 2.3965
0.9306 -4.9763 2.3965
1.1100 -4.9521 2.3965
1.2887 -4.9211 2.3965
1.4665 -4.8835 2.3965
1.6094 -4.7404 2.3475
1.7316 -4.5605 2.2824
1.8649 -4.4302 2.2441
2.0254 -4.3703 2.2441
2.1839 -4.3044 2.2441
2.3400 -4.2325 2.2441
2.4936 -4.1547 2.2441
2.6443 -4.0710 2.2441
2.7920 -3.9816 2.2441
2.9364 -3.8866 2.2441
3.0773 -3.7861 2.2441
3.2145 -3.6802 2.2441
3.3477 -3.5691 2.2441
3.4768 -3.4529 2.2441
3.6015 -3.3317 2.2441
3.7216 -3.2058 2.2441
3.8369 -3.0753 2.2441
3.9473 -2.9404 2.2441
4.0525 -2.8013 2.2441
4.1524 -2.6582 2.2441
4.3385 -2.5655 2.2925
4.5658 -2.4861 2.3631
4.7188 -2.3569 2.3965
4.8012 -2.1893 2.3965
4.8772 -2.0187 2.3965
4.9465 -1.8452 2.3965
5.0092 -1.6692 2.3965
5.0651 -1.4909 2.3965
5.1142 -1.3106 2.3965
5.1563 -1.1286 2.3965
5.1914 -0.9452 2.3965
5.2195 -0.7606 2.3965
5.2405 -0.5751 2.3965
5.2544 -0.3890 2.3965
5.2612 -0.2026 2.3965
5.2609 -0.0162 2.3965
5.2535 0.1699 2.3965
5.2390 0.3554 2.3965
5.2174 0.5402 2.3965
5.1889 0.7238 2.3965
5.1535 0.9060 2.3965
5.1113 1.0868 2.3965
5.0622 1.2653 2.3965
5.0066 1.4418 2.3965
4.9444 1.6158 2.3965
4.8757 1.7872 2.3965
4.8008 1.9556 2.3965
4.7196 2.1209 2.3965
4.6325 2.2827 2.3965
4.5395 2.4410 2.3965
4.4408 2.5954 2.3965
4.3366 2.7458 2.3965
4.2271 2.8919 2.3965
4.1123 3.0337 2.3965
3.9927 3.1708 2.3965
3.8682 3.3032 2.3965
-2.5177 3.5607 2.3965
-2.6415 3.4616 2.3965
-2.7616 3.3585 2.3965
-2.8781 3.2514 2.3965
-2.9907 3.1406 2.3965
-3.0993 3.0260 2.3965
-3.2039 2.9080 2.3965
-3.3043 2.7865 2.3965
-3.4004 2.6618 2.3965
-3.4922 2.5340 2.3965
-3.5795 2.4033 2.3965
-3.6622 2.2697 2.3965
-3.7403 2.1334 2.3965
-3.8137 1.9947 2.3965
-3.8824 1.8536 2.3965
-3.9462 1.7102 2.3965
-4.0050 1.5649 2.3965
-4.0589 1.4176 2.3965
-4.1078 1.2686 2.3965
-4.1516 1.1180 2.3965
-4.1902 0.9660 2.3965
-4.2237 0.8127 2.3965
-4.2519 0.6584 2.3965
-4.2749 0.5032 2.3965
-4.2926 0.3472 2.3965
-4.3051 0.1906 2.3965
-4.3121 0.0336 2.3965
-4.3139 -0.1237 2.3965
-4.3103 -0.2810 2.3965
-4.3013 -0.4382 2.3965
-4.2870 -0.5952 2.3965
-4.2673 -0.7517 2.3965
-4.2422 -0.9076 2.3965
-4.2118 -1.0627 2.3965
-4.1761 -1.2168 2.3965
-4.1351 -1.3698 2.3965
-4.0889 -1.5215 2.3965
-4.0373 -1.6718 2.3965
-3.9806 -1.8203 2.3965
-3.9187 -1.9670 2.3965
-3.8518 -2.1118 2.3965
-3.7797 -2.2543 2.3965
-3.7027 -2.3945 2.3965
-3.6208 -2.5321 2.3965
-3.5340 -2.6671 2.3965
-3.4424 -2.7992 2.3965
-3.3462 -2.9283 2.3965
-3.2453 -3.0542 2.3965
-3.1398 -3.1767 2.3965
-3.0301 -3.2956 2.3965
-2.9160 -3.4109 2.3965
-2.7978 -3.5224 2.3965
-2.6754 -3.6298 2.3965
-2.5491 -3.7331 2.3965
-2.4190 -3.8321 2.3965
-2.2852 -3.9266 2.3965
-2.1479 -4.0166 2.3965
-2.0072 -4.1018 2.3965
-1.8633 -4.1821 2.3965
-1.7164 -4.2574 2.3965
-1.5665 -4.3276 2.3965
-1.4139 -4.3926 2.3965
-1.2587 -4.4522 2.3965
-1.1012 -4.5063 2.3965
-0.9416 -4.5548 2.3965
-0.7799 -4.5976 2.3965
-0.6165 -4.6347 2.3965
-0.4515 -4.6659 2.3965
-0.2852 -4.6912 2.3965
-0.1177 -4.7105 2.3965
0.0507 -4.7237 2.3965
0.2198 -4.7308 2.3965
0.3894 -4.7317 2.3965
0.5593 -4.7264 2.3965
0.7291 -4.7149 2.3965
0.8988 -4.6971 2.3965
1.0680 -4.6731 2.3965
1.2364 -4.6428 2.3965
1.4040 -4.6062 2.3965
1.5703 -4.5634 2.3965
1.7353 -4.5143 2.3965
1.8551 -4.3571 2.3417
1.9746 -4.2156 2.2972
2.0912 -4.0807 2.2583
2.2248 -3.9863 2.2441
2.3692 -3.9120 2.2441
2.5109 -3.8322 2.2441
2.6516 -3.7499 2.2458
2.7853 -3.6567 2.2441
2.9176 -3.5612 2.2441
3.0463 -3.4606 2.2441
3.1719 -3.3557 2.2445
3.2924 -3.2449 2.2441
3.4093 -3.1301 2.2441
3.5219 -3.0109 2.2441
3.6300 -2.8873 2.2441
3.7785 -2.7930 2.2712
3.9480 -2.7077 2.3120
4.1317 -2.6238 2.3620
4.2864 -2.5138 2.3965
4.3751 -2.3620 2.3965
4.4580 -2.2069 2.3965
4.5350 -2.0486 2.3965
4.6058 -1.8875 2.3965
4.6705 -1.7239 2.3965
4.7290 -1.5578 2.3965
4.7811 -1.3896 2.3965
4.8267 -1.2196 2.3965
4.8658 -1.0480 2.3965
4.8983 -0.8750 2.3965
4.9242 -0.7010 2.3965
4.9435 -0.5262 2.3965
4.9561 -0.3508 2.3965
4.9620 -0.1752 2.3965
4.9612 0.0004 2.3965
4.9538 0.1758 2.3965
4.9397 0.3506 2.3965
4.9190 0.5247 2.3965
4.8918 0.6977 2.3965
4.8581 0.8694 2.3965
4.8179 1.0395 2.3965
4.7714 1.2078 2.3965
4.7187 1.3741 2.3965
4.6598 1.5381 2.3965
4.5948 1.6994 2.3965
4.5240 1.8582 2.3965
4.4473 2.0139 2.3965
4.3650 2.1664 2.3965
4.2771 2.3156 2.3965
4.1839 2.4610 2.3965
4.0855 2.6028 2.3965
3.9821 2.7406 2.3965
3.8738 2.8742 2.3965
3.7608 3.0035 2.3965
3.6433 3.1284 2.3965
3.5215 3.2486 2.3965
3.3956 3.3640 2.3965
3.2657 3.4745 2.3965
3.1322 3.5800 2.3965
2.9951 3.6803 2.3965
2.8548 3.7754 2.3965
2.7113 3.8651 2.3965
2.5650 3.9494 2.3965
0.9395 1.5663 0.9319
0.8825 1.5982 0.9339
0.8244 1.6280 0.9359
0.7652 1.6557 0.9379
0.7051 1.6813 0.9399
0.6441 1.7047 0.9420
0.5823 1.7258 0.9440
0.5198 1.7448 0.9460
0.4566 1.7614 0.9481
0.3929 1.7758 0.9501
0.3287 1.7879 0.9521
0.2640 1.7976 0.9541
0.1991 1.8050 0.9560
0.1339 1.8101 0.9580
0.0686 1.8128 0.9599
0.0033 1.8132 0.9618
-0.0621 1.8112 0.9637
-0.1273 1.8068 0.9655
-0.1923 1.8001 0.9673
-0.2571 1.7911 0.9691
-0.3214 1.7797 0.9709
-0.3854 1.7661 0.9726
-0.4487 1.7501 0.9742
-0.5115 1.7318 0.9758
-0.5736 1.7113 0.9774
-0.6349 1.6886 0.9789
-0.6953 1.6637 0.9804
-0.7548 1.6366 0.9818
-0.8133 1.6074 0.9832
-0.8707 1.5761 0.9845
-2.2534 3.7505 2.3965
-2.3842 3.6601 2.3965
-2.5116 3.5654 2.3965
-2.6356 3.4665 2.3965
-2.7559 3.3636 2.3965
-2.8725 3.2567 2.3965
-2.9853 3.1460 2.3965
-3.0942 3.0317 2.3965
-3.1989 2.9138 2.3965
-3.2995 2.7925 2.3965
-3.3958 2.6680 2.3965
-3.4878 2.5403 2.3965
-3.5753 2.4097 2.3965
-3.6583 2.2762 2.3965
-3.7367 2.1401 2.3965
-3.8103 2.0015 2.3965
-3.8792 1.8604 2.3965
-3.9432 1.7172 2.3965
-4.0023 1.5719 2.3965
-4.0564 1.4247 2.3965
-4.1055 1.2758 2.3965
-4.1496 1.1253 2.3965
-4.1885 0.9734 2.3965
-4.2222 0.8202 2.3965
-4.2507 0.6659 2.3965
-4.2739 0.5107 2.3965
-4.2919 0.3547 2.3965
-4.3046 0.1982 2.3965
-4.3119 0.0412 2.3965
-4.3139 -0.1161 2.3965
-4.3106 -0.2734 2.3965
-4.3019 -0.4306 2.3965
-4.2878 -0.5876 2.3965
-4.2683 -0.7441 2.3965
-4.2436 -0.9000 2.3965
-4.2134 -1.0552 2.3965
-4.1780 -1.2094 2.3965
-4.1372 -1.3625 2.3965
-4.0912 -1.5142 2.3965
-4.0400 -1.6645 2.3965
-3.9835 -1.8132 2.3965
-3.9219 -1.9600 2.3965
-3.8551 -2.1048 2.3965
-3.7834 -2.2474 2.3965
-3.7066 -2.3877 2.3965
-3.6249 -2.5255 2.3965
-3.5383 -2.6606 2.3965
-3.4470 -2.7929 2.3965
-3.3509 -2.9221 2.3965
-3.2502 -3.0481 2.3965
-3.1451 -3.1708 2.3965
-3.0355 -3.2900 2.3965
-2.9216 -3.4055 2.3965
-2.8035 -3.5171 2.3965
-2.6814 -3.6247 2.3965
-2.5553 -3.7282 2.3965
-2.4254 -3.8274 2.3965
-2.2917 -3.9222 2.3965
-2.1546 -4.0123 2.3965
-2.0141 -4.0978 2.3965
-1.8704 -4.1783 2.3965
-1.7236 -4.2539 2.3965
-1.5738 -4.3243 2.3965
-1.4213 -4.3896 2.3965
-1.2663 -4.4494 2.3965
-1.1089 -4.5038 2.3965
-0.9494 -4.5526 2.3965
-0.7878 -4.5957 2.3965
-0.6245 -4.6330 2.3965
-0.4596 -4.6645 2.3965
-0.2933 -4.6901 2.3965
-0.1258 -4.7097 2.3965
0.0426 -4.7232 2.3965
0.2116 -4.7306 2.3965
0.3812 -4.7318 2.3965
0.5511 -4.7268 2.3965
0.7209 -4.7156 2.3965
0.8906 -4.6981 2.3965
1.0598 -4.6744 2.3965
1.2283 -4.6444 2.3965
1.3959 -4.6081 2.3965
1.5623 -4.5656 2.3965
1.7273 -4.5169 2.3965
1.8494 -4.3646 2.3442
1.9688 -4.2223 2.2992
2.0852 -4.0865 2.2597
2.2178 -3.9897 2.2441
2.3623 -3.9157 2.2441
2.5041 -3.8362 2.2441
2.6455 -3.7549 2.2462
2.7788 -3.6612 2.2441
2.9113 -3.5659 2.2441
3.0402 -3.4656 2.2441
3.1654 -3.3604 2.2441
3.2867 -3.2504 2.2441
3.4038 -3.1358 2.2441
3.5166 -3.0167 2.2441
3.6249 -2.8934 2.2441
3.7707 -2.7972 2.2695
3.9395 -2.7118 2.3099
4.1224 -2.6278 2.3593
4.2820 -2.5211 2.3965
4.3710 -2.3694 2.3965
4.4541 -2.2144 2.3965
4.5314 -2.0564 2.3965
4.6026 -1.8954 2.3965
4.6676 -1.7318 2.3965
4.7263 -1.5659 2.3965
4.7787 -1.3978 2.3965
4.8246 -1.2279 2.3965
4.8640 -1.0563 2.3965
4.8969 -0.8835 2.3965
4.9231 -0.7095 2.3965
4.9427 -0.5347 2.3965
4.9556 -0.3593 2.3965
4.9618 -0.1837 2.3965
4.9614 -0.0081 2.3965
4.9543 0.1674 2.3965
4.9405 0.3422 2.3965
4.9202 0.5163 2.3965
4.8933 0.6893 2.3965
4.8599 0.8611 2.3965
4.8200 1.0313 2.3965
4.7738 1.1997 2.3965
4.7214 1.3661 2.3965
4.6628 1.5302 2.3965
4.5981 1.6917 2.3965
4.5275 1.8505 2.3965
4.4511 2.0064 2.3965
4.3691 2.1591 2.3965
4.2815 2.3084 2.3965
4.1886 2.4541 2.3965
4.0904 2.5961 2.3965
3.9872 2.7340 2.3965
3.8791 2.8679 2.3965
3.7664 2.9974 2.3965
3.6491 3.1224 2.3965
3.5275 3.2428 2.3965
3.4018 3.3585 2.3965
3.2721 3.4692 2.3965
3.1387 3.5750 2.3965
3.0018 3.6755 2.3965
2.8616 3.7709 2.3965
2.7183 3.8609 2.3965
2.5722 3.9454 2.3965
0.9422 1.5647 0.9318
0.8853 1.5967 0.9338
0.8272 1.6266 0.9358
0.7681 1.6544 0.9378
0.7081 1.6801 0.9398
0.6471 1.7036 0.9419
0.5853 1.7248 0.9439
0.5228 1.7439 0.9459
0.4597 1.7607 0.9480
0.3960 1.7752 0.9500
0.3318 1.7873 0.9520
0.2672 1.7972 0.9540
0.2023 1.8047 0.9559
0.1371 1.8099 0.9579
0.0718 1.8127 0.9598
0.0064 1.8132 0.9617
-0.0589 1.8113 0.9636
-0.1241 1.8071 0.9654
-0.1892 1.8005 0.9672
-0.2539 1.7916 0.9690
-0.3183 1.7803 0.9708
-0.3823 1.7668 0.9725
-0.4457 1.7509 0.9741
-0.5085 1.7328 0.9758
-0.5706 1.7124 0.9773
-0.6320 1.6898 0.9789
-0.6924 1.6649 0.9804
-0.7520 1.6380 0.9818
-0.8105 1.6089 0.9832
-0.8680 1.5777 0.9845
-2.2470 3.7547 2.3965
-2.3779 3.6646 2.3965
-2.5055 3.5701 2.3965
-2.6297 3.4714 2.3965
-2.7502 3.3687 2.3965
-2.8670 3.2620 2.3965
-2.9800 3.1515 2.3965
-3.0890 3.0373 2.3965
-3.1939 2.9196 2.3965
-3.2947 2.7984 2.3965
-3.3913 2.6741 2.3965
-3.4835 2.5465 2.3965
-3.5712 2.4161 2.3965
-3.6544 2.2827 2.3965
-3.7330 2.1468 2.3965
-3.8068 2.0082 2.3965
-3.8759 1.8673 2.3965
-3.9402 1.7242 2.3965
-3.9996 1.5790 2.3965
-4.0539 1.4319 2.3965
-4.1033 1.2831 2.3965
-4.1476 1.1326 2.3965
-4.1867 0.9807 2.3965
-4.2207 0.8276 2.3965
-4.2494 0.6734 2.3965
-4.2729 0.5182 2.3965
-4.2912 0.3623 2.3965
-4.3041 0.2058 2.3965
-4.3117 0.0488 2.3965
-4.3139 -0.1084 2.3965
-4.3109 -0.2658 2.3965
-4.3024 -0.4230 2.3965
-4.2886 -0.5800 2.3965
-4.2694 -0.7366 2.3965
-4.2449 -0.8925 2.3965
-4.2150 -1.0477 2.3965
-4.1798 -1.2020 2.3965
-4.1393 -1.3551 2.3965
-4.0935 -1.5069 2.3965
-4.0426 -1.6573 2.3965
-3.9863 -1.8060 2.3965
-3.9250 -1.9529 2.3965
-3.8585 -2.0978 2.3965
-3.7869 -2.2406 2.3965
-3.7104 -2.3810 2.3965
-3.6289 -2.5189 2.3965
-3.5426 -2.6542 2.3965
-3.4514 -2.7866 2.3965
-3.3557 -2.9159 2.3965
-3.2552 -3.0421 2.3965
-3.1502 -3.1650 2.3965
-3.0409 -3.2843 2.3965
-2.9272 -3.3999 2.3965
-2.8093 -3.5118 2.3965
-2.6874 -3.6196 2.3965
-2.5615 -3.7233 2.3965
-2.4317 -3.8227 2.3965
-2.2983 -3.9177 2.3965
-2.1614 -4.0081 2.3965
-2.0210 -4.0937 2.3965
-1.8774 -4.1746 2.3965
-1.7307 -4.2504 2.3965
-1.5811 -4.3211 2.3965
-1.4288 -4.3865 2.3965
-1.2739 -4.4466 2.3965
-1.1166 -4.5013 2.3965
-0.9571 -4.5503 2.3965
-0.7957 -4.5937 2.3965
-0.6324 -4.6314 2.3965
-0.4676 -4.6632 2.3965
-0.3014 -4.6890 2.3965
-0.1340 -4.7089 2.3965
0.0344 -4.7227 2.3965
0.2034 -4.7304 2.3965
0.3730 -4.7319 2.3965
0.5428 -4.7272 2.3965
0.7127 -4.7163 2.3965
0.8824 -4.6991 2.3965
1.0516 -4.6757 2.3965
1.2202 -4.6460 2.3965
1.3878 -4.6100 2.3965
1.5543 -4.5678 2.3965
1.7194 -4.5194 2.3965
1.8438 -4.3721 2.3468
1.9631 -4.2290 2.3012
2.0797 -4.0930 2.2616
2.2107 -3.9932 2.2441
2.3553 -3.9194 2.2441
2.4973 -3.8402 2.2441
2.6393 -3.7599 2.2466
2.7723 -3.6657 2.2441
2.9049 -3.5707 2.2441
3.0340 -3.4706 2.2441
3.1594 -3.3656 2.2441
3.2809 -3.2558 2.2441
3.3982 -3.1414 2.2441
3.5112 -3.0226 2.2441
3.6198 -2.8995 2.2441
3.7629 -2.8015 2.2678
3.9311 -2.7159 2.3078
4.1132 -2.6318 2.3567
4.2775 -2.5283 2.3965
4.3668 -2.3768 2.3965
4.4502 -2.2220 2.3965
4.5278 -2.0641 2.3965
4.5993 -1.9032 2.3965
4.6646 -1.7398 2.3965
4.7236 -1.5739 2.3965
4.7763 -1.4060 2.3965
4.8225 -1.2361 2.3965
4.8623 -1.0646 2.3965
4.8954 -0.8918 2.3965
4.9220 -0.7179 2.3965
4.9419 -0.5431 2.3965
4.9551 -0.3678 2.3965
4.9617 -0.1922 2.3965
4.9616 -0.0165 2.3965
4.9548 0.1589 2.3965
4.9414 0.3338 2.3965
4.9213 0.5079 2.3965
4.8947 0.6810 2.3965
4.8616 0.8528 2.3965
4.8221 1.0231 2.3965
4.7762 1.1916 2.3965
4.7241 1.3581 2.3965
4.6658 1.5223 2.3965
4.6014 1.6840 2.3965
4.5311 1.8429 2.3965
4.4550 1.9990 2.3965
4.3732 2.1518 2.3965
4.2859 2.3013 2.3965
4.1932 2.4472 2.3965
4.0953 2.5893 2.3965
3.9923 2.7275 2.3965
3.8845 2.8615 2.3965
3.7719 2.9912 2.3965
3.6549 3.1165 2.3965
-2.3869 3.3795 2.3965
-2.5045 3.2856 2.3965
-2.6188 3.1879 2.3965
-2.7295 3.0864 2.3965
-2.8365 2.9812 2.3965
-2.9398 2.8726 2.3965
-3.0393 2.7606 2.3965
-3.1347 2.6454 2.3965
-3.2262 2.5271 2.3965
-3.3134 2.4057 2.3965
-3.3964 2.2816 2.3965
-3.4751 2.1548 2.3965
-3.5494 2.0254 2.3965
-3.6192 1.8937 2.3965
-3.6845 1.7596 2.3965
-3.7451 1.6235 2.3965
-3.8011 1.4854 2.3965
-3.8523 1.3455 2.3965
-3.8987 1.2040 2.3965
-3.9403 1.0609 2.3965
-3.9769 0.9165 2.3965
-4.0087 0.7709 2.3965
-4.0355 0.6243 2.3965
-4.0573 0.4769 2.3965
-4.0740 0.3287 2.3965
-4.0857 0.1799 2.3965
-4.0923 0.0308 2.3965
-4.0938 -0.1186 2.3965
-4.0903 -0.2680 2.3965
-4.0816 -0.4173 2.3965
-4.0678 -0.5663 2.3965
-4.0489 -0.7149 2.3965
-4.0250 -0.8629 2.3965
-3.9959 -1.0102 2.3965
-3.9618 -1.1565 2.3965
-3.9226 -1.3017 2.3965
-3.8785 -1.4456 2.3965
-3.8293 -1.5881 2.3965
-3.7752 -1.7291 2.3965
-3.7162 -1.8682 2.3965
-3.6524 -2.0054 2.3965
-3.5837 -2.1406 2.3965
-3.5104 -2.2735 2.3965
-3.4323 -2.4039 2.3965
-3.3497 -2.5318 2.3965
-3.2625 -2.6569 2.3965
-3.1709 -2.7791 2.3965
-3.0750 -2.8983 2.3965
-2.9747 -3.0142 2.3965
-2.8703 -3.1268 2.3965
-2.7618 -3.2358 2.3965
-2.6494 -3.3412 2.3965
-2.5331 -3.4428 2.3965
-2.4131 -3.5403 2.3965
-2.2895 -3.6338 2.3965
-2.1625 -3.7230 2.3965
-2.0321 -3.8079 2.3965
-1.8986 -3.8882 2.3965
-1.7620 -3.9639 2.3965
-1.6226 -4.0349 2.3965
-1.4804 -4.1009 2.3965
-1.3357 -4.1620 2.3965
-1.1886 -4.2180 2.3965
-1.0393 -4.2688 2.3965
-0.8880 -4.3143 2.3965
-0.7348 -4.3544 2.3965
-0.5800 -4.3890 2.3965
-0.4238 -4.4181 2.3965
-0.2663 -4.4415 2.3965
-0.1077 -4.4593 2.3965
0.0517 -4.4713 2.3965
0.2117 -4.4775 2.3965
0.3721 -4.4779 2.3965
0.5328 -4.4724 2.3965
0.6934 -4.4611 2.3965
0.8538 -4.4438 2.3965
1.0137 -4.4206 2.3965
1.1729 -4.3915 2.3965
1.3312 -4.3565 2.3965
1.4884 -4.3156 2.3965
1.6442 -4.2688 2.3965
1.7984 -4.2163 2.3965
1.9507 -4.1579 2.3965
2.0818 -4.0565 2.3746
2.2001 -3.9366 2.3444
2.3161 -3.8195 2.3180
2.4351 -3.7122 2.2999
2.5540 -3.6079 2.2862
2.6755 -3.5090 2.2786
2.7999 -3.4142 2.2767
2.9252 -3.3200 2.2784
3.0540 -3.2283 2.2852
3.1836 -3.1353 2.2948
3.3177 -3.0437 2.3096
3.4565 -2.9530 2.3296
3.6031 -2.8641 2.3562
3.7598 -2.7776 2.3908
3.8680 -2.6514 2.3965
3.9622 -2.5148 2.3965
4.0511 -2.3748 2.3965
4.1348 -2.2314 2.3965
4.2130 -2.0849 2.3965
4.2855 -1.9354 2.3965
4.3524 -1.7833 2.3965
4.4135 -1.6287 2.3965
4.4686 -1.4720 2.3965
4.5178 -1.3132 2.3965
4.5609 -1.1527 2.3965
4.5978 -0.9907 2.3965
4.6286 -0.8273 2.3965
4.6531 -0.6631 2.3965
4.6714 -0.4980 2.3965
4.6835 -0.3324 2.3965
4.6892 -0.1666 2.3965
4.6886 -0.0008 2.3965
4.6818 0.1648 2.3965
4.6687 0.3299 2.3965
4.6494 0.4943 2.3965
4.6239 0.6577 2.3965
4.5923 0.8199 2.3965
4.5547 0.9807 2.3965
4.5110 1.1397 2.3965
4.4615 1.2969 2.3965
4.4061 1.4519 2.3965
4.3451 1.6046 2.3965
4.2784 1.7546 2.3965
4.2063 1.9018 2.3965
4.1289 2.0462 2.3965
4.0462 2.1873 2.3965
3.9584 2.3251 2.3965
3.8657 2.4593 2.3965
3.7683 2.5897 2.3965
3.6663 2.7163 2.3965
3.5598 2.8389 2.3965
3.4490 2.9572 2.3965
3.3341 3.0711 2.3965
3.2154 3.1806 2.3965
3.0929 3.2855 2.3965
2.9669 3.3856 2.3965
2.8375 3.4809 2.3965
2.7050 3.5712 2.3965
2.5695 3.6565 2.3965
0.9440 1.4508 0.9304
0.8911 1.4829 0.9323
0.8371 1.5131 0.9342
0.7821 1.5413 0.9361
0.7261 1.5675 0.9381
0.6692 1.5917 0.9400
0.6114 1.6139 0.9419
0.5529 1.6339 0.9438
0.4937 1.6518 0.9458
0.4338 1.6676 0.9477
0.3735 1.6812 0.9496
0.3127 1.6926 0.9515
0.2515 1.7019 0.9533
0.1900 1.7089 0.9552
0.1283 1.7137 0.9571
0.0664 1.7163 0.9589
0.0045 1.7166 0.9607
-0.0573 1.7147 0.9625
-0.1191 1.7106 0.9642
-0.1807 1.7042 0.9659
-0.2420 1.6957 0.9676
-0.3030 1.6849 0.9693
-0.3635 1.6720 0.9709
-0.4235 1.6568 0.9725
-0.4830 1.6396 0.9740
-0.5418 1.6201 0.9755
-0.5998 1.5986 0.9769
-0.6571 1.5750 0.9783
-0.7134 1.5494 0.9797
-0.7688 1.5217 0.9810
-0.8231 1.4921 0.9822
-0.8764 1.4605 0.9834
-2.2600 3.4736 2.3965
-2.3811 3.3839 2.3965
-2.4989 3.2902 2.3965
-2.6133 3.1927 2.3965
-2.7242 3.0914 2.3965
-2.8314 2.9864 2.3965
-2.9349 2.8780 2.3965
-3.0345 2.7661 2.3965
-3.1302 2.6510 2.3965
-3.2218 2.5329 2.3965
-3.3093 2.4117 2.3965
-3.3925 2.2877 2.3965
-3.4714 2.1610 2.3965
-3.5459 2.0317 2.3965
-3.6159 1.9001 2.3965
-3.6814 1.7662 2.3965
-3.7423 1.6301 2.3965
-3.7985 1.4921 2.3965
-3.8499 1.3523 2.3965
-3.8966 1.2109 2.3965
-3.9384 1.0679 2.3965
-3.9753 0.9235 2.3965
-4.0073 0.7780 2.3965
-4.0343 0.6315 2.3965
-4.0563 0.4840 2.3965
-4.0733 0.3359 2.3965
-4.0852 0.1871 2.3965
-4.0921 0.0380 2.3965
-4.0939 -0.1113 2.3965
-4.0906 -0.2607 2.3965
-4.0821 -0.4100 2.3965
-4.0686 -0.5591 2.3965
-4.0500 -0.7077 2.3965
-4.0262 -0.8558 2.3965
-3.9974 -1.0031 2.3965
-3.9636 -1.1494 2.3965
-3.9246 -1.2947 2.3965
-3.8807 -1.4387 2.3965
-3.8318 -1.5813 2.3965
-3.7780 -1.7223 2.3965
-3.7192 -1.8615 2.3965
-3.6556 -1.9989 2.3965
-3.5872 -2.1341 2.3965
-3.5140 -2.2671 2.3965
-3.4362 -2.3976 2.3965
-3.3538 -2.5256 2.3965
-3.2668 -2.6509 2.3965
-3.1754 -2.7733 2.3965
-3.0797 -2.8926 2.3965
-2.9796 -3.0087 2.3965
-2.8754 -3.1214 2.3965
-2.7671 -3.2306 2.3965
-2.6549 -3.3362 2.3965
-2.5388 -3.4379 2.3965
-2.4190 -3.5357 2.3965
-2.2956 -3.6294 2.3965
-2.1687 -3.7188 2.3965
-2.0385 -3.8039 2.3965
-1.9051 -3.8845 2.3965
-1.7687 -3.9604 2.3965
-1.6293 -4.0316 2.3965
-1.4874 -4.0979 2.3965
-1.3428 -4.1592 2.3965
-1.1958 -4.2154 2.3965
-1.0466 -4.2664 2.3965
-0.8954 -4.3122 2.3965
-0.7423 -4.3525 2.3965
-0.5876 -4.3874 2.3965
-0.4314 -4.4168 2.3965
-0.2739 -4.4405 2.3965
-0.1154 -4.4585 2.3965
0.0439 -4.4708 2.3965
0.2039 -4.4773 2.3965
0.3644 -4.4780 2.3965
0.5250 -4.4728 2.3965
0.6856 -4.4618 2.3965
0.8460 -4.4448 2.3965
1.0060 -4.4219 2.3965
1.1652 -4.3931 2.3965
1.3236 -4.3583 2.3965
1.4808 -4.3177 2.3965
1.6367 -4.2712 2.3965
1.7910 -4.2189 2.3965
1.9434 -4.1609 2.3965
2.0763 -4.0629 2.3765
2.1945 -3.9423 2.3457
2.3106 -3.8252 2.3192
2.4293 -3.7173 2.3007
2.5483 -3.6129 2.2868
2.6694 -3.5135 2.2788
2.7938 -3.4188 2.2768
2.9190 -3.3245 2.2781
3.0477 -3.2327 2.2848
3.1773 -3.1398 2.2943
3.3111 -3.0481 2.3088
3.4495 -2.9572 2.3284
3.5959 -2.8685 2.3549
3.7521 -2.7818 2.3890
3.8633 -2.6579 2.3965
3.9577 -2.5215 2.3965
4.0470 -2.3816 2.3965
4.1309 -2.2384 2.3965
4.2093 -2.0920 2.3965
4.2822 -1.9427 2.3965
4.3493 -1.7907 2.3965
4.4107 -1.6363 2.3965
4.4661 -1.4796 2.3965
4.5155 -1.3209 2.3965
4.5589 -1.1605 2.3965
4.5962 -0.9985 2.3965
4.6273 -0.8353 2.3965
4.6521 -0.6710 2.3965
4.6707 -0.5060 2.3965
4.6830 -0.3405 2.3965
4.6890 -0.1747 2.3965
4.6888 -0.0088 2.3965
4.6823 0.1568 2.3965
4.6695 0.3220 2.3965
4.6505 0.4864 2.3965
4.6253 0.6498 2.3965
4.5940 0.8121 2.3965
4.5566 0.9729 2.3965
4.5133 1.1321 2.3965
4.4640 1.2893 2.3965
4.4089 1.4444 2.3965
4.3482 1.5972 2.3965
4.2818 1.7474 2.3965
4.2099 1.8948 2.3965
4.1327 2.0392 2.3965
4.0503 2.1806 2.3965
3.9628 2.3185 2.3965
3.8703 2.4529 2.3965
3.7731 2.5835 2.3965
3.6713 2.7103 2.3965
3.5650 2.8330 2.3965
3.4545 2.9515 2.3965
3.3398 3.0657 2.3965
3.2212 3.1754 2.3965
3.0989 3.2805 2.3965
2.9731 3.3809 2.3965
2.8438 3.4764 2.3965
2.7115 3.5670 2.3965
2.5761 3.6525 2.3965
0.9465 1.4492 0.9303
0.8937 1.4814 0.9322
0.8398 1.5117 0.9341
0.7848 1.5400 0.9360
0.7288 1.5663 0.9380
0.6720 1.5906 0.9399
0.6142 1.6128 0.9418
0.5557 1.6330 0.9437
0.4966 1.6510 0.9457
0.4368 1.6669 0.9476
0.3764 1.6806 0.9495
0.3156 1.6921 0.9514
0.2544 1.7015 0.9533
0.1930 1.7086 0.9551
0.1313 1.7135 0.9570
0.0694 1.7162 0.9588
0.0075 1.7166 0.9606
-0.0543 1.7149 0.9624
-0.1161 1.7108 0.9641
-0.1777 1.7046 0.9658
-0.2390 1.6962 0.9675
-0.3000 1.6855 0.9692
-0.3606 1.6726 0.9708
-0.4206 1.6576 0.9724
-0.4801 1.6404 0.9739
-0.5389 1.6211 0.9754
-0.5970 1.5997 0.9769
-0.6543 1.5762 0.9783
-0.7107 1.5507 0.9796
-0.7661 1.5231 0.9809
-0.8205 1.4936 0.9822
-0.8738 1.4621 0.9834
-2.2540 3.4778 2.3965
-2.3753 3.3884 2.3965
-2.4933 3.2949 2.3965
-2.6079 3.1975 2.3965
-2.7189 3.0963 2.3965
-2.8263 2.9916 2.3965
-2.9300 2.8833 2.3965
-3.0298 2.7716 2.3965
-3.1257 2.6567 2.3965
-3.2175 2.5386 2.3965
-3.3051 2.4176 2.3965
-3.3886 2.2937 2.3965
-3.4677 2.1672 2.3965
-3.5424 2.0381 2.3965
-3.6126 1.9065 2.3965
-3.6783 1.7727 2.3965
-3.7394 1.6368 2.3965
-3.7958 1.4989 2.3965
-3.8475 1.3591 2.3965
-3.8944 1.2177 2.3965
-3.9364 1.0748 2.3965
-3.9736 0.9306 2.3965
-4.0058 0.7851 2.3965
-4.0331 0.6386 2.3965
-4.0554 0.4912 2.3965
-4.0726 0.3430 2.3965
-4.0848 0.1944 2.3965
-4.0919 0.0453 2.3965
-4.0939 -0.1041 2.3965
-4.0908 -0.2535 2.3965
-4.0827 -0.4028 2.3965
-4.0694 -0.5519 2.3965
-4.0510 -0.7006 2.3965
-4.0275 -0.8486 2.3965
-3.9989 -0.9959 2.3965
-3.9653 -1.1424 2.3965
-3.9266 -1.2877 2.3965
-3.8829 -1.4318 2.3965
-3.8343 -1.5744 2.3965
-3.7807 -1.7155 2.3965
-3.7221 -1.8548 2.3965
-3.6588 -1.9923 2.3965
-3.5906 -2.1276 2.3965
-3.5177 -2.2607 2.3965
-3.4401 -2.3914 2.3965
-3.3579 -2.5195 2.3965
-3.2712 -2.6449 2.3965
-3.1800 -2.7674 2.3965
-3.0844 -2.8869 2.3965
-2.9846 -3.0031 2.3965
-2.8806 -3.1160 2.3965
-2.7725 -3.2254 2.3965
-2.6604 -3.3312 2.3965
-2.5445 -3.4331 2.3965
-2.4249 -3.5311 2.3965
-2.3016 -3.6250 2.3965
-2.1749 -3.7146 2.3965
-2.0449 -3.7999 2.3965
-1.9117 -3.8807 2.3965
-1.7754 -3.9568 2.3965
-1.6362 -4.0282 2.3965
-1.4943 -4.0948 2.3965
-1.3498 -4.1563 2.3965
-1.2029 -4.2128 2.3965
-1.0538 -4.2641 2.3965
-0.9027 -4.3101 2.3965
-0.7497 -4.3507 2.3965
-0.5951 -4.3859 2.3965
-0.4390 -4.4155 2.3965
-0.2816 -4.4395 2.3965
-0.1231 -4.4578 2.3965
0.0362 -4.4704 2.3965
0.1962 -4.4772 2.3965
0.3566 -4.4781 2.3965
0.5172 -4.4732 2.3965
0.6779 -4.4624 2.3965
0.8383 -4.4457 2.3965
0.9983 -4.4231 2.3965
1.1576 -4.3946 2.3965
1.3160 -4.3602 2.3965
1.4733 -4.3198 2.3965
1.6292 -4.2736 2.3965
1.7835 -4.2216 2.3965
1.9361 -4.1638 2.3965
2.0708 -4.0693 2.3784
2.1888 -3.9481 2.3471
2.3050 -3.8308 2.3204
2.4235 -3.7224 2.3014
2.5425 -3.6180 2.2874
2.6634 -3.5181 2.2790
2.7878 -3.4234 2.2768
2.9128 -3.3289 2.2779
3.0415 -3.2372 2.2844
3.1710 -3.1443 2.2937
3.3045 -3.0525 2.3080
3.4425 -2.9614 2.3272
3.5888 -2.8728 2.3535
3.7444 -2.7860 2.3872
3.8586 -2.6644 2.3965
3.9533 -2.5282 2.3965
4.0428 -2.3885 2.3965
4.1269 -2.2454 2.3965
4.2056 -2.0992 2.3965
4.2788 -1.9500 2.3965
4.3462 -1.7982 2.3965
4.4078 -1.6438 2.3965
4.4635 -1.4872 2.3965
4.5133 -1.3287 2.3965
4.5570 -1.1683 2.3965
4.5945 -1.0064 2.3965
4.6259 -0.8432 2.3965
4.6510 -0.6790 2.3965
4.6699 -0.5140 2.3965
4.6826 -0.3485 2.3965
4.6889 -0.1827 2.3965
4.6889 -0.0168 2.3965
4.6827 0.1488 2.3965
4.6702 0.3140 2.3965
4.6515 0.4784 2.3965
4.6266 0.6420 2.3965
4.5956 0.8043 2.3965
4.5586 0.9652 2.3965
4.5155 1.1244 2.3965
4.4665 1.2817 2.3965
4.4118 1.4370 2.3965
4.3513 1.5899 2.3965
4.2851 1.7402 2.3965
4.2135 1.8877 2.3965
4.1366 2.0324 2.3965
4.0544 2.1738 2.3965
3.9671 2.3119 2.3965
3.8749 2.4464 2.3965
3.7779 2.5773 2.3965
3.6763 2.7043 2.3965
3.5703 2.8272 2.3965
3.4599 2.9459 2.3965
-2.2658 3.2118 2.3965
-2.3778 3.1227 2.3965
-2.4866 3.0300 2.3965
-2.5920 2.9336 2.3965
-2.6939 2.8338 2.3965
-2.7922 2.7306 2.3965
-2.8869 2.6242 2.3965
-2.9778 2.5147 2.3965
-3.0648 2.4023 2.3965
-3.1479 2.2870 2.3965
-3.2270 2.1690 2.3965
-3.3019 2.0484 2.3965
-3.3726 1.9254 2.3965
-3.4391 1.8001 2.3965
-3.5012 1.6726 2.3965
-3.5589 1.5432 2.3965
-3.6121 1.4118 2.3965
-3.6609 1.2788 2.3965
-3.7050 1.1441 2.3965
-3.7446 1.0081 2.3965
-3.7794 0.8707 2.3965
-3.8096 0.7322 2.3965
-3.8350 0.5928 2.3965
-3.8557 0.4525 2.3965
-3.8715 0.3116 2.3965
-3.8826 0.1701 2.3965
-3.8888 0.0282 2.3965
-3.8901 -0.1138 2.3965
-3.8866 -0.2559 2.3965
-3.8782 -0.3979 2.3965
-3.8650 -0.5396 2.3965
-3.8469 -0.6809 2.3965
-3.8239 -0.8216 2.3965
-3.7961 -0.9616 2.3965
-3.7635 -1.1006 2.3965
-3.7260 -1.2386 2.3965
-3.6838 -1.3754 2.3965
-3.6369 -1.5108 2.3965
-3.5852 -1.6447 2.3965
-3.5289 -1.7768 2.3965
-3.4680 -1.9071 2.3965
-3.4025 -2.0354 2.3965
-3.3326 -2.1616 2.3965
-3.2582 -2.2854 2.3965
-3.1794 -2.4067 2.3965
-3.0963 -2.5254 2.3965
-3.0090 -2.6413 2.3965
-2.9176 -2.7543 2.3965
-2.8221 -2.8642 2.3965
-2.7227 -2.9709 2.3965
-2.6195 -3.0742 2.3965
-2.5125 -3.1740 2.3965
-2.4018 -3.2701 2.3965
-2.2877 -3.3625 2.3965
-2.1701 -3.4509 2.3965
-2.0493 -3.5353 2.3965
-1.9254 -3.6155 2.3965
-1.7984 -3.6914 2.3965
-1.6687 -3.7629 2.3965
-1.5361 -3.8298 2.3965
-1.4011 -3.8921 2.3965
-1.2637 -3.9497 2.3965
-1.1240 -4.0024 2.3965
-0.9823 -4.0501 2.3965
-0.8387 -4.0929 2.3965
-0.6933 -4.1305 2.3965
-0.5465 -4.1629 2.3965
-0.3982 -4.1900 2.3965
-0.2489 -4.2118 2.3965
-0.0985 -4.2283 2.3965
0.0526 -4.2392 2.3965
0.2042 -4.2447 2.3965
0.3563 -4.2447 2.3965
0.5084 -4.2391 2.3965
0.6606 -4.2279 2.3965
0.8125 -4.2111 2.3965
0.9639 -4.1888 2.3965
1.1146 -4.1608 2.3965
1.2645 -4.1273 2.3965
1.4132 -4.0882 2.3965
1.5606 -4.0436 2.3965
1.7065 -3.9935 2.3965
1.8506 -3.9379 2.3965
1.9928 -3.8769 2.3965
2.1327 -3.8106 2.3965
2.2703 -3.7391 2.3965
2.4053 -3.6623 2.3965
2.5375 -3.5805 2.3965
2.6642 -3.4906 2.3943
2.7880 -3.3964 2.3925
2.9126 -3.3027 2.3943
3.0342 -3.2046 2.3965
3.1494 -3.0991 2.3965
3.2607 -2.9892 2.3965
3.3678 -2.8751 2.3965
3.4706 -2.7570 2.3965
3.5690 -2.6350 2.3965
3.6627 -2.5093 2.3965
3.7517 -2.3801 2.3965
3.8357 -2.2475 2.3965
3.9148 -2.1118 2.3965
3.9886 -1.9732 2.3965
4.0572 -1.8318 2.3965
4.1204 -1.6879 2.3965
4.1782 -1.5417 2.3965
4.2303 -1.3934 2.3965
4.2768 -1.2432 2.3965
4.3176 -1.0914 2.3965
4.3526 -0.9381 2.3965
4.3817 -0.7837 2.3965
4.4050 -0.6283 2.3965
4.4224 -0.4722 2.3965
4.4339 -0.3156 2.3965
4.4394 -0.1588 2.3965
4.4390 -0.0019 2.3965
4.4327 0.1548 2.3965
4.4205 0.3110 2.3965
4.4024 0.4665 2.3965
4.3785 0.6211 2.3965
4.3489 0.7746 2.3965
4.3135 0.9268 2.3965
4.2724 1.0773 2.3965
4.2258 1.2261 2.3965
4.1737 1.3729 2.3965
4.1162 1.5175 2.3965
4.0534 1.6596 2.3965
3.9854 1.7992 2.3965
3.9123 1.9359 2.3965
3.8344 2.0697 2.3965
3.7516 2.2003 2.3965
3.6641 2.3275 2.3965
3.5722 2.4513 2.3965
3.4758 2.5714 2.3965
3.3752 2.6877 2.3965
3.2706 2.8000 2.3965
3.1621 2.9082 2.3965
3.0499 3.0122 2.3965
2.9341 3.1119 2.3965
2.8150 3.2071 2.3965
2.6926 3.2977 2.3965
2.5673 3.3836 2.3965
0.9457 1.3434 0.9292
0.8967 1.3756 0.9310
0.8466 1.4061 0.9328
0.7954 1.4347 0.9346
0.7432 1.4615 0.9364
0.6901 1.4864 0.9382
0.6361 1.5093 0.9400
0.5813 1.5303 0.9419
0.5258 1.5493 0.9437
0.4696 1.5663 0.9455
0.4129 1.5812 0.9473
0.3556 1.5941 0.9491
0.2979 1.6050 0.9509
0.2399 1.6137 0.9527
0.1816 1.6204 0.9545
0.1230 1.6249 0.9562
0.0644 1.6274 0.9579
0.0057 1.6277 0.9597
-0.0530 1.6259 0.9613
-0.1116 1.6220 0.9630
-0.1700 1.6160 0.9646
-0.2281 1.6078 0.9662
-0.2860 1.5976 0.9678
-0.3434 1.5853 0.9693
-0.4003 1.5710 0.9708
-0.4567 1.5546 0.9723
-0.5125 1.5362 0.9737
-0.5675 1.5158 0.9751
-0.6218 1.4934 0.9764
-0.6752 1.4691 0.9777
-0.7278 1.4429 0.9789
-0.7793 1.4148 0.9801
-0.8298 1.3848 0.9812
-0.8792 1.3531 0.9823
-2.2603 3.2160 2.3965
-2.3725 3.1271 2.3965
-2.4814 3.0345 2.3965
-2.5869 2.9383 2.3965
-2.6890 2.8387 2.3965
-2.7875 2.7357 2.3965
-2.8824 2.6294 2.3965
-2.9735 2.5201 2.3965
-3.0607 2.4078 2.3965
-3.1440 2.2926 2.3965
-3.2232 2.1747 2.3965
-3.2983 2.0543 2.3965
-3.3693 1.9314 2.3965
-3.4359 1.8062 2.3965
