ply
format ascii 1.0
element vertex 2176
property float32 x
property float32 y
property float32 z
end_header
8.9596 -3.6197 2.3754
9.1227 -3.3157 2.3754
8.1461 5.2136 2.3754
7.9193 5.4723 2.3754
7.6824 5.7200 2.3754
7.4359 5.9564 2.3754
7.1807 6.1811 2.3754
6.9173 6.3938 2.3754
6.6464 6.5945 2.3754
6.3687 6.7828 2.3754
6.0848 6.9585 2.3754
5.7955 7.1215 2.3754
5.5014 7.2718 2.3754
5.2032 7.4093 2.3754
4.9014 7.5341 2.3754
4.5969 7.6460 2.3754
4.2900 7.7453 2.3754
3.9815 7.8319 2.3754
3.6720 7.9060 2.3754
3.3619 7.9678 2.3754
3.0519 8.0174 2.3754
2.7425 8.0550 2.3754
0.8946 2.9699 0.8730
0.7879 2.9983 0.8798
0.6802 3.0229 0.8867
0.5718 3.0436 0.8937
0.4626 3.0604 0.9007
0.3529 3.0731 0.9078
0.2428 3.0819 0.9149
0.1324 3.0867 0.9221
0.0220 3.0875 0.9293
-0.0884 3.0843 0.9365
-0.1987 3.0771 0.9437
-0.3086 3.0659 0.9509
-0.4180 3.0507 0.9580
-0.5268 3.0315 0.9652
-0.6349 3.0085 0.9723
-0.7420 2.9815 0.9794
-2.0423 7.1053 2.3754
-2.2788 6.9726 2.3754
-2.5091 6.8333 2.3754
-2.7330 6.6876 2.3754
-2.9504 6.5359 2.3754
-3.1612 6.3783 2.3754
-3.3654 6.2152 2.3754
-3.5628 6.0469 2.3754
-3.7534 5.8736 2.3754
-3.9371 5.6955 2.3754
-4.1140 5.5129 2.3754
-4.2839 5.3261 2.3754
-4.4468 5.1353 2.3754
-4.6027 4.9407 2.3754
-4.7517 4.7426 2.3754
-4.8935 4.5411 2.3754
-5.0283 4.3365 2.3754
-5.1561 4.1289 2.3754
-5.2768 3.9187 2.3754
-5.3904 3.7059 2.3754
-5.4970 3.4908 2.3754
-5.5965 3.2735 2.3754
-5.6890 3.0543 2.3754
-5.7745 2.8333 2.3754
-5.8529 2.6106 2.3754
-5.9243 2.3866 2.3754
-5.9888 2.1612 2.3754
-6.0463 1.9348 2.3754
-6.0968 1.7073 2.3754
-6.1403 1.4791 2.3754
-6.1770 1.2502 2.3754
-6.2067 1.0208 2.3754
-6.2295 0.7911 2.3754
-6.2454 0.5612 2.3754
-6.2545 0.3311 2.3754
-6.2567 0.1012 2.3754
-6.2521 -0.1285 2.3754
-6.2407 -0.3578 2.3754
-6.2224 -0.5867 2.3754
-6.1974 -0.8149 2.3754
-6.1656 -1.0422 2.3754
-6.1270 -1.2687 2.3754
-6.0817 -1.4941 2.3754
-6.0296 -1.7183 2.3754
-5.9708 -1.9411 2.3754
-5.9053 -2.1625 2.3754
-5.8331 -2.3822 2.3754
-5.7542 -2.6000 2.3754
-5.6686 -2.8160 2.3754
-5.5763 -3.0298 2.3754
-5.4774 -3.2414 2.3754
-5.3719 -3.4506 2.3754
-5.2597 -3.6572 2.3754
-5.1409 -3.8611 2.3754
-5.0156 -4.0620 2.3754
-4.8837 -4.2599 2.3754
-4.7452 -4.4545 2.3754
-4.6002 -4.6457 2.3754
-4.4488 -4.8333 2.3754
-4.2909 -5.0171 2.3754
-4.1266 -5.1969 2.3754
-3.9559 -5.3725 2.3754
-3.7789 -5.5436 2.3754
-3.5956 -5.7104 2.3754
-3.4061 -5.8721 2.3754
-3.2104 -6.0289 2.3754
-3.0086 -6.1804 2.3754
-2.8008 -6.3265 2.3754
-2.5871 -6.4668 2.3754
-2.3675 -6.6012 2.3754
-2.1423 -6.7295 2.3754
-1.9113 -6.8513 2.3754
-1.6749 -6.9665 2.3754
-1.4331 -7.0747 2.3754
-1.1861 -7.1758 2.3754
-0.9340 -7.2694 2.3754
-0.6770 -7.3554 2.3754
-0.4153 -7.4334 2.3754
-0.1491 -7.5032 2.3754
0.1214 -7.5646 2.3754
0.3959 -7.6172 2.3754
0.6743 -7.6608 2.3754
0.9563 -7.6951 2.3754
1.2415 -7.7199 2.3754
1.5296 -7.7350 2.3754
1.8204 -7.7400 2.3754
2.1136 -7.7348 2.3754
2.4086 -7.7191 2.3754
2.7052 -7.6927 2.3754
3.0030 -7.6554 2.3754
3.3014 -7.6070 2.3754
3.6002 -7.5472 2.3754
3.8988 -7.4760 2.3754
4.1967 -7.3931 2.3754
4.4935 -7.2984 2.3754
4.7886 -7.1919 2.3754
5.0814 -7.0734 2.3754
5.3714 -6.9429 2.3754
5.6581 -6.8003 2.3754
5.9408 -6.6457 2.3754
6.2190 -6.4789 2.3754
6.4920 -6.3002 2.3754
6.7591 -6.1096 2.3754
7.0199 -5.9072 2.3754
7.2736 -5.6933 2.3754
7.5195 -5.4678 2.3754
7.7572 -5.2313 2.3754
7.9858 -4.9838 2.3754
8.2049 -4.7258 2.3754
8.4137 -4.4576 2.3754
8.6118 -4.1797 2.3754
8.7982 -3.8915 2.3754
8.9729 -3.5959 2.3754
9.1350 -3.2913 2.3754
8.3454 4.9661 2.3754
8.1285 5.2345 2.3754
7.9009 5.4923 2.3754
7.6632 5.7391 2.3754
7.4160 5.9746 2.3754
7.1601 6.1984 2.3754
6.8961 6.4102 2.3754
6.6246 6.6099 2.3754
6.3464 6.7972 2.3754
6.0621 6.9719 2.3754
5.7724 7.1339 2.3754
5.4779 7.2832 2.3754
5.1794 7.4197 2.3754
4.8774 7.5434 2.3754
4.5726 7.6543 2.3754
4.2657 7.7526 2.3754
3.9571 7.8382 2.3754
3.6475 7.9114 2.3754
3.3374 7.9722 2.3754
3.0274 8.0208 2.3754
0.9918 2.9403 0.8668
0.8862 2.9723 0.8735
0.7794 3.0004 0.8804
0.6717 3.0247 0.8873
0.5631 3.0451 0.8943
0.4539 3.0615 0.9013
0.3442 3.0740 0.9084
0.2341 3.0824 0.9155
0.1237 3.0869 0.9227
0.0132 3.0874 0.9299
-0.0972 3.0839 0.9370
-0.2074 3.0763 0.9442
-0.3173 3.0648 0.9514
-0.4266 3.0493 0.9586
-0.5354 3.0299 0.9658
-0.6434 3.0065 0.9729
-0.7504 2.9792 0.9800
-2.0612 7.0951 2.3754
-2.2972 6.9619 2.3754
-2.5270 6.8220 2.3754
-2.7504 6.6759 2.3754
-2.9673 6.5236 2.3754
-3.1776 6.3656 2.3754
-3.3812 6.2021 2.3754
-3.5781 6.0334 2.3754
-3.7682 5.8596 2.3754
-3.9514 5.6812 2.3754
-4.1277 5.4983 2.3754
-4.2971 5.3112 2.3754
-4.4594 5.1201 2.3754
-4.6148 4.9252 2.3754
-4.7631 4.7267 2.3754
-4.9044 4.5250 2.3754
-5.0387 4.3201 2.3754
-5.1659 4.1124 2.3754
-5.2860 3.9019 2.3754
-0.0692 2.8532 0.9362
-0.1711 2.8468 0.9428
-0.2728 2.8367 0.9495
-0.3740 2.8230 0.9561
-0.4747 2.8056 0.9627
-0.5747 2.7845 0.9693
-0.6738 2.7599 0.9759
-0.7720 2.7316 0.9824
-2.0879 6.4857 2.3754
-2.3034 6.3599 2.3754
-2.5132 6.2281 2.3754
-2.7171 6.0903 2.3754
-2.9151 5.9469 2.3754
-3.1070 5.7982 2.3754
-3.2927 5.6444 2.3754
-3.4723 5.4856 2.3754
-3.6455 5.3223 2.3754
-3.8124 5.1545 2.3754
-3.9729 4.9826 2.3754
-4.1270 4.8066 2.3754
-4.2745 4.6270 2.3754
-4.4156 4.4438 2.3754
-4.5502 4.2573 2.3754
-4.6781 4.0677 2.3754
-4.7995 3.8752 2.3754
-4.9143 3.6800 2.3754
-5.0225 3.4822 2.3754
-5.1240 3.2820 2.3754
-5.2190 3.0797 2.3754
-5.3073 2.8754 2.3754
-5.3890 2.6693 2.3754
-5.4641 2.4616 2.3754
-5.5326 2.2523 2.3754
-5.5945 2.0418 2.3754
-5.6498 1.8301 2.3754
-5.6985 1.6173 2.3754
-5.7406 1.4038 2.3754
-5.7761 1.1895 2.3754
-5.8051 0.9747 2.3754
-5.8276 0.7594 2.3754
-5.8435 0.5440 2.3754
-5.8529 0.3284 2.3754
-5.8558 0.1129 2.3754
-5.8522 -0.1025 2.3754
-5.8421 -0.3175 2.3754
-5.8256 -0.5321 2.3754
-5.8026 -0.7461 2.3754
-5.7732 -0.9593 2.3754
-5.7373 -1.1717 2.3754
-5.6950 -1.3830 2.3754
-5.6464 -1.5932 2.3754
-5.5913 -1.8020 2.3754
-5.5299 -2.0094 2.3754
-5.4621 -2.2152 2.3754
-5.3880 -2.4192 2.3754
-5.3076 -2.6213 2.3754
-5.2209 -2.8214 2.3754
-5.1279 -3.0193 2.3754
-5.0286 -3.2149 2.3754
-4.9231 -3.4079 2.3754
-4.8114 -3.5982 2.3754
-4.6935 -3.7857 2.3754
-4.5695 -3.9702 2.3754
-4.4393 -4.1516 2.3754
-4.3030 -4.3296 2.3754
-4.1607 -4.5040 2.3754
-4.0123 -4.6748 2.3754
-3.8581 -4.8419 2.3754
-3.6978 -5.0044 2.3754
-3.5317 -5.1631 2.3754
-3.3599 -5.3172 2.3754
-3.1822 -5.4667 2.3754
-2.9989 -5.6113 2.3754
-2.8100 -5.7508 2.3754
-2.6156 -5.8851 2.3754
-2.4158 -6.0139 2.3754
-2.2107 -6.1370 2.3754
-2.0004 -6.2541 2.3754
-1.7850 -6.3652 2.3754
-1.5646 -6.4699 2.3754
-1.3394 -6.5680 2.3754
-1.1095 -6.6593 2.3754
-0.8752 -6.7435 2.3754
-0.6365 -6.8205 2.3754
-0.3936 -6.8899 2.3754
-0.1468 -6.9516 2.3754
0.1037 -7.0054 2.3754
0.3578 -7.0509 2.3754
0.6151 -7.0880 2.3754
0.8755 -7.1165 2.3754
1.1386 -7.1361 2.3754
1.4041 -7.1466 2.3754
1.6718 -7.1478 2.3754
1.9413 -7.1395 2.3754
2.2123 -7.1216 2.3754
2.4844 -7.0937 2.3754
2.7573 -7.0558 2.3754
3.0305 -7.0077 2.3754
3.3037 -6.9492 2.3754
3.5764 -6.8803 2.3754
3.8483 -6.8007 2.3754
4.1187 -6.7104 2.3754
4.3873 -6.6094 2.3754
4.6535 -6.4975 2.3754
4.9170 -6.3747 2.3754
5.1771 -6.2411 2.3754
5.4333 -6.0966 2.3754
5.6851 -5.9413 2.3754
5.9320 -5.7752 2.3754
6.1734 -5.5985 2.3754
6.4088 -5.4113 2.3754
6.6376 -5.2137 2.3754
6.8592 -5.0060 2.3754
7.0731 -4.7884 2.3754
7.2788 -4.5611 2.3754
7.4756 -4.3245 2.3754
7.6632 -4.0788 2.3754
7.8409 -3.8245 2.3754
8.0083 -3.5620 2.3754
8.1649 -3.2918 2.3754
8.3101 -3.0140 2.3754
8.4436 -2.7295 2.3754
8.5650 -2.4387 2.3754
8.6739 -2.1422 2.3754
8.7699 -1.8405 2.3754
8.8527 -1.5343 2.3754
8.9221 -1.2242 2.3754
8.9777 -0.9109 2.3754
9.0194 -0.5950 2.3754
9.0471 -0.2772 2.3754
9.0606 0.0417 2.3754
9.0599 0.3611 2.3754
9.0448 0.6803 2.3754
9.0155 0.9986 2.3754
8.9720 1.3152 2.3754
8.9145 1.6294 2.3754
8.8430 1.9406 2.3754
8.7577 2.2480 2.3754
8.6590 2.5510 2.3754
8.5470 2.8490 2.3754
8.4222 3.1413 2.3754
8.2848 3.4273 2.3754
8.1352 3.7065 2.3754
7.9739 3.9782 2.3754
7.8013 4.2421 2.3754
7.6179 4.4975 2.3754
7.4242 4.7441 2.3754
7.2208 4.9814 2.3754
7.0081 5.2090 2.3754
6.7867 5.4266 2.3754
6.5571 5.6339 2.3754
6.3201 5.8307 2.3754
6.0760 6.0166 2.3754
5.8257 6.1915 2.3754
5.5695 6.3552 2.3754
5.3081 6.5076 2.3754
5.0422 6.6487 2.3754
4.7722 6.7782 2.3754
4.4987 6.8963 2.3754
4.2223 7.0029 2.3754
3.9436 7.0980 2.3754
3.6631 7.1816 2.3754
3.3813 7.2540 2.3754
3.0986 7.3151 2.3754
2.8157 7.3651 2.3754
0.9296 2.7173 0.8717
0.8319 2.7472 0.8780
0.7332 2.7735 0.8843
0.6337 2.7962 0.8907
0.5333 2.8153 0.8971
0.4324 2.8308 0.9036
0.3309 2.8426 0.9102
0.2291 2.8507 0.9168
0.1270 2.8551 0.9234
0.0249 2.8558 0.9300
-0.0772 2.8528 0.9367
-0.1792 2.8461 0.9433
-0.2808 2.8358 0.9500
-0.3820 2.8217 0.9566
-0.4826 2.8040 0.9632
-0.5826 2.7827 0.9698
-0.6816 2.7578 0.9764
-0.7798 2.7292 0.9829
-2.1052 6.4760 2.3754
-2.3202 6.3497 2.3754
-2.5296 6.2174 2.3754
-2.7330 6.0792 2.3754
-2.9305 5.9354 2.3754
-3.1217 5.7881 2.3754
-3.3071 5.6320 2.3754
-3.4862 5.4729 2.3754
-3.6589 5.3092 2.3754
-3.8253 5.1410 2.3754
-3.9853 4.9688 2.3754
-4.1389 4.7926 2.3754
-4.2860 4.6126 2.3754
-4.4265 4.4292 2.3754
-4.5605 4.2424 2.3754
-4.6880 4.0526 2.3754
-4.8088 3.8599 2.3754
-4.9231 3.6644 2.3754
-5.0307 3.4663 2.3754
-5.1318 3.2661 2.3754
-5.2262 3.0636 2.3754
-5.3140 2.8592 2.3754
-5.3952 2.6529 2.3754
-5.4697 2.4451 2.3754
-5.5377 2.2357 2.3754
-5.5991 2.0250 2.3754
-5.6539 1.8132 2.3754
-5.7020 1.6004 2.3754
-5.7436 1.3868 2.3754
-5.7787 1.1725 2.3754
-5.8071 0.9577 2.3754
-5.8291 0.7424 2.3754
-5.8445 0.5269 2.3754
-5.8534 0.3113 2.3754
-5.8558 0.0958 2.3754
-5.8517 -0.1195 2.3754
-5.8411 -0.3345 2.3754
-5.8240 -0.5491 2.3754
-5.8005 -0.7630 2.3754
-5.7706 -0.9762 2.3754
-5.7342 -1.1884 2.3754
-5.6914 -1.3997 2.3754
-5.6422 -1.6097 2.3754
-5.5867 -1.8185 2.3754
-5.5248 -2.0257 2.3754
-5.4565 -2.2314 2.3754
-5.3819 -2.4353 2.3754
-5.3010 -2.6372 2.3754
-5.2137 -2.8372 2.3754
-5.1202 -3.0349 2.3754
-5.0205 -3.2302 2.3754
-4.9145 -3.4231 2.3754
-4.8023 -3.6132 2.3754
-4.6839 -3.8005 2.3754
-4.5594 -3.9847 2.3754
-4.4287 -4.1658 2.3754
-4.2920 -4.3436 2.3754
-4.1492 -4.5177 2.3754
-4.0004 -4.6882 2.3754
-3.8456 -4.8547 2.3754
-3.6849 -5.0173 2.3754
-3.5183 -5.1755 2.3754
-3.3460 -5.3292 2.3754
-3.1679 -5.4783 2.3754
-2.9842 -5.6225 2.3754
-2.7948 -5.7616 2.3754
-2.6000 -5.8955 2.3754
-2.3998 -6.0238 2.3754
-2.1942 -6.1465 2.3754
-1.9835 -6.2632 2.3754
-1.7677 -6.3737 2.3754
-1.5470 -6.4779 2.3754
-1.3214 -6.5755 2.3754
-1.0912 -6.6662 2.3754
-0.8564 -6.7499 2.3754
-0.6174 -6.8262 2.3754
-0.3742 -6.8951 2.3754
-0.1271 -6.9562 2.3754
0.1237 -7.0093 2.3754
0.3781 -7.0542 2.3754
0.6356 -7.0906 2.3754
0.8962 -7.1184 2.3754
1.1595 -7.1373 2.3754
1.4252 -7.1471 2.3754
1.6931 -7.1475 2.3754
1.9627 -7.1385 2.3754
2.2338 -7.1197 2.3754
2.5060 -7.0911 2.3754
2.7789 -7.0524 2.3754
3.0522 -7.0034 2.3754
3.3253 -6.9442 2.3754
3.5980 -6.8744 2.3754
3.8697 -6.7940 2.3754
4.1400 -6.7028 2.3754
4.4084 -6.6009 2.3754
4.6745 -6.4882 2.3754
4.9377 -6.3646 2.3754
5.1975 -6.2301 2.3754
5.4534 -6.0847 2.3754
5.7049 -5.9285 2.3754
5.9513 -5.7616 2.3754
6.1923 -5.5841 2.3754
6.4272 -5.3960 2.3754
6.6554 -5.1977 2.3754
6.8764 -4.9892 2.3754
7.0897 -4.7707 2.3754
7.2947 -4.5427 2.3754
7.4908 -4.3054 2.3754
7.6776 -4.0590 2.3754
7.8545 -3.8041 2.3754
8.0211 -3.5409 2.3754
8.1767 -3.2700 2.3754
8.3211 -2.9917 2.3754
8.4536 -2.7066 2.3754
8.5741 -2.4154 2.3754
8.6820 -2.1185 2.3754
8.7769 -1.8165 2.3754
8.8587 -1.5099 2.3754
8.9270 -1.1996 2.3754
8.9815 -0.8860 2.3754
9.0221 -0.5699 2.3754
9.0487 -0.2520 2.3754
9.0611 0.0670 2.3754
9.0592 0.3864 2.3754
9.0430 0.7056 2.3754
9.0126 1.0237 2.3754
8.9680 1.3401 2.3754
8.9093 1.6542 2.3754
8.8367 1.9650 2.3754
8.7504 2.2722 2.3754
8.6506 2.5748 2.3754
8.5376 2.8724 2.3754
8.4117 3.1642 2.3754
8.2734 3.4497 2.3754
8.1228 3.7283 2.3754
7.9607 3.9994 2.3754
7.7872 4.2626 2.3754
7.6030 4.5173 2.3754
7.4085 4.7632 2.3754
7.2042 4.9998 2.3754
6.9908 5.2266 2.3754
6.7688 5.4433 2.3754
6.5386 5.6499 2.3754
6.3010 5.8458 2.3754
6.0564 6.0308 2.3754
5.8056 6.2049 2.3754
5.5490 6.3677 2.3754
5.2872 6.5192 2.3754
5.0209 6.6593 2.3754
4.7506 6.7880 2.3754
4.4769 6.9051 2.3754
4.2004 7.0108 2.3754
3.9215 7.1050 2.3754
3.6408 7.1878 2.3754
3.3589 7.2592 2.3754
3.0762 7.3195 2.3754
2.7933 7.3686 2.3754
0.9219 2.7198 0.8722
0.8241 2.7494 0.8785
0.7254 2.7754 0.8848
0.6258 2.7978 0.8912
0.5254 2.8167 0.8976
0.4244 2.8318 0.9041
0.3229 2.8433 0.9107
0.2210 2.8512 0.9173
0.1190 2.8553 0.9239
0.0168 2.8557 0.9306
-0.0853 2.8524 0.9372
-0.1872 2.8455 0.9439
-0.2888 2.8348 0.9505
-0.3900 2.8205 0.9572
-0.4906 2.8025 0.9638
-0.5904 2.7809 0.9704
-0.6895 2.7556 0.9769
-0.7875 2.7268 0.9834
-2.1224 6.4662 2.3754
-2.3370 6.3395 2.3754
-2.5459 6.2066 2.3754
-2.7489 6.0680 2.3754
-2.9458 5.9237 2.3754
-3.1368 5.7742 2.3754
-3.3215 5.6196 2.3754
-3.5001 5.4601 2.3754
-3.6724 5.2960 2.3754
-3.8383 5.1276 2.3754
-3.9977 4.9550 2.3754
-4.1508 4.7785 2.3754
-4.2973 4.5982 2.3754
-4.4374 4.4145 2.3754
-4.5708 4.2275 2.3754
-4.6978 4.0374 2.3754
-4.8181 3.8445 2.3754
-4.9318 3.6488 2.3754
-0.0599 2.6513 0.9364
-0.1547 2.6454 0.9426
-0.2491 2.6360 0.9487
-0.3432 2.6232 0.9549
-0.4367 2.6070 0.9611
-0.5296 2.5875 0.9672
-0.6218 2.5646 0.9733
-0.7130 2.5383 0.9793
-0.8032 2.5088 0.9853
-2.1383 5.9336 2.3754
-2.3351 5.8131 2.3754
-2.5265 5.6869 2.3754
-2.7125 5.5553 2.3754
-2.8929 5.4185 2.3754
-3.0677 5.2768 2.3754
-3.2368 5.1303 2.3754
-3.4001 4.9794 2.3754
-3.5575 4.8241 2.3754
-3.7090 4.6648 2.3754
-3.8545 4.5016 2.3754
-3.9940 4.3348 2.3754
-4.1275 4.1645 2.3754
-4.2548 3.9909 2.3754
-4.3760 3.8143 2.3754
-4.4910 3.6348 2.3754
-4.5999 3.4526 2.3754
-4.7026 3.2679 2.3754
-4.7990 3.0809 2.3754
-4.8892 2.8916 2.3754
-4.9732 2.7004 2.3754
-5.0509 2.5074 2.3754
-5.1224 2.3128 2.3754
-5.1876 2.1166 2.3754
-5.2466 1.9191 2.3754
-5.2993 1.7204 2.3754
-5.3458 1.5208 2.3754
-5.3861 1.3202 2.3754
-5.4201 1.1189 2.3754
-5.4479 0.9171 2.3754
-5.4695 0.7149 2.3754
-5.4849 0.5123 2.3754
-5.4940 0.3097 2.3754
-5.4970 0.1070 2.3754
-5.4938 -0.0955 2.3754
-5.4845 -0.2977 2.3754
-5.4690 -0.4995 2.3754
-5.4473 -0.7007 2.3754
-5.4195 -0.9012 2.3754
-5.3857 -1.1008 2.3754
-5.3457 -1.2995 2.3754
-5.2996 -1.4970 2.3754
-5.2475 -1.6933 2.3754
-5.1893 -1.8881 2.3754
-5.1251 -2.0813 2.3754
-5.0549 -2.2729 2.3754
-4.9787 -2.4626 2.3754
-4.8966 -2.6503 2.3754
-4.8085 -2.8358 2.3754
-4.7145 -3.0191 2.3754
-4.6145 -3.1999 2.3754
-4.5088 -3.3780 2.3754
-4.3972 -3.5534 2.3754
-4.2798 -3.7258 2.3754
-4.1567 -3.8952 2.3754
-4.0279 -4.0614 2.3754
-3.8933 -4.2240 2.3754
-3.7532 -4.3831 2.3754
-3.6075 -4.5384 2.3754
-3.4563 -4.6898 2.3754
-3.2996 -4.8369 2.3754
-3.1375 -4.9798 2.3754
-2.9702 -5.1182 2.3754
-2.7976 -5.2519 2.3754
-2.6198 -5.3807 2.3754
-2.4370 -5.5044 2.3754
-2.2492 -5.6229 2.3754
-2.0566 -5.7359 2.3754
-1.8592 -5.8432 2.3754
-1.6572 -5.9446 2.3754
-1.4507 -6.0400 2.3754
-1.2399 -6.1290 2.3754
-1.0248 -6.2116 2.3754
-0.8058 -6.2874 2.3754
-0.5828 -6.3564 2.3754
-0.3562 -6.4182 2.3754
-0.1262 -6.4727 2.3754
0.1072 -6.5197 2.3754
0.3436 -6.5590 2.3754
0.5828 -6.5903 2.3754
0.8246 -6.6135 2.3754
1.0686 -6.6284 2.3754
1.3147 -6.6348 2.3754
1.5626 -6.6325 2.3754
1.8118 -6.6214 2.3754
2.0622 -6.6013 2.3754
2.3134 -6.5721 2.3754
2.5649 -6.5335 2.3754
2.8166 -6.4855 2.3754
3.0679 -6.4280 2.3754
3.3185 -6.3608 2.3754
3.5681 -6.2839 2.3754
3.8161 -6.1972 2.3754
4.0621 -6.1006 2.3754
4.3057 -5.9942 2.3754
4.5465 -5.8778 2.3754
4.7840 -5.7516 2.3754
5.0177 -5.6155 2.3754
5.2471 -5.4697 2.3754
5.4718 -5.3141 2.3754
5.6913 -5.1490 2.3754
5.9050 -4.9743 2.3754
6.1126 -4.7904 2.3754
6.3135 -4.5974 2.3754
6.5072 -4.3956 2.3754
6.6932 -4.1851 2.3754
6.8711 -3.9662 2.3754
7.0405 -3.7394 2.3754
7.2007 -3.5048 2.3754
7.3516 -3.2630 2.3754
7.4925 -3.0142 2.3754
7.6231 -2.7589 2.3754
7.7431 -2.4976 2.3754
7.8521 -2.2308 2.3754
7.9498 -1.9589 2.3754
8.0357 -1.6824 2.3754
8.1098 -1.4020 2.3754
8.1717 -1.1180 2.3754
8.2213 -0.8316 2.3754
8.2584 -0.5427 2.3754
8.2828 -0.2521 2.3754
8.2945 0.0395 2.3754
8.2933 0.3314 2.3754
8.2793 0.6230 2.3754
8.2526 0.9139 2.3754
8.2130 1.2032 2.3754
8.1608 1.4905 2.3754
8.0961 1.7750 2.3754
8.0190 2.0563 2.3754
7.9297 2.3336 2.3754
7.8286 2.6064 2.3754
7.7158 2.8742 2.3754
7.5916 3.1364 2.3754
7.4565 3.3927 2.3754
7.3107 3.6421 2.3754
7.1547 3.8847 2.3754
6.9889 4.1197 2.3754
6.8136 4.3469 2.3754
6.6295 4.5658 2.3754
6.4368 4.7761 2.3754
6.2361 4.9775 2.3754
6.0280 5.1696 2.3754
5.8128 5.3523 2.3754
5.5912 5.5253 2.3754
5.3636 5.6883 2.3754
5.1306 5.8414 2.3754
4.8926 5.9842 2.3754
4.6502 6.1168 2.3754
4.4039 6.2390 2.3754
4.1542 6.3508 2.3754
3.9017 6.4521 2.3754
3.6467 6.5431 2.3754
3.3898 6.6236 2.3754
3.1315 6.6938 2.3754
2.8721 6.7537 2.3754
0.9577 2.4942 0.8708
0.8680 2.5252 0.8765
0.7773 2.5529 0.8823
0.6856 2.5773 0.8882
0.5931 2.5984 0.8941
0.4998 2.6162 0.9001
0.4060 2.6305 0.9061
0.3118 2.6414 0.9122
0.2172 2.6490 0.9184
0.1223 2.6531 0.9245
0.0274 2.6537 0.9307
-0.0674 2.6509 0.9369
-0.1622 2.6447 0.9430
-0.2566 2.6351 0.9492
-0.3506 2.6220 0.9554
-0.4441 2.6056 0.9615
-0.5369 2.5858 0.9677
-0.6290 2.5626 0.9737
-0.7202 2.5361 0.9798
-0.8103 2.5063 0.9858
-2.1541 5.9243 2.3754
-2.3504 5.8033 2.3754
-2.5414 5.6767 2.3754
-2.7270 5.5446 2.3754
-2.9069 5.4075 2.3754
-3.0813 5.2654 2.3754
-3.2499 5.1186 2.3754
-3.4128 4.9673 2.3754
-3.5697 4.8117 2.3754
-3.7207 4.6521 2.3754
-3.8658 4.4886 2.3754
-4.0048 4.3215 2.3754
-4.1378 4.1509 2.3754
-4.2646 3.9771 2.3754
-4.3853 3.8002 2.3754
-4.4999 3.6205 2.3754
-4.6083 3.4381 2.3754
-4.7104 3.2532 2.3754
-4.8064 3.0660 2.3754
-4.8961 2.8766 2.3754
-4.9796 2.6852 2.3754
-5.0568 2.4920 2.3754
-5.1278 2.2973 2.3754
-5.1925 2.1010 2.3754
-5.2510 1.9034 2.3754
-5.3033 1.7047 2.3754
-5.3493 1.5049 2.3754
-5.3890 1.3043 2.3754
-5.4225 1.1030 2.3754
-5.4499 0.9011 2.3754
-5.4709 0.6988 2.3754
-5.4858 0.4963 2.3754
-5.4945 0.2936 2.3754
-5.4970 0.0910 2.3754
-5.4933 -0.1115 2.3754
-5.4835 -0.3137 2.3754
-5.4675 -0.5154 2.3754
-5.4453 -0.7166 2.3754
-5.4171 -0.9170 2.3754
-5.3827 -1.1166 2.3754
-5.3422 -1.3152 2.3754
-5.2957 -1.5126 2.3754
-5.2431 -1.7087 2.3754
-5.1845 -1.9034 2.3754
-5.1198 -2.0966 2.3754
-5.0491 -2.2880 2.3754
-4.9724 -2.4775 2.3754
-4.8898 -2.6650 2.3754
-4.8012 -2.8504 2.3754
-4.7068 -3.0335 2.3754
-4.6064 -3.2141 2.3754
-4.5002 -3.3920 2.3754
-4.3881 -3.5672 2.3754
-4.2703 -3.7394 2.3754
-4.1467 -3.9085 2.3754
-4.0174 -4.0743 2.3754
-3.8825 -4.2367 2.3754
-3.7419 -4.3956 2.3754
-3.5957 -4.5505 2.3754
-3.4441 -4.7016 2.3754
-3.2870 -4.8484 2.3754
-3.1245 -4.9909 2.3754
-2.9567 -5.1290 2.3754
-2.7837 -5.2623 2.3754
-2.6055 -5.3907 2.3754
-2.4223 -5.5140 2.3754
-2.2341 -5.6320 2.3754
-2.0411 -5.7446 2.3754
-1.8434 -5.8514 2.3754
-1.6410 -5.9524 2.3754
-1.4342 -6.0472 2.3754
-1.2230 -6.1358 2.3754
-1.0076 -6.2178 2.3754
-0.7883 -6.2931 2.3754
-0.5650 -6.3615 2.3754
-0.3382 -6.4228 2.3754
-0.1078 -6.4767 2.3754
0.1258 -6.5231 2.3754
0.3624 -6.5617 2.3754
0.6018 -6.5924 2.3754
0.8438 -6.6150 2.3754
1.0880 -6.6292 2.3754
1.3343 -6.6350 2.3754
1.5822 -6.6320 2.3754
1.8316 -6.6202 2.3754
2.0821 -6.5994 2.3754
2.3333 -6.5694 2.3754
2.5849 -6.5300 2.3754
2.8365 -6.4813 2.3754
3.0878 -6.4230 2.3754
3.3383 -6.3551 2.3754
3.5878 -6.2774 2.3754
3.8356 -6.1899 2.3754
4.0815 -6.0925 2.3754
4.3249 -5.9853 2.3754
4.5654 -5.8682 2.3754
4.8026 -5.7412 2.3754
5.0360 -5.6043 2.3754
5.2651 -5.4577 2.3754
5.4894 -5.3014 2.3754
5.7084 -5.1355 2.3754
5.9217 -4.9601 2.3754
6.1288 -4.7755 2.3754
6.3291 -4.5818 2.3754
6.5222 -4.3792 2.3754
6.7076 -4.1680 2.3754
6.8849 -3.9486 2.3754
7.0535 -3.7211 2.3754
7.2130 -3.4860 2.3754
7.3631 -3.2435 2.3754
7.5032 -2.9942 2.3754
7.6330 -2.7385 2.3754
7.7522 -2.4767 2.3754
7.8603 -2.2094 2.3754
7.9570 -1.9372 2.3754
8.0420 -1.6602 2.3754
8.1152 -1.3797 2.3754
8.1761 -1.0955 2.3754
8.2247 -0.8088 2.3754
8.2608 -0.5197 2.3754
8.2842 -0.2291 2.3754
8.2949 0.0624 2.3754
8.2927 0.3544 2.3754
8.2777 0.6461 2.3754
8.2499 0.9369 2.3754
8.2093 1.2261 2.3754
8.1561 1.5131 2.3754
8.0904 1.7974 2.3754
8.0123 2.0784 2.3754
7.9222 2.3553 2.3754
7.8201 2.6278 2.3754
7.7063 2.8952 2.3754
7.5813 3.1570 2.3754
7.4454 3.4126 2.3754
7.2988 3.6616 2.3754
7.1419 3.9036 2.3754
6.9753 4.1380 2.3754
6.7994 4.3645 2.3754
6.6145 4.5828 2.3754
6.4212 4.7924 2.3754
6.2199 4.9930 2.3754
6.0112 5.1844 2.3754
5.7955 5.3663 2.3754
5.5734 5.5385 2.3754
5.3454 5.7008 2.3754
5.1119 5.8531 2.3754
4.8736 5.9951 2.3754
4.6309 6.1268 2.3754
4.3843 6.2482 2.3754
4.1344 6.3592 2.3754
3.8816 6.4597 2.3754
3.6264 6.5498 2.3754
3.3694 6.6295 2.3754
3.1110 6.6989 2.3754
2.8516 6.7580 2.3754
0.9506 2.4968 0.8713
0.8609 2.5275 0.8770
0.7700 2.5550 0.8828
0.6783 2.5791 0.8887
0.5857 2.5999 0.8946
0.4924 2.6174 0.9006
0.3986 2.6315 0.9066
0.3043 2.6422 0.9127
0.2097 2.6494 0.9188
0.1148 2.6532 0.9250
0.0199 2.6536 0.9312
-0.0750 2.6506 0.9374
-0.1697 2.6441 0.9435
-0.2641 2.6342 0.9497
-0.3580 2.6209 0.9559
-0.4515 2.6042 0.9620
-0.5443 2.5841 0.9681
-0.6363 2.5606 0.9742
-0.7273 2.5339 0.9803
-0.8174 2.5038 0.9862
-2.1699 5.9149 2.3754
-2.3657 5.7935 2.3754
-2.5563 5.6664 2.3754
-2.7414 5.5340 2.3754
-2.9210 5.3964 2.3754
-3.0948 5.2539 2.3754
-3.2630 5.1067 2.3754
-3.4254 4.9551 2.3754
-3.5819 4.7992 2.3754
-3.7324 4.6393 2.3754
-3.8770 4.4755 2.3754
-4.0156 4.3081 2.3754
-4.1480 4.1372 2.3754
-4.2744 3.9632 2.3754
-4.3946 3.7861 2.3754
-4.5087 3.6061 2.3754
-4.6166 3.4235 2.3754
-0.0518 2.4735 0.9366
-0.1402 2.4679 0.9423
-0.2283 2.4592 0.9481
-0.3160 2.4473 0.9539
-0.4033 2.4322 0.9596
-0.4899 2.4139 0.9653
-0.5759 2.3926 0.9710
-0.6610 2.3681 0.9766
-0.7451 2.3406 0.9822
-0.8283 2.3100 0.9877
-2.1769 5.4445 2.3754
-2.3571 5.3283 2.3754
-2.5323 5.2069 2.3754
-2.7024 5.0805 2.3754
-2.8673 4.9494 2.3754
-3.0269 4.8136 2.3754
-3.1811 4.6739 2.3754
-3.3300 4.5293 2.3754
-3.4733 4.3810 2.3754
-3.6110 4.2291 2.3754
-3.7432 4.0735 2.3754
-3.8696 3.9146 2.3754
-3.9904 3.7524 2.3754
-4.1054 3.5873 2.3754
-4.2146 3.4193 2.3754
-4.3180 3.2487 2.3754
-4.4156 3.0756 2.3754
-4.5073 2.9002 2.3754
-4.5931 2.7227 2.3754
-4.6731 2.5432 2.3754
-4.7471 2.3619 2.3754
-4.8153 2.1790 2.3754
-4.8775 1.9945 2.3754
-4.9338 1.8088 2.3754
-4.9841 1.6218 2.3754
-5.0285 1.4339 2.3754
-5.0670 1.2450 2.3754
-5.0996 1.0554 2.3754
-5.1263 0.8653 2.3754
-5.1470 0.6747 2.3754
-5.1618 0.4838 2.3754
-5.1707 0.2928 2.3754
-5.1738 0.1017 2.3754
-5.1709 -0.0892 2.3754
-5.1622 -0.2799 2.3754
-5.1476 -0.4701 2.3754
-5.1272 -0.6598 2.3754
-5.1009 -0.8488 2.3754
-5.0688 -1.0370 2.3754
-5.0309 -1.2243 2.3754
-4.9873 -1.4104 2.3754
-4.9378 -1.5953 2.3754
-4.8826 -1.7788 2.3754
-4.8217 -1.9608 2.3754
-4.7551 -2.1412 2.3754
-4.6827 -2.3196 2.3754
-4.6048 -2.4963 2.3754
-4.5212 -2.6708 2.3754
-4.4319 -2.8430 2.3754
-4.3372 -3.0128 2.3754
-4.2369 -3.1801 2.3754
-4.1310 -3.3447 2.3754
-4.0197 -3.5064 2.3754
-3.9031 -3.6651 2.3754
-3.7810 -3.8205 2.3754
-3.6536 -3.9729 2.3754
-3.5209 -4.1216 2.3754
-3.3830 -4.2667 2.3754
-3.2400 -4.4078 2.3754
-3.0919 -4.5450 2.3754
-2.9387 -4.6781 2.3754
-2.7806 -4.8067 2.3754
-2.6177 -4.9309 2.3754
-2.4500 -5.0503 2.3754
-2.2776 -5.1648 2.3754
-2.1007 -5.2743 2.3754
-1.9192 -5.3785 2.3754
-1.7335 -5.4773 2.3754
-1.5435 -5.5704 2.3754
-1.3495 -5.6578 2.3754
-1.1514 -5.7391 2.3754
-0.9496 -5.8142 2.3754
-0.7442 -5.8830 2.3754
-0.5353 -5.9451 2.3754
-0.3232 -6.0006 2.3754
-0.1079 -6.0491 2.3754
0.1102 -6.0905 2.3754
0.3310 -6.1246 2.3754
0.5542 -6.1512 2.3754
0.7797 -6.1702 2.3754
1.0070 -6.1814 2.3754
1.2361 -6.1846 2.3754
1.4666 -6.1797 2.3754
1.6982 -6.1665 2.3754
1.9306 -6.1450 2.3754
2.1635 -6.1149 2.3754
2.3966 -6.0762 2.3754
2.6295 -6.0288 2.3754
2.8619 -5.9725 2.3754
3.0934 -5.9074 2.3754
3.3237 -5.8332 2.3754
3.5524 -5.7501 2.3754
3.7791 -5.6578 2.3754
4.0033 -5.5565 2.3754
4.2247 -5.4462 2.3754
4.4429 -5.3268 2.3754
4.6574 -5.1985 2.3754
4.8677 -5.0612 2.3754
5.0736 -4.9151 2.3754
5.2745 -4.7603 2.3754
5.4700 -4.5969 2.3754
5.6596 -4.4251 2.3754
5.8429 -4.2451 2.3754
6.0196 -4.0571 2.3754
6.1891 -3.8613 2.3754
6.3511 -3.6581 2.3754
6.5052 -3.4476 2.3754
6.6509 -3.2302 2.3754
6.7879 -3.0063 2.3754
6.9158 -2.7762 2.3754
7.0343 -2.5403 2.3754
7.1430 -2.2990 2.3754
7.2416 -2.0527 2.3754
7.3299 -1.8020 2.3754
7.4076 -1.5472 2.3754
7.4744 -1.2888 2.3754
7.5303 -1.0276 2.3754
7.5749 -0.7638 2.3754
7.6082 -0.4980 2.3754
7.6299 -0.2307 2.3754
7.6401 0.0374 2.3754
7.6387 0.3059 2.3754
7.6256 0.5741 2.3754
7.6010 0.8416 2.3754
7.5647 1.1076 2.3754
7.5171 1.3719 2.3754
7.4580 1.6336 2.3754
7.3878 1.8924 2.3754
7.3065 2.1477 2.3754
7.2144 2.3990 2.3754
7.1117 2.6458 2.3754
6.9987 2.8876 2.3754
6.8756 3.1239 2.3754
6.7429 3.3544 2.3754
6.6008 3.5785 2.3754
6.4497 3.7959 2.3754
6.2899 4.0063 2.3754
6.1220 4.2092 2.3754
5.9462 4.4043 2.3754
5.7630 4.5915 2.3754
5.5729 4.7703 2.3754
5.3763 4.9405 2.3754
5.1736 5.1020 2.3754
4.9653 5.2546 2.3754
4.7518 5.3980 2.3754
4.5337 5.5322 2.3754
4.3114 5.6571 2.3754
4.0853 5.7725 2.3754
3.8560 5.8784 2.3754
3.6237 5.9748 2.3754
3.3891 6.0617 2.3754
3.1525 6.1390 2.3754
2.9143 6.2068 2.3754
0.9800 2.2952 0.8702
0.8974 2.3271 0.8754
0.8138 2.3559 0.8807
0.7291 2.3818 0.8861
0.6436 2.4046 0.8916
0.5573 2.4242 0.8971
0.4703 2.4408 0.9027
0.3828 2.4541 0.9084
0.2949 2.4643 0.9140
0.2066 2.4713 0.9198
0.1182 2.4751 0.9255
0.0297 2.4758 0.9313
-0.0588 2.4732 0.9370
-0.1472 2.4674 0.9428
-0.2353 2.4584 0.9486
-0.3230 2.4462 0.9543
-0.4102 2.4308 0.9600
-0.4968 2.4124 0.9657
-0.5826 2.3907 0.9714
-0.6677 2.3660 0.9771
-0.7518 2.3383 0.9826
-0.8348 2.3075 0.9882
-2.1914 5.4355 2.3754
-2.3711 5.3189 2.3754
-2.5459 5.1971 2.3754
-2.7156 5.0703 2.3754
-2.8801 4.9388 2.3754
-3.0393 4.8027 2.3754
-3.1931 4.6623 2.3754
-3.3415 4.5177 2.3754
-3.4844 4.3691 2.3754
-3.6217 4.2169 2.3754
-3.7534 4.0610 2.3754
-3.8794 3.9018 2.3754
-3.9997 3.7395 2.3754
-4.1142 3.5741 2.3754
-4.2230 3.4059 2.3754
-4.3259 3.2351 2.3754
-4.4231 3.0618 2.3754
-4.5143 2.8862 2.3754
-4.5997 2.7086 2.3754
-4.6792 2.5290 2.3754
-4.7527 2.3475 2.3754
-4.8204 2.1644 2.3754
-4.8821 1.9799 2.3754
-4.9379 1.7940 2.3754
-4.9878 1.6070 2.3754
-5.0318 1.4189 2.3754
-5.0698 1.2300 2.3754
-5.1019 1.0404 2.3754
-5.1281 0.8502 2.3754
-5.1484 0.6596 2.3754
-5.1627 0.4687 2.3754
-5.1712 0.2776 2.3754
-5.1738 0.0866 2.3754
-5.1705 -0.1043 2.3754
-5.1613 -0.2949 2.3754
-5.1462 -0.4851 2.3754
-5.1253 -0.6748 2.3754
-5.0986 -0.8638 2.3754
-5.0660 -1.0519 2.3754
-5.0277 -1.2390 2.3754
-4.9836 -1.4251 2.3754
-4.9336 -1.6099 2.3754
-4.8780 -1.7933 2.3754
-4.8166 -1.9752 2.3754
-4.7495 -2.1554 2.3754
-4.6768 -2.3338 2.3754
-4.5984 -2.5102 2.3754
-4.5143 -2.6845 2.3754
-4.4246 -2.8565 2.3754
-4.3294 -3.0262 2.3754
-4.2287 -3.1932 2.3754
-4.1224 -3.3576 2.3754
-4.0107 -3.5191 2.3754
-3.8936 -3.6776 2.3754
-3.7711 -3.8329 2.3754
-3.6432 -3.9846 2.3754
-3.5102 -4.1331 2.3754
-3.3719 -4.2780 2.3754
-3.2284 -4.4188 2.3754
-3.0799 -4.5557 2.3754
-2.9264 -4.6884 2.3754
-2.7679 -4.8167 2.3754
-2.6046 -4.9405 2.3754
-2.4365 -5.0595 2.3754
-2.2638 -5.1737 2.3754
-2.0865 -5.2828 2.3754
-1.9047 -5.3866 2.3754
-1.7186 -5.4849 2.3754
-1.5283 -5.5776 2.3754
-1.3339 -5.6644 2.3754
-1.1356 -5.7453 2.3754
-0.9335 -5.8199 2.3754
-0.7278 -5.8881 2.3754
-0.5186 -5.9498 2.3754
-0.3062 -6.0047 2.3754
-0.0907 -6.0526 2.3754
0.1276 -6.0934 2.3754
0.3486 -6.1269 2.3754
0.5720 -6.1530 2.3754
0.7976 -6.1713 2.3754
1.0251 -6.1819 2.3754
1.2543 -6.1845 2.3754
1.4849 -6.1789 2.3754
1.7165 -6.1651 2.3754
1.9490 -6.1429 2.3754
2.1819 -6.1122 2.3754
2.4150 -6.0728 2.3754
2.6479 -6.0247 2.3754
2.8803 -5.9677 2.3754
3.1117 -5.9018 2.3754
3.3419 -5.8270 2.3754
3.5704 -5.7431 2.3754
3.7969 -5.6501 2.3754
4.0210 -5.5481 2.3754
4.2421 -5.4371 2.3754
4.4600 -5.3170 2.3754
4.6742 -5.1879 2.3754
4.8842 -5.0500 2.3754
5.0897 -4.9032 2.3754
5.2902 -4.7477 2.3754
5.4852 -4.5836 2.3754
5.6743 -4.4112 2.3754
5.8572 -4.2305 2.3754
6.0333 -4.0419 2.3754
6.2022 -3.8455 2.3754
6.3636 -3.6417 2.3754
6.5170 -3.4306 2.3754
6.6620 -3.2127 2.3754
6.7983 -2.9883 2.3754
6.9255 -2.7577 2.3754
7.0432 -2.5213 2.3754
7.1512 -2.2796 2.3754
7.2490 -2.0330 2.3754
7.3365 -1.7820 2.3754
7.4133 -1.5269 2.3754
7.4793 -1.2682 2.3754
7.5342 -1.0068 2.3754
7.5779 -0.7428 2.3754
7.6103 -0.4770 2.3754
7.6311 -0.2095 2.3754
7.6404 0.0587 2.3754
7.6381 0.3271 2.3754
7.6241 0.5953 2.3754
7.5985 0.8627 2.3754
7.5614 1.1286 2.3754
7.5128 1.3927 2.3754
7.4529 1.6542 2.3754
7.3817 1.9128 2.3754
7.2996 2.1678 2.3754
7.2066 2.4187 2.3754
7.1032 2.6645 2.3754
6.9893 2.9065 2.3754
6.8655 3.1424 2.3754
6.7320 3.3723 2.3754
6.5891 3.5959 2.3754
6.4374 3.8126 2.3754
6.2769 4.0226 2.3754
6.1083 4.2249 2.3754
5.9319 4.4194 2.3754
5.7482 4.6059 2.3754
5.5575 4.7841 2.3754
5.3604 4.9536 2.3754
5.1573 5.1144 2.3754
4.9486 5.2663 2.3754
4.7347 5.4090 2.3754
4.5163 5.5424 2.3754
4.2937 5.6665 2.3754
4.0673 5.7812 2.3754
3.8377 5.8864 2.3754
3.6053 5.9820 2.3754
3.3705 6.0681 2.3754
3.1337 6.1447 2.3754
2.8955 6.2118 2.3754
0.9735 2.2978 0.8706
0.8908 2.3295 0.8758
0.8071 2.3581 0.8812
0.7224 2.3837 0.8866
0.6368 2.4062 0.8920
0.5504 2.4256 0.8976
0.4634 2.4419 0.9032
0.3759 2.4551 0.9088
0.2879 2.4650 0.9145
0.1996 2.4718 0.9202
0.1112 2.4753 0.9260
0.0227 2.4757 0.9317
-0.0658 2.4728 0.9375
-0.1542 2.4668 0.9432
-0.2422 2.4575 0.9490
-0.3299 2.4451 0.9548
-0.4171 2.4295 0.9605
-0.5036 2.4108 0.9662
-0.5894 2.3889 0.9719
-0.6744 2.3639 0.9775
-0.7584 2.3359 0.9831
-0.8413 2.3049 0.9886
-2.2058 5.4265 2.3754
-2.3852 5.3094 2.3754
-2.5596 5.1871 2.3754
-2.7288 5.0601 2.3754
-2.8929 4.9282 2.3754
-3.0516 4.7920 2.3754
-3.2051 4.6510 2.3754
-3.3530 4.5061 2.3754
-3.4955 4.3572 2.3754
-3.6323 4.2047 2.3754
-3.7636 4.0486 2.3754
-3.8891 3.8891 2.3754
-4.0090 3.7265 2.3754
-4.1231 3.5609 2.3754
-4.2314 3.3925 2.3754
-4.3339 3.2215 2.3754
-0.0446 2.3155 0.9367
-0.1273 2.3103 0.9421
-0.2098 2.3021 0.9475
-0.2919 2.2910 0.9529
-0.3736 2.2769 0.9583
-0.4547 2.2598 0.9636
-0.5351 2.2398 0.9689
-0.6148 2.2169 0.9742
-0.6936 2.1911 0.9794
-0.7714 2.1625 0.9846
-0.8481 2.1311 0.9897
-2.2054 5.0072 2.3754
-2.3708 4.8947 2.3754
-2.5315 4.7774 2.3754
-2.6874 4.6556 2.3754
-2.8384 4.5293 2.3754
-2.9845 4.3987 2.3754
-3.1254 4.2642 2.3754
-3.2612 4.1258 2.3754
-3.3919 3.9837 2.3754
-3.5173 3.8382 2.3754
-3.6373 3.6894 2.3754
-3.7520 3.5374 2.3754
-3.8613 3.3826 2.3754
-3.9652 3.2249 2.3754
-4.0636 3.0647 2.3754
-4.1564 2.9020 2.3754
-4.2438 2.7371 2.3754
-4.3256 2.5701 2.3754
-4.4018 2.4011 2.3754
-4.4724 2.2303 2.3754
-4.5374 2.0579 2.3754
-4.5968 1.8841 2.3754
-4.6506 1.7089 2.3754
-4.6987 1.5326 2.3754
-4.7412 1.3552 2.3754
-4.7780 1.1769 2.3754
-4.8092 0.9979 2.3754
-4.8348 0.8184 2.3754
-4.8548 0.6383 2.3754
-4.8691 0.4581 2.3754
-4.8777 0.2775 2.3754
-4.8808 0.0969 2.3754
-4.8782 -0.0835 2.3754
-4.8701 -0.2637 2.3754
-4.8563 -0.4435 2.3754
-4.8370 -0.6227 2.3754
-4.8121 -0.8014 2.3754
-4.7816 -0.9792 2.3754
-4.7457 -1.1562 2.3754
-4.7042 -1.3319 2.3754
-4.6572 -1.5066 2.3754
-4.6047 -1.6799 2.3754
-4.5468 -1.8517 2.3754
-4.4835 -2.0219 2.3754
-4.4147 -2.1903 2.3754
-4.3406 -2.3568 2.3754
-4.2611 -2.5213 2.3754
-4.1763 -2.6837 2.3754
-4.0862 -2.8436 2.3754
-3.9909 -3.0011 2.3754
-3.8904 -3.1560 2.3754
-3.7847 -3.3078 2.3754
-3.6739 -3.4573 2.3754
-3.5580 -3.6033 2.3754
-3.4371 -3.7461 2.3754
-3.3113 -3.8856 2.3754
-3.1806 -4.0215 2.3754
-3.0450 -4.1537 2.3754
-2.9047 -4.2820 2.3754
-2.7596 -4.4063 2.3754
-2.6100 -4.5264 2.3754
-2.4559 -4.6421 2.3754
-2.2973 -4.7532 2.3754
-2.1344 -4.8597 2.3754
-1.9672 -4.9613 2.3754
-1.7960 -5.0578 2.3754
-1.6207 -5.1491 2.3754
-1.4416 -5.2351 2.3754
-1.2587 -5.3154 2.3754
-1.0723 -5.3901 2.3754
-0.8824 -5.4588 2.3754
-0.6892 -5.5215 2.3754
-0.4929 -5.5779 2.3754
-0.2936 -5.6279 2.3754
-0.0916 -5.6713 2.3754
0.1129 -5.7080 2.3754
0.3198 -5.7378 2.3754
0.5288 -5.7605 2.3754
0.7398 -5.7761 2.3754
0.9523 -5.7843 2.3754
1.1663 -5.7850 2.3754
1.3815 -5.7782 2.3754
1.5975 -5.7635 2.3754
1.8140 -5.7411 2.3754
2.0309 -5.7107 2.3754
2.2478 -5.6722 2.3754
2.4643 -5.6256 2.3754
2.6802 -5.5708 2.3754
2.8951 -5.5078 2.3754
3.1086 -5.4364 2.3754
3.3205 -5.3567 2.3754
3.5303 -5.2686 2.3754
3.7378 -5.1722 2.3754
3.9424 -5.0675 2.3754
4.1438 -4.9544 2.3754
4.3417 -4.8331 2.3754
4.5357 -4.7037 2.3754
4.7253 -4.5661 2.3754
4.9102 -4.4207 2.3754
5.0900 -4.2673 2.3754
5.2643 -4.1064 2.3754
5.4327 -3.9379 2.3754
5.5948 -3.7622 2.3754
5.7502 -3.5795 2.3754
5.8987 -3.3899 2.3754
6.0397 -3.1939 2.3754
6.1730 -2.9916 2.3754
6.2983 -2.7833 2.3754
6.4152 -2.5695 2.3754
6.5233 -2.3505 2.3754
6.6225 -2.1267 2.3754
6.7125 -1.8984 2.3754
6.7929 -1.6660 2.3754
6.8636 -1.4301 2.3754
6.9244 -1.1910 2.3754
6.9751 -0.9491 2.3754
7.0155 -0.7051 2.3754
7.0455 -0.4593 2.3754
7.0651 -0.2122 2.3754
7.0741 0.0357 2.3754
7.0725 0.2839 2.3754
7.0603 0.5318 2.3754
7.0375 0.7790 2.3754
7.0041 1.0251 2.3754
6.9603 1.2693 2.3754
6.9061 1.5113 2.3754
6.8417 1.7507 2.3754
6.7672 1.9869 2.3754
6.6828 2.2195 2.3754
6.5887 2.4480 2.3754
6.4851 2.6721 2.3754
6.3724 2.8911 2.3754
6.2507 3.1049 2.3754
6.1204 3.3130 2.3754
5.9819 3.5150 2.3754
5.8354 3.7106 2.3754
5.6812 3.8995 2.3754
5.5199 4.0813 2.3754
5.3517 4.2558 2.3754
5.1769 4.4228 2.3754
4.9962 4.5821 2.3754
4.8097 4.7333 2.3754
4.6180 4.8764 2.3754
4.4214 5.0112 2.3754
4.2204 5.1376 2.3754
4.0154 5.2554 2.3754
3.8067 5.3645 2.3754
3.5949 5.4650 2.3754
3.3803 5.5567 2.3754
3.1633 5.6396 2.3754
2.9443 5.7138 2.3754
2.7237 5.7793 2.3754
0.9212 2.1488 0.8746
0.8439 2.1786 0.8795
0.7656 2.2056 0.8845
0.6864 2.2298 0.8895
0.6063 2.2511 0.8947
0.5255 2.2695 0.8998
0.4441 2.2849 0.9051
0.3622 2.2974 0.9103
0.2799 2.3070 0.9157
0.1973 2.3135 0.9210
0.1145 2.3171 0.9264
0.0316 2.3177 0.9318
-0.0512 2.3152 0.9372
-0.1339 2.3098 0.9426
-0.2163 2.3014 0.9480
-0.2984 2.2900 0.9533
-0.3800 2.2756 0.9587
-0.4611 2.2583 0.9641
-0.5415 2.2381 0.9694
-0.6211 2.2150 0.9746
-0.6998 2.1890 0.9799
-0.7775 2.1601 0.9850
-2.0490 5.1064 2.3754
-2.2187 4.9985 2.3754
-2.3837 4.8857 2.3754
-2.5440 4.7680 2.3754
-2.6995 4.6457 2.3754
-2.8502 4.5191 2.3754
-2.9958 4.3882 2.3754
-3.1364 4.2534 2.3754
-3.2718 4.1147 2.3754
-3.4020 3.9723 2.3754
-3.5270 3.8265 2.3754
-3.6466 3.6775 2.3754
-3.7609 3.5253 2.3754
-3.8698 3.3702 2.3754
-3.9732 3.2123 2.3754
-4.0711 3.0519 2.3754
-4.1636 2.8890 2.3754
-4.2505 2.7239 2.3754
-4.3318 2.5568 2.3754
-4.4076 2.3876 2.3754
-4.4778 2.2167 2.3754
-4.5423 2.0442 2.3754
-4.6013 1.8703 2.3754
-4.6546 1.6950 2.3754
-4.7023 1.5185 2.3754
-4.7443 1.3411 2.3754
-4.7807 1.1628 2.3754
-4.8115 0.9837 2.3754
-4.8366 0.8041 2.3754
-4.8561 0.6241 2.3754
-4.8699 0.4437 2.3754
-4.8782 0.2632 2.3754
-4.8808 0.0827 2.3754
-4.8778 -0.0977 2.3754
-4.8692 -0.2779 2.3754
-4.8550 -0.4577 2.3754
-4.8352 -0.6369 2.3754
-4.8099 -0.8155 2.3754
-4.7790 -0.9933 2.3754
-4.7426 -1.1700 2.3754
-4.7007 -1.3458 2.3754
-4.6532 -1.5203 2.3754
-4.6003 -1.6935 2.3754
-4.5420 -1.8652 2.3754
-4.4782 -2.0352 2.3754
-4.4090 -2.2036 2.3754
-4.3345 -2.3699 2.3754
-4.2546 -2.5343 2.3754
-4.1694 -2.6964 2.3754
-4.0789 -2.8562 2.3754
-3.9831 -3.0135 2.3754
-3.8822 -3.1681 2.3754
-3.7761 -3.3200 2.3754
-3.6649 -3.4689 2.3754
-3.5486 -3.6148 2.3754
-3.4274 -3.7572 2.3754
-3.3011 -3.8965 2.3754
-3.1700 -4.0321 2.3754
-3.0341 -4.1640 2.3754
-2.8934 -4.2920 2.3754
-2.7480 -4.4160 2.3754
-2.5980 -4.5357 2.3754
-2.4435 -4.6510 2.3754
-2.2846 -4.7618 2.3754
-2.1213 -4.8679 2.3754
-1.9539 -4.9691 2.3754
-1.7823 -5.0653 2.3754
-1.6067 -5.1561 2.3754
-1.4273 -5.2416 2.3754
-1.2441 -5.3216 2.3754
-1.0574 -5.3957 2.3754
-0.8672 -5.4640 2.3754
-0.6738 -5.5262 2.3754
-0.4772 -5.5821 2.3754
-0.2777 -5.6316 2.3754
-0.0755 -5.6745 2.3754
0.1292 -5.7106 2.3754
0.3363 -5.7399 2.3754
0.5455 -5.7620 2.3754
0.7565 -5.7770 2.3754
0.9692 -5.7846 2.3754
1.1833 -5.7848 2.3754
1.3985 -5.7773 2.3754
1.6146 -5.7621 2.3754
1.8312 -5.7390 2.3754
2.0481 -5.7079 2.3754
2.2649 -5.6688 2.3754
2.4814 -5.6216 2.3754
2.6972 -5.5661 2.3754
2.9120 -5.5024 2.3754
3.1255 -5.4304 2.3754
3.3372 -5.3500 2.3754
3.5469 -5.2613 2.3754
3.7541 -5.1642 2.3754
3.9584 -5.0588 2.3754
4.1596 -4.9451 2.3754
4.3572 -4.8232 2.3754
4.5509 -4.6931 2.3754
4.7401 -4.5549 2.3754
4.9247 -4.4088 2.3754
5.1040 -4.2549 2.3754
5.2778 -4.0933 2.3754
5.4457 -3.9243 2.3754
5.6073 -3.7480 2.3754
5.7622 -3.5647 2.3754
5.9101 -3.3747 2.3754
6.0505 -3.1781 2.3754
6.1832 -2.9753 2.3754
6.3078 -2.7666 2.3754
6.4240 -2.5524 2.3754
6.5315 -2.3330 2.3754
6.6300 -2.1088 2.3754
6.7192 -1.8801 2.3754
6.7988 -1.6475 2.3754
6.8688 -1.4112 2.3754
6.9288 -1.1720 2.3754
6.9787 -0.9299 2.3754
7.0183 -0.6857 2.3754
7.0475 -0.4397 2.3754
7.0662 -0.1926 2.3754
7.0743 0.0554 2.3754
7.0719 0.3035 2.3754
7.0589 0.5514 2.3754
7.0352 0.7985 2.3754
7.0010 1.0444 2.3754
6.9564 1.2885 2.3754
6.9014 1.5304 2.3754
6.8361 1.7695 2.3754
6.7608 2.0055 2.3754
6.6757 2.2378 2.3754
6.5808 2.4659 2.3754
6.4765 2.6896 2.3754
6.3631 2.9083 2.3754
6.2407 3.1216 2.3754
6.1098 3.3292 2.3754
5.9706 3.5307 2.3754
5.8234 3.7258 2.3754
5.6687 3.9141 2.3754
5.5068 4.0954 2.3754
5.3381 4.2693 2.3754
5.1629 4.4357 2.3754
4.9816 4.5943 2.3754
4.7947 4.7449 2.3754
4.6026 4.8874 2.3754
4.4057 5.0215 2.3754
4.2043 5.1472 2.3754
3.9990 5.2643 2.3754
3.7901 5.3728 2.3754
3.5780 5.4726 2.3754
3.3632 5.5636 2.3754
3.1460 5.6458 2.3754
2.9269 5.7193 2.3754
2.7062 5.7841 2.3754
0.9151 2.1512 0.8750
0.8377 2.1808 0.8799
0.7594 2.2076 0.8849
0.6800 2.2316 0.8899
0.5999 2.2527 0.8951
0.5191 2.2708 0.9002
0.4376 2.2860 0.9055
0.3557 2.2983 0.9108
0.2734 2.3076 0.9161
0.1907 2.3139 0.9214
0.1079 2.3173 0.9268
0.0251 2.3176 0.9322
-0.0577 2.3149 0.9376
-0.1404 2.3092 0.9430
-0.2228 2.3006 0.9484
-0.3049 2.2889 0.9538
-0.3865 2.2743 0.9591
-0.4675 2.2568 0.9645
-0.5478 2.2364 0.9698
-0.6273 2.2130 0.9750
-0.7059 2.1868 0.9803
-0.7836 2.1577 0.9854
-2.0626 5.0981 2.3754
-2.2319 4.9897 2.3754
-2.3965 4.8765 2.3754
-2.5565 4.7585 2.3754
-2.7116 4.6359 2.3754
-2.8619 4.5089 2.3754
-3.0071 4.3777 2.3754
-3.1473 4.2425 2.3754
-3.2823 4.1035 2.3754
-3.4121 3.9609 2.3754
-3.5366 3.8149 2.3754
-3.6558 3.6655 2.3754
-3.7697 3.5131 2.3754
-3.8781 3.3578 2.3754
-3.9811 3.1997 2.3754
-4.0786 3.0391 2.3754
-0.0382 2.1741 0.9369
-0.1158 2.1693 0.9420
-0.1933 2.1616 0.9470
-0.2703 2.1511 0.9521
-0.3470 2.1378 0.9571
-0.4231 2.1218 0.9621
-0.4987 2.1030 0.9671
-0.5734 2.0815 0.9721
-0.6474 2.0574 0.9770
-0.7204 2.0305 0.9818
-0.7925 2.0011 0.9866
-2.0686 4.7177 2.3754
-2.2251 4.6131 2.3754
-2.3773 4.5039 2.3754
-2.5250 4.3902 2.3754
-2.6681 4.2722 2.3754
-2.8066 4.1503 2.3754
-2.9404 4.0244 2.3754
-3.0693 3.8947 2.3754
-3.1934 3.7616 2.3754
-3.3126 3.6250 2.3754
-3.4268 3.4853 2.3754
-3.5359 3.3425 2.3754
-3.6399 3.1968 2.3754
-3.7388 3.0485 2.3754
-3.8326 2.8976 2.3754
-3.9211 2.7443 2.3754
-4.0043 2.5888 2.3754
-4.0824 2.4313 2.3754
-4.1551 2.2718 2.3754
-4.2225 2.1106 2.3754
-4.2846 1.9478 2.3754
-4.3414 1.7836 2.3754
-4.3928 1.6180 2.3754
-4.4388 1.4513 2.3754
-4.4795 1.2835 2.3754
-4.5148 1.1149 2.3754
-4.5447 0.9455 2.3754
-4.5693 0.7756 2.3754
-4.5884 0.6052 2.3754
-4.6022 0.4345 2.3754
-4.6106 0.2635 2.3754
-4.6137 0.0926 2.3754
-4.6114 -0.0783 2.3754
-4.6037 -0.2489 2.3754
-4.5907 -0.4192 2.3754
-4.5724 -0.5889 2.3754
-4.5488 -0.7581 2.3754
-4.5199 -0.9264 2.3754
-4.4857 -1.0939 2.3754
-4.4462 -1.2604 2.3754
-4.4014 -1.4257 2.3754
-4.3515 -1.5897 2.3754
-4.2964 -1.7522 2.3754
-4.2361 -1.9132 2.3754
-4.1706 -2.0725 2.3754
-4.1000 -2.2299 2.3754
-4.0243 -2.3853 2.3754
-3.9436 -2.5387 2.3754
-3.8579 -2.6897 2.3754
-3.7671 -2.8373 2.3754
-3.6715 -2.9844 2.3754
-3.5710 -3.1278 2.3754
-3.4657 -3.2683 2.3754
-3.3555 -3.4060 2.3754
-3.2406 -3.5403 2.3754
-3.1210 -3.6714 2.3754
-2.9969 -3.7991 2.3754
-2.8681 -3.9232 2.3754
-2.7350 -4.0436 2.3754
-2.5974 -4.1600 2.3754
-2.4555 -4.2724 2.3754
-2.3094 -4.3806 2.3754
-2.1591 -4.4845 2.3754
-2.0049 -4.5838 2.3754
-1.8467 -4.6784 2.3754
-1.6847 -4.7681 2.3754
-1.5190 -4.8529 2.3754
-1.3497 -4.9325 2.3754
-1.1770 -5.0068 2.3754
-1.0010 -5.0756 2.3754
-0.8218 -5.1387 2.3754
-0.6397 -5.1961 2.3754
-0.4547 -5.2476 2.3754
-0.2671 -5.2929 2.3754
-0.0770 -5.3320 2.3754
0.1154 -5.3647 2.3754
0.3098 -5.3909 2.3754
0.5061 -5.4104 2.3754
0.7040 -5.4232 2.3754
0.9034 -5.4290 2.3754
1.1039 -5.4277 2.3754
1.3054 -5.4194 2.3754
1.5075 -5.4037 2.3754
1.7101 -5.3807 2.3754
1.9127 -5.3503 2.3754
2.1152 -5.3123 2.3754
2.3173 -5.2667 2.3754
2.5185 -5.2135 2.3754
2.7187 -5.1526 2.3754
2.9176 -5.0840 2.3754
3.1147 -5.0076 2.3754
3.3098 -4.9235 2.3754
3.5024 -4.8317 2.3754
3.6924 -4.7321 2.3754
3.8792 -4.6249 2.3754
4.0627 -4.5101 2.3754
4.2423 -4.3878 2.3754
4.4178 -4.2580 2.3754
4.5889 -4.1210 2.3754
4.7550 -3.9768 2.3754
4.9160 -3.8255 2.3754
5.0714 -3.6675 2.3754
5.2210 -3.5028 2.3754
5.3643 -3.3316 2.3754
5.5010 -3.1543 2.3754
5.6309 -2.9710 2.3754
5.7535 -2.7820 2.3754
5.8687 -2.5877 2.3754
5.9761 -2.3883 2.3754
6.0754 -2.1842 2.3754
6.1664 -1.9757 2.3754
6.2489 -1.7632 2.3754
6.3226 -1.5470 2.3754
6.3874 -1.3275 2.3754
6.4430 -1.1052 2.3754
6.4893 -0.8805 2.3754
6.5262 -0.6537 2.3754
6.5535 -0.4254 2.3754
6.5712 -0.1959 2.3754
6.5792 0.0342 2.3754
6.5775 0.2646 2.3754
6.5661 0.4948 2.3754
6.5449 0.7243 2.3754
6.5140 0.9527 2.3754
6.4736 1.1795 2.3754
6.4235 1.4044 2.3754
6.3641 1.6268 2.3754
6.2955 1.8463 2.3754
6.2177 2.0625 2.3754
6.1310 2.2750 2.3754
6.0356 2.4834 2.3754
5.9317 2.6874 2.3754
5.8196 2.8864 2.3754
5.6996 3.0803 2.3754
5.5718 3.2687 2.3754
5.4367 3.4513 2.3754
5.2945 3.6277 2.3754
5.1456 3.7977 2.3754
4.9903 3.9611 2.3754
4.8290 4.1175 2.3754
4.6620 4.2669 2.3754
4.4896 4.4089 2.3754
4.3123 4.5435 2.3754
4.1304 4.6705 2.3754
3.9442 4.7897 2.3754
3.7543 4.9010 2.3754
3.5608 5.0044 2.3754
3.3643 5.0998 2.3754
3.1651 5.1871 2.3754
2.9635 5.2663 2.3754
2.7600 5.3374 2.3754
0.9400 1.9871 0.8740
0.8685 2.0177 0.8785
0.7960 2.0457 0.8831
0.7225 2.0710 0.8878
0.6481 2.0937 0.8926
0.5729 2.1137 0.8974
0.4971 2.1310 0.9022
0.4207 2.1455 0.9072
0.3438 2.1572 0.9121
0.2665 2.1662 0.9171
0.1889 2.1723 0.9221
0.1112 2.1756 0.9272
0.0334 2.1762 0.9322
-0.0443 2.1739 0.9373
-0.1220 2.1688 0.9424
-0.1994 2.1609 0.9474
-0.2764 2.1502 0.9525
-0.3531 2.1367 0.9575
-0.4292 2.1204 0.9625
-0.5046 2.1014 0.9675
-0.5793 2.0797 0.9725
-0.6532 2.0553 0.9774
-0.7262 2.0283 0.9822
-0.7981 1.9986 0.9870
-2.0812 4.7096 2.3754
-2.2373 4.6046 2.3754
-2.3891 4.4950 2.3754
-2.5365 4.3810 2.3754
-2.6793 4.2628 2.3754
-2.8174 4.1404 2.3754
-2.9508 4.0142 2.3754
-3.0793 3.8843 2.3754
-3.2030 3.7509 2.3754
-3.3218 3.6141 2.3754
-3.4356 3.4741 2.3754
-3.5443 3.3311 2.3754
-3.6479 3.1852 2.3754
-3.7464 3.0366 2.3754
-3.8397 2.8856 2.3754
-3.9279 2.7321 2.3754
-4.0107 2.5765 2.3754
-4.0883 2.4187 2.3754
-4.1606 2.2592 2.3754
-4.2276 2.0978 2.3754
-4.2893 1.9349 2.3754
-4.3456 1.7705 2.3754
-4.3966 1.6048 2.3754
-4.4423 1.4380 2.3754
-4.4825 1.2702 2.3754
-4.5174 1.1015 2.3754
-4.5469 0.9321 2.3754
-4.5710 0.7621 2.3754
-4.5897 0.5917 2.3754
-4.6031 0.4210 2.3754
-4.6111 0.2500 2.3754
-4.6137 0.0791 2.3754
-4.6110 -0.0918 2.3754
-4.6029 -0.2624 2.3754
-4.5895 -0.4326 2.3754
-4.5708 -0.6024 2.3754
-4.5467 -0.7714 2.3754
-4.5174 -0.9398 2.3754
-4.4827 -1.1072 2.3754
-4.4428 -1.2735 2.3754
-4.3977 -1.4387 2.3754
-4.3473 -1.6026 2.3754
-4.2918 -1.7650 2.3754
-4.2311 -1.9259 2.3754
-4.1652 -2.0850 2.3754
-4.0942 -2.2423 2.3754
-4.0181 -2.3976 2.3754
-3.9370 -2.5507 2.3754
-3.8509 -2.7015 2.3754
-3.7597 -2.8493 2.3754
-3.6638 -2.9959 2.3754
-3.5628 -3.1390 2.3754
-3.4571 -3.2793 2.3754
-3.3466 -3.4166 2.3754
-3.2313 -3.5508 2.3754
-3.1114 -3.6817 2.3754
-2.9868 -3.8091 2.3754
-2.8578 -3.9329 2.3754
-2.7242 -4.0529 2.3754
-2.5863 -4.1691 2.3754
-2.4441 -4.2812 2.3754
-2.2976 -4.3890 2.3754
-2.1471 -4.4925 2.3754
-1.9925 -4.5914 2.3754
-1.8340 -4.6856 2.3754
-1.6717 -4.7750 2.3754
-1.5057 -4.8594 2.3754
-1.3361 -4.9386 2.3754
-1.1632 -5.0124 2.3754
-0.9869 -5.0808 2.3754
-0.8075 -5.1435 2.3754
-0.6251 -5.2004 2.3754
-0.4399 -5.2514 2.3754
-0.2521 -5.2962 2.3754
-0.0618 -5.3348 2.3754
0.1307 -5.3670 2.3754
0.3253 -5.3927 2.3754
0.5217 -5.4117 2.3754
0.7198 -5.4239 2.3754
0.9192 -5.4291 2.3754
1.1198 -5.4273 2.3754
1.3214 -5.4184 2.3754
1.5235 -5.4022 2.3754
1.7261 -5.3786 2.3754
1.9288 -5.3475 2.3754
2.1312 -5.3089 2.3754
2.3332 -5.2628 2.3754
2.5344 -5.2090 2.3754
2.7345 -5.1475 2.3754
2.9333 -5.0782 2.3754
3.1302 -5.0012 2.3754
3.3251 -4.9165 2.3754
3.5176 -4.8241 2.3754
3.7073 -4.7239 2.3754
3.8939 -4.6161 2.3754
4.0770 -4.5007 2.3754
4.2564 -4.3778 2.3754
4.4315 -4.2475 2.3754
4.6022 -4.1098 2.3754
4.7680 -3.9651 2.3754
4.9285 -3.8133 2.3754
5.0835 -3.6547 2.3754
5.2325 -3.4894 2.3754
5.3753 -3.3178 2.3754
5.5115 -3.1400 2.3754
5.6408 -2.9562 2.3754
5.7629 -2.7668 2.3754
5.8775 -2.5721 2.3754
5.9842 -2.3723 2.3754
6.0829 -2.1679 2.3754
6.1733 -1.9590 2.3754
6.2551 -1.7462 2.3754
6.3281 -1.5297 2.3754
6.3921 -1.3100 2.3754
6.4470 -1.0875 2.3754
6.4926 -0.8626 2.3754
6.5287 -0.6357 2.3754
6.5553 -0.4073 2.3754
6.5722 -0.1777 2.3754
6.5795 0.0524 2.3754
6.5770 0.2828 2.3754
6.5647 0.5130 2.3754
6.5428 0.7423 2.3754
6.5112 0.9707 2.3754
6.4699 1.1974 2.3754
6.4192 1.4221 2.3754
6.3590 1.6442 2.3754
6.2896 1.8635 2.3754
6.2111 2.0794 2.3754
6.1237 2.2916 2.3754
6.0277 2.4997 2.3754
5.9232 2.7033 2.3754
5.8104 2.9020 2.3754
5.6897 3.0955 2.3754
5.5614 3.2834 2.3754
5.4257 3.4655 2.3754
5.2830 3.6414 2.3754
5.1336 3.8109 2.3754
4.9778 3.9737 2.3754
4.8160 4.1296 2.3754
4.6485 4.2784 2.3754
4.4757 4.4199 2.3754
4.2980 4.5538 2.3754
4.1158 4.6802 2.3754
3.9293 4.7988 2.3754
3.7391 4.9095 2.3754
3.5454 5.0123 2.3754
3.3487 5.1070 2.3754
3.1492 5.1937 2.3754
2.9475 5.2723 2.3754
2.7438 5.3427 2.3754
0.9344 1.9896 0.8744
0.8628 2.0200 0.8789
0.7902 2.0478 0.8835
0.7166 2.0729 0.8882
0.6422 2.0954 0.8930
0.5669 2.1152 0.8978
0.4910 2.1322 0.9026
0.4146 2.1465 0.9075
0.3377 2.1580 0.9125
0.2603 2.1667 0.9175
0.1828 2.1727 0.9225
0.1051 2.1758 0.9276
0.0273 2.1761 0.9326
-0.0505 2.1736 0.9377
-0.1281 2.1682 0.9428
-0.2055 2.1601 0.9478
-0.2825 2.1492 0.9529
-0.3591 2.1355 0.9579
-0.4351 2.1190 0.9629
-0.5106 2.0998 0.9679
-0.5852 2.0779 0.9729
-0.6590 2.0533 0.9778
-0.7319 2.0260 0.9826
-0.8038 1.9962 0.9874
-2.0937 4.7015 2.3754
-2.2495 4.5961 2.3754
-2.4010 4.4862 2.3754
-2.5479 4.3718 2.3754
-2.6903 4.2532 2.3754
-2.8281 4.1306 2.3754
-2.9611 4.0041 2.3754
-3.0893 3.8739 2.3754
-3.2126 3.7402 2.3754
-3.3310 3.6031 2.3754
-3.4444 3.4629 2.3754
-3.5527 3.3196 2.3754
-3.6559 3.1735 2.3754
-3.7540 3.0248 2.3754
-3.8469 2.8735 2.3754
-0.0324 2.0467 0.9370
-0.1055 2.0421 0.9418
-0.1783 2.0349 0.9466
-0.2509 2.0250 0.9513
-0.3231 2.0126 0.9561
-0.3947 1.9975 0.9608
-0.4658 1.9798 0.9655
-0.5362 1.9596 0.9701
-0.6058 1.9368 0.9748
-0.6745 1.9116 0.9793
-0.7423 1.8838 0.9839
-0.8091 1.8537 0.9883
-2.0929 4.3575 2.3754
-2.2372 4.2555 2.3754
-2.3774 4.1491 2.3754
-2.5133 4.0387 2.3754
-2.6449 3.9243 2.3754
-2.7720 3.8061 2.3754
-2.8947 3.6842 2.3754
-3.0127 3.5592 2.3754
-3.1261 3.4308 2.3754
-3.2348 3.2992 2.3754
-3.3388 3.1647 2.3754
-3.4379 3.0274 2.3754
-3.5322 2.8875 2.3754
-3.6216 2.7451 2.3754
-3.7061 2.6003 2.3754
-3.7856 2.4534 2.3754
-3.8601 2.3045 2.3754
-3.9296 2.1537 2.3754
-3.9940 2.0012 2.3754
-4.0534 1.8471 2.3754
-4.1077 1.6916 2.3754
-4.1569 1.5348 2.3754
-4.2010 1.3769 2.3754
-4.2400 1.2179 2.3754
-4.2738 1.0581 2.3754
-4.3025 0.8975 2.3754
-4.3261 0.7364 2.3754
-4.3445 0.5748 2.3754
-4.3578 0.4129 2.3754
-4.3660 0.2508 2.3754
-4.3690 0.0886 2.3754
-4.3669 -0.0735 2.3754
-4.3597 -0.2354 2.3754
-4.3474 -0.3969 2.3754
-4.3300 -0.5580 2.3754
-4.3076 -0.7184 2.3754
-4.2800 -0.8782 2.3754
-4.2474 -1.0370 2.3754
-4.2098 -1.1949 2.3754
-4.1672 -1.3516 2.3754
-4.1196 -1.5071 2.3754
-4.0670 -1.6612 2.3754
-4.0095 -1.8137 2.3754
-3.9471 -1.9646 2.3754
-3.8798 -2.1137 2.3754
-3.8077 -2.2609 2.3754
-3.7307 -2.4060 2.3754
-3.6490 -2.5489 2.3754
-3.5626 -2.6894 2.3754
-3.4715 -2.8275 2.3754
-3.3757 -2.9630 2.3754
-3.2754 -3.0957 2.3754
-3.1705 -3.2256 2.3754
-3.0611 -3.3523 2.3754
-2.9474 -3.4759 2.3754
-2.8293 -3.5962 2.3754
-2.7069 -3.7130 2.3754
-2.5803 -3.8262 2.3754
-2.4495 -3.9356 2.3754
-2.3148 -4.0412 2.3754
-2.1760 -4.1426 2.3754
-2.0334 -4.2399 2.3754
-1.8871 -4.3328 2.3754
-1.7371 -4.4212 2.3754
-1.5835 -4.5049 2.3754
-1.4265 -4.5838 2.3754
-1.2662 -4.6578 2.3754
-1.1028 -4.7268 2.3754
-0.9363 -4.7904 2.3754
-0.7669 -4.8487 2.3754
-0.5948 -4.9015 2.3754
-0.4202 -4.9486 2.3754
-0.2431 -4.9899 2.3754
-0.0638 -5.0253 2.3754
0.1175 -5.0546 2.3754
0.3007 -5.0777 2.3754
