ply
format ascii 1.0
element vertex 2187
property float32 x
property float32 y
property float32 z
end_header
6.1556 4.9173 2.3929
5.9520 5.1120 2.3929
5.7418 5.2981 2.3929
5.5254 5.4753 2.3929
5.3034 5.6436 2.3929
5.0760 5.8028 2.3929
4.8436 5.9528 2.3929
4.6068 6.0933 2.3929
4.3659 6.2245 2.3929
4.1213 6.3461 2.3929
3.8735 6.4581 2.3929
3.6228 6.5605 2.3929
3.3695 6.6532 2.3929
3.1142 6.7363 2.3930
2.8572 6.8098 2.3930
2.5988 6.8737 2.3930
0.9126 2.7025 0.9335
0.8149 2.7324 0.9378
0.7162 2.7588 0.9421
0.6166 2.7817 0.9464
0.5162 2.8009 0.9507
0.4152 2.8164 0.9549
0.3137 2.8283 0.9592
0.2118 2.8366 0.9634
0.1097 2.8411 0.9677
0.0074 2.8420 0.9718
-0.0948 2.8391 0.9760
-0.1968 2.8325 0.9800
-0.2986 2.8223 0.9841
-0.3999 2.8084 0.9881
-0.5006 2.7908 0.9920
-0.6007 2.7696 0.9958
-0.6999 2.7448 0.9996
-0.7981 2.7165 1.0033
-2.1288 6.3833 2.3942
-2.3487 6.2770 2.3942
-2.5640 6.1638 2.3941
-2.7747 6.0439 2.3940
-2.9806 5.9176 2.3940
-3.1815 5.7851 2.3939
-3.3772 5.6464 2.3938
-3.5676 5.5019 2.3937
-3.7526 5.3516 2.3936
-3.9320 5.1959 2.3935
-4.1057 5.0348 2.3935
-4.2736 4.8687 2.3934
-4.4356 4.6976 2.3933
-4.5915 4.5218 2.3932
-4.7413 4.3415 2.3931
-4.8848 4.1569 2.3930
-5.0220 3.9681 2.3929
-5.1528 3.7754 2.3928
-5.2770 3.5789 2.3926
-5.3947 3.3789 2.3925
-5.5057 3.1755 2.3924
-5.6100 2.9689 2.3923
-5.7074 2.7594 2.3922
-5.8035 2.5493 2.3943
-5.8898 2.3355 2.3953
-5.9688 2.1186 2.3960
-6.0390 1.8989 2.3961
-6.1022 1.6772 2.3962
-6.1582 1.4536 2.3963
-6.2071 1.2283 2.3963
-6.2487 1.0015 2.3964
-6.2830 0.7735 2.3965
-6.3101 0.5444 2.3966
-6.3298 0.3145 2.3966
-6.3422 0.0838 2.3967
-6.3471 -0.1473 2.3968
-6.3447 -0.3787 2.3968
-6.3348 -0.6101 2.3969
-6.3174 -0.8415 2.3970
-6.2926 -1.0725 2.3970
-6.2604 -1.3030 2.3971
-6.2206 -1.5327 2.3972
-6.1734 -1.7614 2.3972
-6.1187 -1.9890 2.3973
-6.0565 -2.2152 2.3973
-6.0007 -2.4454 2.4029
-5.9371 -2.6749 2.4085
-5.8631 -2.9020 2.4130
-5.7790 -3.1263 2.4166
-5.6853 -3.3478 2.4193
-5.5825 -3.5660 2.4214
-5.4706 -3.7805 2.4229
-5.3501 -3.9912 2.4238
-5.2214 -4.1978 2.4243
-5.0849 -4.4004 2.4245
-4.9408 -4.5986 2.4245
-4.7896 -4.7926 2.4245
-4.6315 -4.9822 2.4245
-4.4664 -5.1672 2.4245
-4.2947 -5.3472 2.4245
-4.1163 -5.5220 2.4245
-3.9313 -5.6914 2.4245
-3.7400 -5.8552 2.4245
-3.5423 -6.0130 2.4245
-3.3386 -6.1646 2.4245
-3.1289 -6.3098 2.4245
-2.9133 -6.4484 2.4245
-2.6922 -6.5800 2.4245
-2.4657 -6.7045 2.4245
-2.2340 -6.8215 2.4245
-1.9972 -6.9309 2.4245
-1.7557 -7.0325 2.4245
-1.5097 -7.1258 2.4245
-1.2594 -7.2109 2.4245
-1.0051 -7.2874 2.4245
-0.7471 -7.3550 2.4245
-0.4856 -7.4137 2.4245
-0.2211 -7.4632 2.4245
0.0463 -7.5033 2.4245
0.3161 -7.5339 2.4245
0.5880 -7.5546 2.4245
0.8617 -7.5655 2.4245
1.1368 -7.5664 2.4245
1.4129 -7.5570 2.4245
1.6896 -7.5374 2.4245
1.9666 -7.5073 2.4245
2.2433 -7.4667 2.4245
2.5194 -7.4156 2.4245
2.7944 -7.3539 2.4245
3.0679 -7.2814 2.4245
3.3395 -7.1984 2.4245
3.6087 -7.1046 2.4245
3.8749 -7.0003 2.4245
4.1379 -6.8853 2.4245
4.3970 -6.7598 2.4245
4.6519 -6.6239 2.4245
4.9014 -6.4770 2.4242
5.1441 -6.3180 2.4232
5.3786 -6.1465 2.4211
5.6042 -5.9630 2.4180
5.8201 -5.7679 2.4139
6.0258 -5.5620 2.4088
6.2212 -5.3462 2.4030
6.4072 -5.1222 2.3969
6.5876 -4.8936 2.3921
6.7623 -4.6605 2.3887
6.9287 -4.4212 2.3857
7.0873 -4.1763 2.3833
7.2368 -3.9256 2.3812
7.3776 -3.6696 2.3797
7.5086 -3.4082 2.3783
7.6297 -3.1420 2.3772
7.7410 -2.8713 2.3765
7.8416 -2.5963 2.3759
7.9314 -2.3176 2.3754
8.0103 -2.0355 2.3751
8.0781 -1.7504 2.3750
8.1348 -1.4630 2.3751
8.1802 -1.1735 2.3753
8.2142 -0.8826 2.3756
8.2369 -0.5907 2.3762
8.2476 -0.2982 2.3767
8.2481 -0.0055 2.3778
8.2374 0.2866 2.3790
8.2148 0.5780 2.3803
8.1824 0.8681 2.3822
8.1396 1.1569 2.3844
8.0869 1.4436 2.3872
8.0248 1.7283 2.3905
7.9497 2.0096 2.3935
7.8536 2.2847 2.3934
7.7468 2.5551 2.3933
7.6295 2.8204 2.3933
7.5021 3.0803 2.3932
7.3648 3.3342 2.3932
7.2179 3.5819 2.3931
7.0618 3.8229 2.3931
6.8969 4.0570 2.3931
6.7234 4.2837 2.3930
6.5419 4.5028 2.3930
6.3525 4.7140 2.3930
6.1559 4.9171 2.3929
5.9522 5.1118 2.3929
5.7420 5.2978 2.3929
5.5257 5.4751 2.3929
5.3036 5.6435 2.3929
5.0762 5.8027 2.3929
4.8439 5.9526 2.3929
4.6071 6.0932 2.3929
4.3662 6.2243 2.3929
4.1216 6.3459 2.3929
3.8738 6.4579 2.3929
3.6230 6.5603 2.3929
3.3698 6.6531 2.3929
3.1145 6.7362 2.3930
2.8575 6.8097 2.3930
2.5991 6.8736 2.3930
0.9127 2.7024 0.9335
0.8150 2.7324 0.9378
0.7163 2.7588 0.9421
0.6167 2.7816 0.9464
0.5164 2.8008 0.9507
0.4153 2.8164 0.9549
0.3138 2.8283 0.9592
0.2119 2.8366 0.9634
0.1098 2.8411 0.9676
0.0076 2.8419 0.9718
6.9258 2.8397 2.3934
6.8006 3.0746 2.3934
6.6667 3.3038 2.3933
6.5242 3.5270 2.3933
6.3736 3.7439 2.3932
6.2150 3.9542 2.3932
6.0490 4.1576 2.3932
5.8757 4.3539 2.3932
5.6955 4.5428 2.3931
5.5089 4.7240 2.3931
5.3161 4.8975 2.3931
5.1176 5.0629 2.3931
4.9136 5.2202 2.3931
4.7046 5.3691 2.3931
4.4910 5.5096 2.3931
4.2731 5.6414 2.3931
4.0512 5.7647 2.3931
3.8258 5.8792 2.3931
3.5973 5.9849 2.3931
3.3659 6.0817 2.3931
3.1321 6.1697 2.3931
2.8962 6.2488 2.3931
2.6585 6.3190 2.3932
0.9402 2.4794 0.9300
0.8505 2.5105 0.9340
0.7597 2.5383 0.9380
0.6680 2.5628 0.9420
0.5755 2.5840 0.9460
0.4822 2.6018 0.9499
0.3884 2.6162 0.9539
0.2940 2.6273 0.9579
0.1994 2.6349 0.9618
0.1045 2.6391 0.9657
0.0095 2.6399 0.9696
-0.0855 2.6372 0.9734
-0.1803 2.6311 0.9772
-0.2748 2.6216 0.9810
-0.3689 2.6087 0.9847
-0.4625 2.5923 0.9883
-0.5555 2.5726 0.9919
-0.6477 2.5496 0.9954
-0.7389 2.5233 0.9988
-0.8292 2.4936 1.0022
-2.1865 5.8587 2.3939
-2.3882 5.7543 2.3939
-2.5855 5.6437 2.3938
-2.7784 5.5269 2.3937
-2.9667 5.4042 2.3937
-3.1502 5.2757 2.3936
-3.3288 5.1416 2.3935
-3.5024 5.0020 2.3934
-3.6708 4.8573 2.3934
-3.8339 4.7075 2.3933
-3.9916 4.5528 2.3932
-4.1438 4.3935 2.3931
-4.2903 4.2296 2.3930
-4.4311 4.0615 2.3929
-4.5660 3.8892 2.3928
-4.6949 3.7129 2.3927
-4.8179 3.5329 2.3926
-4.9347 3.3493 2.3925
-5.0454 3.1623 2.3924
-5.1538 2.9744 2.3942
-5.2526 2.7815 2.3944
-5.3499 2.5880 2.3968
-5.4333 2.3880 2.3958
-5.5125 2.1867 2.3959
-5.5851 1.9831 2.3960
-5.6511 1.7773 2.3961
-5.7103 1.5696 2.3961
-5.7628 1.3601 2.3962
-5.8086 1.1491 2.3963
-5.8475 0.9367 2.3964
-5.8796 0.7231 2.3964
-5.9047 0.5085 2.3965
-5.9230 0.2930 2.3966
-5.9343 0.0770 2.3966
-5.9386 -0.1395 2.3967
-5.9359 -0.3562 2.3968
-5.9262 -0.5729 2.3968
-5.9095 -0.7895 2.3969
-5.8857 -1.0057 2.3969
-5.8549 -1.2214 2.3970
-5.8171 -1.4363 2.3971
-5.7722 -1.6503 2.3971
-5.7203 -1.8631 2.3972
-5.6613 -2.0745 2.3972
-5.5953 -2.2843 2.3973
-5.5314 -2.4965 2.4012
-5.4636 -2.7089 2.4067
-5.3863 -2.9189 2.4112
-5.2998 -3.1261 2.4148
-5.2045 -3.3302 2.4176
-5.1009 -3.5310 2.4199
-4.9892 -3.7283 2.4216
-4.8695 -3.9217 2.4229
-4.7421 -4.1110 2.4237
-4.6075 -4.2961 2.4242
-4.4656 -4.4767 2.4244
-4.3171 -4.6528 2.4245
-4.1620 -4.8243 2.4245
-4.0007 -4.9910 2.4245
-3.8332 -5.1529 2.4245
-3.6597 -5.3095 2.4245
-3.4802 -5.4608 2.4245
-3.2950 -5.6064 2.4245
-3.1042 -5.7462 2.4245
-2.9080 -5.8799 2.4245
-2.7064 -6.0072 2.4245
-2.4997 -6.1280 2.4245
-2.2880 -6.2421 2.4245
-2.0717 -6.3491 2.4245
-1.8508 -6.4489 2.4245
-1.6256 -6.5414 2.4245
-1.3963 -6.6261 2.4245
-1.1633 -6.7031 2.4245
-0.9266 -6.7720 2.4245
-0.6866 -6.8327 2.4245
-0.4436 -6.8851 2.4245
-0.1979 -6.9288 2.4245
0.0503 -6.9638 2.4245
0.3006 -6.9898 2.4245
0.5527 -7.0069 2.4245
0.8062 -7.0147 2.4245
1.0610 -7.0132 2.4245
1.3164 -7.0023 2.4245
1.5723 -6.9819 2.4245
1.8282 -6.9518 2.4245
2.0838 -6.9121 2.4245
2.3386 -6.8627 2.4245
2.5923 -6.8035 2.4245
2.8445 -6.7345 2.4245
3.0947 -6.6557 2.4245
3.3426 -6.5671 2.4245
3.5877 -6.4688 2.4245
3.8295 -6.3606 2.4244
4.0673 -6.2424 2.4242
4.3002 -6.1135 2.4234
4.5275 -5.9740 2.4222
4.7486 -5.8240 2.4204
4.9624 -5.6634 2.4178
5.1681 -5.4921 2.4142
5.3645 -5.3101 2.4096
5.5504 -5.1173 2.4035
5.7249 -4.9144 2.3960
5.9094 -4.7194 2.3959
6.0864 -4.5169 2.3958
6.2553 -4.3071 2.3957
6.4160 -4.0904 2.3956
6.5680 -3.8670 2.3955
6.7111 -3.6375 2.3954
6.8409 -3.4001 2.3939
6.9597 -3.1569 2.3919
7.0695 -2.9094 2.3902
7.1704 -2.6580 2.3889
7.2619 -2.4031 2.3879
7.3438 -2.1449 2.3871
7.4160 -1.8838 2.3867
7.4784 -1.6201 2.3864
7.5308 -1.3543 2.3865
7.5734 -1.0867 2.3869
7.6059 -0.8177 2.3875
7.6283 -0.5478 2.3884
7.6406 -0.2772 2.3895
7.6433 -0.0065 2.3911
7.6359 0.2641 2.3930
7.6149 0.5340 2.3940
7.5797 0.8021 2.3939
7.5337 1.0683 2.3938
7.4772 1.3321 2.3938
7.4102 1.5930 2.3937
7.3330 1.8506 2.3936
7.2458 2.1044 2.3936
7.1487 2.3541 2.3935
7.0420 2.5992 2.3935
6.9259 2.8394 2.3934
6.8008 3.0743 2.3934
6.6668 3.3035 2.3933
6.5244 3.5267 2.3933
6.3737 3.7437 2.3932
6.2152 3.9540 2.3932
6.0492 4.1574 2.3932
5.8759 4.3537 2.3932
5.6957 4.5426 2.3931
5.5091 4.7238 2.3931
5.3164 4.8973 2.3931
5.1178 5.0627 2.3931
4.9139 5.2200 2.3931
4.7049 5.3689 2.3931
4.4913 5.5094 2.3931
4.2733 5.6413 2.3931
4.0515 5.7646 2.3931
3.8261 5.8791 2.3931
3.5975 5.9848 2.3931
3.3662 6.0816 2.3931
3.1324 6.1696 2.3931
2.8964 6.2487 2.3931
2.6588 6.3189 2.3932
0.9403 2.4794 0.9300
0.8506 2.5104 0.9340
0.7599 2.5382 0.9380
0.6681 2.5628 0.9420
0.5756 2.5839 0.9460
0.4823 2.6018 0.9499
0.3885 2.6162 0.9539
0.2941 2.6273 0.9579
0.1995 2.6349 0.9618
0.1046 2.6391 0.9657
0.0096 2.6399 0.9696
-0.0854 2.6372 0.9734
-0.1802 2.6311 0.9772
-0.2747 2.6216 0.9810
-0.3688 2.6087 0.9847
-0.4624 2.5924 0.9883
-0.5554 2.5727 0.9919
-0.6476 2.5496 0.9954
-0.7388 2.5233 0.9988
-0.8291 2.4936 1.0022
-2.1863 5.8588 2.3939
-2.3879 5.7545 2.3939
-2.5853 5.6438 2.3938
-2.7782 5.5270 2.3937
-2.9665 5.4043 2.3937
-3.1500 5.2758 2.3936
-3.3286 5.1417 2.3935
-3.5022 5.0022 2.3934
-3.6706 4.8575 2.3934
-3.8338 4.7077 2.3933
-3.9914 4.5530 2.3932
-4.1436 4.3937 2.3931
-4.2901 4.2298 2.3930
-4.4309 4.0617 2.3929
-4.5658 3.8894 2.3928
-4.6948 3.7131 2.3927
-4.8178 3.5331 2.3926
-4.9346 3.3495 2.3925
-5.0452 3.1626 2.3924
-5.1536 2.9747 2.3942
-5.2524 2.7817 2.3944
-5.3498 2.5882 2.3968
-5.4332 2.3883 2.3958
-5.5124 2.1869 2.3959
-5.5850 1.9833 2.3960
-5.6510 1.7776 2.3961
-5.7103 1.5698 2.3961
-5.7628 1.3604 2.3962
-5.8085 1.1494 2.3963
-5.8475 0.9369 2.3964
-5.8795 0.7233 2.3964
-5.9047 0.5087 2.3965
-5.9230 0.2933 2.3966
-5.9343 0.0773 2.3966
-5.9386 -0.1392 2.3967
-5.9359 -0.3559 2.3968
-5.9262 -0.5727 2.3968
-5.9095 -0.7892 2.3969
-5.8858 -1.0055 2.3969
-5.8550 -1.2211 2.3970
-5.8171 -1.4361 2.3971
-5.7722 -1.6500 2.3971
-5.7203 -1.8628 2.3972
-5.6614 -2.0742 2.3972
-5.5954 -2.2841 2.3973
-5.5315 -2.4962 2.4012
-5.4638 -2.7087 2.4067
-5.3865 -2.9187 2.4112
-5.2999 -3.1259 2.4148
-5.2046 -3.3300 2.4176
-5.1010 -3.5308 2.4199
-4.9893 -3.7281 2.4216
-4.8696 -3.9215 2.4229
-4.7422 -4.1107 2.4237
-4.6076 -4.2959 2.4242
-4.4658 -4.4765 2.4244
-4.3172 -4.6526 2.4245
-4.1622 -4.8241 2.4245
-4.0009 -4.9908 2.4245
-3.8334 -5.1527 2.4245
-3.6598 -5.3094 2.4245
-3.4805 -5.4606 2.4245
-3.2953 -5.6063 2.4245
-3.1045 -5.7460 2.4245
-2.9082 -5.8797 2.4245
-2.7066 -6.0071 2.4245
-2.4999 -6.1279 2.4245
-2.2883 -6.2419 2.4245
-2.0719 -6.3490 2.4245
-1.8511 -6.4488 2.4245
-1.6259 -6.5412 2.4245
-1.3966 -6.6261 2.4245
-1.1635 -6.7030 2.4245
-0.9269 -6.7720 2.4245
-0.6869 -6.8327 2.4245
-0.4439 -6.8850 2.4245
-0.1982 -6.9287 2.4245
0.0500 -6.9637 2.4245
0.3003 -6.9898 2.4245
0.5524 -7.0068 2.4245
0.8059 -7.0147 2.4245
1.0606 -7.0132 2.4245
1.3161 -7.0023 2.4245
1.5719 -6.9819 2.4245
1.8279 -6.9519 2.4245
2.0835 -6.9122 2.4245
2.3383 -6.8627 2.4245
2.5920 -6.8035 2.4245
2.8442 -6.7345 2.4245
3.0944 -6.6558 2.4245
3.3423 -6.5672 2.4245
3.5874 -6.4689 2.4245
3.8292 -6.3608 2.4244
4.0670 -6.2426 2.4242
4.2999 -6.1137 2.4234
4.5273 -5.9742 2.4222
4.7483 -5.8242 2.4204
4.9622 -5.6636 2.4178
5.1678 -5.4923 2.4142
5.3643 -5.3103 2.4096
5.5502 -5.1176 2.4035
5.7247 -4.9146 2.3960
5.9092 -4.7196 2.3959
6.0862 -4.5171 2.3958
6.2551 -4.3073 2.3957
6.4158 -4.0906 2.3956
6.5678 -3.8673 2.3955
6.7109 -3.6378 2.3954
6.8407 -3.4004 2.3939
6.9596 -3.1572 2.3919
7.0694 -2.9097 2.3902
7.1703 -2.6584 2.3889
7.2618 -2.4034 2.3879
7.3437 -2.1452 2.3871
7.4159 -1.8841 2.3867
7.4783 -1.6204 2.3864
7.5308 -1.3546 2.3865
7.5733 -1.0870 2.3869
7.6058 -0.8180 2.3875
7.6283 -0.5481 2.3884
7.6406 -0.2775 2.3895
7.6433 -0.0068 2.3911
7.6359 0.2638 2.3930
7.6150 0.5336 2.3940
7.5797 0.8018 2.3939
7.5338 1.0680 2.3938
7.4772 1.3318 2.3938
7.4103 1.5927 2.3937
7.3331 1.8503 2.3936
7.2459 2.1041 2.3936
7.1488 2.3538 2.3935
7.0421 2.5989 2.3935
6.9261 2.8391 2.3934
6.8009 3.0740 2.3934
6.6670 3.3032 2.3933
6.5246 3.5265 2.3933
6.3739 3.7434 2.3932
6.2154 3.9537 2.3932
6.0494 4.1572 2.3932
5.8761 4.3535 2.3932
5.6960 4.5424 2.3931
5.5093 4.7236 2.3931
5.3166 4.8971 2.3931
5.1181 5.0625 2.3931
4.9141 5.2198 2.3931
4.7051 5.3687 2.3931
4.4915 5.5092 2.3931
4.2736 5.6411 2.3931
4.0517 5.7644 2.3931
3.8264 5.8789 2.3931
3.5978 5.9847 2.3931
3.3664 6.0815 2.3931
3.1326 6.1695 2.3931
2.8967 6.2486 2.3931
2.6591 6.3189 2.3932
0.9404 2.4793 0.9300
0.8507 2.5104 0.9340
0.7600 2.5382 0.9380
0.6682 2.5627 0.9420
0.5757 2.5839 0.9459
0.4824 2.6017 0.9499
0.3886 2.6162 0.9539
0.2943 2.6273 0.9579
0.1996 2.6349 0.9618
0.1047 2.6391 0.9657
0.0097 2.6399 0.9696
6.4255 2.6302 2.3936
6.3107 2.8484 2.3935
6.1878 3.0615 2.3935
6.0570 3.2692 2.3934
5.9186 3.4711 2.3934
5.7728 3.6670 2.3934
5.6200 3.8566 2.3934
5.4605 4.0397 2.3933
5.2946 4.2160 2.3933
5.1226 4.3854 2.3933
4.9448 4.5477 2.3933
4.7616 4.7025 2.3933
4.5733 4.8499 2.3932
4.3802 4.9897 2.3932
4.1827 5.1217 2.3932
3.9812 5.2458 2.3932
3.7758 5.3619 2.3932
3.5671 5.4699 2.3933
3.3553 5.5699 2.3933
3.1408 5.6616 2.3933
2.9239 5.7452 2.3933
2.7049 5.8205 2.3933
0.9622 2.2804 0.9270
0.8796 2.3123 0.9307
0.7959 2.3413 0.9344
0.7113 2.3672 0.9381
0.6257 2.3901 0.9419
0.5394 2.4098 0.9456
0.4524 2.4264 0.9493
0.3648 2.4399 0.9530
0.2768 2.4502 0.9567
0.1885 2.4573 0.9604
0.1000 2.4612 0.9640
0.0114 2.4619 0.9676
-0.0772 2.4594 0.9712
-0.1656 2.4537 0.9748
-0.2538 2.4448 0.9783
-0.3416 2.4328 0.9817
-0.4289 2.4175 0.9851
-0.5156 2.3992 0.9884
-0.6016 2.3777 0.9917
-0.6867 2.3531 0.9949
-0.7709 2.3255 0.9980
-0.8541 2.2948 1.0011
-2.2316 5.3904 2.3937
-2.4170 5.2878 2.3936
-2.5983 5.1793 2.3935
-2.7753 5.0652 2.3935
-2.9479 4.9456 2.3934
-3.1159 4.8207 2.3933
-3.2793 4.6907 2.3933
-3.4378 4.5556 2.3932
-3.5914 4.4157 2.3931
-3.7399 4.2712 2.3930
-3.8832 4.1223 2.3930
-4.0213 3.9690 2.3929
-4.1539 3.8116 2.3928
-4.2811 3.6503 2.3927
-4.4046 3.4867 2.3936
-4.5235 3.3201 2.3951
-4.6333 3.1475 2.3948
-4.7416 2.9744 2.3967
-4.8383 2.7946 2.3956
-4.9312 2.6132 2.3957
-5.0181 2.4291 2.3958
-5.0989 2.2424 2.3958
-5.1735 2.0533 2.3959
-5.2418 1.8621 2.3960
-5.3039 1.6688 2.3960
-5.3597 1.4736 2.3961
-5.4091 1.2768 2.3962
-5.4521 1.0785 2.3962
-5.4886 0.8789 2.3963
-5.5187 0.6782 2.3964
-5.5422 0.4765 2.3964
-5.5591 0.2741 2.3965
-5.5695 0.0711 2.3966
-5.5733 -0.1322 2.3966
-5.5705 -0.3358 2.3967
-5.5610 -0.5394 2.3967
-5.5449 -0.7428 2.3968
-5.5221 -0.9458 2.3969
-5.4927 -1.1483 2.3969
-5.4566 -1.3500 2.3970
-5.4139 -1.5507 2.3970
-5.3645 -1.7504 2.3971
-5.3086 -1.9486 2.3971
-5.2460 -2.1454 2.3972
-5.1768 -2.3403 2.3972
-5.1058 -2.5357 2.3995
-5.0342 -2.7326 2.4047
-4.9543 -2.9271 2.4091
-4.8660 -3.1187 2.4128
-4.7697 -3.3072 2.4158
-4.6654 -3.4921 2.4182
-4.5537 -3.6735 2.4201
-4.4349 -3.8512 2.4216
-4.3089 -4.0248 2.4227
-4.1763 -4.1940 2.4235
-4.0371 -4.3590 2.4241
-3.8914 -4.5191 2.4243
-3.7397 -4.6746 2.4245
-3.5821 -4.8251 2.4245
-3.4189 -4.9706 2.4245
-3.2502 -5.1110 2.4245
-3.0761 -5.2460 2.4245
-2.8969 -5.3754 2.4245
-2.7126 -5.4991 2.4245
-2.5235 -5.6167 2.4245
-2.3297 -5.7282 2.4245
-2.1313 -5.8333 2.4245
-1.9286 -5.9317 2.4245
-1.7218 -6.0233 2.4245
-1.5111 -6.1080 2.4245
-1.2967 -6.1855 2.4245
-1.0788 -6.2556 2.4245
-0.8578 -6.3181 2.4245
-0.6337 -6.3730 2.4245
-0.4070 -6.4200 2.4245
-0.1778 -6.4589 2.4245
0.0535 -6.4897 2.4245
0.2866 -6.5121 2.4245
0.5214 -6.5261 2.4245
0.7573 -6.5316 2.4245
0.9942 -6.5284 2.4245
1.2316 -6.5164 2.4245
1.4693 -6.4956 2.4245
1.7069 -6.4659 2.4245
1.9441 -6.4272 2.4245
2.1804 -6.3795 2.4245
2.4156 -6.3228 2.4245
2.6492 -6.2571 2.4245
2.8809 -6.1823 2.4245
3.1101 -6.0980 2.4243
3.3363 -6.0044 2.4239
3.5589 -5.9011 2.4233
3.7773 -5.7879 2.4221
3.9908 -5.6652 2.4205
4.1990 -5.5327 2.4184
4.4009 -5.3904 2.4156
4.5957 -5.2383 2.4119
4.7825 -5.0763 2.4071
4.9605 -4.9046 2.4012
5.1331 -4.7275 2.3960
5.3098 -4.5534 2.3959
5.4799 -4.3721 2.3958
5.6429 -4.1840 2.3957
5.7986 -3.9892 2.3957
5.9466 -3.7880 2.3956
6.0866 -3.5809 2.3955
6.2185 -3.3681 2.3954
6.3418 -3.1499 2.3953
6.4564 -2.9268 2.3952
6.5621 -2.6991 2.3951
6.6586 -2.4672 2.3950
6.7458 -2.2315 2.3950
6.8234 -1.9923 2.3949
6.8914 -1.7502 2.3948
6.9496 -1.5055 2.3947
6.9979 -1.2586 2.3946
7.0363 -1.0101 2.3945
7.0646 -0.7602 2.3945
7.0828 -0.5096 2.3944
7.0909 -0.2585 2.3943
7.0890 -0.0075 2.3942
7.0770 0.2431 2.3942
7.0550 0.4927 2.3941
7.0231 0.7410 2.3940
6.9813 0.9875 2.3940
6.9298 1.2318 2.3939
6.8688 1.4736 2.3938
6.7983 1.7123 2.3938
6.7185 1.9477 2.3937
6.6297 2.1794 2.3937
6.5320 2.4069 2.3936
6.4256 2.6299 2.3936
6.3109 2.8482 2.3935
6.1880 3.0613 2.3935
6.0572 3.2689 2.3934
5.9187 3.4709 2.3934
5.7730 3.6667 2.3934
5.6202 3.8564 2.3934
5.4607 4.0395 2.3933
5.2948 4.2158 2.3933
5.1228 4.3852 2.3933
4.9450 4.5475 2.3933
4.7618 4.7024 2.3933
4.5735 4.8498 2.3932
4.3805 4.9895 2.3932
4.1830 5.1215 2.3932
3.9814 5.2456 2.3932
3.7761 5.3617 2.3932
3.5674 5.4698 2.3933
3.3556 5.5698 2.3933
3.1410 5.6615 2.3933
2.9241 5.7451 2.3933
2.7051 5.8204 2.3933
0.9623 2.2804 0.9270
0.8797 2.3123 0.9307
0.7960 2.3413 0.9344
0.7114 2.3672 0.9381
0.6258 2.3900 0.9419
0.5395 2.4098 0.9456
0.4525 2.4264 0.9493
0.3649 2.4399 0.9530
0.2769 2.4502 0.9567
0.1886 2.4573 0.9604
0.1001 2.4612 0.9640
0.0115 2.4619 0.9676
-0.0771 2.4594 0.9712
-0.1655 2.4537 0.9748
-0.2537 2.4449 0.9782
-0.3415 2.4328 0.9817
-0.4288 2.4176 0.9851
-0.5155 2.3992 0.9884
-0.6015 2.3777 0.9917
-0.6866 2.3531 0.9949
-0.7708 2.3255 0.9980
-0.8540 2.2948 1.0011
-2.2314 5.3905 2.3937
-2.4168 5.2879 2.3936
-2.5981 5.1794 2.3935
-2.7751 5.0654 2.3935
-2.9477 4.9458 2.3934
-3.1157 4.8209 2.3933
-3.2791 4.6908 2.3933
-3.4376 4.5558 2.3932
-3.5912 4.4159 2.3931
-3.7397 4.2714 2.3930
-3.8831 4.1224 2.3930
-4.0211 3.9692 2.3929
-4.1538 3.8118 2.3928
-4.2809 3.6505 2.3927
-4.4044 3.4869 2.3936
-4.5234 3.3203 2.3951
-4.6332 3.1477 2.3948
-4.7415 2.9746 2.3967
-4.8382 2.7948 2.3956
-4.9311 2.6134 2.3957
-5.0180 2.4293 2.3958
-5.0988 2.2426 2.3958
-5.1734 2.0535 2.3959
-5.2418 1.8623 2.3960
-5.3039 1.6690 2.3960
-5.3597 1.4738 2.3961
-5.4091 1.2770 2.3962
-5.4521 1.0787 2.3962
-5.4886 0.8791 2.3963
-5.5186 0.6784 2.3964
-5.5422 0.4768 2.3964
-5.5591 0.2744 2.3965
-5.5695 0.0714 2.3966
-5.5733 -0.1320 2.3966
-5.5705 -0.3356 2.3967
-5.5610 -0.5392 2.3967
-5.5449 -0.7426 2.3968
-5.5222 -0.9456 2.3969
-5.4927 -1.1480 2.3969
-5.4567 -1.3498 2.3970
-5.4140 -1.5505 2.3970
-5.3646 -1.7501 2.3971
-5.3086 -1.9484 2.3971
-5.2460 -2.1451 2.3972
-5.1769 -2.3401 2.3972
-5.1059 -2.5355 2.3995
-5.0343 -2.7324 2.4047
-4.9544 -2.9269 2.4091
-4.8661 -3.1185 2.4128
-4.7698 -3.3070 2.4158
-4.6654 -3.4919 2.4182
-4.5538 -3.6733 2.4201
-4.4350 -3.8510 2.4216
-4.3091 -4.0245 2.4227
-4.1764 -4.1938 2.4235
-4.0374 -4.3588 2.4241
-3.8916 -4.5189 2.4243
-3.7399 -4.6744 2.4245
-3.5823 -4.8249 2.4245
-3.4191 -4.9704 2.4245
-3.2504 -5.1108 2.4245
-3.0764 -5.2458 2.4245
-2.8971 -5.3753 2.4245
-2.7128 -5.4989 2.4245
-2.5237 -5.6166 2.4245
-2.3299 -5.7281 2.4245
-2.1315 -5.8331 2.4245
-1.9289 -5.9316 2.4245
-1.7220 -6.0232 2.4245
-1.5113 -6.1079 2.4245
-1.2969 -6.1854 2.4245
-1.0791 -6.2555 2.4245
-0.8580 -6.3180 2.4245
-0.6340 -6.3729 2.4245
-0.4072 -6.4199 2.4245
-0.1781 -6.4589 2.4245
0.0532 -6.4896 2.4245
0.2864 -6.5121 2.4245
0.5211 -6.5261 2.4245
0.7570 -6.5316 2.4245
0.9939 -6.5284 2.4245
1.2313 -6.5164 2.4245
1.4690 -6.4956 2.4245
1.7066 -6.4659 2.4245
1.9438 -6.4273 2.4245
2.1801 -6.3796 2.4245
2.4154 -6.3229 2.4245
2.6489 -6.2571 2.4245
2.8806 -6.1824 2.4245
3.1098 -6.0981 2.4243
3.3360 -6.0045 2.4239
3.5587 -5.9012 2.4233
3.7770 -5.7881 2.4221
3.9906 -5.6653 2.4205
4.1987 -5.5328 2.4184
4.4007 -5.3906 2.4156
4.5955 -5.2385 2.4119
4.7823 -5.0765 2.4071
4.9603 -4.9048 2.4012
5.1329 -4.7277 2.3960
5.3096 -4.5536 2.3959
5.4797 -4.3724 2.3958
5.6427 -4.1842 2.3957
5.7984 -3.9894 2.3957
5.9464 -3.7883 2.3956
6.0865 -3.5811 2.3955
6.2183 -3.3684 2.3954
6.3417 -3.1502 2.3953
6.4563 -2.9271 2.3952
6.5620 -2.6994 2.3951
6.6585 -2.4675 2.3950
6.7457 -2.2318 2.3950
6.8233 -1.9926 2.3949
6.8913 -1.7505 2.3948
6.9496 -1.5058 2.3947
6.9979 -1.2589 2.3946
7.0362 -1.0104 2.3945
7.0645 -0.7605 2.3945
7.0828 -0.5099 2.3944
7.0909 -0.2588 2.3943
7.0890 -0.0078 2.3942
7.0770 0.2428 2.3942
7.0550 0.4924 2.3941
7.0231 0.7407 2.3940
6.9814 0.9872 2.3940
6.9299 1.2315 2.3939
6.8689 1.4733 2.3938
6.7984 1.7121 2.3938
6.7186 1.9475 2.3937
6.6298 2.1791 2.3937
6.5321 2.4066 2.3936
6.4258 2.6297 2.3936
6.3110 2.8479 2.3935
6.1881 3.0610 2.3935
6.0573 3.2687 2.3934
5.9189 3.4706 2.3934
5.7732 3.6665 2.3934
5.6204 3.8562 2.3934
5.4609 4.0393 2.3933
5.2950 4.2156 2.3933
5.1230 4.3850 2.3933
4.9452 4.5473 2.3933
4.7621 4.7022 2.3933
4.5738 4.8496 2.3932
4.3807 4.9894 2.3932
4.1832 5.1214 2.3932
3.9816 5.2455 2.3932
3.7763 5.3616 2.3932
3.5676 5.4697 2.3933
3.3558 5.5696 2.3933
3.1413 5.6614 2.3933
2.9244 5.7450 2.3933
2.7054 5.8203 2.3933
0.9624 2.2803 0.9270
0.8798 2.3123 0.9307
0.7961 2.3412 0.9344
0.7115 2.3672 0.9381
0.6259 2.3900 0.9419
0.5396 2.4098 0.9456
0.4526 2.4264 0.9493
0.3650 2.4399 0.9530
0.2770 2.4502 0.9567
0.1887 2.4573 0.9604
0.1002 2.4612 0.9640
0.0116 2.4619 0.9676
5.9865 2.4464 2.3937
5.8807 2.6499 2.3937
5.7673 2.8488 2.3936
5.6466 3.0427 2.3936
5.5187 3.2313 2.3936
5.3840 3.4144 2.3935
5.2428 3.5918 2.3935
5.0952 3.7632 2.3935
4.9416 3.9284 2.3935
4.7823 4.0872 2.3934
4.6176 4.2394 2.3934
4.4478 4.3848 2.3934
4.2731 4.5234 2.3934
4.0939 4.6548 2.3934
3.9105 4.7791 2.3934
3.7233 4.8962 2.3934
3.5324 5.0058 2.3934
3.3383 5.1080 2.3934
3.1412 5.2026 2.3934
2.9415 5.2897 2.3934
2.7394 5.3691 2.3934
2.5353 5.4408 2.3935
0.9031 2.1340 0.9279
0.8258 2.1639 0.9313
0.7474 2.1910 0.9348
0.6682 2.2153 0.9383
0.5881 2.2366 0.9418
0.5073 2.2551 0.9453
0.4258 2.2707 0.9487
0.3439 2.2832 0.9522
0.2615 2.2929 0.9557
0.1789 2.2995 0.9591
0.0960 2.3032 0.9625
0.0131 2.3038 0.9659
-0.0698 2.3015 0.9692
-0.1526 2.2962 0.9726
-0.2351 2.2878 0.9758
-0.3173 2.2765 0.9791
-0.3990 2.2623 0.9822
-0.4802 2.2451 0.9854
-0.5606 2.2250 0.9884
-0.6403 2.2020 0.9914
-0.7192 2.1761 0.9944
-0.7970 2.1474 0.9972
-0.8738 2.1159 1.0000
-2.2659 4.9688 2.3934
-2.4368 4.8677 2.3934
-2.6036 4.7612 2.3933
-2.7664 4.6495 2.3933
-2.9249 4.5328 2.3932
-3.0790 4.4111 2.3931
-3.2286 4.2847 2.3931
-3.3744 4.1547 2.3936
-3.5161 4.0206 2.3944
-3.6529 3.8825 2.3953
-3.7818 3.7371 2.3942
-3.9085 3.5905 2.3950
-4.0312 3.4409 2.3964
-4.1447 3.2842 2.3953
-4.2546 3.1257 2.3954
-4.3591 2.9639 2.3955
-4.4581 2.7989 2.3955
-4.5515 2.6310 2.3956
-4.6393 2.4603 2.3957
-4.7214 2.2870 2.3957
-4.7977 2.1112 2.3958
-4.8682 1.9332 2.3959
-4.9327 1.7531 2.3959
-4.9913 1.5710 2.3960
-5.0439 1.3872 2.3961
-5.0905 1.2018 2.3961
-5.1310 1.0149 2.3962
-5.1654 0.8269 2.3963
-5.1936 0.6378 2.3963
-5.2157 0.4478 2.3964
-5.2315 0.2571 2.3964
-5.2411 0.0658 2.3965
-5.2444 -0.1257 2.3966
-5.2415 -0.3175 2.3966
-5.2322 -0.5092 2.3967
-5.2167 -0.7008 2.3967
-5.1949 -0.8919 2.3968
-5.1668 -1.0825 2.3968
-5.1324 -1.2723 2.3969
-5.0917 -1.4612 2.3969
-5.0447 -1.6490 2.3970
-4.9914 -1.8355 2.3970
-4.9319 -2.0204 2.3971
-4.8662 -2.2037 2.3971
-4.7943 -2.3851 2.3972
-4.7172 -2.5649 2.3977
-4.6426 -2.7475 2.4026
-4.5603 -2.9277 2.4070
-4.4704 -3.1049 2.4106
-4.3731 -3.2789 2.4137
-4.2689 -3.4497 2.4163
-4.1574 -3.6166 2.4183
-4.0394 -3.7797 2.4199
-3.9152 -3.9390 2.4214
-3.7844 -4.0937 2.4223
-3.6478 -4.2443 2.4232
-3.5052 -4.3901 2.4237
-3.3571 -4.5313 2.4241
-3.2034 -4.6673 2.4243
-3.0446 -4.7983 2.4244
-2.8806 -4.9241 2.4245
-2.7118 -5.0444 2.4245
-2.5383 -5.1593 2.4245
-2.3603 -5.2685 2.4245
-2.1781 -5.3718 2.4245
-1.9916 -5.4690 2.4245
-1.8012 -5.5600 2.4245
-1.6070 -5.6445 2.4245
-1.4092 -5.7224 2.4245
-1.2081 -5.7936 2.4245
-1.0038 -5.8578 2.4245
-0.7965 -5.9149 2.4245
-0.5867 -5.9648 2.4245
-0.3744 -6.0073 2.4245
-0.1600 -6.0422 2.4245
0.0564 -6.0694 2.4245
0.2743 -6.0889 2.4245
0.4936 -6.1005 2.4245
0.7140 -6.1041 2.4245
0.9351 -6.0996 2.4245
1.1567 -6.0869 2.4245
1.3783 -6.0660 2.4245
1.5998 -6.0368 2.4245
1.8207 -5.9992 2.4245
2.0408 -5.9532 2.4244
2.2595 -5.8985 2.4243
2.4767 -5.8353 2.4240
2.6915 -5.7630 2.4235
2.9038 -5.6820 2.4228
3.1130 -5.5920 2.4218
3.3186 -5.4929 2.4203
3.5200 -5.3850 2.4185
3.7169 -5.2681 2.4162
3.9081 -5.1420 2.4131
4.0932 -5.0067 2.4093
4.2715 -4.8624 2.4045
4.4424 -4.7095 2.3989
4.6125 -4.5554 2.3961
4.7822 -4.3996 2.3960
4.9460 -4.2370 2.3959
5.1034 -4.0678 2.3958
5.2544 -3.8923 2.3957
5.3985 -3.7107 2.3957
5.5355 -3.5233 2.3956
5.6652 -3.3304 2.3955
5.7872 -3.1323 2.3954
5.9014 -2.9293 2.3953
6.0076 -2.7217 2.3952
6.1054 -2.5099 2.3952
6.1948 -2.2943 2.3951
6.2756 -2.0751 2.3950
6.3476 -1.8528 2.3949
6.4107 -1.6278 2.3948
6.4647 -1.4004 2.3948
6.5096 -1.1710 2.3947
6.5454 -0.9401 2.3946
6.5718 -0.7079 2.3945
6.5890 -0.4750 2.3945
6.5969 -0.2417 2.3944
6.5955 -0.0084 2.3943
6.5848 0.2245 2.3943
6.5649 0.4566 2.3942
6.5358 0.6874 2.3941
6.4976 0.9167 2.3941
6.4505 1.1440 2.3940
6.3944 1.3690 2.3939
6.3297 1.5912 2.3939
6.2563 1.8104 2.3938
6.1746 2.0262 2.3938
6.0846 2.2382 2.3937
5.9866 2.4461 2.3937
5.8808 2.6497 2.3937
5.7674 2.8485 2.3936
5.6467 3.0424 2.3936
5.5189 3.2311 2.3936
5.3842 3.4142 2.3935
5.2429 3.5916 2.3935
5.0954 3.7630 2.3935
4.9418 3.9282 2.3935
4.7825 4.0870 2.3934
4.6178 4.2392 2.3934
4.4480 4.3847 2.3934
4.2733 4.5232 2.3934
4.0941 4.6547 2.3934
3.9108 4.7790 2.3934
3.7235 4.8960 2.3934
3.5326 5.0057 2.3934
3.3385 5.1079 2.3934
3.1415 5.2025 2.3934
2.9417 5.2896 2.3934
2.7397 5.3690 2.3934
2.5356 5.4408 2.3935
0.9031 2.1340 0.9278
0.8259 2.1639 0.9313
0.7475 2.1910 0.9348
0.6683 2.2152 0.9383
0.5882 2.2366 0.9418
0.5074 2.2551 0.9452
0.4259 2.2706 0.9487
0.3440 2.2832 0.9522
0.2616 2.2929 0.9557
0.1790 2.2995 0.9591
0.0961 2.3032 0.9625
0.0132 2.3038 0.9659
-0.0697 2.3015 0.9692
-0.1525 2.2962 0.9726
-0.2350 2.2878 0.9758
-0.3172 2.2766 0.9791
-0.3989 2.2623 0.9822
-0.4801 2.2451 0.9854
-0.5606 2.2250 0.9884
-0.6403 2.2020 0.9914
-0.7191 2.1761 0.9944
-0.7969 2.1474 0.9972
-0.8737 2.1159 1.0000
-2.2657 4.9689 2.3934
-2.4366 4.8678 2.3934
-2.6035 4.7614 2.3933
-2.7662 4.6497 2.3933
-2.9247 4.5329 2.3932
-3.0788 4.4113 2.3931
-3.2284 4.2848 2.3931
-3.3742 4.1549 2.3936
-3.5158 4.0209 2.3944
-3.6527 3.8827 2.3953
-3.7817 3.7372 2.3942
-3.9084 3.5907 2.3950
-4.0311 3.4411 2.3964
-4.1445 3.2844 2.3953
-4.2545 3.1259 2.3954
-4.3590 2.9641 2.3955
-4.4580 2.7991 2.3955
-4.5514 2.6312 2.3956
-4.6392 2.4605 2.3957
-4.7213 2.2872 2.3957
-4.7976 2.1114 2.3958
-4.8681 1.9334 2.3959
-4.9326 1.7533 2.3959
-4.9913 1.5712 2.3960
-5.0439 1.3874 2.3961
-5.0905 1.2020 2.3961
-5.1310 1.0152 2.3962
-5.1654 0.8271 2.3963
-5.1936 0.6380 2.3963
-5.2156 0.4480 2.3964
-5.2315 0.2573 2.3964
-5.2411 0.0661 2.3965
-5.2444 -0.1255 2.3966
-5.2415 -0.3173 2.3966
-5.2322 -0.5090 2.3967
-5.2167 -0.7005 2.3967
-5.1949 -0.8917 2.3968
-5.1668 -1.0823 2.3968
-5.1324 -1.2721 2.3969
-5.0917 -1.4610 2.3969
-5.0447 -1.6488 2.3970
-4.9915 -1.8353 2.3970
-4.9320 -2.0202 2.3971
-4.8663 -2.2035 2.3971
-4.7944 -2.3848 2.3972
-4.7173 -2.5646 2.3977
-4.6427 -2.7473 2.4026
-4.5604 -2.9275 2.4070
-4.4705 -3.1047 2.4106
-4.3732 -3.2787 2.4137
-4.2690 -3.4495 2.4163
-4.1576 -3.6164 2.4183
-4.0396 -3.7795 2.4199
-3.9153 -3.9388 2.4214
-3.7845 -4.0935 2.4223
-3.6480 -4.2441 2.4232
-3.5054 -4.3899 2.4237
-3.3573 -4.5312 2.4241
-3.2036 -4.6671 2.4243
-3.0447 -4.7981 2.4244
-2.8808 -4.9239 2.4245
-2.7120 -5.0443 2.4245
-2.5386 -5.1592 2.4245
-2.3606 -5.2684 2.4245
-2.1783 -5.3717 2.4245
-1.9918 -5.4689 2.4245
-1.8014 -5.5599 2.4245
-1.6072 -5.6444 2.4245
-1.4095 -5.7224 2.4245
-1.2083 -5.7935 2.4245
-1.0040 -5.8578 2.4245
-0.7968 -5.9149 2.4245
-0.5870 -5.9647 2.4245
-0.3747 -6.0072 2.4245
-0.1602 -6.0422 2.4245
0.0561 -6.0694 2.4245
0.2741 -6.0889 2.4245
0.4934 -6.1005 2.4245
0.7137 -6.1041 2.4245
0.9348 -6.0996 2.4245
1.1564 -6.0869 2.4245
1.3780 -6.0660 2.4245
1.5995 -6.0368 2.4245
1.8205 -5.9993 2.4245
2.0405 -5.9532 2.4244
2.2593 -5.8986 2.4243
2.4764 -5.8353 2.4240
2.6912 -5.7631 2.4235
2.9036 -5.6821 2.4228
3.1128 -5.5921 2.4218
3.3183 -5.4930 2.4203
3.5198 -5.3851 2.4185
3.7166 -5.2683 2.4162
3.9079 -5.1421 2.4131
4.0930 -5.0069 2.4093
4.2713 -4.8626 2.4045
4.4422 -4.7097 2.3989
4.6123 -4.5555 2.3961
4.7820 -4.3998 2.3960
4.9458 -4.2372 2.3959
5.1033 -4.0680 2.3958
5.2542 -3.8925 2.3957
5.3984 -3.7109 2.3957
5.5354 -3.5235 2.3956
5.6651 -3.3306 2.3955
5.7871 -3.1325 2.3954
5.9013 -2.9295 2.3953
6.0074 -2.7219 2.3952
6.1053 -2.5102 2.3952
6.1947 -2.2945 2.3951
6.2755 -2.0754 2.3950
6.3475 -1.8531 2.3949
6.4106 -1.6281 2.3948
6.4646 -1.4007 2.3948
6.5096 -1.1713 2.3947
6.5453 -0.9403 2.3946
6.5718 -0.7082 2.3945
6.5890 -0.4753 2.3945
6.5969 -0.2420 2.3944
6.5955 -0.0087 2.3943
6.5848 0.2242 2.3943
6.5649 0.4563 2.3942
6.5358 0.6872 2.3941
6.4977 0.9164 2.3941
6.4505 1.1437 2.3940
6.3945 1.3687 2.3939
6.3298 1.5909 2.3939
6.2564 1.8101 2.3938
6.1747 2.0259 2.3938
6.0847 2.2379 2.3937
5.9868 2.4459 2.3937
5.8810 2.6494 2.3937
5.7676 2.8483 2.3936
5.6468 3.0422 2.3936
5.5190 3.2309 2.3936
5.3843 3.4140 2.3935
5.2431 3.5914 2.3935
5.0955 3.7628 2.3935
4.9420 3.9280 2.3935
4.7827 4.0868 2.3934
4.6180 4.2390 2.3934
4.4482 4.3845 2.3934
4.2735 4.5230 2.3934
4.0943 4.6545 2.3934
3.9110 4.7789 2.3934
3.7237 4.8959 2.3934
3.5329 5.0056 2.3934
3.3388 5.1077 2.3934
3.1417 5.2024 2.3934
2.9420 5.2895 2.3934
2.7399 5.3689 2.3934
2.5358 5.4407 2.3935
0.9032 2.1340 0.9278
0.8259 2.1639 0.9313
0.7476 2.1910 0.9348
0.6684 2.2152 0.9383
0.5883 2.2366 0.9418
0.5075 2.2551 0.9452
0.4260 2.2706 0.9487
0.3441 2.2832 0.9522
0.2617 2.2928 0.9557
0.1791 2.2995 0.9591
0.0962 2.3032 0.9625
0.0133 2.3038 0.9659
5.5978 2.2836 2.3938
5.4998 2.4741 2.3938
5.3947 2.6603 2.3938
5.2828 2.8419 2.3937
5.1642 3.0187 2.3937
5.0392 3.1904 2.3937
4.9080 3.3568 2.3936
4.7709 3.5177 2.3936
4.6282 3.6729 2.3936
4.4800 3.8222 2.3936
4.3268 3.9654 2.3936
4.1687 4.1023 2.3935
4.0061 4.2328 2.3935
3.8391 4.3568 2.3935
3.6682 4.4742 2.3935
3.4935 4.5848 2.3935
3.3155 4.6885 2.3935
3.1343 4.7853 2.3935
2.9502 4.8750 2.3935
2.7636 4.9577 2.3936
2.5748 5.0333 2.3936
0.9216 1.9724 0.9254
0.8501 2.0030 0.9286
0.7776 2.0311 0.9319
0.7040 2.0565 0.9351
0.6296 2.0793 0.9384
0.5544 2.0993 0.9417
0.4785 2.1166 0.9450
0.4021 2.1312 0.9482
0.3252 2.1430 0.9515
0.2478 2.1521 0.9547
0.1702 2.1583 0.9580
0.0925 2.1617 0.9612
0.0146 2.1623 0.9643
-0.0632 2.1601 0.9675
-0.1409 2.1551 0.9706
-0.2184 2.1473 0.9737
-0.2956 2.1367 0.9767
-0.3723 2.1233 0.9797
-0.4485 2.1072 0.9826
-0.5240 2.0883 0.9855
-0.5988 2.0667 0.9883
-0.6728 2.0424 0.9911
-0.7459 2.0155 0.9937
-0.8180 1.9859 0.9964
-2.1315 4.6851 2.3953
-2.2929 4.5903 2.3952
-2.4508 4.4907 2.3952
-2.6050 4.3863 2.3954
-2.7553 4.2774 2.3957
-2.9017 4.1639 2.3961
-3.0436 4.0453 2.3962
-3.1801 3.9211 2.3955
-3.3123 3.7930 2.3950
-3.4407 3.6617 2.3951
-3.5644 3.5265 2.3952
-3.6834 3.3875 2.3952
-3.7975 3.2448 2.3953
-3.9066 3.0987 2.3954
-4.0107 2.9493 2.3954
-4.1096 2.7968 2.3955
-4.2033 2.6412 2.3955
-4.2918 2.4828 2.3956
-4.3749 2.3218 2.3957
-4.4526 2.1583 2.3957
-4.5248 1.9924 2.3958
-4.5915 1.8243 2.3959
-4.6526 1.6543 2.3959
-4.7080 1.4824 2.3960
-4.7578 1.3088 2.3960
-4.8018 1.1337 2.3961
-4.8400 0.9573 2.3962
-4.8725 0.7797 2.3962
-4.8991 0.6011 2.3963
-4.9198 0.4217 2.3963
-4.9346 0.2416 2.3964
-4.9435 0.0610 2.3965
-4.9464 -0.1199 2.3965
-4.9434 -0.3009 2.3966
-4.9344 -0.4819 2.3966
-4.9195 -0.6627 2.3967
-4.8986 -0.8431 2.3967
-4.8717 -1.0229 2.3968
-4.8388 -1.2020 2.3968
-4.8000 -1.3802 2.3969
-4.7552 -1.5573 2.3969
-4.7045 -1.7331 2.3969
-4.6479 -1.9074 2.3970
-4.5854 -2.0801 2.3970
-4.5170 -2.2510 2.3971
-4.4429 -2.4198 2.3971
-4.3629 -2.5864 2.3971
-4.2830 -2.7543 2.4004
-4.1988 -2.9213 2.4046
-4.1080 -3.0855 2.4083
-4.0101 -3.2462 2.4114
-3.9056 -3.4035 2.4140
-3.7950 -3.5574 2.4163
-3.6779 -3.7071 2.4180
-3.5551 -3.8530 2.4196
-3.4267 -3.9946 2.4208
-3.2924 -4.1319 2.4218
-3.1529 -4.2645 2.4225
-3.0083 -4.3926 2.4232
-2.8586 -4.5155 2.4236
-2.7042 -4.6335 2.4239
-2.5451 -4.7463 2.4242
-2.3815 -4.8536 2.4243
-2.2137 -4.9555 2.4244
-2.0420 -5.0517 2.4245
-1.8662 -5.1421 2.4245
-1.6869 -5.2265 2.4245
-1.5040 -5.3048 2.4245
-1.3179 -5.3769 2.4245
-1.1287 -5.4426 2.4245
-0.9366 -5.5017 2.4245
-0.7418 -5.5541 2.4245
-0.5447 -5.5996 2.4245
-0.3454 -5.6382 2.4245
-0.1440 -5.6698 2.4245
0.0589 -5.6941 2.4245
0.2633 -5.7110 2.4245
0.4689 -5.7206 2.4245
0.6754 -5.7227 2.4245
0.8824 -5.7172 2.4245
1.0898 -5.7038 2.4244
1.2971 -5.6828 2.4243
1.5042 -5.6539 2.4242
1.7105 -5.6168 2.4238
1.9158 -5.5718 2.4234
2.1197 -5.5186 2.4229
2.3218 -5.4570 2.4221
2.5217 -5.3874 2.4211
2.7189 -5.3093 2.4198
2.9131 -5.2229 2.4182
3.1038 -5.1283 2.4162
3.2902 -5.0249 2.4136
3.4719 -4.9132 2.4104
3.6483 -4.7931 2.4065
3.8189 -4.6648 2.4019
3.9835 -4.5287 2.3966
4.1508 -4.3950 2.3961
4.3139 -4.2554 2.3960
4.4718 -4.1094 2.3959
4.6241 -3.9571 2.3959
4.7705 -3.7987 2.3958
4.9109 -3.6344 2.3957
5.0449 -3.4646 2.3956
5.1723 -3.2893 2.3956
5.2928 -3.1090 2.3955
5.4063 -2.9239 2.3954
5.5124 -2.7343 2.3953
5.6111 -2.5405 2.3953
5.7021 -2.3428 2.3952
5.7853 -2.1415 2.3951
5.8604 -1.9370 2.3950
5.9274 -1.7296 2.3950
5.9862 -1.5197 2.3949
6.0366 -1.3076 2.3948
6.0785 -1.0936 2.3947
6.1119 -0.8782 2.3947
6.1368 -0.6617 2.3946
6.1530 -0.4444 2.3945
6.1606 -0.2268 2.3945
6.1596 -0.0092 2.3944
6.1500 0.2081 2.3943
6.1319 0.4246 2.3943
6.1052 0.6401 2.3942
6.0701 0.8541 2.3942
6.0267 1.0664 2.3941
5.9750 1.2764 2.3941
5.9152 1.4841 2.3940
5.8475 1.6889 2.3940
5.7719 1.8906 2.3939
5.6887 2.0888 2.3939
5.5979 2.2834 2.3938
5.4999 2.4739 2.3938
5.3949 2.6601 2.3938
5.2829 2.8417 2.3937
5.1643 3.0185 2.3937
5.0393 3.1902 2.3937
4.9081 3.3567 2.3936
4.7711 3.5176 2.3936
4.6283 3.6728 2.3936
4.4802 3.8220 2.3936
4.3270 3.9652 2.3936
4.1689 4.1022 2.3935
4.0062 4.2327 2.3935
3.8393 4.3567 2.3935
3.6684 4.4741 2.3935
3.4938 4.5846 2.3935
3.3157 4.6884 2.3935
3.1345 4.7852 2.3935
2.9505 4.8749 2.3935
2.7639 4.9576 2.3936
2.5750 5.0332 2.3936
0.9217 1.9723 0.9254
0.8502 2.0030 0.9286
0.7777 2.0311 0.9319
0.7041 2.0565 0.9351
0.6297 2.0792 0.9384
0.5545 2.0993 0.9417
0.4786 2.1166 0.9450
0.4022 2.1312 0.9482
0.3252 2.1430 0.9515
0.2479 2.1520 0.9547
0.1703 2.1583 0.9579
0.0925 2.1617 0.9612
0.0147 2.1623 0.9643
-0.0631 2.1601 0.9675
-0.1408 2.1551 0.9706
-0.2183 2.1473 0.9737
-0.2955 2.1367 0.9767
-0.3722 2.1233 0.9797
-0.4484 2.1072 0.9826
-0.5239 2.0883 0.9855
-0.5987 2.0667 0.9883
-0.6727 2.0424 0.9910
-0.7458 2.0155 0.9937
-0.8179 1.9860 0.9964
-2.1313 4.6852 2.3953
-2.2928 4.5904 2.3952
-2.4506 4.4908 2.3952
-2.6048 4.3865 2.3954
-2.7551 4.2775 2.3957
-2.9016 4.1640 2.3961
-3.0434 4.0455 2.3962
-3.1799 3.9212 2.3955
-3.3122 3.7932 2.3950
-3.4406 3.6619 2.3951
-3.5643 3.5267 2.3952
-3.6832 3.3876 2.3952
-3.7973 3.2450 2.3953
-3.9065 3.0989 2.3954
-4.0105 2.9495 2.3954
-4.1095 2.7969 2.3955
-4.2032 2.6414 2.3955
-4.2917 2.4830 2.3956
-4.3748 2.3220 2.3957
-4.4525 2.1585 2.3957
-4.5247 1.9926 2.3958
-4.5914 1.8245 2.3959
-4.6525 1.6545 2.3959
-4.7080 1.4826 2.3960
-4.7577 1.3090 2.3960
-4.8018 1.1339 2.3961
-4.8400 0.9575 2.3962
-4.8724 0.7799 2.3962
-4.8990 0.6013 2.3963
-4.9197 0.4219 2.3963
-4.9346 0.2418 2.3964
-4.9435 0.0612 2.3965
-4.9464 -0.1196 2.3965
-4.9434 -0.3007 2.3966
-4.9345 -0.4817 2.3966
-4.9195 -0.6625 2.3967
-4.8986 -0.8429 2.3967
-4.8717 -1.0227 2.3968
-4.8388 -1.2018 2.3968
-4.8000 -1.3800 2.3969
-4.7553 -1.5571 2.3969
-4.7046 -1.7329 2.3969
-4.6479 -1.9072 2.3970
-4.5855 -2.0799 2.3970
-4.5171 -2.2508 2.3971
-4.4430 -2.4196 2.3971
-4.3630 -2.5862 2.3971
-4.2831 -2.7541 2.4004
-4.1989 -2.9211 2.4046
-4.1081 -3.0853 2.4083
-4.0101 -3.2461 2.4114
-3.9057 -3.4034 2.4140
-3.7951 -3.5572 2.4163
-3.6781 -3.7069 2.4180
-3.5553 -3.8528 2.4195
-3.4268 -3.9944 2.4208
-3.2926 -4.1317 2.4218
-3.1531 -4.2643 2.4225
-3.0085 -4.3924 2.4232
-2.8588 -4.5153 2.4236
-2.7044 -4.6334 2.4239
-2.5453 -4.7462 2.4242
-2.3817 -4.8535 2.4243
-2.2139 -4.9553 2.4244
-2.0422 -5.0516 2.4245
-1.8665 -5.1420 2.4245
-1.6871 -5.2264 2.4245
-1.5042 -5.3047 2.4245
-1.3181 -5.3768 2.4245
-1.1289 -5.4425 2.4245
-0.9367 -5.5016 2.4245
-0.7421 -5.5540 2.4245
-0.5449 -5.5996 2.4245
-0.3456 -5.6382 2.4245
-0.1442 -5.6697 2.4245
0.0587 -5.6940 2.4245
0.2631 -5.7110 2.4245
0.4687 -5.7206 2.4245
0.6752 -5.7227 2.4245
0.8822 -5.7172 2.4245
1.0895 -5.7039 2.4244
1.2969 -5.6828 2.4243
1.5039 -5.6540 2.4242
1.7102 -5.6169 2.4238
1.9156 -5.5718 2.4234
2.1195 -5.5186 2.4229
2.3216 -5.4571 2.4221
2.5215 -5.3875 2.4211
2.7186 -5.3094 2.4198
2.9129 -5.2230 2.4182
3.1036 -5.1284 2.4162
3.2900 -5.0251 2.4136
3.4717 -4.9134 2.4104
3.6481 -4.7933 2.4065
3.8187 -4.6649 2.4019
3.9834 -4.5289 2.3966
4.1506 -4.3951 2.3961
4.3137 -4.2556 2.3960
4.4716 -4.1096 2.3959
4.6239 -3.9573 2.3959
4.7704 -3.7989 2.3958
4.9107 -3.6346 2.3957
5.0447 -3.4648 2.3956
5.1721 -3.2895 2.3956
5.2927 -3.1093 2.3955
5.4061 -2.9241 2.3954
5.5123 -2.7345 2.3953
5.6110 -2.5407 2.3953
5.7020 -2.3430 2.3952
5.7852 -2.1418 2.3951
5.8603 -1.9373 2.3950
5.9274 -1.7299 2.3950
5.9861 -1.5200 2.3949
6.0365 -1.3078 2.3948
6.0785 -1.0939 2.3947
6.1119 -0.8785 2.3947
6.1367 -0.6620 2.3946
6.1530 -0.4447 2.3945
6.1606 -0.2271 2.3945
6.1596 -0.0094 2.3944
6.1500 0.2078 2.3943
6.1319 0.4244 2.3943
6.1052 0.6398 2.3942
6.0702 0.8539 2.3942
6.0267 1.0661 2.3941
5.9751 1.2762 2.3941
5.9153 1.4838 2.3940
5.8476 1.6886 2.3940
5.7720 1.8903 2.3939
5.6888 2.0886 2.3939
5.5981 2.2831 2.3938
5.5001 2.4737 2.3938
5.3950 2.6599 2.3938
5.2830 2.8415 2.3937
5.1645 3.0183 2.3937
5.0395 3.1900 2.3937
4.9083 3.3565 2.3936
4.7712 3.5174 2.3936
4.6285 3.6726 2.3936
4.4804 3.8219 2.3936
4.3272 3.9651 2.3936
4.1691 4.1020 2.3935
4.0064 4.2325 2.3935
3.8395 4.3566 2.3935
3.6686 4.4739 2.3935
3.4940 4.5845 2.3935
3.3159 4.6883 2.3935
3.1347 4.7850 2.3935
2.9507 4.8748 2.3935
2.7641 4.9575 2.3936
2.5752 5.0331 2.3936
0.9218 1.9723 0.9254
0.8503 2.0030 0.9286
0.7777 2.0310 0.9319
0.7042 2.0565 0.9351
0.6298 2.0792 0.9384
0.5546 2.0993 0.9417
0.4787 2.1166 0.9449
0.4023 2.1312 0.9482
0.3253 2.1430 0.9515
0.2480 2.1520 0.9547
0.1704 2.1583 0.9579
0.0926 2.1617 0.9611
0.0148 2.1623 0.9643
5.2510 2.1383 2.3939
5.1598 2.3171 2.3939
5.0620 2.4920 2.3939
4.9578 2.6626 2.3938
4.8474 2.8287 2.3938
4.7309 2.9902 2.3938
4.6086 3.1468 2.3938
4.4808 3.2982 2.3937
4.3477 3.4443 2.3937
4.2094 3.5850 2.3937
4.0664 3.7200 2.3937
3.9187 3.8492 2.3937
3.7667 3.9725 2.3937
3.6107 4.0897 2.3937
3.4508 4.2007 2.3937
3.2874 4.3054 2.3937
3.1208 4.4037 2.3937
2.9511 4.4955 2.3937
2.7787 4.5807 2.3937
2.6038 4.6594 2.3937
0.9360 1.8249 0.9232
0.8698 1.8561 0.9263
0.8024 1.8850 0.9293
0.7341 1.9114 0.9324
0.6649 1.9353 0.9354
0.5949 1.9567 0.9385
0.5241 1.9756 0.9416
0.4527 1.9919 0.9447
0.3807 2.0056 0.9478
0.3083 2.0167 0.9508
0.2355 2.0252 0.9539
0.1625 2.0310 0.9569
0.0893 2.0342 0.9599
0.0160 2.0348 0.9629
-0.0573 2.0327 0.9659
-0.1304 2.0280 0.9688
-0.2033 2.0207 0.9717
-0.2760 2.0107 0.9746
-0.3482 1.9981 0.9774
-0.4199 1.9829 0.9801
-0.4910 1.9651 0.9828
-0.5614 1.9448 0.9855
-0.6311 1.9219 0.9881
-0.6999 1.8966 0.9906
-0.7677 1.8688 0.9931
-0.8344 1.8385 0.9955
-2.1601 4.3340 2.3947
-2.3096 4.2406 2.3947
-2.4554 4.1424 2.3948
-2.5975 4.0396 2.3948
-2.7358 3.9323 2.3949
-2.8701 3.8207 2.3949
-3.0003 3.7049 2.3950
-3.1263 3.5850 2.3951
-3.2481 3.4612 2.3951
-3.3653 3.3336 2.3952
-3.4781 3.2024 2.3952
-3.5863 3.0678 2.3953
-3.6898 2.9298 2.3954
-3.7885 2.7887 2.3954
-3.8824 2.6446 2.3955
-3.9713 2.4976 2.3955
-4.0552 2.3479 2.3956
-4.1340 2.1956 2.3957
-4.2077 2.0410 2.3957
-4.2762 1.8841 2.3958
-4.3394 1.7252 2.3958
-4.3973 1.5643 2.3959
-4.4499 1.4017 2.3960
-4.4970 1.2374 2.3960
-4.5387 1.0718 2.3961
-4.5749 0.9048 2.3961
-4.6055 0.7368 2.3962
-4.6306 0.5678 2.3962
-4.6501 0.3980 2.3963
-4.6640 0.2275 2.3964
-4.6723 0.0567 2.3964
-4.6749 -0.1145 2.3965
-4.6719 -0.2858 2.3965
-4.6632 -0.4570 2.3966
-4.6488 -0.6280 2.3966
-4.6287 -0.7986 2.3967
-4.6030 -0.9687 2.3967
-4.5715 -1.1380 2.3967
-4.5345 -1.3065 2.3968
-4.4917 -1.4738 2.3968
-4.4434 -1.6399 2.3969
-4.3894 -1.8046 2.3969
-4.3299 -1.9677 2.3969
-4.2648 -2.1290 2.3970
-4.1943 -2.2884 2.3970
-4.1182 -2.4456 2.3970
-4.0368 -2.6005 2.3971
-3.9516 -2.7541 2.3981
-3.8659 -2.9088 2.4021
-3.7739 -3.0605 2.4057
-3.6759 -3.2092 2.4089
-3.5717 -3.3543 2.4116
-3.4615 -3.4956 2.4138
-3.3460 -3.6333 2.4158
-3.2247 -3.7668 2.4174
-3.0983 -3.8963 2.4188
-2.9667 -4.0212 2.4199
-2.8302 -4.1417 2.4209
-2.6891 -4.2576 2.4217
-2.5433 -4.3685 2.4223
-2.3932 -4.4745 2.4228
-2.2389 -4.5755 2.4232
-2.0805 -4.6709 2.4235
-1.9184 -4.7610 2.4237
-1.7526 -4.8457 2.4239
-1.5834 -4.9246 2.4241
-1.4109 -4.9976 2.4242
-1.2353 -5.0646 2.4242
-1.0570 -5.1255 2.4242
-0.8759 -5.1801 2.4243
-0.6924 -5.2284 2.4243
-0.5068 -5.2703 2.4243
-0.3192 -5.3055 2.4243
-0.1297 -5.3340 2.4242
0.0612 -5.3557 2.4242
0.2534 -5.3706 2.4242
0.4466 -5.3782 2.4241
0.6405 -5.3787 2.4239
0.8348 -5.3720 2.4236
1.0294 -5.3580 2.4234
1.2238 -5.3367 2.4231
1.4176 -5.3076 2.4225
1.6108 -5.2712 2.4219
1.8029 -5.2272 2.4212
1.9934 -5.1753 2.4202
2.1821 -5.1159 2.4190
2.3685 -5.0485 2.4175
2.5524 -4.9735 2.4157
2.7331 -4.8905 2.4134
2.9102 -4.7997 2.4107
3.0833 -4.7011 2.4075
3.2519 -4.5946 2.4036
3.4153 -4.4803 2.3991
3.5768 -4.3629 2.3962
3.7382 -4.2442 2.3961
3.8951 -4.1191 2.3961
4.0475 -3.9879 2.3960
4.1948 -3.8506 2.3959
4.3370 -3.7075 2.3959
4.4737 -3.5587 2.3958
4.6047 -3.4046 2.3957
4.7297 -3.2452 2.3956
4.8486 -3.0809 2.3956
4.9611 -2.9118 2.3955
5.0669 -2.7383 2.3954
5.1660 -2.5607 2.3954
5.2581 -2.3792 2.3953
5.3430 -2.1940 2.3952
5.4206 -2.0055 2.3951
5.4908 -1.8141 2.3951
5.5534 -1.6200 2.3950
5.6083 -1.4235 2.3949
5.6554 -1.2250 2.3949
5.6947 -1.0248 2.3948
5.7260 -0.8232 2.3947
5.7494 -0.6206 2.3947
5.7648 -0.4172 2.3946
5.7721 -0.2136 2.3945
5.7715 -0.0099 2.3945
5.7628 0.1935 2.3944
5.7462 0.3962 2.3944
5.7216 0.5980 2.3943
5.6892 0.7984 2.3943
5.6490 0.9972 2.3942
5.6012 1.1940 2.3941
5.5457 1.3885 2.3941
5.4829 1.5805 2.3941
5.4127 1.7697 2.3940
5.3354 1.9556 2.3940
5.2511 2.1381 2.3939
5.1599 2.3169 2.3939
5.0622 2.4918 2.3939
4.9579 2.6624 2.3938
4.8475 2.8285 2.3938
4.7311 2.9900 2.3938
4.6088 3.1466 2.3938
4.4810 3.2980 2.3937
4.3478 3.4442 2.3937
4.2096 3.5849 2.3937
4.0665 3.7199 2.3937
3.9189 3.8491 2.3937
3.7669 3.9724 2.3937
3.6109 4.0896 2.3937
3.4510 4.2005 2.3937
3.2876 4.3052 2.3937
3.1210 4.4035 2.3937
2.9513 4.4954 2.3937
2.7789 4.5806 2.3937
2.6040 4.6593 2.3937
0.9360 1.8248 0.9232
0.8698 1.8561 0.9263
0.8025 1.8849 0.9293
0.7342 1.9113 0.9324
0.6650 1.9353 0.9354
0.5949 1.9567 0.9385
0.5242 1.9755 0.9416
0.4527 1.9918 0.9447
0.3808 2.0056 0.9478
0.3084 2.0167 0.9508
0.2356 2.0252 0.9539
0.1625 2.0310 0.9569
0.0893 2.0342 0.9599
0.0161 2.0348 0.9629
-0.0572 2.0327 0.9659
-0.1303 2.0280 0.9688
-0.2033 2.0207 0.9717
-0.2759 2.0107 0.9746
-0.3481 1.9981 0.9774
-0.4198 1.9829 0.9801
-0.4909 1.9651 0.9828
-0.5613 1.9448 0.9855
-0.6310 1.9220 0.9881
-0.6998 1.8966 0.9906
-0.7676 1.8688 0.9931
-0.8344 1.8386 0.9955
-2.1600 4.3341 2.3947
-2.3094 4.2407 2.3947
-2.4553 4.1425 2.3948
-2.5974 4.0397 2.3948
-2.7357 3.9324 2.3949
-2.8700 3.8208 2.3949
-3.0002 3.7050 2.3950
-3.1262 3.5851 2.3951
-3.2479 3.4613 2.3951
-3.3652 3.3338 2.3952
-3.4780 3.2026 2.3952
-3.5862 3.0680 2.3953
-3.6897 2.9300 2.3954
-3.7884 2.7889 2.3954
-3.8823 2.6447 2.3955
-3.9712 2.4978 2.3955
-4.0551 2.3481 2.3956
-4.1339 2.1958 2.3957
-4.2076 2.0412 2.3957
-4.2761 1.8843 2.3958
-4.3393 1.7253 2.3958
-4.3973 1.5645 2.3959
-4.4498 1.4019 2.3960
-4.4969 1.2376 2.3960
-4.5386 1.0720 2.3961
-4.5748 0.9050 2.3961
-4.6055 0.7370 2.3962
-4.6306 0.5679 2.3962
-4.6501 0.3982 2.3963
-4.6640 0.2277 2.3964
-4.6723 0.0569 2.3964
-4.6749 -0.1143 2.3965
-4.6719 -0.2856 2.3965
-4.6632 -0.4568 2.3966
-4.6488 -0.6278 2.3966
-4.6287 -0.7984 2.3967
-4.6030 -0.9685 2.3967
-4.5716 -1.1378 2.3967
-4.5345 -1.3063 2.3968
-4.4918 -1.4736 2.3968
-4.4434 -1.6397 2.3969
-4.3895 -1.8044 2.3969
-4.3300 -1.9675 2.3969
-4.2649 -2.1288 2.3970
-4.1943 -2.2882 2.3970
-4.1183 -2.4454 2.3970
-4.0369 -2.6003 2.3971
-3.9517 -2.7539 2.3981
-3.8661 -2.9086 2.4021
-3.7740 -3.0603 2.4057
-3.6760 -3.2090 2.4089
-3.5718 -3.3541 2.4116
-3.4617 -3.4955 2.4138
-3.3461 -3.6332 2.4158
-3.2248 -3.7666 2.4174
-3.0984 -3.8961 2.4188
-2.9668 -4.0210 2.4199
-2.8304 -4.1416 2.4209
-2.6892 -4.2574 2.4217
-2.5434 -4.3683 2.4223
-2.3933 -4.4744 2.4228
-2.2391 -4.5753 2.4232
-2.0807 -4.6708 2.4235
-1.9186 -4.7609 2.4237
-1.7528 -4.8456 2.4239
-1.5836 -4.9245 2.4241
-1.4111 -4.9975 2.4242
-1.2355 -5.0645 2.4242
-1.0572 -5.1254 2.4242
-0.8761 -5.1801 2.4243
-0.6927 -5.2284 2.4243
-0.5070 -5.2702 2.4243
-0.3194 -5.3054 2.4243
-0.1300 -5.3340 2.4242
0.0610 -5.3557 2.4242
0.2532 -5.3705 2.4242
0.4463 -5.3782 2.4241
0.6403 -5.3787 2.4239
0.8346 -5.3720 2.4236
1.0291 -5.3580 2.4234
1.2235 -5.3367 2.4231
1.4174 -5.3077 2.4225
1.6105 -5.2713 2.4219
1.8026 -5.2272 2.4212
1.9932 -5.1754 2.4202
2.1819 -5.1160 2.4190
2.3683 -5.0486 2.4175
2.5522 -4.9736 2.4157
2.7329 -4.8906 2.4134
2.9100 -4.7998 2.4107
3.0831 -4.7012 2.4075
3.2517 -4.5947 2.4036
3.4151 -4.4805 2.3991
3.5766 -4.3630 2.3962
3.7380 -4.2443 2.3961
3.8950 -4.1193 2.3961
4.0473 -3.9880 2.3960
4.1947 -3.8508 2.3959
4.3368 -3.7077 2.3959
4.4735 -3.5589 2.3958
4.6045 -3.4047 2.3957
4.7296 -3.2454 2.3956
4.8485 -3.0811 2.3956
4.9609 -2.9120 2.3955
5.0668 -2.7386 2.3954
5.1659 -2.5609 2.3954
5.2580 -2.3794 2.3953
5.3429 -2.1942 2.3952
5.4205 -2.0058 2.3951
5.4907 -1.8143 2.3951
5.5533 -1.6202 2.3950
5.6082 -1.4237 2.3949
5.6554 -1.2252 2.3949
5.6947 -1.0250 2.3948
5.7260 -0.8234 2.3947
5.7494 -0.6208 2.3947
5.7648 -0.4175 2.3946
5.7721 -0.2138 2.3945
5.7715 -0.0101 2.3945
5.7628 0.1933 2.3944
5.7462 0.3960 2.3944
5.7216 0.5977 2.3943
5.6892 0.7981 2.3943
5.6491 0.9969 2.3942
5.6012 1.1938 2.3942
5.5458 1.3883 2.3941
5.4829 1.5803 2.3941
5.4128 1.7694 2.3940
5.3355 1.9554 2.3940
5.2512 2.1379 2.3939
5.1600 2.3167 2.3939
5.0623 2.4916 2.3939
4.9581 2.6622 2.3938
4.8476 2.8284 2.3938
4.7312 2.9898 2.3938
4.6089 3.1464 2.3938
4.4811 3.2979 2.3937
4.3480 3.4440 2.3937
4.2098 3.5847 2.3937
4.0667 3.7197 2.3937
3.9191 3.8489 2.3937
3.7671 3.9722 2.3937
3.6111 4.0894 2.3937
3.4512 4.2004 2.3937
3.2878 4.3051 2.3937
3.1212 4.4034 2.3937
2.9515 4.4953 2.3937
2.7791 4.5805 2.3937
2.6042 4.6592 2.3937
0.9361 1.8248 0.9232
0.8699 1.8561 0.9263
0.8026 1.8849 0.9293
0.7343 1.9113 0.9324
0.6651 1.9352 0.9354
0.5950 1.9566 0.9385
0.5243 1.9755 0.9416
0.4528 1.9918 0.9447
0.3809 2.0055 0.9478
0.3085 2.0167 0.9508
0.2357 2.0251 0.9539
0.1626 2.0310 0.9569
0.0894 2.0342 0.9599
0.0161 2.0348 0.9629
4.9392 2.0078 2.3940
4.8541 2.1760 2.3940
4.7628 2.3406 2.3940
4.6655 2.5013 2.3939
4.5623 2.6578 2.3939
4.4535 2.8100 2.3939
4.3391 2.9576 2.3939
4.2196 3.1005 2.3938
4.0950 3.2384 2.3938
3.9656 3.3713 2.3938
3.8316 3.4988 2.3938
3.6933 3.6210 2.3938
3.5508 3.7376 2.3938
3.4045 3.8486 2.3938
3.2546 3.9537 2.3938
3.1013 4.0530 2.3938
2.9448 4.1463 2.3938
2.7855 4.2335 2.3938
2.6235 4.3146 2.3938
0.9466 1.6895 0.9214
0.8852 1.7212 0.9242
0.8227 1.7507 0.9271
0.7592 1.7779 0.9299
0.6948 1.8028 0.9328
0.6294 1.8254 0.9357
0.5634 1.8455 0.9386
0.4966 1.8633 0.9415
0.4292 1.8787 0.9444
0.3613 1.8916 0.9473
0.2930 1.9021 0.9502
0.2243 1.9101 0.9531
0.1554 1.9156 0.9560
0.0863 1.9187 0.9588
0.0172 1.9192 0.9616
-0.0519 1.9172 0.9644
-0.1209 1.9128 0.9672
-0.1897 1.9058 0.9699
-0.2582 1.8964 0.9726
-0.3263 1.8845 0.9753
-0.3940 1.8702 0.9779
-0.4611 1.8534 0.9804
-0.5275 1.8343 0.9829
-0.5932 1.8127 0.9854
-0.6581 1.7888 0.9878
-0.7221 1.7626 0.9901
-0.7851 1.7340 0.9924
-0.8470 1.7032 0.9946
-2.1812 4.0132 2.3948
-2.3195 3.9207 2.3948
-2.4543 3.8238 2.3949
-2.5856 3.7226 2.3949
-2.7130 3.6173 2.3950
-2.8366 3.5079 2.3950
-2.9563 3.3947 2.3951
-3.0718 3.2777 2.3951
-3.1832 3.1572 2.3952
-3.2903 3.0331 2.3953
-3.3931 2.9058 2.3953
-3.4914 2.7753 2.3954
-3.5852 2.6417 2.3954
-3.6744 2.5053 2.3955
-3.7588 2.3661 2.3955
-3.8385 2.2243 2.3956
-3.9134 2.0801 2.3957
-3.9834 1.9336 2.3957
-4.0485 1.7850 2.3958
