ply
format ascii 1.0
element vertex 2169
property float32 x
property float32 y
property float32 z
end_header
2.3197 -7.1722 2.3924
2.5612 -7.0437 2.3924
2.7969 -6.9078 2.3924
3.0266 -6.7648 2.3924
3.2501 -6.6150 2.3924
3.4674 -6.4586 2.3924
3.6782 -6.2959 2.3924
3.8825 -6.1272 2.3924
4.0801 -5.9527 2.3924
4.2709 -5.7727 2.3924
4.3216 -5.4205 2.3209
4.3366 -5.0532 2.2400
4.4956 -4.8708 2.2400
4.6480 -4.6840 2.2401
4.7936 -4.4933 2.2401
4.9324 -4.2988 2.2402
5.0643 -4.1007 2.2402
5.1892 -3.8992 2.2402
5.3075 -3.6949 2.2404
5.4194 -3.4880 2.2407
5.5243 -3.2784 2.2411
5.6221 -3.0661 2.2415
5.7128 -2.8515 2.2418
5.7964 -2.6348 2.2422
5.8728 -2.4161 2.2425
5.9400 -2.1948 2.2420
5.9961 -1.9710 2.2400
6.0368 -1.7434 2.2350
6.0717 -1.5168 2.2306
6.1025 -1.2905 2.2273
6.1271 -1.0644 2.2244
6.1454 -0.8384 2.2218
6.1573 -0.6127 2.2194
6.1671 -0.3875 2.2189
6.1701 -0.1622 2.2184
6.1664 0.0624 2.2180
6.1568 0.2868 2.2181
6.1408 0.5108 2.2183
6.1180 0.7337 2.2186
6.0881 0.9566 2.2188
6.0513 1.1782 2.2191
6.0075 1.3987 2.2193
5.9569 1.6179 2.2195
5.8996 1.8352 2.2198
5.8353 2.0510 2.2200
5.7641 2.2656 2.2203
5.6012 2.4403 2.1872
5.6018 2.6873 2.2207
5.5114 2.8953 2.2213
5.4150 3.1012 2.2222
5.3123 3.3044 2.2231
5.2057 3.5072 2.2253
5.0943 3.7082 2.2283
4.9767 3.9071 2.2316
4.8539 4.1037 2.2355
4.7271 4.3008 2.2409
4.5868 4.4881 2.2431
4.4357 4.6671 2.2430
4.2779 4.8413 2.2427
4.1141 5.0109 2.2424
3.9443 5.1758 2.2421
3.7686 5.3356 2.2418
3.5872 5.4904 2.2414
3.4001 5.6397 2.2410
3.2074 5.7834 2.2407
3.0093 5.9214 2.2403
2.8063 6.0542 2.2401
2.5982 6.1812 2.2401
2.3851 6.3018 2.2401
2.1671 6.4159 2.2400
0.8741 2.9329 1.0071
0.7684 2.9644 1.0025
0.6615 2.9920 0.9977
0.5537 3.0158 0.9929
0.4451 3.0357 0.9881
0.3359 3.0516 0.9831
0.2261 3.0635 0.9781
0.1160 3.0715 0.9731
0.0056 3.0755 0.9680
-0.1048 3.0755 0.9629
-0.2151 3.0715 0.9577
-0.3253 3.0635 0.9525
-0.4351 3.0516 0.9474
-0.5443 3.0357 0.9422
-0.6530 3.0158 0.9369
-0.7608 2.9920 0.9317
-0.8677 2.9644 0.9266
-2.5280 7.6154 2.3924
-2.8154 7.5660 2.3924
-3.1024 7.5058 2.3924
-3.3886 7.4350 2.3924
-3.6736 7.3532 2.3924
-3.9568 7.2605 2.3924
-4.2379 7.1569 2.3924
-4.5164 7.0423 2.3924
-4.7918 6.9167 2.3924
-5.0637 6.7801 2.3924
-5.3315 6.6327 2.3924
-5.5947 6.4743 2.3924
-5.8529 6.3052 2.3924
-6.1055 6.1255 2.3924
-6.3520 5.9353 2.3924
-6.5920 5.7348 2.3924
-6.8248 5.5241 2.3924
-7.0501 5.3035 2.3924
-7.2673 5.0733 2.3924
-7.4760 4.8337 2.3924
-7.6756 4.5851 2.3924
-7.8656 4.3278 2.3924
-8.0457 4.0621 2.3924
-8.2153 3.7885 2.3924
-8.3741 3.5074 2.3924
-8.5216 3.2192 2.3924
-8.6575 2.9245 2.3924
-8.7814 2.6237 2.3924
-8.8929 2.3173 2.3924
-8.9918 2.0060 2.3924
-9.0777 1.6899 2.3924
-9.1505 1.3704 2.3924
-9.2098 1.0475 2.3924
-9.2556 0.7220 2.3924
-9.2876 0.3945 2.3924
-9.3058 0.0656 2.3924
-9.3101 -0.2640 2.3924
-9.3003 -0.5937 2.3924
-9.2767 -0.9228 2.3924
-9.2390 -1.2506 2.3924
-9.1875 -1.5765 2.3924
-9.1223 -1.8999 2.3924
-9.0434 -2.2201 2.3924
-8.9511 -2.5365 2.3924
-8.8456 -2.8485 2.3924
-8.7271 -3.1554 2.3924
-8.5959 -3.4569 2.3924
-8.4523 -3.7518 2.3924
-8.2968 -4.0402 2.3924
-8.1295 -4.3217 2.3924
-7.9511 -4.5949 2.3924
-7.7618 -4.8600 2.3924
-7.5621 -5.1165 2.3924
-7.3525 -5.3642 2.3924
-7.1335 -5.6022 2.3924
-6.9055 -5.8305 2.3924
-6.6691 -6.0486 2.3924
-6.4248 -6.2563 2.3924
-6.1731 -6.4534 2.3924
-5.9146 -6.6395 2.3924
-5.6499 -6.8145 2.3924
-5.3794 -6.9782 2.3924
-5.1037 -7.1304 2.3924
-4.8233 -7.2711 2.3924
-4.5389 -7.4002 2.3924
-4.2509 -7.5177 2.3924
-3.9599 -7.6234 2.3924
-3.6663 -7.7174 2.3924
-3.3708 -7.7997 2.3924
-3.0738 -7.8704 2.3924
-2.7758 -7.9295 2.3924
-2.4773 -7.9771 2.3924
-2.1787 -8.0134 2.3924
-1.8806 -8.0383 2.3924
-1.5833 -8.0522 2.3924
-1.2873 -8.0552 2.3924
-0.9930 -8.0474 2.3924
-0.7008 -8.0290 2.3924
-0.4110 -8.0002 2.3924
-0.1241 -7.9612 2.3924
0.1597 -7.9124 2.3924
0.4400 -7.8537 2.3924
0.7165 -7.7856 2.3924
0.9889 -7.7084 2.3924
1.2569 -7.6221 2.3924
1.5202 -7.5271 2.3924
1.7787 -7.4236 2.3924
2.0320 -7.3120 2.3924
2.2799 -7.1923 2.3924
2.5223 -7.0650 2.3924
2.7590 -6.9303 2.3924
2.9896 -6.7885 2.3924
3.2142 -6.6398 2.3924
3.4325 -6.4845 2.3924
3.6444 -6.3228 2.3924
3.8498 -6.1550 2.3924
4.0484 -5.9815 2.3924
4.2403 -5.8023 2.3924
4.3336 -5.5014 2.3428
4.3101 -5.0826 2.2400
4.4702 -4.9008 2.2400
4.6237 -4.7147 2.2401
4.7704 -4.5245 2.2401
4.9103 -4.3306 2.2401
5.0433 -4.1331 2.2402
5.1694 -3.9322 2.2402
5.2887 -3.7282 2.2403
5.4017 -3.5218 2.2407
5.5077 -3.3126 2.2411
5.6067 -3.1008 2.2414
5.6985 -2.8866 2.2418
5.7833 -2.6701 2.2421
5.8609 -2.4517 2.2424
5.9302 -2.2311 2.2423
5.9874 -2.0073 2.2403
6.0308 -1.7807 2.2358
6.0661 -1.5536 2.2311
6.0978 -1.3273 2.2278
6.1236 -1.1012 2.2248
6.1429 -0.8753 2.2222
6.1558 -0.6493 2.2198
6.1660 -0.4241 2.2190
6.1700 -0.1987 2.2185
6.1675 0.0259 2.2181
6.1587 0.2504 2.2180
6.1439 0.4744 2.2183
6.1222 0.6977 2.2185
6.0934 0.9204 2.2188
6.0577 1.1423 2.2190
6.0152 1.3628 2.2193
5.9657 1.5822 2.2195
5.9093 1.8002 2.2197
5.8462 2.0160 2.2200
5.7763 2.2303 2.2202
5.6995 2.4430 2.2204
5.6160 2.6533 2.2207
5.5264 2.8618 2.2211
5.4311 3.0680 2.2220
5.3294 3.2715 2.2230
5.2233 3.4739 2.2249
5.1128 3.6756 2.2278
4.9962 3.8747 2.2310
4.8738 4.0718 2.2347
4.7481 4.2690 2.2400
4.6101 4.4578 2.2427
4.4608 4.6384 2.2431
4.3040 4.8133 2.2428
4.1411 4.9837 2.2425
3.9723 5.1493 2.2422
3.7976 5.3100 2.2418
3.6170 5.4656 2.2415
3.4308 5.6158 2.2411
3.2391 5.7605 2.2407
3.0419 5.8994 2.2403
2.8397 6.0330 2.2401
2.6324 6.1610 2.2401
2.4201 6.2827 2.2401
2.2028 6.3978 2.2400
1.9809 6.5066 2.2401
0.7856 2.9595 1.0032
0.6789 2.9878 0.9985
0.5713 3.0122 0.9937
0.4628 3.0327 0.9889
0.3537 3.0492 0.9839
0.2440 3.0619 0.9789
0.1339 3.0705 0.9739
0.0236 3.0751 0.9688
-0.0868 3.0758 0.9637
-0.1972 3.0724 0.9586
-0.3074 3.0651 0.9534
-0.4173 3.0538 0.9482
-0.5266 3.0385 0.9430
-0.6354 3.0193 0.9378
-0.7434 2.9962 0.9326
-0.8504 2.9691 0.9274
-2.4813 7.6224 2.3924
-2.7687 7.5747 2.3924
-3.0558 7.5163 2.3924
-3.3422 7.4472 2.3924
-3.6274 7.3672 2.3924
-3.9109 7.2763 2.3924
-4.1924 7.1745 2.3924
-4.4714 7.0617 2.3924
-4.7473 6.9378 2.3924
-5.0198 6.8031 2.3924
-5.2883 6.6574 2.3924
-5.5522 6.5008 2.3924
-5.8113 6.3335 2.3924
-6.0648 6.1555 2.3924
-6.3124 5.9669 2.3924
-6.5534 5.7680 2.3924
-6.7875 5.5590 2.3924
-7.0141 5.3400 2.3924
-7.2326 5.1114 2.3924
-7.4427 4.8733 2.3924
-7.6438 4.6261 2.3924
-7.8354 4.3702 2.3924
-8.0171 4.1058 2.3924
-8.1885 3.8335 2.3924
-8.3490 3.5535 2.3924
-8.4984 3.2665 2.3924
-8.6362 2.9728 2.3924
-8.7621 2.6729 2.3924
-8.8756 2.3674 2.3924
-8.9766 2.0569 2.3924
-9.0646 1.7415 2.3924
-9.1396 1.4226 2.3924
-9.2011 1.1002 2.3924
-9.2491 0.7751 2.3924
-9.2834 0.4478 2.3924
-9.3038 0.1191 2.3924
-9.3103 -0.2104 2.3924
-9.3029 -0.5402 2.3924
-9.2815 -0.8694 2.3924
-9.2461 -1.1974 2.3924
-9.1968 -1.5237 2.3924
-9.1338 -1.8476 2.3924
-9.0571 -2.1683 2.3924
-8.9670 -2.4854 2.3924
-8.8636 -2.7981 2.3924
-8.7472 -3.1059 2.3924
-8.6180 -3.4082 2.3924
-8.4765 -3.7043 2.3924
-8.3229 -3.9939 2.3924
-8.1575 -4.2764 2.3924
-7.9808 -4.5510 2.3924
-7.7933 -4.8177 2.3924
-7.5952 -5.0756 2.3924
-7.3872 -5.3246 2.3924
-7.1697 -5.5642 2.3924
-6.9431 -5.7941 2.3924
-6.7081 -6.0139 2.3924
-6.4650 -6.2233 2.3924
-6.2145 -6.4221 2.3924
-5.9571 -6.6100 2.3924
-5.6933 -6.7868 2.3924
-5.4237 -6.9523 2.3924
-5.1488 -7.1065 2.3924
-4.8692 -7.2491 2.3924
-4.5854 -7.3801 2.3924
-4.2979 -7.4994 2.3924
-4.0073 -7.6070 2.3924
-3.7142 -7.7029 2.3924
-3.4189 -7.7871 2.3924
-3.1221 -7.8597 2.3924
-2.8243 -7.9207 2.3924
-2.5258 -7.9701 2.3924
-0.9195 2.7069 0.9220
-2.6502 6.9734 2.3924
-2.9138 6.9134 2.3924
-3.1763 6.8434 2.3924
-3.4374 6.7635 2.3924
-3.6967 6.6735 2.3924
-3.9537 6.5736 2.3924
-4.2080 6.4636 2.3924
-4.4592 6.3437 2.3924
-4.7068 6.2138 2.3924
-4.9505 6.0740 2.3924
-5.1897 5.9243 2.3924
-5.4240 5.7650 2.3924
-5.6530 5.5961 2.3924
-5.8761 5.4177 2.3924
-6.0931 5.2301 2.3924
-6.3033 5.0334 2.3924
-6.5065 4.8279 2.3924
-6.7020 4.6137 2.3924
-6.8896 4.3912 2.3924
-7.0688 4.1607 2.3924
-7.2391 3.9225 2.3924
-7.4002 3.6769 2.3924
-7.5517 3.4243 2.3924
-7.6933 3.1651 2.3924
-7.8245 2.8997 2.3924
-7.9450 2.6285 2.3924
-8.0547 2.3520 2.3924
-8.1530 2.0707 2.3924
-8.2399 1.7851 2.3924
-8.3150 1.4956 2.3924
-8.3781 1.2028 2.3924
-8.4292 0.9073 2.3924
-8.4679 0.6096 2.3924
-8.4942 0.3102 2.3924
-8.5080 0.0095 2.3924
-8.5093 -0.2914 2.3924
-8.4980 -0.5923 2.3924
-8.4741 -0.8925 2.3924
-8.4376 -1.1917 2.3924
-8.3887 -1.4889 2.3924
-8.3274 -1.7836 2.3924
-8.2538 -2.0756 2.3924
-8.1682 -2.3641 2.3924
-8.0707 -2.6483 2.3924
-7.9615 -2.9282 2.3924
-7.8409 -3.2029 2.3924
-7.7091 -3.4721 2.3924
-7.5665 -3.7352 2.3924
-7.4134 -3.9917 2.3924
-7.2502 -4.2413 2.3924
-7.0771 -4.4835 2.3924
-6.8947 -4.7179 2.3924
-6.7033 -4.9441 2.3924
-6.5033 -5.1619 2.3924
-6.2952 -5.3708 2.3924
-6.0794 -5.5706 2.3924
-5.8565 -5.7610 2.3924
-5.6268 -5.9418 2.3924
-5.3908 -6.1127 2.3924
-5.1490 -6.2736 2.3924
-4.9019 -6.4243 2.3924
-4.6500 -6.5647 2.3924
-4.3938 -6.6946 2.3924
-4.1338 -6.8140 2.3924
-3.8703 -6.9228 2.3924
-3.6040 -7.0209 2.3924
-3.3353 -7.1085 2.3924
-3.0646 -7.1854 2.3924
-2.7924 -7.2516 2.3924
-2.5191 -7.3074 2.3924
-2.2453 -7.3526 2.3924
-1.9712 -7.3875 2.3924
-1.6973 -7.4120 2.3924
-1.4241 -7.4263 2.3924
-1.1519 -7.4306 2.3924
-0.8810 -7.4250 2.3924
-0.6119 -7.4096 2.3924
-0.3449 -7.3846 2.3924
-0.0803 -7.3503 2.3924
0.1815 -7.3067 2.3924
0.4403 -7.2541 2.3924
0.6957 -7.1928 2.3924
0.9475 -7.1228 2.3924
1.1954 -7.0445 2.3924
1.4391 -6.9580 2.3924
1.6784 -6.8637 2.3924
1.9131 -6.7616 2.3924
2.1430 -6.6521 2.3924
2.3679 -6.5354 2.3924
2.5875 -6.4117 2.3924
2.8017 -6.2813 2.3924
3.0104 -6.1444 2.3924
3.2133 -6.0012 2.3924
3.4104 -5.8521 2.3924
3.6015 -5.6972 2.3924
3.7864 -5.5368 2.3924
3.9651 -5.3710 2.3924
4.1375 -5.2003 2.3924
4.2188 -4.9260 2.3454
4.1785 -4.5359 2.2400
4.3215 -4.3632 2.2400
4.4583 -4.1867 2.2401
4.5888 -4.0065 2.2401
4.7129 -3.8228 2.2401
4.8305 -3.6360 2.2402
4.9417 -3.4461 2.2402
5.0463 -3.2533 2.2402
5.1445 -3.0581 2.2403
5.2367 -2.8607 2.2407
5.3223 -2.6610 2.2410
5.4012 -2.4593 2.2413
5.4734 -2.2555 2.2416
5.5389 -2.0501 2.2419
5.5977 -1.8431 2.2421
5.6497 -1.6348 2.2424
5.6950 -1.4253 2.2426
5.7322 -1.2146 2.2423
5.7599 -1.0026 2.2409
5.7796 -0.7904 2.2391
5.7890 -0.5775 2.2358
5.7927 -0.3655 2.2330
5.7920 -0.1536 2.2310
5.7857 0.0576 2.2295
5.7735 0.2684 2.2282
5.7555 0.4784 2.2272
5.7315 0.6877 2.2265
5.7017 0.8962 2.2261
5.6659 1.1035 2.2258
5.6243 1.3102 2.2259
5.5768 1.5154 2.2262
5.5235 1.7194 2.2267
5.4643 1.9224 2.2275
5.3992 2.1237 2.2286
5.3284 2.3236 2.2299
5.2518 2.5219 2.2315
5.1695 2.7183 2.2334
5.0827 2.9136 2.2362
4.9906 3.1077 2.2394
4.8896 3.2978 2.2416
4.7807 3.4840 2.2431
4.6624 3.6648 2.2430
4.5379 3.8419 2.2428
4.4074 4.0154 2.2426
4.2710 4.1851 2.2423
4.1288 4.3507 2.2421
3.9809 4.5122 2.2418
3.8273 4.6693 2.2415
3.6682 4.8219 2.2412
3.5037 4.9697 2.2409
3.3338 5.1126 2.2406
3.1587 5.2503 2.2402
2.9789 5.3834 2.2401
2.7941 5.5113 2.2401
2.6045 5.6335 2.2401
2.4101 5.7499 2.2401
2.2110 5.8603 2.2400
2.0455 6.0773 2.2823
0.8052 2.7121 1.0021
0.7073 2.7412 0.9978
0.6085 2.7668 0.9934
0.5088 2.7887 0.9890
0.4083 2.8071 0.9845
0.3073 2.8218 0.9799
0.2058 2.8328 0.9753
0.1040 2.8402 0.9706
0.0019 2.8439 0.9659
-0.1002 2.8438 0.9612
-0.2023 2.8402 0.9564
-0.3041 2.8328 0.9516
-0.4057 2.8217 0.9468
-0.5067 2.8070 0.9420
-0.6072 2.7886 0.9372
-0.7069 2.7666 0.9324
-0.8058 2.7411 0.9276
-0.9037 2.7119 0.9228
-2.6072 6.9823 2.3924
-2.8710 6.9238 2.3924
-3.1337 6.8554 2.3924
-3.3951 6.7771 2.3924
-3.6547 6.6888 2.3924
-3.9121 6.5905 2.3924
-4.1669 6.4822 2.3924
-4.4186 6.3639 2.3924
-4.6668 6.2356 2.3924
-4.9112 6.0974 2.3924
-5.1511 5.9493 2.3924
-5.3863 5.7916 2.3924
-5.6161 5.6242 2.3924
-5.8403 5.4474 2.3924
-6.0583 5.2612 2.3924
-6.2696 5.0660 2.3924
-6.4740 4.8619 2.3924
-6.6708 4.6491 2.3924
-6.8597 4.4280 2.3924
-7.0403 4.1987 2.3924
-7.2121 3.9617 2.3924
-7.3747 3.7173 2.3924
-7.5278 3.4658 2.3924
-7.6710 3.2077 2.3924
-7.8039 2.9432 2.3924
-7.9262 2.6730 2.3924
-8.0376 2.3973 2.3924
-8.1378 2.1168 2.3924
-8.2265 1.8318 2.3924
-8.3036 1.5429 2.3924
-8.3687 1.2506 2.3924
-8.4217 0.9555 2.3924
-8.4624 0.6581 2.3924
-8.4908 0.3589 2.3924
-8.5066 0.0586 2.3924
-8.5099 -0.2425 2.3924
-8.5007 -0.5433 2.3924
-8.4788 -0.8436 2.3924
-8.4444 -1.1430 2.3924
-8.3975 -1.4404 2.3924
-8.3382 -1.7361 2.3924
-8.2666 -2.0285 2.3924
-8.1829 -2.3174 2.3924
-8.0873 -2.6025 2.3924
-7.9800 -2.8832 2.3924
-7.8612 -3.1586 2.3924
-7.7313 -3.4287 2.3924
-7.5904 -3.6928 2.3924
-7.4390 -3.9505 2.3924
-7.2774 -4.2012 2.3924
-7.1059 -4.4446 2.3924
-6.9250 -4.6803 2.3924
-6.7350 -4.9079 2.3924
-6.5364 -5.1271 2.3924
-6.3296 -5.3375 2.3924
-6.1150 -5.5388 2.3924
-5.8932 -5.7307 2.3924
-5.6645 -5.9131 2.3924
-5.4295 -6.0856 2.3924
-5.1887 -6.2481 2.3924
-4.9424 -6.4005 2.3924
-4.6913 -6.5426 2.3924
-4.4357 -6.6742 2.3924
-4.1763 -6.7953 2.3924
-3.9134 -6.9058 2.3924
-3.6475 -7.0057 2.3924
-3.3791 -7.0950 2.3924
-3.1087 -7.1736 2.3924
-2.8367 -7.2416 2.3924
-2.5636 -7.2990 2.3924
-2.2898 -7.3460 2.3924
-2.0157 -7.3825 2.3924
-1.7418 -7.4087 2.3924
-1.4685 -7.4246 2.3924
-1.1960 -7.4306 2.3924
-0.9249 -7.4265 2.3924
-0.6555 -7.4127 2.3924
-0.3881 -7.3893 2.3924
-0.1231 -7.3565 2.3924
0.1392 -7.3144 2.3924
0.3984 -7.2633 2.3924
0.6544 -7.2033 2.3924
0.9068 -7.1348 2.3924
1.1553 -7.0577 2.3924
1.3998 -6.9727 2.3924
1.6398 -6.8795 2.3924
1.8753 -6.7787 2.3924
2.1060 -6.6704 2.3924
2.3317 -6.5548 2.3924
2.5522 -6.4322 2.3924
2.7673 -6.3029 2.3924
2.9769 -6.1671 2.3924
3.1808 -6.0249 2.3924
3.3788 -5.8767 2.3924
3.5708 -5.7227 2.3924
3.7568 -5.5632 2.3924
3.9365 -5.3983 2.3924
4.1099 -5.2284 2.3924
4.2291 -4.9971 2.3657
4.1733 -4.5843 2.2501
4.3005 -4.3951 2.2408
4.4365 -4.2156 2.2401
4.5680 -4.0360 2.2401
4.6931 -3.8529 2.2401
4.8118 -3.6665 2.2402
4.9241 -3.4772 2.2402
5.0297 -3.2849 2.2402
5.1289 -3.0900 2.2403
5.2222 -2.8930 2.2406
5.3089 -2.6936 2.2409
5.3888 -2.4922 2.2412
5.4621 -2.2888 2.2415
5.5287 -2.0836 2.2418
5.5886 -1.8769 2.2421
5.6417 -1.6688 2.2423
5.6881 -1.4595 2.2426
5.7271 -1.2490 2.2425
5.7559 -1.0373 2.2412
5.7775 -0.8250 2.2396
5.7879 -0.6122 2.2363
5.7926 -0.4002 2.2334
5.7924 -0.1879 2.2313
5.7871 0.0231 2.2297
5.7759 0.2342 2.2284
5.7588 0.4443 2.2274
5.7358 0.6537 2.2266
5.7069 0.8623 2.2261
5.6721 1.0699 2.2259
5.6315 1.2767 2.2259
5.5849 1.4821 2.2261
5.5325 1.6865 2.2266
5.4743 1.8895 2.2274
5.4102 2.0911 2.2284
5.3403 2.2912 2.2297
5.2647 2.4893 2.2312
5.1833 2.6865 2.2331
5.0971 2.8820 2.2357
5.0059 3.0763 2.2389
4.9067 3.2675 2.2414
4.7988 3.4539 2.2428
4.6821 3.6356 2.2430
4.5585 3.8133 2.2428
4.4290 3.9874 2.2426
4.2936 4.1577 2.2424
4.1523 4.3241 2.2421
4.0053 4.4863 2.2419
3.8526 4.6441 2.2416
3.6944 4.7974 2.2413
3.5308 4.9460 2.2410
3.3618 5.0897 2.2406
3.1875 5.2283 2.2403
3.0084 5.3622 2.2402
2.8245 5.4909 2.2401
2.6356 5.6140 2.2401
2.4420 5.7314 2.2401
2.2437 5.8428 2.2400
2.0623 6.0105 2.2635
0.8210 2.7071 1.0028
0.7233 2.7367 0.9985
0.6246 2.7629 0.9941
0.5250 2.7854 0.9897
0.4247 2.8043 0.9852
0.3238 2.8196 0.9806
0.2223 2.8313 0.9760
0.1205 2.8392 0.9714
0.0185 2.8435 0.9667
-0.0836 2.8441 0.9619
-0.1857 2.8410 0.9572
-0.2876 2.8342 0.9524
-0.3892 2.8238 0.9476
-0.4903 2.8096 0.9428
-0.5909 2.7918 0.9380
-0.6908 2.7704 0.9332
-0.7898 2.7455 0.9284
-0.8879 2.7169 0.9236
-2.5643 6.9908 2.3924
-2.8282 6.9340 2.3924
-3.0911 6.8672 2.3924
-3.3527 6.7905 2.3924
-3.6126 6.7039 2.3924
-3.8704 6.6072 2.3924
-4.1257 6.5005 2.3924
-4.3779 6.3838 2.3924
-4.6267 6.2571 2.3924
-4.8717 6.1205 2.3924
-5.1124 5.9741 2.3924
-5.3484 5.8179 2.3924
-5.5791 5.6520 2.3924
-5.8043 5.4768 2.3924
-6.0233 5.2921 2.3924
-6.2358 5.0983 2.3924
-6.4413 4.8956 2.3924
-6.6393 4.6843 2.3924
-6.8296 4.4645 2.3924
-7.0115 4.2365 2.3924
-7.1847 4.0008 2.3924
-7.3489 3.7575 2.3924
-7.5036 3.5071 2.3924
-7.6484 3.2500 2.3924
-7.7830 2.9866 2.3924
-7.9070 2.7173 2.3924
-8.0203 2.4425 2.3924
-8.1223 2.1627 2.3924
-8.2129 1.8784 2.3924
-8.2919 1.5901 2.3924
-8.3589 1.2983 2.3924
-8.4139 1.0037 2.3924
-8.4567 0.7066 2.3924
-8.4870 0.4076 2.3924
-8.5049 0.1075 2.3924
-8.5103 -0.1934 2.3924
-8.5030 -0.4946 2.3924
-8.4832 -0.7953 2.3924
-8.4509 -1.0945 2.3924
-8.4060 -1.3924 2.3924
-8.3487 -1.6882 2.3924
-8.2791 -1.9811 2.3924
-8.1974 -2.2704 2.3924
-8.1036 -2.5566 2.3924
-7.9982 -2.8378 2.3924
-7.8813 -3.1143 2.3924
-7.7531 -3.3852 2.3924
-7.6140 -3.6503 2.3924
-7.4643 -3.9091 2.3924
-7.3043 -4.1610 2.3924
-7.1344 -4.4056 2.3924
-6.9550 -4.6426 2.3924
-6.7665 -4.8715 2.3924
-6.5692 -5.0921 2.3924
-6.3637 -5.3039 2.3924
-6.1504 -5.5067 2.3924
-5.9297 -5.7002 2.3924
-5.7021 -5.8841 2.3924
-5.4681 -6.0582 2.3924
-5.2282 -6.2224 2.3924
-4.9828 -6.3764 2.3924
-4.7324 -6.5202 2.3924
-4.4776 -6.6535 2.3924
-4.2187 -6.7763 2.3924
-3.9563 -6.8886 2.3924
-3.6909 -6.9902 2.3924
-3.4229 -7.0812 2.3924
-3.1528 -7.1615 2.3924
-2.8810 -7.2313 2.3924
-2.6081 -7.2904 2.3924
-2.3344 -7.3390 2.3924
-0.8574 2.5145 0.9233
-0.9472 2.4836 0.9189
-2.7095 6.4083 2.3924
-2.9519 6.3411 2.3924
-3.1927 6.2647 2.3924
-3.4317 6.1791 2.3924
-3.6684 6.0843 2.3924
-3.9024 5.9803 2.3924
-4.1334 5.8671 2.3924
-4.3609 5.7448 2.3924
-4.5846 5.6135 2.3924
-4.8040 5.4733 2.3924
-5.0188 5.3242 2.3924
-5.2286 5.1664 2.3924
-5.4329 5.0000 2.3924
-5.6313 4.8252 2.3924
-5.8235 4.6422 2.3924
-6.0091 4.4512 2.3924
-6.1876 4.2524 2.3924
-6.3586 4.0461 2.3924
-6.5219 3.8325 2.3924
-6.6771 3.6120 2.3924
-6.8237 3.3849 2.3924
-6.9615 3.1515 2.3924
-7.0901 2.9121 2.3924
-7.2093 2.6672 2.3924
-7.3187 2.4172 2.3924
-7.4182 2.1624 2.3924
-7.5072 1.9032 2.3924
-7.5859 1.6403 2.3924
-7.6538 1.3739 2.3924
-7.7108 1.1046 2.3924
-7.7567 0.8328 2.3924
-7.7915 0.5591 2.3924
-7.8151 0.2839 2.3924
-7.8272 0.0077 2.3924
-7.8279 -0.2688 2.3924
-7.8172 -0.5453 2.3924
-7.7951 -0.8212 2.3924
-7.7616 -1.0959 2.3924
-7.7167 -1.3691 2.3924
-7.6607 -1.6400 2.3924
-7.5934 -1.9084 2.3924
-7.5152 -2.1735 2.3924
-7.4262 -2.4351 2.3924
-7.3266 -2.6925 2.3924
-7.2165 -2.9454 2.3924
-7.0963 -3.1932 2.3924
-6.9663 -3.4356 2.3924
-6.8266 -3.6721 2.3924
-6.6776 -3.9023 2.3924
-6.5197 -4.1258 2.3924
-6.3532 -4.3424 2.3924
-6.1784 -4.5516 2.3924
-5.9957 -4.7531 2.3924
-5.8055 -4.9466 2.3924
-5.6083 -5.1319 2.3924
-5.4043 -5.3087 2.3924
-5.1941 -5.4768 2.3924
-4.9781 -5.6359 2.3924
-4.7566 -5.7860 2.3924
-4.5302 -5.9268 2.3924
-4.2992 -6.0582 2.3924
-4.0640 -6.1801 2.3924
-3.8253 -6.2924 2.3924
-3.5832 -6.3950 2.3924
-3.3384 -6.4879 2.3924
-3.0911 -6.5711 2.3924
-2.8419 -6.6445 2.3924
-2.5911 -6.7083 2.3924
-2.3392 -6.7622 2.3924
-2.0865 -6.8066 2.3924
-1.8335 -6.8413 2.3924
-1.5805 -6.8666 2.3924
-1.3278 -6.8824 2.3924
-1.0759 -6.8890 2.3924
-0.8251 -6.8863 2.3924
-0.5757 -6.8746 2.3924
-0.3281 -6.8540 2.3924
-0.0826 -6.8246 2.3924
0.1606 -6.7867 2.3924
0.4011 -6.7403 2.3924
0.6386 -6.6858 2.3924
0.8730 -6.6231 2.3924
1.1039 -6.5526 2.3924
1.3310 -6.4744 2.3924
1.5543 -6.3889 2.3924
1.7734 -6.2960 2.3924
1.9881 -6.1961 2.3924
2.1983 -6.0895 2.3924
2.4037 -5.9762 2.3924
2.6042 -5.8565 2.3924
2.7997 -5.7307 2.3924
2.9899 -5.5989 2.3924
3.1747 -5.4614 2.3924
3.3540 -5.3184 2.3924
3.5276 -5.1702 2.3924
3.6955 -5.0168 2.3924
3.8575 -4.8587 2.3924
4.0136 -4.6959 2.3924
4.1271 -4.4890 2.3715
4.0747 -4.1220 2.2632
4.1619 -3.9156 2.2400
4.2848 -3.7479 2.2401
4.4019 -3.5770 2.2401
4.5129 -3.4029 2.2401
4.6179 -3.2258 2.2401
4.7167 -3.0460 2.2402
4.8094 -2.8637 2.2402
4.8959 -2.6790 2.2402
4.9761 -2.4922 2.2402
5.0508 -2.3036 2.2405
5.1191 -2.1131 2.2408
5.1811 -1.9210 2.2411
5.2368 -1.7273 2.2413
5.2861 -1.5324 2.2415
5.3291 -1.3363 2.2418
5.3657 -1.1392 2.2420
5.3959 -0.9414 2.2422
5.4197 -0.7429 2.2423
5.4372 -0.5440 2.2425
5.4482 -0.3448 2.2426
5.4529 -0.1456 2.2428
5.4513 0.0536 2.2429
5.4419 0.2524 2.2424
5.4263 0.4507 2.2420
5.4046 0.6487 2.2416
5.3771 0.8451 2.2414
5.3436 1.0413 2.2413
5.3041 1.2363 2.2414
5.2588 1.4300 2.2415
5.2075 1.6225 2.2418
5.1504 1.8134 2.2422
5.0875 2.0028 2.2427
5.0181 2.1902 2.2430
4.9417 2.3752 2.2429
4.8593 2.5578 2.2429
4.7710 2.7380 2.2427
4.6767 2.9155 2.2426
4.5766 3.0903 2.2425
4.4708 3.2621 2.2423
4.3592 3.4307 2.2421
4.2419 3.5961 2.2419
4.1191 3.7579 2.2417
3.9907 3.9161 2.2415
3.8570 4.0705 2.2413
3.7178 4.2208 2.2410
3.5735 4.3670 2.2407
3.4240 4.5088 2.2405
3.2694 4.6461 2.2402
3.1103 4.7793 2.2401
2.9463 4.9077 2.2401
2.7775 5.0311 2.2401
2.6042 5.1493 2.2401
2.4263 5.2621 2.2400
2.2441 5.3692 2.2400
2.1247 5.6495 2.3130
0.8349 2.4893 1.0016
0.7450 2.5196 0.9977
0.6541 2.5466 0.9937
0.5622 2.5703 0.9896
0.4696 2.5907 0.9855
0.3763 2.6077 0.9813
0.2824 2.6213 0.9771
0.1881 2.6316 0.9728
0.0935 2.6384 0.9685
-0.0014 2.6418 0.9641
-0.0962 2.6418 0.9597
-0.1911 2.6384 0.9552
-0.2857 2.6315 0.9508
-0.3800 2.6212 0.9463
-0.4739 2.6075 0.9419
-0.5673 2.5905 0.9374
-0.6599 2.5700 0.9329
-0.7518 2.5463 0.9285
-0.8427 2.5192 0.9240
-0.9326 2.4889 0.9196
-2.6700 6.4184 2.3924
-2.9126 6.3527 2.3924
-3.1537 6.2777 2.3924
-3.3930 6.1936 2.3924
-3.6301 6.1003 2.3924
-3.8645 5.9978 2.3924
-4.0960 5.8861 2.3924
-4.3242 5.7653 2.3924
-4.5485 5.6355 2.3924
-4.7687 5.4967 2.3924
-4.9843 5.3490 2.3924
-5.1949 5.1926 2.3924
-5.4001 5.0276 2.3924
-5.5995 4.8542 2.3924
-5.7927 4.6725 2.3924
-5.9794 4.4827 2.3924
-6.1590 4.2852 2.3924
-6.3314 4.0801 2.3924
-6.4959 3.8677 2.3924
-6.6524 3.6483 2.3924
-6.8005 3.4222 2.3924
-6.9397 3.1898 2.3924
-7.0699 2.9514 2.3924
-7.1906 2.7074 2.3924
-7.3016 2.4581 2.3924
-7.4027 2.2041 2.3924
-7.4935 1.9456 2.3924
-7.5738 1.6832 2.3924
-7.6435 1.4174 2.3924
-7.7023 1.1485 2.3924
-7.7500 0.8771 2.3924
-7.7867 0.6037 2.3924
-7.8120 0.3287 2.3924
-7.8260 0.0527 2.3924
-7.8286 -0.2239 2.3924
-7.8198 -0.5004 2.3924
-7.7995 -0.7764 2.3924
-7.7678 -1.0514 2.3924
-7.7248 -1.3248 2.3924
-7.6705 -1.5962 2.3924
-7.6051 -1.8650 2.3924
-7.5287 -2.1307 2.3924
-7.4414 -2.3928 2.3924
-7.3435 -2.6510 2.3924
-7.2351 -2.9046 2.3924
-7.1165 -3.1533 2.3924
-6.9880 -3.3966 2.3924
-6.8499 -3.6340 2.3924
-6.7024 -3.8653 2.3924
-6.5460 -4.0900 2.3924
-6.3808 -4.3077 2.3924
-6.2073 -4.5181 2.3924
-6.0259 -4.7208 2.3924
-5.8369 -4.9157 2.3924
-5.6408 -5.1024 2.3924
-5.4379 -5.2806 2.3924
-5.2287 -5.4501 2.3924
-5.0136 -5.6107 2.3924
-4.7929 -5.7622 2.3924
-4.5673 -5.9045 2.3924
-4.3370 -6.0375 2.3924
-4.1025 -6.1609 2.3924
-3.8643 -6.2748 2.3924
-3.6228 -6.3790 2.3924
-3.3783 -6.4735 2.3924
-3.1315 -6.5582 2.3924
-2.8825 -6.6333 2.3924
-2.6320 -6.6985 2.3924
-2.3802 -6.7541 2.3924
-2.1277 -6.8000 2.3924
-1.8746 -6.8363 2.3924
-1.6216 -6.8631 2.3924
-1.3688 -6.8805 2.3924
-1.1168 -6.8885 2.3924
-0.8658 -6.8874 2.3924
-0.6162 -6.8771 2.3924
-0.3683 -6.8579 2.3924
-0.1223 -6.8300 2.3924
0.1212 -6.7934 2.3924
0.3622 -6.7484 2.3924
0.6002 -6.6952 2.3924
0.8351 -6.6338 2.3924
1.0666 -6.5646 2.3924
1.2944 -6.4876 2.3924
1.5183 -6.4033 2.3924
1.7381 -6.3116 2.3924
1.9535 -6.2128 2.3924
2.1645 -6.1073 2.3924
2.3707 -5.9950 2.3924
2.5720 -5.8764 2.3924
2.7683 -5.7515 2.3924
2.9593 -5.6207 2.3924
3.1450 -5.4841 2.3924
3.3252 -5.3419 2.3924
3.4998 -5.1946 2.3924
3.6686 -5.0421 2.3924
3.8316 -4.8847 2.3924
3.9886 -4.7226 2.3924
4.1361 -4.5523 2.3904
4.0829 -4.1790 2.2799
4.1413 -3.9425 2.2400
4.2653 -3.7754 2.2400
4.3833 -3.6050 2.2401
4.4953 -3.4314 2.2401
4.6012 -3.2548 2.2401
4.7011 -3.0755 2.2402
4.7947 -2.8935 2.2402
4.8822 -2.7092 2.2402
4.9635 -2.5227 2.2402
5.0391 -2.3344 2.2405
5.1084 -2.1442 2.2408
5.1714 -1.9523 2.2410
5.2282 -1.7589 2.2413
5.2785 -1.5641 2.2415
5.3225 -1.3682 2.2417
5.3602 -1.1713 2.2419
5.3914 -0.9736 2.2421
5.4163 -0.7752 2.2423
5.4348 -0.5763 2.2425
5.4469 -0.3772 2.2426
5.4526 -0.1780 2.2427
5.4520 0.0212 2.2428
5.4439 0.2201 2.2425
5.4292 0.4185 2.2420
5.4086 0.6164 2.2417
5.3819 0.8137 2.2414
5.3494 1.0098 2.2413
5.3109 1.2046 2.2413
5.2666 1.3985 2.2415
5.2162 1.5913 2.2417
5.1601 1.7825 2.2421
5.0981 1.9722 2.2426
5.0299 2.1600 2.2430
4.9545 2.3453 2.2430
4.8731 2.5283 2.2429
4.7857 2.7089 2.2428
4.6924 2.8869 2.2426
4.5933 3.0621 2.2425
4.4884 3.2344 2.2423
4.3777 3.4035 2.2422
4.2614 3.5694 2.2420
4.1394 3.7319 2.2418
4.0120 3.8907 2.2415
3.8791 4.0457 2.2413
3.7408 4.1967 2.2411
3.5973 4.3435 2.2408
3.4486 4.4861 2.2405
3.2948 4.6241 2.2402
3.1365 4.7580 2.2402
2.9732 4.8872 2.2401
2.8053 5.0114 2.2401
2.6326 5.1304 2.2401
2.4555 5.2442 2.2400
2.2740 5.3525 2.2400
2.1398 5.5900 2.2954
0.8494 2.4841 1.0022
0.7597 2.5149 0.9983
0.6689 2.5424 0.9944
0.5772 2.5666 0.9903
0.4847 2.5876 0.9862
0.3915 2.6051 0.9820
0.2977 2.6193 0.9778
0.2034 2.6301 0.9735
0.1089 2.6375 0.9692
0.0141 2.6415 0.9648
-0.0808 2.6420 0.9604
-0.1757 2.6391 0.9560
-0.2703 2.6328 0.9515
-0.3647 2.6231 0.9471
-0.4587 2.6100 0.9426
-0.5521 2.5935 0.9381
-0.6449 2.5736 0.9337
-0.7369 2.5504 0.9292
-0.8280 2.5238 0.9247
-0.9181 2.4940 0.9203
-2.6305 6.4282 2.3924
-2.8733 6.3640 2.3924
-3.1146 6.2905 2.3924
-3.3542 6.2079 2.3924
-3.5917 6.1161 2.3924
-3.8266 6.0151 2.3924
-4.0586 5.9049 2.3924
-4.2873 5.7856 2.3924
-4.5123 5.6572 2.3924
-4.7332 5.5199 2.3924
-4.9496 5.3736 2.3924
-5.1610 5.2186 2.3924
-5.3671 5.0550 2.3924
-5.5675 4.8829 2.3924
-5.7618 4.7027 2.3924
-5.9495 4.5141 2.3924
-6.1303 4.3178 2.3924
-6.3039 4.1139 2.3924
-6.4697 3.9027 2.3924
-6.6276 3.6844 2.3924
-6.7770 3.4594 2.3924
-6.9177 3.2280 2.3924
-7.0494 2.9906 2.3924
-7.1716 2.7474 2.3924
-7.2843 2.4990 2.3924
-7.3869 2.2457 2.3924
-7.4794 1.9879 2.3924
-7.5615 1.7261 2.3924
-7.6329 1.4608 2.3924
-7.6935 1.1924 2.3924
-7.7430 0.9214 2.3924
-7.7815 0.6482 2.3924
-7.8087 0.3734 2.3924
-7.8245 0.0976 2.3924
-7.8290 -0.1789 2.3924
-7.8220 -0.4555 2.3924
-7.8036 -0.7316 2.3924
-7.7737 -1.0068 2.3924
-7.7326 -1.2805 2.3924
-7.6801 -1.5522 2.3924
-7.6165 -1.8215 2.3924
-7.5418 -2.0877 2.3924
-7.4563 -2.3505 2.3924
-7.3601 -2.6093 2.3924
-7.2534 -2.8637 2.3924
-7.1365 -3.1132 2.3924
-7.0096 -3.3574 2.3924
-6.8730 -3.5958 2.3924
-6.7270 -3.8282 2.3924
-6.5720 -4.0539 2.3924
-6.4082 -4.2728 2.3924
-6.2361 -4.4844 2.3924
-6.0559 -4.6884 2.3924
-5.8681 -4.8846 2.3924
-5.6731 -5.0726 2.3924
-5.4713 -5.2522 2.3924
-5.2631 -5.4231 2.3924
-5.0489 -5.5852 2.3924
-4.8292 -5.7382 2.3924
-4.6043 -5.8820 2.3924
-4.3747 -6.0165 2.3924
-4.1409 -6.1415 2.3924
-3.9033 -6.2569 2.3924
-3.6622 -6.3627 2.3924
-3.4182 -6.4588 2.3924
-3.1717 -6.5451 2.3924
-2.9231 -6.6217 2.3924
-2.6728 -6.6886 2.3924
-2.4212 -6.7457 2.3924
-2.1687 -6.7932 2.3924
-0.8027 2.3451 0.9244
-0.8864 2.3163 0.9203
-2.5304 5.9654 2.3924
-2.7552 5.9008 2.3924
-2.9784 5.8278 2.3924
-3.1997 5.7462 2.3924
-3.4188 5.6562 2.3924
-3.6352 5.5577 2.3924
-3.8487 5.4508 2.3924
-4.0589 5.3355 2.3924
-4.2654 5.2119 2.3924
-4.4679 5.0801 2.3924
-4.6659 4.9402 2.3924
-4.8591 4.7923 2.3924
-5.0472 4.6365 2.3924
-5.2298 4.4731 2.3924
-5.4065 4.3022 2.3924
-5.5770 4.1240 2.3924
-5.7409 3.9386 2.3924
-5.8980 3.7466 2.3924
-6.0478 3.5479 2.3924
-6.1900 3.3429 2.3924
-6.3243 3.1319 2.3924
-6.4505 2.9153 2.3924
-6.5682 2.6932 2.3924
-6.6772 2.4661 2.3924
-6.7771 2.2344 2.3924
-6.8679 1.9984 2.3924
-6.9492 1.7585 2.3924
-7.0209 1.5152 2.3924
-7.0827 1.2687 2.3924
-7.1346 1.0197 2.3924
-7.1764 0.7684 2.3924
-7.2079 0.5155 2.3924
-7.2290 0.2612 2.3924
-7.2398 0.0060 2.3924
-7.2402 -0.2495 2.3924
-7.2300 -0.5049 2.3924
-7.2095 -0.7597 2.3924
-7.1785 -1.0135 2.3924
-7.1371 -1.2658 2.3924
-7.0855 -1.5162 2.3924
-7.0237 -1.7641 2.3924
-6.9518 -2.0092 2.3924
-6.8701 -2.2510 2.3924
-6.7786 -2.4891 2.3924
-6.6775 -2.7230 2.3924
-6.5672 -2.9524 2.3924
-6.4478 -3.1768 2.3924
-6.3196 -3.3959 2.3924
-6.1828 -3.6093 2.3924
-6.0377 -3.8166 2.3924
-5.8848 -4.0176 2.3924
-5.7242 -4.2119 2.3924
-5.5563 -4.3992 2.3924
-5.3814 -4.5792 2.3924
-5.2000 -4.7518 2.3924
-5.0124 -4.9166 2.3924
-4.8189 -5.0735 2.3924
-4.6199 -5.2222 2.3924
-4.4159 -5.3626 2.3924
-4.2071 -5.4945 2.3924
-3.9941 -5.6179 2.3924
-3.7772 -5.7325 2.3924
-3.5567 -5.8384 2.3924
-3.3331 -5.9353 2.3924
-3.1068 -6.0234 2.3924
-2.8782 -6.1024 2.3924
-2.6476 -6.1725 2.3924
-2.4154 -6.2337 2.3924
-2.1820 -6.2858 2.3924
-1.9477 -6.3291 2.3924
-1.7130 -6.3635 2.3924
-1.4781 -6.3890 2.3924
-1.2434 -6.4058 2.3924
-1.0093 -6.4140 2.3924
-0.7761 -6.4136 2.3924
-0.5440 -6.4048 2.3924
-0.3134 -6.3877 2.3924
-0.0846 -6.3624 2.3924
0.1421 -6.3290 2.3924
0.3665 -6.2878 2.3924
0.5883 -6.2389 2.3924
0.8073 -6.1824 2.3924
1.0231 -6.1185 2.3924
1.2357 -6.0475 2.3924
1.4446 -5.9693 2.3924
1.6498 -5.8844 2.3924
1.8511 -5.7928 2.3924
2.0482 -5.6947 2.3924
2.2409 -5.5904 2.3924
2.4292 -5.4800 2.3924
2.6128 -5.3638 2.3924
2.7915 -5.2419 2.3924
2.9654 -5.1145 2.3924
3.1341 -4.9820 2.3924
3.2976 -4.8443 2.3924
3.4557 -4.7018 2.3924
3.6085 -4.5547 2.3924
3.7556 -4.4032 2.3924
3.8971 -4.2474 2.3924
4.0329 -4.0876 2.3924
3.9980 -3.7685 2.2977
4.0138 -3.5174 2.2400
4.1244 -3.3576 2.2400
4.2294 -3.1948 2.2401
4.3287 -3.0292 2.2401
4.4223 -2.8609 2.2401
4.5101 -2.6901 2.2401
4.5920 -2.5171 2.2402
4.6681 -2.3419 2.2402
4.7383 -2.1648 2.2402
4.8026 -1.9859 2.2402
4.8611 -1.8055 2.2403
4.9140 -1.6238 2.2406
4.9608 -1.4407 2.2408
5.0017 -1.2566 2.2410
5.0365 -1.0715 2.2412
5.0653 -0.8856 2.2414
5.0880 -0.6991 2.2415
5.1047 -0.5122 2.2417
5.1154 -0.3250 2.2418
5.1200 -0.1377 2.2419
5.1186 0.0495 2.2420
5.1112 0.2365 2.2421
5.0977 0.4232 2.2422
5.0783 0.6092 2.2423
5.0529 0.7945 2.2423
5.0216 0.9790 2.2423
4.9843 1.1623 2.2424
4.9412 1.3445 2.2424
4.8922 1.5253 2.2423
4.8373 1.7046 2.2423
4.7766 1.8821 2.2423
4.7102 2.0578 2.2422
4.6381 2.2314 2.2421
4.5603 2.4029 2.2420
4.4769 2.5720 2.2419
4.3879 2.7386 2.2418
4.2934 2.9025 2.2417
4.1934 3.0635 2.2415
4.0881 3.2216 2.2413
3.9774 3.3764 2.2412
3.8615 3.5280 2.2410
3.7405 3.6760 2.2408
3.6143 3.8203 2.2405
3.4831 3.9608 2.2403
3.3473 4.0975 2.2402
3.2067 4.2304 2.2401
3.0614 4.3589 2.2401
2.9115 4.4830 2.2401
2.7570 4.6025 2.2401
2.5982 4.7172 2.2401
2.4351 4.8270 2.2400
2.2782 4.9557 2.2505
2.1946 5.2668 2.3449
0.8586 2.2905 1.0011
0.7758 2.3217 0.9975
0.6920 2.3499 0.9938
0.6072 2.3751 0.9901
0.5215 2.3972 0.9863
0.4351 2.4162 0.9825
0.3480 2.4321 0.9786
0.2605 2.4448 0.9746
0.1725 2.4543 0.9706
0.0842 2.4607 0.9665
-0.0042 2.4639 0.9625
-0.0927 2.4638 0.9584
-0.1812 2.4606 0.9542
-0.2694 2.4542 0.9501
-0.3574 2.4446 0.9459
-0.4450 2.4319 0.9418
-0.5321 2.4159 0.9376
-0.6185 2.3969 0.9334
-0.7042 2.3747 0.9293
-0.7890 2.3495 0.9251
-0.8729 2.3212 0.9210
-0.9557 2.2899 0.9169
-2.7187 5.9119 2.3924
-2.9422 5.8402 2.3924
-3.1639 5.7601 2.3924
-3.3833 5.6714 2.3924
-3.6002 5.5743 2.3924
-3.8142 5.4688 2.3924
-4.0250 5.3548 2.3924
-4.2321 5.2326 2.3924
-4.4352 5.1021 2.3924
-4.6340 4.9635 2.3924
-4.8281 4.8168 2.3924
-5.0170 4.6624 2.3924
-5.2005 4.5002 2.3924
-5.3782 4.3305 2.3924
-5.5498 4.1535 2.3924
-5.7148 3.9693 2.3924
-5.8730 3.7783 2.3924
-6.0239 3.5807 2.3924
-6.1674 3.3767 2.3924
-6.3030 3.1666 2.3924
-6.4306 2.9509 2.3924
-6.5496 2.7297 2.3924
-6.6601 2.5034 2.3924
-6.7615 2.2724 2.3924
-6.8538 2.0370 2.3924
-6.9367 1.7978 2.3924
-7.0099 1.5549 2.3924
-7.0734 1.3090 2.3924
-7.1269 1.0603 2.3924
-7.1703 0.8094 2.3924
-7.2034 0.5567 2.3924
-7.2263 0.3026 2.3924
-7.2388 0.0475 2.3924
-7.2408 -0.2079 2.3924
-7.2324 -0.4634 2.3924
-7.2135 -0.7183 2.3924
-7.1842 -0.9724 2.3924
-7.1446 -1.2249 2.3924
-7.0946 -1.4756 2.3924
-7.0344 -1.7240 2.3924
-6.9642 -1.9696 2.3924
-6.8840 -2.2120 2.3924
-6.7941 -2.4507 2.3924
-6.6946 -2.6853 2.3924
-6.5858 -2.9154 2.3924
-6.4678 -3.1407 2.3924
-6.3410 -3.3606 2.3924
-6.2056 -3.5750 2.3924
-6.0619 -3.7833 2.3924
-5.9102 -3.9854 2.3924
-5.7508 -4.1807 2.3924
-5.5840 -4.3692 2.3924
-5.4103 -4.5505 2.3924
-5.2299 -4.7243 2.3924
-5.0433 -4.8903 2.3924
-4.8507 -5.0485 2.3924
-4.6526 -5.1986 2.3924
-4.4494 -5.3403 2.3924
-4.2414 -5.4737 2.3924
-4.0290 -5.5984 2.3924
-3.8127 -5.7145 2.3924
-3.5928 -5.8218 2.3924
-3.3697 -5.9202 2.3924
-3.1438 -6.0097 2.3924
-2.9155 -6.0902 2.3924
-2.6852 -6.1617 2.3924
-2.4532 -6.2243 2.3924
-2.2200 -6.2780 2.3924
-1.9858 -6.3227 2.3924
-1.7512 -6.3585 2.3924
-1.5163 -6.3855 2.3924
-1.2816 -6.4037 2.3924
-1.0473 -6.4132 2.3924
-0.8139 -6.4142 2.3924
-0.5816 -6.4068 2.3924
-0.3508 -6.3910 2.3924
-0.1217 -6.3671 2.3924
0.1054 -6.3350 2.3924
0.3302 -6.2951 2.3924
0.5525 -6.2474 2.3924
0.7719 -6.1921 2.3924
0.9883 -6.1294 2.3924
1.2014 -6.0595 2.3924
1.4109 -5.9825 2.3924
1.6167 -5.8987 2.3924
1.8186 -5.8081 2.3924
2.0164 -5.7111 2.3924
2.2099 -5.6078 2.3924
2.3989 -5.4984 2.3924
2.5833 -5.3831 2.3924
2.7628 -5.2621 2.3924
2.9375 -5.1356 2.3924
3.1070 -5.0039 2.3924
3.2713 -4.8669 2.3924
3.4304 -4.7253 2.3924
3.5840 -4.5789 2.3924
3.7321 -4.4281 2.3924
3.8745 -4.2730 2.3924
4.0112 -4.1138 2.3924
4.0053 -3.8203 2.3134
3.9953 -3.5431 2.2400
4.1068 -3.3838 2.2400
4.2128 -3.2215 2.2401
4.3130 -3.0563 2.2401
4.4075 -2.8884 2.2401
4.4962 -2.7181 2.2401
4.5791 -2.5454 2.2402
4.6561 -2.3705 2.2402
4.7273 -2.1937 2.2402
4.7925 -2.0151 2.2402
4.8520 -1.8349 2.2403
4.9058 -1.6534 2.2405
4.9536 -1.4706 2.2408
4.9954 -1.2866 2.2410
5.0312 -1.1016 2.2412
5.0610 -0.9158 2.2413
5.0847 -0.7294 2.2415
5.1024 -0.5426 2.2417
5.1140 -0.3554 2.2418
5.1196 -0.1681 2.2419
5.1192 0.0191 2.2420
5.1128 0.2062 2.2421
5.1003 0.3929 2.2422
5.0819 0.5790 2.2423
5.0575 0.7645 2.2423
5.0271 0.9491 2.2423
4.9908 1.1326 2.2424
4.9486 1.3150 2.2424
4.9005 1.4960 2.2423
4.8466 1.6755 2.2423
4.7869 1.8534 2.2423
4.7214 2.0294 2.2422
4.6502 2.2034 2.2421
4.5733 2.3752 2.2420
4.4908 2.5447 2.2419
4.4027 2.7117 2.2418
4.3091 2.8760 2.2417
4.2101 3.0376 2.2415
4.1056 3.1961 2.2414
3.9958 3.3515 2.2412
3.8807 3.5036 2.2410
3.7605 3.6522 2.2408
3.6351 3.7971 2.2406
3.5048 3.9382 2.2403
3.3696 4.0755 2.2402
3.2299 4.2091 2.2402
3.0853 4.3383 2.2401
2.9362 4.4631 2.2401
2.7824 4.5833 2.2401
2.6243 4.6989 2.2401
2.4668 4.8192 2.2445
2.2960 4.9166 2.2407
2.2084 5.2133 2.3284
0.8719 2.2851 1.0016
0.7894 2.3168 0.9981
0.7057 2.3455 0.9944
0.6210 2.3712 0.9907
0.5355 2.3938 0.9869
0.4492 2.4133 0.9831
0.3622 2.4297 0.9792
0.2747 2.4429 0.9752
0.1868 2.4530 0.9712
0.0986 2.4599 0.9672
0.0102 2.4636 0.9631
-0.0783 2.4641 0.9590
-0.1668 2.4614 0.9549
-0.2551 2.4555 0.9508
-0.3432 2.4464 0.9466
-0.4308 2.4341 0.9424
-0.5180 2.4187 0.9383
-0.6045 2.4002 0.9341
-0.6903 2.3785 0.9299
-0.7753 2.3538 0.9258
-0.8594 2.3260 0.9217
-0.9423 2.2952 0.9175
-2.6823 5.9227 2.3924
-2.9060 5.8524 2.3924
-3.1280 5.7737 2.3924
-3.3478 5.6864 2.3924
-3.5652 5.5907 2.3924
-3.7797 5.4865 2.3924
-3.9910 5.3739 2.3924
-4.1987 5.2530 2.3924
-4.4025 5.1238 2.3924
-4.6020 4.9865 2.3924
-4.7969 4.8412 2.3924
-4.9867 4.6880 2.3924
-5.1711 4.5271 2.3924
-5.3498 4.3586 2.3924
-5.5223 4.1827 2.3924
-5.6884 3.9997 2.3924
-5.8477 3.8098 2.3924
-5.9999 3.6132 2.3924
-6.1446 3.4103 2.3924
-6.2815 3.2012 2.3924
-6.4104 2.9863 2.3924
-6.5309 2.7660 2.3924
-6.6427 2.5405 2.3924
-6.7457 2.3102 2.3924
-6.8394 2.0756 2.3924
-6.9238 1.8369 2.3924
-6.9987 1.5946 2.3924
-7.0637 1.3492 2.3924
-7.1189 1.1009 2.3924
-7.1639 0.8503 2.3924
-7.1987 0.5978 2.3924
-7.2233 0.3439 2.3924
-7.2375 0.0890 2.3924
-7.2412 -0.1664 2.3924
-7.2345 -0.4219 2.3924
-7.2173 -0.6770 2.3924
-7.1897 -0.9312 2.3924
-7.1517 -1.1840 2.3924
-7.1034 -1.4351 2.3924
-7.0449 -1.6838 2.3924
-6.9763 -1.9299 2.3924
-6.8977 -2.1728 2.3924
-6.8094 -2.4122 2.3924
-6.7114 -2.6475 2.3924
-6.6041 -2.8784 2.3924
-6.4876 -3.1044 2.3924
-6.3622 -3.3253 2.3924
-6.2282 -3.5405 2.3924
-6.0858 -3.7499 2.3924
-5.9354 -3.9530 2.3924
-5.7772 -4.1495 2.3924
-5.6116 -4.3391 2.3924
-5.4390 -4.5215 2.3924
-5.2597 -4.6965 2.3924
-5.0740 -4.8639 2.3924
-4.8824 -5.0234 2.3924
-4.6852 -5.1748 2.3924
-4.4827 -5.3179 2.3924
-4.2755 -5.4526 2.3924
-4.0638 -5.5787 2.3924
-3.8481 -5.6962 2.3924
-3.6287 -5.8049 2.3924
-3.4061 -5.9048 2.3924
-3.1807 -5.9957 2.3924
-2.9527 -6.0777 2.3924
-2.7227 -6.1507 2.3924
-2.4910 -6.2148 2.3924
-2.2580 -6.2699 2.3924
-2.0239 -6.3160 2.3924
-0.7542 2.1946 0.9254
-0.8325 2.1677 0.9216
-0.9098 2.1379 0.9177
-2.5811 5.5113 2.3924
-2.7889 5.4415 2.3924
-2.9947 5.3638 2.3924
-3.1984 5.2783 2.3924
-3.3995 5.1849 2.3924
-3.5977 5.0837 2.3924
-3.7928 4.9747 2.3924
-3.9843 4.8581 2.3924
-4.1719 4.7339 2.3924
-4.3553 4.6023 2.3924
-4.5342 4.4633 2.3924
-4.7083 4.3171 2.3924
-4.8771 4.1638 2.3924
-5.0405 4.0037 2.3924
-5.1979 3.8369 2.3924
-5.3493 3.6636 2.3924
-5.4942 3.4841 2.3924
-5.6323 3.2985 2.3924
-5.7634 3.1073 2.3924
-5.8871 2.9105 2.3924
-6.0033 2.7086 2.3924
-6.1116 2.5017 2.3924
-6.2118 2.2903 2.3924
-6.3037 2.0747 2.3924
-6.3871 1.8552 2.3924
-6.4618 1.6321 2.3924
-6.5275 1.4059 2.3924
-6.5842 1.1770 2.3924
-6.6317 0.9457 2.3924
-6.6698 0.7123 2.3924
-6.6985 0.4774 2.3924
-6.7178 0.2413 2.3924
-6.7274 0.0045 2.3924
-6.7274 -0.2326 2.3924
-6.7179 -0.4696 2.3924
-6.6987 -0.7061 2.3924
-6.6699 -0.9416 2.3924
-6.6316 -1.1758 2.3924
-6.5838 -1.4082 2.3924
-6.5267 -1.6383 2.3924
-6.4603 -1.8659 2.3924
-6.3848 -2.0904 2.3924
-6.3003 -2.3116 2.3924
-6.2071 -2.5290 2.3924
-6.1053 -2.7422 2.3924
-5.9950 -2.9508 2.3924
-5.8767 -3.1546 2.3924
-5.7504 -3.3532 2.3924
-5.6165 -3.5463 2.3924
-5.4753 -3.7336 2.3924
-5.3269 -3.9148 2.3924
-5.1718 -4.0895 2.3924
-5.0102 -4.2577 2.3924
-4.8425 -4.4189 2.3924
-4.6690 -4.5731 2.3924
-4.4900 -4.7200 2.3924
-4.3059 -4.8594 2.3924
-4.1170 -4.9912 2.3924
-3.9236 -5.1152 2.3924
-3.7262 -5.2312 2.3924
-3.5251 -5.3393 2.3924
-3.3206 -5.4392 2.3924
-3.1132 -5.5310 2.3924
-2.9030 -5.6145 2.3924
-2.6907 -5.6897 2.3924
-2.4763 -5.7566 2.3924
-2.2604 -5.8153 2.3924
-2.0433 -5.8656 2.3924
-1.8252 -5.9076 2.3924
-1.6065 -5.9413 2.3924
-1.3877 -5.9669 2.3924
-1.1688 -5.9843 2.3924
-0.9504 -5.9937 2.3924
-0.7326 -5.9951 2.3924
-0.5159 -5.9886 2.3924
-0.3003 -5.9743 2.3924
-0.0864 -5.9523 2.3924
0.1258 -5.9228 2.3924
0.3359 -5.8860 2.3924
0.5437 -5.8418 2.3924
0.7489 -5.7905 2.3924
0.9513 -5.7323 2.3924
1.1507 -5.6674 2.3924
1.3469 -5.5956 2.3924
1.5397 -5.5175 2.3924
1.7289 -5.4331 2.3924
1.9142 -5.3425 2.3924
2.0956 -5.2460 2.3924
2.2728 -5.1437 2.3924
2.4457 -5.0359 2.3924
2.6142 -4.9227 2.3924
2.7781 -4.8042 2.3924
2.9373 -4.6808 2.3924
3.0916 -4.5525 2.3924
3.2409 -4.4196 2.3924
3.3852 -4.2823 2.3924
3.5243 -4.1407 2.3924
3.6581 -3.9950 2.3924
3.7865 -3.8455 2.3924
3.9095 -3.6923 2.3924
3.9276 -3.4483 2.3334
3.8933 -3.1762 2.2504
3.9747 -3.0078 2.2400
4.0688 -2.8524 2.2400
4.1575 -2.6944 2.2401
4.2408 -2.5340 2.2401
4.3186 -2.3714 2.2401
4.3908 -2.2067 2.2401
4.4575 -2.0401 2.2401
4.5186 -1.8718 2.2402
4.5740 -1.7019 2.2402
4.6239 -1.5307 2.2402
4.6680 -1.3582 2.2402
4.7067 -1.1848 2.2403
4.7399 -1.0104 2.2405
4.7673 -0.8353 2.2407
4.7890 -0.6596 2.2408
4.8050 -0.4835 2.2410
4.8153 -0.3071 2.2411
4.8198 -0.1306 2.2412
4.8186 0.0459 2.2413
4.8117 0.2222 2.2414
4.7991 0.3981 2.2415
4.7809 0.5735 2.2415
4.7569 0.7481 2.2416
4.7273 0.9220 2.2416
4.6921 1.0948 2.2416
4.6513 1.2665 2.2416
4.6050 1.4369 2.2416
4.5531 1.6057 2.2416
4.4957 1.7730 2.2415
4.4328 1.9384 2.2415
4.3646 2.1020 2.2414
4.2909 2.2634 2.2413
4.2120 2.4225 2.2412
4.1278 2.5792 2.2411
4.0384 2.7334 2.2409
3.9438 2.8848 2.2408
3.8441 3.0333 2.2406
3.7395 3.1788 2.2405
3.6299 3.3211 2.2403
3.5155 3.4601 2.2402
3.3966 3.5959 2.2402
3.2729 3.7279 2.2401
3.1446 3.8562 2.2401
3.0118 3.9806 2.2401
2.8745 4.1009 2.2401
2.7330 4.2169 2.2401
2.5872 4.3285 2.2400
2.4373 4.4356 2.2400
2.3314 4.6334 2.2871
2.2569 4.9217 2.3783
0.8772 2.1117 1.0004
0.8009 2.1436 0.9972
0.7234 2.1728 0.9938
0.6449 2.1992 0.9904
0.5655 2.2228 0.9869
0.4853 2.2435 0.9834
0.4044 2.2612 0.9798
0.3229 2.2761 0.9761
0.2410 2.2880 0.9724
0.1586 2.2969 0.9686
0.0760 2.3028 0.9649
-0.0068 2.3058 0.9610
-0.0896 2.3058 0.9572
-0.1724 2.3027 0.9533
-0.2550 2.2967 0.9494
-0.3374 2.2878 0.9456
-0.4194 2.2758 0.9417
-0.5008 2.2609 0.9377
-0.5817 2.2431 0.9338
-0.6620 2.2223 0.9300
-0.7414 2.1987 0.9261
-0.8199 2.1722 0.9222
-0.8974 2.1430 0.9184
-2.5472 5.5219 2.3924
-2.7552 5.4534 2.3924
-2.9614 5.3770 2.3924
-3.1655 5.2927 2.3924
-3.3670 5.2006 2.3924
-3.5657 5.1006 2.3924
-3.7613 4.9929 2.3924
-3.9534 4.8776 2.3924
-4.1417 4.7546 2.3924
-4.3258 4.6242 2.3924
-4.5055 4.4864 2.3924
-4.6803 4.3413 2.3924
-4.8501 4.1892 2.3924
-5.0143 4.0302 2.3924
-5.1728 3.8645 2.3924
-5.3251 3.6922 2.3924
-5.4711 3.5137 2.3924
-5.6103 3.3291 2.3924
-5.7426 3.1387 2.3924
-5.8675 2.9429 2.3924
-5.9850 2.7417 2.3924
-6.0946 2.5357 2.3924
-6.1961 2.3250 2.3924
-6.2894 2.1100 2.3924
-6.3742 1.8911 2.3924
-6.4502 1.6686 2.3924
-6.5174 1.4429 2.3924
-6.5756 1.2143 2.3924
-6.6246 0.9834 2.3924
-6.6643 0.7503 2.3924
-6.6945 0.5157 2.3924
-6.7153 0.2798 2.3924
-6.7265 0.0431 2.3924
-6.7281 -0.1940 2.3924
-6.7201 -0.4311 2.3924
-6.7024 -0.6677 2.3924
-6.6752 -0.9034 2.3924
-6.6385 -1.1378 2.3924
-6.5922 -1.3705 2.3924
-6.5366 -1.6011 2.3924
-6.4717 -1.8291 2.3924
-6.3977 -2.0542 2.3924
-6.3147 -2.2759 2.3924
-6.2228 -2.4939 2.3924
-6.1224 -2.7078 2.3924
-6.0135 -2.9172 2.3924
-5.8965 -3.1219 2.3924
-5.7715 -3.3213 2.3924
-5.6388 -3.5153 2.3924
-5.4987 -3.7036 2.3924
-5.3515 -3.8857 2.3924
-5.1975 -4.0616 2.3924
-5.0369 -4.2308 2.3924
-4.8702 -4.3932 2.3924
-4.6976 -4.5485 2.3924
-4.5194 -4.6966 2.3924
-4.3361 -4.8372 2.3924
-4.1480 -4.9703 2.3924
-3.9553 -5.0955 2.3924
-3.7586 -5.2129 2.3924
-3.5580 -5.3223 2.3924
-3.3541 -5.4235 2.3924
-3.1471 -5.5166 2.3924
-2.9374 -5.6015 2.3924
-2.7253 -5.6781 2.3924
-2.5113 -5.7463 2.3924
-2.2956 -5.8063 2.3924
-2.0786 -5.8579 2.3924
-1.8607 -5.9013 2.3924
-1.6421 -5.9364 2.3924
-1.4232 -5.9633 2.3924
-1.2044 -5.9820 2.3924
-0.9859 -5.9927 2.3924
-0.7680 -5.9954 2.3924
-0.5510 -5.9902 2.3924
-0.3353 -5.9771 2.3924
-0.1210 -5.9564 2.3924
0.0914 -5.9282 2.3924
0.3019 -5.8925 2.3924
0.5100 -5.8494 2.3924
0.7157 -5.7994 2.3924
0.9186 -5.7423 2.3924
1.1185 -5.6784 2.3924
1.3153 -5.6077 2.3924
1.5086 -5.5306 2.3924
1.6984 -5.4472 2.3924
1.8844 -5.3576 2.3924
2.0664 -5.2621 2.3924
2.2443 -5.1607 2.3924
2.4179 -5.0538 2.3924
2.5871 -4.9414 2.3924
2.7518 -4.8238 2.3924
2.9117 -4.7012 2.3924
3.0668 -4.5737 2.3924
3.2170 -4.4415 2.3924
3.3621 -4.3049 2.3924
3.5020 -4.1640 2.3924
3.6367 -4.0190 2.3924
3.7660 -3.8700 2.3924
3.8899 -3.7174 2.3924
3.9342 -3.4955 2.3482
3.8949 -3.2150 2.2612
3.9589 -3.0328 2.2400
4.0539 -2.8778 2.2400
4.1435 -2.7202 2.2401
4.2276 -2.5602 2.2401
4.3063 -2.3979 2.2401
4.3795 -2.2335 2.2401
4.4471 -2.0673 2.2401
4.5090 -1.8993 2.2402
4.5654 -1.7297 2.2402
4.6162 -1.5586 2.2402
4.6613 -1.3864 2.2402
4.7008 -1.2130 2.2403
4.7349 -1.0388 2.2405
4.7633 -0.8638 2.2406
4.7859 -0.6882 2.2408
4.8028 -0.5122 2.2409
4.8140 -0.3358 2.2411
4.8195 -0.1593 2.2412
4.8192 0.0172 2.2413
4.8132 0.1936 2.2414
4.8016 0.3695 2.2415
4.7842 0.5450 2.2415
4.7612 0.7198 2.2416
4.7325 0.8938 2.2416
4.6982 1.0668 2.2416
4.6583 1.2387 2.2416
4.6129 1.4093 2.2416
4.5619 1.5784 2.2416
4.5054 1.7459 2.2415
4.4434 1.9117 2.2415
4.3760 2.0755 2.2414
4.3033 2.2373 2.2413
4.2252 2.3968 2.2412
4.1418 2.5539 2.2411
4.0532 2.7085 2.2410
3.9595 2.8604 2.2408
3.8607 3.0094 2.2407
3.7568 3.1554 2.2405
3.6480 3.2982 2.2403
3.5344 3.4377 2.2402
3.4162 3.5740 2.2402
3.2933 3.7067 2.2401
3.1658 3.8357 2.2401
3.0337 3.9607 2.2401
2.8972 4.0816 2.2401
2.7563 4.1983 2.2401
2.6111 4.3106 2.2400
2.4619 4.4185 2.2400
2.3429 4.5887 2.2732
2.2695 4.8732 2.3628
2.1261 5.0340 2.3924
0.8134 2.1386 0.9977
0.7361 2.1683 0.9944
0.6577 2.1951 0.9910
0.5785 2.2191 0.9875
0.4984 2.2403 0.9839
0.4176 2.2585 0.9803
0.3362 2.2739 0.9767
0.2543 2.2862 0.9730
0.1720 2.2956 0.9693
0.0895 2.3021 0.9655
0.0067 2.3055 0.9617
-0.0761 2.3060 0.9578
-0.1589 2.3034 0.9540
-0.2416 2.2979 0.9501
-0.3240 2.2894 0.9462
-0.4061 2.2780 0.9423
-0.4876 2.2635 0.9384
-0.5686 2.2462 0.9345
-0.6490 2.2259 0.9306
-0.7285 2.2028 0.9267
-0.8072 2.1767 0.9228
-0.8848 2.1479 0.9190
-2.5133 5.5323 2.3924
-2.7216 5.4651 2.3924
-2.9281 5.3900 2.3924
-3.1325 5.3070 2.3924
-3.3344 5.2161 2.3924
-3.5336 5.1174 2.3924
-3.7297 5.0110 2.3924
-3.9224 4.8968 2.3924
-4.1114 4.7751 2.3924
-4.2962 4.6459 2.3924
-4.4766 4.5093 2.3924
-4.6523 4.3654 2.3924
-4.8228 4.2144 2.3924
-4.9880 4.0565 2.3924
-5.1474 3.8919 2.3924
-5.3008 3.7207 2.3924
-5.4478 3.5431 2.3924
-5.5882 3.3595 2.3924
-5.7216 3.1701 2.3924
-5.8477 2.9750 2.3924
-5.9664 2.7747 2.3924
-6.0773 2.5695 2.3924
-6.1802 2.3595 2.3924
-6.2748 2.1452 2.3924
-6.3610 1.9269 2.3924
-6.4385 1.7050 2.3924
-6.5071 1.4798 2.3924
-6.5668 1.2517 2.3924
-6.6173 1.0211 2.3924
-6.6584 0.7883 2.3924
-6.6902 0.5539 2.3924
-6.7125 0.3182 2.3924
-6.7253 0.0816 2.3924
-6.7285 -0.1555 2.3924
-6.7220 -0.3926 2.3924
-6.7060 -0.6293 2.3924
-6.6803 -0.8652 2.3924
-6.6451 -1.0998 2.3924
-6.6004 -1.3328 2.3924
-6.5463 -1.5638 2.3924
-6.4829 -1.7922 2.3924
-6.4103 -2.0178 2.3924
-6.3288 -2.2401 2.3924
-6.2384 -2.4587 2.3924
-6.1393 -2.6733 2.3924
-6.0318 -2.8835 2.3924
-5.9160 -3.0889 2.3924
-5.7923 -3.2893 2.3924
-5.6609 -3.4842 2.3924
-5.5220 -3.6734 2.3924
-5.3759 -3.8566 2.3924
-5.2229 -4.0334 2.3924
-5.0634 -4.2038 2.3924
-4.8977 -4.3673 2.3924
-4.7260 -4.5238 2.3924
-4.5487 -4.6731 2.3924
-4.3662 -4.8149 2.3924
-4.1789 -4.9492 2.3924
-3.9869 -5.0757 2.3924
-3.7908 -5.1944 2.3924
-3.5909 -5.3050 2.3924
-3.3874 -5.4076 2.3924
-3.1809 -5.5020 2.3924
-2.9716 -5.5882 2.3924
-2.7599 -5.6662 2.3924
-2.5462 -5.7358 2.3924
-2.3308 -5.7971 2.3924
-2.1140 -5.8501 2.3924
-1.8961 -5.8948 2.3924
-0.7107 2.0599 0.9263
-0.7843 2.0346 0.9227
-0.8568 2.0067 0.9191
-0.9284 1.9762 0.9155
-2.6200 5.0973 2.3924
-2.8122 5.0232 2.3924
-3.0022 4.9418 2.3924
-3.1897 4.8531 2.3924
-3.3745 4.7572 2.3924
-3.5562 4.6540 2.3924
-3.7345 4.5438 2.3924
-3.9091 4.4266 2.3924
-4.0797 4.3024 2.3924
-4.2460 4.1715 2.3924
-4.4078 4.0339 2.3924
-4.5646 3.8898 2.3924
-4.7162 3.7393 2.3924
-4.8623 3.5827 2.3924
-5.0027 3.4202 2.3924
-5.1369 3.2519 2.3924
-5.2649 3.0781 2.3924
-5.3863 2.8990 2.3924
-5.5009 2.7149 2.3924
-5.6083 2.5260 2.3924
-5.7085 2.3326 2.3924
-5.8011 2.1351 2.3924
-5.8860 1.9337 2.3924
-5.9630 1.7288 2.3924
-6.0318 1.5206 2.3924
-6.0925 1.3096 2.3924
-6.1447 1.0960 2.3924
-6.1884 0.8803 2.3924
-6.2234 0.6628 2.3924
-6.2498 0.4439 2.3924
-6.2673 0.2239 2.3924
-6.2760 0.0032 2.3924
-6.2758 -0.2177 2.3924
-6.2667 -0.4385 2.3924
-6.2488 -0.6588 2.3924
-6.2220 -0.8783 2.3924
-6.1863 -1.0965 2.3924
-6.1420 -1.3130 2.3924
-6.0889 -1.5275 2.3924
-6.0273 -1.7396 2.3924
-5.9573 -1.9490 2.3924
-5.8789 -2.1552 2.3924
-5.7925 -2.3579 2.3924
-5.6981 -2.5568 2.3924
-5.5959 -2.7516 2.3924
-5.4861 -2.9419 2.3924
-5.3690 -3.1274 2.3924
-5.2449 -3.3079 2.3924
-5.1138 -3.4830 2.3924
-4.9762 -3.6525 2.3924
-4.8323 -3.8161 2.3924
-4.6823 -3.9736 2.3924
-4.5265 -4.1248 2.3924
-4.3654 -4.2694 2.3924
-4.1991 -4.4073 2.3924
-4.0280 -4.5384 2.3924
-3.8523 -4.6623 2.3924
-3.6725 -4.7791 2.3924
-3.4889 -4.8886 2.3924
-3.3017 -4.9907 2.3924
-3.1113 -5.0852 2.3924
-2.9180 -5.1722 2.3924
-2.7221 -5.2515 2.3924
-2.5241 -5.3231 2.3924
-2.3241 -5.3870 2.3924
-2.1226 -5.4432 2.3924
-1.9198 -5.4917 2.3924
-1.7161 -5.5324 2.3924
-1.5117 -5.5654 2.3924
-1.3070 -5.5908 2.3924
-1.1023 -5.6085 2.3924
-0.8978 -5.6188 2.3924
-0.6939 -5.6215 2.3924
-0.4907 -5.6169 2.3924
-0.2887 -5.6049 2.3924
-0.0880 -5.5857 2.3924
0.1111 -5.5595 2.3924
0.3085 -5.5264 2.3924
0.5036 -5.4862 2.3924
0.6966 -5.4395 2.3924
0.8869 -5.3861 2.3924
1.0746 -5.3265 2.3924
1.2593 -5.2603 2.3924
1.4408 -5.1881 2.3924
1.6191 -5.1100 2.3924
1.7938 -5.0260 2.3924
1.9649 -4.9363 2.3924
2.1322 -4.8412 2.3924
2.2954 -4.7408 2.3924
2.4546 -4.6352 2.3924
2.6094 -4.5247 2.3924
2.7599 -4.4094 2.3924
2.9058 -4.2894 2.3924
3.0472 -4.1651 2.3924
3.1837 -4.0364 2.3924
3.3155 -3.9037 2.3924
3.4422 -3.7671 2.3924
3.5640 -3.6268 2.3924
3.6806 -3.4829 2.3924
3.7920 -3.3357 2.3924
3.8626 -3.1562 2.3706
3.8273 -2.9017 2.2897
3.8336 -2.6924 2.2400
3.9179 -2.5437 2.2400
3.9970 -2.3926 2.2400
4.0709 -2.2394 2.2401
4.1396 -2.0841 2.2401
4.2031 -1.9271 2.2401
4.2612 -1.7684 2.2401
4.3140 -1.6081 2.2401
4.3615 -1.4465 2.2402
4.4036 -1.2837 2.2402
4.4403 -1.1199 2.2402
4.4716 -0.9552 2.2402
4.4975 -0.7898 2.2402
4.5180 -0.6238 2.2402
4.5333 -0.4575 2.2403
4.5431 -0.2909 2.2404
4.5476 -0.1241 2.2405
4.5466 0.0426 2.2406
4.5401 0.2092 2.2407
4.5283 0.3753 2.2408
4.5110 0.5410 2.2408
4.4884 0.7061 2.2409
4.4604 0.8703 2.2409
4.4271 1.0336 2.2409
4.3884 1.1957 2.2409
4.3445 1.3566 2.2409
4.2953 1.5161 2.2409
4.2409 1.6740 2.2408
4.1813 1.8302 2.2408
4.1166 1.9846 2.2407
4.0468 2.1369 2.2406
3.9719 2.2870 2.2405
3.8921 2.4348 2.2404
3.8073 2.5802 2.2403
3.7177 2.7229 2.2402
3.6235 2.8631 2.2402
3.5245 3.0003 2.2402
3.4209 3.1345 2.2401
3.3127 3.2655 2.2401
3.1999 3.3932 2.2401
3.0828 3.5174 2.2401
