ply
format ascii 1.0
element vertex 2179
property float32 x
property float32 y
property float32 z
end_header
4.4874 0.2888 2.3788
4.4794 0.4576 2.3788
4.4664 0.6264 2.3788
4.4485 0.7950 2.3788
4.4257 0.9633 2.3788
4.3980 1.1313 2.3788
4.3652 1.2988 2.3788
4.3275 1.4659 2.3788
4.2848 1.6322 2.3788
4.2370 1.7979 2.3788
4.1842 1.9627 2.3788
4.1264 2.1265 2.3788
4.0635 2.2893 2.3788
3.9955 2.4509 2.3788
3.9224 2.6112 2.3788
3.8441 2.7701 2.3788
3.7608 2.9275 2.3788
3.6722 3.0831 2.3788
3.5782 3.2367 2.3786
3.4784 3.3878 2.3780
3.3729 3.5360 2.3769
3.2616 3.6812 2.3754
3.1446 3.8230 2.3734
3.0218 3.9609 2.3707
2.8933 4.0948 2.3674
2.7592 4.2242 2.3635
2.6195 4.3488 2.3588
2.4747 4.4685 2.3535
2.3278 4.5892 2.3507
2.1787 4.7115 2.3507
2.0246 4.8301 2.3506
0.8050 2.1338 1.0143
0.7286 2.1649 1.0066
0.6512 2.1933 0.9989
0.5728 2.2189 0.9910
0.4935 2.2416 0.9831
0.4134 2.2615 0.9751
0.3327 2.2784 0.9670
0.2514 2.2924 0.9589
0.1697 2.3034 0.9508
0.0876 2.3115 0.9427
0.0052 2.3166 0.9345
-0.0772 2.3187 0.9264
-0.1597 2.3178 0.9183
-0.2422 2.3139 0.9102
-0.3244 2.3071 0.9021
-0.4063 2.2973 0.8941
-0.4878 2.2845 0.8861
-0.5689 2.2687 0.8782
-0.6493 2.2501 0.8703
-0.7290 2.2285 0.8626
-0.8078 2.2041 0.8549
-0.8857 2.1768 0.8474
-0.9626 2.1468 0.8400
-2.9306 5.9658 2.3499
-3.1682 5.9164 2.3499
-3.4056 5.8574 2.3499
-3.6424 5.7888 2.3499
-3.8779 5.7103 2.3499
-4.1119 5.6219 2.3499
-4.3437 5.5235 2.3499
-4.5728 5.4151 2.3499
-4.7987 5.2966 2.3500
-5.0209 5.1681 2.3500
-5.2388 5.0297 2.3500
-5.4518 4.8814 2.3501
-5.6594 4.7232 2.3501
-5.8611 4.5555 2.3502
-6.0561 4.3784 2.3502
-6.2441 4.1920 2.3503
-6.4243 3.9967 2.3503
-6.5964 3.7928 2.3504
-6.7596 3.5806 2.3504
-6.9136 3.3606 2.3505
-7.0578 3.1330 2.3506
-7.1918 2.8985 2.3506
-7.3151 2.6574 2.3507
-7.4273 2.4103 2.3508
-7.5280 2.1578 2.3509
-7.6168 1.9005 2.3510
-7.6936 1.6389 2.3510
-7.7579 1.3737 2.3511
-7.8097 1.1055 2.3512
-7.8487 0.8350 2.3513
-7.8748 0.5629 2.3514
-7.8879 0.2899 2.3515
-7.8880 0.0166 2.3516
-7.8752 -0.2563 2.3517
-7.8495 -0.5280 2.3518
-7.8109 -0.7979 2.3519
-7.7598 -1.0654 2.3520
-7.6963 -1.3297 2.3521
-7.6405 -1.5945 2.3583
-7.5735 -1.8566 2.3649
-7.4901 -2.1138 2.3701
-7.3904 -2.3652 2.3739
-7.2762 -2.6101 2.3765
-7.1481 -2.8477 2.3781
-7.0070 -3.0773 2.3787
-6.8547 -3.2989 2.3788
-6.6933 -3.5124 2.3788
-6.5234 -3.7178 2.3788
-6.3455 -3.9147 2.3788
-6.1603 -4.1028 2.3788
-5.9683 -4.2819 2.3788
-5.7700 -4.4518 2.3788
-5.5659 -4.6124 2.3788
-5.3567 -4.7634 2.3788
-5.1428 -4.9048 2.3788
-4.9249 -5.0366 2.3788
-4.7033 -5.1587 2.3788
-4.4787 -5.2711 2.3788
-4.2515 -5.3738 2.3788
-4.0223 -5.4669 2.3788
-3.7914 -5.5505 2.3788
-3.5594 -5.6246 2.3788
-3.3266 -5.6893 2.3788
-3.0936 -5.7449 2.3788
-2.8606 -5.7914 2.3788
-2.6281 -5.8290 2.3788
-2.3965 -5.8579 2.3788
-2.1660 -5.8782 2.3788
-1.9369 -5.8903 2.3788
-1.7097 -5.8941 2.3788
-1.4846 -5.8901 2.3788
-1.2617 -5.8783 2.3788
-1.0415 -5.8591 2.3788
-0.8241 -5.8326 2.3788
-0.6096 -5.7990 2.3788
-0.3984 -5.7586 2.3788
-0.1906 -5.7116 2.3788
0.0136 -5.6583 2.3788
0.2142 -5.5988 2.3788
0.4108 -5.5333 2.3788
0.6035 -5.4622 2.3788
0.7921 -5.3856 2.3788
0.9766 -5.3036 2.3788
1.1567 -5.2166 2.3788
1.3324 -5.1248 2.3788
1.5037 -5.0282 2.3788
1.6705 -4.9272 2.3788
1.8327 -4.8219 2.3788
1.9903 -4.7125 2.3788
2.1433 -4.5991 2.3788
2.2915 -4.4820 2.3788
2.4350 -4.3614 2.3788
2.5737 -4.2373 2.3788
2.7076 -4.1099 2.3788
2.8368 -3.9795 2.3788
2.9611 -3.8461 2.3788
3.0806 -3.7099 2.3788
3.1952 -3.5711 2.3788
3.3050 -3.4297 2.3788
3.4099 -3.2859 2.3788
3.5099 -3.1399 2.3788
3.6051 -2.9917 2.3788
3.6955 -2.8416 2.3788
3.7809 -2.6895 2.3788
3.8615 -2.5357 2.3788
3.9373 -2.3802 2.3788
4.0082 -2.2231 2.3788
4.0742 -2.0646 2.3788
4.1354 -1.9047 2.3788
4.1917 -1.7436 2.3788
4.2431 -1.5813 2.3788
4.2897 -1.4180 2.3788
4.3315 -1.2537 2.3788
4.3684 -1.0886 2.3788
4.4004 -0.9227 2.3788
4.4276 -0.7561 2.3788
4.4500 -0.5889 2.3788
4.4674 -0.4213 2.3788
4.4800 -0.2532 2.3788
4.4877 -0.0848 2.3788
4.4905 0.0838 2.3788
4.4885 0.2526 2.3788
4.4815 0.4214 2.3788
4.4696 0.5901 2.3788
4.4528 0.7587 2.3788
4.4311 0.9271 2.3788
4.4043 1.0952 2.3788
4.3727 1.2629 2.3788
4.3360 1.4300 2.3788
4.2944 1.5966 2.3788
4.2477 1.7624 2.3788
4.1960 1.9273 2.3788
4.1392 2.0914 2.3788
4.0774 2.2544 2.3788
4.0105 2.4163 2.3788
3.9385 2.5769 2.3788
3.8614 2.7361 2.3788
3.7791 2.8938 2.3788
3.6917 3.0499 2.3788
3.5988 3.2039 2.3786
3.5003 3.3556 2.3781
3.3961 3.5045 2.3772
3.2861 3.6504 2.3758
3.1702 3.7928 2.3738
3.0486 3.9315 2.3713
2.9214 4.0663 2.3681
2.7885 4.1967 2.3643
2.6500 4.3224 2.3598
2.5062 4.4432 2.3547
2.3592 4.5625 2.3507
2.2112 4.6856 2.3507
2.0581 4.8049 2.3506
0.8213 2.1267 1.0160
0.7451 2.1585 1.0083
0.6679 2.1875 1.0005
0.5897 2.2137 0.9927
0.5106 2.2370 0.9848
0.4307 2.2574 0.9768
0.3501 2.2750 0.9688
0.2689 2.2896 0.9607
0.1873 2.3013 0.9526
0.1052 2.3100 0.9444
0.0229 2.3157 0.9363
-0.0595 2.3185 0.9281
-0.1420 2.3182 0.9200
-0.2245 2.3150 0.9119
-0.3067 2.3088 0.9038
-0.3887 2.2996 0.8958
-0.4704 2.2875 0.8878
-0.5515 2.2724 0.8799
-0.6321 2.2543 0.8720
2.1561 4.3613 2.3514
2.0128 4.4730 2.3507
0.8056 1.9789 1.0152
0.7348 2.0102 1.0080
0.6629 2.0389 1.0008
0.5899 2.0650 0.9935
0.5161 2.0884 0.9861
0.4415 2.1091 0.9786
0.3662 2.1271 0.9711
0.2903 2.1424 0.9635
0.2139 2.1550 0.9559
0.1371 2.1647 0.9483
0.0599 2.1717 0.9407
-0.0174 2.1759 0.9330
-0.0948 2.1772 0.9254
-0.1723 2.1758 0.9177
-0.2496 2.1716 0.9101
-0.3268 2.1645 0.9026
-0.4036 2.1547 0.8950
-0.4800 2.1421 0.8876
-0.5560 2.1267 0.8802
-0.6313 2.1086 0.8728
-0.7060 2.0878 0.8656
-0.7798 2.0643 0.8584
-0.8528 2.0382 0.8513
-0.9248 2.0094 0.8444
-0.9957 1.9780 0.8376
-3.0134 5.4987 2.3500
-3.2326 5.4387 2.3500
-3.4508 5.3698 2.3500
-3.6676 5.2917 2.3501
-3.8826 5.2046 2.3501
-4.0952 5.1084 2.3501
-4.3051 5.0029 2.3501
-4.5117 4.8884 2.3501
-4.7146 4.7647 2.3502
-4.9132 4.6320 2.3502
-5.1070 4.4904 2.3502
-5.2957 4.3400 2.3503
-5.4785 4.1809 2.3503
-5.6551 4.0133 2.3504
-5.8250 3.8376 2.3504
-5.9877 3.6539 2.3505
-6.1426 3.4625 2.3505
-6.2894 3.2637 2.3506
-6.4275 3.0580 2.3506
-6.5566 2.8457 2.3507
-6.6763 2.6273 2.3508
-6.7861 2.4031 2.3508
-6.8857 2.1737 2.3509
-6.9749 1.9395 2.3510
-7.0533 1.7011 2.3511
-7.1206 1.4591 2.3511
-7.1767 1.2140 2.3512
-7.2213 0.9663 2.3513
-7.2544 0.7167 2.3514
-7.2758 0.4659 2.3515
-7.2854 0.2143 2.3516
-7.2834 -0.0375 2.3516
-7.2696 -0.2887 2.3517
-7.2442 -0.5388 2.3518
-7.2072 -0.7872 2.3519
-7.1589 -1.0333 2.3520
-7.1173 -1.2797 2.3581
-7.0646 -1.5240 2.3642
-6.9973 -1.7647 2.3691
-6.9159 -2.0009 2.3729
-6.8211 -2.2319 2.3757
-6.7134 -2.4569 2.3776
-6.5937 -2.6753 2.3785
-6.4630 -2.8868 2.3788
-6.3228 -3.0911 2.3788
-6.1745 -3.2884 2.3788
-6.0184 -3.4783 2.3788
-5.8551 -3.6605 2.3788
-5.6849 -3.8348 2.3788
-5.5085 -4.0009 2.3788
-5.3262 -4.1587 2.3788
-5.1386 -4.3079 2.3788
-4.9461 -4.4486 2.3788
-4.7493 -4.5805 2.3788
-4.5486 -4.7036 2.3788
-4.3445 -4.8179 2.3788
-4.1374 -4.9233 2.3788
-3.9277 -5.0199 2.3788
-3.7160 -5.1076 2.3788
-3.5027 -5.1866 2.3788
-3.2881 -5.2569 2.3788
-3.0727 -5.3186 2.3788
-2.8568 -5.3718 2.3788
-2.6408 -5.4166 2.3788
-2.4251 -5.4532 2.3788
-2.2099 -5.4817 2.3788
-1.9957 -5.5022 2.3788
-1.7826 -5.5150 2.3788
-1.5710 -5.5201 2.3788
-1.3612 -5.5179 2.3788
-1.1533 -5.5084 2.3788
-0.9477 -5.4919 2.3788
-0.7446 -5.4685 2.3788
-0.5441 -5.4385 2.3788
-0.3464 -5.4020 2.3788
-0.1518 -5.3593 2.3788
0.0397 -5.3106 2.3788
0.2278 -5.2560 2.3788
0.4124 -5.1957 2.3788
0.5935 -5.1300 2.3788
0.7708 -5.0591 2.3788
0.9443 -4.9830 2.3788
1.1138 -4.9021 2.3788
1.2794 -4.8165 2.3788
1.4408 -4.7265 2.3788
1.5981 -4.6321 2.3788
1.7512 -4.5335 2.3788
1.9000 -4.4310 2.3788
2.0444 -4.3246 2.3788
2.1845 -4.2146 2.3788
2.3201 -4.1012 2.3788
2.4513 -3.9844 2.3788
2.5779 -3.8644 2.3788
2.7001 -3.7414 2.3788
2.8178 -3.6155 2.3788
2.9308 -3.4869 2.3788
3.0393 -3.3557 2.3788
3.1433 -3.2220 2.3788
3.2426 -3.0859 2.3788
3.3373 -2.9476 2.3788
3.4274 -2.8073 2.3788
3.5128 -2.6649 2.3788
3.5936 -2.5207 2.3788
3.6698 -2.3748 2.3788
3.7414 -2.2272 2.3788
3.8083 -2.0780 2.3788
3.8706 -1.9275 2.3788
3.9282 -1.7756 2.3788
3.9812 -1.6225 2.3788
4.0295 -1.4683 2.3788
4.0731 -1.3130 2.3788
4.1121 -1.1568 2.3788
4.1465 -0.9998 2.3788
4.1761 -0.8421 2.3788
4.2011 -0.6836 2.3788
4.2215 -0.5247 2.3788
4.2371 -0.3652 2.3788
4.2481 -0.2054 2.3788
4.2543 -0.0453 2.3788
4.2559 0.1149 2.3788
4.2528 0.2753 2.3788
4.2449 0.4357 2.3788
4.2323 0.5960 2.3788
4.2150 0.7562 2.3788
4.1929 0.9160 2.3788
4.1661 1.0755 2.3788
4.1345 1.2346 2.3788
4.0981 1.3930 2.3788
4.0569 1.5508 2.3788
4.0109 1.7079 2.3788
3.9601 1.8640 2.3788
3.9045 2.0192 2.3788
3.8440 2.1733 2.3788
3.7787 2.3262 2.3788
3.7084 2.4778 2.3788
3.6333 2.6279 2.3788
3.5534 2.7764 2.3788
3.4685 2.9233 2.3788
3.3785 3.0681 2.3786
3.2832 3.2106 2.3782
3.1826 3.3505 2.3774
3.0764 3.4872 2.3761
2.9649 3.6207 2.3743
2.8482 3.7508 2.3721
2.7262 3.8771 2.3693
2.5989 3.9994 2.3661
2.4666 4.1172 2.3622
2.3293 4.2302 2.3576
2.1872 4.3385 2.3525
2.0439 4.4491 2.3507
0.8207 1.9719 1.0167
0.7501 2.0037 1.0096
0.6784 2.0329 1.0024
0.6057 2.0596 0.9951
0.5321 2.0836 0.9877
0.4576 2.1049 0.9802
0.3825 2.1235 0.9727
0.3067 2.1394 0.9652
0.2304 2.1525 0.9576
0.1536 2.1629 0.9499
0.0765 2.1704 0.9423
-0.0008 2.1752 0.9347
-0.0782 2.1772 0.9270
-0.1556 2.1763 0.9194
-0.2330 2.1727 0.9118
-0.3102 2.1663 0.9042
-0.3871 2.1570 0.8967
-0.4637 2.1450 0.8892
-0.5397 2.1303 0.8817
-0.6152 2.1128 0.8744
-0.6900 2.0925 0.8671
-0.7640 2.0696 0.8599
-0.8372 2.0440 0.8528
-0.9094 2.0158 0.8459
-0.9805 1.9850 0.8390
-2.9662 5.5105 2.3500
-3.1856 5.4524 2.3500
-3.4040 5.3853 2.3500
-3.6212 5.3093 2.3501
-3.8366 5.2241 2.3501
-4.0498 5.1298 2.3501
-4.2603 5.0264 2.3501
-4.4676 4.9138 2.3501
-4.6713 4.7921 2.3502
-4.8709 4.6613 2.3502
-5.0658 4.5216 2.3502
-5.2556 4.3730 2.3503
-5.4397 4.2158 2.3503
-5.6177 4.0500 2.3503
-5.7891 3.8760 2.3504
-5.9534 3.6940 2.3505
-6.1100 3.5042 2.3505
-6.2585 3.3070 2.3506
-6.3986 3.1028 2.3506
-6.5296 2.8919 2.3507
-6.6514 2.6747 2.3508
-6.7633 2.4517 2.3508
-6.8652 2.2234 2.3509
-6.9566 1.9902 2.3510
-7.0373 1.7527 2.3510
-7.1071 1.5114 2.3511
-7.1656 1.2669 2.3512
-7.2127 1.0197 2.3513
-7.2482 0.7705 2.3514
-7.2722 0.5198 2.3515
-7.2844 0.2683 2.3515
-7.2848 0.0166 2.3516
-7.2735 -0.2348 2.3517
-7.2506 -0.4851 2.3518
-7.2161 -0.7340 2.3519
-7.1702 -0.9806 2.3520
-7.1269 -1.2269 2.3566
-7.0773 -1.4718 2.3630
-7.0129 -1.7133 2.3681
-6.9344 -1.9506 2.3721
-6.8425 -2.1827 2.3752
-6.7376 -2.4091 2.3772
-6.6206 -2.6291 2.3784
-6.4920 -2.8420 2.3788
-6.3537 -3.0478 2.3788
-6.2070 -3.2467 2.3788
-6.0526 -3.4382 2.3788
-5.8908 -3.6220 2.3788
-5.7220 -3.7980 2.3788
-5.5469 -3.9659 2.3788
-5.3658 -4.1255 2.3788
-5.1793 -4.2766 2.3788
-4.9879 -4.4191 2.3788
-4.7919 -4.5529 2.3788
-4.5920 -4.6779 2.3788
-4.3886 -4.7941 2.3788
-4.1821 -4.9014 2.3788
-3.9730 -4.9999 2.3788
-3.7617 -5.0895 2.3788
-3.5487 -5.1704 2.3788
-3.3343 -5.2425 2.3788
-3.1190 -5.3061 2.3788
-2.9032 -5.3611 2.3788
-2.6872 -5.4077 2.3788
-2.4714 -5.4460 2.3788
-2.2561 -5.4762 2.3788
-2.0416 -5.4984 2.3788
-1.8283 -5.5129 2.3788
-1.6163 -5.5196 2.3788
-1.4061 -5.5190 2.3788
-1.1978 -5.5110 2.3788
-0.9917 -5.4960 2.3788
-0.7880 -5.4741 2.3788
-0.5869 -5.4455 2.3788
-0.3886 -5.4104 2.3788
-0.1933 -5.3690 2.3788
-0.0012 -5.3215 2.3788
0.1877 -5.2682 2.3788
0.3731 -5.2091 2.3788
0.5549 -5.1446 2.3788
0.7330 -5.0747 2.3788
0.9073 -4.9998 2.3788
1.0777 -4.9199 2.3788
1.2441 -4.8353 2.3788
1.4065 -4.7462 2.3788
1.5647 -4.6527 2.3788
1.7187 -4.5550 2.3788
1.8684 -4.4533 2.3788
2.0137 -4.3478 2.3788
2.1547 -4.2386 2.3788
2.2913 -4.1258 2.3788
2.4235 -4.0097 2.3788
2.5511 -3.8904 2.3788
2.6743 -3.7681 2.3788
2.7929 -3.6428 2.3788
2.9069 -3.5148 2.3788
3.0164 -3.3841 2.3788
3.1213 -3.2509 2.3788
3.2216 -3.1153 2.3788
3.3173 -2.9775 2.3788
3.4084 -2.8376 2.3788
3.4948 -2.6957 2.3788
3.5767 -2.5519 2.3788
3.6539 -2.4063 2.3788
3.7264 -2.2590 2.3788
3.7943 -2.1102 2.3788
3.8576 -1.9599 2.3788
3.9162 -1.8083 2.3788
3.9702 -1.6555 2.3788
4.0195 -1.5015 2.3788
4.0641 -1.3465 2.3788
4.1041 -1.1905 2.3788
4.1395 -1.0336 2.3788
4.1702 -0.8760 2.3788
4.1962 -0.7177 2.3788
4.2175 -0.5589 2.3788
4.2341 -0.3995 2.3788
4.2461 -0.2398 2.3788
4.2534 -0.0797 2.3788
4.2560 0.0805 2.3788
4.2538 0.2409 2.3788
4.2470 0.4013 2.3788
4.2354 0.5616 2.3788
4.2191 0.7218 2.3788
4.1981 0.8817 2.3788
4.1723 1.0413 2.3788
4.1417 1.2004 2.3788
4.1063 1.3590 2.3788
4.0662 1.5170 2.3788
4.0212 1.6742 2.3788
3.9714 1.8306 2.3788
3.9168 1.9860 2.3788
3.8574 2.1403 2.3788
3.7931 2.2935 2.3788
3.7239 2.4453 2.3788
3.6499 2.5958 2.3788
3.5710 2.7447 2.3788
3.4871 2.8919 2.3788
3.3983 3.0372 2.3787
3.3042 3.1803 2.3784
3.2046 3.3207 2.3776
3.0996 3.4581 2.3764
2.9893 3.5923 2.3747
2.8737 3.7232 2.3726
2.7527 3.8503 2.3700
2.6268 3.9736 2.3669
2.4955 4.0923 2.3631
2.3591 4.2062 2.3586
2.2181 4.3156 2.3536
2.0747 4.4249 2.3507
1.9293 4.5358 2.3507
0.7654 1.9971 1.0111
0.6939 2.0269 1.0039
0.6214 2.0541 0.9966
0.5480 2.0786 0.9893
0.4737 2.1005 0.9818
0.3987 2.1197 0.9743
0.3230 2.1362 0.9668
0.2468 2.1499 0.9592
0.1701 2.1609 0.9516
0.0931 2.1690 0.9440
0.0159 2.1744 0.9363
-0.0615 2.1770 0.9287
-0.1390 2.1768 0.9210
-0.2164 2.1737 0.9134
-0.2936 2.1679 0.9058
-0.3706 2.1593 0.8983
-0.4473 2.1479 0.8908
-0.5234 2.1337 0.8833
-0.5990 2.1167 0.8760
2.0314 4.1352 2.3555
0.8185 1.8313 1.0172
0.7529 1.8631 1.0106
0.6862 1.8926 1.0038
0.6185 1.9196 0.9970
0.5499 1.9441 0.9901
0.4804 1.9661 0.9832
0.4102 1.9856 0.9761
0.3393 2.0026 0.9691
0.2678 2.0170 0.9619
0.1959 2.0288 0.9548
0.1236 2.0380 0.9476
0.0510 2.0445 0.9404
-0.0218 2.0484 0.9332
-0.0947 2.0497 0.9260
-0.1676 2.0484 0.9189
-0.2404 2.0444 0.9117
-0.3130 2.0377 0.9046
-0.3853 2.0285 0.8975
-0.4573 2.0166 0.8904
-0.5288 2.0022 0.8835
-0.5997 1.9851 0.8766
-0.6700 1.9655 0.8697
-0.7395 1.9434 0.8630
-0.8081 1.9188 0.8563
-0.8759 1.8917 0.8498
-0.9426 1.8622 0.8434
-2.8308 5.1387 2.3502
-3.0341 5.0800 2.3502
-3.2364 5.0130 2.3502
-3.4371 4.9377 2.3502
-3.6359 4.8540 2.3502
-3.8324 4.7619 2.3502
-4.0261 4.6614 2.3502
-4.2167 4.5525 2.3503
-4.4036 4.4353 2.3503
-4.5864 4.3098 2.3503
-4.7647 4.1762 2.3504
-4.9381 4.0346 2.3504
-5.1060 3.8852 2.3504
-5.2681 3.7281 2.3505
-5.4239 3.5635 2.3505
-5.5729 3.3918 2.3506
-5.7149 3.2131 2.3506
-5.8492 3.0278 2.3507
-5.9756 2.8362 2.3507
-6.0937 2.6387 2.3508
-6.2031 2.4356 2.3509
-6.3035 2.2274 2.3509
-6.3945 2.0144 2.3510
-6.4760 1.7972 2.3511
-6.5477 1.5763 2.3511
-6.6092 1.3520 2.3512
-6.6605 1.1250 2.3513
-6.7014 0.8957 2.3514
-6.7318 0.6647 2.3514
-6.7516 0.4325 2.3515
-6.7606 0.1996 2.3516
-6.7590 -0.0334 2.3517
-6.7468 -0.2659 2.3518
-6.7239 -0.4975 2.3518
-6.6905 -0.7276 2.3519
-6.6600 -0.9575 2.3567
-6.6222 -1.1863 2.3626
-6.5711 -1.4126 2.3674
-6.5073 -1.6355 2.3713
-6.4312 -1.8545 2.3743
-6.3434 -2.0687 2.3765
-6.2443 -2.2777 2.3779
-6.1345 -2.4809 2.3786
-6.0150 -2.6779 2.3788
-5.8870 -2.8686 2.3788
-5.7514 -3.0530 2.3788
-5.6087 -3.2306 2.3788
-5.4591 -3.4014 2.3788
-5.3031 -3.5649 2.3788
-5.1413 -3.7211 2.3788
-4.9739 -3.8696 2.3788
-4.8014 -4.0105 2.3788
-4.6243 -4.1435 2.3788
-4.4430 -4.2685 2.3788
-4.2579 -4.3854 2.3788
-4.0695 -4.4943 2.3788
-3.8781 -4.5950 2.3788
-3.6842 -4.6876 2.3788
-3.4882 -4.7721 2.3788
-3.2904 -4.8485 2.3788
-3.0913 -4.9168 2.3788
-2.8911 -4.9771 2.3788
-2.6904 -5.0296 2.3788
-2.4893 -5.0742 2.3788
-2.2882 -5.1112 2.3788
-2.0875 -5.1406 2.3788
-1.8873 -5.1625 2.3788
-1.6881 -5.1771 2.3788
-1.4901 -5.1847 2.3788
-1.2935 -5.1852 2.3788
-1.0986 -5.1788 2.3788
-0.9056 -5.1659 2.3788
-0.7147 -5.1464 2.3788
-0.5261 -5.1206 2.3788
-0.3400 -5.0887 2.3788
-0.1566 -5.0508 2.3788
0.0240 -5.0071 2.3788
0.2016 -4.9578 2.3788
0.3761 -4.9031 2.3788
0.5473 -4.8432 2.3788
0.7151 -4.7781 2.3788
0.8794 -4.7083 2.3788
1.0402 -4.6336 2.3788
1.1972 -4.5545 2.3788
1.3505 -4.4710 2.3788
1.5000 -4.3832 2.3788
1.6455 -4.2915 2.3788
1.7871 -4.1958 2.3788
1.9246 -4.0965 2.3788
2.0580 -3.9936 2.3788
2.1873 -3.8872 2.3788
2.3125 -3.7776 2.3788
2.4334 -3.6649 2.3788
2.5500 -3.5492 2.3788
2.6624 -3.4307 2.3788
2.7705 -3.3094 2.3788
2.8742 -3.1856 2.3788
2.9737 -3.0594 2.3788
3.0687 -2.9308 2.3788
3.1594 -2.8000 2.3788
3.2456 -2.6672 2.3788
3.3275 -2.5323 2.3788
3.4050 -2.3957 2.3788
3.4780 -2.2573 2.3788
3.5466 -2.1172 2.3788
3.6108 -1.9757 2.3788
3.6705 -1.8327 2.3788
3.7257 -1.6884 2.3788
3.7765 -1.5429 2.3788
3.8229 -1.3963 2.3788
3.8647 -1.2487 2.3788
3.9021 -1.1001 2.3788
3.9350 -0.9507 2.3788
3.9635 -0.8006 2.3788
3.9874 -0.6499 2.3788
4.0068 -0.4986 2.3788
4.0218 -0.3468 2.3788
4.0322 -0.1947 2.3788
4.0381 -0.0423 2.3788
4.0395 0.1102 2.3788
4.0363 0.2629 2.3788
4.0287 0.4155 2.3788
4.0164 0.5681 2.3788
3.9996 0.7204 2.3788
3.9783 0.8725 2.3788
3.9524 1.0241 2.3788
3.9219 1.1753 2.3788
3.8868 1.3259 2.3788
3.8471 1.4759 2.3788
3.8027 1.6250 2.3788
3.7538 1.7732 2.3788
3.7003 1.9205 2.3788
3.6421 2.0666 2.3788
3.5793 2.2115 2.3788
3.5118 2.3551 2.3788
3.4397 2.4972 2.3788
3.3629 2.6378 2.3788
3.2815 2.7766 2.3788
3.1953 2.9135 2.3787
3.1042 3.0482 2.3784
3.0079 3.1802 2.3777
2.9066 3.3093 2.3766
2.8003 3.4355 2.3752
2.6892 3.5584 2.3733
2.5730 3.6777 2.3710
2.4520 3.7931 2.3681
2.3262 3.9044 2.3648
2.1958 4.0114 2.3609
2.0610 4.1138 2.3565
1.9219 4.2117 2.3518
0.7671 1.8565 1.0120
0.7006 1.8865 1.0053
0.6331 1.9140 0.9985
0.5647 1.9390 0.9916
0.4954 1.9616 0.9847
0.4253 1.9817 0.9777
0.3545 1.9992 0.9706
0.2832 2.0141 0.9635
0.2114 2.0265 0.9563
0.1391 2.0362 0.9492
0.0666 2.0433 0.9420
-0.0062 2.0478 0.9348
-0.0790 2.0497 0.9276
-0.1519 2.0489 0.9204
-0.2248 2.0454 0.9132
-0.2974 2.0394 0.9061
-0.3698 2.0307 0.8990
-0.4419 2.0194 0.8920
-0.5135 2.0055 0.8850
-0.5845 1.9890 0.8780
-0.6549 1.9700 0.8712
-0.7246 1.9484 0.8644
-0.7935 1.9243 0.8578
-0.8614 1.8977 0.8512
-0.9284 1.8687 0.8447
-0.9943 1.8373 0.8384
-2.9905 5.0933 2.3502
-3.1930 5.0281 2.3502
-3.3941 4.9546 2.3502
-3.5934 4.8727 2.3502
-3.7904 4.7824 2.3502
-3.9847 4.6837 2.3502
-4.1760 4.5766 2.3503
-4.3637 4.4612 2.3503
-4.5475 4.3375 2.3503
-4.7268 4.2056 2.3504
-4.9013 4.0657 2.3504
-5.0704 3.9180 2.3504
-5.2338 3.7625 2.3505
-5.3910 3.5995 2.3505
-5.5415 3.4293 2.3506
-5.6850 3.2520 2.3506
-5.8210 3.0681 2.3507
-5.9491 2.8779 2.3507
-6.0690 2.6816 2.3508
-6.1803 2.4797 2.3509
-6.2827 2.2725 2.3509
-6.3758 2.0606 2.3510
-6.4593 1.8442 2.3511
-6.5331 1.6240 2.3511
-6.5969 1.4005 2.3512
-6.6504 1.1740 2.3513
-6.6935 0.9451 2.3513
-6.7262 0.7144 2.3514
-6.7482 0.4824 2.3515
-6.7596 0.2496 2.3516
-6.7603 0.0166 2.3517
-6.7503 -0.2160 2.3517
-6.7297 -0.4479 2.3518
-6.6986 -0.6783 2.3519
-6.6664 -0.9081 2.3553
-6.6315 -1.1374 2.3614
-6.5834 -1.3643 2.3665
-6.5222 -1.5880 2.3706
-6.4487 -1.8078 2.3738
-6.3633 -2.0231 2.3761
-6.2666 -2.2333 2.3777
-6.1590 -2.4378 2.3786
-6.0415 -2.6361 2.3788
-5.9152 -2.8281 2.3788
-5.7812 -3.0139 2.3788
-5.6399 -3.1930 2.3788
-5.4918 -3.3653 2.3788
-5.3372 -3.5304 2.3788
-5.1765 -3.6881 2.3788
-5.0103 -3.8384 2.3788
-4.8389 -3.9809 2.3788
-4.6627 -4.1156 2.3788
-4.4823 -4.2423 2.3788
-4.2980 -4.3610 2.3788
-4.1102 -4.4716 2.3788
-3.9194 -4.5741 2.3788
-3.7261 -4.6684 2.3788
-3.5304 -4.7546 2.3788
-3.3330 -4.8327 2.3788
-3.1342 -4.9028 2.3788
-2.9342 -4.9648 2.3788
-2.7335 -5.0190 2.3788
-2.5325 -5.0653 2.3788
-2.3314 -5.1039 2.3788
-2.1305 -5.1349 2.3788
-1.9303 -5.1584 2.3788
-1.7308 -5.1746 2.3788
-1.5325 -5.1836 2.3788
-1.3356 -5.1856 2.3788
-1.1403 -5.1808 2.3788
-0.9469 -5.1692 2.3788
-0.7555 -5.1511 2.3788
-0.5664 -5.1267 2.3788
-0.3798 -5.0960 2.3788
-0.1958 -5.0594 2.3788
-0.0145 -5.0169 2.3788
0.1637 -4.9688 2.3788
0.3389 -4.9153 2.3788
0.5108 -4.8565 2.3788
0.6793 -4.7925 2.3788
0.8444 -4.7237 2.3788
1.0060 -4.6501 2.3788
1.1638 -4.5719 2.3788
1.3179 -4.4893 2.3788
1.4682 -4.4024 2.3788
1.6146 -4.3115 2.3788
1.7570 -4.2167 2.3788
1.8954 -4.1181 2.3788
2.0297 -4.0160 2.3788
2.1599 -3.9104 2.3788
2.2859 -3.8015 2.3788
2.4077 -3.6894 2.3788
2.5253 -3.5743 2.3788
2.6386 -3.4564 2.3788
2.7476 -3.3357 2.3788
2.8523 -3.2124 2.3788
2.9527 -3.0867 2.3788
3.0486 -2.9586 2.3788
3.1403 -2.8283 2.3788
3.2275 -2.6959 2.3788
3.3103 -2.5615 2.3788
3.3887 -2.4252 2.3788
3.4627 -2.2872 2.3788
3.5322 -2.1475 2.3788
3.5973 -2.0062 2.3788
3.6580 -1.8635 2.3788
3.7142 -1.7195 2.3788
3.7660 -1.5743 2.3788
3.8133 -1.4279 2.3788
3.8561 -1.2805 2.3788
3.8945 -1.1321 2.3788
3.9283 -0.9829 2.3788
3.9577 -0.8329 2.3788
3.9826 -0.6823 2.3788
4.0030 -0.5311 2.3788
4.0189 -0.3795 2.3788
4.0303 -0.2274 2.3788
4.0372 -0.0751 2.3788
4.0396 0.0775 2.3788
4.0374 0.2301 2.3788
4.0307 0.3827 2.3788
4.0194 0.5353 2.3788
4.0036 0.6877 2.3788
3.9833 0.8398 2.3788
3.9583 0.9916 2.3788
3.9288 1.1429 2.3788
3.8947 1.2936 2.3788
3.8560 1.4437 2.3788
3.8127 1.5930 2.3788
3.7647 1.7415 2.3788
3.7122 1.8889 2.3788
3.6550 2.0353 2.3788
3.5932 2.1805 2.3788
3.5267 2.3244 2.3788
3.4556 2.4668 2.3788
3.3798 2.6077 2.3788
3.2994 2.7469 2.3788
3.2142 2.8843 2.3787
3.1242 3.0195 2.3785
3.0290 3.1520 2.3779
2.9288 3.2818 2.3769
2.8236 3.4087 2.3755
2.7135 3.5323 2.3738
2.5983 3.6523 2.3715
2.4784 3.7686 2.3688
2.3537 3.8809 2.3656
2.2243 3.9889 2.3619
2.0903 4.0923 2.3576
1.9521 4.1910 2.3528
0.7812 1.8498 1.0134
0.7150 1.8802 1.0067
0.6477 1.9083 1.0000
0.5795 1.9339 0.9931
0.5103 1.9570 0.9862
0.4404 1.9776 0.9792
0.3698 1.9956 0.9721
0.2986 2.0111 0.9650
0.2268 2.0240 0.9579
0.1547 2.0343 0.9507
0.0822 2.0420 0.9435
0.0095 2.0471 0.9363
-0.0634 2.0495 0.9291
-0.1363 2.0493 0.9219
-0.2091 2.0464 0.9148
-0.2818 2.0409 0.9076
-0.3543 2.0328 0.9005
-0.4264 2.0220 0.8935
-0.4981 2.0087 0.8865
-0.5693 1.9928 0.8795
1.9166 3.9271 2.3591
0.7669 1.7282 1.0126
0.7051 1.7582 1.0064
0.6421 1.7859 1.0000
0.5783 1.8114 0.9936
0.5135 1.8345 0.9871
0.4480 1.8553 0.9805
0.3817 1.8737 0.9739
0.3148 1.8897 0.9672
0.2474 1.9032 0.9605
0.1795 1.9144 0.9538
0.1113 1.9230 0.9470
0.0428 1.9292 0.9402
-0.0258 1.9329 0.9334
-0.0946 1.9341 0.9266
-0.1634 1.9328 0.9199
-0.2320 1.9290 0.9131
-0.3005 1.9228 0.9064
-0.3688 1.9141 0.8997
-0.4367 1.9029 0.8931
-0.5041 1.8892 0.8865
-0.5710 1.8732 0.8800
-0.6373 1.8547 0.8735
-0.7029 1.8338 0.8672
-0.7677 1.8106 0.8609
-0.8316 1.7850 0.8547
-0.8945 1.7572 0.8486
-0.9564 1.7271 0.8427
-2.8569 4.7596 2.3503
-3.0450 4.6947 2.3503
-3.2316 4.6221 2.3503
-3.4162 4.5417 2.3503
-3.5985 4.4536 2.3503
-3.7781 4.3577 2.3504
-3.9546 4.2541 2.3504
-4.1276 4.1429 2.3504
-4.2967 4.0242 2.3504
-4.4615 3.8979 2.3505
-4.6216 3.7644 2.3505
-4.7766 3.6237 2.3506
-4.9261 3.4760 2.3506
-5.0696 3.3215 2.3506
-5.2069 3.1605 2.3507
-5.3376 2.9931 2.3507
-5.4612 2.8198 2.3508
-5.5775 2.6408 2.3508
-5.6861 2.4563 2.3509
-5.7866 2.2669 2.3510
-5.8789 2.0728 2.3510
-5.9626 1.8744 2.3511
-6.0375 1.6722 2.3511
-6.1033 1.4666 2.3512
-6.1599 1.2580 2.3513
-6.2071 1.0468 2.3513
-6.2448 0.8337 2.3514
-6.2728 0.6189 2.3515
-6.2911 0.4031 2.3516
-6.2997 0.1867 2.3516
-6.2984 -0.0298 2.3517
-6.2874 -0.2460 2.3518
-6.2667 -0.4613 2.3519
-6.2461 -0.6762 2.3556
-6.2207 -0.8908 2.3612
-6.1837 -1.1037 2.3660
-6.1348 -1.3141 2.3699
-6.0747 -1.5215 2.3731
-6.0038 -1.7253 2.3755
-5.9222 -1.9248 2.3772
-5.8306 -2.1197 2.3783
-5.7294 -2.3093 2.3787
-5.6195 -2.4934 2.3788
-5.5020 -2.6720 2.3788
-5.3774 -2.8448 2.3788
-5.2461 -3.0115 2.3788
-5.1085 -3.1719 2.3788
-4.9648 -3.3258 2.3788
-4.8156 -3.4729 2.3788
-4.6611 -3.6131 2.3788
-4.5018 -3.7462 2.3788
-4.3381 -3.8721 2.3788
-4.1703 -3.9907 2.3788
-3.9989 -4.1020 2.3788
-3.8243 -4.2057 2.3788
-3.6467 -4.3020 2.3788
-3.4666 -4.3907 2.3788
-3.2844 -4.4720 2.3788
-3.1003 -4.5457 2.3788
-2.9148 -4.6119 2.3788
-2.7283 -4.6708 2.3788
-2.5409 -4.7222 2.3788
-2.3530 -4.7664 2.3788
-2.1650 -4.8034 2.3788
-1.9772 -4.8333 2.3788
-1.7897 -4.8562 2.3788
-1.6029 -4.8723 2.3788
-1.4170 -4.8816 2.3788
-1.2324 -4.8843 2.3788
-1.0491 -4.8806 2.3788
-0.8674 -4.8705 2.3788
-0.6876 -4.8543 2.3788
-0.5098 -4.8321 2.3788
-0.3342 -4.8040 2.3788
-0.1610 -4.7702 2.3788
0.0097 -4.7309 2.3788
0.1777 -4.6862 2.3788
0.3429 -4.6364 2.3788
0.5051 -4.5815 2.3788
0.6642 -4.5217 2.3788
0.8202 -4.4572 2.3788
0.9728 -4.3881 2.3788
1.1221 -4.3147 2.3788
1.2679 -4.2370 2.3788
1.4101 -4.1553 2.3788
1.5486 -4.0696 2.3788
1.6835 -3.9801 2.3788
1.8146 -3.8870 2.3788
1.9419 -3.7905 2.3788
2.0653 -3.6906 2.3788
2.1848 -3.5875 2.3788
2.3003 -3.4813 2.3788
2.4118 -3.3723 2.3788
2.5193 -3.2604 2.3788
2.6227 -3.1459 2.3788
2.7220 -3.0288 2.3788
2.8172 -2.9094 2.3788
2.9082 -2.7876 2.3788
2.9951 -2.6637 2.3788
3.0778 -2.5377 2.3788
3.1563 -2.4098 2.3788
3.2306 -2.2801 2.3788
3.3006 -2.1486 2.3788
3.3665 -2.0156 2.3788
3.4280 -1.8810 2.3788
3.4853 -1.7450 2.3788
3.5384 -1.6077 2.3788
3.5871 -1.4693 2.3788
3.6316 -1.3297 2.3788
3.6718 -1.1891 2.3788
3.7076 -1.0476 2.3788
3.7392 -0.9053 2.3788
3.7665 -0.7623 2.3788
3.7894 -0.6186 2.3788
3.8080 -0.4744 2.3788
3.8223 -0.3298 2.3788
3.8322 -0.1848 2.3788
3.8378 -0.0395 2.3788
3.8390 0.1059 2.3788
3.8359 0.2514 2.3788
3.8284 0.3968 2.3788
3.8165 0.5422 2.3788
3.8002 0.6873 2.3788
3.7796 0.8322 2.3788
3.7545 0.9766 2.3788
3.7251 1.1205 2.3788
3.6912 1.2639 2.3788
3.6529 1.4065 2.3788
3.6102 1.5484 2.3788
3.5631 1.6893 2.3788
3.5116 1.8292 2.3788
3.4556 1.9680 2.3788
3.3952 2.1056 2.3788
3.3303 2.2419 2.3788
3.2610 2.3766 2.3788
3.1873 2.5098 2.3788
3.1091 2.6413 2.3788
3.0264 2.7710 2.3787
2.9391 2.8984 2.3785
2.8470 3.0233 2.3779
2.7502 3.1456 2.3771
2.6488 3.2650 2.3759
2.5426 3.3811 2.3743
2.4319 3.4939 2.3723
2.3167 3.6032 2.3699
2.1970 3.7086 2.3671
2.0729 3.8099 2.3638
1.9447 3.9068 2.3600
0.7801 1.7214 1.0140
0.7184 1.7519 1.0077
0.6557 1.7801 1.0014
0.5921 1.8061 0.9950
0.5275 1.8297 0.9885
0.4621 1.8510 0.9819
0.3960 1.8699 0.9753
0.3292 1.8865 0.9687
0.2619 1.9005 0.9620
0.1942 1.9122 0.9552
0.1260 1.9214 0.9485
0.0576 1.9281 0.9417
-0.0111 1.9323 0.9349
-0.0798 1.9340 0.9281
-0.1486 1.9333 0.9213
-0.2173 1.9301 0.9146
-0.2858 1.9243 0.9078
-0.3541 1.9161 0.9011
-0.4221 1.9055 0.8945
-0.4897 1.8924 0.8879
-0.5567 1.8768 0.8814
-0.6231 1.8589 0.8749
-0.6888 1.8385 0.8685
-0.7538 1.8158 0.8622
-0.8179 1.7907 0.8560
-0.8811 1.7634 0.8499
-0.9432 1.7337 0.8440
-1.0043 1.7019 0.8381
-3.0047 4.7093 2.3503
-3.1916 4.6383 2.3503
-3.3767 4.5596 2.3503
-3.5596 4.4732 2.3503
-3.7398 4.3790 2.3504
-3.9170 4.2770 2.3504
-4.0908 4.1675 2.3504
-4.2607 4.0503 2.3504
-4.4265 3.9257 2.3505
-4.5876 3.7937 2.3505
-4.7437 3.6545 2.3505
-4.8944 3.5083 2.3506
-5.0393 3.3553 2.3506
-5.1780 3.1956 2.3507
-5.3101 3.0296 2.3507
-5.4353 2.8575 2.3508
-5.5532 2.6797 2.3508
-5.6634 2.4964 2.3509
-5.7657 2.3080 2.3509
-5.8598 2.1148 2.3510
-5.9453 1.9174 2.3511
-6.0221 1.7159 2.3511
-6.0899 1.5110 2.3512
-6.1485 1.3030 2.3513
-6.1978 1.0924 2.3513
-6.2375 0.8796 2.3514
-6.2676 0.6652 2.3515
-6.2880 0.4495 2.3515
-6.2986 0.2332 2.3516
-6.2995 0.0167 2.3517
-6.2906 -0.1996 2.3518
-6.2720 -0.4151 2.3518
-6.2501 -0.6300 2.3543
-6.2270 -0.8448 2.3600
-6.1924 -1.0580 2.3650
-6.1461 -1.2690 2.3691
-6.0884 -1.4772 2.3724
-6.0197 -1.6818 2.3750
-5.9405 -1.8823 2.3768
-5.8510 -2.0782 2.3780
-5.7519 -2.2690 2.3786
-5.6438 -2.4543 2.3788
-5.5279 -2.6341 2.3788
-5.4048 -2.8082 2.3788
-5.2749 -2.9762 2.3788
-5.1386 -3.1380 2.3788
-4.9962 -3.2933 2.3788
-4.8481 -3.4418 2.3788
-4.6947 -3.5835 2.3788
-4.5364 -3.7182 2.3788
-4.3736 -3.8457 2.3788
-4.2067 -3.9659 2.3788
-4.0360 -4.0787 2.3788
-3.8620 -4.1841 2.3788
-3.6851 -4.2819 2.3788
-3.5055 -4.3723 2.3788
-3.3237 -4.4551 2.3788
-3.1400 -4.5305 2.3788
-2.9548 -4.5983 2.3788
-2.7684 -4.6588 2.3788
-2.5812 -4.7118 2.3788
-2.3934 -4.7575 2.3788
-2.2054 -4.7961 2.3788
-2.0175 -4.8275 2.3788
-1.8299 -4.8519 2.3788
-1.6430 -4.8694 2.3788
-1.4569 -4.8802 2.3788
-1.2719 -4.8843 2.3788
-1.0883 -4.8819 2.3788
-0.9063 -4.8732 2.3788
-0.7261 -4.8583 2.3788
-0.5478 -4.8373 2.3788
-0.3717 -4.8105 2.3788
-0.1980 -4.7779 2.3788
-0.0267 -4.7398 2.3788
0.1419 -4.6963 2.3788
0.3077 -4.6475 2.3788
0.4705 -4.5937 2.3788
0.6303 -4.5349 2.3788
0.7870 -4.4714 2.3788
0.9403 -4.4033 2.3788
1.0903 -4.3308 2.3788
1.2368 -4.2541 2.3788
1.3798 -4.1732 2.3788
1.5192 -4.0883 2.3788
1.6548 -3.9996 2.3788
1.7868 -3.9073 2.3788
1.9149 -3.8115 2.3788
2.0391 -3.7123 2.3788
2.1594 -3.6099 2.3788
2.2758 -3.5044 2.3788
2.3882 -3.3959 2.3788
2.4965 -3.2847 2.3788
2.6008 -3.1707 2.3788
2.7010 -3.0542 2.3788
2.7971 -2.9352 2.3788
2.8890 -2.8140 2.3788
2.9768 -2.6905 2.3788
3.0604 -2.5650 2.3788
3.1398 -2.4375 2.3788
3.2150 -2.3081 2.3788
3.2859 -2.1770 2.3788
3.3527 -2.0443 2.3788
3.4151 -1.9100 2.3788
3.4734 -1.7744 2.3788
3.5273 -1.6373 2.3788
3.5770 -1.4991 2.3788
3.6224 -1.3598 2.3788
3.6635 -1.2194 2.3788
3.7003 -1.0781 2.3788
3.7328 -0.9359 2.3788
3.7610 -0.7930 2.3788
3.7848 -0.6495 2.3788
3.8044 -0.5054 2.3788
3.8196 -0.3609 2.3788
3.8304 -0.2159 2.3788
3.8370 -0.0708 2.3788
3.8391 0.0746 2.3788
3.8369 0.2201 2.3788
3.8304 0.3656 2.3788
3.8194 0.5110 2.3788
3.8041 0.6562 2.3788
3.7844 0.8011 2.3788
3.7603 0.9456 2.3788
3.7318 1.0896 2.3788
3.6989 1.2331 2.3788
3.6615 1.3759 2.3788
3.6198 1.5180 2.3788
3.5736 1.6591 2.3788
3.5230 1.7992 2.3788
3.4680 1.9383 2.3788
3.4085 2.0762 2.3788
3.3446 2.2127 2.3788
3.2763 2.3478 2.3788
3.2035 2.4814 2.3788
3.1263 2.6132 2.3788
3.0446 2.7433 2.3788
2.9583 2.8712 2.3786
2.8672 2.9967 2.3781
2.7715 3.1196 2.3773
2.6709 3.2395 2.3762
2.5658 3.3564 2.3746
2.4561 3.4700 2.3727
2.3419 3.5801 2.3705
2.2231 3.6863 2.3677
2.0999 3.7884 2.3645
1.9726 3.8864 2.3608
0.7932 1.7146 1.0153
0.7318 1.7455 1.0091
0.6693 1.7743 1.0028
0.6058 1.8007 0.9964
0.5414 1.8249 0.9899
0.4762 1.8467 0.9834
0.4103 1.8661 0.9768
0.3436 1.8831 0.9701
0.2764 1.8977 0.9634
0.2088 1.9099 0.9567
0.1407 1.9196 0.9499
0.0723 1.9268 0.9431
0.0037 1.9316 0.9363
-0.0650 1.9339 0.9295
-0.1338 1.9337 0.9228
-0.2026 1.9310 0.9160
-0.2711 1.9258 0.9093
-0.3395 1.9181 0.9026
-0.4075 1.9080 0.8959
-0.4752 1.8954 0.8893
-0.5423 1.8804 0.8828
0.7774 1.6036 1.0143
0.7199 1.6341 1.0085
0.6615 1.6624 1.0026
0.6020 1.6887 0.9966
0.5416 1.7127 0.9905
0.4804 1.7346 0.9843
0.4184 1.7542 0.9781
0.3558 1.7716 0.9719
0.2925 1.7867 0.9656
0.2288 1.7995 0.9592
0.1647 1.8100 0.9528
0.1002 1.8182 0.9464
0.0354 1.8240 0.9400
-0.0295 1.8275 0.9336
-0.0945 1.8287 0.9272
-0.1595 1.8275 0.9208
-0.2244 1.8239 0.9144
-0.2892 1.8180 0.9080
-0.3537 1.8097 0.9017
-0.4178 1.7992 0.8954
-0.4816 1.7863 0.8892
-0.5448 1.7711 0.8831
-0.6075 1.7536 0.8770
-0.6695 1.7339 0.8710
-0.7307 1.7119 0.8650
-0.7912 1.6878 0.8592
-0.8507 1.6614 0.8535
-0.9092 1.6330 0.8478
-0.9667 1.6024 0.8423
-2.8730 4.4086 2.3504
-3.0470 4.3387 2.3504
-3.2191 4.2615 2.3504
-3.3889 4.1772 2.3505
-3.5560 4.0857 2.3505
-3.7201 3.9872 2.3505
-3.8809 3.8815 2.3505
-4.0379 3.7689 2.3506
-4.1908 3.6495 2.3506
-4.3392 3.5233 2.3506
-4.4829 3.3905 2.3507
-4.6213 3.2514 2.3507
-4.7542 3.1060 2.3507
-4.8812 2.9546 2.3508
-5.0021 2.7975 2.3508
-5.1163 2.6349 2.3509
-5.2238 2.4671 2.3509
-5.3241 2.2944 2.3510
-5.4169 2.1171 2.3510
-5.5021 1.9356 2.3511
-5.5794 1.7502 2.3511
-5.6486 1.5613 2.3512
-5.7093 1.3693 2.3513
-5.7616 1.1746 2.3513
-5.8053 0.9776 2.3514
-5.8401 0.7787 2.3515
-5.8661 0.5784 2.3515
-5.8831 0.3771 2.3516
-5.8912 0.1753 2.3517
-5.8902 -0.0267 2.3517
-5.8803 -0.2283 2.3518
-5.8689 -0.4297 2.3549
-5.8539 -0.6309 2.3601
-5.8284 -0.8312 2.3647
-5.7923 -1.0298 2.3685
-5.7458 -1.2262 2.3717
-5.6893 -1.4199 2.3743
-5.6230 -1.6102 2.3763
-5.5473 -1.7968 2.3776
-5.4626 -1.9791 2.3785
-5.3690 -2.1567 2.3788
-5.2675 -2.3293 2.3788
-5.1591 -2.4969 2.3788
-5.0441 -2.6592 2.3788
-4.9228 -2.8160 2.3788
-4.7955 -2.9671 2.3788
-4.6626 -3.1122 2.3788
-4.5245 -3.2510 2.3788
-4.3813 -3.3836 2.3788
-4.2336 -3.5096 2.3788
-4.0817 -3.6290 2.3788
-3.9259 -3.7417 2.3788
-3.7665 -3.8475 2.3788
-3.6040 -3.9465 2.3788
-3.4386 -4.0385 2.3788
-3.2708 -4.1236 2.3788
-3.1008 -4.2017 2.3788
-2.9290 -4.2728 2.3788
-2.7557 -4.3369 2.3788
-2.5812 -4.3941 2.3788
-2.4058 -4.4445 2.3788
-2.2298 -4.4880 2.3788
-2.0535 -4.5248 2.3788
-1.8772 -4.5549 2.3788
-1.7011 -4.5784 2.3788
-1.5255 -4.5955 2.3788
-1.3506 -4.6062 2.3788
-1.1767 -4.6107 2.3788
-1.0040 -4.6091 2.3788
-0.8326 -4.6015 2.3788
-0.6629 -4.5880 2.3788
-0.4949 -4.5688 2.3788
-0.3289 -4.5440 2.3788
-0.1650 -4.5138 2.3788
-0.0033 -4.4783 2.3788
0.1559 -4.4376 2.3788
0.3125 -4.3920 2.3788
0.4665 -4.3415 2.3788
0.6176 -4.2864 2.3788
0.7658 -4.2267 2.3788
0.9110 -4.1626 2.3788
1.0530 -4.0942 2.3788
1.1918 -4.0218 2.3788
1.3273 -3.9454 2.3788
1.4594 -3.8651 2.3788
1.5880 -3.7813 2.3788
1.7132 -3.6939 2.3788
1.8347 -3.6031 2.3788
1.9526 -3.5090 2.3788
2.0668 -3.4118 2.3788
2.1773 -3.3117 2.3788
2.2840 -3.2086 2.3788
2.3869 -3.1029 2.3788
2.4859 -2.9945 2.3788
2.5810 -2.8837 2.3788
2.6722 -2.7704 2.3788
2.7595 -2.6550 2.3788
2.8428 -2.5374 2.3788
2.9222 -2.4177 2.3788
2.9975 -2.2962 2.3788
3.0688 -2.1728 2.3788
3.1360 -2.0478 2.3788
3.1992 -1.9212 2.3788
3.2583 -1.7931 2.3788
3.3133 -1.6636 2.3788
3.3643 -1.5328 2.3788
3.4111 -1.4008 2.3788
3.4538 -1.2678 2.3788
3.4924 -1.1337 2.3788
3.5268 -0.9988 2.3788
3.5571 -0.8630 2.3788
3.5833 -0.7266 2.3788
3.6053 -0.5895 2.3788
3.6231 -0.4519 2.3788
3.6368 -0.3139 2.3788
3.6462 -0.1755 2.3788
3.6515 -0.0369 2.3788
3.6526 0.1018 2.3788
3.6495 0.2406 2.3788
3.6422 0.3794 2.3788
3.6306 0.5181 2.3788
3.6149 0.6565 2.3788
3.5949 0.7947 2.3788
3.5707 0.9324 2.3788
3.5423 1.0696 2.3788
3.5096 1.2062 2.3788
3.4727 1.3421 2.3788
3.4315 1.4772 2.3788
3.3861 1.6114 2.3788
3.3365 1.7446 2.3788
3.2826 1.8766 2.3788
3.2244 2.0074 2.3788
3.1620 2.1369 2.3788
3.0954 2.2649 2.3788
3.0245 2.3914 2.3788
2.9495 2.5161 2.3788
2.8702 2.6391 2.3788
2.7864 2.7598 2.3786
2.6982 2.8783 2.3782
2.6057 2.9942 2.3775
2.5086 3.1071 2.3764
2.4072 3.2172 2.3751
2.3015 3.3241 2.3735
2.1915 3.4275 2.3713
2.0774 3.5273 2.3689
1.9593 3.6234 2.3661
0.7896 1.5968 1.0155
0.7324 1.6277 1.0097
0.6741 1.6565 1.0038
0.6148 1.6832 0.9979
0.5546 1.7077 0.9918
0.4936 1.7301 0.9857
0.4318 1.7502 0.9795
0.3693 1.7681 0.9732
0.3062 1.7837 0.9669
0.2425 1.7970 0.9606
0.1785 1.8080 0.9542
0.1140 1.8167 0.9478
0.0493 1.8230 0.9414
-0.0155 1.8270 0.9350
-0.0805 1.8286 0.9286
-0.1455 1.8279 0.9221
-0.2105 1.8249 0.9158
-0.2753 1.8194 0.9094
-0.3398 1.8117 0.9031
-0.4041 1.8016 0.8968
-0.4679 1.7892 0.8906
-0.5313 1.7745 0.8844
-0.5941 1.7575 0.8783
-0.6562 1.7383 0.8722
-0.7177 1.7168 0.8663
-0.7783 1.6931 0.8604
-0.8380 1.6673 0.8547
-0.8967 1.6393 0.8490
-0.9544 1.6092 0.8435
-2.8354 4.4227 2.3504
-3.0098 4.3543 2.3504
-3.1823 4.2787 2.3504
-3.3526 4.1959 2.3505
-3.5203 4.1060 2.3505
-3.6851 4.0089 2.3505
-3.8466 3.9048 2.3505
-4.0045 3.7937 2.3505
-4.1583 3.6757 2.3506
-4.3077 3.5510 2.3506
-4.4524 3.4196 2.3506
-4.5920 3.2818 2.3507
-4.7261 3.1377 2.3507
-4.8545 2.9876 2.3508
-4.9766 2.8317 2.3508
-5.0924 2.6703 2.3509
-5.2013 2.5036 2.3509
-5.3031 2.3319 2.3510
-5.3976 2.1556 2.3510
-5.4845 1.9749 2.3511
-5.5635 1.7903 2.3511
-5.6344 1.6022 2.3512
-5.6970 1.4108 2.3513
-5.7511 1.2166 2.3513
-5.7966 1.0201 2.3514
-5.8334 0.8216 2.3515
-5.8613 0.6215 2.3515
-5.8802 0.4204 2.3516
-5.8902 0.2187 2.3517
-5.8912 0.0167 2.3517
-5.8832 -0.1850 2.3518
-5.8708 -0.3864 2.3537
-5.8579 -0.5878 2.3590
-5.8348 -0.7883 2.3638
-5.8009 -0.9873 2.3678
-5.7567 -1.1843 2.3711
-5.7024 -1.3786 2.3738
-5.6382 -1.5697 2.3759
-5.5645 -1.7571 2.3774
-5.4815 -1.9403 2.3784
-5.3897 -2.1189 2.3787
-5.2899 -2.2926 2.3788
-5.1830 -2.4613 2.3788
-5.0694 -2.6248 2.3788
-4.9494 -2.7828 2.3788
-4.8234 -2.9351 2.3788
-4.6917 -3.0815 2.3788
-4.5546 -3.2217 2.3788
-4.4125 -3.3556 2.3788
-4.2657 -3.4831 2.3788
-4.1147 -3.6039 2.3788
-3.9596 -3.7181 2.3788
-3.8010 -3.8254 2.3788
-3.6392 -3.9258 2.3788
-3.4744 -4.0194 2.3788
-3.3070 -4.1059 2.3788
-3.1375 -4.1855 2.3788
-2.9660 -4.2581 2.3788
-2.7930 -4.3237 2.3788
-2.6187 -4.3824 2.3788
-2.4435 -4.4342 2.3788
-2.2676 -4.4792 2.3788
-2.0914 -4.5174 2.3788
-1.9151 -4.5490 2.3788
-1.7389 -4.5739 2.3788
-1.5632 -4.5924 2.3788
-1.3881 -4.6045 2.3788
-1.2140 -4.6103 2.3788
-1.0410 -4.6099 2.3788
-0.8693 -4.6036 2.3788
-0.6992 -4.5914 2.3788
-0.5308 -4.5734 2.3788
-0.3644 -4.5498 2.3788
-0.2000 -4.5207 2.3788
-0.0378 -4.4864 2.3788
0.1219 -4.4468 2.3788
0.2791 -4.4022 2.3788
0.4336 -4.3528 2.3788
0.5854 -4.2986 2.3788
0.7342 -4.2399 2.3788
0.8800 -4.1767 2.3788
1.0227 -4.1093 2.3788
1.1622 -4.0377 2.3788
1.2984 -3.9621 2.3788
1.4313 -3.8827 2.3788
1.5607 -3.7996 2.3788
1.6866 -3.7129 2.3788
1.8089 -3.6228 2.3788
1.9276 -3.5295 2.3788
2.0426 -3.4330 2.3788
2.1539 -3.3334 2.3788
2.2614 -3.2310 2.3788
2.3651 -3.1258 2.3788
2.4649 -3.0180 2.3788
2.5609 -2.9077 2.3788
2.6530 -2.7949 2.3788
2.7411 -2.6800 2.3788
2.8253 -2.5628 2.3788
2.9055 -2.4436 2.3788
2.9816 -2.3225 2.3788
3.0538 -2.1995 2.3788
3.1219 -2.0748 2.3788
3.1860 -1.9485 2.3788
3.2460 -1.8207 2.3788
3.3019 -1.6915 2.3788
3.3537 -1.5610 2.3788
3.4014 -1.4293 2.3788
3.4450 -1.2964 2.3788
3.4845 -1.1626 2.3788
3.5198 -1.0278 2.3788
3.5510 -0.8923 2.3788
3.5780 -0.7560 2.3788
3.6009 -0.6190 2.3788
3.6196 -0.4815 2.3788
3.6342 -0.3436 2.3788
3.6446 -0.2053 2.3788
3.6507 -0.0667 2.3788
3.6527 0.0720 2.3788
3.6505 0.2108 2.3788
3.6441 0.3496 2.3788
3.6335 0.4883 2.3788
3.6186 0.6268 2.3788
3.5996 0.7650 2.3788
3.5763 0.9028 2.3788
3.5487 1.0402 2.3788
3.5170 1.1769 2.3788
3.4810 1.3130 2.3788
3.4407 1.4483 2.3788
3.3962 1.5826 2.3788
3.3475 1.7160 2.3788
3.2945 1.8483 2.3788
3.2373 1.9794 2.3788
3.1758 2.1092 2.3788
3.1101 2.2375 2.3788
3.0401 2.3643 2.3788
2.9660 2.4895 2.3788
2.8876 2.6128 2.3788
2.8047 2.7341 2.3786
2.7176 2.8531 2.3783
2.6259 2.9695 2.3776
2.5298 3.0831 2.3766
2.4293 3.1938 2.3754
2.3246 3.3014 2.3738
2.2155 3.4056 2.3718
2.1023 3.5062 2.3695
1.9851 3.6032 2.3668
0.8017 1.5899 1.0168
0.7448 1.6213 1.0110
0.6867 1.6505 1.0051
0.6276 1.6777 0.9992
0.5676 1.7027 0.9931
0.5068 1.7255 0.9870
0.4451 1.7461 0.9808
0.3827 1.7644 0.9746
0.3198 1.7805 0.9683
0.2562 1.7943 0.9619
0.1923 1.8058 0.9556
0.1279 1.8150 0.9492
0.0633 1.8218 0.9428
-0.0016 1.8263 0.9364
-0.0666 1.8285 0.9299
-0.1316 1.8283 0.9235
-0.1965 1.8257 0.9171
-0.2614 1.8208 0.9108
-0.3260 1.8136 0.9044
-0.3903 1.8040 0.8981
-0.4543 1.7921 0.8919
-0.5177 1.7779 0.8857
0.7313 1.5190 1.0102
0.6769 1.5479 1.0047
0.6215 1.5747 0.9991
0.5652 1.5996 0.9934
0.5080 1.6223 0.9876
0.4500 1.6430 0.9818
0.3913 1.6616 0.9759
0.3320 1.6781 0.9700
0.2721 1.6924 0.9640
0.2118 1.7045 0.9580
0.1510 1.7144 0.9520
0.0899 1.7222 0.9459
0.0286 1.7277 0.9398
-0.0329 1.7310 0.9338
-0.0944 1.7321 0.9277
-0.1560 1.7309 0.9216
-0.2174 1.7275 0.9156
-0.2788 1.7219 0.9095
-0.3398 1.7141 0.9036
-0.4006 1.7041 0.8976
-0.4610 1.6919 0.8917
-0.5209 1.6775 0.8859
-0.5802 1.6610 0.8801
-0.6389 1.6423 0.8744
-0.6969 1.6215 0.8688
-0.7541 1.5986 0.8633
-0.8105 1.5737 0.8579
-0.8659 1.5468 0.8525
-0.9204 1.5178 0.8473
-0.9737 1.4870 0.8422
-2.8803 4.0826 2.3505
-3.0411 4.0086 2.3505
-3.1997 3.9279 2.3506
-3.3557 3.8405 2.3506
-3.5088 3.7466 2.3506
-3.6587 3.6461 2.3506
-3.8050 3.5393 2.3506
-3.9473 3.4260 2.3507
-4.0855 3.3066 2.3507
-4.2191 3.1811 2.3507
-4.3478 3.0498 2.3508
-4.4713 2.9127 2.3508
-4.5892 2.7701 2.3509
-4.7014 2.6222 2.3509
-4.8074 2.4693 2.3510
-4.9071 2.3117 2.3510
-5.0001 2.1495 2.3510
-5.0862 1.9831 2.3511
-5.1652 1.8129 2.3512
-5.2369 1.6391 2.3512
-5.3010 1.4622 2.3513
-5.3573 1.2824 2.3513
-5.4058 1.1001 2.3514
-5.4463 0.9157 2.3514
-5.4787 0.7296 2.3515
-5.5028 0.5422 2.3516
-5.5187 0.3539 2.3516
-5.5263 0.1651 2.3517
-5.5256 -0.0239 2.3518
-5.5227 -0.2127 2.3545
-5.5166 -0.4017 2.3593
-5.5011 -0.5902 2.3637
-5.4759 -0.7777 2.3674
-5.4413 -0.9636 2.3707
-5.3973 -1.1476 2.3733
-5.3441 -1.3289 2.3754
-5.2820 -1.5072 2.3769
-5.2114 -1.6821 2.3780
-5.1325 -1.8530 2.3786
-5.0458 -2.0198 2.3788
-4.9519 -2.1821 2.3788
-4.8515 -2.3398 2.3788
-4.7449 -2.4927 2.3788
-4.6324 -2.6405 2.3788
-4.5143 -2.7830 2.3788
-4.3909 -2.9200 2.3788
-4.2625 -3.0514 2.3788
-4.1294 -3.1769 2.3788
-3.9919 -3.2964 2.3788
-3.8504 -3.4097 2.3788
-3.7052 -3.5169 2.3788
-3.5566 -3.6177 2.3788
-3.4049 -3.7122 2.3788
-3.2504 -3.8002 2.3788
-3.0935 -3.8817 2.3788
-2.9345 -3.9568 2.3788
-2.7736 -4.0253 2.3788
-2.6112 -4.0873 2.3788
-2.4476 -4.1428 2.3788
-2.2830 -4.1920 2.3788
-2.1177 -4.2347 2.3788
-1.9520 -4.2710 2.3788
-1.7861 -4.3012 2.3788
-1.6203 -4.3251 2.3788
-1.4549 -4.3429 2.3788
-1.2900 -4.3547 2.3788
-1.1259 -4.3606 2.3788
-0.9627 -4.3607 2.3788
-0.8008 -4.3551 2.3788
-0.6402 -4.3439 2.3788
-0.4812 -4.3273 2.3788
-0.3240 -4.3054 2.3788
-0.1686 -4.2783 2.3788
-0.0153 -4.2461 2.3788
0.1358 -4.2090 2.3788
0.2846 -4.1671 2.3788
0.4309 -4.1206 2.3788
0.5746 -4.0695 2.3788
0.7156 -4.0141 2.3788
0.8538 -3.9544 2.3788
0.9892 -3.8906 2.3788
1.1215 -3.8229 2.3788
1.2507 -3.7513 2.3788
1.3768 -3.6760 2.3788
1.4997 -3.5972 2.3788
1.6192 -3.5149 2.3788
1.7354 -3.4294 2.3788
1.8482 -3.3407 2.3788
1.9574 -3.2489 2.3788
2.0632 -3.1542 2.3788
2.1653 -3.0567 2.3788
2.2639 -2.9566 2.3788
2.3588 -2.8538 2.3788
2.4500 -2.7487 2.3788
2.5375 -2.6412 2.3788
2.6212 -2.5315 2.3788
2.7011 -2.4198 2.3788
2.7773 -2.3060 2.3788
2.8496 -2.1904 2.3788
2.9181 -2.0730 2.3788
2.9826 -1.9539 2.3788
3.0433 -1.8332 2.3788
3.1001 -1.7111 2.3788
3.1530 -1.5876 2.3788
3.2020 -1.4629 2.3788
3.2470 -1.3370 2.3788
3.2880 -1.2100 2.3788
3.3251 -1.0821 2.3788
3.3582 -0.9532 2.3788
3.3873 -0.8236 2.3788
3.4124 -0.6933 2.3788
3.4335 -0.5624 2.3788
3.4506 -0.4309 2.3788
3.4637 -0.2991 2.3788
3.4727 -0.1669 2.3788
3.4777 -0.0345 2.3788
3.4787 0.0980 2.3788
3.4756 0.2307 2.3788
3.4685 0.3632 2.3788
3.4573 0.4956 2.3788
3.4420 0.6278 2.3788
3.4227 0.7597 2.3788
3.3993 0.8912 2.3788
3.3718 1.0221 2.3788
3.3403 1.1525 2.3788
3.3047 1.2821 2.3788
3.2650 1.4109 2.3788
3.2212 1.5388 2.3788
3.1734 1.6657 2.3788
3.1215 1.7915 2.3788
3.0655 1.9160 2.3788
3.0055 2.0392 2.3788
2.9414 2.1610 2.3788
2.8733 2.2812 2.3788
2.8011 2.3997 2.3788
2.7249 2.5165 2.3788
2.6446 2.6311 2.3786
2.5601 2.7436 2.3784
2.4714 2.8535 2.3777
2.3785 2.9607 2.3769
2.2816 3.0652 2.3758
2.1804 3.1664 2.3743
2.0754 3.2645 2.3725
1.9666 3.3593 2.3706
0.7959 1.4814 1.0167
0.7428 1.5126 1.0113
0.6887 1.5418 1.0059
0.6335 1.5691 1.0003
0.5773 1.5944 0.9946
0.5203 1.6176 0.9889
0.4625 1.6388 0.9831
0.4040 1.6578 0.9772
0.3448 1.6747 0.9713
0.2850 1.6895 0.9653
0.2248 1.7021 0.9593
0.1641 1.7125 0.9533
0.1031 1.7207 0.9472
0.0418 1.7267 0.9411
-0.0196 1.7305 0.9351
-0.0812 1.7320 0.9290
-0.1427 1.7314 0.9229
-0.2042 1.7285 0.9169
-0.2656 1.7233 0.9108
-0.3267 1.7160 0.9048
-0.3876 1.7064 0.8989
-0.4480 1.6947 0.8930
-0.5080 1.6808 0.8871
-0.5675 1.6647 0.8814
-0.6264 1.6465 0.8757
-0.6845 1.6262 0.8700
-0.7419 1.6037 0.8645
-0.7985 1.5792 0.8590
-0.8541 1.5527 0.8537
-0.9087 1.5242 0.8484
-0.9623 1.4938 0.8433
-2.8455 4.0976 2.3505
-3.0067 4.0250 2.3505
-3.1658 3.9458 2.3506
-3.3224 3.8598 2.3506
-3.4762 3.7673 2.3506
-3.6268 3.6683 2.3506
-3.7739 3.5628 2.3506
-3.9171 3.4509 2.3507
-4.0562 3.3328 2.3507
-4.1908 3.2086 2.3507
-4.3205 3.0785 2.3508
-4.4452 2.9426 2.3508
-4.5644 2.8012 2.3509
-4.6778 2.6544 2.3509
-4.7852 2.5026 2.3509
-4.8863 2.3459 2.3510
-4.9807 2.1847 2.3510
-5.0683 2.0192 2.3511
-5.1489 1.8498 2.3511
-5.2221 1.6768 2.3512
-5.2878 1.5004 2.3513
-5.3459 1.3212 2.3513
-5.3961 1.1394 2.3514
-5.4383 0.9555 2.3514
-5.4724 0.7697 2.3515
-5.4983 0.5826 2.3516
-5.5160 0.3944 2.3516
-5.5254 0.2057 2.3517
-5.5264 0.0167 2.3517
-5.5229 -0.1721 2.3534
-5.5187 -0.3611 2.3583
-5.5053 -0.5498 2.3628
-5.4823 -0.7375 2.3667
-5.4496 -0.9239 2.3701
-5.4074 -1.1082 2.3727
-5.3562 -1.2901 2.3749
-5.2960 -1.4692 2.3766
-5.2273 -1.6448 2.3778
-5.1502 -1.8167 2.3785
-5.0651 -1.9844 2.3788
-4.9726 -2.1476 2.3788
-4.8736 -2.3063 2.3788
-4.7683 -2.4603 2.3788
-4.6571 -2.6092 2.3788
-4.5401 -2.7529 2.3788
-4.4178 -2.8911 2.3788
-4.2905 -3.0236 2.3788
-4.1583 -3.1504 2.3788
-4.0218 -3.2712 2.3788
-3.8811 -3.3859 2.3788
-3.7367 -3.4944 2.3788
-3.5888 -3.5966 2.3788
-3.4377 -3.6924 2.3788
-3.2838 -3.7818 2.3788
-3.1274 -3.8648 2.3788
-2.9688 -3.9412 2.3788
-2.8083 -4.0111 2.3788
-2.6462 -4.0745 2.3788
-2.4828 -4.1315 2.3788
-2.3184 -4.1819 2.3788
-2.1532 -4.2260 2.3788
-1.9876 -4.2638 2.3788
-1.8217 -4.2952 2.3788
-1.6559 -4.3205 2.3788
-1.4904 -4.3396 2.3788
-1.3253 -4.3527 2.3788
-1.1610 -4.3598 2.3788
-0.9977 -4.3611 2.3788
-0.8355 -4.3568 2.3788
-0.6746 -4.3468 2.3788
-0.5153 -4.3313 2.3788
-0.3576 -4.3105 2.3788
-0.2018 -4.2845 2.3788
-0.0481 -4.2534 2.3788
0.1035 -4.2174 2.3788
0.2528 -4.1765 2.3788
0.3997 -4.1309 2.3788
0.5439 -4.0808 2.3788
0.6856 -4.0263 2.3788
0.8244 -3.9676 2.3788
0.9603 -3.9047 2.3788
1.0933 -3.8378 2.3788
1.2232 -3.7670 2.3788
1.3500 -3.6925 2.3788
1.4736 -3.6144 2.3788
1.5938 -3.5329 2.3788
1.7107 -3.4480 2.3788
1.8242 -3.3600 2.3788
1.9342 -3.2689 2.3788
2.0408 -3.1748 2.3788
2.1437 -3.0779 2.3788
2.2430 -2.9783 2.3788
2.3387 -2.8761 2.3788
2.4307 -2.7715 2.3788
2.5190 -2.6645 2.3788
2.6035 -2.5553 2.3788
2.6843 -2.4440 2.3788
2.7613 -2.3306 2.3788
2.8344 -2.2154 2.3788
2.9037 -2.0983 2.3788
2.9691 -1.9796 2.3788
3.0306 -1.8593 2.3788
3.0883 -1.7375 2.3788
3.1420 -1.6143 2.3788
3.1918 -1.4898 2.3788
3.2376 -1.3641 2.3788
3.2795 -1.2374 2.3788
3.3175 -1.1096 2.3788
3.3514 -0.9810 2.3788
3.3814 -0.8515 2.3788
3.4073 -0.7214 2.3788
3.4293 -0.5906 2.3788
3.4473 -0.4592 2.3788
3.4612 -0.3274 2.3788
3.4711 -0.1953 2.3788
3.4770 -0.0630 2.3788
3.4788 0.0696 2.3788
3.4766 0.2022 2.3788
3.4703 0.3347 2.3788
3.4600 0.4672 2.3788
3.4456 0.5995 2.3788
3.4272 0.7314 2.3788
3.4047 0.8630 2.3788
3.3781 0.9940 2.3788
3.3474 1.1245 2.3788
3.3127 1.2543 2.3788
3.2739 1.3833 2.3788
3.2310 1.5114 2.3788
3.1840 1.6385 2.3788
3.1330 1.7646 2.3788
3.0779 1.8894 2.3788
3.0187 2.0129 2.3788
2.9555 2.1350 2.3788
2.8883 2.2555 2.3788
2.8170 2.3744 2.3788
2.7416 2.4915 2.3788
2.6622 2.6067 2.3787
2.5787 2.7197 2.3785
2.4908 2.8300 2.3779
2.3988 2.9379 2.3771
2.3027 3.0429 2.3760
2.2025 3.1449 2.3746
2.0983 3.2437 2.3730
1.9903 3.3392 2.3710
0.8072 1.4745 1.0179
0.7543 1.5061 1.0125
0.7004 1.5357 1.0070
0.6454 1.5634 1.0015
0.5895 1.5891 0.9958
0.5326 1.6128 0.9901
0.4750 1.6344 0.9843
0.4166 1.6539 0.9785
0.3575 1.6713 0.9725
0.2979 1.6865 0.9666
0.2377 1.6996 0.9606
0.1772 1.7104 0.9546
0.1162 1.7191 0.9485
0.0550 1.7256 0.9424
-0.0064 1.7299 0.9364
-0.0680 1.7319 0.9303
-0.1295 1.7317 0.9242
-0.1910 1.7293 0.9182
-0.2524 1.7246 0.9121
-0.3136 1.7178 0.9061
-0.3745 1.7087 0.9002
-0.4351 1.6974 0.8943
-0.4952 1.6840 0.8884
0.6889 1.4412 1.0064
0.6372 1.4685 1.0012
0.5847 1.4940 0.9958
0.5313 1.5175 0.9905
0.4770 1.5391 0.9850
0.4220 1.5587 0.9795
0.3664 1.5764 0.9739
0.3101 1.5920 0.9683
0.2533 1.6055 0.9626
0.1961 1.6170 0.9569
0.1384 1.6264 0.9512
0.0805 1.6338 0.9454
0.0224 1.6390 0.9397
-0.0359 1.6421 0.9339
-0.0943 1.6431 0.9281
-0.1527 1.6421 0.9224
-0.2110 1.6388 0.9166
-0.2692 1.6335 0.9109
-0.3271 1.6261 0.9053
-0.3847 1.6166 0.8996
-0.4420 1.6050 0.8940
-0.4988 1.5914 0.8885
-0.5551 1.5757 0.8830
-0.6108 1.5580 0.8776
-0.6658 1.5383 0.8723
-0.7200 1.5166 0.8671
-0.7735 1.4929 0.8619
-0.8261 1.4674 0.8569
-0.8777 1.4400 0.8519
-0.9283 1.4107 0.8471
-0.9778 1.3796 0.8423
-2.8794 3.7787 2.3506
-3.0280 3.7015 2.3506
-3.1740 3.6181 2.3507
-3.3173 3.5285 2.3507
-3.4574 3.4329 2.3507
-3.5941 3.3313 2.3507
-3.7271 3.2239 2.3508
-3.8560 3.1107 2.3508
-3.9806 2.9919 2.3508
-4.1007 2.8676 2.3509
-4.2158 2.7381 2.3509
-4.3257 2.6035 2.3509
-4.4302 2.4641 2.3510
-4.5289 2.3200 2.3510
-4.6217 2.1715 2.3511
-4.7083 2.0189 2.3511
-4.7884 1.8625 2.3512
-4.8619 1.7025 2.3512
-4.9285 1.5392 2.3513
-4.9881 1.3730 2.3513
-5.0406 1.2041 2.3514
-5.0857 1.0331 2.3514
-5.1234 0.8600 2.3515
-5.1535 0.6854 2.3515
-5.1761 0.5096 2.3516
-5.1910 0.3330 2.3517
-5.1981 0.1559 2.3517
-5.2032 -0.0213 2.3543
-5.2047 -0.1989 2.3588
-5.1978 -0.3764 2.3629
-5.1820 -0.5533 2.3666
-5.1573 -0.7293 2.3697
-5.1240 -0.9038 2.3722
-5.0823 -1.0765 2.3744
-5.0324 -1.2467 2.3761
-4.9745 -1.4143 2.3775
-4.9084 -1.5786 2.3782
-4.8349 -1.7394 2.3787
-4.7542 -1.8963 2.3788
-4.6670 -2.0492 2.3788
-4.5737 -2.1979 2.3788
-4.4745 -2.3422 2.3788
-4.3698 -2.4818 2.3788
-4.2599 -2.6165 2.3788
-4.1449 -2.7461 2.3788
-4.0252 -2.8705 2.3788
-3.9010 -2.9896 2.3788
-3.7727 -3.1030 2.3788
-3.6405 -3.2108 2.3788
-3.5048 -3.3128 2.3788
-3.3658 -3.4089 2.3788
-3.2238 -3.4991 2.3788
-3.0791 -3.5833 2.3788
-2.9321 -3.6615 2.3788
-2.7829 -3.7336 2.3788
-2.6319 -3.7996 2.3788
-2.4794 -3.8595 2.3788
-2.3255 -3.9134 2.3788
-2.1707 -3.9612 2.3788
-2.0151 -4.0030 2.3788
-1.8590 -4.0388 2.3788
-1.7026 -4.0687 2.3788
-1.5463 -4.0928 2.3788
