ply
format ascii 1.0
element vertex 2179
property float32 x
property float32 y
property float32 z
end_header
5.0611 -4.9620 2.3874
5.2549 -4.7996 2.3874
5.4428 -4.6290 2.3874
5.6241 -4.4505 2.3874
5.7986 -4.2643 2.3874
5.9659 -4.0707 2.3874
6.1256 -3.8699 2.3874
6.2773 -3.6622 2.3874
6.4208 -3.4481 2.3874
6.5555 -3.2278 2.3874
6.6813 -3.0017 2.3874
6.7979 -2.7703 2.3874
6.9050 -2.5338 2.3874
7.0022 -2.2927 2.3874
7.0895 -2.0475 2.3874
7.1665 -1.7986 2.3874
7.2332 -1.5465 2.3874
7.2892 -1.2917 2.3874
7.3346 -1.0346 2.3874
7.3692 -0.7757 2.3874
7.3929 -0.5156 2.3874
7.4056 -0.2547 2.3874
7.4075 0.0065 2.3874
7.3984 0.2674 2.3874
7.3783 0.5276 2.3874
7.3475 0.7866 2.3874
7.3059 1.0438 2.3874
7.2536 1.2987 2.3874
7.1909 1.5510 2.3874
7.1178 1.8002 2.3874
7.0346 2.0456 2.3874
6.9415 2.2871 2.3874
6.8387 2.5240 2.3874
6.7264 2.7561 2.3874
6.6051 2.9829 2.3874
6.4749 3.2040 2.3874
6.3361 3.4190 2.3874
6.1892 3.6278 2.3874
6.0344 3.8298 2.3874
5.8721 4.0249 2.3874
5.7027 4.2128 2.3874
5.5265 4.3932 2.3874
5.3440 4.5658 2.3874
5.1554 4.7306 2.3874
4.9613 4.8873 2.3874
4.7620 5.0356 2.3874
4.5578 5.1756 2.3874
4.3493 5.3071 2.3874
4.1367 5.4299 2.3874
3.9206 5.5441 2.3874
3.7012 5.6494 2.3874
3.4791 5.7460 2.3874
3.2545 5.8337 2.3874
3.0278 5.9127 2.3874
2.7995 5.9827 2.3874
0.9719 2.2859 0.9029
0.8893 2.3178 0.9076
0.8056 2.3467 0.9124
0.7209 2.3725 0.9172
0.6353 2.3953 0.9220
0.5489 2.4150 0.9268
0.4619 2.4315 0.9317
0.3743 2.4448 0.9365
0.2863 2.4550 0.9414
0.1979 2.4620 0.9463
0.1094 2.4658 0.9512
0.0208 2.4664 0.9560
-0.0678 2.4638 0.9608
-0.1562 2.4579 0.9656
-0.2444 2.4489 0.9704
-0.3322 2.4367 0.9751
-0.4195 2.4213 0.9798
-0.5062 2.4028 0.9844
-0.5922 2.3812 0.9890
-0.6773 2.3564 0.9935
-0.7615 2.3286 0.9980
-0.8446 2.2978 1.0023
-2.1974 5.3694 2.3874
-2.3788 5.2603 2.3874
-2.5557 5.1458 2.3874
-2.7280 5.0260 2.3874
-2.8954 4.9011 2.3874
-3.0581 4.7714 2.3874
-3.2157 4.6370 2.3874
-3.3682 4.4980 2.3874
-3.5156 4.3548 2.3874
-3.6578 4.2073 2.3874
-3.7946 4.0559 2.3874
-3.9260 3.9007 2.3874
-4.0518 3.7418 2.3874
-4.1722 3.5796 2.3874
-4.2869 3.4140 2.3874
-4.3960 3.2453 2.3874
-4.4993 3.0737 2.3874
-4.5969 2.8994 2.3874
-4.6886 2.7224 2.3874
-4.7745 2.5430 2.3874
-4.8545 2.3614 2.3874
-4.9285 2.1776 2.3874
-4.9966 1.9918 2.3874
-5.0587 1.8045 2.3874
-5.1147 1.6154 2.3874
-5.1646 1.4249 2.3874
-5.2085 1.2330 2.3874
-5.2463 1.0401 2.3874
-5.2780 0.8462 2.3874
-2.6725 4.6442 2.3874
-2.8275 4.5245 2.3874
-2.9778 4.4001 2.3874
-3.1234 4.2714 2.3874
-3.2643 4.1385 2.3874
-3.4002 4.0015 2.3874
-3.5311 3.8607 2.3874
-3.6570 3.7161 2.3874
-3.7778 3.5680 2.3874
-3.8933 3.4166 2.3874
-4.0036 3.2619 2.3874
-4.1085 3.1042 2.3874
-4.2080 2.9435 2.3874
-4.3021 2.7802 2.3874
-4.3907 2.6143 2.3874
-4.4738 2.4460 2.3874
-4.5512 2.2755 2.3874
-4.6231 2.1029 2.3874
-4.6893 1.9284 2.3874
-4.7498 1.7521 2.3874
-4.8046 1.5742 2.3874
-4.8537 1.3949 2.3874
-4.8969 1.2143 2.3874
-4.9344 1.0325 2.3874
-4.9661 0.8498 2.3874
-4.9919 0.6662 2.3874
-5.0118 0.4820 2.3874
-5.0259 0.2972 2.3874
-5.0342 0.1121 2.3874
-5.0365 -0.0732 2.3874
-5.0330 -0.2586 2.3874
-5.0236 -0.4439 2.3874
-5.0082 -0.6289 2.3874
-4.9870 -0.8135 2.3874
-4.9599 -0.9976 2.3874
-4.9268 -1.1808 2.3874
-4.8880 -1.3633 2.3874
-4.8432 -1.5446 2.3874
-4.7926 -1.7248 2.3874
-4.7361 -1.9035 2.3874
-4.6738 -2.0808 2.3874
-4.6057 -2.2563 2.3874
-4.5318 -2.4300 2.3874
-4.4522 -2.6016 2.3874
-4.3669 -2.7710 2.3874
-4.2759 -2.9381 2.3874
-4.1792 -3.1026 2.3874
-4.0770 -3.2644 2.3874
-3.9692 -3.4232 2.3874
-3.8559 -3.5790 2.3874
-3.7371 -3.7316 2.3874
-3.6130 -3.8809 2.3874
-3.4836 -4.0261 2.3874
-3.3490 -4.1679 2.3874
-3.2092 -4.3056 2.3874
-3.0644 -4.4392 2.3874
-2.9146 -4.5684 2.3874
-2.7599 -4.6930 2.3874
-2.6004 -4.8130 2.3874
-2.4363 -4.9280 2.3874
-2.2677 -5.0380 2.3874
-2.0947 -5.1426 2.3874
-1.9174 -5.2418 2.3874
-1.7360 -5.3354 2.3874
-1.5506 -5.4231 2.3874
-1.3615 -5.5048 2.3874
-1.1687 -5.5802 2.3874
-0.9725 -5.6493 2.3874
-0.7731 -5.7119 2.3874
-0.5706 -5.7677 2.3874
-0.3653 -5.8167 2.3874
-0.1574 -5.8586 2.3874
0.0529 -5.8933 2.3874
0.2653 -5.9206 2.3874
0.4796 -5.9404 2.3874
0.6954 -5.9526 2.3874
0.9127 -5.9571 2.3874
1.1310 -5.9537 2.3874
1.3500 -5.9422 2.3874
1.5695 -5.9227 2.3874
1.7892 -5.8950 2.3874
2.0086 -5.8591 2.3874
2.2276 -5.8148 2.3874
2.4457 -5.7622 2.3874
2.6626 -5.7011 2.3874
2.8780 -5.6317 2.3874
3.0915 -5.5538 2.3874
3.3027 -5.4675 2.3874
3.5113 -5.3728 2.3874
3.7169 -5.2698 2.3874
3.9191 -5.1585 2.3874
4.1176 -5.0390 2.3874
4.3119 -4.9114 2.3874
4.5017 -4.7759 2.3874
4.6866 -4.6325 2.3874
4.8663 -4.4815 2.3874
5.0404 -4.3230 2.3874
5.2085 -4.1572 2.3874
5.3702 -3.9843 2.3874
5.5253 -3.8046 2.3874
5.6733 -3.6185 2.3874
5.8141 -3.4260 2.3874
5.9472 -3.2276 2.3874
6.0723 -3.0235 2.3874
6.1892 -2.8141 2.3874
6.2976 -2.5997 2.3874
6.3973 -2.3808 2.3874
6.4880 -2.1576 2.3874
6.5696 -1.9306 2.3874
6.6418 -1.7003 2.3874
6.7044 -1.4669 2.3874
6.7574 -1.2310 2.3874
6.8005 -0.9930 2.3874
6.8338 -0.7533 2.3874
6.8571 -0.5124 2.3874
6.8704 -0.2707 2.3874
6.8737 -0.0287 2.3874
6.8669 0.2131 2.3874
6.8501 0.4544 2.3874
6.8234 0.6946 2.3874
6.7868 0.9333 2.3874
6.7404 1.1700 2.3874
6.6843 1.4044 2.3874
6.6187 1.6360 2.3874
6.5438 1.8644 2.3874
6.4597 2.0891 2.3874
6.3667 2.3099 2.3874
6.2649 2.5262 2.3874
6.1547 2.7379 2.3874
6.0362 2.9444 2.3874
5.9098 3.1455 2.3874
5.7758 3.3409 2.3874
5.6344 3.5302 2.3874
5.4859 3.7133 2.3874
5.3308 3.8898 2.3874
5.1693 4.0595 2.3874
5.0018 4.2222 2.3874
4.8286 4.3776 2.3874
4.6501 4.5257 2.3874
4.4666 4.6663 2.3874
4.2785 4.7991 2.3874
4.0862 4.9241 2.3874
3.8900 5.0412 2.3874
3.6903 5.1503 2.3874
3.4874 5.2514 2.3874
3.2817 5.3443 2.3874
3.0736 5.4291 2.3874
2.8633 5.5056 2.3874
2.6513 5.5741 2.3874
0.9238 2.1351 0.9047
0.8467 2.1653 0.9091
0.7684 2.1927 0.9135
0.6892 2.2173 0.9180
0.6092 2.2390 0.9225
0.5285 2.2578 0.9270
0.4471 2.2737 0.9316
0.3652 2.2866 0.9361
0.2828 2.2965 0.9407
0.2002 2.3035 0.9452
0.1173 2.3074 0.9498
0.0344 2.3084 0.9543
-0.0485 2.3064 0.9589
-0.1313 2.3013 0.9633
-0.2139 2.2933 0.9678
-0.2961 2.2823 0.9722
-0.3779 2.2683 0.9766
-0.4591 2.2514 0.9810
-0.5397 2.2316 0.9853
-0.6195 2.2088 0.9895
-0.6984 2.1832 0.9937
-0.7763 2.1547 0.9978
-0.8532 2.1235 1.0018
-2.2050 4.9600 2.3874
-2.3725 4.8542 2.3874
-2.5358 4.7433 2.3874
-2.6946 4.6276 2.3874
-2.8489 4.5072 2.3874
-2.9986 4.3823 2.3874
-3.1436 4.2530 2.3874
-3.2837 4.1195 2.3874
-3.4190 3.9819 2.3874
-3.5492 3.8406 2.3874
-3.6743 3.6955 2.3874
-3.7944 3.5469 2.3874
-3.9092 3.3950 2.3874
-4.0187 3.2398 2.3874
-4.1228 3.0817 2.3874
-4.2216 2.9207 2.3874
-4.3149 2.7570 2.3874
-4.4028 2.5907 2.3874
-4.4850 2.4221 2.3874
-4.5617 2.2513 2.3874
-4.6328 2.0784 2.3874
-4.6982 1.9036 2.3874
-4.7579 1.7271 2.3874
-4.8119 1.5490 2.3874
-4.8601 1.3696 2.3874
-4.9026 1.1887 2.3874
-4.9392 1.0068 2.3874
-4.9700 0.8240 2.3874
-4.9950 0.6403 2.3874
-5.0142 0.4559 2.3874
-5.0275 0.2711 2.3874
-5.0349 0.0860 2.3874
-5.0364 -0.0994 2.3874
-5.0320 -0.2848 2.3874
-5.0217 -0.4700 2.3874
-5.0056 -0.6550 2.3874
-4.9835 -0.8395 2.3874
-4.9556 -1.0234 2.3874
-4.9217 -1.2066 2.3874
-4.8820 -1.3889 2.3874
-4.8364 -1.5701 2.3874
-4.7850 -1.7500 2.3874
-4.7277 -1.9286 2.3874
-4.6645 -2.1056 2.3874
-4.5956 -2.2809 2.3874
-4.5210 -2.4543 2.3874
-4.4405 -2.6256 2.3874
-4.3544 -2.7947 2.3874
-4.2626 -2.9614 2.3874
-4.1651 -3.1255 2.3874
-4.0621 -3.2869 2.3874
-3.9535 -3.4454 2.3874
-3.8395 -3.6007 2.3874
-3.7200 -3.7528 2.3874
-3.5951 -3.9015 2.3874
-3.4650 -4.0463 2.3874
-3.3296 -4.1875 2.3874
-3.1891 -4.3247 2.3874
-3.0436 -4.4576 2.3874
-2.8930 -4.5862 2.3874
-2.7377 -4.7102 2.3874
-2.5776 -4.8295 2.3874
-2.4128 -4.9438 2.3874
-2.2436 -5.0530 2.3874
-2.0699 -5.1569 2.3874
-1.8921 -5.2554 2.3874
-1.7101 -5.3481 2.3874
-1.5242 -5.4349 2.3874
-1.3346 -5.5158 2.3874
-1.1413 -5.5904 2.3874
-0.9446 -5.6586 2.3874
-0.7448 -5.7202 2.3874
-0.5419 -5.7750 2.3874
-0.3362 -5.8230 2.3874
-0.1279 -5.8639 2.3874
0.0827 -5.8976 2.3874
0.2954 -5.9239 2.3874
0.5099 -5.9426 2.3874
0.7260 -5.9538 2.3874
0.9434 -5.9571 2.3874
1.1618 -5.9525 2.3874
1.3809 -5.9400 2.3874
1.6005 -5.9193 2.3874
1.8201 -5.8904 2.3874
2.0395 -5.8533 2.3874
2.2584 -5.8079 2.3874
2.4764 -5.7541 2.3874
2.6931 -5.6918 2.3874
2.9082 -5.6212 2.3874
3.1214 -5.5421 2.3874
3.3323 -5.4546 2.3874
3.5405 -5.3588 2.3874
3.7456 -5.2546 2.3874
3.9473 -5.1421 2.3874
4.1452 -5.0215 2.3874
4.3389 -4.8928 2.3874
4.5281 -4.7561 2.3874
4.7123 -4.6117 2.3874
4.8912 -4.4596 2.3874
5.0644 -4.3000 2.3874
5.2316 -4.1332 2.3874
5.3925 -3.9594 2.3874
5.5466 -3.7788 2.3874
5.6936 -3.5917 2.3874
5.8333 -3.3984 2.3874
5.9653 -3.1991 2.3874
6.0893 -2.9943 2.3874
6.2050 -2.7842 2.3874
6.3122 -2.5691 2.3874
6.4107 -2.3496 2.3874
6.5001 -2.1258 2.3874
6.5803 -1.8983 2.3874
6.6512 -1.6675 2.3874
6.7125 -1.4338 2.3874
6.7641 -1.1976 2.3874
6.8058 -0.9593 2.3874
6.8377 -0.7194 2.3874
6.8596 -0.4784 2.3874
6.8715 -0.2366 2.3874
6.8733 0.0054 2.3874
6.8652 0.2472 2.3874
6.8470 0.4883 2.3874
6.8188 0.7283 2.3874
6.7808 0.9668 2.3874
6.7330 1.2032 2.3874
6.6756 1.4372 2.3874
6.6087 1.6684 2.3874
6.5325 1.8963 2.3874
6.4471 2.1205 2.3874
6.3529 2.3406 2.3874
6.2499 2.5564 2.3874
6.1385 2.7673 2.3874
6.0189 2.9731 2.3874
5.8914 3.1734 2.3874
5.7563 3.3679 2.3874
5.6139 3.5564 2.3874
5.4645 3.7386 2.3874
5.3084 3.9141 2.3874
5.1461 4.0829 2.3874
4.9777 4.2445 2.3874
4.8037 4.3990 2.3874
4.6245 4.5460 2.3874
4.4404 4.6854 2.3874
4.2517 4.8172 2.3874
4.0588 4.9411 2.3874
3.8620 5.0571 2.3874
3.6619 5.1651 2.3874
3.4585 5.2650 2.3874
3.2525 5.3567 2.3874
3.0441 5.4403 2.3874
2.8336 5.5158 2.3874
2.6213 5.5831 2.3874
0.9130 2.1395 0.9053
0.8357 2.1693 0.9097
0.7573 2.1964 0.9141
0.6780 2.2205 0.9186
0.5979 2.2418 0.9231
0.5170 2.2602 0.9277
0.4356 2.2757 0.9322
0.3536 2.2882 0.9368
0.2712 2.2977 0.9413
0.1885 2.3042 0.9459
0.1056 2.3078 0.9504
0.0227 2.3083 0.9550
-0.0602 2.3058 0.9595
-0.1430 2.3004 0.9640
-0.2255 2.2919 0.9684
-0.3077 2.2805 0.9729
-0.3894 2.2661 0.9773
-0.4705 2.2488 0.9816
-0.5510 2.2285 0.9859
-0.6307 2.2054 0.9901
-0.7094 2.1793 0.9942
-0.7872 2.1505 0.9983
-2.0578 5.0467 2.3874
-2.2289 4.9454 2.3874
-2.3958 4.8388 2.3874
-2.5584 4.7273 2.3874
-2.7166 4.6109 2.3874
-2.8703 4.4899 2.3874
-3.0193 4.3643 2.3874
-3.1626 4.2345 2.3874
-3.3031 4.1003 2.3874
-3.4376 3.9622 2.3874
-3.5671 3.8203 2.3874
-3.6916 3.6747 2.3874
-3.8109 3.5257 2.3874
-3.9249 3.3733 2.3874
-4.0337 3.2177 2.3874
-4.1371 3.0592 2.3874
-4.2351 2.8978 2.3874
-4.3276 2.7337 2.3874
-4.4147 2.5671 2.3874
-4.4962 2.3982 2.3874
-4.5721 2.2270 2.3874
-4.6423 2.0539 2.3874
-4.7069 1.8789 2.3874
-4.7658 1.7021 2.3874
-4.8190 1.5238 2.3874
-4.8664 1.3441 2.3874
-4.9081 1.1631 2.3874
-4.9439 0.9811 2.3874
-4.9739 0.7981 2.3874
-2.5132 4.3797 2.3874
-2.6600 4.2677 2.3874
-2.8024 4.1512 2.3874
-2.9404 4.0305 2.3874
-3.0738 3.9058 2.3874
-3.2027 3.7772 2.3874
-3.3269 3.6448 2.3874
-3.4464 3.5089 2.3874
-3.5609 3.3696 2.3874
-3.6706 3.2270 2.3874
-3.7753 3.0813 2.3874
-3.8750 2.9326 2.3874
-3.9695 2.7812 2.3874
-4.0589 2.6272 2.3874
-4.1431 2.4706 2.3874
-4.2221 2.3118 2.3874
-4.2957 2.1508 2.3874
-4.3640 1.9878 2.3874
-4.4270 1.8229 2.3874
-4.4845 1.6564 2.3874
-4.5366 1.4882 2.3874
-4.5832 1.3187 2.3874
-4.6243 1.1479 2.3874
-4.6599 0.9761 2.3874
-4.6900 0.8034 2.3874
-4.7145 0.6296 2.3874
-4.7334 0.4554 2.3874
-4.7468 0.2806 2.3874
-4.7546 0.1056 2.3874
-4.7567 -0.0698 2.3874
-4.7532 -0.2451 2.3874
-4.7442 -0.4203 2.3874
-4.7295 -0.5952 2.3874
-4.7092 -0.7698 2.3874
-4.6833 -0.9438 2.3874
-4.6517 -1.1170 2.3874
-4.6147 -1.2892 2.3874
-4.5719 -1.4608 2.3874
-4.5236 -1.6310 2.3874
-4.4698 -1.7998 2.3874
-4.4105 -1.9672 2.3874
-4.3456 -2.1329 2.3874
-4.2753 -2.2967 2.3874
-4.1995 -2.4586 2.3874
-4.1183 -2.6183 2.3874
-4.0317 -2.7757 2.3874
-3.9398 -2.9307 2.3874
-3.8426 -3.0830 2.3874
-3.7401 -3.2327 2.3874
-3.6326 -3.3789 2.3874
-3.5198 -3.5224 2.3874
-3.4021 -3.6624 2.3874
-3.2793 -3.7990 2.3874
-3.1516 -3.9319 2.3874
-3.0191 -4.0609 2.3874
-2.8819 -4.1860 2.3874
-2.7400 -4.3069 2.3874
-2.5935 -4.4234 2.3874
-2.4427 -4.5354 2.3874
-2.2875 -4.6427 2.3874
-2.1281 -4.7451 2.3874
-1.9646 -4.8425 2.3874
-1.7972 -4.9346 2.3874
-1.6260 -5.0214 2.3874
-1.4512 -5.1025 2.3874
-1.2729 -5.1780 2.3874
-1.0912 -5.2476 2.3874
-0.9065 -5.3111 2.3874
-0.7187 -5.3684 2.3874
-0.5283 -5.4193 2.3874
-0.3353 -5.4637 2.3874
-0.1399 -5.5015 2.3874
0.0576 -5.5324 2.3874
0.2569 -5.5564 2.3874
0.4579 -5.5734 2.3874
0.6603 -5.5832 2.3874
0.8638 -5.5857 2.3874
1.0682 -5.5808 2.3874
1.2731 -5.5684 2.3874
1.4784 -5.5484 2.3874
1.6837 -5.5209 2.3874
1.8887 -5.4856 2.3874
2.0931 -5.4425 2.3874
2.2966 -5.3916 2.3874
2.4988 -5.3330 2.3874
2.6995 -5.2665 2.3874
2.8984 -5.1922 2.3874
3.0950 -5.1101 2.3874
3.2890 -5.0202 2.3874
3.4802 -4.9226 2.3874
3.6681 -4.8174 2.3874
3.8524 -4.7046 2.3874
4.0328 -4.5843 2.3874
4.2090 -4.4567 2.3874
4.3805 -4.3219 2.3874
4.5471 -4.1801 2.3874
4.7084 -4.0313 2.3874
4.8641 -3.8759 2.3874
5.0139 -3.7141 2.3874
5.1574 -3.5459 2.3874
5.2945 -3.3718 2.3874
5.4247 -3.1919 2.3874
5.5477 -3.0066 2.3874
5.6634 -2.8161 2.3874
5.7715 -2.6207 2.3874
5.8717 -2.4208 2.3874
5.9639 -2.2167 2.3874
6.0477 -2.0088 2.3874
6.1230 -1.7974 2.3874
6.1898 -1.5829 2.3874
6.2477 -1.3656 2.3874
6.2966 -1.1461 2.3874
6.3366 -0.9245 2.3874
6.3674 -0.7015 2.3874
6.3890 -0.4774 2.3874
6.4014 -0.2525 2.3874
6.4046 -0.0274 2.3874
6.3985 0.1977 2.3874
6.3831 0.4222 2.3874
6.3586 0.6457 2.3874
6.3250 0.8679 2.3874
6.2823 1.0883 2.3874
6.2308 1.3066 2.3874
6.1704 1.5223 2.3874
6.1014 1.7352 2.3874
6.0239 1.9447 2.3874
5.9381 2.1505 2.3874
5.8443 2.3524 2.3874
5.7425 2.5500 2.3874
5.6332 2.7429 2.3874
5.5164 2.9308 2.3874
5.3926 3.1135 2.3874
5.2618 3.2907 2.3874
5.1246 3.4622 2.3874
4.9810 3.6276 2.3874
4.8315 3.7868 2.3874
4.6763 3.9395 2.3874
4.5158 4.0857 2.3874
4.3503 4.2250 2.3874
4.1800 4.3573 2.3874
4.0054 4.4826 2.3874
3.8268 4.6007 2.3874
3.6444 4.7114 2.3874
3.4587 4.8148 2.3874
3.2699 4.9107 2.3874
3.0784 4.9990 2.3874
2.8845 5.0798 2.3874
2.6885 5.1530 2.3874
0.9418 1.9733 0.9027
0.8704 2.0043 0.9068
0.7980 2.0326 0.9109
0.7245 2.0584 0.9151
0.6502 2.0814 0.9193
0.5751 2.1018 0.9235
0.4992 2.1194 0.9278
0.4228 2.1343 0.9321
0.3459 2.1464 0.9363
0.2686 2.1558 0.9406
0.1910 2.1623 0.9449
0.1133 2.1660 0.9492
0.0354 2.1669 0.9534
-0.0424 2.1650 0.9577
-0.1202 2.1603 0.9619
-0.1977 2.1527 0.9661
-0.2749 2.1424 0.9703
-0.3517 2.1293 0.9744
-0.4279 2.1134 0.9785
-0.5035 2.0947 0.9825
-0.5784 2.0734 0.9865
-0.6525 2.0493 0.9904
-0.7257 2.0226 0.9942
-0.7979 1.9933 0.9980
-2.0709 4.6746 2.3874
-2.2294 4.5759 2.3874
-2.3838 4.4724 2.3874
-2.5342 4.3642 2.3874
-2.6803 4.2515 2.3874
-2.8221 4.1344 2.3874
-2.9594 4.0132 2.3874
-3.0923 3.8879 2.3874
-3.2205 3.7587 2.3874
-3.3440 3.6259 2.3874
-3.4628 3.4895 2.3874
-3.5767 3.3496 2.3874
-3.6857 3.2066 2.3874
-3.7897 3.0605 2.3874
-3.8886 2.9114 2.3874
-3.9824 2.7596 2.3874
-4.0711 2.6052 2.3874
-4.1546 2.4484 2.3874
-4.2328 2.2892 2.3874
-4.3057 2.1279 2.3874
-4.3732 1.9647 2.3874
-4.4354 1.7995 2.3874
-4.4922 1.6327 2.3874
-4.5435 1.4644 2.3874
-4.5893 1.2947 2.3874
-4.6297 1.1238 2.3874
-4.6645 0.9518 2.3874
-4.6938 0.7788 2.3874
-4.7175 0.6051 2.3874
-4.7357 0.4308 2.3874
-4.7482 0.2560 2.3874
-4.7552 0.0808 2.3874
-4.7566 -0.0945 2.3874
-4.7523 -0.2698 2.3874
-4.7424 -0.4450 2.3874
-4.7270 -0.6199 2.3874
-4.7059 -0.7944 2.3874
-4.6792 -0.9682 2.3874
-4.6468 -1.1414 2.3874
-4.6089 -1.3137 2.3874
-4.5654 -1.4849 2.3874
-4.5164 -1.6549 2.3874
-4.4618 -1.8235 2.3874
-4.4017 -1.9906 2.3874
-4.3360 -2.1561 2.3874
-4.2649 -2.3197 2.3874
-4.1884 -2.4812 2.3874
-4.1064 -2.6406 2.3874
-4.0191 -2.7977 2.3874
-3.9264 -2.9523 2.3874
-3.8285 -3.1042 2.3874
-3.7253 -3.2533 2.3874
-3.6171 -3.3991 2.3874
-3.5035 -3.5423 2.3874
-3.3851 -3.6819 2.3874
-3.2616 -3.8179 2.3874
-3.1332 -3.9503 2.3874
-3.0001 -4.0788 2.3874
-2.8622 -4.2033 2.3874
-2.7196 -4.3236 2.3874
-2.5725 -4.4395 2.3874
-2.4211 -4.5508 2.3874
-2.2653 -4.6574 2.3874
-2.1053 -4.7591 2.3874
-1.9413 -4.8558 2.3874
-1.7733 -4.9472 2.3874
-1.6016 -5.0331 2.3874
-1.4263 -5.1135 2.3874
-1.2475 -5.1882 2.3874
-1.0654 -5.2569 2.3874
-0.8802 -5.3195 2.3874
-0.6921 -5.3759 2.3874
-0.5012 -5.4260 2.3874
-0.3079 -5.4694 2.3874
-0.1122 -5.5062 2.3874
0.0855 -5.5362 2.3874
0.2851 -5.5593 2.3874
0.4863 -5.5752 2.3874
0.6889 -5.5840 2.3874
0.8925 -5.5854 2.3874
1.0970 -5.5795 2.3874
1.3020 -5.5660 2.3874
1.5073 -5.5450 2.3874
1.7126 -5.5163 2.3874
1.9175 -5.4800 2.3874
2.1218 -5.4358 2.3874
2.3251 -5.3839 2.3874
2.5272 -5.3241 2.3874
2.7277 -5.2565 2.3874
2.9262 -5.1811 2.3874
3.1225 -5.0979 2.3874
3.3162 -5.0069 2.3874
3.5069 -4.9083 2.3874
3.6943 -4.8019 2.3874
3.8781 -4.6881 2.3874
4.0579 -4.5668 2.3874
4.2334 -4.4382 2.3874
4.4043 -4.3024 2.3874
4.5702 -4.1595 2.3874
4.7307 -4.0098 2.3874
4.8856 -3.8535 2.3874
5.0345 -3.6907 2.3874
5.1772 -3.5217 2.3874
5.3132 -3.3468 2.3874
5.4424 -3.1661 2.3874
5.5645 -2.9800 2.3874
5.6791 -2.7888 2.3874
5.7861 -2.5928 2.3874
5.8852 -2.3923 2.3874
5.9762 -2.1876 2.3874
6.0588 -1.9792 2.3874
6.1330 -1.7673 2.3874
6.1984 -1.5524 2.3874
6.2551 -1.3348 2.3874
6.3028 -1.1149 2.3874
6.3415 -0.8932 2.3874
6.3710 -0.6700 2.3874
6.3913 -0.4457 2.3874
6.4024 -0.2208 2.3874
6.4043 0.0044 2.3874
6.3969 0.2294 2.3874
6.3802 0.4538 2.3874
6.3544 0.6771 2.3874
6.3195 0.8991 2.3874
6.2756 1.1192 2.3874
6.2228 1.3372 2.3874
6.1612 1.5525 2.3874
6.0910 1.7649 2.3874
6.0123 1.9739 2.3874
5.9254 2.1792 2.3874
5.8304 2.3805 2.3874
5.7276 2.5775 2.3874
5.6172 2.7697 2.3874
5.4994 2.9569 2.3874
5.3745 3.1389 2.3874
5.2429 3.3153 2.3874
5.1047 3.4859 2.3874
4.9603 3.6504 2.3874
4.8100 3.8087 2.3874
4.6540 3.9605 2.3874
4.4928 4.1057 2.3874
4.3265 4.2441 2.3874
4.1557 4.3754 2.3874
3.9805 4.4997 2.3874
3.8013 4.6167 2.3874
3.6184 4.7265 2.3874
3.4322 4.8288 2.3874
3.2431 4.9236 2.3874
3.0512 5.0109 2.3874
2.8570 5.0906 2.3874
2.6608 5.1627 2.3874
0.9318 1.9778 0.9033
0.8603 2.0084 0.9074
0.7877 2.0364 0.9115
0.7141 2.0618 0.9157
0.6396 2.0845 0.9199
0.5644 2.1044 0.9241
0.4885 2.1217 0.9284
0.4120 2.1362 0.9327
0.3351 2.1479 0.9369
0.2577 2.1568 0.9412
0.1801 2.1630 0.9455
0.1023 2.1663 0.9498
0.0244 2.1668 0.9540
-0.0534 2.1645 0.9583
-0.1311 2.1594 0.9625
-0.2086 2.1514 0.9667
-0.2857 2.1407 0.9708
-0.3624 2.1272 0.9750
-0.4386 2.1109 0.9790
-0.5141 2.0919 0.9830
-0.5889 2.0701 0.9870
-0.6629 2.0457 0.9909
-0.7359 2.0186 0.9947
-0.8079 1.9889 0.9985
-2.0935 4.6610 2.3874
-2.2514 4.5616 2.3874
-2.4053 4.4574 2.3874
-2.5550 4.3486 2.3874
-2.7005 4.2353 2.3874
-2.8417 4.1176 2.3874
-2.9784 3.9958 2.3874
-3.1106 3.8699 2.3874
-3.2382 3.7402 2.3874
-3.3611 3.6069 2.3874
-3.4791 3.4700 2.3874
-3.5924 3.3297 2.3874
-3.7006 3.1862 2.3874
-3.8039 3.0397 2.3874
-3.9021 2.8902 2.3874
-3.9952 2.7380 2.3874
-4.0832 2.5833 2.3874
-4.1659 2.4261 2.3874
-4.2434 2.2666 2.3874
-4.3155 2.1050 2.3874
-4.3823 1.9415 2.3874
-4.4437 1.7761 2.3874
-4.4997 1.6091 2.3874
-4.5503 1.4406 2.3874
-4.5953 1.2707 2.3874
-4.6349 1.0996 2.3874
-4.6690 0.9274 2.3874
-4.6975 0.7544 2.3874
-2.3684 4.1393 2.3874
-2.5076 4.0341 2.3874
-2.6427 3.9247 2.3874
-2.7737 3.8112 2.3874
-2.9004 3.6939 2.3874
-3.0229 3.5728 2.3874
-3.1409 3.4481 2.3874
-3.2544 3.3200 2.3874
-3.3633 3.1886 2.3874
-3.4676 3.0540 2.3874
-3.5671 2.9165 2.3874
-3.6619 2.7761 2.3874
-3.7519 2.6331 2.3874
-3.8369 2.4874 2.3874
-3.9171 2.3395 2.3874
-3.9922 2.1892 2.3874
-4.0623 2.0369 2.3874
-4.1274 1.8826 2.3874
-4.1873 1.7266 2.3874
-4.2420 1.5689 2.3874
-4.2916 1.4096 2.3874
-4.3360 1.2491 2.3874
-4.3752 1.0873 2.3874
-4.4090 0.9245 2.3874
-4.4377 0.7607 2.3874
-4.4610 0.5962 2.3874
-4.4789 0.4311 2.3874
-4.4916 0.2655 2.3874
-4.4989 0.0996 2.3874
-4.5010 -0.0664 2.3874
-4.4975 -0.2327 2.3874
-4.4888 -0.3988 2.3874
-4.4747 -0.5645 2.3874
-4.4553 -0.7299 2.3874
-4.4305 -0.8947 2.3874
-4.4004 -1.0588 2.3874
-4.3649 -1.2221 2.3874
-4.3241 -1.3843 2.3874
-4.2781 -1.5454 2.3874
-4.2267 -1.7052 2.3874
-4.1701 -1.8635 2.3874
-4.1082 -2.0202 2.3874
-4.0412 -2.1751 2.3874
-3.9689 -2.3281 2.3874
-3.8916 -2.4789 2.3874
-3.8091 -2.6278 2.3874
-3.7216 -2.7740 2.3874
-3.6291 -2.9177 2.3874
-3.5316 -3.0587 2.3874
-3.4292 -3.1968 2.3874
-3.3220 -3.3319 2.3874
-3.2101 -3.4638 2.3874
-3.0934 -3.5923 2.3874
-2.9721 -3.7173 2.3874
-2.8463 -3.8385 2.3874
-2.7160 -3.9560 2.3874
-2.5814 -4.0694 2.3874
-2.4426 -4.1786 2.3874
-2.2995 -4.2835 2.3874
-2.1525 -4.3839 2.3874
-2.0015 -4.4796 2.3874
-1.8468 -4.5705 2.3874
-1.6884 -4.6564 2.3874
-1.5265 -4.7371 2.3874
-1.3612 -4.8125 2.3874
-1.1927 -4.8825 2.3874
-1.0212 -4.9469 2.3874
-0.8468 -5.0055 2.3874
-0.6697 -5.0582 2.3874
-0.4900 -5.1048 2.3874
-0.3081 -5.1453 2.3874
-0.1241 -5.1796 2.3874
0.0618 -5.2073 2.3874
0.2494 -5.2285 2.3874
0.4384 -5.2431 2.3874
0.6286 -5.2509 2.3874
0.8198 -5.2518 2.3874
1.0117 -5.2458 2.3874
1.2041 -5.2328 2.3874
1.3966 -5.2126 2.3874
1.5890 -5.1853 2.3874
1.7811 -5.1508 2.3874
1.9725 -5.1090 2.3874
2.1630 -5.0599 2.3874
2.3522 -5.0036 2.3874
2.5399 -4.9399 2.3874
2.7257 -4.8690 2.3874
2.9094 -4.7908 2.3874
3.0905 -4.7054 2.3874
3.2689 -4.6128 2.3874
3.4442 -4.5131 2.3874
3.6160 -4.4064 2.3874
3.7842 -4.2928 2.3874
3.9483 -4.1725 2.3874
4.1080 -4.0454 2.3874
4.2630 -3.9118 2.3874
4.4131 -3.7719 2.3874
4.5579 -3.6258 2.3874
4.6972 -3.4738 2.3874
4.8306 -3.3160 2.3874
4.9579 -3.1527 2.3874
5.0789 -2.9840 2.3874
5.1932 -2.8104 2.3874
5.3006 -2.6320 2.3874
5.4010 -2.4492 2.3874
5.4940 -2.2621 2.3874
5.5795 -2.0713 2.3874
5.6573 -1.8769 2.3874
5.7272 -1.6793 2.3874
5.7891 -1.4788 2.3874
5.8429 -1.2759 2.3874
5.8884 -1.0708 2.3874
5.9255 -0.8639 2.3874
5.9541 -0.6556 2.3874
5.9743 -0.4463 2.3874
5.9859 -0.2364 2.3874
5.9889 -0.0261 2.3874
5.9834 0.1840 2.3874
5.9693 0.3936 2.3874
5.9467 0.6024 2.3874
5.9157 0.8100 2.3874
5.8763 1.0159 2.3874
5.8286 1.2199 2.3874
5.7728 1.4216 2.3874
5.7089 1.6205 2.3874
5.6372 1.8165 2.3874
5.5577 2.0091 2.3874
5.4708 2.1981 2.3874
5.3765 2.3831 2.3874
5.2751 2.5639 2.3874
5.1668 2.7400 2.3874
5.0519 2.9114 2.3874
4.9305 3.0777 2.3874
4.8030 3.2387 2.3874
4.6696 3.3942 2.3874
4.5306 3.5439 2.3874
4.3863 3.6877 2.3874
4.2370 3.8254 2.3874
4.0829 3.9567 2.3874
3.9243 4.0817 2.3874
3.7616 4.2001 2.3874
3.5950 4.3118 2.3874
3.4249 4.4167 2.3874
3.2516 4.5147 2.3874
3.0753 4.6059 2.3874
2.8964 4.6900 2.3874
2.7151 4.7670 2.3874
0.9556 1.8257 0.9011
0.8895 1.8573 0.9049
0.8223 1.8864 0.9088
0.7541 1.9131 0.9126
0.6850 1.9373 0.9166
0.6150 1.9590 0.9205
0.5443 1.9781 0.9245
0.4729 1.9947 0.9285
0.4010 2.0087 0.9325
0.3286 2.0201 0.9365
0.2559 2.0289 0.9406
0.1828 2.0350 0.9446
0.1096 2.0385 0.9486
0.0363 2.0394 0.9526
-0.0370 2.0376 0.9566
-0.1101 2.0331 0.9606
-0.1831 2.0260 0.9646
-0.2557 2.0163 0.9685
-0.3280 2.0039 0.9724
-0.3998 1.9890 0.9762
-0.4709 1.9714 0.9800
-0.5415 1.9513 0.9837
-0.6112 1.9287 0.9874
-0.6801 1.9036 0.9910
-0.7480 1.8760 0.9946
-0.8149 1.8459 0.9980
-2.0993 4.3232 2.3874
-2.2457 4.2262 2.3874
-2.3883 4.1247 2.3874
-2.5269 4.0189 2.3874
-2.6614 3.9089 2.3874
-2.7918 3.7949 2.3874
-2.9180 3.6771 2.3874
-3.0398 3.5555 2.3874
-3.1571 3.4303 2.3874
-3.2700 3.3017 2.3874
-3.3783 3.1698 2.3874
-3.4819 3.0348 2.3874
-3.5808 2.8969 2.3874
-3.6749 2.7561 2.3874
-3.7642 2.6127 2.3874
-3.8485 2.4667 2.3874
-3.9280 2.3184 2.3874
-4.0024 2.1679 2.3874
-4.0718 2.0153 2.3874
-4.1361 1.8607 2.3874
-4.1953 1.7044 2.3874
-4.2493 1.5465 2.3874
-4.2982 1.3871 2.3874
-4.3419 1.2263 2.3874
-4.3803 1.0644 2.3874
-4.4134 0.9015 2.3874
-4.4413 0.7376 2.3874
-4.4638 0.5730 2.3874
-4.4811 0.4078 2.3874
-4.4930 0.2421 2.3874
-4.4996 0.0763 2.3874
-4.5008 -0.0900 2.3874
-4.4966 -0.2561 2.3874
-4.4872 -0.4221 2.3874
-4.4723 -0.5879 2.3874
-4.4521 -0.7532 2.3874
-4.4266 -0.9179 2.3874
-4.3957 -1.0819 2.3874
-4.3595 -1.2450 2.3874
-4.3180 -1.4071 2.3874
-4.2711 -1.5680 2.3874
-4.2190 -1.7276 2.3874
-4.1617 -1.8857 2.3874
-4.0991 -2.0421 2.3874
-4.0313 -2.1968 2.3874
-3.9583 -2.3498 2.3874
-3.8802 -2.5003 2.3874
-3.7971 -2.6485 2.3874
-3.7088 -2.7944 2.3874
-3.6156 -2.9377 2.3874
-3.5175 -3.0783 2.3874
-3.4144 -3.2160 2.3874
-3.3065 -3.3507 2.3874
-3.1939 -3.4821 2.3874
-3.0766 -3.6101 2.3874
-2.9547 -3.7346 2.3874
-2.8282 -3.8553 2.3874
-2.6973 -3.9722 2.3874
-2.5621 -4.0851 2.3874
-2.4227 -4.1937 2.3874
-2.2791 -4.2979 2.3874
-2.1315 -4.3977 2.3874
-1.9799 -4.4927 2.3874
-1.8247 -4.5829 2.3874
-1.6658 -4.6680 2.3874
-1.5034 -4.7480 2.3874
-1.3376 -4.8227 2.3874
-1.1687 -4.8919 2.3874
-0.9967 -4.9555 2.3874
-0.8219 -5.0133 2.3874
-0.6445 -5.0651 2.3874
-0.4645 -5.1109 2.3874
-0.2823 -5.1506 2.3874
-0.0980 -5.1839 2.3874
0.0881 -5.2107 2.3874
0.2759 -5.2310 2.3874
0.4651 -5.2446 2.3874
0.6555 -5.2514 2.3874
0.8468 -5.2514 2.3874
1.0388 -5.2444 2.3874
1.2312 -5.2303 2.3874
1.4237 -5.2092 2.3874
1.6162 -5.1809 2.3874
1.8081 -5.1453 2.3874
1.9994 -5.1025 2.3874
2.1898 -5.0524 2.3874
2.3788 -4.9950 2.3874
2.5662 -4.9304 2.3874
2.7517 -4.8584 2.3874
2.9350 -4.7792 2.3874
3.1158 -4.6928 2.3874
3.2938 -4.5992 2.3874
3.4686 -4.4985 2.3874
3.6400 -4.3908 2.3874
3.8076 -4.2763 2.3874
3.9710 -4.1549 2.3874
4.1301 -4.0270 2.3874
4.2845 -3.8925 2.3874
4.4338 -3.7517 2.3874
4.5779 -3.6048 2.3874
4.7164 -3.4519 2.3874
4.8489 -3.2933 2.3874
4.9754 -3.1292 2.3874
5.0954 -2.9599 2.3874
5.2087 -2.7855 2.3874
5.3152 -2.6065 2.3874
5.4145 -2.4230 2.3874
5.5065 -2.2355 2.3874
5.5909 -2.0441 2.3874
5.6676 -1.8492 2.3874
5.7364 -1.6512 2.3874
5.7972 -1.4504 2.3874
5.8498 -1.2471 2.3874
5.8941 -1.0417 2.3874
5.9300 -0.8346 2.3874
5.9575 -0.6262 2.3874
5.9764 -0.4167 2.3874
5.9868 -0.2067 2.3874
5.9886 0.0035 2.3874
5.9819 0.2136 2.3874
5.9666 0.4232 2.3874
5.9428 0.6318 2.3874
5.9106 0.8391 2.3874
5.8700 1.0448 2.3874
5.8212 1.2485 2.3874
5.7642 1.4498 2.3874
5.6993 1.6484 2.3874
5.6264 1.8439 2.3874
5.5459 2.0360 2.3874
5.4579 2.2244 2.3874
5.3626 2.4089 2.3874
5.2602 2.5890 2.3874
5.1510 2.7645 2.3874
5.0351 2.9352 2.3874
4.9129 3.1008 2.3874
4.7846 3.2610 2.3874
4.6504 3.4157 2.3874
4.5106 3.5646 2.3874
4.3656 3.7075 2.3874
4.2155 3.8443 2.3874
4.0608 3.9747 2.3874
3.9016 4.0988 2.3874
3.7383 4.2162 2.3874
3.5713 4.3270 2.3874
3.4007 4.4309 2.3874
3.2269 4.5280 2.3874
3.0502 4.6181 2.3874
2.8710 4.7013 2.3874
2.6894 4.7773 2.3874
0.9464 1.8303 0.9016
0.8801 1.8615 0.9054
0.8128 1.8903 0.9093
0.7444 1.9166 0.9132
0.6752 1.9405 0.9171
0.6051 1.9618 0.9211
0.5343 1.9806 0.9251
0.4628 1.9969 0.9291
0.3908 2.0105 0.9331
0.3184 2.0215 0.9371
0.2456 2.0299 0.9411
0.1725 2.0357 0.9452
0.0993 2.0388 0.9492
0.0260 2.0393 0.9532
-0.0473 2.0371 0.9572
-0.1204 2.0323 0.9612
-0.1933 2.0248 0.9651
-0.2659 2.0147 0.9690
-0.3381 2.0020 0.9729
-0.4098 1.9867 0.9767
-0.4809 1.9688 0.9805
-0.5513 1.9483 0.9842
-0.6210 1.9253 0.9879
-0.6897 1.8998 0.9915
-0.7575 1.8719 0.9951
-0.8242 1.8415 0.9985
-2.1202 4.3098 2.3874
-2.2661 4.2121 2.3874
-2.4081 4.1101 2.3874
-2.5461 4.0037 2.3874
-2.6801 3.8931 2.3874
-2.8099 3.7786 2.3874
-2.9354 3.6601 2.3874
-3.0566 3.5380 2.3874
-3.1733 3.4124 2.3874
-3.2855 3.2833 2.3874
-3.3931 3.1510 2.3874
-3.4961 3.0156 2.3874
-3.5943 2.8772 2.3874
-3.6878 2.7361 2.3874
-3.7764 2.5923 2.3874
-3.8600 2.4460 2.3874
-3.9388 2.2973 2.3874
-4.0125 2.1465 2.3874
-4.0812 1.9936 2.3874
-4.1448 1.8388 2.3874
-4.2032 1.6823 2.3874
-4.2566 1.5241 2.3874
-4.3047 1.3645 2.3874
-4.3476 1.2036 2.3874
-4.3852 1.0415 2.3874
-4.4176 0.8784 2.3874
-4.4448 0.7144 2.3874
-2.2361 3.9195 2.3874
-2.3683 3.8205 2.3874
-2.4967 3.7175 2.3874
-2.6212 3.6106 2.3874
-2.7418 3.5000 2.3874
-2.8582 3.3857 2.3874
-2.9705 3.2680 2.3874
-3.0785 3.1470 2.3874
-3.1822 3.0228 2.3874
-3.2814 2.8956 2.3874
-3.3763 2.7655 2.3874
-3.4666 2.6326 2.3874
-3.5523 2.4972 2.3874
-3.6333 2.3593 2.3874
-3.7097 2.2191 2.3874
-3.7813 2.0767 2.3874
-3.8481 1.9324 2.3874
-3.9101 1.7861 2.3874
-3.9672 1.6381 2.3874
-4.0195 1.4885 2.3874
-4.0667 1.3375 2.3874
-4.1090 1.1851 2.3874
-4.1463 1.0316 2.3874
-4.1786 0.8771 2.3874
-4.2059 0.7217 2.3874
-4.2281 0.5655 2.3874
-4.2452 0.4088 2.3874
-4.2572 0.2516 2.3874
-4.2641 0.0941 2.3874
-4.2660 -0.0636 2.3874
-4.2627 -0.2214 2.3874
-4.2543 -0.3790 2.3874
-4.2408 -0.5363 2.3874
-4.2221 -0.6932 2.3874
-4.1984 -0.8496 2.3874
-4.1696 -1.0053 2.3874
-4.1357 -1.1602 2.3874
-4.0967 -1.3141 2.3874
-4.0527 -1.4668 2.3874
-4.0036 -1.6183 2.3874
-3.9495 -1.7684 2.3874
-3.8905 -1.9169 2.3874
-3.8265 -2.0636 2.3874
-3.7575 -2.2085 2.3874
-3.6837 -2.3514 2.3874
-3.6051 -2.4921 2.3874
-3.5217 -2.6304 2.3874
-3.4335 -2.7663 2.3874
-3.3406 -2.8996 2.3874
-3.2431 -3.0301 2.3874
-3.1410 -3.1576 2.3874
-3.0344 -3.2821 2.3874
-2.9234 -3.4033 2.3874
-2.8080 -3.5211 2.3874
-2.6884 -3.6353 2.3874
-2.5646 -3.7459 2.3874
-2.4367 -3.8525 2.3874
-2.3047 -3.9552 2.3874
-2.1690 -4.0537 2.3874
-2.0294 -4.1479 2.3874
-1.8862 -4.2375 2.3874
-1.7394 -4.3226 2.3874
-1.5892 -4.4029 2.3874
-1.4358 -4.4783 2.3874
-1.2793 -4.5486 2.3874
-1.1198 -4.6137 2.3874
-0.9575 -4.6735 2.3874
-0.7925 -4.7278 2.3874
-0.6251 -4.7764 2.3874
-0.4553 -4.8194 2.3874
-0.2835 -4.8565 2.3874
-0.1098 -4.8876 2.3874
0.0656 -4.9126 2.3874
0.2425 -4.9314 2.3874
0.4207 -4.9440 2.3874
0.6000 -4.9501 2.3874
0.7800 -4.9498 2.3874
0.9607 -4.9429 2.3874
1.1417 -4.9294 2.3874
1.3227 -4.9092 2.3874
1.5036 -4.8823 2.3874
1.6841 -4.8487 2.3874
1.8638 -4.8082 2.3874
2.0426 -4.7609 2.3874
2.2201 -4.7068 2.3874
2.3961 -4.6458 2.3874
2.5703 -4.5781 2.3874
2.7424 -4.5035 2.3874
2.9120 -4.4223 2.3874
3.0790 -4.3343 2.3874
3.2430 -4.2398 2.3874
3.4038 -4.1387 2.3874
3.5610 -4.0312 2.3874
3.7143 -3.9174 2.3874
3.8635 -3.7974 2.3874
4.0083 -3.6713 2.3874
4.1485 -3.5394 2.3874
4.2836 -3.4018 2.3874
4.4136 -3.2586 2.3874
4.5380 -3.1101 2.3874
4.6567 -2.9566 2.3874
4.7695 -2.7981 2.3874
4.8760 -2.6349 2.3874
4.9762 -2.4674 2.3874
5.0696 -2.2958 2.3874
5.1563 -2.1203 2.3874
5.2360 -1.9413 2.3874
5.3084 -1.7590 2.3874
5.3736 -1.5737 2.3874
5.4313 -1.3859 2.3874
5.4813 -1.1957 2.3874
5.5237 -1.0035 2.3874
5.5583 -0.8097 2.3874
5.5851 -0.6147 2.3874
5.6039 -0.4186 2.3874
5.6148 -0.2219 2.3874
5.6177 -0.0250 2.3874
5.6127 0.1718 2.3874
5.5997 0.3682 2.3874
5.5788 0.5638 2.3874
5.5500 0.7582 2.3874
5.5135 0.9512 2.3874
5.4692 1.1424 2.3874
5.4174 1.3315 2.3874
5.3580 1.5181 2.3874
5.2914 1.7019 2.3874
5.2175 1.8827 2.3874
5.1367 2.0601 2.3874
5.0489 2.2338 2.3874
4.9546 2.4036 2.3874
4.8537 2.5692 2.3874
4.7467 2.7304 2.3874
4.6336 2.8869 2.3874
4.5148 3.0384 2.3874
4.3904 3.1849 2.3874
4.2607 3.3260 2.3874
4.1260 3.4617 2.3874
3.9866 3.5917 2.3874
3.8426 3.7158 2.3874
3.6945 3.8340 2.3874
3.5424 3.9460 2.3874
3.3866 4.0519 2.3874
3.2274 4.1514 2.3874
3.0651 4.2446 2.3874
2.9000 4.3313 2.3874
2.7324 4.4114 2.3874
0.9657 1.6903 0.8998
0.9045 1.7223 0.9033
0.8421 1.7520 0.9069
0.7787 1.7795 0.9105
0.7143 1.8047 0.9142
0.6491 1.8275 0.9179
0.5831 1.8480 0.9216
0.5164 1.8660 0.9254
0.4490 1.8817 0.9291
0.3812 1.8949 0.9329
0.3129 1.9056 0.9367
0.2443 1.9139 0.9405
0.1754 1.9197 0.9443
0.1063 1.9230 0.9481
0.0372 1.9238 0.9519
-0.0320 1.9221 0.9557
-0.1010 1.9178 0.9594
-0.1698 1.9111 0.9632
-0.2384 1.9020 0.9668
-0.3065 1.8903 0.9705
-0.3743 1.8762 0.9741
-0.4414 1.8597 0.9777
-0.5079 1.8407 0.9812
-0.5737 1.8194 0.9847
-0.6387 1.7956 0.9881
-0.7028 1.7696 0.9915
-0.7659 1.7412 0.9947
-0.8279 1.7106 0.9980
-2.1195 4.0012 2.3874
-2.2549 3.9058 2.3874
-2.3866 3.8062 2.3874
-2.5145 3.7027 2.3874
-2.6385 3.5952 2.3874
-2.7584 3.4841 2.3874
-2.8743 3.3694 2.3874
-2.9859 3.2512 2.3874
-3.0934 3.1297 2.3874
-3.1964 3.0051 2.3874
-3.2951 2.8774 2.3874
-3.3893 2.7469 2.3874
-3.4789 2.6137 2.3874
-3.5640 2.4779 2.3874
-3.6444 2.3397 2.3874
-3.7201 2.1992 2.3874
-3.7910 2.0565 2.3874
-3.8572 1.9119 2.3874
-3.9185 1.7653 2.3874
-3.9749 1.6171 2.3874
-4.0264 1.4673 2.3874
-4.0730 1.3161 2.3874
-4.1146 1.1636 2.3874
-4.1512 1.0099 2.3874
-4.1828 0.8552 2.3874
-4.2093 0.6997 2.3874
-4.2308 0.5435 2.3874
-4.2472 0.3866 2.3874
-4.2585 0.2294 2.3874
-4.2647 0.0718 2.3874
-4.2658 -0.0859 2.3874
-4.2618 -0.2436 2.3874
-4.2527 -0.4012 2.3874
-4.2385 -0.5584 2.3874
-4.2191 -0.7153 2.3874
-4.1947 -0.8716 2.3874
-4.1651 -1.0272 2.3874
-4.1305 -1.1819 2.3874
-4.0908 -1.3357 2.3874
-4.0461 -1.4883 2.3874
-3.9963 -1.6395 2.3874
-3.9415 -1.7894 2.3874
-3.8818 -1.9376 2.3874
-3.8171 -2.0841 2.3874
-3.7474 -2.2288 2.3874
-3.6729 -2.3713 2.3874
-3.5936 -2.5117 2.3874
-3.5095 -2.6497 2.3874
-3.4207 -2.7853 2.3874
-3.3271 -2.9182 2.3874
-3.2290 -3.0482 2.3874
-3.1263 -3.1753 2.3874
-3.0190 -3.2993 2.3874
-2.9074 -3.4201 2.3874
-2.7914 -3.5374 2.3874
-2.6712 -3.6511 2.3874
-2.5468 -3.7611 2.3874
-2.4183 -3.8673 2.3874
-2.2858 -3.9693 2.3874
-2.1495 -4.0672 2.3874
-2.0094 -4.1608 2.3874
-1.8657 -4.2498 2.3874
-1.7184 -4.3342 2.3874
-1.5678 -4.4138 2.3874
-1.4139 -4.4885 2.3874
-1.2570 -4.5581 2.3874
-1.0971 -4.6224 2.3874
-0.9344 -4.6815 2.3874
-0.7690 -4.7350 2.3874
-0.6013 -4.7828 2.3874
-0.4313 -4.8250 2.3874
-0.2591 -4.8612 2.3874
-0.0852 -4.8915 2.3874
0.0905 -4.9156 2.3874
0.2676 -4.9336 2.3874
0.4459 -4.9452 2.3874
0.6253 -4.9505 2.3874
0.8055 -4.9492 2.3874
0.9862 -4.9414 2.3874
1.1672 -4.9270 2.3874
1.3482 -4.9059 2.3874
1.5291 -4.8780 2.3874
1.7095 -4.8434 2.3874
1.8891 -4.8019 2.3874
2.0677 -4.7537 2.3874
2.2450 -4.6986 2.3874
2.4208 -4.6367 2.3874
2.5947 -4.5680 2.3874
2.7664 -4.4925 2.3874
2.9357 -4.4103 2.3874
3.1023 -4.3214 2.3874
3.2659 -4.2259 2.3874
3.4262 -4.1239 2.3874
3.5828 -4.0155 2.3874
3.7356 -3.9008 2.3874
3.8842 -3.7800 2.3874
4.0284 -3.6531 2.3874
4.1678 -3.5204 2.3874
4.3023 -3.3820 2.3874
4.4314 -3.2380 2.3874
4.5551 -3.0888 2.3874
4.6730 -2.9345 2.3874
4.7849 -2.7754 2.3874
4.8905 -2.6116 2.3874
4.9897 -2.4435 2.3874
5.0823 -2.2713 2.3874
5.1680 -2.0953 2.3874
5.2466 -1.9158 2.3874
5.3181 -1.7330 2.3874
5.3822 -1.5474 2.3874
5.4388 -1.3592 2.3874
5.4878 -1.1687 2.3874
5.5291 -0.9763 2.3874
5.5626 -0.7823 2.3874
5.5882 -0.5871 2.3874
5.6059 -0.3909 2.3874
5.6157 -0.1942 2.3874
5.6175 0.0027 2.3874
5.6113 0.1995 2.3874
5.5972 0.3958 2.3874
5.5752 0.5913 2.3874
5.5453 0.7855 2.3874
5.5077 0.9783 2.3874
5.4624 1.1692 2.3874
5.4095 1.3579 2.3874
5.3491 1.5442 2.3874
5.2814 1.7276 2.3874
5.2066 1.9079 2.3874
5.1247 2.0848 2.3874
5.0360 2.2580 2.3874
4.9407 2.4272 2.3874
4.8390 2.5922 2.3874
4.7311 2.7527 2.3874
4.6172 2.9085 2.3874
4.4976 3.0594 2.3874
4.3724 3.2051 2.3874
4.2420 3.3455 2.3874
4.1067 3.4804 2.3874
3.9666 3.6095 2.3874
3.8220 3.7328 2.3874
3.6733 3.8501 2.3874
3.5206 3.9613 2.3874
3.3644 4.0663 2.3874
3.2047 4.1650 2.3874
3.0420 4.2572 2.3874
2.8765 4.3430 2.3874
2.7085 4.4222 2.3874
0.9572 1.6949 0.9003
0.8958 1.7266 0.9038
0.8332 1.7560 0.9074
0.7697 1.7832 0.9110
0.7052 1.8080 0.9147
0.6399 1.8305 0.9184
0.5737 1.8507 0.9221
0.5069 1.8684 0.9259
0.4395 1.8837 0.9297
0.3716 1.8965 0.9335
0.3032 1.9069 0.9373
0.2346 1.9149 0.9411
0.1656 1.9203 0.9449
0.0966 1.9232 0.9487
0.0274 1.9237 0.9524
-0.0417 1.9216 0.9562
-0.1107 1.9170 0.9600
-0.1795 1.9100 0.9637
-0.2480 1.9005 0.9674
-0.3161 1.8885 0.9710
-0.3838 1.8740 0.9746
-0.4508 1.8571 0.9782
-0.5172 1.8378 0.9817
-0.5829 1.8161 0.9852
-0.6478 1.7921 0.9886
-0.7117 1.7657 0.9919
-0.7747 1.7371 0.9952
-0.8366 1.7061 0.9984
-2.1389 3.9880 2.3874
-2.2737 3.8920 2.3874
-2.4049 3.7919 2.3874
-2.5322 3.6878 2.3874
-2.6556 3.5798 2.3874
-2.7750 3.4681 2.3874
-2.8903 3.3529 2.3874
-3.0013 3.2342 2.3874
-3.1081 3.1123 2.3874
-3.2106 2.9872 2.3874
-3.3086 2.8592 2.3874
-3.4022 2.7283 2.3874
-3.4912 2.5947 2.3874
-3.5756 2.4586 2.3874
-3.6553 2.3200 2.3874
-3.7304 2.1792 2.3874
-3.8006 2.0362 2.3874
-3.8661 1.8913 2.3874
-3.9267 1.7445 2.3874
-3.9825 1.5961 2.3874
-4.0333 1.4461 2.3874
-4.0792 1.2947 2.3874
-4.1201 1.1420 2.3874
-4.1560 0.9882 2.3874
-4.1868 0.8334 2.3874
-4.2126 0.6777 2.3874
-2.1145 3.7176 2.3874
-2.2403 3.6243 2.3874
-2.3625 3.5271 2.3874
-2.4811 3.4262 2.3874
-2.5958 3.3216 2.3874
-2.7067 3.2136 2.3874
-2.8137 3.1023 2.3874
-2.9166 2.9878 2.3874
-3.0154 2.8702 2.3874
-3.1101 2.7497 2.3874
-3.2005 2.6264 2.3874
-3.2866 2.5004 2.3874
-3.3684 2.3720 2.3874
-3.4457 2.2412 2.3874
-3.5185 2.1082 2.3874
-3.5869 1.9731 2.3874
-3.6506 1.8360 2.3874
-3.7098 1.6971 2.3874
-3.7643 1.5565 2.3874
-3.8142 1.4144 2.3874
-3.8593 1.2709 2.3874
-3.8997 1.1261 2.3874
-3.9353 0.9803 2.3874
-3.9661 0.8334 2.3874
-3.9920 0.6856 2.3874
-4.0132 0.5372 2.3874
-4.0295 0.3882 2.3874
-4.0409 0.2387 2.3874
-4.0475 0.0890 2.3874
-4.0492 -0.0609 2.3874
-4.0460 -0.2109 2.3874
-4.0379 -0.3607 2.3874
-4.0250 -0.5103 2.3874
-4.0071 -0.6594 2.3874
-3.9844 -0.8080 2.3874
-3.9568 -0.9560 2.3874
-3.9243 -1.1031 2.3874
-3.8870 -1.2493 2.3874
-3.8449 -1.3944 2.3874
-3.7980 -1.5382 2.3874
-3.7463 -1.6807 2.3874
-3.6899 -1.8216 2.3874
-3.6287 -1.9609 2.3874
-3.5629 -2.0983 2.3874
-3.4924 -2.2338 2.3874
-3.4173 -2.3672 2.3874
-3.3376 -2.4983 2.3874
-3.2535 -2.6270 2.3874
-3.1649 -2.7532 2.3874
-3.0719 -2.8767 2.3874
-2.9746 -2.9974 2.3874
-2.8730 -3.1151 2.3874
-2.7672 -3.2296 2.3874
-2.6573 -3.3409 2.3874
-2.5434 -3.4487 2.3874
-2.4255 -3.5530 2.3874
-2.3038 -3.6535 2.3874
-2.1783 -3.7503 2.3874
-2.0492 -3.8429 2.3874
-1.9165 -3.9315 2.3874
-1.7804 -4.0158 2.3874
-1.6411 -4.0956 2.3874
-1.4985 -4.1709 2.3874
-1.3529 -4.2414 2.3874
-1.2044 -4.3072 2.3874
-1.0531 -4.3679 2.3874
-0.8992 -4.4236 2.3874
-0.7429 -4.4740 2.3874
-0.5843 -4.5191 2.3874
-0.4237 -4.5588 2.3874
-0.2611 -4.5929 2.3874
-0.0967 -4.6213 2.3874
0.0691 -4.6440 2.3874
0.2363 -4.6607 2.3874
0.4047 -4.6716 2.3874
0.5739 -4.6763 2.3874
0.7439 -4.6750 2.3874
0.9143 -4.6675 2.3874
1.0850 -4.6537 2.3874
1.2556 -4.6336 2.3874
1.4261 -4.6072 2.3874
1.5960 -4.5744 2.3874
1.7652 -4.5353 2.3874
1.9334 -4.4897 2.3874
2.1004 -4.4377 2.3874
2.2659 -4.3793 2.3874
2.4295 -4.3146 2.3874
2.5912 -4.2435 2.3874
2.7505 -4.1661 2.3874
2.9072 -4.0824 2.3874
3.0611 -3.9926 2.3874
3.2119 -3.8967 2.3874
3.3593 -3.7948 2.3874
3.5030 -3.6870 2.3874
3.6428 -3.5735 2.3874
3.7785 -3.4543 2.3874
3.9097 -3.3297 2.3874
4.0362 -3.1997 2.3874
4.1578 -3.0646 2.3874
4.2743 -2.9246 2.3874
4.3853 -2.7798 2.3874
4.4908 -2.6305 2.3874
4.5904 -2.4769 2.3874
4.6840 -2.3192 2.3874
4.7714 -2.1577 2.3874
4.8524 -1.9927 2.3874
4.9268 -1.8243 2.3874
4.9946 -1.6529 2.3874
5.0554 -1.4788 2.3874
5.1093 -1.3023 2.3874
5.1562 -1.1236 2.3874
5.1958 -0.9431 2.3874
5.2282 -0.7610 2.3874
5.2532 -0.5778 2.3874
5.2708 -0.3937 2.3874
5.2811 -0.2090 2.3874
5.2839 -0.0240 2.3874
5.2793 0.1608 2.3874
5.2672 0.3453 2.3874
5.2478 0.5290 2.3874
5.2211 0.7117 2.3874
5.1870 0.8930 2.3874
5.1458 1.0727 2.3874
5.0975 1.2504 2.3874
5.0422 1.4258 2.3874
4.9800 1.5987 2.3874
4.9112 1.7688 2.3874
4.8357 1.9357 2.3874
4.7538 2.0992 2.3874
4.6657 2.2592 2.3874
4.5715 2.4152 2.3874
4.4715 2.5671 2.3874
4.3658 2.7147 2.3874
4.2547 2.8577 2.3874
4.1383 2.9960 2.3874
4.0170 3.1293 2.3874
3.8909 3.2575 2.3874
3.7603 3.3805 2.3874
3.6255 3.4980 2.3874
3.4866 3.6099 2.3874
3.3440 3.7162 2.3874
3.1979 3.8167 2.3874
3.0486 3.9112 2.3874
2.8962 3.9998 2.3874
2.7412 4.0824 2.3874
2.5836 4.1588 2.3874
0.9157 1.5977 0.9019
0.8578 1.6280 0.9053
0.7989 1.6561 0.9087
0.7389 1.6820 0.9121
0.6781 1.7058 0.9156
0.6164 1.7274 0.9191
0.5540 1.7467 0.9226
0.4909 1.7638 0.9262
0.4273 1.7786 0.9297
0.3631 1.7911 0.9333
0.2986 1.8012 0.9369
0.2337 1.8090 0.9405
0.1686 1.8145 0.9441
0.1033 1.8176 0.9477
0.0379 1.8183 0.9512
-0.0274 1.8167 0.9548
-0.0927 1.8127 0.9584
-0.1578 1.8064 0.9619
-0.2225 1.7977 0.9654
-0.2870 1.7867 0.9688
-0.3510 1.7734 0.9722
-0.4145 1.7577 0.9756
-0.4774 1.7398 0.9790
-0.5395 1.7196 0.9822
-0.6010 1.6972 0.9855
-0.6615 1.6726 0.9886
-0.7212 1.6458 0.9917
-0.7798 1.6169 0.9948
-0.8374 1.5859 0.9977
-2.1325 3.7047 2.3874
-2.2578 3.6109 2.3874
-2.3795 3.5131 2.3874
-2.4975 3.4117 2.3874
-2.6117 3.3066 2.3874
-2.7220 3.1981 2.3874
-2.8284 3.0863 2.3874
-2.9308 2.9714 2.3874
-3.0290 2.8534 2.3874
-3.1231 2.7325 2.3874
-3.2129 2.6088 2.3874
-3.2984 2.4825 2.3874
-3.3795 2.3537 2.3874
-3.4562 2.2226 2.3874
-3.5285 2.0893 2.3874
-3.5961 1.9539 2.3874
-3.6593 1.8165 2.3874
-3.7178 1.6774 2.3874
-3.7716 1.5366 2.3874
-3.8208 1.3943 2.3874
-3.8653 1.2506 2.3874
-3.9050 1.1057 2.3874
-3.9399 0.9596 2.3874
-3.9700 0.8126 2.3874
-3.9953 0.6648 2.3874
-4.0158 0.5162 2.3874
-4.0314 0.3671 2.3874
-4.0422 0.2176 2.3874
-4.0480 0.0679 2.3874
-4.0491 -0.0821 2.3874
-4.0452 -0.2320 2.3874
-4.0364 -0.3818 2.3874
-4.0227 -0.5313 2.3874
-4.0042 -0.6804 2.3874
-3.9808 -0.8289 2.3874
-3.9525 -0.9768 2.3874
-3.9194 -1.1238 2.3874
-3.8814 -1.2698 2.3874
-3.8386 -1.4148 2.3874
-3.7910 -1.5584 2.3874
-3.7386 -1.7007 2.3874
-3.6815 -1.8414 2.3874
-3.6197 -1.9804 2.3874
-3.5532 -2.1175 2.3874
-3.4821 -2.2527 2.3874
-3.4063 -2.3858 2.3874
-3.3261 -2.5166 2.3874
-3.2413 -2.6450 2.3874
-3.1521 -2.7708 2.3874
-3.0584 -2.8939 2.3874
-2.9605 -3.0141 2.3874
-2.8583 -3.1314 2.3874
-2.7520 -3.2455 2.3874
-2.6415 -3.3563 2.3874
-2.5270 -3.4636 2.3874
-2.4086 -3.5674 2.3874
-2.2863 -3.6674 2.3874
-2.1603 -3.7636 2.3874
-2.0307 -3.8557 2.3874
-1.8976 -3.9436 2.3874
-1.7610 -4.0273 2.3874
-1.6211 -4.1065 2.3874
-1.4781 -4.1811 2.3874
-1.3321 -4.2510 2.3874
-1.1832 -4.3160 2.3874
-1.0316 -4.3761 2.3874
-0.8773 -4.4310 2.3874
-0.7207 -4.4807 2.3874
-0.5618 -4.5251 2.3874
-0.4009 -4.5640 2.3874
-0.2380 -4.5973 2.3874
-0.0735 -4.6249 2.3874
0.0926 -4.6467 2.3874
0.2600 -4.6626 2.3874
0.4285 -4.6726 2.3874
0.5978 -4.6765 2.3874
0.7679 -4.6743 2.3874
0.9383 -4.6659 2.3874
1.1090 -4.6512 2.3874
1.2797 -4.6303 2.3874
1.4500 -4.6030 2.3874
1.6199 -4.5693 2.3874
1.7890 -4.5292 2.3874
1.9570 -4.4828 2.3874
2.1238 -4.4299 2.3874
2.2890 -4.3706 2.3874
2.4525 -4.3049 2.3874
2.6138 -4.2329 2.3874
2.7728 -4.1547 2.3874
2.9291 -4.0701 2.3874
3.0826 -3.9795 2.3874
3.2329 -3.8827 2.3874
3.3798 -3.7800 2.3874
3.5230 -3.6713 2.3874
3.6622 -3.5570 2.3874
3.7972 -3.4371 2.3874
3.9278 -3.3117 2.3874
4.0537 -3.1810 2.3874
4.1746 -3.0452 2.3874
4.2903 -2.9045 2.3874
4.4005 -2.7591 2.3874
4.5052 -2.6091 2.3874
4.6040 -2.4549 2.3874
4.6967 -2.2967 2.3874
4.7832 -2.1347 2.3874
4.8633 -1.9691 2.3874
4.9368 -1.8003 2.3874
5.0036 -1.6285 2.3874
5.0635 -1.4541 2.3874
5.1164 -1.2772 2.3874
5.1622 -1.0982 2.3874
5.2008 -0.9175 2.3874
5.2321 -0.7353 2.3874
5.2561 -0.5519 2.3874
5.2727 -0.3677 2.3874
5.2819 -0.1829 2.3874
5.2837 0.0020 2.3874
5.2780 0.1868 2.3874
5.2649 0.3712 2.3874
5.2445 0.5548 2.3874
5.2167 0.7373 2.3874
5.1817 0.9184 2.3874
5.1394 1.0979 2.3874
5.0901 1.2753 2.3874
5.0339 1.4504 2.3874
4.9707 1.6229 2.3874
4.9009 1.7925 2.3874
4.8245 1.9590 2.3874
4.7418 2.1220 2.3874
4.6528 2.2814 2.3874
4.5578 2.4369 2.3874
4.4569 2.5882 2.3874
4.3505 2.7351 2.3874
4.2386 2.8775 2.3874
4.1215 3.0151 2.3874
3.9995 3.1477 2.3874
3.8728 3.2752 2.3874
3.7416 3.3974 2.3874
3.6062 3.5141 2.3874
3.4668 3.6252 2.3874
3.3236 3.7307 2.3874
3.1770 3.8304 2.3874
3.0273 3.9241 2.3874
2.8745 4.0119 2.3874
2.7191 4.0935 2.3874
0.9646 1.5701 0.8991
0.9077 1.6021 0.9024
0.8496 1.6321 0.9058
0.7905 1.6599 0.9092
0.7304 1.6855 0.9126
0.6694 1.7090 0.9161
0.6077 1.7303 0.9196
0.5451 1.7493 0.9231
0.4820 1.7660 0.9267
0.4183 1.7805 0.9302
0.3541 1.7926 0.9338
0.2894 1.8025 0.9374
0.2245 1.8099 0.9410
0.1594 1.8151 0.9446
0.0941 1.8178 0.9482
0.0287 1.8183 0.9518
-0.0366 1.8163 0.9553
-0.1019 1.8120 0.9589
-0.1669 1.8053 0.9624
-0.2317 1.7963 0.9659
-0.2960 1.7850 0.9693
-0.3600 1.7713 0.9727
-0.4234 1.7554 0.9761
-0.4862 1.7371 0.9794
-0.5483 1.7166 0.9827
-0.6096 1.6939 0.9859
-0.6700 1.6690 0.9891
-0.7295 1.6419 0.9922
-0.7880 1.6126 0.9952
-0.8454 1.5813 0.9982
-2.1504 3.6917 2.3874
-2.2751 3.5973 2.3874
-2.3963 3.4990 2.3874
-2.5138 3.3971 2.3874
-2.6275 3.2915 2.3874
-2.7373 3.1826 2.3874
-2.8431 3.0703 2.3874
-2.9449 2.9549 2.3874
-3.0425 2.8365 2.3874
-3.1360 2.7152 2.3874
-3.2252 2.5911 2.3874
-3.3101 2.4645 2.3874
-3.3906 2.3354 2.3874
-3.4667 2.2039 2.3874
-3.5383 2.0703 2.3874
-3.6053 1.9346 2.3874
-3.6678 1.7970 2.3874
-3.7257 1.6576 2.3874
-3.7788 1.5166 2.3874
-3.8274 1.3741 2.3874
-3.8711 1.2302 2.3874
-3.9102 1.0851 2.3874
-3.9444 0.9389 2.3874
-3.9739 0.7918 2.3874
-3.9985 0.6439 2.3874
-0.8362 1.4748 0.9970
-2.1222 3.4433 2.3874
-2.2387 3.3514 2.3874
-2.3517 3.2559 2.3874
-2.4611 3.1569 2.3874
-2.5668 3.0547 2.3874
-2.6688 2.9492 2.3874
-2.7670 2.8406 2.3874
-2.8613 2.7291 2.3874
-2.9516 2.6147 2.3874
-3.0380 2.4977 2.3874
-3.1202 2.3782 2.3874
-3.1982 2.2562 2.3874
-3.2721 2.1319 2.3874
-3.3416 2.0055 2.3874
-3.4069 1.8771 2.3874
-3.4678 1.7468 2.3874
-3.5243 1.6147 2.3874
-3.5764 1.4810 2.3874
-3.6240 1.3458 2.3874
-3.6671 1.2093 2.3874
-3.7057 1.0715 2.3874
-3.7397 0.9327 2.3874
-3.7691 0.7929 2.3874
-3.7940 0.6523 2.3874
-3.8141 0.5110 2.3874
-3.8297 0.3691 2.3874
-3.8406 0.2268 2.3874
-3.8468 0.0843 2.3874
-3.8484 -0.0584 2.3874
-3.8453 -0.2012 2.3874
-3.8375 -0.3438 2.3874
-3.8250 -0.4861 2.3874
-3.8079 -0.6281 2.3874
-3.7861 -0.7695 2.3874
-3.7597 -0.9103 2.3874
-3.7286 -1.0503 2.3874
-3.6929 -1.1894 2.3874
-3.6526 -1.3273 2.3874
-3.6077 -1.4641 2.3874
-3.5582 -1.5996 2.3874
-3.5042 -1.7335 2.3874
-3.4457 -1.8658 2.3874
-3.3828 -1.9964 2.3874
-3.3154 -2.1251 2.3874
-3.2436 -2.2517 2.3874
-3.1675 -2.3762 2.3874
-3.0872 -2.4983 2.3874
-3.0026 -2.6180 2.3874
-2.9138 -2.7351 2.3874
-2.8209 -2.8494 2.3874
-2.7240 -2.9609 2.3874
-2.6230 -3.0693 2.3874
-2.5183 -3.1746 2.3874
-2.4096 -3.2766 2.3874
-2.2973 -3.3751 2.3874
-2.1813 -3.4701 2.3874
-2.0618 -3.5614 2.3874
-1.9389 -3.6488 2.3874
-1.8126 -3.7323 2.3874
-1.6831 -3.8116 2.3874
-1.5505 -3.8867 2.3874
-1.4150 -3.9574 2.3874
-1.2766 -4.0236 2.3874
-1.1355 -4.0852 2.3874
-0.9918 -4.1421 2.3874
-0.8458 -4.1941 2.3874
-0.6974 -4.2411 2.3874
-0.5470 -4.2830 2.3874
-0.3946 -4.3198 2.3874
-0.2405 -4.3512 2.3874
-0.0848 -4.3773 2.3874
0.0723 -4.3978 2.3874
0.2306 -4.4128 2.3874
0.3899 -4.4222 2.3874
0.5501 -4.4258 2.3874
0.7108 -4.4236 2.3874
0.8719 -4.4156 2.3874
1.0331 -4.4017 2.3874
1.1943 -4.3818 2.3874
1.3552 -4.3560 2.3874
1.5156 -4.3241 2.3874
1.6752 -4.2863 2.3874
1.8339 -4.2424 2.3874
1.9913 -4.1924 2.3874
2.1472 -4.1365 2.3874
2.3013 -4.0746 2.3874
2.4535 -4.0067 2.3874
2.6035 -3.9329 2.3874
2.7510 -3.8532 2.3874
2.8957 -3.7678 2.3874
3.0375 -3.6767 2.3874
3.1760 -3.5800 2.3874
3.3111 -3.4777 2.3874
3.4424 -3.3701 2.3874
3.5698 -3.2573 2.3874
3.6930 -3.1393 2.3874
3.8117 -3.0164 2.3874
3.9258 -2.8887 2.3874
4.0351 -2.7564 2.3874
4.1393 -2.6196 2.3874
4.2381 -2.4787 2.3874
4.3315 -2.3337 2.3874
4.4193 -2.1850 2.3874
4.5012 -2.0327 2.3874
4.5771 -1.8770 2.3874
4.6469 -1.7184 2.3874
4.7104 -1.5569 2.3874
4.7674 -1.3929 2.3874
4.8179 -1.2266 2.3874
4.8618 -1.0583 2.3874
4.8990 -0.8883 2.3874
4.9293 -0.7169 2.3874
4.9528 -0.5444 2.3874
4.9694 -0.3711 2.3874
4.9791 -0.1972 2.3874
4.9818 -0.0232 2.3874
4.9775 0.1509 2.3874
4.9663 0.3245 2.3874
4.9482 0.4975 2.3874
4.9233 0.6695 2.3874
4.8915 0.8403 2.3874
4.8530 1.0096 2.3874
4.8078 1.1770 2.3874
4.7561 1.3423 2.3874
4.6980 1.5052 2.3874
4.6335 1.6656 2.3874
4.5629 1.8230 2.3874
4.4862 1.9773 2.3874
4.4037 2.1282 2.3874
4.3155 2.2755 2.3874
4.2218 2.4190 2.3874
4.1227 2.5584 2.3874
4.0185 2.6936 2.3874
3.9094 2.8244 2.3874
3.7956 2.9506 2.3874
3.6773 3.0720 2.3874
3.5547 3.1885 2.3874
3.4280 3.2999 2.3874
3.2976 3.4061 2.3874
3.1635 3.5070 2.3874
3.0261 3.6025 2.3874
2.8857 3.6925 2.3874
2.7423 3.7769 2.3874
2.5964 3.8556 2.3874
0.9237 1.4824 0.9008
0.8699 1.5129 0.9040
0.8151 1.5415 0.9071
0.7592 1.5681 0.9103
0.7025 1.5927 0.9136
0.6448 1.6152 0.9169
0.5864 1.6357 0.9202
0.5273 1.6540 0.9235
0.4676 1.6701 0.9269
0.4073 1.6841 0.9303
0.3466 1.6959 0.9336
0.2854 1.7055 0.9370
0.2240 1.7129 0.9405
0.1623 1.7181 0.9439
0.1005 1.7210 0.9473
0.0386 1.7218 0.9506
-0.0233 1.7202 0.9540
-0.0851 1.7164 0.9574
-0.1467 1.7104 0.9607
-0.2080 1.7022 0.9640
-0.2691 1.6918 0.9673
-0.3297 1.6792 0.9705
-0.3898 1.6644 0.9737
-0.4493 1.6474 0.9769
-0.5082 1.6283 0.9800
-0.5664 1.6071 0.9830
-0.6238 1.5837 0.9860
-0.6803 1.5584 0.9890
-0.7358 1.5310 0.9919
-0.7903 1.5016 0.9947
-0.8437 1.4703 0.9974
-2.1388 3.4305 2.3874
-2.2548 3.3381 2.3874
-2.3673 3.2422 2.3874
-2.4762 3.1427 2.3874
-2.5814 3.0400 2.3874
-2.6829 2.9340 2.3874
-2.7805 2.8251 2.3874
-2.8743 2.7131 2.3874
-2.9641 2.5984 2.3874
-3.0498 2.4810 2.3874
-3.1314 2.3611 2.3874
-3.2089 2.2388 2.3874
-3.2821 2.1142 2.3874
-3.3511 1.9875 2.3874
-3.4158 1.8588 2.3874
-3.4761 1.7283 2.3874
-3.5320 1.5959 2.3874
-3.5834 1.4620 2.3874
-3.6304 1.3266 2.3874
-3.6729 1.1899 2.3874
-3.7108 1.0520 2.3874
-3.7441 0.9130 2.3874
