ply
format ascii 1.0
element vertex 2170
property float32 x
property float32 y
property float32 z
end_header
-1.4933 -5.3126 2.3898
-1.3017 -5.3631 2.3898
-1.1085 -5.4066 2.3898
-0.9137 -5.4432 2.3898
-0.7178 -5.4726 2.3898
-0.5210 -5.4950 2.3898
-0.3234 -5.5103 2.3898
-0.1254 -5.5184 2.3898
0.0727 -5.5193 2.3898
0.2708 -5.5131 2.3898
0.4685 -5.4998 2.3898
0.6655 -5.4793 2.3898
0.8617 -5.4517 2.3898
1.0568 -5.4170 2.3898
1.2505 -5.3753 2.3898
1.4425 -5.3267 2.3898
1.6327 -5.2711 2.3898
1.8207 -5.2087 2.3898
2.0063 -5.1396 2.3898
2.1893 -5.0638 2.3898
2.3694 -4.9815 2.3898
2.5464 -4.8927 2.3898
2.5466 -4.4917 2.2374
2.7059 -4.3968 2.2374
2.8616 -4.2963 2.2374
3.0136 -4.1903 2.2374
3.1616 -4.0788 2.2374
3.3055 -3.9621 2.2374
3.4451 -3.8402 2.2374
3.5802 -3.7135 2.2374
3.7106 -3.5820 2.2374
3.8361 -3.4458 2.2374
3.9566 -3.3053 2.2374
4.0720 -3.1605 2.2374
4.1821 -3.0117 2.2374
4.2867 -2.8590 2.2374
4.3857 -2.7027 2.2374
4.4867 -2.5473 2.2412
4.5746 -2.3842 2.2414
4.6565 -2.2180 2.2415
4.7324 -2.0491 2.2416
4.8021 -1.8774 2.2417
4.8656 -1.7035 2.2418
4.9227 -1.5273 2.2419
4.9734 -1.3493 2.2420
5.0177 -1.1695 2.2420
5.0554 -0.9883 2.2421
5.0865 -0.8059 2.2421
5.1111 -0.6225 2.2422
5.1290 -0.4384 2.2422
5.1402 -0.2538 2.2422
5.1447 -0.0689 2.2422
5.1426 0.1159 2.2422
5.1339 0.3005 2.2421
5.1184 0.4847 2.2421
5.0964 0.6681 2.2420
5.0678 0.8506 2.2420
5.0326 1.0319 2.2419
4.9909 1.2117 2.2418
4.9428 1.3900 2.2417
4.8883 1.5663 2.2416
4.8275 1.7404 2.2415
4.7605 1.9123 2.2413
4.6873 2.0816 2.2412
4.6082 2.2481 2.2410
4.5231 2.4116 2.2409
4.4322 2.5719 2.2407
4.3357 2.7288 2.2405
4.2335 2.8820 2.2403
4.1260 3.0315 2.2401
4.0132 3.1770 2.2399
3.8953 3.3183 2.2397
3.7724 3.4552 2.2394
3.6448 3.5876 2.2392
3.5124 3.7153 2.2390
3.3757 3.8382 2.2387
3.2346 3.9560 2.2384
3.0894 4.0687 2.2382
2.9404 4.1761 2.2379
2.7876 4.2780 2.2376
2.6313 4.3745 2.2374
2.4988 4.5141 2.2616
2.4669 4.8613 2.3898
0.9103 1.9659 0.9498
0.8390 1.9976 0.9500
0.7667 2.0266 0.9502
0.6934 2.0531 0.9503
0.6192 2.0768 0.9505
0.5441 2.0979 0.9506
0.4683 2.1163 0.9507
0.3919 2.1319 0.9508
0.3150 2.1447 0.9509
0.2377 2.1548 0.9510
0.1601 2.1621 0.9511
0.0822 2.1665 0.9511
0.0042 2.1682 0.9512
-0.0738 2.1670 0.9512
-0.1517 2.1630 0.9512
-0.2294 2.1562 0.9512
-0.3068 2.1466 0.9512
-0.3838 2.1342 0.9512
-0.4603 2.1190 0.9511
-0.5362 2.1011 0.9511
-0.6114 2.0805 0.9510
-0.6858 2.0571 0.9510
-0.7594 2.0311 0.9509
-0.8319 2.0024 0.9508
-0.9034 1.9712 0.9507
-2.4479 4.8708 2.3898
-2.6218 4.7801 2.3898
-2.7923 4.6833 2.3898
-2.9593 4.5804 2.3898
-3.1225 4.4716 2.3898
-3.2817 4.3571 2.3898
-3.4368 4.2369 2.3898
-3.5874 4.1112 2.3898
-3.7335 3.9801 2.3898
-3.8749 3.8440 2.3898
-4.0112 3.7028 2.3898
-4.1425 3.5568 2.3898
-4.2685 3.4062 2.3898
-4.3890 3.2511 2.3898
-4.5039 3.0918 2.3898
-4.6131 2.9285 2.3898
-4.7163 2.7613 2.3898
-4.8135 2.5906 2.3898
-4.9046 2.4164 2.3898
-4.9893 2.2390 2.3898
-5.0677 2.0587 2.3898
-5.1395 1.8756 2.3898
-5.2048 1.6900 2.3898
-5.2634 1.5022 2.3898
-5.3152 1.3124 2.3898
-5.3601 1.1208 2.3898
-5.3982 0.9277 2.3898
-5.4293 0.7333 2.3898
-5.4534 0.5378 2.3898
-5.4705 0.3416 2.3898
-5.4806 0.1449 2.3898
-5.4835 -0.0521 2.3898
-5.4794 -0.2492 2.3898
-5.4682 -0.4460 2.3898
-5.4500 -0.6423 2.3898
-5.4247 -0.8378 2.3898
-5.3923 -1.0324 2.3898
-5.3530 -1.2257 2.3898
-5.3067 -1.4175 2.3898
-5.2536 -1.6076 2.3898
-5.1936 -1.7957 2.3898
-5.1269 -1.9815 2.3898
-5.0536 -2.1648 2.3898
-4.9737 -2.3454 2.3898
-4.8873 -2.5230 2.3898
-4.7945 -2.6975 2.3898
-4.6955 -2.8685 2.3898
-4.5904 -3.0359 2.3898
-4.4793 -3.1994 2.3898
-4.3624 -3.3588 2.3898
-4.2397 -3.5139 2.3898
-4.1116 -3.6645 2.3898
-3.9781 -3.8104 2.3898
-3.8394 -3.9515 2.3898
-3.6956 -4.0874 2.3898
-3.5471 -4.2181 2.3898
-3.3938 -4.3434 2.3898
-3.2362 -4.4630 2.3898
-3.0743 -4.5770 2.3898
-2.9084 -4.6850 2.3898
-2.7387 -4.7869 2.3898
-2.5654 -4.8827 2.3898
-2.3887 -4.9722 2.3898
-2.2089 -5.0552 2.3898
-2.0263 -5.1317 2.3898
-1.8409 -5.2016 2.3898
-1.6531 -5.2647 2.3898
-1.4632 -5.3210 2.3898
-1.2714 -5.3704 2.3898
-1.0778 -5.4129 2.3898
-0.8829 -5.4483 2.3898
-0.6868 -5.4766 2.3898
-0.4898 -5.4979 2.3898
-0.2922 -5.5120 2.3898
-0.0942 -5.5190 2.3898
0.1040 -5.5188 2.3898
0.3020 -5.5115 2.3898
0.4996 -5.4970 2.3898
0.6965 -5.4754 2.3898
0.8926 -5.4467 2.3898
1.0874 -5.4109 2.3898
1.2809 -5.3681 2.3898
1.4726 -5.3184 2.3898
1.6625 -5.2617 2.3898
1.8501 -5.1983 2.3898
2.0353 -5.1281 2.3898
2.2179 -5.0513 2.3898
2.3975 -4.9679 2.3898
2.5740 -4.8781 2.3898
2.5720 -4.4771 2.2374
2.7307 -4.3813 2.2374
2.8859 -4.2799 2.2374
3.0372 -4.1730 2.2374
3.1846 -4.0607 2.2374
3.3278 -3.9432 2.2374
3.4667 -3.8206 2.2374
3.6010 -3.6931 2.2374
3.7307 -3.5608 2.2374
3.8554 -3.4239 2.2374
3.9752 -3.2827 2.2374
4.0897 -3.1373 2.2374
4.1989 -2.9879 2.2374
4.3027 -2.8346 2.2374
4.4081 -2.6822 2.2411
4.5009 -2.5218 2.2412
4.5879 -2.3582 2.2414
4.6689 -2.1916 2.2415
4.7438 -2.0222 2.2416
4.8126 -1.8502 2.2417
4.8750 -1.6758 2.2418
4.9311 -1.4994 2.2419
4.9808 -1.3210 2.2420
5.0241 -1.1410 2.2421
5.0607 -0.9596 2.2421
5.0908 -0.7770 2.2421
5.1143 -0.5935 2.2422
5.1312 -0.4093 2.2422
5.1413 -0.2247 2.2422
5.1449 -0.0398 2.2422
5.1417 0.1451 2.2422
5.1319 0.3296 2.2421
5.1154 0.5137 2.2421
5.0923 0.6970 2.2420
5.0626 0.8793 2.2420
5.0264 1.0604 2.2419
4.9837 1.2400 2.2418
4.9346 1.4179 2.2417
4.8791 1.5939 2.2416
4.8173 1.7677 2.2414
4.7493 1.9392 2.2413
4.6752 2.1080 2.2412
4.5951 2.2741 2.2410
4.5091 2.4371 2.2408
4.4174 2.5969 2.2407
4.3199 2.7532 2.2405
4.2169 2.9059 2.2403
4.1086 3.0547 2.2401
3.9950 3.1996 2.2399
3.8763 3.3402 2.2396
3.7526 3.4764 2.2394
3.6242 3.6081 2.2392
3.4912 3.7350 2.2389
3.3537 3.8571 2.2387
3.2120 3.9741 2.2384
3.0662 4.0860 2.2381
2.9165 4.1925 2.2379
2.7631 4.2936 2.2376
2.6064 4.3892 2.2374
2.4974 4.5727 2.2839
2.4392 4.8751 2.3898
0.8991 1.9711 0.9499
0.8277 2.0023 0.9500
0.7552 2.0310 0.9502
0.6818 2.0570 0.9503
0.6074 2.0803 0.9505
0.5322 2.1010 0.9506
0.4563 2.1189 0.9507
0.3798 2.1341 0.9508
0.3029 2.1465 0.9509
0.2255 2.1561 0.9510
0.1478 2.1629 0.9511
0.0699 2.1670 0.9511
-0.0081 2.1682 0.9512
-0.0861 2.1665 0.9512
-0.1639 2.1621 0.9512
-0.2416 2.1549 0.9512
-0.3189 2.1448 0.9512
-0.3959 2.1320 0.9512
-0.4723 2.1164 0.9511
-0.5481 2.0980 0.9511
-0.6232 2.0770 0.9510
-0.6975 2.0532 0.9509
-0.7709 2.0267 0.9509
-0.8433 1.9977 0.9508
-0.9145 1.9660 0.9506
-2.4755 4.8569 2.3898
-2.6489 4.7652 2.3898
-2.8189 4.6675 2.3898
-2.9853 4.5636 2.3898
-3.1479 4.4539 2.3898
-3.3065 4.3385 2.3898
-3.4608 4.2174 2.3898
-3.6108 4.0908 2.3898
-3.7561 3.9590 2.3898
-3.8967 3.8220 2.3898
-4.0323 3.6801 2.3898
-4.1627 3.5334 2.3898
-4.2879 3.3820 2.3898
-4.4075 3.2263 2.3898
-4.5215 3.0663 2.3898
-4.6297 2.9024 2.3898
-4.7321 2.7346 2.3898
-4.8283 2.5633 2.3898
-4.9184 2.3886 2.3898
-5.0021 2.2107 2.3898
-5.0794 2.0300 2.3898
-5.1503 1.8465 2.3898
-5.2145 1.6606 2.3898
-5.2720 1.4724 2.3898
-5.3227 1.2823 2.3898
-5.3666 1.0904 2.3898
-5.4036 0.8971 2.3898
-5.4336 0.7025 2.3898
-5.4566 0.5069 2.3898
-5.4726 0.3106 2.3898
-5.4815 0.1138 2.3898
-5.4834 -0.0832 2.3898
-5.4781 -0.2802 2.3898
-5.4658 -0.4770 2.3898
-5.4464 -0.6732 2.3898
-5.4200 -0.8686 2.3898
-5.3866 -1.0630 2.3898
-5.3462 -1.2561 2.3898
-5.2988 -1.4476 2.3898
-5.2446 -1.6374 2.3898
-5.1836 -1.8251 2.3898
-5.1158 -2.0105 2.3898
-5.0414 -2.1935 2.3898
-4.9605 -2.3736 2.3898
-4.8730 -2.5508 2.3898
-4.7793 -2.7247 2.3898
-4.6793 -2.8951 2.3898
-4.5733 -3.0619 2.3898
-4.4612 -3.2248 2.3898
-4.3434 -3.3835 2.3898
-4.2199 -3.5379 2.3898
-4.0909 -3.6878 2.3898
-3.9565 -3.8330 2.3898
-3.8170 -3.9732 2.3898
-3.6725 -4.1084 2.3898
-3.5232 -4.2382 2.3898
-3.3693 -4.3626 2.3898
-3.2109 -4.4814 2.3898
-3.0484 -4.5944 2.3898
-2.8819 -4.7015 2.3898
-2.7116 -4.8025 2.3898
-2.5378 -4.8973 2.3898
-2.3606 -4.9857 2.3898
-2.1803 -5.0677 2.3898
-1.9972 -5.1432 2.3898
-1.8115 -5.2120 2.3898
-1.6233 -5.2740 2.3898
-1.4331 -5.3293 2.3898
-1.2410 -5.3776 2.3898
-1.0472 -5.4189 2.3898
-0.8521 -5.4532 2.3898
-0.6558 -5.4805 2.3898
-0.4587 -5.5006 2.3898
-0.2610 -5.5136 2.3898
-0.0629 -5.5195 2.3898
0.1352 -5.5182 2.3898
0.3332 -5.5097 2.3898
0.5307 -5.4941 2.3898
0.7275 -5.4714 2.3898
0.9234 -5.4415 2.3898
1.1181 -5.4046 2.3898
1.3113 -5.3607 2.3898
1.5027 -5.3099 2.3898
1.6922 -5.2522 2.3898
1.8795 -5.1877 2.3898
2.0643 -5.1164 2.3898
2.2464 -5.0386 2.3898
-4.1242 -3.1387 2.3898
-4.0096 -3.2853 2.3898
-3.8897 -3.4277 2.3898
-3.7648 -3.5658 2.3898
-3.6349 -3.6992 2.3898
-3.5003 -3.8279 2.3898
-3.3612 -3.9517 2.3898
-3.2176 -4.0704 2.3898
-3.0698 -4.1839 2.3898
-2.9181 -4.2919 2.3898
-2.7625 -4.3945 2.3898
-2.6033 -4.4913 2.3898
-2.4406 -4.5824 2.3898
-2.2748 -4.6675 2.3898
-2.1060 -4.7466 2.3898
-1.9345 -4.8196 2.3898
-1.7604 -4.8863 2.3898
-1.5840 -4.9467 2.3898
-1.4055 -5.0007 2.3898
-1.2252 -5.0482 2.3898
-1.0433 -5.0892 2.3898
-0.8600 -5.1236 2.3898
-0.6756 -5.1513 2.3898
-0.4903 -5.1724 2.3898
-0.3044 -5.1867 2.3898
-0.1181 -5.1943 2.3898
0.0684 -5.1952 2.3898
0.2548 -5.1894 2.3898
0.4409 -5.1768 2.3898
0.6264 -5.1575 2.3898
0.8111 -5.1316 2.3898
0.9947 -5.0990 2.3898
1.1770 -5.0598 2.3898
1.3577 -5.0140 2.3898
1.5367 -4.9617 2.3898
1.7137 -4.9030 2.3898
1.8884 -4.8379 2.3898
2.0607 -4.7666 2.3898
2.2302 -4.6892 2.3898
2.3968 -4.6056 2.3898
2.4116 -4.2538 2.2510
2.5470 -4.1389 2.2374
2.6936 -4.0443 2.2374
2.8366 -3.9445 2.2374
2.9760 -3.8396 2.2374
3.1115 -3.7298 2.2374
3.2429 -3.6151 2.2374
3.3700 -3.4958 2.2374
3.4928 -3.3721 2.2374
3.6110 -3.2439 2.2374
3.7245 -3.1117 2.2374
3.8331 -2.9754 2.2374
3.9368 -2.8354 2.2374
4.0353 -2.6917 2.2374
4.1344 -2.5482 2.2406
4.2227 -2.3978 2.2407
4.3055 -2.2443 2.2409
4.3827 -2.0879 2.2410
4.4541 -1.9289 2.2411
4.5198 -1.7674 2.2412
4.5795 -1.6036 2.2413
4.6333 -1.4379 2.2414
4.6811 -1.2703 2.2415
4.7228 -1.1011 2.2415
4.7583 -0.9306 2.2416
4.7877 -0.7589 2.2416
4.8108 -0.5863 2.2416
4.8277 -0.4130 2.2416
4.8384 -0.2392 2.2416
4.8427 -0.0652 2.2416
4.8408 0.1088 2.2416
4.8326 0.2826 2.2416
4.8181 0.4559 2.2416
4.7974 0.6286 2.2415
4.7706 0.8004 2.2414
4.7375 0.9711 2.2414
4.6983 1.1404 2.2413
4.6531 1.3082 2.2412
4.6018 1.4742 2.2411
4.5447 1.6382 2.2410
4.4816 1.8000 2.2408
4.4129 1.9594 2.2407
4.3384 2.1162 2.2406
4.2584 2.2701 2.2404
4.1729 2.4211 2.2402
4.0820 2.5688 2.2401
3.9860 2.7132 2.2399
3.8848 2.8539 2.2397
3.7786 2.9910 2.2395
3.6677 3.1240 2.2393
3.5520 3.2530 2.2391
3.4319 3.3777 2.2388
3.3073 3.4980 2.2386
3.1786 3.6138 2.2384
3.0458 3.7248 2.2381
2.9091 3.8309 2.2379
2.7688 3.9321 2.2376
2.6250 4.0282 2.2374
2.4883 4.1365 2.2466
2.4750 4.4708 2.3786
0.9227 1.8182 0.9491
0.8568 1.8504 0.9493
0.7898 1.8802 0.9495
0.7217 1.9075 0.9496
0.6527 1.9324 0.9498
0.5828 1.9547 0.9499
0.5122 1.9746 0.9500
0.4408 1.9918 0.9502
0.3689 2.0065 0.9503
0.2965 2.0186 0.9503
0.2237 2.0281 0.9504
0.1507 2.0349 0.9505
0.0774 2.0391 0.9505
0.0040 2.0406 0.9506
-0.0694 2.0395 0.9506
-0.1427 2.0358 0.9506
-0.2159 2.0294 0.9506
-0.2887 2.0203 0.9506
-0.3612 2.0087 0.9506
-0.4332 1.9944 0.9506
-0.5047 1.9775 0.9505
-0.5755 1.9581 0.9505
-0.6456 1.9361 0.9504
-0.7148 1.9116 0.9503
-0.7830 1.8846 0.9502
-0.8503 1.8552 0.9501
-0.9164 1.8234 0.9500
-2.4691 4.5015 2.3898
-2.6297 4.4103 2.3898
-2.7870 4.3134 2.3898
-2.9407 4.2109 2.3898
-3.0906 4.1030 2.3898
-3.2366 3.9898 2.3898
-3.3785 3.8714 2.3898
-3.5160 3.7479 2.3898
-3.6491 3.6197 2.3898
-3.7775 3.4867 2.3898
-3.9011 3.3492 2.3898
-4.0197 3.2073 2.3898
-4.1332 3.0613 2.3898
-4.2413 2.9112 2.3898
-4.3441 2.7574 2.3898
-4.4412 2.6000 2.3898
-4.5327 2.4391 2.3898
-4.6184 2.2751 2.3898
-4.6982 2.1080 2.3898
-4.7719 1.9382 2.3898
-4.8395 1.7658 2.3898
-4.9009 1.5910 2.3898
-4.9560 1.4142 2.3898
-5.0047 1.2354 2.3898
-5.0470 1.0550 2.3898
-5.0828 0.8732 2.3898
-5.1121 0.6901 2.3898
-5.1347 0.5061 2.3898
-5.1507 0.3213 2.3898
-5.1601 0.1361 2.3898
-5.1629 -0.0494 2.3898
-5.1589 -0.2349 2.3898
-5.1483 -0.4202 2.3898
-5.1311 -0.6050 2.3898
-5.1072 -0.7892 2.3898
-5.0767 -0.9723 2.3898
-5.0396 -1.1543 2.3898
-4.9960 -1.3349 2.3898
-4.9459 -1.5138 2.3898
-4.8894 -1.6908 2.3898
-4.8266 -1.8657 2.3898
-4.7575 -2.0383 2.3898
-4.6822 -2.2083 2.3898
-4.6008 -2.3755 2.3898
-4.5134 -2.5397 2.3898
-4.4202 -2.7006 2.3898
-4.3212 -2.8582 2.3898
-4.2166 -3.0120 2.3898
-4.1065 -3.1621 2.3898
-3.9910 -3.3081 2.3898
-3.8703 -3.4498 2.3898
-3.7447 -3.5871 2.3898
-3.6140 -3.7199 2.3898
-3.4787 -3.8478 2.3898
-3.3388 -3.9708 2.3898
-3.1946 -4.0887 2.3898
-3.0462 -4.2013 2.3898
-2.8938 -4.3085 2.3898
-2.7376 -4.4101 2.3898
-2.5778 -4.5061 2.3898
-2.4147 -4.5962 2.3898
-2.2484 -4.6804 2.3898
-2.0792 -4.7585 2.3898
-1.9072 -4.8305 2.3898
-1.7327 -4.8962 2.3898
-1.5560 -4.9556 2.3898
-1.3772 -5.0086 2.3898
-1.1966 -5.0551 2.3898
-1.0145 -5.0950 2.3898
-0.8310 -5.1284 2.3898
-0.6465 -5.1551 2.3898
-0.4610 -5.1751 2.3898
-0.2750 -5.1884 2.3898
-0.0886 -5.1949 2.3898
0.0979 -5.1948 2.3898
0.2842 -5.1879 2.3898
0.4702 -5.1742 2.3898
0.6556 -5.1539 2.3898
0.8401 -5.1269 2.3898
1.0235 -5.0932 2.3898
1.2056 -5.0530 2.3898
1.3861 -5.0061 2.3898
1.5648 -4.9529 2.3898
1.7414 -4.8931 2.3898
1.9157 -4.8271 2.3898
2.0876 -4.7548 2.3898
2.2567 -4.6764 2.3898
2.4228 -4.5919 2.3898
2.4209 -4.2144 2.2374
2.5703 -4.1243 2.2374
2.7164 -4.0289 2.2374
2.8589 -3.9283 2.2374
2.9976 -3.8226 2.2374
3.1325 -3.7120 2.2374
3.2632 -3.5966 2.2374
3.3897 -3.4766 2.2374
3.5117 -3.3521 2.2374
3.6292 -3.2233 2.2374
3.7419 -3.0904 2.2374
3.8498 -2.9536 2.2374
3.9526 -2.8129 2.2374
4.0559 -2.6724 2.2405
4.1487 -2.5247 2.2406
4.2361 -2.3738 2.2408
4.3180 -2.2198 2.2409
4.3943 -2.0630 2.2410
4.4649 -1.9036 2.2411
4.5296 -1.7417 2.2412
4.5884 -1.5776 2.2413
4.6413 -1.4115 2.2414
4.6881 -1.2437 2.2415
4.7288 -1.0743 2.2415
4.7634 -0.9036 2.2416
4.7918 -0.7317 2.2416
4.8139 -0.5590 2.2416
4.8298 -0.3856 2.2416
4.8395 -0.2118 2.2416
4.8428 -0.0378 2.2416
4.8399 0.1362 2.2416
4.8307 0.3100 2.2416
4.8153 0.4832 2.2415
4.7936 0.6558 2.2415
4.7657 0.8274 2.2414
4.7317 0.9979 2.2414
4.6916 1.1670 2.2413
4.6454 1.3345 2.2412
4.5932 1.5002 2.2411
4.5351 1.6638 2.2409
4.4712 1.8253 2.2408
4.4015 1.9843 2.2407
4.3261 2.1406 2.2405
4.2452 2.2941 2.2404
4.1589 2.4446 2.2402
4.0672 2.5918 2.2400
3.9703 2.7356 2.2399
3.8684 2.8758 2.2397
3.7615 3.0122 2.2395
3.6497 3.1447 2.2392
3.5334 3.2730 2.2390
3.4125 3.3970 2.2388
3.2873 3.5166 2.2386
3.1579 3.6316 2.2383
3.0245 3.7418 2.2381
2.8872 3.8472 2.2378
2.7463 3.9476 2.2376
2.6021 4.0430 2.2374
2.4825 4.1803 2.2628
2.4611 4.5059 2.3898
0.9124 1.8234 0.9492
0.8463 1.8552 0.9493
0.7791 1.8846 0.9495
0.7109 1.9116 0.9497
0.6417 1.9361 0.9498
0.5717 1.9580 0.9499
0.5009 1.9775 0.9501
0.4295 1.9943 0.9502
0.3575 2.0086 0.9503
0.2851 2.0203 0.9504
0.2122 2.0293 0.9504
0.1391 2.0357 0.9505
0.0658 2.0395 0.9505
-0.0076 2.0406 0.9506
-0.0810 2.0391 0.9506
-0.1543 2.0349 0.9506
-0.2274 2.0281 0.9506
-0.3002 2.0187 0.9506
-0.3726 2.0066 0.9506
-0.4446 1.9919 0.9506
-0.5159 1.9746 0.9505
-0.5866 1.9548 0.9504
-0.6565 1.9324 0.9504
-0.7256 1.9075 0.9503
-0.7937 1.8802 0.9502
-0.8608 1.8504 0.9501
-2.3314 4.5738 2.3898
-2.4947 4.4875 2.3898
-2.6548 4.3954 2.3898
-2.8114 4.2976 2.3898
-2.9646 4.1943 2.3898
-3.1139 4.0855 2.3898
-3.2593 3.9714 2.3898
-3.4005 3.8522 2.3898
-3.5373 3.7280 2.3898
-3.6697 3.5990 2.3898
-3.7973 3.4653 2.3898
-3.9201 3.3271 2.3898
-4.0379 3.1846 2.3898
-4.1506 3.0379 2.3898
-4.2579 2.8872 2.3898
-4.3598 2.7328 2.3898
-4.4561 2.5748 2.3898
-4.5466 2.4134 2.3898
-4.6314 2.2489 2.3898
-4.7102 2.0814 2.3898
-4.7830 1.9112 2.3898
-4.8496 1.7384 2.3898
-4.9100 1.5633 2.3898
-4.9641 1.3861 2.3898
-5.0118 1.2071 2.3898
-5.0531 1.0264 2.3898
-5.0879 0.8444 2.3898
-5.1161 0.6611 2.3898
-5.1377 0.4770 2.3898
-5.1527 0.2921 2.3898
-5.1610 0.1068 2.3898
-5.1627 -0.0787 2.3898
-5.1577 -0.2642 2.3898
-5.1461 -0.4494 2.3898
-5.1278 -0.6341 2.3898
-5.1028 -0.8181 2.3898
-5.0713 -1.0011 2.3898
-5.0332 -1.1829 2.3898
-4.9885 -1.3632 2.3898
-4.9374 -1.5418 2.3898
-4.8799 -1.7185 2.3898
-4.8161 -1.8931 2.3898
-4.7460 -2.0653 2.3898
-4.6697 -2.2348 2.3898
-4.5874 -2.4016 2.3898
-4.4991 -2.5653 2.3898
-4.4050 -2.7257 2.3898
-4.3051 -2.8827 2.3898
-4.1996 -3.0360 2.3898
-4.0886 -3.1854 2.3898
-3.9723 -3.3307 2.3898
-3.8508 -3.4718 2.3898
-3.7243 -3.6084 2.3898
-3.5930 -3.7404 2.3898
-3.4569 -3.8675 2.3898
-3.3163 -3.9897 2.3898
-3.1714 -4.1068 2.3898
-3.0224 -4.2186 2.3898
-2.8694 -4.3249 2.3898
-2.7126 -4.4256 2.3898
-2.5523 -4.5207 2.3898
-2.3887 -4.6099 2.3898
-2.2219 -4.6931 2.3898
-2.0522 -4.7703 2.3898
-1.8798 -4.8413 2.3898
-1.7050 -4.9060 2.3898
-1.5279 -4.9644 2.3898
-1.3489 -5.0164 2.3898
-1.1680 -5.0618 2.3898
-0.9856 -5.1007 2.3898
-0.8020 -5.1330 2.3898
-0.6173 -5.1587 2.3898
-0.4317 -5.1776 2.3898
-0.2457 -5.1898 2.3898
-0.0592 -5.1954 2.3898
0.1273 -5.1941 2.3898
0.3136 -5.1862 2.3898
0.4995 -5.1715 2.3898
0.6848 -5.1501 2.3898
0.8690 -5.1220 2.3898
1.0523 -5.0873 2.3898
1.2342 -5.0460 2.3898
1.4144 -4.9982 2.3898
1.5928 -4.9439 2.3898
1.7691 -4.8832 2.3898
1.9430 -4.8161 2.3898
2.1144 -4.7429 2.3898
-3.8911 -2.9616 2.3898
-3.7829 -3.0999 2.3898
-3.6698 -3.2343 2.3898
-3.5519 -3.3645 2.3898
-3.4294 -3.4904 2.3898
-3.3024 -3.6118 2.3898
-3.1711 -3.7285 2.3898
-3.0356 -3.8405 2.3898
-2.8962 -3.9475 2.3898
-2.7530 -4.0495 2.3898
-2.6062 -4.1462 2.3898
-2.4559 -4.2375 2.3898
-2.3025 -4.3234 2.3898
-2.1461 -4.4037 2.3898
-1.9868 -4.4783 2.3898
-1.8250 -4.5471 2.3898
-1.6607 -4.6100 2.3898
-1.4943 -4.6670 2.3898
-1.3260 -4.7179 2.3898
-1.1559 -4.7627 2.3898
-0.9843 -4.8014 2.3898
-0.8113 -4.8338 2.3898
-0.6374 -4.8600 2.3898
-0.4626 -4.8798 2.3898
-0.2872 -4.8934 2.3898
-0.1114 -4.9005 2.3898
0.0646 -4.9014 2.3898
0.2404 -4.8959 2.3898
0.4160 -4.8840 2.3898
0.5910 -4.8659 2.3898
0.7652 -4.8414 2.3898
0.9384 -4.8106 2.3898
1.1104 -4.7736 2.3898
1.2809 -4.7304 2.3898
1.4497 -4.6811 2.3898
1.6167 -4.6258 2.3898
1.7815 -4.5644 2.3898
1.9440 -4.4972 2.3898
2.1040 -4.4241 2.3898
2.2612 -4.3453 2.3898
2.3650 -4.1719 2.3399
2.4029 -3.9050 2.2374
2.5412 -3.8158 2.2374
2.6761 -3.7217 2.2374
2.8077 -3.6227 2.2374
2.9355 -3.5191 2.2374
3.0595 -3.4110 2.2374
3.1795 -3.2985 2.2374
3.2953 -3.1817 2.2374
3.4069 -3.0609 2.2374
3.5140 -2.9361 2.2374
3.6165 -2.8076 2.2374
3.7143 -2.6754 2.2374
3.8118 -2.5429 2.2400
3.9001 -2.4041 2.2402
3.9834 -2.2622 2.2403
4.0615 -2.1174 2.2404
4.1344 -1.9699 2.2405
4.2018 -1.8199 2.2407
4.2638 -1.6676 2.2407
4.3202 -1.5131 2.2408
4.3710 -1.3567 2.2409
4.4161 -1.1987 2.2410
4.4554 -1.0391 2.2410
4.4890 -0.8782 2.2411
4.5168 -0.7162 2.2411
4.5386 -0.5534 2.2411
4.5546 -0.3899 2.2412
4.5647 -0.2260 2.2412
4.5688 -0.0618 2.2412
4.5671 0.1023 2.2411
4.5594 0.2663 2.2411
4.5458 0.4299 2.2411
4.5263 0.5928 2.2410
4.5010 0.7549 2.2410
4.4699 0.9159 2.2409
4.4330 1.0757 2.2408
4.3903 1.2340 2.2407
4.3421 1.3906 2.2406
4.2882 1.5454 2.2405
4.2288 1.6981 2.2404
4.1639 1.8485 2.2403
4.0937 1.9965 2.2401
4.0182 2.1418 2.2400
3.9376 2.2843 2.2398
3.8519 2.4237 2.2397
3.7613 2.5600 2.2395
3.6659 2.6929 2.2393
3.5658 2.8222 2.2391
3.4611 2.9478 2.2389
3.3520 3.0696 2.2387
3.2387 3.1873 2.2385
3.1212 3.3009 2.2383
2.9997 3.4101 2.2381
2.8745 3.5149 2.2378
2.7455 3.6152 2.2376
2.6131 3.7107 2.2374
2.4798 3.8050 2.2393
2.4613 4.0912 2.3543
2.3472 4.2396 2.3898
0.8706 1.7153 0.9487
0.8084 1.7456 0.9489
0.7451 1.7737 0.9490
0.6809 1.7995 0.9492
0.6158 1.8229 0.9493
0.5498 1.8440 0.9494
0.4832 1.8627 0.9495
0.4159 1.8790 0.9496
0.3480 1.8929 0.9497
0.2797 1.9043 0.9498
0.2111 1.9132 0.9499
0.1421 1.9196 0.9500
0.0730 1.9236 0.9500
0.0038 1.9250 0.9500
-0.0655 1.9240 0.9501
-0.1347 1.9204 0.9501
-0.2037 1.9144 0.9501
-0.2724 1.9058 0.9501
-0.3408 1.8948 0.9501
-0.4087 1.8814 0.9500
-0.4761 1.8655 0.9500
-0.5429 1.8471 0.9499
-0.6090 1.8264 0.9499
-0.6743 1.8033 0.9498
-0.7387 1.7779 0.9497
-0.8022 1.7501 0.9496
-0.8646 1.7201 0.9495
-2.3306 4.2487 2.3898
-2.4822 4.1625 2.3898
-2.6306 4.0710 2.3898
-2.7756 3.9743 2.3898
-2.9171 3.8724 2.3898
-3.0549 3.7655 2.3898
-3.1888 3.6537 2.3898
-3.3186 3.5372 2.3898
-3.4442 3.4161 2.3898
-3.5654 3.2906 2.3898
-3.6820 3.1608 2.3898
-3.7939 3.0268 2.3898
-3.9010 2.8890 2.3898
-4.0030 2.7473 2.3898
-4.0999 2.6021 2.3898
-4.1916 2.4535 2.3898
-4.2779 2.3017 2.3898
-4.3588 2.1468 2.3898
-4.4340 1.9891 2.3898
-4.5035 1.8288 2.3898
-4.5673 1.6661 2.3898
-4.6252 1.5012 2.3898
-4.6771 1.3343 2.3898
-4.7231 1.1656 2.3898
-4.7629 0.9953 2.3898
-4.7967 0.8237 2.3898
-4.8242 0.6509 2.3898
-4.8455 0.4772 2.3898
-4.8606 0.3029 2.3898
-4.8694 0.1281 2.3898
-4.8720 -0.0470 2.3898
-4.8682 -0.2220 2.3898
-4.8581 -0.3969 2.3898
-4.8418 -0.5713 2.3898
-4.8192 -0.7450 2.3898
-4.7904 -0.9178 2.3898
-4.7553 -1.0895 2.3898
-4.7141 -1.2599 2.3898
-4.6668 -1.4287 2.3898
-4.6135 -1.5957 2.3898
-4.5541 -1.7607 2.3898
-4.4889 -1.9235 2.3898
-4.4178 -2.0839 2.3898
-4.3410 -2.2417 2.3898
-4.2585 -2.3966 2.3898
-4.1705 -2.5484 2.3898
-4.0771 -2.6970 2.3898
-3.9783 -2.8422 2.3898
-3.8744 -2.9837 2.3898
-3.7654 -3.1214 2.3898
-3.6515 -3.2551 2.3898
-3.5329 -3.3847 2.3898
-3.4096 -3.5098 2.3898
-3.2819 -3.6305 2.3898
-3.1500 -3.7465 2.3898
-3.0139 -3.8577 2.3898
-2.8738 -3.9639 2.3898
-2.7301 -4.0651 2.3898
-2.5827 -4.1609 2.3898
-2.4320 -4.2514 2.3898
-2.2780 -4.3364 2.3898
-2.1211 -4.4158 2.3898
-1.9615 -4.4895 2.3898
-1.7992 -4.5574 2.3898
-1.6346 -4.6194 2.3898
-1.4679 -4.6754 2.3898
-1.2993 -4.7254 2.3898
-1.1289 -4.7692 2.3898
-0.9571 -4.8069 2.3898
-0.7840 -4.8383 2.3898
-0.6099 -4.8635 2.3898
-0.4349 -4.8824 2.3898
-0.2594 -4.8949 2.3898
-0.0836 -4.9011 2.3898
0.0923 -4.9009 2.3898
0.2681 -4.8944 2.3898
0.4436 -4.8816 2.3898
0.6186 -4.8624 2.3898
0.7925 -4.8369 2.3898
0.9656 -4.8052 2.3898
1.1374 -4.7672 2.3898
1.3076 -4.7231 2.3898
1.4762 -4.6728 2.3898
1.6428 -4.6165 2.3898
1.8073 -4.5542 2.3898
1.9694 -4.4860 2.3898
2.1290 -4.4120 2.3898
2.2857 -4.3324 2.3898
2.3417 -4.0768 2.2940
2.4249 -3.8913 2.2374
2.5627 -3.8013 2.2374
2.6971 -3.7064 2.2374
2.8281 -3.6067 2.2374
2.9553 -3.5024 2.2374
3.0787 -3.3935 2.2374
3.1980 -3.2803 2.2374
3.3132 -3.1629 2.2374
3.4241 -3.0414 2.2374
3.5304 -2.9161 2.2374
3.6322 -2.7870 2.2374
3.7335 -2.6573 2.2399
3.8260 -2.5212 2.2400
3.9136 -2.3819 2.2402
3.9961 -2.2396 2.2403
4.0734 -2.0943 2.2404
4.1454 -1.9464 2.2406
4.2119 -1.7960 2.2407
4.2730 -1.6433 2.2408
4.3286 -1.4886 2.2408
4.3785 -1.3319 2.2409
4.4227 -1.1736 2.2410
4.4611 -1.0138 2.2410
4.4938 -0.8527 2.2411
4.5206 -0.6906 2.2411
4.5415 -0.5277 2.2411
4.5566 -0.3641 2.2412
4.5657 -0.2001 2.2412
4.5690 -0.0359 2.2412
4.5663 0.1282 2.2411
4.5576 0.2921 2.2411
4.5431 0.4556 2.2411
4.5227 0.6184 2.2410
4.4965 0.7803 2.2410
4.4644 0.9412 2.2409
4.4266 1.1008 2.2408
4.3831 1.2588 2.2407
4.3339 1.4152 2.2406
4.2792 1.5696 2.2405
4.2189 1.7220 2.2404
4.1532 1.8720 2.2403
4.0821 2.0196 2.2401
4.0059 2.1645 2.2400
3.9244 2.3065 2.2398
3.8380 2.4454 2.2396
3.7466 2.5812 2.2395
3.6504 2.7135 2.2393
3.5496 2.8423 2.2391
3.4442 2.9673 2.2389
3.3344 3.0884 2.2387
3.2204 3.2055 2.2385
3.1023 3.3184 2.2383
2.9802 3.4270 2.2380
2.8544 3.5311 2.2378
2.7249 3.6306 2.2376
2.5920 3.7254 2.2374
2.4702 3.8378 2.2503
2.4598 4.1417 2.3753
0.9221 1.6880 0.9485
0.8608 1.7202 0.9487
0.7985 1.7502 0.9489
0.7350 1.7779 0.9490
0.6707 1.8033 0.9492
0.6054 1.8264 0.9493
0.5394 1.8471 0.9494
0.4726 1.8655 0.9496
0.4052 1.8814 0.9497
0.3373 1.8948 0.9498
0.2689 1.9058 0.9498
0.2002 1.9144 0.9499
0.1312 1.9204 0.9500
0.0621 1.9240 0.9500
-0.0072 1.9250 0.9501
-0.0764 1.9236 0.9501
-0.1456 1.9196 0.9501
-0.2145 1.9132 0.9501
-0.2832 1.9043 0.9501
-0.3515 1.8929 0.9501
-0.4194 1.8790 0.9500
-0.4867 1.8627 0.9500
-0.5534 1.8440 0.9499
-0.6194 1.8229 0.9499
-0.6845 1.7994 0.9498
-0.7488 1.7736 0.9497
-0.8121 1.7455 0.9496
-0.8743 1.7151 0.9495
-2.3547 4.2354 2.3898
-2.5058 4.1485 2.3898
-2.6537 4.0561 2.3898
-2.7982 3.9586 2.3898
-2.9391 3.8559 2.3898
-3.0763 3.7482 2.3898
-3.2096 3.6356 2.3898
-3.3387 3.5184 2.3898
-3.4636 3.3966 2.3898
-3.5841 3.2704 2.3898
-3.7000 3.1399 2.3898
-3.8111 3.0053 2.3898
-3.9174 2.8669 2.3898
-4.0186 2.7247 2.3898
-4.1148 2.5789 2.3898
-4.2056 2.4298 2.3898
-4.2911 2.2774 2.3898
-4.3710 2.1221 2.3898
-4.4453 1.9640 2.3898
-4.5140 1.8033 2.3898
-4.5768 1.6403 2.3898
-4.6338 1.4750 2.3898
-4.6848 1.3078 2.3898
-4.7298 1.1388 2.3898
-4.7687 0.9683 2.3898
-4.8014 0.7965 2.3898
-4.8280 0.6236 2.3898
-4.8483 0.4498 2.3898
-4.8624 0.2753 2.3898
-4.8702 0.1005 2.3898
-4.8718 -0.0746 2.3898
-4.8670 -0.2496 2.3898
-4.8560 -0.4244 2.3898
-4.8387 -0.5987 2.3898
-4.8151 -0.7723 2.3898
-4.7853 -0.9450 2.3898
-4.7493 -1.1165 2.3898
-4.7071 -1.2866 2.3898
-4.6588 -1.4552 2.3898
-4.6045 -1.6219 2.3898
-4.5442 -1.7866 2.3898
-4.4781 -1.9490 2.3898
-4.4061 -2.1090 2.3898
-4.3284 -2.2663 2.3898
-4.2450 -2.4207 2.3898
-4.1561 -2.5721 2.3898
-4.0618 -2.7201 2.3898
-3.9623 -2.8647 2.3898
-3.8575 -3.0057 2.3898
-3.7478 -3.1428 2.3898
-3.6331 -3.2758 2.3898
-3.5138 -3.4047 2.3898
-3.3898 -3.5292 2.3898
-3.2614 -3.6492 2.3898
-3.1288 -3.7644 2.3898
-2.9920 -3.8748 2.3898
-2.8514 -3.9802 2.3898
-2.7070 -4.0805 2.3898
-2.5591 -4.1756 2.3898
-2.4079 -4.2652 2.3898
-2.2535 -4.3493 2.3898
-2.0961 -4.4278 2.3898
-1.9361 -4.5006 2.3898
-1.7734 -4.5676 2.3898
-1.6085 -4.6286 2.3898
-1.4414 -4.6837 2.3898
-1.2725 -4.7327 2.3898
-1.1019 -4.7756 2.3898
-0.9298 -4.8123 2.3898
-0.7566 -4.8427 2.3898
-0.5823 -4.8669 2.3898
-0.4073 -4.8848 2.3898
-0.2317 -4.8963 2.3898
-0.0559 -4.9015 2.3898
0.1201 -4.9003 2.3898
0.2958 -4.8928 2.3898
0.4712 -4.8790 2.3898
0.6460 -4.8588 2.3898
0.8199 -4.8323 2.3898
0.9927 -4.7996 2.3898
1.1643 -4.7607 2.3898
1.3343 -4.7155 2.3898
1.5026 -4.6643 2.3898
1.6689 -4.6071 2.3898
1.8330 -4.5438 2.3898
1.9948 -4.4747 2.3898
-3.6786 -2.8002 2.3898
-3.5763 -2.9309 2.3898
-3.4693 -3.0579 2.3898
-3.3578 -3.1810 2.3898
-3.2420 -3.3000 2.3898
-3.1219 -3.4147 2.3898
-2.9977 -3.5251 2.3898
-2.8697 -3.6309 2.3898
-2.7378 -3.7320 2.3898
-2.6024 -3.8284 2.3898
-2.4636 -3.9198 2.3898
-2.3217 -4.0061 2.3898
-2.1766 -4.0872 2.3898
-2.0287 -4.1631 2.3898
-1.8782 -4.2336 2.3898
-1.7252 -4.2987 2.3898
-1.5699 -4.3582 2.3898
-1.4126 -4.4120 2.3898
-1.2534 -4.4601 2.3898
-1.0926 -4.5025 2.3898
-0.9304 -4.5390 2.3898
-0.7670 -4.5696 2.3898
-0.6025 -4.5943 2.3898
-0.4373 -4.6131 2.3898
-0.2714 -4.6259 2.3898
-0.1053 -4.6327 2.3898
0.0610 -4.6335 2.3898
0.2273 -4.6283 2.3898
0.3932 -4.6171 2.3898
0.5586 -4.5999 2.3898
0.7233 -4.5768 2.3898
0.8870 -4.5477 2.3898
1.0496 -4.5127 2.3898
1.2108 -4.4719 2.3898
1.3704 -4.4253 2.3898
1.5282 -4.3730 2.3898
1.6841 -4.3150 2.3898
1.8377 -4.2515 2.3898
1.9889 -4.1824 2.3898
2.1375 -4.1080 2.3898
2.2833 -4.0282 2.3898
2.2715 -3.6918 2.2374
2.4022 -3.6075 2.2374
2.5298 -3.5185 2.2374
2.6542 -3.4250 2.2374
2.7750 -3.3271 2.2374
2.8923 -3.2249 2.2374
3.0057 -3.1185 2.2374
3.1152 -3.0082 2.2374
3.2207 -2.8939 2.2374
3.3220 -2.7760 2.2374
3.4190 -2.6545 2.2374
3.5148 -2.5320 2.2395
3.6030 -2.4039 2.2396
3.6865 -2.2727 2.2398
3.7653 -2.1386 2.2399
3.8392 -2.0018 2.2400
3.9080 -1.8624 2.2401
3.9718 -1.7206 2.2402
4.0304 -1.5766 2.2403
4.0837 -1.4306 2.2404
4.1318 -1.2828 2.2405
4.1744 -1.1334 2.2405
4.2117 -0.9825 2.2406
4.2435 -0.8305 2.2406
4.2697 -0.6774 2.2407
4.2904 -0.5234 2.2407
4.3056 -0.3689 2.2407
4.3152 -0.2139 2.2407
4.3191 -0.0587 2.2407
4.3175 0.0964 2.2407
4.3103 0.2515 2.2407
4.2975 0.4061 2.2406
4.2791 0.5601 2.2406
4.2552 0.7134 2.2405
4.2258 0.8656 2.2405
4.1910 1.0167 2.2404
4.1507 1.1664 2.2403
4.1051 1.3145 2.2402
4.0542 1.4608 2.2401
3.9981 1.6052 2.2400
3.9368 1.7474 2.2399
3.8705 1.8874 2.2397
3.7992 2.0248 2.2396
3.7230 2.1595 2.2395
3.6421 2.2914 2.2393
3.5565 2.4202 2.2391
3.4663 2.5459 2.2390
3.3716 2.6682 2.2388
3.2727 2.7871 2.2386
3.1696 2.9022 2.2384
3.0625 3.0136 2.2382
2.9514 3.1210 2.2380
2.8366 3.2244 2.2378
2.7181 3.3235 2.2376
2.5963 3.4184 2.2374
2.4714 3.5091 2.2374
2.4483 3.7564 2.3376
2.3629 3.9273 2.3898
0.8807 1.5906 0.9481
0.8230 1.6214 0.9483
0.7642 1.6501 0.9484
0.7044 1.6766 0.9486
0.6437 1.7010 0.9487
0.5821 1.7232 0.9489
0.5198 1.7431 0.9490
0.4568 1.7608 0.9491
0.3931 1.7762 0.9492
0.3290 1.7892 0.9493
0.2645 1.8000 0.9494
0.1995 1.8084 0.9494
0.1344 1.8145 0.9495
0.0690 1.8182 0.9495
0.0035 1.8196 0.9496
-0.0619 1.8186 0.9496
-0.1273 1.8152 0.9496
-0.1925 1.8095 0.9496
-0.2575 1.8015 0.9496
-0.3221 1.7911 0.9496
-0.3864 1.7783 0.9495
-0.4501 1.7633 0.9495
-0.5132 1.7460 0.9495
-0.5757 1.7264 0.9494
-0.6374 1.7045 0.9493
-0.6983 1.6805 0.9492
-0.7583 1.6543 0.9491
-0.8173 1.6259 0.9490
-0.8752 1.5954 0.9489
-2.3475 3.9364 2.3898
-2.4879 3.8499 2.3898
-2.6250 3.7583 2.3898
-2.7589 3.6619 2.3898
-2.8891 3.5608 2.3898
-3.0157 3.4551 2.3898
-3.1385 3.3449 2.3898
-3.2572 3.2303 2.3898
-3.3718 3.1116 2.3898
-3.4821 2.9888 2.3898
-3.5879 2.8621 2.3898
-3.6891 2.7317 2.3898
-3.7856 2.5978 2.3898
-3.8772 2.4604 2.3898
-3.9639 2.3199 2.3898
-4.0455 2.1763 2.3898
-4.1218 2.0298 2.3898
-4.1930 1.8807 2.3898
-4.2587 1.7291 2.3898
-4.3189 1.5752 2.3898
-4.3736 1.4192 2.3898
-4.4227 1.2614 2.3898
-4.4661 1.1018 2.3898
-4.5038 0.9408 2.3898
-4.5356 0.7785 2.3898
-4.5616 0.6152 2.3898
-4.5817 0.4509 2.3898
-4.5960 0.2861 2.3898
-4.6042 0.1208 2.3898
-4.6066 -0.0447 2.3898
-4.6030 -0.2102 2.3898
-4.5934 -0.3755 2.3898
-4.5780 -0.5404 2.3898
-4.5565 -0.7047 2.3898
-4.5292 -0.8681 2.3898
-4.4961 -1.0304 2.3898
-4.4571 -1.1915 2.3898
-4.4123 -1.3511 2.3898
-4.3618 -1.5090 2.3898
-4.3057 -1.6650 2.3898
-4.2439 -1.8189 2.3898
-4.1767 -1.9705 2.3898
-4.1040 -2.1196 2.3898
-4.0260 -2.2660 2.3898
-3.9428 -2.4096 2.3898
-3.8544 -2.5500 2.3898
-3.7610 -2.6873 2.3898
-3.6628 -2.8210 2.3898
-3.5597 -2.9512 2.3898
-3.4520 -3.0776 2.3898
-3.3399 -3.2000 2.3898
-3.2233 -3.3184 2.3898
-3.1026 -3.4324 2.3898
-2.9778 -3.5421 2.3898
-2.8491 -3.6472 2.3898
-2.7167 -3.7476 2.3898
-2.5807 -3.8431 2.3898
-2.4415 -3.9337 2.3898
-2.2990 -4.0192 2.3898
-2.1535 -4.0996 2.3898
-2.0052 -4.1746 2.3898
-1.8542 -4.2443 2.3898
-1.7008 -4.3084 2.3898
-1.5452 -4.3670 2.3898
-1.3876 -4.4200 2.3898
-1.2282 -4.4672 2.3898
-1.0671 -4.5086 2.3898
-0.9047 -4.5442 2.3898
-0.7412 -4.5739 2.3898
-0.5765 -4.5977 2.3898
-0.4111 -4.6155 2.3898
-0.2453 -4.6274 2.3898
-0.0790 -4.6332 2.3898
0.0873 -4.6331 2.3898
0.2535 -4.6269 2.3898
0.4193 -4.6148 2.3898
0.5846 -4.5967 2.3898
0.7492 -4.5726 2.3898
0.9127 -4.5426 2.3898
1.0751 -4.5067 2.3898
1.2361 -4.4650 2.3898
1.3954 -4.4175 2.3898
1.5530 -4.3643 2.3898
1.7084 -4.3054 2.3898
1.8617 -4.2410 2.3898
2.0125 -4.1710 2.3898
2.1607 -4.0957 2.3898
2.3053 -4.0138 2.3890
2.2923 -3.6788 2.2374
2.4226 -3.5937 2.2374
2.5497 -3.5040 2.2374
2.6735 -3.4098 2.2374
2.7938 -3.3112 2.2374
2.9104 -3.2084 2.2374
3.0232 -3.1014 2.2374
3.1322 -2.9904 2.2374
3.2370 -2.8756 2.2374
3.3376 -2.7571 2.2374
3.4369 -2.6374 2.2394
3.5290 -2.5120 2.2395
3.6165 -2.3834 2.2397
3.6993 -2.2518 2.2398
3.7773 -2.1172 2.2399
3.8503 -1.9800 2.2400
3.9184 -1.8402 2.2402
3.9814 -1.6980 2.2403
4.0391 -1.5537 2.2403
4.0917 -1.4074 2.2404
4.1389 -1.2593 2.2405
4.1807 -1.1097 2.2406
4.2171 -0.9586 2.2406
4.2480 -0.8064 2.2406
4.2734 -0.6531 2.2407
4.2932 -0.4991 2.2407
4.3075 -0.3445 2.2407
4.3162 -0.1895 2.2407
4.3192 -0.0343 2.2407
4.3167 0.1209 2.2407
4.3086 0.2759 2.2407
4.2950 0.4304 2.2406
4.2757 0.5843 2.2406
4.2510 0.7374 2.2405
4.2207 0.8895 2.2405
4.1850 1.0404 2.2404
4.1439 1.1898 2.2403
4.0975 1.3377 2.2402
4.0457 1.4837 2.2401
3.9888 1.6278 2.2400
3.9267 1.7697 2.2399
3.8596 1.9092 2.2397
3.7875 2.0462 2.2396
3.7106 2.1805 2.2394
3.6289 2.3119 2.2393
3.5425 2.4403 2.2391
3.4516 2.5654 2.2389
3.3563 2.6872 2.2388
3.2567 2.8055 2.2386
3.1530 2.9200 2.2384
3.0452 3.0308 2.2382
2.9335 3.1376 2.2380
2.8181 3.2403 2.2378
2.6991 3.3388 2.2375
2.5768 3.4330 2.2374
2.4604 3.5360 2.2457
2.4469 3.8012 2.3569
2.3405 3.9406 2.3898
0.8717 1.5956 0.9481
0.8138 1.6261 0.9483
0.7548 1.6544 0.9485
0.6949 1.6806 0.9486
0.6340 1.7046 0.9488
0.5723 1.7264 0.9489
0.5099 1.7460 0.9490
0.4468 1.7633 0.9491
0.3831 1.7784 0.9492
0.3189 1.7911 0.9493
0.2542 1.8015 0.9494
0.1893 1.8095 0.9494
0.1241 1.8153 0.9495
0.0587 1.8186 0.9495
-0.0068 1.8196 0.9496
-0.0722 1.8182 0.9496
-0.1376 1.8145 0.9496
-0.2028 1.8084 0.9496
-0.2677 1.8000 0.9496
-0.3323 1.7892 0.9496
-0.3965 1.7761 0.9495
-0.4601 1.7607 0.9495
-0.5231 1.7430 0.9494
-0.5855 1.7231 0.9494
-0.6471 1.7009 0.9493
-0.7078 1.6765 0.9492
-0.7677 1.6499 0.9491
-0.8265 1.6212 0.9490
-0.8843 1.5904 0.9489
-2.3699 3.9231 2.3898
-2.5097 3.8358 2.3898
-2.6464 3.7435 2.3898
-2.7796 3.6463 2.3898
-2.9094 3.5445 2.3898
-3.0354 3.4380 2.3898
-3.1575 3.3271 2.3898
-3.2756 3.2119 2.3898
-3.3895 3.0925 2.3898
-3.4990 2.9691 2.3898
-3.6041 2.8418 2.3898
-3.7046 2.7108 2.3898
-3.8003 2.5763 2.3898
-3.8912 2.4385 2.3898
-3.9771 2.2974 2.3898
-4.0578 2.1534 2.3898
-4.1334 2.0065 2.3898
-4.2037 1.8569 2.3898
-4.2685 1.7050 2.3898
-4.3279 1.5507 2.3898
-4.3818 1.3945 2.3898
-4.4299 1.2363 2.3898
-4.4724 1.0765 2.3898
-4.5092 0.9153 2.3898
-4.5401 0.7528 2.3898
-4.5652 0.5893 2.3898
-4.5844 0.4250 2.3898
-4.5977 0.2600 2.3898
-4.6050 0.0947 2.3898
-4.6064 -0.0708 2.3898
-4.6019 -0.2363 2.3898
-4.5914 -0.4016 2.3898
-4.5750 -0.5664 2.3898
-4.5526 -0.7305 2.3898
-4.5244 -0.8938 2.3898
-4.4903 -1.0559 2.3898
-4.4504 -1.2168 2.3898
-4.4047 -1.3761 2.3898
-4.3533 -1.5337 2.3898
-4.2963 -1.6894 2.3898
-4.2337 -1.8430 2.3898
-4.1656 -1.9942 2.3898
-4.0921 -2.1429 2.3898
-4.0133 -2.2889 2.3898
-3.9292 -2.4319 2.3898
-3.8400 -2.5719 2.3898
-3.7459 -2.7086 2.3898
-3.6468 -2.8418 2.3898
-3.5430 -2.9714 2.3898
-3.4346 -3.0972 2.3898
-3.3218 -3.2190 2.3898
-3.2046 -3.3366 2.3898
-3.0832 -3.4500 2.3898
-2.9577 -3.5589 2.3898
-2.8285 -3.6633 2.3898
-2.6955 -3.7630 2.3898
-2.5590 -3.8577 2.3898
-2.4192 -3.9475 2.3898
-2.2762 -4.0322 2.3898
-2.1303 -4.1117 2.3898
-1.9815 -4.1860 2.3898
-1.8302 -4.2548 2.3898
-1.6764 -4.3180 2.3898
-1.5205 -4.3757 2.3898
-1.3626 -4.4278 2.3898
-1.2029 -4.4741 2.3898
-1.0416 -4.5146 2.3898
-0.8790 -4.5493 2.3898
-0.7152 -4.5780 2.3898
-0.5504 -4.6009 2.3898
-0.3850 -4.6178 2.3898
-0.2191 -4.6287 2.3898
-0.0528 -4.6336 2.3898
0.1135 -4.6325 2.3898
0.2796 -4.6254 2.3898
0.4454 -4.6123 2.3898
0.6106 -4.5933 2.3898
0.7750 -4.5682 2.3898
0.9384 -4.5373 2.3898
1.1006 -4.5005 2.3898
1.2613 -4.4579 2.3898
1.4204 -4.4095 2.3898
1.5776 -4.3553 2.3898
1.7328 -4.2956 2.3898
1.8857 -4.2303 2.3898
-3.4838 -2.6522 2.3898
-3.3869 -2.7760 2.3898
-3.2856 -2.8963 2.3898
-3.1800 -3.0128 2.3898
-3.0702 -3.1255 2.3898
-2.9565 -3.2341 2.3898
-2.8389 -3.3386 2.3898
-2.7176 -3.4388 2.3898
-2.5927 -3.5345 2.3898
-2.4645 -3.6258 2.3898
-2.3331 -3.7123 2.3898
-2.1986 -3.7940 2.3898
-2.0612 -3.8709 2.3898
-1.9212 -3.9427 2.3898
-1.7786 -4.0095 2.3898
-1.6337 -4.0710 2.3898
-1.4866 -4.1273 2.3898
-1.3377 -4.1783 2.3898
-1.1870 -4.2239 2.3898
-1.0347 -4.2640 2.3898
-0.8811 -4.2985 2.3898
-0.7263 -4.3275 2.3898
-0.5706 -4.3509 2.3898
-0.4141 -4.3687 2.3898
-0.2570 -4.3808 2.3898
-0.0997 -4.3873 2.3898
0.0578 -4.3880 2.3898
0.2152 -4.3831 2.3898
0.3723 -4.3725 2.3898
0.5290 -4.3562 2.3898
0.6849 -4.3343 2.3898
0.8400 -4.3068 2.3898
0.9939 -4.2737 2.3898
1.1466 -4.2351 2.3898
1.2977 -4.1910 2.3898
1.4472 -4.1414 2.3898
1.5948 -4.0865 2.3898
1.7402 -4.0264 2.3898
1.8834 -3.9610 2.3898
2.0242 -3.8905 2.3898
2.1623 -3.8150 2.3898
2.2221 -3.6118 2.3113
2.2749 -3.4165 2.2374
2.3958 -3.3323 2.2374
2.5135 -3.2438 2.2374
2.6280 -3.1510 2.2374
2.7390 -3.0543 2.2374
2.8465 -2.9536 2.2374
2.9502 -2.8491 2.2374
3.0501 -2.7409 2.2374
3.1481 -2.6310 2.2389
3.2402 -2.5160 2.2390
3.3282 -2.3979 2.2391
3.4117 -2.2766 2.2393
3.4909 -2.1524 2.2394
3.5654 -2.0254 2.2395
3.6354 -1.8958 2.2397
3.7006 -1.7638 2.2398
3.7610 -1.6296 2.2399
3.8165 -1.4932 2.2399
3.8671 -1.3550 2.2400
3.9126 -1.2150 2.2401
3.9530 -1.0735 2.2401
3.9883 -0.9307 2.2402
4.0185 -0.7867 2.2402
4.0434 -0.6417 2.2403
4.0630 -0.4960 2.2403
4.0774 -0.3496 2.2403
4.0865 -0.2029 2.2403
4.0903 -0.0559 2.2403
4.0888 0.0911 2.2403
4.0820 0.2379 2.2403
4.0699 0.3843 2.2402
4.0526 0.5302 2.2402
4.0300 0.6753 2.2401
4.0022 0.8195 2.2401
3.9692 0.9626 2.2400
3.9311 1.1044 2.2399
3.8880 1.2446 2.2398
3.8398 1.3833 2.2397
3.7867 1.5200 2.2396
3.7287 1.6548 2.2395
3.6659 1.7873 2.2394
3.5984 1.9175 2.2393
3.5263 2.0451 2.2391
3.4497 2.1700 2.2390
3.3686 2.2921 2.2388
3.2832 2.4112 2.2387
3.1936 2.5271 2.2385
3.1000 2.6397 2.2383
3.0023 2.7488 2.2381
2.9009 2.8543 2.2379
2.7957 2.9561 2.2377
2.6870 3.0540 2.2375
2.5749 3.1480 2.2374
2.4597 3.2382 2.2374
2.4358 3.4583 2.3277
2.3712 3.6378 2.3898
0.8876 1.4752 0.9476
0.8340 1.5063 0.9477
0.7794 1.5354 0.9479
0.7237 1.5625 0.9481
0.6671 1.5877 0.9482
0.6096 1.6107 0.9483
0.5513 1.6317 0.9485
0.4922 1.6506 0.9486
0.4326 1.6673 0.9487
0.3723 1.6819 0.9488
0.3116 1.6943 0.9488
0.2504 1.7045 0.9489
0.1890 1.7124 0.9490
0.1272 1.7182 0.9490
0.0653 1.7217 0.9491
0.0034 1.7230 0.9491
-0.0586 1.7221 0.9491
-0.1206 1.7189 0.9492
-0.1823 1.7135 0.9492
-0.2438 1.7058 0.9491
-0.3051 1.6960 0.9491
-0.3659 1.6839 0.9491
-0.4262 1.6697 0.9491
-0.4860 1.6533 0.9490
-0.5452 1.6347 0.9490
-0.6036 1.6140 0.9489
-0.6613 1.5913 0.9488
-0.7181 1.5664 0.9487
-0.7740 1.5396 0.9486
-0.8288 1.5107 0.9485
-0.8826 1.4799 0.9484
-2.3570 3.6470 2.3898
-2.4869 3.5603 2.3898
-2.6137 3.4689 2.3898
-2.7371 3.3731 2.3898
-2.8570 3.2729 2.3898
-2.9733 3.1685 2.3898
-3.0857 3.0600 2.3898
-3.1943 2.9475 2.3898
-3.2987 2.8311 2.3898
-3.3989 2.7111 2.3898
-3.4948 2.5875 2.3898
-3.5861 2.4606 2.3898
-3.6729 2.3305 2.3898
-3.7550 2.1973 2.3898
-3.8323 2.0613 2.3898
-3.9046 1.9225 2.3898
-3.9719 1.7813 2.3898
-4.0342 1.6376 2.3898
-4.0912 1.4918 2.3898
-4.1430 1.3441 2.3898
-4.1894 1.1946 2.3898
-4.2305 1.0434 2.3898
-4.2661 0.8909 2.3898
-4.2963 0.7371 2.3898
-4.3209 0.5824 2.3898
-4.3399 0.4268 2.3898
-4.3533 0.2707 2.3898
-4.3611 0.1141 2.3898
-4.3633 -0.0427 2.3898
-4.3599 -0.1994 2.3898
-4.3508 -0.3560 2.3898
-4.3361 -0.5122 2.3898
-4.3157 -0.6678 2.3898
-4.2898 -0.8225 2.3898
-4.2584 -0.9763 2.3898
-4.2214 -1.1288 2.3898
-4.1790 -1.2799 2.3898
-4.1311 -1.4295 2.3898
-4.0779 -1.5772 2.3898
-4.0194 -1.7230 2.3898
-3.9557 -1.8666 2.3898
-3.8869 -2.0078 2.3898
-3.8130 -2.1464 2.3898
-3.7341 -2.2823 2.3898
-3.6504 -2.4154 2.3898
-3.5619 -2.5453 2.3898
-3.4688 -2.6720 2.3898
-3.3712 -2.7952 2.3898
-3.2692 -2.9149 2.3898
-3.1629 -3.0308 2.3898
-3.0526 -3.1429 2.3898
-2.9382 -3.2509 2.3898
-2.8200 -3.3547 2.3898
-2.6981 -3.4542 2.3898
-2.5727 -3.5492 2.3898
-2.4440 -3.6397 2.3898
-2.3120 -3.7255 2.3898
-2.1771 -3.8065 2.3898
-2.0393 -3.8825 2.3898
-1.8988 -3.9536 2.3898
-1.7559 -4.0195 2.3898
-1.6106 -4.0803 2.3898
-1.4633 -4.1357 2.3898
-1.3140 -4.1859 2.3898
-1.1630 -4.2306 2.3898
-1.0105 -4.2698 2.3898
-0.8567 -4.3035 2.3898
-0.7018 -4.3316 2.3898
-0.5459 -4.3541 2.3898
-0.3893 -4.3710 2.3898
-0.2322 -4.3822 2.3898
-0.0749 -4.3878 2.3898
0.0826 -4.3876 2.3898
0.2400 -4.3818 2.3898
0.3971 -4.3703 2.3898
0.5536 -4.3532 2.3898
0.7095 -4.3304 2.3898
0.8643 -4.3020 2.3898
1.0181 -4.2680 2.3898
1.1705 -4.2285 2.3898
1.3214 -4.1835 2.3898
1.4706 -4.1331 2.3898
1.6179 -4.0774 2.3898
1.7630 -4.0164 2.3898
1.9058 -3.9502 2.3898
2.0462 -3.8789 2.3898
2.1838 -3.8026 2.3898
2.2175 -3.5590 2.2855
2.2942 -3.4035 2.2374
2.4145 -3.3186 2.2374
2.5318 -3.2294 2.2374
2.6457 -3.1361 2.2374
2.7562 -3.0387 2.2374
2.8631 -2.9374 2.2374
2.9662 -2.8323 2.2374
3.0655 -2.7236 2.2374
3.1629 -2.6131 2.2389
3.2544 -2.4976 2.2390
3.3416 -2.3789 2.2392
3.4245 -2.2572 2.2393
3.5029 -2.1325 2.2394
3.5768 -2.0051 2.2396
3.6460 -1.8752 2.2397
3.7105 -1.7428 2.2398
3.7701 -1.6082 2.2399
3.8248 -1.4715 2.2400
3.8746 -1.3330 2.2400
3.9193 -1.1928 2.2401
3.9589 -1.0511 2.2402
3.9934 -0.9081 2.2402
4.0227 -0.7639 2.2402
4.0468 -0.6188 2.2403
4.0656 -0.4729 2.2403
4.0792 -0.3265 2.2403
4.0874 -0.1797 2.2403
4.0904 -0.0327 2.2403
4.0881 0.1142 2.2403
4.0804 0.2610 2.2403
4.0675 0.4073 2.2402
4.0493 0.5531 2.2402
4.0259 0.6981 2.2401
3.9973 0.8421 2.2401
3.9635 0.9850 2.2400
3.9247 1.1266 2.2399
3.8807 1.2666 2.2398
3.8318 1.4050 2.2397
3.7779 1.5414 2.2396
3.7191 1.6758 2.2395
3.6556 1.8080 2.2394
3.5874 1.9378 2.2392
3.5145 2.0650 2.2391
3.4372 2.1895 2.2390
3.3554 2.3111 2.2388
3.2694 2.4297 2.2386
3.1791 2.5451 2.2385
3.0848 2.6571 2.2383
2.9866 2.7657 2.2381
2.8845 2.8706 2.2379
2.7788 2.9718 2.2377
2.6695 3.0691 2.2375
2.5569 3.1625 2.2374
2.4487 3.2620 2.2442
2.4345 3.4984 2.3454
2.3505 3.6512 2.3898
0.8792 1.4802 0.9476
0.8255 1.5110 0.9478
0.7707 1.5398 0.9479
0.7148 1.5666 0.9481
0.6580 1.5914 0.9482
0.6004 1.6142 0.9483
0.5420 1.6348 0.9485
0.4829 1.6534 0.9486
0.4231 1.6697 0.9487
0.3628 1.6840 0.9488
0.3020 1.6960 0.9489
0.2408 1.7059 0.9489
0.1792 1.7135 0.9490
0.1175 1.7189 0.9490
0.0556 1.7221 0.9491
-0.0064 1.7230 0.9491
-0.0684 1.7217 0.9491
-0.1303 1.7182 0.9492
-0.1920 1.7124 0.9492
-0.2535 1.7044 0.9491
-0.3147 1.6942 0.9491
-0.3754 1.6818 0.9491
-0.4357 1.6672 0.9491
-0.4954 1.6505 0.9490
-0.5544 1.6316 0.9489
-0.6128 1.6106 0.9489
-0.6703 1.5875 0.9488
-0.7270 1.5623 0.9487
-0.7827 1.5351 0.9486
-0.8374 1.5060 0.9485
-0.8910 1.4748 0.9484
-2.3777 3.6336 2.3898
-2.5071 3.5462 2.3898
-2.6334 3.4541 2.3898
-2.7562 3.3576 2.3898
-2.8756 3.2567 2.3898
-2.9913 3.1516 2.3898
-3.1031 3.0425 2.3898
-3.2110 2.9293 2.3898
-3.3148 2.8124 2.3898
-3.4143 2.6918 2.3898
-3.5095 2.5677 2.3898
-3.6001 2.4403 2.3898
-3.6862 2.3097 2.3898
-3.7675 2.1761 2.3898
-3.8440 2.0396 2.3898
-3.9156 1.9004 2.3898
-3.9821 1.7587 2.3898
-4.0435 1.6148 2.3898
-4.0997 1.4687 2.3898
-4.1507 1.3206 2.3898
-4.1963 1.1708 2.3898
-4.2365 1.0194 2.3898
-4.2713 0.8667 2.3898
-4.3005 0.7128 2.3898
-4.3242 0.5579 2.3898
-4.3424 0.4022 2.3898
-4.3549 0.2460 2.3898
-4.3618 0.0894 2.3898
-4.3631 -0.0674 2.3898
-4.3588 -0.2241 2.3898
-4.3488 -0.3807 2.3898
-4.3332 -0.5368 2.3898
-4.3120 -0.6922 2.3898
-4.2853 -0.8468 2.3898
-4.2529 -1.0004 2.3898
-4.2151 -1.1527 2.3898
-4.1718 -1.3036 2.3898
-4.1231 -1.4529 2.3898
-4.0691 -1.6004 2.3898
-4.0097 -1.7458 2.3898
-3.9452 -1.8890 2.3898
-3.8755 -2.0298 2.3898
-3.8008 -2.1680 2.3898
-3.7212 -2.3035 2.3898
-3.6368 -2.4361 2.3898
-3.5475 -2.5655 2.3898
-3.4537 -2.6916 2.3898
-3.3554 -2.8143 2.3898
-3.2527 -2.9334 2.3898
-3.1458 -3.0488 2.3898
-3.0348 -3.1602 2.3898
-2.9198 -3.2675 2.3898
-2.8010 -3.3707 2.3898
-2.6786 -3.4695 2.3898
-2.5526 -3.5638 2.3898
-2.4234 -3.6536 2.3898
-2.2910 -3.7386 2.3898
-2.1556 -3.8188 2.3898
-2.0173 -3.8941 2.3898
-1.8764 -3.9643 2.3898
-1.7331 -4.0295 2.3898
-1.5875 -4.0894 2.3898
-1.4399 -4.1440 2.3898
-1.2903 -4.1933 2.3898
-1.1391 -4.2371 2.3898
-0.9864 -4.2755 2.3898
-0.8323 -4.3083 2.3898
-0.6772 -4.3355 2.3898
-0.5212 -4.3572 2.3898
-0.3646 -4.3732 2.3898
-0.2074 -4.3835 2.3898
-0.0500 -4.3881 2.3898
0.1075 -4.3871 2.3898
0.2648 -4.3804 2.3898
0.4218 -4.3680 2.3898
0.5783 -4.3499 2.3898
0.7339 -4.3262 2.3898
0.8887 -4.2970 2.3898
1.0422 -4.2621 2.3898
1.1944 -4.2218 2.3898
1.3451 -4.1759 2.3898
1.4940 -4.1247 2.3898
1.6409 -4.0681 2.3898
1.7857 -4.0063 2.3898
-3.3045 -2.5160 2.3898
-3.2125 -2.6334 2.3898
-3.1164 -2.7474 2.3898
-3.0162 -2.8579 2.3898
-2.9121 -2.9648 2.3898
-2.8042 -3.0678 2.3898
-2.6926 -3.1669 2.3898
-2.5776 -3.2619 2.3898
-2.4592 -3.3527 2.3898
-2.3375 -3.4392 2.3898
-2.2128 -3.5213 2.3898
-2.0853 -3.5988 2.3898
-1.9550 -3.6717 2.3898
-1.8221 -3.7398 2.3898
-1.6869 -3.8031 2.3898
-1.5495 -3.8615 2.3898
-1.4100 -3.9149 2.3898
-1.2687 -3.9632 2.3898
-1.1258 -4.0064 2.3898
-0.9813 -4.0444 2.3898
-0.8356 -4.0772 2.3898
-0.6888 -4.1047 2.3898
-0.5411 -4.1269 2.3898
-0.3927 -4.1438 2.3898
-0.2438 -4.1552 2.3898
-0.0945 -4.1613 2.3898
0.0548 -4.1621 2.3898
0.2041 -4.1574 2.3898
0.3531 -4.1473 2.3898
0.5017 -4.1319 2.3898
0.6496 -4.1111 2.3898
0.7967 -4.0850 2.3898
0.9427 -4.0537 2.3898
1.0875 -4.0170 2.3898
1.2308 -3.9752 2.3898
1.3726 -3.9282 2.3898
1.5126 -3.8762 2.3898
1.6505 -3.8191 2.3898
1.7864 -3.7571 2.3898
1.9199 -3.6903 2.3898
2.0509 -3.6187 2.3898
2.1792 -3.5424 2.3898
2.1800 -3.2743 2.2606
2.2723 -3.1609 2.2374
2.3840 -3.0769 2.2374
2.4926 -2.9890 2.2374
2.5979 -2.8972 2.2374
2.6999 -2.8017 2.2374
2.7983 -2.7026 2.2374
2.8944 -2.6012 2.2384
2.9856 -2.4955 2.2385
3.0730 -2.3865 2.2387
3.1564 -2.2744 2.2388
3.2357 -2.1594 2.2390
3.3107 -2.0416 2.2391
3.3815 -1.9212 2.2392
3.4478 -1.7983 2.2393
3.5097 -1.6731 2.2394
3.5670 -1.5458 2.2395
3.6197 -1.4165 2.2396
3.6676 -1.2854 2.2397
3.7108 -1.1527 2.2397
3.7492 -1.0185 2.2398
3.7827 -0.8830 2.2398
3.8113 -0.7464 2.2399
3.8350 -0.6089 2.2399
3.8536 -0.4707 2.2399
3.8673 -0.3319 2.2399
3.8760 -0.1927 2.2399
3.8796 -0.0533 2.2399
3.8782 0.0861 2.2399
3.8718 0.2253 2.2399
3.8604 0.3642 2.2399
3.8439 0.5026 2.2398
3.8226 0.6403 2.2398
3.7962 0.7771 2.2397
3.7650 0.9128 2.2396
3.7289 1.0473 2.2396
3.6880 1.1804 2.2395
3.6424 1.3119 2.2394
3.5920 1.4416 2.2393
3.5370 1.5694 2.2392
3.4775 1.6952 2.2391
3.4135 1.8187 2.2389
3.3452 1.9398 2.2388
3.2725 2.0583 2.2387
3.1956 2.1741 2.2385
3.1147 2.2871 2.2384
3.0297 2.3971 2.2382
2.9409 2.5039 2.2380
2.8483 2.6074 2.2379
2.7520 2.7076 2.2377
2.6523 2.8042 2.2375
2.5492 2.8972 2.2374
2.4431 2.9866 2.2374
2.4237 3.1906 2.3236
2.3728 3.3686 2.3898
0.8916 1.3678 0.9471
0.8419 1.3991 0.9473
0.7911 1.4286 0.9474
0.7392 1.4562 0.9476
0.6864 1.4819 0.9477
0.6327 1.5058 0.9478
0.5782 1.5276 0.9480
0.5229 1.5475 0.9481
0.4669 1.5654 0.9482
0.4103 1.5813 0.9483
0.3531 1.5951 0.9484
0.2955 1.6068 0.9485
0.2375 1.6165 0.9485
0.1792 1.6241 0.9486
0.1207 1.6295 0.9486
0.0620 1.6329 0.9487
0.0032 1.6341 0.9487
-0.0556 1.6332 0.9487
-0.1143 1.6302 0.9487
-0.1729 1.6250 0.9487
-0.2313 1.6178 0.9487
-0.2893 1.6084 0.9487
-0.3470 1.5970 0.9487
-0.4043 1.5835 0.9487
-0.4610 1.5679 0.9486
-0.5171 1.5503 0.9486
-0.5725 1.5307 0.9485
-0.6272 1.5091 0.9484
-0.6811 1.4856 0.9483
-0.7341 1.4601 0.9482
-0.7861 1.4327 0.9481
-0.8371 1.4035 0.9480
-0.8870 1.3724 0.9479
-2.3596 3.3778 2.3898
-2.4799 3.2911 2.3898
-2.5970 3.2002 2.3898
-2.7108 3.1051 2.3898
-2.8211 3.0060 2.3898
-2.9278 2.9030 2.3898
-3.0307 2.7962 2.3898
-3.1298 2.6858 2.3898
-3.2248 2.5719 2.3898
-3.3158 2.4547 2.3898
-3.4024 2.3343 2.3898
-3.4847 2.2108 2.3898
-3.5626 2.0844 2.3898
-3.6359 1.9553 2.3898
-3.7045 1.8237 2.3898
-3.7683 1.6896 2.3898
-3.8273 1.5534 2.3898
-3.8814 1.4151 2.3898
-3.9305 1.2749 2.3898
-3.9746 1.1330 2.3898
-4.0135 0.9896 2.3898
-4.0473 0.8449 2.3898
-4.0758 0.6990 2.3898
-4.0991 0.5522 2.3898
-4.1171 0.4046 2.3898
-4.1298 0.2565 2.3898
-4.1372 0.1080 2.3898
-4.1392 -0.0408 2.3898
-4.1359 -0.1895 2.3898
-4.1273 -0.3380 2.3898
-4.1133 -0.4862 2.3898
-4.0940 -0.6337 2.3898
-4.0694 -0.7805 2.3898
-4.0395 -0.9264 2.3898
-4.0044 -1.0711 2.3898
-3.9641 -1.2144 2.3898
-3.9187 -1.3563 2.3898
-3.8682 -1.4964 2.3898
-3.8127 -1.6347 2.3898
-3.7522 -1.7708 2.3898
-3.6869 -1.9048 2.3898
-3.6168 -2.0363 2.3898
-3.5419 -2.1652 2.3898
-3.4625 -2.2913 2.3898
-3.3786 -2.4146 2.3898
-3.2902 -2.5347 2.3898
-3.1976 -2.6516 2.3898
-3.1009 -2.7651 2.3898
-3.0001 -2.8750 2.3898
-2.8953 -2.9813 2.3898
-2.7868 -3.0837 2.3898
-2.6747 -3.1822 2.3898
-2.5591 -3.2765 2.3898
-2.4402 -3.3667 2.3898
-2.3181 -3.4525 2.3898
-2.1929 -3.5338 2.3898
-2.0649 -3.6106 2.3898
-1.9342 -3.6827 2.3898
-1.8010 -3.7501 2.3898
-1.6653 -3.8126 2.3898
-1.5276 -3.8702 2.3898
-1.3879 -3.9228 2.3898
-1.2463 -3.9703 2.3898
-1.1031 -4.0127 2.3898
-0.9584 -4.0499 2.3898
-0.8125 -4.0819 2.3898
-0.6656 -4.1086 2.3898
-0.5178 -4.1299 2.3898
-0.3693 -4.1459 2.3898
-0.2203 -4.1566 2.3898
-0.0710 -4.1618 2.3898
0.0784 -4.1617 2.3898
0.2276 -4.1562 2.3898
0.3766 -4.1453 2.3898
0.5251 -4.1290 2.3898
0.6729 -4.1074 2.3898
0.8198 -4.0804 2.3898
0.9656 -4.0482 2.3898
1.1102 -4.0108 2.3898
1.2533 -3.9681 2.3898
1.3948 -3.9204 2.3898
1.5345 -3.8675 2.3898
1.6721 -3.8097 2.3898
1.8076 -3.7469 2.3898
1.9407 -3.6793 2.3898
2.0713 -3.6069 2.3898
2.1921 -3.5185 2.3821
2.1841 -3.2405 2.2458
2.2901 -3.1479 2.2374
2.4014 -3.0633 2.2374
2.5094 -2.9748 2.2374
2.6142 -2.8824 2.2374
2.7156 -2.7863 2.2374
2.8135 -2.6867 2.2374
2.9090 -2.5848 2.2384
2.9997 -2.4785 2.2386
3.0864 -2.3690 2.2387
3.1692 -2.2564 2.2389
3.2478 -2.1410 2.2390
3.3222 -2.0228 2.2391
3.3922 -1.9019 2.2392
3.4579 -1.7787 2.2393
3.5190 -1.6532 2.2394
3.5756 -1.5255 2.2395
3.6276 -1.3959 2.2396
3.6748 -1.2646 2.2397
3.7172 -1.1316 2.2397
3.7548 -0.9972 2.2398
3.7876 -0.8615 2.2398
3.8154 -0.7248 2.2399
3.8382 -0.5872 2.2399
3.8561 -0.4488 2.2399
3.8690 -0.3100 2.2399
3.8769 -0.1707 2.2399
3.8797 -0.0313 2.2399
3.8775 0.1081 2.2399
3.8703 0.2473 2.2399
3.8581 0.3861 2.2399
