ply
format ascii 1.0
element vertex 2182
property float32 x
property float32 y
property float32 z
end_header
7.9929 -1.9796 2.3902
8.0414 -1.6839 2.3902
8.0812 -1.3876 2.3902
8.1122 -1.0909 2.3902
8.1345 -0.7939 2.3902
8.1481 -0.4968 2.3902
8.1530 -0.1999 2.3902
8.1493 0.0969 2.3902
8.1369 0.3932 2.3902
8.1158 0.6889 2.3902
8.0862 0.9839 2.3902
8.0480 1.2779 2.3902
8.0012 1.5709 2.3902
7.9458 1.8627 2.3902
7.8819 2.1530 2.3902
7.8094 2.4417 2.3902
7.7283 2.7287 2.3902
7.6388 3.0138 2.3902
7.5406 3.2968 2.3902
7.4340 3.5774 2.3902
7.3189 3.8557 2.3902
7.1952 4.1312 2.3902
7.0630 4.4040 2.3902
6.9223 4.6737 2.3902
6.7732 4.9401 2.3902
6.6155 5.2032 2.3902
6.4494 5.4625 2.3902
6.2748 5.7181 2.3902
6.0917 5.9695 2.3902
5.9002 6.2166 2.3902
5.7003 6.4592 2.3902
5.4919 6.6970 2.3902
5.2753 6.9298 2.3902
5.0502 7.1572 2.3902
4.8169 7.3792 2.3902
4.5754 7.5953 2.3902
4.3256 7.8053 2.3902
4.0677 8.0090 2.3902
3.8018 8.2059 2.3902
3.5278 8.3959 2.3902
3.2459 8.5786 2.3902
2.9563 8.7538 2.3902
2.6589 8.9210 2.3902
2.3540 9.0799 2.3902
2.0417 9.2303 2.3902
1.7221 9.3717 2.3902
1.3954 9.5039 2.3902
1.0617 9.6264 2.3902
-1.0712 -9.5885 2.3902
-0.7220 -9.5418 2.3902
-0.3774 -9.4834 2.3902
-0.0377 -9.4134 2.3902
0.2967 -9.3323 2.3902
0.6254 -9.2404 2.3902
0.9483 -9.1381 2.3902
1.2650 -9.0257 2.3902
1.5752 -8.9036 2.3902
1.8787 -8.7722 2.3902
2.1754 -8.6318 2.3902
2.4649 -8.4828 2.3902
2.7472 -8.3255 2.3902
3.0221 -8.1603 2.3902
3.2894 -7.9875 2.3902
3.5491 -7.8074 2.3902
3.8009 -7.6205 2.3902
4.0448 -7.4269 2.3902
4.2807 -7.2271 2.3902
4.5086 -7.0212 2.3902
4.7284 -6.8096 2.3902
4.9398 -6.5929 2.3902
5.1431 -6.3709 2.3902
5.3381 -6.1441 2.3902
5.5248 -5.9128 2.3902
5.7031 -5.6773 2.3902
5.8731 -5.4377 2.3902
6.0347 -5.1943 2.3902
6.1880 -4.9474 2.3902
6.3328 -4.6973 2.3902
6.4693 -4.4441 2.3902
6.5974 -4.1881 2.3902
6.7171 -3.9295 2.3902
6.8284 -3.6686 2.3902
6.9314 -3.4054 2.3902
7.0261 -3.1403 2.3902
7.1124 -2.8735 2.3902
7.1904 -2.6050 2.3902
7.2601 -2.3352 2.3902
7.3215 -2.0642 2.3902
7.3747 -1.7922 2.3902
7.4196 -1.5194 2.3902
7.4563 -1.2460 2.3902
7.4848 -0.9720 2.3902
7.5051 -0.6978 2.3902
7.5172 -0.4235 2.3902
7.5212 -0.1492 2.3902
7.5170 0.1248 2.3902
7.5047 0.3985 2.3902
7.4843 0.6716 2.3902
7.4558 0.9440 2.3902
7.4193 1.2155 2.3902
7.3746 1.4859 2.3902
7.3220 1.7551 2.3902
7.2612 2.0229 2.3902
7.1925 2.2892 2.3902
7.1157 2.5537 2.3902
7.0310 2.8163 2.3902
6.9382 3.0768 2.3902
6.8375 3.3350 2.3902
6.7289 3.5907 2.3902
6.6123 3.8439 2.3902
6.4878 4.0942 2.3902
6.3554 4.3414 2.3902
6.2151 4.5855 2.3902
6.0669 4.8262 2.3902
5.9109 5.0632 2.3902
5.7471 5.2964 2.3902
5.5755 5.5256 2.3902
5.3961 5.7505 2.3902
5.2091 5.9709 2.3902
5.0143 6.1866 2.3902
4.8120 6.3973 2.3902
4.6020 6.6029 2.3902
4.3846 6.8030 2.3902
4.1597 6.9975 2.3902
3.9274 7.1860 2.3902
3.6879 7.3683 2.3902
3.4411 7.5441 2.3902
3.1872 7.7132 2.3902
2.9263 7.8752 2.3902
2.6586 8.0299 2.3902
2.3840 8.1770 2.3902
2.1029 8.3162 2.3902
0.7664 3.5661 1.0091
0.6380 3.5937 1.0023
0.5087 3.6166 0.9955
0.3787 3.6348 0.9886
0.2481 3.6483 0.9817
0.1171 3.6571 0.9747
-0.0142 3.6611 0.9676
-0.1455 3.6603 0.9605
-0.2767 3.6548 0.9534
-0.4076 3.6445 0.9462
-0.5381 3.6295 0.9391
-0.6680 3.6098 0.9319
-0.7970 3.5854 0.9248
-0.9251 3.5563 0.9177
-2.7617 9.2468 2.3902
-1.1177 -9.5937 2.3902
-0.7680 -9.5487 2.3902
-0.4227 -9.4918 2.3902
-0.0823 -9.4233 2.3902
0.2528 -9.3436 2.3902
0.5823 -9.2532 2.3902
0.9060 -9.1522 2.3902
1.2235 -9.0411 2.3902
1.5345 -8.9203 2.3902
1.8390 -8.7901 2.3902
2.1365 -8.6509 2.3902
2.4271 -8.5030 2.3902
2.7103 -8.3468 2.3902
2.9862 -8.1826 2.3902
3.2545 -8.0108 2.3902
3.5152 -7.8317 2.3902
3.7680 -7.6456 2.3902
4.0129 -7.4530 2.3902
4.2500 -7.2538 2.3902
4.4789 -7.0488 2.3902
4.6997 -6.8381 2.3902
4.9123 -6.6218 2.3902
5.1167 -6.4005 2.3902
5.3128 -6.1744 2.3902
5.5006 -5.9437 2.3902
5.6800 -5.7086 2.3902
5.8511 -5.4696 2.3902
6.0138 -5.2267 2.3902
6.1681 -4.9804 2.3902
6.3142 -4.7305 2.3902
6.4517 -4.4778 2.3902
6.5809 -4.2221 2.3902
6.7017 -3.9639 2.3902
6.8142 -3.7032 2.3902
6.9183 -3.4403 2.3902
7.0140 -3.1755 2.3902
7.1015 -2.9088 2.3902
7.1806 -2.6406 2.3902
7.2514 -2.3710 2.3902
7.3139 -2.1001 2.3902
7.3682 -1.8283 2.3902
7.4142 -1.5556 2.3902
7.4520 -1.2822 2.3902
7.4815 -1.0083 2.3902
7.5029 -0.7341 2.3902
7.5161 -0.4598 2.3902
7.5212 -0.1855 2.3902
7.5181 0.0886 2.3902
7.5068 0.3623 2.3902
7.4875 0.6355 2.3902
7.4601 0.9080 2.3902
7.4246 1.1796 2.3902
7.3810 1.4502 2.3902
7.3294 1.7196 2.3902
7.2697 1.9876 2.3902
7.2020 2.2541 2.3902
7.1263 2.5188 2.3902
7.0427 2.7817 2.3902
6.9510 3.0424 2.3902
6.8513 3.3010 2.3902
6.7437 3.5571 2.3902
6.6282 3.8106 2.3902
6.5047 4.0612 2.3902
6.3733 4.3089 2.3902
6.2341 4.5534 2.3902
6.0869 4.7945 2.3902
5.9320 5.0321 2.3902
5.7692 5.2658 2.3902
5.5986 5.4955 2.3902
5.4203 5.7210 2.3902
5.2342 5.9420 2.3902
5.0405 6.1583 2.3902
4.8392 6.3698 2.3902
4.6302 6.5760 2.3902
4.4138 6.7769 2.3902
4.1899 6.9721 2.3902
3.9586 7.1614 2.3902
3.7200 7.3445 2.3902
3.4741 7.5212 2.3902
3.2212 7.6912 2.3902
2.9612 7.8542 2.3902
2.6943 8.0099 2.3902
2.4207 8.1580 2.3902
2.1404 8.2983 2.3902
0.7833 3.5622 1.0100
0.6550 3.5903 1.0032
0.5259 3.6138 0.9964
0.3960 3.6327 0.9895
0.2654 3.6468 0.9826
0.1344 3.6562 0.9756
0.0032 3.6608 0.9685
-0.1281 3.6607 0.9614
-0.2594 3.6558 0.9543
-0.3903 3.6461 0.9472
-0.5209 3.6318 0.9400
-0.6508 3.6127 0.9329
-0.7800 3.5889 0.9257
-0.9082 3.5604 0.9186
-2.7150 9.2496 2.3902
-2.8917 8.3891 2.3902
-3.2134 8.3435 2.3902
-3.5355 8.2857 2.3902
-3.8574 8.2157 2.3902
-4.1787 8.1334 2.3902
-4.4988 8.0386 2.3902
-4.8172 7.9311 2.3902
-5.1334 7.8110 2.3902
-5.4468 7.6780 2.3902
-5.7567 7.5323 2.3902
-6.0626 7.3738 2.3902
-6.3640 7.2026 2.3902
-6.6600 7.0186 2.3902
-5.2606 -8.1082 2.3902
-4.9362 -8.2348 2.3902
-4.6089 -8.3478 2.3902
-4.2793 -8.4476 2.3902
-3.9483 -8.5340 2.3902
-3.6163 -8.6072 2.3902
-3.2838 -8.6674 2.3902
-2.9514 -8.7147 2.3902
-2.6197 -8.7494 2.3902
-2.2891 -8.7716 2.3902
-1.9602 -8.7815 2.3902
-1.6334 -8.7794 2.3902
-1.3092 -8.7656 2.3902
-0.9879 -8.7402 2.3902
-0.6700 -8.7037 2.3902
-0.3558 -8.6562 2.3902
-0.0457 -8.5981 2.3902
0.2599 -8.5297 2.3902
0.5608 -8.4512 2.3902
0.8567 -8.3630 2.3902
1.1473 -8.2654 2.3902
1.4323 -8.1587 2.3902
1.7116 -8.0432 2.3902
1.9848 -7.9193 2.3902
2.2518 -7.7871 2.3902
2.5125 -7.6472 2.3902
2.7666 -7.4997 2.3902
3.0139 -7.3449 2.3902
3.2545 -7.1832 2.3902
3.4880 -7.0149 2.3902
3.7145 -6.8402 2.3902
3.9337 -6.6595 2.3902
4.1457 -6.4729 2.3902
4.3504 -6.2809 2.3902
4.5475 -6.0836 2.3902
4.7372 -5.8814 2.3902
4.9193 -5.6745 2.3902
5.0938 -5.4631 2.3902
5.2607 -5.2475 2.3902
5.4199 -5.0280 2.3902
5.5713 -4.8047 2.3902
5.7151 -4.5780 2.3902
5.8510 -4.3480 2.3902
5.9792 -4.1150 2.3902
6.0997 -3.8791 2.3902
6.2123 -3.6407 2.3902
6.3171 -3.3999 2.3902
6.4142 -3.1568 2.3902
6.5035 -2.9118 2.3902
6.5849 -2.6650 2.3902
6.6586 -2.4166 2.3902
6.7245 -2.1668 2.3902
6.7827 -1.9158 2.3902
6.8330 -1.6637 2.3902
6.8757 -1.4108 2.3902
6.9106 -1.1572 2.3902
6.9377 -0.9031 2.3902
6.9572 -0.6486 2.3902
6.9690 -0.3940 2.3902
6.9731 -0.1394 2.3902
6.9695 0.1151 2.3902
6.9582 0.3691 2.3902
6.9393 0.6227 2.3902
6.9128 0.8756 2.3902
6.8787 1.1276 2.3902
6.8370 1.3786 2.3902
6.7877 1.6285 2.3902
6.7308 1.8769 2.3902
6.6664 2.1239 2.3902
6.5945 2.3691 2.3902
6.5150 2.6125 2.3902
6.4280 2.8538 2.3902
6.3336 3.0929 2.3902
6.2318 3.3297 2.3902
6.1225 3.5638 2.3902
6.0058 3.7951 2.3902
5.8817 4.0235 2.3902
5.7503 4.2488 2.3902
5.6115 4.4707 2.3902
5.4655 4.6890 2.3902
5.3122 4.9037 2.3902
5.1517 5.1143 2.3902
4.9841 5.3209 2.3902
4.8094 5.5230 2.3902
4.6276 5.7206 2.3902
4.4388 5.9134 2.3902
4.2431 6.1011 2.3902
4.0405 6.2836 2.3902
3.8311 6.4606 2.3902
3.6151 6.6319 2.3902
3.3924 6.7972 2.3902
3.1632 6.9562 2.3902
2.9277 7.1088 2.3902
2.6858 7.2547 2.3902
2.4379 7.3935 2.3902
2.1839 7.5252 2.3902
0.8124 3.2296 1.0092
0.6960 3.2590 1.0031
0.5787 3.2842 0.9970
0.4606 3.3051 0.9907
0.3417 3.3217 0.9844
0.2224 3.3340 0.9781
0.1026 3.3420 0.9717
-0.0173 3.3456 0.9652
-0.1374 3.3449 0.9587
-0.2573 3.3398 0.9522
-0.3770 3.3304 0.9457
-0.4962 3.3167 0.9391
-0.6149 3.2987 0.9326
-0.7328 3.2764 0.9261
-0.8499 3.2498 0.9196
-2.5285 8.4266 2.3902
-2.8493 8.3943 2.3902
-3.1709 8.3502 2.3902
-3.4929 8.2940 2.3902
-3.8148 8.2257 2.3902
-4.1362 8.1450 2.3902
-4.4565 8.0518 2.3902
-4.7752 7.9460 2.3902
-5.0917 7.8276 2.3902
-5.4055 7.6963 2.3902
-5.7159 7.5523 2.3902
-6.0225 7.3955 2.3902
-6.3244 7.2259 2.3902
-6.6212 7.0436 2.3902
-5.3033 -8.0905 2.3902
-4.9793 -8.2188 2.3902
-4.6523 -8.3337 2.3902
-4.3231 -8.4351 2.3902
-3.9922 -8.5233 2.3902
-3.6602 -8.5982 2.3902
-3.3278 -8.6602 2.3902
-2.9953 -8.7092 2.3902
-2.6635 -8.7455 2.3902
-2.3328 -8.7693 2.3902
-2.0036 -8.7809 2.3902
-1.6765 -8.7804 2.3902
-1.3519 -8.7681 2.3902
-1.0302 -8.7442 2.3902
-0.7118 -8.7091 2.3902
-0.3971 -8.6631 2.3902
-0.0865 -8.6064 2.3902
0.2198 -8.5393 2.3902
0.5213 -8.4621 2.3902
0.8179 -8.3752 2.3902
1.1092 -8.2788 2.3902
1.3950 -8.1733 2.3902
1.6750 -8.0590 2.3902
1.9490 -7.9361 2.3902
2.2169 -7.8051 2.3902
2.4784 -7.6661 2.3902
2.7333 -7.5196 2.3902
2.9816 -7.3658 2.3902
3.2231 -7.2050 2.3902
3.4575 -7.0375 2.3902
3.6849 -6.8637 2.3902
3.9052 -6.6837 2.3902
4.1181 -6.4979 2.3902
4.3237 -6.3066 2.3902
4.5219 -6.1100 2.3902
4.7126 -5.9084 2.3902
4.8957 -5.7021 2.3902
5.0712 -5.4913 2.3902
5.2391 -5.2763 2.3902
5.3993 -5.0572 2.3902
5.5518 -4.8345 2.3902
5.6965 -4.6082 2.3902
5.8335 -4.3786 2.3902
5.9627 -4.1459 2.3902
6.0842 -3.9105 2.3902
6.1979 -3.6724 2.3902
6.3037 -3.4318 2.3902
6.4018 -3.1891 2.3902
6.4921 -2.9443 2.3902
6.5746 -2.6978 2.3902
6.6493 -2.4496 2.3902
6.7162 -2.1999 2.3902
6.7754 -1.9491 2.3902
6.8268 -1.6971 2.3902
6.8705 -1.4443 2.3902
6.9064 -1.1908 2.3902
6.9346 -0.9367 2.3902
6.9551 -0.6823 2.3902
6.9679 -0.4277 2.3902
6.9730 -0.1730 2.3902
6.9704 0.0814 2.3902
6.9602 0.3356 2.3902
6.9423 0.5892 2.3902
6.9168 0.8422 2.3902
6.8836 1.0944 2.3902
6.8429 1.3455 2.3902
6.7946 1.5955 2.3902
6.7388 1.8442 2.3902
6.6753 2.0913 2.3902
6.6044 2.3368 2.3902
6.5259 2.5805 2.3902
6.4400 2.8221 2.3902
6.3465 3.0615 2.3902
6.2457 3.2985 2.3902
6.1373 3.5330 2.3902
6.0216 3.7647 2.3902
5.8985 3.9935 2.3902
5.7681 4.2192 2.3902
5.6303 4.4415 2.3902
5.4852 4.6604 2.3902
5.3329 4.8755 2.3902
5.1734 5.0867 2.3902
5.0067 5.2938 2.3902
4.8329 5.4966 2.3902
4.6520 5.6948 2.3902
4.4641 5.8882 2.3902
4.2693 6.0766 2.3902
4.0677 6.2598 2.3902
3.8592 6.4375 2.3902
3.6440 6.6096 2.3902
3.4222 6.7757 2.3902
3.1939 6.9356 2.3902
2.9592 7.0890 2.3902
2.7182 7.2358 2.3902
2.4710 7.3756 2.3902
2.2178 7.5082 2.3902
0.8277 3.2254 1.0100
0.7115 3.2554 1.0039
0.5943 3.2811 0.9978
0.4762 3.3026 0.9916
0.3575 3.3197 0.9853
0.2382 3.3326 0.9789
0.1185 3.3412 0.9725
-0.0015 3.3454 0.9661
-0.1215 3.3452 0.9596
-0.2414 3.3407 0.9531
-0.3612 3.3319 0.9465
-0.4805 3.3188 0.9400
-0.5992 3.3013 0.9335
-0.7173 3.2796 0.9269
-0.8345 3.2536 0.9204
-0.9506 3.2233 0.9139
-2.8068 8.3993 2.3902
-3.1283 8.3567 2.3902
-3.4503 8.3022 2.3902
-3.7723 8.2354 2.3902
-4.0938 8.1564 2.3902
-4.4143 8.0649 2.3902
-4.7332 7.9607 2.3902
-2.6627 7.6924 2.3902
-2.9560 7.6460 2.3902
-3.2494 7.5886 2.3902
-3.5422 7.5200 2.3902
-3.8341 7.4402 2.3902
-4.1246 7.3491 2.3902
-4.4133 7.2466 2.3902
-4.6995 7.1326 2.3902
-4.9829 7.0071 2.3902
-5.2628 6.8701 2.3902
-5.5388 6.7217 2.3902
-5.8103 6.5618 2.3902
-6.0767 6.3906 2.3902
-6.3376 6.2081 2.3902
-6.5922 6.0145 2.3902
-6.8402 5.8100 2.3902
-7.0808 5.5947 2.3902
-7.3136 5.3690 2.3902
-7.5380 5.1329 2.3902
-7.7535 4.8869 2.3902
-7.9594 4.6314 2.3902
-8.1553 4.3665 2.3902
-8.3407 4.0928 2.3902
-8.5151 3.8107 2.3902
-8.6779 3.5207 2.3902
-8.8288 3.2231 2.3902
-8.9673 2.9187 2.3902
-9.0931 2.6079 2.3902
-9.2057 2.2913 2.3902
-9.3047 1.9695 2.3902
-9.3900 1.6432 2.3902
-9.4612 1.3129 2.3902
-9.5182 0.9795 2.3902
-9.5606 0.6435 2.3902
-9.5884 0.3056 2.3902
-9.6015 -0.0334 2.3902
-9.5997 -0.3728 2.3902
-9.5832 -0.7119 2.3902
-9.5518 -1.0500 2.3902
-9.5057 -1.3863 2.3902
-9.4450 -1.7202 2.3902
-9.3698 -2.0510 2.3902
-9.2804 -2.3779 2.3902
-9.1769 -2.7003 2.3902
-9.0597 -3.0176 2.3902
-8.9290 -3.3290 2.3902
-8.7852 -3.6340 2.3902
-8.6287 -3.9320 2.3902
-8.4599 -4.2225 2.3902
-8.2793 -4.5048 2.3902
-8.0873 -4.7785 2.3902
-7.8844 -5.0431 2.3902
-7.6711 -5.2982 2.3902
-7.4480 -5.5433 2.3902
-7.2157 -5.7782 2.3902
-6.9746 -6.0025 2.3902
-6.7254 -6.2158 2.3902
-6.4686 -6.4179 2.3902
-6.2049 -6.6087 2.3902
-5.9349 -6.7878 2.3902
-5.6590 -6.9552 2.3902
-5.3780 -7.1107 2.3902
-5.0924 -7.2542 2.3902
-4.8028 -7.3857 2.3902
-4.5097 -7.5051 2.3902
-4.2138 -7.6124 2.3902
-3.9156 -7.7078 2.3902
-3.6155 -7.7911 2.3902
-3.3143 -7.8626 2.3902
-3.0123 -7.9222 2.3902
-2.7100 -7.9701 2.3902
-2.4081 -8.0065 2.3902
-2.1068 -8.0316 2.3902
-1.8066 -8.0454 2.3902
-1.5081 -8.0482 2.3902
-1.2115 -8.0402 2.3902
-0.9173 -8.0217 2.3902
-0.6258 -7.9928 2.3902
-0.3375 -7.9537 2.3902
-0.0525 -7.9048 2.3902
0.2286 -7.8463 2.3902
0.5058 -7.7785 2.3902
0.7786 -7.7015 2.3902
1.0468 -7.6158 2.3902
1.3101 -7.5215 2.3902
1.5684 -7.4189 2.3902
1.8214 -7.3083 2.3902
2.0689 -7.1901 2.3902
2.3108 -7.0643 2.3902
2.5467 -6.9314 2.3902
2.7767 -6.7916 2.3902
3.0006 -6.6452 2.3902
3.2181 -6.4924 2.3902
3.4292 -6.3336 2.3902
3.6339 -6.1689 2.3902
3.8318 -5.9986 2.3902
4.0231 -5.8230 2.3902
4.2076 -5.6424 2.3902
4.3852 -5.4569 2.3902
4.5558 -5.2669 2.3902
4.7195 -5.0725 2.3902
4.8761 -4.8740 2.3902
5.0256 -4.6716 2.3902
5.1680 -4.4656 2.3902
5.3032 -4.2562 2.3902
5.4311 -4.0436 2.3902
5.5519 -3.8279 2.3902
5.6654 -3.6095 2.3902
5.7716 -3.3885 2.3902
5.8706 -3.1652 2.3902
5.9622 -2.9396 2.3902
6.0466 -2.7121 2.3902
6.1236 -2.4827 2.3902
6.1933 -2.2518 2.3902
6.2558 -2.0194 2.3902
6.3109 -1.7858 2.3902
6.3587 -1.5512 2.3902
6.3992 -1.3156 2.3902
6.4324 -1.0794 2.3902
6.4583 -0.8426 2.3902
6.4770 -0.6054 2.3902
6.4884 -0.3681 2.3902
6.4925 -0.1307 2.3902
6.4894 0.1065 2.3902
6.4790 0.3434 2.3902
6.4615 0.5798 2.3902
6.4367 0.8156 2.3902
6.4048 1.0506 2.3902
6.3656 1.2846 2.3902
6.3193 1.5174 2.3902
6.2659 1.7490 2.3902
6.2054 1.9790 2.3902
6.1377 2.2074 2.3902
6.0630 2.4340 2.3902
5.9813 2.6586 2.3902
5.8925 2.8811 2.3902
5.7967 3.1012 2.3902
5.6939 3.3187 2.3902
5.5842 3.5336 2.3902
5.4676 3.7456 2.3902
5.3441 3.9545 2.3902
5.2138 4.1602 2.3902
5.0767 4.3624 2.3902
4.9328 4.5610 2.3902
4.7822 4.7557 2.3902
4.6250 4.9465 2.3902
4.4613 5.1330 2.3902
4.2909 5.3150 2.3902
4.1142 5.4924 2.3902
3.9310 5.6650 2.3902
3.7416 5.8325 2.3902
3.5459 5.9947 2.3902
3.3442 6.1514 2.3902
3.1364 6.3023 2.3902
2.9227 6.4473 2.3902
2.7032 6.5860 2.3902
2.4780 6.7184 2.3902
2.2473 6.8441 2.3902
0.8491 2.9396 1.0091
0.7432 2.9705 1.0036
0.6362 2.9975 0.9980
0.5283 3.0206 0.9924
0.4196 3.0398 0.9866
0.3102 3.0551 0.9808
0.2004 3.0663 0.9750
0.0903 3.0737 0.9691
-0.0201 3.0770 0.9632
-0.1305 3.0763 0.9572
-0.2408 3.0717 0.9512
-0.3508 3.0630 0.9452
-0.4605 3.0504 0.9392
-0.5697 3.0338 0.9332
-0.6782 3.0133 0.9272
-0.7858 2.9888 0.9212
-0.8926 2.9605 0.9152
-2.6239 7.6977 2.3902
-2.9172 7.6527 2.3902
-3.2106 7.5968 2.3902
-3.5035 7.5297 2.3902
-3.7956 7.4514 2.3902
-4.0863 7.3618 2.3902
-4.3752 7.2608 2.3902
-4.6618 7.1483 2.3902
-4.9456 7.0244 2.3902
-5.2260 6.8889 2.3902
-5.5026 6.7420 2.3902
-5.7747 6.5836 2.3902
-6.0418 6.4139 2.3902
-6.3034 6.2329 2.3902
-6.5589 6.0408 2.3902
-6.8078 5.8377 2.3902
-7.0494 5.6238 2.3902
-7.2833 5.3994 2.3902
-7.5088 5.1647 2.3902
-7.7255 4.9200 2.3902
-7.9327 4.6657 2.3902
-8.1300 4.4020 2.3902
-8.3168 4.1295 2.3902
-8.4927 3.8485 2.3902
-8.6571 3.5594 2.3902
-8.8096 3.2629 2.3902
-8.9498 2.9593 2.3902
-9.0772 2.6493 2.3902
-9.1915 2.3335 2.3902
-9.2924 2.0123 2.3902
-9.3795 1.6866 2.3902
-9.4526 1.3568 2.3902
-9.5114 1.0237 2.3902
-9.5558 0.6880 2.3902
-9.5856 0.3504 2.3902
-9.6006 0.0115 2.3902
-9.6008 -0.3279 2.3902
-9.5862 -0.6671 2.3902
-9.5568 -1.0053 2.3902
-9.5127 -1.3420 2.3902
-9.4539 -1.6763 2.3902
-9.3806 -2.0075 2.3902
-9.2930 -2.3349 2.3902
-9.1914 -2.6580 2.3902
-9.0759 -2.9760 2.3902
-8.9470 -3.2882 2.3902
-8.8050 -3.5941 2.3902
-8.6501 -3.8931 2.3902
-8.4829 -4.1845 2.3902
-8.3038 -4.4679 2.3902
-8.1133 -4.7428 2.3902
-7.9118 -5.0086 2.3902
-7.6999 -5.2650 2.3902
-7.4781 -5.5115 2.3902
-7.2469 -5.7478 2.3902
-7.0069 -5.9734 2.3902
-6.7588 -6.1882 2.3902
-6.5030 -6.3919 2.3902
-6.2402 -6.5841 2.3902
-5.9709 -6.7648 2.3902
-5.6958 -6.9337 2.3902
-5.4154 -7.0908 2.3902
-5.1304 -7.2359 2.3902
-4.8413 -7.3690 2.3902
-4.5486 -7.4900 2.3902
-4.2531 -7.5989 2.3902
-3.9551 -7.6959 2.3902
-3.6553 -7.7808 2.3902
-3.3542 -7.8538 2.3902
-3.0522 -7.9150 2.3902
-2.7500 -7.9644 2.3902
-2.4480 -8.0024 2.3902
-2.1466 -8.0289 2.3902
-1.8462 -8.0442 2.3902
-1.5474 -8.0485 2.3902
-1.2506 -8.0419 2.3902
-0.9560 -8.0247 2.3902
-0.6642 -7.9972 2.3902
-0.3754 -7.9595 2.3902
-0.0900 -7.9118 2.3902
0.1917 -7.8546 2.3902
0.4694 -7.7880 2.3902
0.7427 -7.7122 2.3902
1.0116 -7.6276 2.3902
1.2756 -7.5344 2.3902
1.5346 -7.4329 2.3902
1.7883 -7.3234 2.3902
2.0365 -7.2061 2.3902
2.2791 -7.0814 2.3902
2.5159 -6.9494 2.3902
2.7467 -6.8105 2.3902
2.9713 -6.6650 2.3902
3.1897 -6.5130 2.3902
3.4017 -6.3549 2.3902
3.6072 -6.1910 2.3902
3.8061 -6.0214 2.3902
3.9982 -5.8465 2.3902
4.1836 -5.6666 2.3902
4.3621 -5.4817 2.3902
4.5337 -5.2923 2.3902
4.6983 -5.0984 2.3902
4.8558 -4.9005 2.3902
5.0063 -4.6986 2.3902
5.1496 -4.4931 2.3902
5.2857 -4.2841 2.3902
5.4146 -4.0719 2.3902
5.5363 -3.8566 2.3902
5.6508 -3.6386 2.3902
5.7580 -3.4179 2.3902
5.8579 -3.1948 2.3902
5.9505 -2.9696 2.3902
6.0358 -2.7423 2.3902
6.1138 -2.5132 2.3902
6.1845 -2.2824 2.3902
6.2479 -2.0502 2.3902
6.3040 -1.8168 2.3902
6.3528 -1.5823 2.3902
6.3943 -1.3468 2.3902
6.4284 -1.1107 2.3902
6.4553 -0.8739 2.3902
6.4749 -0.6368 2.3902
6.4873 -0.3995 2.3902
6.4924 -0.1621 2.3902
6.4902 0.0751 2.3902
6.4808 0.3121 2.3902
6.4642 0.5486 2.3902
6.4404 0.7845 2.3902
6.4094 1.0196 2.3902
6.3712 1.2537 2.3902
6.3259 1.4867 2.3902
6.2734 1.7184 2.3902
6.2138 1.9487 2.3902
6.1471 2.1773 2.3902
6.0733 2.4042 2.3902
5.9925 2.6291 2.3902
5.9046 2.8518 2.3902
5.8097 3.0722 2.3902
5.7079 3.2901 2.3902
5.5991 3.5053 2.3902
5.4834 3.7177 2.3902
5.3608 3.9270 2.3902
5.2314 4.1332 2.3902
5.0952 4.3359 2.3902
4.9522 4.5349 2.3902
4.8025 4.7302 2.3902
4.6462 4.9215 2.3902
4.4833 5.1086 2.3902
4.3138 5.2912 2.3902
4.1379 5.4693 2.3902
3.9556 5.6425 2.3902
3.7670 5.8106 2.3902
3.5722 5.9735 2.3902
3.3712 6.1310 2.3902
3.1642 6.2827 2.3902
2.9513 6.4284 2.3902
2.7325 6.5680 2.3902
2.5081 6.7013 2.3902
2.2781 6.8278 2.3902
0.8630 2.9353 1.0099
0.7572 2.9666 1.0044
0.6504 2.9941 0.9988
0.5426 3.0178 0.9931
0.4340 3.0375 0.9874
0.3247 3.0533 0.9816
0.2150 3.0651 0.9758
0.1049 3.0729 0.9699
-0.0055 3.0768 0.9640
-0.1159 3.0766 0.9580
-0.2262 3.0725 0.9520
-0.3363 3.0644 0.9460
-0.4460 3.0523 0.9400
-0.5553 3.0362 0.9340
-0.6639 3.0162 0.9280
-0.7717 2.9923 0.9220
-0.8785 2.9645 0.9160
-2.5852 7.7028 2.3902
-2.8784 7.6593 2.3902
-3.1718 7.6048 2.3902
-3.4648 7.5392 2.3902
-3.7570 7.4624 2.3902
-4.0480 7.3743 2.3902
-4.3372 7.2748 2.3902
-0.9398 2.7036 0.9109
-2.7355 7.0484 2.3902
-3.0045 6.9919 2.3902
-3.2728 6.9252 2.3902
-3.5399 6.8483 2.3902
-3.8055 6.7610 2.3902
-4.0691 6.6633 2.3902
-4.3302 6.5552 2.3902
-4.5885 6.4367 2.3902
-4.8433 6.3077 2.3902
-5.0944 6.1684 2.3902
-5.3410 6.0187 2.3902
-5.5829 5.8589 2.3902
-5.8194 5.6889 2.3902
-6.0501 5.5090 2.3902
-6.2745 5.3192 2.3902
-6.4921 5.1199 2.3902
-6.7024 4.9111 2.3902
-6.9049 4.6932 2.3902
-7.0991 4.4665 2.3902
-7.2846 4.2312 2.3902
-7.4610 3.9877 2.3902
-7.6277 3.7364 2.3902
-7.7844 3.4776 2.3902
-7.9306 3.2118 2.3902
-8.0659 2.9394 2.3902
-8.1901 2.6610 2.3902
-8.3026 2.3769 2.3902
-8.4033 2.0877 2.3902
-8.4919 1.7940 2.3902
-8.5680 1.4963 2.3902
-8.6314 1.1952 2.3902
-8.6821 0.8912 2.3902
-8.7197 0.5851 2.3902
-8.7442 0.2773 2.3902
-8.7555 -0.0314 2.3902
-8.7535 -0.3405 2.3902
-8.7382 -0.6493 2.3902
-8.7096 -0.9572 2.3902
-8.6679 -1.2635 2.3902
-8.6131 -1.5676 2.3902
-8.5452 -1.8690 2.3902
-8.4646 -2.1670 2.3902
-8.3714 -2.4609 2.3902
-8.2658 -2.7504 2.3902
-8.1481 -3.0346 2.3902
-8.0186 -3.3132 2.3902
-7.8777 -3.5856 2.3902
-7.7256 -3.8513 2.3902
-7.5628 -4.1097 2.3902
-7.3897 -4.3606 2.3902
-7.2067 -4.6034 2.3902
-7.0143 -4.8377 2.3902
-6.8129 -5.0632 2.3902
-6.6030 -5.2796 2.3902
-6.3851 -5.4865 2.3902
-6.1597 -5.6836 2.3902
-5.9273 -5.8708 2.3902
-5.6884 -6.0477 2.3902
-5.4435 -6.2142 2.3902
-5.1933 -6.3702 2.3902
-4.9381 -6.5155 2.3902
-4.6785 -6.6501 2.3902
-4.4150 -6.7738 2.3902
-4.1482 -6.8865 2.3902
-3.8785 -6.9884 2.3902
-3.6064 -7.0793 2.3902
-3.3325 -7.1594 2.3902
-3.0572 -7.2286 2.3902
-2.7809 -7.2871 2.3902
-2.5041 -7.3348 2.3902
-2.2273 -7.3720 2.3902
-1.9508 -7.3988 2.3902
-1.6751 -7.4153 2.3902
-1.4006 -7.4216 2.3902
-1.1277 -7.4180 2.3902
-0.8566 -7.4046 2.3902
-0.5879 -7.3816 2.3902
-0.3217 -7.3491 2.3902
-0.0584 -7.3075 2.3902
0.2017 -7.2570 2.3902
0.4582 -7.1977 2.3902
0.7110 -7.1299 2.3902
0.9598 -7.0538 2.3902
1.2043 -6.9697 2.3902
1.4443 -6.8777 2.3902
1.6796 -6.7783 2.3902
1.9101 -6.6715 2.3902
2.1354 -6.5577 2.3902
2.3555 -6.4370 2.3902
2.5702 -6.3098 2.3902
2.7793 -6.1763 2.3902
2.9827 -6.0367 2.3902
3.1802 -5.8913 2.3902
3.3718 -5.7402 2.3902
3.5574 -5.5838 2.3902
3.7368 -5.4223 2.3902
3.9099 -5.2559 2.3902
4.0767 -5.0849 2.3902
4.2371 -4.9094 2.3902
4.3910 -4.7297 2.3902
4.5384 -4.5460 2.3902
4.6792 -4.3585 2.3902
4.8134 -4.1675 2.3902
4.9408 -3.9731 2.3902
5.0616 -3.7756 2.3902
5.1756 -3.5752 2.3902
5.2828 -3.3720 2.3902
5.3832 -3.1663 2.3902
5.4768 -2.9582 2.3902
5.5635 -2.7480 2.3902
5.6434 -2.5358 2.3902
5.7164 -2.3218 2.3902
5.7825 -2.1063 2.3902
5.8417 -1.8893 2.3902
5.8940 -1.6710 2.3902
5.9394 -1.4517 2.3902
5.9780 -1.2315 2.3902
6.0096 -1.0106 2.3902
6.0344 -0.7891 2.3902
6.0523 -0.5673 2.3902
6.0633 -0.3452 2.3902
6.0674 -0.1231 2.3902
6.0647 0.0989 2.3902
6.0551 0.3206 2.3902
6.0387 0.5419 2.3902
6.0155 0.7626 2.3902
5.9854 0.9824 2.3902
5.9486 1.2014 2.3902
5.9051 1.4192 2.3902
5.8547 1.6358 2.3902
5.7977 1.8509 2.3902
5.7339 2.0645 2.3902
5.6635 2.2763 2.3902
5.5864 2.4861 2.3902
5.5027 2.6938 2.3902
5.4123 2.8993 2.3902
5.3155 3.1023 2.3902
5.2120 3.3027 2.3902
5.1022 3.5003 2.3902
4.9858 3.6949 2.3902
4.8631 3.8864 2.3902
4.7340 4.0745 2.3902
4.5985 4.2591 2.3902
4.4569 4.4400 2.3902
4.3090 4.6170 2.3902
4.1550 4.7899 2.3902
3.9950 4.9585 2.3902
3.8290 5.1226 2.3902
3.6571 5.2820 2.3902
3.4793 5.4366 2.3902
3.2959 5.5861 2.3902
3.1068 5.7302 2.3902
2.9122 5.8689 2.3902
2.7121 6.0019 2.3902
2.5069 6.1289 2.3902
2.2964 6.2498 2.3902
0.8784 2.6864 1.0089
0.7815 2.7184 1.0039
0.6835 2.7469 0.9988
0.5845 2.7719 0.9937
0.4847 2.7933 0.9884
0.3842 2.8110 0.9831
0.2831 2.8251 0.9778
0.1815 2.8355 0.9724
0.0796 2.8423 0.9669
-0.0224 2.8453 0.9614
-0.1245 2.8447 0.9559
-0.2265 2.8404 0.9504
-0.3283 2.8324 0.9448
-0.4297 2.8207 0.9392
-0.5307 2.8053 0.9337
-0.6310 2.7864 0.9281
-0.7306 2.7638 0.9226
-0.8293 2.7376 0.9171
-0.9270 2.7078 0.9116
-2.6999 7.0551 2.3902
-2.9690 7.0000 2.3902
-3.2373 6.9346 2.3902
-3.5047 6.8591 2.3902
-3.7705 6.7731 2.3902
-4.0344 6.6768 2.3902
-4.2959 6.5701 2.3902
-4.5545 6.4529 2.3902
-4.8098 6.3254 2.3902
-5.0614 6.1874 2.3902
-5.3087 6.0391 2.3902
-5.5512 5.8806 2.3902
-5.7884 5.7120 2.3902
-6.0199 5.5333 2.3902
-6.2452 5.3449 2.3902
-6.4637 5.1468 2.3902
-6.6750 4.9392 2.3902
-6.8786 4.7226 2.3902
-7.0739 4.4970 2.3902
-7.2606 4.2628 2.3902
-7.4382 4.0204 2.3902
-7.6062 3.7700 2.3902
-7.7642 3.5122 2.3902
-7.9118 3.2474 2.3902
-8.0486 2.9758 2.3902
-8.1743 2.6981 2.3902
-8.2884 2.4147 2.3902
-8.3907 2.1262 2.3902
-8.4809 1.8331 2.3902
-8.5586 1.5359 2.3902
-8.6238 1.2351 2.3902
-8.6761 0.9315 2.3902
-8.7155 0.6257 2.3902
-8.7417 0.3181 2.3902
-8.7547 0.0094 2.3902
-8.7545 -0.2996 2.3902
-8.7410 -0.6085 2.3902
-8.7142 -0.9165 2.3902
-8.6742 -1.2231 2.3902
-8.6210 -1.5276 2.3902
-8.5549 -1.8293 2.3902
-8.4760 -2.1278 2.3902
-8.3844 -2.4223 2.3902
-8.2805 -2.7124 2.3902
-8.1643 -2.9973 2.3902
-8.0364 -3.2767 2.3902
-7.8969 -3.5499 2.3902
-7.7463 -3.8165 2.3902
-7.5849 -4.0760 2.3902
-7.4132 -4.3279 2.3902
-7.2315 -4.5717 2.3902
-7.0403 -4.8072 2.3902
-6.8400 -5.0339 2.3902
-6.6312 -5.2515 2.3902
-6.4144 -5.4597 2.3902
-6.1899 -5.6581 2.3902
-5.9584 -5.8466 2.3902
-5.7203 -6.0249 2.3902
-5.4762 -6.1928 2.3902
-5.2267 -6.3502 2.3902
-4.9721 -6.4970 2.3902
-4.7130 -6.6329 2.3902
-4.4501 -6.7580 2.3902
-4.1837 -6.8723 2.3902
-3.9143 -6.9755 2.3902
-3.6425 -7.0679 2.3902
-3.3688 -7.1494 2.3902
-3.0936 -7.2201 2.3902
-2.8175 -7.2799 2.3902
-2.5407 -7.3291 2.3902
-2.2639 -7.3677 2.3902
-1.9873 -7.3959 2.3902
-1.7115 -7.4137 2.3902
-1.4368 -7.4214 2.3902
-1.1637 -7.4190 2.3902
-0.8924 -7.4069 2.3902
-0.6233 -7.3851 2.3902
-0.3567 -7.3540 2.3902
-0.0931 -7.3136 2.3902
0.1675 -7.2642 2.3902
0.4245 -7.2060 2.3902
0.6778 -7.1393 2.3902
0.9271 -7.0643 2.3902
1.1722 -6.9812 2.3902
1.4128 -6.8903 2.3902
1.6488 -6.7919 2.3902
1.8799 -6.6860 2.3902
2.1059 -6.5731 2.3902
2.3267 -6.4534 2.3902
2.5421 -6.3270 2.3902
2.7519 -6.1943 2.3902
2.9561 -6.0555 2.3902
3.1544 -5.9108 2.3902
3.3468 -5.7605 2.3902
3.5332 -5.6048 2.3902
3.7134 -5.4440 2.3902
3.8874 -5.2782 2.3902
4.0550 -5.1078 2.3902
4.2163 -4.9328 2.3902
4.3710 -4.7537 2.3902
4.5193 -4.5705 2.3902
4.6610 -4.3835 2.3902
4.7960 -4.1930 2.3902
4.9244 -3.9990 2.3902
5.0460 -3.8019 2.3902
5.1609 -3.6019 2.3902
5.2690 -3.3990 2.3902
5.3703 -3.1936 2.3902
5.4648 -2.9859 2.3902
5.5524 -2.7759 2.3902
5.6332 -2.5640 2.3902
5.7071 -2.3502 2.3902
5.7741 -2.1348 2.3902
5.8342 -1.9180 2.3902
5.8875 -1.6999 2.3902
5.9338 -1.4808 2.3902
5.9733 -1.2607 2.3902
6.0058 -1.0398 2.3902
6.0315 -0.8184 2.3902
6.0503 -0.5966 2.3902
6.0622 -0.3746 2.3902
6.0672 -0.1525 2.3902
6.0654 0.0696 2.3902
6.0568 0.2913 2.3902
6.0413 0.5127 2.3902
6.0189 0.7334 2.3902
5.9898 0.9534 2.3902
5.9539 1.1725 2.3902
5.9112 1.3905 2.3902
5.8618 1.6072 2.3902
5.8056 1.8226 2.3902
5.7427 2.0363 2.3902
5.6732 2.2484 2.3902
5.5970 2.4585 2.3902
5.5141 2.6665 2.3902
5.4247 2.8723 2.3902
5.3286 3.0756 2.3902
5.2261 3.2764 2.3902
5.1171 3.4743 2.3902
5.0016 3.6694 2.3902
4.8797 3.8612 2.3902
4.7514 4.0498 2.3902
4.6168 4.2349 2.3902
4.4760 4.4163 2.3902
4.3289 4.5938 2.3902
4.1758 4.7673 2.3902
4.0165 4.9364 2.3902
3.8513 5.1012 2.3902
3.6801 5.2612 2.3902
3.5032 5.4164 2.3902
3.3204 5.5666 2.3902
3.1321 5.7115 2.3902
2.9382 5.8509 2.3902
2.7389 5.9846 2.3902
2.5343 6.1125 2.3902
2.3245 6.2342 2.3902
2.1097 6.3496 2.3902
0.7944 2.7144 1.0046
0.6965 2.7434 0.9995
0.5977 2.7688 0.9944
0.4979 2.7906 0.9891
0.3975 2.8089 0.9838
0.2965 2.8234 0.9785
0.1950 2.8343 0.9731
0.0931 2.8416 0.9676
-0.0089 2.8451 0.9621
-0.1110 2.8450 0.9566
-0.2130 2.8412 0.9511
-0.3149 2.8336 0.9455
-0.4164 2.8224 0.9400
-0.5174 2.8076 0.9344
-0.6178 2.7891 0.9289
-0.7175 2.7670 0.9233
-0.8163 2.7412 0.9178
-0.9141 2.7120 0.9123
-2.6643 7.0616 2.3902
-2.9334 7.0078 2.3902
-3.2019 6.9439 2.3902
-3.4694 6.8697 2.3902
-3.7354 6.7851 2.3902
-3.9996 6.6902 2.3902
-0.8768 2.5116 0.9129
-2.5443 6.5301 2.3902
-2.7923 6.4750 2.3902
-3.0395 6.4104 2.3902
-3.2855 6.3364 2.3902
-3.5298 6.2529 2.3902
-3.7720 6.1599 2.3902
-4.0118 6.0573 2.3902
-4.2487 5.9452 2.3902
-4.4823 5.8236 2.3902
-4.7122 5.6926 2.3902
-4.9378 5.5522 2.3902
-5.1589 5.4025 2.3902
-5.3750 5.2436 2.3902
-5.5855 5.0757 2.3902
-5.7901 4.8990 2.3902
-5.9884 4.7136 2.3902
-6.1798 4.5197 2.3902
-6.3640 4.3176 2.3902
-6.5406 4.1076 2.3902
-6.7091 3.8899 2.3902
-6.8691 3.6648 2.3902
-7.0203 3.4328 2.3902
-7.1623 3.1940 2.3902
-7.2947 2.9490 2.3902
-7.4172 2.6982 2.3902
-7.5294 2.4419 2.3902
-7.6311 2.1806 2.3902
-7.7220 1.9148 2.3902
-7.8019 1.6450 2.3902
-7.8705 1.3716 2.3902
-7.9276 1.0952 2.3902
-7.9730 0.8164 2.3902
-8.0067 0.5355 2.3902
-8.0285 0.2533 2.3902
-8.0384 -0.0298 2.3902
-8.0362 -0.3131 2.3902
-8.0221 -0.5962 2.3902
-7.9959 -0.8785 2.3902
-7.9579 -1.1594 2.3902
-7.9079 -1.4383 2.3902
-7.8462 -1.7147 2.3902
-7.7729 -1.9881 2.3902
-7.6883 -2.2579 2.3902
-7.5923 -2.5237 2.3902
-7.4855 -2.7848 2.3902
-7.3679 -3.0408 2.3902
-7.2399 -3.2914 2.3902
-7.1018 -3.5359 2.3902
-6.9539 -3.7740 2.3902
-6.7965 -4.0052 2.3902
-6.6301 -4.2292 2.3902
-6.4551 -4.4457 2.3902
-6.2718 -4.6542 2.3902
-6.0807 -4.8545 2.3902
-5.8822 -5.0463 2.3902
-5.6767 -5.2293 2.3902
-5.4648 -5.4033 2.3902
-5.2467 -5.5681 2.3902
-5.0231 -5.7235 2.3902
-4.7944 -5.8693 2.3902
-4.5610 -6.0055 2.3902
-4.3234 -6.1319 2.3902
-4.0821 -6.2484 2.3902
-3.8375 -6.3550 2.3902
-3.5901 -6.4517 2.3902
-3.3404 -6.5383 2.3902
-3.0886 -6.6151 2.3902
-2.8354 -6.6819 2.3902
-2.5811 -6.7388 2.3902
-2.3262 -6.7859 2.3902
-2.0709 -6.8233 2.3902
-1.8158 -6.8511 2.3902
-1.5612 -6.8693 2.3902
-1.3074 -6.8782 2.3902
-1.0549 -6.8778 2.3902
-0.8039 -6.8684 2.3902
-0.5549 -6.8500 2.3902
-0.3080 -6.8228 2.3902
-0.0635 -6.7871 2.3902
0.1781 -6.7430 2.3902
0.4167 -6.6907 2.3902
0.6520 -6.6304 2.3902
0.8837 -6.5623 2.3902
1.1117 -6.4867 2.3902
1.3356 -6.4037 2.3902
1.5553 -6.3136 2.3902
1.7707 -6.2165 2.3902
1.9814 -6.1128 2.3902
2.1874 -6.0026 2.3902
2.3885 -5.8861 2.3902
2.5845 -5.7636 2.3902
2.7753 -5.6353 2.3902
2.9607 -5.5014 2.3902
3.1407 -5.3621 2.3902
3.3151 -5.2177 2.3902
3.4838 -5.0684 2.3902
3.6468 -4.9144 2.3902
3.8039 -4.7559 2.3902
3.9550 -4.5931 2.3902
4.1002 -4.4262 2.3902
4.2392 -4.2554 2.3902
4.3721 -4.0810 2.3902
4.4989 -3.9031 2.3902
4.6193 -3.7220 2.3902
4.7335 -3.5378 2.3902
4.8414 -3.3507 2.3902
4.9429 -3.1610 2.3902
5.0379 -2.9687 2.3902
5.1266 -2.7742 2.3902
5.2088 -2.5775 2.3902
5.2846 -2.3789 2.3902
5.3538 -2.1786 2.3902
5.4166 -1.9766 2.3902
5.4729 -1.7733 2.3902
5.5226 -1.5687 2.3902
5.5659 -1.3631 2.3902
5.6026 -1.1565 2.3902
5.6327 -0.9493 2.3902
5.6564 -0.7414 2.3902
5.6735 -0.5332 2.3902
5.6842 -0.3248 2.3902
5.6883 -0.1163 2.3902
5.6859 0.0922 2.3902
5.6770 0.3003 2.3902
5.6616 0.5081 2.3902
5.6398 0.7152 2.3902
5.6115 0.9217 2.3902
5.5768 1.1272 2.3902
5.5356 1.3316 2.3902
5.4881 1.5349 2.3902
5.4342 1.7367 2.3902
5.3740 1.9370 2.3902
5.3074 2.1356 2.3902
5.2345 2.3324 2.3902
5.1554 2.5270 2.3902
5.0700 2.7195 2.3902
4.9785 2.9096 2.3902
4.8808 3.0972 2.3902
4.7770 3.2820 2.3902
4.6671 3.4640 2.3902
4.5512 3.6429 2.3902
4.4293 3.8186 2.3902
4.3015 3.9909 2.3902
4.1679 4.1595 2.3902
4.0285 4.3245 2.3902
3.8833 4.4854 2.3902
3.7325 4.6423 2.3902
3.5762 4.7948 2.3902
3.4143 4.9428 2.3902
3.2471 5.0861 2.3902
3.0746 5.2245 2.3902
2.8968 5.3578 2.3902
2.7140 5.4859 2.3902
2.5262 5.6085 2.3902
2.3336 5.7254 2.3902
2.1362 5.8365 2.3902
0.8125 2.4958 1.0040
0.7225 2.5255 0.9994
0.6314 2.5520 0.9947
0.5395 2.5751 0.9898
0.4467 2.5949 0.9850
0.3533 2.6114 0.9801
0.2594 2.6245 0.9751
0.1650 2.6342 0.9700
0.0704 2.6404 0.9650
-0.0244 2.6432 0.9599
-0.1193 2.6427 0.9547
-0.2141 2.6386 0.9496
-0.3087 2.6312 0.9444
-0.4029 2.6203 0.9393
-0.4967 2.6061 0.9341
-0.5899 2.5884 0.9290
-0.6824 2.5674 0.9238
-0.7741 2.5431 0.9187
-0.8649 2.5155 0.9136
-0.9546 2.4846 0.9085
-2.7596 6.4828 2.3902
-3.0069 6.4195 2.3902
-3.2530 6.3468 2.3902
-3.4976 6.2645 2.3902
-3.7401 6.1727 2.3902
-3.9802 6.0714 2.3902
-4.2175 5.9606 2.3902
-4.4516 5.8402 2.3902
-4.6820 5.7104 2.3902
-4.9082 5.5713 2.3902
-5.1300 5.4228 2.3902
-5.3467 5.2651 2.3902
-5.5580 5.0984 2.3902
-5.7634 4.9228 2.3902
-5.9625 4.7386 2.3902
-6.1549 4.5458 2.3902
-6.3401 4.3448 2.3902
-6.5177 4.1358 2.3902
-6.6873 3.9191 2.3902
-6.8485 3.6950 2.3902
-7.0009 3.4638 2.3902
-7.1441 3.2260 2.3902
-7.2777 2.9818 2.3902
-7.4016 2.7317 2.3902
-7.5152 2.4761 2.3902
-7.6183 2.2154 2.3902
-7.7106 1.9502 2.3902
-7.7920 1.6809 2.3902
-7.8620 1.4080 2.3902
-7.9207 1.1319 2.3902
-7.9677 0.8534 2.3902
-8.0029 0.5728 2.3902
-8.0263 0.2907 2.3902
-8.0378 0.0077 2.3902
-8.0372 -0.2757 2.3902
-8.0246 -0.5588 2.3902
-8.0001 -0.8412 2.3902
-7.9636 -1.1223 2.3902
-7.9152 -1.4015 2.3902
-7.8550 -1.6783 2.3902
-7.7833 -1.9521 2.3902
-7.7001 -2.2225 2.3902
-7.6057 -2.4888 2.3902
-7.5002 -2.7505 2.3902
-7.3840 -3.0073 2.3902
-7.2574 -3.2586 2.3902
-7.1206 -3.5039 2.3902
-6.9740 -3.7429 2.3902
-6.8179 -3.9750 2.3902
-6.6526 -4.2001 2.3902
-6.4787 -4.4175 2.3902
-6.2965 -4.6271 2.3902
-6.1064 -4.8285 2.3902
-5.9089 -5.0214 2.3902
-5.7043 -5.2056 2.3902
-5.4931 -5.3808 2.3902
-5.2759 -5.5468 2.3902
-5.0530 -5.7035 2.3902
-4.8249 -5.8506 2.3902
-4.5921 -5.9881 2.3902
-4.3551 -6.1157 2.3902
-4.1142 -6.2336 2.3902
-3.8701 -6.3415 2.3902
-3.6230 -6.4395 2.3902
-3.3735 -6.5275 2.3902
-3.1220 -6.6055 2.3902
-2.8690 -6.6736 2.3902
-2.6148 -6.7318 2.3902
-2.3599 -6.7803 2.3902
-2.1047 -6.8189 2.3902
-1.8495 -6.8479 2.3902
-1.5948 -6.8675 2.3902
-1.3409 -6.8776 2.3902
-1.0882 -6.8784 2.3902
-0.8370 -6.8701 2.3902
-0.5877 -6.8529 2.3902
-0.3405 -6.8269 2.3902
-0.0957 -6.7923 2.3902
0.1463 -6.7493 2.3902
0.3853 -6.6981 2.3902
0.6211 -6.6388 2.3902
0.8533 -6.5718 2.3902
1.0817 -6.4971 2.3902
1.3062 -6.4151 2.3902
1.5265 -6.3259 2.3902
1.7425 -6.2298 2.3902
1.9538 -6.1269 2.3902
2.1605 -6.0175 2.3902
2.3622 -5.9018 2.3902
2.5589 -5.7801 2.3902
2.7503 -5.6526 2.3902
2.9365 -5.5194 2.3902
3.1172 -5.3808 2.3902
3.2924 -5.2371 2.3902
3.4618 -5.0884 2.3902
3.6256 -4.9350 2.3902
3.7834 -4.7771 2.3902
3.9354 -4.6148 2.3902
4.0813 -4.4485 2.3902
4.2212 -4.2782 2.3902
4.3549 -4.1043 2.3902
4.4825 -3.9268 2.3902
4.6038 -3.7461 2.3902
4.7188 -3.5623 2.3902
4.8275 -3.3756 2.3902
4.9298 -3.1862 2.3902
5.0257 -2.9943 2.3902
5.1153 -2.8000 2.3902
5.1983 -2.6036 2.3902
5.2749 -2.4053 2.3902
5.3451 -2.2052 2.3902
5.4087 -2.0034 2.3902
5.4658 -1.8003 2.3902
5.5164 -1.5958 2.3902
5.5605 -1.3903 2.3902
5.5981 -1.1839 2.3902
5.6291 -0.9767 2.3902
5.6536 -0.7690 2.3902
5.6716 -0.5608 2.3902
5.6831 -0.3524 2.3902
5.6881 -0.1438 2.3902
5.6865 0.0646 2.3902
5.6785 0.2728 2.3902
5.6640 0.4806 2.3902
5.6430 0.6879 2.3902
5.6156 0.8944 2.3902
5.5817 1.1001 2.3902
5.5414 1.3047 2.3902
5.4948 1.5081 2.3902
5.4417 1.7101 2.3902
5.3823 1.9106 2.3902
5.3166 2.1095 2.3902
5.2445 2.3065 2.3902
5.1662 2.5014 2.3902
5.0817 2.6942 2.3902
4.9909 2.8846 2.3902
4.8941 3.0725 2.3902
4.7911 3.2578 2.3902
4.6820 3.4401 2.3902
4.5669 3.6194 2.3902
4.4458 3.7956 2.3902
4.3188 3.9683 2.3902
4.1859 4.1375 2.3902
4.0472 4.3029 2.3902
3.9029 4.4644 2.3902
3.7528 4.6218 2.3902
3.5972 4.7749 2.3902
3.4360 4.9235 2.3902
3.2695 5.0674 2.3902
3.0977 5.2065 2.3902
2.9206 5.3405 2.3902
2.7385 5.4693 2.3902
2.5513 5.5926 2.3902
2.3593 5.7103 2.3902
2.1626 5.8221 2.3902
0.8243 2.4916 1.0046
0.7345 2.5217 1.0000
0.6435 2.5486 0.9953
0.5517 2.5722 0.9905
0.4590 2.5925 0.9856
0.3657 2.6094 0.9807
0.2718 2.6229 0.9757
0.1775 2.6331 0.9707
0.0829 2.6398 0.9656
-0.0119 2.6431 0.9606
-0.1068 2.6429 0.9554
-0.2016 2.6394 0.9503
-0.2962 2.6324 0.9451
-0.3905 2.6220 0.9400
-0.4843 2.6082 0.9348
-0.5776 2.5910 0.9296
-0.6702 2.5704 0.9245
-0.7620 2.5465 0.9194
-0.8529 2.5193 0.9143
-0.9428 2.4889 0.9092
-2.7268 6.4905 2.3902
-2.9742 6.4284 2.3902
-3.2206 6.3569 2.3902
-3.4653 6.2759 2.3902
-3.7082 6.1854 2.3902
-0.8213 2.3425 0.9147
-0.9048 2.3132 0.9100
-2.6066 6.0224 2.3902
-2.8355 5.9601 2.3902
-3.0631 5.8890 2.3902
-3.2889 5.8092 2.3902
-3.5127 5.7205 2.3902
-3.7341 5.6232 2.3902
-3.9526 5.5170 2.3902
-4.1679 5.4022 2.3902
-4.3796 5.2786 2.3902
-4.5874 5.1466 2.3902
-4.7907 5.0060 2.3902
-4.9892 4.8571 2.3902
-5.1826 4.7000 2.3902
-5.3703 4.5348 2.3902
-5.5521 4.3617 2.3902
-5.7275 4.1809 2.3902
-5.8962 3.9928 2.3902
-6.0578 3.7974 2.3902
-6.2119 3.5950 2.3902
-6.3581 3.3861 2.3902
-6.4962 3.1708 2.3902
-6.6258 2.9495 2.3902
-6.7466 2.7225 2.3902
-6.8582 2.4903 2.3902
-6.9605 2.2532 2.3902
-7.0531 2.0117 2.3902
-7.1358 1.7661 2.3902
-7.2083 1.5168 2.3902
-7.2706 1.2644 2.3902
-7.3224 1.0093 2.3902
-7.3636 0.7520 2.3902
-7.3940 0.4930 2.3902
-7.4136 0.2327 2.3902
-7.4223 -0.0283 2.3902
-7.4201 -0.2896 2.3902
-7.4069 -0.5507 2.3902
-7.3828 -0.8109 2.3902
-7.3478 -1.0699 2.3902
-7.3021 -1.3272 2.3902
-7.2456 -1.5821 2.3902
-7.1785 -1.8344 2.3902
-7.1011 -2.0834 2.3902
-7.0133 -2.3287 2.3902
-6.9156 -2.5699 2.3902
-6.8081 -2.8066 2.3902
-6.6910 -3.0382 2.3902
-6.5647 -3.2644 2.3902
-6.4294 -3.4848 2.3902
-6.2854 -3.6990 2.3902
-6.1331 -3.9067 2.3902
-5.9728 -4.1076 2.3902
-5.8049 -4.3013 2.3902
-5.6298 -4.4875 2.3902
-5.4477 -4.6660 2.3902
-5.2592 -4.8366 2.3902
-5.0647 -4.9990 2.3902
-4.8645 -5.1530 2.3902
-4.6590 -5.2984 2.3902
-4.4487 -5.4352 2.3902
-4.2340 -5.5631 2.3902
-4.0153 -5.6821 2.3902
-3.7930 -5.7920 2.3902
-3.5675 -5.8929 2.3902
-3.3393 -5.9847 2.3902
-3.1087 -6.0673 2.3902
-2.8761 -6.1407 2.3902
-2.6420 -6.2051 2.3902
-2.4068 -6.2603 2.3902
-2.1707 -6.3064 2.3902
-1.9342 -6.3436 2.3902
-1.6977 -6.3718 2.3902
-1.4614 -6.3912 2.3902
-1.2258 -6.4019 2.3902
-0.9911 -6.4040 2.3902
-0.7577 -6.3977 2.3902
-0.5258 -6.3829 2.3902
-0.2959 -6.3600 2.3902
-0.0680 -6.3291 2.3902
0.1574 -6.2903 2.3902
0.3801 -6.2439 2.3902
0.5999 -6.1898 2.3902
0.8166 -6.1285 2.3902
1.0298 -6.0601 2.3902
1.2395 -5.9846 2.3902
1.4454 -5.9025 2.3902
1.6473 -5.8137 2.3902
1.8450 -5.7186 2.3902
2.0384 -5.6174 2.3902
2.2273 -5.5101 2.3902
2.4116 -5.3972 2.3902
2.5910 -5.2787 2.3902
2.7656 -5.1548 2.3902
2.9351 -5.0258 2.3902
3.0995 -4.8919 2.3902
3.2586 -4.7532 2.3902
3.4123 -4.6100 2.3902
3.5606 -4.4625 2.3902
3.7034 -4.3109 2.3902
3.8406 -4.1553 2.3902
3.9721 -3.9959 2.3902
4.0978 -3.8330 2.3902
4.2178 -3.6668 2.3902
4.3319 -3.4974 2.3902
4.4400 -3.3250 2.3902
4.5423 -3.1498 2.3902
4.6385 -2.9720 2.3902
4.7287 -2.7918 2.3902
4.8129 -2.6093 2.3902
4.8910 -2.4248 2.3902
4.9629 -2.2383 2.3902
5.0288 -2.0501 2.3902
5.0885 -1.8604 2.3902
5.1420 -1.6693 2.3902
5.1894 -1.4769 2.3902
5.2306 -1.2835 2.3902
5.2656 -1.0892 2.3902
5.2944 -0.8942 2.3902
5.3170 -0.6986 2.3902
5.3334 -0.5027 2.3902
5.3436 -0.3064 2.3902
5.3477 -0.1101 2.3902
5.3456 0.0861 2.3902
5.3373 0.2821 2.3902
5.3229 0.4777 2.3902
5.3023 0.6727 2.3902
5.2756 0.8670 2.3902
5.2427 1.0605 2.3902
5.2038 1.2530 2.3902
5.1588 1.4442 2.3902
5.1078 1.6342 2.3902
5.0508 1.8226 2.3902
4.9877 2.0094 2.3902
4.9187 2.1944 2.3902
4.8438 2.3774 2.3902
4.7629 2.5582 2.3902
4.6762 2.7368 2.3902
4.5837 2.9129 2.3902
4.4855 3.0864 2.3902
4.3815 3.2571 2.3902
4.2718 3.4248 2.3902
4.1565 3.5894 2.3902
4.0356 3.7507 2.3902
3.9093 3.9086 2.3902
3.7775 4.0628 2.3902
3.6404 4.2132 2.3902
3.4979 4.3596 2.3902
3.3503 4.5019 2.3902
3.1976 4.6398 2.3902
3.0398 4.7732 2.3902
2.8771 4.9019 2.3902
2.7096 5.0258 2.3902
2.5374 5.1446 2.3902
2.3606 5.2581 2.3902
2.1794 5.3663 2.3902
0.8374 2.2971 1.0040
0.7545 2.3278 0.9997
0.6705 2.3555 0.9954
0.5856 2.3802 0.9910
0.4998 2.4018 0.9865
0.4133 2.4203 0.9819
0.3261 2.4356 0.9773
0.2385 2.4478 0.9727
0.1505 2.4568 0.9680
0.0622 2.4626 0.9633
-0.0262 2.4653 0.9585
-0.1147 2.4647 0.9537
-0.2031 2.4610 0.9489
-0.2913 2.4540 0.9441
-0.3793 2.4439 0.9393
-0.4667 2.4306 0.9345
-0.5537 2.4141 0.9297
-0.6400 2.3946 0.9249
-0.7255 2.3719 0.9201
-0.8102 2.3461 0.9154
-0.8939 2.3173 0.9106
-2.5762 6.0300 2.3902
-2.8053 5.9688 2.3902
-3.0331 5.8989 2.3902
-3.2592 5.8202 2.3902
-3.4833 5.7328 2.3902
-3.7050 5.6365 2.3902
-3.9239 5.5315 2.3902
-4.1397 5.4178 2.3902
-4.3519 5.2955 2.3902
-4.5601 5.1645 2.3902
-4.7641 5.0251 2.3902
-4.9633 4.8773 2.3902
-5.1573 4.7212 2.3902
-5.3458 4.5571 2.3902
-5.5284 4.3850 2.3902
-5.7047 4.2053 2.3902
-5.8743 4.0181 2.3902
-6.0368 3.8236 2.3902
-6.1920 3.6222 2.3902
-6.3393 3.4141 2.3902
-6.4785 3.1996 2.3902
-6.6092 2.9791 2.3902
-6.7311 2.7529 2.3902
-6.8440 2.5213 2.3902
-6.9475 2.2849 2.3902
-7.0414 2.0439 2.3902
-7.1254 1.7988 2.3902
-7.1993 1.5500 2.3902
-7.2630 1.2980 2.3902
-7.3162 1.0432 2.3902
-7.3587 0.7862 2.3902
-7.3906 0.5273 2.3902
-7.4117 0.2672 2.3902
-7.4218 0.0062 2.3902
-7.4210 -0.2551 2.3902
-7.4093 -0.5162 2.3902
-7.3866 -0.7766 2.3902
-7.3531 -1.0358 2.3902
-7.3087 -1.2933 2.3902
-7.2536 -1.5486 2.3902
-7.1880 -1.8012 2.3902
-7.1119 -2.0507 2.3902
-7.0255 -2.2965 2.3902
-6.9291 -2.5383 2.3902
-6.8228 -2.7755 2.3902
-6.7070 -3.0078 2.3902
-6.5819 -3.2348 2.3902
-6.4478 -3.4560 2.3902
-6.3049 -3.6711 2.3902
-6.1537 -3.8796 2.3902
-5.9944 -4.0814 2.3902
-5.8275 -4.2761 2.3902
-5.6533 -4.4633 2.3902
-5.4722 -4.6429 2.3902
-5.2845 -4.8145 2.3902
-5.0907 -4.9780 2.3902
-4.8912 -5.1331 2.3902
-4.6865 -5.2797 2.3902
-4.4768 -5.4176 2.3902
-4.2626 -5.5467 2.3902
-4.0444 -5.6668 2.3902
-3.8225 -5.7780 2.3902
-3.5975 -5.8801 2.3902
-3.3696 -5.9731 2.3902
-3.1393 -6.0569 2.3902
-2.9070 -6.1316 2.3902
-2.6731 -6.1971 2.3902
-2.4379 -6.2535 2.3902
-2.2020 -6.3008 2.3902
-1.9655 -6.3392 2.3902
-1.7290 -6.3686 2.3902
-1.4926 -6.3892 2.3902
-1.2569 -6.4010 2.3902
-1.0221 -6.4042 2.3902
-0.7885 -6.3990 2.3902
-0.5564 -6.3853 2.3902
-0.3262 -6.3635 2.3902
-0.0980 -6.3337 2.3902
0.1277 -6.2959 2.3902
0.3508 -6.2504 2.3902
0.5710 -6.1974 2.3902
0.7881 -6.1370 2.3902
1.0018 -6.0695 2.3902
1.2120 -5.9950 2.3902
1.4184 -5.9137 2.3902
1.6208 -5.8258 2.3902
1.8191 -5.7316 2.3902
2.0131 -5.6311 2.3902
2.2026 -5.5247 2.3902
2.3875 -5.4124 2.3902
2.5676 -5.2947 2.3902
2.7428 -5.1715 2.3902
2.9130 -5.0432 2.3902
3.0780 -4.9099 2.3902
3.2378 -4.7718 2.3902
3.3923 -4.6292 2.3902
3.5413 -4.4823 2.3902
3.6848 -4.3311 2.3902
3.8228 -4.1761 2.3902
3.9550 -4.0172 2.3902
4.0815 -3.8548 2.3902
4.2022 -3.6890 2.3902
4.3171 -3.5200 2.3902
4.4261 -3.3480 2.3902
4.5291 -3.1731 2.3902
4.6261 -2.9957 2.3902
4.7171 -2.8158 2.3902
4.8021 -2.6336 2.3902
4.8810 -2.4493 2.3902
4.9538 -2.2631 2.3902
5.0204 -2.0751 2.3902
5.0809 -1.8856 2.3902
5.1353 -1.6946 2.3902
5.1835 -1.5024 2.3902
5.2255 -1.3091 2.3902
5.2613 -1.1150 2.3902
5.2909 -0.9200 2.3902
5.3144 -0.7245 2.3902
5.3316 -0.5286 2.3902
5.3427 -0.3324 2.3902
5.3475 -0.1361 2.3902
5.3462 0.0601 2.3902
5.3387 0.2562 2.3902
5.3251 0.4518 2.3902
5.3053 0.6469 2.3902
5.2794 0.8414 2.3902
5.2474 1.0350 2.3902
5.2093 1.2276 2.3902
5.1651 1.4190 2.3902
5.1149 1.6091 2.3902
5.0587 1.7978 2.3902
4.9964 1.9848 2.3902
4.9282 2.1700 2.3902
4.8540 2.3533 2.3902
4.7740 2.5344 2.3902
4.6880 2.7133 2.3902
4.5963 2.8898 2.3902
4.4988 3.0636 2.3902
4.3955 3.2347 2.3902
4.2866 3.4028 2.3902
4.1721 3.5678 2.3902
4.0519 3.7296 2.3902
3.9263 3.8879 2.3902
3.7952 4.0426 2.3902
3.6588 4.1935 2.3902
3.5171 4.3405 2.3902
3.3701 4.4833 2.3902
3.2181 4.6218 2.3902
3.0610 4.7558 2.3902
2.8989 4.8852 2.3902
2.7321 5.0097 2.3902
2.5605 5.1292 2.3902
2.3843 5.2434 2.3902
2.2036 5.3523 2.3902
0.8483 2.2928 1.0045
0.7655 2.3239 1.0003
0.6817 2.3520 0.9960
0.5968 2.3771 0.9916
0.5112 2.3991 0.9871
0.4247 2.4180 0.9825
0.3377 2.4338 0.9780
0.2501 2.4464 0.9733
0.1621 2.4558 0.9686
0.0739 2.4621 0.9639
-0.0145 2.4651 0.9592
-0.1030 2.4650 0.9544
-0.1914 2.4616 0.9496
-0.2797 2.4551 0.9448
-0.3677 2.4454 0.9399
-0.4552 2.4325 0.9351
-0.5422 2.4165 0.9303
-0.6286 2.3973 0.9255
-0.7143 2.3750 0.9207
-0.7990 2.3497 0.9160
-0.8829 2.3213 0.9113
-2.5459 6.0374 2.3902
-2.7751 5.9774 2.3902
-3.0030 5.9087 2.3902
-3.2294 5.8311 2.3902
-3.4538 5.7448 2.3902
-0.7720 2.1922 0.9163
-0.8502 2.1649 0.9119
-0.9273 2.1347 0.9075
-2.6553 5.5624 2.3902
-2.8668 5.4942 2.3902
-3.0766 5.4179 2.3902
-3.2843 5.3334 2.3902
-3.4896 5.2408 2.3902
-3.6921 5.1402 2.3902
-3.8915 5.0316 2.3902
-4.0875 4.9149 2.3902
-4.2796 4.7904 2.3902
-4.4675 4.6581 2.3902
-4.6509 4.5181 2.3902
-4.8294 4.3706 2.3902
-5.0026 4.2158 2.3902
-5.1702 4.0537 2.3902
-5.3319 3.8846 2.3902
-5.4872 3.7087 2.3902
-5.6359 3.5263 2.3902
-5.7776 3.3375 2.3902
-5.9121 3.1427 2.3902
-6.0390 2.9422 2.3902
-6.1580 2.7362 2.3902
-6.2688 2.5251 2.3902
-6.3712 2.3092 2.3902
-6.4649 2.0889 2.3902
-6.5497 1.8646 2.3902
-6.6254 1.6366 2.3902
-6.6918 1.4053 2.3902
-6.7488 1.1712 2.3902
-6.7961 0.9346 2.3902
-6.8336 0.6961 2.3902
-6.8613 0.4560 2.3902
-6.8790 0.2148 2.3902
-6.8868 -0.0271 2.3902
-6.8845 -0.2692 2.3902
-6.8722 -0.5111 2.3902
-6.8499 -0.7522 2.3902
-6.8176 -0.9922 2.3902
-6.7754 -1.2306 2.3902
-6.7234 -1.4669 2.3902
-6.6617 -1.7007 2.3902
-6.5904 -1.9316 2.3902
-6.5097 -2.1592 2.3902
-6.4198 -2.3830 2.3902
-6.3209 -2.6027 2.3902
-6.2132 -2.8178 2.3902
-6.0970 -3.0280 2.3902
-5.9725 -3.2329 2.3902
-5.8400 -3.4322 2.3902
-5.6998 -3.6256 2.3902
-5.5522 -3.8127 2.3902
-5.3975 -3.9933 2.3902
-5.2361 -4.1671 2.3902
-5.0682 -4.3339 2.3902
-4.8944 -4.4934 2.3902
-4.7149 -4.6454 2.3902
-4.5300 -4.7897 2.3902
-4.3402 -4.9263 2.3902
-4.1459 -5.0548 2.3902
-3.9473 -5.1753 2.3902
-3.7449 -5.2876 2.3902
-3.5392 -5.3915 2.3902
-3.3303 -5.4871 2.3902
-3.1188 -5.5743 2.3902
-2.9049 -5.6530 2.3902
-2.6891 -5.7233 2.3902
-2.4718 -5.7852 2.3902
-2.2531 -5.8386 2.3902
-2.0336 -5.8836 2.3902
-1.8136 -5.9202 2.3902
-1.5934 -5.9486 2.3902
-1.3733 -5.9687 2.3902
-1.1536 -5.9807 2.3902
-0.9346 -5.9847 2.3902
-0.7167 -5.9807 2.3902
-0.5001 -5.9690 2.3902
-0.2852 -5.9496 2.3902
-0.0720 -5.9226 2.3902
0.1390 -5.8883 2.3902
0.3476 -5.8467 2.3902
0.5536 -5.7980 2.3902
0.7568 -5.7424 2.3902
0.9570 -5.6801 2.3902
1.1539 -5.6111 2.3902
1.3473 -5.5358 2.3902
1.5372 -5.4542 2.3902
1.7232 -5.3666 2.3902
1.9052 -5.2731 2.3902
2.0832 -5.1740 2.3902
2.2568 -5.0694 2.3902
2.4261 -4.9594 2.3902
2.5908 -4.8444 2.3902
2.7508 -4.7244 2.3902
2.9061 -4.5997 2.3902
3.0565 -4.4705 2.3902
3.2019 -4.3369 2.3902
3.3422 -4.1991 2.3902
3.4773 -4.0573 2.3902
3.6072 -3.9118 2.3902
3.7318 -3.7626 2.3902
3.8510 -3.6100 2.3902
3.9648 -3.4541 2.3902
4.0730 -3.2952 2.3902
4.1757 -3.1334 2.3902
4.2727 -2.9688 2.3902
4.3642 -2.8017 2.3902
4.4499 -2.6323 2.3902
4.5299 -2.4606 2.3902
4.6042 -2.2869 2.3902
4.6727 -2.1114 2.3902
4.7353 -1.9342 2.3902
4.7922 -1.7554 2.3902
4.8432 -1.5753 2.3902
4.8884 -1.3940 2.3902
4.9276 -1.2116 2.3902
4.9611 -1.0284 2.3902
4.9886 -0.8445 2.3902
5.0102 -0.6599 2.3902
5.0260 -0.4750 2.3902
5.0358 -0.2899 2.3902
5.0398 -0.1046 2.3902
5.0380 0.0806 2.3902
5.0302 0.2656 2.3902
5.0166 0.4502 2.3902
4.9971 0.6343 2.3902
4.9719 0.8177 2.3902
4.9408 1.0003 2.3902
4.9039 1.1819 2.3902
4.8612 1.3623 2.3902
4.8128 1.5415 2.3902
4.7587 1.7192 2.3902
4.6989 1.8953 2.3902
4.6334 2.0697 2.3902
4.5623 2.2422 2.3902
4.4856 2.4126 2.3902
4.4034 2.5807 2.3902
4.3156 2.7466 2.3902
4.2224 2.9098 2.3902
4.1238 3.0704 2.3902
4.0198 3.2281 2.3902
3.9105 3.3828 2.3902
3.7960 3.5343 2.3902
3.6763 3.6824 2.3902
3.5515 3.8271 2.3902
3.4216 3.9681 2.3902
3.2868 4.1052 2.3902
3.1471 4.2384 2.3902
3.0027 4.3674 2.3902
2.8535 4.4920 2.3902
2.6998 4.6121 2.3902
2.5415 4.7276 2.3902
2.3789 4.8382 2.3902
2.2121 4.9438 2.3902
0.8571 2.1184 1.0038
0.7806 2.1499 0.9999
0.7030 2.1786 0.9959
0.6243 2.2046 0.9918
0.5448 2.2276 0.9877
0.4645 2.2478 0.9835
0.3835 2.2651 0.9792
0.3020 2.2795 0.9749
0.2200 2.2909 0.9706
0.1376 2.2993 0.9662
0.0549 2.3047 0.9618
-0.0278 2.3072 0.9573
-0.1107 2.3067 0.9528
-0.1934 2.3031 0.9484
-0.2760 2.2966 0.9439
-0.3583 2.2872 0.9393
-0.4401 2.2747 0.9348
-0.5215 2.2593 0.9303
-0.6023 2.2410 0.9258
-0.6824 2.2197 0.9214
-0.7616 2.1956 0.9169
-0.8399 2.1687 0.9125
-0.9172 2.1389 0.9081
-2.6273 5.5708 2.3902
-2.8389 5.5036 2.3902
-3.0490 5.4284 2.3902
-3.2570 5.3450 2.3902
-3.4626 5.2536 2.3902
-3.6655 5.1540 2.3902
-3.8654 5.0464 2.3902
-4.0618 4.9308 2.3902
-4.2544 4.8073 2.3902
-4.4429 4.6760 2.3902
-4.6270 4.5371 2.3902
-4.8061 4.3906 2.3902
-4.9800 4.2367 2.3902
-5.1484 4.0755 2.3902
-5.3109 3.9073 2.3902
-5.4671 3.7324 2.3902
-5.6166 3.5508 2.3902
-5.7593 3.3628 2.3902
-5.8948 3.1688 2.3902
-6.0226 2.9690 2.3902
-6.1427 2.7637 2.3902
-6.2546 2.5533 2.3902
-6.3581 2.3380 2.3902
-6.4530 2.1183 2.3902
-6.5390 1.8945 2.3902
-6.6159 1.6669 2.3902
-6.6836 1.4360 2.3902
-6.7418 1.2023 2.3902
-6.7904 0.9660 2.3902
-6.8292 0.7277 2.3902
-6.8582 0.4878 2.3902
-6.8773 0.2467 2.3902
-6.8864 0.0049 2.3902
-6.8854 -0.2372 2.3902
-6.8744 -0.4791 2.3902
-6.8534 -0.7204 2.3902
-6.8224 -0.9605 2.3902
-6.7815 -1.1991 2.3902
-6.7308 -1.4358 2.3902
-6.6704 -1.6700 2.3902
-6.6003 -1.9013 2.3902
-6.5209 -2.1293 2.3902
-6.4322 -2.3536 2.3902
-6.3345 -2.5739 2.3902
-6.2280 -2.7896 2.3902
-6.1128 -3.0005 2.3902
-5.9894 -3.2061 2.3902
-5.8579 -3.4062 2.3902
-5.7187 -3.6003 2.3902
-5.5721 -3.7883 2.3902
-5.4183 -3.9698 2.3902
-5.2578 -4.1445 2.3902
-5.0908 -4.3122 2.3902
-4.9177 -4.4727 2.3902
-4.7389 -4.6257 2.3902
-4.5547 -4.7711 2.3902
-4.3656 -4.9087 2.3902
-4.1718 -5.0383 2.3902
-3.9738 -5.1598 2.3902
-3.7719 -5.2732 2.3902
-3.5666 -5.3782 2.3902
-3.3581 -5.4750 2.3902
-3.1469 -5.5633 2.3902
-2.9333 -5.6431 2.3902
-2.7178 -5.7145 2.3902
-2.5006 -5.7775 2.3902
-2.2821 -5.8320 2.3902
-2.0627 -5.8781 2.3902
-1.8427 -5.9158 2.3902
-1.6225 -5.9453 2.3902
-1.4024 -5.9665 2.3902
-1.1826 -5.9796 2.3902
-0.9635 -5.9846 2.3902
