ply
format ascii 1.0
element vertex 2177
property float32 x
property float32 y
property float32 z
end_header
2.6102 -4.4002 2.3922
2.7528 -4.2793 2.3922
2.8907 -4.1544 2.3922
3.0238 -4.0257 2.3922
3.1519 -3.8932 2.3922
3.2751 -3.7573 2.3922
3.3933 -3.6180 2.3922
3.5064 -3.4755 2.3922
3.6144 -3.3301 2.3922
3.7172 -3.1818 2.3922
3.8148 -3.0309 2.3922
3.9071 -2.8776 2.3922
3.9941 -2.7218 2.3922
4.0759 -2.5640 2.3922
4.1523 -2.4042 2.3922
4.2233 -2.2424 2.3922
4.2890 -2.0791 2.3922
4.3492 -1.9142 2.3922
4.4041 -1.7479 2.3922
4.4537 -1.5809 2.3922
4.4975 -1.4118 2.3922
4.5362 -1.2423 2.3922
4.5693 -1.0719 2.3922
4.5971 -0.9009 2.3922
4.6194 -0.7294 2.3922
4.6363 -0.5576 2.3922
4.6478 -0.3855 2.3922
4.6538 -0.2133 2.3922
4.6545 -0.0412 2.3922
4.6498 0.1308 2.3922
4.6397 0.3024 2.3922
4.6242 0.4736 2.3922
4.6034 0.6441 2.3922
4.5773 0.8140 2.3922
4.5458 0.9830 2.3922
4.5091 1.1510 2.3922
4.4670 1.3179 2.3922
4.4198 1.4835 2.3922
4.3673 1.6478 2.3922
4.3096 1.8105 2.3922
4.2467 1.9715 2.3922
4.1787 2.1307 2.3922
4.1057 2.2880 2.3922
4.0275 2.4431 2.3922
3.9443 2.5961 2.3922
3.8561 2.7468 2.3922
3.7630 2.8948 2.3922
3.6649 3.0404 2.3922
3.5620 3.1831 2.3922
3.4543 3.3228 2.3922
3.3419 3.4595 2.3922
3.2248 3.5930 2.3922
3.1030 3.7231 2.3922
2.9767 3.8496 2.3922
2.8460 3.9721 2.3922
2.7106 4.0916 2.3922
2.5711 4.2067 2.3922
2.4272 4.3177 2.3922
2.2793 4.4244 2.3922
2.1273 4.5266 2.3922
0.8376 1.9650 1.0165
0.7665 1.9962 1.0123
0.6943 2.0248 1.0080
0.6212 2.0509 1.0036
0.5471 2.0742 0.9992
0.4722 2.0949 0.9946
0.3967 2.1129 0.9900
0.3205 2.1282 0.9853
0.2439 2.1407 0.9806
0.1668 2.1504 0.9758
0.0895 2.1573 0.9710
0.0119 2.1614 0.9661
-0.0658 2.1627 0.9612
-0.1434 2.1613 0.9563
-0.2210 2.1570 0.9513
-0.2983 2.1499 0.9463
-0.3754 2.1400 0.9413
-0.4520 2.1274 0.9363
-0.5282 2.1120 0.9313
-0.6037 2.0938 0.9264
-0.6785 2.0730 0.9214
-0.7525 2.0494 0.9165
-0.8257 2.0232 0.9116
-0.8978 1.9944 0.9067
-0.9688 1.9630 0.9019
-2.7699 5.1441 2.3922
-2.9684 5.0736 2.3922
-3.1652 4.9954 2.3922
-3.3599 4.9095 2.3922
-3.5521 4.8159 2.3922
-3.7416 4.7147 2.3922
-3.9280 4.6059 2.3922
-4.1108 4.4895 2.3922
-4.2899 4.3656 2.3922
-4.4648 4.2344 2.3922
-4.6352 4.0959 2.3922
-4.8007 3.9503 2.3922
-4.9610 3.7977 2.3922
-5.1158 3.6383 2.3922
-5.2646 3.4723 2.3922
-5.4072 3.3000 2.3922
-5.5433 3.1215 2.3922
-5.6725 2.9371 2.3922
-5.7944 2.7470 2.3922
-5.9089 2.5517 2.3922
-6.0156 2.3513 2.3922
-6.1143 2.1461 2.3922
-6.2047 1.9367 2.3922
-6.2865 1.7232 2.3922
-6.3596 1.5061 2.3922
-6.4237 1.2857 2.3922
-6.4788 1.0627 2.3922
-6.5244 0.8369 2.3922
-6.5607 0.6093 2.3922
-6.5876 0.3805 2.3922
-6.6046 0.1497 2.3922
-6.6121 -0.0811 2.3922
-6.6098 -0.3122 2.3922
-6.5977 -0.5435 2.3922
-6.5759 -0.7739 2.3922
-6.5445 -1.0032 2.3922
-6.5034 -1.2309 2.3922
-6.4527 -1.4566 2.3922
-6.3927 -1.6799 2.3922
-6.3233 -1.9003 2.3922
-6.2448 -2.1174 2.3922
-6.1574 -2.3308 2.3922
-6.0612 -2.5401 2.3922
-5.9564 -2.7452 2.3922
-5.8436 -2.9449 2.3922
-5.7225 -3.1401 2.3922
-5.5939 -3.3290 2.3922
-5.4578 -3.5123 2.3922
-5.3145 -3.6900 2.3922
-5.1646 -3.8604 2.3922
-5.0081 -4.0247 2.3922
-4.8456 -4.1819 2.3922
-4.6773 -4.3319 2.3922
-4.5036 -4.4746 2.3922
-4.3250 -4.6099 2.3922
-4.1416 -4.7374 2.3922
-3.9541 -4.8572 2.3922
-3.7626 -4.9690 2.3922
-3.5676 -5.0728 2.3922
-3.3695 -5.1686 2.3922
-3.1687 -5.2562 2.3922
-2.9654 -5.3357 2.3922
-2.7602 -5.4069 2.3922
-2.5532 -5.4700 2.3922
-2.3450 -5.5250 2.3922
-2.1359 -5.5718 2.3922
-1.9261 -5.6105 2.3922
-1.7161 -5.6412 2.3922
-1.5061 -5.6639 2.3922
-1.2964 -5.6788 2.3922
-1.0874 -5.6859 2.3922
-0.8794 -5.6854 2.3922
-0.6726 -5.6774 2.3922
-0.4674 -5.6620 2.3922
-0.2639 -5.6393 2.3922
-0.0624 -5.6096 2.3922
0.1368 -5.5729 2.3922
0.3336 -5.5294 2.3922
0.5276 -5.4792 2.3922
0.7187 -5.4226 2.3922
0.9067 -5.3598 2.3922
1.0914 -5.2908 2.3922
1.2726 -5.2159 2.3922
1.4502 -5.1352 2.3922
1.6240 -5.0490 2.3922
1.7938 -4.9574 2.3922
1.9596 -4.8606 2.3922
2.1211 -4.7588 2.3922
2.2784 -4.6522 2.3922
2.4312 -4.5409 2.3922
2.5794 -4.4252 2.3922
2.7230 -4.3052 2.3922
2.8619 -4.1812 2.3922
2.9960 -4.0532 2.3922
3.1252 -3.9215 2.3922
3.2495 -3.7863 2.3922
3.3688 -3.6477 2.3922
3.4829 -3.5059 2.3922
3.5920 -3.3611 2.3922
3.6959 -3.2134 2.3922
3.7946 -3.0630 2.3922
3.8880 -2.9102 2.3922
3.9762 -2.7550 2.3922
4.0591 -2.5976 2.3922
4.1366 -2.4381 2.3922
4.2087 -2.2767 2.3922
4.2755 -2.1135 2.3922
4.3370 -1.9495 2.3922
4.3930 -1.7834 2.3922
4.4435 -1.6159 2.3922
4.4888 -1.4479 2.3922
4.5284 -1.2782 2.3922
4.5628 -1.1080 2.3922
4.5917 -0.9371 2.3922
4.6151 -0.7657 2.3922
4.6331 -0.5939 2.3922
4.6458 -0.4219 2.3922
4.6530 -0.2497 2.3922
4.6548 -0.0776 2.3922
4.6512 0.0944 2.3922
4.6423 0.2661 2.3922
4.6279 0.4374 2.3922
4.6083 0.6081 2.3922
4.5832 0.7782 2.3922
4.5529 0.9474 2.3922
4.5173 1.1156 2.3922
4.4764 1.2827 2.3922
4.4302 1.4486 2.3922
4.3788 1.6132 2.3922
4.3222 1.7762 2.3922
4.2605 1.9376 2.3922
4.1935 2.0972 2.3922
4.1215 2.2549 2.3922
4.0444 2.4105 2.3922
3.9623 2.5640 2.3922
3.8752 2.7151 2.3922
3.7831 2.8638 2.3922
3.6861 3.0098 2.3922
3.5842 3.1531 2.3922
3.4775 3.2935 2.3922
3.3661 3.4308 2.3922
3.2499 3.5650 2.3922
3.1291 3.6958 2.3922
3.0037 3.8235 2.3922
2.8739 3.9469 2.3922
2.7396 4.0668 2.3922
2.6010 4.1826 2.3922
2.4580 4.2946 2.3922
2.3109 4.4022 2.3922
2.1597 4.5055 2.3922
0.8525 1.9580 1.0173
0.7816 1.9898 1.0132
0.7097 2.0190 1.0089
0.6367 2.0456 1.0045
0.5628 2.0695 1.0001
0.4881 2.0908 0.9956
0.4127 2.1094 0.9910
0.3367 2.1252 0.9863
0.2601 2.1382 0.9816
0.1831 2.1485 0.9768
0.1058 2.1561 0.9720
0.0283 2.1608 0.9671
-0.0493 2.1627 0.9622
-0.1270 2.1618 0.9573
-0.2046 2.1581 0.9523
-0.2820 2.1516 0.9474
-0.3591 2.1423 0.9424
-0.4359 2.1303 0.9374
-0.5121 2.1155 0.9324
-0.5878 2.0979 0.9274
-0.6628 2.0776 0.9224
-0.7370 2.0546 0.9175
-0.8103 2.0290 0.9126
-0.8826 2.0007 0.9077
-0.9539 1.9698 0.9029
-2.7277 5.1580 2.3922
-2.9266 5.0891 2.3922
-3.1238 5.0126 2.3922
-3.3189 4.9283 2.3922
-3.5117 4.8364 2.3922
-3.7018 4.7367 2.3922
-3.8888 4.6295 2.3922
-4.0725 4.5147 2.3922
-4.2524 4.3924 2.3922
-4.4282 4.2627 2.3922
-4.5996 4.1257 2.3922
-4.7662 3.9816 2.3922
-4.9276 3.8305 2.3922
-5.0835 3.6726 2.3922
-5.2337 3.5080 2.3922
-5.3776 3.3369 2.3922
-5.5151 3.1597 2.3922
-5.6457 2.9765 2.3922
-5.7692 2.7877 2.3922
-5.8853 2.5934 2.3922
-5.9937 2.3940 2.3922
-6.0941 2.1899 2.3922
-6.1863 1.9813 2.3922
-6.2699 1.7687 2.3922
0.3548 1.9916 0.9861
0.2830 2.0054 0.9817
0.2107 2.0166 0.9772
0.1381 2.0252 0.9727
0.0653 2.0311 0.9682
-0.0078 2.0345 0.9636
-0.0809 2.0351 0.9589
-0.1540 2.0332 0.9543
-0.2269 2.0286 0.9496
-0.2997 2.0214 0.9449
-0.3721 2.0115 0.9402
-0.4442 1.9991 0.9355
-0.5157 1.9840 0.9308
-0.5867 1.9664 0.9261
-0.6570 1.9463 0.9215
-0.7265 1.9236 0.9168
-0.7951 1.8984 0.9122
-0.8628 1.8707 0.9076
-0.9294 1.8406 0.9031
-2.6487 4.8136 2.3922
-2.8339 4.7444 2.3922
-3.0172 4.6680 2.3922
-3.1984 4.5844 2.3922
-3.3771 4.4938 2.3922
-3.5531 4.3960 2.3922
-3.7259 4.2911 2.3922
-3.8954 4.1793 2.3922
-4.0611 4.0606 2.3922
-4.2228 3.9352 2.3922
-4.3801 3.8030 2.3922
-4.5328 3.6643 2.3922
-4.6804 3.5193 2.3922
-4.8227 3.3680 2.3922
-4.9594 3.2107 2.3922
-5.0902 3.0476 2.3922
-5.2148 2.8789 2.3922
-5.3328 2.7048 2.3922
-5.4441 2.5257 2.3922
-5.5484 2.3418 2.3922
-5.6453 2.1533 2.3922
-5.7348 1.9606 2.3922
-5.8164 1.7639 2.3922
-5.8901 1.5637 2.3922
-5.9557 1.3603 2.3922
-6.0129 1.1540 2.3922
-6.0616 0.9452 2.3922
-6.1018 0.7343 2.3922
-6.1331 0.5217 2.3922
-6.1557 0.3079 2.3922
-6.1693 0.0927 2.3922
-6.1740 -0.1225 2.3922
-6.1697 -0.3381 2.3922
-6.1564 -0.5536 2.3922
-6.1342 -0.7680 2.3922
-6.1030 -0.9813 2.3922
-6.0628 -1.1938 2.3922
-6.0140 -1.4036 2.3922
-5.9565 -1.6112 2.3922
-5.8904 -1.8162 2.3922
-5.8159 -2.0180 2.3922
-5.7332 -2.2163 2.3922
-5.6425 -2.4107 2.3922
-5.5439 -2.6011 2.3922
-5.4376 -2.7872 2.3922
-5.3240 -2.9683 2.3922
-5.2031 -3.1449 2.3922
-5.0759 -3.3143 2.3922
-4.9417 -3.4794 2.3922
-4.8013 -3.6383 2.3922
-4.6550 -3.7910 2.3922
-4.5030 -3.9373 2.3922
-4.3457 -4.0769 2.3922
-4.1834 -4.2098 2.3922
-4.0165 -4.3358 2.3922
-3.8452 -4.4546 2.3922
-3.6700 -4.5662 2.3922
-3.4911 -4.6705 2.3922
-3.3090 -4.7674 2.3922
-3.1239 -4.8568 2.3922
-2.9363 -4.9387 2.3922
-2.7463 -5.0129 2.3922
-2.5545 -5.0795 2.3922
-2.3610 -5.1386 2.3922
-2.1664 -5.1901 2.3922
-1.9707 -5.2340 2.3922
-1.7745 -5.2703 2.3922
-1.5779 -5.2992 2.3922
-1.3813 -5.3207 2.3922
-1.1850 -5.3349 2.3922
-0.9892 -5.3418 2.3922
-0.7943 -5.3414 2.3922
-0.6004 -5.3342 2.3922
-0.4079 -5.3200 2.3922
-0.2170 -5.2989 2.3922
-0.0279 -5.2712 2.3922
0.1591 -5.2370 2.3922
0.3438 -5.1963 2.3922
0.5261 -5.1494 2.3922
0.7057 -5.0964 2.3922
0.8824 -5.0375 2.3922
1.0561 -4.9728 2.3922
1.2266 -4.9025 2.3922
1.3937 -4.8267 2.3922
1.5573 -4.7457 2.3922
1.7172 -4.6596 2.3922
1.8734 -4.5685 2.3922
2.0256 -4.4726 2.3922
2.1738 -4.3722 2.3922
2.3178 -4.2673 2.3922
2.4576 -4.1582 2.3922
2.5930 -4.0450 2.3922
2.7240 -3.9279 2.3922
2.8505 -3.8071 2.3922
2.9724 -3.6827 2.3922
3.0896 -3.5549 2.3922
3.2021 -3.4239 2.3922
3.3098 -3.2898 2.3922
3.4127 -3.1528 2.3922
3.5107 -3.0131 2.3922
3.6037 -2.8707 2.3922
3.6918 -2.7260 2.3922
3.7749 -2.5790 2.3922
3.8529 -2.4298 2.3922
3.9259 -2.2787 2.3922
3.9938 -2.1259 2.3922
4.0566 -1.9713 2.3922
4.1143 -1.8154 2.3922
4.1667 -1.6579 2.3922
4.2141 -1.4992 2.3922
4.2563 -1.3397 2.3922
4.2933 -1.1787 2.3922
4.3251 -1.0175 2.3922
4.3518 -0.8554 2.3922
4.3733 -0.6928 2.3922
4.3896 -0.5298 2.3922
4.4007 -0.3667 2.3922
4.4067 -0.2033 2.3922
4.4075 -0.0401 2.3922
4.4031 0.1230 2.3922
4.3936 0.2859 2.3922
4.3790 0.4482 2.3922
4.3592 0.6101 2.3922
4.3344 0.7712 2.3922
4.3045 0.9315 2.3922
4.2695 1.0909 2.3922
4.2295 1.2492 2.3922
4.1845 1.4062 2.3922
4.1345 1.5619 2.3922
4.0795 1.7161 2.3922
4.0196 1.8687 2.3922
3.9549 2.0196 2.3922
3.8852 2.1685 2.3922
3.8107 2.3155 2.3922
3.7315 2.4603 2.3922
3.6474 2.6028 2.3922
3.5587 2.7429 2.3922
3.4653 2.8804 2.3922
3.3674 3.0153 2.3922
3.2648 3.1472 2.3922
3.1579 3.2759 2.3922
3.0463 3.4021 2.3922
2.9305 3.5248 2.3922
2.8103 3.6442 2.3922
2.6860 3.7597 2.3922
2.5574 3.8717 2.3922
2.4248 3.9799 2.3922
2.2883 4.0841 2.3922
2.1478 4.1842 2.3922
0.8507 1.8174 1.0158
0.7849 1.8491 1.0119
0.7180 1.8785 1.0080
0.6500 1.9055 1.0040
0.5812 1.9300 0.9998
0.5114 1.9520 0.9956
0.4410 1.9715 0.9914
0.3699 1.9884 0.9870
0.2982 2.0027 0.9826
0.2260 2.0145 0.9782
0.1535 2.0236 0.9737
0.0807 2.0301 0.9691
0.0077 2.0340 0.9645
-0.0654 2.0352 0.9599
-0.1385 2.0338 0.9553
-0.2115 2.0298 0.9506
-0.2843 2.0231 0.9459
-0.3569 2.0138 0.9412
-0.4290 2.0019 0.9365
-0.5007 1.9874 0.9318
-0.5717 1.9704 0.9271
-0.6422 1.9507 0.9225
-0.7118 1.9286 0.9178
-0.7807 1.9039 0.9132
-0.8486 1.8768 0.9086
-0.9154 1.8472 0.9041
-2.6093 4.8273 2.3922
-2.7949 4.7596 2.3922
-2.9786 4.6848 2.3922
-3.1603 4.6027 2.3922
-3.3395 4.5135 2.3922
-3.5161 4.4173 2.3922
-3.6897 4.3139 2.3922
-3.8599 4.2036 2.3922
-4.0264 4.0863 2.3922
-4.1890 3.9623 2.3922
-4.3473 3.8315 2.3922
-4.5009 3.6942 2.3922
-4.6496 3.5504 2.3922
-4.7931 3.4005 2.3922
-4.9310 3.2444 2.3922
-5.0631 3.0826 2.3922
-5.1890 2.9150 2.3922
-5.3084 2.7421 2.3922
-5.4212 2.5640 2.3922
-5.5269 2.3810 2.3922
-5.6255 2.1935 2.3922
-5.7165 2.0016 2.3922
-5.7998 1.8058 2.3922
-5.8752 1.6064 2.3922
-5.9425 1.4036 2.3922
-6.0015 1.1979 2.3922
-6.0520 0.9896 2.3922
-6.0940 0.7791 2.3922
-6.1272 0.5668 2.3922
-6.1516 0.3529 2.3922
-6.1670 0.1377 2.3922
-6.1737 -0.0772 2.3922
-6.1713 -0.2929 2.3922
-6.1599 -0.5083 2.3922
-6.1397 -0.7225 2.3922
-6.1103 -0.9365 2.3922
-6.0721 -1.1487 2.3922
-6.0251 -1.3590 2.3922
-5.9694 -1.5674 2.3922
-5.9051 -1.7728 2.3922
-5.8324 -1.9754 2.3922
-5.7513 -2.1748 2.3922
-5.6623 -2.3702 2.3922
-5.5652 -2.5617 2.3922
-5.4607 -2.7482 2.3922
-5.3487 -2.9304 2.3922
-5.2294 -3.1074 2.3922
-5.1034 -3.2787 2.3922
-4.9706 -3.4450 2.3922
-4.8315 -3.6052 2.3922
-4.6864 -3.7592 2.3922
-4.5356 -3.9069 2.3922
-4.3794 -4.0480 2.3922
-4.2181 -4.1823 2.3922
-4.0522 -4.3097 2.3922
-3.8818 -4.4301 2.3922
-3.7074 -4.5432 2.3922
-3.5292 -4.6491 2.3922
-3.3478 -4.7475 2.3922
-3.1633 -4.8385 2.3922
-2.9761 -4.9219 2.3922
-2.7867 -4.9978 2.3922
-2.5952 -5.0661 2.3922
-2.4021 -5.1267 2.3922
-2.2076 -5.1798 2.3922
-2.0122 -5.2253 2.3922
-1.8160 -5.2633 2.3922
-1.6195 -5.2937 2.3922
-1.4228 -5.3168 2.3922
-1.2264 -5.3325 2.3922
-1.0305 -5.3409 2.3922
-0.8354 -5.3421 2.3922
-0.6413 -5.3363 2.3922
-0.4485 -5.3235 2.3922
-0.2572 -5.3039 2.3922
-0.0677 -5.2776 2.3922
0.1197 -5.2447 2.3922
0.3050 -5.2054 2.3922
0.4878 -5.1598 2.3922
0.6680 -5.1081 2.3922
0.8453 -5.0505 2.3922
1.0197 -4.9870 2.3922
1.1908 -4.9178 2.3922
1.3587 -4.8432 2.3922
1.5230 -4.7633 2.3922
1.6837 -4.6782 2.3922
1.8407 -4.5881 2.3922
1.9937 -4.4933 2.3922
2.1428 -4.3938 2.3922
2.2877 -4.2899 2.3922
2.4284 -4.1816 2.3922
2.5647 -4.0693 2.3922
2.6967 -3.9530 2.3922
2.8241 -3.8330 2.3922
2.9470 -3.7093 2.3922
3.0652 -3.5822 2.3922
3.1787 -3.4519 2.3922
3.2874 -3.3184 2.3922
3.3913 -3.1820 2.3922
3.4903 -3.0428 2.3922
3.5845 -2.9010 2.3922
3.6736 -2.7568 2.3922
3.7577 -2.6102 2.3922
3.8369 -2.4615 2.3922
3.9109 -2.3109 2.3922
3.9799 -2.1585 2.3922
4.0437 -2.0041 2.3922
4.1025 -1.8483 2.3922
4.1561 -1.6912 2.3922
4.2045 -1.5327 2.3922
4.2478 -1.3734 2.3922
4.2859 -1.2131 2.3922
4.3188 -1.0517 2.3922
4.3468 -0.8906 2.3922
4.3692 -0.7272 2.3922
4.3866 -0.5644 2.3922
4.3988 -0.4012 2.3922
4.4058 -0.2379 2.3922
4.4077 -0.0746 2.3922
4.4044 0.0886 2.3922
4.3960 0.2515 2.3922
4.3825 0.4139 2.3922
4.3638 0.5759 2.3922
4.3401 0.7372 2.3922
4.3113 0.8977 2.3922
4.2773 1.0573 2.3922
4.2384 1.2158 2.3922
4.1944 1.3731 2.3922
4.1455 1.5291 2.3922
4.0916 1.6837 2.3922
4.0327 1.8366 2.3922
3.9690 1.9878 2.3922
3.9003 2.1372 2.3922
3.8269 2.2846 2.3922
3.7486 2.4298 2.3922
3.6656 2.5728 2.3922
3.5779 2.7135 2.3922
3.4855 2.8515 2.3922
3.3885 2.9869 2.3922
3.2869 3.1196 2.3922
3.1808 3.2492 2.3922
3.0702 3.3759 2.3922
2.9553 3.4991 2.3922
2.8360 3.6193 2.3922
2.7127 3.7353 2.3922
2.5850 3.8483 2.3922
2.4532 3.9573 2.3922
2.3175 4.0624 2.3922
2.1778 4.1634 2.3922
2.0343 4.2601 2.3922
0.7989 1.8426 1.0128
0.7322 1.8725 1.0088
0.6645 1.9000 1.0048
0.5958 1.9250 1.0007
0.5263 1.9475 0.9965
0.4559 1.9676 0.9923
0.3850 1.9850 0.9880
0.3134 1.9999 0.9836
0.2413 2.0122 0.9791
0.1689 2.0219 0.9746
0.0961 2.0289 0.9701
0.0231 2.0334 0.9655
-0.0500 2.0352 0.9609
-0.1231 2.0343 0.9562
-0.1961 2.0309 0.9516
-0.2690 2.0248 0.9469
-0.3415 2.0160 0.9422
-0.4138 2.0047 0.9375
-0.4855 1.9907 0.9328
-0.5568 1.9742 0.9281
-0.6273 1.9551 0.9234
-0.6972 1.9335 0.9188
-0.7662 1.9093 0.9142
-0.8343 1.8827 0.9096
-0.9014 1.8537 0.9050
-0.9674 1.8222 0.9005
-2.7558 4.7746 2.3922
-2.9399 4.7012 2.3922
-3.1220 4.6207 2.3922
-3.3018 4.5330 2.3922
-3.4790 4.4382 2.3922
-3.6532 4.3363 2.3922
-3.8242 4.2275 2.3922
-3.9915 4.1117 2.3922
-4.1550 3.9890 2.3922
-4.3142 3.8597 2.3922
-4.4688 3.7238 2.3922
-4.6186 3.5814 2.3922
-4.7632 3.4327 2.3922
-4.9023 3.2779 2.3922
-5.0357 3.1173 2.3922
-5.1629 2.9509 2.3922
-5.2837 2.7791 2.3922
-5.3979 2.6021 2.3922
-5.5052 2.4201 2.3922
-5.6052 2.2335 2.3922
-5.6979 2.0425 2.3922
-5.7828 1.8476 2.3922
-5.8599 1.6488 2.3922
0.3313 1.8785 0.9835
0.2636 1.8915 0.9793
0.1954 1.9021 0.9751
0.1269 1.9101 0.9708
0.0582 1.9158 0.9665
-0.0107 1.9189 0.9622
-0.0797 1.9195 0.9578
-0.1487 1.9177 0.9534
-0.2175 1.9134 0.9490
-0.2861 1.9065 0.9446
-0.3545 1.8972 0.9402
-0.4224 1.8855 0.9357
-0.4899 1.8713 0.9313
-0.5569 1.8547 0.9269
-0.6232 1.8357 0.9225
-0.6888 1.8143 0.9181
-0.7535 1.7905 0.9137
-0.8174 1.7644 0.9094
-0.8802 1.7360 0.9051
-0.9420 1.7054 0.9009
-2.6750 4.4620 2.3922
-2.8466 4.3889 2.3922
-3.0162 4.3091 2.3922
-3.1834 4.2226 2.3922
-3.3479 4.1295 2.3922
-3.5094 4.0299 2.3922
-3.6676 3.9238 2.3922
-3.8223 3.8113 2.3922
-3.9731 3.6925 2.3922
-4.1197 3.5675 2.3922
-4.2619 3.4365 2.3922
-4.3994 3.2996 2.3922
-4.5318 3.1569 2.3922
-4.6589 3.0087 2.3922
-4.7805 2.8552 2.3922
-4.8962 2.6965 2.3922
-5.0058 2.5329 2.3922
-5.1091 2.3646 2.3922
-5.2058 2.1918 2.3922
-5.2957 2.0150 2.3922
-5.3785 1.8342 2.3922
-5.4541 1.6498 2.3922
-5.5223 1.4623 2.3922
-5.5829 1.2717 2.3922
-5.6358 1.0785 2.3922
-5.6808 0.8831 2.3922
-5.7177 0.6857 2.3922
-5.7466 0.4867 2.3922
-5.7673 0.2866 2.3922
-5.7797 0.0856 2.3922
-5.7838 -0.1159 2.3922
-5.7796 -0.3175 2.3922
-5.7671 -0.5188 2.3922
-5.7462 -0.7194 2.3922
-5.7171 -0.9190 2.3922
-5.6797 -1.1172 2.3922
-5.6343 -1.3134 2.3922
-5.5808 -1.5076 2.3922
-5.5193 -1.6993 2.3922
-5.4499 -1.8886 2.3922
-5.3730 -2.0744 2.3922
-5.2886 -2.2566 2.3922
-5.1969 -2.4350 2.3922
-5.0981 -2.6092 2.3922
-4.9925 -2.7790 2.3922
-4.8802 -2.9441 2.3922
-4.7616 -3.1042 2.3922
-4.6368 -3.2591 2.3922
-4.5061 -3.4084 2.3922
-4.3698 -3.5521 2.3922
-4.2283 -3.6898 2.3922
-4.0817 -3.8215 2.3922
-3.9305 -3.9469 2.3922
-3.7748 -4.0658 2.3922
-3.6151 -4.1782 2.3922
-3.4516 -4.2839 2.3922
-3.2846 -4.3828 2.3922
-3.1145 -4.4748 2.3922
-2.9415 -4.5598 2.3922
-2.7661 -4.6379 2.3922
-2.5884 -4.7089 2.3922
-2.4089 -4.7728 2.3922
-2.2277 -4.8296 2.3922
-2.0453 -4.8793 2.3922
-1.8619 -4.9219 2.3922
-1.6779 -4.9575 2.3922
-1.4934 -4.9861 2.3922
-1.3088 -5.0078 2.3922
-1.1243 -5.0226 2.3922
-0.9403 -5.0306 2.3922
-0.7569 -5.0317 2.3922
-0.5745 -5.0263 2.3922
-0.3932 -5.0144 2.3922
-0.2133 -4.9960 2.3922
-0.0351 -4.9713 2.3922
0.1414 -4.9404 2.3922
0.3158 -4.9035 2.3922
0.4879 -4.8606 2.3922
0.6576 -4.8119 2.3922
0.8247 -4.7576 2.3922
0.9890 -4.6978 2.3922
1.1504 -4.6326 2.3922
1.3086 -4.5622 2.3922
1.4636 -4.4868 2.3922
1.6153 -4.4065 2.3922
1.7634 -4.3215 2.3922
1.9078 -4.2319 2.3922
2.0485 -4.1379 2.3922
2.1854 -4.0396 2.3922
2.3182 -3.9373 2.3922
2.4470 -3.8310 2.3922
2.5716 -3.7209 2.3922
2.6920 -3.6073 2.3922
2.8081 -3.4901 2.3922
2.9198 -3.3697 2.3922
3.0270 -3.2462 2.3922
3.1297 -3.1197 2.3922
3.2278 -2.9904 2.3922
3.3213 -2.8583 2.3922
3.4102 -2.7238 2.3922
3.4943 -2.5870 2.3922
3.5737 -2.4478 2.3922
3.6483 -2.3067 2.3922
3.7181 -2.1636 2.3922
3.7830 -2.0188 2.3922
3.8431 -1.8723 2.3922
3.8983 -1.7243 2.3922
3.9486 -1.5750 2.3922
3.9940 -1.4246 2.3922
4.0344 -1.2730 2.3922
4.0700 -1.1207 2.3922
4.1005 -0.9673 2.3922
4.1262 -0.8135 2.3922
4.1470 -0.6596 2.3922
4.1628 -0.5051 2.3922
4.1734 -0.3493 2.3922
4.1795 -0.1954 2.3922
4.1801 -0.0390 2.3922
4.1761 0.1160 2.3922
4.1671 0.2706 2.3922
4.1533 0.4249 2.3922
4.1345 0.5787 2.3922
4.1109 0.7318 2.3922
4.0824 0.8842 2.3922
4.0491 1.0355 2.3922
4.0110 1.1859 2.3922
3.9680 1.3350 2.3922
3.9203 1.4829 2.3922
3.8679 1.6293 2.3922
3.8108 1.7742 2.3922
3.7489 1.9174 2.3922
3.6825 2.0587 2.3922
3.6114 2.1981 2.3922
3.5358 2.3354 2.3922
3.4551 2.4727 2.3922
3.3710 2.6032 2.3922
3.2820 2.7335 2.3922
3.1886 2.8611 2.3922
3.0908 2.9860 2.3922
2.9888 3.1079 2.3922
2.8827 3.2266 2.3922
2.7722 3.3431 2.3922
2.6579 3.4553 2.3922
2.5394 3.5647 2.3922
2.4171 3.6702 2.3922
2.2909 3.7721 2.3922
2.1610 3.8701 2.3922
0.8602 1.6820 1.0150
0.7992 1.7142 1.0114
0.7371 1.7441 1.0078
0.6740 1.7719 1.0041
0.6099 1.7973 1.0003
0.5449 1.8204 0.9964
0.4791 1.8411 0.9925
0.4126 1.8595 0.9884
0.3455 1.8754 0.9843
0.2779 1.8890 0.9802
0.2098 1.9000 0.9760
0.1414 1.9086 0.9717
0.0727 1.9148 0.9674
0.0038 1.9184 0.9631
-0.0651 1.9196 0.9587
-0.1341 1.9183 0.9543
-0.2029 1.9145 0.9499
-0.2716 1.9082 0.9455
-0.3401 1.8994 0.9411
-0.4081 1.8882 0.9367
-0.4757 1.8745 0.9322
-0.5428 1.8584 0.9278
-0.6092 1.8399 0.9234
-0.6750 1.8190 0.9190
-0.7399 1.7957 0.9147
-0.8039 1.7701 0.9103
-0.8670 1.7422 0.9060
-0.9291 1.7121 0.9018
-2.6384 4.4767 2.3922
-2.8105 4.4049 2.3922
-2.9806 4.3265 2.3922
-3.1483 4.2414 2.3922
-3.3133 4.1498 2.3922
-3.4755 4.0515 2.3922
-3.6344 3.9468 2.3922
-3.7899 3.8356 2.3922
-3.9415 3.7181 2.3922
-4.0891 3.5945 2.3922
-4.2322 3.4647 2.3922
-4.3707 3.3290 2.3922
-4.5042 3.1876 2.3922
-4.6325 3.0405 2.3922
-4.7553 2.8881 2.3922
-4.8722 2.7305 2.3922
-4.9832 2.5679 2.3922
-5.0878 2.4005 2.3922
-5.1859 2.2287 2.3922
-5.2772 2.0527 2.3922
-5.3616 1.8727 2.3922
-5.4387 1.6891 2.3922
-5.5085 1.5022 2.3922
-5.5707 1.3122 2.3922
-5.6253 1.1196 2.3922
-5.6719 0.9246 2.3922
-5.7106 0.7276 2.3922
-5.7412 0.5289 2.3922
-5.7636 0.3290 2.3922
-5.7778 0.1281 2.3922
-5.7837 -0.0733 2.3922
-5.7812 -0.2749 2.3922
-5.7704 -0.4762 2.3922
-5.7513 -0.6770 2.3922
-5.7239 -0.8769 2.3922
-5.6883 -1.0754 2.3922
-5.6446 -1.2721 2.3922
-5.5928 -1.4666 2.3922
-5.5329 -1.6592 2.3922
-5.4652 -1.8489 2.3922
-5.3899 -2.0353 2.3922
-5.3071 -2.2184 2.3922
-5.2169 -2.3976 2.3922
-5.1196 -2.5728 2.3922
-5.0154 -2.7435 2.3922
-4.9045 -2.9096 2.3922
-4.7872 -3.0708 2.3922
-4.6636 -3.2268 2.3922
-4.5342 -3.3773 2.3922
-4.3991 -3.5222 2.3922
-4.2587 -3.6612 2.3922
-4.1131 -3.7942 2.3922
-3.9629 -3.9209 2.3922
-3.8081 -4.0412 2.3922
-3.6492 -4.1550 2.3922
-3.4865 -4.2621 2.3922
-3.3202 -4.3624 2.3922
-3.1507 -4.4559 2.3922
-2.9783 -4.5425 2.3922
-2.8034 -4.6219 2.3922
-2.6262 -4.6944 2.3922
-2.4470 -4.7598 2.3922
-2.2662 -4.8181 2.3922
-2.0840 -4.8694 2.3922
-1.9008 -4.9135 2.3922
-1.7168 -4.9506 2.3922
-1.5324 -4.9807 2.3922
-1.3478 -5.0038 2.3922
-1.1633 -5.0200 2.3922
-0.9791 -5.0295 2.3922
-0.7956 -5.0320 2.3922
-0.6130 -5.0280 2.3922
-0.4314 -5.0174 2.3922
-0.2512 -5.0004 2.3922
-0.0726 -4.9770 2.3922
0.1042 -4.9474 2.3922
0.2791 -4.9118 2.3922
0.4517 -4.8701 2.3922
0.6219 -4.8227 2.3922
0.7896 -4.7695 2.3922
0.9545 -4.7109 2.3922
1.1165 -4.6468 2.3922
1.2754 -4.5776 2.3922
1.4311 -4.5032 2.3922
1.5835 -4.4239 2.3922
1.7324 -4.3399 2.3922
1.8776 -4.2512 2.3922
2.0191 -4.1581 2.3922
2.1567 -4.0607 2.3922
2.2904 -3.9592 2.3922
2.4201 -3.8538 2.3922
2.5456 -3.7445 2.3922
2.6669 -3.6316 2.3922
2.7839 -3.5152 2.3922
2.8965 -3.3955 2.3922
3.0047 -3.2726 2.3922
3.1083 -3.1467 2.3922
3.2075 -3.0179 2.3922
3.3019 -2.8865 2.3922
3.3918 -2.7525 2.3922
3.4769 -2.6161 2.3922
3.5573 -2.4775 2.3922
3.6329 -2.3367 2.3922
3.7037 -2.1940 2.3922
3.7697 -2.0496 2.3922
3.8308 -1.9034 2.3922
3.8871 -1.7558 2.3922
3.9384 -1.6068 2.3922
3.9848 -1.4566 2.3922
4.0263 -1.3051 2.3922
4.0629 -1.1530 2.3922
4.0945 -0.9999 2.3922
4.1211 -0.8458 2.3922
4.1429 -0.6918 2.3922
4.1596 -0.5368 2.3922
4.1717 -0.3830 2.3922
4.1784 -0.2270 2.3922
4.1803 -0.0718 2.3922
4.1773 0.0832 2.3922
4.1694 0.2380 2.3922
4.1566 0.3924 2.3922
4.1389 0.5463 2.3922
4.1163 0.6995 2.3922
4.0888 0.8520 2.3922
4.0565 1.0036 2.3922
4.0194 1.1542 2.3922
3.9775 1.3036 2.3922
3.9308 1.4518 2.3922
3.8794 1.5985 2.3922
3.8232 1.7437 2.3922
3.7624 1.8872 2.3922
3.6969 2.0290 2.3922
3.6268 2.1688 2.3922
3.5522 2.3065 2.3922
3.4730 2.4421 2.3922
3.3895 2.5745 2.3922
3.3013 2.7057 2.3922
3.2087 2.8343 2.3922
3.1118 2.9598 2.3922
3.0107 3.0825 2.3922
2.9054 3.2021 2.3922
2.7959 3.3186 2.3922
2.6824 3.4319 2.3922
2.5648 3.5418 2.3922
2.4433 3.6482 2.3922
2.3179 3.7508 2.3922
2.1888 3.8497 2.3922
2.0559 3.9447 2.3922
0.8122 1.7075 1.0122
0.7503 1.7380 1.0086
0.6874 1.7662 1.0049
0.6235 1.7921 1.0011
0.5587 1.8157 0.9972
0.4931 1.8369 0.9933
0.4268 1.8558 0.9893
0.3598 1.8723 0.9852
0.2923 1.8863 0.9811
0.2243 1.8979 0.9769
0.1559 1.9070 0.9726
0.0873 1.9137 0.9683
0.0184 1.9179 0.9640
-0.0505 1.9196 0.9597
-0.1195 1.9188 0.9553
-0.1884 1.9155 0.9509
-0.2571 1.9097 0.9465
-0.3256 1.9015 0.9420
-0.3937 1.8908 0.9376
-0.4615 1.8776 0.9332
-0.5286 1.8620 0.9287
-0.5952 1.8440 0.9243
-0.6611 1.8236 0.9199
-0.7262 1.8008 0.9156
-0.7905 1.7757 0.9112
-0.8538 1.7483 0.9069
-0.9160 1.7187 0.9027
-2.6018 4.4910 2.3922
-2.7743 4.4207 2.3922
-2.9448 4.3437 2.3922
-3.1130 4.2600 2.3922
-3.2787 4.1697 2.3922
-3.4415 4.0728 2.3922
-3.6011 3.9695 2.3922
-3.7573 3.8596 2.3922
-3.9098 3.7435 2.3922
-4.0582 3.6211 2.3922
-4.2023 3.4926 2.3922
-4.3418 3.3582 2.3922
-4.4764 3.2180 2.3922
-4.6058 3.0721 2.3922
-4.7298 2.9208 2.3922
-4.8480 2.7642 2.3922
-4.9602 2.6026 2.3922
-5.0662 2.4363 2.3922
-5.1657 2.2654 2.3922
-5.2585 2.0902 2.3922
-5.3443 1.9111 2.3922
-5.4230 1.7282 2.3922
-5.4944 1.5420 2.3922
0.3099 1.7754 0.9810
0.2459 1.7877 0.9771
0.1814 1.7976 0.9731
0.1167 1.8053 0.9691
0.0517 1.8106 0.9650
-0.0134 1.8135 0.9609
-0.0786 1.8141 0.9568
-0.1438 1.8124 0.9526
-0.2089 1.8083 0.9485
-0.2738 1.8018 0.9443
-0.3384 1.7931 0.9401
-0.4026 1.7820 0.9359
-0.4664 1.7685 0.9317
-0.5297 1.7528 0.9275
-0.5924 1.7348 0.9234
-0.6544 1.7146 0.9192
-0.7156 1.6921 0.9151
-0.7759 1.6675 0.9111
-0.8354 1.6407 0.9070
-0.8938 1.6117 0.9030
-0.9512 1.5807 0.8990
-2.6921 4.1360 2.3922
-2.8512 4.0597 2.3922
-3.0080 3.9772 2.3922
-3.1622 3.8885 2.3922
-3.3136 3.7936 2.3922
-3.4617 3.6928 2.3922
-3.6065 3.5860 2.3922
-3.7476 3.4734 2.3922
-3.8847 3.3550 2.3922
-4.0175 3.2310 2.3922
-4.1459 3.1015 2.3922
-4.2696 2.9667 2.3922
-4.3882 2.8268 2.3922
-4.5016 2.6819 2.3922
-4.6094 2.5323 2.3922
-4.7116 2.3781 2.3922
-4.8078 2.2196 2.3922
-4.8978 2.0570 2.3922
-4.9814 1.8906 2.3922
-5.0584 1.7207 2.3922
-5.1287 1.5474 2.3922
-5.1920 1.3711 2.3922
-5.2483 1.1921 2.3922
-5.2973 1.0108 2.3922
-5.3390 0.8273 2.3922
-5.3732 0.6420 2.3922
-5.3999 0.4554 2.3922
-5.4190 0.2676 2.3922
-5.4303 0.0791 2.3922
-5.4340 -0.1099 2.3922
-5.4299 -0.2989 2.3922
-5.4180 -0.4877 2.3922
-5.3984 -0.6758 2.3922
-5.3711 -0.8630 2.3922
-5.3362 -1.0489 2.3922
-5.2937 -1.2332 2.3922
-5.2436 -1.4154 2.3922
-5.1862 -1.5954 2.3922
-5.1216 -1.7727 2.3922
-5.0498 -1.9471 2.3922
-4.9710 -2.1182 2.3922
-4.8855 -2.2858 2.3922
-4.7933 -2.4496 2.3922
-4.6948 -2.6093 2.3922
-4.5900 -2.7646 2.3922
-4.4792 -2.9152 2.3922
-4.3627 -3.0611 2.3922
-4.2407 -3.2018 2.3922
-4.1134 -3.3373 2.3922
-3.9811 -3.4673 2.3922
-3.8442 -3.5916 2.3922
-3.7028 -3.7101 2.3922
-3.5572 -3.8226 2.3922
-3.4077 -3.9291 2.3922
-3.2547 -4.0293 2.3922
-3.0983 -4.1232 2.3922
-2.9389 -4.2107 2.3922
-2.7769 -4.2918 2.3922
-2.6124 -4.3662 2.3922
-2.4457 -4.4340 2.3922
-2.2772 -4.4953 2.3922
-2.1071 -4.5500 2.3922
-1.9358 -4.5980 2.3922
-1.7634 -4.6393 2.3922
-1.5903 -4.6741 2.3922
-1.4168 -4.7023 2.3922
-1.2430 -4.7239 2.3922
-1.0693 -4.7390 2.3922
-0.8959 -4.7478 2.3922
-0.7230 -4.7502 2.3922
-0.5509 -4.7464 2.3922
-0.3798 -4.7363 2.3922
-0.2100 -4.7202 2.3922
-0.0416 -4.6981 2.3922
0.1252 -4.6702 2.3922
0.2901 -4.6364 2.3922
0.4530 -4.5971 2.3922
0.6137 -4.5522 2.3922
0.7720 -4.5020 2.3922
0.9277 -4.4465 2.3922
1.0807 -4.3859 2.3922
1.2308 -4.3203 2.3922
1.3779 -4.2499 2.3922
1.5219 -4.1749 2.3922
1.6626 -4.0953 2.3922
1.7999 -4.0113 2.3922
1.9337 -3.9231 2.3922
2.0639 -3.8307 2.3922
2.1903 -3.7345 2.3922
2.3129 -3.6345 2.3922
2.4317 -3.5308 2.3922
2.5464 -3.4236 2.3922
2.6571 -3.3131 2.3922
2.7636 -3.1995 2.3922
2.8659 -3.0827 2.3922
2.9639 -2.9631 2.3922
3.0577 -2.8408 2.3922
3.1470 -2.7159 2.3922
3.2319 -2.5885 2.3922
3.3123 -2.4588 2.3922
3.3883 -2.3270 2.3922
3.4597 -2.1932 2.3922
3.5264 -2.0575 2.3922
3.5886 -1.9200 2.3922
3.6462 -1.7810 2.3922
3.6991 -1.6405 2.3922
3.7473 -1.4989 2.3922
3.7909 -1.3560 2.3922
3.8296 -1.2117 2.3922
3.8637 -1.0669 2.3922
3.8931 -0.9212 2.3922
3.9177 -0.7747 2.3922
3.9376 -0.6277 2.3922
3.9530 -0.4812 2.3922
3.9631 -0.3328 2.3922
3.9690 -0.1858 2.3922
3.9700 -0.0381 2.3922
3.9662 0.1094 2.3922
3.9578 0.2565 2.3922
3.9448 0.4027 2.3922
3.9268 0.5498 2.3922
3.9044 0.6951 2.3922
3.8771 0.8405 2.3922
3.8453 0.9844 2.3922
3.8089 1.1274 2.3922
3.7680 1.2693 2.3922
3.7224 1.4099 2.3922
3.6726 1.5482 2.3922
3.6178 1.6869 2.3922
3.5586 1.8233 2.3922
3.4952 1.9572 2.3922
3.4274 2.0895 2.3922
3.3553 2.2196 2.3922
3.2786 2.3483 2.3922
3.1978 2.4743 2.3922
3.1127 2.5982 2.3922
3.0236 2.7191 2.3922
2.9303 2.8374 2.3922
2.8330 2.9529 2.3922
2.7317 3.0656 2.3922
2.6264 3.1753 2.3922
2.5173 3.2818 2.3922
2.4044 3.3849 2.3922
2.2878 3.4846 2.3922
2.1676 3.5808 2.3922
2.0439 3.6733 2.3922
0.8099 1.5897 1.0108
0.7523 1.6201 1.0075
0.6936 1.6484 1.0041
0.6339 1.6746 1.0006
0.5733 1.6986 0.9970
0.5118 1.7204 0.9933
0.4496 1.7401 0.9895
0.3868 1.7574 0.9857
0.3234 1.7725 0.9819
0.2594 1.7852 0.9779
0.1951 1.7957 0.9740
0.1304 1.8038 0.9699
0.0655 1.8097 0.9659
0.0004 1.8131 0.9618
-0.0648 1.8142 0.9577
-0.1300 1.8129 0.9535
-0.1951 1.8093 0.9494
-0.2601 1.8034 0.9452
-0.3247 1.7951 0.9410
-0.3891 1.7845 0.9368
-0.4530 1.7716 0.9326
-0.5164 1.7563 0.9284
-0.5792 1.7388 0.9243
-0.6413 1.7191 0.9201
-0.7027 1.6971 0.9160
-0.7633 1.6729 0.9119
-0.8229 1.6465 0.9079
-0.8815 1.6180 0.9038
-0.9391 1.5874 0.8999
-2.6581 4.1513 2.3922
-2.8178 4.0763 2.3922
-2.9751 3.9951 2.3922
-3.1298 3.9077 2.3922
-3.2818 3.8142 2.3922
-3.4307 3.7146 2.3922
-3.5762 3.6091 2.3922
-3.7180 3.4977 2.3922
-3.8560 3.3805 2.3922
-3.9898 3.2577 2.3922
-4.1192 3.1293 2.3922
-4.2438 2.9957 2.3922
-4.3635 2.8568 2.3922
-4.4780 2.7130 2.3922
-4.5871 2.5643 2.3922
-4.6905 2.4111 2.3922
-4.7879 2.2535 2.3922
-4.8793 2.0918 2.3922
-4.9642 1.9261 2.3922
-5.0427 1.7569 2.3922
-5.1144 1.5843 2.3922
-5.1792 1.4086 2.3922
-5.2370 1.2302 2.3922
-5.2876 1.0493 2.3922
-5.3308 0.8662 2.3922
-5.3666 0.6813 2.3922
-5.3949 0.4949 2.3922
-5.4156 0.3074 2.3922
-5.4286 0.1190 2.3922
-5.4338 -0.0699 2.3922
-5.4314 -0.2590 2.3922
-5.4211 -0.4478 2.3922
-5.4032 -0.6361 2.3922
-5.3775 -0.8235 2.3922
-5.3442 -1.0097 2.3922
-5.3033 -1.1943 2.3922
-5.2548 -1.3771 2.3922
-5.1990 -1.5575 2.3922
-5.1359 -1.7355 2.3922
-5.0656 -1.9105 2.3922
-4.9883 -2.0823 2.3922
-4.9041 -2.2507 2.3922
-4.8134 -2.4153 2.3922
-4.7161 -2.5759 2.3922
-4.6126 -2.7321 2.3922
-4.5031 -2.8838 2.3922
-4.3878 -3.0306 2.3922
-4.2669 -3.1725 2.3922
-4.1407 -3.3091 2.3922
-4.0095 -3.4402 2.3922
-3.8735 -3.5658 2.3922
-3.7330 -3.6855 2.3922
-3.5883 -3.7993 2.3922
-3.4396 -3.9071 2.3922
-3.2873 -4.0086 2.3922
-3.1316 -4.1039 2.3922
-2.9729 -4.1928 2.3922
-2.8114 -4.2751 2.3922
-2.6473 -4.3510 2.3922
-2.4811 -4.4202 2.3922
-2.3130 -4.4829 2.3922
-2.1432 -4.5389 2.3922
-1.9721 -4.5883 2.3922
-1.7999 -4.6311 2.3922
-1.6270 -4.6673 2.3922
-1.4535 -4.6968 2.3922
-1.2797 -4.7199 2.3922
-1.1060 -4.7364 2.3922
-0.9325 -4.7465 2.3922
-0.7595 -4.7502 2.3922
-0.5872 -4.7477 2.3922
-0.4159 -4.7390 2.3922
-0.2458 -4.7241 2.3922
-0.0770 -4.7033 2.3922
0.0901 -4.6765 2.3922
0.2554 -4.6440 2.3922
0.4188 -4.6059 2.3922
0.5799 -4.5622 2.3922
0.7387 -4.5130 2.3922
0.8950 -4.4587 2.3922
1.0486 -4.3991 2.3922
1.1993 -4.3346 2.3922
1.3471 -4.2652 2.3922
1.4917 -4.1911 2.3922
1.6331 -4.1125 2.3922
1.7712 -4.0294 2.3922
1.9057 -3.9421 2.3922
2.0367 -3.8506 2.3922
2.1639 -3.7552 2.3922
2.2873 -3.6559 2.3922
2.4069 -3.5530 2.3922
2.5225 -3.4466 2.3922
2.6340 -3.3368 2.3922
2.7414 -3.2237 2.3922
2.8446 -3.1077 2.3922
2.9436 -2.9887 2.3922
3.0382 -2.8669 2.3922
3.1285 -2.7425 2.3922
3.2143 -2.6156 2.3922
3.2957 -2.4864 2.3922
3.3726 -2.3551 2.3922
3.4449 -2.2216 2.3922
3.5127 -2.0863 2.3922
3.5759 -1.9493 2.3922
3.6344 -1.8105 2.3922
3.6883 -1.6703 2.3922
3.7375 -1.5289 2.3922
3.7820 -1.3861 2.3922
3.8218 -1.2423 2.3922
3.8569 -1.0976 2.3922
3.8873 -0.9520 2.3922
3.9129 -0.8058 2.3922
3.9339 -0.6591 2.3922
3.9500 -0.5119 2.3922
3.9615 -0.3645 2.3922
3.9682 -0.2169 2.3922
3.9701 -0.0693 2.3922
3.9674 0.0782 2.3922
3.9602 0.2247 2.3922
3.9476 0.3730 2.3922
3.9309 0.5189 2.3922
3.9095 0.6643 2.3922
3.8835 0.8087 2.3922
3.8524 0.9540 2.3922
3.8170 1.0973 2.3922
3.7770 1.2394 2.3922
3.7324 1.3803 2.3922
3.6834 1.5194 2.3922
3.6297 1.6579 2.3922
3.5717 1.7938 2.3922
3.5090 1.9290 2.3922
3.4422 2.0613 2.3922
3.3708 2.1927 2.3922
3.2952 2.3214 2.3922
3.2154 2.4475 2.3922
3.1312 2.5717 2.3922
3.0428 2.6935 2.3922
2.9504 2.8125 2.3922
2.8539 2.9287 2.3922
2.7534 3.0420 2.3922
2.6490 3.1524 2.3922
2.5407 3.2595 2.3922
2.4286 3.3634 2.3922
2.3128 3.4638 2.3922
2.1934 3.5607 2.3922
2.0703 3.6541 2.3922
0.8220 1.5830 1.0115
0.7645 1.6138 1.0082
0.7061 1.6426 1.0048
0.6466 1.6692 1.0013
0.5861 1.6937 0.9977
0.5249 1.7160 0.9941
0.4629 1.7361 0.9903
0.4001 1.7539 0.9865
0.3368 1.7695 0.9827
0.2730 1.7827 0.9788
0.2087 1.7937 0.9748
0.1441 1.8023 0.9708
0.0792 1.8086 0.9667
0.0141 1.8126 0.9627
-0.0511 1.8142 0.9585
-0.1162 1.8134 0.9544
-0.1814 1.8103 0.9502
-0.2463 1.8048 0.9461
-0.3111 1.7971 0.9419
-0.3755 1.7869 0.9377
-0.4395 1.7745 0.9335
-0.5030 1.7597 0.9293
-0.5659 1.7427 0.9251
-0.6282 1.7234 0.9210
-0.6898 1.7019 0.9169
-0.7505 1.6782 0.9128
-0.8104 1.6523 0.9087
-0.8692 1.6242 0.9047
-0.9270 1.5941 0.9007
-2.6241 4.1663 2.3922
-2.7842 4.0927 2.3922
-2.9420 4.0128 2.3922
-3.0973 3.9267 2.3922
-3.2499 3.8345 2.3922
-3.3995 3.7362 2.3922
-3.5457 3.6319 2.3922
-3.6884 3.5217 2.3922
-3.8272 3.4057 2.3922
-3.9619 3.2841 2.3922
-4.0922 3.1569 2.3922
-4.2179 3.0244 2.3922
-4.3387 2.8866 2.3922
-4.4543 2.7438 2.3922
-4.5645 2.5962 2.3922
-4.6691 2.4439 2.3922
-4.7678 2.2872 2.3922
-4.8605 2.1263 2.3922
-4.9468 1.9615 2.3922
-5.0266 1.7930 2.3922
-5.0998 1.6211 2.3922
-5.1661 1.4460 2.3922
0.2903 1.6809 0.9788
0.2296 1.6925 0.9751
0.1686 1.7019 0.9713
0.1073 1.7092 0.9675
0.0458 1.7142 0.9637
-0.0159 1.7170 0.9598
-0.0776 1.7175 0.9559
-0.1394 1.7159 0.9519
-0.2010 1.7120 0.9480
-0.2624 1.7059 0.9440
-0.3236 1.6976 0.9401
-0.3844 1.6871 0.9361
-0.4449 1.6743 0.9321
-0.5048 1.6595 0.9282
-0.5641 1.6424 0.9242
-0.6228 1.6233 0.9203
-0.6808 1.6020 0.9164
-0.7380 1.5787 0.9125
-0.7943 1.5533 0.9087
-0.8496 1.5259 0.9049
-0.9039 1.4965 0.9012
-0.9571 1.4652 0.8975
-2.7009 3.8325 2.3922
-2.8484 3.7536 2.3922
-2.9933 3.6691 2.3922
-3.1354 3.5788 2.3922
-3.2745 3.4828 2.3922
-3.4104 3.3813 2.3922
-3.5427 3.2743 2.3922
-3.6713 3.1620 2.3922
-3.7958 3.0445 2.3922
-3.9160 2.9218 2.3922
-4.0318 2.7943 2.3922
-4.1428 2.6619 2.3922
-4.2489 2.5250 2.3922
-4.3497 2.3836 2.3922
-4.4452 2.2380 2.3922
-4.5350 2.0884 2.3922
-4.6191 1.9351 2.3922
-4.6971 1.7782 2.3922
-4.7690 1.6180 2.3922
-4.8345 1.4548 2.3922
-4.8935 1.2887 2.3922
-4.9459 1.1202 2.3922
-4.9916 0.9495 2.3922
-5.0303 0.7769 2.3922
-5.0621 0.6026 2.3922
-5.0869 0.4270 2.3922
-5.1045 0.2505 2.3922
-5.1149 0.0732 2.3922
-5.1182 -0.1045 2.3922
-5.1142 -0.2822 2.3922
-5.1029 -0.4597 2.3922
-5.0845 -0.6366 2.3922
-5.0588 -0.8125 2.3922
-5.0261 -0.9873 2.3922
-4.9862 -1.1606 2.3922
-4.9394 -1.3320 2.3922
-4.8856 -1.5013 2.3922
-4.8251 -1.6681 2.3922
-4.7579 -1.8322 2.3922
-4.6842 -1.9933 2.3922
-4.6042 -2.1511 2.3922
-4.5179 -2.3054 2.3922
-4.4257 -2.4558 2.3922
-4.3276 -2.6022 2.3922
-4.2239 -2.7443 2.3922
-4.1148 -2.8819 2.3922
-4.0005 -3.0148 2.3922
-3.8813 -3.1428 2.3922
-3.7574 -3.2658 2.3922
-3.6290 -3.3833 2.3922
-3.4964 -3.4956 2.3922
-3.3599 -3.6022 2.3922
-3.2197 -3.7032 2.3922
-3.0760 -3.7984 2.3922
-2.9292 -3.8877 2.3922
-2.7796 -3.9710 2.3922
-2.6273 -4.0482 2.3922
-2.4727 -4.1193 2.3922
-2.3159 -4.1842 2.3922
-2.1574 -4.2430 2.3922
-1.9974 -4.2955 2.3922
-1.8360 -4.3418 2.3922
-1.6737 -4.3819 2.3922
-1.5105 -4.4157 2.3922
-1.3469 -4.4434 2.3922
-1.1830 -4.4649 2.3922
-1.0190 -4.4803 2.3922
-0.8553 -4.4897 2.3922
-0.6920 -4.4931 2.3922
-0.5294 -4.4905 2.3922
-0.3676 -4.4821 2.3922
-0.2069 -4.4679 2.3922
-0.0475 -4.4480 2.3922
0.1104 -4.4226 2.3922
0.2667 -4.3917 2.3922
0.4210 -4.3555 2.3922
0.5734 -4.3140 2.3922
0.7236 -4.2674 2.3922
0.8714 -4.2158 2.3922
1.0167 -4.1593 2.3922
1.1593 -4.0980 2.3922
1.2991 -4.0321 2.3922
1.4360 -3.9618 2.3922
1.5699 -3.8871 2.3922
1.7006 -3.8082 2.3922
1.8279 -3.7252 2.3922
1.9519 -3.6383 2.3922
2.0724 -3.5476 2.3922
2.1893 -3.4532 2.3922
2.3026 -3.3554 2.3922
2.4120 -3.2541 2.3922
2.5176 -3.1497 2.3922
2.6194 -3.0422 2.3922
2.7171 -2.9317 2.3922
2.8108 -2.8185 2.3922
2.9003 -2.7026 2.3922
2.9858 -2.5841 2.3922
3.0670 -2.4633 2.3922
3.1440 -2.3403 2.3922
3.2166 -2.2152 2.3922
3.2850 -2.0881 2.3922
3.3490 -1.9592 2.3922
3.4086 -1.8286 2.3922
3.4637 -1.6965 2.3922
3.5144 -1.5628 2.3922
3.5607 -1.4280 2.3922
3.6025 -1.2919 2.3922
3.6398 -1.1551 2.3922
3.6725 -1.0170 2.3922
3.7007 -0.8783 2.3922
3.7244 -0.7390 2.3922
3.7436 -0.5991 2.3922
3.7582 -0.4587 2.3922
3.7684 -0.3184 2.3922
3.7739 -0.1778 2.3922
3.7750 -0.0372 2.3922
3.7715 0.1033 2.3922
3.7635 0.2435 2.3922
3.7510 0.3833 2.3922
3.7341 0.5226 2.3922
3.7125 0.6617 2.3922
3.6867 0.7993 2.3922
3.6562 0.9371 2.3922
3.6217 1.0724 2.3922
3.5822 1.2087 2.3922
3.5389 1.3417 2.3922
3.4909 1.4748 2.3922
3.4388 1.6059 2.3922
3.3823 1.7354 2.3922
3.3216 1.8632 2.3922
3.2567 1.9891 2.3922
3.1878 2.1129 2.3922
3.1145 2.2351 2.3922
3.0373 2.3548 2.3922
2.9560 2.4723 2.3922
2.8708 2.5872 2.3922
2.7817 2.6996 2.3922
2.6887 2.8093 2.3922
2.5920 2.9162 2.3922
2.4915 3.0201 2.3922
2.3873 3.1210 2.3922
2.2796 3.2187 2.3922
2.1683 3.3131 2.3922
2.0537 3.4040 2.3922
0.8174 1.4743 1.0101
0.7638 1.5050 1.0071
0.7092 1.5338 1.0039
0.6536 1.5607 1.0006
0.5971 1.5855 0.9973
0.5397 1.6082 0.9939
0.4815 1.6289 0.9904
0.4226 1.6474 0.9869
0.3631 1.6638 0.9833
0.3030 1.6781 0.9796
0.2425 1.6902 0.9759
0.1816 1.7001 0.9721
0.1203 1.7078 0.9683
0.0588 1.7133 0.9645
-0.0028 1.7166 0.9606
-0.0646 1.7176 0.9567
-0.1263 1.7164 0.9528
-0.1880 1.7130 0.9488
-0.2495 1.7074 0.9449
-0.3107 1.6995 0.9409
-0.3716 1.6895 0.9369
-0.4321 1.6772 0.9330
-0.4922 1.6628 0.9290
-0.5516 1.6462 0.9251
-0.6105 1.6275 0.9211
-0.6686 1.6067 0.9172
-0.7260 1.5838 0.9134
-0.7824 1.5588 0.9095
-0.8380 1.5318 0.9057
-0.8925 1.5029 0.9020
-0.9460 1.4720 0.8983
-2.6694 3.8484 2.3922
-2.8174 3.7708 2.3922
-2.9628 3.6874 2.3922
-3.1056 3.5983 2.3922
-3.2454 3.5036 2.3922
-3.3820 3.4032 2.3922
-3.5150 3.2974 2.3922
-3.6444 3.1862 2.3922
-3.7698 3.0698 2.3922
-3.8910 2.9482 2.3922
-4.0077 2.8217 2.3922
-4.1197 2.6903 2.3922
-4.2269 2.5543 2.3922
-4.3288 2.4139 2.3922
-4.4255 2.2692 2.3922
-4.5165 2.1204 2.3922
-4.6018 1.9678 2.3922
-4.6811 1.8116 2.3922
-4.7543 1.6521 2.3922
-4.8212 1.4895 2.3922
-4.8816 1.3241 2.3922
-4.9354 1.1561 2.3922
-4.9825 0.9858 2.3922
-5.0227 0.8135 2.3922
-5.0560 0.6396 2.3922
-5.0822 0.4643 2.3922
-5.1014 0.2879 2.3922
-5.1133 0.1107 2.3922
-5.1181 -0.0669 2.3922
-5.1156 -0.2446 2.3922
-5.1059 -0.4222 2.3922
-5.0890 -0.5992 2.3922
-5.0649 -0.7754 2.3922
-5.0336 -0.9505 2.3922
-4.9952 -1.1241 2.3922
-4.9499 -1.2959 2.3922
-4.8976 -1.4657 2.3922
-4.8385 -1.6331 2.3922
-4.7727 -1.7978 2.3922
-4.7004 -1.9595 2.3922
-4.6216 -2.1181 2.3922
-4.5367 -2.2731 2.3922
-4.4457 -2.4243 2.3922
-4.3488 -2.5716 2.3922
-4.2463 -2.7147 2.3922
-4.1383 -2.8532 2.3922
-4.0251 -2.9871 2.3922
-3.9069 -3.1162 2.3922
-3.7840 -3.2402 2.3922
-3.6565 -3.3589 2.3922
-3.5248 -3.4723 2.3922
-3.3891 -3.5801 2.3922
-3.2496 -3.6823 2.3922
-3.1067 -3.7787 2.3922
-2.9605 -3.8693 2.3922
-2.8115 -3.9538 2.3922
-2.6597 -4.0323 2.3922
-2.5055 -4.1048 2.3922
-2.3492 -4.1710 2.3922
-2.1911 -4.2311 2.3922
-2.0313 -4.2849 2.3922
-1.8702 -4.3325 2.3922
-1.7081 -4.3739 2.3922
-1.5451 -4.4091 2.3922
-1.3815 -4.4381 2.3922
-1.2177 -4.4609 2.3922
-1.0537 -4.4776 2.3922
-0.8899 -4.4882 2.3922
-0.7265 -4.4928 2.3922
-0.5637 -4.4915 2.3922
-0.4017 -4.4843 2.3922
-0.2408 -4.4714 2.3922
-0.0811 -4.4527 2.3922
0.0772 -4.4284 2.3922
0.2338 -4.3987 2.3922
0.3886 -4.3636 2.3922
0.5414 -4.3232 2.3922
0.6920 -4.2777 2.3922
0.8403 -4.2271 2.3922
0.9861 -4.1716 2.3922
1.1294 -4.1113 2.3922
1.2698 -4.0464 2.3922
1.4073 -3.9770 2.3922
1.5418 -3.9032 2.3922
1.6732 -3.8252 2.3922
1.8013 -3.7431 2.3922
1.9260 -3.6570 2.3922
2.0472 -3.5671 2.3922
2.1649 -3.4735 2.3922
2.2789 -3.3763 2.3922
2.3892 -3.2758 2.3922
2.4956 -3.1721 2.3922
2.5982 -3.0652 2.3922
2.6968 -2.9553 2.3922
2.7913 -2.8426 2.3922
2.8817 -2.7273 2.3922
2.9681 -2.6094 2.3922
3.0502 -2.4891 2.3922
3.1281 -2.3665 2.3922
3.2016 -2.2418 2.3922
3.2709 -2.1151 2.3922
3.3358 -1.9866 2.3922
3.3963 -1.8563 2.3922
3.4524 -1.7245 2.3922
3.5041 -1.5912 2.3922
3.5513 -1.4566 2.3922
3.5940 -1.3208 2.3922
3.6322 -1.1840 2.3922
3.6659 -1.0462 2.3922
3.6951 -0.9077 2.3922
3.7198 -0.7684 2.3922
3.7399 -0.6287 2.3922
3.7556 -0.4887 2.3922
3.7666 -0.3481 2.3922
3.7731 -0.2075 2.3922
3.7751 -0.0670 2.3922
3.7726 0.0736 2.3922
3.7656 0.2137 2.3922
3.7540 0.3539 2.3922
3.7379 0.4936 2.3922
3.7174 0.6324 2.3922
3.6925 0.7706 2.3922
3.6631 0.9078 2.3922
3.6293 1.0439 2.3922
3.5910 1.1797 2.3922
3.5484 1.3138 2.3922
3.5014 1.4469 2.3922
3.4501 1.5783 2.3922
3.3945 1.7084 2.3922
3.3348 1.8363 2.3922
3.2708 1.9627 2.3922
3.2026 2.0872 2.3922
3.1303 2.2095 2.3922
3.0539 2.3298 2.3922
2.9736 2.4476 2.3922
2.8892 2.5631 2.3922
2.8009 2.6761 2.3922
2.7087 2.7863 2.3922
2.6127 2.8938 2.3922
2.5130 2.9984 2.3922
2.4096 3.0999 2.3922
2.3027 3.1983 2.3922
2.1922 3.2934 2.3922
2.0782 3.3851 2.3922
0.8285 1.4675 1.0108
0.7753 1.4987 1.0077
0.7209 1.5279 1.0046
0.6655 1.5552 1.0013
0.6091 1.5804 0.9980
0.5519 1.6036 0.9946
0.4939 1.6247 0.9912
0.4351 1.6437 0.9876
0.3758 1.6606 0.9840
0.3158 1.6753 0.9804
0.2553 1.6878 0.9767
0.1945 1.6982 0.9729
0.1333 1.7064 0.9691
0.0718 1.7123 0.9653
0.0102 1.7161 0.9614
-0.0515 1.7176 0.9575
-0.1133 1.7169 0.9536
-0.1749 1.7139 0.9497
-0.2365 1.7087 0.9457
-0.2978 1.7014 0.9417
-0.3588 1.6918 0.9378
-0.4194 1.6800 0.9338
-0.4795 1.6660 0.9298
-0.5391 1.6499 0.9259
-0.5981 1.6316 0.9220
-0.6564 1.6113 0.9181
-0.7139 1.5888 0.9142
-0.7706 1.5643 0.9103
-0.8263 1.5377 0.9065
-0.8811 1.5092 0.9028
-0.9348 1.4787 0.8990
-2.6379 3.8640 2.3922
-2.7863 3.7877 2.3922
-2.9323 3.7055 2.3922
-3.0757 3.6177 2.3922
-3.2161 3.5241 2.3922
-3.3534 3.4249 2.3922
-3.4872 3.3202 2.3922
-3.6174 3.2102 2.3922
-3.7436 3.0948 2.3922
-3.8657 2.9743 2.3922
-3.9834 2.8488 2.3922
-4.0965 2.7185 2.3922
-4.2046 2.5834 2.3922
-4.3077 2.4439 2.3922
-4.4055 2.3001 2.3922
-4.4977 2.1522 2.3922
-4.5842 2.0004 2.3922
-4.6648 1.8450 2.3922
-4.7393 1.6861 2.3922
-4.8076 1.5241 2.3922
-4.8694 1.3593 2.3922
0.2722 1.5938 0.9768
0.2147 1.6049 0.9732
0.1569 1.6138 0.9697
0.0987 1.6207 0.9661
0.0403 1.6254 0.9624
-0.0182 1.6281 0.9587
-0.0767 1.6286 0.9550
-0.1353 1.6270 0.9513
-0.1937 1.6234 0.9475
-0.2520 1.6176 0.9438
-0.3100 1.6097 0.9400
-0.3677 1.5997 0.9363
-0.4250 1.5876 0.9325
-0.4819 1.5735 0.9287
-0.5382 1.5574 0.9250
-0.5938 1.5392 0.9213
-0.6488 1.5191 0.9176
-0.7030 1.4969 0.9139
-0.7564 1.4728 0.9103
-0.8089 1.4468 0.9067
-0.8604 1.4190 0.9031
-0.9109 1.3893 0.8996
-0.9603 1.3578 0.8962
-2.7022 3.5491 2.3922
-2.8387 3.4684 2.3922
-2.9725 3.3823 2.3922
-3.1035 3.2909 2.3922
-3.2312 3.1943 2.3922
-3.3556 3.0926 2.3922
-3.4764 2.9859 2.3922
-3.5934 2.8743 2.3922
-3.7064 2.7580 2.3922
-3.8150 2.6370 2.3922
-3.9192 2.5116 2.3922
-4.0186 2.3820 2.3922
-4.1132 2.2482 2.3922
-4.2026 2.1105 2.3922
-4.2868 1.9690 2.3922
-4.3655 1.8241 2.3922
-4.4385 1.6759 2.3922
-4.5057 1.5246 2.3922
-4.5670 1.3705 2.3922
-4.6222 1.2139 2.3922
-4.6711 1.0549 2.3922
-4.7137 0.8939 2.3922
-4.7499 0.7311 2.3922
-4.7795 0.5668 2.3922
-4.8025 0.4013 2.3922
-4.8189 0.2349 2.3922
-4.8285 0.0678 2.3922
-4.8314 -0.0996 2.3922
-4.8275 -0.2670 2.3922
-4.8169 -0.4342 2.3922
-4.7995 -0.6009 2.3922
-4.7753 -0.7667 2.3922
-4.7445 -0.9314 2.3922
-4.7071 -1.0947 2.3922
-4.6631 -1.2562 2.3922
-4.6126 -1.4158 2.3922
-4.5558 -1.5731 2.3922
-4.4928 -1.7279 2.3922
-4.4237 -1.8798 2.3922
-4.3486 -2.0287 2.3922
-4.2676 -2.1743 2.3922
-4.1811 -2.3164 2.3922
-4.0890 -2.4546 2.3922
-3.9917 -2.5889 2.3922
-3.8893 -2.7190 2.3922
-3.7820 -2.8447 2.3922
-3.6700 -2.9659 2.3922
-3.5536 -3.0822 2.3922
-3.4330 -3.1937 2.3922
-3.3084 -3.3001 2.3922
-3.1801 -3.4013 2.3922
-3.0482 -3.4972 2.3922
-2.9131 -3.5877 2.3922
-2.7750 -3.6727 2.3922
-2.6341 -3.7521 2.3922
-2.4907 -3.8258 2.3922
-2.3450 -3.8937 2.3922
-2.1974 -3.9559 2.3922
-2.0479 -4.0122 2.3922
-1.8970 -4.0628 2.3922
-1.7448 -4.1074 2.3922
-1.5915 -4.1462 2.3922
-1.4375 -4.1791 2.3922
-1.2829 -4.2062 2.3922
-1.1280 -4.2275 2.3922
-0.9730 -4.2430 2.3922
-0.8181 -4.2528 2.3922
-0.6635 -4.2569 2.3922
-0.5096 -4.2554 2.3922
-0.3563 -4.2484 2.3922
-0.2041 -4.2359 2.3922
-0.0530 -4.2180 2.3922
0.0968 -4.1948 2.3922
0.2450 -4.1664 2.3922
0.3916 -4.1330 2.3922
0.5363 -4.0945 2.3922
0.6789 -4.0511 2.3922
0.8194 -4.0029 2.3922
0.9576 -3.9501 2.3922
1.0933 -3.8928 2.3922
1.2263 -3.8310 2.3922
1.3567 -3.7649 2.3922
1.4842 -3.6947 2.3922
1.6087 -3.6204 2.3922
1.7301 -3.5422 2.3922
1.8484 -3.4602 2.3922
1.9633 -3.3746 2.3922
2.0749 -3.2854 2.3922
2.1830 -3.1929 2.3922
2.2875 -3.0971 2.3922
2.3884 -2.9982 2.3922
2.4856 -2.8963 2.3922
2.5790 -2.7916 2.3922
2.6686 -2.6842 2.3922
2.7543 -2.5742 2.3922
2.8361 -2.4618 2.3922
2.9138 -2.3471 2.3922
2.9876 -2.2302 2.3922
3.0572 -2.1113 2.3922
3.1227 -1.9904 2.3922
3.1840 -1.8678 2.3922
3.2411 -1.7435 2.3922
3.2940 -1.6177 2.3922
3.3427 -1.4905 2.3922
3.3871 -1.3621 2.3922
3.4272 -1.2326 2.3922
3.4630 -1.1020 2.3922
3.4945 -0.9706 2.3922
3.5216 -0.8384 2.3922
3.5445 -0.7056 2.3922
3.5630 -0.5723 2.3922
3.5770 -0.4384 2.3922
3.5868 -0.3046 2.3922
3.5922 -0.1704 2.3922
3.5934 -0.0364 2.3922
3.5901 0.0978 2.3922
3.5825 0.2314 2.3922
3.5706 0.3649 2.3922
3.5544 0.4979 2.3922
3.5339 0.6302 2.3922
3.5092 0.7619 2.3922
3.4801 0.8929 2.3922
3.4469 1.0228 2.3922
3.4094 1.1516 2.3922
3.3678 1.2792 2.3922
3.3220 1.4055 2.3922
3.2721 1.5304 2.3922
3.2181 1.6538 2.3922
3.1600 1.7756 2.3922
3.0979 1.8956 2.3922
3.0319 2.0137 2.3922
2.9618 2.1299 2.3922
2.8880 2.2437 2.3922
2.8103 2.3555 2.3922
2.7288 2.4647 2.3922
2.6436 2.5715 2.3922
2.5547 2.6758 2.3922
2.4621 2.7774 2.3922
2.3661 2.8760 2.3922
2.2666 2.9717 2.3922
2.1637 3.0644 2.3922
2.0574 3.1539 2.3922
0.8219 1.3670 1.0093
0.7722 1.3980 1.0065
0.7214 1.4271 1.0036
0.6696 1.4545 1.0006
0.6169 1.4799 0.9975
0.5632 1.5034 0.9943
0.5088 1.5250 0.9911
0.4536 1.5446 0.9878
0.3978 1.5621 0.9844
0.3413 1.5777 0.9810
0.2843 1.5912 0.9775
0.2269 1.6027 0.9740
0.1691 1.6121 0.9704
0.1110 1.6194 0.9668
0.0527 1.6246 0.9632
-0.0058 1.6277 0.9595
-0.0643 1.6287 0.9558
-0.1229 1.6275 0.9521
-0.1814 1.6243 0.9483
-0.2397 1.6190 0.9446
-0.2978 1.6115 0.9408
-0.3556 1.6020 0.9370
-0.4129 1.5904 0.9333
-0.4699 1.5767 0.9295
-0.5263 1.5610 0.9258
-0.5821 1.5432 0.9221
-0.6372 1.5235 0.9184
-0.6916 1.5018 0.9147
-0.7452 1.4781 0.9111
-0.7979 1.4525 0.9075
-0.8496 1.4250 0.9039
-0.9003 1.3957 0.9004
-0.9499 1.3646 0.8969
-2.6730 3.5655 2.3922
-2.8101 3.4859 2.3922
-2.9445 3.4009 2.3922
-3.0760 3.3106 2.3922
-3.2045 3.2151 2.3922
-3.3296 3.1145 2.3922
-3.4512 3.0088 2.3922
-3.5690 2.8983 2.3922
-3.6828 2.7829 2.3922
-3.7924 2.6630 2.3922
-3.8975 2.5385 2.3922
-3.9980 2.4097 2.3922
-4.0936 2.2768 2.3922
-4.1841 2.1399 2.3922
-4.2694 1.9992 2.3922
-4.3493 1.8550 2.3922
-4.4235 1.7075 2.3922
-4.4920 1.5568 2.3922
-4.5546 1.4033 2.3922
-4.6110 1.2472 2.3922
-4.6613 1.0887 2.3922
-4.7053 0.9281 2.3922
-4.7428 0.7657 2.3922
-4.7738 0.6017 2.3922
-4.7982 0.4364 2.3922
-4.8160 0.2701 2.3922
-4.8270 0.1032 2.3922
-4.8314 -0.0642 2.3922
-4.8289 -0.2316 2.3922
-4.8197 -0.3989 2.3922
-4.8037 -0.5657 2.3922
-4.7810 -0.7317 2.3922
-4.7516 -0.8967 2.3922
-4.7155 -1.0603 2.3922
-4.6729 -1.2222 2.3922
-4.6238 -1.3822 2.3922
-4.5684 -1.5400 2.3922
-4.5067 -1.6953 2.3922
-4.4388 -1.8479 2.3922
-4.3649 -1.9975 2.3922
-4.2852 -2.1438 2.3922
-4.1998 -2.2866 2.3922
-4.1089 -2.4257 2.3922
-4.0127 -2.5609 2.3922
-3.9113 -2.6919 2.3922
-3.8051 -2.8185 2.3922
-3.6941 -2.9406 2.3922
-3.5786 -3.0580 2.3922
-3.4589 -3.1705 2.3922
-3.3351 -3.2781 2.3922
-3.2075 -3.3804 2.3922
-3.0764 -3.4775 2.3922
-2.9419 -3.5691 2.3922
-2.8044 -3.6552 2.3922
-2.6641 -3.7358 2.3922
-2.5212 -3.8107 2.3922
-2.3760 -3.8798 2.3922
-2.2287 -3.9432 2.3922
-2.0797 -4.0008 2.3922
-1.9290 -4.0526 2.3922
-1.7770 -4.0984 2.3922
-1.6240 -4.1385 2.3922
-1.4701 -4.1726 2.3922
-1.3156 -4.2010 2.3922
-1.1607 -4.2235 2.3922
-1.0057 -4.2402 2.3922
-0.8508 -4.2512 2.3922
-0.6962 -4.2565 2.3922
-0.5421 -4.2562 2.3922
-0.3887 -4.2504 2.3922
-0.2362 -4.2390 2.3922
-0.0848 -4.2222 2.3922
0.0652 -4.2002 2.3922
0.2138 -4.1729 2.3922
0.3608 -4.1405 2.3922
0.5058 -4.1030 2.3922
0.6489 -4.0607 2.3922
0.7899 -4.0135 2.3922
0.9286 -3.9617 2.3922
1.0648 -3.9053 2.3922
1.1984 -3.8444 2.3922
1.3294 -3.7792 2.3922
1.4575 -3.7099 2.3922
1.5826 -3.6364 2.3922
1.7047 -3.5590 2.3922
1.8236 -3.4778 2.3922
1.9393 -3.3930 2.3922
2.0516 -3.3045 2.3922
2.1604 -3.2127 2.3922
2.2657 -3.1176 2.3922
2.3674 -3.0194 2.3922
2.4654 -2.9181 2.3922
2.5596 -2.8140 2.3922
2.6500 -2.7072 2.3922
2.7365 -2.5977 2.3922
2.8191 -2.4858 2.3922
2.8977 -2.3715 2.3922
2.9723 -2.2551 2.3922
3.0428 -2.1366 2.3922
3.1092 -2.0161 2.3922
3.1714 -1.8939 2.3922
3.2294 -1.7699 2.3922
3.2832 -1.6445 2.3922
3.3328 -1.5175 2.3922
3.3781 -1.3894 2.3922
3.4191 -1.2600 2.3922
3.4558 -1.1297 2.3922
3.4882 -0.9984 2.3922
3.5163 -0.8664 2.3922
3.5400 -0.7337 2.3922
3.5594 -0.6004 2.3922
3.5744 -0.4668 2.3922
3.5851 -0.3329 2.3922
3.5915 -0.1989 2.3922
3.5935 -0.0647 2.3922
3.5911 0.0695 2.3922
3.5845 0.2032 2.3922
3.5735 0.3367 2.3922
3.5582 0.4698 2.3922
3.5386 0.6023 2.3922
3.5148 0.7341 2.3922
3.4867 0.8651 2.3922
3.4542 0.9955 2.3922
