ply
format ascii 1.0
element vertex 2167
property float32 x
property float32 y
property float32 z
end_header
3.3759 8.5617 2.3952
3.0589 8.6568 2.3952
2.7393 8.7403 2.3952
2.4178 8.8123 2.3952
0.8410 3.5624 0.9617
0.7124 3.5902 0.9639
0.5828 3.6134 0.9660
0.4525 3.6319 0.9682
0.3216 3.6456 0.9703
0.1902 3.6546 0.9723
0.0587 3.6588 0.9744
-0.0730 3.6583 0.9764
-0.2046 3.6529 0.9783
-0.3359 3.6429 0.9802
-0.4667 3.6280 0.9820
-0.5970 3.6085 0.9838
-0.7264 3.5842 0.9855
-0.8549 3.5553 0.9872
-2.3792 8.5305 2.3952
-2.6803 8.4248 2.3952
-2.9771 8.3091 2.3952
-3.2693 8.1834 2.3952
-3.5565 8.0480 2.3952
-3.8386 7.9031 2.3952
-4.1152 7.7488 2.3952
-4.3860 7.5854 2.3952
-4.6507 7.4131 2.3952
-4.9090 7.2321 2.3952
-5.1608 7.0426 2.3952
-5.4058 6.8449 2.3952
-5.6436 6.6391 2.3952
-5.8741 6.4256 2.3952
-6.0971 6.2046 2.3952
-6.3122 5.9763 2.3952
-6.5194 5.7410 2.3952
-6.7184 5.4990 2.3952
-6.9089 5.2506 2.3952
-7.0909 4.9959 2.3952
-7.2641 4.7353 2.3952
-7.4283 4.4691 2.3952
-7.5834 4.1976 2.3952
-7.7293 3.9210 2.3952
-7.8657 3.6396 2.3952
-7.9925 3.3538 2.3952
-8.1096 3.0638 2.3952
-8.2168 2.7700 2.3952
-8.3141 2.4727 2.3952
-8.4013 2.1721 2.3952
-8.4783 1.8685 2.3952
-8.5450 1.5624 2.3952
-8.6013 1.2541 2.3952
-8.6473 0.9438 2.3952
-8.6827 0.6318 2.3952
-8.7075 0.3186 2.3952
-8.7216 0.0045 2.3952
-8.7252 -0.3103 2.3952
-8.7179 -0.6253 2.3952
-8.7000 -0.9402 2.3952
-8.6713 -1.2548 2.3952
-8.6319 -1.5686 2.3952
-8.5816 -1.8812 2.3952
-8.5207 -2.1924 2.3952
-8.4490 -2.5018 2.3952
-8.3667 -2.8090 2.3952
-8.2737 -3.1136 2.3952
-8.1701 -3.4155 2.3952
-8.0561 -3.7140 2.3952
-7.9316 -4.0090 2.3952
-7.7967 -4.3000 2.3952
-7.6516 -4.5867 2.3952
-7.4963 -4.8687 2.3952
-7.3311 -5.1458 2.3952
-7.1560 -5.4174 2.3952
-6.9711 -5.6834 2.3952
-6.7768 -5.9432 2.3952
-6.5730 -6.1967 2.3952
-6.3600 -6.4433 2.3952
-6.1380 -6.6829 2.3952
-5.9073 -6.9150 2.3952
-5.6680 -7.1393 2.3952
-5.4203 -7.3556 2.3952
-5.1646 -7.5634 2.3952
-4.9012 -7.7624 2.3952
-4.6302 -7.9524 2.3952
-4.3520 -8.1331 2.3952
-4.0669 -8.3041 2.3952
-3.7752 -8.4651 2.3952
-3.4772 -8.6160 2.3952
-3.1733 -8.7563 2.3952
-2.8639 -8.8860 2.3952
-2.5493 -9.0046 2.3952
-2.2299 -9.1121 2.3952
-1.9061 -9.2081 2.3952
-1.5783 -9.2924 2.3952
-1.2469 -9.3650 2.3952
-0.9122 -9.4255 2.3952
-0.5753 -9.4739 2.3952
-0.2357 -9.5099 2.3952
0.1056 -9.5335 2.3952
0.4482 -9.5445 2.3952
0.7917 -9.5429 2.3952
1.1355 -9.5286 2.3952
-4.9255 6.3196 2.3952
-5.1456 6.1323 2.3952
-5.3589 5.9377 2.3952
-5.5654 5.7361 2.3952
-5.7647 5.5278 2.3952
-5.9567 5.3129 2.3952
-6.1411 5.0918 2.3952
-6.3179 4.8646 2.3952
-6.4867 4.6316 2.3952
-6.6475 4.3932 2.3952
-6.8000 4.1494 2.3952
-6.9441 3.9007 2.3952
-7.0797 3.6472 2.3952
-7.2066 3.3893 2.3952
-7.3247 3.1273 2.3952
-7.4338 2.8613 2.3952
-7.5338 2.5918 2.3952
-7.6246 2.3189 2.3952
-7.7061 2.0431 2.3952
-7.7783 1.7645 2.3952
-7.8409 1.4834 2.3952
-7.8940 1.2003 2.3952
-7.9374 0.9153 2.3952
-7.9711 0.6289 2.3952
-7.9951 0.3412 2.3952
-8.0093 0.0527 2.3952
-8.0136 -0.2364 2.3952
-8.0080 -0.5258 2.3952
-7.9925 -0.8151 2.3952
-7.9671 -1.1040 2.3952
-7.9318 -1.3922 2.3952
-7.8865 -1.6794 2.3952
-7.8314 -1.9652 2.3952
-7.7664 -2.2494 2.3952
-7.6915 -2.5315 2.3952
-7.6069 -2.8112 2.3952
-7.5125 -3.0883 2.3952
-7.4085 -3.3624 2.3952
-7.2949 -3.6332 2.3952
-7.1717 -3.9003 2.3952
-7.0392 -4.1634 2.3952
-6.8973 -4.4222 2.3952
-6.7463 -4.6764 2.3952
-6.5862 -4.9256 2.3952
-6.4172 -5.1695 2.3952
-6.2395 -5.4077 2.3952
-6.0532 -5.6401 2.3952
-5.8584 -5.8662 2.3952
-5.6555 -6.0858 2.3952
-5.4445 -6.2985 2.3952
-5.2257 -6.5040 2.3952
-4.9993 -6.7021 2.3952
-4.7656 -6.8924 2.3952
-4.5248 -7.0747 2.3952
-4.2771 -7.2487 2.3952
-4.0229 -7.4141 2.3952
-3.7624 -7.5706 2.3952
-3.4959 -7.7180 2.3952
-3.2238 -7.8561 2.3952
-2.9462 -7.9846 2.3952
-2.6637 -8.1032 2.3952
-2.3765 -8.2118 2.3952
-2.0849 -8.3102 2.3952
-1.7894 -8.3981 2.3952
-1.4903 -8.4754 2.3952
-1.1880 -8.5419 2.3952
-0.8828 -8.5974 2.3952
-0.5752 -8.6419 2.3952
-0.2657 -8.6751 2.3952
0.0455 -8.6970 2.3952
0.3579 -8.7075 2.3952
0.6710 -8.7065 2.3952
0.9844 -8.6939 2.3952
1.2977 -8.6696 2.3952
1.6104 -8.6338 2.3952
1.9221 -8.5863 2.3952
2.2323 -8.5271 2.3952
2.5406 -8.4564 2.3952
2.8464 -8.3740 2.3952
3.1495 -8.2803 2.3952
3.4492 -8.1750 2.3952
3.7452 -8.0583 2.3952
4.0370 -7.9306 2.3952
4.3241 -7.7918 2.3952
4.6062 -7.6421 2.3952
4.8827 -7.4817 2.3952
5.1532 -7.3107 2.3952
5.4174 -7.1295 2.3952
5.6747 -6.9383 2.3952
5.9249 -6.7374 2.3952
6.1674 -6.5268 2.3952
6.4020 -6.3071 2.3952
6.6282 -6.0785 2.3952
6.8457 -5.8412 2.3952
7.0541 -5.5958 2.3952
7.2531 -5.3426 2.3952
7.4424 -5.0818 2.3952
7.6217 -4.8139 2.3952
7.7906 -4.5393 2.3952
7.9491 -4.2585 2.3952
8.0967 -3.9717 2.3952
8.2333 -3.6796 2.3952
8.3586 -3.3825 2.3952
8.4725 -3.0809 2.3952
8.5749 -2.7752 2.3952
8.6655 -2.4659 2.3952
8.7442 -2.1535 2.3952
8.8109 -1.8385 2.3952
8.8656 -1.5213 2.3952
8.9082 -1.2025 2.3952
8.9386 -0.8825 2.3952
8.9568 -0.5617 2.3952
8.9629 -0.2408 2.3952
8.9568 0.0799 2.3952
8.9386 0.3998 2.3952
8.9083 0.7184 2.3952
8.8661 1.0354 2.3952
8.8120 1.3502 2.3952
8.7462 1.6624 2.3952
8.6688 1.9715 2.3952
8.5799 2.2771 2.3952
8.4798 2.5787 2.3952
8.3686 2.8760 2.3952
8.2466 3.1685 2.3952
8.1139 3.4558 2.3952
7.9709 3.7375 2.3952
7.8177 4.0132 2.3952
7.6547 4.2827 2.3952
7.4821 4.5454 2.3952
7.3002 4.8012 2.3952
7.1094 5.0496 2.3952
6.9099 5.2904 2.3952
6.7020 5.5232 2.3952
6.4862 5.7480 2.3952
6.2627 5.9642 2.3952
6.0319 6.1717 2.3952
5.7941 6.3702 2.3952
5.5498 6.5596 2.3952
5.2993 6.7396 2.3952
5.0429 6.9101 2.3952
4.7811 7.0709 2.3952
4.5142 7.2218 2.3952
4.2426 7.3628 2.3952
3.9666 7.4936 2.3952
3.6868 7.6142 2.3952
3.4034 7.7244 2.3952
3.1168 7.8243 2.3952
2.8274 7.9137 2.3952
2.5357 7.9926 2.3952
0.8964 3.2230 0.9577
0.7799 3.2530 0.9597
0.6625 3.2788 0.9617
0.5441 3.3003 0.9637
0.4251 3.3175 0.9657
0.3055 3.3304 0.9676
0.1854 3.3390 0.9695
0.0652 3.3432 0.9713
-0.0551 3.3431 0.9732
-0.1754 3.3386 0.9749
-0.2954 3.3297 0.9767
-0.4151 3.3165 0.9783
-0.5341 3.2990 0.9800
-0.6525 3.2772 0.9816
-0.7700 3.2511 0.9831
-0.8865 3.2208 0.9846
-2.4335 7.7401 2.3952
-2.7066 7.6356 2.3952
-2.9756 7.5220 2.3952
-3.2401 7.3993 2.3952
-3.4999 7.2678 2.3952
-3.7547 7.1276 2.3952
-4.0043 6.9790 2.3952
-4.2483 6.8221 2.3952
-4.4866 6.6571 2.3952
-4.7188 6.4842 2.3952
-4.9448 6.3037 2.3952
-5.1643 6.1157 2.3952
-5.3770 5.9205 2.3952
-5.5829 5.7184 2.3952
-5.7816 5.5095 2.3952
-5.9729 5.2941 2.3952
-6.1567 5.0724 2.3952
-6.3328 4.8447 2.3952
-6.5009 4.6113 2.3952
-6.6610 4.3723 2.3952
-6.8128 4.1281 2.3952
-6.9562 3.8790 2.3952
-7.0910 3.6251 2.3952
-7.2172 3.3669 2.3952
-7.3345 3.1045 2.3952
-7.4428 2.8382 2.3952
-7.5420 2.5683 2.3952
-7.6320 2.2952 2.3952
-7.7128 2.0191 2.3952
-7.7841 1.7403 2.3952
-7.8459 1.4590 2.3952
-7.8981 1.1757 2.3952
-7.9407 0.8906 2.3952
-7.9736 0.6041 2.3952
-7.9967 0.3163 2.3952
-8.0100 0.0277 2.3952
-8.0135 -0.2614 2.3952
-8.0070 -0.5508 2.3952
-7.9907 -0.8401 2.3952
-7.9644 -1.1290 2.3952
-7.9282 -1.4171 2.3952
-7.8821 -1.7042 2.3952
-7.8262 -1.9899 2.3952
-7.7603 -2.2738 2.3952
-7.6846 -2.5557 2.3952
-7.5991 -2.8353 2.3952
-7.5039 -3.1121 2.3952
-7.3991 -3.3860 2.3952
-7.2846 -3.6564 2.3952
-7.1607 -3.9232 2.3952
-7.0273 -4.1859 2.3952
-6.8846 -4.4444 2.3952
-6.7328 -4.6981 2.3952
-6.5720 -4.9468 2.3952
-6.4022 -5.1903 2.3952
-6.2237 -5.4281 2.3952
-6.0367 -5.6599 2.3952
-5.8412 -5.8855 2.3952
-5.6375 -6.1044 2.3952
-5.4259 -6.3165 2.3952
-5.2064 -6.5214 2.3952
-4.9794 -6.7189 2.3952
-4.7450 -6.9085 2.3952
-4.5036 -7.0901 2.3952
-4.2554 -7.2634 2.3952
-4.0006 -7.4280 2.3952
-3.7396 -7.5837 2.3952
-3.4726 -7.7303 2.3952
-3.2000 -7.8676 2.3952
-2.9220 -7.9952 2.3952
-2.6391 -8.1130 2.3952
-2.3515 -8.2207 2.3952
-2.0596 -8.3182 2.3952
-1.7637 -8.4052 2.3952
-1.4643 -8.4815 2.3952
-1.1617 -8.5471 2.3952
-0.8563 -8.6017 2.3952
-0.5486 -8.6452 2.3952
-0.2388 -8.6774 2.3952
0.0725 -8.6983 2.3952
0.3849 -8.7078 2.3952
0.6981 -8.7058 2.3952
1.0115 -8.6922 2.3952
1.3248 -8.6670 2.3952
1.6374 -8.6301 2.3952
1.9490 -8.5816 2.3952
2.2590 -8.5215 2.3952
2.5671 -8.4497 2.3952
2.8727 -8.3664 2.3952
3.1755 -8.2716 2.3952
3.4749 -8.1654 2.3952
3.7706 -8.0478 2.3952
4.0620 -7.9190 2.3952
4.3487 -7.7792 2.3952
4.6303 -7.6286 2.3952
4.9063 -7.4673 2.3952
5.1763 -7.2955 2.3952
5.4399 -7.1134 2.3952
5.6966 -6.9213 2.3952
5.9462 -6.7195 2.3952
6.1880 -6.5082 2.3952
6.4219 -6.2877 2.3952
6.6473 -6.0583 2.3952
6.8640 -5.8204 2.3952
7.0716 -5.5742 2.3952
7.2698 -5.3203 2.3952
7.4583 -5.0589 2.3952
7.6367 -4.7904 2.3952
7.8047 -4.5153 2.3952
7.9623 -4.2339 2.3952
8.1089 -3.9467 2.3952
8.2446 -3.6541 2.3952
8.3689 -3.3566 2.3952
8.4819 -3.0546 2.3952
8.5832 -2.7486 2.3952
8.6727 -2.4390 2.3952
8.7504 -2.1264 2.3952
8.8161 -1.8112 2.3952
8.8698 -1.4938 2.3952
8.9113 -1.1749 2.3952
8.9407 -0.8548 2.3952
8.9578 -0.5340 2.3952
8.9628 -0.2131 2.3952
8.9557 0.1075 2.3952
8.9364 0.4274 2.3952
8.9052 0.7459 2.3952
8.8619 1.0627 2.3952
8.8068 1.3773 2.3952
8.7400 1.6893 2.3952
8.6616 1.9981 2.3952
8.5717 2.3033 2.3952
8.4706 2.6046 2.3952
8.3585 2.9015 2.3952
8.2356 3.1935 2.3952
8.1020 3.4803 2.3952
7.9581 3.7616 2.3952
7.8040 4.0368 2.3952
7.6402 4.3056 2.3952
7.4667 4.5678 2.3952
7.2841 4.8230 2.3952
7.0925 5.0707 2.3952
6.8922 5.3108 2.3952
6.6837 5.5430 2.3952
6.4671 5.7670 2.3952
6.2430 5.9824 2.3952
6.0116 6.1892 2.3952
5.7733 6.3869 2.3952
5.5284 6.5755 2.3952
5.2774 6.7548 2.3952
5.0205 6.9244 2.3952
4.7582 7.0844 2.3952
4.4909 7.2345 2.3952
4.2189 7.3745 2.3952
3.9426 7.5044 2.3952
3.6624 7.6241 2.3952
3.3787 7.7335 2.3952
3.0919 7.8324 2.3952
2.8023 7.9209 2.3952
2.5104 7.9989 2.3952
0.8864 3.2258 0.9579
0.7698 3.2554 0.9599
0.6523 3.2808 0.9619
0.5339 3.3020 0.9639
0.4148 3.3188 0.9658
0.2951 3.3313 0.9678
0.1751 3.3395 0.9696
0.0548 3.3434 0.9715
-0.0655 3.3428 0.9733
-0.1858 3.3380 0.9751
-0.3058 3.3287 0.9768
-0.4254 3.3152 0.9785
-0.5444 3.2973 0.9801
-0.6627 3.2751 0.9817
-0.7801 3.2487 0.9832
-2.1806 7.8274 2.3952
-2.4572 7.7315 2.3952
-2.7300 7.6262 2.3952
-2.9986 7.5117 2.3952
-3.2627 7.3883 2.3952
-3.5221 7.2560 2.3952
-3.7765 7.1151 2.3952
-4.0256 6.9658 2.3952
-4.2691 6.8081 2.3952
-4.5069 6.6424 2.3952
-4.7386 6.4689 2.3952
-4.9640 6.2877 2.3952
-5.1829 6.0991 2.3952
-5.3951 5.9033 2.3952
-5.6003 5.7006 2.3952
-5.7984 5.4911 2.3952
-5.9891 5.2752 2.3952
-6.1722 5.0529 2.3952
-6.3476 4.8248 2.3952
-6.5151 4.5908 2.3952
-6.6744 4.3514 2.3952
-6.8255 4.1068 2.3952
-6.9682 3.8572 2.3952
-7.1023 3.6030 2.3952
-7.2276 3.3444 2.3952
-7.3442 3.0816 2.3952
-7.4517 2.8150 2.3952
-7.5502 2.5449 2.3952
-7.6394 2.2715 2.3952
-7.7193 1.9951 2.3952
-7.7898 1.7161 2.3952
-7.8508 1.4347 2.3952
-7.9022 1.1512 2.3952
-7.9439 0.8659 2.3952
-7.9760 0.5792 2.3952
-7.9983 0.2914 2.3952
-8.0107 0.0027 2.3952
-8.0133 -0.2864 2.3952
-8.0060 -0.5758 2.3952
-7.9888 -0.8651 2.3952
-7.9617 -1.1539 2.3952
-7.9246 -1.4420 2.3952
-7.8777 -1.7289 2.3952
-7.8209 -2.0145 2.3952
-7.7542 -2.2983 2.3952
-7.6776 -2.5800 2.3952
-7.5913 -2.8593 2.3952
-7.4953 -3.1359 2.3952
-7.3896 -3.4095 2.3952
-7.2743 -3.6796 2.3952
-7.1495 -3.9461 2.3952
-7.0153 -4.2085 2.3952
-6.8719 -4.4665 2.3952
-6.7193 -4.7198 2.3952
-6.5576 -4.9681 2.3952
-6.3871 -5.2110 2.3952
-6.2079 -5.4483 2.3952
-6.0201 -5.6796 2.3952
-5.8239 -5.9046 2.3952
-5.6196 -6.1230 2.3952
-5.4072 -6.3345 2.3952
-5.1871 -6.5388 2.3952
-4.9594 -6.7356 2.3952
-4.7245 -6.9245 2.3952
-4.4824 -7.1054 2.3952
-4.2336 -7.2779 2.3952
-3.9783 -7.4418 2.3952
-3.7168 -7.5968 2.3952
-3.4493 -7.7426 2.3952
-3.1762 -7.8790 2.3952
-2.8978 -8.0058 2.3952
-2.6144 -8.1227 2.3952
-2.3264 -8.2296 2.3952
-2.0341 -8.3261 2.3952
-1.7380 -8.4122 2.3952
-1.4383 -8.4876 2.3952
-1.1354 -8.5523 2.3952
-0.8298 -8.6059 2.3952
-0.5219 -8.6484 2.3952
-0.2120 -8.6797 2.3952
0.0994 -8.6996 2.3952
0.4120 -8.7081 2.3952
0.7252 -8.7051 2.3952
1.0386 -8.6905 2.3952
-4.5485 5.8380 2.3952
-4.7522 5.6653 2.3952
-4.9496 5.4858 2.3952
-5.1407 5.2998 2.3952
-5.3251 5.1076 2.3952
-5.5028 4.9092 2.3952
-5.6735 4.7050 2.3952
-5.8370 4.4951 2.3952
-5.9933 4.2799 2.3952
-6.1420 4.0596 2.3952
-6.2831 3.8343 2.3952
-6.4164 3.6045 2.3952
-6.5418 3.3702 2.3952
-6.6591 3.1318 2.3952
-6.7682 2.8895 2.3952
-6.8690 2.6437 2.3952
-6.9613 2.3945 2.3952
-7.0452 2.1422 2.3952
-7.1203 1.8872 2.3952
-7.1867 1.6295 2.3952
-7.2444 1.3698 2.3952
-7.2932 1.1081 2.3952
-7.3330 0.8447 2.3952
-7.3638 0.5799 2.3952
-7.3855 0.3140 2.3952
-7.3981 0.0474 2.3952
-7.4016 -0.2198 2.3952
-7.3959 -0.4871 2.3952
-7.3810 -0.7543 2.3952
-7.3570 -1.0212 2.3952
-7.3237 -1.2873 2.3952
-7.2813 -1.5524 2.3952
-7.2297 -1.8162 2.3952
-7.1689 -2.0784 2.3952
-7.0991 -2.3387 2.3952
-7.0202 -2.5967 2.3952
-6.9323 -2.8522 2.3952
-6.8354 -3.1049 2.3952
-6.7297 -3.3544 2.3952
-6.6153 -3.6005 2.3952
-6.4921 -3.8428 2.3952
-6.3604 -4.0810 2.3952
-6.2202 -4.3149 2.3952
-6.0717 -4.5442 2.3952
-5.9151 -4.7684 2.3952
-5.7503 -4.9875 2.3952
-5.5777 -5.2010 2.3952
-5.3974 -5.4086 2.3952
-5.2095 -5.6102 2.3952
-5.0143 -5.8053 2.3952
-4.8119 -5.9938 2.3952
-4.6026 -6.1753 2.3952
-4.3866 -6.3497 2.3952
-4.1641 -6.5165 2.3952
-3.9354 -6.6757 2.3952
-3.7007 -6.8268 2.3952
-3.4603 -6.9698 2.3952
-3.2145 -7.1043 2.3952
-2.9635 -7.2302 2.3952
-2.7077 -7.3472 2.3952
-2.4474 -7.4551 2.3952
-2.1828 -7.5538 2.3952
-1.9144 -7.6429 2.3952
-1.6424 -7.7225 2.3952
-1.3671 -7.7923 2.3952
-1.0890 -7.8522 2.3952
-0.8084 -7.9019 2.3952
-0.5257 -7.9415 2.3952
-0.2412 -7.9708 2.3952
0.0447 -7.9897 2.3952
0.3315 -7.9981 2.3952
0.6190 -7.9959 2.3952
0.9067 -7.9831 2.3952
1.1941 -7.9598 2.3952
1.4810 -7.9257 2.3952
1.7668 -7.8810 2.3952
2.0512 -7.8257 2.3952
2.3337 -7.7597 2.3952
2.6140 -7.6832 2.3952
2.8917 -7.5961 2.3952
3.1662 -7.4987 2.3952
3.4373 -7.3909 2.3952
3.7044 -7.2729 2.3952
3.9673 -7.1449 2.3952
4.2254 -7.0069 2.3952
4.4785 -6.8592 2.3952
4.7260 -6.7020 2.3952
4.9677 -6.5353 2.3952
5.2032 -6.3595 2.3952
5.4320 -6.1749 2.3952
5.6539 -5.9816 2.3952
5.8684 -5.7799 2.3952
6.0753 -5.5702 2.3952
6.2743 -5.3525 2.3952
6.4649 -5.1275 2.3952
6.6469 -4.8953 2.3952
6.8201 -4.6562 2.3952
6.9842 -4.4108 2.3952
7.1388 -4.1593 2.3952
7.2839 -3.9019 2.3952
7.4191 -3.6393 2.3952
7.5442 -3.3718 2.3952
7.6591 -3.0996 2.3952
7.7635 -2.8234 2.3952
7.8574 -2.5435 2.3952
7.9406 -2.2602 2.3952
8.0130 -1.9742 2.3952
8.0745 -1.6857 2.3952
8.1250 -1.3952 2.3952
8.1644 -1.1031 2.3952
8.1928 -0.8100 2.3952
8.2100 -0.5161 2.3952
8.2162 -0.2221 2.3952
8.2112 0.0718 2.3952
8.1952 0.3650 2.3952
8.1682 0.6571 2.3952
8.1303 0.9477 2.3952
8.0815 1.2364 2.3952
8.0220 1.5228 2.3952
7.9519 1.8064 2.3952
7.8713 2.0869 2.3952
7.7804 2.3638 2.3952
7.6794 2.6367 2.3952
7.5684 2.9054 2.3952
7.4477 3.1694 2.3952
7.3175 3.4283 2.3952
7.1779 3.6819 2.3952
7.0293 3.9297 2.3952
6.8718 4.1716 2.3952
6.7058 4.4070 2.3952
6.5316 4.6358 2.3952
6.3493 4.8577 2.3952
6.1594 5.0723 2.3952
5.9620 5.2796 2.3952
5.7576 5.4791 2.3952
5.5464 5.6707 2.3952
5.3288 5.8541 2.3952
5.1050 6.0292 2.3952
4.8755 6.1957 2.3952
4.6406 6.3535 2.3952
4.4005 6.5025 2.3952
4.1557 6.6424 2.3952
3.9064 6.7732 2.3952
3.6531 6.8947 2.3952
3.3961 7.0068 2.3952
3.1358 7.1095 2.3952
2.8725 7.2026 2.3952
2.6065 7.2861 2.3952
0.9317 2.9328 0.9545
0.8257 2.9642 0.9563
0.7186 2.9918 0.9582
0.6105 3.0155 0.9601
0.5016 3.0353 0.9619
0.3921 3.0511 0.9637
0.2821 3.0629 0.9655
0.1717 3.0708 0.9672
0.0611 3.0746 0.9689
-0.0496 3.0745 0.9706
-0.1602 3.0703 0.9722
-0.2706 3.0622 0.9738
-0.3807 3.0500 0.9754
-0.4902 3.0339 0.9769
-0.5991 3.0139 0.9783
-0.7071 2.9899 0.9797
-0.8143 2.9620 0.9811
-2.2439 7.1443 2.3952
-2.4963 7.0486 2.3952
-2.7449 6.9444 2.3952
-2.9895 6.8318 2.3952
-3.2297 6.7110 2.3952
-3.4654 6.5822 2.3952
-3.6962 6.4454 2.3952
-3.9220 6.3010 2.3952
-4.1424 6.1490 2.3952
-4.3573 5.9898 2.3952
-4.5664 5.8234 2.3952
-4.7695 5.6501 2.3952
-4.9664 5.4700 2.3952
-5.1569 5.2835 2.3952
-5.3407 5.0906 2.3952
-5.5178 4.8918 2.3952
-5.6879 4.6871 2.3952
-5.8508 4.4768 2.3952
-6.0064 4.2611 2.3952
-6.1545 4.0403 2.3952
-6.2949 3.8147 2.3952
-6.4276 3.5844 2.3952
-6.5522 3.3498 2.3952
-6.6688 3.1110 2.3952
-6.7772 2.8684 2.3952
-6.8773 2.6223 2.3952
-6.9689 2.3728 2.3952
-7.0520 2.1203 2.3952
-7.1264 1.8650 2.3952
-7.1921 1.6072 2.3952
-7.2490 1.3473 2.3952
-7.2970 1.0854 2.3952
-7.3360 0.8218 2.3952
-7.3660 0.5569 2.3952
-7.3869 0.2910 2.3952
-7.3988 0.0243 2.3952
-7.4015 -0.2428 2.3952
-7.3950 -0.5102 2.3952
-7.3793 -0.7774 2.3952
-7.3544 -1.0442 2.3952
-7.3204 -1.3102 2.3952
-7.2772 -1.5752 2.3952
-7.2248 -1.8389 2.3952
-7.1632 -2.1010 2.3952
-7.0926 -2.3610 2.3952
-7.0129 -2.6189 2.3952
-6.9242 -2.8742 2.3952
-6.8266 -3.1266 2.3952
-6.7202 -3.3758 2.3952
-6.6050 -3.6215 2.3952
-6.4811 -3.8635 2.3952
-6.3486 -4.1014 2.3952
-6.2077 -4.3349 2.3952
-6.0585 -4.5637 2.3952
-5.9011 -4.7876 2.3952
-5.7357 -5.0061 2.3952
-5.5624 -5.2191 2.3952
-5.3814 -5.4263 2.3952
-5.1929 -5.6273 2.3952
-4.9970 -5.8219 2.3952
-4.7941 -6.0098 2.3952
-4.5842 -6.1907 2.3952
-4.3676 -6.3644 2.3952
-4.1446 -6.5306 2.3952
-3.9153 -6.6890 2.3952
-3.6802 -6.8395 2.3952
-3.4393 -6.9817 2.3952
-3.1930 -7.1155 2.3952
-2.9416 -7.2406 2.3952
-2.6854 -7.3569 2.3952
-2.4247 -7.4640 2.3952
-2.1598 -7.5618 2.3952
-1.8910 -7.6502 2.3952
-1.6187 -7.7289 2.3952
-1.3432 -7.7979 2.3952
-1.0649 -7.8569 2.3952
-0.7841 -7.9058 2.3952
-0.5012 -7.9444 2.3952
-0.2165 -7.9728 2.3952
0.0694 -7.9908 2.3952
0.3564 -7.9983 2.3952
0.6439 -7.9952 2.3952
0.9315 -7.9815 2.3952
1.2189 -7.9572 2.3952
1.5057 -7.9223 2.3952
1.7914 -7.8766 2.3952
2.0757 -7.8204 2.3952
2.3580 -7.7535 2.3952
2.6381 -7.6761 2.3952
2.9155 -7.5881 2.3952
3.1898 -7.4898 2.3952
3.4605 -7.3811 2.3952
3.7273 -7.2623 2.3952
3.9898 -7.1334 2.3952
4.2475 -6.9946 2.3952
4.5001 -6.8460 2.3952
4.7471 -6.6879 2.3952
4.9883 -6.5205 2.3952
5.2232 -6.3440 2.3952
5.4515 -6.1586 2.3952
5.6727 -5.9645 2.3952
5.8866 -5.7621 2.3952
6.0928 -5.5517 2.3952
6.2911 -5.3334 2.3952
6.4810 -5.1078 2.3952
6.6623 -4.8749 2.3952
6.8347 -4.6353 2.3952
6.9979 -4.3893 2.3952
7.1518 -4.1372 2.3952
7.2960 -3.8795 2.3952
7.4303 -3.6164 2.3952
7.5545 -3.3484 2.3952
7.6685 -3.0759 2.3952
7.7721 -2.7994 2.3952
7.8651 -2.5191 2.3952
7.9473 -2.2356 2.3952
8.0188 -1.9493 2.3952
8.0793 -1.6606 2.3952
8.1288 -1.3700 2.3952
8.1673 -1.0778 2.3952
8.1947 -0.7846 2.3952
8.2110 -0.4907 2.3952
8.2162 -0.1967 2.3952
8.2103 0.0971 2.3952
8.1933 0.3903 2.3952
8.1654 0.6823 2.3952
8.1265 0.9728 2.3952
8.0768 1.2613 2.3952
8.0164 1.5474 2.3952
7.9454 1.8308 2.3952
7.8639 2.1109 2.3952
7.7721 2.3875 2.3952
7.6702 2.6601 2.3952
7.5584 2.9284 2.3952
7.4368 3.1920 2.3952
7.3058 3.4505 2.3952
7.1654 3.7036 2.3952
7.0160 3.9509 2.3952
6.8578 4.1921 2.3952
6.6911 4.4270 2.3952
6.5161 4.6553 2.3952
6.3332 4.8766 2.3952
6.1426 5.0906 2.3952
5.9447 5.2971 2.3952
5.7396 5.4960 2.3952
5.5279 5.6869 2.3952
5.3097 5.8696 2.3952
5.0854 6.0439 2.3952
4.8554 6.2097 2.3952
4.6200 6.3668 2.3952
4.3795 6.5149 2.3952
4.1343 6.6541 2.3952
3.8847 6.7841 2.3952
3.6311 6.9047 2.3952
3.3738 7.0160 2.3952
3.1132 7.1179 2.3952
2.8496 7.2102 2.3952
2.5834 7.2928 2.3952
0.9226 2.9357 0.9546
0.8165 2.9668 0.9565
0.7093 2.9940 0.9584
0.6011 3.0174 0.9602
0.4922 3.0368 0.9621
0.3826 3.0522 0.9639
0.2725 3.0637 0.9656
0.1621 3.0713 0.9674
0.0515 3.0748 0.9691
-0.0592 3.0743 0.9707
-0.1698 3.0698 0.9724
-0.2802 3.0613 0.9739
-0.3901 3.0488 0.9755
-0.4996 3.0324 0.9770
-0.6084 3.0120 0.9784
-0.7164 2.9876 0.9799
-0.8235 2.9594 0.9812
-2.2658 7.1364 2.3952
-2.5179 7.0399 2.3952
-2.7662 6.9350 2.3952
-3.0104 6.8217 2.3952
-3.2503 6.7002 2.3952
-3.4855 6.5707 2.3952
-3.7159 6.4332 2.3952
-3.9412 6.2882 2.3952
-4.1612 6.1356 2.3952
-4.3756 5.9757 2.3952
-4.5842 5.8087 2.3952
-4.7867 5.6348 2.3952
-4.9831 5.4541 2.3952
-5.1730 5.2671 2.3952
-5.3563 5.0737 2.3952
-5.5328 4.8743 2.3952
-5.7023 4.6691 2.3952
-5.8646 4.4583 2.3952
-6.0195 4.2422 2.3952
-6.1669 4.0210 2.3952
-6.3067 3.7949 2.3952
-6.4387 3.5643 2.3952
-6.5626 3.3293 2.3952
-6.6785 3.0902 2.3952
-6.7862 2.8473 2.3952
-6.8856 2.6008 2.3952
-6.9764 2.3511 2.3952
-7.0588 2.0983 2.3952
-7.1325 1.8429 2.3952
-7.1974 1.5849 2.3952
-7.2535 1.3247 2.3952
-7.3007 1.0627 2.3952
-7.3389 0.7990 2.3952
-7.3682 0.5340 2.3952
-7.3883 0.2680 2.3952
-7.3994 0.0012 2.3952
-7.4013 -0.2659 2.3952
-7.3940 -0.5333 2.3952
-7.3775 -0.8005 2.3952
-7.3519 -1.0672 2.3952
-7.3170 -1.3332 2.3952
-7.2730 -1.5981 2.3952
-7.2198 -1.8616 2.3952
-7.1575 -2.1235 2.3952
-7.0861 -2.3834 2.3952
-7.0056 -2.6410 2.3952
-6.9162 -2.8961 2.3952
-6.8178 -3.1482 2.3952
-6.7106 -3.3972 2.3952
-6.5946 -3.6426 2.3952
-6.4700 -3.8842 2.3952
-6.3368 -4.1218 2.3952
-6.1952 -4.3549 2.3952
-6.0452 -4.5833 2.3952
-5.8872 -4.8067 2.3952
-5.7210 -5.0248 2.3952
-5.5471 -5.2373 2.3952
-5.3654 -5.4439 2.3952
-5.1763 -5.6444 2.3952
-4.9798 -5.8384 2.3952
-4.7762 -6.0257 2.3952
-4.5657 -6.2060 2.3952
-4.3486 -6.3790 2.3952
-4.1250 -6.5446 2.3952
-3.8953 -6.7023 2.3952
-3.6596 -6.8521 2.3952
-3.4182 -6.9936 2.3952
-3.1715 -7.1267 2.3952
-2.9197 -7.2510 2.3952
-2.6631 -7.3665 2.3952
-2.4020 -7.4728 2.3952
-2.1367 -7.5698 2.3952
-1.8676 -7.6574 2.3952
-1.5950 -7.7353 2.3952
-1.3193 -7.8034 2.3952
-1.0407 -7.8615 2.3952
-0.7597 -7.9095 2.3952
-0.4767 -7.9473 2.3952
-0.1919 -7.9748 2.3952
0.0942 -7.9919 2.3952
0.3812 -7.9984 2.3952
0.6687 -7.9944 2.3952
0.9564 -7.9799 2.3952
-4.2206 5.4191 2.3952
-4.4099 5.2591 2.3952
-4.5935 5.0927 2.3952
-4.7711 4.9202 2.3952
-4.9426 4.7418 2.3952
-5.1078 4.5578 2.3952
-5.2665 4.3683 2.3952
-5.4185 4.1736 2.3952
-5.5637 3.9738 2.3952
-5.7020 3.7692 2.3952
-5.8331 3.5601 2.3952
-5.9570 3.3466 2.3952
-6.0735 3.1290 2.3952
-6.1825 2.9076 2.3952
-6.2838 2.6826 2.3952
-6.3773 2.4542 2.3952
-6.4630 2.2227 2.3952
-6.5407 1.9884 2.3952
-6.6104 1.7515 2.3952
-6.6720 1.5123 2.3952
-6.7253 1.2709 2.3952
-6.7703 1.0278 2.3952
-6.8070 0.7831 2.3952
-6.8353 0.5373 2.3952
-6.8551 0.2904 2.3952
-6.8665 0.0428 2.3952
-6.8693 -0.2052 2.3952
-6.8636 -0.4534 2.3952
-6.8493 -0.7015 2.3952
-6.8265 -0.9491 2.3952
-6.7951 -1.1960 2.3952
-6.7552 -1.4420 2.3952
-6.7068 -1.6867 2.3952
-6.6498 -1.9298 2.3952
-6.5844 -2.1712 2.3952
-6.5106 -2.4104 2.3952
-6.4284 -2.6472 2.3952
-6.3379 -2.8813 2.3952
-6.2392 -3.1124 2.3952
-6.1324 -3.3403 2.3952
-6.0175 -3.5646 2.3952
-5.8947 -3.7851 2.3952
-5.7641 -4.0015 2.3952
-5.6258 -4.2135 2.3952
-5.4798 -4.4209 2.3952
-5.3265 -4.6233 2.3952
-5.1659 -4.8206 2.3952
-4.9981 -5.0124 2.3952
-4.8234 -5.1984 2.3952
-4.6419 -5.3785 2.3952
-4.4539 -5.5523 2.3952
-4.2595 -5.7197 2.3952
-4.0589 -5.8803 2.3952
-3.8523 -6.0340 2.3952
-3.6401 -6.1804 2.3952
-3.4224 -6.3195 2.3952
-3.1994 -6.4509 2.3952
-2.9716 -6.5744 2.3952
-2.7390 -6.6899 2.3952
-2.5020 -6.7972 2.3952
-2.2608 -6.8961 2.3952
-2.0158 -6.9863 2.3952
-1.7673 -7.0678 2.3952
-1.5156 -7.1403 2.3952
-1.2610 -7.2038 2.3952
-1.0038 -7.2581 2.3952
-0.7444 -7.3031 2.3952
-0.4830 -7.3387 2.3952
-0.2201 -7.3647 2.3952
0.0440 -7.3812 2.3952
0.3089 -7.3880 2.3952
0.5743 -7.3850 2.3952
0.8398 -7.3723 2.3952
1.1051 -7.3498 2.3952
1.3698 -7.3174 2.3952
1.6334 -7.2753 2.3952
1.8957 -7.2234 2.3952
2.1562 -7.1617 2.3952
2.4146 -7.0903 2.3952
2.6705 -7.0092 2.3952
2.9234 -6.9186 2.3952
3.1732 -6.8185 2.3952
3.4193 -6.7091 2.3952
3.6614 -6.5903 2.3952
3.8991 -6.4626 2.3952
4.1321 -6.3258 2.3952
4.3600 -6.1804 2.3952
4.5825 -6.0263 2.3952
4.7992 -5.8638 2.3952
5.0099 -5.6933 2.3952
5.2141 -5.5148 2.3952
5.4116 -5.3286 2.3952
5.6020 -5.1350 2.3952
5.7851 -4.9343 2.3952
5.9606 -4.7267 2.3952
6.1281 -4.5126 2.3952
6.2876 -4.2922 2.3952
6.4386 -4.0658 2.3952
6.5810 -3.8340 2.3952
6.7146 -3.5969 2.3952
6.8392 -3.3548 2.3952
6.9545 -3.1083 2.3952
7.0604 -2.8576 2.3952
7.1568 -2.6030 2.3952
7.2434 -2.3452 2.3952
7.3203 -2.0842 2.3952
7.3872 -1.8206 2.3952
7.4441 -1.5548 2.3952
7.4909 -1.2871 2.3952
7.5276 -1.0180 2.3952
7.5542 -0.7479 2.3952
7.5705 -0.4771 2.3952
7.5766 -0.2061 2.3952
7.5726 0.0648 2.3952
7.5583 0.3352 2.3952
7.5340 0.6045 2.3952
7.4997 0.8726 2.3952
7.4553 1.1387 2.3952
7.4011 1.4031 2.3952
7.3371 1.6648 2.3952
7.2635 1.9237 2.3952
7.1804 2.1793 2.3952
7.0880 2.4315 2.3952
6.9863 2.6796 2.3952
6.8757 2.9235 2.3952
6.7563 3.1629 2.3952
6.6283 3.3973 2.3952
6.4919 3.6265 2.3952
6.3473 3.8502 2.3952
6.1949 4.0681 2.3952
6.0347 4.2800 2.3952
5.8672 4.4855 2.3952
5.6925 4.6844 2.3952
5.5109 4.8765 2.3952
5.3228 5.0615 2.3952
5.1284 5.2393 2.3952
4.9279 5.4095 2.3952
4.7218 5.5721 2.3952
4.5102 5.7269 2.3952
4.2936 5.8736 2.3952
4.0722 6.0122 2.3952
3.8463 6.1425 2.3952
3.6163 6.2644 2.3952
3.3825 6.3777 2.3952
3.1452 6.4823 2.3952
2.9047 6.5782 2.3952
2.6613 6.6653 2.3952
2.4155 6.7436 2.3952
0.8628 2.7120 0.9534
0.7647 2.7410 0.9552
0.6656 2.7665 0.9569
0.5656 2.7884 0.9586
0.4650 2.8066 0.9603
0.3637 2.8212 0.9620
0.2619 2.8322 0.9636
0.1598 2.8394 0.9652
0.0575 2.8430 0.9668
-0.0449 2.8428 0.9684
-0.1471 2.8390 0.9699
-0.2492 2.8314 0.9713
-0.3510 2.8202 0.9728
-0.4523 2.8053 0.9742
-0.5530 2.7868 0.9755
-0.6529 2.7646 0.9768
-0.7520 2.7388 0.9781
-0.8501 2.7094 0.9793
-2.3136 6.5387 2.3952
-2.5445 6.4426 2.3952
-2.7717 6.3387 2.3952
-2.9949 6.2271 2.3952
-3.2139 6.1080 2.3952
-3.4284 5.9815 2.3952
-3.6382 5.8479 2.3952
-3.8431 5.7072 2.3952
-4.0428 5.5597 2.3952
-4.2372 5.4056 2.3952
-4.4260 5.2449 2.3952
-4.6091 5.0780 2.3952
-4.7862 4.9050 2.3952
-4.9571 4.7262 2.3952
-5.1217 4.5416 2.3952
-5.2799 4.3517 2.3952
-5.4313 4.1565 2.3952
-5.5760 3.9563 2.3952
-5.7136 3.7513 2.3952
-5.8441 3.5418 2.3952
-5.9674 3.3280 2.3952
-6.0832 3.1100 2.3952
-6.1915 2.8883 2.3952
-6.2922 2.6630 2.3952
-6.3850 2.4343 2.3952
-6.4700 2.2026 2.3952
-6.5471 1.9680 2.3952
-6.6161 1.7309 2.3952
-6.6769 1.4915 2.3952
-6.7295 1.2500 2.3952
-6.7738 1.0067 2.3952
-6.8098 0.7619 2.3952
-6.8373 0.5160 2.3952
-6.8564 0.2690 2.3952
-6.8670 0.0214 2.3952
-6.8691 -0.2267 2.3952
-6.8627 -0.4749 2.3952
-6.8477 -0.7229 2.3952
-6.8241 -0.9705 2.3952
-6.7920 -1.2173 2.3952
-6.7514 -1.4632 2.3952
-6.7022 -1.7078 2.3952
-6.6445 -1.9508 2.3952
-6.5784 -2.1919 2.3952
-6.5038 -2.4309 2.3952
-6.4209 -2.6675 2.3952
-6.3297 -2.9014 2.3952
-6.2303 -3.1322 2.3952
-6.1228 -3.3598 2.3952
-6.0072 -3.5838 2.3952
-5.8838 -3.8040 2.3952
-5.7525 -4.0200 2.3952
-5.6134 -4.2316 2.3952
-5.4669 -4.4386 2.3952
-5.3129 -4.6406 2.3952
-5.1516 -4.8374 2.3952
-4.9833 -5.0287 2.3952
-4.8080 -5.2142 2.3952
-4.6259 -5.3938 2.3952
-4.4373 -5.5671 2.3952
-4.2424 -5.7338 2.3952
-4.0413 -5.8939 2.3952
-3.8342 -6.0469 2.3952
-3.6215 -6.1927 2.3952
-3.4033 -6.3311 2.3952
-3.1799 -6.4619 2.3952
-2.9516 -6.5847 2.3952
-2.7187 -6.6995 2.3952
-2.4813 -6.8061 2.3952
-2.2398 -6.9042 2.3952
-1.9945 -6.9937 2.3952
-1.7457 -7.0744 2.3952
-1.4937 -7.1462 2.3952
-1.2389 -7.2089 2.3952
-0.9815 -7.2624 2.3952
-0.7218 -7.3066 2.3952
-0.4604 -7.3413 2.3952
-0.1974 -7.3665 2.3952
0.0668 -7.3821 2.3952
0.3318 -7.3881 2.3952
0.5972 -7.3843 2.3952
0.8627 -7.3707 2.3952
1.1280 -7.3473 2.3952
1.3926 -7.3142 2.3952
1.6561 -7.2712 2.3952
1.9183 -7.2184 2.3952
2.1786 -7.1559 2.3952
2.4368 -7.0836 2.3952
2.6924 -7.0018 2.3952
2.9452 -6.9103 2.3952
3.1946 -6.8094 2.3952
3.4403 -6.6992 2.3952
3.6821 -6.5797 2.3952
3.9194 -6.4511 2.3952
4.1520 -6.3136 2.3952
4.3795 -6.1674 2.3952
4.6015 -6.0126 2.3952
4.8177 -5.8494 2.3952
5.0278 -5.6782 2.3952
5.2314 -5.4990 2.3952
5.4283 -5.3121 2.3952
5.6181 -5.1180 2.3952
5.8006 -4.9166 2.3952
5.9754 -4.7084 2.3952
6.1422 -4.4938 2.3952
6.3010 -4.2728 2.3952
6.4513 -4.0461 2.3952
6.5929 -3.8137 2.3952
6.7257 -3.5761 2.3952
6.8495 -3.3336 2.3952
6.9640 -3.0869 2.3952
7.0691 -2.8357 2.3952
7.1646 -2.5808 2.3952
7.2504 -2.3228 2.3952
7.3264 -2.0615 2.3952
7.3925 -1.7978 2.3952
7.4485 -1.5317 2.3952
7.4945 -1.2639 2.3952
7.5303 -0.9947 2.3952
7.5560 -0.7245 2.3952
7.5714 -0.4537 2.3952
7.5767 -0.1826 2.3952
7.5717 0.0882 2.3952
7.5566 0.3585 2.3952
7.5314 0.6277 2.3952
7.4962 0.8957 2.3952
7.4510 1.1619 2.3952
7.3960 1.4258 2.3952
7.3312 1.6873 2.3952
7.2567 1.9459 2.3952
7.1728 2.2013 2.3952
7.0796 2.4530 2.3952
6.9771 2.7008 2.3952
6.8657 2.9444 2.3952
6.7456 3.1833 2.3952
6.6168 3.4173 2.3952
6.4797 3.6461 2.3952
6.3345 3.8693 2.3952
6.1813 4.0867 2.3952
6.0205 4.2980 2.3952
5.8524 4.5029 2.3952
5.6771 4.7013 2.3952
5.4949 4.8927 2.3952
5.3063 5.0772 2.3952
5.1113 5.2543 2.3952
4.9103 5.4239 2.3952
4.7037 5.5858 2.3952
4.4917 5.7399 2.3952
4.2747 5.8860 2.3952
4.0529 6.0238 2.3952
3.8266 6.1534 2.3952
3.5963 6.2745 2.3952
3.3621 6.3870 2.3952
3.1245 6.4909 2.3952
2.8837 6.5861 2.3952
2.6402 6.6724 2.3952
2.3941 6.7499 2.3952
0.8543 2.7146 0.9536
0.7562 2.7434 0.9553
0.6570 2.7685 0.9571
0.5570 2.7901 0.9588
0.4562 2.8080 0.9605
0.3549 2.8223 0.9621
0.2531 2.8329 0.9638
0.1510 2.8399 0.9654
0.0487 2.8431 0.9670
-0.0537 2.8426 0.9685
-0.1560 2.8385 0.9700
-0.2581 2.8306 0.9715
-0.3598 2.8191 0.9729
-0.4610 2.8038 0.9743
-0.5616 2.7850 0.9756
-0.6615 2.7625 0.9769
-0.7605 2.7364 0.9782
-0.8585 2.7067 0.9794
-2.3337 6.5307 2.3952
-2.5643 6.4339 2.3952
-2.7911 6.3293 2.3952
-3.0140 6.2171 2.3952
-3.2326 6.0974 2.3952
-3.4467 5.9703 2.3952
-3.6561 5.8360 2.3952
-3.8605 5.6948 2.3952
-4.0598 5.5467 2.3952
-4.2537 5.3919 2.3952
-4.4420 5.2307 2.3952
-4.6246 5.0633 2.3952
-4.8012 4.8898 2.3952
-4.9716 4.7104 2.3952
-5.1357 4.5254 2.3952
-5.2932 4.3350 2.3952
-5.4441 4.1394 2.3952
-5.5881 3.9388 2.3952
-5.7252 3.7334 2.3952
-5.8551 3.5235 2.3952
-5.9777 3.3093 2.3952
-6.0929 3.0910 2.3952
-6.2005 2.8690 2.3952
-6.3005 2.6434 2.3952
-6.3927 2.4144 2.3952
-6.4770 2.1824 2.3952
-6.5534 1.9476 2.3952
-6.6216 1.7103 2.3952
-6.6819 1.4708 2.3952
-6.7337 1.2290 2.3952
-6.7772 0.9856 2.3952
-6.8125 0.7407 2.3952
-6.8393 0.4946 2.3952
-6.8577 0.2476 2.3952
-6.8676 -0.0001 2.3952
-6.8689 -0.2481 2.3952
-6.8617 -0.4963 2.3952
-6.8460 -0.7443 2.3952
-6.8217 -0.9918 2.3952
-6.7888 -1.2386 2.3952
-6.7474 -1.4844 2.3952
-6.6975 -1.7288 2.3952
-6.6391 -1.9717 2.3952
-6.5722 -2.2127 2.3952
-6.4970 -2.4515 2.3952
-6.4134 -2.6878 2.3952
-6.3215 -2.9214 2.3952
-6.2214 -3.1520 2.3952
-6.1131 -3.3793 2.3952
-5.9969 -3.6030 2.3952
-5.8727 -3.8228 2.3952
-5.7407 -4.0385 2.3952
-5.6011 -4.2497 2.3952
-5.4539 -4.4563 2.3952
-5.2993 -4.6578 2.3952
-5.1374 -4.8541 2.3952
-4.9684 -5.0449 2.3952
-4.7925 -5.2300 2.3952
-4.6099 -5.4090 2.3952
-4.4207 -5.5817 2.3952
-4.2252 -5.7479 2.3952
-4.0236 -5.9074 2.3952
-3.8161 -6.0598 2.3952
-3.6029 -6.2050 2.3952
-3.3842 -6.3427 2.3952
-3.1604 -6.4728 2.3952
-2.9317 -6.5950 2.3952
-2.6983 -6.7091 2.3952
-2.4606 -6.8149 2.3952
-2.2188 -6.9123 2.3952
-1.9731 -7.0010 2.3952
-1.7241 -7.0810 2.3952
-1.4718 -7.1520 2.3952
-1.2167 -7.2139 2.3952
-0.9591 -7.2666 2.3952
-0.6993 -7.3099 2.3952
-0.4377 -7.3439 2.3952
-0.1746 -7.3683 2.3952
0.0897 -7.3830 2.3952
0.3547 -7.3881 2.3952
0.6202 -7.3835 2.3952
0.8857 -7.3691 2.3952
-3.9325 5.0511 2.3952
-4.1092 4.9021 2.3952
-4.2805 4.7472 2.3952
-4.4463 4.5865 2.3952
-4.6064 4.4204 2.3952
-4.7606 4.2489 2.3952
-4.9087 4.0723 2.3952
-5.0506 3.8908 2.3952
-5.1861 3.7046 2.3952
-5.3151 3.5139 2.3952
-5.4375 3.3189 2.3952
-5.5531 3.1199 2.3952
-5.6617 2.9170 2.3952
-5.7634 2.7105 2.3952
-5.8578 2.5006 2.3952
-5.9450 2.2876 2.3952
-6.0249 2.0717 2.3952
-6.0973 1.8532 2.3952
-6.1621 1.6322 2.3952
-6.2194 1.4090 2.3952
-6.2689 1.1840 2.3952
-6.3108 0.9573 2.3952
-6.3446 0.7290 2.3952
-6.3708 0.4998 2.3952
-6.3890 0.2696 2.3952
-6.3993 0.0387 2.3952
-6.4016 -0.1925 2.3952
-6.3960 -0.4238 2.3952
-6.3823 -0.6550 2.3952
-6.3606 -0.8858 2.3952
-6.3310 -1.1159 2.3952
-6.2933 -1.3451 2.3952
-6.2477 -1.5730 2.3952
-6.1942 -1.7995 2.3952
-6.1327 -2.0242 2.3952
-6.0634 -2.2469 2.3952
-5.9864 -2.4673 2.3952
-5.9016 -2.6851 2.3952
-5.8091 -2.9002 2.3952
-5.7091 -3.1122 2.3952
-5.6015 -3.3208 2.3952
-5.4866 -3.5258 2.3952
-5.3644 -3.7269 2.3952
-5.2351 -3.9239 2.3952
-5.0987 -4.1165 2.3952
-4.9554 -4.3045 2.3952
-4.8053 -4.4876 2.3952
-4.6487 -4.6656 2.3952
-4.4856 -4.8382 2.3952
-4.3162 -5.0051 2.3952
-4.1408 -5.1663 2.3952
-3.9595 -5.3213 2.3952
-3.7724 -5.4701 2.3952
-3.5799 -5.6123 2.3952
-3.3821 -5.7478 2.3952
-3.1793 -5.8763 2.3952
-2.9717 -5.9978 2.3952
-2.7595 -6.1119 2.3952
-2.5430 -6.2185 2.3952
-2.3224 -6.3174 2.3952
-2.0981 -6.4084 2.3952
-1.8702 -6.4915 2.3952
-1.6392 -6.5663 2.3952
-1.4052 -6.6329 2.3952
-1.1685 -6.6911 2.3952
-0.9296 -6.7407 2.3952
-0.6886 -6.7816 2.3952
-0.4459 -6.8138 2.3952
-0.2018 -6.8372 2.3952
0.0433 -6.8517 2.3952
0.2892 -6.8572 2.3952
0.5354 -6.8537 2.3952
0.7817 -6.8411 2.3952
1.0277 -6.8195 2.3952
1.2731 -6.7887 2.3952
1.5175 -6.7489 2.3952
1.7606 -6.7001 2.3952
2.0020 -6.6422 2.3952
2.2414 -6.5754 2.3952
2.4784 -6.4996 2.3952
2.7127 -6.4151 2.3952
2.9440 -6.3217 2.3952
3.1718 -6.2197 2.3952
3.3959 -6.1093 2.3952
3.6160 -5.9904 2.3952
3.8317 -5.8633 2.3952
4.0426 -5.7280 2.3952
4.2485 -5.5849 2.3952
4.4491 -5.4341 2.3952
4.6440 -5.2757 2.3952
4.8329 -5.1101 2.3952
5.0156 -4.9374 2.3952
5.1918 -4.7578 2.3952
5.3612 -4.5718 2.3952
5.5236 -4.3793 2.3952
5.6786 -4.1809 2.3952
5.8262 -3.9767 2.3952
5.9660 -3.7670 2.3952
6.0978 -3.5522 2.3952
6.2215 -3.3326 2.3952
6.3368 -3.1084 2.3952
6.4436 -2.8800 2.3952
6.5417 -2.6478 2.3952
6.6311 -2.4122 2.3952
6.7114 -2.1733 2.3952
6.7827 -1.9317 2.3952
6.8449 -1.6876 2.3952
6.8978 -1.4414 2.3952
6.9415 -1.1935 2.3952
6.9758 -0.9442 2.3952
7.0006 -0.6940 2.3952
7.0161 -0.4432 2.3952
7.0221 -0.1922 2.3952
7.0188 0.0588 2.3952
7.0061 0.3093 2.3952
6.9840 0.5589 2.3952
6.9526 0.8074 2.3952
6.9121 1.0543 2.3952
6.8623 1.2992 2.3952
6.8036 1.5419 2.3952
6.7359 1.7820 2.3952
6.6595 2.0192 2.3952
6.5744 2.2531 2.3952
6.4808 2.4835 2.3952
6.3788 2.7099 2.3952
6.2687 2.9322 2.3952
6.1506 3.1500 2.3952
6.0247 3.3628 2.3952
5.8913 3.5708 2.3952
5.7504 3.7734 2.3952
5.6025 3.9704 2.3952
5.4477 4.1616 2.3952
5.2861 4.3468 2.3952
5.1182 4.5255 2.3952
4.9442 4.6978 2.3952
4.7642 4.8635 2.3952
4.5787 5.0222 2.3952
4.3878 5.1738 2.3952
4.1918 5.3183 2.3952
3.9911 5.4552 2.3952
3.7859 5.5846 2.3952
3.5765 5.7064 2.3952
3.3632 5.8203 2.3952
3.1462 5.9264 2.3952
2.9260 6.0244 2.3952
2.7028 6.1143 2.3952
2.4769 6.1960 2.3952
0.8927 2.4891 0.9509
0.8026 2.5193 0.9526
0.7115 2.5463 0.9542
0.6194 2.5699 0.9558
0.5265 2.5903 0.9574
0.4330 2.6072 0.9590
0.3389 2.6208 0.9605
0.2443 2.6309 0.9620
0.1495 2.6376 0.9635
0.0544 2.6409 0.9650
-0.0407 2.6408 0.9664
-0.1357 2.6372 0.9678
-0.2306 2.6302 0.9692
-0.3251 2.6197 0.9705
-0.4192 2.6059 0.9718
-0.5128 2.5887 0.9731
-0.6057 2.5680 0.9743
-0.6977 2.5441 0.9755
-0.7888 2.5168 0.9766
-0.8789 2.4863 0.9777
-2.3686 6.0022 2.3952
-2.5805 5.9058 2.3952
-2.7887 5.8022 2.3952
-2.9930 5.6916 2.3952
-3.1931 5.5742 2.3952
-3.3889 5.4499 2.3952
-3.5801 5.3191 2.3952
-3.7665 5.1819 2.3952
-3.9479 5.0384 2.3952
-4.1242 4.8889 2.3952
-4.2950 4.7335 2.3952
-4.4603 4.5724 2.3952
-4.6199 4.4058 2.3952
-4.7736 4.2339 2.3952
-4.9212 4.0569 2.3952
-5.0625 3.8749 2.3952
-5.1975 3.6883 2.3952
-5.3260 3.4972 2.3952
-5.4478 3.3019 2.3952
-5.5628 3.1025 2.3952
-5.6708 2.8993 2.3952
-5.7718 2.6925 2.3952
-5.8656 2.4823 2.3952
-5.9522 2.2691 2.3952
-6.0314 2.0529 2.3952
-6.1032 1.8342 2.3952
-6.1674 1.6130 2.3952
-6.2240 1.3897 2.3952
-6.2728 1.1644 2.3952
-6.3140 0.9376 2.3952
-6.3472 0.7093 2.3952
-6.3727 0.4799 2.3952
-6.3902 0.2497 2.3952
-6.3998 0.0188 2.3952
-6.4014 -0.2125 2.3952
-6.3951 -0.4438 2.3952
-6.3807 -0.6750 2.3952
-6.3584 -0.9057 2.3952
-6.3280 -1.1357 2.3952
-6.2897 -1.3648 2.3952
-6.2434 -1.5926 2.3952
-6.1892 -1.8190 2.3952
-6.1271 -2.0435 2.3952
-6.0571 -2.2660 2.3952
-5.9794 -2.4862 2.3952
-5.8939 -2.7038 2.3952
-5.8008 -2.9186 2.3952
-5.7001 -3.1303 2.3952
-5.5919 -3.3386 2.3952
-5.4764 -3.5433 2.3952
-5.3535 -3.7441 2.3952
-5.2236 -3.9407 2.3952
-5.0866 -4.1330 2.3952
-4.9427 -4.3205 2.3952
-4.7921 -4.5032 2.3952
-4.6348 -4.6807 2.3952
-4.4712 -4.8528 2.3952
-4.3013 -5.0193 2.3952
-4.1254 -5.1799 2.3952
-3.9435 -5.3344 2.3952
-3.7560 -5.4826 2.3952
-3.5630 -5.6243 2.3952
-3.3648 -5.7592 2.3952
-3.1615 -5.8871 2.3952
-2.9535 -6.0079 2.3952
-2.7409 -6.1214 2.3952
-2.5241 -6.2273 2.3952
-2.3032 -6.3255 2.3952
-2.0785 -6.4159 2.3952
-1.8504 -6.4983 2.3952
-1.6191 -6.5724 2.3952
-1.3848 -6.6383 2.3952
-1.1480 -6.6957 2.3952
-0.9088 -6.7446 2.3952
-0.6677 -6.7848 2.3952
-0.4248 -6.8162 2.3952
-0.1807 -6.8388 2.3952
0.0645 -6.8525 2.3952
0.3104 -6.8572 2.3952
0.5567 -6.8529 2.3952
0.8030 -6.8396 2.3952
1.0490 -6.8172 2.3952
1.2943 -6.7857 2.3952
1.5386 -6.7451 2.3952
1.7815 -6.6955 2.3952
2.0228 -6.6368 2.3952
2.2619 -6.5692 2.3952
2.4987 -6.4927 2.3952
2.7328 -6.4073 2.3952
2.9638 -6.3132 2.3952
3.1913 -6.2105 2.3952
3.4151 -6.0993 2.3952
3.6348 -5.9797 2.3952
3.8501 -5.8519 2.3952
4.0606 -5.7160 2.3952
4.2661 -5.5722 2.3952
4.4661 -5.4207 2.3952
4.6605 -5.2617 2.3952
4.8489 -5.0954 2.3952
5.0311 -4.9222 2.3952
5.2067 -4.7420 2.3952
5.3755 -4.5554 2.3952
5.5373 -4.3624 2.3952
5.6917 -4.1635 2.3952
5.8386 -3.9588 2.3952
5.9777 -3.7487 2.3952
6.1088 -3.5334 2.3952
6.2318 -3.3134 2.3952
6.3464 -3.0888 2.3952
6.4524 -2.8601 2.3952
6.5498 -2.6276 2.3952
6.6384 -2.3916 2.3952
6.7180 -2.1525 2.3952
6.7885 -1.9107 2.3952
6.8499 -1.6664 2.3952
6.9020 -1.4201 2.3952
6.9448 -1.1720 2.3952
6.9783 -0.9227 2.3952
7.0023 -0.6723 2.3952
7.0170 -0.4215 2.3952
7.0222 -0.1705 2.3952
7.0181 0.0805 2.3952
7.0045 0.3309 2.3952
6.9816 0.5805 2.3952
6.9495 0.8288 2.3952
6.9081 1.0755 2.3952
6.8576 1.3203 2.3952
6.7981 1.5628 2.3952
6.7297 1.8027 2.3952
6.6525 2.0395 2.3952
6.5666 2.2732 2.3952
6.4723 2.5032 2.3952
6.3696 2.7293 2.3952
6.2588 2.9512 2.3952
6.1400 3.1685 2.3952
6.0135 3.3811 2.3952
5.8794 3.5886 2.3952
5.7379 3.7907 2.3952
5.5894 3.9872 2.3952
5.4340 4.1778 2.3952
5.2719 4.3625 2.3952
5.1034 4.5407 2.3952
4.9289 4.7125 2.3952
4.7484 4.8775 2.3952
4.5624 5.0356 2.3952
4.3710 5.1866 2.3952
4.1747 5.3304 2.3952
3.9735 5.4667 2.3952
3.7680 5.5954 2.3952
3.5582 5.7165 2.3952
3.3446 5.8298 2.3952
3.1273 5.9351 2.3952
2.9069 6.0325 2.3952
2.6834 6.1217 2.3952
2.4572 6.2027 2.3952
0.8850 2.4918 0.9511
0.7948 2.5218 0.9527
0.7035 2.5485 0.9543
0.6114 2.5718 0.9559
0.5185 2.5919 0.9575
0.4249 2.6085 0.9591
0.3307 2.6218 0.9606
0.2361 2.6316 0.9622
0.1413 2.6380 0.9637
0.0462 2.6410 0.9651
-0.0489 2.6406 0.9666
-0.1439 2.6367 0.9680
-0.2388 2.6294 0.9693
-0.3333 2.6187 0.9706
-0.4273 2.6045 0.9719
-0.5208 2.5870 0.9732
-0.6136 2.5661 0.9744
-0.7056 2.5419 0.9756
-0.7967 2.5143 0.9767
-0.8867 2.4835 0.9777
-2.3871 5.9941 2.3952
-2.5987 5.8971 2.3952
-2.8065 5.7930 2.3952
-3.0105 5.6818 2.3952
-3.2102 5.5637 2.3952
-3.4056 5.4389 2.3952
-3.5964 5.3075 2.3952
-3.7824 5.1698 2.3952
-3.9634 5.0258 2.3952
-4.1391 4.8757 2.3952
-4.3096 4.7198 2.3952
-4.4744 4.5582 2.3952
-4.6334 4.3912 2.3952
-4.7866 4.2188 2.3952
-4.9336 4.0413 2.3952
-5.0745 3.8590 2.3952
-5.2089 3.6720 2.3952
-5.3368 3.4805 2.3952
-5.4580 3.2848 2.3952
-5.5724 3.0851 2.3952
-5.6798 2.8815 2.3952
-5.7802 2.6744 2.3952
-5.8734 2.4640 2.3952
-5.9594 2.2505 2.3952
-6.0379 2.0341 2.3952
-6.1090 1.8151 2.3952
-6.1726 1.5938 2.3952
-6.2285 1.3703 2.3952
-6.2767 1.1449 2.3952
-6.3172 0.9180 2.3952
-6.3497 0.6895 2.3952
-6.3745 0.4601 2.3952
-6.3914 0.2297 2.3952
-6.4003 -0.0012 2.3952
-6.4012 -0.2325 2.3952
-6.3942 -0.4638 2.3952
-6.3791 -0.6949 2.3952
-6.3561 -0.9256 2.3952
-6.3250 -1.1556 2.3952
-6.2860 -1.3845 2.3952
-6.2390 -1.6123 2.3952
-6.1841 -1.8384 2.3952
-6.1213 -2.0628 2.3952
-6.0507 -2.2851 2.3952
-5.9723 -2.5051 2.3952
-5.8861 -2.7225 2.3952
-5.7924 -2.9370 2.3952
-5.6910 -3.1485 2.3952
-5.5822 -3.3565 2.3952
-5.4660 -3.5608 2.3952
-5.3426 -3.7613 2.3952
-5.2120 -3.9575 2.3952
-5.0744 -4.1494 2.3952
-4.9299 -4.3365 2.3952
-4.7787 -4.5187 2.3952
-4.6210 -4.6958 2.3952
-4.4568 -4.8674 2.3952
-4.2863 -5.0334 2.3952
-4.1099 -5.1935 2.3952
-3.9275 -5.3475 2.3952
-3.7395 -5.4951 2.3952
-3.5461 -5.6362 2.3952
-3.3474 -5.7705 2.3952
-3.1438 -5.8978 2.3952
-2.9353 -6.0180 2.3952
-2.7223 -6.1308 2.3952
-2.5051 -6.2361 2.3952
-2.2839 -6.3337 2.3952
-2.0589 -6.4233 2.3952
-1.8305 -6.5050 2.3952
-1.5989 -6.5784 2.3952
-1.3645 -6.6436 2.3952
-1.1274 -6.7003 2.3952
-0.8880 -6.7484 2.3952
-0.6467 -6.7878 2.3952
-0.4038 -6.8185 2.3952
-0.1595 -6.8403 2.3952
0.0858 -6.8533 2.3952
0.3317 -6.8572 2.3952
0.5780 -6.8521 2.3952
0.8243 -6.8380 2.3952
-3.6770 4.7248 2.3952
-3.8425 4.5856 2.3952
-4.0030 4.4408 2.3952
-4.1583 4.2907 2.3952
-4.3082 4.1354 2.3952
-4.4526 3.9750 2.3952
-4.5914 3.8099 2.3952
-4.7243 3.6401 2.3952
-4.8512 3.4659 2.3952
-4.9720 3.2875 2.3952
-5.0866 3.1050 2.3952
-5.1948 2.9187 2.3952
-5.2965 2.7289 2.3952
-5.3916 2.5356 2.3952
-5.4800 2.3392 2.3952
-5.5616 2.1398 2.3952
-5.6363 1.9378 2.3952
-5.7040 1.7332 2.3952
-5.7645 1.5264 2.3952
-5.8180 1.3175 2.3952
-5.8642 1.1069 2.3952
-5.9032 0.8947 2.3952
-5.9349 0.6813 2.3952
-5.9591 0.4666 2.3952
-5.9758 0.2511 2.3952
-5.9852 0.0351 2.3952
-5.9871 -0.1812 2.3952
-5.9815 -0.3976 2.3952
-5.9684 -0.6139 2.3952
-5.9478 -0.8297 2.3952
-5.9197 -1.0449 2.3952
-5.8841 -1.2592 2.3952
-5.8411 -1.4723 2.3952
-5.7906 -1.6840 2.3952
-5.7328 -1.8940 2.3952
-5.6676 -2.1021 2.3952
-5.5951 -2.3081 2.3952
-5.5154 -2.5116 2.3952
-5.4285 -2.7124 2.3952
-5.3345 -2.9103 2.3952
-5.2335 -3.1051 2.3952
-5.1257 -3.2964 2.3952
-5.0110 -3.4841 2.3952
-4.8897 -3.6679 2.3952
-4.7618 -3.8475 2.3952
-4.6274 -4.0227 2.3952
-4.4868 -4.1934 2.3952
-4.3400 -4.3592 2.3952
-4.1872 -4.5200 2.3952
-4.0286 -4.6755 2.3952
-3.8644 -4.8254 2.3952
-3.6947 -4.9697 2.3952
-3.5197 -5.1081 2.3952
-3.3396 -5.2403 2.3952
-3.1546 -5.3662 2.3952
-2.9649 -5.4856 2.3952
-2.7708 -5.5983 2.3952
-2.5725 -5.7042 2.3952
-2.3703 -5.8030 2.3952
-2.1642 -5.8946 2.3952
-1.9547 -5.9789 2.3952
-1.7420 -6.0557 2.3952
-1.5263 -6.1249 2.3952
-1.3079 -6.1863 2.3952
-1.0872 -6.2399 2.3952
-0.8642 -6.2855 2.3952
-0.6395 -6.3230 2.3952
-0.4132 -6.3523 2.3952
-0.1857 -6.3735 2.3952
0.0428 -6.3863 2.3952
0.2718 -6.3907 2.3952
0.5013 -6.3868 2.3952
0.7307 -6.3745 2.3952
0.9598 -6.3537 2.3952
1.1882 -6.3245 2.3952
1.4158 -6.2869 2.3952
1.6420 -6.2408 2.3952
1.8667 -6.1864 2.3952
2.0894 -6.1237 2.3952
2.3099 -6.0526 2.3952
2.5279 -5.9734 2.3952
2.7430 -5.8861 2.3952
2.9549 -5.7907 2.3952
3.1633 -5.6875 2.3952
3.3679 -5.5765 2.3952
3.5684 -5.4578 2.3952
3.7645 -5.3317 2.3952
3.9559 -5.1982 2.3952
4.1423 -5.0576 2.3952
4.3234 -4.9100 2.3952
4.4990 -4.7557 2.3952
4.6688 -4.5948 2.3952
4.8326 -4.4276 2.3952
4.9900 -4.2543 2.3952
5.1409 -4.0752 2.3952
5.2850 -3.8905 2.3952
5.4222 -3.7004 2.3952
5.5521 -3.5054 2.3952
5.6747 -3.3055 2.3952
5.7897 -3.1011 2.3952
5.8970 -2.8926 2.3952
5.9963 -2.6802 2.3952
6.0876 -2.4643 2.3952
6.1708 -2.2450 2.3952
6.2456 -2.0229 2.3952
6.3121 -1.7981 2.3952
6.3701 -1.5711 2.3952
6.4195 -1.3421 2.3952
6.4603 -1.1116 2.3952
6.4924 -0.8797 2.3952
6.5158 -0.6469 2.3952
6.5305 -0.4136 2.3952
6.5364 -0.1800 2.3952
6.5336 0.0535 2.3952
6.5221 0.2866 2.3952
6.5019 0.5189 2.3952
6.4732 0.7502 2.3952
6.4358 0.9801 2.3952
6.3900 1.2082 2.3952
6.3358 1.4342 2.3952
6.2733 1.6579 2.3952
6.2026 1.8787 2.3952
6.1238 2.0967 2.3952
6.0372 2.3114 2.3952
5.9427 2.5225 2.3952
5.8407 2.7297 2.3952
5.7312 2.9327 2.3952
5.6145 3.1314 2.3952
5.4907 3.3254 2.3952
5.3600 3.5145 2.3952
5.2227 3.6983 2.3952
5.0789 3.8769 2.3952
4.9289 4.0499 2.3952
4.7729 4.2170 2.3952
4.6112 4.3780 2.3952
4.4439 4.5329 2.3952
4.2714 4.6813 2.3952
4.0938 4.8232 2.3952
3.9115 4.9584 2.3952
3.7247 5.0867 2.3952
3.5337 5.2080 2.3952
3.3388 5.3222 2.3952
3.1401 5.4291 2.3952
2.9380 5.5286 2.3952
2.7329 5.6207 2.3952
2.5248 5.7052 2.3952
0.9167 2.2903 0.9487
0.8337 2.3215 0.9503
0.7496 2.3497 0.9518
0.6646 2.3748 0.9533
0.5787 2.3968 0.9548
0.4921 2.4158 0.9563
0.4048 2.4316 0.9578
0.3170 2.4442 0.9592
0.2288 2.4536 0.9606
0.1403 2.4599 0.9620
0.0517 2.4630 0.9634
-0.0370 2.4628 0.9647
-0.1257 2.4595 0.9660
-0.2142 2.4529 0.9673
-0.3024 2.4432 0.9685
-0.3901 2.4303 0.9698
-0.4774 2.4142 0.9709
-0.5640 2.3950 0.9721
-0.6499 2.3726 0.9731
-0.7349 2.3472 0.9742
-0.8189 2.3187 0.9752
-2.2129 5.6121 2.3952
-2.4112 5.5224 2.3952
-2.6061 5.4259 2.3952
-2.7974 5.3228 2.3952
-2.9847 5.2132 2.3952
-3.1680 5.0973 2.3952
-3.3471 4.9752 2.3952
-3.5216 4.8470 2.3952
-3.6915 4.7130 2.3952
-3.8566 4.5733 2.3952
-4.0166 4.4281 2.3952
-4.1715 4.2775 2.3952
-4.3209 4.1217 2.3952
-4.4648 3.9610 2.3952
-4.6031 3.7954 2.3952
-4.7355 3.6252 2.3952
-4.8619 3.4506 2.3952
-4.9822 3.2719 2.3952
-5.0962 3.0891 2.3952
-5.2039 2.9025 2.3952
-5.3050 2.7123 2.3952
-5.3995 2.5188 2.3952
-5.4873 2.3221 2.3952
-5.5683 2.1225 2.3952
-5.6424 1.9202 2.3952
-5.7095 1.7154 2.3952
-5.7694 1.5084 2.3952
-5.8223 1.2994 2.3952
-5.8679 1.0886 2.3952
-5.9062 0.8763 2.3952
-5.9373 0.6628 2.3952
-5.9608 0.4480 2.3952
-5.9769 0.2325 2.3952
-5.9857 0.0165 2.3952
-5.9869 -0.1999 2.3952
-5.9807 -0.4163 2.3952
-5.9669 -0.6325 2.3952
-5.9457 -0.8484 2.3952
-5.9169 -1.0635 2.3952
-5.8807 -1.2777 2.3952
-5.8370 -1.4907 2.3952
-5.7859 -1.7022 2.3952
-5.7274 -1.9121 2.3952
-5.6616 -2.1200 2.3952
-5.5885 -2.3257 2.3952
-5.5081 -2.5290 2.3952
-5.4206 -2.7296 2.3952
-5.3260 -2.9273 2.3952
-5.2245 -3.1217 2.3952
-5.1160 -3.3128 2.3952
-5.0008 -3.5001 2.3952
-4.8789 -3.6835 2.3952
-4.7504 -3.8628 2.3952
-4.6155 -4.0377 2.3952
-4.4744 -4.2079 2.3952
-4.3270 -4.3733 2.3952
-4.1738 -4.5336 2.3952
-4.0147 -4.6886 2.3952
-3.8499 -4.8381 2.3952
-3.6798 -4.9819 2.3952
-3.5043 -5.1197 2.3952
-3.3238 -5.2514 2.3952
-3.1384 -5.3768 2.3952
-2.9483 -5.4956 2.3952
-2.7539 -5.6077 2.3952
-2.5552 -5.7130 2.3952
-2.3526 -5.8112 2.3952
-2.1463 -5.9022 2.3952
-1.9365 -5.9859 2.3952
-1.7235 -6.0620 2.3952
-1.5075 -6.1305 2.3952
-1.2890 -6.1913 2.3952
-1.0680 -6.2441 2.3952
-0.8449 -6.2890 2.3952
-0.6200 -6.3258 2.3952
-0.3936 -6.3545 2.3952
-0.1660 -6.3749 2.3952
0.0625 -6.3870 2.3952
0.2917 -6.3907 2.3952
0.5211 -6.3861 2.3952
0.7505 -6.3730 2.3952
0.9795 -6.3515 2.3952
1.2079 -6.3216 2.3952
1.4354 -6.2832 2.3952
1.6615 -6.2365 2.3952
1.8860 -6.1813 2.3952
2.1085 -6.1178 2.3952
2.3288 -6.0461 2.3952
2.5466 -5.9662 2.3952
2.7614 -5.8781 2.3952
2.9730 -5.7821 2.3952
3.1811 -5.6782 2.3952
3.3854 -5.5665 2.3952
3.5855 -5.4472 2.3952
3.7812 -5.3204 2.3952
3.9722 -5.1863 2.3952
4.1581 -5.0451 2.3952
4.3388 -4.8969 2.3952
4.5139 -4.7420 2.3952
4.6832 -4.5806 2.3952
4.8464 -4.4128 2.3952
5.0033 -4.2391 2.3952
5.1536 -4.0595 2.3952
5.2972 -3.8742 2.3952
5.4337 -3.6838 2.3952
5.5630 -3.4883 2.3952
5.6849 -3.2880 2.3952
5.7993 -3.0833 2.3952
5.9059 -2.8744 2.3952
6.0045 -2.6617 2.3952
6.0951 -2.4454 2.3952
6.1776 -2.2260 2.3952
6.2517 -2.0036 2.3952
6.3175 -1.7786 2.3952
6.3747 -1.5514 2.3952
6.4234 -1.3223 2.3952
6.4634 -1.0916 2.3952
6.4948 -0.8596 2.3952
6.5174 -0.6268 2.3952
6.5313 -0.3934 2.3952
6.5365 -0.1598 2.3952
6.5330 0.0737 2.3952
6.5207 0.3067 2.3952
6.4998 0.5390 2.3952
6.4703 0.7702 2.3952
6.4322 0.9999 2.3952
6.3856 1.2278 2.3952
6.3307 1.4536 2.3952
6.2675 1.6770 2.3952
6.1961 1.8977 2.3952
6.1166 2.1154 2.3952
6.0293 2.3297 2.3952
5.9342 2.5405 2.3952
5.8315 2.7474 2.3952
5.7214 2.9501 2.3952
5.6041 3.1484 2.3952
5.4797 3.3419 2.3952
5.3484 3.5306 2.3952
5.2105 3.7141 2.3952
5.0662 3.8921 2.3952
4.9157 4.0645 2.3952
4.7592 4.2311 2.3952
4.5969 4.3916 2.3952
4.4292 4.5460 2.3952
4.2562 4.6938 2.3952
4.0783 4.8352 2.3952
3.8956 4.9698 2.3952
3.7084 5.0975 2.3952
3.5170 5.2182 2.3952
3.3217 5.3317 2.3952
3.1228 5.4380 2.3952
2.9204 5.5369 2.3952
2.7150 5.6283 2.3952
2.5067 5.7122 2.3952
0.9095 2.2931 0.9489
0.8265 2.3240 0.9504
0.7423 2.3519 0.9519
0.6572 2.3768 0.9534
0.5713 2.3986 0.9549
0.4846 2.4173 0.9564
0.3972 2.4328 0.9579
0.3094 2.4451 0.9593
0.2212 2.4543 0.9607
0.1327 2.4603 0.9621
0.0440 2.4631 0.9635
-0.0447 2.4627 0.9648
-0.1333 2.4590 0.9661
-0.2218 2.4522 0.9674
-0.3100 2.4422 0.9687
-0.3977 2.4290 0.9699
-0.4849 2.4127 0.9710
-0.5715 2.3932 0.9722
-0.6573 2.3706 0.9732
-0.7422 2.3449 0.9743
-0.8261 2.3161 0.9753
-2.2301 5.6047 2.3952
-2.4282 5.5143 2.3952
-2.6228 5.4172 2.3952
-2.8137 5.3136 2.3952
-3.0007 5.2034 2.3952
-3.1837 5.0870 2.3952
-3.3623 4.9643 2.3952
-3.5365 4.8357 2.3952
-3.7060 4.7012 2.3952
-3.8706 4.5610 2.3952
-4.0302 4.4153 2.3952
-4.1846 4.2642 2.3952
-4.3336 4.1080 2.3952
-4.4770 3.9468 2.3952
-4.6148 3.7809 2.3952
-4.7466 3.6103 2.3952
-4.8725 3.4354 2.3952
-4.9923 3.2562 2.3952
-5.1058 3.0731 2.3952
-5.2129 2.8862 2.3952
-5.3134 2.6957 2.3952
-5.4074 2.5019 2.3952
-5.4946 2.3050 2.3952
-5.5750 2.1051 2.3952
-5.6485 1.9026 2.3952
-5.7149 1.6976 2.3952
-5.7743 1.4904 2.3952
-5.8265 1.2812 2.3952
-5.8715 1.0703 2.3952
-5.9091 0.8579 2.3952
-5.9396 0.6442 2.3952
