ply
format ascii 1.0
element vertex 2185
property float32 x
property float32 y
property float32 z
end_header
7.3000 -0.4480 2.3813
7.3102 -0.1808 2.3813
7.3126 0.0867 2.3813
7.3072 0.3541 2.3813
7.2940 0.6215 2.3813
7.2731 0.8886 2.3813
7.2443 1.1552 2.3813
7.2078 1.4213 2.3813
7.1634 1.6866 2.3813
7.1112 1.9511 2.3813
7.0511 2.2146 2.3813
6.9832 2.4769 2.3813
6.9075 2.7378 2.3813
6.8238 2.9972 2.3813
6.7322 3.2549 2.3813
6.6328 3.5108 2.3813
6.5254 3.7647 2.3813
6.4100 4.0163 2.3813
6.2867 4.2656 2.3813
6.1554 4.5123 2.3813
6.0161 4.7561 2.3813
5.8688 4.9970 2.3813
5.6689 5.1938 2.3627
5.1991 5.1231 2.2306
5.0346 5.3349 2.2289
4.8667 5.5471 2.2289
4.6913 5.7555 2.2289
4.5084 5.9599 2.2289
4.3180 6.1599 2.2289
4.1202 6.3554 2.2289
3.9149 6.5461 2.2289
3.7018 6.7307 2.2285
3.4823 6.9119 2.2289
3.2549 7.0866 2.2289
3.0203 7.2554 2.2288
2.7786 7.4179 2.2288
2.5297 7.5740 2.2288
2.2738 7.7233 2.2288
2.0110 7.8655 2.2288
0.7767 3.5681 0.9940
0.6483 3.5963 0.9862
0.5191 3.6198 0.9784
0.3890 3.6386 0.9704
0.2584 3.6527 0.9625
0.1273 3.6620 0.9545
-0.0041 3.6666 0.9465
-0.1355 3.6664 0.9384
-0.2669 3.6614 0.9304
-0.3980 3.6517 0.9224
-0.5286 3.6372 0.9144
-0.6587 3.6180 0.9064
-0.7880 3.5940 0.8985
-0.9163 3.5654 0.8906
-2.1681 -9.4355 2.3813
-1.8125 -9.4189 2.3813
-1.4608 -9.3901 2.3813
-1.1136 -9.3494 2.3813
-0.7710 -9.2972 2.3813
-0.4335 -9.2341 2.3813
-0.1013 -9.1598 2.3813
0.2252 -9.0753 2.3813
0.5459 -8.9807 2.3813
0.8603 -8.8765 2.3813
1.1684 -8.7629 2.3813
1.4699 -8.6404 2.3813
1.7647 -8.5092 2.3813
2.0526 -8.3698 2.3813
2.3334 -8.2224 2.3813
2.6070 -8.0675 2.3813
2.8733 -7.9052 2.3813
3.1323 -7.7360 2.3813
3.3837 -7.5602 2.3813
3.6276 -7.3779 2.3813
3.8638 -7.1897 2.3813
4.0924 -6.9956 2.3813
4.3132 -6.7961 2.3813
4.5263 -6.5913 2.3813
4.7315 -6.3816 2.3813
4.9289 -6.1672 2.3813
5.1185 -5.9483 2.3813
5.3002 -5.7252 2.3813
5.4740 -5.4981 2.3813
5.6399 -5.2673 2.3813
5.7980 -5.0329 2.3813
5.9481 -4.7952 2.3813
6.0904 -4.5543 2.3813
6.2248 -4.3105 2.3813
6.3514 -4.0640 2.3813
6.4700 -3.8149 2.3813
6.5809 -3.5634 2.3813
6.6839 -3.3098 2.3813
6.7790 -3.0542 2.3813
6.8663 -2.7967 2.3813
6.9458 -2.5375 2.3813
7.0175 -2.2768 2.3813
7.0814 -2.0148 2.3813
7.1375 -1.7515 2.3813
7.1858 -1.4872 2.3813
7.2263 -1.2220 2.3813
7.2591 -0.9561 2.3813
7.2841 -0.6895 2.3813
7.3013 -0.4226 2.3813
7.3108 -0.1554 2.3813
7.3124 0.1122 2.3813
7.3063 0.3796 2.3813
7.2924 0.6469 2.3813
7.2707 0.9139 2.3813
7.2412 1.1805 2.3813
7.2039 1.4465 2.3813
7.1588 1.7118 2.3813
7.1058 1.9762 2.3813
7.0450 2.2396 2.3813
6.9764 2.5017 2.3813
6.8999 2.7625 2.3813
6.8154 3.0218 2.3813
6.7231 3.2794 2.3813
6.6229 3.5350 2.3813
6.5147 3.7887 2.3813
6.3986 4.0402 2.3813
6.2745 4.2892 2.3813
6.1425 4.5356 2.3813
6.0024 4.7792 2.3813
5.8544 5.0198 2.3813
5.6148 5.1802 2.3464
5.1800 5.1397 2.2289
5.0189 5.3552 2.2289
4.8503 5.5671 2.2289
4.6742 5.7752 2.2289
4.4906 5.9791 2.2289
4.2995 6.1787 2.2289
4.1010 6.3738 2.2289
3.8950 6.5639 2.2289
3.6762 6.7391 2.2256
3.4609 6.9288 2.2289
3.2329 7.1029 2.2289
2.9976 7.2711 2.2288
2.7552 7.4330 2.2288
2.5056 7.5885 2.2288
2.2491 7.7372 2.2288
1.9857 7.8787 2.2288
0.7645 3.5709 0.9933
0.6361 3.5987 0.9855
0.5067 3.6218 0.9776
0.3766 3.6401 0.9697
0.2459 3.6538 0.9617
0.1148 3.6626 0.9537
-0.0166 3.6668 0.9457
-0.1480 3.6661 0.9377
-0.2794 3.6607 0.9296
-0.4104 3.6505 0.9216
-0.5411 3.6356 0.9136
-0.6710 3.6159 0.9057
-0.8002 3.5915 0.8977
-0.9285 3.5625 0.8899
-2.1341 -9.4345 2.3813
-1.7789 -9.4167 2.3813
-1.4276 -9.3867 2.3813
-1.0808 -9.3450 2.3813
-0.7386 -9.2917 2.3813
-0.4016 -9.2274 2.3813
-0.0699 -9.1522 2.3813
0.2560 -9.0668 2.3813
0.5760 -8.9712 2.3813
0.8899 -8.8661 2.3813
1.1974 -8.7516 2.3813
1.4982 -8.6283 2.3813
1.7924 -8.4963 2.3813
2.0796 -8.3561 2.3813
2.3597 -8.2080 2.3813
2.6327 -8.0523 2.3813
2.8983 -7.8894 2.3813
3.1565 -7.7196 2.3813
3.4072 -7.5431 2.3813
3.6504 -7.3603 2.3813
3.8859 -7.1715 2.3813
4.1137 -6.9769 2.3813
4.3338 -6.7769 2.3813
4.5461 -6.5716 2.3813
4.7506 -6.3614 2.3813
4.9473 -6.1466 2.3813
5.1361 -5.9273 2.3813
5.3170 -5.7038 2.3813
5.4901 -5.4763 2.3813
5.6553 -5.2451 2.3813
5.8126 -5.0104 2.3813
5.9620 -4.7724 2.3813
6.1036 -4.5312 2.3813
6.2372 -4.2872 2.3813
6.3630 -4.0404 2.3813
6.4809 -3.7911 2.3813
6.5910 -3.5394 2.3813
6.6932 -3.2856 2.3813
6.7876 -3.0297 2.3813
6.8742 -2.7721 2.3813
6.9530 -2.5128 2.3813
7.0239 -2.2519 2.3813
7.0871 -1.9898 2.3813
7.1424 -1.7264 2.3813
7.1900 -1.4620 2.3813
7.2298 -1.1967 2.3813
7.2618 -0.9308 2.3813
7.2861 -0.6642 2.3813
7.3026 -0.3972 2.3813
7.3113 -0.1299 2.3813
7.3122 0.1376 2.3813
7.3053 0.4050 2.3813
7.2906 0.6723 2.3813
7.2682 0.9393 2.3813
5.9850 -3.5630 2.3813
6.0901 -3.3306 2.3813
6.1878 -3.0960 2.3813
6.2781 -2.8593 2.3813
6.3611 -2.6208 2.3813
6.4368 -2.3805 2.3813
6.5051 -2.1388 2.3813
6.5660 -1.8956 2.3813
6.6197 -1.6512 2.3813
6.6659 -1.4058 2.3813
6.7048 -1.1594 2.3813
6.7364 -0.9123 2.3813
6.7607 -0.6645 2.3813
6.7776 -0.4164 2.3813
6.7871 -0.1679 2.3813
6.7893 0.0808 2.3813
6.7841 0.3295 2.3813
6.7716 0.5780 2.3813
6.7518 0.8263 2.3813
6.7244 1.0742 2.3813
6.6899 1.3214 2.3813
6.6479 1.5679 2.3813
6.5985 1.8135 2.3813
6.5417 2.0580 2.3813
6.4775 2.3014 2.3813
6.4060 2.5433 2.3813
6.3270 2.7838 2.3813
6.2406 3.0225 2.3813
6.1467 3.2593 2.3813
6.0455 3.4941 2.3813
5.9368 3.7266 2.3813
5.8206 3.9568 2.3813
5.6971 4.1843 2.3813
5.5661 4.4090 2.3813
5.4277 4.6308 2.3813
5.2818 4.8493 2.3813
5.1285 5.0644 2.3813
4.7570 5.0520 2.2802
4.4926 5.1327 2.2289
4.3285 5.3232 2.2289
4.1574 5.5098 2.2289
3.9795 5.6921 2.2289
3.7949 5.8699 2.2289
3.6034 6.0430 2.2289
3.4053 6.2112 2.2289
3.2005 6.3741 2.2289
2.9892 6.5316 2.2289
2.7713 6.6834 2.2288
2.5471 6.8292 2.2288
2.3165 6.9687 2.2288
2.0797 7.1018 2.2288
0.8212 3.2313 0.9964
0.7049 3.2613 0.9893
0.5876 3.2870 0.9822
0.4694 3.3085 0.9750
0.3506 3.3256 0.9678
0.2311 3.3385 0.9605
0.1113 3.3470 0.9532
-0.0087 3.3511 0.9458
-0.1288 3.3509 0.9385
-0.2489 3.3464 0.9312
-0.3687 3.3375 0.9238
-0.4881 3.3242 0.9165
-0.6070 3.3067 0.9093
-0.7251 3.2848 0.9020
-0.8424 3.2586 0.8948
-0.9587 3.2283 0.8877
-2.9034 8.6358 2.3812
-3.2367 8.5994 2.3812
-3.5710 8.5502 2.3812
-3.9056 8.4881 2.3812
-4.2402 8.4129 2.3812
-4.5740 8.3244 2.3812
-4.9065 8.2224 2.3812
-5.2371 8.1069 2.3812
-5.6122 -7.8730 2.3812
-5.2868 -8.0040 2.3812
-4.9589 -8.1215 2.3812
-4.6290 -8.2256 2.3812
-4.2977 -8.3163 2.3812
-3.9657 -8.3939 2.3812
-3.6335 -8.4585 2.3812
-3.3017 -8.5104 2.3812
-2.9708 -8.5497 2.3813
-2.6412 -8.5767 2.3813
-2.3135 -8.5916 2.3813
-1.9880 -8.5947 2.3813
-1.6653 -8.5862 2.3813
-1.3456 -8.5666 2.3813
-1.0294 -8.5359 2.3813
-0.7171 -8.4947 2.3813
-0.4089 -8.4431 2.3813
-0.1051 -8.3814 2.3813
0.1939 -8.3099 2.3813
0.4879 -8.2292 2.3813
0.7767 -8.1393 2.3813
1.0600 -8.0405 2.3813
1.3377 -7.9333 2.3813
1.6095 -7.8180 2.3813
1.8752 -7.6947 2.3813
2.1348 -7.5639 2.3813
2.3880 -7.4258 2.3813
2.6348 -7.2806 2.3813
2.8750 -7.1288 2.3813
3.1085 -6.9706 2.3813
3.3352 -6.8062 2.3813
3.5551 -6.6360 2.3813
3.7680 -6.4601 2.3813
3.9739 -6.2789 2.3813
4.1728 -6.0925 2.3813
4.3645 -5.9013 2.3813
4.5491 -5.7055 2.3813
4.7265 -5.5052 2.3813
4.8966 -5.3008 2.3813
5.0595 -5.0925 2.3813
5.2152 -4.8804 2.3813
5.3635 -4.6648 2.3813
5.5045 -4.4459 2.3813
5.6382 -4.2239 2.3813
5.7646 -3.9989 2.3813
5.8836 -3.7712 2.3813
5.9953 -3.5410 2.3813
6.0997 -3.3084 2.3813
6.1967 -3.0735 2.3813
6.2863 -2.8367 2.3813
6.3686 -2.5980 2.3813
6.4436 -2.3576 2.3813
6.5112 -2.1157 2.3813
6.5715 -1.8724 2.3813
6.6244 -1.6279 2.3813
6.6699 -1.3824 2.3813
6.7082 -1.1359 2.3813
6.7391 -0.8888 2.3813
6.7626 -0.6410 2.3813
6.7788 -0.3928 2.3813
6.7876 -0.1442 2.3813
6.7891 0.1045 2.3813
6.7833 0.3532 2.3813
6.7701 0.6017 2.3813
6.7495 0.8498 2.3813
6.7215 1.0977 2.3813
6.6862 1.3449 2.3813
6.6435 1.5913 2.3813
6.5934 1.8368 2.3813
6.5359 2.0812 2.3813
6.4710 2.3244 2.3813
6.3987 2.5663 2.3813
6.3191 2.8065 2.3813
6.2319 3.0451 2.3813
6.1374 3.2817 2.3813
6.0354 3.5163 2.3813
5.9260 3.7486 2.3813
5.8092 3.9785 2.3813
5.6849 4.2058 2.3813
5.5532 4.4303 2.3813
5.4141 4.6517 2.3813
5.2675 4.8699 2.3813
5.1011 5.0724 2.3755
4.7239 5.0517 2.2715
4.4773 5.1510 2.2289
4.3125 5.3412 2.2289
4.1408 5.5273 2.2289
3.9623 5.7092 2.2289
3.7769 5.8866 2.2289
3.5849 6.0592 2.2289
3.3861 6.2269 2.2289
3.1807 6.3893 2.2289
2.9687 6.5463 2.2289
2.7503 6.6975 2.2288
2.5254 6.8427 2.2288
2.2942 6.9817 2.2288
2.0569 7.1141 2.2288
0.8101 3.2344 0.9957
0.6938 3.2639 0.9887
0.5764 3.2892 0.9815
0.4582 3.3103 0.9743
0.3392 3.3270 0.9671
0.2198 3.3395 0.9598
0.0999 3.3476 0.9525
-0.0201 3.3513 0.9451
-0.1403 3.3507 0.9378
-0.2603 3.3457 0.9305
-0.3801 3.3364 0.9231
-0.4995 3.3227 0.9158
-0.6183 3.3048 0.9086
-0.7363 3.2825 0.9013
-0.8535 3.2559 0.8941
-2.6031 8.6581 2.3812
-2.9351 8.6329 2.3812
-3.2685 8.5952 2.3812
-3.6028 8.5448 2.3812
-3.9375 8.4815 2.3812
-4.2720 8.4051 2.3812
-4.6057 8.3153 2.3812
-4.9381 8.2120 2.3812
-5.2685 8.0952 2.3812
-5.5814 -7.8861 2.3812
-5.2557 -8.0158 2.3812
-4.9275 -8.1320 2.3812
-4.5975 -8.2347 2.3812
-4.2661 -8.3242 2.3812
-3.9341 -8.4006 2.3812
-3.6019 -8.4640 2.3812
-3.2702 -8.5146 2.3813
-2.9393 -8.5528 2.3813
-2.6099 -8.5786 2.3813
-2.2824 -8.5924 2.3813
-1.9572 -8.5944 2.3813
-1.6347 -8.5848 2.3813
-1.3154 -8.5641 2.3813
-0.9996 -8.5325 2.3813
-0.6876 -8.4902 2.3813
-0.3798 -8.4376 2.3813
-0.0765 -8.3750 2.3813
0.2221 -8.3027 2.3813
0.5156 -8.2210 2.3813
0.8039 -8.1302 2.3813
1.0867 -8.0307 2.3813
1.3638 -7.9227 2.3813
1.6350 -7.8066 2.3813
1.9002 -7.6826 2.3813
2.1592 -7.5510 2.3813
2.4118 -7.4122 2.3813
2.6580 -7.2665 2.3813
2.8975 -7.1141 2.3813
3.1304 -6.9552 2.3813
3.3564 -6.7903 2.3813
3.5756 -6.6195 2.3813
3.7879 -6.4431 2.3813
3.9931 -6.2613 2.3813
4.1913 -6.0745 2.3813
4.3824 -5.8829 2.3813
4.5663 -5.6866 2.3813
4.7430 -5.4860 2.3813
4.9124 -5.2812 2.3813
5.0746 -5.0725 2.3813
5.2296 -4.8601 2.3813
5.3772 -4.6441 2.3813
5.5176 -4.4249 2.3813
5.6506 -4.2026 2.3813
5.7762 -3.9774 2.3813
5.8946 -3.7494 2.3813
6.0056 -3.5189 2.3813
6.1092 -3.2861 2.3813
6.2055 -3.0511 2.3813
6.2945 -2.8141 2.3813
6.3761 -2.5752 2.3813
6.4503 -2.3347 2.3813
6.5172 -2.0926 2.3813
6.5768 -1.8492 2.3813
6.6290 -1.6046 2.3813
6.6739 -1.3590 2.3813
6.7114 -1.1124 2.3813
6.7416 -0.8652 2.3813
6.7645 -0.6174 2.3813
6.7800 -0.3691 2.3813
6.7881 -0.1205 2.3813
6.7889 0.1281 2.3813
6.7823 0.3768 2.3813
6.7684 0.6253 2.3813
6.7471 0.8735 2.3813
5.5695 -3.3214 2.3813
5.6687 -3.1054 2.3813
5.7609 -2.8871 2.3813
5.8462 -2.6669 2.3813
5.9246 -2.4448 2.3813
5.9961 -2.2210 2.3813
6.0607 -1.9957 2.3813
6.1183 -1.7690 2.3813
6.1690 -1.5411 2.3813
6.2127 -1.3121 2.3813
6.2495 -1.0822 2.3813
6.2794 -0.8515 2.3813
6.3023 -0.6203 2.3813
6.3182 -0.3886 2.3813
6.3272 -0.1565 2.3813
6.3292 0.0756 2.3813
6.3242 0.3078 2.3813
6.3123 0.5398 2.3813
6.2934 0.7716 2.3813
6.2675 1.0029 2.3813
6.2347 1.2336 2.3813
6.1949 1.4635 2.3813
6.1479 1.6929 2.3813
6.0944 1.9205 2.3813
6.0336 2.1473 2.3813
5.9658 2.3726 2.3813
5.8911 2.5964 2.3813
5.8094 2.8186 2.3813
5.7207 3.0388 2.3813
5.6250 3.2570 2.3813
5.5223 3.4730 2.3813
5.4127 3.6865 2.3813
5.2962 3.8974 2.3813
5.1727 4.1056 2.3813
5.0423 4.3108 2.3813
4.9049 4.5128 2.3813
4.7607 4.7115 2.3813
4.6096 4.9066 2.3813
4.3931 5.0308 2.3499
4.1053 5.0612 2.2803
3.8521 5.1183 2.2289
3.6910 5.2936 2.2323
3.5124 5.4484 2.2289
3.3332 5.6066 2.2289
3.1479 5.7601 2.2289
2.9566 5.9085 2.2289
2.7593 6.0516 2.2289
2.5562 6.1892 2.2288
2.3473 6.3211 2.2288
2.1327 6.4470 2.2288
0.8566 2.9411 0.9983
0.7507 2.9725 0.9918
0.6438 3.0000 0.9853
0.5359 3.0237 0.9788
0.4272 3.0434 0.9722
0.3178 3.0591 0.9655
0.2080 3.0709 0.9588
0.0978 3.0787 0.9521
-0.0127 3.0825 0.9453
-0.1231 3.0823 0.9386
-0.2336 3.0781 0.9318
-0.3438 3.0699 0.9251
-0.4536 3.0577 0.9184
-0.5629 3.0416 0.9117
-0.6716 3.0215 0.9050
-0.7795 2.9974 0.8984
-0.8864 2.9695 0.8918
-2.6689 7.9013 2.3812
-2.9719 7.8626 2.3812
-3.2754 7.8124 2.3812
-3.5788 7.7504 2.3812
-3.8817 7.6765 2.3812
-4.1836 7.5906 2.3812
-4.4839 7.4926 2.3812
-4.7821 7.3824 2.3812
-5.0775 7.2600 2.3812
-5.3697 7.1252 2.3812
-5.6580 6.9781 2.3812
-5.9418 6.8188 2.3812
-6.2204 6.6473 2.3812
-6.4933 6.4637 2.3812
-6.7598 6.2682 2.3812
-7.0193 6.0609 2.3812
-7.2712 5.8420 2.3812
-7.5147 5.6118 2.3812
-7.7494 5.3706 2.3812
-7.9745 5.1187 2.3812
-8.1895 4.8565 2.3812
-8.3937 4.5844 2.3812
-8.5867 4.3029 2.3812
-8.7678 4.0123 2.3812
-8.9365 3.7134 2.3812
-9.0924 3.4066 2.3812
-9.1039 -3.3040 2.3812
-8.9495 -3.6109 2.3812
-8.7823 -3.9098 2.3812
-8.6027 -4.2004 2.3812
-8.4115 -4.4821 2.3812
-8.2090 -4.7544 2.3812
-7.9958 -5.0169 2.3812
-7.7727 -5.2691 2.3812
-7.5400 -5.5108 2.3812
-7.2985 -5.7415 2.3812
-7.0488 -5.9610 2.3812
-6.7915 -6.1691 2.3812
-6.5271 -6.3655 2.3812
-6.2565 -6.5501 2.3812
-5.9801 -6.7227 2.3812
-5.6987 -6.8832 2.3812
-5.4127 -7.0317 2.3812
-5.1229 -7.1679 2.3812
-4.8297 -7.2920 2.3812
-4.5339 -7.4040 2.3812
-4.2359 -7.5040 2.3812
-3.9362 -7.5919 2.3812
-3.6355 -7.6679 2.3813
-3.3342 -7.7322 2.3813
-3.0328 -7.7849 2.3813
-2.7318 -7.8261 2.3813
-2.4317 -7.8561 2.3813
-2.1328 -7.8750 2.3813
-1.8356 -7.8831 2.3813
-1.5405 -7.8806 2.3813
-1.2478 -7.8677 2.3813
-0.9579 -7.8446 2.3813
-0.6712 -7.8116 2.3813
-0.3879 -7.7691 2.3813
-0.1084 -7.7170 2.3813
0.1671 -7.6560 2.3813
0.4384 -7.5862 2.3813
0.7051 -7.5077 2.3813
0.9671 -7.4209 2.3813
1.2241 -7.3261 2.3813
1.4760 -7.2235 2.3813
1.7226 -7.1135 2.3813
1.9637 -6.9963 2.3813
2.1991 -6.8721 2.3813
2.4288 -6.7412 2.3813
2.6526 -6.6038 2.3813
2.8703 -6.4603 2.3813
3.0819 -6.3109 2.3813
3.2873 -6.1558 2.3813
3.4864 -5.9952 2.3813
3.6791 -5.8295 2.3813
3.8654 -5.6587 2.3813
4.0451 -5.4833 2.3813
4.2183 -5.3033 2.3813
4.3848 -5.1190 2.3813
4.5446 -4.9306 2.3813
4.6977 -4.7384 2.3813
4.8441 -4.5425 2.3813
4.9837 -4.3431 2.3813
5.1165 -4.1405 2.3813
5.2425 -3.9347 2.3813
5.3616 -3.7261 2.3813
5.4739 -3.5148 2.3813
5.5792 -3.3009 2.3813
5.6777 -3.0847 2.3813
5.7693 -2.8663 2.3813
5.8540 -2.6459 2.3813
5.9317 -2.4236 2.3813
6.0026 -2.1996 2.3813
6.0665 -1.9742 2.3813
6.1234 -1.7474 2.3813
6.1735 -1.5193 2.3813
6.2165 -1.2902 2.3813
6.2527 -1.0603 2.3813
6.2818 -0.8296 2.3813
6.3041 -0.5982 2.3813
6.3193 -0.3665 2.3813
6.3277 -0.1345 2.3813
6.3290 0.0977 2.3813
6.3234 0.3299 2.3813
6.3108 0.5619 2.3813
6.2913 0.7936 2.3813
6.2647 1.0249 2.3813
6.2312 1.2555 2.3813
6.1907 1.4853 2.3813
6.1434 1.7141 2.3813
6.0888 1.9422 2.3813
6.0274 2.1688 2.3813
5.9590 2.3940 2.3813
5.8836 2.6177 2.3813
5.8012 2.8397 2.3813
5.7119 3.0597 2.3813
5.6155 3.2777 2.3813
5.5122 3.4934 2.3813
5.4020 3.7067 2.3813
5.2847 3.9174 2.3813
5.1606 4.1252 2.3813
5.0295 4.3302 2.3813
4.8915 4.5319 2.3813
4.7466 4.7302 2.3813
4.5949 4.9249 2.3813
4.3649 5.0334 2.3429
4.0793 5.0649 2.2744
3.8365 5.1344 2.2289
3.6692 5.3012 2.2289
3.4956 5.4636 2.2289
3.3158 5.6214 2.2289
3.1300 5.7744 2.2289
2.9381 5.9224 2.2289
2.7403 6.0649 2.2289
2.5366 6.2020 2.2288
2.3271 6.3334 2.2288
2.1120 6.4586 2.2288
0.8466 2.9443 0.9977
0.7406 2.9753 0.9912
0.6335 3.0024 0.9847
0.5256 3.0257 0.9781
0.4168 3.0450 0.9715
0.3074 3.0604 0.9649
0.1975 3.0718 0.9582
0.0873 3.0793 0.9514
-0.0232 3.0827 0.9447
-0.1337 3.0821 0.9379
-0.2441 3.0775 0.9312
-0.3542 3.0689 0.9245
-0.4640 3.0564 0.9177
-0.5733 3.0398 0.9110
-0.6819 3.0193 0.9044
-0.7897 2.9949 0.8978
-0.8966 2.9666 0.8912
-2.6977 7.8981 2.3812
-3.0007 7.8583 2.3812
-3.3042 7.8070 2.3812
-3.6077 7.7439 2.3812
-3.9105 7.6689 2.3812
-4.2123 7.5818 2.3812
-4.5124 7.4827 2.3812
-4.8103 7.3713 2.3812
-5.1055 7.2477 2.3812
-5.3973 7.1117 2.3812
-5.6852 6.9635 2.3812
-5.9685 6.8031 2.3812
-6.2466 6.6304 2.3812
-6.5190 6.4457 2.3812
-6.7848 6.2490 2.3812
-7.0436 6.0406 2.3812
-7.2947 5.8206 2.3812
-7.5374 5.5893 2.3812
-7.7712 5.3471 2.3812
-7.9954 5.0942 2.3812
-8.2094 4.8311 2.3812
-8.4126 4.5580 2.3812
-8.6044 4.2756 2.3812
-8.7844 3.9843 2.3812
-8.9519 3.6845 2.3812
-9.0898 -3.3336 2.3812
-8.9341 -3.6397 2.3812
-8.7657 -3.9379 2.3812
-8.5850 -4.2276 2.3812
-8.3927 -4.5084 2.3812
-8.1892 -4.7798 2.3812
-7.9750 -5.0413 2.3812
-7.7509 -5.2926 2.3812
-7.5174 -5.5332 2.3812
-7.2751 -5.7629 2.3812
-7.0246 -5.9813 2.3812
-6.7666 -6.1883 2.3812
-6.5017 -6.3836 2.3812
-6.2304 -6.5670 2.3812
-5.9536 -6.7385 2.3812
-5.6717 -6.8979 2.3812
-5.3853 -7.0452 2.3812
-5.0951 -7.1803 2.3812
-4.8017 -7.3032 2.3812
-4.5056 -7.4141 2.3812
-4.2074 -7.5128 2.3812
-3.9076 -7.5996 2.3812
-3.6068 -7.6745 2.3813
-3.3055 -7.7377 2.3813
-3.0041 -7.7893 2.3813
-2.7032 -7.8294 2.3813
-2.4032 -7.8584 2.3813
-2.1044 -7.8762 2.3813
-1.8074 -7.8833 2.3813
-1.5125 -7.8798 2.3813
-1.2201 -7.8659 2.3813
-0.9305 -7.8419 2.3813
-0.6441 -7.8080 2.3813
-0.3612 -7.7645 2.3813
-0.0820 -7.7117 2.3813
0.1931 -7.6498 2.3813
0.4639 -7.5791 2.3813
0.7302 -7.4997 2.3813
0.9918 -7.4122 2.3813
1.2483 -7.3167 2.3813
1.4997 -7.2134 2.3813
1.7458 -7.1027 2.3813
1.9863 -6.9847 2.3813
2.2212 -6.8599 2.3813
2.4503 -6.7284 2.3813
2.6735 -6.5904 2.3813
2.8907 -6.4464 2.3813
3.1018 -6.2964 2.3813
3.3066 -6.1407 2.3813
3.5050 -5.9797 2.3813
3.6971 -5.8134 2.3813
3.8828 -5.6422 2.3813
4.0619 -5.4663 2.3813
4.2344 -5.2859 2.3813
4.4003 -5.1012 2.3813
4.5595 -4.9125 2.3813
4.7119 -4.7199 2.3813
4.8577 -4.5237 2.3813
4.9966 -4.3240 2.3813
5.1288 -4.1210 2.3813
5.2541 -3.9150 2.3813
5.3726 -3.7061 2.3813
5.4842 -3.4945 2.3813
5.5889 -3.2804 2.3813
5.6867 -3.0640 2.3813
5.7777 -2.8454 2.3813
5.8617 -2.6248 2.3813
5.9388 -2.4024 2.3813
6.0089 -2.1783 2.3813
6.0722 -1.9527 2.3813
6.1285 -1.7257 2.3813
6.1779 -1.4976 2.3813
6.2203 -1.2684 2.3813
6.2557 -1.0384 2.3813
6.2843 -0.8076 2.3813
6.3058 -0.5762 2.3813
6.3204 -0.3444 2.3813
6.3281 -0.1124 2.3813
6.3288 0.1198 2.3813
6.3225 0.3520 2.3813
6.3093 0.5839 2.3813
6.2890 0.8156 2.3813
5.2020 -3.1076 2.3813
5.2958 -2.9060 2.3813
5.3831 -2.7023 2.3813
5.4638 -2.4966 2.3813
5.5380 -2.2890 2.3813
5.6057 -2.0797 2.3813
5.6669 -1.8689 2.3813
5.7214 -1.6568 2.3813
5.7695 -1.4434 2.3813
5.8109 -1.2290 2.3813
5.8457 -1.0137 2.3813
5.8740 -0.7976 2.3813
5.8957 -0.5810 2.3813
5.9107 -0.3639 2.3813
5.9192 -0.1465 2.3813
5.9210 0.0710 2.3813
5.9163 0.2886 2.3813
5.9049 0.5060 2.3813
5.8869 0.7231 2.3813
5.8624 0.9397 2.3813
5.8312 1.1558 2.3813
5.7934 1.3710 2.3813
5.7489 1.5854 2.3813
5.6979 1.7987 2.3813
5.6403 2.0108 2.3813
5.5760 2.2216 2.3813
5.5052 2.4307 2.3813
5.4278 2.6382 2.3813
5.3438 2.8438 2.3813
5.2532 3.0474 2.3813
5.1561 3.2487 2.3813
5.0524 3.4477 2.3813
4.9422 3.6441 2.3813
4.8255 3.8378 2.3813
4.7023 4.0286 2.3813
4.5727 4.2162 2.3813
4.4366 4.4005 2.3813
4.2942 4.5814 2.3813
4.1454 4.7585 2.3813
3.9903 4.9317 2.3813
3.8139 5.0807 2.3719
3.5712 5.1359 2.3226
3.3428 5.2003 2.2823
3.1256 5.2735 2.2499
2.9225 5.3650 2.2289
2.7432 5.5011 2.2289
2.5584 5.6320 2.2288
2.3683 5.7576 2.2288
2.1730 5.8777 2.2288
1.9725 5.9921 2.2288
0.7879 2.7202 0.9939
0.6900 2.7492 0.9879
0.5910 2.7747 0.9819
0.4913 2.7965 0.9758
0.3907 2.8147 0.9697
0.2896 2.8293 0.9635
0.1880 2.8402 0.9573
0.0861 2.8474 0.9511
-0.0160 2.8509 0.9449
-0.1182 2.8507 0.9386
-0.2204 2.8468 0.9324
-0.3223 2.8392 0.9262
-0.4239 2.8279 0.9200
-0.5250 2.8130 0.9138
-0.6255 2.7944 0.9076
-0.7252 2.7721 0.9015
-0.8241 2.7463 0.8954
-0.9220 2.7169 0.8894
-2.7460 7.2342 2.3812
-3.0235 7.1838 2.3812
-3.3008 7.1227 2.3812
-3.5772 7.0508 2.3812
-3.8523 6.9679 2.3812
-4.1257 6.8741 2.3812
-4.3968 6.7691 2.3812
-4.6652 6.6531 2.3812
-4.9303 6.5260 2.3812
-5.1916 6.3879 2.3812
-5.4485 6.2387 2.3812
-5.7006 6.0786 2.3812
-5.9471 5.9077 2.3812
-6.1877 5.7262 2.3812
-6.4217 5.5341 2.3812
-6.6486 5.3318 2.3812
-6.8678 5.1194 2.3812
-7.0788 4.8972 2.3812
-7.2811 4.6656 2.3812
-7.4741 4.4248 2.3812
-7.6574 4.1753 2.3812
-7.8304 3.9175 2.3812
-7.9927 3.6519 2.3812
-8.1438 3.3787 2.3812
-8.2833 3.0987 2.3812
-8.4108 2.8123 2.3812
-8.5260 2.5201 2.3812
-8.6285 2.2226 2.3812
-8.7181 1.9205 2.3812
-8.7943 1.6144 2.3812
-8.8572 1.3049 2.3812
-8.9064 0.9927 2.3812
-8.9417 0.6785 2.3812
-8.9633 0.3629 2.3812
-8.9708 0.0466 2.3812
-8.9644 -0.2697 2.3812
-8.9440 -0.5853 2.3812
-8.9097 -0.8995 2.3812
-8.8617 -1.2117 2.3812
-8.8000 -1.5211 2.3812
-8.7250 -1.8273 2.3812
-8.6367 -2.1294 2.3812
-8.5355 -2.4269 2.3812
-8.4217 -2.7191 2.3812
-8.2955 -3.0056 2.3812
-8.1575 -3.2857 2.3812
-8.0079 -3.5590 2.3812
-7.8471 -3.8249 2.3812
-7.6758 -4.0829 2.3812
-7.4942 -4.3327 2.3812
-7.3029 -4.5738 2.3812
-7.1024 -4.8058 2.3812
-6.8932 -5.0285 2.3812
-6.6759 -5.2415 2.3812
-6.4509 -5.4445 2.3812
-6.2189 -5.6373 2.3812
-5.9804 -5.8198 2.3812
-5.7358 -5.9917 2.3812
-5.4858 -6.1528 2.3812
-5.2310 -6.3032 2.3812
-4.9718 -6.4427 2.3812
-4.7087 -6.5712 2.3812
-4.4424 -6.6887 2.3812
-4.1733 -6.7953 2.3812
-3.9019 -6.8910 2.3813
-3.6288 -6.9757 2.3813
-3.3543 -7.0497 2.3813
-3.0790 -7.1129 2.3813
-2.8032 -7.1655 2.3813
-2.5276 -7.2076 2.3813
-2.2523 -7.2394 2.3813
-1.9780 -7.2610 2.3813
-1.7048 -7.2726 2.3813
-1.4333 -7.2744 2.3813
-1.1637 -7.2665 2.3813
-0.8964 -7.2492 2.3813
-0.6317 -7.2227 2.3813
-0.3699 -7.1873 2.3813
-0.1112 -7.1430 2.3813
0.1439 -7.0904 2.3813
0.3954 -7.0292 2.3813
0.6430 -6.9600 2.3813
0.8864 -6.8831 2.3813
1.1254 -6.7984 2.3813
1.3599 -6.7065 2.3813
1.5897 -6.6075 2.3813
1.8145 -6.5016 2.3813
2.0343 -6.3890 2.3813
2.2489 -6.2701 2.3813
2.4582 -6.1449 2.3813
2.6619 -6.0139 2.3813
2.8602 -5.8772 2.3813
3.0527 -5.7350 2.3813
3.2395 -5.5875 2.3813
3.4204 -5.4350 2.3813
3.5954 -5.2777 2.3813
3.7643 -5.1158 2.3813
3.9272 -4.9495 2.3813
4.0840 -4.7790 2.3813
4.2345 -4.6045 2.3813
4.3788 -4.4263 2.3813
4.5169 -4.2445 2.3813
4.6486 -4.0592 2.3813
4.7739 -3.8708 2.3813
4.8929 -3.6793 2.3813
5.0055 -3.4850 2.3813
5.1116 -3.2880 2.3813
5.2112 -3.0886 2.3813
5.3044 -2.8868 2.3813
5.3910 -2.6828 2.3813
5.4712 -2.4769 2.3813
5.5448 -2.2691 2.3813
5.6118 -2.0597 2.3813
5.6724 -1.8488 2.3813
5.7263 -1.6365 2.3813
5.7737 -1.4230 2.3813
5.8145 -1.2085 2.3813
5.8487 -0.9932 2.3813
5.8763 -0.7771 2.3813
5.8974 -0.5604 2.3813
5.9118 -0.3432 2.3813
5.9196 -0.1258 2.3813
5.9209 0.0917 2.3813
5.9155 0.3093 2.3813
5.9035 0.5267 2.3813
5.8849 0.7437 2.3813
5.8597 0.9603 2.3813
5.8279 1.1763 2.3813
5.7894 1.3915 2.3813
5.7444 1.6058 2.3813
5.6927 1.8190 2.3813
5.6344 2.0310 2.3813
5.5696 2.2415 2.3813
5.4981 2.4505 2.3813
5.4201 2.6578 2.3813
5.3354 2.8633 2.3813
5.2442 3.0666 2.3813
5.1465 3.2678 2.3813
5.0422 3.4665 2.3813
4.9314 3.6627 2.3813
4.8141 3.8561 2.3813
4.6903 4.0465 2.3813
4.5600 4.2339 2.3813
4.4234 4.4178 2.3813
4.2803 4.5984 2.3813
4.1309 4.7751 2.3813
3.9752 4.9480 2.3813
3.7899 5.0853 2.3667
3.5487 5.1413 2.3182
3.3215 5.2066 2.2787
3.1052 5.2805 2.2470
2.9057 5.3782 2.2289
2.7258 5.5137 2.2289
2.5406 5.6442 2.2288
2.3499 5.7693 2.2288
2.1541 5.8888 2.2288
1.9531 6.0027 2.2288
0.7787 2.7231 0.9933
0.6806 2.7518 0.9873
0.5816 2.7769 0.9813
0.4817 2.7984 0.9752
0.3811 2.8163 0.9691
0.2800 2.8305 0.9629
0.1783 2.8410 0.9567
0.0764 2.8479 0.9505
-0.0258 2.8510 0.9443
-0.1280 2.8505 0.9381
-0.2301 2.8462 0.9318
-0.3320 2.8383 0.9256
-0.4335 2.8267 0.9194
-0.5346 2.8114 0.9132
-0.6350 2.7924 0.9070
-0.7347 2.7698 0.9009
-0.8335 2.7437 0.8948
-0.9313 2.7139 0.8888
-2.7724 7.2299 2.3812
-3.0499 7.1785 2.3812
-3.3271 7.1164 2.3812
-3.6034 7.0434 2.3812
-3.8784 6.9595 2.3812
-4.1516 6.8646 2.3812
-4.4225 6.7586 2.3812
-4.6906 6.6415 2.3812
-4.9554 6.5134 2.3812
-5.2162 6.3742 2.3812
-5.4727 6.2240 2.3812
-5.7243 6.0629 2.3812
-5.9703 5.8909 2.3812
-6.2103 5.7084 2.3812
-6.4436 5.5153 2.3812
-6.6698 5.3120 2.3812
-6.8883 5.0986 2.3812
-7.0985 4.8756 2.3812
-7.2999 4.6431 2.3812
-7.4920 4.4015 2.3812
-7.6743 4.1512 2.3812
-7.8463 3.8926 2.3812
-8.0075 3.6262 2.3812
-8.1576 3.3524 2.3812
-8.2960 3.0717 2.3812
-8.4223 2.7848 2.3812
-8.5363 2.4920 2.3812
-8.6376 2.1941 2.3812
-8.7259 1.8916 2.3812
-8.8009 1.5851 2.3812
-8.8624 1.2753 2.3812
-8.9103 0.9629 2.3812
-8.9444 0.6485 2.3812
-8.9646 0.3328 2.3812
-8.9708 0.0165 2.3812
-8.9630 -0.2997 2.3812
-8.9413 -0.6152 2.3812
-8.9058 -0.9293 2.3812
-8.8564 -1.2413 2.3812
-8.7935 -1.5505 2.3812
-8.7172 -1.8562 2.3812
-8.6276 -2.1579 2.3812
-8.5252 -2.4549 2.3812
-8.4102 -2.7467 2.3812
-8.2829 -3.0325 2.3812
-8.1437 -3.3120 2.3812
-7.9930 -3.5846 2.3812
-7.8313 -3.8497 2.3812
-7.6589 -4.1070 2.3812
-7.4764 -4.3560 2.3812
-7.2842 -4.5962 2.3812
-7.0829 -4.8274 2.3812
-6.8729 -5.0492 2.3812
-6.6548 -5.2612 2.3812
-6.4292 -5.4633 2.3812
-6.1965 -5.6552 2.3812
-5.9573 -5.8366 2.3812
-5.7123 -6.0075 2.3812
-5.4618 -6.1676 2.3812
-5.2065 -6.3169 2.3812
-4.9469 -6.4553 2.3812
-4.6835 -6.5828 2.3812
-4.4169 -6.6993 2.3812
-4.1476 -6.8049 2.3812
-3.8760 -6.8995 2.3813
-3.6027 -6.9832 2.3813
-3.3281 -7.0561 2.3813
-3.0527 -7.1183 2.3813
-2.7770 -7.1699 2.3813
-2.5014 -7.2110 2.3813
-2.2262 -7.2419 2.3813
-1.9519 -7.2625 2.3813
-1.6789 -7.2732 2.3813
-1.4075 -7.2740 2.3813
-1.1382 -7.2653 2.3813
-0.8711 -7.2471 2.3813
-0.6066 -7.2198 2.3813
-0.3451 -7.1834 2.3813
-0.0868 -7.1384 2.3813
0.1680 -7.0848 2.3813
0.4192 -7.0229 2.3813
0.6663 -6.9530 2.3813
0.9093 -6.8753 2.3813
1.1479 -6.7900 2.3813
1.3820 -6.6974 2.3813
1.6113 -6.5977 2.3813
1.8357 -6.4911 2.3813
2.0550 -6.3780 2.3813
2.2690 -6.2584 2.3813
2.4778 -6.1327 2.3813
2.6810 -6.0011 2.3813
2.8787 -5.8639 2.3813
3.0707 -5.7212 2.3813
3.2569 -5.5732 2.3813
3.4373 -5.4202 2.3813
3.6117 -5.2625 2.3813
3.7801 -5.1001 2.3813
3.9424 -4.9334 2.3813
4.0986 -4.7626 2.3813
4.2485 -4.5878 2.3813
4.3922 -4.4091 2.3813
4.5297 -4.2270 2.3813
4.6608 -4.0414 2.3813
4.7855 -3.8527 2.3813
4.9039 -3.6610 2.3813
5.0158 -3.4664 2.3813
5.1213 -3.2692 2.3813
5.2204 -3.0695 2.3813
5.3129 -2.8674 2.3813
5.3989 -2.6633 2.3813
5.4784 -2.4572 2.3813
5.5514 -2.2493 2.3813
5.6179 -2.0397 2.3813
5.6778 -1.8286 2.3813
5.7311 -1.6162 2.3813
5.7778 -1.4027 2.3813
5.8180 -1.1881 2.3813
5.8516 -0.9726 2.3813
5.8786 -0.7565 2.3813
5.8990 -0.5397 2.3813
5.9128 -0.3225 2.3813
5.9200 -0.1051 2.3813
5.9206 0.1124 2.3813
5.9146 0.3300 2.3813
5.9020 0.5473 2.3813
5.8828 0.7643 2.3813
4.8743 -2.9171 2.3813
4.9632 -2.7283 2.3813
5.0459 -2.5374 2.3813
5.1225 -2.3445 2.3813
5.1929 -2.1498 2.3813
5.2571 -1.9535 2.3813
5.3151 -1.7557 2.3813
5.3669 -1.5565 2.3813
5.4125 -1.3561 2.3813
5.4518 -1.1548 2.3813
5.4848 -0.9525 2.3813
5.5117 -0.7495 2.3813
5.5322 -0.5459 2.3813
5.5465 -0.3418 2.3813
5.5545 -0.1375 2.3813
5.5562 0.0669 2.3813
5.5516 0.2714 2.3813
5.5408 0.4757 2.3813
5.5237 0.6797 2.3813
5.5003 0.8833 2.3813
5.4706 1.0862 2.3813
5.4346 1.2884 2.3813
5.3924 1.4897 2.3813
5.3439 1.6900 2.3813
5.2891 1.8890 2.3813
5.2281 2.0867 2.3813
5.1609 2.2828 2.3813
5.0874 2.4773 2.3813
5.0077 2.6699 2.3813
4.9218 2.8605 2.3813
4.8297 3.0489 2.3813
4.7315 3.2350 2.3813
4.6271 3.4186 2.3813
4.5166 3.5995 2.3813
4.4000 3.7775 2.3813
4.2774 3.9525 2.3813
4.1487 4.1243 2.3813
4.0141 4.2926 2.3813
3.8736 4.4573 2.3813
3.7272 4.6182 2.3813
3.5750 4.7751 2.3813
3.4171 4.9279 2.3813
3.2535 5.0762 2.3813
3.0842 5.2199 2.3813
2.8937 5.3297 2.3683
2.6868 5.4072 2.3442
2.4851 5.4915 2.3262
2.2873 5.5839 2.3146
2.0925 5.6857 2.3095
0.8180 2.4974 0.9955
0.7280 2.5276 0.9900
0.6370 2.5545 0.9845
0.5451 2.5781 0.9789
0.4523 2.5984 0.9732
0.3589 2.6153 0.9675
0.2650 2.6288 0.9618
0.1706 2.6389 0.9561
0.0759 2.6456 0.9503
-0.0190 2.6488 0.9445
-0.1140 2.6486 0.9387
-0.2088 2.6450 0.9329
-0.3035 2.6379 0.9271
-0.3979 2.6275 0.9213
-0.4918 2.6136 0.9156
-0.5852 2.5963 0.9099
-0.6779 2.5756 0.9042
-0.7698 2.5516 0.8985
-0.8607 2.5243 0.8930
-0.9506 2.4937 0.8874
-2.8063 6.6415 2.3812
-3.0611 6.5817 2.3812
-3.3149 6.5120 2.3812
-3.5673 6.4323 2.3812
-3.8179 6.3426 2.3812
-4.0662 6.2427 2.3812
-4.3117 6.1328 2.3812
-4.5540 6.0128 2.3812
-4.7925 5.8828 2.3812
-5.0269 5.7428 2.3812
-5.2566 5.5930 2.3812
-5.4811 5.4334 2.3812
-5.7000 5.2641 2.3812
-5.9127 5.0855 2.3812
-6.1188 4.8976 2.3812
-6.3178 4.7007 2.3812
-6.5092 4.4950 2.3812
-6.6925 4.2809 2.3812
-6.8674 4.0587 2.3812
-7.0333 3.8286 2.3812
-7.1898 3.5912 2.3812
-7.3365 3.3467 2.3812
-7.4731 3.0956 2.3812
-7.5991 2.8384 2.3812
-7.7142 2.5755 2.3812
-7.8182 2.3075 2.3812
-7.9107 2.0348 2.3812
-7.9915 1.7580 2.3812
-8.0603 1.4776 2.3812
-8.1170 1.1943 2.3812
-8.1614 0.9086 2.3812
-8.1933 0.6210 2.3812
-8.2128 0.3322 2.3812
-8.2197 0.0429 2.3812
-8.2138 -0.2464 2.3812
-8.1957 -0.5353 2.3812
-8.1650 -0.8228 2.3812
-8.1218 -1.1086 2.3812
-8.0663 -1.3920 2.3812
-7.9987 -1.6724 2.3812
-7.9192 -1.9492 2.3812
-7.8280 -2.2220 2.3812
-7.7254 -2.4901 2.3812
-7.6116 -2.7531 2.3812
-7.4870 -3.0105 2.3812
-7.3520 -3.2618 2.3812
-7.2067 -3.5066 2.3812
-7.0518 -3.7443 2.3812
-6.8875 -3.9747 2.3812
-6.7143 -4.1974 2.3812
-6.5327 -4.4120 2.3812
-6.3430 -4.6182 2.3812
-6.1458 -4.8157 2.3812
-5.9415 -5.0043 2.3812
-5.7305 -5.1837 2.3812
-5.5135 -5.3538 2.3812
-5.2908 -5.5144 2.3812
-5.0630 -5.6653 2.3812
-4.8305 -5.8065 2.3812
-4.5938 -5.9377 2.3812
-4.3534 -6.0591 2.3813
-4.1097 -6.1705 2.3813
-3.8632 -6.2719 2.3813
-3.6145 -6.3633 2.3813
-3.3638 -6.4447 2.3813
-3.1117 -6.5163 2.3813
-2.8585 -6.5780 2.3813
-2.6048 -6.6300 2.3813
-2.3508 -6.6723 2.3813
-2.0970 -6.7050 2.3813
-1.8437 -6.7284 2.3813
-1.5913 -6.7425 2.3813
-1.3401 -6.7474 2.3813
-1.0905 -6.7434 2.3813
-0.8428 -6.7307 2.3813
-0.5972 -6.7093 2.3813
-0.3541 -6.6795 2.3813
-0.1137 -6.6415 2.3813
0.1237 -6.5955 2.3813
0.3579 -6.5416 2.3813
0.5886 -6.4801 2.3813
0.8156 -6.4113 2.3813
1.0388 -6.3352 2.3813
1.2579 -6.2522 2.3813
1.4728 -6.1624 2.3813
1.6832 -6.0661 2.3813
1.8891 -5.9635 2.3813
2.0903 -5.8547 2.3813
2.2866 -5.7400 2.3813
2.4779 -5.6197 2.3813
2.6642 -5.4939 2.3813
2.8452 -5.3628 2.3813
3.0209 -5.2267 2.3813
3.1912 -5.0856 2.3813
3.3561 -4.9400 2.3813
3.5153 -4.7899 2.3813
3.6690 -4.6355 2.3813
3.8169 -4.4771 2.3813
3.9591 -4.3148 2.3813
4.0954 -4.1489 2.3813
4.2259 -3.9794 2.3813
4.3504 -3.8066 2.3813
4.4690 -3.6307 2.3813
4.5816 -3.4518 2.3813
4.6881 -3.2702 2.3813
4.7886 -3.0859 2.3813
4.8831 -2.8992 2.3813
4.9713 -2.7102 2.3813
5.0535 -2.5191 2.3813
5.1295 -2.3261 2.3813
5.1993 -2.1312 2.3813
5.2629 -1.9347 2.3813
5.3203 -1.7368 2.3813
5.3715 -1.5375 2.3813
5.4165 -1.3370 2.3813
5.4552 -1.1355 2.3813
5.4877 -0.9332 2.3813
5.5139 -0.7301 2.3813
5.5338 -0.5265 2.3813
5.5475 -0.3224 2.3813
5.5549 -0.1181 2.3813
5.5560 0.0864 2.3813
5.5509 0.2908 2.3813
5.5394 0.4951 2.3813
5.5217 0.6991 2.3813
5.4977 0.9026 2.3813
5.4674 1.1055 2.3813
5.4309 1.3076 2.3813
5.3881 1.5088 2.3813
5.3390 1.7089 2.3813
5.2836 1.9079 2.3813
5.2220 2.1054 2.3813
5.1542 2.3014 2.3813
5.0801 2.4957 2.3813
4.9998 2.6881 2.3813
4.9133 2.8785 2.3813
4.8206 3.0668 2.3813
4.7218 3.2526 2.3813
4.6168 3.4359 2.3813
4.5057 3.6166 2.3813
4.3886 3.7943 2.3813
4.2654 3.9690 2.3813
4.1362 4.1404 2.3813
4.0010 4.3084 2.3813
3.8599 4.4728 2.3813
3.7130 4.6333 2.3813
3.5602 4.7899 2.3813
3.4018 4.9422 2.3813
3.2376 5.0901 2.3813
3.0679 5.2333 2.3813
2.8739 5.3370 2.3658
2.6673 5.4147 2.3421
2.4660 5.4997 2.3247
2.2687 5.5931 2.3138
2.0740 5.6960 2.3094
0.8095 2.5004 0.9949
0.7194 2.5303 0.9895
0.6283 2.5569 0.9839
0.5363 2.5802 0.9783
0.4435 2.6001 0.9727
0.3500 2.6167 0.9670
0.2560 2.6299 0.9613
0.1616 2.6397 0.9555
0.0669 2.6460 0.9497
-0.0280 2.6489 0.9439
-0.1230 2.6484 0.9381
-0.2179 2.6445 0.9323
-0.3125 2.6371 0.9266
-0.4069 2.6263 0.9208
-0.5007 2.6121 0.9150
-0.5941 2.5945 0.9093
-0.6867 2.5735 0.9036
-0.7785 2.5492 0.8980
-0.8693 2.5215 0.8924
-0.9591 2.4907 0.8869
-2.8305 6.6362 2.3812
-3.0853 6.5755 2.3812
-3.3390 6.5049 2.3812
-3.5913 6.4242 2.3812
-3.8416 6.3335 2.3812
-4.0897 6.2327 2.3812
-4.3349 6.1218 2.3812
-4.5768 6.0009 2.3812
-4.8150 5.8699 2.3812
-5.0490 5.7290 2.3812
-5.2782 5.5782 2.3812
-5.5022 5.4177 2.3812
-5.7205 5.2475 2.3812
-5.9326 5.0680 2.3812
-6.1381 4.8792 2.3812
-6.3364 4.6815 2.3812
-6.5270 4.4750 2.3812
-6.7096 4.2601 2.3812
-6.8835 4.0371 2.3812
-7.0486 3.8064 2.3812
-7.2041 3.5682 2.3812
-7.3499 3.3231 2.3812
-7.4855 3.0714 2.3812
-7.6105 2.8136 2.3812
-7.7246 2.5502 2.3812
-7.8275 2.2817 2.3812
-7.9189 2.0086 2.3812
-7.9986 1.7315 2.3812
-8.0662 1.4508 2.3812
-8.1218 1.1672 2.3812
-8.1650 0.8813 2.3812
-8.1957 0.5936 2.3812
-8.2140 0.3047 2.3812
-8.2197 0.0153 2.3812
-8.2128 -0.2740 2.3812
-8.1933 -0.5627 2.3812
-8.1614 -0.8501 2.3812
-8.1170 -1.1357 2.3812
-8.0604 -1.4188 2.3812
-7.9917 -1.6988 2.3812
-7.9111 -1.9754 2.3812
-7.8188 -2.2477 2.3812
-7.7151 -2.5154 2.3812
-7.6003 -2.7779 2.3812
-7.4746 -3.0347 2.3812
-7.3386 -3.2854 2.3812
-7.1924 -3.5295 2.3812
-7.0366 -3.7666 2.3812
-6.8714 -3.9962 2.3812
-6.6974 -4.2181 2.3812
-6.5150 -4.4319 2.3812
-6.3246 -4.6373 2.3812
-6.1266 -4.8340 2.3812
-5.9217 -5.0218 2.3812
-5.7101 -5.2003 2.3812
-5.4925 -5.3695 2.3812
-5.2694 -5.5292 2.3812
-5.0411 -5.6792 2.3812
-4.8081 -5.8194 2.3812
-4.5711 -5.9497 2.3812
-4.3303 -6.0701 2.3813
-4.0864 -6.1805 2.3813
-3.8397 -6.2810 2.3813
-3.5907 -6.3714 2.3813
-3.3399 -6.4519 2.3813
-3.0876 -6.5226 2.3813
-2.8344 -6.5834 2.3813
-2.5806 -6.6344 2.3813
-2.3266 -6.6758 2.3813
-2.0728 -6.7077 2.3813
-1.8196 -6.7301 2.3813
-1.5673 -6.7433 2.3813
-1.3163 -6.7474 2.3813
-1.0668 -6.7426 2.3813
-0.8193 -6.7290 2.3813
-0.5740 -6.7068 2.3813
-0.3311 -6.6762 2.3813
-0.0910 -6.6375 2.3813
0.1461 -6.5907 2.3813
0.3800 -6.5360 2.3813
0.6104 -6.4739 2.3813
0.8370 -6.4044 2.3813
1.0598 -6.3276 2.3813
1.2785 -6.2440 2.3813
1.4930 -6.1536 2.3813
1.7030 -6.0566 2.3813
1.9085 -5.9534 2.3813
2.1092 -5.8440 2.3813
2.3050 -5.7288 2.3813
2.4959 -5.6080 2.3813
2.6816 -5.4816 2.3813
2.8622 -5.3501 2.3813
3.0374 -5.2134 2.3813
3.2072 -5.0720 2.3813
3.3715 -4.9259 2.3813
3.5302 -4.7754 2.3813
3.6833 -4.6207 2.3813
3.8307 -4.4618 2.3813
3.9723 -4.2992 2.3813
4.1080 -4.1329 2.3813
4.2380 -3.9631 2.3813
4.3619 -3.7900 2.3813
4.4800 -3.6138 2.3813
4.5920 -3.4347 2.3813
4.6980 -3.2528 2.3813
4.7979 -3.0683 2.3813
4.8917 -2.8813 2.3813
4.9794 -2.6921 2.3813
5.0610 -2.5008 2.3813
5.1364 -2.3076 2.3813
5.2056 -2.1126 2.3813
5.2686 -1.9160 2.3813
5.3255 -1.7179 2.3813
5.3761 -1.5185 2.3813
5.4204 -1.3179 2.3813
5.4586 -1.1163 2.3813
5.4904 -0.9139 2.3813
5.5160 -0.7108 2.3813
5.5354 -0.5071 2.3813
5.5485 -0.3030 2.3813
5.5553 -0.0986 2.3813
5.5558 0.1058 2.3813
5.5501 0.3103 2.3813
5.5380 0.5145 2.3813
5.5197 0.7185 2.3813
4.5801 -2.7459 2.3813
4.6644 -2.5686 2.3813
4.7430 -2.3892 2.3813
4.8157 -2.2079 2.3813
4.8826 -2.0247 2.3813
4.9436 -1.8400 2.3813
4.9988 -1.6538 2.3813
5.0480 -1.4663 2.3813
5.0913 -1.2776 2.3813
5.1287 -1.0879 2.3813
5.1601 -0.8974 2.3813
5.1855 -0.7061 2.3813
5.2051 -0.5143 2.3813
5.2186 -0.3220 2.3813
5.2262 -0.1294 2.3813
5.2278 0.0632 2.3813
5.2234 0.2559 2.3813
5.2131 0.4485 2.3813
5.1967 0.6407 2.3813
5.1744 0.8324 2.3813
5.1462 1.0236 2.3813
5.1119 1.2141 2.3813
5.0717 1.4036 2.3813
5.0255 1.5921 2.3813
4.9734 1.7794 2.3813
4.9154 1.9654 2.3813
4.8514 2.1499 2.3813
4.7816 2.3327 2.3813
4.7058 2.5137 2.3813
4.6242 2.6927 2.3813
4.5368 2.8696 2.3813
4.4435 3.0442 2.3813
4.3444 3.2164 2.3813
4.2396 3.3859 2.3813
4.1290 3.5526 2.3813
4.0128 3.7163 2.3813
3.8910 3.8769 2.3813
3.7635 4.0342 2.3813
3.6305 4.1879 2.3813
3.4920 4.3380 2.3813
3.3481 4.4842 2.3813
3.1989 4.6263 2.3813
3.0444 4.7642 2.3813
2.8847 4.8976 2.3813
2.7199 5.0264 2.3813
2.5500 5.1504 2.3813
2.3753 5.2694 2.3812
2.1958 5.3831 2.3812
0.8420 2.2985 0.9967
0.7591 2.3297 0.9917
0.6752 2.3578 0.9866
0.5903 2.3829 0.9814
0.5046 2.4049 0.9762
0.4181 2.4238 0.9710
0.3309 2.4396 0.9657
0.2433 2.4522 0.9603
0.1552 2.4616 0.9549
0.0669 2.4678 0.9496
-0.0216 2.4708 0.9442
-0.1102 2.4707 0.9387
-0.1987 2.4673 0.9333
-0.2870 2.4607 0.9279
-0.3750 2.4509 0.9225
-0.4627 2.4380 0.9172
-0.5498 2.4218 0.9118
-0.6362 2.4026 0.9065
-0.7219 2.3802 0.9013
-0.8068 2.3547 0.8961
-0.8906 2.3262 0.8909
-2.6167 6.1683 2.3812
-2.8522 6.1101 2.3812
-3.0865 6.0428 2.3812
-3.3194 5.9663 2.3812
-3.5503 5.8805 2.3812
-3.7790 5.7855 2.3812
-4.0049 5.6813 2.3812
-4.2277 5.5679 2.3812
-4.4469 5.4453 2.3812
-4.6620 5.3137 2.3812
-4.8727 5.1730 2.3812
-5.0785 5.0235 2.3812
-5.2790 4.8652 2.3812
-5.4736 4.6984 2.3812
-5.6622 4.5233 2.3812
-5.8440 4.3400 2.3812
-6.0188 4.1488 2.3812
-6.1862 3.9500 2.3812
-6.3457 3.7439 2.3812
-6.4970 3.5307 2.3812
-6.6396 3.3109 2.3812
-6.7733 3.0847 2.3812
-6.8976 2.8527 2.3812
-7.0124 2.6151 2.3812
-7.1172 2.3725 2.3812
-7.2117 2.1253 2.3812
-7.2959 1.8739 2.3812
-7.3693 1.6188 2.3812
-7.4319 1.3605 2.3812
-7.4834 1.0996 2.3812
-7.5238 0.8365 2.3812
-7.5529 0.5718 2.3812
-7.5706 0.3060 2.3812
-7.5769 0.0397 2.3812
-7.5718 -0.2267 2.3812
-7.5553 -0.4925 2.3812
-7.5274 -0.7572 2.3812
-7.4883 -1.0203 2.3812
-7.4380 -1.2813 2.3812
-7.3767 -1.5397 2.3812
-7.3045 -1.7948 2.3812
-7.2217 -2.0464 2.3812
-7.1284 -2.2938 2.3812
-7.0250 -2.5366 2.3812
-6.9117 -2.7744 2.3812
-6.7888 -3.0066 2.3812
-6.6566 -3.2331 2.3812
-6.5154 -3.4532 2.3812
-6.3657 -3.6668 2.3812
-6.2077 -3.8734 2.3812
-6.0420 -4.0727 2.3812
-5.8687 -4.2645 2.3812
-5.6885 -4.4484 2.3812
-5.5017 -4.6243 2.3812
-5.3086 -4.7919 2.3812
-5.1099 -4.9510 2.3812
-4.9057 -5.1014 2.3813
-4.6968 -5.2431 2.3813
-4.4833 -5.3759 2.3813
-4.2658 -5.4997 2.3813
-4.0448 -5.6144 2.3813
-3.8205 -5.7200 2.3813
-3.5935 -5.8165 2.3813
-3.3642 -5.9038 2.3813
-3.1329 -5.9820 2.3813
-2.9000 -6.0510 2.3813
-2.6661 -6.1110 2.3813
-2.4313 -6.1619 2.3813
-2.1961 -6.2040 2.3813
-1.9609 -6.2372 2.3813
-1.7260 -6.2616 2.3813
-1.4917 -6.2774 2.3813
-1.2583 -6.2848 2.3813
-1.0262 -6.2838 2.3813
-0.7956 -6.2745 2.3813
-0.5669 -6.2572 2.3813
-0.3402 -6.2320 2.3813
-0.1159 -6.1991 2.3813
0.1058 -6.1587 2.3813
0.3247 -6.1108 2.3813
0.5405 -6.0558 2.3813
0.7530 -5.9938 2.3813
0.9621 -5.9250 2.3813
1.1675 -5.8495 2.3813
1.3691 -5.7676 2.3813
1.5667 -5.6795 2.3813
1.7601 -5.5854 2.3813
1.9493 -5.4854 2.3813
2.1340 -5.3798 2.3813
2.3141 -5.2687 2.3813
2.4895 -5.1524 2.3813
2.6602 -5.0310 2.3813
2.8259 -4.9047 2.3813
2.9867 -4.7738 2.3813
3.1423 -4.6384 2.3813
3.2928 -4.4987 2.3813
3.4380 -4.3548 2.3813
3.5780 -4.2070 2.3813
3.7125 -4.0555 2.3813
3.8415 -3.9004 2.3813
3.9651 -3.7419 2.3813
4.0831 -3.5802 2.3813
4.1955 -3.4154 2.3813
4.3023 -3.2478 2.3813
4.4034 -3.0774 2.3813
4.4987 -2.9045 2.3813
4.5883 -2.7292 2.3813
4.6722 -2.5516 2.3813
4.7502 -2.3720 2.3813
4.8223 -2.1905 2.3813
4.8887 -2.0072 2.3813
4.9491 -1.8223 2.3813
5.0037 -1.6360 2.3813
5.0524 -1.4484 2.3813
5.0951 -1.2596 2.3813
5.1319 -1.0698 2.3813
5.1627 -0.8792 2.3813
5.1877 -0.6879 2.3813
5.2066 -0.4960 2.3813
5.2196 -0.3037 2.3813
5.2266 -0.1111 2.3813
5.2276 0.0816 2.3813
5.2227 0.2743 2.3813
5.2118 0.4668 2.3813
5.1949 0.6589 2.3813
5.1720 0.8507 2.3813
5.1431 1.0418 2.3813
5.1083 1.2321 2.3813
5.0676 1.4216 2.3813
5.0208 1.6100 2.3813
4.9682 1.7972 2.3813
4.9096 1.9830 2.3813
4.8451 2.1673 2.3813
4.7746 2.3500 2.3813
4.6983 2.5308 2.3813
4.6161 2.7097 2.3813
4.5281 2.8864 2.3813
4.4343 3.0607 2.3813
4.3347 3.2326 2.3813
4.2293 3.4019 2.3813
4.1182 3.5683 2.3813
4.0015 3.7317 2.3813
3.8791 3.8920 2.3813
3.7511 4.0490 2.3813
3.6176 4.2024 2.3813
3.4786 4.3521 2.3813
3.3342 4.4979 2.3813
3.1844 4.6396 2.3813
3.0294 4.7771 2.3813
2.8692 4.9101 2.3813
2.7039 5.0384 2.3813
2.5336 5.1619 2.3813
2.3584 5.2804 2.3812
2.1785 5.3936 2.3812
0.8342 2.3016 0.9963
0.7512 2.3325 0.9912
0.6672 2.3604 0.9861
0.5822 2.3852 0.9809
0.4964 2.4069 0.9757
0.4098 2.4255 0.9705
0.3226 2.4409 0.9652
0.2349 2.4532 0.9598
0.1468 2.4623 0.9544
0.0585 2.4683 0.9490
-0.0300 2.4710 0.9436
-0.1186 2.4705 0.9382
-0.2071 2.4668 0.9328
-0.2954 2.4599 0.9274
-0.3834 2.4498 0.9220
-0.4710 2.4366 0.9167
-0.5580 2.4201 0.9113
-0.6444 2.4006 0.9060
-0.7300 2.3779 0.9008
-0.8148 2.3521 0.8956
-0.8986 2.3233 0.8904
-2.6391 6.1631 2.3812
-2.8745 6.1041 2.3812
-3.1087 6.0359 2.3812
-3.3414 5.9585 2.3812
-3.5722 5.8719 2.3812
-3.8006 5.7760 2.3812
-4.0263 5.6709 2.3812
-4.2487 5.5566 2.3812
-4.4675 5.4332 2.3812
-4.6822 5.3007 2.3812
-4.8925 5.1591 2.3812
-5.0978 5.0088 2.3812
-5.2977 4.8498 2.3812
-5.4919 4.6821 2.3812
-5.6798 4.5062 2.3812
-5.8610 4.3221 2.3812
-6.0351 4.1302 2.3812
-6.2017 3.9307 2.3812
-6.3605 3.7239 2.3812
-6.5109 3.5101 2.3812
-6.6527 3.2896 2.3812
-6.7855 3.0629 2.3812
-6.9090 2.8303 2.3812
-7.0228 2.5923 2.3812
-7.1266 2.3492 2.3812
-7.2202 2.1015 2.3812
-7.3033 1.8497 2.3812
-7.3757 1.5943 2.3812
-7.4373 1.3358 2.3812
-7.4878 1.0746 2.3812
-7.5271 0.8114 2.3812
-7.5551 0.5466 2.3812
-7.5717 0.2807 2.3812
-7.5769 0.0143 2.3812
-7.5707 -0.2520 2.3812
-7.5532 -0.5177 2.3812
-7.5242 -0.7823 2.3812
-7.4840 -1.0452 2.3812
-7.4326 -1.3060 2.3812
-7.3703 -1.5641 2.3812
-7.2971 -1.8189 2.3812
-7.2133 -2.0701 2.3812
-7.1190 -2.3171 2.3812
-7.0147 -2.5594 2.3812
-6.9004 -2.7967 2.3812
-6.7766 -3.0285 2.3812
-6.6435 -3.2543 2.3812
-6.5015 -3.4739 2.3812
-6.3510 -3.6868 2.3812
-6.1923 -3.8927 2.3812
-6.0258 -4.0913 2.3812
-5.8519 -4.2823 2.3812
-5.6710 -4.4655 2.3812
-5.4836 -4.6406 2.3812
-5.2900 -4.8074 2.3812
-5.0907 -4.9656 2.3812
-4.8861 -5.1153 2.3813
-4.6766 -5.2561 2.3813
-4.4628 -5.3881 2.3813
-4.2450 -5.5110 2.3813
-4.0236 -5.6249 2.3813
-3.7990 -5.7296 2.3813
-3.5718 -5.8252 2.3813
-3.3422 -5.9116 2.3813
-3.1108 -5.9889 2.3813
-2.8778 -6.0571 2.3813
-2.6438 -6.1162 2.3813
-2.4089 -6.1663 2.3813
-2.1738 -6.2075 2.3813
-1.9386 -6.2399 2.3813
-1.7037 -6.2635 2.3813
-1.4694 -6.2785 2.3813
-1.2362 -6.2850 2.3813
-1.0042 -6.2832 2.3813
-0.7738 -6.2732 2.3813
-0.5452 -6.2552 2.3813
-0.3187 -6.2292 2.3813
-0.0947 -6.1956 2.3813
0.1268 -6.1544 2.3813
0.3453 -6.1059 2.3813
0.5608 -6.0503 2.3813
0.7731 -5.9875 2.3813
0.9818 -5.9181 2.3813
1.1868 -5.8420 2.3813
1.3881 -5.7595 2.3813
1.5853 -5.6708 2.3813
1.7783 -5.5761 2.3813
1.9670 -5.4756 2.3813
2.1513 -5.3694 2.3813
2.3310 -5.2579 2.3813
2.5060 -5.1410 2.3813
2.6762 -5.0192 2.3813
2.8414 -4.8925 2.3813
3.0017 -4.7611 2.3813
3.1569 -4.6253 2.3813
3.3069 -4.4851 2.3813
3.4516 -4.3409 2.3813
3.5910 -4.1928 2.3813
3.7250 -4.0409 2.3813
3.8535 -3.8855 2.3813
3.9766 -3.7267 2.3813
4.0940 -3.5647 2.3813
4.2059 -3.3996 2.3813
4.3121 -3.2317 2.3813
4.4127 -3.0611 2.3813
4.5075 -2.8879 2.3813
4.5966 -2.7124 2.3813
4.6798 -2.5346 2.3813
4.7573 -2.3548 2.3813
4.8289 -2.1731 2.3813
4.8947 -1.9897 2.3813
4.9546 -1.8047 2.3813
5.0086 -1.6182 2.3813
5.0567 -1.4305 2.3813
5.0988 -1.2416 2.3813
5.1351 -1.0517 2.3813
5.1654 -0.8610 2.3813
5.1897 -0.6696 2.3813
5.2081 -0.4777 2.3813
5.2205 -0.2854 2.3813
5.2270 -0.0928 2.3813
5.2274 0.0999 2.3813
5.2219 0.2926 2.3813
5.2104 0.4851 2.3813
5.1929 0.6772 2.3813
4.3141 -2.5913 2.3813
4.3943 -2.4242 2.3813
4.4690 -2.2552 2.3813
4.5382 -2.0842 2.3813
4.6019 -1.9115 2.3813
4.6599 -1.7373 2.3813
4.7124 -1.5616 2.3813
4.7593 -1.3847 2.3813
4.8005 -1.2065 2.3813
4.8360 -1.0274 2.3813
4.8660 -0.8475 2.3813
4.8902 -0.6668 2.3813
4.9088 -0.4856 2.3813
4.9216 -0.3040 2.3813
4.9288 -0.1221 2.3813
4.9303 0.0599 2.3813
4.9261 0.2419 2.3813
4.9162 0.4238 2.3813
4.9006 0.6053 2.3813
4.8794 0.7864 2.3813
4.8524 0.9670 2.3813
4.8197 1.1468 2.3813
4.7814 1.3257 2.3813
4.7374 1.5036 2.3813
4.6878 1.6803 2.3813
4.6325 1.8557 2.3813
4.5716 2.0296 2.3813
4.5051 2.2020 2.3813
4.4330 2.3725 2.3813
4.3553 2.5411 2.3813
4.2721 2.7076 2.3813
4.1834 2.8719 2.3813
4.0893 3.0338 2.3813
3.9896 3.1931 2.3813
3.8846 3.3497 2.3813
3.7743 3.5034 2.3813
3.6586 3.6540 2.3813
3.5377 3.8014 2.3813
3.4116 3.9454 2.3813
3.2803 4.0858 2.3813
3.1440 4.2225 2.3813
3.0027 4.3552 2.3813
2.8565 4.4838 2.3813
2.7054 4.6082 2.3813
2.5496 4.7281 2.3813
2.3892 4.8433 2.3813
2.2242 4.9537 2.3813
0.8609 2.1197 0.9977
0.7844 2.1516 0.9931
0.7069 2.1808 0.9884
0.6283 2.2071 0.9836
0.5489 2.2306 0.9788
0.4686 2.2511 0.9739
0.3876 2.2688 0.9689
0.3061 2.2836 0.9640
0.2240 2.2953 0.9590
0.1416 2.3041 0.9540
0.0589 2.3099 0.9489
-0.0239 2.3128 0.9439
-0.1068 2.3126 0.9388
-0.1897 2.3094 0.9337
-0.2723 2.3032 0.9287
-0.3547 2.2941 0.9236
-0.4367 2.2820 0.9186
-0.5183 2.2669 0.9136
-0.5992 2.2488 0.9086
-0.6794 2.2279 0.9037
-0.7588 2.2040 0.8989
-0.8373 2.1774 0.8940
-0.9148 2.1478 0.8893
-2.6682 5.6950 2.3812
-2.8856 5.6301 2.3812
-3.1015 5.5567 2.3812
-3.3154 5.4748 2.3812
-3.5270 5.3844 2.3812
-3.7359 5.2855 2.3812
-3.9418 5.1781 2.3812
-4.1442 5.0623 2.3812
-4.3428 4.9382 2.3812
-4.5371 4.8058 2.3812
-4.7268 4.6654 2.3812
-4.9114 4.5170 2.3812
-5.0906 4.3608 2.3812
-5.2640 4.1970 2.3812
-5.4312 4.0258 2.3812
-5.5919 3.8474 2.3812
-5.7456 3.6620 2.3812
-5.8920 3.4701 2.3812
-6.0308 3.2717 2.3812
-6.1616 3.0673 2.3812
-6.2842 2.8573 2.3812
-6.3981 2.6418 2.3812
-6.5032 2.4214 2.3812
-6.5992 2.1964 2.3812
-6.6858 1.9673 2.3812
-6.7628 1.7343 2.3812
-6.8300 1.4981 2.3812
-6.8873 1.2590 2.3812
-6.9345 1.0175 2.3812
-6.9714 0.7741 2.3812
-6.9981 0.5292 2.3812
-7.0143 0.2833 2.3812
-7.0201 0.0369 2.3812
-7.0155 -0.2095 2.3812
-7.0005 -0.4554 2.3812
-6.9751 -0.7003 2.3812
-6.9394 -0.9438 2.3812
-6.8934 -1.1854 2.3812
-6.8374 -1.4246 2.3812
-6.7714 -1.6610 2.3812
-6.6957 -1.8940 2.3812
-6.6104 -2.1234 2.3812
-6.5158 -2.3486 2.3812
-6.4121 -2.5692 2.3812
-6.2995 -2.7850 2.3812
-6.1783 -2.9954 2.3812
-6.0490 -3.2001 2.3812
-5.9116 -3.3989 2.3812
-5.7667 -3.5913 2.3812
-5.6145 -3.7772 2.3812
-5.4553 -3.9562 2.3813
-5.2897 -4.1281 2.3813
-5.1178 -4.2926 2.3813
-4.9401 -4.4496 2.3813
-4.7571 -4.5988 2.3813
-4.5690 -4.7402 2.3813
-4.3762 -4.8736 2.3813
-4.1792 -4.9987 2.3813
-3.9784 -5.1157 2.3813
-3.7740 -5.2243 2.3813
-3.5666 -5.3245 2.3813
-3.3565 -5.4164 2.3813
-3.1440 -5.4997 2.3813
-2.9296 -5.5747 2.3813
-2.7136 -5.6412 2.3813
-2.4964 -5.6993 2.3813
-2.2783 -5.7490 2.3813
-2.0596 -5.7905 2.3813
-1.8407 -5.8237 2.3813
-1.6219 -5.8488 2.3813
-1.4035 -5.8658 2.3813
-1.1858 -5.8749 2.3813
-0.9691 -5.8762 2.3813
-0.7538 -5.8697 2.3813
-0.5399 -5.8558 2.3813
-0.3278 -5.8344 2.3813
-0.1178 -5.8057 2.3813
0.0899 -5.7699 2.3813
0.2951 -5.7271 2.3813
0.4976 -5.6775 2.3813
0.6972 -5.6213 2.3813
0.8936 -5.5587 2.3813
1.0867 -5.4898 2.3813
1.2764 -5.4147 2.3813
1.4624 -5.3337 2.3813
1.6446 -5.2469 2.3813
1.8229 -5.1546 2.3813
1.9971 -5.0568 2.3813
2.1672 -4.9539 2.3813
2.3328 -4.8459 2.3813
2.4941 -4.7330 2.3813
2.6507 -4.6155 2.3813
2.8028 -4.4934 2.3813
2.9501 -4.3671 2.3813
3.0926 -4.2366 2.3813
3.2301 -4.1021 2.3813
3.3627 -3.9638 2.3813
3.4902 -3.8218 2.3813
3.6127 -3.6764 2.3813
3.7299 -3.5277 2.3813
3.8419 -3.3759 2.3813
3.9487 -3.2211 2.3813
4.0501 -3.0635 2.3813
4.1461 -2.9032 2.3813
4.2367 -2.7405 2.3813
4.3219 -2.5755 2.3813
4.4017 -2.4082 2.3813
4.4758 -2.2390 2.3813
4.5445 -2.0679 2.3813
4.6076 -1.8950 2.3813
4.6652 -1.7206 2.3813
4.7171 -1.5448 2.3813
4.7634 -1.3677 2.3813
4.8041 -1.1895 2.3813
4.8391 -1.0104 2.3813
4.8685 -0.8303 2.3813
4.8922 -0.6496 2.3813
4.9102 -0.4684 2.3813
4.9226 -0.2867 2.3813
4.9292 -0.1048 2.3813
4.9302 0.0772 2.3813
4.9254 0.2592 2.3813
4.9150 0.4411 2.3813
4.8989 0.6226 2.3813
4.8770 0.8036 2.3813
4.8495 0.9841 2.3813
4.8163 1.1638 2.3813
4.7775 1.3427 2.3813
4.7329 1.5204 2.3813
4.6828 1.6970 2.3813
4.6269 1.8723 2.3813
4.5655 2.0461 2.3813
4.4984 2.2183 2.3813
4.4258 2.3886 2.3813
4.3476 2.5570 2.3813
4.2639 2.7234 2.3813
4.1747 2.8874 2.3813
4.0800 3.0491 2.3813
3.9799 3.2081 2.3813
3.8744 3.3644 2.3813
3.7635 3.5178 2.3813
3.6473 3.6682 2.3813
3.5259 3.8152 2.3813
3.3993 3.9589 2.3813
3.2676 4.0990 2.3813
3.1308 4.2352 2.3813
2.9890 4.3676 2.3813
2.8423 4.4959 2.3813
2.6908 4.6198 2.3813
2.5345 4.7392 2.3813
2.3736 4.8540 2.3813
2.2082 4.9640 2.3813
0.8537 2.1228 0.9973
0.7771 2.1545 0.9926
0.6995 2.1834 0.9879
0.6208 2.2094 0.9831
0.5412 2.2326 0.9783
0.4609 2.2530 0.9734
0.3799 2.2703 0.9685
0.2983 2.2848 0.9635
0.2162 2.2963 0.9585
0.1337 2.3048 0.9535
0.0510 2.3103 0.9484
-0.0318 2.3129 0.9434
-0.1147 2.3124 0.9383
-0.1975 2.3090 0.9332
-0.2802 2.3025 0.9282
-0.3625 2.2931 0.9231
-0.4445 2.2806 0.9181
-0.5260 2.2653 0.9131
-0.6069 2.2470 0.9082
-0.6870 2.2257 0.9033
-0.7663 2.2016 0.8984
-0.8447 2.1747 0.8936
-0.9221 2.1449 0.8888
-2.6890 5.6892 2.3812
-2.9062 5.6235 2.3812
-3.1219 5.5493 2.3812
-3.3356 5.4666 2.3812
-3.5470 5.3753 2.3812
-3.7557 5.2756 2.3812
-3.9612 5.1674 2.3812
-4.1633 5.0508 2.3812
-4.3614 4.9259 2.3812
-4.5553 4.7928 2.3812
-4.7444 4.6517 2.3812
-4.9287 4.5025 2.3812
-5.1074 4.3455 2.3812
-5.2802 4.1810 2.3812
-5.4468 4.0091 2.3812
-5.6068 3.8300 2.3812
-5.7598 3.6440 2.3812
-5.9055 3.4515 2.3812
-6.0436 3.2525 2.3812
-6.1736 3.0476 2.3812
-6.2954 2.8370 2.3812
-6.4085 2.6211 2.3812
-6.5127 2.4002 2.3812
-6.6078 2.1748 2.3812
-6.6935 1.9453 2.3812
-6.7696 1.7120 2.3812
-6.8359 1.4755 2.3812
-6.8922 1.2361 2.3812
-6.9384 0.9944 2.3812
-6.9744 0.7508 2.3812
-7.0001 0.5058 2.3812
-7.0153 0.2599 2.3812
-7.0202 0.0135 2.3812
-7.0145 -0.2329 2.3812
