ply
format ascii 1.0
element vertex 2178
property float32 x
property float32 y
property float32 z
end_header
5.0396 4.7482 2.3926
4.8567 4.9158 2.3926
4.6680 5.0762 2.3926
4.4739 5.2293 2.3926
4.2747 5.3750 2.3926
4.0707 5.5129 2.3926
3.8621 5.6431 2.3926
3.6494 5.7653 2.3926
3.4327 5.8794 2.3926
3.2124 5.9854 2.3926
2.9889 6.0832 2.3926
2.7625 6.1725 2.3926
2.5334 6.2535 2.3926
0.9054 2.4882 0.9411
0.8154 2.5188 0.9431
0.7243 2.5460 0.9451
0.6322 2.5700 0.9471
0.5394 2.5906 0.9491
0.4458 2.6079 0.9511
0.3517 2.6218 0.9531
0.2571 2.6322 0.9550
0.1622 2.6392 0.9570
0.0671 2.6428 0.9589
-0.0281 2.6430 0.9608
-0.1232 2.6397 0.9626
-0.2181 2.6330 0.9645
-0.3128 2.6228 0.9663
-0.4070 2.6092 0.9681
-0.5006 2.5923 0.9698
-0.5936 2.5719 0.9715
-0.6858 2.5482 0.9732
-0.7771 2.5212 0.9748
-0.8673 2.4909 0.9764
-2.3398 6.0120 2.3926
-2.5507 5.9131 2.3926
-2.7577 5.8072 2.3926
-2.9607 5.6942 2.3926
-3.1592 5.5746 2.3926
-3.3533 5.4483 2.3926
-3.5426 5.3156 2.3926
-3.7270 5.1766 2.3926
-3.9063 5.0316 2.3926
-4.0803 4.8807 2.3926
-4.2487 4.7241 2.3926
-4.4116 4.5619 2.3926
-4.5686 4.3944 2.3926
-4.7196 4.2219 2.3926
-4.8645 4.0444 2.3926
-5.0031 3.8623 2.3926
-5.1353 3.6757 2.3926
-5.2610 3.4848 2.3926
-5.3800 3.2899 2.3926
-5.4923 3.0911 2.3926
-5.5976 2.8887 2.3926
-5.6959 2.6830 2.3926
-5.7871 2.4741 2.3926
-5.8712 2.2623 2.3926
-5.9479 2.0477 2.3926
-6.0173 1.8308 2.3926
-6.0793 1.6116 2.3926
-6.1337 1.3905 2.3926
-6.1806 1.1676 2.3926
-6.2199 0.9432 2.3926
-6.2516 0.7176 2.3926
-6.2755 0.4909 2.3926
-6.2917 0.2635 2.3926
-6.3002 0.0356 2.3926
-6.3009 -0.1926 2.3926
-6.2938 -0.4208 2.3926
-6.2789 -0.6487 2.3926
-6.2563 -0.8762 2.3926
-6.2258 -1.1030 2.3926
-6.1876 -1.3287 2.3926
-6.1417 -1.5533 2.3926
-6.0880 -1.7763 2.3926
-6.0267 -1.9976 2.3926
-5.9577 -2.2169 2.3926
-5.8812 -2.4339 2.3926
-5.7971 -2.6485 2.3926
-5.7056 -2.8603 2.3926
-5.6068 -3.0691 2.3926
-5.5006 -3.2746 2.3926
-5.3873 -3.4767 2.3926
-5.2669 -3.6750 2.3926
-5.1395 -3.8693 2.3926
-5.0052 -4.0594 2.3926
-4.8642 -4.2450 2.3926
-4.7166 -4.4259 2.3926
-4.5624 -4.6019 2.3926
-4.4020 -4.7727 2.3926
-4.2354 -4.9380 2.3926
-4.0629 -5.0978 2.3926
-3.8845 -5.2516 2.3926
-3.7005 -5.3994 2.3926
-3.5110 -5.5409 2.3926
-3.3163 -5.6759 2.3926
-3.1166 -5.8042 2.3926
-2.9121 -5.9256 2.3926
-2.7029 -6.0399 2.3926
-2.4895 -6.1470 2.3926
-2.2719 -6.2465 2.3926
-2.0505 -6.3385 2.3926
-1.8254 -6.4227 2.3926
-1.5971 -6.4989 2.3926
-1.3657 -6.5670 2.3926
-1.1315 -6.6269 2.3926
-0.8949 -6.6785 2.3926
-0.6560 -6.7215 2.3926
-0.4153 -6.7560 2.3926
-0.1730 -6.7818 2.3926
0.0706 -6.7988 2.3926
0.3150 -6.8070 2.3926
0.5601 -6.8063 2.3926
0.8055 -6.7966 2.3926
1.0508 -6.7780 2.3926
1.2957 -6.7503 2.3926
1.5399 -6.7135 2.3926
1.7831 -6.6678 2.3926
2.0247 -6.6130 2.3926
2.2647 -6.5492 2.3926
2.5025 -6.4764 2.3926
2.7378 -6.3948 2.3926
2.9703 -6.3043 2.3926
3.1996 -6.2051 2.3926
3.4254 -6.0973 2.3926
3.6474 -5.9809 2.3926
3.8652 -5.8562 2.3926
4.0784 -5.7232 2.3926
4.2868 -5.5822 2.3926
4.4900 -5.4332 2.3926
4.6877 -5.2765 2.3926
4.8795 -5.1122 2.3926
5.0653 -4.9407 2.3926
5.2446 -4.7621 2.3926
5.4172 -4.5767 2.3926
5.5828 -4.3848 2.3926
5.7411 -4.1865 2.3926
5.8919 -3.9822 2.3926
6.0350 -3.7722 2.3926
6.1701 -3.5568 2.3926
6.2969 -3.3363 2.3926
6.4154 -3.1110 2.3926
6.5252 -2.8813 2.3926
6.6263 -2.6475 2.3926
6.7184 -2.4100 2.3926
6.8014 -2.1691 2.3926
6.8752 -1.9251 2.3926
6.9396 -1.6786 2.3926
6.9946 -1.4297 2.3926
7.0401 -1.1790 2.3926
7.0760 -0.9267 2.3926
7.1022 -0.6733 2.3926
7.1188 -0.4192 2.3926
7.1257 -0.1648 2.3926
7.1230 0.0897 2.3926
7.1105 0.3437 2.3926
7.0885 0.5969 2.3926
7.0569 0.8489 2.3926
7.0158 1.0993 2.3926
6.9652 1.3479 2.3926
6.9054 1.5941 2.3926
6.8363 1.8376 2.3926
1.1129 -6.3022 2.3926
1.3406 -6.2708 2.3926
1.5674 -6.2310 2.3926
1.7929 -6.1828 2.3926
2.0168 -6.1262 2.3926
2.2389 -6.0613 2.3926
2.4588 -5.9881 2.3926
2.6761 -5.9067 2.3926
2.8906 -5.8172 2.3926
3.1019 -5.7196 2.3926
3.3097 -5.6141 2.3926
3.5137 -5.5008 2.3926
3.7136 -5.3797 2.3926
3.9091 -5.2512 2.3926
4.0999 -5.1153 2.3926
4.2856 -4.9721 2.3926
4.4661 -4.8219 2.3926
4.6409 -4.6649 2.3926
4.8099 -4.5012 2.3926
4.9728 -4.3312 2.3926
5.1293 -4.1550 2.3926
5.2791 -3.9729 2.3926
5.4220 -3.7851 2.3926
5.5579 -3.5919 2.3926
5.6864 -3.3936 2.3926
5.8074 -3.1905 2.3926
5.9207 -2.9828 2.3926
6.0260 -2.7709 2.3926
6.1233 -2.5551 2.3926
6.2124 -2.3357 2.3926
6.2931 -2.1131 2.3926
6.3653 -1.8875 2.3926
6.4289 -1.6593 2.3926
6.4838 -1.4289 2.3926
6.5299 -1.1965 2.3926
6.5672 -0.9626 2.3926
6.5955 -0.7275 2.3926
6.6150 -0.4916 2.3926
6.6254 -0.2552 2.3926
6.6269 -0.0186 2.3926
6.6195 0.2177 2.3926
6.6031 0.4535 2.3926
6.5778 0.6883 2.3926
6.5437 0.9219 2.3926
6.5009 1.1538 2.3926
6.4493 1.3838 2.3926
6.3892 1.6115 2.3926
6.3206 1.8366 2.3926
6.2436 2.0587 2.3926
6.1585 2.2776 2.3926
6.0653 2.4928 2.3926
5.9642 2.7042 2.3926
5.8554 2.9114 2.3926
5.7391 3.1142 2.3926
5.6154 3.3122 2.3926
5.4847 3.5052 2.3926
5.3470 3.6930 2.3926
5.2026 3.8752 2.3926
5.0518 4.0517 2.3926
4.8949 4.2223 2.3926
4.7319 4.3867 2.3926
4.5633 4.5447 2.3926
4.3893 4.6961 2.3926
4.2101 4.8408 2.3926
4.0260 4.9786 2.3926
3.8373 5.1093 2.3926
3.6443 5.2328 2.3926
3.4473 5.3490 2.3926
3.2465 5.4578 2.3926
3.0423 5.5590 2.3926
2.8349 5.6525 2.3926
2.6247 5.7383 2.3926
2.4119 5.8163 2.3926
0.8637 2.3143 0.9407
0.7799 2.3434 0.9425
0.6951 2.3695 0.9444
0.6094 2.3925 0.9463
0.5229 2.4124 0.9482
0.4358 2.4292 0.9500
0.3481 2.4428 0.9519
0.2599 2.4532 0.9537
0.1715 2.4604 0.9555
0.0828 2.4645 0.9573
-0.0060 2.4653 0.9591
-0.0947 2.4629 0.9608
-0.1833 2.4573 0.9625
-0.2717 2.4485 0.9642
-0.3596 2.4365 0.9659
-0.4471 2.4213 0.9675
-0.5340 2.4030 0.9691
-0.6201 2.3816 0.9707
-0.7055 2.3570 0.9722
-0.7898 2.3294 0.9737
-0.8732 2.2988 0.9752
-2.3406 5.5497 2.3926
-2.5353 5.4526 2.3926
-2.7262 5.3488 2.3926
-2.9131 5.2387 2.3926
-3.0959 5.1224 2.3926
-3.2742 4.9999 2.3926
-3.4481 4.8715 2.3926
-3.6171 4.7374 2.3926
-3.7813 4.5976 2.3926
-3.9404 4.4525 2.3926
-4.0942 4.3021 2.3926
-4.2426 4.1467 2.3926
-4.3854 3.9864 2.3926
-4.5226 3.8215 2.3926
-4.6539 3.6521 2.3926
-4.7792 3.4784 2.3926
-4.8984 3.3006 2.3926
-5.0113 3.1190 2.3926
-5.1180 2.9338 2.3926
-5.2181 2.7451 2.3926
-5.3117 2.5531 2.3926
-5.3987 2.3582 2.3926
-5.4789 2.1604 2.3926
-5.5524 1.9601 2.3926
-5.6189 1.7574 2.3926
-5.6784 1.5526 2.3926
-5.7309 1.3459 2.3926
-5.7764 1.1375 2.3926
-5.8146 0.9276 2.3926
-5.8457 0.7165 2.3926
-5.8696 0.5044 2.3926
-5.8862 0.2916 2.3926
-5.8955 0.0783 2.3926
-5.8976 -0.1354 2.3926
-5.8923 -0.3491 2.3926
-5.8797 -0.5626 2.3926
-5.8598 -0.7756 2.3926
-5.8325 -0.9881 2.3926
-5.7980 -1.1996 2.3926
-5.7562 -1.4100 2.3926
-5.7072 -1.6190 2.3926
-5.6510 -1.8264 2.3926
-5.5876 -2.0319 2.3926
-5.5170 -2.2354 2.3926
-5.4395 -2.4365 2.3926
-5.3549 -2.6351 2.3926
-5.2634 -2.8309 2.3926
-5.1651 -3.0236 2.3926
-5.0601 -3.2131 2.3926
-4.9484 -3.3991 2.3926
-4.8301 -3.5813 2.3926
-4.7054 -3.7596 2.3926
-4.5744 -3.9337 2.3926
-4.4372 -4.1034 2.3926
-4.2939 -4.2685 2.3926
-4.1447 -4.4287 2.3926
-3.9897 -4.5839 2.3926
-3.8292 -4.7338 2.3926
-3.6632 -4.8782 2.3926
-3.4919 -5.0170 2.3926
-3.3155 -5.1498 2.3926
-3.1342 -5.2766 2.3926
-2.9483 -5.3971 2.3926
-2.7578 -5.5112 2.3926
-2.5631 -5.6187 2.3926
-2.3643 -5.7194 2.3926
-2.1616 -5.8131 2.3926
-1.9554 -5.8997 2.3926
-1.7458 -5.9790 2.3926
-1.5331 -6.0509 2.3926
-1.3175 -6.1153 2.3926
-1.0994 -6.1720 2.3926
-0.8790 -6.2209 2.3926
-0.6565 -6.2620 2.3926
-0.4323 -6.2950 2.3926
-0.2066 -6.3199 2.3926
0.0203 -6.3367 2.3926
0.2480 -6.3453 2.3926
0.4764 -6.3455 2.3926
0.7049 -6.3375 2.3926
0.9335 -6.3211 2.3926
1.1617 -6.2962 2.3926
1.3892 -6.2630 2.3926
1.6157 -6.2214 2.3926
1.8409 -6.1714 2.3926
2.0645 -6.1130 2.3926
2.2861 -6.0463 2.3926
2.5055 -5.9714 2.3926
2.7222 -5.8882 2.3926
2.9361 -5.7970 2.3926
3.1466 -5.6977 2.3926
3.3537 -5.5905 2.3926
3.5568 -5.4755 2.3926
3.7558 -5.3529 2.3926
3.9503 -5.2227 2.3926
4.1400 -5.0852 2.3926
4.3247 -4.9406 2.3926
4.5040 -4.7889 2.3926
4.6776 -4.6304 2.3926
4.8453 -4.4654 2.3926
5.0068 -4.2940 2.3926
5.1619 -4.1165 2.3926
5.3103 -3.9332 2.3926
5.4517 -3.7442 2.3926
5.5860 -3.5499 2.3926
5.7129 -3.3506 2.3926
5.8323 -3.1465 2.3926
5.9439 -2.9379 2.3926
6.0475 -2.7251 2.3926
6.1431 -2.5085 2.3926
6.2303 -2.2884 2.3926
6.3092 -2.0651 2.3926
6.3796 -1.8389 2.3926
6.4414 -1.6102 2.3926
6.4944 -1.3793 2.3926
6.5386 -1.1466 2.3926
6.5740 -0.9124 2.3926
6.6004 -0.6771 2.3926
6.6180 -0.4411 2.3926
6.6265 -0.2046 2.3926
6.6261 0.0320 2.3926
6.6167 0.2682 2.3926
6.5984 0.5038 2.3926
6.5713 0.7384 2.3926
6.5353 0.9717 2.3926
6.4906 1.2032 2.3926
6.4372 1.4327 2.3926
6.3752 1.6599 2.3926
6.3048 1.8843 2.3926
6.2261 2.1058 2.3926
6.1392 2.3239 2.3926
6.0443 2.5384 2.3926
5.9416 2.7489 2.3926
5.8312 2.9552 2.3926
5.7132 3.1569 2.3926
5.5881 3.3539 2.3926
5.4558 3.5458 2.3926
5.3167 3.7324 2.3926
5.1709 3.9134 2.3926
5.0188 4.0887 2.3926
4.8605 4.2580 2.3926
4.6963 4.4210 2.3926
4.5265 4.5776 2.3926
4.3514 4.7276 2.3926
4.1711 4.8709 2.3926
3.9860 5.0071 2.3926
3.7964 5.1363 2.3926
3.6025 5.2583 2.3926
3.4047 5.3729 2.3926
3.2031 5.4801 2.3926
2.9982 5.5796 2.3926
2.7902 5.6715 2.3926
2.5794 5.7556 2.3926
0.9288 2.2893 0.9392
0.8458 2.3208 0.9411
0.7618 2.3493 0.9430
0.6768 2.3747 0.9448
0.5910 2.3970 0.9467
0.5044 2.4163 0.9486
0.4171 2.4324 0.9504
0.3293 2.4453 0.9523
0.2411 2.4550 0.9541
0.1525 2.4616 0.9559
0.0638 2.4649 0.9577
-0.0249 2.4650 0.9594
-0.1137 2.4620 0.9612
-0.2022 2.4557 0.9629
-0.2905 2.4462 0.9646
-0.3784 2.4335 0.9663
-0.4657 2.4177 0.9679
-0.5525 2.3987 0.9695
-0.6384 2.3766 0.9710
-0.7236 2.3514 0.9726
-0.8077 2.3231 0.9740
-0.8908 2.2918 0.9755
-2.3825 5.5295 2.3926
-2.5764 5.4309 2.3926
-2.7665 5.3258 2.3926
-2.9525 5.2144 2.3926
-3.1344 5.0967 2.3926
-3.3118 4.9729 2.3926
-3.4846 4.8433 2.3926
-3.6527 4.7080 2.3926
-3.8157 4.5670 2.3926
-3.9737 4.4208 2.3926
-4.1264 4.2693 2.3926
-4.2736 4.1128 2.3926
-4.4152 3.9515 2.3926
-4.5511 3.7856 2.3926
-4.6812 3.6153 2.3926
-4.8052 3.4407 2.3926
-4.9230 3.2621 2.3926
-5.0347 3.0797 2.3926
-5.1399 2.8937 2.3926
-5.2387 2.7043 2.3926
-5.3309 2.5117 2.3926
-5.4164 2.3161 2.3926
-5.4952 2.1178 2.3926
-5.5672 1.9169 2.3926
-5.6322 1.7138 2.3926
-5.6903 1.5085 2.3926
-5.7412 1.3014 2.3926
-5.7851 1.0927 2.3926
-5.8219 0.8826 2.3926
-5.8514 0.6712 2.3926
-5.8738 0.4590 2.3926
-5.8888 0.2460 2.3926
-5.8966 0.0326 2.3926
-5.8971 -0.1811 2.3926
-5.8902 -0.3947 2.3926
-5.8760 -0.6082 2.3926
-5.8546 -0.8211 2.3926
-5.8258 -1.0334 2.3926
-5.7897 -1.2447 2.3926
-5.7464 -1.4548 2.3926
-5.6958 -1.6635 2.3926
-5.6380 -1.8705 2.3926
-5.5731 -2.0756 2.3926
-5.5011 -2.2786 2.3926
-5.4220 -2.4792 2.3926
-5.3359 -2.6772 2.3926
-5.2430 -2.8723 2.3926
-5.1432 -3.0644 2.3926
-5.0367 -3.2532 2.3926
-4.9236 -3.4384 2.3926
-4.8040 -3.6198 2.3926
-4.6779 -3.7972 2.3926
-4.5456 -3.9704 2.3926
-4.4070 -4.1391 2.3926
-4.2625 -4.3032 2.3926
-4.1120 -4.4623 2.3926
-3.9559 -4.6164 2.3926
-3.7941 -4.7651 2.3926
-3.6270 -4.9084 2.3926
-3.4546 -5.0459 2.3926
-3.2772 -5.1775 2.3926
-3.0949 -5.3029 2.3926
-2.9079 -5.4221 2.3926
-2.7165 -5.5348 2.3926
-2.5209 -5.6408 2.3926
-2.3212 -5.7400 2.3926
-2.1178 -5.8322 2.3926
-1.9108 -5.9173 2.3926
-1.7006 -5.9950 2.3926
-1.4872 -6.0653 2.3926
-1.2711 -6.1281 2.3926
-1.0525 -6.1831 2.3926
-0.8316 -6.2304 2.3926
-0.6087 -6.2697 2.3926
-0.3841 -6.3010 2.3926
-0.1582 -6.3242 2.3926
0.0689 -6.3393 2.3926
0.2968 -6.3460 2.3926
0.5252 -6.3445 2.3926
0.7538 -6.3347 2.3926
0.9823 -6.3165 2.3926
1.2104 -6.2898 2.3926
1.4377 -6.2548 2.3926
1.6640 -6.2114 2.3926
1.8889 -6.1596 2.3926
2.1121 -6.0994 2.3926
2.3332 -6.0310 2.3926
2.5521 -5.9543 2.3926
2.7682 -5.8694 2.3926
2.9814 -5.7764 2.3926
3.1912 -5.6754 2.3926
3.3974 -5.5666 2.3926
3.5998 -5.4500 2.3926
3.7978 -5.3257 2.3926
3.9913 -5.1940 2.3926
4.1800 -5.0549 2.3926
4.3635 -4.9087 2.3926
4.5416 -4.7556 2.3926
4.7140 -4.5957 2.3926
4.8803 -4.4293 2.3926
5.0405 -4.2566 2.3926
5.1942 -4.0778 2.3926
5.3411 -3.8932 2.3926
5.4810 -3.7031 2.3926
5.6138 -3.5077 2.3926
5.7391 -3.3073 2.3926
5.8568 -3.1022 2.3926
5.9667 -2.8927 2.3926
6.0686 -2.6791 2.3926
6.1624 -2.4617 2.3926
6.2479 -2.2409 2.3926
6.3250 -2.0169 2.3926
6.3935 -1.7902 2.3926
6.4534 -1.5610 2.3926
6.5046 -1.3297 2.3926
6.5469 -1.0967 2.3926
6.5804 -0.8622 2.3926
6.6049 -0.6267 2.3926
6.6205 -0.3905 2.3926
6.6272 -0.1540 2.3926
6.6248 0.0825 2.3926
6.6136 0.3187 2.3926
6.5934 0.5541 2.3926
6.5643 0.7884 2.3926
6.5265 1.0213 2.3926
6.4799 1.2525 2.3926
6.4246 1.4815 2.3926
6.3609 1.7081 2.3926
1.0437 -5.8936 2.3926
1.2564 -5.8636 2.3926
1.4683 -5.8257 2.3926
1.6789 -5.7800 2.3926
1.8881 -5.7265 2.3926
2.0954 -5.6652 2.3926
2.3006 -5.5963 2.3926
2.5035 -5.5196 2.3926
2.7036 -5.4354 2.3926
2.9007 -5.3438 2.3926
3.0946 -5.2447 2.3926
3.2848 -5.1384 2.3926
3.4712 -5.0249 2.3926
3.6535 -4.9045 2.3926
3.8313 -4.7771 2.3926
4.0045 -4.6431 2.3926
4.1727 -4.5025 2.3926
4.3356 -4.3557 2.3926
4.4931 -4.2026 2.3926
4.6448 -4.0436 2.3926
4.7906 -3.8789 2.3926
4.9302 -3.7088 2.3926
5.0634 -3.5333 2.3926
5.1899 -3.3529 2.3926
5.3096 -3.1677 2.3926
5.4224 -2.9780 2.3926
5.5279 -2.7842 2.3926
5.6260 -2.5864 2.3926
5.7167 -2.3850 2.3926
5.7997 -2.1802 2.3926
5.8749 -1.9724 2.3926
5.9423 -1.7619 2.3926
6.0016 -1.5490 2.3926
6.0528 -1.3340 2.3926
6.0959 -1.1172 2.3926
6.1307 -0.8990 2.3926
6.1573 -0.6796 2.3926
6.1755 -0.4595 2.3926
6.1855 -0.2389 2.3926
6.1871 -0.0182 2.3926
6.1803 0.2024 2.3926
6.1653 0.4224 2.3926
6.1419 0.6416 2.3926
6.1104 0.8596 2.3926
6.0707 1.0762 2.3926
6.0229 1.2909 2.3926
5.9672 1.5035 2.3926
5.9035 1.7137 2.3926
5.8321 1.9212 2.3926
5.7530 2.1257 2.3926
5.6664 2.3268 2.3926
5.5725 2.5244 2.3926
5.4713 2.7181 2.3926
5.3632 2.9077 2.3926
5.2481 3.0930 2.3926
5.1265 3.2736 2.3926
4.9983 3.4493 2.3926
4.8640 3.6199 2.3926
4.7236 3.7852 2.3926
4.5773 3.9450 2.3926
4.4255 4.0990 2.3926
4.2684 4.2472 2.3926
4.1062 4.3892 2.3926
3.9391 4.5250 2.3926
3.7674 4.6543 2.3926
3.5914 4.7771 2.3926
3.4113 4.8932 2.3926
3.2274 5.0024 2.3926
3.0400 5.1048 2.3926
2.8493 5.2000 2.3926
2.6556 5.2882 2.3926
2.4591 5.3691 2.3926
0.8870 2.1359 0.9389
0.8096 2.1660 0.9407
0.7312 2.1932 0.9424
0.6518 2.2176 0.9442
0.5716 2.2391 0.9460
0.4906 2.2578 0.9477
0.4091 2.2734 0.9494
0.3270 2.2862 0.9512
0.2445 2.2959 0.9529
0.1617 2.3027 0.9546
0.0787 2.3064 0.9563
-0.0044 2.3072 0.9579
-0.0875 2.3049 0.9596
-0.1704 2.2997 0.9612
-0.2531 2.2914 0.9628
-0.3354 2.2802 0.9643
-0.4173 2.2660 0.9658
-0.4986 2.2489 0.9673
-0.5793 2.2288 0.9688
-0.6591 2.2059 0.9702
-0.7381 2.1800 0.9716
-0.8161 2.1513 0.9730
-0.8930 2.1199 0.9743
-2.3759 5.1152 2.3926
-2.5552 5.0183 2.3926
-2.7308 4.9154 2.3926
-2.9026 4.8066 2.3926
-3.0702 4.6920 2.3926
-3.2336 4.5719 2.3926
-3.3926 4.4462 2.3926
-3.5469 4.3154 2.3926
-3.6965 4.1794 2.3926
-3.8411 4.0384 2.3926
-3.9807 3.8928 2.3926
-4.1150 3.7425 2.3926
-4.2440 3.5878 2.3926
-4.3675 3.4288 2.3926
-4.4853 3.2659 2.3926
-4.5974 3.0991 2.3926
-4.7037 2.9286 2.3926
-4.8040 2.7547 2.3926
-4.8982 2.5775 2.3926
-4.9863 2.3973 2.3926
-5.0680 2.2143 2.3926
-5.1435 2.0285 2.3926
-5.2125 1.8404 2.3926
-5.2751 1.6500 2.3926
-5.3310 1.4577 2.3926
-5.3803 1.2635 2.3926
-5.4230 1.0677 2.3926
-5.4589 0.8706 2.3926
-5.4880 0.6723 2.3926
-5.5104 0.4731 2.3926
-5.5258 0.2732 2.3926
-5.5345 0.0728 2.3926
-5.5362 -0.1279 2.3926
-5.5311 -0.3285 2.3926
-5.5191 -0.5290 2.3926
-5.5002 -0.7291 2.3926
-5.4744 -0.9286 2.3926
-5.4417 -1.1272 2.3926
-5.4022 -1.3247 2.3926
-5.3558 -1.5208 2.3926
-5.3027 -1.7155 2.3926
-5.2429 -1.9084 2.3926
-5.1763 -2.0992 2.3926
-5.1032 -2.2879 2.3926
-5.0235 -2.4741 2.3926
-4.9372 -2.6577 2.3926
-4.8446 -2.8384 2.3926
-4.7456 -3.0160 2.3926
-4.6404 -3.1902 2.3926
-4.5291 -3.3609 2.3926
-4.4117 -3.5279 2.3926
-4.2883 -3.6909 2.3926
-4.1592 -3.8498 2.3926
-4.0244 -4.0042 2.3926
-3.8841 -4.1541 2.3926
-3.7384 -4.2992 2.3926
-3.5875 -4.4393 2.3926
-3.4314 -4.5742 2.3926
-3.2705 -4.7038 2.3926
-3.1048 -4.8278 2.3926
-2.9346 -4.9461 2.3926
-2.7600 -5.0585 2.3926
-2.5812 -5.1649 2.3926
-2.3984 -5.2650 2.3926
-2.2119 -5.3587 2.3926
-2.0218 -5.4458 2.3926
-1.8284 -5.5263 2.3926
-1.6319 -5.5999 2.3926
-1.4326 -5.6666 2.3926
-1.2306 -5.7262 2.3926
-1.0262 -5.7786 2.3926
-0.8198 -5.8237 2.3926
-0.6114 -5.8614 2.3926
-0.4015 -5.8916 2.3926
-0.1903 -5.9142 2.3926
0.0220 -5.9292 2.3926
0.2350 -5.9365 2.3926
0.4486 -5.9361 2.3926
0.6623 -5.9278 2.3926
0.8760 -5.9118 2.3926
1.0892 -5.8879 2.3926
1.3018 -5.8562 2.3926
1.5134 -5.8166 2.3926
1.7238 -5.7692 2.3926
1.9326 -5.7140 2.3926
2.1395 -5.6511 2.3926
2.3442 -5.5805 2.3926
2.5465 -5.5023 2.3926
2.7460 -5.4165 2.3926
2.9425 -5.3232 2.3926
3.1356 -5.2226 2.3926
3.3250 -5.1147 2.3926
3.5106 -4.9998 2.3926
3.6919 -4.8778 2.3926
3.8688 -4.7490 2.3926
4.0409 -4.6136 2.3926
4.2080 -4.4717 2.3926
4.3698 -4.3234 2.3926
4.5260 -4.1691 2.3926
4.6765 -4.0089 2.3926
4.8210 -3.8430 2.3926
4.9592 -3.6717 2.3926
5.0910 -3.4951 2.3926
5.2161 -3.3137 2.3926
5.3343 -3.1275 2.3926
5.4455 -2.9369 2.3926
5.5495 -2.7422 2.3926
5.6461 -2.5436 2.3926
5.7351 -2.3414 2.3926
5.8164 -2.1360 2.3926
5.8900 -1.9276 2.3926
5.9556 -1.7166 2.3926
6.0132 -1.5032 2.3926
6.0627 -1.2878 2.3926
6.1040 -1.0707 2.3926
6.1371 -0.8522 2.3926
6.1619 -0.6326 2.3926
6.1784 -0.4124 2.3926
6.1865 -0.1917 2.3926
6.1863 0.0290 2.3926
6.1778 0.2495 2.3926
6.1610 0.4694 2.3926
6.1359 0.6884 2.3926
6.1026 0.9061 2.3926
6.0612 1.1223 2.3926
6.0117 1.3366 2.3926
5.9542 1.5487 2.3926
5.8889 1.7583 2.3926
5.8158 1.9652 2.3926
5.7351 2.1690 2.3926
5.6469 2.3694 2.3926
5.5515 2.5662 2.3926
5.4488 2.7590 2.3926
5.3391 2.9477 2.3926
5.2227 3.1320 2.3926
5.0996 3.3115 2.3926
4.9701 3.4862 2.3926
4.8344 3.6557 2.3926
4.6928 3.8198 2.3926
4.5453 3.9784 2.3926
4.3924 4.1312 2.3926
4.2341 4.2780 2.3926
4.0708 4.4188 2.3926
3.9028 4.5532 2.3926
3.7301 4.6811 2.3926
3.5532 4.8025 2.3926
3.3723 4.9171 2.3926
3.1876 5.0249 2.3926
2.9995 5.1257 2.3926
2.8081 5.2195 2.3926
2.6138 5.3061 2.3926
2.4168 5.3855 2.3926
0.8705 2.1426 0.9393
0.7929 2.1720 0.9411
0.7143 2.1987 0.9428
0.6347 2.2225 0.9446
0.5543 2.2434 0.9463
0.4732 2.2614 0.9481
0.3916 2.2764 0.9498
0.3094 2.2885 0.9515
0.2268 2.2976 0.9532
0.1439 2.3037 0.9549
0.0609 2.3068 0.9566
-0.0222 2.3069 0.9583
-0.1052 2.3041 0.9599
-0.1881 2.2982 0.9615
-0.2707 2.2893 0.9631
-0.3530 2.2774 0.9646
-0.4347 2.2626 0.9662
-0.5159 2.2449 0.9677
-0.5964 2.2242 0.9691
-0.6761 2.2006 0.9705
-0.7549 2.1741 0.9719
-0.8326 2.1448 0.9733
-2.2324 5.1870 2.3926
-2.4145 5.0950 2.3926
-2.5931 4.9968 2.3926
-2.7679 4.8926 2.3926
-2.9388 4.7826 2.3926
-3.1055 4.6668 2.3926
-3.2680 4.5454 2.3926
-3.4260 4.4187 2.3926
-3.5793 4.2867 2.3926
-3.7278 4.1497 2.3926
-3.8714 4.0077 2.3926
-4.0098 3.8610 2.3926
-4.1430 3.7097 2.3926
-4.2709 3.5541 2.3926
-4.3932 3.3943 2.3926
-4.5098 3.2305 2.3926
-4.6207 3.0629 2.3926
-4.7257 2.8917 2.3926
-4.8247 2.7171 2.3926
-4.9176 2.5393 2.3926
-5.0043 2.3584 2.3926
-5.0847 2.1748 2.3926
-5.1588 1.9885 2.3926
-5.2264 1.7999 2.3926
-5.2876 1.6091 2.3926
-5.3421 1.4163 2.3926
-5.3900 1.2217 2.3926
-5.4312 1.0257 2.3926
-5.4657 0.8283 2.3926
-5.4934 0.6298 2.3926
-5.5142 0.4304 2.3926
-5.5283 0.2304 2.3926
-5.5354 0.0299 2.3926
-5.5357 -0.1708 2.3926
-5.5291 -0.3714 2.3926
-5.5156 -0.5719 2.3926
-5.4952 -0.7718 2.3926
-5.4679 -0.9711 2.3926
-5.4338 -1.1695 2.3926
-5.3928 -1.3667 2.3926
-5.3451 -1.5626 2.3926
-5.2905 -1.7569 2.3926
-5.2292 -1.9494 2.3926
-5.1613 -2.1398 2.3926
-5.0867 -2.3279 2.3926
-5.0056 -2.5136 2.3926
-4.9180 -2.6966 2.3926
-4.8240 -2.8766 2.3926
-4.7236 -3.0535 2.3926
-4.6171 -3.2270 2.3926
-4.5044 -3.3970 2.3926
-4.3858 -3.5631 2.3926
-4.2612 -3.7253 2.3926
-4.1309 -3.8832 2.3926
-3.9949 -4.0367 2.3926
-3.8534 -4.1855 2.3926
-3.7066 -4.3296 2.3926
-3.5545 -4.4686 2.3926
-3.3974 -4.6024 2.3926
-3.2355 -4.7308 2.3926
-3.0688 -4.8536 2.3926
-2.8976 -4.9707 2.3926
-2.7221 -5.0818 2.3926
-2.5424 -5.1868 2.3926
-2.3588 -5.2855 2.3926
-2.1715 -5.3778 2.3926
-1.9807 -5.4636 2.3926
-1.7867 -5.5426 2.3926
-1.5895 -5.6148 2.3926
-1.3896 -5.6799 2.3926
-1.1871 -5.7380 2.3926
-0.9822 -5.7888 2.3926
-0.7754 -5.8324 2.3926
-0.5667 -5.8685 2.3926
-0.3565 -5.8970 2.3926
-0.1450 -5.9181 2.3926
0.0675 -5.9314 2.3926
0.2807 -5.9371 2.3926
0.4943 -5.9350 2.3926
0.7080 -5.9250 2.3926
0.9216 -5.9073 2.3926
1.1347 -5.8818 2.3926
1.3471 -5.8483 2.3926
1.5585 -5.8071 2.3926
1.7686 -5.7581 2.3926
1.9770 -5.7012 2.3926
2.1834 -5.6367 2.3926
2.3877 -5.5644 2.3926
2.5894 -5.4846 2.3926
2.7883 -5.3972 2.3926
2.9840 -5.3023 2.3926
3.1764 -5.2001 2.3926
3.3651 -5.0908 2.3926
3.5497 -4.9743 2.3926
3.7301 -4.8508 2.3926
3.9060 -4.7206 2.3926
4.0770 -4.5838 2.3926
4.2430 -4.4405 2.3926
4.4036 -4.2909 2.3926
4.5587 -4.1353 2.3926
4.7079 -3.9739 2.3926
4.8511 -3.8068 2.3926
4.9879 -3.6344 2.3926
5.1183 -3.4567 2.3926
5.2420 -3.2743 2.3926
5.3587 -3.0871 2.3926
5.4684 -2.8956 2.3926
5.5708 -2.7000 2.3926
5.6657 -2.5007 2.3926
5.7531 -2.2978 2.3926
5.8328 -2.0917 2.3926
5.9047 -1.8827 2.3926
5.9686 -1.6711 2.3926
6.0245 -1.4573 2.3926
6.0722 -1.2415 2.3926
6.1118 -1.0240 2.3926
6.1431 -0.8053 2.3926
6.1661 -0.5856 2.3926
6.1808 -0.3652 2.3926
6.1872 -0.1445 2.3926
6.1852 0.0762 2.3926
6.1749 0.2966 2.3926
6.1563 0.5163 2.3926
6.1295 0.7350 2.3926
6.0944 0.9524 2.3926
6.0513 1.1682 2.3926
6.0001 1.3821 2.3926
5.9409 1.5937 2.3926
0.9818 -5.5286 2.3926
1.1812 -5.4999 2.3926
1.3798 -5.4638 2.3926
1.5771 -5.4204 2.3926
1.7731 -5.3697 2.3926
1.9673 -5.3118 2.3926
2.1595 -5.2466 2.3926
2.3494 -5.1743 2.3926
2.5368 -5.0950 2.3926
2.7213 -5.0086 2.3926
2.9027 -4.9154 2.3926
3.0808 -4.8154 2.3926
3.2552 -4.7087 2.3926
3.4257 -4.5955 2.3926
3.5921 -4.4759 2.3926
3.7540 -4.3500 2.3926
3.9113 -4.2181 2.3926
4.0637 -4.0802 2.3926
4.2109 -3.9367 2.3926
4.3528 -3.7876 2.3926
4.4891 -3.6332 2.3926
4.6196 -3.4736 2.3926
4.7441 -3.3092 2.3926
4.8624 -3.1401 2.3926
4.9743 -2.9666 2.3926
5.0797 -2.7889 2.3926
5.1783 -2.6074 2.3926
5.2701 -2.4221 2.3926
5.3549 -2.2335 2.3926
5.4325 -2.0418 2.3926
5.5029 -1.8473 2.3926
5.5659 -1.6502 2.3926
5.6214 -1.4509 2.3926
5.6694 -1.2496 2.3926
5.7097 -1.0466 2.3926
5.7424 -0.8424 2.3926
5.7673 -0.6370 2.3926
5.7845 -0.4309 2.3926
5.7940 -0.2244 2.3926
5.7956 -0.0177 2.3926
5.7895 0.1887 2.3926
5.7756 0.3948 2.3926
5.7540 0.6000 2.3926
5.7247 0.8042 2.3926
5.6878 1.0070 2.3926
5.6433 1.2082 2.3926
5.5914 1.4074 2.3926
5.5321 1.6043 2.3926
5.4655 1.7987 2.3926
5.3918 1.9904 2.3926
5.3111 2.1790 2.3926
5.2234 2.3642 2.3926
5.1290 2.5459 2.3926
5.0281 2.7237 2.3926
4.9207 2.8975 2.3926
4.8071 3.0670 2.3926
4.6874 3.2319 2.3926
4.5619 3.3921 2.3926
4.4306 3.5474 2.3926
4.2940 3.6975 2.3926
4.1521 3.8423 2.3926
4.0051 3.9816 2.3926
3.8534 4.1151 2.3926
3.6971 4.2429 2.3926
3.5364 4.3646 2.3926
3.3717 4.4803 2.3926
3.2031 4.5896 2.3926
3.0309 4.6926 2.3926
2.8553 4.7891 2.3926
2.6767 4.8790 2.3926
2.4951 4.9623 2.3926
0.9055 1.9742 0.9374
0.8339 2.0050 0.9391
0.7612 2.0332 0.9407
0.6876 2.0588 0.9424
0.6130 2.0817 0.9440
0.5377 2.1019 0.9457
0.4617 2.1193 0.9473
0.3852 2.1340 0.9489
0.3081 2.1460 0.9505
0.2306 2.1551 0.9521
0.1529 2.1614 0.9537
0.0750 2.1650 0.9553
-0.0030 2.1657 0.9569
-0.0810 2.1636 0.9584
-0.1589 2.1586 0.9599
-0.2365 2.1509 0.9614
-0.3138 2.1404 0.9629
-0.3906 2.1270 0.9643
-0.4670 2.1109 0.9657
-0.5427 2.0921 0.9671
-0.6177 2.0706 0.9684
-0.6918 2.0463 0.9697
-0.7650 2.0194 0.9710
-0.8372 1.9898 0.9722
-2.2325 4.8119 2.3926
-2.4015 4.7211 2.3926
-2.5669 4.6246 2.3926
-2.7287 4.5225 2.3926
-2.8867 4.4150 2.3926
-3.0406 4.3022 2.3926
-3.1904 4.1843 2.3926
-3.3359 4.0613 2.3926
-3.4769 3.9335 2.3926
-3.6132 3.8011 2.3926
-3.7448 3.6641 2.3926
-3.8715 3.5228 2.3926
-3.9931 3.3773 2.3926
-4.1095 3.2278 2.3926
-4.2207 3.0745 2.3926
-4.3264 2.9175 2.3926
-4.4266 2.7571 2.3926
-4.5212 2.5934 2.3926
-4.6100 2.4266 2.3926
-4.6930 2.2570 2.3926
-4.7701 2.0846 2.3926
-4.8412 1.9097 2.3926
-4.9063 1.7325 2.3926
-4.9652 1.5533 2.3926
-5.0179 1.3721 2.3926
-5.0644 1.1892 2.3926
-5.1045 1.0049 2.3926
-5.1383 0.8192 2.3926
-5.1657 0.6325 2.3926
-5.1867 0.4448 2.3926
-5.2012 0.2566 2.3926
-5.2092 0.0679 2.3926
-5.2107 -0.1211 2.3926
-5.2057 -0.3101 2.3926
-5.1942 -0.4989 2.3926
-5.1762 -0.6872 2.3926
-5.1517 -0.8750 2.3926
-5.1208 -1.0619 2.3926
-5.0833 -1.2478 2.3926
-5.0395 -1.4325 2.3926
-4.9892 -1.6156 2.3926
-4.9326 -1.7971 2.3926
-4.8697 -1.9767 2.3926
-4.8005 -2.1541 2.3926
-4.7252 -2.3293 2.3926
-4.6437 -2.5019 2.3926
-4.5562 -2.6717 2.3926
-4.4628 -2.8386 2.3926
-4.3634 -3.0024 2.3926
-4.2583 -3.1628 2.3926
-4.1476 -3.3196 2.3926
-4.0312 -3.4727 2.3926
-3.9094 -3.6218 2.3926
-3.7823 -3.7668 2.3926
-3.6500 -3.9074 2.3926
-3.5127 -4.0435 2.3926
-3.3704 -4.1748 2.3926
-3.2234 -4.3013 2.3926
-3.0718 -4.4227 2.3926
-2.9157 -4.5389 2.3926
-2.7554 -4.6496 2.3926
-2.5910 -4.7548 2.3926
-2.4228 -4.8542 2.3926
-2.2508 -4.9478 2.3926
-2.0753 -5.0353 2.3926
-1.8965 -5.1166 2.3926
-1.7146 -5.1917 2.3926
-1.5299 -5.2603 2.3926
-1.3425 -5.3223 2.3926
-1.1527 -5.3777 2.3926
-0.9607 -5.4263 2.3926
-0.7668 -5.4681 2.3926
-0.5711 -5.5029 2.3926
-0.3740 -5.5306 2.3926
-0.1757 -5.5513 2.3926
0.0235 -5.5648 2.3926
0.2234 -5.5710 2.3926
0.4237 -5.5700 2.3926
0.6242 -5.5617 2.3926
0.8245 -5.5461 2.3926
1.0245 -5.5231 2.3926
1.2238 -5.4928 2.3926
1.4221 -5.4551 2.3926
1.6192 -5.4102 2.3926
1.8148 -5.3579 2.3926
2.0086 -5.2984 2.3926
2.2003 -5.2318 2.3926
2.3897 -5.1580 2.3926
2.5765 -5.0771 2.3926
2.7604 -4.9893 2.3926
2.9411 -4.8946 2.3926
3.1184 -4.7931 2.3926
3.2920 -4.6850 2.3926
3.4617 -4.5704 2.3926
3.6271 -4.4495 2.3926
3.7881 -4.3223 2.3926
3.9443 -4.1891 2.3926
4.0956 -4.0500 2.3926
4.2417 -3.9053 2.3926
4.3824 -3.7550 2.3926
4.5175 -3.5995 2.3926
4.6467 -3.4389 2.3926
4.7699 -3.2734 2.3926
4.8869 -3.1034 2.3926
4.9974 -2.9290 2.3926
5.1013 -2.7504 2.3926
5.1985 -2.5681 2.3926
5.2888 -2.3821 2.3926
5.3721 -2.1928 2.3926
5.4482 -2.0004 2.3926
5.5170 -1.8053 2.3926
5.5784 -1.6077 2.3926
5.6323 -1.4080 2.3926
5.6786 -1.2063 2.3926
5.7174 -1.0031 2.3926
5.7484 -0.7985 2.3926
5.7717 -0.5930 2.3926
5.7872 -0.3868 2.3926
5.7950 -0.1802 2.3926
5.7949 0.0264 2.3926
5.7872 0.2328 2.3926
5.7716 0.4387 2.3926
5.7483 0.6438 2.3926
5.7174 0.8477 2.3926
5.6789 1.0502 2.3926
5.6328 1.2509 2.3926
5.5793 1.4497 2.3926
5.5185 1.6461 2.3926
5.4504 1.8400 2.3926
5.3751 2.0310 2.3926
5.2929 2.2189 2.3926
5.2038 2.4034 2.3926
5.1080 2.5843 2.3926
5.0056 2.7612 2.3926
4.8969 2.9341 2.3926
4.7820 3.1026 2.3926
4.6610 3.2666 2.3926
4.5343 3.4258 2.3926
4.4019 3.5799 2.3926
4.2641 3.7289 2.3926
4.1211 3.8726 2.3926
3.9731 4.0106 2.3926
3.8203 4.1430 2.3926
3.6631 4.2694 2.3926
3.5015 4.3899 2.3926
3.3360 4.5042 2.3926
3.1666 4.6122 2.3926
2.9936 4.7138 2.3926
2.8174 4.8089 2.3926
2.6381 4.8974 2.3926
2.4560 4.9792 2.3926
0.8902 1.9810 0.9378
0.8184 2.0112 0.9394
0.7455 2.0389 0.9411
0.6717 2.0639 0.9427
0.5970 2.0862 0.9444
0.5215 2.1058 0.9460
0.4454 2.1227 0.9476
0.3687 2.1368 0.9493
0.2916 2.1482 0.9509
0.2140 2.1567 0.9525
0.1362 2.1624 0.9541
0.0583 2.1654 0.9557
-0.0197 2.1655 0.9572
-0.0977 2.1627 0.9587
-0.1755 2.1572 0.9603
-0.2530 2.1489 0.9617
-0.3303 2.1377 0.9632
-0.4070 2.1238 0.9646
-0.4832 2.1071 0.9660
-0.5588 2.0877 0.9674
-0.6336 2.0656 0.9687
-0.7075 2.0408 0.9700
-0.7806 2.0133 0.9713
-0.8525 1.9832 0.9725
-2.2690 4.7929 2.3926
-2.4371 4.7009 2.3926
-2.6018 4.6032 2.3926
-2.7628 4.5000 2.3926
-2.9199 4.3913 2.3926
-3.0730 4.2774 2.3926
-3.2219 4.1584 2.3926
-3.3664 4.0344 2.3926
-3.5064 3.9056 2.3926
-3.6418 3.7722 2.3926
-3.7723 3.6342 2.3926
-3.8979 3.4920 2.3926
-4.0184 3.3456 2.3926
-4.1337 3.1953 2.3926
-4.2437 3.0412 2.3926
-4.3483 2.8835 2.3926
-4.4473 2.7224 2.3926
-4.5406 2.5580 2.3926
-4.6282 2.3906 2.3926
-4.7100 2.2203 2.3926
-4.7858 2.0474 2.3926
-4.8557 1.8720 2.3926
-4.9194 1.6944 2.3926
-4.9770 1.5147 2.3926
-5.0284 1.3331 2.3926
-5.0735 1.1499 2.3926
-5.1123 0.9653 2.3926
-5.1447 0.7793 2.3926
-5.1707 0.5924 2.3926
-5.1903 0.4046 2.3926
-5.2034 0.2163 2.3926
-5.2100 0.0275 2.3926
-5.2102 -0.1615 2.3926
-5.2038 -0.3505 2.3926
-5.1909 -0.5392 2.3926
-5.1715 -0.7275 2.3926
-5.1457 -0.9151 2.3926
-5.1133 -1.1018 2.3926
-5.0745 -1.2874 2.3926
-5.0293 -1.4718 2.3926
-4.9776 -1.6546 2.3926
-4.9197 -1.8357 2.3926
-4.8554 -2.0148 2.3926
-4.7850 -2.1918 2.3926
-4.7083 -2.3664 2.3926
-4.6255 -2.5384 2.3926
-4.5367 -2.7077 2.3926
-4.4420 -2.8739 2.3926
-4.3415 -3.0370 2.3926
-4.2351 -3.1966 2.3926
-4.1231 -3.3527 2.3926
-4.0056 -3.5049 2.3926
-3.8827 -3.6532 2.3926
-3.7545 -3.7972 2.3926
-3.6211 -3.9369 2.3926
-3.4826 -4.0720 2.3926
-3.3394 -4.2023 2.3926
-3.1913 -4.3277 2.3926
-3.0388 -4.4480 2.3926
-2.8818 -4.5630 2.3926
-2.7206 -4.6726 2.3926
-2.5554 -4.7765 2.3926
-2.3863 -4.8747 2.3926
-2.2135 -4.9670 2.3926
-2.0373 -5.0532 2.3926
-1.8579 -5.1332 2.3926
-1.6754 -5.2069 2.3926
-1.4900 -5.2741 2.3926
-1.3021 -5.3347 2.3926
-1.1118 -5.3887 2.3926
-0.9194 -5.4358 2.3926
-0.7251 -5.4761 2.3926
-0.5291 -5.5094 2.3926
-0.3317 -5.5357 2.3926
-0.1332 -5.5548 2.3926
0.0662 -5.5667 2.3926
0.2662 -5.5714 2.3926
0.4666 -5.5689 2.3926
0.6671 -5.5590 2.3926
0.8673 -5.5418 2.3926
1.0672 -5.5172 2.3926
1.2663 -5.4854 2.3926
1.4644 -5.4461 2.3926
1.6611 -5.3996 2.3926
1.8564 -5.3458 2.3926
2.0498 -5.2848 2.3926
2.2410 -5.2166 2.3926
2.4299 -5.1413 2.3926
2.6161 -5.0589 2.3926
2.7993 -4.9696 2.3926
2.9793 -4.8735 2.3926
3.1559 -4.7706 2.3926
3.3286 -4.6611 2.3926
3.4974 -4.5451 2.3926
3.6619 -4.4228 2.3926
3.8219 -4.2943 2.3926
3.9771 -4.1599 2.3926
4.1273 -4.0195 2.3926
4.2723 -3.8736 2.3926
4.4118 -3.7222 2.3926
4.5456 -3.5655 2.3926
4.6736 -3.4039 2.3926
4.7954 -3.2374 2.3926
4.9110 -3.0664 2.3926
5.0202 -2.8911 2.3926
5.1227 -2.7118 2.3926
5.2184 -2.5286 2.3926
5.3072 -2.3419 2.3926
5.3890 -2.1519 2.3926
5.4635 -1.9589 2.3926
5.5307 -1.7633 2.3926
5.5905 -1.5652 2.3926
5.6428 -1.3650 2.3926
5.6876 -1.1630 2.3926
5.7246 -0.9594 2.3926
5.7540 -0.7547 2.3926
5.7756 -0.5490 2.3926
5.7895 -0.3426 2.3926
5.7956 -0.1360 2.3926
5.7939 0.0706 2.3926
5.7845 0.2769 2.3926
5.7673 0.4827 2.3926
5.7424 0.6875 2.3926
5.7098 0.8911 2.3926
5.6697 1.0933 2.3926
5.6220 1.2936 2.3926
5.5669 1.4919 2.3926
0.9261 -5.2003 2.3926
1.1136 -5.1728 2.3926
1.3002 -5.1384 2.3926
1.4857 -5.0971 2.3926
1.6697 -5.0490 2.3926
1.8522 -4.9941 2.3926
2.0327 -4.9325 2.3926
2.2110 -4.8641 2.3926
2.3870 -4.7891 2.3926
2.5602 -4.7076 2.3926
2.7305 -4.6197 2.3926
2.8976 -4.5254 2.3926
3.0613 -4.4248 2.3926
3.2213 -4.3182 2.3926
3.3773 -4.2055 2.3926
3.5293 -4.0870 2.3926
3.6768 -3.9629 2.3926
3.8197 -3.8332 2.3926
3.9578 -3.6981 2.3926
4.0908 -3.5579 2.3926
4.2187 -3.4127 2.3926
4.3410 -3.2627 2.3926
4.4578 -3.1082 2.3926
4.5687 -2.9493 2.3926
4.6736 -2.7863 2.3926
4.7725 -2.6194 2.3926
4.8650 -2.4489 2.3926
4.9510 -2.2749 2.3926
5.0306 -2.0978 2.3926
5.1034 -1.9178 2.3926
5.1694 -1.7351 2.3926
5.2285 -1.5500 2.3926
5.2806 -1.3629 2.3926
5.3257 -1.1739 2.3926
5.3636 -0.9834 2.3926
5.3943 -0.7916 2.3926
5.4178 -0.5988 2.3926
5.4340 -0.4053 2.3926
5.4430 -0.2114 2.3926
5.4446 -0.0174 2.3926
5.4390 0.1765 2.3926
5.4262 0.3700 2.3926
5.4061 0.5627 2.3926
5.3788 0.7545 2.3926
5.3443 0.9450 2.3926
5.3028 1.1339 2.3926
5.2543 1.3211 2.3926
5.1989 1.5061 2.3926
5.1366 1.6888 2.3926
5.0677 1.8690 2.3926
4.9921 2.0462 2.3926
4.9101 2.2204 2.3926
4.8218 2.3912 2.3926
4.7272 2.5585 2.3926
4.6267 2.7220 2.3926
4.5202 2.8815 2.3926
4.4081 3.0367 2.3926
4.2905 3.1875 2.3926
4.1675 3.3337 2.3926
4.0393 3.4751 2.3926
3.9062 3.6115 2.3926
3.7684 3.7428 2.3926
3.6261 3.8687 2.3926
3.4794 3.9892 2.3926
3.3286 4.1041 2.3926
3.1740 4.2132 2.3926
3.0157 4.3165 2.3926
2.8540 4.4137 2.3926
2.6891 4.5050 2.3926
2.5212 4.5900 2.3926
0.9197 1.8266 0.9361
0.8534 1.8580 0.9376
0.7860 1.8870 0.9392
0.7176 1.9135 0.9407
0.6483 1.9376 0.9423
0.5781 1.9591 0.9438
0.5072 1.9781 0.9454
0.4357 1.9946 0.9469
0.3636 2.0084 0.9485
0.2911 2.0196 0.9500
0.2182 2.0282 0.9515
0.1450 2.0342 0.9530
0.0717 2.0375 0.9545
-0.0018 2.0382 0.9559
-0.0752 2.0362 0.9574
-0.1484 2.0315 0.9588
-0.2215 2.0242 0.9602
-0.2943 2.0143 0.9616
-0.3666 2.0018 0.9630
-0.4385 1.9866 0.9643
-0.5097 1.9689 0.9656
-0.5803 1.9486 0.9668
-0.6501 1.9258 0.9681
-0.7190 1.9005 0.9693
-0.7870 1.8727 0.9704
-0.8539 1.8424 0.9715
-2.2623 4.4521 2.3926
-2.4185 4.3613 2.3926
-2.5713 4.2653 2.3926
-2.7205 4.1642 2.3926
-2.8659 4.0580 2.3926
-3.0074 3.9470 2.3926
-3.1448 3.8312 2.3926
-3.2780 3.7108 2.3926
-3.4068 3.5860 2.3926
-3.5312 3.4569 2.3926
-3.6508 3.3237 2.3926
-3.7657 3.1865 2.3926
-3.8758 3.0456 2.3926
-3.9808 2.9010 2.3926
-4.0807 2.7529 2.3926
-4.1754 2.6016 2.3926
-4.2648 2.4472 2.3926
-4.3487 2.2898 2.3926
-4.4272 2.1297 2.3926
-4.5000 1.9670 2.3926
-4.5672 1.8020 2.3926
-4.6287 1.6348 2.3926
-4.6843 1.4656 2.3926
-4.7341 1.2945 2.3926
-4.7779 1.1219 2.3926
-4.8158 0.9479 2.3926
-4.8477 0.7726 2.3926
-4.8735 0.5963 2.3926
-4.8932 0.4192 2.3926
-4.9068 0.2415 2.3926
-4.9143 0.0634 2.3926
-4.9156 -0.1150 2.3926
-4.9108 -0.2933 2.3926
-4.8998 -0.4715 2.3926
-4.8827 -0.6493 2.3926
-4.8594 -0.8265 2.3926
-4.8300 -1.0029 2.3926
-4.7945 -1.1782 2.3926
-4.7529 -1.3524 2.3926
-4.7052 -1.5252 2.3926
-4.6516 -1.6963 2.3926
-4.5920 -1.8657 2.3926
-4.5265 -2.0330 2.3926
-4.4551 -2.1981 2.3926
-4.3780 -2.3608 2.3926
-4.2952 -2.5209 2.3926
-4.2068 -2.6782 2.3926
-4.1128 -2.8324 2.3926
-4.0134 -2.9835 2.3926
-3.9086 -3.1312 2.3926
-3.7986 -3.2753 2.3926
-3.6835 -3.4156 2.3926
-3.5633 -3.5520 2.3926
-3.4383 -3.6843 2.3926
-3.3086 -3.8123 2.3926
-3.1742 -3.9358 2.3926
-3.0354 -4.0547 2.3926
-2.8922 -4.1687 2.3926
-2.7449 -4.2778 2.3926
-2.5936 -4.3818 2.3926
-2.4385 -4.4805 2.3926
-2.2797 -4.5737 2.3926
-2.1175 -4.6614 2.3926
-1.9520 -4.7434 2.3926
-1.7834 -4.8196 2.3926
-1.6120 -4.8898 2.3926
-1.4379 -4.9539 2.3926
-1.2613 -5.0119 2.3926
-1.0825 -5.0635 2.3926
-0.9016 -5.1088 2.3926
-0.7190 -5.1476 2.3926
-0.5348 -5.1799 2.3926
-0.3492 -5.2055 2.3926
-0.1626 -5.2244 2.3926
0.0249 -5.2366 2.3926
0.2129 -5.2420 2.3926
0.4014 -5.2405 2.3926
0.5899 -5.2322 2.3926
0.7783 -5.2170 2.3926
0.9663 -5.1950 2.3926
1.1536 -5.1660 2.3926
1.3400 -5.1301 2.3926
1.5251 -5.0874 2.3926
1.7089 -5.0378 2.3926
1.8909 -4.9815 2.3926
2.0710 -4.9184 2.3926
2.2489 -4.8486 2.3926
2.4242 -4.7723 2.3926
2.5969 -4.6894 2.3926
2.7665 -4.6000 2.3926
2.9329 -4.5044 2.3926
3.0958 -4.4025 2.3926
3.2550 -4.2946 2.3926
3.4102 -4.1806 2.3926
3.5612 -4.0609 2.3926
3.7077 -3.9356 2.3926
3.8496 -3.8047 2.3926
3.9867 -3.6686 2.3926
4.1186 -3.5273 2.3926
4.2453 -3.3810 2.3926
4.3665 -3.2301 2.3926
4.4820 -3.0746 2.3926
4.5917 -2.9148 2.3926
4.6953 -2.7510 2.3926
4.7928 -2.5833 2.3926
4.8839 -2.4120 2.3926
4.9686 -2.2373 2.3926
5.0467 -2.0595 2.3926
5.1181 -1.8789 2.3926
5.1826 -1.6957 2.3926
5.2402 -1.5102 2.3926
5.2908 -1.3226 2.3926
5.3344 -1.1333 2.3926
5.3707 -0.9425 2.3926
5.3999 -0.7505 2.3926
5.4219 -0.5575 2.3926
5.4365 -0.3639 2.3926
5.4439 -0.1699 2.3926
5.4441 0.0241 2.3926
5.4369 0.2179 2.3926
5.4225 0.4113 2.3926
5.4008 0.6038 2.3926
5.3720 0.7953 2.3926
5.3360 0.9855 2.3926
5.2930 1.1741 2.3926
5.2430 1.3608 2.3926
5.1861 1.5454 2.3926
5.1224 1.7276 2.3926
5.0521 1.9071 2.3926
4.9751 2.0838 2.3926
4.8918 2.2572 2.3926
4.8021 2.4273 2.3926
4.7062 2.5938 2.3926
4.6044 2.7564 2.3926
4.4967 2.9150 2.3926
4.3834 3.0693 2.3926
4.2646 3.2192 2.3926
4.1405 3.3644 2.3926
4.0113 3.5047 2.3926
3.8772 3.6400 2.3926
3.7384 3.7702 2.3926
3.5951 3.8949 2.3926
3.4475 4.0142 2.3926
3.2959 4.1279 2.3926
3.1404 4.2358 2.3926
2.9814 4.3378 2.3926
2.8190 4.4338 2.3926
2.6534 4.5237 2.3926
2.4850 4.6074 2.3926
0.9056 1.8335 0.9364
0.8391 1.8644 0.9380
0.7714 1.8929 0.9395
0.7028 1.9189 0.9411
0.6333 1.9424 0.9426
0.5630 1.9634 0.9442
0.4920 1.9819 0.9457
0.4203 1.9977 0.9472
0.3481 2.0110 0.9488
0.2755 2.0217 0.9503
0.2025 2.0297 0.9518
0.1293 2.0351 0.9533
0.0560 2.0379 0.9548
-0.0175 2.0380 0.9563
-0.0908 2.0354 0.9577
-0.1641 2.0302 0.9591
-0.2371 2.0223 0.9605
-0.3098 2.0119 0.9619
-0.3820 1.9988 0.9632
-0.4538 1.9831 0.9646
-0.5249 1.9648 0.9658
-0.5953 1.9439 0.9671
-0.6649 1.9206 0.9683
-0.7336 1.8947 0.9695
-0.8014 1.8664 0.9707
-0.8680 1.8356 0.9718
-2.2960 4.4331 2.3926
-2.4515 4.3413 2.3926
-2.6035 4.2441 2.3926
-2.7519 4.1419 2.3926
-2.8965 4.0347 2.3926
-3.0371 3.9226 2.3926
-3.1737 3.8058 2.3926
-3.3059 3.6845 2.3926
-3.4338 3.5588 2.3926
-3.5571 3.4288 2.3926
-3.6758 3.2947 2.3926
-3.7897 3.1567 2.3926
-3.8987 3.0150 2.3926
-4.0026 2.8696 2.3926
-4.1014 2.7208 2.3926
-4.1950 2.5688 2.3926
-4.2832 2.4138 2.3926
-4.3660 2.2558 2.3926
-4.4432 2.0951 2.3926
-4.5149 1.9319 2.3926
-4.5808 1.7664 2.3926
-4.6410 1.5987 2.3926
-4.6954 1.4291 2.3926
-4.7439 1.2577 2.3926
-4.7865 1.0848 2.3926
-4.8231 0.9105 2.3926
-4.8537 0.7350 2.3926
-4.8782 0.5585 2.3926
-4.8966 0.3813 2.3926
-4.9089 0.2035 2.3926
-4.9151 0.0253 2.3926
-4.9151 -0.1531 2.3926
-4.9090 -0.3314 2.3926
-4.8966 -0.5096 2.3926
-4.8782 -0.6872 2.3926
-4.8536 -0.8643 2.3926
-4.8229 -1.0404 2.3926
-4.7861 -1.2156 2.3926
-4.7432 -1.3895 2.3926
-4.6942 -1.5619 2.3926
-4.6393 -1.7327 2.3926
-4.5784 -1.9016 2.3926
-4.5117 -2.0685 2.3926
-4.4391 -2.2331 2.3926
-4.3608 -2.3953 2.3926
-4.2767 -2.5548 2.3926
-4.1871 -2.7114 2.3926
-4.0920 -2.8650 2.3926
-3.9914 -3.0154 2.3926
-3.8855 -3.1623 2.3926
-3.7744 -3.3056 2.3926
-3.6582 -3.4451 2.3926
-3.5370 -3.5807 2.3926
-3.4110 -3.7121 2.3926
-3.2802 -3.8391 2.3926
-3.1449 -3.9616 2.3926
-3.0051 -4.0795 2.3926
-2.8610 -4.1925 2.3926
-2.7129 -4.3005 2.3926
-2.5608 -4.4033 2.3926
-2.4048 -4.5009 2.3926
-2.2453 -4.5930 2.3926
-2.0824 -4.6794 2.3926
-1.9162 -4.7602 2.3926
-1.7470 -4.8351 2.3926
-1.5750 -4.9040 2.3926
-1.4003 -4.9668 2.3926
-1.2232 -5.0235 2.3926
-1.0440 -5.0738 2.3926
-0.8627 -5.1177 2.3926
-0.6797 -5.1551 2.3926
-0.4952 -5.1859 2.3926
-0.3094 -5.2101 2.3926
-0.1226 -5.2276 2.3926
0.0650 -5.2383 2.3926
0.2532 -5.2423 2.3926
0.4417 -5.2393 2.3926
0.6302 -5.2296 2.3926
0.8185 -5.2129 2.3926
1.0064 -5.1893 2.3926
1.1935 -5.1589 2.3926
1.3797 -5.1216 2.3926
1.5646 -5.0774 2.3926
1.7480 -5.0264 2.3926
1.9296 -4.9686 2.3926
2.1093 -4.9040 2.3926
2.2866 -4.8329 2.3926
2.4614 -4.7551 2.3926
2.6334 -4.6708 2.3926
2.8024 -4.5801 2.3926
2.9680 -4.4831 2.3926
3.1302 -4.3799 2.3926
3.2885 -4.2707 2.3926
3.4428 -4.1555 2.3926
3.5929 -4.0346 2.3926
3.7385 -3.9080 2.3926
3.8794 -3.7760 2.3926
4.0153 -3.6388 2.3926
4.1462 -3.4964 2.3926
4.2717 -3.3492 2.3926
4.3917 -3.1972 2.3926
4.5059 -3.0408 2.3926
4.6143 -2.8801 2.3926
4.7167 -2.7154 2.3926
4.8128 -2.5469 2.3926
4.9026 -2.3749 2.3926
4.9859 -2.1995 2.3926
5.0625 -2.0211 2.3926
5.1324 -1.8399 2.3926
5.1955 -1.6562 2.3926
5.2516 -1.4702 2.3926
5.3007 -1.2823 2.3926
5.3427 -1.0926 2.3926
5.3776 -0.9015 2.3926
5.4052 -0.7093 2.3926
5.4256 -0.5161 2.3926
5.4387 -0.3224 2.3926
5.4446 -0.1284 2.3926
5.4431 0.0656 2.3926
5.4344 0.2593 2.3926
5.4184 0.4525 2.3926
5.3953 0.6449 2.3926
5.3649 0.8361 2.3926
5.3274 1.0260 2.3926
5.2829 1.2142 2.3926
5.2314 1.4005 2.3926
0.8757 -4.9030 2.3926
1.0524 -4.8767 2.3926
1.2282 -4.8439 2.3926
1.4029 -4.8046 2.3926
1.5763 -4.7589 2.3926
1.7480 -4.7068 2.3926
1.9180 -4.6483 2.3926
2.0859 -4.5836 2.3926
2.2515 -4.5126 2.3926
2.4145 -4.4355 2.3926
2.5748 -4.3524 2.3926
2.7320 -4.2633 2.3926
2.8860 -4.1683 2.3926
3.0365 -4.0676 2.3926
3.1834 -3.9613 2.3926
3.3262 -3.8495 2.3926
3.4650 -3.7323 2.3926
3.5994 -3.6100 2.3926
3.7292 -3.4827 2.3926
3.8543 -3.3505 2.3926
3.9745 -3.2137 2.3926
4.0896 -3.0724 2.3926
4.1993 -2.9268 2.3926
4.3036 -2.7772 2.3926
4.4023 -2.6236 2.3926
4.4952 -2.4664 2.3926
4.5822 -2.3058 2.3926
4.6631 -2.1420 2.3926
4.7379 -1.9753 2.3926
4.8064 -1.8058 2.3926
4.8685 -1.6338 2.3926
4.9240 -1.4597 2.3926
4.9731 -1.2835 2.3926
5.0155 -1.1056 2.3926
5.0512 -0.9263 2.3926
5.0802 -0.7458 2.3926
5.1024 -0.5643 2.3926
5.1177 -0.3822 2.3926
5.1262 -0.1997 2.3926
5.1279 -0.0171 2.3926
5.1228 0.1655 2.3926
5.1108 0.3476 2.3926
5.0920 0.5291 2.3926
5.0665 0.7096 2.3926
5.0343 0.8890 2.3926
4.9954 1.0669 2.3926
4.9499 1.2432 2.3926
4.8980 1.4175 2.3926
4.8396 1.5896 2.3926
4.7749 1.7593 2.3926
4.7040 1.9263 2.3926
4.6271 2.0905 2.3926
4.5441 2.2515 2.3926
4.4554 2.4092 2.3926
4.3609 2.5634 2.3926
4.2610 2.7138 2.3926
4.1556 2.8602 2.3926
4.0450 3.0025 2.3926
3.9295 3.1405 2.3926
3.8090 3.2740 2.3926
3.6839 3.4028 2.3926
3.5543 3.5267 2.3926
3.4204 3.6457 2.3926
3.2824 3.7596 2.3926
3.1405 3.8682 2.3926
2.9950 3.9714 2.3926
2.8460 4.0691 2.3926
2.6938 4.1612 2.3926
2.5385 4.2475 2.3926
0.9301 1.6912 0.9349
0.8687 1.7231 0.9364
0.8062 1.7527 0.9378
0.7426 1.7800 0.9393
0.6780 1.8050 0.9407
0.6126 1.8277 0.9422
0.5465 1.8480 0.9437
0.4796 1.8660 0.9451
0.4121 1.8815 0.9466
0.3441 1.8945 0.9480
0.2756 1.9051 0.9495
0.2069 1.9132 0.9509
0.1378 1.9188 0.9523
0.0686 1.9219 0.9537
-0.0006 1.9225 0.9551
-0.0699 1.9207 0.9565
-0.1390 1.9163 0.9578
-0.2079 1.9094 0.9591
-0.2766 1.9000 0.9604
-0.3448 1.8882 0.9617
-0.4126 1.8739 0.9630
-0.4798 1.8572 0.9642
-0.5464 1.8381 0.9654
-0.6122 1.8165 0.9665
-0.6773 1.7926 0.9677
-0.7414 1.7664 0.9687
-0.8045 1.7379 0.9698
-0.8666 1.7071 0.9708
-2.2834 4.1217 2.3926
-2.4280 4.0312 2.3926
-2.5692 3.9358 2.3926
-2.7068 3.8357 2.3926
-2.8407 3.7309 2.3926
-2.9708 3.6216 2.3926
-3.0968 3.5080 2.3926
-3.2188 3.3901 2.3926
-3.3365 3.2682 2.3926
-3.4498 3.1424 2.3926
-3.5586 3.0128 2.3926
-3.6628 2.8795 2.3926
-3.7622 2.7429 2.3926
-3.8568 2.6029 2.3926
-3.9465 2.4599 2.3926
-4.0311 2.3139 2.3926
-4.1106 2.1651 2.3926
-4.1848 2.0137 2.3926
-4.2538 1.8599 2.3926
-4.3174 1.7038 2.3926
-4.3756 1.5456 2.3926
-4.4282 1.3856 2.3926
-4.4753 1.2238 2.3926
-4.5168 1.0605 2.3926
-4.5526 0.8959 2.3926
-4.5827 0.7301 2.3926
-4.6071 0.5634 2.3926
-4.6257 0.3959 2.3926
-4.6385 0.2278 2.3926
-4.6455 0.0593 2.3926
-4.6466 -0.1094 2.3926
-4.6420 -0.2781 2.3926
-4.6315 -0.4466 2.3926
-4.6151 -0.6147 2.3926
-4.5929 -0.7822 2.3926
-4.5650 -0.9490 2.3926
-4.5312 -1.1148 2.3926
-4.4917 -1.2795 2.3926
-4.4465 -1.4428 2.3926
-4.3955 -1.6045 2.3926
-4.3390 -1.7646 2.3926
-4.2768 -1.9227 2.3926
-4.2092 -2.0787 2.3926
-4.1360 -2.2323 2.3926
-4.0575 -2.3835 2.3926
-3.9737 -2.5321 2.3926
-3.8846 -2.6777 2.3926
-3.7904 -2.8203 2.3926
-3.6912 -2.9597 2.3926
-3.5870 -3.0957 2.3926
-3.4779 -3.2281 2.3926
-3.3642 -3.3567 2.3926
-3.2458 -3.4815 2.3926
-3.1230 -3.6021 2.3926
-2.9958 -3.7185 2.3926
-2.8645 -3.8305 2.3926
-2.7290 -3.9379 2.3926
-2.5897 -4.0406 2.3926
-2.4466 -4.1385 2.3926
-2.2999 -4.2313 2.3926
-2.1498 -4.3190 2.3926
-1.9965 -4.4014 2.3926
-1.8401 -4.4785 2.3926
-1.6808 -4.5500 2.3926
-1.5188 -4.6158 2.3926
-1.3544 -4.6760 2.3926
-1.1876 -4.7302 2.3926
-1.0188 -4.7786 2.3926
-0.8481 -4.8209 2.3926
-0.6757 -4.8570 2.3926
-0.5018 -4.8870 2.3926
-0.3268 -4.9108 2.3926
-0.1507 -4.9282 2.3926
0.0261 -4.9393 2.3926
0.2035 -4.9439 2.3926
0.3811 -4.9421 2.3926
0.5589 -4.9339 2.3926
0.7364 -4.9191 2.3926
0.9136 -4.8979 2.3926
1.0900 -4.8702 2.3926
1.2656 -4.8360 2.3926
1.4401 -4.7954 2.3926
1.6131 -4.7483 2.3926
1.7845 -4.6948 2.3926
1.9541 -4.6350 2.3926
2.1215 -4.5689 2.3926
2.2866 -4.4967 2.3926
2.4491 -4.4183 2.3926
2.6087 -4.3338 2.3926
2.7653 -4.2434 2.3926
2.9185 -4.1472 2.3926
3.0683 -4.0453 2.3926
3.2142 -3.9378 2.3926
3.3563 -3.8249 2.3926
3.4941 -3.7066 2.3926
3.6275 -3.5832 2.3926
3.7564 -3.4548 2.3926
3.8805 -3.3217 2.3926
3.9996 -3.1839 2.3926
4.1135 -3.0416 2.3926
4.2221 -2.8951 2.3926
4.3252 -2.7446 2.3926
4.4226 -2.5903 2.3926
4.5143 -2.4324 2.3926
4.6000 -2.2711 2.3926
4.6796 -2.1066 2.3926
4.7531 -1.9393 2.3926
4.8202 -1.7692 2.3926
4.8809 -1.5968 2.3926
4.9351 -1.4222 2.3926
4.9827 -1.2456 2.3926
5.0237 -1.0674 2.3926
5.0580 -0.8878 2.3926
5.0855 -0.7071 2.3926
5.1062 -0.5255 2.3926
5.1201 -0.3432 2.3926
5.1272 -0.1607 2.3926
5.1274 0.0220 2.3926
5.1208 0.2045 2.3926
5.1074 0.3865 2.3926
5.0871 0.5678 2.3926
5.0602 0.7481 2.3926
5.0265 0.9272 2.3926
4.9862 1.1048 2.3926
4.9394 1.2806 2.3926
4.8860 1.4545 2.3926
4.8263 1.6261 2.3926
4.7603 1.7953 2.3926
4.6881 1.9617 2.3926
4.6098 2.1252 2.3926
4.5256 2.2855 2.3926
4.4356 2.4425 2.3926
4.3400 2.5959 2.3926
4.2389 2.7454 2.3926
4.1324 2.8910 2.3926
4.0207 3.0324 2.3926
3.9041 3.1694 2.3926
3.7826 3.3019 2.3926
3.6565 3.4297 2.3926
3.5260 3.5526 2.3926
3.3912 3.6705 2.3926
3.2524 3.7832 2.3926
3.1097 3.8907 2.3926
2.9634 3.9927 2.3926
2.8137 4.0892 2.3926
2.6608 4.1801 2.3926
2.5049 4.2653 2.3926
0.9171 1.6982 0.9352
0.8554 1.7296 0.9367
0.7926 1.7587 0.9381
0.7288 1.7856 0.9396
0.6641 1.8101 0.9411
0.5985 1.8323 0.9425
0.5322 1.8521 0.9440
0.4652 1.8695 0.9454
0.3976 1.8844 0.9469
0.3295 1.8970 0.9483
0.2610 1.9070 0.9498
0.1921 1.9146 0.9512
0.1230 1.9197 0.9526
0.0538 1.9223 0.9540
-0.0154 1.9223 0.9554
-0.0847 1.9199 0.9568
-0.1538 1.9150 0.9581
-0.2226 1.9076 0.9594
-0.2912 1.8977 0.9607
-0.3594 1.8854 0.9620
-0.4270 1.8706 0.9632
-0.4941 1.8533 0.9644
-0.5606 1.8337 0.9656
-0.6262 1.8116 0.9668
-0.6911 1.7872 0.9679
-0.7550 1.7605 0.9690
-0.8179 1.7315 0.9700
-0.8797 1.7002 0.9710
-2.3146 4.1028 2.3926
-2.4585 4.0112 2.3926
-2.5989 3.9148 2.3926
-2.7357 3.8136 2.3926
-2.8688 3.7079 2.3926
-2.9981 3.5977 2.3926
-3.1233 3.4831 2.3926
-3.2443 3.3644 2.3926
-3.3611 3.2416 2.3926
-3.4734 3.1149 2.3926
-3.5813 2.9846 2.3926
-3.6844 2.8506 2.3926
-3.7828 2.7132 2.3926
-3.8764 2.5726 2.3926
-3.9650 2.4289 2.3926
-4.0485 2.2823 2.3926
-4.1269 2.1329 2.3926
-4.2000 1.9810 2.3926
-4.2678 1.8267 2.3926
-4.3303 1.6701 2.3926
-4.3873 1.5116 2.3926
-4.4388 1.3511 2.3926
-4.4847 1.1890 2.3926
-4.5249 1.0254 2.3926
-4.5595 0.8606 2.3926
-4.5884 0.6946 2.3926
-4.6115 0.5276 2.3926
-4.6289 0.3600 2.3926
-4.6405 0.1918 2.3926
-4.6462 0.0233 2.3926
-4.6461 -0.1454 2.3926
-4.6402 -0.3141 2.3926
-4.6284 -0.4825 2.3926
-4.6109 -0.6506 2.3926
-4.5874 -0.8180 2.3926
-4.5582 -0.9845 2.3926
-4.5233 -1.1501 2.3926
-4.4825 -1.3145 2.3926
-4.4361 -1.4775 2.3926
-4.3839 -1.6389 2.3926
-4.3262 -1.7985 2.3926
-4.2628 -1.9562 2.3926
-4.1940 -2.1117 2.3926
-4.1197 -2.2649 2.3926
-4.0400 -2.4155 2.3926
-3.9551 -2.5634 2.3926
-3.8649 -2.7085 2.3926
-3.7696 -2.8504 2.3926
-3.6693 -2.9891 2.3926
-3.5641 -3.1243 2.3926
-3.4540 -3.2559 2.3926
-3.3393 -3.3837 2.3926
-3.2199 -3.5076 2.3926
-3.0962 -3.6274 2.3926
-2.9681 -3.7428 2.3926
-2.8358 -3.8538 2.3926
-2.6995 -3.9603 2.3926
-2.5594 -4.0619 2.3926
-2.4155 -4.1587 2.3926
-2.2681 -4.2505 2.3926
-2.1173 -4.3371 2.3926
-1.9633 -4.4184 2.3926
-1.8063 -4.4942 2.3926
-1.6464 -4.5645 2.3926
-1.4839 -4.6292 2.3926
-1.3189 -4.6881 2.3926
-1.1517 -4.7411 2.3926
-0.9824 -4.7881 2.3926
-0.8113 -4.8291 2.3926
-0.6386 -4.8640 2.3926
-0.4645 -4.8927 2.3926
-0.2892 -4.9150 2.3926
-0.1130 -4.9311 2.3926
0.0640 -4.9408 2.3926
0.2414 -4.9441 2.3926
0.4191 -4.9409 2.3926
0.5969 -4.9313 2.3926
0.7743 -4.9151 2.3926
0.9514 -4.8925 2.3926
1.1277 -4.8634 2.3926
1.3030 -4.8278 2.3926
1.4772 -4.7858 2.3926
1.6499 -4.7374 2.3926
1.8210 -4.6826 2.3926
1.9901 -4.6214 2.3926
2.1570 -4.5540 2.3926
2.3216 -4.4804 2.3926
2.4834 -4.4007 2.3926
2.6424 -4.3150 2.3926
2.7983 -4.2234 2.3926
2.9509 -4.1259 2.3926
3.0998 -4.0228 2.3926
3.2449 -3.9141 2.3926
3.3861 -3.8000 2.3926
3.5230 -3.6806 2.3926
3.6555 -3.5562 2.3926
3.7833 -3.4268 2.3926
3.9064 -3.2926 2.3926
4.0244 -3.1538 2.3926
4.1372 -3.0107 2.3926
4.2446 -2.8633 2.3926
4.3465 -2.7120 2.3926
4.4427 -2.5568 2.3926
4.5331 -2.3982 2.3926
4.6175 -2.2362 2.3926
4.6958 -2.0711 2.3926
4.7679 -1.9031 2.3926
4.8337 -1.7326 2.3926
4.8930 -1.5596 2.3926
4.9458 -1.3846 2.3926
4.9921 -1.2076 2.3926
5.0316 -1.0291 2.3926
5.0644 -0.8493 2.3926
5.0905 -0.6683 2.3926
5.1098 -0.4865 2.3926
5.1222 -0.3042 2.3926
5.1278 -0.1216 2.3926
5.1265 0.0610 2.3926
5.1185 0.2434 2.3926
5.1036 0.4253 2.3926
5.0819 0.6064 2.3926
5.0535 0.7865 2.3926
5.0184 0.9653 2.3926
4.9767 1.1425 2.3926
4.9285 1.3180 2.3926
0.8298 -4.6324 2.3926
0.9966 -4.6071 2.3926
1.1626 -4.5758 2.3926
1.3276 -4.5384 2.3926
1.4912 -4.4949 2.3926
1.6533 -4.4454 2.3926
1.8137 -4.3899 2.3926
1.9721 -4.3285 2.3926
2.1283 -4.2612 2.3926
2.2821 -4.1881 2.3926
2.4333 -4.1094 2.3926
2.5816 -4.0250 2.3926
2.7268 -3.9351 2.3926
2.8687 -3.8399 2.3926
3.0071 -3.7393 2.3926
3.1418 -3.6336 2.3926
3.2726 -3.5229 2.3926
3.3992 -3.4073 2.3926
3.5216 -3.2870 2.3926
3.6395 -3.1622 2.3926
3.7528 -3.0330 2.3926
3.8612 -2.8995 2.3926
3.9647 -2.7621 2.3926
4.0629 -2.6208 2.3926
4.1559 -2.4759 2.3926
4.2435 -2.3276 2.3926
4.3254 -2.1760 2.3926
4.4017 -2.0214 2.3926
4.4722 -1.8641 2.3926
4.5367 -1.7042 2.3926
4.5953 -1.5419 2.3926
