ply
format ascii 1.0
element vertex 2186
property float32 x
property float32 y
property float32 z
end_header
-8.0590 4.4017 2.3904
-8.2150 4.1112 2.3904
-8.3606 3.8151 2.3904
-8.4955 3.5139 2.3904
-8.6197 3.2080 2.3904
-8.7329 2.8977 2.3904
-8.8349 2.5834 2.3904
-8.9257 2.2655 2.3904
-9.0051 1.9445 2.3904
-9.0729 1.6207 2.3904
-9.1291 1.2946 2.3904
-9.1736 0.9665 2.3904
-9.2064 0.6368 2.3904
-9.2273 0.3061 2.3904
-9.2363 -0.0252 2.3904
-9.2334 -0.3568 2.3904
-9.2186 -0.6883 2.3904
-9.1919 -1.0191 2.3904
-9.1533 -1.3489 2.3904
-9.1028 -1.6772 2.3904
-9.0406 -2.0036 2.3904
-8.9666 -2.3277 2.3904
-8.8810 -2.6490 2.3904
-8.7838 -2.9671 2.3904
-8.6751 -3.2817 2.3904
-8.5552 -3.5923 2.3904
-8.4241 -3.8984 2.3904
-8.2819 -4.1998 2.3904
-8.1290 -4.4959 2.3904
-7.9654 -4.7864 2.3904
-7.7913 -5.0709 2.3904
-7.6071 -5.3490 2.3904
-7.4128 -5.6203 2.3904
-7.2088 -5.8846 2.3904
-6.9953 -6.1414 2.3904
-6.7726 -6.3903 2.3904
-6.5410 -6.6312 2.3904
-6.3008 -6.8635 2.3904
-6.0522 -7.0871 2.3904
-5.7956 -7.3015 2.3904
-5.5314 -7.5066 2.3904
-5.2599 -7.7020 2.3904
-4.9813 -7.8875 2.3904
-4.6962 -8.0628 2.3904
-4.4049 -8.2277 2.3904
-4.1077 -8.3819 2.3904
-3.8051 -8.5253 2.3904
-3.4975 -8.6576 2.3904
-3.1852 -8.7788 2.3904
-2.8686 -8.8885 2.3904
-2.5483 -8.9866 2.3904
-2.2246 -9.0731 2.3904
-1.8979 -9.1478 2.3904
-1.5687 -9.2106 2.3904
-1.2374 -9.2614 2.3904
-0.9045 -9.3002 2.3904
-0.5704 -9.3268 2.3904
-0.2356 -9.3413 2.3904
0.0996 -9.3436 2.3904
0.4346 -9.3338 2.3904
0.7690 -9.3118 2.3904
1.1024 -9.2777 2.3904
1.4344 -9.2315 2.3904
1.7644 -9.1733 2.3904
2.0920 -9.1032 2.3904
2.4168 -9.0212 2.3904
2.7385 -8.9275 2.3904
3.0564 -8.8223 2.3904
3.3703 -8.7055 2.3904
3.6797 -8.5776 2.3904
3.9842 -8.4385 2.3904
4.2835 -8.2884 2.3904
4.5770 -8.1276 2.3904
4.8644 -7.9564 2.3904
5.1454 -7.7749 2.3904
5.4196 -7.5834 2.3904
5.3240 -6.9115 2.2380
5.5669 -6.7141 2.2380
5.8025 -6.5082 2.2380
6.0304 -6.2940 2.2380
6.2503 -6.0717 2.2380
5.0449 -4.5606 1.7472
6.6683 -5.6069 2.2391
6.8633 -5.3626 2.2392
7.0493 -5.1116 2.2394
7.2262 -4.8540 2.2396
7.3939 -4.5905 2.2399
7.5520 -4.3212 2.2402
7.6956 -4.0441 2.2392
7.8325 -3.7638 2.2391
7.9644 -3.4812 2.2405
8.0860 -3.1939 2.2419
8.1967 -2.9022 2.2432
8.2925 -2.6052 2.2433
8.3772 -2.3050 2.2433
8.4509 -2.0021 2.2433
8.5137 -1.6968 2.2433
8.5655 -1.3896 2.2433
8.6061 -1.0809 2.2433
8.6357 -0.7710 2.2433
8.6540 -0.4603 2.2433
8.6613 -0.1494 2.2433
8.6573 0.1615 2.2433
6.4886 0.3543 1.6843
5.5436 0.5028 1.4434
5.5542 0.7056 1.4524
5.5650 0.9110 1.4635
6.2521 1.2554 1.6557
6.2646 1.4937 1.6728
6.2773 1.7371 1.6924
6.2903 1.9864 1.7148
6.3037 2.2425 1.7400
6.3175 2.5064 1.7682
6.3317 2.7791 1.7997
6.3465 3.0619 1.8346
6.3618 3.3560 1.8734
6.3779 3.6630 1.9164
6.3947 3.9847 1.9639
6.4123 4.3228 2.0164
6.4310 4.6798 2.0745
6.4507 5.0582 2.1388
6.5689 5.5431 2.2433
6.3636 5.7736 2.2433
6.1504 5.9966 2.2433
5.9293 6.2118 2.2433
5.7006 6.4186 2.2432
5.4639 6.6161 2.2428
5.2204 6.8050 2.2423
4.9704 6.9849 2.2419
4.7143 7.1558 2.2414
4.4523 7.3173 2.2409
4.1849 7.4694 2.2405
3.9123 7.6117 2.2400
3.6350 7.7442 2.2395
3.3532 7.8667 2.2389
3.0674 7.9791 2.2384
2.7779 8.0815 2.2380
2.6548 8.7318 2.3904
0.9384 3.5383 0.9589
0.8108 3.5701 0.9591
0.6821 3.5974 0.9593
0.5525 3.6200 0.9594
0.4222 3.6378 0.9596
0.2913 3.6510 0.9597
0.1600 3.6594 0.9598
0.0284 3.6630 0.9598
-0.1032 3.6619 0.9599
-0.2346 3.6560 0.9599
-0.3658 3.6454 0.9599
-0.4965 3.6300 0.9598
-0.6266 3.6099 0.9598
-0.7559 3.5851 0.9597
-0.8841 3.5556 0.9596
-2.5194 8.7735 2.3904
-2.8333 8.6786 2.3904
-3.1436 8.5725 2.3904
-3.4501 8.4555 2.3904
-3.7522 8.3276 2.3904
-4.0496 8.1891 2.3904
-4.3420 8.0401 2.3904
-4.6290 7.8807 2.3904
-4.9102 7.7112 2.3904
-5.1852 7.5320 2.3904
-5.4538 7.3425 2.3904
-5.7155 7.1439 2.3904
-5.9700 6.9360 2.3904
-6.2171 6.7192 2.3904
-6.4563 6.4936 2.3904
-6.6875 6.2595 2.3904
-6.9102 6.0173 2.3904
-7.1242 5.7673 2.3904
-7.3292 5.5097 2.3904
-7.5250 5.2448 2.3904
-7.7113 4.9731 2.3904
-7.8878 4.6947 2.3904
-8.0543 4.4102 2.3904
-8.2106 4.1198 2.3904
-8.3565 3.8238 2.3904
-8.4918 3.5228 2.3904
-8.6162 3.2170 2.3904
-8.7297 2.9068 2.3904
-8.8321 2.5926 2.3904
-8.9232 2.2748 2.3904
-9.0029 1.9539 2.3904
-9.0711 1.6302 2.3904
-9.1277 1.3041 2.3904
-9.1725 0.9760 2.3904
-9.2056 0.6465 2.3904
-9.2268 0.3158 2.3904
-9.2362 -0.0156 2.3904
-9.2337 -0.3472 2.3904
-9.2192 -0.6786 2.3904
-9.1928 -1.0094 2.3904
-9.1546 -1.3393 2.3904
-9.1045 -1.6676 2.3904
-9.0426 -1.9941 2.3904
-8.9689 -2.3182 2.3904
-8.8836 -2.6397 2.3904
-8.7868 -2.9579 2.3904
-8.6785 -3.2726 2.3904
-8.5588 -3.5833 2.3904
-8.4281 -3.8896 2.3904
-8.2862 -4.1910 2.3904
-8.1336 -4.4873 2.3904
-7.9703 -4.7780 2.3904
-7.7966 -5.0626 2.3904
-7.6126 -5.3410 2.3904
-7.4186 -5.6125 2.3904
-7.2149 -5.8770 2.3904
-7.0017 -6.1340 2.3904
-6.7793 -6.3832 2.3904
-6.5479 -6.6242 2.3904
-6.3079 -6.8568 2.3904
-6.0596 -7.0806 2.3904
-5.8032 -7.2954 2.3904
-5.5392 -7.5007 2.3904
-5.2679 -7.6964 2.3904
-4.9896 -7.8822 2.3904
-4.7047 -8.0578 2.3904
-4.4135 -8.2230 2.3904
-4.1165 -8.3776 2.3904
-3.8140 -8.5213 2.3904
-3.5065 -8.6539 2.3904
-3.1943 -8.7754 2.3904
-2.8779 -8.8854 2.3904
-2.5577 -8.9839 2.3904
-2.2341 -9.0708 2.3904
-1.9075 -9.1458 2.3904
-1.5784 -9.2089 2.3904
-1.2471 -9.2601 2.3904
-0.9143 -9.2992 2.3904
-0.5802 -9.3262 2.3904
-0.2453 -9.3411 2.3904
0.0898 -9.3437 2.3904
0.4248 -9.3343 2.3904
0.7593 -9.3126 2.3904
1.0927 -9.2789 2.3904
1.4247 -9.2330 2.3904
1.7548 -9.1752 2.3904
2.0825 -9.1054 2.3904
2.4074 -9.0238 2.3904
2.7291 -8.9305 2.3904
3.0472 -8.8255 2.3904
3.3612 -8.7091 2.3904
3.6708 -8.5815 2.3904
3.9754 -8.4427 2.3904
4.2748 -8.2929 2.3904
4.5685 -8.1325 2.3904
4.8561 -7.9616 2.3904
5.1373 -7.7803 2.3904
5.4117 -7.5891 2.3904
5.3168 -6.9171 2.2380
5.5599 -6.7200 2.2380
5.7957 -6.5144 2.2380
6.0238 -6.3003 2.2380
6.2440 -6.0783 2.2380
5.0425 -4.5681 1.7480
6.6625 -5.6139 2.2391
6.8577 -5.3699 2.2392
7.0440 -5.1190 2.2394
7.2212 -4.8616 2.2396
7.3892 -4.5983 2.2399
7.5475 -4.3292 2.2402
7.6916 -4.0523 2.2392
7.8285 -3.7720 2.2391
7.9606 -3.4895 2.2405
8.0826 -3.2023 2.2419
8.1938 -2.9108 2.2432
8.2899 -2.6139 2.2433
8.3748 -2.3138 2.2433
8.4489 -2.0110 2.2433
8.5120 -1.7057 2.2433
8.5641 -1.3986 2.2433
8.6051 -1.0899 2.2433
8.6350 -0.7800 2.2433
8.6537 -0.4694 2.2433
8.6612 -0.1585 2.2433
8.6576 0.1524 2.2433
6.5531 0.3509 1.7009
5.5433 0.4969 1.4432
5.5539 0.6996 1.4521
5.5646 0.9049 1.4631
6.2518 1.2485 1.6552
6.2642 1.4867 1.6722
6.2769 1.7299 1.6918
6.2899 1.9790 1.7141
6.3033 2.2349 1.7392
6.3171 2.4986 1.7673
6.3313 2.7710 1.7987
6.3460 3.0535 1.8336
6.3614 3.3472 1.8722
6.3774 3.6539 1.9151
6.3942 3.9750 1.9624
6.4118 4.3127 2.0148
6.4304 4.6691 2.0727
6.4501 5.0468 2.1369
6.5748 5.5362 2.2433
6.3698 5.7670 2.2433
6.1567 5.9902 2.2433
5.9359 6.2056 2.2433
5.7074 6.4127 2.2432
5.4709 6.6104 2.2428
5.2276 6.7995 2.2424
4.9778 6.9798 2.2419
4.7218 7.1509 2.2414
4.4601 7.3127 2.2410
4.1928 7.4651 2.2405
3.9204 7.6077 2.2400
3.6432 7.7405 2.2395
3.3615 7.8633 2.2390
3.0757 7.9759 2.2384
2.7864 8.0786 2.2380
2.6640 8.7291 2.3904
2.3485 8.8182 2.3904
0.8145 3.5693 0.9591
0.6859 3.5967 0.9593
0.5563 3.6194 0.9594
0.4260 3.6374 0.9596
0.2951 3.6507 0.9597
0.1638 3.6592 0.9598
0.0323 3.6630 0.9598
-0.0993 3.6620 0.9599
-0.2308 3.6563 0.9599
-0.3620 3.6458 0.9599
-0.4927 3.6305 0.9599
-0.6228 3.6106 0.9598
-0.7521 3.5859 0.9597
-0.8804 3.5566 0.9596
-2.5102 8.7761 2.3904
-2.8242 8.6815 2.3904
-3.1346 8.5758 2.3904
-3.4412 8.4591 2.3904
-3.7434 8.3315 2.3904
7.8343 -1.2631 2.2433
7.8714 -0.9808 2.2433
7.8984 -0.6974 2.2433
7.9152 -0.4133 2.2433
7.9218 -0.1289 2.2433
7.9181 0.1555 2.2433
6.4296 0.3574 1.8248
5.5439 0.5083 1.5782
5.5545 0.7111 1.5881
5.5652 0.9166 1.6002
6.2525 1.2618 1.8104
6.2649 1.5003 1.8291
6.2776 1.7438 1.8506
6.2907 1.9933 1.8751
6.3041 2.2496 1.9026
6.3179 2.5137 1.9335
6.3321 2.7867 1.9679
6.3469 3.0698 2.0062
6.3623 3.3643 2.0487
6.3783 3.6717 2.0957
6.3951 3.9937 2.1477
6.5237 4.4073 2.2433
6.3593 4.6373 2.2433
6.1867 4.8612 2.2433
6.0064 5.0787 2.2433
5.8185 5.2896 2.2433
5.6228 5.4932 2.2432
5.4195 5.6892 2.2428
5.2095 5.8775 2.2424
4.9929 6.0582 2.2420
4.7701 6.2310 2.2416
4.5414 6.3956 2.2412
4.3070 6.5520 2.2407
4.0673 6.6998 2.2403
3.8226 6.8389 2.2399
3.5731 6.9692 2.2394
3.3193 7.0904 2.2389
3.0614 7.2025 2.2385
2.7997 7.3052 2.2380
2.6381 7.7005 2.3288
2.4219 7.9954 2.3904
0.8543 3.2346 0.9574
0.7376 3.2636 0.9576
0.6200 3.2884 0.9577
0.5015 3.3088 0.9579
0.3824 3.3250 0.9580
0.2627 3.3369 0.9581
0.1427 3.3444 0.9582
0.0225 3.3476 0.9582
-0.0978 3.3464 0.9583
-0.2180 3.3409 0.9583
-0.3378 3.3310 0.9583
-0.4573 3.3169 0.9582
-0.5761 3.2984 0.9582
-0.6942 3.2756 0.9581
-0.8114 3.2485 0.9580
-2.3148 8.0285 2.3904
-2.6020 7.9412 2.3904
-2.8860 7.8438 2.3904
-3.1663 7.7363 2.3904
-3.4427 7.6188 2.3904
-3.7148 7.4916 2.3904
-3.9823 7.3548 2.3904
-4.2447 7.2085 2.3904
-4.5019 7.0529 2.3904
-4.7533 6.8883 2.3904
-4.9989 6.7148 2.3904
-5.2381 6.5326 2.3904
-5.4708 6.3418 2.3904
-5.6966 6.1430 2.3904
-5.9152 5.9362 2.3904
-6.1263 5.7216 2.3904
-6.3297 5.4996 2.3904
-6.5252 5.2704 2.3904
-6.7124 5.0343 2.3904
-6.8911 4.7916 2.3904
-7.0611 4.5427 2.3904
-7.2221 4.2877 2.3904
-7.3740 4.0270 2.3904
-7.5165 3.7610 2.3904
-7.6495 3.4900 2.3904
-7.7727 3.2143 2.3904
-7.8860 2.9343 2.3904
-7.9893 2.6503 2.3904
-8.0824 2.3627 2.3904
-8.1652 2.0719 2.3904
-8.2375 1.7781 2.3904
-8.2993 1.4819 2.3904
-8.3504 1.1835 2.3904
-8.3908 0.8834 2.3904
-8.4205 0.5819 2.3904
-8.4393 0.2794 2.3904
-8.4473 -0.0237 2.3904
-8.4443 -0.3269 2.3904
-8.4305 -0.6300 2.3904
-8.4058 -0.9325 2.3904
-8.3702 -1.2341 2.3904
-8.3238 -1.5342 2.3904
-8.2666 -1.8326 2.3904
-8.1987 -2.1289 2.3904
-8.1201 -2.4226 2.3904
-8.0310 -2.7134 2.3904
-7.9314 -3.0009 2.3904
-7.8215 -3.2848 2.3904
-7.7014 -3.5646 2.3904
-7.5712 -3.8399 2.3904
-7.4311 -4.1105 2.3904
-7.2814 -4.3759 2.3904
-7.1221 -4.6359 2.3904
-6.9534 -4.8900 2.3904
-6.7757 -5.1379 2.3904
-6.5890 -5.3793 2.3904
-6.3937 -5.6138 2.3904
-6.1900 -5.8412 2.3904
-5.9782 -6.0612 2.3904
-5.7585 -6.2734 2.3904
-5.5312 -6.4775 2.3904
-5.2966 -6.6734 2.3904
-5.0550 -6.8607 2.3904
-4.8068 -7.0391 2.3904
-4.5522 -7.2085 2.3904
-4.2915 -7.3686 2.3904
-4.0253 -7.5191 2.3904
-3.7537 -7.6599 2.3904
-3.4771 -7.7909 2.3904
-3.1959 -7.9117 2.3904
-2.9105 -8.0223 2.3904
-2.6212 -8.1224 2.3904
-2.3285 -8.2121 2.3904
-2.0327 -8.2910 2.3904
-1.7342 -8.3592 2.3904
-1.4334 -8.4166 2.3904
-1.1307 -8.4629 2.3904
-0.8265 -8.4983 2.3904
-0.5212 -8.5227 2.3904
-0.2153 -8.5359 2.3904
0.0910 -8.5380 2.3904
0.3971 -8.5291 2.3904
0.7027 -8.5090 2.3904
1.0073 -8.4779 2.3904
1.3106 -8.4357 2.3904
1.6121 -8.3826 2.3904
1.9115 -8.3186 2.3904
2.2084 -8.2438 2.3904
2.5023 -8.1583 2.3904
2.7929 -8.0622 2.3904
3.0797 -7.9556 2.3904
3.3625 -7.8388 2.3904
3.6408 -7.7118 2.3904
3.9143 -7.5748 2.3904
4.1826 -7.4280 2.3904
4.4454 -7.2717 2.3904
4.4025 -6.6529 2.2380
4.6372 -6.4892 2.2380
4.8657 -6.3171 2.2380
5.0878 -6.1369 2.2380
5.3032 -5.9488 2.2380
5.5116 -5.7532 2.2380
5.7128 -5.5501 2.2380
5.0448 -4.5610 1.9115
6.0923 -5.1231 2.2380
6.2701 -4.8997 2.2380
6.4398 -4.6701 2.2380
6.6009 -4.4346 2.2380
6.7597 -4.1974 2.2401
6.8988 -3.9481 2.2385
7.0344 -3.6972 2.2388
7.1640 -3.4431 2.2401
7.2844 -3.1845 2.2414
7.3955 -2.9217 2.2427
7.4949 -2.6542 2.2433
7.5824 -2.3827 2.2433
7.6601 -2.1083 2.2433
7.7278 -1.8313 2.2433
7.7854 -1.5522 2.2433
7.8330 -1.2713 2.2433
7.8705 -0.9890 2.2433
7.8978 -0.7056 2.2433
7.9149 -0.4216 2.2433
7.9217 -0.1372 2.2433
7.9184 0.1472 2.2433
6.4928 0.3541 1.8426
5.5436 0.5024 1.5780
5.5542 0.7052 1.5878
5.5649 0.9106 1.5998
6.2521 1.2549 1.8098
6.2646 1.4932 1.8285
6.2773 1.7366 1.8499
6.2903 1.9859 1.8743
6.3037 2.2420 1.9018
6.3174 2.5059 1.9325
6.3317 2.7786 1.9669
6.3465 3.0614 2.0050
6.3618 3.3555 2.0474
6.3778 3.6625 2.0942
6.3946 3.9841 2.1461
6.5284 4.4005 2.2433
6.3642 4.6307 2.2433
6.1919 4.8547 2.2433
6.0118 5.0724 2.2433
5.8241 5.2835 2.2433
5.6286 5.4873 2.2432
5.4255 5.6835 2.2428
5.2157 5.8721 2.2424
4.9993 6.0530 2.2420
4.7767 6.2260 2.2416
4.5481 6.3910 2.2412
4.3139 6.5475 2.2408
4.0744 6.6956 2.2403
3.8298 6.8350 2.2399
3.5805 6.9655 2.2394
3.3267 7.0870 2.2390
3.0689 7.1993 2.2385
2.8074 7.3024 2.2380
2.6382 7.6745 2.3218
2.4303 7.9929 2.3904
0.8577 3.2337 0.9574
0.7410 3.2628 0.9575
0.6234 3.2877 0.9577
0.5050 3.3083 0.9579
0.3859 3.3246 0.9580
0.2662 3.3366 0.9581
0.1462 3.3443 0.9582
0.0260 3.3476 0.9582
-0.0943 3.3465 0.9583
-0.2144 3.3411 0.9583
-0.3343 3.3314 0.9583
-0.4538 3.3173 0.9582
-0.5727 3.2990 0.9582
-0.6908 3.2763 0.9581
-0.8080 3.2494 0.9580
-2.3064 8.0309 2.3904
-2.5937 7.9439 2.3904
-2.8777 7.8468 2.3904
-3.1582 7.7396 2.3904
-3.4347 7.6224 2.3904
-3.7069 7.4955 2.3904
-3.9745 7.3589 2.3904
-4.2371 7.2129 2.3904
-4.4944 7.0576 2.3904
-4.7461 6.8932 2.3904
-4.9918 6.7199 2.3904
-5.2312 6.5379 2.3904
-5.4641 6.3475 2.3904
-5.6901 6.1489 2.3904
-5.9089 5.9423 2.3904
-6.1203 5.7280 2.3904
-6.3239 5.5062 2.3904
-6.5196 5.2772 2.3904
-6.7070 5.0413 2.3904
-6.8860 4.7988 2.3904
-7.0562 4.5500 2.3904
-7.2175 4.2952 2.3904
-7.3697 4.0347 2.3904
-7.5125 3.7689 2.3904
-7.6457 3.4980 2.3904
-7.7692 3.2224 2.3904
-7.8829 2.9425 2.3904
-7.9864 2.6587 2.3904
-8.0798 2.3712 2.3904
-8.1629 2.0804 2.3904
-8.2355 1.7868 2.3904
-8.2976 1.4906 2.3904
-8.3491 1.1923 2.3904
-8.3898 0.8922 2.3904
-8.4198 0.5907 2.3904
-8.4389 0.2882 2.3904
-8.4472 -0.0148 2.3904
-8.4446 -0.3181 2.3904
-8.4311 -0.6212 2.3904
-8.4067 -0.9237 2.3904
-8.3714 -1.2253 2.3904
-8.3253 -1.5255 2.3904
-8.2684 -1.8240 2.3904
-8.2008 -2.1203 2.3904
-8.1225 -2.4141 2.3904
-8.0337 -2.7050 2.3904
-7.9344 -2.9926 2.3904
-7.8248 -3.2766 2.3904
-7.7050 -3.5565 2.3904
-7.5751 -3.8320 2.3904
-7.4354 -4.1027 2.3904
-7.2859 -4.3683 2.3904
-7.1269 -4.6284 2.3904
-6.9585 -4.8826 2.3904
-6.7810 -5.1307 2.3904
-6.5946 -5.3723 2.3904
-6.3995 -5.6071 2.3904
-6.1961 -5.8347 2.3904
-5.9845 -6.0549 2.3904
-5.7650 -6.2673 2.3904
-5.5379 -6.4717 2.3904
-5.3035 -6.6678 2.3904
-5.0622 -6.8553 2.3904
-4.8141 -7.0340 2.3904
-4.5597 -7.2037 2.3904
-4.2992 -7.3640 2.3904
-4.0331 -7.5149 2.3904
-3.7616 -7.6560 2.3904
-3.4852 -7.7872 2.3904
-3.2042 -7.9083 2.3904
-2.9189 -8.0192 2.3904
-2.6297 -8.1197 2.3904
-2.3371 -8.2096 2.3904
-2.0414 -8.2889 2.3904
-1.7429 -8.3574 2.3904
-1.4422 -8.4150 2.3904
-1.1396 -8.4618 2.3904
-0.8354 -8.4974 2.3904
-0.5302 -8.5221 2.3904
-0.2242 -8.5357 2.3904
0.0820 -8.5381 2.3904
0.3882 -8.5295 2.3904
0.6938 -8.5097 2.3904
0.9984 -8.4789 2.3904
1.3018 -8.4371 2.3904
1.6034 -8.3843 2.3904
1.9028 -8.3206 2.3904
2.1998 -8.2461 2.3904
2.4938 -8.1609 2.3904
2.7844 -8.0652 2.3904
3.0714 -7.9589 2.3904
3.3543 -7.8423 2.3904
3.6328 -7.7156 2.3904
3.9064 -7.5789 2.3904
4.1749 -7.4324 2.3904
4.4378 -7.2764 2.3904
4.6949 -7.1109 2.3904
4.6304 -6.4941 2.2380
4.8591 -6.3222 2.2380
5.0814 -6.1423 2.2380
5.2970 -5.9544 2.2380
5.5057 -5.7590 2.2380
5.7070 -5.5562 2.2380
5.0424 -4.5685 1.9124
6.0870 -5.1296 2.2380
6.2651 -4.9063 2.2380
6.4349 -4.6769 2.2380
6.5963 -4.4415 2.2380
6.7553 -4.2045 2.2401
6.8949 -3.9554 2.2386
7.0305 -3.7045 2.2388
7.1604 -3.4506 2.2401
7.2810 -3.1921 2.2414
7.3924 -2.9294 2.2427
7.4922 -2.6621 2.2433
7.5800 -2.3907 2.2433
7.6579 -2.1163 2.2433
7.7259 -1.8394 2.2433
7.7839 -1.5604 2.2433
7.8318 -1.2796 2.2433
7.8695 -0.9973 2.2433
7.8971 -0.7139 2.2433
7.9145 -0.4299 2.2433
7.9217 -0.1455 2.2433
7.9186 0.1389 2.2433
6.5574 0.3507 1.8608
5.5433 0.4965 1.5777
5.5539 0.6992 1.5875
5.5646 0.9045 1.5994
6.2518 1.2481 1.8093
6.2642 1.4862 1.8279
6.2769 1.7295 1.8493
6.2899 1.9786 1.8735
6.3033 2.2345 1.9009
6.3170 2.4981 1.9316
6.3313 2.7705 1.9658
6.3460 3.0530 2.0039
6.3614 3.3467 2.0461
6.3774 3.6533 2.0928
6.3941 3.9745 2.1445
6.5331 4.3937 2.2433
6.3691 4.6240 2.2433
6.1970 4.8483 2.2433
6.0171 5.0662 2.2433
5.8296 5.2774 2.2433
5.6344 5.4815 2.2432
5.4316 5.6778 2.2428
5.2219 5.8667 2.2424
5.0057 6.0479 2.2420
4.7833 6.2211 2.2416
4.5549 6.3863 2.2412
4.3208 6.5431 2.2408
4.0814 6.6914 2.2403
3.8370 6.8310 2.2399
3.5878 6.9618 2.2394
3.3342 7.0836 2.2390
3.0765 7.1962 2.2385
2.8151 7.2995 2.2380
2.6382 7.6484 2.3148
2.4387 7.9904 2.3904
0.8610 3.2328 0.9574
0.7445 3.2620 0.9575
0.6269 3.2870 0.9577
0.5084 3.3078 0.9579
0.3893 3.3242 0.9580
0.2697 3.3363 0.9581
0.1497 3.3441 0.9582
0.0295 3.3475 0.9582
-0.0908 3.3466 0.9583
-0.2109 3.3413 0.9583
-0.3308 3.3317 0.9583
-0.4503 3.3178 0.9582
-0.5692 3.2996 0.9582
-0.6874 3.2770 0.9581
-0.8046 3.2502 0.9580
-2.2979 8.0333 2.3904
-2.5853 7.9466 2.3904
-2.8695 7.8498 2.3904
-3.1501 7.7428 2.3904
-3.4267 7.6260 2.3904
7.2099 -1.1630 2.2433
7.2443 -0.9031 2.2433
7.2693 -0.6423 2.2433
7.2850 -0.3809 2.2433
7.2912 -0.1192 2.2433
7.2881 0.1426 2.2433
6.4338 0.3572 1.9838
5.5439 0.5079 1.7145
5.5545 0.7107 1.7252
5.5652 0.9162 1.7383
6.2525 1.2614 1.9666
6.2649 1.4998 1.9869
6.2776 1.7434 2.0102
6.2907 1.9928 2.0367
6.3040 2.2491 2.0665
6.3178 2.5132 2.1000
6.3321 2.7862 2.1374
6.3469 3.0693 2.1789
6.4148 3.3915 2.2433
6.2869 3.6185 2.2433
6.1510 3.8408 2.2433
6.0073 4.0579 2.2433
5.8559 4.2697 2.2433
5.6972 4.4760 2.2433
5.5306 4.6759 2.2431
5.3569 4.8694 2.2428
5.1764 5.0566 2.2424
4.9895 5.2371 2.2421
4.7962 5.4108 2.2417
4.5970 5.5773 2.2413
4.3920 5.7366 2.2410
4.1816 5.8884 2.2406
3.9659 6.0326 2.2402
3.7453 6.1688 2.2398
3.5200 6.2971 2.2394
3.2904 6.4173 2.2390
3.0567 6.5291 2.2385
2.8193 6.6325 2.2381
2.6074 6.8028 2.2628
2.4942 7.2800 2.3904
0.8921 2.9448 0.9559
0.7858 2.9752 0.9561
0.6785 3.0019 0.9562
0.5703 3.0246 0.9564
0.4613 3.0434 0.9565
0.3517 3.0583 0.9566
0.2416 3.0692 0.9567
0.1312 3.0761 0.9568
0.0207 3.0790 0.9569
-0.0900 3.0779 0.9569
-0.2005 3.0728 0.9569
-0.3107 3.0637 0.9569
-0.4206 3.0507 0.9569
-0.5299 3.0336 0.9568
-0.6386 3.0127 0.9568
-0.7464 2.9878 0.9567
-0.8532 2.9591 0.9566
-2.3967 7.3141 2.3904
-2.6582 7.2242 2.3904
-2.9164 7.1251 2.3904
-3.1710 7.0169 2.3904
-3.4216 6.8996 2.3904
-3.6678 6.7735 2.3904
-3.9095 6.6387 2.3904
-4.1463 6.4953 2.3904
-4.3778 6.3435 2.3904
-4.6039 6.1836 2.3904
-4.8241 6.0157 2.3904
-5.0383 5.8400 2.3904
-5.2461 5.6567 2.3904
-5.4473 5.4661 2.3904
-5.6417 5.2684 2.3904
-5.8289 5.0638 2.3904
-6.0087 4.8527 2.3904
-6.1809 4.6352 2.3904
-6.3453 4.4116 2.3904
-6.5017 4.1822 2.3904
-6.6498 3.9473 2.3904
-6.7895 3.7072 2.3904
-6.9205 3.4622 2.3904
-7.0427 3.2126 2.3904
-7.1560 2.9587 2.3904
-7.2601 2.7009 2.3904
-7.3550 2.4394 2.3904
-7.4405 2.1745 2.3904
-7.5165 1.9067 2.3904
-7.5829 1.6363 2.3904
-7.6395 1.3635 2.3904
-7.6863 1.0888 2.3904
-7.7233 0.8126 2.3904
-7.7504 0.5350 2.3904
-7.7675 0.2566 2.3904
-7.7746 -0.0223 2.3904
-7.7717 -0.3015 2.3904
-7.7587 -0.5804 2.3904
-7.7358 -0.8588 2.3904
-7.7028 -1.1362 2.3904
-7.6598 -1.4124 2.3904
-7.6070 -1.6870 2.3904
-7.5443 -1.9595 2.3904
-7.4718 -2.2298 2.3904
-7.3895 -2.4973 2.3904
-7.2977 -2.7617 2.3904
-7.1964 -3.0228 2.3904
-7.0857 -3.2801 2.3904
-6.9657 -3.5334 2.3904
-6.8367 -3.7822 2.3904
-6.6987 -4.0263 2.3904
-6.5520 -4.2654 2.3904
-6.3967 -4.4990 2.3904
-6.2331 -4.7269 2.3904
-6.0612 -4.9489 2.3904
-5.8815 -5.1646 2.3904
-5.6939 -5.3736 2.3904
-5.4990 -5.5758 2.3904
-5.2968 -5.7709 2.3904
-5.0876 -5.9586 2.3904
-4.8717 -6.1386 2.3904
-4.6495 -6.3108 2.3904
-4.4211 -6.4748 2.3904
-4.1868 -6.6305 2.3904
-3.9471 -6.7776 2.3904
-3.7021 -6.9160 2.3904
-3.4523 -7.0454 2.3904
-3.1979 -7.1657 2.3904
-2.9392 -7.2768 2.3904
-2.6767 -7.3784 2.3904
-2.4107 -7.4705 2.3904
-2.1414 -7.5528 2.3904
-1.8694 -7.6254 2.3904
-1.5949 -7.6881 2.3904
-1.3182 -7.7408 2.3904
-1.0398 -7.7834 2.3904
-0.7601 -7.8159 2.3904
-0.4794 -7.8383 2.3904
-0.1980 -7.8504 2.3904
0.0837 -7.8524 2.3904
0.3652 -7.8442 2.3904
0.6462 -7.8258 2.3904
0.9263 -7.7972 2.3904
1.2053 -7.7584 2.3904
1.4826 -7.7096 2.3904
1.7579 -7.6508 2.3904
2.0310 -7.5821 2.3904
2.3013 -7.5035 2.3904
2.5685 -7.4152 2.3904
2.8324 -7.3173 2.3904
3.0925 -7.2099 2.3904
3.3485 -7.0932 2.3904
3.6001 -6.9673 2.3904
3.8469 -6.8324 2.3904
4.0887 -6.6887 2.3904
4.0493 -6.1197 2.2380
4.2652 -5.9692 2.2380
4.4755 -5.8110 2.2380
4.6799 -5.6454 2.2380
4.8781 -5.4725 2.2380
5.0699 -5.2926 2.2380
5.2551 -5.1060 2.2380
5.0446 -4.5614 2.0779
5.6044 -4.7134 2.2380
5.7682 -4.5080 2.2380
5.9244 -4.2969 2.2380
6.0728 -4.0803 2.2380
6.2137 -3.8589 2.2382
6.3474 -3.6330 2.2386
6.4748 -3.4036 2.2398
6.5940 -3.1697 2.2409
6.7047 -2.9316 2.2421
6.8067 -2.6896 2.2433
6.8965 -2.4429 2.2433
6.9772 -2.1931 2.2433
7.0489 -1.9406 2.2433
7.1114 -1.6858 2.2433
7.1647 -1.4290 2.2433
7.2087 -1.1705 2.2433
7.2434 -0.9107 2.2433
7.2687 -0.6500 2.2433
7.2846 -0.3885 2.2433
7.2912 -0.1268 2.2433
7.2883 0.1349 2.2433
6.4972 0.3539 2.0032
5.5436 0.5020 1.7143
5.5542 0.7048 1.7249
5.5649 0.9102 1.7379
6.2521 1.2545 1.9660
6.2645 1.4928 1.9862
6.2772 1.7362 2.0094
6.2903 1.9855 2.0358
6.3036 2.2415 2.0656
6.3174 2.5054 2.0990
6.3317 2.7781 2.1362
6.3464 3.0609 2.1776
6.4184 3.3848 2.2433
6.2907 3.6120 2.2433
6.1551 3.8343 2.2433
6.0116 4.0516 2.2433
5.8605 4.2636 2.2433
5.7019 4.4701 2.2433
5.5356 4.6701 2.2431
5.3621 4.8639 2.2428
5.1818 5.0512 2.2424
4.9950 5.2319 2.2421
4.8020 5.4058 2.2417
4.6029 5.5726 2.2414
4.3981 5.7321 2.2410
4.1878 5.8841 2.2406
3.9722 6.0285 2.2402
3.7518 6.1650 2.2398
3.5266 6.2935 2.2394
3.2972 6.4139 2.2390
3.0636 6.5259 2.2385
2.8263 6.6296 2.2381
2.6075 6.7819 2.2567
2.5018 7.2774 2.3904
0.8952 2.9438 0.9559
0.7889 2.9744 0.9561
0.6816 3.0011 0.9562
0.5734 3.0240 0.9564
0.4645 3.0429 0.9565
0.3549 3.0579 0.9566
0.2449 3.0689 0.9567
0.1345 3.0759 0.9568
0.0239 3.0789 0.9569
-0.0867 3.0780 0.9569
-0.1973 3.0730 0.9569
-0.3075 3.0640 0.9569
-0.4174 3.0511 0.9569
-0.5268 3.0342 0.9568
-0.6354 3.0133 0.9568
-0.7433 2.9886 0.9567
-0.8501 2.9599 0.9566
-2.3890 7.3166 2.3904
-2.6506 7.2270 2.3904
-2.9089 7.1282 2.3904
-3.1636 7.0202 2.3904
-3.4143 6.9032 2.3904
-3.6607 6.7773 2.3904
-3.9025 6.6427 2.3904
-4.1394 6.4996 2.3904
-4.3711 6.3481 2.3904
-4.5973 6.1884 2.3904
-4.8178 6.0207 2.3904
-5.0321 5.8452 2.3904
-5.2401 5.6622 2.3904
-5.4415 5.4718 2.3904
-5.6361 5.2743 2.3904
-5.8235 5.0699 2.3904
-6.0035 4.8589 2.3904
-6.1760 4.6416 2.3904
-6.3406 4.4182 2.3904
-6.4972 4.1890 2.3904
-6.6456 3.9543 2.3904
-6.7855 3.7143 2.3904
-6.9168 3.4695 2.3904
-7.0393 3.2200 2.3904
-7.1528 2.9662 2.3904
-7.2572 2.7084 2.3904
-7.3524 2.4470 2.3904
-7.4382 2.1823 2.3904
-7.5144 1.9146 2.3904
-7.5811 1.6442 2.3904
-7.6380 1.3715 2.3904
-7.6851 1.0969 2.3904
-7.7224 0.8206 2.3904
-7.7498 0.5431 2.3904
-7.7671 0.2647 2.3904
-7.7745 -0.0142 2.3904
-7.7719 -0.2933 2.3904
-7.7592 -0.5722 2.3904
-7.7366 -0.8506 2.3904
-7.7039 -1.1281 2.3904
-7.6612 -1.4044 2.3904
-7.6087 -1.6790 2.3904
-7.5462 -1.9516 2.3904
-7.4740 -2.2219 2.3904
-7.3921 -2.4895 2.3904
-7.3005 -2.7541 2.3904
-7.1995 -3.0152 2.3904
-7.0891 -3.2727 2.3904
-6.9694 -3.5261 2.3904
-6.8406 -3.7750 2.3904
-6.7029 -4.0193 2.3904
-6.5564 -4.2585 2.3904
-6.4014 -4.4923 2.3904
-6.2380 -4.7204 2.3904
-6.0664 -4.9425 2.3904
-5.8868 -5.1584 2.3904
-5.6995 -5.3676 2.3904
-5.5048 -5.5700 2.3904
-5.3027 -5.7653 2.3904
-5.0938 -5.9532 2.3904
-4.8781 -6.1335 2.3904
-4.6560 -6.3059 2.3904
-4.4278 -6.4701 2.3904
-4.1937 -6.6260 2.3904
-3.9541 -6.7734 2.3904
-3.7093 -6.9121 2.3904
-3.4596 -7.0418 2.3904
-3.2053 -7.1623 2.3904
-2.9468 -7.2737 2.3904
-2.6844 -7.3756 2.3904
-2.4185 -7.4679 2.3904
-2.1493 -7.5506 2.3904
-1.8774 -7.6234 2.3904
-1.6029 -7.6864 2.3904
-1.3263 -7.7394 2.3904
-1.0480 -7.7823 2.3904
-0.7683 -7.8151 2.3904
-0.4876 -7.8378 2.3904
-0.2062 -7.8502 2.3904
0.0754 -7.8525 2.3904
0.3570 -7.8446 2.3904
0.6380 -7.8264 2.3904
0.9182 -7.7981 2.3904
1.1971 -7.7597 2.3904
1.4745 -7.7112 2.3904
1.7499 -7.6527 2.3904
2.0230 -7.5842 2.3904
2.2934 -7.5059 2.3904
2.5608 -7.4179 2.3904
2.8248 -7.3203 2.3904
3.0850 -7.2131 2.3904
3.3411 -7.0967 2.3904
3.5928 -6.9711 2.3904
3.8398 -6.8365 2.3904
4.0817 -6.6931 2.3904
4.0429 -6.1240 2.2380
4.2590 -5.9737 2.2380
4.4694 -5.8158 2.2380
4.6740 -5.6503 2.2380
4.8724 -5.4777 2.2380
5.0644 -5.2980 2.2380
5.2498 -5.1115 2.2380
5.0423 -4.5689 2.0789
5.5995 -4.7193 2.2380
5.7635 -4.5141 2.2380
5.9199 -4.3031 2.2380
6.0686 -4.0867 2.2380
6.2097 -3.8654 2.2382
6.3436 -3.6397 2.2386
6.4712 -3.4104 2.2397
6.5906 -3.1766 2.2409
6.7016 -2.9386 2.2421
6.8039 -2.6968 2.2433
6.8940 -2.4501 2.2433
6.9750 -2.2004 2.2433
7.0469 -1.9480 2.2433
7.1097 -1.6932 2.2433
7.1633 -1.4365 2.2433
7.2076 -1.1781 2.2433
7.2425 -0.9183 2.2433
7.2681 -0.6576 2.2433
7.2843 -0.3962 2.2433
7.2911 -0.1344 2.2433
7.2886 0.1273 2.2433
6.5619 0.3505 2.0230
5.5433 0.4961 1.7140
5.5539 0.6988 1.7246
5.5646 0.9041 1.7375
6.2517 1.2476 1.9655
6.2642 1.4858 1.9856
6.2769 1.7290 2.0087
6.2899 1.9781 2.0350
6.3032 2.2340 2.0647
6.3170 2.4976 2.0980
6.3312 2.7700 2.1351
6.3460 3.0525 2.1764
6.4220 3.3781 2.2433
6.2946 3.6054 2.2433
6.1591 3.8279 2.2433
6.0159 4.0454 2.2433
5.8650 4.2575 2.2433
5.7067 4.4641 2.2433
5.5405 4.6644 2.2431
5.3672 4.8583 2.2428
5.1872 5.0459 2.2424
5.0006 5.2268 2.2421
4.8077 5.4008 2.2417
4.6088 5.5678 2.2414
4.4041 5.7275 2.2410
4.1940 5.8798 2.2406
3.9786 6.0244 2.2402
3.7583 6.1611 2.2398
3.5333 6.2899 2.2394
3.3039 6.4105 2.2390
3.0705 6.5228 2.2386
2.8333 6.6267 2.2381
2.6089 6.7653 2.2517
2.5095 7.2748 2.3904
0.8982 2.9429 0.9559
0.7920 2.9736 0.9561
0.6848 3.0004 0.9562
0.5766 3.0234 0.9564
0.4677 3.0424 0.9565
0.3581 3.0575 0.9566
0.2481 3.0686 0.9567
0.1377 3.0758 0.9568
0.0271 3.0789 0.9569
-0.0835 3.0781 0.9569
-0.1940 3.0732 0.9569
-0.3043 3.0644 0.9569
-0.4142 3.0515 0.9569
-0.5236 3.0347 0.9568
-0.6323 3.0140 0.9568
-0.7401 2.9894 0.9567
-0.8470 2.9608 0.9566
-2.3813 7.3190 2.3904
-2.6431 7.2297 2.3904
-2.9015 7.1312 2.3904
-3.1562 7.0234 2.3904
6.6708 -1.0765 2.2433
6.7028 -0.8361 2.2433
6.7261 -0.5948 2.2433
6.7408 -0.3529 2.2433
6.7467 -0.1107 2.2433
6.7440 0.1314 2.2433
6.4381 0.3569 2.1452
5.5439 0.5075 1.8528
5.5545 0.7103 1.8643
5.5652 0.9158 1.8784
6.2524 1.2609 2.1250
6.2649 1.4993 2.1468
6.2776 1.7429 2.1720
6.4130 2.0311 2.2433
6.3339 2.2593 2.2433
6.2466 2.4845 2.2433
6.1515 2.7063 2.2433
6.0485 2.9245 2.2433
5.9377 3.1388 2.2433
5.8195 3.3490 2.2433
5.6938 3.5548 2.2433
5.5606 3.7557 2.2432
5.4199 3.9514 2.2429
5.2725 4.1418 2.2427
5.1183 4.3268 2.2424
4.9577 4.5061 2.2421
4.7908 4.6795 2.2418
4.6179 4.8467 2.2414
4.4392 5.0075 2.2411
4.2549 5.1618 2.2408
4.0653 5.3094 2.2404
3.8706 5.4501 2.2401
3.6710 5.5836 2.2397
3.4669 5.7099 2.2393
3.2585 5.8288 2.2389
3.0460 5.9402 2.2386
2.8298 6.0439 2.2382
2.6103 6.1405 2.2380
2.5504 6.6537 2.3904
0.9222 2.6916 0.9546
0.8250 2.7233 0.9548
0.7268 2.7515 0.9549
0.6275 2.7761 0.9551
0.5274 2.7971 0.9553
0.4266 2.8145 0.9554
0.3253 2.8282 0.9555
0.2235 2.8382 0.9556
0.1214 2.8446 0.9556
0.0191 2.8473 0.9557
-0.0832 2.8463 0.9557
-0.1854 2.8416 0.9557
-0.2874 2.8332 0.9557
-0.3890 2.8211 0.9557
-0.4901 2.8053 0.9556
-0.5906 2.7859 0.9556
-0.6903 2.7629 0.9555
-0.7891 2.7364 0.9554
-0.8869 2.7062 0.9553
-2.4613 6.6885 2.3904
-2.7003 6.5967 2.3904
-2.9360 6.4964 2.3904
-3.1680 6.3877 2.3904
-3.3960 6.2709 2.3904
-3.6197 6.1459 2.3904
-3.8388 6.0131 2.3904
-4.0531 5.8725 2.3904
-4.2624 5.7244 2.3904
-4.4662 5.5688 2.3904
-4.6644 5.4061 2.3904
-4.8567 5.2363 2.3904
-5.0429 5.0598 2.3904
-5.2227 4.8767 2.3904
-5.3959 4.6872 2.3904
-5.5623 4.4916 2.3904
-5.7216 4.2902 2.3904
-5.8737 4.0831 2.3904
-6.0183 3.8707 2.3904
-6.1552 3.6532 2.3904
-6.2844 3.4309 2.3904
-6.4055 3.2041 2.3904
-6.5185 2.9730 2.3904
-6.6232 2.7379 2.3904
-6.7194 2.4992 2.3904
-6.8071 2.2571 2.3904
-6.8860 2.0119 2.3904
-6.9562 1.7641 2.3904
-7.0174 1.5137 2.3904
-7.0696 1.2613 2.3904
-7.1128 1.0071 2.3904
-7.1469 0.7514 2.3904
-7.1717 0.4946 2.3904
-7.1874 0.2369 2.3904
-7.1938 -0.0212 2.3904
-7.1909 -0.2794 2.3904
-7.1787 -0.5375 2.3904
-7.1573 -0.7951 2.3904
-7.1266 -1.0517 2.3904
-7.0867 -1.3072 2.3904
-7.0376 -1.5612 2.3904
-6.9794 -1.8133 2.3904
-6.9122 -2.0633 2.3904
-6.8359 -2.3107 2.3904
-6.7508 -2.5553 2.3904
-6.6569 -2.7967 2.3904
-6.5544 -3.0347 2.3904
-6.4433 -3.2689 2.3904
-6.3238 -3.4990 2.3904
-6.1961 -3.7247 2.3904
-6.0602 -3.9457 2.3904
-5.9165 -4.1617 2.3904
-5.7650 -4.3725 2.3904
-5.6059 -4.5777 2.3904
-5.4396 -4.7770 2.3904
-5.2660 -4.9703 2.3904
-5.0856 -5.1572 2.3904
-4.8985 -5.3375 2.3904
-4.7050 -5.5110 2.3904
-4.5053 -5.6774 2.3904
-4.2997 -5.8365 2.3904
-4.0884 -5.9881 2.3904
-3.8717 -6.1320 2.3904
-3.6500 -6.2680 2.3904
-3.4234 -6.3959 2.3904
-3.1923 -6.5155 2.3904
-2.9571 -6.6267 2.3904
-2.7179 -6.7293 2.3904
-2.4751 -6.8232 2.3904
-2.2291 -6.9083 2.3904
-1.9802 -6.9844 2.3904
-1.7286 -7.0515 2.3904
-1.4747 -7.1094 2.3904
-1.2189 -7.1581 2.3904
-0.9615 -7.1975 2.3904
-0.7028 -7.2275 2.3904
-0.4433 -7.2482 2.3904
-0.1831 -7.2594 2.3904
0.0773 -7.2613 2.3904
0.3376 -7.2537 2.3904
0.5975 -7.2367 2.3904
0.8565 -7.2102 2.3904
1.1145 -7.1745 2.3904
1.3709 -7.1294 2.3904
1.6255 -7.0750 2.3904
1.8780 -7.0115 2.3904
2.1279 -6.9389 2.3904
2.3751 -6.8573 2.3904
2.6191 -6.7669 2.3904
2.8597 -6.6676 2.3904
3.0965 -6.5598 2.3904
3.3291 -6.4435 2.3904
3.5574 -6.3188 2.3904
3.5400 -5.7916 2.2380
3.7446 -5.6598 2.2380
3.9444 -5.5207 2.2380
4.1389 -5.3745 2.2380
4.3280 -5.2215 2.2380
4.5114 -5.0617 2.2380
4.6889 -4.8954 2.2380
4.8602 -4.7229 2.2380
5.0252 -4.5443 2.2380
5.1835 -4.3600 2.2380
5.3351 -4.1701 2.2380
5.4797 -3.9749 2.2380
5.6171 -3.7746 2.2380
5.7484 -3.5704 2.2385
5.8737 -3.3624 2.2395
5.9915 -3.1501 2.2406
6.1017 -2.9336 2.2417
6.2040 -2.7132 2.2428
6.2969 -2.4887 2.2433
6.3801 -2.2604 2.2433
6.4549 -2.0294 2.2433
6.5213 -1.7958 2.2433
6.5793 -1.5601 2.2433
6.6288 -1.3226 2.2433
6.6697 -1.0835 2.2433
6.7019 -0.8432 2.2433
6.7255 -0.6019 2.2433
6.7405 -0.3600 2.2433
6.7467 -0.1178 2.2433
6.7442 0.1244 2.2433
6.5016 0.3536 2.1662
5.5436 0.5016 1.8525
5.5542 0.7044 1.8639
5.5649 0.9098 1.8779
6.2521 1.2540 2.1244
6.2645 1.4923 2.1461
6.2772 1.7357 2.1712
6.4152 2.0244 2.2433
6.3363 2.2527 2.2433
6.2493 2.4779 2.2433
6.1544 2.6999 2.2433
6.0516 2.9182 2.2433
5.9411 3.1326 2.2433
5.8230 3.3429 2.2433
5.6975 3.5489 2.2433
5.5646 3.7499 2.2432
5.4241 3.9457 2.2430
5.2769 4.1364 2.2427
5.1229 4.3215 2.2424
4.9625 4.5010 2.2421
4.7958 4.6745 2.2418
4.6231 4.8419 2.2415
4.4445 5.0029 2.2411
4.2604 5.1574 2.2408
4.0709 5.3052 2.2404
3.8763 5.4461 2.2401
3.6769 5.5798 2.2397
3.4729 5.7064 2.2393
3.2646 5.8255 2.2390
3.0523 5.9371 2.2386
2.8361 6.0409 2.2382
2.6168 6.1376 2.2380
2.5573 6.6510 2.3904
0.9251 2.6906 0.9546
0.8279 2.7224 0.9548
0.7296 2.7507 0.9549
0.6304 2.7754 0.9551
0.5303 2.7965 0.9552
0.4296 2.8140 0.9554
0.3282 2.8278 0.9555
0.2264 2.8380 0.9556
0.1244 2.8445 0.9556
0.0221 2.8473 0.9557
-0.0802 2.8464 0.9557
-0.1824 2.8417 0.9557
-0.2844 2.8335 0.9557
-0.3860 2.8215 0.9557
-0.4872 2.8058 0.9557
-0.5876 2.7866 0.9556
-0.6874 2.7637 0.9555
-0.7862 2.7372 0.9554
-0.8840 2.7071 0.9553
-2.4543 6.6910 2.3904
-2.6934 6.5995 2.3904
-2.9292 6.4994 2.3904
-3.1613 6.3910 2.3904
-3.3894 6.2744 2.3904
-3.6132 6.1497 2.3904
-3.8325 6.0171 2.3904
-4.0470 5.8767 2.3904
-4.2563 5.7288 2.3904
-4.4603 5.5735 2.3904
-4.6587 5.4109 2.3904
-4.8512 5.2414 2.3904
-5.0376 5.0650 2.3904
-5.2176 4.8821 2.3904
-5.3910 4.6928 2.3904
-5.5575 4.4974 2.3904
-5.7170 4.2961 2.3904
-5.8693 4.0893 2.3904
-6.0141 3.8770 2.3904
-6.1513 3.6597 2.3904
-6.2807 3.4375 2.3904
-6.4021 3.2108 2.3904
-6.5153 2.9798 2.3904
-6.6202 2.7448 2.3904
-6.7167 2.5062 2.3904
-6.8046 2.2642 2.3904
-6.8838 2.0191 2.3904
-6.9542 1.7713 2.3904
-7.0157 1.5211 2.3904
-7.0682 1.2687 2.3904
-7.1117 1.0145 2.3904
-7.1460 0.7589 2.3904
-7.1711 0.5021 2.3904
-7.1870 0.2444 2.3904
-7.1937 -0.0137 2.3904
-7.1911 -0.2719 2.3904
-7.1792 -0.5300 2.3904
-7.1580 -0.7875 2.3904
-7.1276 -1.0443 2.3904
-7.0880 -1.2998 2.3904
-7.0392 -1.5538 2.3904
-6.9812 -1.8060 2.3904
-6.9143 -2.0560 2.3904
-6.8383 -2.3035 2.3904
-6.7534 -2.5482 2.3904
-6.6598 -2.7897 2.3904
-6.5575 -3.0278 2.3904
-6.4466 -3.2621 2.3904
-6.3274 -3.4923 2.3904
-6.1999 -3.7182 2.3904
-6.0643 -3.9393 2.3904
-5.9208 -4.1555 2.3904
-5.7695 -4.3664 2.3904
-5.6107 -4.5718 2.3904
-5.4445 -4.7713 2.3904
-5.2712 -4.9647 2.3904
-5.0910 -5.1518 2.3904
-4.9040 -5.3324 2.3904
-4.7107 -5.5060 2.3904
-4.5112 -5.6727 2.3904
-4.3058 -5.8320 2.3904
-4.0946 -5.9838 2.3904
-3.8781 -6.1279 2.3904
-3.6565 -6.2641 2.3904
-3.4301 -6.3922 2.3904
-3.1991 -6.5121 2.3904
-2.9640 -6.6235 2.3904
-2.7249 -6.7264 2.3904
-2.4823 -6.8206 2.3904
-2.2363 -6.9059 2.3904
-1.9875 -6.9823 2.3904
-1.7360 -7.0496 2.3904
-1.4822 -7.1078 2.3904
-1.2264 -7.1568 2.3904
-0.9690 -7.1965 2.3904
-0.7104 -7.2268 2.3904
-0.4508 -7.2477 2.3904
-0.1907 -7.2592 2.3904
0.0697 -7.2614 2.3904
0.3300 -7.2540 2.3904
0.5899 -7.2373 2.3904
0.8490 -7.2111 2.3904
1.1069 -7.1756 2.3904
1.3634 -7.1308 2.3904
1.6181 -7.0768 2.3904
1.8706 -7.0135 2.3904
2.1207 -6.9412 2.3904
2.3679 -6.8598 2.3904
2.6120 -6.7696 2.3904
2.8527 -6.6707 2.3904
3.0896 -6.5630 2.3904
3.3224 -6.4470 2.3904
3.5508 -6.3226 2.3904
3.5339 -5.7953 2.2380
3.7388 -5.6638 2.2380
3.9386 -5.5249 2.2380
4.1333 -5.3789 2.2380
4.3226 -5.2260 2.2380
4.5062 -5.0664 2.2380
4.6838 -4.9003 2.2380
4.8553 -4.7280 2.2380
5.0205 -4.5496 2.2380
5.1790 -4.3654 2.2380
5.3308 -4.1757 2.2380
5.4756 -3.9806 2.2380
5.6132 -3.7805 2.2380
5.7446 -3.5764 2.2384
5.8702 -3.3685 2.2395
5.9882 -3.1563 2.2406
6.0986 -2.9399 2.2416
6.2012 -2.7197 2.2427
6.2944 -2.4953 2.2433
6.3778 -2.2671 2.2433
6.4528 -2.0361 2.2433
6.5195 -1.8027 2.2433
6.5778 -1.5671 2.2433
6.6275 -1.3296 2.2433
6.6686 -1.0905 2.2433
6.7011 -0.8502 2.2433
6.7250 -0.6089 2.2433
6.7401 -0.3671 2.2433
6.7466 -0.1249 2.2433
6.7444 0.1173 2.2433
6.5663 0.3503 2.1876
5.5433 0.4957 1.8522
5.5539 0.6984 1.8635
5.5646 0.9037 1.8775
6.2517 1.2471 2.1238
6.2641 1.4853 2.1455
6.2768 1.7285 2.1704
6.4173 2.0177 2.2433
6.3387 2.2461 2.2433
6.2520 2.4714 2.2433
6.1572 2.6934 2.2433
6.0547 2.9119 2.2433
5.9444 3.1264 2.2433
5.8266 3.3369 2.2433
5.7013 3.5429 2.2433
5.5685 3.7441 2.2432
5.4283 3.9401 2.2430
5.2813 4.1309 2.2427
5.1275 4.3162 2.2424
4.9673 4.4958 2.2421
4.8008 4.6695 2.2418
4.6282 4.8371 2.2415
4.4498 4.9983 2.2411
4.2658 5.1530 2.2408
4.0765 5.3010 2.2404
3.8821 5.4421 2.2401
3.6828 5.5760 2.2397
3.4790 5.7028 2.2394
3.2708 5.8221 2.2390
3.0585 5.9339 2.2386
2.8425 6.0380 2.2382
2.6232 6.1349 2.2380
2.5643 6.6484 2.3904
0.9279 2.6897 0.9546
0.8307 2.7216 0.9548
0.7325 2.7499 0.9549
0.6333 2.7747 0.9551
0.5333 2.7960 0.9552
0.4325 2.8135 0.9554
0.3312 2.8275 0.9555
0.2294 2.8378 0.9556
0.1273 2.8443 0.9556
0.0251 2.8472 0.9557
-0.0772 2.8464 0.9557
-0.1795 2.8419 0.9557
-0.2814 2.8338 0.9557
-0.3831 2.8219 0.9557
-0.4842 2.8064 0.9557
-0.5847 2.7872 0.9556
-0.6845 2.7644 0.9555
-0.7833 2.7380 0.9554
-0.8812 2.7081 0.9553
-2.4473 6.6936 2.3904
-2.6865 6.6023 2.3904
-2.9224 6.5024 2.3904
6.2001 -1.0010 2.2433
6.2300 -0.7776 2.2433
6.2519 -0.5533 2.2433
6.2656 -0.3285 2.2433
6.2713 -0.1034 2.2433
6.2689 0.1217 2.2433
6.2585 0.3465 2.2433
5.5439 0.5071 1.9931
5.5545 0.7099 2.0054
5.5652 0.9154 2.0205
6.1365 1.2371 2.2433
6.0862 1.4561 2.2433
6.0281 1.6731 2.2433
5.9622 1.8879 2.2433
5.8888 2.1001 2.2433
5.8078 2.3095 2.2433
5.7195 2.5158 2.2433
5.6238 2.7187 2.2433
5.5206 2.9179 2.2432
5.4103 3.1131 2.2430
5.2930 3.3041 2.2428
5.1690 3.4908 2.2425
5.0384 3.6728 2.2423
4.9014 3.8499 2.2420
4.7583 4.0220 2.2418
4.6091 4.1888 2.2415
4.4540 4.3500 2.2412
4.2934 4.5056 2.2409
4.1273 4.6553 2.2406
3.9561 4.7989 2.2403
3.7799 4.9362 2.2399
3.5989 5.0671 2.2396
3.4135 5.1914 2.2393
3.2237 5.3090 2.2389
3.0300 5.4197 2.2386
2.8325 5.5233 2.2382
2.6316 5.6202 2.2380
2.5524 6.0038 2.3530
2.3720 6.1878 2.3904
0.8569 2.5007 0.9536
0.7666 2.5301 0.9538
0.6752 2.5563 0.9540
0.5830 2.5791 0.9541
0.4900 2.5986 0.9543
0.3964 2.6148 0.9544
0.3022 2.6275 0.9545
0.2076 2.6368 0.9545
0.1128 2.6427 0.9546
0.0177 2.6452 0.9547
-0.0773 2.6443 0.9547
-0.1723 2.6399 0.9547
-0.2670 2.6321 0.9547
-0.3614 2.6208 0.9547
-0.4553 2.6062 0.9546
-0.5487 2.5882 0.9546
-0.6413 2.5668 0.9545
-0.7331 2.5421 0.9544
-0.8240 2.5141 0.9543
-2.2892 6.2202 2.3904
-2.5115 6.1347 2.3904
-2.7306 6.0414 2.3904
-2.9463 5.9403 2.3904
-3.1583 5.8315 2.3904
-3.3663 5.7153 2.3904
-3.5701 5.5917 2.3904
-3.7694 5.4609 2.3904
-3.9639 5.3230 2.3904
-4.1534 5.1783 2.3904
-4.3377 5.0269 2.3904
-4.5164 4.8689 2.3904
-4.6895 4.7047 2.3904
-4.8566 4.5343 2.3904
-5.0176 4.3581 2.3904
-5.1722 4.1761 2.3904
-5.3203 3.9888 2.3904
-5.4616 3.7961 2.3904
-5.5959 3.5986 2.3904
-5.7232 3.3963 2.3904
-5.8431 3.1895 2.3904
-5.9556 2.9786 2.3904
-6.0606 2.7636 2.3904
-6.1578 2.5450 2.3904
-6.2471 2.3230 2.3904
-6.3285 2.0979 2.3904
-6.4017 1.8700 2.3904
-6.4668 1.6395 2.3904
-6.5236 1.4067 2.3904
-6.5720 1.1720 2.3904
-6.6120 0.9357 2.3904
-6.6435 0.6980 2.3904
-6.6665 0.4592 2.3904
-6.6809 0.2197 2.3904
-6.6867 -0.0202 2.3904
-6.6838 -0.2602 2.3904
-6.6724 -0.5001 2.3904
-6.6523 -0.7394 2.3904
-6.6236 -0.9780 2.3904
-6.5864 -1.2154 2.3904
-6.5407 -1.4515 2.3904
-6.4864 -1.6857 2.3904
-6.4238 -1.9180 2.3904
-6.3528 -2.1479 2.3904
-6.2736 -2.3751 2.3904
-6.1862 -2.5995 2.3904
-6.0908 -2.8206 2.3904
-5.9874 -3.0381 2.3904
-5.8763 -3.2519 2.3904
-5.7575 -3.4615 2.3904
-5.6311 -3.6668 2.3904
-5.4975 -3.8675 2.3904
-5.3566 -4.0632 2.3904
-5.2088 -4.2538 2.3904
-5.0541 -4.4390 2.3904
-4.8928 -4.6185 2.3904
-4.7251 -4.7921 2.3904
-4.5512 -4.9595 2.3904
-4.3713 -5.1206 2.3904
-4.1857 -5.2752 2.3904
-3.9947 -5.4229 2.3904
-3.7983 -5.5637 2.3904
-3.5970 -5.6973 2.3904
-3.3909 -5.8236 2.3904
-3.1804 -5.9423 2.3904
-2.9657 -6.0534 2.3904
-2.7471 -6.1566 2.3904
-2.5249 -6.2519 2.3904
-2.2994 -6.3391 2.3904
-2.0708 -6.4181 2.3904
-1.8395 -6.4888 2.3904
-1.6058 -6.5510 2.3904
-1.3700 -6.6048 2.3904
-1.1323 -6.6500 2.3904
-0.8932 -6.6866 2.3904
-0.6529 -6.7145 2.3904
-0.4118 -6.7337 2.3904
-0.1701 -6.7441 2.3904
0.0718 -6.7458 2.3904
0.3136 -6.7388 2.3904
0.5550 -6.7230 2.3904
0.7957 -6.6985 2.3904
1.0353 -6.6653 2.3904
1.2735 -6.6234 2.3904
1.5100 -6.5730 2.3904
1.7446 -6.5140 2.3904
1.9768 -6.4466 2.3904
2.2064 -6.3709 2.3904
2.4331 -6.2869 2.3904
2.6566 -6.1948 2.3904
2.8766 -6.0946 2.3904
3.0928 -5.9866 2.3904
3.3050 -5.8709 2.3904
3.2888 -5.3811 2.2380
3.4790 -5.2588 2.2380
3.6646 -5.1296 2.2380
3.8454 -4.9939 2.2380
4.0211 -4.8517 2.2380
4.1916 -4.7033 2.2380
4.3566 -4.5489 2.2380
4.5158 -4.3887 2.2380
4.6692 -4.2228 2.2380
4.8164 -4.0516 2.2380
4.9573 -3.8752 2.2380
5.0917 -3.6939 2.2380
5.2195 -3.5079 2.2380
5.3405 -3.3175 2.2380
5.4582 -3.1250 2.2395
5.5695 -2.9287 2.2413
5.6719 -2.7274 2.2423
5.7669 -2.5225 2.2433
5.8519 -2.3133 2.2433
5.9293 -2.1012 2.2433
5.9990 -1.8865 2.2433
6.0609 -1.6695 2.2433
6.1149 -1.4505 2.2433
6.1610 -1.2297 2.2433
6.1992 -1.0075 2.2433
6.2293 -0.7842 2.2433
6.2514 -0.5599 2.2433
6.2654 -0.3351 2.2433
6.2713 -0.1100 2.2433
6.2691 0.1151 2.2433
6.2589 0.3400 2.2433
5.5436 0.5012 1.9928
5.5541 0.7039 2.0050
5.5649 0.9093 2.0200
6.1378 1.2307 2.2433
6.0877 1.4498 2.2433
6.0299 1.6668 2.2433
5.9643 1.8817 2.2433
5.8911 2.0939 2.2433
5.8103 2.3034 2.2433
5.7222 2.5098 2.2433
5.6267 2.7128 2.2433
5.5238 2.9121 2.2432
5.4136 3.1074 2.2430
5.2965 3.2986 2.2428
5.1727 3.4854 2.2425
5.0423 3.6675 2.2423
4.9055 3.8448 2.2420
4.7625 4.0171 2.2418
4.6135 4.1840 2.2415
4.4586 4.3454 2.2412
4.2982 4.5012 2.2409
4.1323 4.6510 2.2406
3.9612 4.7948 2.2403
3.7851 4.9323 2.2400
3.6043 5.0634 2.2396
3.4189 5.1879 2.2393
3.2293 5.3057 2.2389
3.0357 5.4165 2.2386
2.8383 5.5204 2.2382
2.6375 5.6175 2.2380
2.5527 5.9870 2.3474
2.3785 6.1854 2.3904
0.8595 2.4998 0.9536
0.7692 2.5293 0.9538
0.6779 2.5556 0.9540
0.5857 2.5785 0.9541
0.4927 2.5981 0.9543
0.3991 2.6143 0.9544
0.3050 2.6272 0.9545
0.2104 2.6366 0.9545
0.1155 2.6426 0.9546
0.0205 2.6452 0.9547
-0.0745 2.6443 0.9547
-0.1695 2.6400 0.9547
-0.2643 2.6323 0.9547
-0.3587 2.6212 0.9547
-0.4526 2.6067 0.9546
-0.5460 2.5888 0.9546
-0.6386 2.5675 0.9545
-0.7305 2.5429 0.9544
-0.8213 2.5150 0.9543
-2.2826 6.2226 2.3904
-2.5050 6.1373 2.3904
-2.7243 6.0442 2.3904
-2.9401 5.9433 2.3904
-3.1522 5.8348 2.3904
-3.3603 5.7188 2.3904
-3.5642 5.5954 2.3904
-3.7636 5.4648 2.3904
-3.9583 5.3272 2.3904
-4.1479 5.1826 2.3904
-4.3324 5.0314 2.3904
-4.5113 4.8736 2.3904
-4.6845 4.7096 2.3904
-4.8518 4.5394 2.3904
-5.0130 4.3633 2.3904
-5.1678 4.1815 2.3904
-5.3160 3.9943 2.3904
-5.4575 3.8018 2.3904
-5.5921 3.6044 2.3904
-5.7196 3.4023 2.3904
-5.8397 3.1956 2.3904
-5.9525 2.9848 2.3904
-6.0576 2.7700 2.3904
-6.1550 2.5515 2.3904
-6.2446 2.3296 2.3904
-6.3262 2.1045 2.3904
-6.3997 1.8767 2.3904
-6.4650 1.6462 2.3904
-6.5221 1.4135 2.3904
-6.5707 1.1789 2.3904
-6.6110 0.9426 2.3904
-6.6427 0.7049 2.3904
-6.6659 0.4662 2.3904
-6.6806 0.2267 2.3904
-6.6866 -0.0132 2.3904
-6.6840 -0.2532 2.3904
-6.6728 -0.4931 2.3904
-6.6530 -0.7325 2.3904
-6.6246 -0.9711 2.3904
-6.5876 -1.2085 2.3904
-6.5421 -1.4446 2.3904
-6.4881 -1.6789 2.3904
-6.4257 -1.9112 2.3904
-6.3550 -2.1412 2.3904
-6.2760 -2.3685 2.3904
-6.1889 -2.5930 2.3904
-6.0937 -2.8141 2.3904
-5.9906 -3.0318 2.3904
-5.8796 -3.2457 2.3904
-5.7611 -3.4555 2.3904
-5.6349 -3.6609 2.3904
-5.5015 -3.8617 2.3904
-5.3608 -4.0576 2.3904
-5.2132 -4.2483 2.3904
-5.0587 -4.4337 2.3904
-4.8976 -4.6133 2.3904
-4.7301 -4.7871 2.3904
-4.5563 -4.9547 2.3904
-4.3767 -5.1160 2.3904
-4.1912 -5.2707 2.3904
-4.0003 -5.4187 2.3904
-3.8041 -5.5597 2.3904
-3.6029 -5.6935 2.3904
-3.3970 -5.8200 2.3904
-3.1866 -5.9389 2.3904
-2.9720 -6.0502 2.3904
-2.7535 -6.1537 2.3904
-2.5314 -6.2492 2.3904
-2.3060 -6.3367 2.3904
-2.0775 -6.4159 2.3904
-1.8463 -6.4868 2.3904
-1.6126 -6.5493 2.3904
-1.3769 -6.6033 2.3904
-1.1393 -6.6488 2.3904
-0.9002 -6.6856 2.3904
-0.6600 -6.7138 2.3904
-0.4188 -6.7333 2.3904
-0.1771 -6.7440 2.3904
0.0648 -6.7459 2.3904
0.3066 -6.7391 2.3904
0.5480 -6.7236 2.3904
0.7887 -6.6993 2.3904
1.0283 -6.6664 2.3904
1.2666 -6.6248 2.3904
1.5032 -6.5746 2.3904
1.7378 -6.5159 2.3904
1.9701 -6.4487 2.3904
2.1998 -6.3732 2.3904
2.4266 -6.2894 2.3904
2.6502 -6.1976 2.3904
2.8703 -6.0977 2.3904
3.0866 -5.9899 2.3904
3.2988 -5.8744 2.3904
3.2832 -5.3846 2.2380
3.4735 -5.2624 2.2380
3.6592 -5.1335 2.2380
3.8402 -4.9979 2.2380
4.0161 -4.8559 2.2380
4.1867 -4.7077 2.2380
4.3518 -4.5535 2.2380
4.5113 -4.3934 2.2380
4.6648 -4.2277 2.2380
4.8122 -4.0567 2.2380
4.9533 -3.8804 2.2380
5.0879 -3.6993 2.2380
5.2159 -3.5134 2.2380
5.3370 -3.3231 2.2380
5.4547 -3.1306 2.2394
5.5664 -2.9345 2.2413
5.6690 -2.7333 2.2423
5.7642 -2.5285 2.2433
5.8496 -2.3194 2.2433
5.9272 -2.1074 2.2433
5.9971 -1.8928 2.2433
6.0592 -1.6759 2.2433
6.1134 -1.4569 2.2433
6.1598 -1.2362 2.2433
6.1982 -1.0140 2.2433
6.2285 -0.7907 2.2433
6.2508 -0.5665 2.2433
6.2651 -0.3416 2.2433
6.2712 -0.1165 2.2433
6.2693 0.1086 2.2433
6.2593 0.3334 2.2433
5.5433 0.4953 1.9925
5.5538 0.6980 2.0046
5.5646 0.9033 2.0196
6.1392 1.2242 2.2433
6.0893 1.4434 2.2433
6.0317 1.6605 2.2433
5.9663 1.8754 2.2433
5.8933 2.0878 2.2433
5.8128 2.2973 2.2433
5.7248 2.5038 2.2433
5.6296 2.7070 2.2433
5.5269 2.9064 2.2432
5.4169 3.1018 2.2430
5.3000 3.2931 2.2428
5.1764 3.4800 2.2426
5.0462 3.6623 2.2423
4.9096 3.8397 2.2420
4.7668 4.0121 2.2418
4.6179 4.1792 2.2415
4.4633 4.3408 2.2412
4.3029 4.4967 2.2409
4.1372 4.6467 2.2406
3.9662 4.7907 2.2403
3.7903 4.9284 2.2400
3.6096 5.0596 2.2396
3.4244 5.1843 2.2393
3.2349 5.3023 2.2390
3.0414 5.4134 2.2386
2.8441 5.5175 2.2382
2.6434 5.6148 2.2380
2.5529 5.9700 2.3418
2.3850 6.1829 2.3904
0.8621 2.4989 0.9536
0.7719 2.5285 0.9538
0.6806 2.5549 0.9540
0.5884 2.5779 0.9541
0.4955 2.5976 0.9542
0.4019 2.6139 0.9544
0.3077 2.6268 0.9545
0.2131 2.6364 0.9545
0.1183 2.6425 0.9546
0.0233 2.6452 0.9547
-0.0718 2.6444 0.9547
-0.1667 2.6402 0.9547
-0.2615 2.6326 0.9547
-0.3559 2.6216 0.9547
-0.4499 2.6071 0.9546
-0.5433 2.5893 0.9546
-0.6359 2.5682 0.9545
-0.7278 2.5436 0.9544
-0.8187 2.5158 0.9543
-0.9085 2.4848 0.9542
-2.4986 6.1399 2.3904
-2.7179 6.0470 2.3904
5.7854 -0.9345 2.2433
5.8134 -0.7260 2.2433
5.8339 -0.5168 2.2433
5.8468 -0.3070 2.2433
5.8523 -0.0969 2.2433
5.8501 0.1132 2.2433
5.8405 0.3230 2.2433
5.5438 0.5067 2.1357
5.5544 0.7095 2.1489
5.5652 0.9150 2.1650
5.7271 1.1541 2.2433
5.6802 1.3586 2.2433
5.6261 1.5612 2.2433
5.5648 1.7616 2.2433
5.4961 1.9596 2.2433
5.4203 2.1549 2.2431
5.3375 2.3473 2.2429
5.2479 2.5366 2.2428
5.1516 2.7224 2.2426
5.0487 2.9046 2.2424
4.9394 3.0830 2.2422
4.8238 3.2572 2.2419
4.7020 3.4271 2.2417
4.5743 3.5926 2.2415
4.4408 3.7532 2.2412
4.3016 3.9090 2.2410
4.1571 4.0596 2.2407
4.0072 4.2049 2.2404
3.8523 4.3447 2.2401
3.6925 4.4788 2.2398
3.5281 4.6070 2.2395
3.3593 4.7293 2.2392
3.1863 4.8455 2.2389
3.0092 4.9553 2.2386
2.8284 5.0587 2.2382
2.6442 5.1558 2.2380
2.5325 5.4081 2.3068
2.4210 5.6941 2.3904
0.8825 2.3021 0.9526
0.7993 2.3326 0.9528
0.7151 2.3600 0.9530
0.6299 2.3844 0.9531
0.5438 2.4057 0.9533
0.4571 2.4238 0.9534
0.3697 2.4389 0.9535
0.2819 2.4507 0.9536
0.1937 2.4594 0.9536
0.1052 2.4649 0.9537
0.0165 2.4672 0.9538
-0.0721 2.4663 0.9538
-0.1607 2.4622 0.9538
-0.2491 2.4549 0.9538
-0.3371 2.4445 0.9538
-0.4247 2.4308 0.9537
-0.5118 2.4140 0.9537
-0.5982 2.3941 0.9536
-0.6838 2.3710 0.9535
-0.7686 2.3449 0.9534
-0.8523 2.3158 0.9533
-2.3448 5.7271 2.3904
-2.5494 5.6399 2.3904
-2.7507 5.5455 2.3904
-2.9486 5.4439 2.3904
-3.1428 5.3353 2.3904
-3.3330 5.2199 2.3904
-3.5190 5.0977 2.3904
-3.7006 4.9689 2.3904
-3.8774 4.8337 2.3904
-4.0494 4.6923 2.3904
-4.2162 4.5448 2.3904
-4.3777 4.3914 2.3904
-4.5337 4.2323 2.3904
-4.6839 4.0677 2.3904
-4.8281 3.8979 2.3904
-4.9663 3.7229 2.3904
-5.0981 3.5430 2.3904
-5.2234 3.3586 2.3904
-5.3421 3.1697 2.3904
-5.4540 2.9766 2.3904
-5.5589 2.7797 2.3904
-5.6567 2.5790 2.3904
-5.7474 2.3749 2.3904
-5.8306 2.1677 2.3904
-5.9065 1.9575 2.3904
-5.9747 1.7448 2.3904
-6.0353 1.5296 2.3904
-6.0882 1.3124 2.3904
-6.1333 1.0933 2.3904
-6.1705 0.8727 2.3904
-6.1998 0.6509 2.3904
-6.2211 0.4281 2.3904
-6.2344 0.2046 2.3904
-6.2397 -0.0193 2.3904
-6.2369 -0.2433 2.3904
-6.2261 -0.4671 2.3904
-6.2073 -0.6904 2.3904
-6.1804 -0.9130 2.3904
-6.1455 -1.1345 2.3904
-6.1027 -1.3547 2.3904
-6.0520 -1.5733 2.3904
-5.9935 -1.7900 2.3904
-5.9271 -2.0044 2.3904
-5.8531 -2.2164 2.3904
-5.7715 -2.4257 2.3904
-5.6824 -2.6319 2.3904
-5.5858 -2.8348 2.3904
-5.4821 -3.0342 2.3904
-5.3711 -3.2297 2.3904
-5.2532 -3.4212 2.3904
-5.1284 -3.6083 2.3904
-4.9969 -3.7908 2.3904
-4.8589 -3.9686 2.3904
-4.7146 -4.1412 2.3904
-4.5640 -4.3086 2.3904
-4.4075 -4.4705 2.3904
-4.2453 -4.6266 2.3904
-4.0775 -4.7768 2.3904
-3.9043 -4.9209 2.3904
-3.7260 -5.0587 2.3904
-3.5428 -5.1899 2.3904
-3.3550 -5.3145 2.3904
-3.1627 -5.4322 2.3904
-2.9664 -5.5429 2.3904
-2.7661 -5.6465 2.3904
-2.5622 -5.7427 2.3904
-2.3550 -5.8315 2.3904
-2.1446 -5.9128 2.3904
-1.9314 -5.9865 2.3904
-1.7157 -6.0524 2.3904
-1.4977 -6.1104 2.3904
-1.2777 -6.1605 2.3904
-1.0561 -6.2027 2.3904
-0.8331 -6.2368 2.3904
-0.6090 -6.2628 2.3904
-0.3841 -6.2807 2.3904
-0.1586 -6.2904 2.3904
0.0670 -6.2920 2.3904
0.2925 -6.2855 2.3904
0.5176 -6.2707 2.3904
0.7421 -6.2479 2.3904
0.9655 -6.2169 2.3904
1.1877 -6.1779 2.3904
1.4083 -6.1309 2.3904
1.6271 -6.0760 2.3904
1.8437 -6.0131 2.3904
2.0579 -5.9425 2.3904
2.2694 -5.8642 2.3904
2.4778 -5.7784 2.3904
2.6831 -5.6850 2.3904
2.8847 -5.5843 2.3904
2.8861 -5.1273 2.2380
3.0676 -5.0197 2.2380
3.2450 -4.9056 2.2380
3.4182 -4.7852 2.2380
3.5869 -4.6586 2.2380
3.7509 -4.5260 2.2380
3.9099 -4.3877 2.2380
4.0639 -4.2437 2.2380
4.2125 -4.0943 2.2380
4.3556 -3.9397 2.2380
4.4930 -3.7800 2.2380
4.6245 -3.6155 2.2380
4.7500 -3.4464 2.2380
4.8693 -3.2730 2.2380
4.9822 -3.0954 2.2380
5.0886 -2.9139 2.2380
6.2373 -3.2803 2.6904
5.2939 -2.5461 2.2433
5.3805 -2.3539 2.2433
5.4598 -2.1587 2.2433
5.5321 -1.9609 2.2433
5.5972 -1.7606 2.2433
5.6551 -1.5582 2.2433
5.7056 -1.3538 2.2433
5.7488 -1.1479 2.2433
5.7844 -0.9406 2.2433
5.8127 -0.7321 2.2433
5.8334 -0.5229 2.2433
5.8466 -0.3131 2.2433
5.8522 -0.1031 2.2433
5.8503 0.1070 2.2433
5.8409 0.3168 2.2433
5.5435 0.5008 2.1353
5.5541 0.7035 2.1484
5.5648 0.9089 2.1645
5.7283 1.1481 2.2433
5.6817 1.3526 2.2433
5.6278 1.5553 2.2433
5.5667 1.7558 2.2433
5.4982 1.9539 2.2433
5.4226 2.1493 2.2431
5.3400 2.3418 2.2429
5.2506 2.5311 2.2428
5.1545 2.7170 2.2426
5.0518 2.8994 2.2424
4.9427 3.0778 2.2422
4.8272 3.2522 2.2420
4.7057 3.4222 2.2417
4.5781 3.5878 2.2415
4.4448 3.7486 2.2412
4.3058 3.9045 2.2410
4.1613 4.0553 2.2407
4.0117 4.2007 2.2404
3.8569 4.3407 2.2401
3.6973 4.4749 2.2398
3.5330 4.6034 2.2395
3.3643 4.7258 2.2392
3.1914 4.8422 2.2389
3.0144 4.9522 2.2386
