ply
format ascii 1.0
element vertex 2169
property float32 x
property float32 y
property float32 z
end_header
-4.4012 -3.4145 2.3878
-4.2807 -3.5764 2.3878
-4.1546 -3.7342 2.3878
-4.0229 -3.8877 2.3878
-3.8858 -4.0368 2.3878
-3.7434 -4.1812 2.3878
-3.5958 -4.3208 2.3878
-3.4433 -4.4554 2.3878
-3.2860 -4.5848 2.3878
-3.1240 -4.7089 2.3878
-2.9573 -4.8278 2.3878
-2.7866 -4.9402 2.3878
-2.6117 -5.0471 2.3878
-2.4328 -5.1480 2.3878
-2.2501 -5.2428 2.3878
-2.0640 -5.3312 2.3878
-1.8745 -5.4131 2.3878
-1.6818 -5.4884 2.3878
-1.4863 -5.5571 2.3878
-1.2881 -5.6189 2.3878
-1.0875 -5.6736 2.3878
-0.8846 -5.7213 2.3878
-0.6799 -5.7619 2.3878
-0.4734 -5.7952 2.3878
-0.2655 -5.8211 2.3878
-0.0564 -5.8397 2.3878
0.1537 -5.8507 2.3878
0.3643 -5.8542 2.3878
0.5754 -5.8501 2.3878
0.7866 -5.8384 2.3878
0.9976 -5.8190 2.3878
1.2082 -5.7920 2.3878
1.4180 -5.7573 2.3878
1.6268 -5.7149 2.3878
1.8343 -5.6648 2.3878
2.0402 -5.6072 2.3878
2.2442 -5.5419 2.3878
2.4460 -5.4691 2.3878
2.6454 -5.3888 2.3878
2.8420 -5.3010 2.3878
3.0355 -5.2060 2.3878
3.2257 -5.1037 2.3878
3.4124 -4.9944 2.3878
3.5951 -4.8779 2.3878
3.7736 -4.7547 2.3878
3.9477 -4.6247 2.3878
4.1171 -4.4881 2.3878
4.2815 -4.3451 2.3878
4.4406 -4.1960 2.3878
4.5943 -4.0408 2.3878
4.7423 -3.8798 2.3878
4.8842 -3.7131 2.3878
5.0200 -3.5411 2.3878
5.1494 -3.3639 2.3878
5.2721 -3.1818 2.3878
5.3880 -2.9950 2.3878
5.4969 -2.8039 2.3878
5.5986 -2.6086 2.3878
5.6929 -2.4095 2.3878
5.7797 -2.2068 2.3878
5.8588 -2.0008 2.3878
5.9302 -1.7919 2.3878
5.9936 -1.5804 2.3878
6.0489 -1.3665 2.3878
6.0962 -1.1506 2.3878
6.1353 -0.9330 2.3878
6.1660 -0.7140 2.3878
6.1885 -0.4940 2.3878
6.2026 -0.2733 2.3878
6.2084 -0.0522 2.3878
6.2057 0.1690 2.3878
6.1947 0.3899 2.3878
6.1753 0.6101 2.3878
6.1476 0.8294 2.3878
6.1116 1.0475 2.3878
6.0674 1.2639 2.3878
6.0151 1.4785 2.3878
5.9547 1.6908 2.3878
5.8864 1.9005 2.3878
5.8103 2.1074 2.3878
5.7264 2.3111 2.3878
5.6350 2.5114 2.3878
5.5363 2.7079 2.3878
5.4302 2.9004 2.3878
5.3171 3.0886 2.3878
5.1972 3.2722 2.3878
5.0706 3.4510 2.3878
4.9375 3.6248 2.3878
4.7982 3.7932 2.3878
4.6528 3.9562 2.3878
4.5017 4.1134 2.3878
4.3450 4.2647 2.3878
4.1830 4.4098 2.3878
4.0160 4.5487 2.3878
3.8441 4.6810 2.3878
3.6678 4.8067 2.3878
3.4872 4.9257 2.3878
3.3026 5.0377 2.3878
3.1144 5.1426 2.3878
2.9227 5.2404 2.3878
2.7279 5.3310 2.3878
2.5302 5.4142 2.3878
0.9053 2.1331 0.9277
0.8282 2.1637 0.9295
0.7500 2.1916 0.9313
0.6708 2.2166 0.9331
0.5908 2.2388 0.9349
0.5101 2.2580 0.9367
0.4287 2.2743 0.9385
0.3467 2.2877 0.9403
0.2644 2.2981 0.9422
0.1817 2.3055 0.9440
0.0987 2.3099 0.9458
0.0157 2.3114 0.9476
-0.0673 2.3098 0.9494
-0.1503 2.3052 0.9512
-0.2330 2.2977 0.9530
-0.3153 2.2871 0.9547
-0.3973 2.2736 0.9565
-0.4787 2.2571 0.9582
-0.5595 2.2377 0.9599
-0.6395 2.2154 0.9616
-0.7186 2.1902 0.9632
-0.7968 2.1622 0.9649
-0.8739 2.1314 0.9665
-2.3430 5.1746 2.3878
-2.5233 5.0770 2.3878
-2.6997 4.9734 2.3878
-2.8722 4.8638 2.3878
-3.0404 4.7485 2.3878
-3.2043 4.6276 2.3878
-3.3637 4.5013 2.3878
-3.5183 4.3696 2.3878
-3.6680 4.2329 2.3878
-3.8128 4.0913 2.3878
-3.9523 3.9450 2.3878
-4.0866 3.7941 2.3878
-4.2153 3.6389 2.3878
-4.3386 3.4795 2.3878
-4.4561 3.3161 2.3878
-4.5678 3.1490 2.3878
-4.6736 2.9782 2.3878
-4.7733 2.8042 2.3878
-4.8670 2.6269 2.3878
-4.9544 2.4467 2.3878
-5.0355 2.2638 2.3878
-5.1103 2.0783 2.3878
-5.1786 1.8905 2.3878
-5.2405 1.7005 2.3878
-5.2957 1.5087 2.3878
-5.3444 1.3152 2.3878
-5.3863 1.1201 2.3878
-5.4216 0.9239 2.3878
-5.4502 0.7266 2.3878
-5.4720 0.5285 2.3878
-5.4870 0.3298 2.3878
-5.4952 0.1307 2.3878
-5.4966 -0.0686 2.3878
-5.4912 -0.2678 2.3878
-5.4790 -0.4668 2.3878
-5.4600 -0.6652 2.3878
-5.4343 -0.8630 2.3878
-5.4017 -1.0598 2.3878
-5.3625 -1.2555 2.3878
-5.3165 -1.4498 2.3878
-5.2639 -1.6425 2.3878
-5.2047 -1.8335 2.3878
-5.1390 -2.0224 2.3878
-5.0667 -2.2091 2.3878
-4.9881 -2.3934 2.3878
-4.9031 -2.5750 2.3878
-4.8118 -2.7537 2.3878
-4.7143 -2.9294 2.3878
-4.6108 -3.1018 2.3878
-4.5012 -3.2707 2.3878
-4.3858 -3.4359 2.3878
-4.2645 -3.5972 2.3878
-4.1377 -3.7545 2.3878
-4.0053 -3.9074 2.3878
-3.8674 -4.0559 2.3878
-3.7244 -4.1998 2.3878
-3.5762 -4.3387 2.3878
-3.4230 -4.4727 2.3878
-3.2650 -4.6014 2.3878
-3.1024 -4.7248 2.3878
-2.9354 -4.8425 2.3878
-2.7640 -4.9545 2.3878
-2.5885 -5.0607 2.3878
-2.4091 -5.1608 2.3878
-2.2260 -5.2547 2.3878
-2.0394 -5.3423 2.3878
-1.8494 -5.4234 2.3878
-1.6564 -5.4978 2.3878
-1.4605 -5.5655 2.3878
-1.2620 -5.6264 2.3878
-1.0611 -5.6803 2.3878
-0.8580 -5.7271 2.3878
-0.6530 -5.7667 2.3878
-0.4463 -5.7990 2.3878
-0.2382 -5.8240 2.3878
-0.0289 -5.8415 2.3878
0.1812 -5.8516 2.3878
0.3919 -5.8541 2.3878
0.6030 -5.8490 2.3878
0.8142 -5.8363 2.3878
1.0252 -5.8159 2.3878
1.2357 -5.7879 2.3878
1.4454 -5.7522 2.3878
1.6540 -5.7088 2.3878
1.8613 -5.6577 2.3878
2.0670 -5.5991 2.3878
2.2707 -5.5328 2.3878
2.4722 -5.4590 2.3878
2.6713 -5.3777 2.3878
2.8675 -5.2890 2.3878
3.0606 -5.1930 2.3878
3.2504 -5.0898 2.3878
3.4365 -4.9795 2.3878
3.6187 -4.8622 2.3878
3.7966 -4.7380 2.3878
3.9701 -4.6072 2.3878
4.1389 -4.4698 2.3878
4.3026 -4.3260 2.3878
4.4611 -4.1760 2.3878
4.6140 -4.0200 2.3878
4.7612 -3.8583 2.3878
4.9024 -3.6909 2.3878
5.0373 -3.5182 2.3878
5.1658 -3.3403 2.3878
5.2877 -3.1576 2.3878
5.4027 -2.9702 2.3878
5.5106 -2.7785 2.3878
5.6114 -2.5827 2.3878
5.7047 -2.3831 2.3878
5.7905 -2.1800 2.3878
5.8686 -1.9737 2.3878
5.9389 -1.7644 2.3878
6.0013 -1.5525 2.3878
6.0556 -1.3384 2.3878
6.1018 -1.1222 2.3878
6.1398 -0.9044 2.3878
6.1695 -0.6853 2.3878
6.1908 -0.4652 2.3878
6.2039 -0.2444 2.3878
6.2085 -0.0232 2.3878
6.2048 0.1979 2.3878
6.1926 0.4187 2.3878
6.1722 0.6389 2.3878
6.1434 0.8581 2.3878
6.1063 1.0759 2.3878
6.0611 1.2921 2.3878
6.0077 1.5064 2.3878
5.9462 1.7184 2.3878
5.8769 1.9277 2.3878
5.7997 2.1342 2.3878
5.7149 2.3375 2.3878
5.6225 2.5373 2.3878
5.5228 2.7333 2.3878
5.4158 2.9253 2.3878
5.3018 3.1129 2.3878
5.1810 3.2959 2.3878
5.0535 3.4740 2.3878
4.9196 3.6471 2.3878
4.7795 3.8149 2.3878
4.6334 3.9771 2.3878
4.4815 4.1335 2.3878
4.3241 4.2840 2.3878
4.1614 4.4283 2.3878
3.9937 4.5663 2.3878
3.8213 4.6978 2.3878
3.6444 4.8227 2.3878
3.4633 4.9407 2.3878
3.2782 5.0518 2.3878
3.0895 5.1558 2.3878
2.8974 5.2527 2.3878
2.7022 5.3423 2.3878
2.5041 5.4246 2.3878
0.8952 2.1372 0.9280
0.8180 2.1675 0.9297
0.7397 2.1950 0.9315
0.6604 2.2197 0.9333
0.5803 2.2414 0.9351
0.4995 2.2603 0.9369
0.4180 2.2762 0.9387
0.3360 2.2892 0.9406
0.2536 2.2992 0.9424
0.1708 2.3063 0.9442
0.0879 2.3103 0.9460
0.0048 2.3113 0.9478
-0.0782 2.3094 0.9496
-0.1611 2.3044 0.9514
-0.2438 2.2964 0.9532
-0.3261 2.2855 0.9550
-0.4080 2.2716 0.9567
-0.4893 2.2548 0.9584
-0.5700 2.2350 0.9601
-0.6499 2.2123 0.9618
-0.7289 2.1867 0.9635
-0.8070 2.1583 0.9651
-0.8839 2.1272 0.9667
-2.3668 5.1622 2.3878
-2.5466 5.0638 2.3878
-2.7226 4.9594 2.3878
-2.8944 4.8491 2.3878
-3.0621 4.7330 2.3878
-3.2254 4.6114 2.3878
-3.3842 4.4843 2.3878
-3.5382 4.3520 2.3878
-3.6873 4.2147 2.3878
-3.8313 4.0725 2.3878
-3.9702 3.9255 2.3878
-4.1037 3.7740 2.3878
-4.2318 3.6182 2.3878
-4.3543 3.4583 2.3878
-4.4710 3.2944 2.3878
-4.5820 3.1268 2.3878
-4.6870 2.9557 2.3878
-4.7859 2.7812 2.3878
-4.8788 2.6035 2.3878
-4.9654 2.4229 2.3878
-5.0457 2.2397 2.3878
-5.1196 2.0539 2.3878
-5.1871 1.8657 2.3878
-5.2481 1.6756 2.3878
-5.3025 1.4835 2.3878
-5.3502 1.2898 2.3878
-5.3914 1.0946 2.3878
-5.4258 0.8982 2.3878
-5.4534 0.7007 2.3878
-5.4743 0.5025 2.3878
-5.4885 0.3038 2.3878
-5.4958 0.1046 2.3878
-5.4963 -0.0947 2.3878
-5.4900 -0.2939 2.3878
-5.4769 -0.4928 2.3878
-5.4570 -0.6911 2.3878
-5.4304 -0.8888 2.3878
-5.3970 -1.0855 2.3878
-5.3568 -1.2810 2.3878
-5.3100 -1.4751 2.3878
-5.2566 -1.6676 2.3878
-5.1965 -1.8583 2.3878
-5.1299 -2.0470 2.3878
-5.0568 -2.2334 2.3878
-4.9773 -2.4173 2.3878
-4.8915 -2.5985 2.3878
-4.7994 -2.7769 2.3878
-4.7011 -2.9521 2.3878
-4.5968 -3.1241 2.3878
-4.4864 -3.2925 2.3878
-4.3702 -3.4572 2.3878
-4.2482 -3.6181 2.3878
-4.1206 -3.7748 2.3878
-3.9875 -3.9271 2.3878
-3.8490 -4.0750 2.3878
-3.7053 -4.2182 2.3878
-3.5564 -4.3565 2.3878
-3.4026 -4.4898 2.3878
-3.2440 -4.6178 2.3878
-3.0808 -4.7405 2.3878
-2.9132 -4.8575 2.3878
-2.7413 -4.9687 2.3878
-2.5652 -5.0742 2.3878
-2.3853 -5.1734 2.3878
-2.2018 -5.2665 2.3878
-2.0147 -5.3533 2.3878
-1.8244 -5.4335 2.3878
-1.6309 -5.5071 2.3878
-1.4347 -5.5740 2.3878
-4.1780 3.1422 2.3878
-4.2842 2.9854 2.3878
-4.3847 2.8253 2.3878
-4.4797 2.6619 2.3878
-4.5688 2.4956 2.3878
-4.6521 2.3263 2.3878
-4.7295 2.1545 2.3878
-4.8009 1.9802 2.3878
-4.8662 1.8036 2.3878
-4.9254 1.6250 2.3878
-4.9784 1.4446 2.3878
-5.0252 1.2626 2.3878
-5.0656 1.0791 2.3878
-5.0998 0.8944 2.3878
-5.1276 0.7087 2.3878
-5.1490 0.5222 2.3878
-5.1640 0.3351 2.3878
-5.1726 0.1475 2.3878
-5.1747 -0.0401 2.3878
-5.1704 -0.2278 2.3878
-5.1597 -0.4153 2.3878
-5.1426 -0.6023 2.3878
-5.1191 -0.7886 2.3878
-5.0892 -0.9741 2.3878
-5.0529 -1.1585 2.3878
-5.0103 -1.3417 2.3878
-4.9614 -1.5234 2.3878
-4.9063 -1.7034 2.3878
-4.8450 -1.8815 2.3878
-4.7776 -2.0575 2.3878
-4.7041 -2.2312 2.3878
-4.6246 -2.4025 2.3878
-4.5391 -2.5710 2.3878
-4.4479 -2.7366 2.3878
-4.3509 -2.8992 2.3878
-4.2482 -3.0585 2.3878
-4.1400 -3.2143 2.3878
-4.0263 -3.3664 2.3878
-3.9073 -3.5147 2.3878
-3.7830 -3.6589 2.3878
-3.6537 -3.7989 2.3878
-3.5194 -3.9345 2.3878
-3.3803 -4.0655 2.3878
-3.2365 -4.1919 2.3878
-3.0882 -4.3132 2.3878
-2.9355 -4.4295 2.3878
-2.7787 -4.5406 2.3878
-2.6177 -4.6462 2.3878
-2.4530 -4.7463 2.3878
-2.2845 -4.8407 2.3878
-2.1125 -4.9293 2.3878
-1.9373 -5.0119 2.3878
-1.7589 -5.0884 2.3878
-1.5777 -5.1587 2.3878
-1.3937 -5.2226 2.3878
-1.2074 -5.2801 2.3878
-1.0187 -5.3310 2.3878
-0.8280 -5.3752 2.3878
-0.6356 -5.4127 2.3878
-0.4416 -5.4434 2.3878
-0.2462 -5.4671 2.3878
-0.0498 -5.4839 2.3878
0.1474 -5.4937 2.3878
0.3452 -5.4963 2.3878
0.5433 -5.4918 2.3878
0.7415 -5.4802 2.3878
0.9394 -5.4614 2.3878
1.1369 -5.4354 2.3878
1.3337 -5.4022 2.3878
1.5294 -5.3618 2.3878
1.7239 -5.3143 2.3878
1.9168 -5.2596 2.3878
2.1080 -5.1978 2.3878
2.2970 -5.1289 2.3878
2.4837 -5.0531 2.3878
2.6678 -4.9703 2.3878
2.8490 -4.8807 2.3878
3.0270 -4.7843 2.3878
3.2016 -4.6813 2.3878
3.3726 -4.5718 2.3878
3.5396 -4.4559 2.3878
3.7022 -4.3334 2.3878
3.8607 -4.2053 2.3878
4.0144 -4.0710 2.3878
4.1632 -3.9309 2.3878
4.3068 -3.7852 2.3878
4.4451 -3.6341 2.3878
4.5777 -3.4777 2.3878
4.7045 -3.3164 2.3878
4.8254 -3.1502 2.3878
4.9400 -2.9795 2.3878
5.0482 -2.8044 2.3878
5.1499 -2.6253 2.3878
5.2448 -2.4423 2.3878
5.3329 -2.2558 2.3878
5.4139 -2.0660 2.3878
5.4878 -1.8731 2.3878
5.5544 -1.6775 2.3878
5.6135 -1.4794 2.3878
5.6652 -1.2792 2.3878
5.7093 -1.0771 2.3878
5.7458 -0.8734 2.3878
5.7745 -0.6684 2.3878
5.7955 -0.4625 2.3878
5.8087 -0.2559 2.3878
5.8141 -0.0489 2.3878
5.8116 0.1581 2.3878
5.8014 0.3648 2.3878
5.7833 0.5710 2.3878
5.7575 0.7763 2.3878
5.7239 0.9804 2.3878
5.6827 1.1830 2.3878
5.6339 1.3839 2.3878
5.5776 1.5827 2.3878
5.5139 1.7791 2.3878
5.4428 1.9728 2.3878
5.3646 2.1637 2.3878
5.2793 2.3513 2.3878
5.1871 2.5354 2.3878
5.0881 2.7158 2.3878
4.9826 2.8922 2.3878
4.8706 3.0644 2.3878
4.7523 3.2321 2.3878
4.6280 3.3951 2.3878
4.4978 3.5532 2.3878
4.3620 3.7061 2.3878
4.2208 3.8537 2.3878
4.0744 3.9958 2.3878
3.9229 4.1322 2.3878
3.7667 4.2627 2.3878
3.6061 4.3871 2.3878
3.4411 4.5054 2.3878
3.2722 4.6173 2.3878
3.0995 4.7228 2.3878
2.9233 4.8217 2.3878
2.7438 4.9139 2.3878
2.5614 4.9994 2.3878
0.9224 1.9712 0.9269
0.8511 2.0026 0.9285
0.7787 2.0313 0.9302
0.7053 2.0575 0.9319
0.6310 2.0810 0.9336
0.5559 2.1017 0.9353
0.4801 2.1198 0.9370
0.4037 2.1351 0.9387
0.3268 2.1477 0.9404
0.2494 2.1574 0.9421
0.1718 2.1644 0.9438
0.0939 2.1685 0.9455
0.0160 2.1698 0.9472
-0.0620 2.1684 0.9489
-0.1398 2.1641 0.9506
-0.2175 2.1570 0.9522
-0.2948 2.1471 0.9539
-0.3717 2.1344 0.9555
-0.4482 2.1189 0.9572
-0.5240 2.1007 0.9588
-0.5991 2.0798 0.9603
-0.6734 2.0561 0.9619
-0.7468 2.0298 0.9634
-0.8192 2.0009 0.9649
-0.8905 1.9694 0.9664
-2.3701 4.7748 2.3878
-2.5363 4.6778 2.3878
-2.6988 4.5752 2.3878
-2.8573 4.4671 2.3878
-3.0117 4.3537 2.3878
-3.1619 4.2352 2.3878
-3.3077 4.1117 2.3878
-3.4489 3.9834 2.3878
-3.5853 3.8504 2.3878
-3.7169 3.7130 2.3878
-3.8436 3.5712 2.3878
-3.9651 3.4253 2.3878
-4.0813 3.2755 2.3878
-4.1922 3.1219 2.3878
-4.2977 2.9647 2.3878
-4.3975 2.8041 2.3878
-4.4917 2.6403 2.3878
-4.5801 2.4736 2.3878
-4.6626 2.3040 2.3878
-4.7392 2.1318 2.3878
-4.8098 1.9572 2.3878
-4.8743 1.7804 2.3878
-4.9327 1.6015 2.3878
-4.9849 1.4209 2.3878
-5.0308 1.2387 2.3878
-5.0705 1.0550 2.3878
-5.1038 0.8702 2.3878
-5.1307 0.6844 2.3878
-5.1512 0.4975 2.3878
-5.1655 0.3105 2.3878
-5.1732 0.1230 2.3878
-5.1745 -0.0647 2.3878
-5.1694 -0.2524 2.3878
-5.1579 -0.4398 2.3878
-5.1399 -0.6267 2.3878
-5.1155 -0.8129 2.3878
-5.0848 -0.9983 2.3878
-5.0477 -1.1826 2.3878
-5.0043 -1.3656 2.3878
-4.9546 -1.5470 2.3878
-4.8986 -1.7268 2.3878
-4.8365 -1.9046 2.3878
-4.7683 -2.0804 2.3878
-4.6940 -2.2538 2.3878
-4.6137 -2.4247 2.3878
-4.5275 -2.5928 2.3878
-4.4355 -2.7581 2.3878
-4.3377 -2.9202 2.3878
-4.2343 -3.0790 2.3878
-4.1254 -3.2344 2.3878
-4.0110 -3.3860 2.3878
-3.8913 -3.5337 2.3878
-3.7664 -3.6774 2.3878
-3.6364 -3.8169 2.3878
-3.5015 -3.9519 2.3878
-3.3618 -4.0823 2.3878
-3.2174 -4.2080 2.3878
-3.0685 -4.3287 2.3878
-2.9152 -4.4443 2.3878
-2.7578 -4.5547 2.3878
-2.5964 -4.6596 2.3878
-2.4311 -4.7590 2.3878
-2.2622 -4.8527 2.3878
-2.0898 -4.9405 2.3878
-1.9140 -5.0227 2.3878
-1.7354 -5.0980 2.3878
-1.5538 -5.1674 2.3878
-1.3695 -5.2304 2.3878
-1.1828 -5.2871 2.3878
-0.9939 -5.3372 2.3878
-0.8030 -5.3805 2.3878
-0.6103 -5.4171 2.3878
-0.4161 -5.4469 2.3878
-0.2206 -5.4697 2.3878
-0.0241 -5.4856 2.3878
0.1732 -5.4944 2.3878
0.3711 -5.4961 2.3878
0.5692 -5.4907 2.3878
0.7674 -5.4782 2.3878
0.9653 -5.4584 2.3878
1.1627 -5.4315 2.3878
1.3593 -5.3973 2.3878
1.5549 -5.3560 2.3878
1.7492 -5.3075 2.3878
1.9420 -5.2519 2.3878
2.1328 -5.1892 2.3878
2.3216 -5.1194 2.3878
2.5080 -5.0427 2.3878
2.6917 -4.9590 2.3878
2.8725 -4.8685 2.3878
3.0500 -4.7712 2.3878
3.2242 -4.6674 2.3878
3.3946 -4.5570 2.3878
3.5611 -4.4402 2.3878
3.7234 -4.3172 2.3878
3.8811 -4.1881 2.3878
4.0342 -4.0530 2.3878
4.1823 -3.9122 2.3878
4.3252 -3.7657 2.3878
4.4627 -3.6139 2.3878
4.5946 -3.4569 2.3878
4.7207 -3.2949 2.3878
4.8407 -3.1281 2.3878
4.9545 -2.9568 2.3878
5.0619 -2.7812 2.3878
5.1627 -2.6016 2.3878
5.2568 -2.4181 2.3878
5.3439 -2.2312 2.3878
5.4240 -2.0409 2.3878
5.4969 -1.8477 2.3878
5.5625 -1.6517 2.3878
5.6207 -1.4534 2.3878
5.6714 -1.2529 2.3878
5.7145 -1.0505 2.3878
5.7500 -0.8466 2.3878
5.7777 -0.6415 2.3878
5.7977 -0.4355 2.3878
5.8099 -0.2288 2.3878
5.8142 -0.0218 2.3878
5.8107 0.1851 2.3878
5.7995 0.3918 2.3878
5.7804 0.5979 2.3878
5.7535 0.8030 2.3878
5.7190 1.0070 2.3878
5.6768 1.2094 2.3878
5.6270 1.4100 2.3878
5.5697 1.6085 2.3878
5.5050 1.8046 2.3878
5.4330 1.9980 2.3878
5.3538 2.1884 2.3878
5.2676 2.3756 2.3878
5.1745 2.5592 2.3878
5.0747 2.7391 2.3878
4.9683 2.9150 2.3878
4.8554 3.0866 2.3878
4.7364 3.2537 2.3878
4.6113 3.4161 2.3878
4.4804 3.5735 2.3878
4.3439 3.7258 2.3878
4.2019 3.8726 2.3878
4.0548 4.0140 2.3878
3.9028 4.1496 2.3878
3.7460 4.2793 2.3878
3.5847 4.4030 2.3878
3.4192 4.5204 2.3878
3.2498 4.6315 2.3878
3.0766 4.7361 2.3878
2.9000 4.8342 2.3878
2.7201 4.9255 2.3878
2.5373 5.0101 2.3878
0.9132 1.9755 0.9271
0.8417 2.0065 0.9288
0.7692 2.0349 0.9304
0.6957 2.0607 0.9321
0.6212 2.0838 0.9338
0.5460 2.1043 0.9355
0.4701 2.1220 0.9372
0.3936 2.1369 0.9389
0.3167 2.1491 0.9406
0.2393 2.1585 0.9423
0.1616 2.1651 0.9440
0.0837 2.1688 0.9457
0.0058 2.1698 0.9474
-0.0722 2.1680 0.9491
-0.1500 2.1633 0.9508
-0.2276 2.1558 0.9525
-0.3049 2.1456 0.9541
-0.3818 2.1325 0.9558
-0.4581 2.1167 0.9574
-0.5339 2.0981 0.9590
-0.6089 2.0768 0.9605
-0.6831 2.0528 0.9621
-0.7563 2.0262 0.9636
-0.8286 1.9969 0.9651
-2.2228 4.8545 2.3878
-2.3921 4.7624 2.3878
-2.5578 4.6647 2.3878
-2.7197 4.5613 2.3878
-2.8777 4.4526 2.3878
-3.0316 4.3385 2.3878
-3.1812 4.2193 2.3878
-3.3264 4.0952 2.3878
-3.4670 3.9663 2.3878
-3.6028 3.8327 2.3878
-3.7338 3.6947 2.3878
-3.8598 3.5523 2.3878
-3.9806 3.4059 2.3878
-4.0961 3.2556 2.3878
-4.2063 3.1015 2.3878
-4.3110 2.9439 2.3878
-4.4101 2.7829 2.3878
-4.5036 2.6187 2.3878
-4.5912 2.4515 2.3878
-4.6730 2.2816 2.3878
-4.7488 2.1091 2.3878
-4.8186 1.9342 2.3878
-4.8823 1.7571 2.3878
-4.9399 1.5780 2.3878
-4.9912 1.3971 2.3878
-5.0364 1.2147 2.3878
-5.0752 1.0309 2.3878
-5.1077 0.8459 2.3878
-5.1338 0.6600 2.3878
-5.1535 0.4733 2.3878
-5.1668 0.2860 2.3878
-5.1737 0.0984 2.3878
-5.1742 -0.0893 2.3878
-5.1683 -0.2769 2.3878
-5.1559 -0.4642 2.3878
-5.1371 -0.6511 2.3878
-5.1119 -0.8372 2.3878
-5.0803 -1.0225 2.3878
-5.0424 -1.2066 2.3878
-4.9981 -1.3894 2.3878
-4.9476 -1.5707 2.3878
-4.8909 -1.7502 2.3878
-4.8279 -1.9277 2.3878
-4.7589 -2.1032 2.3878
-4.6838 -2.2763 2.3878
-4.6028 -2.4468 2.3878
-4.5158 -2.6146 2.3878
-4.4230 -2.7795 2.3878
-4.3245 -2.9412 2.3878
-4.2204 -3.0996 2.3878
-4.1107 -3.2544 2.3878
-3.9956 -3.4055 2.3878
-3.8753 -3.5528 2.3878
-3.7497 -3.6959 2.3878
-3.6190 -3.8348 2.3878
-3.4835 -3.9692 2.3878
-3.3431 -4.0991 2.3878
-3.1978 -4.2249 2.3878
-3.0487 -4.3441 2.3878
-2.8949 -4.4591 2.3878
-2.7369 -4.5687 2.3878
-2.5750 -4.6729 2.3878
-2.4092 -4.7716 2.3878
-2.2398 -4.8645 2.3878
-2.0670 -4.9515 2.3878
-1.8909 -5.0325 2.3878
-1.7118 -5.1074 2.3878
-1.5298 -5.1760 2.3878
-1.3452 -5.2383 2.3878
-3.9397 2.9650 2.3878
-4.0401 2.8173 2.3878
-4.1352 2.6663 2.3878
-4.2250 2.5122 2.3878
-4.3094 2.3553 2.3878
-4.3882 2.1957 2.3878
-4.4614 2.0335 2.3878
-4.5289 1.8691 2.3878
-4.5907 1.7025 2.3878
-4.6467 1.5340 2.3878
-4.6969 1.3637 2.3878
-4.7411 1.1919 2.3878
-4.7794 1.0187 2.3878
-4.8117 0.8443 2.3878
-4.8380 0.6690 2.3878
-4.8583 0.4929 2.3878
-4.8724 0.3162 2.3878
-4.8806 0.1392 2.3878
-4.8826 -0.0380 2.3878
-4.8785 -0.2153 2.3878
-4.8684 -0.3921 2.3878
-4.8521 -0.5687 2.3878
-4.8299 -0.7446 2.3878
-4.8015 -0.9197 2.3878
-4.7672 -1.0938 2.3878
-4.7269 -1.2667 2.3878
-4.6806 -1.4381 2.3878
-4.6284 -1.6080 2.3878
-4.5704 -1.7760 2.3878
-4.5065 -1.9421 2.3878
-4.4370 -2.1060 2.3878
-4.3618 -2.2675 2.3878
-4.2809 -2.4265 2.3878
-4.1946 -2.5826 2.3878
-4.1028 -2.7359 2.3878
-4.0057 -2.8860 2.3878
-3.9033 -3.0328 2.3878
-3.7958 -3.1762 2.3878
-3.6833 -3.3159 2.3878
-3.5658 -3.4518 2.3878
-3.4436 -3.5835 2.3878
-3.3167 -3.7112 2.3878
-3.1852 -3.8345 2.3878
-3.0494 -3.9533 2.3878
-2.9093 -4.0675 2.3878
-2.7651 -4.1768 2.3878
-2.6169 -4.2811 2.3878
-2.4650 -4.3804 2.3878
-2.3094 -4.4744 2.3878
-2.1504 -4.5630 2.3878
-1.9882 -4.6460 2.3878
-1.8228 -4.7234 2.3878
-1.6546 -4.7951 2.3878
-1.4836 -4.8608 2.3878
-1.3102 -4.9206 2.3878
-1.1345 -4.9742 2.3878
-0.9566 -5.0217 2.3878
-0.7770 -5.0629 2.3878
-0.5956 -5.0977 2.3878
-0.4129 -5.1260 2.3878
-0.2289 -5.1479 2.3878
-0.0439 -5.1631 2.3878
0.1417 -5.1718 2.3878
0.3279 -5.1738 2.3878
0.5143 -5.1690 2.3878
0.7008 -5.1575 2.3878
0.8870 -5.1393 2.3878
1.0727 -5.1143 2.3878
1.2577 -5.0826 2.3878
1.4418 -5.0441 2.3878
1.6246 -4.9988 2.3878
1.8059 -4.9469 2.3878
1.9854 -4.8883 2.3878
2.1630 -4.8231 2.3878
2.3384 -4.7513 2.3878
2.5112 -4.6730 2.3878
2.6813 -4.5883 2.3878
2.8484 -4.4973 2.3878
3.0123 -4.4001 2.3878
3.1727 -4.2968 2.3878
3.3294 -4.1874 2.3878
3.4821 -4.0723 2.3878
3.6306 -3.9513 2.3878
3.7747 -3.8249 2.3878
3.9142 -3.6930 2.3878
4.0488 -3.5558 2.3878
4.1784 -3.4136 2.3878
4.3027 -3.2665 2.3878
4.4216 -3.1148 2.3878
4.5348 -2.9586 2.3878
4.6422 -2.7981 2.3878
4.7436 -2.6336 2.3878
4.8388 -2.4652 2.3878
4.9277 -2.2933 2.3878
5.0102 -2.1181 2.3878
5.0861 -1.9398 2.3878
5.1552 -1.7586 2.3878
5.2175 -1.5749 2.3878
5.2730 -1.3890 2.3878
5.3214 -1.2009 2.3878
5.3627 -1.0112 2.3878
5.3968 -0.8200 2.3878
5.4237 -0.6276 2.3878
5.4434 -0.4342 2.3878
5.4557 -0.2403 2.3878
5.4608 -0.0460 2.3878
5.4585 0.1483 2.3878
5.4489 0.3424 2.3878
5.4320 0.5359 2.3878
5.4079 0.7286 2.3878
5.3765 0.9203 2.3878
5.3379 1.1105 2.3878
5.2923 1.2991 2.3878
5.2396 1.4858 2.3878
5.1799 1.6702 2.3878
5.1134 1.8522 2.3878
5.0402 2.0315 2.3878
4.9603 2.2077 2.3878
4.8740 2.3808 2.3878
4.7813 2.5503 2.3878
4.6825 2.7162 2.3878
4.5776 2.8780 2.3878
4.4668 3.0357 2.3878
4.3503 3.1890 2.3878
4.2283 3.3378 2.3878
4.1011 3.4817 2.3878
3.9687 3.6206 2.3878
3.8314 3.7544 2.3878
3.6894 3.8829 2.3878
3.5429 4.0058 2.3878
3.3922 4.1231 2.3878
3.2375 4.2346 2.3878
3.0789 4.3403 2.3878
2.9169 4.4398 2.3878
2.7514 4.5332 2.3878
2.5830 4.6204 2.3878
0.9355 1.8236 0.9262
0.8695 1.8555 0.9277
0.8023 1.8850 0.9293
0.7342 1.9120 0.9308
0.6651 1.9366 0.9324
0.5951 1.9587 0.9340
0.5244 1.9783 0.9356
0.4531 1.9953 0.9372
0.3811 2.0097 0.9388
0.3087 2.0215 0.9404
0.2359 2.0306 0.9420
0.1629 2.0372 0.9436
0.0896 2.0411 0.9452
0.0162 2.0423 0.9468
-0.0572 2.0409 0.9484
-0.1304 2.0369 0.9500
-0.2035 2.0302 0.9516
-0.2763 2.0209 0.9531
-0.3487 2.0089 0.9547
-0.4207 1.9944 0.9562
-0.4920 1.9772 0.9577
-0.5627 1.9575 0.9592
-0.6327 1.9353 0.9607
-0.7017 1.9105 0.9621
-0.7699 1.8833 0.9635
-0.8370 1.8536 0.9649
-2.2316 4.5015 2.3878
-2.3885 4.4104 2.3878
-2.5419 4.3141 2.3878
-2.6916 4.2125 2.3878
-2.8375 4.1059 2.3878
-2.9793 3.9944 2.3878
-3.1170 3.8782 2.3878
-3.2504 3.7575 2.3878
-3.3794 3.6323 2.3878
-3.5038 3.5028 2.3878
-3.6235 3.3693 2.3878
-3.7384 3.2319 2.3878
-3.8483 3.0907 2.3878
-3.9532 2.9459 2.3878
-4.0529 2.7977 2.3878
-4.1473 2.6463 2.3878
-4.2364 2.4919 2.3878
-4.3200 2.3346 2.3878
-4.3981 2.1746 2.3878
-4.4705 2.0122 2.3878
-4.5373 1.8474 2.3878
-4.5984 1.6805 2.3878
-4.6536 1.5118 2.3878
-4.7030 1.3413 2.3878
-4.7465 1.1693 2.3878
-4.7840 0.9959 2.3878
-4.8155 0.8214 2.3878
-4.8410 0.6460 2.3878
-4.8605 0.4698 2.3878
-4.8739 0.2931 2.3878
-4.8812 0.1160 2.3878
-4.8824 -0.0612 2.3878
-4.8775 -0.2383 2.3878
-4.8666 -0.4153 2.3878
-4.8496 -0.5917 2.3878
-4.8265 -0.7675 2.3878
-4.7974 -0.9425 2.3878
-4.7623 -1.1165 2.3878
-4.7211 -1.2892 2.3878
-4.6741 -1.4604 2.3878
-4.6212 -1.6301 2.3878
-4.5624 -1.7979 2.3878
-4.4978 -1.9637 2.3878
-4.4275 -2.1273 2.3878
-4.3515 -2.2884 2.3878
-4.2699 -2.4470 2.3878
-4.1829 -2.6029 2.3878
-4.0904 -2.7557 2.3878
-3.9926 -2.9054 2.3878
-3.8896 -3.0518 2.3878
-3.7814 -3.1947 2.3878
-3.6682 -3.3339 2.3878
-3.5501 -3.4693 2.3878
-3.4273 -3.6005 2.3878
-3.2998 -3.7276 2.3878
-3.1677 -3.8503 2.3878
-3.0313 -3.9685 2.3878
-2.8907 -4.0820 2.3878
-2.7459 -4.1907 2.3878
-2.5973 -4.2944 2.3878
-2.4448 -4.3930 2.3878
-2.2888 -4.4863 2.3878
-2.1294 -4.5742 2.3878
-1.9667 -4.6565 2.3878
-1.8010 -4.7332 2.3878
-1.6324 -4.8040 2.3878
-1.4611 -4.8690 2.3878
-1.2873 -4.9279 2.3878
-1.1113 -4.9808 2.3878
-0.9332 -5.0274 2.3878
-0.7533 -5.0678 2.3878
-0.5718 -5.1018 2.3878
-0.3888 -5.1293 2.3878
-0.2047 -5.1503 2.3878
-0.0197 -5.1647 2.3878
0.1661 -5.1724 2.3878
0.3523 -5.1735 2.3878
0.5387 -5.1679 2.3878
0.7252 -5.1555 2.3878
0.9113 -5.1364 2.3878
1.0970 -5.1106 2.3878
1.2819 -5.0779 2.3878
1.4658 -5.0385 2.3878
1.6484 -4.9924 2.3878
1.8295 -4.9396 2.3878
2.0088 -4.8801 2.3878
2.1861 -4.8140 2.3878
2.3611 -4.7414 2.3878
2.5336 -4.6623 2.3878
2.7033 -4.5768 2.3878
2.8701 -4.4850 2.3878
3.0335 -4.3869 2.3878
3.1934 -4.2828 2.3878
3.3496 -4.1727 2.3878
3.5017 -4.0568 2.3878
3.6497 -3.9351 2.3878
3.7932 -3.8079 2.3878
3.9321 -3.6753 2.3878
4.0661 -3.5375 2.3878
4.1950 -3.3947 2.3878
4.3186 -3.2470 2.3878
4.4367 -3.0946 2.3878
4.5492 -2.9378 2.3878
4.6558 -2.7768 2.3878
4.7564 -2.6117 2.3878
4.8508 -2.4429 2.3878
4.9389 -2.2706 2.3878
5.0205 -2.0949 2.3878
5.0955 -1.9162 2.3878
5.1638 -1.7347 2.3878
5.2252 -1.5507 2.3878
5.2797 -1.3645 2.3878
5.3272 -1.1762 2.3878
5.3675 -0.9863 2.3878
5.4007 -0.7949 2.3878
5.4267 -0.6023 2.3878
5.4454 -0.4089 2.3878
5.4568 -0.2149 2.3878
5.4609 -0.0206 2.3878
5.4577 0.1737 2.3878
5.4471 0.3677 2.3878
5.4293 0.5612 2.3878
5.4042 0.7538 2.3878
5.3719 0.9452 2.3878
5.3324 1.1353 2.3878
5.2858 1.3237 2.3878
5.2322 1.5100 2.3878
5.1716 1.6942 2.3878
5.1042 1.8758 2.3878
5.0301 2.0547 2.3878
4.9494 2.2306 2.3878
4.8623 2.4032 2.3878
4.7687 2.5722 2.3878
4.6691 2.7376 2.3878
4.5634 2.8989 2.3878
4.4519 3.0560 2.3878
4.3347 3.2088 2.3878
4.2120 3.3569 2.3878
4.0840 3.5002 2.3878
3.9510 3.6384 2.3878
3.8131 3.7715 2.3878
3.6705 3.8993 2.3878
3.5234 4.0215 2.3878
3.3722 4.1380 2.3878
3.2169 4.2488 2.3878
3.0579 4.3536 2.3878
2.8954 4.4524 2.3878
2.7296 4.5450 2.3878
2.5607 4.6313 2.3878
0.9269 1.8279 0.9264
0.8607 1.8595 0.9279
0.7935 1.8887 0.9295
0.7252 1.9154 0.9310
0.6560 1.9397 0.9326
0.5859 1.9614 0.9342
0.5151 1.9806 0.9358
0.4437 1.9973 0.9374
0.3717 2.0113 0.9390
0.2992 2.0228 0.9406
0.2264 2.0316 0.9422
0.1533 2.0378 0.9438
0.0800 2.0414 0.9454
0.0066 2.0423 0.9470
-0.0668 2.0405 0.9486
-0.1400 2.0362 0.9502
-0.2131 2.0291 0.9518
-0.2858 2.0195 0.9533
-0.3582 2.0072 0.9549
-0.4300 1.9923 0.9564
-0.5013 1.9748 0.9579
-0.5719 1.9548 0.9594
-0.6417 1.9322 0.9608
-0.7107 1.9071 0.9623
-0.7787 1.8796 0.9637
-0.8457 1.8496 0.9651
-2.2523 4.4899 2.3878
-2.4088 4.3981 2.3878
-2.5617 4.3011 2.3878
-2.7109 4.1988 2.3878
-2.8562 4.0916 2.3878
-2.9976 3.9795 2.3878
-3.1347 3.8627 2.3878
-3.2676 3.7413 2.3878
-3.3960 3.6156 2.3878
-3.5197 3.4856 2.3878
-3.6388 3.3515 2.3878
-3.7530 3.2136 2.3878
-3.8623 3.0719 2.3878
-3.9665 2.9267 2.3878
-4.0655 2.7781 2.3878
-4.1592 2.6263 2.3878
-4.2476 2.4715 2.3878
-4.3305 2.3138 2.3878
-4.4079 2.1535 2.3878
-4.4796 1.9907 2.3878
-4.5456 1.8257 2.3878
-4.6059 1.6586 2.3878
-4.6604 1.4896 2.3878
-4.7090 1.3189 2.3878
-4.7517 1.1467 2.3878
-4.7884 0.9731 2.3878
-4.8192 0.7985 2.3878
-4.8439 0.6230 2.3878
-4.8626 0.4467 2.3878
-4.8752 0.2700 2.3878
-4.8817 0.0929 2.3878
-4.8821 -0.0844 2.3878
-4.8765 -0.2615 2.3878
-4.8647 -0.4384 2.3878
-4.8469 -0.6148 2.3878
-4.8230 -0.7905 2.3878
-4.7931 -0.9653 2.3878
-4.7572 -1.1391 2.3878
-4.7153 -1.3117 2.3878
-4.6675 -1.4827 2.3878
-4.6138 -1.6521 2.3878
-4.5542 -1.8197 2.3878
-4.4889 -1.9852 2.3878
-4.4179 -2.1485 2.3878
-4.3411 -2.3094 2.3878
-4.2589 -2.4676 2.3878
-4.1711 -2.6230 2.3878
-4.0779 -2.7755 2.3878
-3.9794 -2.9248 2.3878
-3.8757 -3.0707 2.3878
-3.7669 -3.2131 2.3878
-3.6531 -3.3518 2.3878
-3.5343 -3.4867 2.3878
-3.4109 -3.6174 2.3878
-3.2827 -3.7439 2.3878
-3.1501 -3.8660 2.3878
-3.0131 -3.9836 2.3878
-2.8719 -4.0965 2.3878
-2.7267 -4.2046 2.3878
-2.5775 -4.3076 2.3878
-2.4246 -4.4055 2.3878
-2.2682 -4.4981 2.3878
-2.1083 -4.5852 2.3878
-1.9452 -4.6667 2.3878
-1.7791 -4.7427 2.3878
-1.6101 -4.8129 2.3878
-1.4385 -4.8770 2.3878
-1.2644 -4.9352 2.3878
-3.7226 2.8037 2.3878
-3.8177 2.6640 2.3878
-3.9079 2.5214 2.3878
-3.9929 2.3758 2.3878
-4.0729 2.2275 2.3878
-4.1476 2.0766 2.3878
-4.2170 1.9233 2.3878
-4.2810 1.7678 2.3878
-4.3395 1.6103 2.3878
-4.3926 1.4509 2.3878
-4.4402 1.2899 2.3878
-4.4821 1.1273 2.3878
-4.5184 0.9635 2.3878
-4.5490 0.7986 2.3878
-4.5740 0.6328 2.3878
-4.5932 0.4662 2.3878
-4.6066 0.2991 2.3878
-4.6143 0.1316 2.3878
-4.6162 -0.0360 2.3878
-4.6123 -0.2036 2.3878
-4.6027 -0.3710 2.3878
-4.5873 -0.5380 2.3878
-4.5661 -0.7044 2.3878
-4.5393 -0.8701 2.3878
-4.5067 -1.0347 2.3878
-4.4684 -1.1983 2.3878
-4.4246 -1.3603 2.3878
-4.3751 -1.5210 2.3878
-4.3200 -1.6799 2.3878
-4.2595 -1.8369 2.3878
-4.1936 -1.9919 2.3878
-4.1222 -2.1446 2.3878
-4.0456 -2.2948 2.3878
-3.9638 -2.4424 2.3878
-3.8768 -2.5872 2.3878
-3.7848 -2.7289 2.3878
-3.6878 -2.8676 2.3878
-3.5860 -3.0030 2.3878
-3.4794 -3.1348 2.3878
-3.3681 -3.2631 2.3878
-3.2524 -3.3875 2.3878
-3.1322 -3.5079 2.3878
-3.0077 -3.6242 2.3878
-2.8791 -3.7363 2.3878
-2.7465 -3.8438 2.3878
-2.6100 -3.9469 2.3878
-2.4698 -4.0452 2.3878
-2.3261 -4.1386 2.3878
-2.1789 -4.2271 2.3878
-2.0286 -4.3102 2.3878
-1.8751 -4.3885 2.3878
-1.7188 -4.4613 2.3878
-1.5597 -4.5285 2.3878
-1.3982 -4.5902 2.3878
-1.2343 -4.6463 2.3878
-1.0683 -4.6965 2.3878
-0.9003 -4.7409 2.3878
-0.7306 -4.7793 2.3878
-0.5593 -4.8117 2.3878
-0.3868 -4.8381 2.3878
-0.2131 -4.8582 2.3878
-0.0386 -4.8722 2.3878
0.1366 -4.8799 2.3878
0.3122 -4.8813 2.3878
0.4881 -4.8763 2.3878
0.6639 -4.8651 2.3878
0.8395 -4.8474 2.3878
1.0146 -4.8234 2.3878
1.1890 -4.7930 2.3878
1.3624 -4.7563 2.3878
1.5346 -4.7132 2.3878
1.7054 -4.6638 2.3878
1.8745 -4.6081 2.3878
2.0418 -4.5462 2.3878
2.2068 -4.4782 2.3878
2.3696 -4.4040 2.3878
2.5297 -4.3239 2.3878
2.6869 -4.2378 2.3878
2.8411 -4.1458 2.3878
2.9920 -4.0481 2.3878
3.1393 -3.9448 2.3878
3.2830 -3.8360 2.3878
3.4226 -3.7218 2.3878
3.5581 -3.6025 2.3878
3.6893 -3.4780 2.3878
3.8158 -3.3487 2.3878
3.9376 -3.2145 2.3878
4.0544 -3.0759 2.3878
4.1661 -2.9328 2.3878
4.2724 -2.7855 2.3878
4.3733 -2.6343 2.3878
4.4686 -2.4793 2.3878
4.5580 -2.3207 2.3878
4.6415 -2.1588 2.3878
4.7190 -1.9938 2.3878
4.7902 -1.8259 2.3878
4.8552 -1.6553 2.3878
4.9137 -1.4824 2.3878
4.9657 -1.3073 2.3878
5.0112 -1.1304 2.3878
5.0500 -0.9517 2.3878
5.0820 -0.7718 2.3878
5.1073 -0.5907 2.3878
5.1258 -0.4087 2.3878
5.1374 -0.2262 2.3878
5.1421 -0.0434 2.3878
5.1400 0.1395 2.3878
5.1310 0.3221 2.3878
5.1152 0.5042 2.3878
5.0925 0.6856 2.3878
5.0631 0.8660 2.3878
5.0269 1.0451 2.3878
4.9840 1.2226 2.3878
4.9346 1.3984 2.3878
4.8786 1.5720 2.3878
4.8162 1.7434 2.3878
4.7474 1.9122 2.3878
4.6725 2.0782 2.3878
4.5914 2.2412 2.3878
4.5044 2.4009 2.3878
4.4115 2.5572 2.3878
4.3130 2.7097 2.3878
4.2089 2.8584 2.3878
4.0995 3.0029 2.3878
3.9849 3.1432 2.3878
3.8653 3.2789 2.3878
3.7409 3.4100 2.3878
3.6118 3.5363 2.3878
3.4783 3.6575 2.3878
3.3406 3.7736 2.3878
3.1988 3.8844 2.3878
3.0533 3.9898 2.3878
2.9042 4.0897 2.3878
2.7517 4.1838 2.3878
2.5960 4.2722 2.3878
2.4374 4.3547 2.3878
0.8837 1.7204 0.9270
0.8214 1.7505 0.9285
0.7581 1.7783 0.9299
0.6938 1.8039 0.9314
0.6286 1.8270 0.9329
0.5626 1.8479 0.9344
0.4959 1.8663 0.9359
0.4286 1.8823 0.9374
0.3607 1.8959 0.9389
0.2924 1.9070 0.9404
0.2237 1.9157 0.9420
0.1548 1.9219 0.9435
0.0856 1.9255 0.9450
0.0164 1.9267 0.9465
-0.0528 1.9254 0.9480
-0.1219 1.9216 0.9495
-0.1909 1.9152 0.9510
-0.2595 1.9065 0.9525
-0.3279 1.8952 0.9539
-0.3957 1.8815 0.9553
-0.4630 1.8653 0.9568
-0.5297 1.8467 0.9582
-0.5957 1.8257 0.9595
-0.6609 1.8024 0.9609
-0.7252 1.7767 0.9622
-0.7885 1.7487 0.9635
-0.8508 1.7184 0.9648
-2.2540 4.1672 2.3878
-2.3991 4.0765 2.3878
-2.5408 3.9808 2.3878
-2.6788 3.8803 2.3878
-2.8131 3.7753 2.3878
-2.9435 3.6657 2.3878
-3.0698 3.5518 2.3878
-3.1919 3.4337 2.3878
-3.3097 3.3115 2.3878
-3.4231 3.1854 2.3878
-3.5319 3.0557 2.3878
-3.6360 2.9223 2.3878
-3.7354 2.7855 2.3878
-3.8298 2.6456 2.3878
-3.9193 2.5025 2.3878
-4.0037 2.3566 2.3878
-4.0829 2.2079 2.3878
-4.1569 2.0567 2.3878
-4.2256 1.9031 2.3878
-4.2890 1.7473 2.3878
-4.3468 1.5895 2.3878
-4.3992 1.4299 2.3878
-4.4460 1.2687 2.3878
-4.4872 1.1060 2.3878
-4.5228 0.9420 2.3878
-4.5526 0.7770 2.3878
-4.5768 0.6110 2.3878
-4.5952 0.4444 2.3878
-4.6079 0.2772 2.3878
-4.6149 0.1097 2.3878
-4.6160 -0.0579 2.3878
-4.6114 -0.2256 2.3878
-4.6010 -0.3929 2.3878
-4.5849 -0.5598 2.3878
-4.5629 -0.7262 2.3878
-4.5353 -0.8917 2.3878
-4.5020 -1.0562 2.3878
-4.4630 -1.2197 2.3878
-4.4184 -1.3815 2.3878
-4.3682 -1.5419 2.3878
-4.3124 -1.7005 2.3878
-4.2512 -1.8573 2.3878
-4.1845 -2.0120 2.3878
-4.1125 -2.1643 2.3878
-4.0352 -2.3142 2.3878
-3.9527 -2.4614 2.3878
-3.8651 -2.6059 2.3878
-3.7724 -2.7473 2.3878
-3.6747 -2.8855 2.3878
-3.5723 -3.0204 2.3878
-3.4651 -3.1519 2.3878
-3.3532 -3.2796 2.3878
-3.2369 -3.4035 2.3878
-3.1161 -3.5234 2.3878
-2.9911 -3.6391 2.3878
-2.8620 -3.7506 2.3878
-2.7289 -3.8576 2.3878
-2.5919 -3.9600 2.3878
-2.4512 -4.0577 2.3878
-2.3070 -4.1505 2.3878
-2.1594 -4.2383 2.3878
-2.0087 -4.3209 2.3878
-1.8548 -4.3984 2.3878
-1.6981 -4.4704 2.3878
-1.5387 -4.5369 2.3878
-1.3769 -4.5979 2.3878
-1.2127 -4.6532 2.3878
-1.0464 -4.7027 2.3878
-0.8782 -4.7463 2.3878
-0.7083 -4.7839 2.3878
-0.5368 -4.8155 2.3878
-0.3641 -4.8410 2.3878
-0.1903 -4.8604 2.3878
-0.0157 -4.8735 2.3878
0.1596 -4.8804 2.3878
0.3352 -4.8810 2.3878
0.5111 -4.8752 2.3878
0.6869 -4.8631 2.3878
0.8624 -4.8446 2.3878
1.0374 -4.8198 2.3878
1.2117 -4.7886 2.3878
1.3850 -4.7510 2.3878
1.5571 -4.7071 2.3878
1.7276 -4.6569 2.3878
1.8965 -4.6004 2.3878
2.0635 -4.5377 2.3878
2.2283 -4.4688 2.3878
2.3906 -4.3939 2.3878
2.5504 -4.3129 2.3878
2.7073 -4.2261 2.3878
2.8610 -4.1334 2.3878
3.0115 -4.0349 2.3878
3.1584 -3.9309 2.3878
3.3015 -3.8214 2.3878
3.4406 -3.7065 2.3878
3.5755 -3.5865 2.3878
3.7061 -3.4614 2.3878
3.8320 -3.3314 2.3878
3.9531 -3.1967 2.3878
4.0693 -3.0574 2.3878
4.1803 -2.9138 2.3878
4.2860 -2.7660 2.3878
4.3861 -2.6143 2.3878
4.4806 -2.4588 2.3878
4.5693 -2.2997 2.3878
4.6520 -2.1374 2.3878
4.7286 -1.9720 2.3878
4.7991 -1.8037 2.3878
4.8632 -1.6329 2.3878
4.9209 -1.4596 2.3878
4.9720 -1.2843 2.3878
5.0166 -1.1071 2.3878
5.0545 -0.9283 2.3878
5.0857 -0.7481 2.3878
5.1101 -0.5669 2.3878
5.1277 -0.3849 2.3878
5.1384 -0.2023 2.3878
5.1422 -0.0195 2.3878
5.1392 0.1634 2.3878
5.1293 0.3460 2.3878
5.1126 0.5280 2.3878
5.0891 0.7093 2.3878
5.0587 0.8895 2.3878
5.0217 1.0684 2.3878
4.9780 1.2457 2.3878
4.9276 1.4212 2.3878
4.8708 1.5946 2.3878
4.8076 1.7656 2.3878
4.7380 1.9341 2.3878
4.6622 2.0997 2.3878
4.5804 2.2623 2.3878
4.4926 2.4216 2.3878
4.3989 2.5773 2.3878
4.2997 2.7294 2.3878
4.1949 2.8775 2.3878
4.0848 3.0215 2.3878
3.9695 3.1612 2.3878
3.8493 3.2963 2.3878
3.7242 3.4268 2.3878
3.5946 3.5524 2.3878
3.4605 3.6730 2.3878
3.3223 3.7884 2.3878
3.1800 3.8985 2.3878
3.0340 4.0032 2.3878
2.8844 4.1023 2.3878
2.7315 4.1957 2.3878
2.5754 4.2833 2.3878
0.9369 1.6924 0.9258
0.8756 1.7245 0.9272
0.8132 1.7543 0.9287
0.7497 1.7818 0.9301
0.6853 1.8070 0.9316
0.6200 1.8299 0.9331
0.5539 1.8504 0.9346
0.4871 1.8685 0.9361
0.4197 1.8842 0.9376
0.3518 1.8975 0.9391
0.2834 1.9083 0.9406
0.2147 1.9166 0.9422
0.1457 1.9225 0.9437
0.0766 1.9258 0.9452
0.0074 1.9267 0.9467
-0.0618 1.9250 0.9482
-0.1309 1.9209 0.9497
-0.1999 1.9142 0.9512
-0.2685 1.9051 0.9526
-0.3368 1.8935 0.9541
-0.4046 1.8795 0.9555
-0.4718 1.8630 0.9569
-0.5384 1.8441 0.9583
-0.6043 1.8228 0.9597
-0.6694 1.7991 0.9611
-0.7335 1.7731 0.9624
-0.7967 1.7449 0.9637
-0.8588 1.7143 0.9650
-2.2732 4.1557 2.3878
-2.4179 4.0642 2.3878
-2.5591 3.9679 2.3878
-2.6966 3.8669 2.3878
-2.8304 3.7612 2.3878
-2.9602 3.6510 2.3878
-3.0860 3.5366 2.3878
-3.2076 3.4179 2.3878
-3.3248 3.2952 2.3878
-3.4376 3.1687 2.3878
-3.5458 3.0384 2.3878
-3.6493 2.9046 2.3878
-3.7480 2.7674 2.3878
-3.8418 2.6270 2.3878
-3.9306 2.4836 2.3878
-4.0144 2.3373 2.3878
-4.0929 2.1882 2.3878
-4.1662 2.0367 2.3878
-4.2342 1.8828 2.3878
-4.2968 1.7268 2.3878
-4.3540 1.5687 2.3878
-4.4056 1.4089 2.3878
-4.4517 1.2475 2.3878
-4.4922 1.0846 2.3878
-4.5270 0.9205 2.3878
-4.5561 0.7553 2.3878
-4.5795 0.5893 2.3878
-4.5972 0.4225 2.3878
-4.6092 0.2553 2.3878
-4.6153 0.0878 2.3878
-4.6157 -0.0799 2.3878
-4.6104 -0.2475 2.3878
-4.5992 -0.4148 2.3878
-4.5823 -0.5816 2.3878
-4.5597 -0.7479 2.3878
-4.5310 -0.9139 2.3878
-4.4972 -1.0777 2.3878
-4.4575 -1.2408 2.3878
-4.4121 -1.4026 2.3878
-4.3612 -1.5628 2.3878
-4.3047 -1.7212 2.3878
-4.2428 -1.8777 2.3878
-4.1754 -2.0320 2.3878
-4.1027 -2.1842 2.3878
-4.0247 -2.3336 2.3878
-3.9415 -2.4805 2.3878
-3.8532 -2.6247 2.3878
-3.7599 -2.7655 2.3878
-3.6616 -2.9033 2.3878
-3.5585 -3.0378 2.3878
-3.4507 -3.1688 2.3878
-3.3383 -3.2960 2.3878
-3.2213 -3.4194 2.3878
-3.1000 -3.5388 2.3878
-2.9744 -3.6540 2.3878
-2.8448 -3.7648 2.3878
-2.7111 -3.8713 2.3878
-2.5737 -3.9731 2.3878
-2.4326 -4.0701 2.3878
-2.2879 -4.1623 2.3878
-2.1399 -4.2494 2.3878
-1.9887 -4.3314 2.3878
-1.8345 -4.4081 2.3878
-1.6774 -4.4794 2.3878
-1.5177 -4.5452 2.3878
-1.3555 -4.6054 2.3878
-1.1910 -4.6600 2.3878
-3.5238 2.6558 2.3878
-3.6141 2.5237 2.3878
-3.6996 2.3887 2.3878
-3.7804 2.2508 2.3878
-3.8562 2.1104 2.3878
-3.9271 1.9675 2.3878
-3.9930 1.8223 2.3878
-4.0538 1.6750 2.3878
-4.1094 1.5258 2.3878
-4.1598 1.3748 2.3878
-4.2049 1.2222 2.3878
-4.2447 1.0682 2.3878
-4.2792 0.9130 2.3878
-4.3083 0.7567 2.3878
-4.3320 0.5996 2.3878
-4.3502 0.4417 2.3878
-4.3629 0.2834 2.3878
-4.3702 0.1246 2.3878
-4.3720 -0.0342 2.3878
-4.3683 -0.1931 2.3878
-4.3592 -0.3517 2.3878
-4.3445 -0.5099 2.3878
-4.3245 -0.6676 2.3878
-4.2989 -0.8246 2.3878
-4.2680 -0.9806 2.3878
-4.2316 -1.1355 2.3878
-4.1899 -1.2892 2.3878
-4.1429 -1.4413 2.3878
-4.0907 -1.5918 2.3878
-4.0332 -1.7406 2.3878
-3.9706 -1.8873 2.3878
-3.9028 -2.0319 2.3878
-3.8301 -2.1741 2.3878
-3.7524 -2.3138 2.3878
-3.6698 -2.4509 2.3878
-3.5825 -2.5851 2.3878
-3.4905 -2.7163 2.3878
-3.3938 -2.8444 2.3878
-3.2927 -2.9691 2.3878
-3.1871 -3.0904 2.3878
-3.0773 -3.2081 2.3878
-2.9633 -3.3219 2.3878
-2.8453 -3.4318 2.3878
-2.7233 -3.5377 2.3878
-2.5976 -3.6393 2.3878
-2.4682 -3.7366 2.3878
-2.3353 -3.8294 2.3878
-2.1991 -3.9176 2.3878
-2.0596 -4.0010 2.3878
-1.9171 -4.0798 2.3878
-1.7718 -4.1532 2.3878
-1.6237 -4.2217 2.3878
-1.4731 -4.2851 2.3878
-1.3201 -4.3431 2.3878
-1.1650 -4.3957 2.3878
-1.0078 -4.4429 2.3878
-0.8488 -4.4845 2.3878
-0.6882 -4.5205 2.3878
-0.5262 -4.5508 2.3878
-0.3630 -4.5753 2.3878
-0.1988 -4.5940 2.3878
-0.0337 -4.6068 2.3878
0.1319 -4.6136 2.3878
0.2980 -4.6146 2.3878
0.4642 -4.6095 2.3878
0.6303 -4.5985 2.3878
0.7962 -4.5814 2.3878
0.9616 -4.5583 2.3878
1.1263 -4.5292 2.3878
1.2901 -4.4941 2.3878
1.4527 -4.4530 2.3878
1.6139 -4.4060 2.3878
1.7736 -4.3531 2.3878
1.9314 -4.2943 2.3878
2.0871 -4.2297 2.3878
2.2407 -4.1593 2.3878
2.3917 -4.0833 2.3878
2.5400 -4.0017 2.3878
2.6854 -3.9145 2.3878
2.8277 -3.8220 2.3878
2.9666 -3.7243 2.3878
3.1020 -3.6213 2.3878
3.2336 -3.5133 2.3878
3.3613 -3.4004 2.3878
3.4848 -3.2827 2.3878
3.6041 -3.1604 2.3878
3.7188 -3.0337 2.3878
3.8288 -2.9026 2.3878
3.9340 -2.7675 2.3878
4.0342 -2.6284 2.3878
4.1292 -2.4856 2.3878
4.2188 -2.3392 2.3878
4.3031 -2.1895 2.3878
4.3817 -2.0367 2.3878
4.4546 -1.8810 2.3878
4.5217 -1.7225 2.3878
4.5828 -1.5616 2.3878
4.6379 -1.3984 2.3878
4.6869 -1.2332 2.3878
4.7296 -1.0663 2.3878
4.7661 -0.8978 2.3878
4.7963 -0.7280 2.3878
4.8201 -0.5572 2.3878
4.8375 -0.3856 2.3878
4.8484 -0.2135 2.3878
4.8529 -0.0410 2.3878
4.8509 0.1315 2.3878
4.8425 0.3037 2.3878
4.8276 0.4755 2.3878
4.8063 0.6466 2.3878
4.7786 0.8168 2.3878
4.7446 0.9857 2.3878
4.7043 1.1532 2.3878
4.6578 1.3190 2.3878
4.6051 1.4829 2.3878
4.5463 1.6446 2.3878
4.4817 1.8039 2.3878
4.4111 1.9606 2.3878
4.3348 2.1144 2.3878
4.2529 2.2652 2.3878
4.1655 2.4128 2.3878
4.0727 2.5569 2.3878
3.9747 2.6973 2.3878
3.8716 2.8338 2.3878
3.7637 2.9663 2.3878
3.6510 3.0946 2.3878
3.5338 3.2186 2.3878
3.4122 3.3380 2.3878
3.2864 3.4526 2.3878
3.1566 3.5625 2.3878
3.0230 3.6674 2.3878
2.8858 3.7671 2.3878
2.7452 3.8617 2.3878
2.6014 3.9509 2.3878
2.4546 4.0347 2.3878
0.8943 1.5958 0.9265
0.8365 1.6264 0.9278
0.7776 1.6548 0.9292
0.7177 1.6811 0.9305
0.6570 1.7052 0.9319
0.5953 1.7271 0.9333
0.5329 1.7468 0.9347
0.4699 1.7642 0.9362
0.4062 1.7794 0.9376
0.3421 1.7922 0.9390
0.2775 1.8027 0.9405
0.2126 1.8109 0.9419
0.1474 1.8167 0.9433
0.0821 1.8202 0.9448
0.0166 1.8213 0.9462
-0.0488 1.8200 0.9476
-0.1142 1.8164 0.9490
-0.1793 1.8105 0.9504
-0.2442 1.8021 0.9518
-0.3088 1.7915 0.9532
-0.3730 1.7785 0.9546
-0.4366 1.7632 0.9559
-0.4997 1.7457 0.9572
-0.5620 1.7258 0.9585
-0.6237 1.7037 0.9598
-0.6844 1.6795 0.9611
-0.7443 1.6530 0.9623
-0.8032 1.6244 0.9635
-0.8609 1.5937 0.9647
-2.2686 3.8592 2.3878
-2.4029 3.7689 2.3878
-2.5337 3.6740 2.3878
-2.6611 3.5747 2.3878
-2.7847 3.4712 2.3878
-2.9045 3.3635 2.3878
-3.0203 3.2518 2.3878
-3.1320 3.1363 2.3878
-3.2396 3.0171 2.3878
-3.3428 2.8943 2.3878
-3.4416 2.7681 2.3878
-3.5359 2.6387 2.3878
-3.6255 2.5062 2.3878
-3.7104 2.3708 2.3878
-3.7906 2.2326 2.3878
-3.8658 2.0918 2.3878
-3.9360 1.9486 2.3878
-4.0012 1.8031 2.3878
-4.0614 1.6556 2.3878
-4.1163 1.5061 2.3878
-4.1660 1.3549 2.3878
-4.2104 1.2022 2.3878
-4.2496 1.0480 2.3878
-4.2833 0.8926 2.3878
-4.3117 0.7362 2.3878
-4.3346 0.5790 2.3878
-4.3522 0.4210 2.3878
-4.3642 0.2626 2.3878
-4.3708 0.1039 2.3878
-4.3719 -0.0550 2.3878
-4.3675 -0.2138 2.3878
-4.3576 -0.3724 2.3878
-4.3422 -0.5306 2.3878
-4.3214 -0.6882 2.3878
-4.2952 -0.8450 2.3878
-4.2635 -1.0009 2.3878
-4.2265 -1.1557 2.3878
-4.1841 -1.3091 2.3878
-4.1364 -1.4611 2.3878
-4.0834 -1.6114 2.3878
-4.0253 -1.7599 2.3878
-3.9620 -1.9063 2.3878
-3.8936 -2.0506 2.3878
-3.8202 -2.1925 2.3878
-3.7419 -2.3319 2.3878
-3.6587 -2.4686 2.3878
-3.5707 -2.6025 2.3878
-3.4781 -2.7333 2.3878
-3.3808 -2.8609 2.3878
-3.2791 -2.9852 2.3878
-3.1730 -3.1060 2.3878
-3.0626 -3.2232 2.3878
-2.9481 -3.3365 2.3878
-2.8295 -3.4459 2.3878
-2.7071 -3.5512 2.3878
-2.5808 -3.6523 2.3878
-2.4510 -3.7490 2.3878
-2.3177 -3.8412 2.3878
-2.1810 -3.9289 2.3878
-2.0412 -4.0116 2.3878
-1.8983 -4.0895 2.3878
-1.7526 -4.1625 2.3878
-1.6042 -4.2303 2.3878
-1.4532 -4.2930 2.3878
-1.2999 -4.3503 2.3878
-1.1445 -4.4022 2.3878
-0.9871 -4.4487 2.3878
-0.8279 -4.4895 2.3878
-0.6671 -4.5248 2.3878
-0.5049 -4.5543 2.3878
-0.3416 -4.5780 2.3878
-0.1772 -4.5960 2.3878
-0.0121 -4.6080 2.3878
0.1536 -4.6141 2.3878
0.3197 -4.6142 2.3878
0.4859 -4.6084 2.3878
0.6520 -4.5966 2.3878
0.8179 -4.5787 2.3878
0.9832 -4.5548 2.3878
1.1478 -4.5250 2.3878
1.3114 -4.4891 2.3878
1.4739 -4.4472 2.3878
1.6349 -4.3994 2.3878
1.7943 -4.3457 2.3878
1.9519 -4.2861 2.3878
2.1074 -4.2208 2.3878
2.2606 -4.1497 2.3878
2.4112 -4.0729 2.3878
2.5592 -3.9906 2.3878
2.7042 -3.9028 2.3878
2.8460 -3.8095 2.3878
2.9845 -3.7111 2.3878
3.1194 -3.6075 2.3878
3.2505 -3.4988 2.3878
3.3777 -3.3852 2.3878
3.5007 -3.2669 2.3878
3.6193 -3.1441 2.3878
3.7334 -3.0168 2.3878
3.8429 -2.8852 2.3878
3.9474 -2.7495 2.3878
4.0469 -2.6099 2.3878
4.1412 -2.4667 2.3878
4.2302 -2.3198 2.3878
4.3137 -2.1697 2.3878
4.3916 -2.0165 2.3878
4.4637 -1.8604 2.3878
4.5300 -1.7016 2.3878
4.5903 -1.5404 2.3878
4.6446 -1.3769 2.3878
4.6928 -1.2115 2.3878
4.7348 -1.0443 2.3878
4.7704 -0.8757 2.3878
4.7998 -0.7057 2.3878
4.8228 -0.5348 2.3878
4.8393 -0.3631 2.3878
4.8494 -0.1909 2.3878
4.8530 -0.0185 2.3878
4.8502 0.1540 2.3878
4.8409 0.3262 2.3878
4.8252 0.4980 2.3878
4.8031 0.6690 2.3878
4.7745 0.8389 2.3878
4.7397 1.0077 2.3878
4.6986 1.1750 2.3878
4.6512 1.3405 2.3878
4.5977 1.5042 2.3878
4.5382 1.6656 2.3878
4.4727 1.8245 2.3878
4.4014 1.9809 2.3878
4.3244 2.1343 2.3878
4.2417 2.2847 2.3878
4.1536 2.4318 2.3878
4.0602 2.5754 2.3878
3.9615 2.7153 2.3878
3.8578 2.8514 2.3878
3.7492 2.9834 2.3878
3.6359 3.1111 2.3878
3.5181 3.2345 2.3878
3.3960 3.3532 2.3878
3.2697 3.4673 2.3878
3.1394 3.5765 2.3878
3.0053 3.6807 2.3878
2.8676 3.7798 2.3878
2.7265 3.8737 2.3878
2.5823 3.9622 2.3878
2.4351 4.0452 2.3878
0.8868 1.5999 0.9266
0.8289 1.6302 0.9280
0.7698 1.6584 0.9293
0.7098 1.6844 0.9307
0.6489 1.7082 0.9321
0.5872 1.7298 0.9335
0.5247 1.7492 0.9349
0.4616 1.7663 0.9364
0.3979 1.7812 0.9378
0.3337 1.7937 0.9392
0.2690 1.8039 0.9407
0.2041 1.8118 0.9421
0.1389 1.8173 0.9435
0.0735 1.8205 0.9450
0.0081 1.8213 0.9464
-0.0574 1.8197 0.9478
-0.1227 1.8158 0.9492
-0.1878 1.8095 0.9506
-0.2527 1.8009 0.9520
-0.3172 1.7899 0.9534
-0.3813 1.7766 0.9547
-0.4449 1.7611 0.9561
-0.5079 1.7432 0.9574
-0.5701 1.7231 0.9587
-0.6316 1.7007 0.9600
-0.6923 1.6761 0.9612
-0.7520 1.6494 0.9624
-0.8108 1.6205 0.9636
-0.8684 1.5895 0.9648
-2.2864 3.8476 2.3878
-2.4202 3.7567 2.3878
-2.5506 3.6613 2.3878
-2.6774 3.5614 2.3878
-2.8006 3.4573 2.3878
-2.9198 3.3491 2.3878
-3.0351 3.2369 2.3878
-3.1463 3.1209 2.3878
-3.2533 3.0012 2.3878
-3.3560 2.8780 2.3878
-3.4542 2.7514 2.3878
-3.5479 2.6215 2.3878
-3.6369 2.4887 2.3878
-3.7212 2.3529 2.3878
-3.8007 2.2143 2.3878
-3.8753 2.0732 2.3878
-3.9448 1.9297 2.3878
-4.0094 1.7840 2.3878
-4.0688 1.6361 2.3878
-4.1231 1.4864 2.3878
-4.1721 1.3350 2.3878
-4.2159 1.1821 2.3878
-4.2543 1.0277 2.3878
-4.2873 0.8722 2.3878
-4.3150 0.7157 2.3878
-4.3373 0.5583 2.3878
-4.3540 0.4003 2.3878
-4.3654 0.2419 2.3878
-4.3712 0.0831 2.3878
-4.3716 -0.0758 2.3878
-4.3665 -0.2346 2.3878
-4.3559 -0.3932 2.3878
-4.3398 -0.5513 2.3878
-4.3183 -0.7088 2.3878
-4.2913 -0.8655 2.3878
-4.2590 -1.0212 2.3878
-4.2212 -1.1758 2.3878
-4.1781 -1.3291 2.3878
-4.1298 -1.4808 2.3878
-4.0761 -1.6309 2.3878
-4.0173 -1.7791 2.3878
-3.9533 -1.9253 2.3878
-3.8843 -2.0693 2.3878
-3.8103 -2.2109 2.3878
-3.7313 -2.3499 2.3878
-3.6475 -2.4863 2.3878
-3.5589 -2.6197 2.3878
-3.4656 -2.7502 2.3878
-3.3678 -2.8774 2.3878
-3.2655 -3.0012 2.3878
-3.1588 -3.1216 2.3878
-3.0479 -3.2382 2.3878
-2.9328 -3.3511 2.3878
-2.8137 -3.4599 2.3878
-2.6908 -3.5647 2.3878
-2.5641 -3.6652 2.3878
-2.4338 -3.7613 2.3878
-2.3000 -3.8529 2.3878
-2.1629 -3.9399 2.3878
-2.0226 -4.0221 2.3878
-1.8794 -4.0993 2.3878
-1.7333 -4.1716 2.3878
-1.5845 -4.2388 2.3878
-1.4333 -4.3007 2.3878
-1.2797 -4.3574 2.3878
-1.1240 -4.4086 2.3878
-3.3409 2.5198 2.3878
-3.4266 2.3946 2.3878
-3.5080 2.2665 2.3878
-3.5847 2.1358 2.3878
-3.6567 2.0023 2.3878
-3.7242 1.8671 2.3878
-3.7869 1.7293 2.3878
-3.8446 1.5896 2.3878
-3.8975 1.4480 2.3878
-3.9454 1.3047 2.3878
-3.9884 1.1599 2.3878
-4.0262 1.0138 2.3878
-4.0590 0.8665 2.3878
-4.0866 0.7182 2.3878
-4.1091 0.5690 2.3878
-4.1264 0.4192 2.3878
-4.1386 0.2689 2.3878
-4.1455 0.1182 2.3878
-4.1472 -0.0326 2.3878
-4.1437 -0.1833 2.3878
-4.1350 -0.3339 2.3878
-4.1210 -0.4841 2.3878
-4.1019 -0.6338 2.3878
-4.0776 -0.7827 2.3878
-4.0482 -0.9308 2.3878
-4.0136 -1.0778 2.3878
-3.9739 -1.2236 2.3878
-3.9292 -1.3679 2.3878
-3.8795 -1.5108 2.3878
-3.8249 -1.6519 2.3878
-3.7653 -1.7910 2.3878
-3.7009 -1.9282 2.3878
-3.6318 -2.0631 2.3878
-3.5579 -2.1956 2.3878
-3.4794 -2.3255 2.3878
-3.3964 -2.4528 2.3878
-3.3089 -2.5772 2.3878
-3.2171 -2.6985 2.3878
-3.1209 -2.8167 2.3878
-3.0207 -2.9316 2.3878
-2.9163 -3.0431 2.3878
-2.8080 -3.1509 2.3878
-2.6959 -3.2550 2.3878
-2.5801 -3.3552 2.3878
-2.4607 -3.4513 2.3878
-2.3379 -3.5434 2.3878
-2.2117 -3.6311 2.3878
-2.0824 -3.7145 2.3878
-1.9501 -3.7934 2.3878
-1.8148 -3.8676 2.3878
-1.6769 -3.9371 2.3878
-1.5364 -4.0018 2.3878
-1.3936 -4.0615 2.3878
-1.2485 -4.1162 2.3878
-1.1013 -4.1658 2.3878
-0.9523 -4.2102 2.3878
-0.8016 -4.2493 2.3878
-0.6494 -4.2831 2.3878
-0.4959 -4.3114 2.3878
-0.3412 -4.3343 2.3878
-0.1856 -4.3517 2.3878
-0.0292 -4.3634 2.3878
0.1276 -4.3696 2.3878
0.2849 -4.3702 2.3878
0.4422 -4.3650 2.3878
0.5995 -4.3542 2.3878
0.7566 -4.3377 2.3878
0.9131 -4.3155 2.3878
1.0689 -4.2877 2.3878
1.2239 -4.2541 2.3878
1.3777 -4.2149 2.3878
1.5302 -4.1701 2.3878
1.6812 -4.1197 2.3878
1.8304 -4.0637 2.3878
1.9777 -4.0023 2.3878
2.1228 -3.9354 2.3878
2.2655 -3.8632 2.3878
2.4056 -3.7858 2.3878
2.5430 -3.7031 2.3878
2.6774 -3.6154 2.3878
2.8086 -3.5226 2.3878
2.9365 -3.4250 2.3878
3.0609 -3.3227 2.3878
3.1814 -3.2157 2.3878
3.2981 -3.1043 2.3878
3.4106 -2.9885 2.3878
3.5189 -2.8685 2.3878
3.6228 -2.7444 2.3878
3.7221 -2.6165 2.3878
3.8166 -2.4849 2.3878
3.9062 -2.3498 2.3878
3.9909 -2.2114 2.3878
4.0703 -2.0698 2.3878
4.1445 -1.9252 2.3878
4.2133 -1.7780 2.3878
4.2765 -1.6282 2.3878
4.3342 -1.4760 2.3878
4.3862 -1.3218 2.3878
4.4324 -1.1656 2.3878
4.4727 -1.0078 2.3878
4.5072 -0.8486 2.3878
4.5356 -0.6881 2.3878
4.5581 -0.5267 2.3878
4.5745 -0.3645 2.3878
4.5848 -0.2018 2.3878
4.5891 -0.0389 2.3878
4.5872 0.1241 2.3878
4.5793 0.2869 2.3878
4.5652 0.4493 2.3878
4.5452 0.6110 2.3878
4.5191 0.7718 2.3878
4.4870 0.9315 2.3878
4.4490 1.0898 2.3878
4.4051 1.2466 2.3878
4.3554 1.4015 2.3878
4.3000 1.5544 2.3878
4.2390 1.7050 2.3878
4.1725 1.8532 2.3878
4.1005 1.9987 2.3878
4.0232 2.1414 2.3878
3.9407 2.2809 2.3878
3.8532 2.4172 2.3878
3.7608 2.5501 2.3878
3.6635 2.6794 2.3878
3.5616 2.8048 2.3878
3.4553 2.9263 2.3878
3.3446 3.0437 2.3878
3.2298 3.1567 2.3878
3.1110 3.2654 2.3878
2.9884 3.3695 2.3878
2.8623 3.4689 2.3878
2.7327 3.5636 2.3878
2.5998 3.6532 2.3878
2.4639 3.7379 2.3878
0.9017 1.4804 0.9260
0.8480 1.5112 0.9272
0.7933 1.5402 0.9285
0.7375 1.5671 0.9298
0.6808 1.5920 0.9311
0.6232 1.6148 0.9324
0.5648 1.6356 0.9337
0.5058 1.6542 0.9351
0.4461 1.6707 0.9364
0.3858 1.6850 0.9378
0.3250 1.6972 0.9391
0.2639 1.7071 0.9405
0.2024 1.7148 0.9419
0.1407 1.7204 0.9432
0.0788 1.7236 0.9446
0.0168 1.7247 0.9459
-0.0451 1.7235 0.9473
-0.1070 1.7201 0.9486
-0.1688 1.7144 0.9499
-0.2302 1.7065 0.9512
-0.2914 1.6965 0.9526
-0.3521 1.6842 0.9538
-0.4124 1.6697 0.9551
-0.4721 1.6531 0.9564
-0.5312 1.6343 0.9576
-0.5895 1.6134 0.9588
-0.6471 1.5904 0.9600
-0.7038 1.5653 0.9612
-0.7595 1.5383 0.9623
-0.8142 1.5092 0.9634
-0.8679 1.4782 0.9645
-2.2761 3.5741 2.3878
-2.4004 3.4843 2.3878
-2.5212 3.3904 2.3878
-2.6386 3.2924 2.3878
-2.7524 3.1904 2.3878
-2.8624 3.0846 2.3878
-2.9686 2.9752 2.3878
-3.0708 2.8622 2.3878
-3.1689 2.7459 2.3878
-3.2628 2.6263 2.3878
-3.3523 2.5034 2.3878
-3.4375 2.3780 2.3878
-3.5183 2.2496 2.3878
-3.5944 2.1185 2.3878
-3.6659 1.9850 2.3878
