ply
format ascii 1.0
element vertex 2182
property float32 x
property float32 y
property float32 z
end_header
7.2428 -0.7150 2.3870
7.2564 -0.4490 2.3870
7.2623 -0.1831 2.3870
7.2605 0.0827 2.3870
7.2511 0.3483 2.3870
7.2341 0.6135 2.3870
7.2094 0.8781 2.3870
7.1770 1.1420 2.3870
7.1371 1.4052 2.3870
7.0895 1.6673 2.3870
7.0342 1.9284 2.3870
6.9714 2.1882 2.3870
6.9009 2.4467 2.3870
6.8228 2.7036 2.3870
6.7370 2.9588 2.3870
6.6436 3.2122 2.3870
6.5425 3.4636 2.3870
6.4337 3.7129 2.3870
6.3173 3.9598 2.3870
6.1932 4.2042 2.3870
6.0614 4.4460 2.3870
5.9219 4.6849 2.3870
5.7747 4.9208 2.3870
5.6197 5.1535 2.3870
5.4571 5.3827 2.3870
5.2867 5.6084 2.3870
5.1087 5.8302 2.3870
4.9228 6.0479 2.3870
4.7293 6.2614 2.3870
4.5281 6.4703 2.3870
4.3192 6.6746 2.3870
4.1027 6.8738 2.3870
3.8785 7.0677 2.3870
3.6467 7.2562 2.3870
3.4074 7.4389 2.3870
3.1605 7.6155 2.3870
2.9062 7.7857 2.3870
2.6446 7.9493 2.3870
2.3756 8.1060 2.3870
2.0995 8.2553 2.3870
0.7709 3.5640 1.0131
0.6426 3.5921 1.0051
0.5133 3.6155 0.9970
0.3833 3.6343 0.9888
0.2527 3.6483 0.9805
0.1216 3.6575 0.9722
-0.0097 3.6620 0.9638
-0.1411 3.6618 0.9555
-0.2724 3.6567 0.9470
-0.4035 3.6469 0.9386
-0.5341 3.6324 0.9302
-0.6640 3.6131 0.9218
-0.7933 3.5891 0.9134
-0.9215 3.5605 0.9050
0.4792 3.3017 0.9930
0.3605 3.3193 0.9855
0.2411 3.3326 0.9779
0.1214 3.3416 0.9704
0.0014 3.3463 0.9627
-0.1187 3.3466 0.9550
-0.2387 3.3426 0.9474
-0.3585 3.3341 0.9397
-0.4779 3.3214 0.9320
-0.5968 3.3043 0.9243
-0.7150 3.2830 0.9166
-0.8323 3.2573 0.9090
-0.9487 3.2274 0.9013
-2.8412 8.5285 2.3870
-3.1719 8.4977 2.3870
-3.5037 8.4547 2.3870
-3.8370 8.3987 2.3870
-4.1704 8.3301 2.3870
-4.5036 8.2485 2.3870
-4.8361 8.1536 2.3870
-5.1672 8.0455 2.3870
-5.4965 7.9238 2.3870
-4.7918 -8.4308 2.3870
-4.4515 -8.5237 2.3870
-4.1105 -8.6028 2.3870
-3.7692 -8.6683 2.3870
-3.4284 -8.7205 2.3870
-3.0884 -8.7595 2.3870
-2.7500 -8.7857 2.3870
-2.4136 -8.7993 2.3870
-2.0796 -8.8006 2.3870
-1.7486 -8.7899 2.3870
-1.4209 -8.7675 2.3870
-1.0970 -8.7338 2.3870
-0.7772 -8.6890 2.3870
-0.4619 -8.6335 2.3870
-0.1514 -8.5676 2.3870
0.1541 -8.4918 2.3870
0.4541 -8.4063 2.3870
0.7486 -8.3115 2.3870
1.0372 -8.2077 2.3870
1.3197 -8.0952 2.3870
1.5960 -7.9744 2.3870
1.8658 -7.8457 2.3870
2.1291 -7.7093 2.3870
2.3856 -7.5656 2.3870
2.6353 -7.4148 2.3870
2.8780 -7.2574 2.3870
3.1136 -7.0936 2.3870
3.3421 -6.9237 2.3870
3.5634 -6.7480 2.3870
3.7774 -6.5668 2.3870
3.9840 -6.3803 2.3870
4.1833 -6.1889 2.3870
4.3751 -5.9927 2.3870
4.5595 -5.7921 2.3870
4.7364 -5.5872 2.3870
4.9058 -5.3784 2.3870
5.0678 -5.1658 2.3870
5.2222 -4.9498 2.3870
5.3691 -4.7304 2.3870
5.5084 -4.5080 2.3870
5.6403 -4.2826 2.3870
5.7647 -4.0546 2.3870
5.8816 -3.8241 2.3870
5.9910 -3.5913 2.3870
6.0929 -3.3565 2.3870
6.1874 -3.1196 2.3870
6.2745 -2.8811 2.3870
6.3541 -2.6409 2.3870
6.4263 -2.3993 2.3870
6.4912 -2.1564 2.3870
6.5486 -1.9125 2.3870
6.5988 -1.6676 2.3870
6.6415 -1.4219 2.3870
6.6770 -1.1756 2.3870
6.7052 -0.9288 2.3870
6.7260 -0.6817 2.3870
6.7396 -0.4343 2.3870
6.7459 -0.1869 2.3870
6.7450 0.0605 2.3870
6.7368 0.3076 2.3870
6.7213 0.5543 2.3870
6.6987 0.8005 2.3870
6.6688 1.0461 2.3870
6.6317 1.2909 2.3870
6.5873 1.5347 2.3870
6.5358 1.7775 2.3870
6.4771 2.0191 2.3870
6.4111 2.2592 2.3870
6.3380 2.4979 2.3870
6.2576 2.7348 2.3870
6.1701 2.9700 2.3870
6.0753 3.2031 2.3870
5.9734 3.4341 2.3870
5.8642 3.6628 2.3870
5.7479 3.8890 2.3870
5.6244 4.1126 2.3870
5.4937 4.3333 2.3870
5.3558 4.5510 2.3870
5.2107 4.7655 2.3870
5.0586 4.9766 2.3870
4.8992 5.1841 2.3870
4.7327 5.3879 2.3870
4.5591 5.5876 2.3870
4.3785 5.7832 2.3870
4.1908 5.9743 2.3870
3.9960 6.1607 2.3870
3.7943 6.3422 2.3870
3.5857 6.5187 2.3870
3.3702 6.6897 2.3870
3.1478 6.8552 2.3870
2.9187 7.0147 2.3870
2.6830 7.1681 2.3870
2.4406 7.3151 2.3870
2.1919 7.4554 2.3870
0.8231 3.2252 1.0145
0.7069 3.2553 1.0072
0.5897 3.2813 0.9999
0.4716 3.3029 0.9925
0.3528 3.3203 0.9850
0.2334 3.3334 0.9775
0.1137 3.3421 0.9699
-0.0063 3.3465 0.9622
-0.1264 3.3465 0.9546
-0.2464 3.3421 0.9469
-0.3662 3.3335 0.9392
-0.4856 3.3204 0.9315
-0.6045 3.3031 0.9238
-0.7226 3.2814 0.9161
-0.8399 3.2555 0.9085
-0.9561 3.2254 0.9009
-2.8625 8.5269 2.3870
-3.1933 8.4952 2.3870
-3.5254 8.4512 2.3870
-3.8585 8.3946 2.3870
-4.1919 8.3252 2.3870
-4.5250 8.2428 2.3870
-4.8576 8.1470 2.3870
-5.1885 8.0380 2.3870
-5.5176 7.9155 2.3870
-4.7699 -8.4372 2.3870
-4.4296 -8.5292 2.3870
-4.0885 -8.6074 2.3870
-3.7472 -8.6721 2.3870
-3.4064 -8.7234 2.3870
-3.0666 -8.7616 2.3870
-2.7283 -8.7870 2.3870
-2.3920 -8.7998 2.3870
-2.0582 -8.8003 2.3870
-1.7274 -8.7888 2.3870
-1.3999 -8.7657 2.3870
-1.0763 -8.7312 2.3870
-0.7567 -8.6857 2.3870
-0.4417 -8.6296 2.3870
-0.1315 -8.5631 2.3870
0.1736 -8.4867 2.3870
0.4733 -8.4005 2.3870
0.7674 -8.3051 2.3870
1.0556 -8.2007 2.3870
1.3377 -8.0877 2.3870
1.6136 -7.9664 2.3870
1.8830 -7.8371 2.3870
2.1458 -7.7002 2.3870
2.4019 -7.5560 2.3870
2.6511 -7.4049 2.3870
2.8934 -7.2471 2.3870
3.1286 -7.0828 2.3870
3.3566 -6.9126 2.3870
3.5774 -6.7365 2.3870
3.7909 -6.5549 2.3870
3.9971 -6.3681 2.3870
4.1959 -6.1763 2.3870
4.3872 -5.9799 2.3870
4.5711 -5.7790 2.3870
4.7476 -5.5739 2.3870
4.9165 -5.3648 2.3870
5.0779 -5.1520 2.3870
5.2319 -4.9357 2.3870
5.3783 -4.7162 2.3870
5.5172 -4.4935 2.3870
5.6486 -4.2680 2.3870
5.7724 -4.0398 2.3870
5.8888 -3.8092 2.3870
5.9978 -3.5763 2.3870
6.0992 -3.3413 2.3870
6.1932 -3.1043 2.3870
6.2798 -2.8656 2.3870
6.3590 -2.6254 2.3870
6.4307 -2.3837 2.3870
6.4951 -2.1408 2.3870
6.5521 -1.8968 2.3870
6.6017 -1.6518 2.3870
6.6441 -1.4061 2.3870
6.6790 -1.1597 2.3870
6.7067 -0.9129 2.3870
6.7271 -0.6657 2.3870
6.7402 -0.4183 2.3870
6.7461 -0.1709 2.3870
6.7447 0.0764 2.3870
6.7360 0.3235 2.3870
6.7201 0.5702 2.3870
6.6970 0.8164 2.3870
6.6666 1.0619 2.3870
6.6290 1.3066 2.3870
6.5842 1.5504 2.3870
6.5322 1.7931 2.3870
6.4730 2.0346 2.3870
6.4066 2.2746 2.3870
6.3330 2.5132 2.3870
6.2522 2.7501 2.3870
6.1642 2.9850 2.3870
6.0689 3.2181 2.3870
5.9665 3.4489 2.3870
5.8569 3.6775 2.3870
5.7402 3.9035 2.3870
5.6162 4.1269 2.3870
5.4850 4.3474 2.3870
5.3467 4.5649 2.3870
5.2012 4.7792 2.3870
5.0485 4.9901 2.3870
4.8887 5.1974 2.3870
4.7218 5.4009 2.3870
4.5477 5.6004 2.3870
4.3666 5.7956 2.3870
4.1784 5.9864 2.3870
3.9833 6.1725 2.3870
3.7811 6.3538 2.3870
3.5720 6.5299 2.3870
3.3561 6.7006 2.3870
3.1333 6.8656 2.3870
2.9038 7.0248 2.3870
2.6676 7.1778 2.3870
2.4248 7.3243 2.3870
2.1756 7.4642 2.3870
0.8156 3.2272 1.0140
0.6994 3.2571 1.0068
0.5821 3.2828 0.9994
0.4640 3.3042 0.9920
0.3451 3.3213 0.9845
0.2257 3.3341 0.9770
0.1059 3.3425 0.9694
-0.0141 3.3466 0.9617
-0.1342 3.3463 0.9541
-0.2542 3.3417 0.9464
-0.3739 3.3327 0.9387
-0.4933 3.3194 0.9310
-0.6121 3.3018 0.9233
-0.7302 3.2799 0.9156
-0.8474 3.2537 0.9080
-2.5547 8.5455 2.3870
-2.8838 8.5252 2.3870
-3.2147 8.4928 2.3870
-3.5469 8.4480 2.3870
-3.8800 8.3906 2.3870
-4.2133 8.3203 2.3870
-4.5465 8.2370 2.3870
-4.8789 8.1404 2.3870
-5.2097 8.0306 2.3870
0.4360 3.0368 0.9887
0.3267 3.0530 0.9818
0.2170 3.0652 0.9748
0.1068 3.0735 0.9679
-0.0036 3.0777 0.9608
-0.1140 3.0780 0.9538
-0.2244 3.0743 0.9467
-0.3346 3.0665 0.9396
-0.4445 3.0548 0.9325
-0.5538 3.0391 0.9255
-0.6625 3.0194 0.9184
-0.7705 2.9959 0.9114
-0.8775 2.9684 0.9044
-2.6157 7.8120 2.3870
-2.9167 7.7783 2.3870
-3.2185 7.7332 2.3870
-3.5207 7.6767 2.3870
-3.8228 7.6086 2.3870
-4.1244 7.5286 2.3870
-4.4248 7.4368 2.3870
-4.7236 7.3328 2.3870
-5.0202 7.2168 2.3870
-5.3141 7.0886 2.3870
-5.6046 6.9480 2.3870
-5.8913 6.7952 2.3870
-6.1734 6.6302 2.3870
-6.4503 6.4530 2.3870
-6.7213 6.2639 2.3870
-6.9859 6.0627 2.3870
-7.2434 5.8498 2.3870
-7.4932 5.6253 2.3870
-7.7348 5.3893 2.3870
-7.9672 5.1425 2.3870
-8.1898 4.8850 2.3870
-8.4023 4.6171 2.3870
-8.6039 4.3393 2.3870
-8.7940 4.0520 2.3870
-8.2067 -5.1094 2.3870
-7.9818 -5.3699 2.3870
-7.7467 -5.6195 2.3870
-7.5023 -5.8578 2.3870
-7.2489 -6.0847 2.3870
-6.9875 -6.2997 2.3870
-6.7185 -6.5027 2.3870
-6.4427 -6.6934 2.3870
-6.1608 -6.8717 2.3870
-5.8734 -7.0374 2.3870
-5.5811 -7.1906 2.3870
-5.2846 -7.3310 2.3870
-4.9846 -7.4588 2.3870
-4.6817 -7.5740 2.3870
-4.3764 -7.6765 2.3870
-4.0694 -7.7666 2.3870
-3.7612 -7.8442 2.3870
-3.4525 -7.9096 2.3870
-3.1436 -7.9629 2.3870
-2.8352 -8.0043 2.3870
-2.5276 -8.0340 2.3870
-2.2215 -8.0521 2.3870
-1.9172 -8.0590 2.3870
-1.6151 -8.0549 2.3870
-1.3157 -8.0400 2.3870
-1.0192 -8.0146 2.3870
-0.7262 -7.9790 2.3870
-0.4369 -7.9334 2.3870
-0.1515 -7.8781 2.3870
0.1295 -7.8136 2.3870
0.4059 -7.7398 2.3870
0.6775 -7.6576 2.3870
0.9441 -7.5667 2.3870
1.2054 -7.4676 2.3870
1.4612 -7.3607 2.3870
1.7114 -7.2461 2.3870
1.9557 -7.1243 2.3870
2.1941 -6.9955 2.3870
2.4263 -6.8599 2.3870
2.6524 -6.7179 2.3870
2.8721 -6.5698 2.3870
3.0853 -6.4157 2.3870
3.2920 -6.2560 2.3870
3.4922 -6.0909 2.3870
3.6856 -5.9208 2.3870
3.8723 -5.7457 2.3870
4.0523 -5.5661 2.3870
4.2253 -5.3820 2.3870
4.3916 -5.1938 2.3870
4.5509 -5.0017 2.3870
4.7032 -4.8058 2.3870
4.8487 -4.6065 2.3870
4.9871 -4.4039 2.3870
5.1186 -4.1982 2.3870
5.2431 -3.9896 2.3870
5.3606 -3.7783 2.3870
5.4710 -3.5646 2.3870
5.5745 -3.3485 2.3870
5.6710 -3.1303 2.3870
5.7605 -2.9102 2.3870
5.8430 -2.6883 2.3870
5.9185 -2.4647 2.3870
5.9871 -2.2397 2.3870
6.0486 -2.0134 2.3870
6.1032 -1.7860 2.3870
6.1509 -1.5576 2.3870
6.1916 -1.3284 2.3870
6.2254 -1.0985 2.3870
6.2523 -0.8681 2.3870
6.2723 -0.6373 2.3870
6.2853 -0.4062 2.3870
6.2915 -0.1752 2.3870
6.2908 0.0559 2.3870
6.2832 0.2867 2.3870
6.2688 0.5172 2.3870
6.2475 0.7473 2.3870
6.2194 0.9766 2.3870
6.1844 1.2052 2.3870
6.1425 1.4329 2.3870
6.0939 1.6595 2.3870
6.0384 1.8849 2.3870
5.9761 2.1090 2.3870
5.9071 2.3315 2.3870
5.8312 2.5524 2.3870
5.7485 2.7714 2.3870
5.6590 2.9885 2.3870
5.5628 3.2034 2.3870
5.4598 3.4161 2.3870
5.3501 3.6263 2.3870
5.2336 3.8338 2.3870
5.1104 4.0386 2.3870
4.9805 4.2403 2.3870
4.8439 4.4390 2.3870
4.7006 4.6342 2.3870
4.5507 4.8260 2.3870
4.3942 5.0140 2.3870
4.2311 5.1981 2.3870
4.0615 5.3780 2.3870
3.8853 5.5536 2.3870
3.7028 5.7247 2.3870
3.5138 5.8910 2.3870
3.3185 6.0522 2.3870
3.1169 6.2083 2.3870
2.9092 6.3589 2.3870
2.6953 6.5039 2.3870
2.4754 6.6429 2.3870
2.2496 6.7757 2.3870
0.8581 2.9349 1.0150
0.7523 2.9665 1.0085
0.6454 2.9942 1.0018
0.5376 3.0180 0.9950
0.4290 3.0379 0.9882
0.3197 3.0539 0.9813
0.2099 3.0659 0.9744
0.0997 3.0739 0.9674
-0.0107 3.0779 0.9604
-0.1211 3.0779 0.9533
-0.2315 3.0739 0.9463
-0.3417 3.0659 0.9392
-0.4515 3.0539 0.9321
-0.5608 3.0379 0.9250
-0.6695 3.0180 0.9180
-0.7774 2.9942 0.9109
-0.8843 2.9665 0.9039
-2.6350 7.8102 2.3870
-2.9361 7.7757 2.3870
-3.2380 7.7300 2.3870
-3.5402 7.6727 2.3870
-3.8423 7.6038 2.3870
-4.1438 7.5231 2.3870
-4.4441 7.4304 2.3870
-4.7428 7.3258 2.3870
-5.0393 7.2089 2.3870
-5.3330 7.0798 2.3870
-5.6233 6.9385 2.3870
-5.9096 6.7850 2.3870
-6.1915 6.6191 2.3870
-6.4680 6.4412 2.3870
-6.7385 6.2513 2.3870
-7.0027 6.0494 2.3870
-7.2598 5.8357 2.3870
-7.5091 5.6104 2.3870
-7.7501 5.3737 2.3870
-7.9819 5.1262 2.3870
-8.2038 4.8681 2.3870
-8.4155 4.5996 2.3870
-8.6165 4.3210 2.3870
-8.8058 4.0331 2.3870
-8.4074 -4.8563 2.3870
-8.1925 -5.1265 2.3870
-7.9669 -5.3863 2.3870
-7.7313 -5.6352 2.3870
-7.4862 -5.8728 2.3870
-7.2323 -6.0989 2.3870
-6.9704 -6.3132 2.3870
-6.7009 -6.5154 2.3870
-6.4247 -6.7052 2.3870
-6.1424 -6.8827 2.3870
-5.8547 -7.0477 2.3870
-5.5621 -7.2000 2.3870
-5.2654 -7.3396 2.3870
-4.9652 -7.4666 2.3870
-4.6621 -7.5810 2.3870
-4.3567 -7.6827 2.3870
-4.0496 -7.7720 2.3870
-3.7414 -7.8488 2.3870
-3.4325 -7.9134 2.3870
-3.1237 -7.9660 2.3870
-2.8153 -8.0066 2.3870
-2.5078 -8.0355 2.3870
-2.2018 -8.0529 2.3870
-1.8976 -8.0591 2.3870
-1.5957 -8.0543 2.3870
-1.2965 -8.0387 2.3870
-1.0002 -8.0126 2.3870
-0.7074 -7.9763 2.3870
-0.4183 -7.9302 2.3870
-0.1333 -7.8743 2.3870
0.1475 -7.8092 2.3870
0.4236 -7.7349 2.3870
0.6949 -7.6520 2.3870
0.9611 -7.5605 2.3870
1.2220 -7.4610 2.3870
1.4775 -7.3535 2.3870
1.7273 -7.2385 2.3870
1.9712 -7.1162 2.3870
2.2092 -6.9870 2.3870
2.4411 -6.8510 2.3870
2.6667 -6.7086 2.3870
2.8860 -6.5600 2.3870
3.0988 -6.4056 2.3870
3.3051 -6.2455 2.3870
3.5048 -6.0801 2.3870
3.6979 -5.9096 2.3870
3.8841 -5.7343 2.3870
4.0636 -5.5543 2.3870
4.2363 -5.3700 2.3870
4.4020 -5.1815 2.3870
4.5609 -4.9891 2.3870
4.7128 -4.7931 2.3870
4.8578 -4.5935 2.3870
4.9958 -4.3907 2.3870
5.1268 -4.1848 2.3870
5.2509 -3.9761 2.3870
5.3679 -3.7647 2.3870
5.4779 -3.5507 2.3870
5.5809 -3.3345 2.3870
5.6770 -3.1162 2.3870
5.7660 -2.8959 2.3870
5.8481 -2.6739 2.3870
5.9231 -2.4503 2.3870
5.9912 -2.2252 2.3870
6.0524 -1.9988 2.3870
6.1065 -1.7713 2.3870
6.1537 -1.5428 2.3870
6.1940 -1.3136 2.3870
6.2274 -1.0836 2.3870
6.2538 -0.8532 2.3870
6.2733 -0.6224 2.3870
6.2859 -0.3914 2.3870
6.2917 -0.1603 2.3870
6.2905 0.0708 2.3870
6.2825 0.3016 2.3870
6.2676 0.5321 2.3870
6.2459 0.7621 2.3870
6.2173 0.9914 2.3870
6.1819 1.2199 2.3870
6.1396 1.4475 2.3870
6.0905 1.6741 2.3870
6.0346 1.8994 2.3870
5.9719 2.1233 2.3870
5.9024 2.3458 2.3870
5.8261 2.5665 2.3870
5.7429 2.7855 2.3870
5.6530 3.0024 2.3870
5.5564 3.2172 2.3870
5.4529 3.4297 2.3870
5.3428 3.6397 2.3870
5.2258 3.8471 2.3870
5.1022 4.0517 2.3870
4.9719 4.2532 2.3870
4.8348 4.4517 2.3870
4.6911 4.6467 2.3870
4.5408 4.8382 2.3870
4.3839 5.0260 2.3870
4.2204 5.2098 2.3870
4.0503 5.3895 2.3870
3.8738 5.5648 2.3870
3.6908 5.7355 2.3870
3.5014 5.9015 2.3870
3.3057 6.0625 2.3870
3.1037 6.2182 2.3870
2.8956 6.3685 2.3870
2.6813 6.5130 2.3870
2.4610 6.6516 2.3870
2.2348 6.7840 2.3870
0.8513 2.9371 1.0146
0.7454 2.9684 1.0080
0.6385 2.9958 1.0014
0.5306 3.0194 0.9946
0.4219 3.0391 0.9878
0.3126 3.0548 0.9809
0.2028 3.0665 0.9739
0.0926 3.0743 0.9670
-0.0178 3.0780 0.9599
-0.1282 3.0777 0.9529
-0.2386 3.0735 0.9458
-0.3488 3.0652 0.9387
-0.4586 3.0530 0.9316
-0.5678 3.0368 0.9246
-0.6765 3.0166 0.9175
-0.7843 2.9925 0.9105
-0.8912 2.9646 0.9035
-2.6544 7.8083 2.3870
-2.9555 7.7731 2.3870
-3.2574 7.7266 2.3870
-3.5597 7.6686 2.3870
-3.8617 7.5989 2.3870
-4.1632 7.5175 2.3870
-4.4634 7.4241 2.3870
-4.7620 7.3186 2.3870
0.3987 2.8083 0.9850
0.2976 2.8232 0.9786
0.1961 2.8345 0.9722
0.0943 2.8422 0.9657
-0.0078 2.8461 0.9592
-0.1100 2.8463 0.9527
-0.2121 2.8429 0.9461
-0.3140 2.8357 0.9396
-0.4156 2.8248 0.9330
-0.5167 2.8103 0.9265
-0.6172 2.7921 0.9200
-0.7171 2.7703 0.9135
-0.8160 2.7449 0.9070
-0.9140 2.7159 0.9006
-2.6985 7.1633 2.3870
-2.9747 7.1175 2.3870
-3.2510 7.0612 2.3870
-3.5269 6.9942 2.3870
-3.8019 6.9165 2.3870
-4.0755 6.8279 2.3870
-4.3474 6.7284 2.3870
-4.6169 6.6179 2.3870
-4.8836 6.4964 2.3870
-5.1469 6.3638 2.3870
-5.4064 6.2202 2.3870
-5.6614 6.0657 2.3870
-5.9115 5.9003 2.3870
-6.1560 5.7240 2.3870
-6.3945 5.5372 2.3870
-6.6262 5.3398 2.3870
-6.8508 5.1322 2.3870
-7.0676 4.9145 2.3870
-7.2761 4.6871 2.3870
-7.4757 4.4502 2.3870
-7.6659 4.2042 2.3870
-7.8462 3.9495 2.3870
-8.0161 3.6864 2.3870
-8.1751 3.4155 2.3870
-8.3227 3.1371 2.3870
-8.4585 2.8519 2.3870
-8.5820 2.5603 2.3870
-8.6930 2.2629 2.3870
-8.7910 1.9604 2.3870
-8.8758 1.6533 2.3870
-8.9470 1.3422 2.3870
-9.0045 1.0279 2.3870
-9.0480 0.7110 2.3870
-9.0775 0.3922 2.3870
-9.0926 0.0722 2.3870
-9.0936 -0.2483 2.3870
-9.0802 -0.5685 2.3870
-9.0525 -0.8879 2.3870
-9.0106 -1.2056 2.3870
-8.9546 -1.5210 2.3870
-8.8847 -1.8333 2.3870
-8.8011 -2.1419 2.3870
-8.7040 -2.4462 2.3870
-8.5936 -2.7454 2.3870
-8.4704 -3.0390 2.3870
-8.3347 -3.3264 2.3870
-8.1868 -3.6070 2.3870
-8.0272 -3.8802 2.3870
-7.8563 -4.1456 2.3870
-7.6746 -4.4026 2.3870
-7.4827 -4.6508 2.3870
-7.2809 -4.8899 2.3870
-7.0700 -5.1194 2.3870
-6.8503 -5.3389 2.3870
-6.6225 -5.5483 2.3870
-6.3872 -5.7472 2.3870
-6.1449 -5.9353 2.3870
-5.8962 -6.1126 2.3870
-5.6418 -6.2787 2.3870
-5.3820 -6.4337 2.3870
-5.1177 -6.5774 2.3870
-4.8492 -6.7096 2.3870
-4.5772 -6.8306 2.3870
-4.3023 -6.9401 2.3870
-4.0249 -7.0382 2.3870
-3.7456 -7.1250 2.3870
-3.4649 -7.2006 2.3870
-3.1833 -7.2650 2.3870
-2.9013 -7.3185 2.3870
-2.6194 -7.3609 2.3870
-2.3379 -7.3927 2.3870
-2.0574 -7.4139 2.3870
-1.7782 -7.4248 2.3870
-1.5007 -7.4254 2.3870
-1.2254 -7.4161 2.3870
-0.9525 -7.3971 2.3870
-0.6823 -7.3686 2.3870
-0.4153 -7.3307 2.3870
-0.1517 -7.2840 2.3870
0.1083 -7.2284 2.3870
0.3643 -7.1643 2.3870
0.6161 -7.0919 2.3870
0.8635 -7.0116 2.3870
1.1063 -6.9235 2.3870
1.3442 -6.8279 2.3870
1.5771 -6.7252 2.3870
1.8049 -6.6154 2.3870
2.0273 -6.4990 2.3870
2.2442 -6.3762 2.3870
2.4555 -6.2471 2.3870
2.6611 -6.1122 2.3870
2.8608 -5.9715 2.3870
3.0546 -5.8254 2.3870
3.2423 -5.6741 2.3870
3.4240 -5.5179 2.3870
3.5995 -5.3569 2.3870
3.7687 -5.1914 2.3870
3.9316 -5.0216 2.3870
4.0882 -4.8477 2.3870
4.2384 -4.6700 2.3870
4.3822 -4.4887 2.3870
4.5195 -4.3039 2.3870
4.6503 -4.1159 2.3870
4.7745 -3.9248 2.3870
4.8923 -3.7308 2.3870
5.0035 -3.5342 2.3870
5.1081 -3.3352 2.3870
5.2062 -3.1338 2.3870
5.2977 -2.9303 2.3870
5.3826 -2.7248 2.3870
5.4609 -2.5175 2.3870
5.5326 -2.3086 2.3870
5.5977 -2.0983 2.3870
5.6563 -1.8866 2.3870
5.7082 -1.6738 2.3870
5.7536 -1.4600 2.3870
5.7924 -1.2453 2.3870
5.8247 -1.0300 2.3870
5.8504 -0.8141 2.3870
5.8695 -0.5979 2.3870
5.8820 -0.3813 2.3870
5.8881 -0.1647 2.3870
5.8876 0.0519 2.3870
5.8805 0.2683 2.3870
5.8670 0.4843 2.3870
5.8469 0.6999 2.3870
5.8203 0.9149 2.3870
5.7873 1.1292 2.3870
5.7477 1.3425 2.3870
5.7017 1.5548 2.3870
5.6492 1.7659 2.3870
5.5903 1.9756 2.3870
5.5249 2.1839 2.3870
5.4531 2.3905 2.3870
5.3748 2.5954 2.3870
5.2902 2.7983 2.3870
5.1991 2.9991 2.3870
5.1017 3.1976 2.3870
4.9980 3.3937 2.3870
4.8879 3.5872 2.3870
4.7714 3.7780 2.3870
4.6487 3.9658 2.3870
4.5198 4.1505 2.3870
4.3846 4.3320 2.3870
4.2432 4.5100 2.3870
4.0957 4.6843 2.3870
3.9420 4.8548 2.3870
3.7823 5.0212 2.3870
3.6166 5.1835 2.3870
3.4449 5.3413 2.3870
3.2673 5.4944 2.3870
3.0839 5.6428 2.3870
2.8948 5.7860 2.3870
2.7000 5.9240 2.3870
2.4996 6.0566 2.3870
2.2938 6.1834 2.3870
2.0826 6.3042 2.3870
0.7891 2.7142 1.0093
0.6912 2.7433 1.0033
0.5924 2.7689 0.9971
0.4926 2.7909 0.9909
0.3922 2.8093 0.9845
0.2911 2.8241 0.9782
0.1896 2.8352 0.9718
0.0877 2.8425 0.9653
-0.0144 2.8462 0.9588
-0.1166 2.8462 0.9523
-0.2186 2.8425 0.9457
-0.3206 2.8351 0.9392
-0.4221 2.8240 0.9326
-0.5232 2.8093 0.9261
-0.6237 2.7908 0.9196
-0.7235 2.7688 0.9131
-0.8224 2.7432 0.9066
-0.9203 2.7140 0.9002
-2.7162 7.1607 2.3870
-2.9925 7.1142 2.3870
-3.2688 7.0572 2.3870
-3.5446 6.9895 2.3870
-3.8196 6.9111 2.3870
-4.0931 6.8218 2.3870
-4.3648 6.7216 2.3870
-4.6342 6.6104 2.3870
-4.9007 6.4882 2.3870
-5.1638 6.3549 2.3870
-5.4229 6.2106 2.3870
-5.6777 6.0554 2.3870
-5.9274 5.8892 2.3870
-6.1716 5.7123 2.3870
-6.4096 5.5247 2.3870
-6.6409 5.3267 2.3870
-6.8650 5.1185 2.3870
-7.0813 4.9001 2.3870
-7.2893 4.6721 2.3870
-7.4883 4.4346 2.3870
-7.6779 4.1880 2.3870
-7.8575 3.9327 2.3870
-8.0267 3.6692 2.3870
-8.1849 3.3977 2.3870
-8.3318 3.1189 2.3870
-8.4668 2.8333 2.3870
-8.5896 2.5413 2.3870
-8.6997 2.2436 2.3870
-8.7969 1.9407 2.3870
-8.8808 1.6334 2.3870
-8.9512 1.3221 2.3870
-9.0077 1.0076 2.3870
-9.0504 0.6905 2.3870
-9.0789 0.3716 2.3870
-9.0931 0.0516 2.3870
-9.0931 -0.2689 2.3870
-9.0788 -0.5892 2.3870
-9.0502 -0.9084 2.3870
-9.0074 -1.2260 2.3870
-8.9506 -1.5412 2.3870
-8.8798 -1.8533 2.3870
-8.7952 -2.1617 2.3870
-8.6972 -2.4656 2.3870
-8.5861 -2.7645 2.3870
-8.4620 -3.0578 2.3870
-8.3255 -3.3447 2.3870
-8.1768 -3.6248 2.3870
-8.0165 -3.8976 2.3870
-7.8449 -4.1624 2.3870
-7.6625 -4.4189 2.3870
-7.4700 -4.6665 2.3870
-7.2676 -4.9050 2.3870
-7.0561 -5.1338 2.3870
-6.8359 -5.3527 2.3870
-6.6076 -5.5614 2.3870
-6.3718 -5.7596 2.3870
-6.1291 -5.9471 2.3870
-5.8800 -6.1236 2.3870
-5.6252 -6.2890 2.3870
-5.3651 -6.4433 2.3870
-5.1005 -6.5862 2.3870
-4.8318 -6.7178 2.3870
-4.5596 -6.8380 2.3870
-4.2845 -6.9467 2.3870
-4.0069 -7.0442 2.3870
-3.7275 -7.1303 2.3870
-3.4468 -7.2051 2.3870
-3.1652 -7.2688 2.3870
-2.8831 -7.3215 2.3870
-2.6012 -7.3633 2.3870
-2.3198 -7.3944 2.3870
-2.0394 -7.4149 2.3870
-1.7603 -7.4251 2.3870
-1.4829 -7.4251 2.3870
-1.2077 -7.4152 2.3870
-0.9350 -7.3956 2.3870
-0.6650 -7.3664 2.3870
-0.3982 -7.3279 2.3870
-0.1348 -7.2807 2.3870
0.1249 -7.2245 2.3870
0.3806 -7.1597 2.3870
0.6322 -7.0870 2.3870
0.8793 -7.0061 2.3870
1.1217 -6.9176 2.3870
1.3594 -6.8215 2.3870
1.5919 -6.7183 2.3870
1.8193 -6.6081 2.3870
2.0414 -6.4913 2.3870
2.2580 -6.3681 2.3870
2.4689 -6.2386 2.3870
2.6741 -6.1033 2.3870
2.8735 -5.9623 2.3870
3.0669 -5.8158 2.3870
3.2542 -5.6642 2.3870
3.4355 -5.5077 2.3870
3.6106 -5.3464 2.3870
3.7794 -5.1806 2.3870
3.9419 -5.0105 2.3870
4.0981 -4.8364 2.3870
4.2479 -4.6585 2.3870
4.3912 -4.4769 2.3870
4.5281 -4.2919 2.3870
4.6585 -4.1036 2.3870
4.7823 -3.9124 2.3870
4.8997 -3.7182 2.3870
5.0104 -3.5215 2.3870
5.1146 -3.3223 2.3870
5.2123 -3.1207 2.3870
5.3033 -2.9171 2.3870
5.3878 -2.7115 2.3870
5.4657 -2.5041 2.3870
5.5370 -2.2951 2.3870
5.6017 -2.0847 2.3870
5.6598 -1.8729 2.3870
5.7114 -1.6600 2.3870
5.7563 -1.4462 2.3870
5.7947 -1.2315 2.3870
5.8265 -1.0161 2.3870
5.8518 -0.8002 2.3870
5.8705 -0.5839 2.3870
5.8826 -0.3674 2.3870
5.8882 -0.1508 2.3870
5.8873 0.0658 2.3870
5.8798 0.2822 2.3870
5.8659 0.4982 2.3870
5.8454 0.7138 2.3870
5.8184 0.9288 2.3870
5.7849 1.1429 2.3870
5.7450 1.3562 2.3870
5.6985 1.5684 2.3870
5.6456 1.7794 2.3870
5.5863 1.9891 2.3870
5.5204 2.1973 2.3870
5.4482 2.4038 2.3870
5.3696 2.6085 2.3870
5.2845 2.8113 2.3870
5.1930 3.0119 2.3870
5.0952 3.2103 2.3870
4.9911 3.4062 2.3870
4.8805 3.5996 2.3870
4.7637 3.7902 2.3870
4.6406 3.9778 2.3870
4.5112 4.1623 2.3870
4.3757 4.3436 2.3870
4.2339 4.5213 2.3870
4.0859 4.6954 2.3870
3.9319 4.8656 2.3870
3.7718 5.0318 2.3870
3.6057 5.1938 2.3870
3.4336 5.3513 2.3870
3.2557 5.5041 2.3870
3.0719 5.6522 2.3870
2.8824 5.7951 2.3870
2.6873 5.9328 2.3870
2.4865 6.0649 2.3870
2.2803 6.1913 2.3870
2.0688 6.3118 2.3870
0.7828 2.7162 1.0089
0.6849 2.7451 1.0029
0.5860 2.7705 0.9967
0.4862 2.7922 0.9904
0.3857 2.8104 0.9841
0.2846 2.8249 0.9778
0.1830 2.8357 0.9713
0.0811 2.8429 0.9649
-0.0210 2.8463 0.9584
-0.1231 2.8461 0.9518
-0.2252 2.8421 0.9453
-0.3271 2.8345 0.9388
-0.4286 2.8232 0.9322
-0.5297 2.8082 0.9257
-0.6302 2.7895 0.9191
-0.7299 2.7673 0.9126
-0.8287 2.7414 0.9062
-0.9265 2.7120 0.8998
-2.7340 7.1580 2.3870
-3.0103 7.1108 2.3870
-3.2866 7.0532 2.3870
-3.5624 6.9848 2.3870
-3.8372 6.9057 2.3870
-4.1107 6.8157 2.3870
-4.3822 6.7148 2.3870
0.3661 2.6090 0.9817
0.2723 2.6229 0.9758
0.1779 2.6333 0.9698
0.0833 2.6404 0.9638
-0.0116 2.6441 0.9578
-0.1065 2.6443 0.9517
-0.2013 2.6410 0.9457
-0.2960 2.6344 0.9396
-0.3904 2.6243 0.9335
-0.4843 2.6108 0.9274
-0.5778 2.5939 0.9213
-0.6705 2.5736 0.9153
-0.7624 2.5500 0.9093
-0.8535 2.5231 0.9033
-0.9435 2.4929 0.8974
-2.7640 6.5851 2.3870
-3.0181 6.5296 2.3870
-3.2716 6.4643 2.3870
-3.5240 6.3891 2.3870
-3.7749 6.3039 2.3870
-4.0239 6.2088 2.3870
-4.2705 6.1037 2.3870
-4.5143 5.9885 2.3870
-4.7547 5.8633 2.3870
-4.9914 5.7281 2.3870
-5.2237 5.5830 2.3870
-5.4514 5.4281 2.3870
-5.6737 5.2634 2.3870
-5.8903 5.0892 2.3870
-6.1007 4.9055 2.3870
-6.3043 4.7127 2.3870
-6.5007 4.5108 2.3870
-6.6894 4.3003 2.3870
-6.8699 4.0813 2.3870
-7.0418 3.8542 2.3870
-7.2045 3.6193 2.3870
-7.3578 3.3770 2.3870
-7.5010 3.1277 2.3870
-7.6339 2.8719 2.3870
-7.7561 2.6100 2.3870
-7.8672 2.3424 2.3870
-7.9669 2.0698 2.3870
-8.0549 1.7926 2.3870
-8.1310 1.5114 2.3870
-8.1948 1.2267 2.3870
-8.2462 0.9391 2.3870
-8.2851 0.6493 2.3870
-8.3112 0.3578 2.3870
-8.3246 0.0653 2.3870
-8.3252 -0.2277 2.3870
-8.3129 -0.5204 2.3870
-8.2877 -0.8123 2.3870
-8.2498 -1.1028 2.3870
-8.1992 -1.3911 2.3870
-8.1361 -1.6768 2.3870
-8.0606 -1.9593 2.3870
-7.9729 -2.2378 2.3870
-7.8734 -2.5119 2.3870
-7.7622 -2.7810 2.3870
-7.6396 -3.0446 2.3870
-7.5061 -3.3021 2.3870
-7.3620 -3.5531 2.3870
-7.2076 -3.7972 2.3870
-7.0434 -4.0338 2.3870
-6.8697 -4.2626 2.3870
-6.6872 -4.4833 2.3870
-6.4961 -4.6954 2.3870
-6.2971 -4.8986 2.3870
-6.0905 -5.0927 2.3870
-5.8769 -5.2774 2.3870
-5.6569 -5.4525 2.3870
-5.4308 -5.6178 2.3870
-5.1992 -5.7732 2.3870
-4.9627 -5.9184 2.3870
-4.7217 -6.0534 2.3870
-4.4768 -6.1782 2.3870
-4.2284 -6.2926 2.3870
-3.9771 -6.3967 2.3870
-3.7232 -6.4905 2.3870
-3.4674 -6.5739 2.3870
-3.2100 -6.6471 2.3870
-2.9516 -6.7101 2.3870
-2.6925 -6.7629 2.3870
-2.4332 -6.8058 2.3870
-2.1740 -6.8387 2.3870
-1.9155 -6.8620 2.3870
-1.6579 -6.8756 2.3870
-1.4016 -6.8798 2.3870
-1.1470 -6.8748 2.3870
-0.8945 -6.8607 2.3870
-0.6442 -6.8377 2.3870
-0.3966 -6.8061 2.3870
-0.1518 -6.7660 2.3870
0.0897 -6.7178 2.3870
0.3279 -6.6614 2.3870
0.5623 -6.5973 2.3870
0.7929 -6.5257 2.3870
1.0194 -6.4468 2.3870
1.2416 -6.3607 2.3870
1.4593 -6.2678 2.3870
1.6723 -6.1683 2.3870
1.8805 -6.0624 2.3870
2.0838 -5.9503 2.3870
2.2820 -5.8323 2.3870
2.4750 -5.7087 2.3870
2.6626 -5.5795 2.3870
2.8448 -5.4451 2.3870
3.0215 -5.3057 2.3870
3.1925 -5.1615 2.3870
3.3579 -5.0126 2.3870
3.5175 -4.8594 2.3870
3.6712 -4.7021 2.3870
3.8191 -4.5407 2.3870
3.9610 -4.3756 2.3870
4.0969 -4.2070 2.3870
4.2268 -4.0349 2.3870
4.3507 -3.8597 2.3870
4.4684 -3.6815 2.3870
4.5800 -3.5005 2.3870
4.6854 -3.3168 2.3870
4.7847 -3.1307 2.3870
4.8778 -2.9423 2.3870
4.9647 -2.7518 2.3870
5.0453 -2.5593 2.3870
5.1198 -2.3651 2.3870
5.1880 -2.1692 2.3870
5.2500 -1.9719 2.3870
5.3057 -1.7733 2.3870
5.3552 -1.5735 2.3870
5.3985 -1.3727 2.3870
5.4355 -1.1711 2.3870
5.4663 -0.9688 2.3870
5.4908 -0.7659 2.3870
5.5091 -0.5626 2.3870
5.5212 -0.3591 2.3870
5.5271 -0.1554 2.3870
5.5268 0.0482 2.3870
5.5202 0.2517 2.3870
5.5074 0.4549 2.3870
5.4885 0.6576 2.3870
5.4633 0.8597 2.3870
5.4320 1.0611 2.3870
5.3946 1.2616 2.3870
5.3509 1.4611 2.3870
5.3012 1.6595 2.3870
5.2453 1.8564 2.3870
5.1833 2.0520 2.3870
5.1152 2.2459 2.3870
5.0410 2.4381 2.3870
4.9607 2.6284 2.3870
4.8744 2.8166 2.3870
4.7821 3.0026 2.3870
4.6838 3.1862 2.3870
4.5795 3.3673 2.3870
4.4693 3.5457 2.3870
4.3531 3.7212 2.3870
4.2311 3.8936 2.3870
4.1033 4.0629 2.3870
3.9696 4.2288 2.3870
3.8302 4.3911 2.3870
3.6851 4.5497 2.3870
3.5344 4.7044 2.3870
3.3780 4.8549 2.3870
3.2162 5.0012 2.3870
3.0489 5.1430 2.3870
2.8762 5.2801 2.3870
2.6982 5.4123 2.3870
2.5150 5.5394 2.3870
2.3267 5.6613 2.3870
2.1334 5.7776 2.3870
0.8188 2.4913 1.0099
0.7289 2.5216 1.0044
0.6380 2.5487 0.9987
0.5461 2.5725 0.9930
0.4534 2.5929 0.9872
0.3601 2.6099 0.9813
0.2662 2.6236 0.9754
0.1718 2.6339 0.9694
0.0772 2.6408 0.9634
-0.0177 2.6442 0.9574
-0.1126 2.6442 0.9513
-0.2074 2.6407 0.9453
-0.3021 2.6338 0.9392
-0.3965 2.6235 0.9331
-0.4904 2.6098 0.9270
-0.5838 2.5927 0.9210
-0.6764 2.5722 0.9149
-0.7683 2.5484 0.9089
-0.8593 2.5213 0.9029
-0.9492 2.4909 0.8970
-2.7804 6.5819 2.3870
-3.0345 6.5257 2.3870
-3.2879 6.4597 2.3870
-3.5402 6.3839 2.3870
-3.7910 6.2981 2.3870
-4.0399 6.2023 2.3870
-4.2863 6.0966 2.3870
-4.5299 5.9807 2.3870
-4.7701 5.8549 2.3870
-5.0065 5.7191 2.3870
-5.2386 5.5733 2.3870
-5.4659 5.4178 2.3870
-5.6879 5.2525 2.3870
-5.9041 5.0776 2.3870
-6.1140 4.8934 2.3870
-6.3172 4.7000 2.3870
-6.5131 4.4975 2.3870
-6.7013 4.2864 2.3870
-6.8813 4.0669 2.3870
-7.0525 3.8393 2.3870
-7.2147 3.6039 2.3870
-7.3673 3.3611 2.3870
-7.5099 3.1114 2.3870
-7.6421 2.8552 2.3870
-7.7636 2.5929 2.3870
-7.8740 2.3250 2.3870
-7.9730 2.0521 2.3870
-8.0602 1.7746 2.3870
-8.1354 1.4931 2.3870
-8.1985 1.2082 2.3870
-8.2491 0.9205 2.3870
-8.2872 0.6305 2.3870
-8.3125 0.3390 2.3870
-8.3251 0.0464 2.3870
-8.3248 -0.2465 2.3870
-8.3116 -0.5393 2.3870
-8.2856 -0.8311 2.3870
-8.2469 -1.1214 2.3870
-8.1955 -1.4096 2.3870
-8.1316 -1.6951 2.3870
-8.0553 -1.9773 2.3870
-7.9669 -2.2556 2.3870
-7.8665 -2.5294 2.3870
-7.7546 -2.7981 2.3870
-7.6314 -3.0613 2.3870
-7.4971 -3.3185 2.3870
-7.3523 -3.5691 2.3870
-7.1973 -3.8126 2.3870
-7.0324 -4.0488 2.3870
-6.8582 -4.2771 2.3870
-6.6751 -4.4972 2.3870
-6.4835 -4.7087 2.3870
-6.2840 -4.9114 2.3870
-6.0770 -5.1049 2.3870
-5.8629 -5.2890 2.3870
-5.6425 -5.4635 2.3870
-5.4160 -5.6281 2.3870
-5.1841 -5.7828 2.3870
-4.9473 -5.9274 2.3870
-4.7061 -6.0618 2.3870
-4.4609 -6.1859 2.3870
-4.2123 -6.2997 2.3870
-3.9608 -6.4031 2.3870
-3.7068 -6.4962 2.3870
-3.4509 -6.5790 2.3870
-3.1934 -6.6515 2.3870
-2.9349 -6.7138 2.3870
-2.6758 -6.7660 2.3870
-2.4165 -6.8082 2.3870
-2.1573 -6.8405 2.3870
-1.8988 -6.8631 2.3870
-1.6413 -6.8761 2.3870
-1.3852 -6.8797 2.3870
-1.1307 -6.8741 2.3870
-0.8783 -6.8594 2.3870
-0.6282 -6.8359 2.3870
-0.3807 -6.8037 2.3870
-0.1362 -6.7631 2.3870
0.1052 -6.7143 2.3870
0.3431 -6.6575 2.3870
0.5773 -6.5930 2.3870
0.8076 -6.5208 2.3870
1.0338 -6.4414 2.3870
1.2557 -6.3549 2.3870
1.4731 -6.2616 2.3870
1.6859 -6.1617 2.3870
1.8938 -6.0554 2.3870
2.0967 -5.9429 2.3870
2.2946 -5.8246 2.3870
2.4872 -5.7005 2.3870
2.6745 -5.5710 2.3870
2.8564 -5.4363 2.3870
3.0327 -5.2965 2.3870
3.2034 -5.1520 2.3870
3.3684 -5.0029 2.3870
3.5276 -4.8494 2.3870
3.6809 -4.6918 2.3870
3.8284 -4.5302 2.3870
3.9700 -4.3649 2.3870
4.1055 -4.1960 2.3870
4.2350 -4.0237 2.3870
4.3584 -3.8483 2.3870
4.4757 -3.6699 2.3870
4.5870 -3.4887 2.3870
4.6920 -3.3049 2.3870
4.7909 -3.1186 2.3870
4.8836 -2.9301 2.3870
4.9700 -2.7394 2.3870
5.0503 -2.5469 2.3870
5.1244 -2.3525 2.3870
5.1922 -2.1566 2.3870
5.2538 -1.9592 2.3870
5.3091 -1.7604 2.3870
5.3582 -1.5606 2.3870
5.4010 -1.3598 2.3870
5.4377 -1.1581 2.3870
5.4681 -0.9557 2.3870
5.4922 -0.7528 2.3870
5.5101 -0.5495 2.3870
5.5218 -0.3459 2.3870
5.5273 -0.1423 2.3870
5.5265 0.0614 2.3870
5.5196 0.2648 2.3870
5.5064 0.4680 2.3870
5.4870 0.6706 2.3870
5.4615 0.8727 2.3870
5.4298 1.0741 2.3870
5.3919 1.2745 2.3870
5.3479 1.4739 2.3870
5.2977 1.6722 2.3870
5.2415 1.8691 2.3870
5.1791 2.0646 2.3870
5.1106 2.2584 2.3870
5.0360 2.4504 2.3870
4.9553 2.6406 2.3870
4.8687 2.8287 2.3870
4.7760 3.0145 2.3870
4.6772 3.1980 2.3870
4.5726 3.3789 2.3870
4.4620 3.5571 2.3870
4.3455 3.7324 2.3870
4.2231 3.9046 2.3870
4.0948 4.0737 2.3870
3.9608 4.2394 2.3870
3.8210 4.4014 2.3870
3.6756 4.5598 2.3870
3.5245 4.7142 2.3870
3.3678 4.8645 2.3870
3.2055 5.0105 2.3870
3.0379 5.1520 2.3870
2.8649 5.2887 2.3870
2.6865 5.4206 2.3870
2.5030 5.5474 2.3870
2.3144 5.6689 2.3870
2.1208 5.7849 2.3870
0.8130 2.4933 1.0096
0.7231 2.5234 1.0040
0.6321 2.5503 0.9984
0.5402 2.5739 0.9926
0.4474 2.5941 0.9868
0.3541 2.6109 0.9810
0.2601 2.6244 0.9750
0.1657 2.6344 0.9691
0.0711 2.6411 0.9631
-0.0238 2.6443 0.9570
-0.1187 2.6440 0.9510
-0.2135 2.6404 0.9449
-0.3082 2.6333 0.9388
-0.4025 2.6227 0.9327
-0.4964 2.6088 0.9266
-0.5897 2.5915 0.9206
-0.6824 2.5708 0.9145
-0.7742 2.5467 0.9085
-0.8651 2.5194 0.9026
-0.9550 2.4888 0.8966
-2.7967 6.5785 2.3870
-3.0508 6.5217 2.3870
-3.3042 6.4551 2.3870
-3.5564 6.3787 2.3870
-3.8071 6.2922 2.3870
-4.0558 6.1958 2.3870
0.3375 2.4334 0.9789
0.2499 2.4464 0.9733
0.1619 2.4561 0.9678
0.0736 2.4627 0.9622
-0.0148 2.4661 0.9565
-0.1034 2.4663 0.9509
-0.1919 2.4633 0.9452
-0.2802 2.4571 0.9396
-0.3682 2.4476 0.9339
-0.4559 2.4351 0.9282
-0.5430 2.4193 0.9225
-0.6295 2.4004 0.9169
-0.7152 2.3784 0.9113
-0.8002 2.3533 0.9057
-0.8841 2.3251 0.9002
-0.9670 2.2939 0.8947
-2.8148 6.0655 2.3870
-3.0489 6.0020 2.3870
-3.2819 5.9295 2.3870
-3.5132 5.8478 2.3870
-3.7426 5.7569 2.3870
-3.9696 5.6569 2.3870
-4.1937 5.5476 2.3870
-4.4146 5.4292 2.3870
-4.6318 5.3018 2.3870
-4.8449 5.1652 2.3870
-5.0535 5.0197 2.3870
-5.2570 4.8654 2.3870
-5.4552 4.7025 2.3870
-5.6474 4.5310 2.3870
-5.8333 4.3512 2.3870
-6.0126 4.1632 2.3870
-6.1846 3.9675 2.3870
-6.3490 3.7641 2.3870
-6.5055 3.5534 2.3870
-6.6535 3.3358 2.3870
-6.7928 3.1115 2.3870
-6.9230 2.8810 2.3870
-7.0436 2.6446 2.3870
-7.1544 2.4027 2.3870
-7.2552 2.1559 2.3870
-7.3455 1.9045 2.3870
-7.4252 1.6490 2.3870
-7.4939 1.3900 2.3870
-7.5516 1.1278 2.3870
-7.5981 0.8632 2.3870
-7.6331 0.5965 2.3870
-7.6566 0.3284 2.3870
-7.6685 0.0593 2.3870
-7.6688 -0.2101 2.3870
-7.6574 -0.4793 2.3870
-7.6344 -0.7478 2.3870
-7.5998 -1.0149 2.3870
-7.5537 -1.2802 2.3870
-7.4962 -1.5431 2.3870
-7.4276 -1.8031 2.3870
-7.3478 -2.0596 2.3870
-7.2573 -2.3121 2.3870
-7.1562 -2.5602 2.3870
-7.0447 -2.8033 2.3870
-6.9232 -3.0410 2.3870
-6.7920 -3.2729 2.3870
-6.6514 -3.4985 2.3870
-6.5019 -3.7175 2.3870
-6.3437 -3.9294 2.3870
-6.1772 -4.1340 2.3870
-6.0029 -4.3309 2.3870
-5.8212 -4.5199 2.3870
-5.6326 -4.7006 2.3870
-5.4374 -4.8728 2.3870
-5.2361 -5.0363 2.3870
-5.0292 -5.1910 2.3870
-4.8171 -5.3366 2.3870
-4.6003 -5.4730 2.3870
-4.3792 -5.6002 2.3870
-4.1543 -5.7180 2.3870
-3.9261 -5.8265 2.3870
-3.6949 -5.9254 2.3870
-3.4613 -6.0149 2.3870
-3.2256 -6.0949 2.3870
-2.9883 -6.1656 2.3870
-2.7498 -6.2268 2.3870
-2.5105 -6.2787 2.3870
-2.2707 -6.3214 2.3870
-2.0309 -6.3549 2.3870
-1.7914 -6.3794 2.3870
-1.5526 -6.3950 2.3870
-1.3148 -6.4018 2.3870
-1.0783 -6.4000 2.3870
-0.8435 -6.3898 2.3870
-0.6107 -6.3713 2.3870
-0.3801 -6.3447 2.3870
-0.1519 -6.3101 2.3870
0.0734 -6.2678 2.3870
0.2958 -6.2180 2.3870
0.5149 -6.1608 2.3870
0.7306 -6.0965 2.3870
0.9426 -6.0252 2.3870
1.1508 -5.9472 2.3870
1.3549 -5.8627 2.3870
1.5548 -5.7719 2.3870
1.7504 -5.6750 2.3870
1.9414 -5.5722 2.3870
2.1278 -5.4637 2.3870
2.3095 -5.3498 2.3870
2.4862 -5.2306 2.3870
2.6580 -5.1064 2.3870
2.8247 -4.9773 2.3870
2.9861 -4.8436 2.3870
3.1423 -4.7054 2.3870
3.2931 -4.5630 2.3870
3.4385 -4.4165 2.3870
3.5785 -4.2662 2.3870
3.7129 -4.1122 2.3870
3.8416 -3.9548 2.3870
3.9648 -3.7940 2.3870
4.0822 -3.6302 2.3870
4.1939 -3.4634 2.3870
4.2998 -3.2938 2.3870
4.4000 -3.1217 2.3870
4.4944 -2.9471 2.3870
4.5829 -2.7703 2.3870
4.6655 -2.5914 2.3870
4.7423 -2.4106 2.3870
4.8131 -2.2281 2.3870
4.8781 -2.0439 2.3870
4.9372 -1.8583 2.3870
4.9903 -1.6713 2.3870
5.0375 -1.4833 2.3870
5.0788 -1.2942 2.3870
5.1142 -1.1043 2.3870
5.1436 -0.9136 2.3870
5.1671 -0.7225 2.3870
5.1846 -0.5309 2.3870
5.1962 -0.3390 2.3870
5.2019 -0.1470 2.3870
5.2017 0.0450 2.3870
5.1956 0.2368 2.3870
5.1835 0.4284 2.3870
5.1656 0.6195 2.3870
5.1418 0.8100 2.3870
5.1121 0.9998 2.3870
5.0765 1.1888 2.3870
5.0351 1.3768 2.3870
4.9878 1.5636 2.3870
4.9347 1.7492 2.3870
4.8758 1.9333 2.3870
4.8111 2.1158 2.3870
4.7406 2.2966 2.3870
4.6644 2.4756 2.3870
4.5825 2.6525 2.3870
4.4948 2.8273 2.3870
4.4015 2.9998 2.3870
4.3025 3.1697 2.3870
4.1980 3.3371 2.3870
4.0878 3.5016 2.3870
3.9722 3.6632 2.3870
3.8510 3.8216 2.3870
3.7244 3.9768 2.3870
3.5924 4.1285 2.3870
3.4551 4.2765 2.3870
3.3125 4.4208 2.3870
3.1647 4.5611 2.3870
3.0117 4.6972 2.3870
2.8537 4.8290 2.3870
2.6907 4.9563 2.3870
2.5228 5.0788 2.3870
2.3500 5.1965 2.3870
2.1726 5.3090 2.3870
0.8425 2.2924 1.0103
0.7597 2.3237 1.0052
0.6759 2.3520 1.0000
0.5910 2.3772 0.9947
0.5054 2.3994 0.9894
0.4189 2.4184 0.9840
0.3318 2.4343 0.9785
0.2442 2.4471 0.9730
0.1562 2.4567 0.9674
0.0679 2.4630 0.9618
-0.0205 2.4662 0.9562
-0.1091 2.4662 0.9505
-0.1975 2.4630 0.9449
-0.2859 2.4565 0.9392
-0.3739 2.4469 0.9335
-0.4615 2.4341 0.9278
-0.5486 2.4182 0.9222
-0.6350 2.3991 0.9165
-0.7207 2.3769 0.9109
-0.8056 2.3515 0.9054
-0.8895 2.3232 0.8999
-2.5949 6.1167 2.3870
-2.8299 6.0617 2.3870
-3.0640 5.9976 2.3870
-3.2968 5.9245 2.3870
-3.5281 5.8422 2.3870
-3.7573 5.7507 2.3870
-3.9841 5.6501 2.3870
-4.2081 5.5403 2.3870
-4.4287 5.4213 2.3870
-4.6457 5.2932 2.3870
-4.8585 5.1561 2.3870
-5.0667 5.0101 2.3870
-5.2700 4.8552 2.3870
-5.4677 4.6917 2.3870
-5.6596 4.5196 2.3870
-5.8451 4.3393 2.3870
-6.0239 4.1508 2.3870
-6.1954 3.9546 2.3870
-6.3593 3.7507 2.3870
-6.5153 3.5396 2.3870
-6.6628 3.3215 2.3870
-6.8015 3.0968 2.3870
-6.9310 2.8659 2.3870
-7.0510 2.6291 2.3870
-7.1612 2.3870 2.3870
-7.2613 2.1398 2.3870
-7.3510 1.8881 2.3870
-7.4299 1.6324 2.3870
-7.4980 1.3732 2.3870
-7.5550 1.1109 2.3870
-7.6007 0.8461 2.3870
-7.6349 0.5793 2.3870
-7.6577 0.3111 2.3870
-7.6689 0.0420 2.3870
-7.6684 -0.2274 2.3870
-7.6562 -0.4966 2.3870
-7.6325 -0.7650 2.3870
-7.5971 -1.0321 2.3870
-7.5503 -1.2972 2.3870
-7.4921 -1.5600 2.3870
-7.4228 -1.8197 2.3870
-7.3423 -2.0760 2.3870
-7.2511 -2.3282 2.3870
-7.1493 -2.5760 2.3870
-7.0372 -2.8188 2.3870
-6.9151 -3.0561 2.3870
-6.7832 -3.2876 2.3870
-6.6421 -3.5128 2.3870
-6.4919 -3.7314 2.3870
-6.3332 -3.9428 2.3870
-6.1662 -4.1469 2.3870
-5.9914 -4.3434 2.3870
-5.8093 -4.5318 2.3870
-5.6202 -4.7119 2.3870
-5.4246 -4.8836 2.3870
-5.2229 -5.0465 2.3870
-5.0157 -5.2006 2.3870
-4.8033 -5.3457 2.3870
-4.5862 -5.4815 2.3870
-4.3648 -5.6081 2.3870
-4.1397 -5.7253 2.3870
-3.9113 -5.8331 2.3870
-3.6800 -5.9315 2.3870
-3.4462 -6.0203 2.3870
-3.2104 -6.0998 2.3870
-2.9730 -6.1698 2.3870
-2.7344 -6.2304 2.3870
-2.4950 -6.2817 2.3870
-2.2552 -6.3238 2.3870
-2.0154 -6.3567 2.3870
-1.7760 -6.3806 2.3870
-1.5373 -6.3957 2.3870
-1.2995 -6.4020 2.3870
-1.0632 -6.3996 2.3870
-0.8285 -6.3889 2.3870
-0.5957 -6.3698 2.3870
-0.3653 -6.3426 2.3870
-0.1373 -6.3076 2.3870
0.0879 -6.2648 2.3870
0.3100 -6.2146 2.3870
0.5289 -6.1569 2.3870
0.7444 -6.0921 2.3870
0.9561 -6.0204 2.3870
1.1640 -5.9420 2.3870
1.3679 -5.8571 2.3870
1.5675 -5.7658 2.3870
1.7628 -5.6686 2.3870
1.9536 -5.5654 2.3870
2.1397 -5.4566 2.3870
2.3210 -5.3423 2.3870
2.4975 -5.2228 2.3870
2.6689 -5.0982 2.3870
2.8352 -4.9688 2.3870
2.9963 -4.8348 2.3870
3.1522 -4.6963 2.3870
3.3027 -4.5537 2.3870
3.4477 -4.4070 2.3870
3.5873 -4.2564 2.3870
3.7213 -4.1022 2.3870
3.8497 -3.9445 2.3870
3.9725 -3.7836 2.3870
4.0896 -3.6195 2.3870
4.2009 -3.4525 2.3870
4.3065 -3.2828 2.3870
4.4063 -3.1105 2.3870
4.5002 -2.9358 2.3870
4.5884 -2.7589 2.3870
4.6706 -2.5799 2.3870
4.7470 -2.3989 2.3870
4.8175 -2.2162 2.3870
4.8821 -2.0320 2.3870
4.9408 -1.8462 2.3870
4.9935 -1.6592 2.3870
5.0404 -1.4711 2.3870
5.0813 -1.2820 2.3870
5.1162 -1.0920 2.3870
5.1453 -0.9013 2.3870
5.1684 -0.7101 2.3870
5.1855 -0.5185 2.3870
5.1968 -0.3266 2.3870
5.2021 -0.1346 2.3870
5.2015 0.0573 2.3870
5.1950 0.2492 2.3870
5.1826 0.4407 2.3870
5.1642 0.6318 2.3870
5.1400 0.8223 2.3870
5.1099 1.0120 2.3870
5.0740 1.2009 2.3870
5.0322 1.3888 2.3870
4.9845 1.5756 2.3870
4.9311 1.7611 2.3870
4.8718 1.9451 2.3870
4.8067 2.1275 2.3870
4.7359 2.3082 2.3870
4.6593 2.4871 2.3870
4.5770 2.6639 2.3870
4.4890 2.8385 2.3870
4.3953 3.0108 2.3870
4.2960 3.1806 2.3870
4.1910 3.3478 2.3870
4.0806 3.5121 2.3870
3.9645 3.6735 2.3870
3.8430 3.8317 2.3870
3.7161 3.9867 2.3870
3.5837 4.1381 2.3870
3.4461 4.2860 2.3870
3.3031 4.4300 2.3870
3.1550 4.5700 2.3870
3.0017 4.7058 2.3870
2.8433 4.8373 2.3870
2.6800 4.9643 2.3870
2.5118 5.0865 2.3870
2.3388 5.2039 2.3870
2.1611 5.3161 2.3870
0.8372 2.2945 1.0100
0.7544 2.3256 1.0049
0.6704 2.3537 0.9997
0.5856 2.3788 0.9944
0.4998 2.4007 0.9890
0.4133 2.4196 0.9836
0.3262 2.4353 0.9781
0.2386 2.4478 0.9726
0.1505 2.4572 0.9671
0.0622 2.4633 0.9615
-0.0262 2.4663 0.9558
-0.1148 2.4661 0.9502
-0.2032 2.4627 0.9445
-0.2915 2.4560 0.9388
-0.3795 2.4462 0.9331
-0.4671 2.4332 0.9275
-0.5542 2.4170 0.9218
-0.6406 2.3977 0.9162
-0.7262 2.3753 0.9106
-0.8110 2.3498 0.9050
-0.8949 2.3213 0.8995
-2.6101 6.1134 2.3870
-2.8450 6.0578 2.3870
-3.0790 5.9932 2.3870
-3.3118 5.9195 2.3870
-3.5429 5.8366 2.3870
-3.7720 5.7445 2.3870
0.3120 2.2775 0.9763
0.2300 2.2896 0.9712
0.1477 2.2987 0.9660
0.0651 2.3049 0.9607
-0.0178 2.3080 0.9554
-0.1006 2.3082 0.9501
-0.1834 2.3054 0.9448
-0.2661 2.2996 0.9395
-0.3485 2.2907 0.9342
-0.4305 2.2790 0.9289
-0.5121 2.2642 0.9236
-0.5931 2.2465 0.9183
-0.6733 2.2259 0.9131
-0.7528 2.2024 0.9079
-0.8314 2.1761 0.9027
-0.9090 2.1469 0.8976
-2.6355 5.6563 2.3870
-2.8528 5.5949 2.3870
-3.0688 5.5250 2.3870
-3.2832 5.4467 2.3870
-3.4955 5.3599 2.3870
-3.7054 5.2647 2.3870
-3.9126 5.1610 2.3870
-4.1166 5.0489 2.3870
-4.3170 4.9284 2.3870
-4.5135 4.7997 2.3870
-4.7056 4.6628 2.3870
-4.8930 4.5178 2.3870
-5.0753 4.3649 2.3870
-5.2520 4.2043 2.3870
-5.4228 4.0360 2.3870
-5.5873 3.8605 2.3870
-5.7452 3.6777 2.3870
-5.8959 3.4881 2.3870
-6.0392 3.2919 2.3870
-6.1748 3.0894 2.3870
-6.3022 2.8809 2.3870
-6.4212 2.6668 2.3870
-6.5315 2.4474 2.3870
-6.6328 2.2230 2.3870
-6.7247 1.9942 2.3870
-6.8071 1.7613 2.3870
-6.8797 1.5247 2.3870
-6.9424 1.2849 2.3870
-6.9949 1.0423 2.3870
-7.0371 0.7975 2.3870
-7.0689 0.5509 2.3870
-7.0902 0.3029 2.3870
-7.1009 0.0542 2.3870
-7.1010 -0.1949 2.3870
-7.0904 -0.4437 2.3870
-7.0692 -0.6919 2.3870
-7.0375 -0.9389 2.3870
-6.9952 -1.1843 2.3870
-6.9426 -1.4274 2.3870
-6.8797 -1.6679 2.3870
-6.8067 -1.9053 2.3870
-6.7238 -2.1391 2.3870
-6.6312 -2.3689 2.3870
-6.5292 -2.5942 2.3870
-6.4179 -2.8147 2.3870
-6.2978 -3.0298 2.3870
-6.1689 -3.2394 2.3870
-6.0318 -3.4429 2.3870
-5.8867 -3.6400 2.3870
-5.7340 -3.8305 2.3870
-5.5741 -4.0140 2.3870
-5.4072 -4.1903 2.3870
-5.2339 -4.3591 2.3870
-5.0544 -4.5203 2.3870
-4.8693 -4.6734 2.3870
-4.6788 -4.8186 2.3870
-4.4835 -4.9554 2.3870
-4.2836 -5.0839 2.3870
-4.0797 -5.2039 2.3870
-3.8721 -5.3154 2.3870
-3.6613 -5.4182 2.3870
-3.4477 -5.5123 2.3870
-3.2315 -5.5977 2.3870
-3.0133 -5.6744 2.3870
-2.7935 -5.7424 2.3870
-2.5723 -5.8017 2.3870
-2.3502 -5.8524 2.3870
-2.1276 -5.8946 2.3870
-1.9047 -5.9282 2.3870
-1.6819 -5.9535 2.3870
-1.4596 -5.9705 2.3870
-1.2381 -5.9793 2.3870
-1.0176 -5.9800 2.3870
-0.7984 -5.9728 2.3870
-0.5810 -5.9579 2.3870
-0.3654 -5.9354 2.3870
-0.1520 -5.9054 2.3870
0.0589 -5.8680 2.3870
0.2673 -5.8237 2.3870
0.4727 -5.7722 2.3870
0.6751 -5.7141 2.3870
0.8741 -5.6494 2.3870
1.0697 -5.5784 2.3870
1.2617 -5.5011 2.3870
1.4498 -5.4178 2.3870
1.6340 -5.3286 2.3870
1.8140 -5.2339 2.3870
1.9898 -5.1337 2.3870
2.1612 -5.0283 2.3870
2.3281 -4.9178 2.3870
2.4904 -4.8025 2.3870
2.6480 -4.6825 2.3870
2.8007 -4.5580 2.3870
2.9485 -4.4293 2.3870
3.0914 -4.2964 2.3870
3.2292 -4.1596 2.3870
3.3618 -4.0191 2.3870
3.4893 -3.8750 2.3870
3.6115 -3.7275 2.3870
3.7284 -3.5768 2.3870
3.8400 -3.4231 2.3870
3.9462 -3.2665 2.3870
4.0469 -3.1073 2.3870
4.1422 -2.9455 2.3870
4.2320 -2.7813 2.3870
4.3163 -2.6149 2.3870
4.3950 -2.4465 2.3870
4.4681 -2.2761 2.3870
4.5357 -2.1041 2.3870
4.5977 -1.9305 2.3870
4.6540 -1.7554 2.3870
4.7047 -1.5790 2.3870
4.7498 -1.4015 2.3870
4.7892 -1.2230 2.3870
4.8230 -1.0437 2.3870
4.8512 -0.8637 2.3870
4.8737 -0.6831 2.3870
4.8905 -0.5021 2.3870
4.9017 -0.3208 2.3870
4.9072 -0.1394 2.3870
4.9071 0.0420 2.3870
4.9013 0.2233 2.3870
4.8899 0.4043 2.3870
4.8729 0.5849 2.3870
4.8503 0.7649 2.3870
4.8221 0.9443 2.3870
4.7882 1.1228 2.3870
4.7488 1.3003 2.3870
4.7039 1.4768 2.3870
4.6533 1.6520 2.3870
4.5973 1.8257 2.3870
4.5358 1.9980 2.3870
4.4687 2.1686 2.3870
4.3962 2.3373 2.3870
4.3183 2.5041 2.3870
4.2349 2.6688 2.3870
4.1462 2.8312 2.3870
4.0521 2.9911 2.3870
3.9528 3.1485 2.3870
3.8482 3.3032 2.3870
3.7383 3.4550 2.3870
3.6233 3.6038 2.3870
3.5032 3.7494 2.3870
3.3779 3.8916 2.3870
3.2477 4.0303 2.3870
3.1126 4.1653 2.3870
2.9725 4.2965 2.3870
2.8277 4.4236 2.3870
2.6781 4.5465 2.3870
2.5239 4.6651 2.3870
2.3651 4.7792 2.3870
2.2019 4.8885 2.3870
0.8611 2.1135 1.0104
0.7848 2.1456 1.0057
0.7073 2.1749 1.0010
0.6288 2.2013 0.9961
0.5494 2.2249 0.9912
0.4692 2.2457 0.9862
0.3882 2.2635 0.9811
0.3067 2.2783 0.9760
0.2247 2.2903 0.9708
0.1424 2.2992 0.9656
0.0597 2.3052 0.9604
-0.0231 2.3082 0.9551
-0.1060 2.3081 0.9498
-0.1888 2.3051 0.9445
-0.2714 2.2991 0.9392
-0.3538 2.2901 0.9339
-0.4358 2.2781 0.9286
-0.5173 2.2632 0.9233
-0.5982 2.2453 0.9180
-0.6785 2.2245 0.9128
-0.7579 2.2008 0.9075
-0.8364 2.1743 0.9024
-0.9139 2.1449 0.8973
-2.6496 5.6526 2.3870
-2.8668 5.5906 2.3870
-3.0827 5.5202 2.3870
-3.2969 5.4414 2.3870
-3.5091 5.3540 2.3870
-3.7188 5.2583 2.3870
-3.9258 5.1540 2.3870
-4.1296 5.0414 2.3870
-4.3298 4.9204 2.3870
-4.5260 4.7911 2.3870
-4.7178 4.6537 2.3870
-4.9049 4.5082 2.3870
-5.0869 4.3548 2.3870
-5.2632 4.1936 2.3870
-5.4336 4.0250 2.3870
-5.5977 3.8489 2.3870
-5.7551 3.6657 2.3870
-5.9054 3.4757 2.3870
-6.0482 3.2791 2.3870
-6.1832 3.0762 2.3870
-6.3101 2.8673 2.3870
-6.4286 2.6528 2.3870
-6.5383 2.4331 2.3870
-6.6390 2.2084 2.3870
-6.7303 1.9793 2.3870
-6.8121 1.7461 2.3870
-6.8841 1.5093 2.3870
-6.9461 1.2693 2.3870
-6.9979 1.0266 2.3870
-7.0395 0.7817 2.3870
-7.0706 0.5349 2.3870
-7.0912 0.2869 2.3870
-7.1012 0.0382 2.3870
-7.1006 -0.2109 2.3870
-7.0894 -0.4598 2.3870
-7.0675 -0.7079 2.3870
-7.0351 -0.9548 2.3870
-6.9921 -1.2000 2.3870
-6.9388 -1.4430 2.3870
-6.8753 -1.6833 2.3870
-6.8017 -1.9205 2.3870
-6.7181 -2.1541 2.3870
-6.6249 -2.3836 2.3870
-6.5223 -2.6086 2.3870
-6.4105 -2.8287 2.3870
-6.2897 -3.0435 2.3870
-6.1604 -3.2527 2.3870
-6.0227 -3.4558 2.3870
-5.8771 -3.6525 2.3870
-5.7240 -3.8426 2.3870
-5.5635 -4.0256 2.3870
-5.3963 -4.2014 2.3870
-5.2225 -4.3698 2.3870
-5.0427 -4.5304 2.3870
-4.8571 -4.6830 2.3870
-4.6664 -4.8276 2.3870
-4.4707 -4.9640 2.3870
-4.2706 -5.0919 2.3870
-4.0665 -5.2113 2.3870
-3.8587 -5.3222 2.3870
-3.6476 -5.4245 2.3870
-3.4338 -5.5181 2.3870
-3.2175 -5.6029 2.3870
-2.9992 -5.6790 2.3870
-2.7793 -5.7465 2.3870
-2.5580 -5.8052 2.3870
-2.3359 -5.8554 2.3870
-2.1132 -5.8970 2.3870
-1.8903 -5.9301 2.3870
-1.6676 -5.9548 2.3870
-1.4453 -5.9713 2.3870
-1.2238 -5.9795 2.3870
-1.0034 -5.9798 2.3870
-0.7844 -5.9721 2.3870
-0.5670 -5.9567 2.3870
-0.3516 -5.9336 2.3870
-0.1384 -5.9031 2.3870
0.0725 -5.8654 2.3870
0.2806 -5.8206 2.3870
0.4858 -5.7686 2.3870
0.6880 -5.7102 2.3870
0.8868 -5.6451 2.3870
1.0822 -5.5736 2.3870
1.2739 -5.4959 2.3870
1.4618 -5.4122 2.3870
1.6457 -5.3227 2.3870
1.8255 -5.2276 2.3870
2.0010 -5.1271 2.3870
2.1721 -5.0213 2.3870
2.3387 -4.9105 2.3870
2.5007 -4.7949 2.3870
2.6579 -4.6746 2.3870
2.8104 -4.5498 2.3870
2.9579 -4.4208 2.3870
3.1004 -4.2877 2.3870
3.2379 -4.1507 2.3870
3.3702 -4.0099 2.3870
3.4973 -3.8656 2.3870
3.6192 -3.7179 2.3870
3.7358 -3.5670 2.3870
3.8470 -3.4131 2.3870
3.9528 -3.2563 2.3870
4.0532 -3.0969 2.3870
4.1482 -2.9349 2.3870
4.2376 -2.7706 2.3870
4.3215 -2.6041 2.3870
4.3999 -2.4356 2.3870
4.4727 -2.2651 2.3870
4.5399 -2.0929 2.3870
4.6015 -1.9192 2.3870
4.6575 -1.7441 2.3870
4.7078 -1.5676 2.3870
4.7525 -1.3901 2.3870
4.7916 -1.2115 2.3870
4.8250 -1.0321 2.3870
4.8528 -0.8521 2.3870
4.8749 -0.6714 2.3870
4.8914 -0.4904 2.3870
4.9022 -0.3091 2.3870
4.9074 -0.1277 2.3870
4.9069 0.0537 2.3870
4.9008 0.2350 2.3870
4.8890 0.4160 2.3870
4.8716 0.5965 2.3870
4.8486 0.7765 2.3870
4.8200 0.9558 2.3870
4.7859 1.1343 2.3870
4.7461 1.3118 2.3870
4.7008 1.4881 2.3870
4.6499 1.6632 2.3870
4.5935 1.8369 2.3870
4.5316 2.0090 2.3870
4.4642 2.1795 2.3870
4.3913 2.3481 2.3870
4.3131 2.5148 2.3870
4.2294 2.6793 2.3870
4.1403 2.8415 2.3870
4.0459 3.0013 2.3870
3.9462 3.1586 2.3870
3.8412 3.3131 2.3870
3.7311 3.4647 2.3870
3.6157 3.6133 2.3870
3.4952 3.7586 2.3870
3.3697 3.9006 2.3870
3.2392 4.0391 2.3870
3.1037 4.1739 2.3870
2.9633 4.3048 2.3870
2.8182 4.4317 2.3870
2.6683 4.5543 2.3870
2.5138 4.6726 2.3870
2.3547 4.7864 2.3870
2.1912 4.8954 2.3870
0.8563 2.1157 1.0101
0.7798 2.1475 1.0054
0.7023 2.1766 1.0007
0.6237 2.2029 0.9958
0.5442 2.2264 0.9909
0.4640 2.2469 0.9858
0.3830 2.2645 0.9808
0.3015 2.2792 0.9757
0.2194 2.2909 0.9705
0.1370 2.2997 0.9653
0.0544 2.3055 0.9600
-0.0284 2.3082 0.9548
-0.1113 2.3080 0.9495
-0.1941 2.3048 0.9442
-0.2767 2.2986 0.9388
-0.3591 2.2894 0.9335
-0.4411 2.2772 0.9282
-0.5226 2.2621 0.9229
-0.6034 2.2440 0.9177
-0.6836 2.2230 0.9124
-0.7630 2.1992 0.9072
-0.8414 2.1724 0.9020
-0.9189 2.1429 0.8969
-2.6636 5.6489 2.3870
-2.8807 5.5864 2.3870
-3.0965 5.5154 2.3870
-3.3107 5.4360 2.3870
-3.5227 5.3481 2.3870
0.2892 2.1379 0.9741
0.2123 2.1493 0.9692
0.1349 2.1578 0.9643
0.0574 2.1636 0.9594
-0.0204 2.1666 0.9544
-0.0982 2.1667 0.9495
-0.1759 2.1641 0.9445
-0.2535 2.1586 0.9395
-0.3309 2.1503 0.9345
-0.4079 2.1392 0.9295
-0.4844 2.1254 0.9246
-0.5605 2.1088 0.9196
-0.6358 2.0894 0.9147
-0.7104 2.0674 0.9098
-0.7842 2.0426 0.9049
-0.8570 2.0153 0.9001
-0.9288 1.9852 0.8954
-2.6786 5.2332 2.3870
-2.8797 5.1660 2.3870
-3.0791 5.0910 2.3870
-3.2765 5.0081 2.3870
-3.4715 4.9173 2.3870
-3.6637 4.8188 2.3870
-3.8530 4.7125 2.3870
-4.0388 4.5985 2.3870
-4.2208 4.4769 2.3870
-4.3986 4.3478 2.3870
-4.5720 4.2112 2.3870
-4.7405 4.0674 2.3870
-4.9038 3.9165 2.3870
-5.0615 3.7587 2.3870
-5.2133 3.5941 2.3870
-5.3588 3.4231 2.3870
-5.4978 3.2457 2.3870
-5.6298 3.0623 2.3870
-5.7546 2.8732 2.3870
-5.8718 2.6787 2.3870
-5.9813 2.4790 2.3870
-6.0826 2.2745 2.3870
-6.1756 2.0656 2.3870
-6.2601 1.8526 2.3870
-6.3357 1.6359 2.3870
-6.4023 1.4158 2.3870
-6.4597 1.1929 2.3870
-6.5078 0.9675 2.3870
-6.5465 0.7400 2.3870
-6.5755 0.5110 2.3870
-6.5949 0.2807 2.3870
-6.6046 0.0497 2.3870
-6.6045 -0.1816 2.3870
-6.5947 -0.4127 2.3870
-6.5751 -0.6431 2.3870
-6.5458 -0.8725 2.3870
-6.5068 -1.1004 2.3870
-6.4583 -1.3263 2.3870
-6.4004 -1.5497 2.3870
-6.3333 -1.7704 2.3870
-6.2569 -1.9878 2.3870
-6.1717 -2.2015 2.3870
-6.0778 -2.4112 2.3870
-5.9753 -2.6164 2.3870
-5.8646 -2.8169 2.3870
-5.7460 -3.0122 2.3870
-5.6196 -3.2020 2.3870
-5.4858 -3.3861 2.3870
-5.3450 -3.5641 2.3870
-5.1974 -3.7357 2.3870
