ply
format ascii 1.0
element vertex 2175
property float32 x
property float32 y
property float32 z
end_header
-4.8618 2.3584 2.3988
-4.9473 2.1835 2.3988
-5.0266 2.0057 2.3988
-5.0996 1.8250 2.3988
-5.1662 1.6417 2.3988
-5.2263 1.4561 2.3988
-5.2798 1.2683 2.3988
-5.3267 1.0786 2.3988
-5.3669 0.8872 2.3988
-5.4002 0.6943 2.3988
-5.4267 0.5002 2.3988
-5.4463 0.3052 2.3988
-5.4590 0.1094 2.3988
-5.4646 -0.0869 2.3988
-5.4633 -0.2834 2.3988
-5.4550 -0.4799 2.3988
-5.4396 -0.6761 2.3988
-5.4172 -0.8718 2.3988
-5.3878 -1.0668 2.3988
-5.3514 -1.2608 2.3988
-5.3081 -1.4534 2.3988
-5.2578 -1.6446 2.3988
-5.2006 -1.8340 2.3988
-5.1367 -2.0214 2.3988
-5.0659 -2.2065 2.3988
-4.9885 -2.3891 2.3988
-4.9045 -2.5689 2.3988
-4.8140 -2.7458 2.3988
-4.7171 -2.9194 2.3988
-4.6139 -3.0896 2.3988
-4.5046 -3.2560 2.3988
-4.3892 -3.4185 2.3988
-4.2679 -3.5768 2.3988
-4.1408 -3.7308 2.3988
-4.0082 -3.8802 2.3988
-3.8701 -4.0247 2.3988
-3.7268 -4.1643 2.3988
-3.5784 -4.2987 2.3988
-3.4251 -4.4276 2.3988
-3.2670 -4.5510 2.3988
-3.1045 -4.6686 2.3988
-2.9377 -4.7803 2.3988
-2.7669 -4.8859 2.3988
-2.5922 -4.9853 2.3988
-2.4139 -5.0783 2.3988
-2.2322 -5.1647 2.3988
-2.0474 -5.2445 2.3988
-1.8597 -5.3176 2.3988
-1.6693 -5.3837 2.3988
-1.4766 -5.4429 2.3988
-1.2817 -5.4949 2.3988
-1.0850 -5.5399 2.3988
-0.8867 -5.5775 2.3988
-0.6870 -5.6079 2.3988
-0.4864 -5.6310 2.3988
-0.2850 -5.6467 2.3988
-0.0830 -5.6550 2.3988
0.1191 -5.6559 2.3988
0.3212 -5.6494 2.3988
0.5229 -5.6354 2.3988
0.7240 -5.6140 2.3988
0.9243 -5.5853 2.3988
1.1233 -5.5492 2.3988
1.3210 -5.5058 2.3988
1.5168 -5.4552 2.3988
1.7106 -5.3974 2.3988
1.9023 -5.3326 2.3988
2.0915 -5.2607 2.3988
2.2777 -5.1820 2.3988
2.4610 -5.0964 2.3988
2.6409 -5.0043 2.3988
2.8174 -4.9055 2.3988
2.9901 -4.8004 2.3988
3.1587 -4.6891 2.3988
3.3231 -4.5716 2.3988
3.4830 -4.4483 2.3988
3.6383 -4.3192 2.3988
3.7887 -4.1845 2.3988
3.9339 -4.0445 2.3988
4.0739 -3.8993 2.3988
4.2084 -3.7492 2.3988
4.3373 -3.5943 2.3988
4.4604 -3.4348 2.3988
4.5774 -3.2711 2.3988
4.6884 -3.1033 2.3988
4.7931 -2.9316 2.3988
4.8914 -2.7562 2.3988
4.9832 -2.5777 2.3988
5.0684 -2.3958 2.3988
5.1469 -2.2113 2.3988
5.2185 -2.0241 2.3988
5.2832 -1.8345 2.3988
5.3410 -1.6428 2.3988
5.3917 -1.4492 2.3988
5.4353 -1.2542 2.3988
5.4718 -1.0578 2.3988
5.5011 -0.8604 2.3988
5.5233 -0.6622 2.3988
5.5382 -0.4635 2.3988
5.5459 -0.2645 2.3988
5.5465 -0.0655 2.3988
5.5399 0.1332 2.3988
5.5261 0.3313 2.3988
5.5052 0.5287 2.3988
5.4772 0.7251 2.3988
5.4423 0.9201 2.3988
5.4003 1.1136 2.3988
5.3515 1.3053 2.3988
5.2959 1.4950 2.3988
5.2336 1.6824 2.3988
5.1647 1.8672 2.3988
5.0892 2.0493 2.3988
5.0074 2.2285 2.3988
4.9192 2.4045 2.3988
4.8250 2.5771 2.3988
4.7247 2.7461 2.3988
4.6185 2.9113 2.3988
4.5067 3.0724 2.3988
4.3892 3.2294 2.3988
4.2664 3.3819 2.3988
4.1383 3.5298 2.3988
4.0051 3.6731 2.3988
3.8670 3.8113 2.3988
3.7242 3.9445 2.3988
3.5769 4.0725 2.3988
3.4253 4.1951 2.3988
3.2695 4.3121 2.3988
3.1098 4.4236 2.3988
2.9464 4.5292 2.3988
2.7794 4.6289 2.3988
2.6092 4.7226 2.3988
2.4358 4.8102 2.3988
0.9062 1.9619 0.9621
0.8350 1.9932 0.9627
0.7627 2.0220 0.9633
0.6894 2.0482 0.9638
0.6151 2.0717 0.9643
0.5401 2.0925 0.9648
0.4644 2.1106 0.9653
0.3880 2.1259 0.9657
0.3112 2.1385 0.9661
0.2339 2.1483 0.9665
0.1564 2.1554 0.9668
0.0786 2.1596 0.9671
0.0007 2.1610 0.9674
-0.0772 2.1596 0.9676
-0.1550 2.1554 0.9678
-0.2326 2.1484 0.9679
-0.3098 2.1386 0.9681
-0.3867 2.1260 0.9682
-0.4631 2.1107 0.9682
-0.5389 2.0926 0.9682
-0.6139 2.0718 0.9682
-0.6882 2.0483 0.9682
-0.7616 2.0221 0.9681
-0.8340 1.9933 0.9680
-0.9053 1.9619 0.9678
-2.4179 4.7795 2.3988
-2.5892 4.6902 2.3988
-2.7572 4.5950 2.3988
-2.9218 4.4939 2.3988
-3.0829 4.3871 2.3988
-3.2401 4.2746 2.3988
-3.3933 4.1567 2.3988
-3.5423 4.0334 2.3988
-3.6870 3.9049 2.3988
-3.8271 3.7713 2.3988
-3.9625 3.6329 2.3988
-4.0930 3.4897 2.3988
-4.2184 3.3419 2.3988
-4.3386 3.1897 2.3988
-4.4535 3.0334 2.3988
-4.5628 2.8729 2.3988
-4.6665 2.7087 2.3988
-4.7644 2.5408 2.3988
-4.8562 2.3693 2.3988
-4.9421 2.1947 2.3988
-5.0218 2.0170 2.3988
-5.0952 1.8365 2.3988
-5.1622 1.6534 2.3988
-5.2227 1.4679 2.3988
-5.2767 1.2802 2.3988
-5.3240 1.0906 2.3988
-5.3645 0.8993 2.3988
-5.3983 0.7065 2.3988
-5.4253 0.5125 2.3988
-5.4453 0.3175 2.3988
-5.4584 0.1218 2.3988
-5.4645 -0.0745 2.3988
-5.4636 -0.2710 2.3988
-5.4557 -0.4675 2.3988
-5.4408 -0.6637 2.3988
-5.4188 -0.8595 2.3988
-5.3899 -1.0545 2.3988
-5.3539 -1.2485 2.3988
-5.3110 -1.4413 2.3988
-5.2612 -1.6326 2.3988
-5.2045 -1.8221 2.3988
-5.1409 -2.0096 2.3988
-5.0706 -2.1949 2.3988
-4.9936 -2.3776 2.3988
-4.9100 -2.5577 2.3988
-4.8199 -2.7347 2.3988
-4.7234 -2.9085 2.3988
-4.6207 -3.0789 2.3988
-4.5117 -3.2456 2.3988
-4.3967 -3.4083 2.3988
-4.2757 -3.5669 2.3988
-4.1490 -3.7212 2.3988
-4.0168 -3.8709 2.3988
-3.8790 -4.0157 2.3988
-3.7360 -4.1556 2.3988
-3.5879 -4.2903 2.3988
-3.4349 -4.4196 2.3988
-3.2772 -4.5434 2.3988
-3.1150 -4.6614 2.3988
-2.9484 -4.7734 2.3988
-2.7778 -4.8794 2.3988
-2.6034 -4.9792 2.3988
-2.4253 -5.0726 2.3988
-2.2438 -5.1595 2.3988
-2.0592 -5.2397 2.3988
-1.8716 -5.3131 2.3988
-1.6814 -5.3797 2.3988
-1.4888 -5.4393 2.3988
-1.2941 -5.4919 2.3988
-1.0975 -5.5372 2.3988
-0.8993 -5.5754 2.3988
-0.6999 -5.6063 2.3988
-0.4992 -5.6298 2.3988
-0.2978 -5.6460 2.3988
-0.0957 -5.6547 2.3988
0.1064 -5.6561 2.3988
0.3083 -5.6500 2.3988
0.5102 -5.6365 2.3988
0.7113 -5.6156 2.3988
0.9116 -5.5873 2.3988
1.1107 -5.5517 2.3988
1.3085 -5.5088 2.3988
1.5044 -5.4586 2.3988
1.6984 -5.4013 2.3988
1.8902 -5.3369 2.3988
2.0796 -5.2655 2.3988
2.2660 -5.1872 2.3988
2.4495 -5.1020 2.3988
2.6297 -5.0103 2.3988
2.8063 -4.9120 2.3988
2.9793 -4.8073 2.3988
3.1482 -4.6963 2.3988
3.3128 -4.5792 2.3988
3.4731 -4.4562 2.3988
3.6286 -4.3275 2.3988
3.7793 -4.1932 2.3988
3.9249 -4.0535 2.3988
4.0652 -3.9087 2.3988
4.2001 -3.7588 2.3988
4.3293 -3.6042 2.3988
4.4528 -3.4450 2.3988
4.5702 -3.2816 2.3988
4.6816 -3.1140 2.3988
4.7867 -2.9426 2.3988
4.8854 -2.7675 2.3988
4.9776 -2.5891 2.3988
5.0632 -2.4075 2.3988
5.1421 -2.2231 2.3988
5.2142 -2.0360 2.3988
5.2793 -1.8466 2.3988
5.3375 -1.6550 2.3988
5.3887 -1.4615 2.3988
5.4327 -1.2666 2.3988
5.4697 -1.0703 2.3988
5.4995 -0.8729 2.3988
5.5221 -0.6747 2.3988
5.5375 -0.4760 2.3988
5.5457 -0.2771 2.3988
5.5467 -0.0781 2.3988
5.5405 0.1206 2.3988
5.5272 0.3188 2.3988
5.5067 0.5162 2.3988
5.4792 0.7126 2.3988
5.4447 0.9078 2.3988
5.4032 1.1013 2.3988
5.3548 1.2932 2.3988
5.2996 1.4830 2.3988
5.2377 1.6706 2.3988
5.1692 1.8556 2.3988
5.0942 2.0379 2.3988
5.0127 2.2173 2.3988
4.9250 2.3935 2.3988
4.8311 2.5663 2.3988
4.7834 1.9500 2.3988
4.7058 2.1184 2.3988
4.6223 2.2838 2.3988
4.5330 2.4462 2.3988
4.4380 2.6049 2.3988
4.3376 2.7602 2.3988
4.2317 2.9120 2.3988
4.1206 3.0590 2.3988
4.0044 3.2023 2.3988
3.8833 3.3413 2.3988
3.7574 3.4758 2.3988
3.6269 3.6056 2.3988
3.4920 3.7307 2.3988
3.3528 3.8508 2.3988
3.2096 3.9658 2.3988
3.0624 4.0756 2.3988
2.9116 4.1800 2.3988
2.7573 4.2790 2.3988
2.5996 4.3724 2.3988
2.4389 4.4602 2.3988
0.9108 1.8184 0.9603
0.8448 1.8500 0.9609
0.7776 1.8792 0.9615
0.7094 1.9060 0.9620
0.6402 1.9303 0.9625
0.5703 1.9521 0.9630
0.4996 1.9713 0.9635
0.4282 1.9880 0.9639
0.3563 2.0021 0.9643
0.2839 2.0137 0.9647
0.2111 2.0226 0.9650
0.1381 2.0288 0.9653
0.0648 2.0325 0.9656
-0.0085 2.0335 0.9658
-0.0818 2.0318 0.9661
-0.1550 2.0275 0.9662
-0.2280 2.0206 0.9664
-0.3007 2.0110 0.9665
-0.3730 1.9989 0.9666
-0.4448 1.9841 0.9666
-0.5160 1.9667 0.9667
-0.5866 1.9468 0.9666
-0.6564 1.9244 0.9666
-0.7254 1.8994 0.9665
-0.7934 1.8720 0.9664
-0.8603 1.8422 0.9662
-2.2997 4.4942 2.3988
-2.4608 4.4093 2.3988
-2.6188 4.3188 2.3988
-2.7735 4.2227 2.3988
-2.9248 4.1213 2.3988
-3.0725 4.0145 2.3988
-3.2164 3.9026 2.3988
-3.3563 3.7857 2.3988
-3.4921 3.6639 2.3988
-3.6235 3.5373 2.3988
-3.7505 3.4062 2.3988
-3.8728 3.2705 2.3988
-3.9903 3.1306 2.3988
-4.1029 2.9866 2.3988
-4.2103 2.8386 2.3988
-4.3126 2.6869 2.3988
-4.4094 2.5315 2.3988
-4.5008 2.3727 2.3988
-4.5865 2.2108 2.3988
-4.6665 2.0457 2.3988
-4.7407 1.8779 2.3988
-4.8089 1.7074 2.3988
-4.8711 1.5345 2.3988
-4.9271 1.3594 2.3988
-4.9770 1.1823 2.3988
-5.0205 1.0034 2.3988
-5.0577 0.8229 2.3988
-5.0885 0.6411 2.3988
-5.1129 0.4582 2.3988
-5.1307 0.2744 2.3988
-5.1419 0.0900 2.3988
-5.1466 -0.0949 2.3988
-5.1447 -0.2800 2.3988
-5.1362 -0.4650 2.3988
-5.1210 -0.6498 2.3988
-5.0993 -0.8340 2.3988
-5.0709 -1.0175 2.3988
-5.0360 -1.2000 2.3988
-4.9945 -1.3813 2.3988
-4.9465 -1.5611 2.3988
-4.8921 -1.7392 2.3988
-4.8312 -1.9154 2.3988
-4.7640 -2.0894 2.3988
-4.6905 -2.2610 2.3988
-4.6108 -2.4300 2.3988
-4.5250 -2.5962 2.3988
-4.4332 -2.7593 2.3988
-4.3355 -2.9190 2.3988
-4.2320 -3.0753 2.3988
-4.1229 -3.2278 2.3988
-4.0082 -3.3764 2.3988
-3.8882 -3.5209 2.3988
-3.7628 -3.6610 2.3988
-3.6325 -3.7966 2.3988
-3.4971 -3.9274 2.3988
-3.3571 -4.0533 2.3988
-3.2124 -4.1741 2.3988
-3.0634 -4.2897 2.3988
-2.9101 -4.3998 2.3988
-2.7529 -4.5044 2.3988
-2.5918 -4.6032 2.3988
-2.4272 -4.6961 2.3988
-2.2592 -4.7830 2.3988
-2.0881 -4.8638 2.3988
-1.9140 -4.9383 2.3988
-1.7372 -5.0064 2.3988
-1.5580 -5.0680 2.3988
-1.3766 -5.1231 2.3988
-1.1932 -5.1715 2.3988
-1.0081 -5.2132 2.3988
-0.8216 -5.2481 2.3988
-0.6338 -5.2762 2.3988
-0.4450 -5.2973 2.3988
-0.2556 -5.3115 2.3988
-0.0657 -5.3188 2.3988
0.1244 -5.3191 2.3988
0.3143 -5.3125 2.3988
0.5040 -5.2989 2.3988
0.6930 -5.2783 2.3988
0.8812 -5.2508 2.3988
1.0683 -5.2164 2.3988
1.2540 -5.1752 2.3988
1.4380 -5.1272 2.3988
1.6202 -5.0724 2.3988
1.8002 -5.0110 2.3988
1.9779 -4.9431 2.3988
2.1529 -4.8687 2.3988
2.3250 -4.7879 2.3988
2.4941 -4.7009 2.3988
2.6598 -4.6077 2.3988
2.8219 -4.5086 2.3988
2.9803 -4.4036 2.3988
3.1347 -4.2929 2.3988
3.2849 -4.1766 2.3988
3.4306 -4.0550 2.3988
3.5718 -3.9281 2.3988
3.7082 -3.7962 2.3988
3.8396 -3.6595 2.3988
3.9659 -3.5181 2.3988
4.0869 -3.3723 2.3988
4.2024 -3.2221 2.3988
4.3123 -3.0680 2.3988
4.4164 -2.9100 2.3988
4.5147 -2.7484 2.3988
4.6069 -2.5835 2.3988
4.6930 -2.4153 2.3988
4.7730 -2.2443 2.3988
4.8465 -2.0705 2.3988
4.9137 -1.8944 2.3988
4.9744 -1.7159 2.3988
5.0285 -1.5355 2.3988
5.0760 -1.3534 2.3988
5.1169 -1.1699 2.3988
5.1510 -0.9850 2.3988
5.1784 -0.7993 2.3988
5.1991 -0.6127 2.3988
5.2129 -0.4257 2.3988
5.2200 -0.2385 2.3988
5.2204 -0.0512 2.3988
5.2140 0.1358 2.3988
5.2008 0.3223 2.3988
5.1810 0.5080 2.3988
5.1545 0.6928 2.3988
5.1214 0.8764 2.3988
5.0818 1.0585 2.3988
5.0357 1.2389 2.3988
4.9832 1.4174 2.3988
4.9243 1.5938 2.3988
4.8593 1.7678 2.3988
4.7881 1.9392 2.3988
4.7109 2.1079 2.3988
4.6277 2.2735 2.3988
4.5388 2.4360 2.3988
4.4442 2.5950 2.3988
4.3441 2.7505 2.3988
4.2385 2.9024 2.3988
4.1278 3.0498 2.3988
4.0119 3.1934 2.3988
3.8911 3.3327 2.3988
3.7655 3.4674 2.3988
3.6353 3.5976 2.3988
3.5007 3.7229 2.3988
3.3618 3.8433 2.3988
3.2188 3.9587 2.3988
3.0719 4.0688 2.3988
2.9213 4.1736 2.3988
2.7671 4.2729 2.3988
2.6097 4.3667 2.3988
2.4491 4.4548 2.3988
0.9150 1.8163 0.9603
0.8490 1.8481 0.9609
0.7819 1.8774 0.9615
0.7137 1.9044 0.9620
0.6446 1.9288 0.9625
0.5747 1.9508 0.9630
0.5041 1.9702 0.9635
0.4327 1.9870 0.9639
0.3608 2.0013 0.9643
0.2885 2.0130 0.9647
0.2157 2.0221 0.9650
0.1427 2.0285 0.9653
0.0695 2.0323 0.9656
-0.0038 2.0335 0.9658
-0.0771 2.0320 0.9660
-0.1503 2.0279 0.9662
-0.2233 2.0211 0.9664
-0.2961 2.0117 0.9665
-0.3684 1.9997 0.9666
-0.4403 1.9851 0.9666
-0.5115 1.9679 0.9667
-0.5822 1.9482 0.9666
-0.6520 1.9259 0.9666
-0.7210 1.9011 0.9665
-0.7891 1.8738 0.9664
-0.8561 1.8442 0.9663
-2.2895 4.4994 2.3988
-2.4507 4.4148 2.3988
-2.6089 4.3247 2.3988
-2.7638 4.2290 2.3988
-2.9154 4.1278 2.3988
-3.0633 4.0214 2.3988
-3.2075 3.9099 2.3988
-3.3476 3.7933 2.3988
-3.4836 3.6717 2.3988
-3.6154 3.5455 2.3988
-3.7426 3.4146 2.3988
-3.8652 3.2792 2.3988
-3.9830 3.1396 2.3988
-4.0959 2.9958 2.3988
-4.2037 2.8481 2.3988
-4.3062 2.6966 2.3988
-4.4031 2.5411 2.3988
-4.4952 2.3829 2.3988
-4.5813 2.2211 2.3988
-4.6616 2.0563 2.3988
-4.7362 1.8886 2.3988
-4.8048 1.7183 2.3988
-4.8673 1.5455 2.3988
-4.9238 1.3705 2.3988
-4.9740 1.1935 2.3988
-5.0180 1.0147 2.3988
-5.0556 0.8344 2.3988
-5.0868 0.6527 2.3988
-5.1115 0.4698 2.3988
-5.1297 0.2861 2.3988
-5.1414 0.1016 2.3988
-5.1465 -0.0832 2.3988
-5.1450 -0.2683 2.3988
-5.1369 -0.4533 2.3988
-5.1222 -0.6381 2.3988
-5.1008 -0.8224 2.3988
-5.0729 -1.0059 2.3988
-5.0384 -1.1885 2.3988
-4.9973 -1.3698 2.3988
-4.9497 -1.5498 2.3988
-4.8957 -1.7280 2.3988
-4.8352 -1.9043 2.3988
-4.7684 -2.0785 2.3988
-4.6953 -2.2503 2.3988
-4.6160 -2.4194 2.3988
-4.5306 -2.5858 2.3988
-4.4392 -2.7490 2.3988
-4.3419 -2.9090 2.3988
-4.2387 -3.0655 2.3988
-4.1300 -3.2183 2.3988
-4.0156 -3.3672 2.3988
-3.8959 -3.5119 2.3988
-3.7709 -3.6523 2.3988
-3.6409 -3.7881 2.3988
-3.5058 -3.9193 2.3988
-3.3661 -4.0455 2.3988
-3.2217 -4.1666 2.3988
-3.0729 -4.2825 2.3988
-2.9199 -4.3930 2.3988
-2.7629 -4.4979 2.3988
-2.6021 -4.5971 2.3988
-2.4377 -4.6904 2.3988
-2.2699 -4.7777 2.3988
-2.0990 -4.8588 2.3988
-1.9251 -4.9337 2.3988
-1.7485 -5.0023 2.3988
-1.5694 -5.0643 2.3988
-1.3882 -5.1198 2.3988
-1.2049 -5.1686 2.3988
-1.0199 -5.2108 2.3988
-0.8334 -5.2461 2.3988
-0.6457 -5.2746 2.3988
-0.4570 -5.2962 2.3988
-0.2676 -5.3109 2.3988
-0.0777 -5.3186 2.3988
0.1123 -5.3193 2.3988
0.3023 -5.3131 2.3988
0.4920 -5.2999 2.3988
0.6811 -5.2798 2.3988
0.8694 -5.2527 2.3988
1.0565 -5.2188 2.3988
1.2423 -5.1780 2.3988
1.4264 -5.1304 2.3988
1.6087 -5.0761 2.3988
1.7889 -5.0151 2.3988
1.9667 -4.9476 2.3988
2.1419 -4.8736 2.3988
2.3142 -4.7932 2.3988
2.4835 -4.7066 2.3988
2.6494 -4.6138 2.3988
2.8118 -4.5150 2.3988
2.9704 -4.4104 2.3988
3.1251 -4.3000 2.3988
3.2755 -4.1841 2.3988
3.4216 -4.0628 2.3988
3.5630 -3.9363 2.3988
3.6997 -3.8047 2.3988
3.8314 -3.6683 2.3988
3.9581 -3.5272 2.3988
4.0794 -3.3816 2.3988
4.1952 -3.2318 2.3988
4.3055 -3.0779 2.3988
4.4100 -2.9201 2.3988
4.5086 -2.7588 2.3988
4.6013 -2.5940 2.3988
4.6878 -2.4260 2.3988
4.7681 -2.2552 2.3988
4.8421 -2.0816 2.3988
4.9096 -1.9055 2.3988
4.9707 -1.7273 2.3988
5.0253 -1.5470 2.3988
5.0732 -1.3650 2.3988
5.1145 -1.1815 2.3988
5.1490 -0.9968 2.3988
5.1769 -0.8110 2.3988
5.1979 -0.6245 2.3988
5.2123 -0.4376 2.3988
5.2198 -0.2503 2.3988
5.2206 -0.0630 2.3988
5.2146 0.1240 2.3988
5.2019 0.3105 2.3988
5.1824 0.4963 2.3988
5.1564 0.6813 2.3988
5.1237 0.8648 2.3988
5.0845 1.0470 2.3988
5.0388 1.2275 2.3988
4.9867 1.4062 2.3988
4.9282 1.5827 2.3988
4.8636 1.7569 2.3988
4.7928 1.9285 2.3988
4.7159 2.0973 2.3988
4.6332 2.2631 2.3988
4.5446 2.4258 2.3988
4.4504 2.5850 2.3988
4.3506 2.7407 2.3988
4.2454 2.8928 2.3988
4.1350 3.0406 2.3988
4.0194 3.1844 2.3988
3.8989 3.3240 2.3988
3.7736 3.4590 2.3988
3.6437 3.5895 2.3988
3.5093 3.7151 2.3988
3.3707 3.8359 2.3988
3.2279 3.9515 2.3988
3.0813 4.0620 2.3988
2.9309 4.1671 2.3988
2.7770 4.2668 2.3988
2.6197 4.3609 2.3988
2.4594 4.4494 2.3988
0.9191 1.8142 0.9603
0.8532 1.8461 0.9608
0.7861 1.8756 0.9614
0.7181 1.9027 0.9620
0.6490 1.9273 0.9625
0.5792 1.9495 0.9630
0.5085 1.9690 0.9634
0.4373 1.9861 0.9639
0.3654 2.0005 0.9643
0.2931 2.0123 0.9646
0.2203 2.0216 0.9650
0.1473 2.0282 0.9653
0.0741 2.0321 0.9656
0.0008 2.0335 0.9658
-0.0725 2.0322 0.9660
-0.1457 2.0282 0.9662
-0.2187 2.0216 0.9664
-0.2915 2.0124 0.9665
-0.3638 2.0005 0.9666
-0.4357 1.9861 0.9666
-0.5071 1.9691 0.9667
-0.5777 1.9495 0.9666
-0.6476 1.9274 0.9666
-0.7167 1.9027 0.9665
-0.7848 1.8756 0.9664
-0.8519 1.8461 0.9663
-2.2792 4.5046 2.3988
-2.4406 4.4204 2.3988
-2.5990 4.3305 2.3988
-2.7541 4.2352 2.3988
-2.9059 4.1344 2.3988
-3.0541 4.0283 2.3988
-3.1984 3.9171 2.3988
-3.3389 3.8008 2.3988
-3.4752 3.6796 2.3988
-3.6072 3.5536 2.3988
-3.7347 3.4230 2.3988
-3.8576 3.2879 2.3988
-3.9757 3.1486 2.3988
-4.0889 3.0050 2.3988
-4.1970 2.8576 2.3988
-4.2999 2.7063 2.3988
-4.3975 2.5514 2.3988
-4.4895 2.3930 2.3988
-4.5760 2.2314 2.3988
-4.6567 2.0668 2.3988
-4.7316 1.8993 2.3988
-4.8006 1.7291 2.3988
-4.8636 1.5565 2.3988
-4.9204 1.3816 2.3988
-4.9710 1.2048 2.3988
-5.0154 1.0261 2.3988
-5.0534 0.8458 2.3988
-5.0850 0.6642 2.3988
-5.1101 0.4814 2.3988
-5.1288 0.2977 2.3988
-5.1409 0.1133 2.3988
-5.1464 -0.0715 2.3988
-5.1453 -0.2566 2.3988
-5.1376 -0.4416 2.3988
-5.1233 -0.6264 2.3988
-5.1024 -0.8107 2.3988
-5.0749 -0.9943 2.3988
-5.0408 -1.1770 2.3988
-5.0001 -1.3584 2.3988
-4.9530 -1.5384 2.3988
-4.8993 -1.7168 2.3988
-4.8392 -1.8932 2.3988
-4.7728 -2.0675 2.3988
-4.7001 -2.2395 2.3988
-4.6212 -2.4088 2.3988
-4.5362 -2.5753 2.3988
-4.4452 -2.7388 2.3988
-4.3482 -2.8990 2.3988
-4.2454 -3.0557 2.3988
-4.1370 -3.2087 2.3988
-4.0230 -3.3579 2.3988
-3.9036 -3.5028 2.3988
-3.7790 -3.6435 2.3988
-3.6492 -3.7797 2.3988
-3.5145 -3.9111 2.3988
-3.3750 -4.0376 2.3988
-3.2310 -4.1591 2.3988
-3.0825 -4.2754 2.3988
-2.9297 -4.3862 2.3988
-2.7730 -4.4915 2.3988
-2.6124 -4.5910 2.3988
-2.4482 -4.6847 2.3988
-2.2806 -4.7723 2.3988
-2.1099 -4.8539 2.3988
-1.9362 -4.9292 2.3988
-1.7598 -4.9981 2.3988
-1.5809 -5.0606 2.3988
-1.3997 -5.1165 2.3988
-1.2165 -5.1658 2.3988
-1.0316 -5.2083 2.3988
-0.8452 -5.2441 2.3988
-0.6576 -5.2730 2.3988
-0.4690 -5.2950 2.3988
-0.2796 -5.3101 2.3988
-0.0897 -5.3183 2.3988
0.1003 -5.3195 2.3988
0.2903 -5.3137 2.3988
0.4800 -5.3010 2.3988
0.6692 -5.2813 2.3988
0.8575 -5.2547 2.3988
1.0447 -5.2211 2.3988
1.2306 -5.1808 2.3988
1.4149 -5.1336 2.3988
1.5973 -5.0797 2.3988
1.7776 -5.0192 2.3988
1.9555 -4.9520 2.3988
2.1309 -4.8784 2.3988
2.3034 -4.7985 2.3988
2.4729 -4.7122 2.3988
2.6390 -4.6198 2.3988
2.8016 -4.5214 2.3988
2.9605 -4.4172 2.3988
3.1154 -4.3072 2.3988
3.2661 -4.1916 2.3988
3.4125 -4.0707 2.3988
3.5543 -3.9446 2.3988
3.6912 -3.8132 2.3988
3.8233 -3.6771 2.3988
3.9502 -3.5362 2.3988
4.0719 -3.3909 2.3988
4.1881 -3.2414 2.3988
4.2987 -3.0877 2.3988
4.4036 -2.9302 2.3988
4.5026 -2.7691 2.3988
4.5956 -2.6045 2.3988
4.6825 -2.4368 2.3988
4.7632 -2.2661 2.3988
4.8376 -2.0926 2.3988
4.9056 -1.9167 2.3988
4.9671 -1.7386 2.3988
5.0220 -1.5585 2.3988
5.0704 -1.3766 2.3988
5.1121 -1.1931 2.3988
5.1471 -1.0085 2.3988
5.1753 -0.8228 2.3988
5.1968 -0.6363 2.3988
5.2116 -0.4494 2.3988
5.2195 -0.2622 2.3988
5.2207 -0.0749 2.3988
5.2152 0.1121 2.3988
5.2029 0.2987 2.3988
5.1839 0.4846 2.3988
5.1582 0.6695 2.3988
5.1260 0.8532 2.3988
5.0872 1.0355 2.3988
5.0419 1.2161 2.3988
4.9902 1.3949 2.3988
4.9321 1.5716 2.3988
4.8678 1.7459 2.3988
4.7974 1.9177 2.3988
4.7210 2.0866 2.3988
4.6386 2.2526 2.3988
4.5504 2.4156 2.3988
4.5149 1.8391 2.3988
4.4419 1.9981 2.3988
4.3633 2.1544 2.3988
4.2792 2.3076 2.3988
4.1897 2.4577 2.3988
4.0951 2.6043 2.3988
3.9953 2.7473 2.3988
3.8906 2.8867 2.3988
3.7810 3.0221 2.3988
3.6668 3.1534 2.3988
3.5481 3.2805 2.3988
3.4250 3.4032 2.3988
3.2978 3.5214 2.3988
3.1665 3.6350 2.3988
3.0313 3.7437 2.3988
2.8924 3.8475 2.3988
2.7501 3.9463 2.3988
2.6044 4.0399 2.3988
2.4556 4.1283 2.3988
0.9207 1.6830 0.9587
0.8595 1.7150 0.9592
0.7971 1.7449 0.9598
0.7337 1.7724 0.9603
0.6694 1.7976 0.9608
0.6042 1.8206 0.9613
0.5382 1.8411 0.9618
0.4714 1.8593 0.9622
0.4041 1.8750 0.9626
0.3363 1.8883 0.9630
0.2680 1.8992 0.9633
0.1993 1.9076 0.9637
0.1304 1.9135 0.9640
0.0613 1.9169 0.9642
-0.0078 1.9178 0.9644
-0.0770 1.9163 0.9647
-0.1460 1.9122 0.9648
-0.2149 1.9057 0.9650
-0.2835 1.8967 0.9651
-0.3517 1.8852 0.9651
-0.4195 1.8713 0.9652
-0.4867 1.8549 0.9652
-0.5533 1.8361 0.9652
-0.6191 1.8149 0.9651
-0.6842 1.7914 0.9651
-0.7483 1.7656 0.9650
-0.8115 1.7374 0.9648
-0.8736 1.7070 0.9647
-2.3245 4.1645 2.3988
-2.4738 4.0789 2.3988
-2.6200 3.9881 2.3988
-2.7629 3.8922 2.3988
-2.9024 3.7913 2.3988
-3.0382 3.6856 2.3988
-3.1704 3.5750 2.3988
-3.2986 3.4599 2.3988
-3.4226 3.3402 2.3988
-3.5425 3.2163 2.3988
-3.6579 3.0881 2.3988
-3.7689 2.9558 2.3988
-3.8751 2.8197 2.3988
-3.9765 2.6799 2.3988
-4.0729 2.5365 2.3988
-4.1642 2.3896 2.3988
-4.2504 2.2396 2.3988
-4.3312 2.0865 2.3988
-4.4067 1.9307 2.3988
-4.4766 1.7721 2.3988
-4.5408 1.6110 2.3988
-4.5994 1.4477 2.3988
-4.6521 1.2823 2.3988
-4.6990 1.1150 2.3988
-4.7400 0.9460 2.3988
-4.7749 0.7756 2.3988
-4.8038 0.6040 2.3988
-4.8265 0.4313 2.3988
-4.8431 0.2577 2.3988
-4.8536 0.0836 2.3988
-4.8578 -0.0909 2.3988
-4.8558 -0.2656 2.3988
-4.8475 -0.4403 2.3988
-4.8330 -0.6146 2.3988
-4.8123 -0.7885 2.3988
-4.7853 -0.9616 2.3988
-4.7521 -1.1338 2.3988
-4.7128 -1.3048 2.3988
-4.6673 -1.4744 2.3988
-4.6157 -1.6424 2.3988
-4.5580 -1.8086 2.3988
-4.4944 -1.9727 2.3988
-4.4249 -2.1345 2.3988
-4.3495 -2.2939 2.3988
-4.2684 -2.4505 2.3988
-4.1816 -2.6042 2.3988
-4.0892 -2.7548 2.3988
-3.9915 -2.9021 2.3988
-3.8883 -3.0459 2.3988
-3.7800 -3.1859 2.3988
-3.6666 -3.3220 2.3988
-3.5483 -3.4540 2.3988
-3.4252 -3.5817 2.3988
-3.2975 -3.7049 2.3988
-3.1652 -3.8235 2.3988
-3.0287 -3.9373 2.3988
-2.8881 -4.0461 2.3988
-2.7435 -4.1498 2.3988
-2.5952 -4.2483 2.3988
-2.4432 -4.3413 2.3988
-2.2880 -4.4287 2.3988
-2.1295 -4.5105 2.3988
-1.9681 -4.5865 2.3988
-1.8039 -4.6566 2.3988
-1.6373 -4.7207 2.3988
-1.4683 -4.7787 2.3988
-1.2973 -4.8305 2.3988
-1.1244 -4.8760 2.3988
-0.9499 -4.9152 2.3988
-0.7740 -4.9480 2.3988
-0.5970 -4.9744 2.3988
-0.4191 -4.9942 2.3988
-0.2405 -5.0076 2.3988
-0.0616 -5.0144 2.3988
0.1176 -5.0146 2.3988
0.2966 -5.0083 2.3988
0.4754 -4.9954 2.3988
0.6535 -4.9760 2.3988
0.8309 -4.9500 2.3988
1.0072 -4.9176 2.3988
1.1822 -4.8787 2.3988
1.3557 -4.8335 2.3988
1.5273 -4.7819 2.3988
1.6970 -4.7240 2.3988
1.8644 -4.6600 2.3988
2.0294 -4.5899 2.3988
2.1917 -4.5138 2.3988
2.3510 -4.4318 2.3988
2.5072 -4.3441 2.3988
2.6601 -4.2507 2.3988
2.8094 -4.1518 2.3988
2.9549 -4.0475 2.3988
3.0965 -3.9380 2.3988
3.2340 -3.8234 2.3988
3.3671 -3.7040 2.3988
3.4957 -3.5797 2.3988
3.6197 -3.4509 2.3988
3.7388 -3.3177 2.3988
3.8530 -3.1803 2.3988
3.9620 -3.0389 2.3988
4.0657 -2.8936 2.3988
4.1640 -2.7448 2.3988
4.2567 -2.5925 2.3988
4.3438 -2.4371 2.3988
4.4252 -2.2786 2.3988
4.5007 -2.1174 2.3988
4.5702 -1.9537 2.3988
4.6337 -1.7876 2.3988
4.6911 -1.6194 2.3988
4.7424 -1.4494 2.3988
4.7873 -1.2777 2.3988
4.8261 -1.1046 2.3988
4.8585 -0.9304 2.3988
4.8845 -0.7552 2.3988
4.9042 -0.5793 2.3988
4.9175 -0.4029 2.3988
4.9244 -0.2263 2.3988
4.9249 -0.0497 2.3988
4.9191 0.1268 2.3988
4.9069 0.3026 2.3988
4.8884 0.4780 2.3988
4.8637 0.6523 2.3988
4.8327 0.8255 2.3988
4.7955 0.9974 2.3988
4.7522 1.1677 2.3988
4.7028 1.3361 2.3988
4.6475 1.5028 2.3988
4.5863 1.6670 2.3988
4.5193 1.8289 2.3988
4.4467 1.9882 2.3988
4.3684 2.1446 2.3988
4.2846 2.2980 2.3988
4.1955 2.4482 2.3988
4.1012 2.5951 2.3988
4.0018 2.7384 2.3988
3.8973 2.8780 2.3988
3.7881 3.0136 2.3988
3.6742 3.1452 2.3988
3.5558 3.2726 2.3988
3.4329 3.3956 2.3988
3.3059 3.5141 2.3988
3.1749 3.6279 2.3988
3.0400 3.7370 2.3988
2.9013 3.8411 2.3988
2.7592 3.9402 2.3988
2.6137 4.0342 2.3988
2.4651 4.1229 2.3988
0.9245 1.6809 0.9586
0.8634 1.7131 0.9592
0.8011 1.7430 0.9598
0.7378 1.7707 0.9603
0.6735 1.7961 0.9608
0.6083 1.8192 0.9613
0.5424 1.8399 0.9618
0.4757 1.8582 0.9622
0.4084 1.8741 0.9626
0.3406 1.8876 0.9630
0.2723 1.8986 0.9633
0.2037 1.9071 0.9636
0.1348 1.9132 0.9639
0.0657 1.9168 0.9642
-0.0035 1.9179 0.9644
-0.0726 1.9165 0.9646
-0.1417 1.9126 0.9648
-0.2106 1.9062 0.9650
-0.2792 1.8973 0.9651
-0.3474 1.8860 0.9651
-0.4152 1.8722 0.9652
-0.4824 1.8560 0.9652
-0.5491 1.8374 0.9652
-0.6150 1.8164 0.9652
-0.6801 1.7930 0.9651
-0.7443 1.7673 0.9650
-0.8075 1.7393 0.9648
-0.8697 1.7090 0.9647
-2.3150 4.1697 2.3988
-2.4644 4.0845 2.3988
-2.6108 3.9940 2.3988
-2.7539 3.8985 2.3988
-2.8936 3.7979 2.3988
-3.0298 3.6924 2.3988
-3.1621 3.5822 2.3988
-3.2906 3.4673 2.3988
-3.4149 3.3479 2.3988
-3.5350 3.2242 2.3988
-3.6508 3.0963 2.3988
-3.7620 2.9643 2.3988
-3.8685 2.8285 2.3988
-3.9702 2.6888 2.3988
-4.0669 2.5456 2.3988
-4.1586 2.3990 2.3988
-4.2451 2.2492 2.3988
-4.3263 2.0963 2.3988
-4.4021 1.9406 2.3988
-4.4723 1.7822 2.3988
-4.5369 1.6213 2.3988
-4.5958 1.4581 2.3988
-4.6490 1.2928 2.3988
-4.6962 1.1256 2.3988
-4.7375 0.9568 2.3988
-4.7729 0.7865 2.3988
-4.8021 0.6149 2.3988
-4.8253 0.4422 2.3988
-4.8423 0.2687 2.3988
-4.8531 0.0946 2.3988
-4.8577 -0.0799 2.3988
-4.8561 -0.2546 2.3988
-4.8482 -0.4292 2.3988
-4.8341 -0.6036 2.3988
-4.8138 -0.7775 2.3988
-4.7872 -0.9507 2.3988
-4.7544 -1.1229 2.3988
-4.7154 -1.2940 2.3988
-4.6703 -1.4637 2.3988
-4.6191 -1.6318 2.3988
-4.5618 -1.7981 2.3988
-4.4986 -1.9624 2.3988
-4.4294 -2.1244 2.3988
-4.3544 -2.2839 2.3988
-4.2737 -2.4407 2.3988
-4.1872 -2.5946 2.3988
-4.0952 -2.7454 2.3988
-3.9978 -2.8929 2.3988
-3.8950 -3.0369 2.3988
-3.7870 -3.1771 2.3988
-3.6740 -3.3135 2.3988
-3.5559 -3.4457 2.3988
-3.4331 -3.5737 2.3988
-3.3057 -3.6973 2.3988
-3.1737 -3.8162 2.3988
-3.0375 -3.9303 2.3988
-2.8971 -4.0394 2.3988
-2.7528 -4.1434 2.3988
-2.6046 -4.2422 2.3988
-2.4529 -4.3356 2.3988
-2.2979 -4.4234 2.3988
-2.1396 -4.5055 2.3988
-1.9784 -4.5819 2.3988
-1.8144 -4.6524 2.3988
-1.6479 -4.7168 2.3988
-1.4791 -4.7752 2.3988
-1.3081 -4.8274 2.3988
-1.1354 -4.8733 2.3988
-0.9610 -4.9129 2.3988
-0.7852 -4.9461 2.3988
-0.6082 -4.9729 2.3988
-0.4304 -4.9932 2.3988
-0.2518 -5.0069 2.3988
-0.0729 -5.0141 2.3988
0.1063 -5.0148 2.3988
0.2853 -5.0089 2.3988
0.4641 -4.9964 2.3988
0.6423 -4.9774 2.3988
0.8197 -4.9519 2.3988
0.9961 -4.9198 2.3988
1.1712 -4.8814 2.3988
1.3447 -4.8365 2.3988
1.5165 -4.7853 2.3988
1.6863 -4.7279 2.3988
1.8539 -4.6642 2.3988
2.0190 -4.5945 2.3988
2.1815 -4.5188 2.3988
2.3410 -4.4372 2.3988
2.4974 -4.3498 2.3988
2.6505 -4.2568 2.3988
2.8000 -4.1582 2.3988
2.9458 -4.0543 2.3988
3.0877 -3.9451 2.3988
3.2254 -3.8308 2.3988
3.3588 -3.7117 2.3988
3.4877 -3.5877 2.3988
3.6120 -3.4592 2.3988
3.7314 -3.3263 2.3988
3.8459 -3.1891 2.3988
3.9552 -3.0479 2.3988
4.0593 -2.9029 2.3988
4.1579 -2.7543 2.3988
4.2510 -2.6023 2.3988
4.3385 -2.4470 2.3988
4.4202 -2.2887 2.3988
4.4961 -2.1277 2.3988
4.5660 -1.9641 2.3988
4.6299 -1.7982 2.3988
4.6877 -1.6301 2.3988
4.7393 -1.4605 2.3988
4.7847 -1.2886 2.3988
4.8238 -1.1156 2.3988
4.8566 -0.9414 2.3988
4.8830 -0.7663 2.3988
4.9031 -0.5904 2.3988
4.9168 -0.4141 2.3988
4.9242 -0.2375 2.3988
4.9251 -0.0609 2.3988
4.9197 0.1156 2.3988
4.9079 0.2915 2.3988
4.8898 0.4669 2.3988
4.8654 0.6413 2.3988
4.8348 0.8146 2.3988
4.7980 0.9866 2.3988
4.7551 1.1570 2.3988
4.7061 1.3256 2.3988
4.6512 1.4923 2.3988
4.5904 1.6567 2.3988
4.5238 1.8187 2.3988
4.4514 1.9782 2.3988
4.3735 2.1348 2.3988
4.2901 2.2884 2.3988
4.2013 2.4388 2.3988
4.1073 2.5859 2.3988
4.0082 2.7294 2.3988
3.9041 2.8692 2.3988
3.7952 3.0052 2.3988
3.6815 3.1370 2.3988
3.5634 3.2647 2.3988
3.4408 3.3880 2.3988
3.3141 3.5067 2.3988
3.1833 3.6209 2.3988
3.0486 3.7302 2.3988
2.9102 3.8347 2.3988
2.7683 3.9341 2.3988
2.6230 4.0284 2.3988
2.4746 4.1174 2.3988
2.3232 4.2011 2.3988
0.8673 1.7111 0.9592
0.8051 1.7412 0.9597
0.7418 1.7690 0.9603
0.6776 1.7946 0.9608
0.6125 1.8178 0.9613
0.5465 1.8386 0.9617
0.4799 1.8571 0.9622
0.4127 1.8732 0.9626
0.3449 1.8868 0.9630
0.2766 1.8979 0.9633
0.2080 1.9066 0.9636
0.1391 1.9129 0.9639
0.0701 1.9166 0.9642
0.0009 1.9179 0.9644
-0.0682 1.9166 0.9646
-0.1373 1.9129 0.9648
-0.2062 1.9067 0.9649
-0.2748 1.8979 0.9651
-0.3431 1.8868 0.9651
-0.4109 1.8732 0.9652
-0.4782 1.8571 0.9652
-0.5449 1.8386 0.9652
-0.6108 1.8177 0.9652
-0.6760 1.7945 0.9651
-0.7403 1.7690 0.9650
-0.8036 1.7411 0.9648
-0.8658 1.7110 0.9647
-2.3054 4.1750 2.3988
-2.4551 4.0900 2.3988
-2.6016 3.9999 2.3988
-2.7450 3.9046 2.3988
-2.8849 3.8044 2.3988
-3.0213 3.6992 2.3988
-3.1539 3.5893 2.3988
-3.2826 3.4747 2.3988
-3.4072 3.3556 2.3988
-3.5276 3.2322 2.3988
-3.6436 3.1045 2.3988
-3.7551 2.9728 2.3988
-3.8619 2.8372 2.3988
-3.9639 2.6978 2.3988
-4.0610 2.5548 2.3988
-4.1529 2.4084 2.3988
-4.2398 2.2588 2.3988
-4.3213 2.1061 2.3988
-4.3974 1.9505 2.3988
-4.4680 1.7923 2.3988
-4.5330 1.6315 2.3988
-4.5923 1.4685 2.3988
-4.6458 1.3033 2.3988
-4.6934 1.1363 2.3988
-4.7351 0.9675 2.3988
-4.7708 0.7973 2.3988
-4.8005 0.6257 2.3988
-4.8240 0.4532 2.3988
-4.8414 0.2797 2.3988
-4.8526 0.1056 2.3988
-4.8576 -0.0688 2.3988
-4.8564 -0.2435 2.3988
-4.8489 -0.4182 2.3988
-4.8352 -0.5926 2.3988
-4.8152 -0.7665 2.3988
-4.7890 -0.9397 2.3988
-4.7567 -1.1120 2.3988
-4.7181 -1.2832 2.3988
-4.6733 -1.4530 2.3988
-4.6225 -1.6213 2.3988
-4.5656 -1.7877 2.3988
-4.5028 -1.9520 2.3988
-4.4340 -2.1142 2.3988
-4.3593 -2.2738 2.3988
-4.2789 -2.4308 2.3988
-4.1929 -2.5849 2.3988
-4.1012 -2.7359 2.3988
-4.0041 -2.8837 2.3988
-3.9017 -3.0279 2.3988
-3.7940 -3.1684 2.3988
-3.6813 -3.3050 2.3988
-3.5636 -3.4375 2.3988
-3.4410 -3.5658 2.3988
-3.3139 -3.6896 2.3988
-3.1822 -3.8088 2.3988
-3.0462 -3.9232 2.3988
-2.9061 -4.0326 2.3988
-2.7620 -4.1370 2.3988
-2.6141 -4.2361 2.3988
-2.4627 -4.3298 2.3988
-2.3078 -4.4180 2.3988
-2.1497 -4.5005 2.3988
-1.9887 -4.5772 2.3988
-1.8249 -4.6481 2.3988
-1.6585 -4.7129 2.3988
-1.4898 -4.7717 2.3988
-1.3190 -4.8243 2.3988
-1.1463 -4.8706 2.3988
-0.9720 -4.9106 2.3988
-0.7963 -4.9442 2.3988
-0.6194 -4.9714 2.3988
-0.4416 -4.9921 2.3988
-0.2631 -5.0062 2.3988
-0.0842 -5.0139 2.3988
0.0949 -5.0149 2.3988
0.2740 -5.0094 2.3988
0.4528 -4.9974 2.3988
0.6310 -4.9788 2.3988
0.8085 -4.9537 2.3988
0.9850 -4.9221 2.3988
1.1601 -4.8840 2.3988
1.3338 -4.8395 2.3988
1.5057 -4.7888 2.3988
1.6757 -4.7317 2.3988
1.8434 -4.6685 2.3988
2.0087 -4.5991 2.3988
2.1713 -4.5238 2.3988
2.3310 -4.4425 2.3988
2.4876 -4.3555 2.3988
2.6409 -4.2628 2.3988
2.7907 -4.1646 2.3988
2.9367 -4.0610 2.3988
3.0788 -3.9522 2.3988
3.2168 -3.8382 2.3988
3.3505 -3.7193 2.3988
3.4797 -3.5957 2.3988
3.6043 -3.4675 2.3988
3.7240 -3.3348 2.3988
3.8388 -3.1979 2.3988
3.9484 -3.0570 2.3988
4.0528 -2.9122 2.3988
4.1518 -2.7638 2.3988
4.2453 -2.6120 2.3988
4.3331 -2.4569 2.3988
4.4152 -2.2988 2.3988
4.4915 -2.1380 2.3988
4.5618 -1.9745 2.3988
4.6260 -1.8088 2.3988
4.6842 -1.6408 2.3988
4.7362 -1.4710 2.3988
4.7820 -1.2995 2.3988
4.8215 -1.1266 2.3988
4.8547 -0.9525 2.3988
4.8816 -0.7774 2.3988
4.9020 -0.6016 2.3988
4.9162 -0.4252 2.3988
4.9239 -0.2487 2.3988
4.9252 -0.0720 2.3988
4.9202 0.1045 2.3988
4.9088 0.2804 2.3988
4.8911 0.4558 2.3988
4.8671 0.6303 2.3988
4.8369 0.8037 2.3988
4.8005 0.9757 2.3988
4.7580 1.1462 2.3988
4.7094 1.3150 2.3988
4.6548 1.4818 2.3988
4.5944 1.6464 2.3988
4.5281 1.8086 2.3988
4.4562 1.9682 2.3988
4.3786 2.1250 2.3988
4.2955 2.2787 2.3988
4.2700 1.7378 2.3988
4.2010 1.8884 2.3988
4.1269 2.0362 2.3988
4.0475 2.1812 2.3988
3.9631 2.3232 2.3988
3.8737 2.4620 2.3988
3.7795 2.5974 2.3988
3.6805 2.7293 2.3988
3.5771 2.8575 2.3988
3.4692 2.9818 2.3988
3.3570 3.1022 2.3988
3.2407 3.2184 2.3988
3.1203 3.3303 2.3988
2.9962 3.4379 2.3988
2.8684 3.5409 2.3988
2.7371 3.6392 2.3988
2.6025 3.7328 2.3988
2.4648 3.8215 2.3988
2.3240 3.9052 2.3988
0.8705 1.5905 0.9577
0.8127 1.6208 0.9583
0.7537 1.6490 0.9588
0.6938 1.6750 0.9593
0.6329 1.6989 0.9598
0.5713 1.7205 0.9602
0.5089 1.7399 0.9607
0.4458 1.7571 0.9611
0.3822 1.7720 0.9614
0.3180 1.7846 0.9618
0.2534 1.7948 0.9621
0.1886 1.8027 0.9624
0.1234 1.8083 0.9627
0.0581 1.8116 0.9630
-0.0073 1.8124 0.9632
-0.0726 1.8110 0.9634
-0.1379 1.8071 0.9635
-0.2030 1.8009 0.9637
-0.2678 1.7924 0.9638
-0.3323 1.7816 0.9638
-0.3964 1.7684 0.9639
-0.4599 1.7529 0.9639
-0.5229 1.7352 0.9639
-0.5851 1.7152 0.9638
-0.6466 1.6929 0.9638
-0.7072 1.6685 0.9637
-0.7670 1.6419 0.9635
-0.8257 1.6131 0.9634
-0.8834 1.5823 0.9632
-2.3412 3.8596 2.3988
-2.4795 3.7737 2.3988
-2.6148 3.6828 2.3988
-2.7468 3.5873 2.3988
-2.8754 3.4871 2.3988
-3.0004 3.3824 2.3988
-3.1216 3.2734 2.3988
-3.2390 3.1601 2.3988
-3.3524 3.0427 2.3988
-3.4616 2.9213 2.3988
-3.5664 2.7961 2.3988
-3.6669 2.6672 2.3988
-3.7627 2.5348 2.3988
-3.8539 2.3990 2.3988
-3.9402 2.2600 2.3988
-4.0217 2.1180 2.3988
-4.0980 1.9731 2.3988
-4.1693 1.8255 2.3988
-4.2353 1.6754 2.3988
-4.2959 1.5230 2.3988
-4.3512 1.3684 2.3988
-4.4010 1.2119 2.3988
-4.4452 1.0536 2.3988
-4.4837 0.8937 2.3988
-4.5166 0.7324 2.3988
-4.5438 0.5700 2.3988
-4.5651 0.4066 2.3988
-4.5807 0.2425 2.3988
-4.5904 0.0778 2.3988
-4.5942 -0.0873 2.3988
-4.5921 -0.2525 2.3988
-4.5841 -0.4177 2.3988
-4.5702 -0.5825 2.3988
-4.5504 -0.7469 2.3988
-4.5247 -0.9106 2.3988
-4.4931 -1.0734 2.3988
-4.4557 -1.2350 2.3988
-4.4125 -1.3953 2.3988
-4.3636 -1.5541 2.3988
-4.3089 -1.7112 2.3988
-4.2486 -1.8662 2.3988
-4.1827 -2.0192 2.3988
-4.1112 -2.1697 2.3988
-4.0344 -2.3177 2.3988
-3.9522 -2.4629 2.3988
-3.8648 -2.6051 2.3988
-3.7722 -2.7442 2.3988
-3.6746 -2.8800 2.3988
-3.5721 -3.0122 2.3988
-3.4648 -3.1407 2.3988
-3.3528 -3.2654 2.3988
-3.2364 -3.3859 2.3988
-3.1156 -3.5023 2.3988
-2.9905 -3.6142 2.3988
-2.8614 -3.7216 2.3988
-2.7285 -3.8243 2.3988
-2.5918 -3.9222 2.3988
-2.4515 -4.0150 2.3988
-2.3079 -4.1028 2.3988
-2.1611 -4.1853 2.3988
-2.0114 -4.2624 2.3988
-1.8589 -4.3341 2.3988
-1.7037 -4.4002 2.3988
-1.5463 -4.4607 2.3988
-1.3866 -4.5153 2.3988
-1.2250 -4.5642 2.3988
-1.0617 -4.6071 2.3988
-0.8968 -4.6440 2.3988
-0.7307 -4.6749 2.3988
-0.5635 -4.6997 2.3988
-0.3955 -4.7184 2.3988
-0.2268 -4.7309 2.3988
-0.0578 -4.7373 2.3988
0.1114 -4.7374 2.3988
0.2805 -4.7314 2.3988
0.4493 -4.7192 2.3988
0.6176 -4.7008 2.3988
0.7851 -4.6763 2.3988
0.9516 -4.6457 2.3988
1.1169 -4.6090 2.3988
1.2807 -4.5662 2.3988
1.4428 -4.5175 2.3988
1.6031 -4.4629 2.3988
1.7612 -4.4024 2.3988
1.9170 -4.3362 2.3988
2.0703 -4.2644 2.3988
2.2208 -4.1870 2.3988
2.3684 -4.1042 2.3988
2.5127 -4.0160 2.3988
2.6538 -3.9227 2.3988
2.7913 -3.8242 2.3988
2.9251 -3.7209 2.3988
3.0550 -3.6127 2.3988
3.1808 -3.4999 2.3988
3.3023 -3.3826 2.3988
3.4195 -3.2610 2.3988
3.5321 -3.1353 2.3988
3.6400 -3.0055 2.3988
3.7431 -2.8720 2.3988
3.8411 -2.7349 2.3988
3.9341 -2.5944 2.3988
4.0219 -2.4506 2.3988
4.1043 -2.3038 2.3988
4.1813 -2.1542 2.3988
4.2527 -2.0019 2.3988
4.3186 -1.8472 2.3988
4.3787 -1.6904 2.3988
4.4331 -1.5315 2.3988
4.4817 -1.3709 2.3988
4.5243 -1.2087 2.3988
4.5611 -1.0452 2.3988
4.5919 -0.8806 2.3988
4.6167 -0.7151 2.3988
4.6354 -0.5486 2.3988
4.6482 -0.3821 2.3988
4.6549 -0.2152 2.3988
4.6556 -0.0482 2.3988
4.6503 0.1185 2.3988
4.6390 0.2848 2.3988
4.6217 0.4505 2.3988
4.5984 0.6154 2.3988
4.5693 0.7792 2.3988
4.5343 0.9417 2.3988
4.4936 1.1028 2.3988
4.4471 1.2623 2.3988
4.3950 1.4196 2.3988
4.3373 1.5751 2.3988
4.2741 1.7282 2.3988
4.2056 1.8788 2.3988
4.1317 2.0269 2.3988
4.0527 2.1721 2.3988
3.9686 2.3143 2.3988
3.8795 2.4533 2.3988
3.7856 2.5889 2.3988
3.6869 2.7210 2.3988
3.5837 2.8495 2.3988
3.4761 2.9741 2.3988
3.3642 3.0947 2.3988
3.2481 3.2112 2.3988
3.1281 3.3234 2.3988
3.0042 3.4312 2.3988
2.8766 3.5345 2.3988
2.7456 3.6331 2.3988
2.6112 3.7270 2.3988
2.4736 3.8160 2.3988
2.3330 3.9001 2.3988
0.8742 1.5886 0.9577
0.8163 1.6190 0.9582
0.7575 1.6473 0.9587
0.6976 1.6734 0.9593
0.6368 1.6974 0.9597
0.5752 1.7192 0.9602
0.5128 1.7388 0.9606
0.4498 1.7561 0.9610
0.3862 1.7711 0.9614
0.3221 1.7838 0.9618
0.2575 1.7942 0.9621
0.1927 1.8023 0.9624
0.1275 1.8080 0.9627
0.0622 1.8114 0.9629
-0.0031 1.8124 0.9632
-0.0685 1.8111 0.9634
-0.1338 1.8074 0.9635
-0.1989 1.8014 0.9637
-0.2638 1.7930 0.9638
-0.3283 1.7823 0.9638
-0.3923 1.7693 0.9639
-0.4559 1.7540 0.9639
-0.5189 1.7364 0.9639
-0.5812 1.7165 0.9638
-0.6427 1.6944 0.9638
-0.7034 1.6701 0.9637
-0.7632 1.6436 0.9635
-0.8220 1.6150 0.9634
-0.8797 1.5843 0.9632
-2.3324 3.8649 2.3988
-2.4709 3.7792 2.3988
-2.6063 3.6887 2.3988
-2.7385 3.5935 2.3988
-2.8673 3.4936 2.3988
-2.9926 3.3892 2.3988
-3.1141 3.2804 2.3988
-3.2317 3.1674 2.3988
-3.3453 3.0502 2.3988
-3.4548 2.9291 2.3988
-3.5599 2.8041 2.3988
-3.6607 2.6755 2.3988
-3.7568 2.5433 2.3988
-3.8483 2.4077 2.3988
-3.9349 2.2689 2.3988
-4.0167 2.1271 2.3988
-4.0933 1.9823 2.3988
-4.1649 1.8349 2.3988
-4.2313 1.6850 2.3988
-4.2923 1.5327 2.3988
-4.3479 1.3782 2.3988
-4.3980 1.2218 2.3988
-4.4425 1.0636 2.3988
-4.4815 0.9038 2.3988
-4.5147 0.7427 2.3988
-4.5422 0.5803 2.3988
-4.5640 0.4170 2.3988
-4.5799 0.2529 2.3988
-4.5899 0.0882 2.3988
-4.5941 -0.0768 2.3988
-4.5924 -0.2421 2.3988
-4.5848 -0.4072 2.3988
-4.5712 -0.5721 2.3988
-4.5518 -0.7365 2.3988
-4.5265 -0.9003 2.3988
-4.4953 -1.0631 2.3988
-4.4583 -1.2248 2.3988
-4.4154 -1.3852 2.3988
-4.3668 -1.5441 2.3988
-4.3125 -1.7013 2.3988
-4.2526 -1.8565 2.3988
-4.1870 -2.0095 2.3988
-4.1159 -2.1602 2.3988
-4.0394 -2.3084 2.3988
-3.9576 -2.4538 2.3988
-3.8705 -2.5962 2.3988
-3.7782 -2.7355 2.3988
-3.6809 -2.8715 2.3988
-3.5787 -3.0040 2.3988
-3.4717 -3.1327 2.3988
-3.3601 -3.2576 2.3988
-3.2439 -3.3784 2.3988
-3.1233 -3.4950 2.3988
-2.9986 -3.6073 2.3988
-2.8697 -3.7149 2.3988
-2.7370 -3.8179 2.3988
-2.6005 -3.9161 2.3988
-2.4605 -4.0093 2.3988
-2.3171 -4.0974 2.3988
-2.1705 -4.1802 2.3988
-2.0210 -4.2577 2.3988
-1.8686 -4.3298 2.3988
-1.7136 -4.3962 2.3988
-1.5563 -4.4570 2.3988
-1.3968 -4.5120 2.3988
-1.2353 -4.5612 2.3988
-1.0721 -4.6045 2.3988
-0.9073 -4.6418 2.3988
-0.7413 -4.6731 2.3988
-0.5741 -4.6983 2.3988
-0.4061 -4.7174 2.3988
-0.2375 -4.7303 2.3988
-0.0685 -4.7371 2.3988
0.1007 -4.7376 2.3988
0.2698 -4.7320 2.3988
0.4387 -4.7202 2.3988
0.6070 -4.7022 2.3988
0.7745 -4.6780 2.3988
0.9411 -4.6478 2.3988
1.1065 -4.6115 2.3988
1.2704 -4.5691 2.3988
1.4326 -4.5208 2.3988
1.5930 -4.4665 2.3988
1.7513 -4.4064 2.3988
1.9072 -4.3406 2.3988
2.0607 -4.2691 2.3988
2.2114 -4.1921 2.3988
2.3591 -4.1096 2.3988
2.5037 -4.0218 2.3988
2.6450 -3.9287 2.3988
2.7827 -3.8306 2.3988
2.9167 -3.7275 2.3988
3.0469 -3.6197 2.3988
3.1729 -3.5072 2.3988
3.2948 -3.3902 2.3988
3.4122 -3.2688 2.3988
3.5251 -3.1433 2.3988
3.6333 -3.0139 2.3988
3.7367 -2.8806 2.3988
3.8351 -2.7437 2.3988
3.9284 -2.6033 2.3988
4.0165 -2.4598 2.3988
4.0992 -2.3132 2.3988
4.1766 -2.1637 2.3988
4.2484 -2.0116 2.3988
4.3146 -1.8571 2.3988
4.3751 -1.7004 2.3988
4.4298 -1.5416 2.3988
4.4788 -1.3811 2.3988
4.5218 -1.2190 2.3988
4.5589 -1.0556 2.3988
4.5901 -0.8910 2.3988
4.6153 -0.7255 2.3988
4.6344 -0.5593 2.3988
4.6476 -0.3927 2.3988
4.6547 -0.2257 2.3988
4.6557 -0.0588 2.3988
4.6508 0.1080 2.3988
4.6398 0.2743 2.3988
4.6229 0.4401 2.3988
4.6001 0.6050 2.3988
4.5713 0.7689 2.3988
4.5367 0.9315 2.3988
4.4963 1.0927 2.3988
4.4502 1.2522 2.3988
4.3985 1.4097 2.3988
4.3411 1.5653 2.3988
4.2783 1.7186 2.3988
4.2101 1.8695 2.3988
4.1365 2.0177 2.3988
4.0578 2.1630 2.3988
3.9740 2.3054 2.3988
3.8853 2.4446 2.3988
3.7916 2.5805 2.3988
3.6933 2.7128 2.3988
3.5904 2.8415 2.3988
3.4831 2.9663 2.3988
3.3714 3.0872 2.3988
3.2556 3.2039 2.3988
3.1358 3.3164 2.3988
3.0121 3.4245 2.3988
2.8848 3.5281 2.3988
2.7539 3.6270 2.3988
2.6197 3.7212 2.3988
2.4824 3.8105 2.3988
2.3420 3.8949 2.3988
0.8778 1.5866 0.9576
0.8200 1.6171 0.9582
0.7612 1.6455 0.9587
0.7014 1.6718 0.9592
0.6407 1.6960 0.9597
0.5791 1.7179 0.9602
0.5168 1.7376 0.9606
0.4538 1.7551 0.9610
0.3902 1.7702 0.9614
0.3262 1.7831 0.9618
0.2616 1.7936 0.9621
0.1968 1.8019 0.9624
0.1317 1.8077 0.9627
0.0664 1.8113 0.9629
0.0010 1.8125 0.9631
-0.0644 1.8113 0.9633
-0.1297 1.8077 0.9635
-0.1948 1.8018 0.9636
-0.2597 1.7936 0.9637
-0.3242 1.7831 0.9638
-0.3883 1.7702 0.9639
-0.4519 1.7550 0.9639
-0.5149 1.7375 0.9639
-0.5773 1.7178 0.9638
-0.6389 1.6959 0.9638
-0.6996 1.6717 0.9637
-0.7595 1.6454 0.9635
-0.8183 1.6169 0.9634
-0.8761 1.5863 0.9632
-2.3235 3.8702 2.3988
-2.4622 3.7848 2.3988
-2.5978 3.6946 2.3988
-2.7303 3.5996 2.3988
-2.8593 3.5000 2.3988
-2.9847 3.3959 2.3988
-3.1065 3.2874 2.3988
-3.2244 3.1747 2.3988
-3.3383 3.0578 2.3988
-3.4480 2.9369 2.3988
-3.5534 2.8122 2.3988
-3.6544 2.6837 2.3988
-3.7509 2.5517 2.3988
-3.8426 2.4164 2.3988
-3.9296 2.2778 2.3988
-4.0117 2.1362 2.3988
-4.0886 1.9916 2.3988
-4.1605 1.8443 2.3988
-4.2272 1.6945 2.3988
-4.2886 1.5424 2.3988
-4.3445 1.3881 2.3988
-4.3950 1.2318 2.3988
-4.4399 1.0737 2.3988
-4.4792 0.9140 2.3988
-4.5128 0.7529 2.3988
-4.5407 0.5906 2.3988
-4.5627 0.4274 2.3988
-4.5790 0.2633 2.3988
-4.5895 0.0986 2.3988
-4.5940 -0.0664 2.3988
-4.5927 -0.2316 2.3988
-4.5854 -0.3968 2.3988
-4.5723 -0.5617 2.3988
-4.5532 -0.7261 2.3988
-4.5283 -0.8899 2.3988
-4.4974 -1.0528 2.3988
-4.4608 -1.2146 2.3988
-4.4183 -1.3751 2.3988
-4.3701 -1.5341 2.3988
-4.3161 -1.6914 2.3988
-4.2565 -1.8467 2.3988
-4.1913 -1.9999 2.3988
-4.1206 -2.1508 2.3988
-4.0444 -2.2991 2.3988
-3.9629 -2.4447 2.3988
-3.8761 -2.5873 2.3988
-3.7842 -2.7268 2.3988
-3.6872 -2.8630 2.3988
-3.5853 -2.9957 2.3988
-3.4786 -3.1247 2.3988
-3.3673 -3.2498 2.3988
-3.2514 -3.3709 2.3988
-3.1311 -3.4878 2.3988
-3.0066 -3.6003 2.3988
-2.8780 -3.7083 2.3988
-2.7455 -3.8116 2.3988
-2.6092 -3.9100 2.3988
-2.4694 -4.0036 2.3988
-2.3263 -4.0920 2.3988
-2.1799 -4.1751 2.3988
-2.0305 -4.2530 2.3988
-1.8783 -4.3254 2.3988
-1.7235 -4.3922 2.3988
-1.5663 -4.4533 2.3988
-1.4069 -4.5087 2.3988
-1.2456 -4.5583 2.3988
-1.0824 -4.6020 2.3988
-0.9178 -4.6397 2.3988
-0.7518 -4.6713 2.3988
-0.5847 -4.6969 2.3988
-0.4168 -4.7164 2.3988
-0.2482 -4.7297 2.3988
-0.0792 -4.7368 2.3988
0.0900 -4.7378 2.3988
0.2591 -4.7325 2.3988
0.4280 -4.7211 2.3988
0.5963 -4.7035 2.3988
0.7640 -4.6798 2.3988
0.9306 -4.6499 2.3988
1.0960 -4.6139 2.3988
1.2601 -4.5719 2.3988
1.4224 -4.5240 2.3988
1.5829 -4.4701 2.3988
1.7413 -4.4104 2.3988
1.8974 -4.3449 2.3988
2.0511 -4.2738 2.3988
2.2019 -4.1971 2.3988
2.3499 -4.1150 2.3988
2.4947 -4.0275 2.3988
2.6361 -3.9348 2.3988
2.7741 -3.8370 2.3988
2.9084 -3.7342 2.3988
3.0388 -3.6267 2.3988
3.1651 -3.5144 2.3988
3.2872 -3.3977 2.3988
3.4049 -3.2766 2.3988
3.5181 -3.1514 2.3988
3.6266 -3.0222 2.3988
3.7303 -2.8891 2.3988
3.8290 -2.7524 2.3988
3.9226 -2.6123 2.3988
4.0111 -2.4689 2.3988
4.0942 -2.3225 2.3988
4.1718 -2.1732 2.3988
4.2440 -2.0213 2.3988
4.3106 -1.8669 2.3988
4.3714 -1.7103 2.3988
4.4265 -1.5517 2.3988
4.4758 -1.3913 2.3988
4.5193 -1.2293 2.3988
4.5568 -1.0660 2.3988
4.5883 -0.9014 2.3988
4.6139 -0.7360 2.3988
4.6334 -0.5699 2.3988
4.6469 -0.4032 2.3988
4.6544 -0.2363 2.3988
4.6558 -0.0694 2.3988
4.6513 0.0974 2.3988
4.6407 0.2638 2.3988
4.6242 0.4296 2.3988
4.6017 0.5946 2.3988
4.5733 0.7585 2.3988
4.5391 0.9212 2.3988
4.4991 1.0825 2.3988
4.4533 1.2423 2.3988
4.4019 1.3998 2.3988
4.3449 1.5555 2.3988
4.2824 1.7090 2.3988
4.2145 1.8600 2.3988
4.1413 2.0084 2.3988
4.0630 2.1539 2.3988
4.0453 1.6450 2.3988
3.9802 1.7877 2.3988
3.9101 1.9278 2.3988
3.8350 2.0653 2.3988
3.7551 2.1999 2.3988
3.6706 2.3314 2.3988
3.5814 2.4598 2.3988
3.4878 2.5849 2.3988
3.3899 2.7064 2.3988
3.2878 2.8244 2.3988
3.1816 2.9385 2.3988
3.0714 3.0487 2.3988
2.9575 3.1549 2.3988
2.8400 3.2569 2.3988
2.7189 3.3547 2.3988
2.5946 3.4480 2.3988
2.4671 3.5368 2.3988
2.3366 3.6209 2.3988
0.8783 1.4752 0.9563
0.8246 1.5058 0.9568
0.7697 1.5344 0.9573
0.7139 1.5611 0.9578
0.6571 1.5858 0.9583
0.5995 1.6083 0.9588
0.5411 1.6288 0.9592
0.4820 1.6472 0.9596
0.4223 1.6635 0.9600
0.3620 1.6776 0.9604
0.3013 1.6895 0.9607
0.2401 1.6992 0.9610
0.1787 1.7067 0.9613
0.1170 1.7120 0.9616
0.0552 1.7150 0.9618
-0.0067 1.7158 0.9620
-0.0687 1.7144 0.9622
-0.1305 1.7108 0.9623
-0.1921 1.7050 0.9625
-0.2535 1.6969 0.9626
-0.3146 1.6866 0.9626
-0.3752 1.6741 0.9627
-0.4354 1.6595 0.9627
-0.4950 1.6427 0.9627
-0.5539 1.6237 0.9626
-0.6122 1.6027 0.9626
-0.6696 1.5795 0.9625
-0.7262 1.5543 0.9623
-0.7818 1.5271 0.9622
-0.8364 1.4979 0.9620
-0.8899 1.4668 0.9618
-2.3506 3.5766 2.3988
-2.4788 3.4905 2.3988
-2.6039 3.3999 2.3988
-2.7257 3.3048 2.3988
-2.8442 3.2055 2.3988
-2.9591 3.1021 2.3988
-3.0704 2.9946 2.3988
-3.1778 2.8833 2.3988
-3.2812 2.7682 2.3988
-3.3806 2.6494 2.3988
-3.4757 2.5272 2.3988
-3.5665 2.4016 2.3988
-3.6528 2.2728 2.3988
-3.7345 2.1410 2.3988
-3.8117 2.0064 2.3988
-3.8839 1.8689 2.3988
-3.9513 1.7290 2.3988
-4.0138 1.5867 2.3988
-4.0712 1.4422 2.3988
-4.1234 1.2956 2.3988
-4.1704 1.1472 2.3988
-4.2122 0.9972 2.3988
-4.2486 0.8457 2.3988
-4.2796 0.6928 2.3988
-4.3052 0.5389 2.3988
-4.3253 0.3841 2.3988
-4.3399 0.2285 2.3988
-4.3489 0.0724 2.3988
-4.3523 -0.0840 2.3988
-4.3502 -0.2405 2.3988
-4.3425 -0.3969 2.3988
-4.3291 -0.5531 2.3988
-4.3102 -0.7088 2.3988
-4.2857 -0.8638 2.3988
-4.2557 -1.0180 2.3988
-4.2201 -1.1711 2.3988
-4.1790 -1.3229 2.3988
-4.1325 -1.4732 2.3988
-4.0806 -1.6219 2.3988
-4.0233 -1.7687 2.3988
-3.9607 -1.9134 2.3988
-3.8929 -2.0559 2.3988
-3.8200 -2.1960 2.3988
-3.7420 -2.3334 2.3988
-3.6591 -2.4680 2.3988
-3.5713 -2.5996 2.3988
-3.4788 -2.7281 2.3988
-3.3816 -2.8532 2.3988
-3.2799 -2.9747 2.3988
-3.1738 -3.0926 2.3988
-3.0635 -3.2067 2.3988
-2.9490 -3.3167 2.3988
-2.8305 -3.4225 2.3988
-2.7083 -3.5241 2.3988
-2.5823 -3.6212 2.3988
-2.4528 -3.7137 2.3988
-2.3200 -3.8015 2.3988
-2.1840 -3.8845 2.3988
-2.0451 -3.9625 2.3988
-1.9033 -4.0354 2.3988
-1.7589 -4.1031 2.3988
-1.6120 -4.1656 2.3988
-1.4630 -4.2227 2.3988
-1.3119 -4.2743 2.3988
-1.1589 -4.3204 2.3988
-1.0043 -4.3610 2.3988
-0.8483 -4.3958 2.3988
-0.6911 -4.4250 2.3988
-0.5329 -4.4484 2.3988
-0.3739 -4.4660 2.3988
-0.2143 -4.4778 2.3988
-0.0543 -4.4838 2.3988
0.1058 -4.4839 2.3988
0.2658 -4.4782 2.3988
0.4255 -4.4666 2.3988
0.5847 -4.4492 2.3988
0.7432 -4.4259 2.3988
0.9007 -4.3969 2.3988
1.0571 -4.3622 2.3988
1.2121 -4.3217 2.3988
1.3655 -4.2756 2.3988
1.5172 -4.2240 2.3988
1.6668 -4.1668 2.3988
1.8142 -4.1042 2.3988
1.9593 -4.0363 2.3988
2.1017 -3.9631 2.3988
2.2413 -3.8847 2.3988
2.3780 -3.8013 2.3988
2.5115 -3.7130 2.3988
2.6416 -3.6200 2.3988
2.7683 -3.5222 2.3988
2.8912 -3.4199 2.3988
3.0103 -3.3132 2.3988
3.1254 -3.2023 2.3988
3.2363 -3.0873 2.3988
3.3430 -2.9683 2.3988
3.4451 -2.8456 2.3988
3.5428 -2.7193 2.3988
3.6357 -2.5896 2.3988
3.7237 -2.4567 2.3988
3.8069 -2.3206 2.3988
3.8850 -2.1818 2.3988
3.9580 -2.0402 2.3988
4.0257 -1.8962 2.3988
4.0882 -1.7498 2.3988
4.1452 -1.6014 2.3988
4.1969 -1.4511 2.3988
4.2430 -1.2990 2.3988
4.2835 -1.1456 2.3988
4.3184 -0.9908 2.3988
4.3477 -0.8349 2.3988
4.3713 -0.6782 2.3988
4.3893 -0.5209 2.3988
4.4015 -0.3631 2.3988
4.4080 -0.2050 2.3988
4.4088 -0.0470 2.3988
4.4039 0.1110 2.3988
4.3934 0.2685 2.3988
4.3772 0.4254 2.3988
4.3553 0.5816 2.3988
4.3279 0.7368 2.3988
4.2950 0.8907 2.3988
4.2565 1.0433 2.3988
4.2127 1.1943 2.3988
4.1635 1.3435 2.3988
4.1090 1.4908 2.3988
4.0493 1.6359 2.3988
3.9845 1.7787 2.3988
3.9146 1.9190 2.3988
3.8399 2.0567 2.3988
3.7603 2.1914 2.3988
3.6761 2.3232 2.3988
3.5872 2.4518 2.3988
3.4939 2.5771 2.3988
3.3962 2.6989 2.3988
3.2943 2.8170 2.3988
3.1884 2.9314 2.3988
3.0785 3.0419 2.3988
2.9648 3.1483 2.3988
2.8475 3.2506 2.3988
2.7267 3.3486 2.3988
2.6025 3.4422 2.3988
2.4752 3.5313 2.3988
2.3449 3.6158 2.3988
0.8817 1.4732 0.9562
0.8280 1.5039 0.9568
0.7732 1.5327 0.9573
0.7175 1.5595 0.9578
0.6608 1.5843 0.9583
0.6032 1.6070 0.9588
0.5449 1.6276 0.9592
0.4858 1.6461 0.9596
0.4261 1.6625 0.9600
0.3659 1.6767 0.9603
0.3051 1.6888 0.9607
0.2440 1.6986 0.9610
0.1826 1.7063 0.9613
0.1209 1.7117 0.9615
0.0591 1.7149 0.9618
-0.0028 1.7159 0.9620
-0.0647 1.7146 0.9622
-0.1266 1.7111 0.9623
-0.1882 1.7054 0.9625
-0.2496 1.6975 0.9626
-0.3107 1.6873 0.9626
-0.3714 1.6750 0.9627
-0.4316 1.6605 0.9627
-0.4912 1.6438 0.9627
-0.5502 1.6250 0.9626
-0.6085 1.6041 0.9626
-0.6660 1.5810 0.9625
-0.7226 1.5560 0.9624
-0.7783 1.5289 0.9622
-0.8330 1.4998 0.9620
-0.8865 1.4688 0.9618
-2.3423 3.5819 2.3988
-2.4707 3.4961 2.3988
-2.5960 3.4057 2.3988
-2.7181 3.3110 2.3988
-2.8368 3.2120 2.3988
-2.9520 3.1088 2.3988
-3.0634 3.0016 2.3988
-3.1711 2.8904 2.3988
-3.2748 2.7756 2.3988
-3.3744 2.6570 2.3988
-3.4698 2.5350 2.3988
-3.5609 2.4096 2.3988
-3.6475 2.2811 2.3988
-3.7295 2.1494 2.3988
-3.8069 2.0150 2.3988
-3.8795 1.8777 2.3988
-3.9472 1.7379 2.3988
-4.0100 1.5958 2.3988
-4.0677 1.4514 2.3988
-4.1202 1.3050 2.3988
-4.1676 1.1567 2.3988
-4.2097 1.0067 2.3988
-4.2465 0.8553 2.3988
-4.2778 0.7025 2.3988
-4.3037 0.5487 2.3988
-4.3242 0.3939 2.3988
-4.3391 0.2384 2.3988
-4.3485 0.0823 2.3988
-4.3523 -0.0741 2.3988
-4.3505 -0.2306 2.3988
-4.3431 -0.3870 2.3988
-4.3302 -0.5432 2.3988
-4.3116 -0.6990 2.3988
-4.2874 -0.8540 2.3988
-4.2577 -1.0083 2.3988
-4.2225 -1.1614 2.3988
-4.1818 -1.3133 2.3988
-4.1356 -1.4637 2.3988
-4.0840 -1.6125 2.3988
-4.0270 -1.7595 2.3988
-3.9648 -1.9043 2.3988
-3.8974 -2.0470 2.3988
-3.8248 -2.1872 2.3988
-3.7471 -2.3248 2.3988
-3.6645 -2.4596 2.3988
-3.5770 -2.5914 2.3988
-3.4848 -2.7200 2.3988
-3.3879 -2.8454 2.3988
-3.2865 -2.9672 2.3988
-3.1807 -3.0853 2.3988
-3.0706 -3.1996 2.3988
-2.9564 -3.3098 2.3988
-2.8381 -3.4160 2.3988
-2.7161 -3.5178 2.3988
-2.5904 -3.6152 2.3988
-2.4611 -3.7080 2.3988
-2.3285 -3.7961 2.3988
-2.1927 -3.8794 2.3988
-2.0539 -3.9577 2.3988
-1.9123 -4.0309 2.3988
-1.7681 -4.0990 2.3988
-1.6214 -4.1618 2.3988
-1.4725 -4.2192 2.3988
-1.3215 -4.2712 2.3988
-1.1686 -4.3177 2.3988
-1.0142 -4.3586 2.3988
-0.8582 -4.3938 2.3988
-0.7011 -4.4233 2.3988
-0.5429 -4.4471 2.3988
-0.3839 -4.4651 2.3988
-0.2244 -4.4773 2.3988
-0.0644 -4.4836 2.3988
0.0956 -4.4841 2.3988
0.2557 -4.4787 2.3988
