ply
format ascii 1.0
element vertex 2170
property float32 x
property float32 y
property float32 z
end_header
-8.6671 3.1320 2.3874
-8.7742 2.8189 2.3874
-8.8701 2.5022 2.3874
-8.9545 2.1823 2.3874
-9.0274 1.8595 2.3874
-9.0887 1.5343 2.3874
-9.1382 1.2070 2.3874
-9.1760 0.8783 2.3874
-9.2020 0.5483 2.3874
-9.2161 0.2176 2.3874
-9.2183 -0.1134 2.3874
-9.2086 -0.4442 2.3874
-9.1871 -0.7746 2.3874
-9.1538 -1.1039 2.3874
-9.1086 -1.4318 2.3874
-9.0517 -1.7580 2.3874
-8.9831 -2.0819 2.3874
-8.9029 -2.4031 2.3874
-8.8113 -2.7212 2.3874
-8.7082 -3.0359 2.3874
-8.5940 -3.3467 2.3874
-8.4686 -3.6532 2.3874
-8.3323 -3.9550 2.3874
-7.2845 4.2382 2.3874
-7.4321 3.9741 2.3874
-7.5702 3.7048 2.3874
-7.6986 3.4308 2.3874
-7.8170 3.1523 2.3874
-7.9254 2.8697 2.3874
-8.0236 2.5834 2.3874
-8.1114 2.2938 2.3874
-8.1888 2.0012 2.3874
-8.2556 1.7060 2.3874
-8.3118 1.4086 2.3874
-8.3573 1.1093 2.3874
-8.3921 0.8086 2.3874
-8.4160 0.5068 2.3874
-8.4291 0.2044 2.3874
-8.4313 -0.0983 2.3874
-8.4226 -0.4009 2.3874
-8.4031 -0.7030 2.3874
-8.3727 -1.0043 2.3874
-8.3316 -1.3043 2.3874
-8.2797 -1.6026 2.3874
-8.2171 -1.8988 2.3874
-8.1440 -2.1927 2.3874
-8.0603 -2.4837 2.3874
-7.9662 -2.7716 2.3874
-7.8619 -3.0558 2.3874
-7.7474 -3.3362 2.3874
-7.6229 -3.6123 2.3874
-7.4886 -3.8837 2.3874
-7.3446 -4.1502 2.3874
-7.1911 -4.4113 2.3874
-7.0284 -4.6668 2.3874
-6.8566 -4.9162 2.3874
-6.6759 -5.1594 2.3874
-6.4866 -5.3959 2.3874
-6.2889 -5.6254 2.3874
-6.0831 -5.8477 2.3874
-5.8695 -6.0625 2.3874
-5.6482 -6.2695 2.3874
-5.4197 -6.4684 2.3874
-5.1841 -6.6589 2.3874
-4.9419 -6.8409 2.3874
-4.6933 -7.0141 2.3874
-4.4386 -7.1782 2.3874
-4.1781 -7.3331 2.3874
-3.9123 -7.4785 2.3874
-3.6414 -7.6143 2.3874
-3.3658 -7.7402 2.3874
-3.0859 -7.8562 2.3874
-2.8019 -7.9621 2.3874
-2.5144 -8.0577 2.3874
-2.2236 -8.1429 2.3874
-1.9299 -8.2176 2.3874
-1.6337 -8.2817 2.3874
-1.3354 -8.3351 2.3874
-1.0353 -8.3777 2.3874
-0.7339 -8.4096 2.3874
-0.4316 -8.4306 2.3874
-0.1287 -8.4407 2.3874
0.1744 -8.4399 2.3874
0.4772 -8.4283 2.3874
0.7794 -8.4058 2.3874
1.0807 -8.3724 2.3874
1.3805 -8.3282 2.3874
1.6785 -8.2733 2.3874
1.9744 -8.2077 2.3874
2.2678 -8.1315 2.3874
2.5582 -8.0448 2.3874
2.8453 -7.9478 2.3874
3.1287 -7.8405 2.3874
3.4081 -7.7230 2.3874
3.6831 -7.5957 2.3874
3.9533 -7.4585 2.3874
4.2185 -7.3117 2.3874
4.4782 -7.1554 2.3874
4.7321 -6.9900 2.3874
4.9798 -6.8155 2.3874
5.2212 -6.6323 2.3874
5.4558 -6.4404 2.3874
5.6833 -6.2404 2.3874
5.9036 -6.0322 2.3874
6.1162 -5.8163 2.3874
6.3209 -5.5929 2.3874
6.5174 -5.3622 2.3874
6.7055 -5.1247 2.3874
6.8850 -4.8806 2.3874
7.0555 -4.6302 2.3874
7.2170 -4.3738 2.3874
7.3692 -4.1118 2.3874
7.5118 -3.8445 2.3874
7.6447 -3.5723 2.3874
7.7678 -3.2954 2.3874
7.8808 -3.0144 2.3874
7.9837 -2.7295 2.3874
8.0763 -2.4410 2.3874
8.1584 -2.1495 2.3874
8.2301 -1.8552 2.3874
8.2911 -1.5585 2.3874
8.3414 -1.2598 2.3874
8.3810 -0.9595 2.3874
8.4097 -0.6580 2.3874
8.4276 -0.3557 2.3874
8.4346 -0.0529 2.3874
8.4308 0.2498 2.3874
8.4161 0.5523 2.3874
8.3905 0.8541 2.3874
8.3542 1.1547 2.3874
8.3070 1.4538 2.3874
8.2492 1.7510 2.3874
8.1807 2.0459 2.3874
8.1017 2.3382 2.3874
8.0123 2.6274 2.3874
7.9125 2.9133 2.3874
7.8025 3.1953 2.3874
7.6825 3.4732 2.3874
7.5526 3.7466 2.3874
7.4130 4.0152 2.3874
7.2638 4.2786 2.3874
7.1053 4.5364 2.3874
6.9376 4.7884 2.3874
6.7610 5.0342 2.3874
6.5758 5.2735 2.3874
6.3820 5.5060 2.3874
6.1800 5.7314 2.3874
5.9701 5.9494 2.3874
5.7525 6.1597 2.3874
5.5275 6.3620 2.3874
5.2954 6.5562 2.3874
5.0565 6.7419 2.3874
4.8111 6.9189 2.3874
4.5595 7.0870 2.3874
4.3020 7.2459 2.3874
4.0390 7.3955 2.3874
3.7708 7.5356 2.3874
3.4978 7.6659 2.3874
3.2202 7.7864 2.3874
2.9386 7.8968 2.3874
2.6531 7.9971 2.3874
2.3643 8.0871 2.3874
0.8247 3.2501 0.9501
0.7076 3.2780 0.9503
0.5896 3.3017 0.9504
0.4707 3.3211 0.9505
0.3512 3.3362 0.9506
0.2312 3.3470 0.9507
0.1109 3.3534 0.9508
-0.0095 3.3554 0.9508
-0.1300 3.3530 0.9509
-0.2503 3.3463 0.9509
-0.3703 3.3353 0.9510
-0.4898 3.3198 0.9510
-0.6086 3.3001 0.9510
-0.7267 3.2761 0.9509
-0.8438 3.2478 0.9509
-2.4099 8.0727 2.3874
-2.6982 7.9810 2.3874
-2.9830 7.8791 2.3874
-3.2640 7.7669 2.3874
-3.5407 7.6448 2.3874
-3.8129 7.5128 2.3874
-4.0802 7.3712 2.3874
-4.3423 7.2201 2.3874
-4.5988 7.0596 2.3874
-4.8493 6.8901 2.3874
-5.0936 6.7116 2.3874
-5.3314 6.5246 2.3874
-5.5623 6.3291 2.3874
-5.7860 6.1254 2.3874
-6.0023 5.9139 2.3874
-6.2109 5.6947 2.3874
-6.4115 5.4682 2.3874
-6.6038 5.2346 2.3874
-6.7876 4.9943 2.3874
-6.9627 4.7475 2.3874
-7.1289 4.4946 2.3874
-7.2858 4.2359 2.3874
-7.4334 3.9717 2.3874
-7.5714 3.7024 2.3874
-7.6997 3.4283 2.3874
-7.8180 3.1498 2.3874
-7.9263 2.8672 2.3874
-8.0244 2.5809 2.3874
-8.1122 2.2912 2.3874
-8.1895 1.9986 2.3874
-8.2562 1.7033 2.3874
-8.3123 1.4059 2.3874
-8.3577 1.1066 2.3874
-8.3923 0.8059 2.3874
-8.4162 0.5041 2.3874
-8.4291 0.2017 2.3874
-8.4312 -0.1010 2.3874
-8.4225 -0.4037 2.3874
-8.4029 -0.7058 2.3874
-8.3724 -1.0070 2.3874
-8.3312 -1.3070 2.3874
-8.2792 -1.6052 2.3874
-8.2165 -1.9015 2.3874
-8.1433 -2.1953 2.3874
-8.0595 -2.4863 2.3874
-7.9653 -2.7741 2.3874
-7.8609 -3.0584 2.3874
-7.7463 -3.3387 2.3874
-7.6218 -3.6147 2.3874
-7.4873 -3.8862 2.3874
-7.3433 -4.1526 2.3874
-7.1897 -4.4137 2.3874
-7.0269 -4.6691 2.3874
-6.8550 -4.9184 2.3874
-6.6742 -5.1615 2.3874
-6.4848 -5.3979 2.3874
-6.2871 -5.6274 2.3874
-6.0812 -5.8497 2.3874
-5.8675 -6.0644 2.3874
-5.6462 -6.2713 2.3874
-5.4176 -6.4701 2.3874
-5.1820 -6.6606 2.3874
-4.9397 -6.8425 2.3874
-4.6910 -7.0156 2.3874
-4.4363 -7.1796 2.3874
-4.1758 -7.3344 2.3874
-3.9099 -7.4798 2.3874
-3.6390 -7.6154 2.3874
-3.3633 -7.7413 2.3874
-3.0834 -7.8572 2.3874
-2.7994 -7.9630 2.3874
-2.5118 -8.0585 2.3874
-2.2209 -8.1436 2.3874
-1.9272 -8.2182 2.3874
-1.6310 -8.2822 2.3874
-1.3327 -8.3355 2.3874
-1.0326 -8.3781 2.3874
-0.7312 -8.4098 2.3874
-0.4289 -8.4307 2.3874
-0.1260 -8.4407 2.3874
0.1771 -8.4399 2.3874
0.4799 -8.4281 2.3874
0.7821 -8.4055 2.3874
1.0834 -8.3720 2.3874
1.3832 -8.3277 2.3874
1.6812 -8.2727 2.3874
1.9771 -8.2070 2.3874
2.2704 -8.1308 2.3874
2.5608 -8.0440 2.3874
2.8478 -7.9468 2.3874
3.1312 -7.8394 2.3874
3.4106 -7.7219 2.3874
3.6855 -7.5945 2.3874
3.9557 -7.4572 2.3874
4.2208 -7.3103 2.3874
4.4805 -7.1540 2.3874
4.7343 -6.9885 2.3874
4.9820 -6.8139 2.3874
5.2233 -6.6306 2.3874
5.4579 -6.4387 2.3874
5.6854 -6.2384 2.3874
5.9055 -6.0303 2.3874
6.1180 -5.8143 2.3874
6.3227 -5.5908 2.3874
6.5191 -5.3601 2.3874
6.7072 -5.1225 2.3874
6.8866 -4.8784 2.3874
7.0570 -4.6279 2.3874
7.2184 -4.3715 2.3874
7.3705 -4.1094 2.3874
7.5130 -3.8421 2.3874
7.6459 -3.5698 2.3874
7.7689 -3.2929 2.3874
7.8818 -3.0119 2.3874
7.9846 -2.7269 2.3874
8.0771 -2.4384 2.3874
8.1591 -2.1468 2.3874
8.2307 -1.8525 2.3874
8.2916 -1.5558 2.3874
8.3418 -1.2571 2.3874
8.3813 -0.9568 2.3874
8.4099 -0.6553 2.3874
8.4277 -0.3530 2.3874
8.4347 -0.0502 2.3874
8.4307 0.2526 2.3874
8.4159 0.5550 2.3874
8.3903 0.8568 2.3874
8.3538 1.1573 2.3874
8.3066 1.4564 2.3874
8.2486 1.7536 2.3874
8.1801 2.0485 2.3874
8.1010 2.3408 2.3874
8.0114 2.6300 2.3874
7.9116 2.9158 2.3874
7.8015 3.1978 2.3874
7.6814 3.4757 2.3874
7.5514 3.7490 2.3874
7.4117 4.0176 2.3874
7.2624 4.2809 2.3874
7.1038 4.5387 2.3874
6.9361 4.7906 2.3874
6.7594 5.0364 2.3874
6.5741 5.2756 2.3874
6.3802 5.5081 2.3874
6.1782 5.7334 2.3874
5.9682 5.9513 2.3874
5.7505 6.1615 2.3874
5.5255 6.3638 2.3874
5.2933 6.5579 2.3874
5.0543 6.7435 2.3874
4.8088 6.9204 2.3874
4.5572 7.0884 2.3874
4.2997 7.2473 2.3874
4.0366 7.3968 2.3874
3.7684 7.5368 2.3874
3.4953 7.6671 2.3874
3.2177 7.7874 2.3874
2.9360 7.8978 2.3874
2.6506 7.9979 2.3874
2.3617 8.0878 2.3874
0.8237 3.2503 0.9501
0.7066 3.2783 0.9503
0.5885 3.3019 0.9504
0.4696 3.3213 0.9505
0.3501 3.3363 0.9506
0.2302 3.3471 0.9507
0.1099 3.3534 0.9508
-0.0106 3.3554 0.9508
-0.1311 3.3530 0.9509
-0.2514 3.3463 0.9509
-0.3713 3.3351 0.9510
-0.4908 3.3197 0.9510
-0.6097 3.2999 0.9510
-0.7278 3.2758 0.9509
-0.8449 3.2475 0.9509
-2.4125 8.0719 2.3874
-2.7008 7.9801 2.3874
-2.9855 7.8781 2.3874
-3.2665 7.7659 2.3874
-3.5432 7.6437 2.3874
-3.8153 7.5116 2.3874
-4.0826 7.3699 2.3874
-4.3446 7.2187 2.3874
-4.6010 7.0581 2.3874
-4.8515 6.8885 2.3874
-5.0958 6.7100 2.3874
-5.3335 6.5228 2.3874
-5.5643 6.3273 2.3874
-5.7880 6.1236 2.3874
-6.0042 5.9119 2.3874
-6.2127 5.6927 2.3874
-6.4132 5.4661 2.3874
-6.6055 5.2325 2.3874
-6.7893 4.9921 2.3874
-6.9643 4.7453 2.3874
-7.1303 4.4923 2.3874
-7.2872 4.2336 2.3874
-7.4347 3.9693 2.3874
-7.5726 3.7000 2.3874
-7.7008 3.4258 2.3874
-7.8191 3.1473 2.3874
-7.9273 2.8646 2.3874
-8.0252 2.5783 2.3874
-8.1129 2.2886 2.3874
-8.1901 1.9959 2.3874
-8.2568 1.7007 2.3874
-8.3128 1.4032 2.3874
-8.3581 1.1039 2.3874
-8.3926 0.8032 2.3874
-8.4163 0.5015 2.3874
-8.4292 0.1990 2.3874
-8.4312 -0.1037 2.3874
-8.4223 -0.4063 2.3874
-8.4026 -0.7085 2.3874
-8.3721 -1.0097 2.3874
-8.3308 -1.3096 2.3874
-8.2787 -1.6079 2.3874
-8.2159 -1.9041 2.3874
-8.1426 -2.1979 2.3874
-8.0587 -2.4889 2.3874
-7.9644 -2.7767 2.3874
-7.8599 -3.0609 2.3874
-7.7452 -3.3412 2.3874
-7.6206 -3.6172 2.3874
-6.7049 3.9010 2.3874
-6.8408 3.6579 2.3874
-6.9679 3.4100 2.3874
-7.0860 3.1577 2.3874
-7.1950 2.9014 2.3874
-7.2947 2.6413 2.3874
-7.3851 2.3778 2.3874
-7.4659 2.1112 2.3874
-7.5371 1.8419 2.3874
-7.5986 1.5702 2.3874
-7.6503 1.2964 2.3874
-7.6922 1.0210 2.3874
-7.7242 0.7442 2.3874
-7.7461 0.4665 2.3874
-7.7581 0.1881 2.3874
-7.7602 -0.0906 2.3874
-7.7522 -0.3691 2.3874
-7.7342 -0.6471 2.3874
-7.7062 -0.9244 2.3874
-7.6683 -1.2005 2.3874
-7.6206 -1.4751 2.3874
-7.5630 -1.7477 2.3874
-7.4956 -2.0182 2.3874
-7.4186 -2.2860 2.3874
-7.3320 -2.5509 2.3874
-7.2359 -2.8126 2.3874
-7.1305 -3.0706 2.3874
-7.0159 -3.3247 2.3874
-6.8923 -3.5745 2.3874
-6.7597 -3.8198 2.3874
-6.6185 -4.0601 2.3874
-6.4687 -4.2952 2.3874
-6.3105 -4.5248 2.3874
-6.1442 -4.7485 2.3874
-5.9700 -4.9662 2.3874
-5.7880 -5.1774 2.3874
-5.5986 -5.3820 2.3874
-5.4020 -5.5797 2.3874
-5.1983 -5.7702 2.3874
-4.9880 -5.9532 2.3874
-4.7712 -6.1286 2.3874
-4.5482 -6.2960 2.3874
-4.3194 -6.4554 2.3874
-4.0850 -6.6064 2.3874
-3.8453 -6.7490 2.3874
-3.6006 -6.8828 2.3874
-3.3513 -7.0077 2.3874
-3.0977 -7.1237 2.3874
-2.8400 -7.2304 2.3874
-2.5787 -7.3278 2.3874
-2.3141 -7.4158 2.3874
-2.0464 -7.4942 2.3874
-1.7761 -7.5629 2.3874
-1.5035 -7.6219 2.3874
-1.2290 -7.6710 2.3874
-0.9528 -7.7103 2.3874
-0.6754 -7.7396 2.3874
-0.3972 -7.7589 2.3874
-0.1184 -7.7682 2.3874
0.1605 -7.7675 2.3874
0.4392 -7.7568 2.3874
0.7174 -7.7361 2.3874
0.9946 -7.7053 2.3874
1.2705 -7.6647 2.3874
1.5448 -7.6141 2.3874
1.8171 -7.5538 2.3874
2.0871 -7.4837 2.3874
2.3544 -7.4039 2.3874
2.6186 -7.3146 2.3874
2.8795 -7.2158 2.3874
3.1366 -7.1078 2.3874
3.3897 -6.9905 2.3874
3.6384 -6.8643 2.3874
3.8824 -6.7292 2.3874
4.1214 -6.5854 2.3874
4.3550 -6.4331 2.3874
4.5831 -6.2726 2.3874
4.8052 -6.1039 2.3874
5.0212 -5.9274 2.3874
5.2306 -5.7433 2.3874
5.4333 -5.5517 2.3874
5.6289 -5.3530 2.3874
5.8173 -5.1474 2.3874
5.9982 -4.9351 2.3874
6.1714 -4.7165 2.3874
6.3366 -4.4918 2.3874
6.4935 -4.2614 2.3874
6.6422 -4.0254 2.3874
6.7822 -3.7843 2.3874
6.9135 -3.5383 2.3874
7.0359 -3.2878 2.3874
7.1492 -3.0330 2.3874
7.2532 -2.7744 2.3874
7.3479 -2.5121 2.3874
7.4331 -2.2467 2.3874
7.5087 -1.9784 2.3874
7.5747 -1.7074 2.3874
7.6309 -1.4344 2.3874
7.6772 -1.1596 2.3874
7.7136 -0.8832 2.3874
7.7401 -0.6057 2.3874
7.7566 -0.3274 2.3874
7.7631 -0.0488 2.3874
7.7596 0.2299 2.3874
7.7461 0.5083 2.3874
7.7226 0.7860 2.3874
7.6891 1.0627 2.3874
7.6457 1.3379 2.3874
7.5925 1.6115 2.3874
7.5295 1.8830 2.3874
7.4568 2.1520 2.3874
7.3745 2.4183 2.3874
7.2827 2.6813 2.3874
7.1815 2.9409 2.3874
7.0711 3.1967 2.3874
6.9515 3.4484 2.3874
6.8230 3.6956 2.3874
6.6858 3.9380 2.3874
6.5399 4.1754 2.3874
6.3856 4.4073 2.3874
6.2230 4.6336 2.3874
6.0525 4.8538 2.3874
5.8742 5.0678 2.3874
5.6883 5.2753 2.3874
5.4951 5.4759 2.3874
5.2948 5.6695 2.3874
5.0877 5.8558 2.3874
4.8741 6.0345 2.3874
4.6542 6.2055 2.3874
4.4283 6.3684 2.3874
4.1967 6.5231 2.3874
3.9598 6.6694 2.3874
3.7177 6.8071 2.3874
3.4708 6.9361 2.3874
3.2195 7.0560 2.3874
2.9641 7.1670 2.3874
2.7048 7.2686 2.3874
2.4421 7.3609 2.3874
0.8652 2.9595 0.9492
0.7585 2.9891 0.9493
0.6508 3.0148 0.9495
0.5422 3.0365 0.9496
0.4329 3.0543 0.9497
0.3230 3.0682 0.9498
0.2127 3.0781 0.9499
0.1020 3.0839 0.9499
-0.0088 3.0858 0.9500
-0.1195 3.0836 0.9501
-0.2302 3.0774 0.9501
-0.3405 3.0672 0.9501
-0.4504 3.0531 0.9501
-0.5597 3.0349 0.9501
-0.6683 3.0128 0.9501
-0.7760 2.9868 0.9501
-0.8827 2.9569 0.9500
-2.4836 7.3462 2.3874
-2.7457 7.2523 2.3874
-3.0043 7.1491 2.3874
-3.2591 7.0367 2.3874
-3.5096 6.9152 2.3874
-3.7557 6.7848 2.3874
-3.9969 6.6457 2.3874
-4.2329 6.4980 2.3874
-4.4636 6.3419 2.3874
-4.6884 6.1777 2.3874
-4.9073 6.0055 2.3874
-5.1198 5.8256 2.3874
-5.3257 5.6381 2.3874
-5.5248 5.4434 2.3874
-5.7168 5.2416 2.3874
-5.9014 5.0331 2.3874
-6.0784 4.8181 2.3874
-6.2476 4.5969 2.3874
-6.4088 4.3697 2.3874
-6.5617 4.1370 2.3874
-6.7061 3.8988 2.3874
-6.8420 3.6556 2.3874
-6.9690 3.4078 2.3874
-7.0870 3.1555 2.3874
-7.1960 2.8991 2.3874
-7.2956 2.6390 2.3874
-7.3859 2.3754 2.3874
-7.4666 2.1088 2.3874
-7.5377 1.8394 2.3874
-7.5991 1.5677 2.3874
-7.6508 1.2939 2.3874
-7.6925 1.0185 2.3874
-7.7244 0.7417 2.3874
-7.7463 0.4640 2.3874
-7.7582 0.1856 2.3874
-7.7601 -0.0930 2.3874
-7.7521 -0.3716 2.3874
-7.7340 -0.6496 2.3874
-7.7059 -0.9269 2.3874
-7.6680 -1.2030 2.3874
-7.6201 -1.4775 2.3874
-7.5624 -1.7502 2.3874
-7.4949 -2.0206 2.3874
-7.4178 -2.2884 2.3874
-7.3311 -2.5533 2.3874
-7.2350 -2.8149 2.3874
-7.1295 -3.0729 2.3874
-7.0149 -3.3270 2.3874
-6.8911 -3.5768 2.3874
-6.7585 -3.8220 2.3874
-6.6172 -4.0622 2.3874
-6.4673 -4.2973 2.3874
-6.3091 -4.5268 2.3874
-6.1427 -4.7505 2.3874
-5.9684 -4.9681 2.3874
-5.7864 -5.1793 2.3874
-5.5969 -5.3838 2.3874
-5.4002 -5.5814 2.3874
-5.1965 -5.7718 2.3874
-4.9861 -5.9548 2.3874
-4.7692 -6.1301 2.3874
-4.5462 -6.2975 2.3874
-4.3173 -6.4568 2.3874
-4.0829 -6.6078 2.3874
-3.8431 -6.7502 2.3874
-3.5984 -6.8840 2.3874
-3.3491 -7.0088 2.3874
-3.0954 -7.1247 2.3874
-2.8377 -7.2313 2.3874
-2.5764 -7.3286 2.3874
-2.3117 -7.4165 2.3874
-2.0440 -7.4948 2.3874
-1.7737 -7.5635 2.3874
-1.5010 -7.6224 2.3874
-1.2265 -7.6714 2.3874
-0.9503 -7.7106 2.3874
-0.6730 -7.7398 2.3874
-0.3947 -7.7590 2.3874
-0.1159 -7.7683 2.3874
0.1630 -7.7675 2.3874
0.4417 -7.7567 2.3874
0.7198 -7.7358 2.3874
0.9970 -7.7050 2.3874
1.2730 -7.6643 2.3874
1.5473 -7.6136 2.3874
1.8196 -7.5532 2.3874
2.0895 -7.4830 2.3874
2.3567 -7.4031 2.3874
2.6209 -7.3137 2.3874
2.8818 -7.2149 2.3874
3.1389 -7.1067 2.3874
3.3919 -6.9894 2.3874
3.6406 -6.8631 2.3874
3.8845 -6.7279 2.3874
4.1235 -6.5841 2.3874
4.3571 -6.4317 2.3874
4.5851 -6.2711 2.3874
4.8072 -6.1024 2.3874
5.0231 -5.9258 2.3874
5.2324 -5.7416 2.3874
5.4351 -5.5499 2.3874
5.6307 -5.3512 2.3874
5.8190 -5.1455 2.3874
5.9998 -4.9332 2.3874
6.1729 -4.7145 2.3874
6.3380 -4.4898 2.3874
6.4949 -4.2593 2.3874
6.6434 -4.0233 2.3874
6.7834 -3.7821 2.3874
6.9146 -3.5361 2.3874
7.0369 -3.2855 2.3874
7.1501 -3.0307 2.3874
7.2541 -2.7720 2.3874
7.3487 -2.5098 2.3874
7.4338 -2.2443 2.3874
7.5094 -1.9760 2.3874
7.5752 -1.7050 2.3874
7.6313 -1.4320 2.3874
7.6776 -1.1571 2.3874
7.7139 -0.8807 2.3874
7.7403 -0.6032 2.3874
7.7567 -0.3249 2.3874
7.7631 -0.0463 2.3874
7.7595 0.2324 2.3874
7.7459 0.5108 2.3874
7.7223 0.7885 2.3874
7.6888 1.0652 2.3874
7.6453 1.3404 2.3874
7.5920 1.6140 2.3874
7.5289 1.8854 2.3874
7.4561 2.1544 2.3874
7.3737 2.4206 2.3874
7.2818 2.6836 2.3874
7.1806 2.9432 2.3874
7.0701 3.1990 2.3874
6.9504 3.4506 2.3874
6.8218 3.6978 2.3874
6.6845 3.9402 2.3874
6.5385 4.1775 2.3874
6.3842 4.4094 2.3874
6.2216 4.6356 2.3874
6.0509 4.8558 2.3874
5.8725 5.0697 2.3874
5.6866 5.2771 2.3874
5.4933 5.4777 2.3874
5.2930 5.6712 2.3874
5.0858 5.8574 2.3874
4.8721 6.0361 2.3874
4.6522 6.2070 2.3874
4.4263 6.3698 2.3874
4.1946 6.5245 2.3874
3.9576 6.6707 2.3874
3.7155 6.8083 2.3874
3.4686 6.9372 2.3874
3.2173 7.0571 2.3874
2.9618 7.1679 2.3874
2.7025 7.2695 2.3874
2.4397 7.3617 2.3874
0.8643 2.9598 0.9492
0.7576 2.9893 0.9493
0.6499 3.0150 0.9495
0.5413 3.0367 0.9496
0.4319 3.0545 0.9497
0.3220 3.0683 0.9498
0.2117 3.0781 0.9499
0.1010 3.0840 0.9499
-0.0097 3.0858 0.9500
-0.1205 3.0836 0.9501
-0.2312 3.0773 0.9501
-0.3415 3.0671 0.9501
-0.4514 3.0529 0.9501
-0.5607 3.0347 0.9501
-0.6693 3.0126 0.9501
-0.7770 2.9865 0.9501
-0.8837 2.9566 0.9500
-2.4859 7.3454 2.3874
-2.7481 7.2514 2.3874
-3.0066 7.1481 2.3874
-3.2614 7.0356 2.3874
-3.5119 6.9141 2.3874
-3.7579 6.7836 2.3874
-3.9990 6.6444 2.3874
-4.2350 6.4966 2.3874
-4.4656 6.3405 2.3874
-4.6904 6.1762 2.3874
-4.9092 6.0039 2.3874
-5.1217 5.8239 2.3874
-5.3276 5.6364 2.3874
-5.5266 5.4416 2.3874
-5.7185 5.2398 2.3874
-5.9030 5.0312 2.3874
-6.0800 4.8162 2.3874
-6.2491 4.5949 2.3874
-6.4102 4.3677 2.3874
-6.5630 4.1349 2.3874
-6.7074 3.8967 2.3874
-6.8431 3.6535 2.3874
-6.9701 3.4056 2.3874
-7.0881 3.1532 2.3874
-7.1969 2.8968 2.3874
-7.2965 2.6366 2.3874
-7.3866 2.3731 2.3874
-7.4673 2.1064 2.3874
-7.5383 1.8370 2.3874
-7.5996 1.5653 2.3874
-7.6512 1.2915 2.3874
-7.6929 1.0160 2.3874
-7.7246 0.7392 2.3874
-7.7464 0.4615 2.3874
-7.7583 0.1831 2.3874
-7.7601 -0.0955 2.3874
-7.7519 -0.3741 2.3874
-7.7338 -0.6521 2.3874
-7.7056 -0.9294 2.3874
-7.6676 -1.2054 2.3874
-7.6196 -1.4799 2.3874
-7.5618 -1.7526 2.3874
-7.4943 -2.0230 2.3874
-7.4171 -2.2908 2.3874
-7.3303 -2.5556 2.3874
-7.2341 -2.8172 2.3874
-7.1286 -3.0752 2.3874
-7.0138 -3.3292 2.3874
-6.2044 3.6097 2.3874
-6.3301 3.3847 2.3874
-6.4477 3.1554 2.3874
-6.5570 2.9220 2.3874
-6.6578 2.6847 2.3874
-6.7501 2.4441 2.3874
-6.8337 2.2002 2.3874
-6.9085 1.9535 2.3874
-6.9744 1.7043 2.3874
-7.0313 1.4529 2.3874
-7.0791 1.1996 2.3874
-7.1178 0.9447 2.3874
-7.1474 0.6886 2.3874
-7.1677 0.4316 2.3874
-7.1788 0.1740 2.3874
-7.1806 -0.0838 2.3874
-7.1732 -0.3416 2.3874
-7.1566 -0.5989 2.3874
-7.1307 -0.8554 2.3874
-7.0956 -1.1109 2.3874
-7.0514 -1.3649 2.3874
-6.9981 -1.6172 2.3874
-6.9357 -1.8675 2.3874
-6.8644 -2.1153 2.3874
-6.7843 -2.3604 2.3874
-6.6954 -2.6025 2.3874
-6.5978 -2.8413 2.3874
-6.4918 -3.0764 2.3874
-6.3774 -3.3075 2.3874
-6.2547 -3.5345 2.3874
-6.1240 -3.7568 2.3874
-5.9854 -3.9743 2.3874
-5.8390 -4.1868 2.3874
-5.6851 -4.3938 2.3874
-5.5239 -4.5952 2.3874
-5.3555 -4.7906 2.3874
-5.1802 -4.9799 2.3874
-4.9983 -5.1628 2.3874
-4.8099 -5.3390 2.3874
-4.6152 -5.5084 2.3874
-4.4146 -5.6706 2.3874
-4.2083 -5.8256 2.3874
-3.9966 -5.9730 2.3874
-3.7797 -6.1128 2.3874
-3.5579 -6.2446 2.3874
-3.3315 -6.3684 2.3874
-3.1009 -6.4841 2.3874
-2.8662 -6.5913 2.3874
-2.6278 -6.6901 2.3874
-2.3860 -6.7802 2.3874
-2.1411 -6.8616 2.3874
-1.8934 -6.9341 2.3874
-1.6433 -6.9977 2.3874
-1.3911 -7.0522 2.3874
-1.1371 -7.0977 2.3874
-0.8816 -7.1340 2.3874
-0.6249 -7.1611 2.3874
-0.3675 -7.1790 2.3874
-0.1096 -7.1876 2.3874
0.1485 -7.1870 2.3874
0.4064 -7.1770 2.3874
0.6637 -7.1578 2.3874
0.9202 -7.1294 2.3874
1.1755 -7.0918 2.3874
1.4294 -7.0450 2.3874
1.6813 -6.9892 2.3874
1.9311 -6.9243 2.3874
2.1784 -6.8505 2.3874
2.4229 -6.7679 2.3874
2.6642 -6.6765 2.3874
2.9021 -6.5765 2.3874
3.1363 -6.4681 2.3874
3.3664 -6.3512 2.3874
3.5922 -6.2262 2.3874
3.8133 -6.0932 2.3874
4.0295 -5.9523 2.3874
4.2406 -5.8038 2.3874
4.4461 -5.6478 2.3874
4.6459 -5.4844 2.3874
4.8397 -5.3141 2.3874
5.0272 -5.1368 2.3874
5.2083 -4.9530 2.3874
5.3826 -4.7627 2.3874
5.5500 -4.5663 2.3874
5.7102 -4.3641 2.3874
5.8630 -4.1562 2.3874
6.0083 -3.9430 2.3874
6.1458 -3.7247 2.3874
6.2754 -3.5016 2.3874
6.3969 -3.2740 2.3874
6.5101 -3.0422 2.3874
6.6150 -2.8064 2.3874
6.7112 -2.5671 2.3874
6.7989 -2.3245 2.3874
6.8778 -2.0789 2.3874
6.9477 -1.8306 2.3874
7.0088 -1.5800 2.3874
7.0608 -1.3273 2.3874
7.1036 -1.0730 2.3874
7.1374 -0.8173 2.3874
7.1619 -0.5605 2.3874
7.1772 -0.3030 2.3874
7.1832 -0.0452 2.3874
7.1800 0.2127 2.3874
7.1675 0.4703 2.3874
7.1457 0.7272 2.3874
7.1148 0.9833 2.3874
7.0747 1.2380 2.3874
7.0255 1.4911 2.3874
6.9672 1.7423 2.3874
6.8999 1.9912 2.3874
6.8238 2.2376 2.3874
6.7389 2.4810 2.3874
6.6452 2.7213 2.3874
6.5431 2.9580 2.3874
6.4325 3.1908 2.3874
6.3136 3.4196 2.3874
6.1865 3.6439 2.3874
6.0516 3.8636 2.3874
5.9088 4.0782 2.3874
5.7584 4.2876 2.3874
5.6006 4.4914 2.3874
5.4356 4.6894 2.3874
5.2636 4.8814 2.3874
5.0849 5.0671 2.3874
4.8995 5.2462 2.3874
4.7079 5.4186 2.3874
4.5103 5.5840 2.3874
4.3068 5.7422 2.3874
4.0978 5.8930 2.3874
3.8835 6.0361 2.3874
3.6642 6.1715 2.3874
3.4402 6.2990 2.3874
3.2118 6.4183 2.3874
2.9792 6.5293 2.3874
2.7429 6.6320 2.3874
2.5030 6.7261 2.3874
0.8977 2.7058 0.9484
0.8001 2.7367 0.9485
0.7014 2.7640 0.9487
0.6018 2.7877 0.9488
0.5014 2.8078 0.9489
0.4003 2.8243 0.9490
0.2987 2.8371 0.9491
0.1966 2.8462 0.9492
0.0943 2.8516 0.9492
-0.0081 2.8533 0.9493
-0.1105 2.8513 0.9493
-0.2128 2.8455 0.9494
-0.3149 2.8361 0.9494
-0.4165 2.8230 0.9494
-0.5176 2.8062 0.9494
-0.6180 2.7858 0.9494
-0.7176 2.7617 0.9493
-0.8162 2.7341 0.9493
-2.2982 6.7979 2.3874
-2.5408 6.7110 2.3874
-2.7801 6.6155 2.3874
-3.0158 6.5115 2.3874
-3.2477 6.3991 2.3874
-3.4754 6.2784 2.3874
-3.6986 6.1497 2.3874
-3.9170 6.0130 2.3874
-4.1304 5.8686 2.3874
-4.3385 5.7166 2.3874
-4.5410 5.5572 2.3874
-4.7377 5.3907 2.3874
-4.9282 5.2172 2.3874
-5.1124 5.0370 2.3874
-5.2901 4.8503 2.3874
-5.4609 4.6574 2.3874
-5.6247 4.4584 2.3874
-5.7813 4.2537 2.3874
-5.9304 4.0435 2.3874
-6.0719 3.8281 2.3874
-6.2055 3.6077 2.3874
-6.3312 3.3827 2.3874
-6.4487 3.1533 2.3874
-6.5579 2.9199 2.3874
-6.6587 2.6826 2.3874
-6.7509 2.4419 2.3874
-6.8344 2.1980 2.3874
-6.9091 1.9513 2.3874
-6.9749 1.7021 2.3874
-7.0317 1.4506 2.3874
-7.0795 1.1973 2.3874
-7.1181 0.9424 2.3874
-7.1476 0.6863 2.3874
-7.1678 0.4293 2.3874
-7.1788 0.1717 2.3874
-7.1806 -0.0861 2.3874
-7.1731 -0.3439 2.3874
-7.1564 -0.6012 2.3874
-7.1304 -0.8577 2.3874
-7.0952 -1.1132 2.3874
-7.0509 -1.3672 2.3874
-6.9975 -1.6195 2.3874
-6.9351 -1.8697 2.3874
-6.8637 -2.1175 2.3874
-6.7835 -2.3626 2.3874
-6.6945 -2.6047 2.3874
-6.5969 -2.8434 2.3874
-6.4908 -3.0785 2.3874
-6.3763 -3.3096 2.3874
-6.2536 -3.5365 2.3874
-6.1228 -3.7588 2.3874
-5.9841 -3.9763 2.3874
-5.8377 -4.1886 2.3874
-5.6837 -4.3956 2.3874
-5.5224 -4.5969 2.3874
-5.3540 -4.7923 2.3874
-5.1787 -4.9816 2.3874
-4.9966 -5.1644 2.3874
-4.8082 -5.3406 2.3874
-4.6135 -5.5098 2.3874
-4.4128 -5.6720 2.3874
-4.2065 -5.8269 2.3874
-3.9947 -5.9743 2.3874
-3.7777 -6.1140 2.3874
-3.5559 -6.2458 2.3874
-3.3295 -6.3695 2.3874
-3.0988 -6.4850 2.3874
-2.8640 -6.5922 2.3874
-2.6256 -6.6909 2.3874
-2.3838 -6.7809 2.3874
-2.1389 -6.8622 2.3874
-1.8912 -6.9347 2.3874
-1.6411 -6.9982 2.3874
-1.3888 -7.0527 2.3874
-1.1348 -7.0981 2.3874
-0.8793 -7.1343 2.3874
-0.6226 -7.1613 2.3874
-0.3652 -7.1791 2.3874
-0.1073 -7.1877 2.3874
0.1508 -7.1869 2.3874
0.4087 -7.1769 2.3874
0.6660 -7.1576 2.3874
0.9225 -7.1291 2.3874
1.1778 -7.0914 2.3874
1.4316 -7.0446 2.3874
1.6835 -6.9886 2.3874
1.9333 -6.9237 2.3874
2.1806 -6.8498 2.3874
2.4251 -6.7671 2.3874
2.6664 -6.6756 2.3874
2.9043 -6.5756 2.3874
3.1384 -6.4670 2.3874
3.3685 -6.3502 2.3874
3.5942 -6.2251 2.3874
3.8153 -6.0920 2.3874
4.0315 -5.9511 2.3874
4.2424 -5.8024 2.3874
4.4479 -5.6463 2.3874
4.6476 -5.4829 2.3874
4.8414 -5.3125 2.3874
5.0289 -5.1352 2.3874
5.2099 -4.9513 2.3874
5.3841 -4.7610 2.3874
5.5514 -4.5646 2.3874
5.7116 -4.3623 2.3874
5.8643 -4.1543 2.3874
6.0095 -3.9410 2.3874
6.1470 -3.7227 2.3874
6.2765 -3.4996 2.3874
6.3979 -3.2719 2.3874
6.5111 -3.0401 2.3874
6.6159 -2.8043 2.3874
6.7121 -2.5650 2.3874
6.7996 -2.3223 2.3874
6.8784 -2.0767 2.3874
6.9483 -1.8284 2.3874
7.0093 -1.5777 2.3874
7.0612 -1.3251 2.3874
7.1040 -1.0707 2.3874
7.1376 -0.8150 2.3874
7.1621 -0.5582 2.3874
7.1773 -0.3007 2.3874
7.1832 -0.0429 2.3874
7.1799 0.2150 2.3874
7.1673 0.4726 2.3874
7.1455 0.7295 2.3874
7.1145 0.9856 2.3874
7.0743 1.2403 2.3874
7.0250 1.4934 2.3874
6.9666 1.7445 2.3874
6.8993 1.9934 2.3874
6.8231 2.2398 2.3874
6.7381 2.4832 2.3874
6.6444 2.7234 2.3874
6.5421 2.9600 2.3874
6.4314 3.1929 2.3874
6.3125 3.4216 2.3874
6.1854 3.6459 2.3874
6.0503 3.8655 2.3874
5.9075 4.0801 2.3874
5.7570 4.2894 2.3874
5.5992 4.4932 2.3874
5.4341 4.6912 2.3874
5.2621 4.8831 2.3874
5.0832 5.0687 2.3874
4.8979 5.2478 2.3874
4.7062 5.4201 2.3874
4.5084 5.5855 2.3874
4.3049 5.7436 2.3874
4.0959 5.8943 2.3874
3.8815 6.0374 2.3874
3.6622 6.1727 2.3874
3.4382 6.3001 2.3874
3.2097 6.4193 2.3874
2.9771 6.5303 2.3874
2.7407 6.6328 2.3874
2.5008 6.7269 2.3874
0.8968 2.7061 0.9484
0.7992 2.7370 0.9485
0.7005 2.7642 0.9487
0.6009 2.7879 0.9488
0.5005 2.8080 0.9489
0.3994 2.8244 0.9490
0.2978 2.8372 0.9491
0.1957 2.8462 0.9492
0.0934 2.8516 0.9492
-0.0090 2.8533 0.9493
-0.1114 2.8512 0.9493
-0.2137 2.8455 0.9494
-0.3158 2.8360 0.9494
-0.4174 2.8229 0.9494
-0.5185 2.8061 0.9494
-0.6189 2.7856 0.9494
-0.7184 2.7615 0.9493
-0.8171 2.7338 0.9493
-2.3004 6.7971 2.3874
-2.5430 6.7102 2.3874
-2.7823 6.6146 2.3874
-3.0180 6.5105 2.3874
-3.2498 6.3980 2.3874
-3.4774 6.2773 2.3874
-3.7006 6.1485 2.3874
-3.9189 6.0117 2.3874
-4.1323 5.8672 2.3874
-4.3403 5.7152 2.3874
-4.5428 5.5558 2.3874
-4.7394 5.3892 2.3874
-4.9299 5.2156 2.3874
-5.1141 5.0354 2.3874
-5.2916 4.8486 2.3874
-5.4624 4.6556 2.3874
-5.6261 4.4566 2.3874
-5.7826 4.2519 2.3874
-5.9317 4.0416 2.3874
-6.0731 3.8261 2.3874
-6.2067 3.6057 2.3874
-6.3323 3.3807 2.3874
-6.4497 3.1512 2.3874
-6.5589 2.9177 2.3874
-6.6596 2.6805 2.3874
-6.7517 2.4397 2.3874
-6.8351 2.1958 2.3874
-6.9097 1.9491 2.3874
-6.9755 1.6998 2.3874
-7.0322 1.4484 2.3874
-7.0799 1.1950 2.3874
-7.1184 0.9401 2.3874
-7.1478 0.6840 2.3874
-7.1680 0.4270 2.3874
-7.1789 0.1694 2.3874
-7.1806 -0.0884 2.3874
-7.1730 -0.3462 2.3874
-7.1562 -0.6035 2.3874
-7.1301 -0.8600 2.3874
-7.0949 -1.1154 2.3874
-7.0505 -1.3695 2.3874
-6.9970 -1.6217 2.3874
-6.9345 -1.8719 2.3874
-6.8630 -2.1197 2.3874
-6.7828 -2.3648 2.3874
-6.6937 -2.6068 2.3874
-6.5960 -2.8455 2.3874
-6.4898 -3.0806 2.3874
-5.7673 3.3554 2.3874
-5.8842 3.1463 2.3874
-5.9935 2.9331 2.3874
-6.0951 2.7161 2.3874
-6.1888 2.4956 2.3874
-6.2746 2.2719 2.3874
-6.3523 2.0452 2.3874
-6.4218 1.8159 2.3874
-6.4830 1.5842 2.3874
-6.5359 1.3505 2.3874
-6.5803 1.1150 2.3874
-6.6163 0.8781 2.3874
-6.6438 0.6400 2.3874
-6.6626 0.4011 2.3874
-6.6729 0.1617 2.3874
-6.6746 -0.0780 2.3874
-6.6677 -0.3175 2.3874
-6.6522 -0.5567 2.3874
-6.6282 -0.7952 2.3874
-6.5956 -1.0326 2.3874
-6.5544 -1.2688 2.3874
-6.5049 -1.5033 2.3874
-6.4469 -1.7359 2.3874
-6.3806 -1.9663 2.3874
-6.3061 -2.1941 2.3874
-6.2235 -2.4191 2.3874
-6.1328 -2.6411 2.3874
-6.0342 -2.8596 2.3874
-5.9278 -3.0744 2.3874
-5.8138 -3.2854 2.3874
-5.6923 -3.4920 2.3874
-5.5634 -3.6942 2.3874
-5.4274 -3.8917 2.3874
-5.2843 -4.0841 2.3874
-5.1345 -4.2713 2.3874
-4.9779 -4.4529 2.3874
-4.8150 -4.6289 2.3874
-4.6459 -4.7988 2.3874
-4.4707 -4.9626 2.3874
-4.2898 -5.1200 2.3874
-4.1034 -5.2708 2.3874
-3.9116 -5.4149 2.3874
-3.7148 -5.5519 2.3874
-3.5132 -5.6818 2.3874
-3.3070 -5.8043 2.3874
-3.0966 -5.9194 2.3874
-2.8822 -6.0269 2.3874
-2.6640 -6.1265 2.3874
-2.4424 -6.2183 2.3874
-2.2177 -6.3021 2.3874
-1.9901 -6.3777 2.3874
-1.7599 -6.4451 2.3874
-1.5274 -6.5042 2.3874
-1.2930 -6.5549 2.3874
-1.0569 -6.5972 2.3874
-0.8194 -6.6309 2.3874
-0.5809 -6.6561 2.3874
-0.3416 -6.6727 2.3874
-0.1018 -6.6808 2.3874
0.1380 -6.6801 2.3874
0.3777 -6.6709 2.3874
0.6169 -6.6531 2.3874
0.8553 -6.6267 2.3874
1.0927 -6.5917 2.3874
1.3286 -6.5482 2.3874
1.5628 -6.4963 2.3874
1.7949 -6.4360 2.3874
2.0248 -6.3674 2.3874
2.2520 -6.2906 2.3874
2.4764 -6.2057 2.3874
2.6975 -6.1128 2.3874
2.9151 -6.0119 2.3874
3.1290 -5.9034 2.3874
3.3389 -5.7872 2.3874
3.5444 -5.6636 2.3874
3.7454 -5.5326 2.3874
3.9415 -5.3946 2.3874
4.1326 -5.2495 2.3874
4.3183 -5.0977 2.3874
4.4984 -4.9394 2.3874
4.6727 -4.7746 2.3874
4.8410 -4.6037 2.3874
5.0031 -4.4269 2.3874
5.1586 -4.2444 2.3874
5.3075 -4.0564 2.3874
5.4496 -3.8632 2.3874
5.5847 -3.6650 2.3874
5.7125 -3.4621 2.3874
5.8329 -3.2547 2.3874
5.9459 -3.0432 2.3874
6.0511 -2.8277 2.3874
6.1486 -2.6086 2.3874
6.2381 -2.3862 2.3874
6.3196 -2.1607 2.3874
6.3929 -1.9324 2.3874
6.4580 -1.7016 2.3874
6.5147 -1.4686 2.3874
6.5631 -1.2338 2.3874
6.6029 -0.9974 2.3874
6.6343 -0.7597 2.3874
6.6571 -0.5210 2.3874
6.6713 -0.2817 2.3874
6.6769 -0.0421 2.3874
6.6739 0.1976 2.3874
6.6623 0.4371 2.3874
6.6421 0.6759 2.3874
6.6134 0.9139 2.3874
6.5761 1.1507 2.3874
6.5304 1.3860 2.3874
6.4762 1.6195 2.3874
6.4137 1.8509 2.3874
6.3430 2.0799 2.3874
6.2640 2.3061 2.3874
6.1770 2.5295 2.3874
6.0820 2.7495 2.3874
5.9792 2.9660 2.3874
5.8687 3.1786 2.3874
5.7507 3.3871 2.3874
5.6252 3.5913 2.3874
5.4925 3.7908 2.3874
5.3527 3.9855 2.3874
5.2061 4.1749 2.3874
5.0527 4.3590 2.3874
4.8928 4.5375 2.3874
4.7267 4.7101 2.3874
4.5544 4.8766 2.3874
4.3763 5.0369 2.3874
4.1926 5.1906 2.3874
4.0034 5.3377 2.3874
3.8091 5.4778 2.3874
3.6099 5.6109 2.3874
3.4061 5.7368 2.3874
3.1979 5.8553 2.3874
2.9856 5.9662 2.3874
2.7694 6.0694 2.3874
2.5497 6.1648 2.3874
0.9236 2.4819 0.9477
0.8340 2.5138 0.9478
0.7433 2.5424 0.9480
0.6516 2.5678 0.9481
0.5591 2.5898 0.9482
0.4658 2.6084 0.9483
0.3719 2.6237 0.9484
0.2775 2.6356 0.9485
0.1827 2.6440 0.9485
0.0876 2.6490 0.9486
-0.0075 2.6506 0.9487
-0.1027 2.6487 0.9487
-0.1977 2.6434 0.9487
-0.2925 2.6346 0.9487
-0.3869 2.6224 0.9487
-0.4808 2.6068 0.9487
-0.5741 2.5879 0.9487
-0.6666 2.5655 0.9487
-0.7582 2.5399 0.9487
-0.8489 2.5109 0.9486
-2.3619 6.2384 2.3874
-2.5843 6.1496 2.3874
-2.8035 6.0529 2.3874
-3.0190 5.9484 2.3874
-3.2306 5.8362 2.3874
-3.4381 5.7165 2.3874
-3.6411 5.5895 2.3874
-3.8395 5.4552 2.3874
-4.0330 5.3139 2.3874
-4.2212 5.1658 2.3874
-4.4040 5.0110 2.3874
-4.5811 4.8497 2.3874
-4.7524 4.6822 2.3874
-4.9175 4.5087 2.3874
-5.0763 4.3293 2.3874
-5.2285 4.1444 2.3874
-5.3740 3.9541 2.3874
-5.5127 3.7586 2.3874
-5.6442 3.5584 2.3874
-5.7684 3.3536 2.3874
-5.8852 3.1444 2.3874
-5.9945 2.9311 2.3874
-6.0960 2.7141 2.3874
-6.1896 2.4936 2.3874
-6.2753 2.2698 2.3874
-6.3529 2.0431 2.3874
-6.4224 1.8138 2.3874
-6.4835 1.5821 2.3874
-6.5363 1.3484 2.3874
-6.5807 1.1129 2.3874
-6.6166 0.8760 2.3874
-6.6440 0.6379 2.3874
-6.6628 0.3990 2.3874
-6.6730 0.1595 2.3874
-6.6746 -0.0801 2.3874
-6.6676 -0.3197 2.3874
-6.6521 -0.5588 2.3874
-6.6279 -0.7973 2.3874
-6.5952 -1.0348 2.3874
-6.5540 -1.2709 2.3874
-6.5044 -1.5054 2.3874
-6.4463 -1.7380 2.3874
-6.3800 -1.9683 2.3874
-6.3054 -2.1961 2.3874
-6.2227 -2.4211 2.3874
-6.1319 -2.6430 2.3874
-6.0333 -2.8615 2.3874
-5.9268 -3.0764 2.3874
-5.8128 -3.2872 2.3874
-5.6912 -3.4939 2.3874
-5.5622 -3.6960 2.3874
-5.4261 -3.8934 2.3874
-5.2830 -4.0858 2.3874
-5.1331 -4.2729 2.3874
-4.9765 -4.4545 2.3874
-4.8135 -4.6304 2.3874
-4.6443 -4.8003 2.3874
-4.4691 -4.9641 2.3874
-4.2882 -5.1214 2.3874
-4.1017 -5.2722 2.3874
-3.9099 -5.4161 2.3874
-3.7130 -5.5531 2.3874
-3.5113 -5.6829 2.3874
-3.3052 -5.8054 2.3874
-3.0947 -5.9204 2.3874
-2.8803 -6.0278 2.3874
-2.6621 -6.1274 2.3874
-2.4405 -6.2191 2.3874
-2.2157 -6.3028 2.3874
-1.9880 -6.3784 2.3874
-1.7578 -6.4457 2.3874
-1.5253 -6.5047 2.3874
-1.2909 -6.5554 2.3874
-1.0548 -6.5975 2.3874
-0.8173 -6.6312 2.3874
-0.5787 -6.6563 2.3874
-0.3394 -6.6729 2.3874
-0.0997 -6.6808 2.3874
0.1402 -6.6801 2.3874
0.3799 -6.6708 2.3874
0.6191 -6.6529 2.3874
0.8575 -6.6264 2.3874
1.0948 -6.5913 2.3874
1.3307 -6.5478 2.3874
1.5648 -6.4958 2.3874
1.7970 -6.4354 2.3874
2.0268 -6.3668 2.3874
2.2540 -6.2899 2.3874
2.4783 -6.2049 2.3874
2.6995 -6.1119 2.3874
2.9171 -6.0110 2.3874
3.1309 -5.9024 2.3874
3.3407 -5.7861 2.3874
3.5462 -5.6624 2.3874
3.7472 -5.5314 2.3874
3.9432 -5.3933 2.3874
4.1342 -5.2482 2.3874
4.3199 -5.0963 2.3874
4.5000 -4.9379 2.3874
4.6742 -4.7731 2.3874
4.8425 -4.6022 2.3874
5.0045 -4.4253 2.3874
5.1600 -4.2427 2.3874
5.3088 -4.0547 2.3874
5.4509 -3.8614 2.3874
5.5858 -3.6632 2.3874
5.7136 -3.4603 2.3874
5.8340 -3.2529 2.3874
5.9469 -3.0413 2.3874
6.0520 -2.8258 2.3874
6.1494 -2.6067 2.3874
6.2389 -2.3842 2.3874
6.3203 -2.1586 2.3874
6.3935 -1.9303 2.3874
6.4585 -1.6995 2.3874
6.5152 -1.4665 2.3874
6.5634 -1.2317 2.3874
6.6033 -0.9953 2.3874
6.6345 -0.7576 2.3874
6.6572 -0.5189 2.3874
6.6714 -0.2796 2.3874
6.6769 -0.0399 2.3874
6.6739 0.1998 2.3874
6.6622 0.4392 2.3874
6.6419 0.6781 2.3874
6.6131 0.9160 2.3874
6.5758 1.1528 2.3874
6.5299 1.3881 2.3874
6.4757 1.6216 2.3874
6.4131 1.8529 2.3874
6.3423 2.0819 2.3874
6.2633 2.3082 2.3874
6.1762 2.5314 2.3874
6.0812 2.7514 2.3874
5.9783 2.9679 2.3874
5.8677 3.1805 2.3874
5.7496 3.3890 2.3874
5.6241 3.5931 2.3874
5.4913 3.7926 2.3874
5.3515 3.9872 2.3874
5.2047 4.1766 2.3874
5.0513 4.3607 2.3874
4.8914 4.5391 2.3874
4.7252 4.7116 2.3874
4.5529 4.8781 2.3874
4.3747 5.0383 2.3874
4.1909 5.1920 2.3874
4.0017 5.3390 2.3874
3.8074 5.4791 2.3874
3.6081 5.6121 2.3874
3.4043 5.7379 2.3874
3.1960 5.8563 2.3874
2.9837 5.9672 2.3874
2.7675 6.0703 2.3874
2.5477 6.1657 2.3874
0.9228 2.4822 0.9477
0.8332 2.5140 0.9478
0.7425 2.5426 0.9480
0.6508 2.5680 0.9481
0.5582 2.5900 0.9482
0.4650 2.6086 0.9483
0.3710 2.6238 0.9484
0.2766 2.6357 0.9485
0.1818 2.6441 0.9485
0.0868 2.6490 0.9486
-0.0084 2.6506 0.9487
-0.1035 2.6487 0.9487
-0.1986 2.6433 0.9487
-0.2933 2.6345 0.9487
-0.3877 2.6223 0.9487
-0.4816 2.6067 0.9487
-0.5749 2.5877 0.9487
-0.6674 2.5653 0.9487
-0.7590 2.5396 0.9487
-0.8497 2.5106 0.9486
-2.3639 6.2376 2.3874
-2.5863 6.1488 2.3874
-2.8054 6.0520 2.3874
-3.0209 5.9474 2.3874
-3.2325 5.8352 2.3874
-3.4399 5.7154 2.3874
-3.6429 5.5883 2.3874
-3.8413 5.4540 2.3874
-4.0347 5.3126 2.3874
-4.2229 5.1644 2.3874
-4.4056 5.0096 2.3874
-4.5827 4.8483 2.3874
-4.7539 4.6807 2.3874
-4.9189 4.5071 2.3874
-5.0777 4.3277 2.3874
-5.2299 4.1427 2.3874
-5.3753 3.9523 2.3874
-5.5139 3.7569 2.3874
-5.6453 3.5566 2.3874
-5.7695 3.3517 2.3874
-5.8862 3.1425 2.3874
-5.9954 2.9292 2.3874
-6.0968 2.7122 2.3874
-6.1904 2.4916 2.3874
-6.2761 2.2678 2.3874
-6.3536 2.0411 2.3874
-6.4229 1.8117 2.3874
-6.4840 1.5800 2.3874
-6.5367 1.3463 2.3874
-6.5810 1.1108 2.3874
-6.6169 0.8738 2.3874
-6.6442 0.6358 2.3874
-6.6629 0.3969 2.3874
-6.6730 0.1574 2.3874
-6.6746 -0.0822 2.3874
-6.6675 -0.3218 2.3874
-6.6519 -0.5610 2.3874
-6.6277 -0.7994 2.3874
-6.5949 -1.0369 2.3874
-6.5536 -1.2730 2.3874
-6.5039 -1.5075 2.3874
-6.4458 -1.7400 2.3874
-6.3794 -1.9704 2.3874
-6.3047 -2.1982 2.3874
-6.2219 -2.4231 2.3874
-6.1311 -2.6450 2.3874
-6.0324 -2.8635 2.3874
-5.3821 3.1312 2.3874
-5.4911 2.9360 2.3874
-5.5931 2.7371 2.3874
-5.6879 2.5346 2.3874
-5.7754 2.3288 2.3874
-5.8554 2.1200 2.3874
-5.9279 1.9085 2.3874
-5.9927 1.6945 2.3874
-6.0498 1.4783 2.3874
-6.0992 1.2602 2.3874
-6.1407 1.0405 2.3874
-6.1742 0.8194 2.3874
-6.1998 0.5972 2.3874
-6.2174 0.3743 2.3874
-6.2270 0.1508 2.3874
-6.2286 -0.0728 2.3874
-6.2222 -0.2964 2.3874
-6.2077 -0.5195 2.3874
-6.1852 -0.7421 2.3874
-6.1548 -0.9637 2.3874
-6.1164 -1.1840 2.3874
-6.0701 -1.4029 2.3874
-6.0160 -1.6199 2.3874
-5.9541 -1.8349 2.3874
-5.8846 -2.0475 2.3874
-5.8075 -2.2575 2.3874
-5.7228 -2.4646 2.3874
-5.6308 -2.6685 2.3874
-5.5316 -2.8690 2.3874
-5.4252 -3.0658 2.3874
-5.3118 -3.2586 2.3874
-5.1915 -3.4473 2.3874
-5.0645 -3.6315 2.3874
-4.9311 -3.8111 2.3874
-4.7912 -3.9857 2.3874
-4.6452 -4.1553 2.3874
-4.4931 -4.3194 2.3874
-4.3353 -4.4780 2.3874
-4.1718 -4.6309 2.3874
-4.0030 -4.7777 2.3874
-3.8290 -4.9185 2.3874
-3.6500 -5.0528 2.3874
-3.4664 -5.1807 2.3874
-3.2783 -5.3019 2.3874
-3.0859 -5.4163 2.3874
-2.8895 -5.5236 2.3874
-2.6894 -5.6239 2.3874
-2.4859 -5.7169 2.3874
-2.2791 -5.8025 2.3874
-2.0694 -5.8807 2.3874
-1.8570 -5.9513 2.3874
-1.6422 -6.0142 2.3874
-1.4253 -6.0693 2.3874
-1.2065 -6.1166 2.3874
-0.9862 -6.1561 2.3874
-0.7646 -6.1875 2.3874
-0.5420 -6.2111 2.3874
-0.3187 -6.2265 2.3874
-0.0950 -6.2340 2.3874
0.1288 -6.2334 2.3874
0.3525 -6.2248 2.3874
0.5757 -6.2082 2.3874
0.7981 -6.1835 2.3874
1.0196 -6.1509 2.3874
1.2397 -6.1103 2.3874
1.4582 -6.0619 2.3874
1.6749 -6.0056 2.3874
1.8894 -5.9416 2.3874
2.1014 -5.8699 2.3874
2.3107 -5.7907 2.3874
2.5171 -5.7040 2.3874
2.7202 -5.6099 2.3874
2.9198 -5.5086 2.3874
3.1156 -5.4002 2.3874
3.3074 -5.2849 2.3874
3.4949 -5.1627 2.3874
3.6779 -5.0338 2.3874
3.8562 -4.8985 2.3874
4.0295 -4.7569 2.3874
4.1976 -4.6091 2.3874
4.3603 -4.4554 2.3874
4.5173 -4.2959 2.3874
4.6685 -4.1310 2.3874
4.8137 -3.9606 2.3874
4.9527 -3.7852 2.3874
5.0852 -3.6049 2.3874
5.2113 -3.4200 2.3874
5.3306 -3.2307 2.3874
5.4430 -3.0372 2.3874
5.5483 -2.8398 2.3874
5.6466 -2.6387 2.3874
5.7375 -2.4343 2.3874
5.8211 -2.2267 2.3874
5.8971 -2.0163 2.3874
5.9655 -1.8032 2.3874
6.0263 -1.5879 2.3874
6.0792 -1.3705 2.3874
6.1243 -1.1514 2.3874
6.1615 -0.9308 2.3874
6.1908 -0.7090 2.3874
6.2121 -0.4863 2.3874
6.2254 -0.2629 2.3874
6.2306 -0.0393 2.3874
6.2279 0.1844 2.3874
6.2170 0.4078 2.3874
6.1982 0.6307 2.3874
6.1714 0.8528 2.3874
6.1367 1.0738 2.3874
6.0940 1.2933 2.3874
6.0434 1.5112 2.3874
5.9851 1.7271 2.3874
5.9191 1.9408 2.3874
5.8454 2.1520 2.3874
5.7642 2.3604 2.3874
5.6756 2.5657 2.3874
5.5797 2.7677 2.3874
5.4766 2.9662 2.3874
5.3665 3.1608 2.3874
5.2494 3.3513 2.3874
5.1256 3.5375 2.3874
4.9951 3.7191 2.3874
4.8583 3.8960 2.3874
4.7152 4.0678 2.3874
4.5660 4.2343 2.3874
4.4109 4.3954 2.3874
4.2502 4.5508 2.3874
4.0840 4.7004 2.3874
3.9125 4.8438 2.3874
3.7360 4.9811 2.3874
3.5547 5.1119 2.3874
3.3688 5.2361 2.3874
3.1786 5.3536 2.3874
2.9843 5.4641 2.3874
2.7862 5.5677 2.3874
2.5844 5.6640 2.3874
2.3794 5.7530 2.3874
0.8615 2.3149 0.9472
0.7779 2.3446 0.9473
0.6933 2.3713 0.9474
0.6078 2.3949 0.9476
0.5215 2.4155 0.9477
0.4344 2.4328 0.9478
0.3468 2.4471 0.9479
0.2588 2.4581 0.9479
0.1704 2.4660 0.9480
0.0818 2.4706 0.9481
-0.0070 2.4721 0.9481
-0.0958 2.4703 0.9481
-0.1844 2.4654 0.9482
-0.2728 2.4572 0.9482
-0.3608 2.4458 0.9482
-0.4484 2.4313 0.9482
-0.5354 2.4136 0.9482
-0.6217 2.3928 0.9481
-0.7072 2.3688 0.9481
-0.7917 2.3418 0.9481
-0.8752 2.3118 0.9480
-2.4117 5.7388 2.3874
-2.6162 5.6486 2.3874
-2.8174 5.5511 2.3874
-3.0149 5.4464 2.3874
-3.2085 5.3347 2.3874
-3.3980 5.2161 2.3874
-3.5831 5.0908 2.3874
-3.7636 4.9590 2.3874
-3.9392 4.8207 2.3874
-4.1098 4.6763 2.3874
-4.2751 4.5258 2.3874
-4.4349 4.3694 2.3874
-4.5890 4.2075 2.3874
-4.7372 4.0401 2.3874
-4.8793 3.8675 2.3874
-5.0151 3.6899 2.3874
-5.1444 3.5075 2.3874
-5.2671 3.3207 2.3874
-5.3831 3.1295 2.3874
-5.4921 2.9343 2.3874
-5.5940 2.7353 2.3874
-5.6887 2.5328 2.3874
-5.7761 2.3270 2.3874
-5.8561 2.1181 2.3874
-5.9285 1.9066 2.3874
-5.9933 1.6926 2.3874
-6.0503 1.4764 2.3874
-6.0996 1.2582 2.3874
-6.1410 1.0385 2.3874
-6.1745 0.8174 2.3874
-6.2000 0.5952 2.3874
-6.2176 0.3723 2.3874
-6.2271 0.1488 2.3874
-6.2286 -0.0748 2.3874
-6.2221 -0.2984 2.3874
-6.2075 -0.5215 2.3874
-6.1850 -0.7441 2.3874
-6.1545 -0.9656 2.3874
-6.1160 -1.1860 2.3874
-6.0697 -1.4048 2.3874
-6.0155 -1.6218 2.3874
-5.9536 -1.8368 2.3874
-5.8840 -2.0494 2.3874
-5.8067 -2.2593 2.3874
-5.7221 -2.4664 2.3874
-5.6300 -2.6703 2.3874
-5.5307 -2.8708 2.3874
-5.4242 -3.0675 2.3874
-5.3107 -3.2604 2.3874
-5.1904 -3.4490 2.3874
-5.0634 -3.6332 2.3874
-4.9298 -3.8127 2.3874
-4.7899 -3.9873 2.3874
-4.6438 -4.1568 2.3874
-4.4917 -4.3209 2.3874
-4.3338 -4.4794 2.3874
-4.1703 -4.6322 2.3874
-4.0015 -4.7790 2.3874
-3.8274 -4.9197 2.3874
-3.6484 -5.0540 2.3874
-3.4647 -5.1818 2.3874
-3.2766 -5.3030 2.3874
-3.0842 -5.4173 2.3874
-2.8878 -5.5246 2.3874
-2.6876 -5.6248 2.3874
-2.4840 -5.7177 2.3874
-2.2772 -5.8033 2.3874
-2.0675 -5.8814 2.3874
-1.8551 -5.9519 2.3874
-1.6403 -6.0147 2.3874
-1.4233 -6.0698 2.3874
-1.2046 -6.1170 2.3874
-0.9842 -6.1564 2.3874
-0.7626 -6.1878 2.3874
-0.5400 -6.2112 2.3874
-0.3167 -6.2266 2.3874
-0.0930 -6.2340 2.3874
0.1308 -6.2334 2.3874
0.3545 -6.2247 2.3874
0.5777 -6.2080 2.3874
0.8001 -6.1833 2.3874
1.0216 -6.1506 2.3874
1.2417 -6.1099 2.3874
1.4602 -6.0614 2.3874
1.6768 -6.0051 2.3874
1.8913 -5.9410 2.3874
2.1033 -5.8693 2.3874
2.3126 -5.7900 2.3874
2.5189 -5.7032 2.3874
2.7220 -5.6091 2.3874
2.9216 -5.5077 2.3874
3.1173 -5.3992 2.3874
3.3091 -5.2838 2.3874
3.4966 -5.1616 2.3874
3.6796 -5.0327 2.3874
3.8578 -4.8973 2.3874
4.0310 -4.7556 2.3874
4.1991 -4.6077 2.3874
4.3617 -4.4540 2.3874
4.5187 -4.2945 2.3874
4.6698 -4.1294 2.3874
4.8150 -3.9591 2.3874
4.9539 -3.7836 2.3874
5.0864 -3.6033 2.3874
5.2124 -3.4183 2.3874
5.3316 -3.2290 2.3874
5.4439 -3.0354 2.3874
5.5493 -2.8380 2.3874
5.6474 -2.6369 2.3874
5.7383 -2.4324 2.3874
5.8218 -2.2248 2.3874
5.8978 -2.0144 2.3874
5.9661 -1.8013 2.3874
6.0268 -1.5860 2.3874
6.0796 -1.3685 2.3874
6.1247 -1.1494 2.3874
6.1618 -0.9288 2.3874
6.1910 -0.7070 2.3874
6.2123 -0.4843 2.3874
6.2255 -0.2609 2.3874
6.2306 -0.0373 2.3874
6.2278 0.1864 2.3874
6.2169 0.4098 2.3874
6.1980 0.6327 2.3874
6.1711 0.8548 2.3874
6.1363 1.0757 2.3874
6.0935 1.2953 2.3874
6.0430 1.5131 2.3874
5.9846 1.7291 2.3874
5.9185 1.9427 2.3874
5.8447 2.1539 2.3874
5.7635 2.3622 2.3874
5.6748 2.5675 2.3874
5.5788 2.7695 2.3874
5.4757 2.9679 2.3874
5.3655 3.1625 2.3874
5.2483 3.3530 2.3874
5.1244 3.5392 2.3874
4.9939 3.7208 2.3874
4.8570 3.8975 2.3874
4.7138 4.0693 2.3874
4.5646 4.2358 2.3874
4.4095 4.3968 2.3874
4.2487 4.5522 2.3874
4.0825 4.7017 2.3874
3.9110 4.8451 2.3874
3.7344 4.9823 2.3874
3.5531 5.1130 2.3874
3.3671 5.2372 2.3874
3.1769 5.3546 2.3874
2.9826 5.4651 2.3874
2.7844 5.5685 2.3874
2.5826 5.6648 2.3874
2.3776 5.7538 2.3874
0.8607 2.3152 0.9472
0.7771 2.3449 0.9473
0.6925 2.3715 0.9474
0.6070 2.3951 0.9476
0.5207 2.4156 0.9477
0.4337 2.4330 0.9478
0.3461 2.4472 0.9479
0.2580 2.4582 0.9479
0.1696 2.4660 0.9480
0.0810 2.4707 0.9481
-0.0078 2.4721 0.9481
-0.0965 2.4703 0.9481
-0.1852 2.4653 0.9482
-0.2736 2.4571 0.9482
-0.3616 2.4457 0.9482
-0.4492 2.4311 0.9482
-0.5362 2.4134 0.9482
-0.6225 2.3926 0.9481
-0.7079 2.3686 0.9481
-0.7925 2.3416 0.9481
-0.8760 2.3115 0.9480
-2.4136 5.7381 2.3874
-2.6180 5.6477 2.3874
-2.8191 5.5502 2.3874
-3.0166 5.4454 2.3874
-3.2102 5.3337 2.3874
-3.3996 5.2150 2.3874
-3.5847 5.0897 2.3874
-3.7652 4.9578 2.3874
-3.9408 4.8195 2.3874
-4.1113 4.6749 2.3874
-4.2766 4.5244 2.3874
-4.4363 4.3680 2.3874
-4.5904 4.2060 2.3874
-4.7385 4.0386 2.3874
-4.8805 3.8659 2.3874
-5.0163 3.6883 2.3874
-5.1455 3.5059 2.3874
-5.2682 3.3190 2.3874
-5.3841 3.1278 2.3874
-5.4930 2.9325 2.3874
-5.5949 2.7335 2.3874
-5.6895 2.5309 2.3874
-5.7769 2.3251 2.3874
-5.8567 2.1163 2.3874
-5.9291 1.9047 2.3874
-5.9938 1.6907 2.3874
-6.0508 1.4744 2.3874
-6.1000 1.2563 2.3874
-6.1413 1.0365 2.3874
-6.1747 0.8154 2.3874
-6.2002 0.5932 2.3874
-6.2177 0.3703 2.3874
-6.2271 0.1468 2.3874
-6.2286 -0.0768 2.3874
-6.2220 -0.3004 2.3874
-6.2074 -0.5235 2.3874
-6.1847 -0.7460 2.3874
-6.1541 -0.9676 2.3874
-6.1156 -1.1880 2.3874
-6.0692 -1.4068 2.3874
-6.0150 -1.6238 2.3874
-5.9530 -1.8387 2.3874
-5.8833 -2.0513 2.3874
-5.8060 -2.2612 2.3874
-5.7213 -2.4683 2.3874
-5.6291 -2.6721 2.3874
-5.0395 2.9319 2.3874
-5.1417 2.7492 2.3874
-5.2371 2.5629 2.3874
-5.3259 2.3732 2.3874
-5.4078 2.1806 2.3874
-5.4827 1.9851 2.3874
-5.5506 1.7870 2.3874
-5.6113 1.5866 2.3874
-5.6648 1.3842 2.3874
-5.7110 1.1800 2.3874
-5.7498 0.9742 2.3874
-5.7812 0.7672 2.3874
-5.8052 0.5592 2.3874
-5.8216 0.3504 2.3874
-5.8306 0.1412 2.3874
-5.8321 -0.0682 2.3874
-5.8260 -0.2775 2.3874
-5.8125 -0.4865 2.3874
-5.7914 -0.6949 2.3874
-5.7629 -0.9024 2.3874
-5.7270 -1.1087 2.3874
-5.6836 -1.3136 2.3874
-5.6330 -1.5168 2.3874
-5.5750 -1.7181 2.3874
-5.5099 -1.9172 2.3874
-5.4377 -2.1138 2.3874
-5.3584 -2.3077 2.3874
-5.2723 -2.4986 2.3874
-5.1793 -2.6863 2.3874
-5.0797 -2.8706 2.3874
-4.9735 -3.0512 2.3874
-4.8609 -3.2278 2.3874
-4.7420 -3.4003 2.3874
-4.6170 -3.5684 2.3874
-4.4860 -3.7319 2.3874
-4.3493 -3.8907 2.3874
-4.2069 -4.0444 2.3874
-4.0591 -4.1929 2.3874
-3.9061 -4.3360 2.3874
-3.7480 -4.4735 2.3874
-3.5851 -4.6052 2.3874
-3.4176 -4.7310 2.3874
-3.2456 -4.8508 2.3874
-3.0694 -4.9642 2.3874
-2.8893 -5.0713 2.3874
-2.7055 -5.1718 2.3874
-2.5181 -5.2657 2.3874
-2.3275 -5.3528 2.3874
-2.1339 -5.4330 2.3874
-1.9375 -5.5061 2.3874
-1.7387 -5.5722 2.3874
-1.5376 -5.6311 2.3874
-1.3345 -5.6827 2.3874
-1.1297 -5.7270 2.3874
-0.9234 -5.7639 2.3874
-0.7159 -5.7934 2.3874
-0.5075 -5.8154 2.3874
-0.2984 -5.8299 2.3874
-0.0890 -5.8369 2.3874
0.1206 -5.8364 2.3874
0.3300 -5.8283 2.3874
0.5390 -5.8127 2.3874
0.7473 -5.7896 2.3874
0.9546 -5.7591 2.3874
1.1607 -5.7211 2.3874
1.3653 -5.6757 2.3874
1.5682 -5.6231 2.3874
1.7690 -5.5631 2.3874
1.9675 -5.4960 2.3874
2.1635 -5.4218 2.3874
2.3568 -5.3407 2.3874
2.5469 -5.2526 2.3874
2.7338 -5.1577 2.3874
2.9171 -5.0562 2.3874
3.0967 -4.9482 2.3874
3.2723 -4.8338 2.3874
3.4437 -4.7132 2.3874
3.6106 -4.5865 2.3874
3.7728 -4.4539 2.3874
3.9302 -4.3155 2.3874
4.0825 -4.1716 2.3874
4.2296 -4.0223 2.3874
4.3711 -3.8679 2.3874
4.5071 -3.7084 2.3874
4.6372 -3.5442 2.3874
4.7613 -3.3754 2.3874
4.8793 -3.2022 2.3874
4.9910 -3.0249 2.3874
5.0963 -2.8438 2.3874
5.1950 -2.6590 2.3874
5.2870 -2.4707 2.3874
5.3721 -2.2793 2.3874
5.4503 -2.0849 2.3874
5.5215 -1.8879 2.3874
5.5856 -1.6884 2.3874
5.6425 -1.4868 2.3874
5.6921 -1.2833 2.3874
5.7343 -1.0781 2.3874
5.7692 -0.8715 2.3874
5.7966 -0.6638 2.3874
5.8165 -0.4553 2.3874
5.8290 -0.2462 2.3874
5.8339 -0.0368 2.3874
5.8313 0.1726 2.3874
5.8212 0.3818 2.3874
5.8036 0.5905 2.3874
5.7785 0.7985 2.3874
5.7459 1.0054 2.3874
5.7060 1.2109 2.3874
5.6587 1.4150 2.3874
5.6041 1.6171 2.3874
5.5423 1.8172 2.3874
5.4733 2.0150 2.3874
5.3973 2.2101 2.3874
5.3144 2.4024 2.3874
5.2246 2.5915 2.3874
5.1280 2.7773 2.3874
5.0249 2.9596 2.3874
4.9153 3.1380 2.3874
4.7993 3.3123 2.3874
4.6772 3.4824 2.3874
4.5491 3.6480 2.3874
4.4151 3.8088 2.3874
4.2754 3.9648 2.3874
4.1302 4.1156 2.3874
3.9797 4.2612 2.3874
3.8241 4.4012 2.3874
3.6635 4.5355 2.3874
3.4983 4.6641 2.3874
3.3285 4.7865 2.3874
3.1545 4.9029 2.3874
2.9764 5.0129 2.3874
2.7944 5.1164 2.3874
2.6089 5.2133 2.3874
2.4200 5.3035 2.3874
0.8834 2.1360 0.9466
0.8063 2.1666 0.9468
0.7281 2.1944 0.9469
0.6489 2.2194 0.9470
0.5688 2.2414 0.9471
0.4880 2.2606 0.9472
0.4066 2.2769 0.9473
0.3246 2.2902 0.9474
0.2422 2.3005 0.9474
0.1595 2.3079 0.9475
0.0765 2.3122 0.9476
-0.0066 2.3136 0.9476
-0.0896 2.3119 0.9476
-0.1726 2.3073 0.9477
-0.2553 2.2996 0.9477
-0.3377 2.2890 0.9477
-0.4197 2.2754 0.9477
-0.5011 2.2588 0.9477
-0.5818 2.2393 0.9477
-0.6618 2.2169 0.9476
-0.7410 2.1917 0.9476
-0.8191 2.1635 0.9475
-0.8962 2.1326 0.9475
-2.4498 5.2892 2.3874
-2.6381 5.1978 2.3874
-2.8230 5.0998 2.3874
-3.0043 4.9952 2.3874
-3.1817 4.8842 2.3874
-3.3551 4.7669 2.3874
-3.5241 4.6434 2.3874
-3.6886 4.5139 2.3874
-3.8483 4.3787 2.3874
-4.0031 4.2377 2.3874
-4.1527 4.0914 2.3874
-4.2970 3.9397 2.3874
-4.4358 3.7830 2.3874
-4.5688 3.6213 2.3874
-4.6959 3.4550 2.3874
-4.8170 3.2843 2.3874
-4.9319 3.1093 2.3874
-5.0405 2.9303 2.3874
-5.1425 2.7475 2.3874
-5.2380 2.5612 2.3874
-5.3267 2.3715 2.3874
-5.4085 2.1788 2.3874
-5.4834 1.9833 2.3874
-5.5512 1.7852 2.3874
-5.6118 1.5848 2.3874
-5.6652 1.3824 2.3874
-5.7113 1.1781 2.3874
-5.7501 0.9724 2.3874
-5.7814 0.7653 2.3874
-5.8054 0.5573 2.3874
-5.8218 0.3485 2.3874
-5.8307 0.1393 2.3874
-5.8321 -0.0701 2.3874
-5.8260 -0.2794 2.3874
-5.8123 -0.4884 2.3874
-5.7912 -0.6967 2.3874
-5.7626 -0.9042 2.3874
-5.7266 -1.1105 2.3874
-5.6832 -1.3154 2.3874
-5.6325 -1.5186 2.3874
-5.5745 -1.7199 2.3874
-5.5093 -1.9189 2.3874
-5.4370 -2.1155 2.3874
-5.3577 -2.3094 2.3874
-5.2715 -2.5003 2.3874
-5.1785 -2.6880 2.3874
-5.0788 -2.8722 2.3874
-4.9725 -3.0528 2.3874
-4.8599 -3.2294 2.3874
-4.7409 -3.4018 2.3874
-4.6159 -3.5699 2.3874
-4.4848 -3.7334 2.3874
-4.3480 -3.8921 2.3874
-4.2056 -4.0457 2.3874
-4.0578 -4.1942 2.3874
-3.9047 -4.3372 2.3874
-3.7466 -4.4747 2.3874
-3.5836 -4.6064 2.3874
-3.4160 -4.7321 2.3874
-3.2440 -4.8518 2.3874
-3.0678 -4.9652 2.3874
-2.8877 -5.0722 2.3874
-2.7038 -5.1727 2.3874
-2.5164 -5.2665 2.3874
-2.3258 -5.3535 2.3874
-2.1322 -5.4336 2.3874
-1.9358 -5.5068 2.3874
-1.7369 -5.5728 2.3874
-1.5358 -5.6316 2.3874
-1.3326 -5.6831 2.3874
-1.1278 -5.7274 2.3874
-0.9215 -5.7642 2.3874
-0.7140 -5.7936 2.3874
-0.5056 -5.8156 2.3874
-0.2965 -5.8300 2.3874
-0.0871 -5.8369 2.3874
0.1225 -5.8363 2.3874
0.3319 -5.8282 2.3874
0.5409 -5.8125 2.3874
0.7492 -5.7894 2.3874
0.9565 -5.7588 2.3874
1.1626 -5.7207 2.3874
1.3672 -5.6753 2.3874
1.5700 -5.6226 2.3874
1.7708 -5.5626 2.3874
1.9693 -5.4954 2.3874
2.1653 -5.4212 2.3874
2.3585 -5.3399 2.3874
2.5486 -5.2518 2.3874
2.7354 -5.1569 2.3874
2.9188 -5.0553 2.3874
3.0983 -4.9472 2.3874
3.2739 -4.8328 2.3874
3.4452 -4.7121 2.3874
3.6120 -4.5854 2.3874
3.7743 -4.4527 2.3874
3.9316 -4.3143 2.3874
4.0839 -4.1703 2.3874
4.2308 -4.0210 2.3874
