ply
format ascii 1.0
element vertex 2182
property float32 x
property float32 y
property float32 z
end_header
5.6721 7.3071 2.3765
5.4451 7.5658 2.3786
5.2095 7.8213 2.3811
4.9656 8.0744 2.3844
4.7100 8.3195 2.3867
4.4404 8.5507 2.3866
6.0192 -7.6157 2.3923
6.2406 -7.3341 2.3922
6.4516 -7.0485 2.3921
6.6524 -6.7593 2.3920
6.8431 -6.4669 2.3919
7.0237 -6.1713 2.3918
7.1943 -5.8730 2.3917
7.3551 -5.5721 2.3916
7.5060 -5.2688 2.3915
7.6471 -4.9635 2.3914
7.7786 -4.6562 2.3913
7.9005 -4.3472 2.3912
8.0129 -4.0367 2.3911
8.1159 -3.7249 2.3910
8.2094 -3.4120 2.3909
8.2937 -3.0981 2.3908
8.3688 -2.7833 2.3907
8.4346 -2.4679 2.3906
8.4914 -2.1520 2.3904
8.5391 -1.8358 2.3903
8.5778 -1.5193 2.3902
8.6076 -1.2029 2.3901
8.6284 -0.8864 2.3900
8.6404 -0.5702 2.3899
8.6343 -0.2540 2.3872
8.6171 0.0609 2.3839
8.5930 0.3746 2.3811
8.5621 0.6868 2.3788
8.5237 0.9979 2.3769
8.4782 1.3076 2.3753
8.4255 1.6158 2.3741
8.3636 1.9230 2.3728
8.2943 2.2286 2.3719
8.2177 2.5326 2.3712
8.1327 2.8351 2.3707
8.0391 3.1356 2.3701
7.9373 3.4343 2.3697
7.8273 3.7310 2.3693
7.7091 4.0257 2.3692
7.5827 4.3181 2.3691
7.4476 4.6083 2.3691
7.3044 4.8962 2.3693
7.1527 5.1814 2.3696
6.9924 5.4638 2.3699
6.8233 5.7433 2.3703
6.6456 6.0197 2.3708
6.4595 6.2933 2.3716
6.2651 6.5640 2.3726
6.0618 6.8311 2.3737
5.8501 7.0952 2.3751
5.6298 7.3562 2.3768
5.4012 7.6144 2.3791
5.1639 7.8692 2.3817
4.9185 8.1219 2.3850
4.6597 8.3637 2.3866
4.3883 8.5937 2.3866
2.8493 -9.2143 2.3928
3.1497 -9.0216 2.3927
3.4409 -8.8214 2.3927
3.7228 -8.6141 2.3926
3.9956 -8.4000 2.3925
4.2590 -8.1795 2.3925
4.5131 -7.9530 2.3924
4.7578 -7.7208 2.3923
4.9933 -7.4833 2.3922
5.2193 -7.2407 2.3921
5.4361 -6.9935 2.3921
5.6435 -6.7419 2.3920
5.8417 -6.4861 2.3919
6.0306 -6.2266 2.3918
6.2103 -5.9634 2.3917
6.3808 -5.6970 2.3916
6.5422 -5.4276 2.3915
6.6946 -5.1553 2.3915
6.8379 -4.8804 2.3914
6.9722 -4.6032 2.3913
7.0975 -4.3238 2.3912
7.2140 -4.0425 2.3911
7.3217 -3.7594 2.3910
7.4206 -3.4748 2.3909
7.5107 -3.1888 2.3908
7.5922 -2.9016 2.3907
7.6651 -2.6134 2.3906
7.7293 -2.3243 2.3905
7.7850 -2.0346 2.3904
7.8323 -1.7443 2.3903
7.8710 -1.4536 2.3902
7.9014 -1.1628 2.3901
7.9233 -0.8718 2.3900
7.9370 -0.5809 2.3899
7.9423 -0.2902 2.3898
7.9393 0.0001 2.3897
7.9280 0.2899 2.3896
7.9085 0.5791 2.3895
7.8808 0.8675 2.3894
7.8448 1.1550 2.3893
7.7999 1.4413 2.3889
7.7420 1.7252 2.3871
7.6766 2.0077 2.3854
7.6037 2.2884 2.3840
7.5237 2.5675 2.3828
7.4363 2.8448 2.3819
7.3418 3.1204 2.3812
7.2397 3.3941 2.3807
7.1300 3.6658 2.3805
7.0128 3.9353 2.3803
6.8879 4.2026 2.3804
6.7554 4.4676 2.3807
6.6152 4.7302 2.3811
6.4673 4.9902 2.3818
6.3119 5.2479 2.3827
6.1491 5.5030 2.3840
5.9782 5.7552 2.3854
5.7995 6.0045 2.3871
5.6091 6.2466 2.3874
5.4094 6.4833 2.3873
5.2015 6.7156 2.3872
4.9854 6.9431 2.3872
4.7611 7.1657 2.3871
4.5285 7.3830 2.3870
4.2878 7.5949 2.3869
4.0389 7.8010 2.3868
3.7835 8.0046 2.3878
3.5270 8.2190 2.3937
3.2534 8.4076 2.3939
2.9716 8.5893 2.3941
2.6818 8.7637 2.3942
2.3904 8.9543 2.4008
2.0873 9.1282 2.4048
1.7735 9.2841 2.4061
1.4517 9.4314 2.4074
1.1220 9.5697 2.4087
2.9068 -9.1784 2.3928
3.2054 -8.9843 2.3927
3.4949 -8.7828 2.3926
3.7751 -8.5741 2.3926
4.0461 -8.3588 2.3925
4.3078 -8.1371 2.3924
4.5601 -7.9095 2.3924
4.8031 -7.6763 2.3923
5.0367 -7.4378 2.3922
5.2610 -7.1943 2.3921
5.4760 -6.9462 2.3920
5.6817 -6.6938 2.3920
5.8781 -6.4373 2.3919
6.0653 -6.1771 2.3918
6.2433 -5.9133 2.3917
6.4121 -5.6463 2.3916
6.5717 -5.3763 2.3915
6.7224 -5.1035 2.3914
6.8639 -4.8281 2.3913
6.9966 -4.5505 2.3912
7.1202 -4.2707 2.3912
7.2351 -3.9891 2.3911
7.3411 -3.7057 2.3910
7.4383 -3.4208 2.3909
7.5268 -3.1346 2.3908
7.6066 -2.8472 2.3907
7.6779 -2.5588 2.3906
7.7405 -2.2696 2.3905
7.7946 -1.9797 2.3904
7.8402 -1.6894 2.3903
7.8774 -1.3986 2.3902
7.9062 -1.1077 2.3901
7.9266 -0.8168 2.3900
7.9386 -0.5259 2.3899
7.9423 -0.2353 2.3898
7.9378 0.0549 2.3897
7.9249 0.3447 2.3896
7.9039 0.6337 2.3894
7.8746 0.9219 2.3893
7.8371 1.2093 2.3892
7.7895 1.4951 2.3885
7.7302 1.7788 2.3868
7.6634 2.0608 2.3851
7.5891 2.3413 2.3837
7.5078 2.6201 2.3826
7.4192 2.8967 2.3817
7.3231 3.1723 2.3811
7.2195 3.4456 2.3807
7.1084 3.7169 2.3804
6.9898 3.9861 2.3803
6.8635 4.2529 2.3804
6.7295 4.5175 2.3807
6.5878 4.7796 2.3812
6.4385 5.0392 2.3819
6.2817 5.2963 2.3829
6.1173 5.5509 2.3842
5.9450 5.8026 2.3857
5.7648 6.0514 2.3874
5.5719 6.2917 2.3874
5.3707 6.5276 2.3873
5.1613 6.7590 2.3872
4.9436 6.9856 2.3871
4.7177 7.2072 2.3871
4.4836 7.4235 2.3870
4.2413 7.6343 2.3869
3.9909 7.8393 2.3868
3.7360 8.0462 2.3891
3.4759 8.2552 2.3938
3.2007 8.4425 2.3939
2.9174 8.6228 2.3941
2.6261 8.7958 2.3943
2.3345 8.9907 2.4023
2.0286 9.1583 2.4050
1.7133 9.3126 2.4064
1.3900 9.4582 2.4077
1.0588 9.5948 2.4090
-0.5811 -9.6122 2.3928
-0.2345 -9.5371 2.3928
0.1061 -9.4508 2.3928
0.4405 -9.3537 2.3928
0.7683 -9.2461 2.3927
1.0894 -9.1286 2.3927
1.4034 -9.0014 2.3927
1.7102 -8.8650 2.3926
2.0096 -8.7197 2.3926
2.3014 -8.5661 2.3925
2.5855 -8.4044 2.3925
2.8617 -8.2350 2.3924
3.1299 -8.0583 2.3924
3.3900 -7.8746 2.3923
3.6420 -7.6843 2.3923
3.8857 -7.4878 2.3922
4.1211 -7.2854 2.3921
4.3482 -7.0773 2.3921
4.5669 -6.8639 2.3920
4.7772 -6.6455 2.3919
4.9791 -6.4224 2.3919
5.1726 -6.1948 2.3918
5.3576 -5.9631 2.3917
5.5342 -5.7275 2.3916
5.7024 -5.4883 2.3915
5.8622 -5.2457 2.3915
6.0136 -4.9999 2.3914
6.1567 -4.7512 2.3913
6.2914 -4.4998 2.3912
6.4178 -4.2460 2.3911
6.5360 -3.9899 2.3910
6.6459 -3.7317 2.3909
6.7475 -3.4716 2.3909
6.8410 -3.2099 2.3908
6.9264 -2.9466 2.3907
7.0036 -2.6821 2.3906
7.0727 -2.4164 2.3905
7.1338 -2.1498 2.3904
7.1869 -1.8823 2.3903
7.2320 -1.6143 2.3902
7.2691 -1.3457 2.3901
7.2983 -1.0768 2.3900
7.3196 -0.8078 2.3899
7.3330 -0.5387 2.3898
7.3386 -0.2698 2.3898
7.3364 -0.0011 2.3897
7.3264 0.2671 2.3896
7.3085 0.5348 2.3895
7.2830 0.8017 2.3894
7.2496 1.0678 2.3893
7.2086 1.3329 2.3892
7.1598 1.5968 2.3891
7.1034 1.8594 2.3890
7.0392 2.1206 2.3889
6.9674 2.3802 2.3888
6.8879 2.6380 2.3887
6.8007 2.8940 2.3886
6.7058 3.1479 2.3885
6.6034 3.3995 2.3884
6.4932 3.6488 2.3884
6.3755 3.8956 2.3883
6.2501 4.1396 2.3882
6.1170 4.3808 2.3881
5.9764 4.6189 2.3880
5.8281 4.8538 2.3879
5.6722 5.0852 2.3878
5.5088 5.3130 2.3877
5.3377 5.5371 2.3877
5.1591 5.7570 2.3876
4.9729 5.9728 2.3875
4.7792 6.1841 2.3874
4.5780 6.3907 2.3873
4.3693 6.5924 2.3873
4.1531 6.7890 2.3872
3.9296 6.9802 2.3871
3.6987 7.1658 2.3870
3.4638 7.3524 2.3892
3.2240 7.5398 2.3935
2.9710 7.7081 2.3937
2.7108 7.8697 2.3938
2.4435 8.0242 2.3940
2.1693 8.1715 2.3941
0.8072 3.5528 1.0235
0.6790 3.5822 1.0159
0.5499 3.6069 1.0082
0.4199 3.6269 1.0005
0.2893 3.6422 0.9926
0.1583 3.6527 0.9847
0.0269 3.6585 0.9767
-0.1046 3.6595 0.9687
-0.2361 3.6557 0.9606
-0.3673 3.6471 0.9525
-0.4982 3.6338 0.9444
-0.6285 3.6157 0.9362
-0.7580 3.5930 0.9281
-0.8866 3.5655 0.9200
-0.8662 -9.6645 2.3928
-0.5151 -9.5989 2.3928
-0.1697 -9.5217 2.3928
0.1698 -9.4333 2.3928
0.5030 -9.3341 2.3928
0.8296 -9.2247 2.3927
1.1493 -9.1052 2.3927
1.4620 -8.9763 2.3927
1.7674 -8.8382 2.3926
2.0654 -8.6913 2.3926
2.3558 -8.5361 2.3925
2.6383 -8.3729 2.3925
2.9130 -8.2021 2.3924
3.1797 -8.0241 2.3924
3.4383 -7.8391 2.3923
3.6887 -7.6476 2.3922
3.9308 -7.4500 2.3922
4.1647 -7.2464 2.3921
4.3902 -7.0373 2.3921
4.6073 -6.8229 2.3920
4.8160 -6.6036 2.3919
5.0163 -6.3797 2.3918
5.2082 -6.1513 2.3918
5.3917 -5.9189 2.3917
5.5667 -5.6825 2.3916
5.7333 -5.4427 2.3915
5.8915 -5.1994 2.3914
6.0413 -4.9531 2.3914
6.1828 -4.7039 2.3913
6.3160 -4.4520 2.3912
6.4408 -4.1977 2.3911
6.5574 -3.9412 2.3910
6.6657 -3.6826 2.3909
6.7658 -3.4222 2.3908
6.8578 -3.1602 2.3908
6.9416 -2.8967 2.3907
7.0173 -2.6319 2.3906
7.0849 -2.3661 2.3905
7.1445 -2.0993 2.3904
7.1960 -1.8317 2.3903
7.2396 -1.5635 2.3902
7.2752 -1.2949 2.3901
7.3029 -1.0259 2.3900
7.3228 -0.7569 2.3899
7.3347 -0.4878 2.3898
7.3388 -0.2189 2.3897
7.3351 0.0497 2.3896
7.3236 0.3178 2.3895
7.3043 0.5853 2.3895
7.2773 0.8521 2.3894
7.2425 1.1180 2.3893
7.2000 1.3829 2.3892
7.1497 1.6466 2.3891
7.0918 1.9089 2.3890
7.0262 2.1698 2.3889
6.9529 2.4291 2.3888
6.8720 2.6866 2.3887
6.7833 2.9422 2.3886
6.6870 3.1956 2.3885
6.5831 3.4469 2.3884
6.4715 3.6957 2.3883
6.3523 3.9420 2.3882
6.2255 4.1855 2.3882
6.0910 4.4261 2.3881
5.9489 4.6636 2.3880
5.7992 4.8978 2.3879
5.6419 5.1286 2.3878
5.4770 5.3557 2.3877
5.3045 5.5790 2.3876
5.1244 5.7982 2.3876
4.9368 6.0131 2.3875
4.7417 6.2235 2.3874
4.5391 6.4293 2.3873
4.3290 6.6300 2.3873
4.1114 6.8256 2.3872
3.8865 7.0158 2.3871
3.6542 7.2003 2.3870
3.4196 7.3896 2.3904
3.1767 7.5721 2.3935
2.9223 7.7392 2.3937
2.6608 7.8995 2.3939
2.3922 8.0527 2.3940
2.1167 8.1985 2.3942
0.7830 3.5587 1.0221
0.6547 3.5872 1.0145
0.5254 3.6110 1.0068
0.3953 3.6301 0.9990
0.2646 3.6445 0.9911
0.1334 3.6542 0.9832
0.0020 3.6590 0.9752
-0.1295 3.6591 0.9671
-0.2609 3.6544 0.9591
-0.3921 3.6450 0.9510
-0.5229 3.6307 0.9428
-0.6530 3.6118 0.9347
-0.7824 3.5881 0.9266
-0.9108 3.5598 0.9185
-4.5632 -8.5591 2.3887
-4.2217 -8.6461 2.3886
-3.8796 -8.7193 2.3885
-3.5374 -8.7790 2.3883
-3.1978 -8.8311 2.3898
-2.8603 -8.8747 2.3925
-2.5207 -8.8954 2.3925
-2.1832 -8.9034 2.3925
-1.8483 -8.8990 2.3925
-1.5163 -8.8826 2.3925
-1.1878 -8.8543 2.3925
-0.8631 -8.8145 2.3925
-0.5427 -8.7636 2.3925
-0.2269 -8.7020 2.3925
0.0840 -8.6298 2.3925
0.3897 -8.5476 2.3925
0.6899 -8.4556 2.3925
0.9843 -8.3542 2.3924
1.2727 -8.2438 2.3924
1.5548 -8.1246 2.3924
1.8305 -7.9970 2.3923
2.0996 -7.8615 2.3923
2.3620 -7.7182 2.3922
2.6174 -7.5676 2.3922
2.8657 -7.4099 2.3921
3.1069 -7.2455 2.3921
3.3408 -7.0748 2.3920
3.5673 -6.8979 2.3920
3.7864 -6.7152 2.3919
3.9979 -6.5271 2.3919
4.2019 -6.3337 2.3918
4.3983 -6.1354 2.3917
4.5871 -5.9324 2.3917
4.7681 -5.7250 2.3916
4.9415 -5.5135 2.3915
5.1071 -5.2981 2.3915
5.2650 -5.0791 2.3914
5.4151 -4.8566 2.3913
5.5576 -4.6309 2.3912
5.6922 -4.4023 2.3912
5.8192 -4.1710 2.3911
5.9384 -3.9371 2.3910
6.0500 -3.7009 2.3909
6.1538 -3.4625 2.3908
6.2500 -3.2222 2.3908
6.3385 -2.9802 2.3907
6.4194 -2.7366 2.3906
6.4927 -2.4916 2.3905
6.5583 -2.2454 2.3904
6.6165 -1.9981 2.3903
6.6670 -1.7500 2.3903
6.7100 -1.5012 2.3902
6.7456 -1.2518 2.3901
6.7737 -1.0020 2.3900
6.7943 -0.7520 2.3899
6.8074 -0.5020 2.3898
6.8132 -0.2519 2.3897
6.8115 -0.0021 2.3896
6.8025 0.2473 2.3896
6.7861 0.4962 2.3895
6.7624 0.7445 2.3894
6.7314 0.9919 2.3893
6.6930 1.2384 2.3892
6.6474 1.4837 2.3891
6.5945 1.7278 2.3890
6.5343 1.9705 2.3889
6.4669 2.2116 2.3889
6.3922 2.4511 2.3888
6.3104 2.6886 2.3887
6.2213 2.9242 2.3886
6.1250 3.1575 2.3885
6.0216 3.3885 2.3884
5.9109 3.6170 2.3883
5.7932 3.8429 2.3883
5.6683 4.0658 2.3882
5.5362 4.2858 2.3881
5.3971 4.5026 2.3880
5.2509 4.7160 2.3879
5.0977 4.9258 2.3879
4.9374 5.1318 2.3878
4.7701 5.3339 2.3877
4.5959 5.5319 2.3876
4.4147 5.7254 2.3876
4.2267 5.9144 2.3875
4.0318 6.0986 2.3874
3.8301 6.2778 2.3874
3.6217 6.4518 2.3873
3.4065 6.6203 2.3872
3.1893 6.7925 2.3905
2.9643 6.9579 2.3933
2.7293 7.1095 2.3935
2.4878 7.2546 2.3936
2.2401 7.3929 2.3938
0.8488 3.2157 1.0231
0.7328 3.2467 1.0163
0.6156 3.2735 1.0093
0.4976 3.2961 1.0023
0.3788 3.3143 0.9952
0.2595 3.3283 0.9880
0.1397 3.3379 0.9808
0.0196 3.3431 0.9735
-0.1006 3.3440 0.9661
-0.2207 3.3405 0.9588
-0.3407 3.3327 0.9514
-0.4603 3.3205 0.9439
-0.5794 3.3040 0.9365
-0.6977 3.2832 0.9291
-0.8153 3.2581 0.9217
-0.9319 3.2287 0.9143
-2.7850 8.4965 2.4117
-3.1143 8.4662 2.4122
-3.4449 8.4236 2.4127
-3.7764 8.3684 2.4131
-4.1082 8.3004 2.4135
-4.4397 8.2194 2.4138
-4.7705 8.1252 2.4140
-5.0999 8.0176 2.4142
-5.4272 7.8965 2.4143
-5.7519 7.7619 2.4143
-4.4987 -8.5766 2.3887
-4.1571 -8.6610 2.3886
-3.8149 -8.7317 2.3884
-3.4727 -8.7887 2.3883
-3.1351 -8.8437 2.3912
-2.7960 -8.8796 2.3925
-2.4567 -8.8979 2.3925
-2.1197 -8.9036 2.3925
-1.7852 -8.8969 2.3925
-1.4539 -8.8781 2.3925
-1.1261 -8.8476 2.3925
-0.8022 -8.8057 2.3925
-0.4826 -8.7528 2.3925
-0.1677 -8.6891 2.3925
0.1423 -8.6150 2.3925
0.4469 -8.5309 2.3925
0.7460 -8.4371 2.3925
1.0393 -8.3340 2.3924
1.3265 -8.2219 2.3924
1.6075 -8.1011 2.3924
1.8820 -7.9720 2.3923
2.1498 -7.8349 2.3923
2.4108 -7.6903 2.3922
2.6649 -7.5383 2.3922
2.9119 -7.3793 2.3921
3.1517 -7.2137 2.3921
3.3842 -7.0418 2.3920
3.6093 -6.8638 2.3920
3.8269 -6.6800 2.3919
4.0371 -6.4909 2.3919
4.2397 -6.2965 2.3918
4.4346 -6.0973 2.3917
4.6219 -5.8935 2.3917
4.8015 -5.6853 2.3916
4.9734 -5.4731 2.3915
5.1375 -5.2570 2.3914
5.2940 -5.0372 2.3914
5.4427 -4.8142 2.3913
5.5836 -4.5879 2.3912
5.7169 -4.3588 2.3911
5.8423 -4.1269 2.3911
5.9601 -3.8926 2.3910
6.0702 -3.6559 2.3909
6.1726 -3.4172 2.3908
6.2673 -3.1766 2.3907
6.3544 -2.9342 2.3907
6.4338 -2.6904 2.3906
6.5057 -2.4451 2.3905
6.5699 -2.1987 2.3904
6.6266 -1.9513 2.3903
6.6757 -1.7030 2.3902
6.7173 -1.4541 2.3902
6.7515 -1.2046 2.3901
6.7781 -0.9548 2.3900
6.7973 -0.7047 2.3899
6.8091 -0.4546 2.3898
6.8134 -0.2047 2.3897
6.8104 0.0451 2.3896
6.8000 0.2944 2.3895
6.7822 0.5432 2.3895
6.7571 0.7913 2.3894
6.7247 1.0386 2.3893
6.6850 1.2849 2.3892
6.6379 1.5300 2.3891
6.5837 1.7738 2.3890
6.5221 2.0162 2.3889
6.4533 2.2571 2.3888
6.3773 2.4962 2.3888
6.2941 2.7333 2.3887
6.2036 2.9685 2.3886
6.1060 3.2014 2.3885
6.0012 3.4319 2.3884
5.8892 3.6600 2.3883
5.7701 3.8853 2.3883
5.6438 4.1077 2.3882
5.5105 4.3271 2.3881
5.3700 4.5432 2.3880
5.2225 4.7559 2.3879
5.0679 4.9650 2.3879
4.9063 5.1704 2.3878
4.7377 5.3717 2.3877
4.5622 5.5688 2.3876
4.3797 5.7615 2.3876
4.1903 5.9497 2.3875
3.9942 6.1329 2.3874
3.7912 6.3112 2.3873
3.5815 6.4841 2.3873
3.3651 6.6515 2.3872
3.1469 6.8234 2.3907
2.9204 6.9870 2.3934
2.6841 7.1374 2.3935
2.4414 7.2813 2.3936
2.1925 7.4183 2.3938
0.8270 3.2219 1.0218
0.7107 3.2521 1.0150
0.5934 3.2781 1.0080
0.4752 3.2998 1.0010
0.3563 3.3173 0.9939
0.2368 3.3304 0.9867
0.1170 3.3392 0.9794
-0.0031 3.3436 0.9721
-0.1233 3.3437 0.9647
-0.2435 3.3394 0.9574
-0.3633 3.3307 0.9500
-0.4828 3.3177 0.9425
-0.6018 3.3004 0.9351
-0.7200 3.2787 0.9277
-0.8374 3.2528 0.9203
-0.9538 3.2227 0.9129
-2.8471 8.4917 2.4118
-3.1767 8.4591 2.4123
-3.5075 8.4142 2.4128
-3.8391 8.3566 2.4132
-4.1709 8.2861 2.4136
-4.5024 8.2026 2.4138
-4.8329 8.1059 2.4141
-5.1619 7.9958 2.4142
-5.4888 7.8721 2.4143
-5.8130 7.7349 2.4143
-4.4341 -8.5937 2.3887
-4.0924 -8.6754 2.3885
-3.7501 -8.7435 2.3884
-3.4080 -8.7980 2.3883
-3.0701 -8.8492 2.3908
-2.7317 -8.8841 2.3925
-2.3928 -8.8999 2.3925
-2.0562 -8.9032 2.3925
-1.7223 -8.8942 2.3925
-9.1410 3.1893 2.3955
-8.4568 -4.7604 2.3917
-8.2501 -5.0363 2.3915
-8.0322 -5.3022 2.3913
-7.8037 -5.5575 2.3911
-7.5654 -5.8020 2.3909
-7.3178 -6.0352 2.3908
-7.0615 -6.2568 2.3906
-6.7973 -6.4666 2.3904
-6.5258 -6.6642 2.3902
-6.2475 -6.8496 2.3901
-5.9633 -7.0226 2.3899
-5.6738 -7.1830 2.3897
-5.3795 -7.3307 2.3896
-5.0812 -7.4658 2.3894
-4.7795 -7.5882 2.3893
-4.4749 -7.6979 2.3891
-4.1682 -7.7949 2.3890
-3.8598 -7.8795 2.3888
-3.5504 -7.9516 2.3887
-3.2405 -8.0114 2.3886
-2.9315 -8.0616 2.3892
-2.6259 -8.1094 2.3926
-2.3168 -8.1326 2.3923
-2.0096 -8.1455 2.3923
-1.7043 -8.1470 2.3923
-1.4013 -8.1374 2.3923
-1.1010 -8.1170 2.3923
-0.8039 -8.0859 2.3923
-0.5102 -8.0446 2.3923
-0.2204 -7.9932 2.3923
0.0653 -7.9321 2.3923
0.3465 -7.8616 2.3922
0.6231 -7.7819 2.3922
0.8946 -7.6934 2.3922
1.1610 -7.5964 2.3922
1.4219 -7.4911 2.3921
1.6771 -7.3779 2.3921
1.9266 -7.2571 2.3921
2.1700 -7.1289 2.3920
2.4073 -6.9937 2.3920
2.6383 -6.8517 2.3919
2.8628 -6.7033 2.3919
3.0809 -6.5488 2.3918
3.2922 -6.3883 2.3918
3.4969 -6.2222 2.3917
3.6947 -6.0508 2.3917
3.8857 -5.8743 2.3916
4.0697 -5.6930 2.3916
4.2467 -5.5070 2.3915
4.4167 -5.3168 2.3914
4.5795 -5.1225 2.3914
4.7353 -4.9243 2.3913
4.8839 -4.7226 2.3913
5.0254 -4.5174 2.3912
5.1597 -4.3090 2.3911
5.2868 -4.0977 2.3910
5.4067 -3.8837 2.3910
5.5193 -3.6670 2.3909
5.6249 -3.4481 2.3908
5.7232 -3.2269 2.3907
5.8143 -3.0038 2.3907
5.8982 -2.7789 2.3906
5.9750 -2.5524 2.3905
6.0446 -2.3245 2.3904
6.1070 -2.0953 2.3904
6.1624 -1.8651 2.3903
6.2106 -1.6339 2.3902
6.2517 -1.4019 2.3901
6.2857 -1.1693 2.3900
6.3126 -0.9363 2.3900
6.3325 -0.7031 2.3899
6.3453 -0.4696 2.3898
6.3512 -0.2363 2.3897
6.3500 -0.0030 2.3896
6.3418 0.2299 2.3896
6.3267 0.4623 2.3895
6.3046 0.6941 2.3894
6.2756 0.9251 2.3893
6.2396 1.1552 2.3892
6.1968 1.3843 2.3891
6.1470 1.6121 2.3891
6.0904 1.8386 2.3890
6.0270 2.0635 2.3889
5.9567 2.2868 2.3888
5.8796 2.5082 2.3887
5.7957 2.7277 2.3887
5.7050 2.9450 2.3886
5.6075 3.1600 2.3885
5.5033 3.3726 2.3884
5.3924 3.5826 2.3883
5.2748 3.7897 2.3883
5.1506 3.9939 2.3882
5.0197 4.1950 2.3881
4.8822 4.3927 2.3881
4.7381 4.5870 2.3880
4.5875 4.7775 2.3879
4.4303 4.9642 2.3878
4.2668 5.1469 2.3878
4.0968 5.3253 2.3877
3.9204 5.4992 2.3876
3.7377 5.6684 2.3876
3.5489 5.8328 2.3875
3.3538 5.9921 2.3874
3.1527 6.1461 2.3874
2.9494 6.3031 2.3905
2.7392 6.4533 2.3932
2.5199 6.5909 2.3933
2.2949 6.7222 2.3934
2.0642 6.8471 2.3936
0.7762 2.9575 1.0164
0.6694 2.9860 1.0101
0.5617 3.0107 1.0037
0.4531 3.0314 0.9973
0.3438 3.0482 0.9907
0.2340 3.0610 0.9841
0.1238 3.0698 0.9775
0.0134 3.0746 0.9708
-0.0972 3.0754 0.9640
-0.2077 3.0722 0.9572
-0.3180 3.0650 0.9504
-0.4280 3.0537 0.9436
-0.5375 3.0386 0.9367
-0.6464 3.0194 0.9299
-0.7546 2.9963 0.9231
-0.8618 2.9693 0.9163
-2.5627 7.7795 2.4080
-2.8623 7.7463 2.4084
-3.1628 7.7019 2.4088
-3.4635 7.6461 2.4092
-3.7642 7.5785 2.4095
-4.0642 7.4992 2.4097
-4.3631 7.4080 2.4099
-4.6603 7.3048 2.4101
-4.9552 7.1894 2.4101
-5.2473 7.0619 2.4101
-5.5361 6.9222 2.4101
-5.8208 6.7702 2.4100
-6.1009 6.6061 2.4098
-6.3758 6.4299 2.4095
-6.6449 6.2417 2.4092
-6.9074 6.0417 2.4088
-7.1628 5.8299 2.4084
-7.4104 5.6067 2.4078
-7.6496 5.3723 2.4073
-7.8798 5.1269 2.4066
-8.1003 4.8709 2.4059
-8.3104 4.6047 2.4051
-8.5017 4.3247 2.4020
-8.6702 4.0307 2.3957
-8.8488 3.7389 2.3956
-9.0153 3.4386 2.3956
-9.1691 3.1305 2.3955
-8.4186 -4.8134 2.3917
-8.2097 -5.0874 2.3915
-7.9897 -5.3513 2.3913
-7.7594 -5.6046 2.3911
-7.5192 -5.8469 2.3909
-7.2700 -6.0780 2.3907
-7.0121 -6.2974 2.3905
-6.7465 -6.5049 2.3904
-6.4736 -6.7003 2.3902
-6.1942 -6.8833 2.3900
-5.9090 -7.0539 2.3899
-5.6185 -7.2119 2.3897
-5.3234 -7.3572 2.3895
-5.0244 -7.4899 2.3894
-4.7221 -7.6099 2.3892
-4.4171 -7.7172 2.3891
-4.1100 -7.8119 2.3889
-3.8014 -7.8941 2.3888
-3.4918 -7.9639 2.3887
-3.1818 -8.0214 2.3886
-2.8745 -8.0738 2.3905
-2.5671 -8.1137 2.3923
-2.2586 -8.1359 2.3923
-1.9517 -8.1466 2.3923
-1.6468 -8.1460 2.3923
-1.3442 -8.1344 2.3923
-1.0446 -8.1119 2.3923
-0.7480 -8.0789 2.3923
-0.4551 -8.0356 2.3923
-0.1660 -7.9824 2.3923
0.1189 -7.9195 2.3923
0.3992 -7.8472 2.3922
0.6748 -7.7659 2.3922
0.9454 -7.6757 2.3922
1.2107 -7.5771 2.3922
1.4706 -7.4703 2.3921
1.7248 -7.3556 2.3921
1.9731 -7.2334 2.3921
2.2153 -7.1039 2.3920
2.4515 -6.9674 2.3920
2.6812 -6.8242 2.3919
2.9046 -6.6746 2.3919
3.1213 -6.5189 2.3918
3.3315 -6.3573 2.3918
3.5348 -6.1902 2.3917
3.7314 -6.0178 2.3917
3.9210 -5.8404 2.3916
4.1037 -5.6581 2.3916
4.2794 -5.4714 2.3915
4.4480 -5.2804 2.3914
4.6095 -5.0853 2.3914
4.7640 -4.8864 2.3913
4.9112 -4.6840 2.3912
5.0513 -4.4782 2.3912
5.1843 -4.2693 2.3911
5.3100 -4.0574 2.3910
5.4285 -3.8429 2.3910
5.5399 -3.6258 2.3909
5.6440 -3.4064 2.3908
5.7409 -3.1849 2.3907
5.8307 -2.9614 2.3907
5.9133 -2.7362 2.3906
5.9887 -2.5094 2.3905
6.0569 -2.2813 2.3904
6.1180 -2.0519 2.3903
6.1720 -1.8214 2.3903
6.2189 -1.5900 2.3902
6.2586 -1.3580 2.3901
6.2913 -1.1253 2.3900
6.3169 -0.8922 2.3899
6.3355 -0.6589 2.3899
6.3470 -0.4255 2.3898
6.3515 -0.1921 2.3897
6.3490 0.0410 2.3896
6.3395 0.2739 2.3895
6.3230 0.5062 2.3895
6.2996 0.7378 2.3894
6.2693 0.9687 2.3893
6.2320 1.1986 2.3892
6.1879 1.4275 2.3891
6.1369 1.6550 2.3890
6.0790 1.8812 2.3890
6.0142 2.1059 2.3889
5.9426 2.3288 2.3888
5.8642 2.5499 2.3887
5.7790 2.7690 2.3886
5.6871 2.9859 2.3886
5.5883 3.2004 2.3885
5.4829 3.4125 2.3884
5.3707 3.6220 2.3883
5.2519 3.8286 2.3883
5.1263 4.0322 2.3882
4.9942 4.2326 2.3881
4.8554 4.4297 2.3880
4.7101 4.6233 2.3880
4.5582 4.8131 2.3879
4.3999 4.9991 2.3878
4.2351 5.1809 2.3878
4.0639 5.3585 2.3877
3.8863 5.5316 2.3876
3.7025 5.6999 2.3876
3.5124 5.8634 2.3875
3.3162 6.0217 2.3874
3.1139 6.1747 2.3874
2.9108 6.3333 2.3916
2.6981 6.4797 2.3932
2.4778 6.6162 2.3933
2.2517 6.7464 2.3935
0.8620 2.9316 1.0214
0.7561 2.9632 1.0152
0.6491 2.9910 1.0089
0.5412 3.0149 1.0025
0.4325 3.0349 0.9960
0.3231 3.0509 0.9895
0.2132 3.0629 0.9829
0.1030 3.0710 0.9762
-0.0075 3.0750 0.9695
-0.1181 3.0751 0.9627
-0.2286 3.0711 0.9559
-0.3389 3.0631 0.9491
-0.4488 3.0512 0.9423
-0.5582 3.0352 0.9354
-0.6669 3.0153 0.9286
-0.7749 2.9915 0.9218
-0.8820 2.9638 0.9150
-2.6193 7.7741 2.4081
-2.9191 7.7388 2.4085
-3.2196 7.6922 2.4089
-3.5204 7.6342 2.4093
-3.8210 7.5645 2.4095
-4.1208 7.4829 2.4098
-4.4194 7.3894 2.4100
-4.7162 7.2839 2.4101
-5.0107 7.1662 2.4101
-5.3022 7.0364 2.4101
-5.5902 6.8944 2.4101
-5.8742 6.7401 2.4099
-6.1534 6.5737 2.4097
-6.4272 6.3953 2.4095
-6.6950 6.2048 2.4091
-6.9563 6.0025 2.4087
-7.2103 5.7886 2.4083
-7.4563 5.5632 2.4077
-7.6939 5.3267 2.4071
-7.9222 5.0793 2.4065
-8.1408 4.8213 2.4057
-8.3490 4.5533 2.4049
-8.5351 4.2700 2.4009
-8.7049 3.9762 2.3957
-8.8813 3.6827 2.3956
-9.0454 3.3809 2.3955
-9.1967 3.0714 2.3955
-8.3800 -4.8660 2.3916
-8.1689 -5.1381 2.3914
-7.9470 -5.4000 2.3912
-7.7147 -5.6513 2.3911
-7.4728 -5.8915 2.3909
-7.2218 -6.1204 2.3907
-6.9625 -6.3376 2.3905
-6.6954 -6.5428 2.3903
-6.4213 -6.7358 2.3902
-6.1407 -6.9165 2.3900
-5.8544 -7.0847 2.3898
-5.5630 -7.2404 2.3897
-5.2671 -7.3833 2.3895
-4.9674 -7.5136 2.3893
-4.6646 -7.6312 2.3892
-4.3591 -7.7361 2.3891
-4.0517 -7.8284 2.3889
-3.7429 -7.9082 2.3888
-3.4332 -7.9757 2.3887
-3.1232 -8.0309 2.3885
-2.8165 -8.0827 2.3910
-2.5086 -8.1188 2.3923
-2.2004 -8.1388 2.3923
-1.8938 -8.1474 2.3923
-1.5893 -8.1447 2.3923
-8.3324 2.9012 2.3951
-8.4600 2.6145 2.3950
-8.5753 2.3218 2.3949
-8.6781 2.0237 2.3948
-8.7680 1.7208 2.3947
-8.8448 1.4137 2.3946
-8.9081 1.1030 2.3945
-8.9579 0.7894 2.3944
-8.9938 0.4735 2.3942
-9.0157 0.1561 2.3941
-9.0237 -0.1622 2.3939
-9.0175 -0.4807 2.3938
-8.9972 -0.7988 2.3937
-8.9629 -1.1156 2.3935
-8.9146 -1.4305 2.3933
-8.8524 -1.7429 2.3932
-8.7765 -2.0521 2.3930
-8.6871 -2.3573 2.3929
-8.5844 -2.6580 2.3927
-8.4688 -2.9535 2.3925
-8.3405 -3.2433 2.3923
-8.1999 -3.5266 2.3922
-8.0474 -3.8030 2.3920
-7.8834 -4.0720 2.3918
-7.7083 -4.3330 2.3917
-7.5227 -4.5856 2.3915
-7.3269 -4.8293 2.3913
-7.1216 -5.0638 2.3911
-6.9073 -5.2886 2.3910
-6.6844 -5.5035 2.3908
-6.4536 -5.7080 2.3906
-6.2154 -5.9021 2.3905
-5.9704 -6.0854 2.3903
-5.7192 -6.2577 2.3902
-5.4623 -6.4189 2.3900
-5.2003 -6.5689 2.3898
-4.9338 -6.7076 2.3897
-4.6633 -6.8348 2.3896
-4.3895 -6.9507 2.3894
-4.1128 -7.0551 2.3893
-3.8338 -7.1481 2.3892
-3.5531 -7.2297 2.3890
-3.2710 -7.3001 2.3889
-2.9882 -7.3593 2.3888
-2.7051 -7.4074 2.3887
-2.4262 -7.4573 2.3926
-2.1430 -7.4822 2.3920
-1.8614 -7.4984 2.3921
-1.5812 -7.5042 2.3921
-1.3028 -7.4997 2.3921
-1.0266 -7.4852 2.3921
-0.7530 -7.4608 2.3921
-0.4823 -7.4269 2.3921
-0.2148 -7.3837 2.3921
0.0492 -7.3313 2.3920
0.3093 -7.2702 2.3920
0.5654 -7.2005 2.3920
0.8171 -7.1224 2.3920
1.0643 -7.0363 2.3920
1.3067 -6.9424 2.3919
1.5441 -6.8411 2.3919
1.7763 -6.7324 2.3919
2.0032 -6.6168 2.3918
2.2245 -6.4945 2.3918
2.4402 -6.3657 2.3918
2.6501 -6.2308 2.3917
2.8541 -6.0899 2.3917
3.0521 -5.9433 2.3916
3.2439 -5.7913 2.3916
3.4295 -5.6341 2.3915
3.6088 -5.4720 2.3915
3.7817 -5.3052 2.3914
3.9482 -5.1340 2.3914
4.1082 -4.9585 2.3913
4.2616 -4.7790 2.3913
4.4085 -4.5958 2.3912
4.5487 -4.4089 2.3911
4.6823 -4.2188 2.3911
4.8091 -4.0255 2.3910
4.9293 -3.8292 2.3909
5.0428 -3.6302 2.3909
5.1495 -3.4287 2.3908
5.2495 -3.2248 2.3907
5.3427 -3.0188 2.3907
5.4292 -2.8108 2.3906
5.5089 -2.6010 2.3905
5.5818 -2.3895 2.3905
5.6480 -2.1767 2.3904
5.7075 -1.9625 2.3903
5.7602 -1.7472 2.3902
5.8062 -1.5309 2.3902
5.8455 -1.3139 2.3901
5.8780 -1.0962 2.3900
5.9039 -0.8781 2.3899
5.9230 -0.6596 2.3899
5.9355 -0.4410 2.3898
5.9414 -0.2223 2.3897
5.9406 -0.0038 2.3896
5.9331 0.2144 2.3895
5.9191 0.4322 2.3895
5.8984 0.6494 2.3894
5.8712 0.8659 2.3893
5.8374 1.0815 2.3892
5.7971 1.2961 2.3892
5.7502 1.5095 2.3891
5.6968 1.7215 2.3890
5.6369 1.9321 2.3889
5.5706 2.1411 2.3889
5.4978 2.3483 2.3888
5.4185 2.5536 2.3887
5.3329 2.7568 2.3886
5.2409 2.9577 2.3886
5.1425 3.1562 2.3885
5.0378 3.3522 2.3884
4.9268 3.5454 2.3883
4.8095 3.7358 2.3883
4.6860 3.9231 2.3882
4.5564 4.1071 2.3881
4.4205 4.2878 2.3881
4.2786 4.4648 2.3880
4.1306 4.6381 2.3879
3.9766 4.8075 2.3879
3.8166 4.9727 2.3878
3.6507 5.1336 2.3878
3.4790 5.2899 2.3877
3.3016 5.4416 2.3876
3.1185 5.5883 2.3876
2.9297 5.7299 2.3875
2.7399 5.8757 2.3913
2.5418 6.0110 2.3930
2.3366 6.1368 2.3932
2.1261 6.2566 2.3933
0.8113 2.7049 1.0163
0.7135 2.7349 1.0106
0.6148 2.7612 1.0048
0.5151 2.7840 0.9989
0.4147 2.8031 0.9929
0.3136 2.8186 0.9869
0.2121 2.8304 0.9808
0.1102 2.8385 0.9746
0.0080 2.8430 0.9684
-0.0942 2.8437 0.9621
-0.1964 2.8407 0.9559
-0.2985 2.8340 0.9496
-0.4002 2.8237 0.9433
-0.5015 2.8096 0.9369
-0.6022 2.7919 0.9306
-0.7022 2.7705 0.9243
-0.8013 2.7456 0.9180
-0.8995 2.7170 0.9118
-2.6470 7.1313 2.4052
-2.9220 7.0861 2.4055
-3.1970 7.0305 2.4058
-3.4715 6.9642 2.4061
-3.7451 6.8872 2.4063
-4.0173 6.7993 2.4064
-4.2876 6.7005 2.4065
-4.5556 6.5908 2.4066
-4.8207 6.4700 2.4066
-5.0824 6.3383 2.4065
-5.3402 6.1956 2.4064
-5.5936 6.0420 2.4062
-5.8419 5.8775 2.4059
-6.0846 5.7023 2.4056
-6.3213 5.5166 2.4052
-6.5511 5.3205 2.4048
-6.7704 5.1114 2.4030
-6.9770 4.8896 2.3997
-7.1726 4.6570 2.3955
-7.3716 4.4236 2.3955
-7.5616 4.1812 2.3954
-7.7419 3.9301 2.3954
-7.9121 3.6708 2.3953
-8.0717 3.4036 2.3952
-8.2203 3.1290 2.3952
-8.3575 2.8475 2.3951
-8.4827 2.5596 2.3950
-8.5957 2.2658 2.3949
-8.6961 1.9667 2.3948
-8.7836 1.6630 2.3947
-8.8578 1.3552 2.3946
-8.9186 1.0439 2.3945
-8.9657 0.7298 2.3943
-8.9990 0.4136 2.3942
-9.0183 0.0959 2.3941
-9.0236 -0.2225 2.3939
-9.0148 -0.5409 2.3938
-8.9918 -0.8588 2.3936
-8.9548 -1.1753 2.3935
-8.9039 -1.4898 2.3933
-8.8391 -1.8017 2.3931
-8.7606 -2.1101 2.3930
-8.6687 -2.4146 2.3928
-8.5635 -2.7143 2.3927
-8.4455 -3.0088 2.3925
-8.3148 -3.2974 2.3923
-8.1720 -3.5794 2.3921
-8.0172 -3.8545 2.3920
-7.8511 -4.1220 2.3918
-7.6740 -4.3815 2.3916
-7.4864 -4.6324 2.3914
-7.2888 -4.8744 2.3913
-7.0818 -5.1071 2.3911
-6.8657 -5.3300 2.3909
-6.6413 -5.5429 2.3908
-6.4091 -5.7456 2.3906
-6.1696 -5.9376 2.3904
-5.9233 -6.1188 2.3903
-5.6710 -6.2891 2.3901
-5.4131 -6.4482 2.3900
-5.1502 -6.5960 2.3898
-4.8829 -6.7325 2.3897
-4.6118 -6.8576 2.3895
-4.3374 -6.9713 2.3894
-4.0602 -7.0735 2.3893
-3.7808 -7.1644 2.3891
-3.4998 -7.2439 2.3890
-3.2176 -7.3121 2.3889
-2.9346 -7.3692 2.3888
-2.6529 -7.4190 2.3899
-2.3726 -7.4627 2.3925
-2.0896 -7.4861 2.3920
-1.8082 -7.5003 2.3921
-1.5284 -7.5041 2.3921
-1.2504 -7.4977 2.3921
-0.9747 -7.4813 2.3921
-0.7016 -7.4551 2.3921
-0.4314 -7.4195 2.3921
-0.1646 -7.3745 2.3921
0.0987 -7.3205 2.3920
0.3581 -7.2576 2.3920
0.6134 -7.1863 2.3920
0.8643 -7.1067 2.3920
1.1105 -7.0192 2.3920
1.3520 -6.9238 2.3919
1.5884 -6.8211 2.3919
1.8196 -6.7111 2.3919
2.0455 -6.5942 2.3918
2.2658 -6.4706 2.3918
2.4804 -6.3407 2.3918
2.6892 -6.2046 2.3917
2.8920 -6.0626 2.3917
3.0888 -5.9150 2.3916
3.2795 -5.7620 2.3916
3.4639 -5.6038 2.3915
3.6420 -5.4408 2.3915
3.8137 -5.2732 2.3914
3.9789 -5.1011 2.3914
4.1377 -4.9248 2.3913
4.2899 -4.7446 2.3912
4.4355 -4.5607 2.3912
4.5745 -4.3732 2.3911
4.7068 -4.1824 2.3911
4.8324 -3.9886 2.3910
4.9513 -3.7918 2.3909
5.0635 -3.5923 2.3909
5.1689 -3.3903 2.3908
5.2676 -3.1860 2.3907
5.3596 -2.9796 2.3907
5.4448 -2.7713 2.3906
5.5232 -2.5611 2.3905
5.5949 -2.3494 2.3904
5.6598 -2.1362 2.3904
5.7180 -1.9218 2.3903
5.7694 -1.7064 2.3902
5.8141 -1.4899 2.3901
5.8521 -1.2728 2.3901
5.8834 -1.0550 2.3900
5.9080 -0.8368 2.3899
5.9259 -0.6183 2.3898
5.9372 -0.3996 2.3898
5.9417 -0.1810 2.3897
5.9397 0.0375 2.3896
5.9310 0.2556 2.3895
5.9157 0.4733 2.3895
5.8938 0.6904 2.3894
5.8653 0.9067 2.3893
5.8303 1.1222 2.3892
5.7887 1.3365 2.3891
5.7406 1.5497 2.3891
5.6860 1.7615 2.3890
5.6249 1.9718 2.3889
5.5573 2.1805 2.3888
5.4833 2.3873 2.3888
5.4028 2.5922 2.3887
5.3160 2.7949 2.3886
5.2227 2.9954 2.3886
5.1232 3.1935 2.3885
5.0173 3.3890 2.3884
4.9051 3.5817 2.3883
4.7867 3.7715 2.3883
4.6620 3.9582 2.3882
4.5311 4.1416 2.3881
4.3942 4.3215 2.3881
4.2511 4.4979 2.3880
4.1019 4.6705 2.3879
3.9468 4.8391 2.3879
3.7857 5.0035 2.3878
3.6187 5.1635 2.3877
3.4459 5.3190 2.3877
3.2674 5.4697 2.3876
3.0832 5.6155 2.3876
2.8944 5.7580 2.3884
2.7036 5.9033 2.3923
2.5034 6.0353 2.3931
2.2972 6.1599 2.3932
2.0857 6.2785 2.3933
0.7929 2.7109 1.0152
0.6949 2.7401 1.0095
0.5960 2.7658 1.0037
0.4962 2.7879 0.9978
0.3956 2.8063 0.9918
0.2945 2.8211 0.9857
0.1928 2.8322 0.9796
0.0909 2.8397 0.9734
-0.0113 2.8434 0.9672
-0.1136 2.8434 0.9610
-0.2157 2.8397 0.9547
-0.3177 2.8324 0.9484
-0.4194 2.8213 0.9421
-0.5206 2.8065 0.9357
-0.6211 2.7881 0.9294
-0.7210 2.7661 0.9231
-0.8200 2.7405 0.9169
-0.9180 2.7112 0.9106
-2.6991 7.1235 2.4053
-2.9741 7.0764 2.4056
-3.2489 7.0188 2.4059
-3.5233 6.9505 2.4061
-3.7967 6.8714 2.4063
-4.0686 6.7814 2.4065
-4.3385 6.6806 2.4065
-4.6060 6.5688 2.4066
-4.8705 6.4459 2.4066
-5.1315 6.3121 2.4065
-5.3885 6.1674 2.4063
-5.6409 6.0117 2.4061
-5.8882 5.8452 2.4059
-6.1299 5.6680 2.4055
-6.3653 5.4803 2.4052
-6.5938 5.2822 2.4047
-6.8102 5.0702 2.4024
-7.0148 4.8463 2.3989
-7.2109 4.6136 2.3955
-7.4083 4.3784 2.3955
-7.5964 4.1344 2.3954
-7.7749 3.8817 2.3954
-7.9431 3.6208 2.3953
-8.1007 3.3522 2.3952
-8.2472 3.0762 2.3952
-8.3821 2.7935 2.3951
-8.5050 2.5044 2.3950
-8.6157 2.2096 2.3949
-8.7136 1.9096 2.3948
-8.7986 1.6050 2.3947
-8.8703 1.2965 2.3946
-8.9286 0.9847 2.3944
-8.9731 0.6701 2.3943
-9.0037 0.3536 2.3942
-9.0204 0.0358 2.3940
-9.0230 -0.2827 2.3939
-9.0115 -0.6011 2.3937
-8.9859 -0.9188 2.3936
-8.9463 -1.2350 2.3934
-8.8927 -1.5490 2.3933
-8.8253 -1.8603 2.3931
-8.7442 -2.1680 2.3930
-8.6498 -2.4716 2.3928
-8.5422 -2.7704 2.3926
-8.4217 -3.0638 2.3924
-8.2887 -3.3512 2.3923
-8.1436 -3.6320 2.3921
-7.9867 -3.9057 2.3919
-7.8184 -4.1717 2.3918
-7.6393 -4.4296 2.3916
-7.4498 -4.6789 2.3914
-7.2503 -4.9191 2.3912
-7.0416 -5.1500 2.3911
-6.8239 -5.3711 2.3909
-6.5980 -5.5821 2.3907
-6.3643 -5.7827 2.3906
-6.1235 -5.9727 2.3904
-5.8761 -6.1519 2.3902
-5.6226 -6.3200 2.3901
-5.3637 -6.4770 2.3899
-5.1000 -6.6227 2.3898
-4.8319 -6.7571 2.3896
-4.5601 -6.8800 2.3895
-4.2851 -6.9915 2.3894
-4.0075 -7.0916 2.3892
-3.7278 -7.1803 2.3891
-3.4465 -7.2577 2.3890
-3.1641 -7.3238 2.3889
-2.8811 -7.3788 2.3887
-2.6006 -7.4302 2.3910
-2.3186 -7.4668 2.3920
-2.0363 -7.4896 2.3920
-1.7552 -7.5018 2.3921
-1.4756 -7.5037 2.3921
-7.6479 2.6573 2.3948
-7.7627 2.3938 2.3947
-7.8663 2.1251 2.3946
-7.9586 1.8517 2.3945
-8.0393 1.5740 2.3944
-8.1080 1.2926 2.3943
-8.1647 1.0080 2.3942
-8.2090 0.7210 2.3941
-8.2409 0.4319 2.3940
-8.2602 0.1415 2.3938
-8.2669 -0.1497 2.3937
-8.2609 -0.4411 2.3936
-8.2422 -0.7319 2.3934
-8.2108 -1.0217 2.3933
-8.1668 -1.3099 2.3932
-8.1104 -1.5957 2.3930
-8.0416 -1.8787 2.3929
-7.9607 -2.1581 2.3927
-7.8677 -2.4336 2.3926
-7.7631 -2.7044 2.3924
-7.6470 -2.9701 2.3922
-7.5198 -3.2301 2.3921
-7.3818 -3.4840 2.3919
-7.2334 -3.7312 2.3918
-7.0748 -3.9713 2.3916
-6.9067 -4.2040 2.3915
-6.7293 -4.4287 2.3913
-6.5432 -4.6451 2.3911
-6.3488 -4.8530 2.3910
-6.1465 -5.0519 2.3908
-5.9369 -5.2416 2.3907
-5.7204 -5.4219 2.3905
-5.4975 -5.5925 2.3904
-5.2689 -5.7533 2.3902
-5.0348 -5.9040 2.3901
-4.7960 -6.0446 2.3900
-4.5528 -6.1750 2.3898
-4.3058 -6.2950 2.3897
-4.0555 -6.4047 2.3896
-3.8024 -6.5040 2.3894
-3.5469 -6.5929 2.3893
-3.2895 -6.6715 2.3892
-3.0307 -6.7397 2.3891
-2.7710 -6.7978 2.3890
-2.5107 -6.8456 2.3889
-2.2529 -6.8915 2.3915
-1.9929 -6.9206 2.3918
-1.7332 -6.9391 2.3919
-1.4746 -6.9479 2.3919
-1.2175 -6.9472 2.3919
-0.9621 -6.9372 2.3919
-0.7088 -6.9181 2.3919
-0.4580 -6.8901 2.3919
-0.2099 -6.8533 2.3919
0.0351 -6.8081 2.3919
0.2769 -6.7546 2.3918
0.5151 -6.6930 2.3918
0.7494 -6.6235 2.3918
0.9798 -6.5465 2.3918
1.2059 -6.4622 2.3918
1.4275 -6.3707 2.3917
1.6445 -6.2723 2.3917
1.8567 -6.1673 2.3917
2.0640 -6.0559 2.3916
2.2661 -5.9383 2.3916
2.4629 -5.8148 2.3916
2.6543 -5.6856 2.3915
2.8403 -5.5509 2.3915
3.0206 -5.4110 2.3914
3.1952 -5.2661 2.3914
3.3640 -5.1165 2.3914
3.5270 -4.9623 2.3913
3.6840 -4.8038 2.3913
3.8349 -4.6411 2.3912
3.9798 -4.4746 2.3911
4.1186 -4.3043 2.3911
4.2512 -4.1306 2.3910
4.3776 -3.9536 2.3910
4.4977 -3.7735 2.3909
4.6116 -3.5905 2.3908
4.7191 -3.4048 2.3908
4.8204 -3.2166 2.3907
4.9153 -3.0261 2.3907
5.0038 -2.8334 2.3906
5.0860 -2.6388 2.3905
5.1618 -2.4424 2.3905
5.2312 -2.2443 2.3904
5.2943 -2.0447 2.3903
5.3510 -1.8439 2.3903
5.4012 -1.6420 2.3902
5.4452 -1.4390 2.3901
5.4827 -1.2353 2.3900
5.5139 -1.0309 2.3900
5.5387 -0.8260 2.3899
5.5572 -0.6208 2.3898
5.5693 -0.4154 2.3898
5.5751 -0.2099 2.3897
5.5746 -0.0045 2.3896
5.5678 0.2006 2.3895
5.5547 0.4053 2.3895
5.5353 0.6094 2.3894
5.5097 0.8129 2.3893
5.4778 1.0156 2.3893
5.4397 1.2172 2.3892
5.3954 1.4177 2.3891
5.3450 1.6170 2.3890
5.2883 1.8148 2.3890
5.2256 2.0110 2.3889
5.1567 2.2055 2.3888
5.0817 2.3981 2.3888
5.0006 2.5887 2.3887
4.9136 2.7771 2.3886
4.8205 2.9631 2.3886
4.7214 3.1467 2.3885
4.6164 3.3276 2.3884
4.5055 3.5057 2.3884
4.3887 3.6808 2.3883
4.2662 3.8528 2.3882
4.1378 4.0214 2.3882
4.0037 4.1866 2.3881
3.8640 4.3481 2.3880
3.7186 4.5058 2.3880
3.5677 4.6594 2.3879
3.4113 4.8089 2.3879
3.2495 4.9540 2.3878
3.0823 5.0946 2.3878
2.9099 5.2304 2.3877
2.7334 5.3634 2.3886
2.5544 5.4972 2.3920
2.3673 5.6200 2.3929
2.1746 5.7355 2.3930
0.8394 2.4818 1.0161
0.7497 2.5128 1.0109
0.6589 2.5406 1.0055
0.5671 2.5651 1.0001
0.4745 2.5862 0.9947
0.3812 2.6040 0.9891
0.2873 2.6183 0.9835
0.1929 2.6293 0.9778
0.0983 2.6368 0.9721
0.0033 2.6410 0.9663
-0.0916 2.6416 0.9605
-0.1866 2.6388 0.9547
-0.2814 2.6326 0.9488
-0.3759 2.6230 0.9430
-0.4700 2.6099 0.9371
-0.5636 2.5935 0.9312
-0.6565 2.5736 0.9254
-0.7486 2.5504 0.9196
-0.8399 2.5239 0.9137
-0.9301 2.4941 0.9080
-2.7053 6.5329 2.3949
-2.9582 6.4802 2.3959
-3.2111 6.4188 2.3973
-3.4629 6.3467 2.3983
-3.7129 6.2640 2.3990
-3.9605 6.1705 2.3993
-4.2053 6.0664 2.3994
-4.4467 5.9515 2.3990
-4.6841 5.8260 2.3984
-4.9169 5.6899 2.3974
-5.1447 5.5433 2.3960
-5.3690 5.3889 2.3953
-5.5898 5.2264 2.3953
-5.8050 5.0546 2.3953
-6.0142 4.8735 2.3953
-6.2168 4.6832 2.3952
-6.4124 4.4842 2.3952
-6.6005 4.2765 2.3952
-6.7807 4.0605 2.3951
-6.9525 3.8364 2.3951
-7.1154 3.6046 2.3950
-7.2691 3.3655 2.3950
-7.4131 3.1194 2.3949
-7.5470 2.8667 2.3948
-7.6704 2.6079 2.3948
-7.7831 2.3434 2.3947
-7.8847 2.0738 2.3946
-7.9748 1.7994 2.3945
-8.0532 1.5210 2.3944
-8.1197 1.2390 2.3943
-8.1740 0.9539 2.3942
-8.2160 0.6664 2.3941
-8.2455 0.3771 2.3939
-8.2624 0.0864 2.3938
-8.2667 -0.2048 2.3937
-8.2583 -0.4961 2.3936
-8.2372 -0.7869 2.3934
-8.2035 -1.0764 2.3933
-8.1571 -1.3641 2.3931
-8.0983 -1.6495 2.3930
-8.0272 -1.9318 2.3928
-7.9440 -2.2106 2.3927
-7.8488 -2.4852 2.3925
-7.7420 -2.7551 2.3924
-7.6238 -3.0197 2.3922
-7.4945 -3.2786 2.3921
-7.3545 -3.5312 2.3919
-7.2041 -3.7772 2.3917
-7.0438 -4.0159 2.3916
-6.8738 -4.2471 2.3914
-6.6948 -4.4703 2.3913
-6.5071 -4.6851 2.3911
-6.3111 -4.8913 2.3910
-6.1074 -5.0885 2.3908
-5.8964 -5.2764 2.3906
-5.6787 -5.4549 2.3905
-5.4547 -5.6237 2.3904
-5.2250 -5.7825 2.3902
-4.9900 -5.9314 2.3901
-4.7503 -6.0700 2.3899
-4.5064 -6.1985 2.3898
-4.2587 -6.3166 2.3897
-4.0078 -6.4243 2.3895
-3.7542 -6.5216 2.3894
-3.4983 -6.6086 2.3893
-3.2407 -6.6852 2.3892
-2.9816 -6.7515 2.3891
-2.7218 -6.8076 2.3890
-2.4619 -6.8549 2.3893
-2.2046 -6.9006 2.3926
-1.9437 -6.9248 2.3919
-1.6842 -6.9415 2.3919
-1.4259 -6.9485 2.3919
-1.1690 -6.9460 2.3919
-0.9140 -6.9343 2.3919
-0.6612 -6.9135 2.3919
-0.4109 -6.8838 2.3919
-0.1633 -6.8454 2.3919
0.0811 -6.7986 2.3919
0.3222 -6.7435 2.3918
0.5597 -6.6804 2.3918
0.7933 -6.6095 2.3918
1.0229 -6.5311 2.3918
1.2482 -6.4454 2.3918
1.4689 -6.3526 2.3917
1.6850 -6.2529 2.3917
1.8963 -6.1467 2.3917
2.1026 -6.0341 2.3916
2.3037 -5.9154 2.3916
2.4995 -5.7908 2.3916
2.6899 -5.6605 2.3915
2.8748 -5.5248 2.3915
3.0541 -5.3840 2.3914
3.2276 -5.2382 2.3914
3.3953 -5.0877 2.3913
3.5571 -4.9326 2.3913
3.7130 -4.7733 2.3912
3.8628 -4.6099 2.3912
4.0065 -4.4426 2.3911
4.1441 -4.2717 2.3911
4.2756 -4.0974 2.3910
4.4008 -3.9198 2.3910
4.5197 -3.7391 2.3909
4.6324 -3.5556 2.3908
4.7388 -3.3694 2.3908
4.8388 -3.1808 2.3907
4.9325 -2.9898 2.3906
5.0198 -2.7968 2.3906
5.1008 -2.6018 2.3905
5.1754 -2.4050 2.3904
5.2437 -2.2067 2.3904
5.3055 -2.0069 2.3903
5.3610 -1.8058 2.3902
5.4100 -1.6037 2.3902
5.4527 -1.4006 2.3901
5.4891 -1.1967 2.3900
5.5191 -0.9922 2.3900
5.5427 -0.7873 2.3899
5.5599 -0.5820 2.3898
5.5709 -0.3765 2.3897
5.5755 -0.1711 2.3897
5.5738 0.0343 2.3896
5.5658 0.2393 2.3895
5.5515 0.4439 2.3895
5.5309 0.6480 2.3894
5.5041 0.8513 2.3893
5.4711 1.0538 2.3892
5.4318 1.2552 2.3892
5.3864 1.4555 2.3891
5.3347 1.6545 2.3890
5.2769 1.8520 2.3890
5.2130 2.0479 2.3889
5.1429 2.2421 2.3888
5.0668 2.4343 2.3887
4.9846 2.6245 2.3887
4.8964 2.8125 2.3886
4.8022 2.9980 2.3885
4.7020 3.1811 2.3885
4.5959 3.3615 2.3884
4.4839 3.5390 2.3883
4.3660 3.7136 2.3883
4.2423 3.8849 2.3882
4.1129 4.0529 2.3881
3.9777 4.2174 2.3881
3.8369 4.3782 2.3880
3.6905 4.5351 2.3880
3.5385 4.6880 2.3879
3.3811 4.8367 2.3879
3.2182 4.9809 2.3878
3.0501 5.1206 2.3877
2.8767 5.2555 2.3877
2.7002 5.3895 2.3895
2.5202 5.5225 2.3929
2.3313 5.6423 2.3929
2.1376 5.7568 2.3931
0.8225 2.4879 1.0151
0.7326 2.5183 1.0099
0.6416 2.5455 1.0045
0.5496 2.5693 0.9991
0.4569 2.5898 0.9936
0.3635 2.6069 0.9881
0.2695 2.6207 0.9824
0.1751 2.6310 0.9768
0.0803 2.6379 0.9710
-0.0146 2.6413 0.9652
-0.1096 2.6414 0.9594
-0.2045 2.6379 0.9536
-0.2993 2.6311 0.9477
-0.3937 2.6208 0.9419
-0.4877 2.6071 0.9360
-0.5812 2.5900 0.9301
-0.6740 2.5695 0.9243
-0.7659 2.5457 0.9185
-0.8570 2.5185 0.9126
-0.9470 2.4881 0.9069
-2.7529 6.5232 2.3950
-3.0060 6.4695 2.3962
-3.2588 6.4060 2.3975
-3.5104 6.3319 2.3984
-3.7599 6.2471 2.3991
-4.0070 6.1516 2.3994
-4.2512 6.0455 2.3993
-4.4919 5.9286 2.3989
-4.7285 5.8010 2.3982
-4.9604 5.6630 2.3971
-5.1863 5.5135 2.3953
-5.4112 5.3589 2.3953
-5.6310 5.1946 2.3953
-5.8451 5.0210 2.3953
-6.0530 4.8382 2.3952
-6.2544 4.6463 2.3952
-6.4486 4.4456 2.3952
-6.6352 4.2363 2.3952
-6.8138 4.0187 2.3951
-6.9840 3.7931 2.3951
-7.1452 3.5599 2.3950
-7.2971 3.3194 2.3950
-7.4392 3.0720 2.3949
-7.5711 2.8182 2.3948
-7.6926 2.5583 2.3947
-7.8032 2.2928 2.3947
-7.9026 2.0222 2.3946
-7.9905 1.7471 2.3945
-8.0667 1.4679 2.3944
-8.1309 1.1853 2.3943
-8.1829 0.8997 2.3942
-8.2225 0.6118 2.3940
-8.2497 0.3222 2.3939
-8.2642 0.0314 2.3938
-8.2661 -0.2599 2.3937
-8.2553 -0.5512 2.3935
-8.2318 -0.8417 2.3934
-8.1957 -1.1310 2.3932
-8.1470 -1.4183 2.3931
-8.0858 -1.7031 2.3930
-8.0124 -1.9848 2.3928
-7.9269 -2.2628 2.3927
-7.8295 -2.5366 2.3925
-7.7205 -2.8055 2.3923
-7.6002 -3.0691 2.3922
-7.4689 -3.3269 2.3920
-7.3269 -3.5783 2.3919
-7.1746 -3.8229 2.3917
-7.0124 -4.0602 2.3916
-6.8407 -4.2899 2.3914
-6.6599 -4.5116 2.3912
-6.4706 -4.7248 2.3911
-6.2731 -4.9293 2.3909
-6.0680 -5.1248 2.3908
-5.8557 -5.3109 2.3906
-5.6368 -5.4876 2.3905
-5.4117 -5.6545 2.3903
-5.1809 -5.8115 2.3902
-4.9450 -5.9584 2.3900
-4.7045 -6.0951 2.3899
-4.4598 -6.2216 2.3898
-4.2115 -6.3377 2.3896
-3.9601 -6.4435 2.3895
-3.7060 -6.5388 2.3894
-3.4497 -6.6238 2.3893
-3.1918 -6.6985 2.3891
-2.9325 -6.7629 2.3890
-2.6725 -6.8171 2.3889
-2.4138 -6.8656 2.3904
-2.1552 -6.9058 2.3924
-1.8946 -6.9287 2.3919
-1.6353 -6.9435 2.3919
-1.3772 -6.9487 2.3919
-7.0604 2.4479 2.3945
-7.1645 2.2046 2.3944
-7.2584 1.9565 2.3943
-7.3420 1.7042 2.3942
-7.4149 1.4482 2.3942
-7.4770 1.1889 2.3941
-7.5281 0.9268 2.3940
-7.5680 0.6624 2.3939
-7.5966 0.3963 2.3937
-7.6138 0.1289 2.3936
-7.6195 -0.1390 2.3935
-7.6136 -0.4071 2.3934
-7.5963 -0.6748 2.3933
-7.5675 -0.9415 2.3931
-7.5272 -1.2067 2.3930
-7.4756 -1.4698 2.3929
-7.4128 -1.7303 2.3927
-7.3390 -1.9877 2.3926
-7.2542 -2.2414 2.3924
-7.1588 -2.4911 2.3923
-7.0530 -2.7361 2.3922
-6.9371 -2.9760 2.3920
-6.8112 -3.2104 2.3919
-6.6759 -3.4389 2.3917
-6.5313 -3.6610 2.3916
-6.3779 -3.8763 2.3914
-6.2160 -4.0845 2.3913
-6.0460 -4.2853 2.3911
-5.8684 -4.4783 2.3910
-5.6835 -4.6633 2.3909
-5.4918 -4.8399 2.3907
-5.2937 -5.0080 2.3906
-5.0897 -5.1674 2.3904
-4.8802 -5.3178 2.3903
-4.6656 -5.4591 2.3902
-4.4464 -5.5913 2.3900
-4.2232 -5.7141 2.3899
-3.9962 -5.8275 2.3898
-3.7660 -5.9314 2.3897
-3.5330 -6.0258 2.3896
-3.2977 -6.1108 2.3894
-3.0604 -6.1862 2.3893
-2.8216 -6.2522 2.3892
-2.5818 -6.3088 2.3891
-2.3412 -6.3560 2.3890
-2.1018 -6.3983 2.3906
-1.8618 -6.4303 2.3917
-1.6212 -6.4503 2.3917
-1.3815 -6.4613 2.3917
-1.1428 -6.4635 2.3917
-0.9056 -6.4570 2.3917
-0.6701 -6.4421 2.3917
-0.4367 -6.4187 2.3917
-0.2056 -6.3873 2.3917
0.0228 -6.3478 2.3917
0.2483 -6.3006 2.3917
0.4707 -6.2458 2.3917
0.6897 -6.1836 2.3917
0.9052 -6.1142 2.3916
1.1168 -6.0378 2.3916
1.3245 -5.9547 2.3916
1.5279 -5.8651 2.3916
1.7270 -5.7691 2.3915
1.9216 -5.6670 2.3915
2.1115 -5.5591 2.3915
2.2967 -5.4455 2.3914
2.4768 -5.3264 2.3914
2.6520 -5.2020 2.3914
2.8219 -5.0727 2.3913
2.9866 -4.9385 2.3913
3.1460 -4.7997 2.3912
3.2999 -4.6565 2.3912
3.4482 -4.5091 2.3911
3.5910 -4.3578 2.3911
3.7281 -4.2026 2.3910
3.8595 -4.0439 2.3910
3.9851 -3.8817 2.3909
4.1050 -3.7163 2.3909
4.2189 -3.5480 2.3908
4.3270 -3.3767 2.3908
4.4291 -3.2029 2.3907
4.5253 -3.0265 2.3906
4.6155 -2.8479 2.3906
4.6998 -2.6671 2.3905
4.7780 -2.4844 2.3905
4.8502 -2.2999 2.3904
4.9163 -2.1138 2.3903
4.9765 -1.9262 2.3903
5.0305 -1.7374 2.3902
5.0785 -1.5474 2.3901
5.1205 -1.3564 2.3901
5.1564 -1.1646 2.3900
5.1863 -0.9722 2.3899
5.2101 -0.7792 2.3899
5.2279 -0.5859 2.3898
5.2397 -0.3923 2.3897
5.2454 -0.1987 2.3897
5.2451 -0.0052 2.3896
5.2389 0.1881 2.3895
5.2266 0.3811 2.3895
5.2084 0.5735 2.3894
5.1842 0.7652 2.3893
5.1541 0.9562 2.3893
5.1181 1.1462 2.3892
5.0761 1.3351 2.3891
5.0283 1.5228 2.3891
4.9746 1.7091 2.3890
4.9151 1.8939 2.3889
4.8498 2.0770 2.3889
4.7787 2.2582 2.3888
4.7019 2.4375 2.3887
4.6193 2.6147 2.3887
4.5310 2.7896 2.3886
4.4371 2.9620 2.3885
4.3376 3.1319 2.3885
4.2325 3.2991 2.3884
4.1219 3.4633 2.3884
4.0058 3.6245 2.3883
3.8842 3.7825 2.3882
3.7573 3.9371 2.3882
3.6250 4.0881 2.3881
3.4875 4.2355 2.3881
3.3448 4.3790 2.3880
3.1970 4.5184 2.3880
3.0441 4.6536 2.3879
2.8863 4.7844 2.3879
2.7235 4.9106 2.3878
2.5580 5.0359 2.3896
2.3888 5.1593 2.3927
2.2118 5.2714 2.3928
0.8618 2.2828 1.0157
0.7791 2.3147 1.0109
0.6954 2.3436 1.0061
0.6107 2.3695 1.0011
0.5251 2.3923 0.9961
0.4387 2.4120 0.9910
0.3517 2.4286 0.9858
0.2641 2.4420 0.9805
0.1761 2.4522 0.9752
0.0878 2.4592 0.9699
-0.0008 2.4630 0.9645
-0.0894 2.4637 0.9591
-0.1779 2.4611 0.9537
-0.2664 2.4553 0.9482
-0.3545 2.4463 0.9427
-0.4423 2.4341 0.9373
-0.5296 2.4187 0.9318
-0.6162 2.4002 0.9263
-0.7022 2.3786 0.9209
-0.7873 2.3539 0.9155
-0.8714 2.3261 0.9101
-0.9545 2.2952 0.9047
-2.7596 6.0211 2.3947
-2.9918 5.9582 2.3948
-3.2228 5.8863 2.3948
-3.4523 5.8054 2.3949
-3.6798 5.7155 2.3949
-3.9049 5.6166 2.3949
-4.1273 5.5086 2.3949
-4.3465 5.3916 2.3950
-4.5622 5.2657 2.3950
-4.7738 5.1309 2.3950
-4.9810 4.9872 2.3950
-5.1834 4.8349 2.3950
-5.3804 4.6740 2.3950
-5.5718 4.5047 2.3949
-5.7570 4.3272 2.3949
-5.9356 4.1417 2.3949
-6.1073 3.9484 2.3949
-6.2716 3.7476 2.3948
-6.4281 3.5396 2.3948
-6.5765 3.3246 2.3947
-6.7163 3.1030 2.3947
-6.8471 2.8752 2.3946
-6.9688 2.6414 2.3946
-7.0808 2.4022 2.3945
-7.1830 2.1580 2.3944
-7.2750 1.9091 2.3943
-7.3566 1.6561 2.3942
-7.4275 1.3994 2.3941
-7.4875 1.1395 2.3940
-7.5365 0.8769 2.3939
-7.5743 0.6122 2.3938
-7.6007 0.3458 2.3937
-7.6157 0.0783 2.3936
-7.6192 -0.1897 2.3935
-7.6112 -0.4578 2.3934
-7.5917 -0.7253 2.3932
-7.5607 -0.9918 2.3931
-7.5183 -1.2566 2.3930
-7.4646 -1.5193 2.3928
-7.3997 -1.7792 2.3927
-7.3238 -2.0360 2.3926
-7.2370 -2.2890 2.3924
-7.1396 -2.5378 2.3923
-7.0319 -2.7819 2.3921
-6.9140 -3.0208 2.3920
-6.7864 -3.2541 2.3918
-6.6492 -3.4814 2.3917
-6.5030 -3.7022 2.3916
-6.3479 -3.9162 2.3914
-6.1845 -4.1231 2.3913
-6.0130 -4.3224 2.3911
-5.8340 -4.5139 2.3910
-5.6478 -4.6973 2.3908
-5.4548 -4.8724 2.3907
-5.2556 -5.0388 2.3906
-5.0505 -5.1965 2.3904
-4.8400 -5.3452 2.3903
-4.6245 -5.4848 2.3902
-4.4045 -5.6152 2.3900
-4.1805 -5.7362 2.3899
-3.9529 -5.8478 2.3898
-3.7221 -5.9500 2.3897
-3.4887 -6.0426 2.3895
-3.2529 -6.1258 2.3894
-3.0154 -6.1994 2.3893
-2.7763 -6.2636 2.3892
-2.5363 -6.3184 2.3891
-2.2957 -6.3638 2.3890
-2.0571 -6.4071 2.3916
-1.8163 -6.4347 2.3917
-1.5758 -6.4530 2.3917
-1.3362 -6.4624 2.3917
-1.0978 -6.4629 2.3917
-0.8609 -6.4548 2.3917
-0.6258 -6.4383 2.3917
-0.3928 -6.4134 2.3917
-0.1622 -6.3804 2.3917
0.0657 -6.3395 2.3917
0.2906 -6.2908 2.3917
0.5124 -6.2346 2.3917
0.7308 -6.1710 2.3917
0.9455 -6.1003 2.3916
1.1564 -6.0226 2.3916
1.3633 -5.9383 2.3916
1.5659 -5.8474 2.3916
1.7642 -5.7503 2.3915
1.9579 -5.6471 2.3915
2.1469 -5.5380 2.3915
2.3311 -5.4233 2.3914
2.5104 -5.3032 2.3914
2.6845 -5.1779 2.3914
2.8535 -5.0476 2.3913
3.0172 -4.9126 2.3913
3.1755 -4.7730 2.3912
3.3283 -4.6290 2.3912
3.4757 -4.4808 2.3911
3.6174 -4.3287 2.3911
3.7534 -4.1729 2.3910
3.8837 -4.0134 2.3910
4.0082 -3.8507 2.3909
4.1270 -3.6847 2.3909
4.2398 -3.5158 2.3908
4.3468 -3.3441 2.3908
4.4478 -3.1697 2.3907
4.5428 -2.9929 2.3906
4.6319 -2.8139 2.3906
4.7150 -2.6327 2.3905
4.7921 -2.4497 2.3905
4.8632 -2.2648 2.3904
4.9282 -2.0784 2.3903
4.9871 -1.8906 2.3903
5.0401 -1.7015 2.3902
5.0869 -1.5113 2.3901
5.1278 -1.3202 2.3901
5.1625 -1.1283 2.3900
5.1913 -0.9357 2.3899
5.2139 -0.7427 2.3899
5.2306 -0.5493 2.3898
5.2412 -0.3557 2.3897
5.2458 -0.1621 2.3897
5.2444 0.0314 2.3896
5.2370 0.2246 2.3895
5.2236 0.4175 2.3895
5.2043 0.6098 2.3894
5.1790 0.8014 2.3893
5.1477 0.9922 2.3893
5.1106 1.1820 2.3892
5.0675 1.3707 2.3891
5.0186 1.5582 2.3890
4.9638 1.7442 2.3890
4.9032 1.9286 2.3889
4.8368 2.1114 2.3889
4.7646 2.2923 2.3888
4.6867 2.4712 2.3887
4.6030 2.6479 2.3887
4.5137 2.8224 2.3886
4.4187 2.9944 2.3885
4.3181 3.1638 2.3885
4.2120 3.3304 2.3884
4.1003 3.4940 2.3883
3.9832 3.6546 2.3883
3.8606 3.8120 2.3882
3.7327 3.9659 2.3882
3.5994 4.1163 2.3881
3.4609 4.2629 2.3881
3.3172 4.4056 2.3880
3.1685 4.5443 2.3880
3.0146 4.6786 2.3879
2.8559 4.8086 2.3879
2.6922 4.9339 2.3878
2.5266 5.0601 2.3904
2.3563 5.1824 2.3933
2.1778 5.2920 2.3928
0.8462 2.2890 1.0148
0.7634 2.3204 1.0100
0.6795 2.3488 1.0051
0.5946 2.3741 1.0002
0.5088 2.3963 0.9951
0.4223 2.4154 0.9900
0.3352 2.4314 0.9848
0.2475 2.4441 0.9795
0.1594 2.4538 0.9742
0.0710 2.4602 0.9689
-0.0175 2.4634 0.9635
-0.1061 2.4634 0.9581
-0.1947 2.4602 0.9526
-0.2831 2.4538 0.9472
-0.3712 2.4442 0.9417
-0.4589 2.4314 0.9362
-0.5460 2.4155 0.9308
-0.6326 2.3964 0.9253
-0.7184 2.3741 0.9199
-0.8033 2.3488 0.9144
-0.8872 2.3205 0.9091
-2.5706 6.0656 2.3947
-2.8035 6.0099 2.3947
-3.0356 5.9453 2.3948
-3.2664 5.8717 2.3948
-3.4955 5.7891 2.3949
-3.7226 5.6975 2.3949
-3.9472 5.5968 2.3949
-4.1691 5.4872 2.3949
-4.3876 5.3685 2.3950
-4.6025 5.2409 2.3950
-4.8134 5.1044 2.3950
-5.0197 4.9591 2.3950
-5.2210 4.8051 2.3950
-5.4171 4.6426 2.3950
-5.6073 4.4718 2.3949
-5.7913 4.2928 2.3949
-5.9687 4.1058 2.3949
-6.1390 3.9110 2.3949
-6.3018 3.7088 2.3948
-6.4568 3.4994 2.3948
-6.6036 3.2832 2.3947
-6.7417 3.0604 2.3947
-6.8709 2.8314 2.3946
-6.9907 2.5966 2.3945
-7.1009 2.3564 2.3945
-7.2012 2.1113 2.3944
-7.2913 1.8616 2.3943
-7.3708 1.6078 2.3942
-7.4397 1.3505 2.3941
-7.4977 1.0900 2.3940
-7.5445 0.8270 2.3939
-7.5802 0.5619 2.3938
-7.6044 0.2953 2.3937
-7.6173 0.0276 2.3936
-7.6186 -0.2405 2.3935
-7.6084 -0.5085 2.3933
-7.5868 -0.7758 2.3932
-7.5536 -1.0420 2.3931
-7.5090 -1.3064 2.3929
-7.4532 -1.5686 2.3928
-7.3862 -1.8280 2.3927
-7.3082 -2.0841 2.3925
-7.2194 -2.3364 2.3924
-7.1200 -2.5843 2.3922
-7.0103 -2.8275 2.3921
-6.8906 -3.0654 2.3920
-6.7611 -3.2976 2.3918
-6.6223 -3.5237 2.3917
-6.4743 -3.7432 2.3915
-6.3176 -3.9559 2.3914
-6.1526 -4.1614 2.3912
-5.9797 -4.3592 2.3911
-5.7993 -4.5492 2.3909
-5.6118 -4.7311 2.3908
-5.4176 -4.9045 2.3907
-5.2172 -5.0693 2.3905
-5.0110 -5.2253 2.3904
-4.7996 -5.3723 2.3903
-4.5832 -5.5102 2.3901
-4.3624 -5.6388 2.3900
-4.1377 -5.7581 2.3899
-3.9095 -5.8679 2.3898
-3.6782 -5.9682 2.3896
-3.4443 -6.0591 2.3895
-3.2081 -6.1404 2.3894
-2.9702 -6.2123 2.3893
-2.7310 -6.2747 2.3892
-2.4908 -6.3277 2.3891
-2.2510 -6.3737 2.3899
-2.0124 -6.4157 2.3926
-1.7707 -6.4389 2.3917
-1.5304 -6.4555 2.3917
-1.2910 -6.4632 2.3917
-6.5501 2.2660 2.3942
