ply
format ascii 1.0
element vertex 2180
property float32 x
property float32 y
property float32 z
end_header
-2.1096 -6.6219 2.3961
-1.8692 -6.6841 2.3961
-1.6270 -6.7372 2.3961
-1.3832 -6.7814 2.3961
-1.1383 -6.8165 2.3961
-0.8926 -6.8425 2.3961
-0.6464 -6.8595 2.3961
-0.4001 -6.8674 2.3961
-0.1541 -6.8663 2.3961
0.0915 -6.8562 2.3961
0.3361 -6.8371 2.3961
0.5796 -6.8092 2.3961
0.8214 -6.7725 2.3961
1.0615 -6.7270 2.3961
1.2993 -6.6730 2.3961
1.5347 -6.6105 2.3961
1.7673 -6.5396 2.3961
1.9968 -6.4605 2.3961
2.2230 -6.3733 2.3961
2.4455 -6.2781 2.3961
2.6641 -6.1752 2.3961
2.8785 -6.0647 2.3961
3.0885 -5.9467 2.3961
3.2938 -5.8215 2.3961
3.4941 -5.6893 2.3961
3.6893 -5.5502 2.3961
3.8791 -5.4045 2.3961
4.0634 -5.2524 2.3961
4.2418 -5.0941 2.3961
4.4142 -4.9299 2.3961
4.5805 -4.7599 2.3961
4.7403 -4.5844 2.3961
4.8937 -4.4036 2.3961
5.0403 -4.2179 2.3961
5.1802 -4.0273 2.3961
5.3130 -3.8323 2.3961
5.4387 -3.6330 2.3961
5.5572 -3.4297 2.3961
5.6684 -3.2227 2.3961
5.7721 -3.0122 2.3961
5.8683 -2.7985 2.3961
5.9569 -2.5819 2.3961
6.0377 -2.3625 2.3961
6.1108 -2.1408 2.3961
6.1760 -1.9169 2.3961
6.2334 -1.6912 2.3961
6.2828 -1.4638 2.3961
6.3243 -1.2351 2.3961
6.3579 -1.0054 2.3961
6.3834 -0.7748 2.3961
6.4009 -0.5437 2.3961
6.4104 -0.3124 2.3961
6.4120 -0.0810 2.3961
6.4055 0.1501 2.3961
6.3911 0.3807 2.3961
6.3688 0.6104 2.3961
6.3387 0.8392 2.3961
6.3006 1.0666 2.3961
6.2549 1.2925 2.3961
6.2013 1.5166 2.3961
6.1402 1.7386 2.3961
6.0715 1.9583 2.3961
5.9952 2.1755 2.3961
5.9116 2.3899 2.3961
5.8207 2.6012 2.3961
5.7227 2.8093 2.3961
5.6175 3.0139 2.3961
5.5054 3.2147 2.3961
5.3864 3.4116 2.3961
5.2607 3.6044 2.3961
5.1285 3.7927 2.3961
4.9898 3.9764 2.3961
4.8449 4.1553 2.3961
4.6938 4.3292 2.3961
4.5368 4.4978 2.3961
4.3740 4.6611 2.3961
4.2056 4.8187 2.3961
4.0318 4.9705 2.3961
3.8527 5.1164 2.3961
3.6686 5.2560 2.3961
3.4796 5.3894 2.3961
3.2860 5.5162 2.3961
3.0880 5.6364 2.3961
2.8858 5.7498 2.3961
2.6795 5.8562 2.3961
2.4696 5.9555 2.3961
2.2560 6.0476 2.3961
0.8314 2.5004 0.9770
0.7411 2.5293 0.9760
0.6497 2.5550 0.9750
0.5574 2.5774 0.9739
0.4644 2.5965 0.9728
0.3707 2.6122 0.9717
0.2766 2.6245 0.9705
0.1820 2.6334 0.9693
0.0872 2.6388 0.9680
-0.0077 2.6409 0.9667
-0.1027 2.6395 0.9654
-0.1976 2.6347 0.9641
-0.2922 2.6265 0.9627
-0.3865 2.6148 0.9613
-0.4803 2.5998 0.9598
-0.5735 2.5814 0.9584
-0.6659 2.5596 0.9569
-0.7575 2.5346 0.9554
-0.8482 2.5062 0.9538
-2.3594 6.2262 2.3961
-2.5860 6.1486 2.3961
-2.8100 6.0629 2.3961
-3.0311 5.9690 2.3961
-3.2491 5.8671 2.3961
-3.4637 5.7573 2.3961
-3.6745 5.6397 2.3961
-3.8813 5.5144 2.3961
-4.0838 5.3816 2.3961
-4.2817 5.2413 2.3961
-4.4747 5.0936 2.3961
-4.6625 4.9389 2.3961
-4.8448 4.7772 2.3961
-5.0215 4.6088 2.3961
-5.1922 4.4338 2.3961
-5.3566 4.2524 2.3961
-5.5146 4.0648 2.3961
-5.6658 3.8714 2.3961
-5.8101 3.6722 2.3961
-5.9471 3.4677 2.3961
-6.0767 3.2579 2.3961
-6.1988 3.0432 2.3961
-6.3129 2.8239 2.3961
-6.4191 2.6003 2.3961
-6.5170 2.3726 2.3961
-6.6066 2.1412 2.3961
-6.6877 1.9064 2.3961
-6.7601 1.6684 2.3961
-6.8237 1.4277 2.3961
-6.8783 1.1845 2.3961
-6.9240 0.9392 2.3961
-6.9605 0.6922 2.3961
-6.9878 0.4438 2.3961
-7.0059 0.1943 2.3961
-7.0146 -0.0559 2.3961
-7.0140 -0.3065 2.3961
-7.0040 -0.5570 2.3961
-6.9846 -0.8071 2.3961
-6.9559 -1.0564 2.3961
-6.9178 -1.3047 2.3961
-6.8705 -1.5514 2.3961
-6.8139 -1.7963 2.3961
-6.7481 -2.0390 2.3961
-6.6733 -2.2792 2.3961
-6.5894 -2.5164 2.3961
-6.4968 -2.7503 2.3961
-6.3953 -2.9807 2.3961
-6.2853 -3.2070 2.3961
-6.1669 -3.4291 2.3961
-6.0402 -3.6466 2.3961
-5.9054 -3.8591 2.3961
-5.7628 -4.0664 2.3961
-5.6125 -4.2682 2.3961
-5.4548 -4.4641 2.3961
-5.2899 -4.6539 2.3961
-5.1181 -4.8373 2.3961
-4.9396 -5.0141 2.3961
-4.7547 -5.1840 2.3961
-4.5636 -5.3467 2.3961
-4.3668 -5.5021 2.3961
-4.1643 -5.6500 2.3961
-3.9567 -5.7900 2.3961
-3.7441 -5.9221 2.3961
-3.5270 -6.0461 2.3961
-3.3055 -6.1618 2.3961
-3.0801 -6.2691 2.3961
-2.8511 -6.3679 2.3961
-2.6188 -6.4579 2.3961
-2.3835 -6.5393 2.3961
-2.1457 -6.6117 2.3961
-1.9056 -6.6752 2.3961
-1.6636 -6.7298 2.3961
-1.4201 -6.7753 2.3961
-1.1753 -6.8118 2.3961
-0.9297 -6.8392 2.3961
-0.6836 -6.8575 2.3961
-0.4373 -6.8668 2.3961
-0.1911 -6.8670 2.3961
0.0545 -6.8583 2.3961
0.2993 -6.8406 2.3961
0.5429 -6.8140 2.3961
0.7851 -6.7786 2.3961
1.0254 -6.7344 2.3961
1.2636 -6.6817 2.3961
1.4994 -6.6205 2.3961
1.7324 -6.5508 2.3961
1.9624 -6.4729 2.3961
2.1891 -6.3869 2.3961
2.4122 -6.2930 2.3961
2.6314 -6.1912 2.3961
2.8464 -6.0818 2.3961
3.0571 -5.9650 2.3961
3.2631 -5.8409 2.3961
3.4642 -5.7097 2.3961
3.6602 -5.5717 2.3961
3.8509 -5.4269 2.3961
4.0359 -5.2758 2.3961
4.2153 -5.1184 2.3961
4.3886 -4.9550 2.3961
4.5558 -4.7859 2.3961
4.7166 -4.6112 2.3961
4.8710 -4.4312 2.3961
5.0186 -4.2462 2.3961
5.1595 -4.0564 2.3961
5.2934 -3.8620 2.3961
5.4202 -3.6633 2.3961
5.5398 -3.4606 2.3961
5.6521 -3.2542 2.3961
5.7570 -3.0442 2.3961
5.8543 -2.8309 2.3961
5.9440 -2.6147 2.3961
6.0260 -2.3958 2.3961
6.1003 -2.1744 2.3961
6.1667 -1.9508 2.3961
6.2252 -1.7253 2.3961
6.2759 -1.4982 2.3961
6.3186 -1.2697 2.3961
6.3533 -1.0401 2.3961
6.3800 -0.8096 2.3961
6.3988 -0.5786 2.3961
6.4095 -0.3473 2.3961
6.4123 -0.1159 2.3961
6.4070 0.1152 2.3961
6.3938 0.3459 2.3961
6.3727 0.5758 2.3961
6.3437 0.8048 2.3961
6.3069 1.0324 2.3961
6.2623 1.2585 2.3961
6.2099 1.4829 2.3961
6.1499 1.7053 2.3961
6.0823 1.9253 2.3961
6.0072 2.1429 2.3961
5.9247 2.3577 2.3961
5.8349 2.5695 2.3961
5.9488 -0.9091 2.3961
5.9718 -0.6934 2.3961
5.9875 -0.4772 2.3961
5.9955 -0.2607 2.3961
5.9961 -0.0443 2.3961
5.9893 0.1718 2.3961
5.9750 0.3875 2.3961
5.9532 0.6024 2.3961
5.9241 0.8163 2.3961
5.8876 1.0289 2.3961
5.8438 1.2401 2.3961
5.7928 1.4495 2.3961
5.7346 1.6570 2.3961
5.6693 1.8623 2.3961
5.5970 2.0652 2.3961
5.5178 2.2654 2.3961
5.4318 2.4628 2.3961
5.3390 2.6571 2.3961
5.2396 2.8480 2.3961
5.1337 3.0354 2.3961
5.0213 3.2191 2.3961
4.9027 3.3988 2.3961
4.7780 3.5744 2.3961
4.6472 3.7456 2.3961
4.5106 3.9122 2.3961
4.3683 4.0741 2.3961
4.2205 4.2311 2.3961
4.0672 4.3829 2.3961
3.9087 4.5294 2.3961
3.7452 4.6704 2.3961
3.5767 4.8058 2.3961
3.4036 4.9354 2.3961
3.2260 5.0590 2.3961
3.0441 5.1765 2.3961
2.8581 5.2877 2.3961
2.6682 5.3925 2.3961
2.4746 5.4907 2.3961
2.2775 5.5822 2.3961
0.8455 2.3066 0.9753
0.7620 2.3362 0.9744
0.6776 2.3628 0.9735
0.5922 2.3863 0.9726
0.5060 2.4067 0.9716
0.4191 2.4239 0.9705
0.3317 2.4381 0.9695
0.2438 2.4491 0.9684
0.1556 2.4569 0.9672
0.0671 2.4615 0.9660
-0.0215 2.4629 0.9648
-0.1101 2.4611 0.9636
-0.1985 2.4562 0.9623
-0.2867 2.4480 0.9610
-0.3746 2.4367 0.9597
-0.4620 2.4222 0.9584
-0.5489 2.4045 0.9570
-0.6350 2.3838 0.9556
-0.7203 2.3599 0.9542
-0.8047 2.3330 0.9528
-0.8881 2.3031 0.9513
-2.4477 5.7264 2.3961
-2.6562 5.6446 2.3961
-2.8619 5.5553 2.3961
-3.0645 5.4585 2.3961
-3.2638 5.3544 2.3961
-3.4596 5.2430 2.3961
-3.6516 5.1244 2.3961
-3.8394 4.9989 2.3961
-4.0228 4.8667 2.3961
-4.2017 4.7273 2.3961
-4.3756 4.5815 2.3961
-4.5444 4.4293 2.3961
-4.7078 4.2709 2.3961
-4.8655 4.1064 2.3961
-5.0174 3.9361 2.3961
-5.1631 3.7600 2.3961
-5.3026 3.5786 2.3961
-5.4355 3.3919 2.3961
-5.5616 3.2002 2.3961
-5.6808 3.0038 2.3961
-5.7928 2.8029 2.3961
-5.8975 2.5978 2.3961
-5.9947 2.3887 2.3961
-6.0843 2.1759 2.3961
-6.1660 1.9597 2.3961
-6.2398 1.7405 2.3961
-6.3054 1.5184 2.3961
-6.3629 1.2938 2.3961
-6.4121 1.0670 2.3961
-6.4529 0.8384 2.3961
-6.4851 0.6082 2.3961
-6.5089 0.3768 2.3961
-6.5240 0.1445 2.3961
-6.5304 -0.0885 2.3961
-6.5282 -0.3216 2.3961
-6.5173 -0.5546 2.3961
-6.4977 -0.7872 2.3961
-6.4694 -1.0191 2.3961
-6.4325 -1.2498 2.3961
-6.3869 -1.4791 2.3961
-6.3328 -1.7066 2.3961
-6.2702 -1.9320 2.3961
-6.1991 -2.1550 2.3961
-6.1198 -2.3752 2.3961
-6.0323 -2.5923 2.3961
-5.9367 -2.8060 2.3961
-5.8331 -3.0160 2.3961
-5.7218 -3.2220 2.3961
-5.6028 -3.4236 2.3961
-5.4764 -3.6206 2.3961
-5.3427 -3.8128 2.3961
-5.2019 -3.9997 2.3961
-5.0543 -4.1812 2.3961
-4.9000 -4.3571 2.3961
-4.7394 -4.5269 2.3961
-4.5725 -4.6906 2.3961
-4.3998 -4.8478 2.3961
-4.2214 -4.9985 2.3961
-4.0376 -5.1422 2.3961
-3.8487 -5.2790 2.3961
-3.6550 -5.4085 2.3961
-3.4567 -5.5306 2.3961
-3.2541 -5.6452 2.3961
-3.0476 -5.7521 2.3961
-2.8375 -5.8512 2.3961
-2.6240 -5.9423 2.3961
-2.4075 -6.0253 2.3961
-2.1883 -6.1003 2.3961
-1.9666 -6.1670 2.3961
-1.7429 -6.2254 2.3961
-1.5175 -6.2755 2.3961
-1.2906 -6.3171 2.3961
-1.0626 -6.3504 2.3961
-0.8338 -6.3752 2.3961
-0.6046 -6.3916 2.3961
-0.3751 -6.3996 2.3961
-0.1459 -6.3992 2.3961
0.0829 -6.3904 2.3961
0.3109 -6.3733 2.3961
0.5379 -6.3479 2.3961
0.7634 -6.3143 2.3961
0.9873 -6.2726 2.3961
1.2091 -6.2229 2.3961
1.4288 -6.1653 2.3961
1.6458 -6.0998 2.3961
1.8601 -6.0267 2.3961
2.0712 -5.9460 2.3961
2.2790 -5.8579 2.3961
2.4832 -5.7625 2.3961
2.6836 -5.6600 2.3961
2.8798 -5.5505 2.3961
3.0717 -5.4343 2.3961
3.2590 -5.3114 2.3961
3.4416 -5.1822 2.3961
3.6192 -5.0467 2.3961
3.7916 -4.9052 2.3961
3.9586 -4.7579 2.3961
4.1200 -4.6050 2.3961
4.2757 -4.4467 2.3961
4.4254 -4.2832 2.3961
4.5691 -4.1148 2.3961
4.7066 -3.9416 2.3961
4.8377 -3.7640 2.3961
4.9623 -3.5821 2.3961
5.0802 -3.3962 2.3961
5.1914 -3.2065 2.3961
5.2958 -3.0133 2.3961
5.3932 -2.8168 2.3961
5.4836 -2.6173 2.3961
5.5668 -2.4149 2.3961
5.6428 -2.2101 2.3961
5.7116 -2.0029 2.3961
5.7730 -1.7937 2.3961
5.8271 -1.5827 2.3961
5.8737 -1.3702 2.3961
5.9129 -1.1564 2.3961
5.9446 -0.9415 2.3961
5.9689 -0.7259 2.3961
5.9856 -0.5098 2.3961
5.9948 -0.2934 2.3961
5.9965 -0.0770 2.3961
5.9908 0.1393 2.3961
5.9776 0.3550 2.3961
5.9569 0.5700 2.3961
5.9289 0.7841 2.3961
5.8935 0.9969 2.3961
5.8509 1.2083 2.3961
5.8009 1.4181 2.3961
5.7438 1.6259 2.3961
5.6796 1.8315 2.3961
5.6084 2.0348 2.3961
5.5302 2.2354 2.3961
5.4452 2.4332 2.3961
5.3534 2.6280 2.3961
5.2550 2.8194 2.3961
5.1500 3.0074 2.3961
5.0387 3.1916 2.3961
4.9210 3.3720 2.3961
4.7972 3.5482 2.3961
4.6674 3.7200 2.3961
4.5316 3.8874 2.3961
4.3901 4.0500 2.3961
4.2431 4.2077 2.3961
4.0907 4.3603 2.3961
3.9330 4.5076 2.3961
3.7702 4.6495 2.3961
3.6025 4.7858 2.3961
3.4301 4.9163 2.3961
3.2531 5.0408 2.3961
3.0718 5.1592 2.3961
2.8864 5.2713 2.3961
2.6971 5.3771 2.3961
2.5040 5.4763 2.3961
2.3075 5.5688 2.3961
0.8580 2.3019 0.9754
0.7747 2.3319 0.9745
0.6904 2.3590 0.9736
0.6051 2.3829 0.9727
0.5191 2.4038 0.9717
0.4323 2.4215 0.9707
0.3449 2.4362 0.9696
0.2571 2.4476 0.9685
0.1689 2.4559 0.9674
0.0805 2.4610 0.9662
-0.0081 2.4629 0.9650
-0.0967 2.4616 0.9638
-0.1852 2.4571 0.9625
-0.2735 2.4495 0.9612
-0.3614 2.4386 0.9599
-0.4489 2.4246 0.9586
-0.5358 2.4074 0.9572
-0.6221 2.3871 0.9558
-0.7075 2.3637 0.9544
-0.7921 2.3373 0.9530
-0.8756 2.3078 0.9515
-2.4161 5.7381 2.3961
-2.6249 5.6574 2.3961
-2.8310 5.5692 2.3961
-3.0341 5.4736 2.3961
-3.2340 5.3705 2.3961
-3.4303 5.2602 2.3961
-3.6229 5.1428 2.3961
-3.8114 5.0183 2.3961
-3.9955 4.8869 2.3961
-4.1750 4.7487 2.3961
-4.3497 4.6038 2.3961
-4.5193 4.4527 2.3961
-4.6835 4.2952 2.3961
-4.8421 4.1316 2.3961
-4.9949 3.9621 2.3961
-5.1416 3.7869 2.3961
-5.2820 3.6063 2.3961
-5.4159 3.4204 2.3961
-5.5430 3.2292 2.3961
-5.6633 3.0337 2.3961
-5.7764 2.8335 2.3961
-5.8822 2.6289 2.3961
-5.9806 2.4205 2.3961
-6.0713 2.2082 2.3961
-6.1542 1.9926 2.3961
-6.2292 1.7737 2.3961
-6.2961 1.5521 2.3961
-6.3548 1.3279 2.3961
-6.4052 1.1014 2.3961
-6.4473 0.8730 2.3961
-6.4808 0.6430 2.3961
-6.5058 0.4118 2.3961
-6.5222 0.1795 2.3961
-6.5300 -0.0533 2.3961
-6.5291 -0.2864 2.3961
-6.5195 -0.5195 2.3961
-6.5012 -0.7522 2.3961
-6.4742 -0.9842 2.3961
-6.4386 -1.2151 2.3961
-6.3943 -1.4446 2.3961
-6.3415 -1.6724 2.3961
-6.2802 -1.8982 2.3961
-6.2104 -2.1215 2.3961
-6.1323 -2.3421 2.3961
-6.0460 -2.5597 2.3961
-5.9516 -2.7740 2.3961
-5.8492 -2.9846 2.3961
-5.7391 -3.1912 2.3961
-5.6212 -3.3935 2.3961
-5.4959 -3.5912 2.3961
-5.3633 -3.7841 2.3961
-5.2236 -3.9719 2.3961
-5.0770 -4.1542 2.3961
-4.9237 -4.3309 2.3961
-4.7640 -4.5017 2.3961
-4.5981 -4.6663 2.3961
-4.4262 -4.8245 2.3961
-4.2487 -4.9762 2.3961
-4.0657 -5.1210 2.3961
-3.8775 -5.2588 2.3961
-3.6845 -5.3894 2.3961
-3.4868 -5.5127 2.3961
-3.2849 -5.6284 2.3961
-3.0790 -5.7365 2.3961
-2.8694 -5.8367 2.3961
-2.6564 -5.9290 2.3961
-2.4403 -6.0133 2.3961
-2.2215 -6.0895 2.3961
-2.0002 -6.1574 2.3961
-1.7768 -6.2171 2.3961
-1.5516 -6.2684 2.3961
-1.3249 -6.3114 2.3961
-1.0971 -6.3459 2.3961
-0.8684 -6.3720 2.3961
-0.6392 -6.3897 2.3961
-0.4097 -6.3989 2.3961
-0.1804 -6.3998 2.3961
0.0485 -6.3922 2.3961
0.2766 -6.3764 2.3961
0.5037 -6.3522 2.3961
0.7295 -6.3199 2.3961
0.9536 -6.2794 2.3961
1.1758 -6.2309 2.3961
1.3958 -6.1745 2.3961
1.6133 -6.1102 2.3961
1.8280 -6.0382 2.3961
2.0396 -5.9586 2.3961
2.2479 -5.8716 2.3961
2.4527 -5.7773 2.3961
2.6536 -5.6759 2.3961
2.8505 -5.5675 2.3961
3.0430 -5.4522 2.3961
3.2311 -5.3304 2.3961
3.4144 -5.2021 2.3961
3.5927 -5.0675 2.3961
3.7659 -4.9270 2.3961
3.9337 -4.7805 2.3961
4.0960 -4.6284 2.3961
4.2526 -4.4709 2.3961
4.4032 -4.3082 2.3961
4.5479 -4.1405 2.3961
4.6863 -3.9681 2.3961
4.8183 -3.7911 2.3961
4.9439 -3.6098 2.3961
5.0629 -3.4245 2.3961
5.1751 -3.2354 2.3961
5.2805 -3.0427 2.3961
5.3790 -2.8466 2.3961
5.4704 -2.6475 2.3961
5.5547 -2.4456 2.3961
5.6318 -2.2411 2.3961
5.7017 -2.0343 2.3961
5.7642 -1.8254 2.3961
5.8194 -1.6146 2.3961
5.8671 -1.4023 2.3961
5.9075 -1.1887 2.3961
5.9403 -0.9740 2.3961
5.9657 -0.7585 2.3961
5.9835 -0.5424 2.3961
5.9939 -0.3260 2.3961
5.9968 -0.1096 2.3961
5.9921 0.1067 2.3961
5.9800 0.3225 2.3961
5.9605 0.5376 2.3961
5.9336 0.7519 2.3961
5.8993 0.9649 2.3961
5.8577 1.1766 2.3961
5.8089 1.3865 2.3961
5.7529 1.5946 2.3961
5.6898 1.8006 2.3961
5.6196 2.0043 2.3961
5.5424 2.2053 2.3961
5.4585 2.4036 2.3961
5.5796 -0.8541 2.3961
5.6015 -0.6517 2.3961
5.6164 -0.4489 2.3961
5.6243 -0.2458 2.3961
5.6251 -0.0427 2.3961
5.6189 0.1602 2.3961
5.6057 0.3626 2.3961
5.5854 0.5643 2.3961
5.5582 0.7651 2.3961
5.5242 0.9647 2.3961
5.4832 1.1629 2.3961
5.4355 1.3595 2.3961
5.3809 1.5543 2.3961
5.3198 1.7471 2.3961
5.2520 1.9376 2.3961
5.1777 2.1255 2.3961
5.0969 2.3108 2.3961
5.0098 2.4932 2.3961
4.9165 2.6724 2.3961
4.8171 2.8484 2.3961
4.7116 3.0208 2.3961
4.6002 3.1894 2.3961
4.4831 3.3542 2.3961
4.3603 3.5149 2.3961
4.2320 3.6712 2.3961
4.0983 3.8231 2.3961
3.9594 3.9703 2.3961
3.8154 4.1127 2.3961
3.6665 4.2501 2.3961
3.5129 4.3824 2.3961
3.3547 4.5093 2.3961
3.1921 4.6307 2.3961
3.0253 4.7465 2.3961
2.8545 4.8565 2.3961
2.6798 4.9606 2.3961
2.5015 5.0587 2.3961
2.3197 5.1505 2.3961
0.8676 2.1282 0.9739
0.7906 2.1586 0.9731
0.7124 2.1863 0.9723
0.6334 2.2112 0.9714
0.5534 2.2331 0.9705
0.4728 2.2522 0.9696
0.3915 2.2684 0.9686
0.3096 2.2816 0.9676
0.2274 2.2919 0.9666
0.1448 2.2992 0.9655
0.0619 2.3035 0.9644
-0.0210 2.3048 0.9633
-0.1039 2.3032 0.9621
-0.1867 2.2985 0.9610
-0.2693 2.2909 0.9597
-0.3515 2.2803 0.9585
-0.4333 2.2667 0.9573
-0.5146 2.2502 0.9560
-0.5952 2.2307 0.9547
-0.6751 2.2084 0.9534
-0.7541 2.1832 0.9520
-0.8321 2.1552 0.9507
-0.9091 2.1244 0.9493
-2.4896 5.2848 2.3961
-2.6819 5.2006 2.3961
-2.8714 5.1095 2.3961
-3.0578 5.0116 2.3961
-3.2407 4.9068 2.3961
-3.4201 4.7954 2.3961
-3.5956 4.6775 2.3961
-3.7669 4.5530 2.3961
-3.9339 4.4224 2.3961
-4.0963 4.2856 2.3961
-4.2538 4.1428 2.3961
-4.4062 3.9942 2.3961
-4.5534 3.8400 2.3961
-4.6950 3.6803 2.3961
-4.8309 3.5153 2.3961
-4.9609 3.3453 2.3961
-5.0847 3.1704 2.3961
-5.2022 2.9910 2.3961
-5.3132 2.8071 2.3961
-5.4175 2.6190 2.3961
-5.5149 2.4271 2.3961
-5.6053 2.2314 2.3961
-5.6886 2.0324 2.3961
-5.7646 1.8303 2.3961
-5.8331 1.6252 2.3961
-5.8941 1.4176 2.3961
-5.9474 1.2077 2.3961
-5.9929 0.9957 2.3961
-6.0307 0.7821 2.3961
-6.0605 0.5670 2.3961
-6.0823 0.3508 2.3961
-6.0961 0.1337 2.3961
-6.1018 -0.0838 2.3961
-6.0995 -0.3015 2.3961
-6.0891 -0.5192 2.3961
-6.0705 -0.7364 2.3961
-6.0439 -0.9529 2.3961
-6.0092 -1.1683 2.3961
-5.9665 -1.3824 2.3961
-5.9158 -1.5948 2.3961
-5.8572 -1.8053 2.3961
-5.7908 -2.0134 2.3961
-5.7166 -2.2190 2.3961
-5.6348 -2.4217 2.3961
-5.5455 -2.6212 2.3961
-5.4488 -2.8173 2.3961
-5.3448 -3.0096 2.3961
-5.2338 -3.1979 2.3961
-5.1158 -3.3819 2.3961
-4.9910 -3.5614 2.3961
-4.8596 -3.7360 2.3961
-4.7219 -3.9056 2.3961
-4.5780 -4.0698 2.3961
-4.4281 -4.2286 2.3961
-4.2724 -4.3816 2.3961
-4.1112 -4.5286 2.3961
-3.9447 -4.6694 2.3961
-3.7732 -4.8039 2.3961
-3.5970 -4.9318 2.3961
-3.4162 -5.0530 2.3961
-3.2311 -5.1673 2.3961
-3.0421 -5.2746 2.3961
-2.8493 -5.3748 2.3961
-2.6532 -5.4677 2.3961
-2.4539 -5.5532 2.3961
-2.2517 -5.6311 2.3961
-2.0470 -5.7015 2.3961
-1.8401 -5.7643 2.3961
-1.6311 -5.8193 2.3961
-1.4206 -5.8665 2.3961
-1.2086 -5.9059 2.3961
-0.9955 -5.9375 2.3961
-0.7817 -5.9612 2.3961
-0.5675 -5.9770 2.3961
-0.3530 -5.9850 2.3961
-0.1386 -5.9851 2.3961
0.0753 -5.9774 2.3961
0.2886 -5.9619 2.3961
0.5009 -5.9387 2.3961
0.7119 -5.9078 2.3961
0.9214 -5.8694 2.3961
1.1291 -5.8234 2.3961
1.3347 -5.7700 2.3961
1.5380 -5.7093 2.3961
1.7386 -5.6414 2.3961
1.9364 -5.5665 2.3961
2.1311 -5.4845 2.3961
2.3225 -5.3957 2.3961
2.5103 -5.3003 2.3961
2.6943 -5.1983 2.3961
2.8742 -5.0899 2.3961
3.0500 -4.9754 2.3961
3.2213 -4.8548 2.3961
3.3879 -4.7284 2.3961
3.5497 -4.5963 2.3961
3.7065 -4.4587 2.3961
3.8581 -4.3158 2.3961
4.0043 -4.1678 2.3961
4.1450 -4.0150 2.3961
4.2801 -3.8575 2.3961
4.4093 -3.6956 2.3961
4.5325 -3.5294 2.3961
4.6497 -3.3591 2.3961
4.7607 -3.1851 2.3961
4.8653 -3.0075 2.3961
4.9636 -2.8266 2.3961
5.0553 -2.6425 2.3961
5.1404 -2.4556 2.3961
5.2188 -2.2660 2.3961
5.2905 -2.0740 2.3961
5.3554 -1.8798 2.3961
5.4133 -1.6837 2.3961
5.4644 -1.4859 2.3961
5.5085 -1.2866 2.3961
5.5456 -1.0861 2.3961
5.5756 -0.8845 2.3961
5.5987 -0.6823 2.3961
5.6146 -0.4795 2.3961
5.6236 -0.2764 2.3961
5.6254 -0.0733 2.3961
5.6203 0.1296 2.3961
5.6081 0.3321 2.3961
5.5889 0.5339 2.3961
5.5628 0.7348 2.3961
5.5297 0.9346 2.3961
5.4898 1.1331 2.3961
5.4431 1.3300 2.3961
5.3896 1.5251 2.3961
5.3294 1.7181 2.3961
5.2626 1.9090 2.3961
5.1893 2.0973 2.3961
5.1095 2.2831 2.3961
5.0234 2.4659 2.3961
4.9310 2.6456 2.3961
4.8325 2.8221 2.3961
4.7279 2.9950 2.3961
4.6174 3.1642 2.3961
4.5011 3.3296 2.3961
4.3792 3.4909 2.3961
4.2516 3.6479 2.3961
4.1188 3.8005 2.3961
3.9807 3.9484 2.3961
3.8374 4.0916 2.3961
3.6893 4.2297 2.3961
3.5364 4.3627 2.3961
3.3789 4.4905 2.3961
3.2170 4.6127 2.3961
3.0508 4.7294 2.3961
2.8805 4.8403 2.3961
2.7064 4.9453 2.3961
2.5286 5.0443 2.3961
2.3473 5.1371 2.3961
0.8791 2.1233 0.9740
0.8022 2.1542 0.9732
0.7243 2.1823 0.9724
0.6454 2.2076 0.9716
0.5656 2.2300 0.9707
0.4850 2.2495 0.9698
0.4038 2.2661 0.9688
0.3220 2.2798 0.9678
0.2398 2.2905 0.9668
0.1572 2.2983 0.9657
0.0745 2.3030 0.9646
-0.0085 2.3048 0.9635
-0.0914 2.3036 0.9623
-0.1742 2.2994 0.9611
-0.2568 2.2922 0.9599
-0.3391 2.2820 0.9587
-0.4210 2.2689 0.9574
-0.5024 2.2528 0.9562
-0.5831 2.2339 0.9549
-0.6631 2.2120 0.9536
-0.7422 2.1872 0.9522
-0.8204 2.1596 0.9509
-0.8976 2.1292 0.9495
-2.4603 5.2969 2.3961
-2.6531 5.2138 2.3961
-2.8430 5.1237 2.3961
-3.0299 5.0268 2.3961
-3.2134 4.9230 2.3961
-3.3933 4.8126 2.3961
-3.5694 4.6957 2.3961
-3.7413 4.5722 2.3961
-3.9090 4.4425 2.3961
-4.0721 4.3066 2.3961
-4.2304 4.1644 2.3961
-4.3836 4.0170 2.3961
-4.5315 3.8636 2.3961
-4.6740 3.7047 2.3961
-4.8108 3.5405 2.3961
-4.9417 3.3713 2.3961
-5.0664 3.1971 2.3961
-5.1849 3.0183 2.3961
-5.2969 2.8351 2.3961
-5.4022 2.6476 2.3961
-5.5007 2.4563 2.3961
-5.5922 2.2611 2.3961
-5.6765 2.0627 2.3961
-5.7536 1.8609 2.3961
-5.8232 1.6563 2.3961
-5.8854 1.4491 2.3961
-5.9398 1.2395 2.3961
-5.9866 1.0278 2.3961
-6.0255 0.8144 2.3961
-6.0565 0.5995 2.3961
-6.0795 0.3834 2.3961
-6.0945 0.1665 2.3961
-6.1015 -0.0510 2.3961
-6.1004 -0.2687 2.3961
-6.0912 -0.4864 2.3961
-6.0738 -0.7037 2.3961
-6.0484 -0.9203 2.3961
-6.0149 -1.1359 2.3961
-5.9734 -1.3502 2.3961
-5.9239 -1.5629 2.3961
-5.8665 -1.7736 2.3961
-5.8013 -1.9822 2.3961
-5.7283 -2.1882 2.3961
-5.6476 -2.3913 2.3961
-5.5595 -2.5913 2.3961
-5.4639 -2.7880 2.3961
-5.3610 -2.9809 2.3961
-5.2510 -3.1698 2.3961
-5.1340 -3.3545 2.3961
-5.0103 -3.5346 2.3961
-4.8799 -3.7100 2.3961
-4.7431 -3.8803 2.3961
-4.6001 -4.0454 2.3961
-4.4510 -4.2050 2.3961
-4.2962 -4.3589 2.3961
-4.1359 -4.5068 2.3961
-3.9702 -4.6486 2.3961
-3.7994 -4.7840 2.3961
-3.6238 -4.9129 2.3961
-3.4437 -5.0352 2.3961
-3.2593 -5.1505 2.3961
-3.0708 -5.2589 2.3961
-2.8786 -5.3602 2.3961
-2.6830 -5.4541 2.3961
-2.4841 -5.5407 2.3961
-2.2824 -5.6199 2.3961
-2.0781 -5.6914 2.3961
-1.8714 -5.7553 2.3961
-1.6628 -5.8115 2.3961
-1.4524 -5.8599 2.3961
-1.2406 -5.9005 2.3961
-1.0278 -5.9332 2.3961
-0.8140 -5.9581 2.3961
-0.5998 -5.9751 2.3961
-0.3853 -5.9843 2.3961
-0.1709 -5.9856 2.3961
0.0431 -5.9790 2.3961
0.2565 -5.9647 2.3961
0.4689 -5.9427 2.3961
0.6802 -5.9130 2.3961
0.8899 -5.8757 2.3961
1.0979 -5.8308 2.3961
1.3038 -5.7786 2.3961
1.5075 -5.7190 2.3961
1.7085 -5.6521 2.3961
1.9068 -5.5782 2.3961
2.1020 -5.4973 2.3961
2.2939 -5.4096 2.3961
2.4822 -5.3151 2.3961
2.6668 -5.2141 2.3961
2.8474 -5.1067 2.3961
3.0237 -4.9931 2.3961
3.1957 -4.8734 2.3961
3.3631 -4.7478 2.3961
3.5256 -4.6165 2.3961
3.6832 -4.4798 2.3961
3.8356 -4.3377 2.3961
3.9826 -4.1905 2.3961
4.1242 -4.0384 2.3961
4.2601 -3.8816 2.3961
4.3902 -3.7203 2.3961
4.5143 -3.5547 2.3961
4.6324 -3.3851 2.3961
4.7443 -3.2116 2.3961
4.8500 -3.0345 2.3961
4.9492 -2.8541 2.3961
5.0419 -2.6705 2.3961
5.1280 -2.4840 2.3961
5.2074 -2.2948 2.3961
5.2801 -2.1031 2.3961
5.3460 -1.9092 2.3961
5.4050 -1.7134 2.3961
5.4571 -1.5158 2.3961
5.5023 -1.3167 2.3961
5.5404 -1.1164 2.3961
5.5715 -0.9150 2.3961
5.5956 -0.7128 2.3961
5.6127 -0.5101 2.3961
5.6227 -0.3071 2.3961
5.6256 -0.1039 2.3961
5.6215 0.0990 2.3961
5.6104 0.3016 2.3961
5.5922 0.5035 2.3961
5.5672 0.7046 2.3961
5.5352 0.9046 2.3961
5.4963 1.1033 2.3961
5.4506 1.3004 2.3961
5.3981 1.4958 2.3961
5.3389 1.6892 2.3961
5.2731 1.8803 2.3961
5.2008 2.0691 2.3961
5.1220 2.2552 2.3961
5.2476 -0.8046 2.3961
5.2685 -0.6143 2.3961
5.2827 -0.4234 2.3961
5.2904 -0.2323 2.3961
5.2913 -0.0412 2.3961
5.2857 0.1497 2.3961
5.2734 0.3402 2.3961
5.2545 0.5300 2.3961
5.2291 0.7190 2.3961
5.1972 0.9069 2.3961
5.1587 1.0935 2.3961
5.1139 1.2786 2.3961
5.0627 1.4619 2.3961
5.0052 1.6434 2.3961
4.9414 1.8227 2.3961
4.8715 1.9996 2.3961
4.7956 2.1740 2.3961
4.7136 2.3457 2.3961
4.6258 2.5144 2.3961
4.5321 2.6800 2.3961
4.4328 2.8423 2.3961
4.3280 3.0010 2.3961
4.2176 3.1561 2.3961
4.1020 3.3072 2.3961
3.9812 3.4543 2.3961
3.8553 3.5972 2.3961
3.7245 3.7357 2.3961
3.5889 3.8696 2.3961
3.4487 3.9988 2.3961
3.3040 4.1231 2.3961
3.1550 4.2424 2.3961
3.0019 4.3566 2.3961
2.8448 4.4653 2.3961
2.6840 4.5687 2.3961
2.5195 4.6664 2.3961
2.3516 4.7585 2.3961
0.8850 1.9664 0.9725
0.8137 1.9976 0.9719
0.7414 2.0262 0.9711
0.6680 2.0521 0.9704
0.5938 2.0755 0.9696
0.5188 2.0961 0.9687
0.4430 2.1140 0.9679
0.3667 2.1292 0.9670
0.2899 2.1416 0.9660
0.2126 2.1512 0.9650
0.1351 2.1580 0.9640
0.0573 2.1621 0.9630
-0.0205 2.1633 0.9619
-0.0983 2.1617 0.9609
-0.1761 2.1574 0.9597
-0.2536 2.1502 0.9586
-0.3308 2.1402 0.9574
-0.4076 2.1275 0.9563
-0.4839 2.1120 0.9551
-0.5596 2.0938 0.9538
-0.6346 2.0728 0.9526
-0.7088 2.0491 0.9513
-0.7820 2.0228 0.9501
-0.8543 1.9939 0.9488
-0.9255 1.9624 0.9475
-2.5207 4.8830 2.3961
-2.6985 4.7970 2.3961
-2.8732 4.7046 2.3961
-3.0448 4.6058 2.3961
-3.2129 4.5008 2.3961
-3.3773 4.3897 2.3961
-3.5379 4.2726 2.3961
-3.6943 4.1496 2.3961
-3.8464 4.0208 2.3961
-3.9939 3.8865 2.3961
-4.1366 3.7468 2.3961
-4.2743 3.6017 2.3961
-4.4068 3.4519 2.3961
-4.5340 3.2966 2.3961
-4.6555 3.1369 2.3961
-4.7713 2.9726 2.3961
-4.8812 2.8041 2.3961
-4.9849 2.6314 2.3961
-5.0823 2.4549 2.3961
-5.1733 2.2747 2.3961
-5.2577 2.0911 2.3961
-5.3355 1.9043 2.3961
-5.4063 1.7148 2.3961
-5.4702 1.5224 2.3961
-5.5270 1.3277 2.3961
-5.5767 1.1309 2.3961
-5.6191 0.9322 2.3961
-5.6541 0.7318 2.3961
-5.6818 0.5302 2.3961
-5.7019 0.3276 2.3961
-5.7146 0.1242 2.3961
-5.7198 -0.0797 2.3961
-5.7173 -0.2837 2.3961
-5.7073 -0.4876 2.3961
-5.6898 -0.6911 2.3961
-5.6646 -0.8939 2.3961
-5.6320 -1.0957 2.3961
-5.5918 -1.2962 2.3961
-5.5442 -1.4952 2.3961
-5.4892 -1.6923 2.3961
-5.4269 -1.8873 2.3961
-5.3574 -2.0799 2.3961
-5.2807 -2.2697 2.3961
-5.1970 -2.4566 2.3961
-5.1064 -2.6403 2.3961
-5.0090 -2.8204 2.3961
-4.9050 -2.9969 2.3961
-4.7945 -3.1692 2.3961
-4.6777 -3.3374 2.3961
-4.5547 -3.5010 2.3961
-4.4257 -3.6599 2.3961
-4.2910 -3.8139 2.3961
-4.1506 -3.9627 2.3961
-4.0049 -4.1061 2.3961
-3.8540 -4.2440 2.3961
-3.6982 -4.3761 2.3961
-3.5376 -4.5022 2.3961
-3.3726 -4.6223 2.3961
-3.2033 -4.7361 2.3961
-3.0300 -4.8434 2.3961
-2.8530 -4.9442 2.3961
-2.6725 -5.0383 2.3961
-2.4888 -5.1256 2.3961
-2.3021 -5.2061 2.3961
-2.1128 -5.2794 2.3961
-1.9210 -5.3457 2.3961
-1.7271 -5.4049 2.3961
-1.5314 -5.4568 2.3961
-1.3340 -5.5015 2.3961
-1.1354 -5.5388 2.3961
-0.9357 -5.5688 2.3961
-0.7352 -5.5914 2.3961
-0.5343 -5.6067 2.3961
-0.3332 -5.6146 2.3961
-0.1321 -5.6151 2.3961
0.0685 -5.6083 2.3961
0.2686 -5.5943 2.3961
0.4678 -5.5730 2.3961
0.6659 -5.5445 2.3961
0.8625 -5.5088 2.3961
1.0575 -5.4661 2.3961
1.2506 -5.4165 2.3961
1.4415 -5.3600 2.3961
1.6299 -5.2967 2.3961
1.8158 -5.2268 2.3961
1.9988 -5.1503 2.3961
2.1786 -5.0674 2.3961
2.3551 -4.9782 2.3961
2.5281 -4.8828 2.3961
2.6974 -4.7815 2.3961
2.8627 -4.6743 2.3961
3.0238 -4.5614 2.3961
3.1806 -4.4430 2.3961
3.3329 -4.3193 2.3961
3.4805 -4.1904 2.3961
3.6232 -4.0564 2.3961
3.7609 -3.9177 2.3961
3.8935 -3.7744 2.3961
4.0207 -3.6267 2.3961
4.1425 -3.4747 2.3961
4.2587 -3.3188 2.3961
4.3691 -3.1590 2.3961
4.4738 -2.9956 2.3961
4.5725 -2.8288 2.3961
4.6652 -2.6589 2.3961
4.7518 -2.4860 2.3961
4.8321 -2.3104 2.3961
4.9062 -2.1322 2.3961
4.9739 -1.9518 2.3961
5.0352 -1.7692 2.3961
5.0900 -1.5848 2.3961
5.1384 -1.3988 2.3961
5.1801 -1.2114 2.3961
5.2153 -1.0228 2.3961
5.2438 -0.8333 2.3961
5.2657 -0.6430 2.3961
5.2810 -0.4522 2.3961
5.2896 -0.2612 2.3961
5.2916 -0.0701 2.3961
5.2869 0.1209 2.3961
5.2757 0.3115 2.3961
5.2578 0.5014 2.3961
5.2334 0.6905 2.3961
5.2024 0.8786 2.3961
5.1649 1.0654 2.3961
5.1211 1.2507 2.3961
5.0708 1.4344 2.3961
5.0142 1.6161 2.3961
4.9514 1.7958 2.3961
4.8825 1.9731 2.3961
4.8074 2.1479 2.3961
4.7263 2.3200 2.3961
4.6394 2.4892 2.3961
4.5466 2.6552 2.3961
4.4482 2.8180 2.3961
4.3441 2.9773 2.3961
4.2346 3.1329 2.3961
4.1198 3.2847 2.3961
3.9997 3.4324 2.3961
3.8746 3.5759 2.3961
3.7445 3.7151 2.3961
3.6096 3.8497 2.3961
3.4701 3.9796 2.3961
3.3261 4.1047 2.3961
3.1778 4.2248 2.3961
3.0252 4.3397 2.3961
2.8688 4.4493 2.3961
2.7084 4.5535 2.3961
2.5445 4.6521 2.3961
2.3771 4.7450 2.3961
0.8957 1.9615 0.9726
0.8246 1.9930 0.9720
0.7524 2.0220 0.9712
0.6792 2.0484 0.9705
0.6051 2.0721 0.9697
0.5301 2.0931 0.9689
0.4545 2.1115 0.9680
0.3782 2.1270 0.9671
0.3015 2.1399 0.9662
0.2243 2.1499 0.9652
0.1468 2.1572 0.9642
0.0691 2.1616 0.9632
-0.0088 2.1633 0.9621
-0.0866 2.1622 0.9610
-0.1644 2.1582 0.9599
-0.2419 2.1515 0.9588
-0.3192 2.1419 0.9576
-0.3961 2.1296 0.9564
-0.4724 2.1145 0.9552
-0.5482 2.0967 0.9540
-0.6233 2.0761 0.9528
-0.6976 2.0529 0.9515
-0.7710 2.0270 0.9503
-0.8435 1.9984 0.9490
-0.9148 1.9673 0.9477
-2.4937 4.8954 2.3961
-2.6719 4.8104 2.3961
-2.8471 4.7189 2.3961
-3.0191 4.6211 2.3961
-3.1878 4.5171 2.3961
-3.3528 4.4069 2.3961
-3.5139 4.2906 2.3961
-3.6710 4.1685 2.3961
-3.8237 4.0406 2.3961
-3.9719 3.9071 2.3961
-4.1154 3.7682 2.3961
-4.2539 3.6239 2.3961
-4.3872 3.4746 2.3961
-4.5152 3.3203 2.3961
-4.6376 3.1613 2.3961
-4.7542 2.9977 2.3961
-4.8650 2.8298 2.3961
-4.9696 2.6577 2.3961
-5.0680 2.4817 2.3961
-5.1600 2.3021 2.3961
-5.2454 2.1190 2.3961
-5.3242 1.9327 2.3961
-5.3961 1.7435 2.3961
-5.4610 1.5516 2.3961
-5.5189 1.3572 2.3961
-5.5697 1.1607 2.3961
-5.6132 0.9622 2.3961
-5.6493 0.7622 2.3961
-5.6781 0.5607 2.3961
-5.6994 0.3582 2.3961
-5.7132 0.1549 2.3961
-5.7195 -0.0489 2.3961
-5.7182 -0.2529 2.3961
-5.7093 -0.4568 2.3961
-5.6929 -0.6604 2.3961
-5.6689 -0.8633 2.3961
-5.6374 -1.0653 2.3961
-5.5983 -1.2661 2.3961
-5.5518 -1.4653 2.3961
-5.4980 -1.6627 2.3961
-5.4368 -1.8580 2.3961
-5.3683 -2.0510 2.3961
-5.2927 -2.2412 2.3961
-5.2101 -2.4286 2.3961
-5.1205 -2.6128 2.3961
-5.0241 -2.7935 2.3961
-4.9211 -2.9705 2.3961
-4.8116 -3.1435 2.3961
-4.6957 -3.3123 2.3961
-4.5736 -3.4766 2.3961
-4.4456 -3.6363 2.3961
-4.3116 -3.7910 2.3961
-4.1721 -3.9406 2.3961
-4.0272 -4.0849 2.3961
-3.8771 -4.2236 2.3961
-3.7220 -4.3565 2.3961
-3.5621 -4.4836 2.3961
-3.3977 -4.6046 2.3961
-3.2291 -4.7193 2.3961
-3.0564 -4.8276 2.3961
-2.8799 -4.9294 2.3961
-2.6999 -5.0246 2.3961
-2.5167 -5.1129 2.3961
-2.3305 -5.1944 2.3961
-2.1415 -5.2688 2.3961
-1.9501 -5.3362 2.3961
-1.7565 -5.3964 2.3961
-1.5610 -5.4495 2.3961
-1.3639 -5.4952 2.3961
-1.1654 -5.5336 2.3961
-0.9659 -5.5647 2.3961
-0.7655 -5.5885 2.3961
-0.5646 -5.6048 2.3961
-0.3635 -5.6138 2.3961
-0.1624 -5.6155 2.3961
0.0383 -5.6098 2.3961
0.2385 -5.5968 2.3961
0.4379 -5.5766 2.3961
0.6361 -5.5492 2.3961
0.8330 -5.5146 2.3961
1.0282 -5.4730 2.3961
1.2216 -5.4244 2.3961
1.4128 -5.3689 2.3961
1.6017 -5.3067 2.3961
1.7879 -5.2377 2.3961
1.9714 -5.1622 2.3961
2.1517 -5.0803 2.3961
2.3287 -4.9920 2.3961
2.5023 -4.8976 2.3961
2.6721 -4.7971 2.3961
2.8380 -4.6908 2.3961
2.9998 -4.5788 2.3961
3.1572 -4.4612 2.3961
3.3102 -4.3383 2.3961
3.4585 -4.2101 2.3961
3.6020 -4.0770 2.3961
3.7405 -3.9390 2.3961
3.8738 -3.7963 2.3961
4.0019 -3.6492 2.3961
4.1245 -3.4979 2.3961
4.2415 -3.3425 2.3961
4.3528 -3.1833 2.3961
4.4584 -3.0205 2.3961
4.5580 -2.8542 2.3961
4.6516 -2.6847 2.3961
4.7391 -2.5123 2.3961
4.8204 -2.3370 2.3961
4.8954 -2.1592 2.3961
4.9641 -1.9791 2.3961
5.0264 -1.7969 2.3961
5.0822 -1.6128 2.3961
5.1315 -1.4270 2.3961
5.1742 -1.2398 2.3961
5.2104 -1.0513 2.3961
5.2400 -0.8619 2.3961
5.2629 -0.6717 2.3961
5.2791 -0.4810 2.3961
5.2888 -0.2900 2.3961
5.2917 -0.0989 2.3961
5.2881 0.0921 2.3961
5.2778 0.2827 2.3961
5.2609 0.4728 2.3961
5.2375 0.6621 2.3961
5.2075 0.8503 2.3961
5.1710 1.0373 2.3961
5.1281 1.2229 2.3961
5.0788 1.4068 2.3961
5.0232 1.5888 2.3961
4.9613 1.7688 2.3961
4.8933 1.9465 2.3961
4.8191 2.1217 2.3961
4.9471 -0.7599 2.3961
4.9671 -0.5804 2.3961
4.9807 -0.4004 2.3961
4.9881 -0.2202 2.3961
4.9892 -0.0399 2.3961
4.9840 0.1402 2.3961
4.9726 0.3199 2.3961
4.9549 0.4989 2.3961
4.9311 0.6772 2.3961
4.9011 0.8545 2.3961
4.8649 1.0306 2.3961
4.8227 1.2052 2.3961
4.7744 1.3782 2.3961
4.7203 1.5494 2.3961
4.6602 1.7186 2.3961
4.5942 1.8856 2.3961
4.5226 2.0501 2.3961
4.4453 2.2121 2.3961
4.3624 2.3713 2.3961
4.2741 2.5275 2.3961
4.1804 2.6806 2.3961
4.0814 2.8304 2.3961
3.9773 2.9766 2.3961
3.8681 3.1192 2.3961
3.7541 3.2579 2.3961
3.6352 3.3927 2.3961
3.5117 3.5233 2.3961
3.3837 3.6495 2.3961
3.2514 3.7713 2.3961
3.1148 3.8885 2.3961
2.9742 4.0009 2.3961
2.8297 4.1084 2.3961
2.6814 4.2109 2.3961
2.5296 4.3082 2.3961
2.3743 4.4002 2.3961
0.8982 1.8188 0.9713
0.8323 1.8506 0.9707
0.7652 1.8799 0.9700
0.6971 1.9068 0.9694
0.6280 1.9312 0.9686
0.5581 1.9532 0.9679
0.4875 1.9726 0.9671
0.4162 1.9894 0.9663
0.3444 2.0037 0.9654
0.2720 2.0153 0.9646
0.1993 2.0244 0.9636
0.1264 2.0308 0.9627
0.0532 2.0346 0.9617
-0.0201 2.0358 0.9607
-0.0933 2.0343 0.9597
-0.1665 2.0302 0.9586
-0.2395 2.0234 0.9576
-0.3122 2.0141 0.9565
-0.3844 2.0021 0.9554
-0.4563 1.9875 0.9542
-0.5275 1.9703 0.9531
-0.5981 1.9506 0.9519
-0.6679 1.9283 0.9507
-0.7369 1.9036 0.9496
-0.8049 1.8763 0.9484
-0.8719 1.8467 0.9471
-2.3754 4.5965 2.3961
-2.5425 4.5152 2.3961
-2.7069 4.4279 2.3961
-2.8682 4.3346 2.3961
-3.0262 4.2354 2.3961
-3.1807 4.1305 2.3961
-3.3316 4.0199 2.3961
-3.4785 3.9039 2.3961
-3.6213 3.7824 2.3961
-3.7599 3.6558 2.3961
-3.8938 3.5240 2.3961
-4.0231 3.3871 2.3961
-4.1475 3.2458 2.3961
-4.2668 3.0998 2.3961
-4.3808 2.9493 2.3961
-4.4894 2.7946 2.3961
-4.5924 2.6361 2.3961
-4.6896 2.4734 2.3961
-4.7809 2.3072 2.3961
-4.8662 2.1377 2.3961
-4.9453 1.9650 2.3961
-5.0180 1.7893 2.3961
-5.0843 1.6109 2.3961
-5.1441 1.4300 2.3961
-5.1972 1.2469 2.3961
-5.2436 1.0618 2.3961
-5.2832 0.8750 2.3961
-5.3159 0.6867 2.3961
-5.3416 0.4972 2.3961
-5.3604 0.3068 2.3961
-5.3721 0.1156 2.3961
-5.3767 -0.0759 2.3961
-5.3742 -0.2676 2.3961
-5.3646 -0.4592 2.3961
-5.3479 -0.6504 2.3961
-5.3242 -0.8409 2.3961
-5.2933 -1.0305 2.3961
-5.2555 -1.2189 2.3961
-5.2107 -1.4058 2.3961
-5.1589 -1.5909 2.3961
-5.1003 -1.7741 2.3961
-5.0349 -1.9550 2.3961
-4.9629 -2.1333 2.3961
-4.8842 -2.3089 2.3961
-4.7991 -2.4814 2.3961
-4.7076 -2.6507 2.3961
-4.6099 -2.8164 2.3961
-4.5062 -2.9784 2.3961
-4.3964 -3.1364 2.3961
-4.2810 -3.2901 2.3961
-4.1599 -3.4395 2.3961
-4.0333 -3.5842 2.3961
-3.9016 -3.7241 2.3961
-3.7648 -3.8589 2.3961
-3.6231 -3.9885 2.3961
-3.4768 -4.1128 2.3961
-3.3260 -4.2314 2.3961
-3.1711 -4.3444 2.3961
-3.0121 -4.4515 2.3961
-2.8494 -4.5525 2.3961
-2.6832 -4.6475 2.3961
-2.5137 -4.7361 2.3961
-2.3411 -4.8184 2.3961
-2.1658 -4.8942 2.3961
-1.9880 -4.9634 2.3961
-1.8078 -5.0260 2.3961
-1.6256 -5.0819 2.3961
-1.4417 -5.1310 2.3961
-1.2562 -5.1733 2.3961
-1.0695 -5.2087 2.3961
-0.8818 -5.2373 2.3961
-0.6934 -5.2589 2.3961
-0.5045 -5.2736 2.3961
-0.3154 -5.2814 2.3961
-0.1263 -5.2822 2.3961
0.0625 -5.2762 2.3961
0.2507 -5.2634 2.3961
0.4381 -5.2437 2.3961
0.6245 -5.2173 2.3961
0.8095 -5.1842 2.3961
0.9931 -5.1444 2.3961
1.1748 -5.0981 2.3961
1.3546 -5.0453 2.3961
1.5320 -4.9861 2.3961
1.7071 -4.9207 2.3961
1.8794 -4.8490 2.3961
2.0489 -4.7714 2.3961
2.2153 -4.6877 2.3961
2.3783 -4.5983 2.3961
2.5378 -4.5033 2.3961
2.6937 -4.4027 2.3961
2.8457 -4.2967 2.3961
2.9936 -4.1855 2.3961
3.1372 -4.0693 2.3961
3.2765 -3.9482 2.3961
3.4112 -3.8223 2.3961
3.5412 -3.6919 2.3961
3.6663 -3.5572 2.3961
3.7865 -3.4182 2.3961
3.9015 -3.2753 2.3961
4.0112 -3.1285 2.3961
4.1156 -2.9781 2.3961
4.2145 -2.8244 2.3961
4.3078 -2.6674 2.3961
4.3955 -2.5073 2.3961
4.4774 -2.3445 2.3961
4.5534 -2.1791 2.3961
4.6235 -2.0112 2.3961
4.6876 -1.8412 2.3961
4.7457 -1.6692 2.3961
4.7976 -1.4954 2.3961
4.8434 -1.3201 2.3961
4.8830 -1.1434 2.3961
4.9164 -0.9656 2.3961
4.9436 -0.7869 2.3961
4.9645 -0.6075 2.3961
4.9791 -0.4276 2.3961
4.9874 -0.2474 2.3961
4.9894 -0.0671 2.3961
4.9852 0.1130 2.3961
4.9747 0.2928 2.3961
4.9580 0.4720 2.3961
4.9351 0.6504 2.3961
4.9060 0.8278 2.3961
4.8708 1.0041 2.3961
4.8294 1.1790 2.3961
4.7821 1.3523 2.3961
4.7288 1.5237 2.3961
4.6696 1.6932 2.3961
4.6045 1.8605 2.3961
4.5338 2.0255 2.3961
4.4573 2.1879 2.3961
4.3753 2.3475 2.3961
4.2877 2.5042 2.3961
4.1948 2.6577 2.3961
4.0966 2.8080 2.3961
3.9933 2.9548 2.3961
3.8849 3.0979 2.3961
3.7716 3.2373 2.3961
3.6534 3.3726 2.3961
3.5306 3.5038 2.3961
3.4033 3.6307 2.3961
3.2716 3.7532 2.3961
3.1357 3.8711 2.3961
2.9957 3.9842 2.3961
2.8517 4.0925 2.3961
2.7040 4.1957 2.3961
2.5527 4.2938 2.3961
2.3980 4.3867 2.3961
0.9081 1.8138 0.9714
0.8423 1.8459 0.9708
0.7754 1.8756 0.9701
0.7074 1.9029 0.9695
0.6385 1.9277 0.9688
0.5687 1.9500 0.9680
0.4982 1.9698 0.9672
0.4270 1.9870 0.9664
0.3552 2.0017 0.9656
0.2830 2.0138 0.9647
0.2103 2.0232 0.9638
0.1374 2.0300 0.9628
0.0642 2.0342 0.9619
-0.0090 2.0358 0.9609
-0.0823 2.0347 0.9599
-0.1555 2.0310 0.9588
-0.2285 2.0246 0.9577
-0.3012 2.0156 0.9566
-0.3736 2.0040 0.9555
-0.4455 1.9898 0.9544
-0.5168 1.9731 0.9533
-0.5875 1.9537 0.9521
-0.6574 1.9318 0.9509
-0.7265 1.9075 0.9497
-0.7947 1.8806 0.9485
-0.8619 1.8513 0.9473
-0.9279 1.8196 0.9461
-2.5175 4.5279 2.3961
-2.6823 4.4414 2.3961
-2.8440 4.3490 2.3961
-3.0026 4.2507 2.3961
-3.1576 4.1467 2.3961
-3.3091 4.0370 2.3961
-3.4566 3.9217 2.3961
-3.6001 3.8011 2.3961
-3.7392 3.6752 2.3961
-3.8739 3.5442 2.3961
-4.0039 3.4082 2.3961
-4.1291 3.2675 2.3961
-4.2491 3.1221 2.3961
-4.3640 2.9723 2.3961
-4.4734 2.8182 2.3961
-4.5772 2.6605 2.3961
-4.6753 2.4982 2.3961
-4.7675 2.3325 2.3961
-4.8537 2.1635 2.3961
-4.9337 1.9912 2.3961
-5.0075 1.8160 2.3961
-5.0747 1.6380 2.3961
-5.1355 1.4574 2.3961
-5.1897 1.2747 2.3961
-5.2371 1.0899 2.3961
-5.2777 0.9032 2.3961
-5.3114 0.7152 2.3961
-5.3382 0.5259 2.3961
-5.3580 0.3356 2.3961
-5.3707 0.1445 2.3961
-5.3764 -0.0470 2.3961
-5.3750 -0.2387 2.3961
-5.3665 -0.4303 2.3961
-5.3509 -0.6216 2.3961
-5.3282 -0.8122 2.3961
-5.2985 -1.0020 2.3961
-5.2617 -1.1905 2.3961
-5.2179 -1.3777 2.3961
-5.1672 -1.5631 2.3961
-5.1096 -1.7466 2.3961
-5.0452 -1.9278 2.3961
-4.9742 -2.1066 2.3961
-4.8965 -2.2826 2.3961
-4.8124 -2.4556 2.3961
-4.7218 -2.6254 2.3961
-4.6251 -2.7916 2.3961
-4.5222 -2.9542 2.3961
-4.4134 -3.1128 2.3961
-4.2987 -3.2672 2.3961
-4.1785 -3.4172 2.3961
-4.0528 -3.5627 2.3961
-3.9218 -3.7033 2.3961
-3.7857 -3.8389 2.3961
-3.6448 -3.9693 2.3961
-3.4991 -4.0944 2.3961
-3.3490 -4.2139 2.3961
-3.1947 -4.3277 2.3961
-3.0363 -4.4357 2.3961
-2.8742 -4.5377 2.3961
-2.7085 -4.6335 2.3961
-2.5395 -4.7231 2.3961
-2.3673 -4.8064 2.3961
-2.1924 -4.8832 2.3961
-2.0149 -4.9534 2.3961
-1.8351 -5.0170 2.3961
-1.6532 -5.0739 2.3961
-1.4695 -5.1241 2.3961
-1.2843 -5.1674 2.3961
-1.0978 -5.2038 2.3961
-0.9102 -5.2334 2.3961
-0.7219 -5.2561 2.3961
-0.5330 -5.2718 2.3961
-0.3439 -5.2806 2.3961
-0.1548 -5.2826 2.3961
0.0340 -5.2776 2.3961
0.2223 -5.2658 2.3961
0.4099 -5.2471 2.3961
0.5964 -5.2217 2.3961
0.7817 -5.1896 2.3961
0.9655 -5.1508 2.3961
1.1475 -5.1055 2.3961
1.3276 -5.0537 2.3961
1.5054 -4.9954 2.3961
1.6809 -4.9309 2.3961
1.8536 -4.8602 2.3961
2.0235 -4.7835 2.3961
2.1904 -4.7007 2.3961
2.3539 -4.6122 2.3961
2.5140 -4.5180 2.3961
2.6704 -4.4182 2.3961
2.8230 -4.3130 2.3961
2.9715 -4.2026 2.3961
3.1158 -4.0871 2.3961
3.2557 -3.9667 2.3961
3.3912 -3.8416 2.3961
3.5219 -3.7119 2.3961
3.6478 -3.5778 2.3961
3.7687 -3.4394 2.3961
3.8844 -3.2971 2.3961
3.9950 -3.1509 2.3961
4.1002 -3.0010 2.3961
4.1999 -2.8478 2.3961
4.2941 -2.6912 2.3961
4.3826 -2.5317 2.3961
4.4654 -2.3692 2.3961
4.5423 -2.2042 2.3961
4.6133 -2.0367 2.3961
4.6783 -1.8670 2.3961
4.7373 -1.6953 2.3961
4.7902 -1.5217 2.3961
4.8369 -1.3466 2.3961
4.8775 -1.1702 2.3961
4.9118 -0.9925 2.3961
4.9399 -0.8139 2.3961
4.9617 -0.6346 2.3961
4.9773 -0.4547 2.3961
4.9865 -0.2746 2.3961
4.9895 -0.0943 2.3961
4.9862 0.0859 2.3961
4.9767 0.2657 2.3961
4.9609 0.4450 2.3961
4.9389 0.6235 2.3961
4.9108 0.8012 2.3961
4.8764 0.9776 2.3961
4.8361 1.1527 2.3961
4.7896 1.3262 2.3961
4.7372 1.4980 2.3961
4.6789 1.6678 2.3961
4.6147 1.8355 2.3961
4.5448 2.0008 2.3961
4.6737 -0.7191 2.3961
4.6927 -0.5495 2.3961
4.7058 -0.3794 2.3961
4.7129 -0.2091 2.3961
4.7141 -0.0387 2.3961
4.7094 0.1315 2.3961
4.6987 0.3014 2.3961
4.6821 0.4707 2.3961
4.6597 0.6392 2.3961
4.6314 0.8068 2.3961
4.5973 0.9733 2.3961
4.5575 1.1384 2.3961
4.5119 1.3020 2.3961
4.4608 1.4639 2.3961
4.4040 1.6239 2.3961
4.3417 1.7817 2.3961
4.2740 1.9373 2.3961
4.2009 2.0905 2.3961
4.1226 2.2410 2.3961
4.0390 2.3887 2.3961
3.9504 2.5334 2.3961
3.8568 2.6749 2.3961
3.7583 2.8132 2.3961
3.6551 2.9479 2.3961
3.5472 3.0791 2.3961
3.4348 3.2064 2.3961
3.3180 3.3298 2.3961
3.1969 3.4491 2.3961
3.0718 3.5641 2.3961
2.9426 3.6748 2.3961
2.8096 3.7810 2.3961
2.6729 3.8825 2.3961
2.5326 3.9792 2.3961
2.3890 4.0711 2.3961
0.9078 1.6834 0.9701
0.8467 1.7156 0.9696
0.7844 1.7455 0.9690
0.7211 1.7732 0.9684
0.6569 1.7985 0.9678
0.5917 1.8216 0.9671
0.5258 1.8423 0.9664
0.4592 1.8606 0.9656
0.3919 1.8764 0.9649
0.3241 1.8899 0.9641
0.2559 1.9009 0.9632
0.1873 1.9094 0.9624
0.1184 1.9155 0.9615
0.0494 1.9191 0.9605
-0.0197 1.9202 0.9596
-0.0888 1.9188 0.9586
-0.1578 1.9149 0.9576
-0.2267 1.9085 0.9566
-0.2952 1.8997 0.9556
-0.3634 1.8884 0.9546
-0.4312 1.8746 0.9535
-0.4984 1.8584 0.9524
-0.5650 1.8398 0.9513
-0.6308 1.8188 0.9502
-0.6959 1.7954 0.9491
-0.7601 1.7698 0.9479
-0.8233 1.7418 0.9468
-0.8855 1.7115 0.9456
-2.4011 4.2596 2.3961
-2.5560 4.1769 2.3961
-2.7080 4.0886 2.3961
-2.8569 3.9947 2.3961
-3.0025 3.8955 2.3961
-3.1445 3.7909 2.3961
-3.2829 3.6812 2.3961
-3.4174 3.5664 2.3961
-3.5478 3.4467 2.3961
-3.6739 3.3222 2.3961
-3.7956 3.1931 2.3961
-3.9126 3.0594 2.3961
-4.0248 2.9216 2.3961
-4.1321 2.7794 2.3961
-4.2342 2.6335 2.3961
-4.3310 2.4837 2.3961
-4.4224 2.3304 2.3961
-4.5082 2.1739 2.3961
-4.5883 2.0137 2.3961
-4.6626 1.8508 2.3961
-4.7309 1.6852 2.3961
-4.7931 1.5170 2.3961
-4.8492 1.3464 2.3961
-4.8990 1.1738 2.3961
-4.9425 0.9994 2.3961
-4.9795 0.8233 2.3961
-5.0101 0.6459 2.3961
-5.0342 0.4674 2.3961
-5.0516 0.2879 2.3961
-5.0624 0.1079 2.3961
-5.0666 -0.0726 2.3961
-5.0641 -0.2531 2.3961
-5.0549 -0.4335 2.3961
-5.0391 -0.6136 2.3961
-5.0166 -0.7931 2.3961
-4.9874 -0.9716 2.3961
-4.9517 -1.1490 2.3961
-4.9094 -1.3250 2.3961
-4.8606 -1.4993 2.3961
-4.8053 -1.6718 2.3961
-4.7437 -1.8421 2.3961
-4.6758 -2.0101 2.3961
-4.6017 -2.1754 2.3961
-4.5215 -2.3379 2.3961
-4.4354 -2.4973 2.3961
-4.3434 -2.6534 2.3961
-4.2457 -2.8059 2.3961
-4.1424 -2.9548 2.3961
-4.0337 -3.0996 2.3961
-3.9197 -3.2403 2.3961
-3.8006 -3.3766 2.3961
-3.6766 -3.5084 2.3961
-3.5478 -3.6355 2.3961
-3.4145 -3.7577 2.3961
-3.2767 -3.8748 2.3961
-3.1348 -3.9867 2.3961
-2.9890 -4.0932 2.3961
-2.8393 -4.1942 2.3961
-2.6862 -4.2896 2.3961
-2.5297 -4.3792 2.3961
-2.3701 -4.4629 2.3961
-2.2076 -4.5406 2.3961
-2.0425 -4.6122 2.3961
-1.8750 -4.6777 2.3961
-1.7054 -4.7369 2.3961
-1.5338 -4.7898 2.3961
-1.3606 -4.8363 2.3961
-1.1858 -4.8764 2.3961
-1.0100 -4.9101 2.3961
-0.8331 -4.9373 2.3961
-0.6555 -4.9579 2.3961
-0.4775 -4.9721 2.3961
-0.2993 -4.9797 2.3961
-0.1210 -4.9809 2.3961
0.0569 -4.9755 2.3961
0.2344 -4.9637 2.3961
0.4111 -4.9455 2.3961
0.5869 -4.9209 2.3961
0.7615 -4.8900 2.3961
0.9346 -4.8528 2.3961
1.1061 -4.8095 2.3961
1.2758 -4.7600 2.3961
1.4433 -4.7045 2.3961
1.6085 -4.6431 2.3961
1.7712 -4.5759 2.3961
1.9313 -4.5029 2.3961
2.0884 -4.4243 2.3961
2.2424 -4.3403 2.3961
2.3931 -4.2508 2.3961
2.5403 -4.1562 2.3961
2.6840 -4.0565 2.3961
2.8238 -3.9518 2.3961
2.9596 -3.8423 2.3961
3.0912 -3.7283 2.3961
3.2186 -3.6097 2.3961
3.3416 -3.4868 2.3961
3.4600 -3.3598 2.3961
3.5736 -3.2288 2.3961
3.6825 -3.0940 2.3961
3.7864 -2.9556 2.3961
3.8852 -2.8138 2.3961
3.9789 -2.6687 2.3961
4.0673 -2.5205 2.3961
4.1503 -2.3695 2.3961
4.2279 -2.2158 2.3961
4.2999 -2.0597 2.3961
4.3664 -1.9012 2.3961
4.4272 -1.7406 2.3961
4.4823 -1.5782 2.3961
4.5316 -1.4141 2.3961
4.5751 -1.2485 2.3961
4.6127 -1.0815 2.3961
4.6445 -0.9136 2.3961
4.6703 -0.7447 2.3961
4.6902 -0.5751 2.3961
4.7042 -0.4051 2.3961
4.7122 -0.2348 2.3961
4.7143 -0.0644 2.3961
4.7105 0.1059 2.3961
4.7007 0.2758 2.3961
4.6850 0.4452 2.3961
4.6635 0.6139 2.3961
4.6360 0.7816 2.3961
4.6028 0.9483 2.3961
4.5639 1.1136 2.3961
4.5192 1.2775 2.3961
4.4688 1.4396 2.3961
4.4129 1.5999 2.3961
4.3515 1.7581 2.3961
4.2845 1.9140 2.3961
4.2123 2.0675 2.3961
4.1347 2.2184 2.3961
4.0520 2.3666 2.3961
3.9641 2.5117 2.3961
3.8712 2.6538 2.3961
3.7735 2.7925 2.3961
3.6710 2.9278 2.3961
3.5638 3.0595 2.3961
3.4520 3.1874 2.3961
3.3359 3.3114 2.3961
3.2155 3.4314 2.3961
3.0909 3.5471 2.3961
2.9623 3.6584 2.3961
2.8299 3.7652 2.3961
2.6937 3.8675 2.3961
2.5540 3.9649 2.3961
2.4109 4.0575 2.3961
2.2646 4.1451 2.3961
0.8560 1.7109 0.9697
0.7939 1.7411 0.9691
0.7308 1.7691 0.9685
0.6666 1.7949 0.9679
0.6016 1.8183 0.9672
0.5358 1.8393 0.9665
0.4693 1.8580 0.9657
0.4021 1.8742 0.9650
0.3344 1.8880 0.9642
0.2662 1.8994 0.9633
0.1977 1.9083 0.9625
0.1288 1.9148 0.9616
0.0598 1.9187 0.9607
-0.0093 1.9202 0.9598
-0.0784 1.9192 0.9588
-0.1474 1.9156 0.9578
-0.2163 1.9096 0.9568
-0.2849 1.9012 0.9558
-0.3532 1.8902 0.9547
-0.4210 1.8768 0.9537
-0.4883 1.8610 0.9526
-0.5550 1.8427 0.9515
-0.6210 1.8221 0.9504
-0.6862 1.7991 0.9492
-0.7505 1.7738 0.9481
-0.8138 1.7461 0.9470
-0.8762 1.7162 0.9458
-2.3775 4.2716 2.3961
-2.5328 4.1898 2.3961
-2.6853 4.1023 2.3961
-2.8346 4.0092 2.3961
-2.9807 3.9108 2.3961
-3.1233 3.8070 2.3961
-3.2623 3.6981 2.3961
-3.3974 3.5841 2.3961
-3.5284 3.4651 2.3961
-3.6552 3.3413 2.3961
-3.7775 3.2128 2.3961
-3.8953 3.0799 2.3961
-4.0082 2.9426 2.3961
-4.1163 2.8010 2.3961
-4.2191 2.6558 2.3961
-4.3167 2.5066 2.3961
-4.4090 2.3537 2.3961
-4.4956 2.1975 2.3961
-4.5766 2.0380 2.3961
-4.6517 1.8756 2.3961
-4.7209 1.7103 2.3961
-4.7841 1.5425 2.3961
-4.8411 1.3723 2.3961
-4.8919 1.2000 2.3961
-4.9363 1.0258 2.3961
-4.9744 0.8500 2.3961
-5.0059 0.6728 2.3961
-5.0310 0.4944 2.3961
-5.0494 0.3151 2.3961
-5.0612 0.1351 2.3961
-5.0664 -0.0453 2.3961
-5.0649 -0.2259 2.3961
-5.0567 -0.4064 2.3961
-5.0419 -0.5865 2.3961
-5.0204 -0.7660 2.3961
-4.9922 -0.9447 2.3961
-4.9575 -1.1223 2.3961
-4.9162 -1.2985 2.3961
-4.8683 -1.4732 2.3961
-4.8140 -1.6459 2.3961
-4.7534 -1.8166 2.3961
-4.6864 -1.9849 2.3961
-4.6133 -2.1507 2.3961
-4.5340 -2.3136 2.3961
-4.4487 -2.4735 2.3961
-4.3576 -2.6301 2.3961
-4.2608 -2.7832 2.3961
-4.1583 -2.9325 2.3961
-4.0504 -3.0780 2.3961
-3.9372 -3.2193 2.3961
-3.8189 -3.3564 2.3961
-3.6956 -3.4889 2.3961
-3.5675 -3.6167 2.3961
-3.4348 -3.7396 2.3961
-3.2978 -3.8575 2.3961
-3.1565 -3.9702 2.3961
-3.0112 -4.0775 2.3961
-2.8621 -4.1794 2.3961
-2.7095 -4.2756 2.3961
-2.5535 -4.3660 2.3961
-2.3944 -4.4506 2.3961
-2.2323 -4.5293 2.3961
-2.0676 -4.6018 2.3961
-1.9005 -4.6682 2.3961
-1.7311 -4.7284 2.3961
-1.5598 -4.7822 2.3961
-1.3868 -4.8297 2.3961
-1.2123 -4.8708 2.3961
-1.0366 -4.9054 2.3961
-0.8598 -4.9336 2.3961
-0.6824 -4.9552 2.3961
-0.5044 -4.9704 2.3961
-0.3262 -4.9790 2.3961
-0.1479 -4.9811 2.3961
0.0301 -4.9768 2.3961
0.2077 -4.9659 2.3961
0.3845 -4.9487 2.3961
0.5605 -4.9250 2.3961
0.7352 -4.8951 2.3961
0.9086 -4.8589 2.3961
1.0804 -4.8164 2.3961
1.2503 -4.7679 2.3961
1.4182 -4.7133 2.3961
1.5837 -4.6528 2.3961
1.7469 -4.5864 2.3961
1.9073 -4.5143 2.3961
2.0649 -4.4365 2.3961
2.2194 -4.3533 2.3961
2.3706 -4.2647 2.3961
2.5184 -4.1708 2.3961
2.6625 -4.0718 2.3961
2.8029 -3.9679 2.3961
2.9393 -3.8592 2.3961
3.0716 -3.7458 2.3961
3.1997 -3.6279 2.3961
3.3233 -3.5056 2.3961
3.4424 -3.3792 2.3961
3.5568 -3.2488 2.3961
3.6664 -3.1146 2.3961
3.7710 -2.9767 2.3961
3.8706 -2.8354 2.3961
3.9651 -2.6908 2.3961
4.0543 -2.5431 2.3961
4.1381 -2.3925 2.3961
4.2165 -2.2392 2.3961
4.2894 -2.0834 2.3961
4.3567 -1.9252 2.3961
4.4184 -1.7650 2.3961
4.4743 -1.6028 2.3961
4.5245 -1.4389 2.3961
4.5689 -1.2735 2.3961
4.6074 -1.1068 2.3961
4.6401 -0.9390 2.3961
4.6668 -0.7702 2.3961
4.6876 -0.6007 2.3961
4.7025 -0.4308 2.3961
4.7114 -0.2605 2.3961
4.7144 -0.0901 2.3961
4.7114 0.0802 2.3961
4.7025 0.2502 2.3961
4.6878 0.4197 2.3961
4.6671 0.5885 2.3961
4.6405 0.7564 2.3961
4.6082 0.9232 2.3961
4.5701 1.0888 2.3961
4.5263 1.2528 2.3961
4.4768 1.4153 2.3961
4.4217 1.5758 2.3961
4.3611 1.7343 2.3961
4.2950 1.8906 2.3961
4.4235 -0.6819 2.3961
4.4417 -0.5213 2.3961
4.4543 -0.3602 2.3961
4.4611 -0.1989 2.3961
4.4624 -0.0376 2.3961
4.4580 0.1236 2.3961
4.4480 0.2845 2.3961
4.4324 0.4448 2.3961
4.4113 0.6045 2.3961
4.3846 0.7632 2.3961
4.3524 0.9209 2.3961
4.3147 1.0773 2.3961
4.2716 1.2322 2.3961
4.2232 1.3856 2.3961
4.1695 1.5371 2.3961
4.1105 1.6866 2.3961
4.0464 1.8340 2.3961
3.9772 1.9791 2.3961
3.9030 2.1216 2.3961
3.8238 2.2615 2.3961
3.7399 2.3986 2.3961
3.6512 2.5327 2.3961
3.5579 2.6636 2.3961
3.4601 2.7912 2.3961
3.3579 2.9153 2.3961
3.2514 3.0359 2.3961
3.1407 3.1527 2.3961
3.0260 3.2656 2.3961
2.9073 3.3745 2.3961
2.7849 3.4792 2.3961
2.6589 3.5797 2.3961
2.5294 3.6757 2.3961
2.3965 3.7672 2.3961
2.2605 3.8541 2.3961
0.8575 1.5911 0.9685
0.7997 1.6214 0.9680
0.7408 1.6497 0.9675
0.6810 1.6759 0.9669
0.6202 1.6998 0.9663
0.5587 1.7216 0.9657
0.4963 1.7412 0.9650
0.4333 1.7584 0.9643
0.3698 1.7735 0.9636
0.3057 1.7862 0.9628
0.2412 1.7966 0.9620
0.1763 1.8046 0.9612
0.1112 1.8104 0.9604
0.0460 1.8137 0.9595
-0.0194 1.8148 0.9586
-0.0847 1.8134 0.9577
-0.1499 1.8098 0.9567
-0.2150 1.8037 0.9558
-0.2798 1.7954 0.9548
-0.3443 1.7847 0.9538
-0.4083 1.7717 0.9528
-0.4719 1.7564 0.9518
-0.5348 1.7388 0.9507
-0.5971 1.7189 0.9497
-0.6586 1.6968 0.9486
-0.7193 1.6726 0.9476
-0.7790 1.6461 0.9465
-0.8378 1.6176 0.9454
-0.8955 1.5869 0.9443
-2.4184 3.9480 2.3961
-2.5619 3.8643 2.3961
-2.7025 3.7753 2.3961
-2.8400 3.6812 2.3961
-2.9741 3.5822 2.3961
-3.1047 3.4782 2.3961
-3.2316 3.3695 2.3961
-3.3546 3.2562 2.3961
-3.4736 3.1383 2.3961
-3.5883 3.0161 2.3961
-3.6987 2.8897 2.3961
-3.8045 2.7593 2.3961
-3.9056 2.6249 2.3961
-4.0018 2.4868 2.3961
-4.0930 2.3453 2.3961
-4.1791 2.2002 2.3961
-4.2600 2.0521 2.3961
-4.3354 1.9009 2.3961
-4.4053 1.7470 2.3961
-4.4696 1.5904 2.3961
-4.5281 1.4315 2.3961
-4.5809 1.2704 2.3961
-4.6277 1.1074 2.3961
-4.6686 0.9426 2.3961
-4.7034 0.7764 2.3961
-4.7321 0.6085 2.3961
-4.7546 0.4401 2.3961
-4.7709 0.2708 2.3961
-4.7809 0.1009 2.3961
-4.7847 -0.0692 2.3961
-4.7822 -0.2401 2.3961
-4.7734 -0.4104 2.3961
-4.7584 -0.5804 2.3961
-4.7370 -0.7496 2.3961
-4.7094 -0.9181 2.3961
-4.6755 -1.0855 2.3961
-4.6355 -1.2516 2.3961
-4.5894 -1.4161 2.3961
-4.5372 -1.5789 2.3961
-4.4790 -1.7396 2.3961
-4.4149 -1.8981 2.3961
-4.3450 -2.0541 2.3961
