ply
format ascii 1.0
element vertex 2187
property float32 x
property float32 y
property float32 z
end_header
6.5377 2.8471 2.3969
6.4255 3.0775 2.3969
6.3054 3.3036 2.3969
6.1774 3.5251 2.3969
6.0418 3.7418 2.3969
5.8987 3.9534 2.3969
5.7483 4.1596 2.3969
5.5908 4.3602 2.3969
5.4264 4.5551 2.3969
5.2554 4.7439 2.3969
5.0779 4.9264 2.3969
4.8942 5.1024 2.3969
4.7045 5.2717 2.3969
4.5091 5.4342 2.3969
4.3082 5.5896 2.3969
4.1021 5.7377 2.3969
3.8910 5.8784 2.3969
3.6752 6.0116 2.3969
3.4549 6.1370 2.3969
3.2304 6.2546 2.3969
3.0021 6.3642 2.3969
2.7701 6.4656 2.3969
2.5348 6.5588 2.3969
0.9280 2.6846 0.9686
0.8308 2.7165 0.9689
0.7326 2.7449 0.9692
0.6334 2.7697 0.9695
0.5334 2.7909 0.9698
0.4326 2.8085 0.9700
0.3313 2.8225 0.9702
0.2295 2.8327 0.9703
0.1274 2.8393 0.9704
0.0252 2.8422 0.9705
-0.0772 2.8414 0.9705
-0.1794 2.8369 0.9705
-0.2814 2.8288 0.9704
-0.3830 2.8169 0.9703
5.9710 2.8736 2.3969
5.8592 3.0839 2.3969
5.7400 3.2899 2.3969
5.6137 3.4914 2.3969
5.4804 3.6881 2.3969
5.3404 3.8799 2.3969
5.1937 4.0665 2.3969
5.0406 4.2477 2.3969
4.8813 4.4232 2.3969
4.7160 4.5929 2.3969
4.5449 4.7566 2.3969
4.3683 4.9140 2.3969
4.1863 5.0650 2.3969
3.9992 5.2094 2.3969
3.8071 5.3471 2.3969
3.6105 5.4779 2.3969
3.4095 5.6016 2.3969
3.2043 5.7181 2.3969
2.9952 5.8273 2.3969
2.7825 5.9290 2.3969
2.5664 6.0232 2.3969
2.3472 6.1097 2.3969
0.8571 2.4957 0.9666
0.7667 2.5251 0.9670
0.6754 2.5513 0.9673
0.5832 2.5741 0.9675
0.4902 2.5936 0.9678
0.3965 2.6097 0.9680
0.3024 2.6225 0.9681
0.2078 2.6318 0.9682
0.1129 2.6377 0.9683
0.0179 2.6402 0.9684
-0.0771 2.6393 0.9684
-0.1721 2.6349 0.9684
-0.2668 2.6271 0.9683
-0.3612 2.6159 0.9683
-0.4552 2.6012 0.9681
-0.5485 2.5832 0.9680
-0.6412 2.5619 0.9678
-0.7330 2.5372 0.9676
-0.8238 2.5092 0.9673
-2.2644 6.1418 2.3969
-2.4848 6.0584 2.3969
-2.7022 5.9673 2.3969
-2.9164 5.8685 2.3969
-3.1270 5.7622 2.3969
-3.3338 5.6486 2.3969
-3.5366 5.5276 2.3969
-3.7351 5.3996 2.3969
-3.9290 5.2644 2.3969
-4.1182 5.1227 2.3969
-4.3023 4.9741 2.3969
-4.4812 4.8192 2.3969
-4.6546 4.6579 2.3969
-4.8223 4.4904 2.3969
-4.9840 4.3171 2.3969
-5.1396 4.1380 2.3969
-5.2889 3.9534 2.3969
-5.4317 3.7635 2.3969
-5.5677 3.5686 2.3969
-5.6968 3.3687 2.3969
-5.8188 3.1643 2.3969
-5.9336 2.9556 2.3969
-6.0410 2.7427 2.3969
-6.1408 2.5261 2.3969
-6.2329 2.3058 2.3969
-6.3172 2.0822 2.3969
-6.3935 1.8556 2.3969
-6.4617 1.6262 2.3969
-6.5218 1.3943 2.3969
-6.5735 1.1603 2.3969
-6.6170 0.9244 2.3969
-6.6519 0.6869 2.3969
-6.6784 0.4480 2.3969
-6.6963 0.2082 2.3969
-6.7056 -0.0323 2.3969
-6.7063 -0.2731 2.3969
-6.6983 -0.5140 2.3969
-6.6817 -0.7547 2.3969
-6.6564 -0.9948 2.3969
-6.6224 -1.2341 2.3969
-6.5798 -1.4721 2.3969
-6.5286 -1.7087 2.3969
-6.4688 -1.9434 2.3969
-6.4006 -2.1760 2.3969
-6.3239 -2.4062 2.3969
-6.2389 -2.6336 2.3969
-6.1457 -2.8579 2.3969
-6.0443 -3.0789 2.3969
-5.9349 -3.2962 2.3969
-5.8176 -3.5096 2.3969
-5.6925 -3.7187 2.3969
-5.5598 -3.9233 2.3969
-5.4197 -4.1230 2.3969
-5.2723 -4.3176 2.3969
-5.1178 -4.5069 2.3969
-4.9565 -4.6905 2.3969
-4.7885 -4.8682 2.3969
-4.6139 -5.0397 2.3969
-4.4332 -5.2049 2.3969
-4.2464 -5.3634 2.3969
-4.0539 -5.5151 2.3969
-3.8559 -5.6597 2.3969
-3.6526 -5.7970 2.3969
-3.4443 -5.9268 2.3969
-3.2314 -6.0490 2.3969
-3.0140 -6.1634 2.3969
-2.7925 -6.2697 2.3969
-2.5672 -6.3679 2.3969
-2.3384 -6.4578 2.3969
-2.1064 -6.5392 2.3969
-1.8714 -6.6121 2.3969
-1.6339 -6.6764 2.3969
-1.3942 -6.7319 2.3969
-1.1526 -6.7785 2.3969
-0.9094 -6.8163 2.3969
-0.6649 -6.8451 2.3969
-0.4195 -6.8649 2.3969
-0.1736 -6.8757 2.3969
0.0726 -6.8775 2.3969
0.3187 -6.8702 2.3969
0.5643 -6.8539 2.3969
0.8091 -6.8286 2.3969
1.0529 -6.7943 2.3969
1.2951 -6.7511 2.3969
1.5356 -6.6990 2.3969
1.7740 -6.6382 2.3969
2.0099 -6.5687 2.3969
2.2430 -6.4905 2.3969
2.4731 -6.4040 2.3969
2.6997 -6.3090 2.3969
2.9227 -6.2059 2.3969
3.1416 -6.0947 2.3969
3.3563 -5.9756 2.3969
3.5664 -5.8488 2.3969
3.7716 -5.7144 2.3969
3.9716 -5.5727 2.3969
4.1662 -5.4238 2.3969
4.3552 -5.2680 2.3969
4.5383 -5.1055 2.3969
4.7152 -4.9365 2.3969
4.8857 -4.7613 2.3969
5.0497 -4.5801 2.3969
5.2068 -4.3932 2.3969
5.3570 -4.2007 2.3969
5.4999 -4.0031 2.3969
5.6355 -3.8006 2.3969
5.7635 -3.5933 2.3969
5.8839 -3.3818 2.3969
5.9964 -3.1661 2.3969
6.1010 -2.9467 2.3969
6.1974 -2.7238 2.3969
6.2857 -2.4977 2.3969
6.3657 -2.2688 2.3969
6.4373 -2.0373 2.3969
6.5004 -1.8035 2.3969
6.5550 -1.5678 2.3969
6.6011 -1.3305 2.3969
6.6385 -1.0918 2.3969
6.6673 -0.8522 2.3969
6.6875 -0.6118 2.3969
6.6990 -0.3712 2.3969
6.7018 -0.1304 2.3969
6.6961 0.1101 2.3969
6.6817 0.3501 2.3969
6.6587 0.5892 2.3969
6.6272 0.8271 2.3969
6.5873 1.0636 2.3969
6.5390 1.2983 2.3969
6.4824 1.5309 2.3969
6.4176 1.7612 2.3969
6.3446 1.9888 2.3969
6.2637 2.2136 2.3969
6.1749 2.4351 2.3969
6.0783 2.6532 2.3969
5.9741 2.8675 2.3969
5.8625 3.0779 2.3969
5.7435 3.2840 2.3969
5.6174 3.4856 2.3969
5.4844 3.6826 2.3969
5.3445 3.8745 2.3969
5.1980 4.0612 2.3969
5.0451 4.2425 2.3969
4.8860 4.4182 2.3969
4.7209 4.5881 2.3969
4.5499 4.7519 2.3969
4.3734 4.9096 2.3969
4.1916 5.0608 2.3969
4.0046 5.2054 2.3969
3.8127 5.3433 2.3969
3.6162 5.4742 2.3969
3.4153 5.5982 2.3969
3.2102 5.7149 2.3969
3.0013 5.8243 2.3969
2.7886 5.9262 2.3969
2.5727 6.0206 2.3969
2.3536 6.1073 2.3969
0.8596 2.4948 0.9666
0.7693 2.5243 0.9670
0.6780 2.5505 0.9673
0.5858 2.5735 0.9675
0.4929 2.5931 0.9678
0.3992 2.6093 0.9679
0.3051 2.6222 0.9681
0.2105 2.6316 0.9682
0.1157 2.6376 0.9683
0.0206 2.6402 0.9684
-0.0744 2.6393 0.9684
-0.1694 2.6351 0.9684
-0.2641 2.6274 0.9684
-0.3585 2.6162 0.9683
-0.4525 2.6017 0.9681
-0.5459 2.5838 0.9680
-0.6385 2.5625 0.9678
-0.7303 2.5379 0.9676
-0.8212 2.5100 0.9673
-2.2581 6.1441 2.3969
-2.4785 6.0609 2.3969
-2.6961 5.9700 2.3969
-2.9103 5.8714 2.3969
-3.1210 5.7654 2.3969
-3.3279 5.6520 2.3969
-3.5309 5.5312 2.3969
-3.7295 5.4033 2.3969
-3.9235 5.2685 2.3969
-4.1128 5.1269 2.3969
-4.2971 4.9788 2.3969
-4.4762 4.8237 2.3969
-4.6497 4.6626 2.3969
-4.8175 4.4953 2.3969
-4.9795 4.3221 2.3969
-5.1353 4.1432 2.3969
-5.2847 3.9588 2.3969
-5.4277 3.7691 2.3969
-5.5639 3.5742 2.3969
-5.6932 3.3746 2.3969
-5.8154 3.1703 2.3969
-5.9304 2.9617 2.3969
-6.0380 2.7489 2.3969
-6.1380 2.5323 2.3969
-6.2304 2.3122 2.3969
-6.3149 2.0887 2.3969
-6.3914 1.8621 2.3969
-6.4599 1.6328 2.3969
-6.5202 1.4010 2.3969
-6.5722 1.1671 2.3969
-6.6158 0.9312 2.3969
-6.6510 0.6937 2.3969
-6.6778 0.4549 2.3969
-6.6959 0.2151 2.3969
-6.7055 -0.0253 2.3969
-6.7064 -0.2662 2.3969
-6.6987 -0.5071 2.3969
-6.6823 -0.7478 2.3969
-6.6572 -0.9880 2.3969
-6.6235 -1.2272 2.3969
-6.5811 -1.4653 2.3969
-6.5302 -1.7019 2.3969
-6.4707 -1.9367 2.3969
-6.4027 -2.1694 2.3969
-6.3263 -2.3996 2.3969
-6.2415 -2.6271 2.3969
-6.1485 -2.8515 2.3969
-6.0473 -3.0726 2.3969
-5.9381 -3.2901 2.3969
-5.8210 -3.5035 2.3969
-5.6962 -3.7128 2.3969
-5.5637 -3.9175 2.3969
-5.4238 -4.1173 2.3969
-5.2766 -4.3121 2.3969
-5.1224 -4.5015 2.3969
-4.9612 -4.6853 2.3969
-4.7934 -4.8631 2.3969
-4.6190 -5.0349 2.3969
-4.4384 -5.2002 2.3969
-4.2519 -5.3589 2.3969
-4.0595 -5.5108 2.3969
-3.8616 -5.6556 2.3969
-3.6585 -5.7931 2.3969
-3.4504 -5.9232 2.3969
-3.2375 -6.0456 2.3969
-3.0203 -6.1602 2.3969
-2.7989 -6.2668 2.3969
-2.5737 -6.3652 2.3969
-2.3450 -6.4553 2.3969
-2.1130 -6.5370 2.3969
-1.8782 -6.6101 2.3969
-1.6408 -6.6746 2.3969
-1.4011 -6.7304 2.3969
-1.1596 -6.7773 2.3969
-0.9164 -6.8153 2.3969
-0.6719 -6.8444 2.3969
-0.4266 -6.8645 2.3969
-0.1806 -6.8756 2.3969
0.0655 -6.8776 2.3969
0.3116 -6.8705 2.3969
0.5572 -6.8545 2.3969
0.8021 -6.8294 2.3969
1.0459 -6.7954 2.3969
1.2882 -6.7525 2.3969
1.5287 -6.7006 2.3969
1.7671 -6.6401 2.3969
2.0031 -6.5708 2.3969
2.2364 -6.4929 2.3969
2.4665 -6.4066 2.3969
2.6933 -6.3119 2.3969
2.9163 -6.2090 2.3969
3.1354 -6.0980 2.3969
3.3502 -5.9791 2.3969
3.5604 -5.8525 2.3969
3.7657 -5.7183 2.3969
3.9659 -5.5768 2.3969
4.1607 -5.4282 2.3969
4.3499 -5.2726 2.3969
4.5331 -5.1103 2.3969
4.7102 -4.9415 2.3969
4.8809 -4.7665 2.3969
5.0451 -4.5854 2.3969
5.2024 -4.3986 2.3969
5.3528 -4.2063 2.3969
5.4959 -4.0089 2.3969
5.6317 -3.8064 2.3969
5.7600 -3.5994 2.3969
5.8805 -3.3879 2.3969
5.9933 -3.1724 2.3969
6.0981 -2.9530 2.3969
6.1948 -2.7302 2.3969
6.2833 -2.5042 2.3969
6.3635 -2.2754 2.3969
6.4353 -2.0439 2.3969
6.4987 -1.8102 2.3969
6.5536 -1.5746 2.3969
6.5999 -1.3373 2.3969
6.6376 -1.0987 2.3969
6.6666 -0.8591 2.3969
6.6870 -0.6188 2.3969
6.6988 -0.3781 2.3969
6.7019 -0.1373 2.3969
6.6963 0.1032 2.3969
6.6822 0.3432 2.3969
6.6595 0.5823 2.3969
6.6283 0.8203 2.3969
6.5886 1.0568 2.3969
6.5405 1.2916 2.3969
6.4841 1.5243 2.3969
6.4195 1.7546 2.3969
6.3468 1.9824 2.3969
6.2661 2.2072 2.3969
6.1775 2.4288 2.3969
6.0812 2.6470 2.3969
5.9772 2.8614 2.3969
5.8658 3.0719 2.3969
5.7471 3.2782 2.3969
5.6211 3.4799 2.3969
5.4883 3.6770 2.3969
5.3486 3.8690 2.3969
5.2023 4.0559 2.3969
5.0496 4.2374 2.3969
4.8906 4.4133 2.3969
4.7257 4.5833 2.3969
4.5549 4.7473 2.3969
4.3786 4.9051 2.3969
4.1969 5.0565 2.3969
4.0100 5.2013 2.3969
3.8183 5.3394 2.3969
3.6219 5.4706 2.3969
3.4211 5.5947 2.3969
3.2162 5.7116 2.3969
3.0073 5.8212 2.3969
2.7948 5.9234 2.3969
2.5789 6.0180 2.3969
2.3599 6.1049 2.3969
0.8622 2.4939 0.9666
0.7720 2.5235 0.9669
0.6807 2.5498 0.9672
0.5885 2.5729 0.9675
0.4955 2.5926 0.9677
0.4019 2.6089 0.9679
0.3078 2.6218 0.9681
0.2132 2.6314 0.9682
0.1184 2.6375 0.9683
0.0234 2.6402 0.9684
-0.0717 2.6394 0.9684
-0.1667 2.6352 0.9684
-0.2614 2.6276 0.9684
-0.3558 2.6166 0.9683
5.5757 2.6821 2.3969
5.4715 2.8786 2.3969
5.3605 3.0711 2.3969
5.2428 3.2594 2.3969
5.1186 3.4433 2.3969
4.9880 3.6226 2.3969
4.8511 3.7970 2.3969
4.7084 3.9664 2.3969
4.5598 4.1305 2.3969
4.4055 4.2892 2.3969
4.2458 4.4423 2.3969
4.0809 4.5895 2.3969
3.9110 4.7307 2.3969
3.7363 4.8658 2.3969
3.5571 4.9946 2.3969
3.3734 5.1170 2.3969
3.1857 5.2327 2.3969
2.9940 5.3417 2.3969
2.7987 5.4438 2.3969
2.6000 5.5390 2.3969
2.3982 5.6271 2.3969
0.8827 2.2971 0.9646
0.7995 2.3275 0.9649
0.7152 2.3550 0.9652
0.6300 2.3793 0.9655
0.5440 2.4006 0.9658
0.4572 2.4188 0.9660
0.3699 2.4338 0.9662
0.2820 2.4457 0.9663
0.1938 2.4544 0.9664
0.1053 2.4599 0.9665
0.0167 2.4622 0.9666
-0.0720 2.4613 0.9666
-0.1605 2.4573 0.9666
-0.2489 2.4500 0.9665
-0.3370 2.4395 0.9664
-0.4246 2.4259 0.9663
-0.5117 2.4091 0.9662
-0.5981 2.3891 0.9660
-0.6837 2.3661 0.9658
-0.7684 2.3400 0.9656
-0.8522 2.3108 0.9653
-2.3220 5.6600 2.3969
-2.5251 5.5747 2.3969
-2.7251 5.4823 2.3969
-2.9218 5.3828 2.3969
-3.1150 5.2765 2.3969
-3.3044 5.1633 2.3969
-3.4897 5.0435 2.3969
-3.6708 4.9172 2.3969
-3.8474 4.7846 2.3969
-4.0193 4.6456 2.3969
-4.1862 4.5007 2.3969
-4.3481 4.3498 2.3969
-4.5045 4.1933 2.3969
-4.6554 4.0312 2.3969
-4.8006 3.8637 2.3969
-4.9398 3.6912 2.3969
-5.0729 3.5136 2.3969
-5.1997 3.3314 2.3969
-5.3201 3.1447 2.3969
-5.4338 2.9537 2.3969
-5.5407 2.7587 2.3969
-5.6407 2.5597 2.3969
-5.7336 2.3573 2.3969
-5.8193 2.1515 2.3969
-5.8977 1.9426 2.3969
-5.9686 1.7310 2.3969
-6.0320 1.5168 2.3969
-6.0877 1.3003 2.3969
-6.1357 1.0817 2.3969
-6.1759 0.8615 2.3969
-6.2082 0.6397 2.3969
-6.2326 0.4168 2.3969
-6.2490 0.1930 2.3969
-6.2573 -0.0314 2.3969
-6.2576 -0.2561 2.3969
-6.2498 -0.4809 2.3969
-6.2340 -0.7054 2.3969
-6.2100 -0.9294 2.3969
-6.1780 -1.1526 2.3969
-6.1379 -1.3746 2.3969
-6.0898 -1.5952 2.3969
-6.0338 -1.8140 2.3969
-5.9698 -2.0309 2.3969
-5.8980 -2.2454 2.3969
-5.8184 -2.4574 2.3969
-5.7312 -2.6665 2.3969
-5.6363 -2.8724 2.3969
-5.5340 -3.0749 2.3969
-5.4244 -3.2737 2.3969
-5.3075 -3.4685 2.3969
-5.1836 -3.6591 2.3969
-5.0527 -3.8451 2.3969
-4.9151 -4.0264 2.3969
-4.7709 -4.2026 2.3969
-4.6203 -4.3736 2.3969
-4.4635 -4.5391 2.3969
-4.3007 -4.6988 2.3969
-4.1320 -4.8526 2.3969
-3.9578 -5.0002 2.3969
-3.7782 -5.1413 2.3969
-3.5936 -5.2760 2.3969
-3.4040 -5.4038 2.3969
-3.2098 -5.5246 2.3969
-3.0113 -5.6383 2.3969
-2.8087 -5.7448 2.3969
-2.6022 -5.8437 2.3969
-2.3922 -5.9351 2.3969
-2.1789 -6.0187 2.3969
-1.9627 -6.0945 2.3969
-1.7438 -6.1623 2.3969
-1.5225 -6.2221 2.3969
-1.2991 -6.2737 2.3969
-1.0739 -6.3172 2.3969
-0.8473 -6.3523 2.3969
-0.6195 -6.3791 2.3969
-0.3909 -6.3976 2.3969
-0.1618 -6.4076 2.3969
0.0676 -6.4093 2.3969
0.2969 -6.4025 2.3969
0.5258 -6.3873 2.3969
0.7539 -6.3638 2.3969
0.9810 -6.3319 2.3969
1.2067 -6.2917 2.3969
1.4308 -6.2433 2.3969
1.6529 -6.1867 2.3969
1.8728 -6.1220 2.3969
2.0900 -6.0493 2.3969
2.3045 -5.9687 2.3969
2.5157 -5.8804 2.3969
2.7236 -5.7844 2.3969
2.9277 -5.6810 2.3969
3.1278 -5.5701 2.3969
3.3237 -5.4521 2.3969
3.5150 -5.3270 2.3969
3.7016 -5.1951 2.3969
3.8831 -5.0566 2.3969
4.0594 -4.9115 2.3969
4.2302 -4.7602 2.3969
4.3953 -4.6029 2.3969
4.5544 -4.4398 2.3969
4.7074 -4.2710 2.3969
4.8541 -4.0969 2.3969
4.9943 -3.9177 2.3969
5.1278 -3.7336 2.3969
5.2544 -3.5449 2.3969
5.3741 -3.3519 2.3969
5.4866 -3.1547 2.3969
5.5918 -2.9538 2.3969
5.6896 -2.7493 2.3969
5.7798 -2.5416 2.3969
5.8624 -2.3308 2.3969
5.9373 -2.1174 2.3969
6.0044 -1.9016 2.3969
6.0636 -1.6836 2.3969
6.1149 -1.4638 2.3969
6.1582 -1.2425 2.3969
6.1935 -1.0199 2.3969
6.2207 -0.7964 2.3969
6.2398 -0.5722 2.3969
6.2509 -0.3476 2.3969
6.2539 -0.1230 2.3969
6.2488 0.1015 2.3969
6.2358 0.3254 2.3969
6.2147 0.5486 2.3969
6.1856 0.7707 2.3969
6.1487 0.9915 2.3969
6.1039 1.2106 2.3969
6.0514 1.4278 2.3969
5.9912 1.6429 2.3969
5.9234 1.8555 2.3969
5.8481 2.0654 2.3969
5.7655 2.2724 2.3969
5.6756 2.4761 2.3969
5.5786 2.6764 2.3969
5.4746 2.8730 2.3969
5.3638 3.0656 2.3969
5.2463 3.2540 2.3969
5.1222 3.4381 2.3969
4.9918 3.6175 2.3969
4.8552 3.7921 2.3969
4.7125 3.9616 2.3969
4.5641 4.1259 2.3969
4.4100 4.2847 2.3969
4.2505 4.4379 2.3969
4.0857 4.5853 2.3969
3.9160 4.7268 2.3969
3.7414 4.8620 2.3969
3.5623 4.9910 2.3969
3.3788 5.1135 2.3969
3.1911 5.2295 2.3969
2.9996 5.3387 2.3969
2.8044 5.4410 2.3969
2.6058 5.5364 2.3969
2.4040 5.6247 2.3969
0.8851 2.2962 0.9646
0.8019 2.3267 0.9649
0.7177 2.3542 0.9652
0.6325 2.3787 0.9655
0.5465 2.4001 0.9657
0.4597 2.4183 0.9660
0.3724 2.4335 0.9661
0.2846 2.4454 0.9663
0.1964 2.4542 0.9664
0.1079 2.4598 0.9665
0.0192 2.4622 0.9666
-0.0694 2.4614 0.9666
-0.1580 2.4574 0.9666
-0.2464 2.4502 0.9665
-0.3345 2.4398 0.9664
-0.4221 2.4263 0.9663
-0.5092 2.4096 0.9662
-0.5956 2.3898 0.9660
-0.6813 2.3668 0.9658
-0.7660 2.3408 0.9656
-0.8498 2.3117 0.9653
-2.3161 5.6623 2.3969
-2.5193 5.5772 2.3969
-2.7194 5.4850 2.3969
-2.9162 5.3858 2.3969
-3.1095 5.2796 2.3969
-3.2990 5.1667 2.3969
-3.4845 5.0471 2.3969
-3.6657 4.9210 2.3969
-3.8424 4.7884 2.3969
-4.0144 4.6497 2.3969
-4.1816 4.5047 2.3969
-4.3435 4.3542 2.3969
-4.5001 4.1978 2.3969
-4.6512 4.0359 2.3969
-4.7965 3.8686 2.3969
-4.9359 3.6962 2.3969
-5.0692 3.5188 2.3969
-5.1962 3.3367 2.3969
-5.3167 3.1502 2.3969
-5.4306 2.9592 2.3969
-5.5377 2.7643 2.3969
-5.6379 2.5655 2.3969
-5.7310 2.3631 2.3969
-5.8169 2.1574 2.3969
-5.8955 1.9487 2.3969
-5.9667 1.7371 2.3969
-6.0303 1.5229 2.3969
-6.0863 1.3065 2.3969
-6.1345 1.0880 2.3969
-6.1749 0.8678 2.3969
-6.2074 0.6461 2.3969
-6.2320 0.4233 2.3969
-6.2486 0.1995 2.3969
-6.2572 -0.0249 2.3969
-6.2577 -0.2497 2.3969
-6.2502 -0.4745 2.3969
-6.2345 -0.6990 2.3969
-6.2108 -0.9230 2.3969
-6.1790 -1.1462 2.3969
-6.1392 -1.3682 2.3969
-6.0913 -1.5889 2.3969
-6.0355 -1.8078 2.3969
-5.9717 -2.0247 2.3969
-5.9002 -2.2393 2.3969
-5.8208 -2.4513 2.3969
-5.7338 -2.6605 2.3969
-5.6392 -2.8666 2.3969
-5.5371 -3.0692 2.3969
-5.4276 -3.2681 2.3969
-5.3110 -3.4630 2.3969
-5.1873 -3.6537 2.3969
-5.0566 -3.8398 2.3969
-4.9192 -4.0213 2.3969
-4.7751 -4.1977 2.3969
-4.6247 -4.3688 2.3969
-4.4681 -4.5344 2.3969
-4.3054 -4.6943 2.3969
-4.1369 -4.8483 2.3969
-3.9629 -4.9960 2.3969
-3.7835 -5.1374 2.3969
-3.5989 -5.2722 2.3969
-3.4095 -5.4002 2.3969
-3.2155 -5.5212 2.3969
-3.0171 -5.6352 2.3969
-2.8145 -5.7418 2.3969
-2.6082 -5.8410 2.3969
-2.3983 -5.9326 2.3969
-2.1851 -6.0164 2.3969
-1.9689 -6.0924 2.3969
-1.7501 -6.1605 2.3969
-1.5288 -6.2205 2.3969
-1.3055 -6.2724 2.3969
-1.0804 -6.3160 2.3969
-0.8538 -6.3514 2.3969
-0.6261 -6.3785 2.3969
-0.3975 -6.3972 2.3969
-0.1683 -6.4075 2.3969
0.0610 -6.4093 2.3969
0.2903 -6.4028 2.3969
0.5192 -6.3879 2.3969
0.7473 -6.3646 2.3969
0.9745 -6.3329 2.3969
1.2003 -6.2930 2.3969
1.4244 -6.2448 2.3969
1.6466 -6.1884 2.3969
1.8665 -6.1239 2.3969
2.0838 -6.0515 2.3969
2.2984 -5.9712 2.3969
2.5097 -5.8830 2.3969
2.7176 -5.7873 2.3969
2.9219 -5.6840 2.3969
3.1221 -5.5734 2.3969
3.3181 -5.4556 2.3969
3.5096 -5.3307 2.3969
3.6963 -5.1990 2.3969
3.8780 -5.0606 2.3969
4.0544 -4.9158 2.3969
4.2253 -4.7647 2.3969
4.3906 -4.6075 2.3969
4.5499 -4.4445 2.3969
4.7031 -4.2759 2.3969
4.8500 -4.1020 2.3969
4.9904 -3.9229 2.3969
5.1241 -3.7389 2.3969
5.2509 -3.5504 2.3969
5.3708 -3.3575 2.3969
5.4835 -3.1605 2.3969
5.5889 -2.9596 2.3969
5.6869 -2.7552 2.3969
5.7773 -2.5476 2.3969
5.8602 -2.3369 2.3969
5.9353 -2.1236 2.3969
6.0026 -1.9078 2.3969
6.0620 -1.6899 2.3969
6.1136 -1.4702 2.3969
6.1571 -1.2489 2.3969
6.1926 -1.0263 2.3969
6.2200 -0.8028 2.3969
6.2394 -0.5786 2.3969
6.2507 -0.3541 2.3969
6.2539 -0.1294 2.3969
6.2491 0.0950 2.3969
6.2363 0.3190 2.3969
6.2154 0.5422 2.3969
6.1866 0.7644 2.3969
6.1499 0.9851 2.3969
6.1053 1.2043 2.3969
6.0530 1.4216 2.3969
5.9930 1.6368 2.3969
5.9254 1.8495 2.3969
5.8504 2.0594 2.3969
5.7680 2.2665 2.3969
5.6783 2.4703 2.3969
5.5815 2.6707 2.3969
5.4777 2.8674 2.3969
5.3671 3.0601 2.3969
5.2497 3.2487 2.3969
5.1258 3.4329 2.3969
4.9956 3.6124 2.3969
4.8592 3.7871 2.3969
4.7167 3.9568 2.3969
4.5684 4.1213 2.3969
4.4145 4.2803 2.3969
4.2551 4.4336 2.3969
4.0905 4.5812 2.3969
3.9209 4.7228 2.3969
3.7465 4.8582 2.3969
3.5675 4.9874 2.3969
3.3841 5.1101 2.3969
3.1965 5.2262 2.3969
3.0051 5.3356 2.3969
2.8100 5.4382 2.3969
2.6115 5.5337 2.3969
2.4098 5.6222 2.3969
0.8874 2.2952 0.9646
0.8043 2.3259 0.9649
0.7201 2.3535 0.9652
0.6349 2.3780 0.9655
0.5490 2.3995 0.9657
0.4622 2.4179 0.9660
0.3749 2.4331 0.9661
0.2871 2.4451 0.9663
0.1989 2.4540 0.9664
0.1104 2.4597 0.9665
0.0218 2.4622 0.9666
-0.0669 2.4615 0.9666
-0.1555 2.4576 0.9666
-0.2439 2.4505 0.9665
-0.3319 2.4402 0.9664
5.2238 2.5116 2.3969
5.1264 2.6958 2.3969
5.0226 2.8763 2.3969
4.9125 3.0529 2.3969
4.7963 3.2253 2.3969
4.6741 3.3934 2.3969
4.5461 3.5570 2.3969
4.4124 3.7159 2.3969
4.2733 3.8699 2.3969
4.1289 4.0187 2.3969
3.9794 4.1623 2.3969
3.8249 4.3004 2.3969
3.6658 4.4329 2.3969
3.5022 4.5597 2.3969
3.3342 4.6805 2.3969
3.1622 4.7953 2.3969
2.9862 4.9039 2.3969
2.8067 5.0062 2.3969
2.6236 5.1021 2.3969
2.4374 5.1914 2.3969
0.9030 2.1184 0.9627
0.8262 2.1497 0.9631
0.7483 2.1782 0.9634
0.6695 2.2038 0.9637
0.5897 2.2266 0.9639
0.5092 2.2465 0.9642
0.4280 2.2635 0.9644
0.3462 2.2776 0.9646
0.2640 2.2887 0.9647
0.1814 2.2968 0.9648
0.0986 2.3020 0.9649
0.0156 2.3041 0.9649
-0.0674 2.3033 0.9650
-0.1503 2.2995 0.9649
-0.2330 2.2927 0.9649
-0.3154 2.2829 0.9648
-0.3974 2.2701 0.9647
-0.4789 2.2544 0.9646
-0.5598 2.2357 0.9644
-0.6399 2.2142 0.9642
-0.7193 2.1897 0.9640
-0.7976 2.1624 0.9637
-0.8750 2.1323 0.9635
-2.3672 5.2248 2.3969
-2.5546 5.1381 2.3969
-2.7390 5.0447 2.3969
-2.9200 4.9449 2.3969
-3.0975 4.8388 2.3969
-3.2711 4.7264 2.3969
-3.4407 4.6078 2.3969
-3.6062 4.4833 2.3969
-3.7672 4.3530 2.3969
-3.9235 4.2170 2.3969
-4.0750 4.0754 2.3969
-4.2215 3.9286 2.3969
-4.3628 3.7765 2.3969
-4.4987 3.6197 2.3969
-4.6289 3.4579 2.3969
-4.7535 3.2912 2.3969
-4.8721 3.1203 2.3969
-4.9847 2.9452 2.3969
-5.0910 2.7661 2.3969
-5.1910 2.5832 2.3969
-5.2844 2.3968 2.3969
-5.3712 2.2070 2.3969
-5.4513 2.0142 2.3969
-5.5245 1.8185 2.3969
-5.5906 1.6201 2.3969
-5.6497 1.4194 2.3969
-5.7017 1.2166 2.3969
-5.7464 1.0119 2.3969
-5.7837 0.8055 2.3969
-5.8137 0.5978 2.3969
-5.8363 0.3891 2.3969
-5.8513 0.1795 2.3969
-5.8589 -0.0306 2.3969
-5.8588 -0.2411 2.3969
-5.8513 -0.4515 2.3969
-5.8361 -0.6617 2.3969
-5.8134 -0.8713 2.3969
-5.7832 -1.0802 2.3969
-5.7454 -1.2879 2.3969
-5.7001 -1.4943 2.3969
-5.6474 -1.6991 2.3969
-5.5872 -1.9020 2.3969
-5.5198 -2.1027 2.3969
-5.4451 -2.3009 2.3969
-5.3632 -2.4965 2.3969
-5.2742 -2.6891 2.3969
-5.1782 -2.8785 2.3969
-5.0754 -3.0643 2.3969
-4.9659 -3.2465 2.3969
-4.8497 -3.4246 2.3969
-4.7271 -3.5986 2.3969
-4.5982 -3.7680 2.3969
-4.4631 -3.9327 2.3969
-4.3221 -4.0925 2.3969
-4.1752 -4.2472 2.3969
-4.0228 -4.3964 2.3969
-3.8649 -4.5401 2.3969
-3.7018 -4.6780 2.3969
-3.5338 -4.8099 2.3969
-3.3610 -4.9357 2.3969
-3.1836 -5.0551 2.3969
-3.0019 -5.1680 2.3969
-2.8162 -5.2742 2.3969
-2.6266 -5.3736 2.3969
-2.4335 -5.4660 2.3969
-2.2370 -5.5514 2.3969
-2.0376 -5.6295 2.3969
-1.8354 -5.7003 2.3969
-1.6306 -5.7636 2.3969
-1.4237 -5.8194 2.3969
-1.2148 -5.8677 2.3969
-1.0042 -5.9082 2.3969
-0.7923 -5.9410 2.3969
-0.5793 -5.9661 2.3969
-0.3655 -5.9833 2.3969
-0.1513 -5.9927 2.3969
0.0632 -5.9942 2.3969
0.2776 -5.9879 2.3969
0.4916 -5.9738 2.3969
0.7049 -5.9518 2.3969
0.9173 -5.9220 2.3969
1.1283 -5.8845 2.3969
1.3379 -5.8392 2.3969
1.5456 -5.7864 2.3969
1.7512 -5.7260 2.3969
1.9544 -5.6581 2.3969
2.1550 -5.5829 2.3969
2.3526 -5.5004 2.3969
2.5470 -5.4108 2.3969
2.7379 -5.3141 2.3969
2.9252 -5.2106 2.3969
3.1084 -5.1003 2.3969
3.2875 -4.9835 2.3969
3.4621 -4.8603 2.3969
3.6320 -4.7308 2.3969
3.7970 -4.5953 2.3969
3.9569 -4.4540 2.3969
4.1114 -4.3069 2.3969
4.2604 -4.1545 2.3969
4.4037 -3.9967 2.3969
4.5411 -3.8340 2.3969
4.6725 -3.6665 2.3969
4.7976 -3.4944 2.3969
4.9163 -3.3180 2.3969
5.0284 -3.1375 2.3969
5.1339 -2.9532 2.3969
5.2325 -2.7653 2.3969
5.3243 -2.5741 2.3969
5.4090 -2.3798 2.3969
5.4865 -2.1826 2.3969
5.5569 -1.9830 2.3969
5.6200 -1.7811 2.3969
5.6756 -1.5772 2.3969
5.7239 -1.3715 2.3969
5.7647 -1.1644 2.3969
5.7980 -0.9561 2.3969
5.8238 -0.7468 2.3969
5.8420 -0.5370 2.3969
5.8526 -0.3267 2.3969
5.8557 -0.1164 2.3969
5.8513 0.0938 2.3969
5.8393 0.3035 2.3969
5.8198 0.5125 2.3969
5.7929 0.7205 2.3969
5.7586 0.9273 2.3969
5.7169 1.1326 2.3969
5.6680 1.3361 2.3969
5.6119 1.5376 2.3969
5.5486 1.7369 2.3969
5.4783 1.9336 2.3969
5.4012 2.1276 2.3969
5.3172 2.3185 2.3969
5.2265 2.5063 2.3969
5.1293 2.6906 2.3969
5.0257 2.8712 2.3969
4.9158 3.0479 2.3969
4.7997 3.2204 2.3969
4.6777 3.3887 2.3969
4.5498 3.5524 2.3969
4.4163 3.7114 2.3969
4.2774 3.8655 2.3969
4.1331 4.0145 2.3969
3.9837 4.1582 2.3969
3.8295 4.2965 2.3969
3.6704 4.4292 2.3969
3.5069 4.5561 2.3969
3.3391 4.6771 2.3969
3.1672 4.7921 2.3969
2.9913 4.9009 2.3969
2.8119 5.0034 2.3969
2.6289 5.0994 2.3969
2.4428 5.1889 2.3969
0.9052 2.1175 0.9627
0.8284 2.1488 0.9631
0.7506 2.1774 0.9634
0.6717 2.2031 0.9637
0.5920 2.2260 0.9639
0.5115 2.2460 0.9642
0.4303 2.2631 0.9644
0.3486 2.2773 0.9645
0.2663 2.2884 0.9647
0.1838 2.2967 0.9648
0.1010 2.3019 0.9649
0.0180 2.3041 0.9649
-0.0650 2.3034 0.9650
-0.1479 2.2996 0.9649
-0.2306 2.2929 0.9649
-0.3130 2.2832 0.9648
-0.3951 2.2705 0.9647
-0.4766 2.2549 0.9646
-0.5575 2.2363 0.9644
-0.6377 2.2148 0.9642
-0.7170 2.1905 0.9640
-0.7954 2.1633 0.9638
-0.8728 2.1333 0.9635
-2.3617 5.2272 2.3969
-2.5493 5.1406 2.3969
-2.7337 5.0475 2.3969
-2.9149 4.9479 2.3969
-3.0924 4.8419 2.3969
-3.2662 4.7297 2.3969
-3.4359 4.6113 2.3969
-3.6015 4.4870 2.3969
-3.7626 4.3568 2.3969
-3.9191 4.2209 2.3969
-4.0708 4.0796 2.3969
-4.2174 3.9329 2.3969
-4.3588 3.7810 2.3969
-4.4949 3.6239 2.3969
-4.6253 3.4624 2.3969
-4.7500 3.2960 2.3969
-4.8688 3.1253 2.3969
-4.9815 2.9503 2.3969
-5.0881 2.7713 2.3969
-5.1882 2.5886 2.3969
-5.2818 2.4022 2.3969
-5.3688 2.2126 2.3969
-5.4491 2.0198 2.3969
-5.5224 1.8241 2.3969
-5.5888 1.6259 2.3969
-5.6482 1.4252 2.3969
-5.7003 1.2224 2.3969
-5.7452 1.0178 2.3969
-5.7828 0.8115 2.3969
-5.8130 0.6038 2.3969
-5.8357 0.3951 2.3969
-5.8510 0.1855 2.3969
-5.8587 -0.0246 2.3969
-5.8589 -0.2350 2.3969
-5.8516 -0.4454 2.3969
-5.8367 -0.6556 2.3969
-5.8142 -0.8653 2.3969
-5.7841 -1.0742 2.3969
-5.7466 -1.2820 2.3969
-5.7015 -1.4884 2.3969
-5.6490 -1.6932 2.3969
-5.5891 -1.8962 2.3969
-5.5218 -2.0969 2.3969
-5.4473 -2.2953 2.3969
-5.3656 -2.4909 2.3969
-5.2768 -2.6836 2.3969
-5.1811 -2.8731 2.3969
-5.0785 -3.0591 2.3969
-4.9691 -3.2413 2.3969
-4.8531 -3.4196 2.3969
-4.7307 -3.5936 2.3969
-4.6020 -3.7632 2.3969
-4.4671 -3.9281 2.3969
-4.3262 -4.0880 2.3969
-4.1795 -4.2428 2.3969
-4.0272 -4.3922 2.3969
-3.8695 -4.5361 2.3969
-3.7066 -4.6741 2.3969
-3.5387 -4.8062 2.3969
-3.3660 -4.9321 2.3969
-3.1887 -5.0517 2.3969
-3.0072 -5.1648 2.3969
-2.8216 -5.2712 2.3969
-2.6321 -5.3708 2.3969
-2.4391 -5.4635 2.3969
-2.2427 -5.5490 2.3969
-2.0434 -5.6273 2.3969
-1.8412 -5.6983 2.3969
-1.6365 -5.7619 2.3969
-1.4296 -5.8179 2.3969
-1.2208 -5.8664 2.3969
-1.0103 -5.9072 2.3969
-0.7984 -5.9402 2.3969
-0.5854 -5.9655 2.3969
-0.3717 -5.9829 2.3969
-0.1574 -5.9925 2.3969
0.0570 -5.9943 2.3969
0.2714 -5.9882 2.3969
0.4854 -5.9743 2.3969
0.6988 -5.9525 2.3969
0.9112 -5.9230 2.3969
1.1223 -5.8856 2.3969
1.3319 -5.8406 2.3969
1.5397 -5.7880 2.3969
1.7454 -5.7278 2.3969
1.9486 -5.6602 2.3969
2.1493 -5.5852 2.3969
2.3470 -5.5029 2.3969
2.5415 -5.4134 2.3969
2.7325 -5.3170 2.3969
2.9199 -5.2136 2.3969
3.1032 -5.1036 2.3969
3.2824 -4.9869 2.3969
3.4571 -4.8639 2.3969
3.6272 -4.7346 2.3969
3.7923 -4.5993 2.3969
3.9523 -4.4581 2.3969
4.1070 -4.3112 2.3969
4.2562 -4.1589 2.3969
4.3997 -4.0014 2.3969
4.5373 -3.8388 2.3969
4.6688 -3.6714 2.3969
4.7941 -3.4994 2.3969
4.9129 -3.3231 2.3969
5.0253 -3.1428 2.3969
5.1309 -2.9585 2.3969
5.2298 -2.7707 2.3969
5.3217 -2.5796 2.3969
5.4066 -2.3854 2.3969
5.4844 -2.1883 2.3969
5.5550 -1.9888 2.3969
5.6182 -1.7869 2.3969
5.6741 -1.5830 2.3969
5.7226 -1.3774 2.3969
5.7637 -1.1703 2.3969
5.7972 -0.9620 2.3969
5.8231 -0.7528 2.3969
5.8416 -0.5430 2.3969
5.8524 -0.3328 2.3969
5.8557 -0.1224 2.3969
5.8515 0.0878 2.3969
5.8397 0.2975 2.3969
5.8205 0.5065 2.3969
5.7938 0.7146 2.3969
5.7597 0.9214 2.3969
5.7182 1.1267 2.3969
5.6695 1.3303 2.3969
5.6136 1.5319 2.3969
5.5505 1.7312 2.3969
5.4805 1.9280 2.3969
5.4035 2.1220 2.3969
5.3197 2.3131 2.3969
5.2292 2.5009 2.3969
5.1322 2.6853 2.3969
5.0288 2.8660 2.3969
4.9190 3.0428 2.3969
4.8031 3.2155 2.3969
4.6813 3.3839 2.3969
4.5536 3.5478 2.3969
4.4203 3.7069 2.3969
4.2814 3.8612 2.3969
4.1373 4.0103 2.3969
3.9881 4.1542 2.3969
3.8340 4.2926 2.3969
3.6751 4.4255 2.3969
3.5117 4.5526 2.3969
3.3440 4.6738 2.3969
3.1722 4.7889 2.3969
2.9964 4.8979 2.3969
2.8171 5.0005 2.3969
2.6342 5.0968 2.3969
2.4482 5.1865 2.3969
0.9074 2.1165 0.9627
0.8307 2.1479 0.9631
0.7528 2.1766 0.9634
0.6740 2.2024 0.9637
0.5943 2.2254 0.9639
0.5138 2.2455 0.9642
0.4327 2.2627 0.9644
0.3509 2.2769 0.9645
0.2687 2.2882 0.9647
0.1862 2.2965 0.9648
0.1033 2.3018 0.9649
0.0204 2.3041 0.9649
-0.0626 2.3034 0.9650
-0.1455 2.2998 0.9649
-0.2283 2.2931 0.9649
-0.3107 2.2835 0.9648
4.9083 2.3588 2.3969
4.8170 2.5319 2.3969
4.7196 2.7016 2.3969
4.6163 2.8676 2.3969
4.5073 3.0298 2.3969
4.3926 3.1879 2.3969
4.2724 3.3417 2.3969
4.1469 3.4912 2.3969
4.0163 3.6360 2.3969
3.8807 3.7760 2.3969
3.7403 3.9110 2.3969
3.5952 4.0410 2.3969
3.4458 4.1657 2.3969
3.2920 4.2849 2.3969
3.1342 4.3986 2.3969
2.9725 4.5066 2.3969
2.8072 4.6088 2.3969
2.6385 4.7051 2.3969
2.4665 4.7953 2.3969
0.9188 1.9564 0.9611
0.8478 1.9884 0.9614
0.7757 2.0177 0.9617
0.7026 2.0445 0.9620
0.6285 2.0685 0.9623
0.5536 2.0899 0.9626
0.4780 2.1086 0.9628
0.4018 2.1246 0.9630
0.3250 2.1378 0.9631
0.2478 2.1482 0.9633
0.1703 2.1558 0.9634
0.0925 2.1606 0.9634
0.0147 2.1627 0.9635
-0.0632 2.1619 0.9635
-0.1411 2.1583 0.9635
-0.2187 2.1519 0.9634
-0.2961 2.1426 0.9634
-0.3731 2.1307 0.9633
-0.4496 2.1159 0.9631
-0.5255 2.0984 0.9630
-0.6008 2.0782 0.9628
-0.6752 2.0552 0.9626
-0.7488 2.0296 0.9624
-0.8214 2.0014 0.9621
-0.8930 1.9705 0.9618
-2.4016 4.8291 2.3969
-2.5749 4.7412 2.3969
-2.7450 4.6473 2.3969
-2.9117 4.5474 2.3969
-3.0749 4.4416 2.3969
-3.2343 4.3301 2.3969
-3.3897 4.2130 2.3969
-3.5409 4.0903 2.3969
-3.6878 3.9624 2.3969
-3.8301 3.8293 2.3969
-3.9676 3.6911 2.3969
-4.1003 3.5481 2.3969
-4.2278 3.4004 2.3969
-4.3501 3.2482 2.3969
-4.4670 3.0916 2.3969
-4.5783 2.9309 2.3969
-4.6839 2.7663 2.3969
-4.7837 2.5979 2.3969
-4.8774 2.4260 2.3969
-4.9650 2.2507 2.3969
-5.0464 2.0724 2.3969
-5.1214 1.8911 2.3969
-5.1899 1.7071 2.3969
-5.2519 1.5208 2.3969
-5.3072 1.3322 2.3969
-5.3557 1.1415 2.3969
-5.3975 0.9492 2.3969
-5.4323 0.7554 2.3969
-5.4603 0.5604 2.3969
-5.4812 0.3642 2.3969
-5.4951 0.1674 2.3969
-5.5019 -0.0300 2.3969
-5.5017 -0.2275 2.3969
-5.4943 -0.4251 2.3969
-5.4799 -0.6225 2.3969
-5.4583 -0.8193 2.3969
-5.4297 -1.0153 2.3969
-5.3940 -1.2103 2.3969
-5.3512 -1.4040 2.3969
-5.3015 -1.5962 2.3969
-5.2449 -1.7866 2.3969
-5.1813 -1.9749 2.3969
-5.1110 -2.1609 2.3969
-5.0339 -2.3444 2.3969
-4.9502 -2.5251 2.3969
-4.8599 -2.7027 2.3969
-4.7633 -2.8771 2.3969
-4.6603 -3.0479 2.3969
-4.5511 -3.2150 2.3969
-4.4359 -3.3781 2.3969
-4.3148 -3.5369 2.3969
-4.1879 -3.6914 2.3969
-4.0554 -3.8412 2.3969
-3.9175 -3.9862 2.3969
-3.7743 -4.1261 2.3969
-3.6261 -4.2608 2.3969
-3.4730 -4.3901 2.3969
-3.3153 -4.5137 2.3969
-3.1531 -4.6316 2.3969
-2.9866 -4.7435 2.3969
-2.8161 -4.8492 2.3969
-2.6418 -4.9488 2.3969
-2.4639 -5.0419 2.3969
-2.2827 -5.1285 2.3969
-2.0984 -5.2085 2.3969
-1.9113 -5.2817 2.3969
-1.7216 -5.3480 2.3969
-1.5295 -5.4074 2.3969
-1.3354 -5.4597 2.3969
-1.1394 -5.5049 2.3969
-0.9419 -5.5429 2.3969
-0.7431 -5.5736 2.3969
-0.5434 -5.5971 2.3969
-0.3429 -5.6132 2.3969
-0.1419 -5.6220 2.3969
0.0593 -5.6235 2.3969
0.2603 -5.6175 2.3969
0.4611 -5.6043 2.3969
0.6612 -5.5837 2.3969
0.8603 -5.5558 2.3969
1.0583 -5.5206 2.3969
1.2549 -5.4783 2.3969
1.4497 -5.4288 2.3969
1.6426 -5.3722 2.3969
1.8333 -5.3086 2.3969
2.0214 -5.2381 2.3969
2.2068 -5.1608 2.3969
2.3892 -5.0768 2.3969
2.5684 -4.9863 2.3969
2.7441 -4.8893 2.3969
2.9161 -4.7860 2.3969
3.0841 -4.6765 2.3969
3.2480 -4.5610 2.3969
3.4075 -4.4396 2.3969
3.5624 -4.3126 2.3969
3.7125 -4.1801 2.3969
3.8576 -4.0423 2.3969
3.9976 -3.8994 2.3969
4.1322 -3.7515 2.3969
4.2613 -3.5989 2.3969
4.3847 -3.4419 2.3969
4.5022 -3.2805 2.3969
4.6138 -3.1151 2.3969
4.7192 -2.9458 2.3969
4.8184 -2.7729 2.3969
4.9111 -2.5967 2.3969
4.9975 -2.4173 2.3969
5.0772 -2.2350 2.3969
5.1502 -2.0500 2.3969
5.2164 -1.8627 2.3969
5.2759 -1.6732 2.3969
5.3284 -1.4818 2.3969
5.3739 -1.2888 2.3969
5.4124 -1.0944 2.3969
5.4439 -0.8989 2.3969
5.4684 -0.7024 2.3969
5.4857 -0.5054 2.3969
5.4959 -0.3080 2.3969
5.4991 -0.1105 2.3969
5.4951 0.0869 2.3969
5.4841 0.2839 2.3969
5.4661 0.4802 2.3969
5.4410 0.6756 2.3969
5.4090 0.8699 2.3969
5.3701 1.0627 2.3969
5.3244 1.2540 2.3969
5.2719 1.4433 2.3969
5.2127 1.6305 2.3969
5.1468 1.8154 2.3969
5.0746 1.9977 2.3969
4.9959 2.1773 2.3969
4.9109 2.3537 2.3969
4.8197 2.5270 2.3969
4.7225 2.6968 2.3969
4.6194 2.8629 2.3969
4.5105 3.0252 2.3969
4.3959 3.1834 2.3969
4.2759 3.3374 2.3969
4.1506 3.4869 2.3969
4.0201 3.6319 2.3969
3.8847 3.7720 2.3969
3.7444 3.9072 2.3969
3.5995 4.0373 2.3969
3.4501 4.1621 2.3969
3.2965 4.2816 2.3969
3.1388 4.3954 2.3969
2.9772 4.5036 2.3969
2.8120 4.6060 2.3969
2.6434 4.7024 2.3969
2.4714 4.7928 2.3969
0.9208 1.9555 0.9611
0.8498 1.9875 0.9614
0.7778 2.0169 0.9617
0.7047 2.0437 0.9620
0.6306 2.0679 0.9623
0.5558 2.0894 0.9625
0.4802 2.1081 0.9628
0.4040 2.1242 0.9630
0.3272 2.1374 0.9631
0.2500 2.1479 0.9633
0.1725 2.1556 0.9634
0.0948 2.1605 0.9634
0.0169 2.1626 0.9635
-0.0610 2.1619 0.9635
-0.1388 2.1584 0.9635
-0.2165 2.1521 0.9634
-0.2939 2.1429 0.9634
-0.3709 2.1310 0.9633
-0.4474 2.1164 0.9632
-0.5234 2.0989 0.9630
-0.5986 2.0788 0.9628
-0.6731 2.0559 0.9626
-0.7467 2.0304 0.9624
-0.8194 2.0022 0.9621
-0.8910 1.9714 0.9618
-2.3966 4.8315 2.3969
-2.5699 4.7438 2.3969
-2.7401 4.6501 2.3969
-2.9070 4.5504 2.3969
-3.0702 4.4447 2.3969
-3.2297 4.3334 2.3969
-3.3853 4.2164 2.3969
-3.5366 4.0939 2.3969
-3.6836 3.9661 2.3969
-3.8260 3.8332 2.3969
-3.9638 3.6951 2.3969
-4.0965 3.5523 2.3969
-4.2242 3.4047 2.3969
-4.3467 3.2526 2.3969
-4.4637 3.0962 2.3969
-4.5752 2.9356 2.3969
-4.6809 2.7716 2.3969
-4.7809 2.6028 2.3969
-4.8748 2.4310 2.3969
-4.9626 2.2558 2.3969
-5.0441 2.0775 2.3969
-5.1193 1.8963 2.3969
-5.1880 1.7125 2.3969
-5.2502 1.5261 2.3969
-5.3057 1.3376 2.3969
-5.3544 1.1471 2.3969
-5.3964 0.9548 2.3969
-5.4314 0.7610 2.3969
-5.4596 0.5661 2.3969
-5.4807 0.3700 2.3969
-5.4948 0.1731 2.3969
-5.5018 -0.0243 2.3969
-5.5018 -0.2219 2.3969
-5.4947 -0.4195 2.3969
-5.4804 -0.6168 2.3969
-5.4591 -0.8136 2.3969
-5.4306 -1.0097 2.3969
-5.3951 -1.2047 2.3969
-5.3526 -1.3985 2.3969
-5.3030 -1.5907 2.3969
-5.2466 -1.7812 2.3969
-5.1832 -1.9696 2.3969
-5.1131 -2.1556 2.3969
-5.0362 -2.3392 2.3969
-4.9527 -2.5199 2.3969
-4.8626 -2.6977 2.3969
-4.7661 -2.8721 2.3969
-4.6633 -3.0430 2.3969
-4.5543 -3.2102 2.3969
-4.4393 -3.3734 2.3969
-4.3183 -3.5324 2.3969
-4.1916 -3.6870 2.3969
-4.0593 -3.8370 2.3969
-3.9215 -3.9821 2.3969
-3.7785 -4.1222 2.3969
-3.6304 -4.2570 2.3969
-3.4775 -4.3864 2.3969
-3.3199 -4.5102 2.3969
-3.1578 -4.6282 2.3969
-2.9914 -4.7403 2.3969
-2.8211 -4.8463 2.3969
-2.6468 -4.9460 2.3969
-2.4691 -5.0394 2.3969
-2.2880 -5.1262 2.3969
-2.1038 -5.2063 2.3969
-1.9167 -5.2797 2.3969
-1.7270 -5.3462 2.3969
-1.5350 -5.4058 2.3969
-1.3410 -5.4583 2.3969
-1.1451 -5.5037 2.3969
-0.9476 -5.5419 2.3969
-0.7489 -5.5728 2.3969
-0.5491 -5.5965 2.3969
-0.3486 -5.6129 2.3969
-0.1477 -5.6219 2.3969
0.0535 -5.6235 2.3969
0.2546 -5.6178 2.3969
0.4553 -5.6048 2.3969
0.6554 -5.5844 2.3969
0.8546 -5.5567 2.3969
1.0527 -5.5218 2.3969
1.2493 -5.4796 2.3969
1.4442 -5.4303 2.3969
1.6371 -5.3739 2.3969
1.8278 -5.3105 2.3969
2.0161 -5.2402 2.3969
2.2016 -5.1631 2.3969
2.3840 -5.0793 2.3969
2.5633 -4.9890 2.3969
2.7391 -4.8921 2.3969
2.9112 -4.7890 2.3969
3.0794 -4.6797 2.3969
3.2434 -4.5644 2.3969
3.4030 -4.4432 2.3969
3.5580 -4.3164 2.3969
3.7083 -4.1840 2.3969
3.8535 -4.0463 2.3969
3.9936 -3.9035 2.3969
4.1284 -3.7558 2.3969
4.2577 -3.6034 2.3969
4.3812 -3.4464 2.3969
4.4989 -3.2852 2.3969
4.6107 -3.1199 2.3969
4.7163 -2.9507 2.3969
4.8156 -2.7779 2.3969
4.9086 -2.6017 2.3969
4.9951 -2.4224 2.3969
5.0750 -2.2402 2.3969
5.1482 -2.0554 2.3969
5.2146 -1.8681 2.3969
5.2742 -1.6787 2.3969
5.3270 -1.4874 2.3969
5.3727 -1.2944 2.3969
5.4114 -1.1000 2.3969
5.4431 -0.9045 2.3969
5.4678 -0.7081 2.3969
5.4853 -0.5111 2.3969
5.4957 -0.3137 2.3969
5.4991 -0.1161 2.3969
5.4953 0.0812 2.3969
5.4845 0.2782 2.3969
5.4667 0.4746 2.3969
5.4418 0.6700 2.3969
5.4100 0.8643 2.3969
5.3713 1.0572 2.3969
5.3258 1.2485 2.3969
5.2735 1.4379 2.3969
5.2144 1.6252 2.3969
5.1488 1.8102 2.3969
5.0767 1.9926 2.3969
4.9982 2.1721 2.3969
4.9134 2.3487 2.3969
4.8224 2.5221 2.3969
4.7254 2.6920 2.3969
4.6224 2.8582 2.3969
4.5137 3.0206 2.3969
4.3993 3.1789 2.3969
4.2795 3.3330 2.3969
4.1543 3.4827 2.3969
4.0239 3.6278 2.3969
3.8886 3.7681 2.3969
3.7485 3.9034 2.3969
3.6037 4.0337 2.3969
3.4544 4.1586 2.3969
3.3009 4.2782 2.3969
3.1434 4.3922 2.3969
2.9819 4.5006 2.3969
2.8168 4.6031 2.3969
2.6482 4.6997 2.3969
2.4764 4.7903 2.3969
0.9228 1.9545 0.9610
0.8519 1.9866 0.9614
0.7798 2.0161 0.9617
0.7068 2.0430 0.9620
0.6328 2.0672 0.9623
0.5579 2.0888 0.9625
0.4824 2.1076 0.9628
0.4062 2.1237 0.9630
0.3294 2.1371 0.9631
0.2523 2.1477 0.9632
0.1748 2.1554 0.9634
0.0970 2.1604 0.9634
0.0191 2.1626 0.9635
-0.0588 2.1620 0.9635
-0.1366 2.1585 0.9635
-0.2143 2.1523 0.9634
-0.2917 2.1433 0.9634
4.6235 2.2208 2.3969
4.5377 2.3840 2.3969
4.4461 2.5439 2.3969
4.3489 2.7004 2.3969
4.2463 2.8533 2.3969
4.1384 3.0023 2.3969
4.0253 3.1473 2.3969
3.9072 3.2882 2.3969
3.7842 3.4247 2.3969
3.6565 3.5568 2.3969
3.5243 3.6841 2.3969
3.3877 3.8066 2.3969
3.2469 3.9242 2.3969
3.1022 4.0367 2.3969
2.9535 4.1439 2.3969
2.8012 4.2458 2.3969
2.6455 4.3422 2.3969
2.4865 4.4330 2.3969
2.3244 4.5181 2.3969
0.8648 1.8411 0.9599
0.7980 1.8712 0.9602
0.7301 1.8988 0.9605
0.6613 1.9239 0.9608
0.5916 1.9466 0.9611
0.5211 1.9667 0.9613
0.4499 1.9843 0.9615
0.3782 1.9993 0.9617
0.3059 2.0117 0.9618
0.2333 2.0215 0.9620
0.1603 2.0287 0.9621
0.0871 2.0332 0.9621
0.0138 2.0351 0.9622
-0.0595 2.0344 0.9622
-0.1328 2.0310 0.9622
-0.2059 2.0250 0.9621
-0.2787 2.0163 0.9621
-0.3512 2.0050 0.9620
-0.4232 1.9911 0.9619
-0.4947 1.9746 0.9617
-0.5655 1.9556 0.9615
-0.6356 1.9340 0.9613
-0.7048 1.9099 0.9611
-0.7732 1.8833 0.9609
-0.8405 1.8543 0.9606
-0.9068 1.8229 0.9603
-2.4266 4.4670 2.3969
-2.5868 4.3784 2.3969
-2.7439 4.2842 2.3969
-2.8976 4.1844 2.3969
-3.0477 4.0792 2.3969
-3.1941 3.9688 2.3969
-3.3365 3.8531 2.3969
-3.4748 3.7325 2.3969
-3.6088 3.6069 2.3969
-3.7383 3.4766 2.3969
-3.8632 3.3418 2.3969
-3.9833 3.2025 2.3969
-4.0984 3.0590 2.3969
-4.2083 2.9115 2.3969
-4.3131 2.7600 2.3969
-4.4124 2.6049 2.3969
-4.5062 2.4461 2.3969
-4.5944 2.2841 2.3969
-4.6767 2.1189 2.3969
-4.7532 1.9508 2.3969
-4.8236 1.7800 2.3969
-4.8880 1.6067 2.3969
-4.9462 1.4311 2.3969
-4.9981 1.2534 2.3969
-5.0437 1.0739 2.3969
-5.0828 0.8927 2.3969
-5.1154 0.7102 2.3969
-5.1415 0.5265 2.3969
-5.1610 0.3418 2.3969
-5.1739 0.1565 2.3969
-5.1801 -0.0293 2.3969
-5.1797 -0.2154 2.3969
-5.1726 -0.4014 2.3969
-5.1588 -0.5871 2.3969
-5.1383 -0.7724 2.3969
-5.1111 -0.9569 2.3969
-5.0773 -1.1404 2.3969
-5.0369 -1.3227 2.3969
-4.9899 -1.5035 2.3969
-4.9364 -1.6826 2.3969
-4.8764 -1.8598 2.3969
-4.8100 -2.0348 2.3969
-4.7373 -2.2074 2.3969
-4.6584 -2.3774 2.3969
-4.5733 -2.5444 2.3969
-4.4821 -2.7084 2.3969
-4.3851 -2.8690 2.3969
-4.2822 -3.0262 2.3969
-4.1737 -3.1795 2.3969
-4.0596 -3.3289 2.3969
-3.9401 -3.4741 2.3969
-3.8153 -3.6150 2.3969
-3.6855 -3.7513 2.3969
-3.5507 -3.8828 2.3969
-3.4112 -4.0094 2.3969
-3.2671 -4.1309 2.3969
-3.1186 -4.2471 2.3969
-2.9660 -4.3579 2.3969
-2.8093 -4.4630 2.3969
-2.6489 -4.5624 2.3969
-2.4849 -4.6560 2.3969
-2.3175 -4.7435 2.3969
-2.1471 -4.8249 2.3969
-1.9737 -4.9000 2.3969
-1.7977 -4.9688 2.3969
-1.6192 -5.0311 2.3969
-1.4385 -5.0869 2.3969
-1.2559 -5.1360 2.3969
-1.0716 -5.1785 2.3969
-0.8859 -5.2142 2.3969
-0.6990 -5.2431 2.3969
-0.5111 -5.2651 2.3969
-0.3225 -5.2803 2.3969
-0.1335 -5.2886 2.3969
0.0557 -5.2899 2.3969
0.2448 -5.2844 2.3969
0.4336 -5.2719 2.3969
0.6218 -5.2526 2.3969
0.8091 -5.2264 2.3969
0.9954 -5.1933 2.3969
1.1802 -5.1535 2.3969
1.3635 -5.1070 2.3969
1.5449 -5.0539 2.3969
1.7243 -4.9941 2.3969
1.9012 -4.9279 2.3969
2.0757 -4.8553 2.3969
2.2473 -4.7764 2.3969
2.4158 -4.6913 2.3969
2.5812 -4.6001 2.3969
2.7430 -4.5030 2.3969
2.9011 -4.4001 2.3969
3.0553 -4.2916 2.3969
3.2054 -4.1776 2.3969
3.3512 -4.0582 2.3969
3.4926 -3.9337 2.3969
3.6292 -3.8041 2.3969
3.7610 -3.6697 2.3969
3.8877 -3.5307 2.3969
4.0093 -3.3873 2.3969
4.1255 -3.2396 2.3969
4.2362 -3.0879 2.3969
4.3413 -2.9323 2.3969
4.4407 -2.7731 2.3969
4.5342 -2.6105 2.3969
4.6217 -2.4447 2.3969
4.7030 -2.2760 2.3969
4.7782 -2.1045 2.3969
4.8471 -1.9305 2.3969
4.9097 -1.7543 2.3969
4.9658 -1.5760 2.3969
5.0154 -1.3960 2.3969
5.0585 -1.2143 2.3969
5.0949 -1.0313 2.3969
5.1248 -0.8473 2.3969
5.1480 -0.6624 2.3969
5.1645 -0.4769 2.3969
5.1743 -0.2911 2.3969
5.1775 -0.1051 2.3969
5.1740 0.0807 2.3969
5.1638 0.2662 2.3969
5.1470 0.4510 2.3969
5.1236 0.6351 2.3969
5.0937 0.8180 2.3969
5.0572 0.9997 2.3969
5.0143 1.1798 2.3969
4.9651 1.3582 2.3969
4.9095 1.5346 2.3969
4.8477 1.7088 2.3969
4.7798 1.8806 2.3969
4.7058 2.0497 2.3969
4.6259 2.2160 2.3969
4.5402 2.3793 2.3969
4.4488 2.5394 2.3969
4.3518 2.6960 2.3969
4.2493 2.8489 2.3969
4.1415 2.9981 2.3969
4.0286 3.1432 2.3969
3.9106 3.2842 2.3969
3.7878 3.4209 2.3969
3.6603 3.5530 2.3969
3.5282 3.6805 2.3969
3.3917 3.8032 2.3969
3.2511 3.9209 2.3969
3.1064 4.0335 2.3969
2.9578 4.1409 2.3969
2.8057 4.2430 2.3969
2.6500 4.3395 2.3969
2.4911 4.4305 2.3969
2.3291 4.5157 2.3969
0.8667 1.8402 0.9599
0.7999 1.8704 0.9602
0.7321 1.8980 0.9605
0.6633 1.9233 0.9608
0.5936 1.9460 0.9611
0.5231 1.9662 0.9613
0.4520 1.9839 0.9615
0.3802 1.9989 0.9617
0.3080 2.0114 0.9618
0.2353 2.0213 0.9620
0.1624 2.0285 0.9621
0.0892 2.0332 0.9621
0.0159 2.0351 0.9622
-0.0574 2.0345 0.9622
-0.1307 2.0311 0.9622
-0.2038 2.0252 0.9621
-0.2766 2.0166 0.9621
-0.3491 2.0054 0.9620
-0.4211 1.9916 0.9619
-0.4926 1.9751 0.9617
-0.5635 1.9562 0.9615
-0.6336 1.9347 0.9613
-0.7029 1.9106 0.9611
-0.7712 1.8841 0.9609
-0.8386 1.8552 0.9606
-0.9049 1.8238 0.9603
-2.4219 4.4695 2.3969
-2.5823 4.3811 2.3969
-2.7395 4.2870 2.3969
-2.8933 4.1874 2.3969
-3.0435 4.0823 2.3969
-3.1900 3.9720 2.3969
-3.3325 3.8565 2.3969
-3.4709 3.7360 2.3969
-3.6050 3.6106 2.3969
-3.7347 3.4805 2.3969
-3.8597 3.3457 2.3969
-3.9799 3.2066 2.3969
-4.0951 3.0632 2.3969
-4.2053 2.9158 2.3969
-4.3101 2.7644 2.3969
-4.4096 2.6094 2.3969
-4.5036 2.4507 2.3969
-4.5919 2.2888 2.3969
-4.6744 2.1237 2.3969
-4.7511 1.9557 2.3969
-4.8217 1.7850 2.3969
-4.8863 1.6117 2.3969
-4.9446 1.4362 2.3969
-4.9967 1.2586 2.3969
-5.0424 1.0791 2.3969
-5.0817 0.8980 2.3969
-5.1146 0.7155 2.3969
-5.1408 0.5318 2.3969
-5.1605 0.3471 2.3969
-5.1736 0.1618 2.3969
-5.1800 -0.0240 2.3969
-5.1798 -0.2100 2.3969
-5.1729 -0.3960 2.3969
-5.1593 -0.5818 2.3969
-5.1390 -0.7671 2.3969
-5.1120 -0.9516 2.3969
-5.0784 -1.1351 2.3969
-5.0381 -1.3175 2.3969
-4.9913 -1.4984 2.3969
-4.9380 -1.6775 2.3969
-4.8782 -1.8548 2.3969
-4.8120 -2.0298 2.3969
-4.7395 -2.2025 2.3969
-4.6607 -2.3725 2.3969
-4.5758 -2.5397 2.3969
-4.4849 -2.7037 2.3969
-4.3880 -2.8645 2.3969
-4.2853 -3.0217 2.3969
-4.1769 -3.1752 2.3969
-4.0630 -3.3247 2.3969
-3.9436 -3.4700 2.3969
-3.8190 -3.6110 2.3969
-3.6893 -3.7474 2.3969
-3.5547 -3.8791 2.3969
-3.4153 -4.0058 2.3969
-3.2713 -4.1275 2.3969
-3.1230 -4.2438 2.3969
-2.9704 -4.3548 2.3969
-2.8139 -4.4601 2.3969
-2.6535 -4.5597 2.3969
-2.4896 -4.6534 2.3969
-2.3224 -4.7411 2.3969
-2.1520 -4.8226 2.3969
-1.9787 -4.8980 2.3969
-1.8027 -4.9669 2.3969
-1.6244 -5.0294 2.3969
-1.4438 -5.0854 2.3969
-1.2612 -5.1347 2.3969
-1.0770 -5.1774 2.3969
-0.8912 -5.2132 2.3969
-0.7043 -5.2423 2.3969
-0.5165 -5.2646 2.3969
-0.3279 -5.2799 2.3969
-0.1389 -5.2884 2.3969
0.0503 -5.2900 2.3969
0.2394 -5.2846 2.3969
0.4282 -5.2724 2.3969
0.6164 -5.2532 2.3969
0.8038 -5.2272 2.3969
0.9900 -5.1944 2.3969
1.1749 -5.1548 2.3969
1.3583 -5.1085 2.3969
1.5397 -5.0555 2.3969
1.7192 -4.9959 2.3969
1.8962 -4.9299 2.3969
2.0707 -4.8575 2.3969
2.2424 -4.7787 2.3969
2.4110 -4.6938 2.3969
2.5765 -4.6028 2.3969
2.7384 -4.5059 2.3969
2.8966 -4.4032 2.3969
3.0510 -4.2948 2.3969
3.2012 -4.1809 2.3969
3.3471 -4.0617 2.3969
3.4886 -3.9373 2.3969
3.6253 -3.8079 2.3969
3.7573 -3.6737 2.3969
3.8841 -3.5348 2.3969
4.0059 -3.3915 2.3969
4.1223 -3.2439 2.3969
4.2331 -3.0923 2.3969
4.3384 -2.9368 2.3969
4.4379 -2.7777 2.3969
4.5316 -2.6152 2.3969
4.6192 -2.4495 2.3969
4.7008 -2.2809 2.3969
4.7762 -2.1095 2.3969
4.8452 -1.9356 2.3969
4.9080 -1.7594 2.3969
4.9643 -1.5812 2.3969
5.0141 -1.4012 2.3969
5.0573 -1.2195 2.3969
5.0940 -1.0366 2.3969
5.1240 -0.8526 2.3969
5.1474 -0.6677 2.3969
5.1641 -0.4823 2.3969
5.1741 -0.2964 2.3969
5.1775 -0.1105 2.3969
5.1742 0.0754 2.3969
5.1642 0.2608 2.3969
5.1476 0.4457 2.3969
5.1244 0.6298 2.3969
5.0946 0.8128 2.3969
5.0584 0.9945 2.3969
5.0157 1.1747 2.3969
4.9666 1.3531 2.3969
4.9112 1.5296 2.3969
4.8496 1.7038 2.3969
4.7818 1.8757 2.3969
4.7080 2.0449 2.3969
4.6283 2.2113 2.3969
4.5427 2.3747 2.3969
4.4515 2.5348 2.3969
4.3546 2.6915 2.3969
4.2523 2.8446 2.3969
4.1447 2.9939 2.3969
4.0319 3.1391 2.3969
3.9141 3.2802 2.3969
3.7914 3.4170 2.3969
3.6640 3.5493 2.3969
3.5320 3.6769 2.3969
3.3957 3.7997 2.3969
3.2551 3.9176 2.3969
3.1106 4.0304 2.3969
2.9621 4.1379 2.3969
2.8101 4.2401 2.3969
2.6545 4.3368 2.3969
2.4957 4.4279 2.3969
2.3338 4.5134 2.3969
0.8686 1.8393 0.9599
0.8019 1.8695 0.9602
0.7340 1.8973 0.9605
0.6653 1.9226 0.9608
0.5956 1.9454 0.9611
0.5252 1.9657 0.9613
0.4540 1.9834 0.9615
0.3823 1.9985 0.9617
0.3101 2.0111 0.9618
0.2374 2.0210 0.9619
0.1645 2.0284 0.9620
0.0913 2.0331 0.9621
0.0180 2.0351 0.9622
-0.0553 2.0345 0.9622
-0.1286 2.0313 0.9622
-0.2017 2.0254 0.9621
-0.2745 2.0169 0.9621
4.3649 2.0955 2.3969
4.2840 2.2496 2.3969
4.1976 2.4007 2.3969
4.1060 2.5485 2.3969
4.0093 2.6929 2.3969
3.9075 2.8337 2.3969
3.8008 2.9708 2.3969
3.6894 3.1038 2.3969
3.5734 3.2328 2.3969
3.4529 3.3576 2.3969
3.3281 3.4779 2.3969
3.1992 3.5937 2.3969
3.0663 3.7049 2.3969
2.9296 3.8112 2.3969
2.7893 3.9125 2.3969
2.6455 4.0088 2.3969
2.4985 4.0999 2.3969
2.3484 4.1857 2.3969
0.8779 1.7060 0.9585
0.8159 1.7366 0.9588
0.7529 1.7649 0.9591
0.6888 1.7910 0.9594
0.6239 1.8147 0.9597
0.5581 1.8361 0.9599
0.4916 1.8550 0.9602
0.4245 1.8716 0.9604
0.3568 1.8858 0.9605
0.2886 1.8975 0.9607
0.2201 1.9067 0.9608
0.1512 1.9135 0.9609
0.0822 1.9177 0.9609
0.0130 1.9195 0.9610
-0.0562 1.9188 0.9610
-0.1253 1.9156 0.9610
-0.1942 1.9099 0.9609
-0.2629 1.9017 0.9609
-0.3313 1.8911 0.9608
-0.3992 1.8780 0.9607
-0.4667 1.8624 0.9605
-0.5335 1.8445 0.9604
-0.5996 1.8241 0.9602
-0.6650 1.8014 0.9600
-0.7294 1.7763 0.9597
-0.7930 1.7489 0.9595
-0.8555 1.7193 0.9592
-0.9169 1.6874 0.9589
-2.4431 4.1341 2.3969
-2.5914 4.0450 2.3969
-2.7365 3.9507 2.3969
-2.8783 3.8513 2.3969
-3.0164 3.7469 2.3969
-3.1508 3.6376 2.3969
-3.2814 3.5236 2.3969
-3.4078 3.4049 2.3969
-3.5300 3.2818 2.3969
-3.6478 3.1544 2.3969
-3.7611 3.0228 2.3969
-3.8697 2.8873 2.3969
-3.9734 2.7478 2.3969
-4.0722 2.6048 2.3969
-4.1658 2.4582 2.3969
-4.2543 2.3082 2.3969
-4.3374 2.1551 2.3969
-4.4150 1.9992 2.3969
-4.4870 1.8405 2.3969
-4.5534 1.6792 2.3969
-4.6140 1.5154 2.3969
-4.6687 1.3499 2.3969
-4.7176 1.1820 2.3969
-4.7604 1.0127 2.3969
-4.7972 0.8413 2.3969
-4.8278 0.6689 2.3969
-4.8523 0.4957 2.3969
-4.8705 0.3215 2.3969
-4.8825 0.1466 2.3969
-4.8882 -0.0288 2.3969
-4.8876 -0.2043 2.3969
-4.8807 -0.3798 2.3969
-4.8675 -0.5551 2.3969
-4.8480 -0.7298 2.3969
-4.8222 -0.9039 2.3969
-4.7901 -1.0770 2.3969
-4.7518 -1.2489 2.3969
-4.7074 -1.4195 2.3969
-4.6567 -1.5884 2.3969
-4.6000 -1.7555 2.3969
-4.5372 -1.9205 2.3969
-4.4685 -2.0832 2.3969
-4.3939 -2.2435 2.3969
-4.3135 -2.4010 2.3969
-4.2274 -2.5556 2.3969
-4.1357 -2.7070 2.3969
-4.0386 -2.8551 2.3969
-3.9361 -2.9996 2.3969
-3.8284 -3.1404 2.3969
-3.7156 -3.2773 2.3969
-3.5979 -3.4100 2.3969
-3.4753 -3.5384 2.3969
-3.3482 -3.6624 2.3969
-3.2165 -3.7817 2.3969
-3.0806 -3.8961 2.3969
-2.9405 -4.0056 2.3969
-2.7965 -4.1100 2.3969
-2.6488 -4.2091 2.3969
-2.4975 -4.3027 2.3969
-2.3428 -4.3908 2.3969
-2.1850 -4.4733 2.3969
-2.0242 -4.5500 2.3969
-1.8608 -4.6207 2.3969
-1.6948 -4.6855 2.3969
-1.5265 -4.7442 2.3969
-1.3562 -4.7967 2.3969
-1.1840 -4.8430 2.3969
-1.0103 -4.8830 2.3969
-0.8352 -4.9166 2.3969
-0.6589 -4.9438 2.3969
-0.4818 -4.9646 2.3969
-0.3040 -4.9789 2.3969
-0.1258 -4.9867 2.3969
0.0525 -4.9880 2.3969
0.2308 -4.9827 2.3969
0.4088 -4.9710 2.3969
0.5861 -4.9528 2.3969
0.7628 -4.9281 2.3969
0.9383 -4.8970 2.3969
1.1126 -4.8595 2.3969
1.2854 -4.8157 2.3969
1.4565 -4.7657 2.3969
1.6256 -4.7094 2.3969
1.7924 -4.6470 2.3969
1.9569 -4.5786 2.3969
2.1187 -4.5043 2.3969
2.2777 -4.4242 2.3969
2.4336 -4.3383 2.3969
2.5862 -4.2468 2.3969
2.7354 -4.1499 2.3969
2.8808 -4.0476 2.3969
3.0225 -3.9402 2.3969
3.1600 -3.8277 2.3969
3.2933 -3.7104 2.3969
3.4223 -3.5883 2.3969
3.5466 -3.4617 2.3969
3.6662 -3.3307 2.3969
3.7810 -3.1955 2.3969
3.8907 -3.0563 2.3969
3.9952 -2.9133 2.3969
4.0945 -2.7667 2.3969
4.1883 -2.6166 2.3969
4.2766 -2.4633 2.3969
4.3593 -2.3071 2.3969
4.4362 -2.1480 2.3969
4.5073 -1.9863 2.3969
4.5724 -1.8222 2.3969
4.6315 -1.6560 2.3969
4.6846 -1.4879 2.3969
4.7316 -1.3181 2.3969
4.7724 -1.1467 2.3969
4.8070 -0.9742 2.3969
4.8353 -0.8005 2.3969
4.8574 -0.6261 2.3969
4.8731 -0.4511 2.3969
4.8826 -0.2758 2.3969
4.8857 -0.1003 2.3969
4.8826 0.0750 2.3969
4.8732 0.2501 2.3969
4.8575 0.4246 2.3969
4.8356 0.5983 2.3969
4.8075 0.7710 2.3969
4.7733 0.9425 2.3969
4.7329 1.1125 2.3969
4.6866 1.2809 2.3969
4.6343 1.4475 2.3969
4.5761 1.6120 2.3969
4.5121 1.7742 2.3969
4.4425 1.9339 2.3969
4.3672 2.0910 2.3969
4.2864 2.2452 2.3969
4.2002 2.3964 2.3969
4.1087 2.5443 2.3969
4.0121 2.6888 2.3969
3.9105 2.8297 2.3969
3.8039 2.9669 2.3969
3.6926 3.1001 2.3969
3.5768 3.2292 2.3969
3.4564 3.3541 2.3969
3.3318 3.4746 2.3969
3.2030 3.5905 2.3969
3.0702 3.7017 2.3969
2.9336 3.8082 2.3969
2.7934 3.9097 2.3969
2.6497 4.0061 2.3969
2.5028 4.0974 2.3969
2.3527 4.1833 2.3969
0.8797 1.7051 0.9585
0.8177 1.7357 0.9588
0.7547 1.7641 0.9591
0.6907 1.7903 0.9594
0.6258 1.8140 0.9597
0.5600 1.8355 0.9599
0.4935 1.8545 0.9602
0.4264 1.8712 0.9603
0.3587 1.8854 0.9605
0.2906 1.8972 0.9607
0.2220 1.9065 0.9608
0.1532 1.9133 0.9609
0.0841 1.9177 0.9609
0.0150 1.9195 0.9610
-0.0542 1.9189 0.9610
-0.1233 1.9157 0.9610
-0.1923 1.9101 0.9609
-0.2610 1.9020 0.9609
-0.3294 1.8914 0.9608
-0.3973 1.8784 0.9607
-0.4647 1.8629 0.9606
-0.5316 1.8450 0.9604
-0.5977 1.8247 0.9602
-0.6631 1.8021 0.9600
-0.7276 1.7771 0.9598
-0.7912 1.7497 0.9595
-0.8537 1.7201 0.9592
