ply
format ascii 1.0
element vertex 2165
property float32 x
property float32 y
property float32 z
end_header
-6.9267 1.8101 2.4034
-6.9990 1.5626 2.4034
-7.0626 1.3122 2.4034
-7.1173 1.0594 2.4034
-7.1630 0.8044 2.4034
-7.1996 0.5474 2.4034
-7.2270 0.2890 2.4034
-7.2452 0.0294 2.4034
-7.2540 -0.2312 2.4034
-7.2535 -0.4923 2.4034
-7.2436 -0.7536 2.4034
-7.2242 -1.0148 2.4034
-7.1953 -1.2755 2.4034
-7.1570 -1.5354 2.4034
-7.1092 -1.7941 2.4034
-7.0519 -2.0513 2.4034
-6.9852 -2.3067 2.4034
-6.9092 -2.5597 2.4034
-6.8239 -2.8102 2.4034
-6.7293 -3.0578 2.4034
-6.6256 -3.3021 2.4034
-6.5129 -3.5427 2.4034
-6.3913 -3.7794 2.4034
-6.2609 -4.0117 2.4034
-6.1218 -4.2394 2.4034
-5.9743 -4.4620 2.4034
-5.8185 -4.6793 2.4034
-5.6546 -4.8910 2.4034
-5.4827 -5.0967 2.4034
-5.3032 -5.2961 2.4034
-5.1162 -5.4889 2.4034
-4.9220 -5.6748 2.4034
-4.7208 -5.8536 2.4034
-4.5130 -6.0249 2.4034
-4.2987 -6.1885 2.4034
-4.0782 -6.3441 2.4034
-3.8520 -6.4915 2.4034
-3.6203 -6.6305 2.4034
-3.3833 -6.7608 2.4034
-3.1415 -6.8822 2.4034
-2.8952 -6.9945 2.4034
-2.6448 -7.0976 2.4034
-2.3905 -7.1913 2.4034
-2.1328 -7.2755 2.4034
-1.8720 -7.3499 2.4034
-1.6085 -7.4145 2.4034
-1.3427 -7.4692 2.4034
-1.0750 -7.5140 2.4034
-0.8058 -7.5486 2.4034
-0.5354 -7.5731 2.4034
-0.2644 -7.5874 2.4034
0.0071 -7.5916 2.4034
0.2785 -7.5856 2.4034
0.5494 -7.5694 2.4034
0.8195 -7.5430 2.4034
1.0883 -7.5065 2.4034
1.3555 -7.4600 2.4034
1.6207 -7.4035 2.4034
1.8834 -7.3372 2.4034
2.1434 -7.2611 2.4034
2.4002 -7.1753 2.4034
2.6535 -7.0801 2.4034
2.9029 -6.9755 2.4034
3.1480 -6.8618 2.4034
3.3886 -6.7390 2.4034
3.6242 -6.6075 2.4034
3.8546 -6.4674 2.4034
4.0794 -6.3190 2.4034
4.2984 -6.1624 2.4034
4.5111 -5.9980 2.4034
4.7174 -5.8259 2.4034
4.6052 -5.2885 2.2510
4.7856 -5.1138 2.2510
4.9592 -4.9328 2.2510
5.1258 -4.7458 2.2510
5.2852 -4.5529 2.2510
5.4372 -4.3546 2.2510
5.5817 -4.1510 2.2510
5.2166 -3.5966 2.0534
5.2652 -3.3583 2.0269
5.9678 -3.5122 2.2510
6.0803 -3.2909 2.2510
6.1845 -3.0659 2.2510
6.2806 -2.8377 2.2510
6.3683 -2.6066 2.2512
6.4495 -2.3736 2.2521
6.5229 -2.1382 2.2532
6.5876 -1.9006 2.2543
6.6437 -1.6610 2.2555
6.6901 -1.4197 2.2563
6.7252 -1.1766 2.2563
6.7515 -0.9328 2.2563
6.7690 -0.6886 2.2563
6.7777 -0.4444 2.2563
6.7776 -0.2003 2.2563
6.7688 0.0432 2.2563
6.7513 0.2859 2.2563
6.7252 0.5274 2.2563
6.6906 0.7675 2.2563
6.6475 1.0058 2.2563
6.5960 1.2420 2.2563
6.5363 1.4760 2.2563
5.8064 1.5326 2.0254
5.5858 1.6915 1.9716
5.5925 1.9157 2.0002
5.5994 2.1462 2.0321
6.1180 2.6012 2.2563
6.0113 2.8154 2.2563
5.8973 3.0255 2.2563
5.7762 3.2312 2.2563
5.6481 3.4323 2.2563
5.5130 3.6283 2.2562
5.3709 3.8190 2.2560
5.2224 4.0043 2.2557
5.0677 4.1841 2.2554
4.9070 4.3581 2.2551
4.7406 4.5262 2.2548
4.5685 4.6882 2.2545
4.3912 4.8439 2.2542
4.2087 4.9932 2.2538
4.0213 5.1359 2.2535
3.8293 5.2718 2.2531
3.6329 5.4008 2.2528
3.4323 5.5228 2.2524
3.2278 5.6377 2.2521
3.0196 5.7454 2.2517
2.8080 5.8457 2.2513
2.5933 5.9386 2.2510
2.4572 6.2309 2.3279
2.3019 6.5170 2.4034
0.8470 2.7052 0.9862
0.7489 2.7342 0.9866
0.6498 2.7597 0.9870
0.5498 2.7815 0.9874
0.4491 2.7997 0.9876
0.3477 2.8143 0.9878
0.2460 2.8252 0.9880
0.1438 2.8324 0.9881
0.0415 2.8359 0.9881
-0.0609 2.8357 0.9881
-0.1632 2.8318 0.9880
-0.2653 2.8243 0.9878
-0.3671 2.8130 0.9876
-0.4684 2.7980 0.9874
-0.5691 2.7794 0.9870
-0.6691 2.7572 0.9866
-0.7682 2.7314 0.9862
-0.8663 2.7020 0.9857
-2.3500 6.5118 2.4034
-2.5851 6.4271 2.4034
-2.8174 6.3343 2.4034
-3.0464 6.2334 2.4034
-3.2720 6.1245 2.4034
-3.4938 6.0078 2.4034
-3.7116 5.8834 2.4034
-3.9252 5.7514 2.4034
-4.1343 5.6119 2.4034
-4.3386 5.4651 2.4034
-4.5379 5.3112 2.4034
-4.7319 5.1502 2.4034
-4.9204 4.9824 2.4034
-5.1032 4.8079 2.4034
-5.2799 4.6269 2.4034
-5.4504 4.4396 2.4034
-5.6145 4.2463 2.4034
-5.7719 4.0470 2.4034
-5.9224 3.8421 2.4034
-6.0659 3.6318 2.4034
-6.2020 3.4162 2.4034
-6.3306 3.1957 2.4034
-6.4516 2.9705 2.4034
-6.5647 2.7408 2.4034
-6.6697 2.5069 2.4034
-6.7666 2.2691 2.4034
-6.8551 2.0277 2.4034
-6.9351 1.7828 2.4034
-7.0065 1.5350 2.4034
-7.0691 1.2843 2.4034
-7.1228 1.0312 2.4034
-7.1675 0.7760 2.4034
-7.2031 0.5189 2.4034
-7.2295 0.2603 2.4034
-7.2466 0.0006 2.4034
-7.2544 -0.2601 2.4034
-7.2529 -0.5212 2.4034
-7.2419 -0.7825 2.4034
-7.2214 -1.0437 2.4034
-7.1915 -1.3043 2.4034
-7.1521 -1.5641 2.4034
-7.1033 -1.8227 2.4034
-7.0450 -2.0797 2.4034
-6.9773 -2.3348 2.4034
-6.9002 -2.5876 2.4034
-6.8139 -2.8378 2.4034
-6.7183 -3.0850 2.4034
-6.6136 -3.3289 2.4034
-6.4999 -3.5691 2.4034
-6.3773 -3.8053 2.4034
-6.2459 -4.0371 2.4034
-6.1059 -4.2643 2.4034
-5.9574 -4.4863 2.4034
-5.8007 -4.7030 2.4034
-5.6359 -4.9141 2.4034
-5.4632 -5.1191 2.4034
-5.2829 -5.3178 2.4034
-5.0951 -5.5098 2.4034
-4.9001 -5.6950 2.4034
-4.6981 -5.8729 2.4034
-4.4895 -6.0434 2.4034
-4.2746 -6.2061 2.4034
-4.0535 -6.3608 2.4034
-3.8266 -6.5073 2.4034
-3.5943 -6.6453 2.4034
-3.3568 -6.7746 2.4034
-3.1145 -6.8950 2.4034
-2.8677 -7.0064 2.4034
-2.6168 -7.1085 2.4034
-2.3621 -7.2011 2.4034
-2.1040 -7.2842 2.4034
-1.8429 -7.3575 2.4034
-1.5792 -7.4211 2.4034
-1.3132 -7.4747 2.4034
-1.0453 -7.5183 2.4034
-0.7759 -7.5518 2.4034
-0.5055 -7.5752 2.4034
-0.2343 -7.5884 2.4034
0.0371 -7.5914 2.4034
0.3085 -7.5843 2.4034
0.5793 -7.5669 2.4034
0.8493 -7.5394 2.4034
1.1180 -7.5019 2.4034
1.3850 -7.4542 2.4034
1.6499 -7.3967 2.4034
1.9124 -7.3292 2.4034
2.1720 -7.2520 2.4034
2.4285 -7.1652 2.4034
2.6813 -7.0690 2.4034
2.9302 -6.9634 2.4034
3.1749 -6.8483 2.4034
3.4149 -6.7249 2.4034
3.6500 -6.5924 2.4034
3.8798 -6.4514 2.4034
4.1039 -6.3020 2.4034
4.3222 -6.1446 2.4034
4.5343 -5.9793 2.4034
4.4393 -5.4382 2.2510
4.6255 -5.2695 2.2510
4.8052 -5.0941 2.2510
4.9780 -4.9124 2.2510
-2.3612 6.0060 2.4034
-2.5781 5.9208 2.4034
-2.7921 5.8282 2.4034
-3.0030 5.7281 2.4034
-3.2103 5.6206 2.4034
-3.4140 5.5060 2.4034
-3.6137 5.3842 2.4034
-3.8092 5.2554 2.4034
-4.0003 5.1199 2.4034
-4.1867 4.9775 2.4034
-4.3682 4.8287 2.4034
-4.5446 4.6734 2.4034
-4.7157 4.5119 2.4034
-4.8812 4.3443 2.4034
-5.0409 4.1709 2.4034
-5.1946 3.9917 2.4034
-5.3420 3.8071 2.4034
-5.4831 3.6171 2.4034
-5.6176 3.4221 2.4034
-5.7453 3.2222 2.4034
-5.8660 3.0176 2.4034
-5.9796 2.8087 2.4034
-6.0859 2.5956 2.4034
-6.1847 2.3786 2.4034
-6.2759 2.1579 2.4034
-6.3593 1.9338 2.4034
-6.4348 1.7065 2.4034
-6.5023 1.4764 2.4034
-6.5617 1.2437 2.4034
-6.6127 1.0087 2.4034
-6.6554 0.7717 2.4034
-6.6897 0.5330 2.4034
-6.7154 0.2929 2.4034
-6.7325 0.0516 2.4034
-6.7410 -0.1905 2.4034
-6.7407 -0.4330 2.4034
-6.7317 -0.6758 2.4034
-6.7139 -0.9184 2.4034
-6.6874 -1.1605 2.4034
-6.6520 -1.4019 2.4034
-6.6078 -1.6422 2.4034
-6.5549 -1.8810 2.4034
-6.4933 -2.1181 2.4034
-6.4230 -2.3531 2.4034
-6.3441 -2.5857 2.4034
-6.2566 -2.8155 2.4034
-6.1607 -3.0423 2.4034
-6.0564 -3.2657 2.4034
-5.9438 -3.4854 2.4034
-5.8232 -3.7011 2.4034
-5.6945 -3.9125 2.4034
-5.5580 -4.1193 2.4034
-5.4138 -4.3210 2.4034
-5.2620 -4.5176 2.4034
-5.1031 -4.7086 2.4034
-4.9369 -4.8938 2.4034
-4.7640 -5.0730 2.4034
-4.5843 -5.2457 2.4034
-4.3981 -5.4118 2.4034
-4.2058 -5.5710 2.4034
-4.0075 -5.7231 2.4034
-3.8036 -5.8679 2.4034
-3.5942 -6.0050 2.4034
-3.3798 -6.1344 2.4034
-3.1605 -6.2558 2.4034
-2.9367 -6.3689 2.4034
-2.7088 -6.4737 2.4034
-2.4770 -6.5700 2.4034
-2.2416 -6.6575 2.4034
-2.0031 -6.7363 2.4034
-1.7617 -6.8061 2.4034
-1.5177 -6.8669 2.4034
-1.2717 -6.9185 2.4034
-1.0238 -6.9608 2.4034
-0.7744 -6.9939 2.4034
-0.5240 -7.0176 2.4034
-0.2729 -7.0319 2.4034
-0.0214 -7.0368 2.4034
0.2301 -7.0324 2.4034
0.4812 -7.0185 2.4034
0.7316 -6.9952 2.4034
0.9808 -6.9626 2.4034
1.2287 -6.9207 2.4034
1.4746 -6.8695 2.4034
1.7185 -6.8093 2.4034
1.9598 -6.7400 2.4034
2.1982 -6.6618 2.4034
2.4334 -6.5748 2.4034
2.6651 -6.4791 2.4034
2.8929 -6.3749 2.4034
3.1166 -6.2624 2.4034
3.3357 -6.1418 2.4034
3.5501 -6.0131 2.4034
3.7593 -5.8768 2.4034
3.9632 -5.7328 2.4034
4.1614 -5.5815 2.4034
4.0777 -5.0793 2.2510
4.2520 -4.9246 2.2510
4.4203 -4.7636 2.2510
4.5825 -4.5968 2.2510
4.7382 -4.4243 2.2510
4.8872 -4.2463 2.2510
5.0295 -4.0632 2.2510
5.1647 -3.8752 2.2510
5.2929 -3.6827 2.2510
5.2447 -3.3769 2.1807
5.5271 -3.2848 2.2510
5.6330 -3.0801 2.2510
5.7312 -2.8719 2.2510
5.8216 -2.6606 2.2510
5.9052 -2.4469 2.2514
5.9826 -2.2311 2.2524
6.0521 -2.0129 2.2535
6.1136 -1.7925 2.2545
6.1670 -1.5702 2.2556
6.2114 -1.3462 2.2563
6.2456 -1.1206 2.2563
6.2716 -0.8943 2.2563
6.2895 -0.6674 2.2563
6.2991 -0.4404 2.2563
6.3006 -0.2136 2.2563
6.2940 0.0129 2.2563
6.2793 0.2386 2.2563
6.2566 0.4633 2.2563
6.2260 0.6868 2.2563
6.1874 0.9088 2.2563
6.1411 1.1289 2.2563
6.0870 1.3469 2.2563
6.0253 1.5625 2.2563
5.5850 1.6649 2.1157
5.5917 1.8885 2.1458
5.5986 2.1182 2.1796
5.7047 2.3964 2.2563
5.6067 2.5966 2.2563
5.5017 2.7927 2.2562
5.3896 2.9847 2.2560
5.2711 3.1723 2.2558
5.1461 3.3554 2.2556
5.0150 3.5337 2.2553
4.8778 3.7072 2.2551
4.7348 3.8755 2.2548
4.5862 4.0384 2.2545
4.4321 4.1959 2.2543
4.2728 4.3478 2.2540
4.1085 4.4938 2.2537
3.9393 4.6338 2.2534
3.7655 4.7678 2.2531
3.5874 4.8954 2.2527
3.4051 5.0167 2.2524
3.2188 5.1314 2.2521
3.0288 5.2395 2.2517
2.8354 5.3409 2.2514
2.6386 5.4354 2.2510
2.4534 5.5558 2.2641
2.3886 5.9847 2.4034
0.8870 2.4788 0.9824
0.7970 2.5094 0.9829
0.7059 2.5367 0.9834
0.6139 2.5607 0.9837
0.5211 2.5813 0.9840
0.4276 2.5986 0.9843
0.3335 2.6125 0.9845
0.2390 2.6230 0.9847
0.1441 2.6301 0.9847
0.0490 2.6337 0.9848
-0.0461 2.6339 0.9848
-0.1412 2.6307 0.9847
-0.2361 2.6240 0.9845
-0.3307 2.6139 0.9844
-0.4248 2.6004 0.9841
-0.5185 2.5835 0.9838
-0.6114 2.5632 0.9834
-0.7036 2.5396 0.9830
-0.7948 2.5126 0.9826
-0.8850 2.4824 0.9820
-2.3854 5.9969 2.4034
-2.6020 5.9109 2.4034
-2.8156 5.8174 2.4034
-3.0261 5.7165 2.4034
-3.2330 5.6083 2.4034
-3.4363 5.4928 2.4034
-3.6355 5.3703 2.4034
-3.8306 5.2408 2.4034
-4.0211 5.1044 2.4034
-4.2070 4.9614 2.4034
-4.3880 4.8118 2.4034
-4.5638 4.6558 2.4034
-4.7343 4.4936 2.4034
-4.8991 4.3254 2.4034
-5.0582 4.1513 2.4034
-5.2112 3.9715 2.4034
-5.3580 3.7863 2.4034
-5.4983 3.5958 2.4034
-5.6321 3.4002 2.4034
-5.7590 3.1998 2.4034
-5.8790 2.9947 2.4034
-5.9918 2.7853 2.4034
-6.0972 2.5718 2.4034
-6.1952 2.3543 2.4034
-6.2855 2.1332 2.4034
-6.3681 1.9088 2.4034
-6.4427 1.6812 2.4034
-6.5093 1.4508 2.4034
-6.5677 1.2178 2.4034
-6.6179 0.9826 2.4034
-6.6596 0.7454 2.4034
-6.6929 0.5065 2.4034
-6.7177 0.2662 2.4034
-6.7339 0.0248 2.4034
-6.7414 -0.2173 2.4034
-6.7401 -0.4599 2.4034
-6.7302 -0.7026 2.4034
-6.7114 -0.9452 2.4034
-6.6839 -1.1873 2.4034
-6.6475 -1.4286 2.4034
-6.6024 -1.6687 2.4034
-6.5486 -1.9073 2.4034
-6.4860 -2.1442 2.4034
-6.4147 -2.3789 2.4034
-6.3348 -2.6112 2.4034
-6.2464 -2.8408 2.4034
-6.1495 -3.0672 2.4034
-6.0443 -3.2902 2.4034
-5.9309 -3.5095 2.4034
-5.8093 -3.7248 2.4034
-5.6798 -3.9356 2.4034
-5.5424 -4.1418 2.4034
-5.3974 -4.3431 2.4034
-5.2448 -4.5390 2.4034
-5.0850 -4.7294 2.4034
-4.9182 -4.9140 2.4034
-4.7444 -5.0924 2.4034
-4.5640 -5.2644 2.4034
-4.3771 -5.4298 2.4034
-4.1841 -5.5882 2.4034
-3.9852 -5.7395 2.4034
-3.7806 -5.8834 2.4034
-3.5707 -6.0197 2.4034
-3.3557 -6.1482 2.4034
-3.1359 -6.2687 2.4034
-2.9117 -6.3809 2.4034
-2.6833 -6.4848 2.4034
-2.4511 -6.5801 2.4034
-2.2154 -6.6667 2.4034
-1.9765 -6.7445 2.4034
-1.7348 -6.8133 2.4034
-1.4906 -6.8730 2.4034
-1.2443 -6.9236 2.4034
-0.9962 -6.9649 2.4034
-0.7468 -6.9970 2.4034
-0.4963 -7.0196 2.4034
-0.2451 -7.0329 2.4034
0.0065 -7.0368 2.4034
0.2579 -7.0313 2.4034
0.5090 -7.0163 2.4034
0.7592 -6.9920 2.4034
1.0084 -6.9584 2.4034
1.2560 -6.9154 2.4034
1.5017 -6.8633 2.4034
1.7453 -6.8021 2.4034
1.9863 -6.7318 2.4034
2.2244 -6.6526 2.4034
2.4592 -6.5646 2.4034
2.6905 -6.4680 2.4034
2.9179 -6.3629 2.4034
3.1411 -6.2495 2.4034
3.3597 -6.1279 2.4034
3.5735 -5.9984 2.4034
3.7822 -5.8612 2.4034
3.9854 -5.7164 2.4034
4.1830 -5.5644 2.4034
4.0972 -5.0625 2.2510
4.2709 -4.9070 2.2510
4.4386 -4.7455 2.2510
4.6000 -4.5780 2.2510
4.7550 -4.4048 2.2510
4.9033 -4.2263 2.2510
5.0448 -4.0427 2.2510
5.1793 -3.8542 2.2510
5.2232 -3.6036 2.2156
5.2631 -3.3593 2.1831
5.5392 -3.2623 2.2510
5.6442 -3.0572 2.2510
5.7416 -2.8487 2.2510
5.8311 -2.6370 2.2510
5.9142 -2.4231 2.2515
5.9907 -2.2071 2.2525
6.0593 -1.9886 2.2536
6.1199 -1.7680 2.2547
6.1724 -1.5455 2.2557
6.2156 -1.3213 2.2563
6.2489 -1.0956 2.2563
6.2740 -0.8692 2.2563
6.2909 -0.6423 2.2563
6.2997 -0.4153 2.2563
6.3003 -0.1885 2.2563
6.2928 0.0379 2.2563
6.2772 0.2635 2.2563
6.2536 0.4882 2.2563
6.2221 0.7115 2.2563
6.1827 0.9332 2.2563
6.1355 1.1531 2.2563
6.0805 1.3708 2.2563
5.8137 1.5324 2.1797
5.5857 1.6894 2.1189
5.5924 1.9136 2.1494
5.5993 2.1440 2.1835
5.6942 2.4188 2.2563
5.5954 2.6185 2.2563
5.4896 2.8142 2.2562
5.3768 3.0057 2.2560
5.2575 3.1928 2.2558
5.1319 3.3754 2.2555
5.0001 3.5532 2.2553
4.8623 3.7261 2.2551
4.7186 3.8938 2.2548
4.5694 4.0562 2.2545
4.4147 4.2130 2.2542
4.2549 4.3642 2.2539
4.0900 4.5096 2.2536
3.9203 4.6490 2.2533
3.7460 4.7822 2.2530
3.5674 4.9092 2.2527
3.3846 5.0297 2.2524
3.1979 5.1437 2.2520
3.0076 5.2511 2.2517
2.8137 5.3517 2.2513
2.6167 5.4454 2.2510
2.4498 5.6081 2.2815
2.3645 5.9938 2.4034
0.8771 2.4824 0.9825
0.7870 2.5126 0.9830
0.6958 2.5395 0.9834
0.6037 2.5631 0.9838
0.5108 2.5834 0.9841
0.4172 2.6003 0.9843
0.3230 2.6138 0.9845
0.2285 2.6239 0.9847
0.1336 2.6306 0.9848
0.0385 2.6339 0.9848
-0.0566 2.6337 0.9848
-0.1517 2.6301 0.9847
-0.2466 2.6230 0.9845
-0.3411 2.6126 0.9843
-0.4352 2.5987 0.9841
-0.5288 2.5814 0.9838
-0.6217 2.5607 0.9834
-0.7137 2.5367 0.9830
-0.8049 2.5094 0.9825
-0.8950 2.4789 0.9820
-2.4095 5.9878 2.4034
-2.6258 5.9010 2.4034
-2.8391 5.8066 2.4034
-3.0492 5.7049 2.4034
-3.2557 5.5959 2.4034
-3.4585 5.4796 2.4034
-3.6573 5.3563 2.4034
-3.8519 5.2260 2.4034
-4.0420 5.0889 2.4034
-4.2273 4.9451 2.4034
-4.4077 4.7949 2.4034
-4.5830 4.6382 2.4034
-4.7528 4.4753 2.4034
-4.9170 4.3064 2.4034
-5.0754 4.1317 2.4034
-5.2277 3.9513 2.4034
-5.3738 3.7655 2.4034
-5.5135 3.5743 2.4034
-5.6465 3.3782 2.4034
-5.7726 3.1773 2.4034
-5.8918 2.9718 2.4034
-6.0038 2.7619 2.4034
-6.1084 2.5479 2.4034
-6.2056 2.3300 2.4034
-6.2951 2.1086 2.4034
-6.3767 1.8837 2.4034
-6.4505 1.6558 2.4034
-6.5162 1.4251 2.4034
-6.5737 1.1919 2.4034
-6.6229 0.9564 2.4034
-6.6637 0.7190 2.4034
-6.6961 0.4800 2.4034
-6.7199 0.2395 2.4034
-6.7351 -0.0019 2.4034
-6.7417 -0.2441 2.4034
-6.7395 -0.4868 2.4034
-6.7285 -0.7295 2.4034
-6.7088 -0.9720 2.4034
-6.6803 -1.2140 2.4034
-6.6430 -1.4552 2.4034
-6.5969 -1.6952 2.4034
-6.5420 -1.9337 2.4034
-6.4785 -2.1703 2.4034
-6.4063 -2.4048 2.4034
-6.3255 -2.6368 2.4034
-6.2361 -2.8660 2.4034
-6.1383 -3.0921 2.4034
-6.0322 -3.3147 2.4034
-5.9178 -3.5336 2.4034
-5.7954 -3.7483 2.4034
-5.6649 -3.9587 2.4034
-5.5267 -4.1644 2.4034
-5.3809 -4.3650 2.4034
-5.2275 -4.5604 2.4034
-5.0669 -4.7501 2.4034
-4.8993 -4.9340 2.4034
-4.7248 -5.1117 2.4034
-4.5436 -5.2831 2.4034
-4.3561 -5.4477 2.4034
-4.1624 -5.6053 2.4034
-3.9628 -5.7558 2.4034
-3.7577 -5.8989 2.4034
-3.5472 -6.0344 2.4034
-3.3316 -6.1620 2.4034
-3.1113 -6.2815 2.4034
-2.8866 -6.3928 2.4034
-2.6578 -6.4958 2.4034
-2.4252 -6.5901 2.4034
-2.1891 -6.6757 2.4034
-1.9499 -6.7525 2.4034
-1.7079 -6.8203 2.4034
-1.4634 -6.8791 2.4034
-1.2169 -6.9286 2.4034
-0.9687 -6.9689 2.4034
-0.7191 -6.9999 2.4034
-0.4685 -7.0216 2.4034
-0.2172 -7.0338 2.4034
0.0343 -7.0367 2.4034
0.2857 -7.0301 2.4034
0.5367 -7.0141 2.4034
0.7869 -6.9888 2.4034
1.0358 -6.9541 2.4034
1.2833 -6.9101 2.4034
1.5288 -6.8570 2.4034
1.7721 -6.7947 2.4034
2.0128 -6.7234 2.4034
2.2506 -6.6433 2.4034
2.4850 -6.5543 2.4034
2.7159 -6.4568 2.4034
2.9428 -6.3507 2.4034
3.1655 -6.2365 2.4034
3.3836 -6.1140 2.4034
3.5968 -5.9836 2.4034
3.8049 -5.8455 2.4034
4.0076 -5.6999 2.4034
4.2045 -5.5471 2.4034
4.1168 -5.0456 2.2510
4.2898 -4.8895 2.2510
4.4568 -4.7272 2.2510
4.6175 -4.5591 2.2510
-0.8995 2.2870 0.9788
-2.4116 5.5358 2.4034
-2.6116 5.4489 2.4034
-2.8086 5.3550 2.4034
-3.0024 5.2543 2.4034
-3.1927 5.1468 2.4034
-3.3793 5.0326 2.4034
-3.5619 4.9120 2.4034
-3.7404 4.7849 2.4034
-3.9145 4.6515 2.4034
-4.0840 4.5121 2.4034
-4.2486 4.3666 2.4034
-4.4082 4.2154 2.4034
-4.5626 4.0584 2.4034
-4.7115 3.8960 2.4034
-4.8548 3.7283 2.4034
-4.9922 3.5554 2.4034
-5.1237 3.3777 2.4034
-5.2489 3.1952 2.4034
-5.3678 3.0081 2.4034
-5.4801 2.8168 2.4034
-5.5858 2.6214 2.4034
-5.6846 2.4221 2.4034
-5.7763 2.2192 2.4034
-5.8610 2.0129 2.4034
-5.9384 1.8034 2.4034
-6.0083 1.5911 2.4034
-6.0708 1.3761 2.4034
-6.1256 1.1588 2.4034
-6.1727 0.9393 2.4034
-6.2119 0.7180 2.4034
-6.2433 0.4951 2.4034
-6.2667 0.2710 2.4034
-6.2821 0.0459 2.4034
-6.2894 -0.1800 2.4034
-6.2885 -0.4063 2.4034
-6.2795 -0.6327 2.4034
-6.2623 -0.8589 2.4034
-6.2369 -1.0847 2.4034
-6.2034 -1.3096 2.4034
-6.1616 -1.5336 2.4034
-6.1117 -1.7561 2.4034
-6.0537 -1.9770 2.4034
-5.9876 -2.1958 2.4034
-5.9135 -2.4124 2.4034
-5.8314 -2.6265 2.4034
-5.7415 -2.8376 2.4034
-5.6438 -3.0455 2.4034
-5.5385 -3.2500 2.4034
-5.4256 -3.4507 2.4034
-5.3053 -3.6474 2.4034
-5.1777 -3.8397 2.4034
-5.0430 -4.0273 2.4034
-4.9013 -4.2101 2.4034
-4.7528 -4.3877 2.4034
-4.5978 -4.5599 2.4034
-4.4364 -4.7264 2.4034
-4.2688 -4.8869 2.4034
-4.0952 -5.0413 2.4034
-3.9159 -5.1892 2.4034
-3.7311 -5.3306 2.4034
-3.5410 -5.4650 2.4034
-3.3459 -5.5924 2.4034
-3.1461 -5.7126 2.4034
-2.9419 -5.8253 2.4034
-2.7335 -5.9304 2.4034
-2.5213 -6.0277 2.4034
-2.3054 -6.1171 2.4034
-2.0863 -6.1984 2.4034
-1.8643 -6.2715 2.4034
-1.6396 -6.3363 2.4034
-1.4125 -6.3927 2.4034
-1.1835 -6.4407 2.4034
-0.9528 -6.4800 2.4034
-0.7208 -6.5107 2.4034
-0.4878 -6.5328 2.4034
-0.2541 -6.5461 2.4034
-0.0200 -6.5507 2.4034
0.2140 -6.5466 2.4034
0.4477 -6.5337 2.4034
0.6807 -6.5121 2.4034
0.9127 -6.4819 2.4034
1.1433 -6.4430 2.4034
1.3723 -6.3956 2.4034
1.5992 -6.3397 2.4034
1.8239 -6.2754 2.4034
2.0459 -6.2029 2.4034
2.2649 -6.1221 2.4034
2.4806 -6.0333 2.4034
2.6928 -5.9366 2.4034
2.9011 -5.8322 2.4034
3.1053 -5.7202 2.4034
3.3051 -5.6007 2.4034
3.5001 -5.4741 2.4034
3.6901 -5.3404 2.4034
3.8750 -5.1998 2.4034
3.7972 -4.7323 2.2510
3.9599 -4.5885 2.2510
4.1169 -4.4390 2.2510
4.2682 -4.2839 2.2510
4.4136 -4.1235 2.2510
4.5528 -3.9581 2.2510
4.6857 -3.7878 2.2510
4.8121 -3.6130 2.2510
4.9319 -3.4338 2.2510
5.0450 -3.2506 2.2510
5.1511 -3.0636 2.2510
5.2503 -2.8731 2.2510
5.3423 -2.6793 2.2510
5.4270 -2.4825 2.2510
5.5045 -2.2830 2.2510
5.5763 -2.0818 2.2517
5.6444 -1.8795 2.2538
5.7021 -1.6741 2.2548
5.7523 -1.4669 2.2558
5.7937 -1.2579 2.2563
5.8262 -1.0475 2.2563
5.8510 -0.8365 2.2563
5.8682 -0.6249 2.2563
5.8778 -0.4131 2.2563
5.8798 -0.2015 2.2563
5.8742 0.0099 2.2563
5.8610 0.2206 2.2563
5.8404 0.4304 2.2563
5.8123 0.6391 2.2563
5.7769 0.8463 2.2563
5.7341 1.0519 2.2563
5.6841 1.2556 2.2563
5.6271 1.4571 2.2563
5.5629 1.6562 2.2563
5.4917 1.8526 2.2563
5.4135 2.0461 2.2561
5.3286 2.2364 2.2559
5.2371 2.4233 2.2558
5.1392 2.6067 2.2556
5.0350 2.7862 2.2554
4.9246 2.9617 2.2552
4.8083 3.1331 2.2550
4.6861 3.3000 2.2548
4.5583 3.4623 2.2545
4.4250 3.6199 2.2543
4.2864 3.7725 2.2540
4.1427 3.9200 2.2538
3.9941 4.0622 2.2535
3.8407 4.1990 2.2532
3.6828 4.3302 2.2529
3.5206 4.4557 2.2526
3.3542 4.5753 2.2523
3.1839 4.6889 2.2520
3.0099 4.7965 2.2517
2.8324 4.8978 2.2514
2.6516 4.9929 2.2511
2.4680 5.0821 2.2510
2.4261 5.4919 2.3935
0.9103 2.2799 0.9792
0.8274 2.3114 0.9797
0.7434 2.3399 0.9801
0.6585 2.3654 0.9805
0.5726 2.3877 0.9809
0.4860 2.4070 0.9812
0.3988 2.4231 0.9814
0.3110 2.4360 0.9816
0.2229 2.4458 0.9817
0.1344 2.4524 0.9818
0.0457 2.4558 0.9818
-0.0430 2.4560 0.9818
-0.1317 2.4529 0.9818
-0.2202 2.4467 0.9816
-0.3085 2.4373 0.9814
-0.3963 2.4247 0.9812
-0.4837 2.4089 0.9809
-0.5704 2.3900 0.9806
-0.6563 2.3679 0.9802
-0.7415 2.3428 0.9798
-0.8256 2.3146 0.9793
-0.9087 2.2834 0.9787
-2.4338 5.5265 2.4034
-2.6336 5.4388 2.4034
-2.8303 5.3442 2.4034
-3.0237 5.2427 2.4034
-3.2136 5.1345 2.4034
-3.3997 5.0196 2.4034
-3.5819 4.8982 2.4034
-3.7599 4.7704 2.4034
-3.9335 4.6364 2.4034
-4.1024 4.4963 2.4034
-4.2665 4.3502 2.4034
-4.4256 4.1983 2.4034
-4.5793 4.0407 2.4034
-4.7276 3.8777 2.4034
-4.8703 3.7094 2.4034
-5.0071 3.5360 2.4034
-5.1379 3.3577 2.4034
-5.2624 3.1747 2.4034
-5.3806 2.9872 2.4034
-5.4922 2.7954 2.4034
-5.5971 2.5995 2.4034
-5.6951 2.3998 2.4034
-5.7861 2.1965 2.4034
-5.8699 1.9899 2.4034
-5.9465 1.7801 2.4034
-6.0156 1.5674 2.4034
-6.0772 1.3522 2.4034
-6.1312 1.1346 2.4034
-6.1774 0.9149 2.4034
-6.2158 0.6934 2.4034
-6.2463 0.4704 2.4034
-6.2688 0.2461 2.4034
-6.2833 0.0209 2.4034
-6.2897 -0.2050 2.4034
-6.2879 -0.4313 2.4034
-6.2780 -0.6577 2.4034
-6.2599 -0.8839 2.4034
-6.2336 -1.1096 2.4034
-6.1991 -1.3345 2.4034
-6.1565 -1.5583 2.4034
-6.1057 -1.7806 2.4034
-6.0468 -2.0013 2.4034
-5.9798 -2.2199 2.4034
-5.9048 -2.4363 2.4034
-5.8219 -2.6500 2.4034
-5.7311 -2.8608 2.4034
-5.6325 -3.0684 2.4034
-5.5263 -3.2724 2.4034
-5.4126 -3.4727 2.4034
-5.2915 -3.6689 2.4034
-5.1631 -3.8607 2.4034
-5.0276 -4.0478 2.4034
-4.8852 -4.2300 2.4034
-4.7361 -4.4070 2.4034
-4.5803 -4.5786 2.4034
-4.4181 -4.7444 2.4034
-4.2498 -4.9043 2.4034
-4.0756 -5.0580 2.4034
-3.8957 -5.2052 2.4034
-3.7103 -5.3458 2.4034
-3.5196 -5.4795 2.4034
-3.3240 -5.6061 2.4034
-3.1238 -5.7254 2.4034
-2.9191 -5.8373 2.4034
-2.7102 -5.9415 2.4034
-2.4976 -6.0380 2.4034
-2.2813 -6.1265 2.4034
-2.0619 -6.2069 2.4034
-1.8395 -6.2791 2.4034
-1.6146 -6.3430 2.4034
-1.3873 -6.3985 2.4034
-1.1581 -6.4454 2.4034
-0.9272 -6.4838 2.4034
-0.6950 -6.5136 2.4034
-0.4619 -6.5347 2.4034
-0.2282 -6.5470 2.4034
0.0059 -6.5507 2.4034
0.2399 -6.5456 2.4034
0.4735 -6.5317 2.4034
0.7064 -6.5092 2.4034
0.9383 -6.4780 2.4034
1.1688 -6.4382 2.4034
1.3975 -6.3898 2.4034
1.6242 -6.3330 2.4034
1.8486 -6.2678 2.4034
2.0703 -6.1943 2.4034
2.2889 -6.1127 2.4034
2.5043 -6.0230 2.4034
2.7161 -5.9255 2.4034
2.9240 -5.8202 2.4034
3.1277 -5.7072 2.4034
3.3269 -5.5871 2.4034
3.5214 -5.4596 2.4034
3.7108 -5.3251 2.4034
3.8951 -5.1839 2.4034
3.8155 -4.7167 2.2510
3.9775 -4.5723 2.2510
4.1340 -4.4221 2.2510
4.2846 -4.2664 2.2510
4.4293 -4.1055 2.2510
4.5678 -3.9395 2.2510
4.7000 -3.7687 2.2510
4.8257 -3.5933 2.2510
4.9448 -3.4137 2.2510
5.0571 -3.2301 2.2510
5.1624 -3.0427 2.2510
5.2608 -2.8517 2.2510
5.3520 -2.6576 2.2510
5.4360 -2.4605 2.2510
5.5126 -2.2608 2.2510
5.5844 -2.0596 2.2520
5.6512 -1.8569 2.2539
5.7080 -1.6512 2.2549
5.7574 -1.4438 2.2559
5.7976 -1.2346 2.2563
5.8293 -1.0242 2.2563
5.8533 -0.8131 2.2563
5.8697 -0.6015 2.2563
5.8784 -0.3897 2.2563
5.8795 -0.1781 2.2563
5.8731 0.0332 2.2563
5.8591 0.2438 2.2563
5.8377 0.4535 2.2563
5.8088 0.6621 2.2563
5.7725 0.8692 2.2563
5.7289 1.0746 2.2563
5.6782 1.2780 2.2563
5.6203 1.4793 2.2563
5.5554 1.6781 2.2563
5.4834 1.8742 2.2562
5.4044 2.0673 2.2561
5.3188 2.2572 2.2559
5.2266 2.4438 2.2558
5.1279 2.6267 2.2556
5.0230 2.8058 2.2554
4.9120 2.9809 2.2552
4.7950 3.1518 2.2550
4.6722 3.3182 2.2547
4.5438 3.4800 2.2545
4.4099 3.6370 2.2543
4.2707 3.7891 2.2540
4.1265 3.9360 2.2537
3.9773 4.0776 2.2535
3.8234 4.2138 2.2532
3.6651 4.3443 2.2529
3.5024 4.4692 2.2526
3.3355 4.5882 2.2523
3.1648 4.7011 2.2520
2.9904 4.8080 2.2517
2.8125 4.9087 2.2514
2.6314 5.0030 2.2510
2.4513 5.0994 2.2545
2.4139 5.5240 2.4034
0.9012 2.2836 0.9792
0.8181 2.3147 0.9797
0.7341 2.3429 0.9802
0.6490 2.3680 0.9806
0.5631 2.3900 0.9809
0.4764 2.4089 0.9812
0.3891 2.4247 0.9814
0.3013 2.4373 0.9816
0.2131 2.4467 0.9817
0.1246 2.4529 0.9818
0.0359 2.4560 0.9818
-0.0529 2.4558 0.9818
-0.1415 2.4524 0.9817
-0.2300 2.4458 0.9816
-0.3182 2.4360 0.9814
-0.4060 2.4231 0.9812
-0.4933 2.4070 0.9809
-0.5799 2.3877 0.9806
-0.6658 2.3653 0.9802
-0.7508 2.3398 0.9797
-0.8349 2.3113 0.9792
-2.2539 5.5985 2.4034
-2.4561 5.5171 2.4034
-2.6555 5.4287 2.4034
-2.8518 5.3333 2.4034
-3.0449 5.2310 2.4034
-3.2344 5.1221 2.4034
-3.4201 5.0065 2.4034
-3.6018 4.8844 2.4034
-3.7793 4.7559 2.4034
-3.9524 4.6212 2.4034
-4.1208 4.4804 2.4034
-4.2844 4.3336 2.4034
-4.4428 4.1811 2.4034
-4.5960 4.0229 2.4034
-4.7437 3.8593 2.4034
-4.8857 3.6905 2.4034
-5.0219 3.5165 2.4034
-5.1519 3.3377 2.4034
-5.2758 3.1541 2.4034
-5.3932 2.9661 2.4034
-5.5041 2.7739 2.4034
-5.6083 2.5776 2.4034
-5.7055 2.3775 2.4034
-5.7957 2.1738 2.4034
-5.8787 1.9668 2.4034
-5.9545 1.7567 2.4034
-6.0228 1.5437 2.4034
-6.0835 1.3282 2.4034
-6.1367 1.1104 2.4034
-6.1820 0.8905 2.4034
-6.2196 0.6688 2.4034
-6.2492 0.4456 2.4034
-6.2708 0.2212 2.4034
-6.2844 -0.0041 2.4034
-6.2899 -0.2301 2.4034
-6.2872 -0.4564 2.4034
-6.2764 -0.6828 2.4034
-6.2574 -0.9089 2.4034
-6.2302 -1.1345 2.4034
-6.1948 -1.3593 2.4034
-6.1513 -1.5830 2.4034
-6.0996 -1.8052 2.4034
-6.0397 -2.0256 2.4034
-5.9719 -2.2440 2.4034
-5.8960 -2.4601 2.4034
-5.8122 -2.6735 2.4034
-5.7205 -2.8839 2.4034
-5.6211 -3.0911 2.4034
-5.5141 -3.2948 2.4034
-5.3996 -3.4946 2.4034
-5.2776 -3.6903 2.4034
-5.1485 -3.8816 2.4034
-5.0122 -4.0682 2.4034
-4.8690 -4.2499 2.4034
-4.7191 -4.4263 2.4034
-4.5626 -4.5972 2.4034
-4.3998 -4.7624 2.4034
-4.2308 -4.9216 2.4034
-4.0560 -5.0746 2.4034
-3.8754 -5.2211 2.4034
-3.6894 -5.3609 2.4034
-3.4982 -5.4938 2.4034
-3.3021 -5.6196 2.4034
-3.1013 -5.7382 2.4034
-2.8961 -5.8492 2.4034
-2.6869 -5.9526 2.4034
-2.4738 -6.0482 2.4034
-2.2572 -6.1358 2.4034
-2.0374 -6.2153 2.4034
-1.8148 -6.2866 2.4034
-1.5895 -6.3496 2.4034
-1.3620 -6.4041 2.4034
-1.1326 -6.4501 2.4034
-0.9016 -6.4876 2.4034
-0.6693 -6.5164 2.4034
-0.4361 -6.5365 2.4034
-0.2023 -6.5479 2.4034
0.0318 -6.5505 2.4034
0.2658 -6.5445 2.4034
0.4993 -6.5297 2.4034
0.7321 -6.5062 2.4034
0.9639 -6.4740 2.4034
1.1941 -6.4333 2.4034
1.4227 -6.3840 2.4034
1.6492 -6.3262 2.4034
1.8733 -6.2601 2.4034
2.0946 -6.1857 2.4034
2.3129 -6.1031 2.4034
2.5279 -6.0126 2.4034
2.7393 -5.9142 2.4034
2.9467 -5.8080 2.4034
3.1499 -5.6943 2.4034
3.3486 -5.5733 2.4034
3.5426 -5.4451 2.4034
3.7315 -5.3098 2.4034
3.9151 -5.1678 2.4034
3.8337 -4.7010 2.2510
3.9951 -4.5559 2.2510
4.1509 -4.4051 2.2510
4.3009 -4.2489 2.2510
-0.8420 2.1398 0.9764
-2.2628 5.1919 2.4034
-2.4504 5.1102 2.4034
-2.6352 5.0219 2.4034
-2.8169 4.9272 2.4034
-2.9953 4.8262 2.4034
-3.1702 4.7189 2.4034
-3.3413 4.6054 2.4034
-3.5086 4.4860 2.4034
-3.6716 4.3607 2.4034
-3.8304 4.2296 2.4034
-3.9845 4.0930 2.4034
-4.1340 3.9509 2.4034
-4.2785 3.8035 2.4034
-4.4178 3.6509 2.4034
-4.5519 3.4934 2.4034
-4.6804 3.3312 2.4034
-4.8033 3.1643 2.4034
-4.9204 2.9930 2.4034
-5.0315 2.8174 2.4034
-5.1364 2.6379 2.4034
-5.2350 2.4545 2.4034
-5.3272 2.2676 2.4034
-5.4127 2.0773 2.4034
-5.4916 1.8838 2.4034
-5.5636 1.6873 2.4034
-5.6287 1.4884 2.4034
-5.6868 1.2869 2.4034
-5.7376 1.0832 2.4034
-5.7812 0.8776 2.4034
-5.8175 0.6702 2.4034
-5.8464 0.4615 2.4034
-5.8678 0.2516 2.4034
-5.8817 0.0407 2.4034
-5.8880 -0.1707 2.4034
-5.8867 -0.3825 2.4034
-5.8778 -0.5944 2.4034
-5.8612 -0.8061 2.4034
-5.8369 -1.0173 2.4034
-5.8050 -1.2277 2.4034
-5.7655 -1.4372 2.4034
-5.7183 -1.6453 2.4034
-5.6636 -1.8517 2.4034
-5.6013 -2.0563 2.4034
-5.5315 -2.2588 2.4034
-5.4543 -2.4588 2.4034
-5.3698 -2.6561 2.4034
-5.2780 -2.8503 2.4034
-5.1791 -3.0413 2.4034
-5.0732 -3.2288 2.4034
-4.9603 -3.4124 2.4034
-4.8407 -3.5919 2.4034
-4.7144 -3.7671 2.4034
-4.5817 -3.9377 2.4034
-4.4426 -4.1035 2.4034
-4.2975 -4.2641 2.4034
-4.1463 -4.4195 2.4034
-3.9894 -4.5693 2.4034
-3.8270 -4.7133 2.4034
-3.6592 -4.8513 2.4034
-3.4863 -4.9831 2.4034
-3.3086 -5.1085 2.4034
-3.1262 -5.2273 2.4034
-2.9395 -5.3393 2.4034
-2.7485 -5.4444 2.4034
-2.5538 -5.5424 2.4034
-2.3554 -5.6331 2.4034
-2.1537 -5.7165 2.4034
-1.9490 -5.7923 2.4034
-1.7415 -5.8604 2.4034
-1.5316 -5.9209 2.4034
-1.3195 -5.9735 2.4034
-1.1056 -6.0181 2.4034
-0.8901 -6.0548 2.4034
-0.6734 -6.0835 2.4034
-0.4557 -6.1040 2.4034
-0.2374 -6.1165 2.4034
-0.0188 -6.1208 2.4034
0.1998 -6.1170 2.4034
0.4180 -6.1050 2.4034
0.6357 -6.0849 2.4034
0.8524 -6.0568 2.4034
1.0678 -6.0206 2.4034
1.2817 -5.9764 2.4034
1.4938 -5.9244 2.4034
1.7037 -5.8645 2.4034
1.9111 -5.7969 2.4034
2.1158 -5.7216 2.4034
2.3174 -5.6389 2.4034
2.5158 -5.5488 2.4034
2.7105 -5.4515 2.4034
2.9014 -5.3470 2.4034
3.0882 -5.2357 2.4034
3.2706 -5.1176 2.4034
3.4484 -4.9929 2.4034
3.6213 -4.8619 2.4034
3.5489 -4.4251 2.2510
3.7011 -4.2909 2.2510
3.8482 -4.1514 2.2510
3.9899 -4.0067 2.2510
4.1260 -3.8571 2.2510
4.2565 -3.7026 2.2510
4.3810 -3.5437 2.2510
4.4996 -3.3805 2.2510
4.6120 -3.2132 2.2510
4.7180 -3.0421 2.2510
4.8177 -2.8674 2.2510
4.9108 -2.6894 2.2510
4.9972 -2.5083 2.2510
5.0769 -2.3245 2.2510
5.1499 -2.1381 2.2510
5.2159 -1.9493 2.2510
5.2749 -1.7586 2.2510
5.3392 -1.5696 2.2561
5.3844 -1.3751 2.2562
5.4226 -1.1794 2.2563
5.4535 -0.9826 2.2563
5.4773 -0.7851 2.2563
5.4938 -0.5871 2.2563
5.5033 -0.3889 2.2563
5.5056 -0.1907 2.2563
5.5008 0.0072 2.2563
5.4890 0.2045 2.2563
5.4700 0.4010 2.2563
5.4441 0.5965 2.2562
5.4112 0.7907 2.2562
5.3714 0.9834 2.2561
5.3248 1.1742 2.2560
5.2715 1.3630 2.2559
5.2115 1.5496 2.2558
5.1451 1.7337 2.2556
5.0722 1.9151 2.2555
4.9931 2.0936 2.2554
4.9077 2.2689 2.2552
4.8163 2.4409 2.2550
4.7190 2.6094 2.2548
4.6159 2.7741 2.2547
4.5072 2.9349 2.2545
4.3930 3.0916 2.2542
4.2735 3.2440 2.2540
4.1488 3.3920 2.2538
4.0191 3.5353 2.2536
3.8846 3.6738 2.2533
3.7455 3.8074 2.2531
3.6019 3.9360 2.2528
3.4540 4.0592 2.2525
3.3020 4.1772 2.2523
3.1461 4.2896 2.2520
2.9866 4.3964 2.2517
2.8235 4.4976 2.2514
2.6571 4.5929 2.2511
2.4878 4.6826 2.2510
2.4206 4.9824 2.3529
2.2858 5.1726 2.4034
0.8520 2.1333 0.9767
0.7744 2.1627 0.9772
0.6958 2.1894 0.9776
0.6163 2.2132 0.9780
0.5359 2.2341 0.9783
0.4549 2.2521 0.9786
0.3732 2.2672 0.9788
0.2911 2.2793 0.9790
0.2085 2.2884 0.9791
0.1257 2.2946 0.9792
0.0427 2.2977 0.9792
-0.0403 2.2979 0.9792
-0.1233 2.2950 0.9791
-0.2062 2.2892 0.9790
-0.2888 2.2804 0.9789
-0.3710 2.2686 0.9786
-0.4527 2.2538 0.9784
-0.5339 2.2361 0.9781
-0.6144 2.2155 0.9777
-0.6940 2.1920 0.9773
-0.7728 2.1656 0.9768
-0.8506 2.1364 0.9763
-2.2837 5.1832 2.4034
-2.4710 5.1007 2.4034
-2.6554 5.0118 2.4034
-2.8368 4.9163 2.4034
-3.0148 4.8146 2.4034
-3.1893 4.7066 2.4034
-3.3600 4.5925 2.4034
-3.5268 4.4724 2.4034
-3.6894 4.3465 2.4034
-3.8477 4.2148 2.4034
-4.0013 4.0775 2.4034
-4.1502 3.9348 2.4034
-4.2942 3.7868 2.4034
-4.4329 3.6337 2.4034
-4.5664 3.4757 2.4034
-4.6943 3.3129 2.4034
-4.8166 3.1455 2.4034
-4.9330 2.9737 2.4034
-5.0434 2.7978 2.4034
-5.1476 2.6178 2.4034
-5.2455 2.4340 2.4034
-5.3370 2.2467 2.4034
-5.4218 2.0560 2.4034
-5.4999 1.8622 2.4034
-5.5712 1.6655 2.4034
-5.6355 1.4662 2.4034
-5.6927 1.2644 2.4034
-5.7428 1.0605 2.4034
-5.7856 0.8547 2.4034
-5.8211 0.6472 2.4034
-5.8492 0.4383 2.4034
-5.8697 0.2283 2.4034
-5.8828 0.0174 2.4034
-5.8882 -0.1941 2.4034
-5.8861 -0.4060 2.4034
-5.8763 -0.6178 2.4034
-5.8589 -0.8295 2.4034
-5.8338 -1.0406 2.4034
-5.8010 -1.2510 2.4034
-5.7606 -1.4603 2.4034
-5.7126 -1.6682 2.4034
-5.6570 -1.8745 2.4034
-5.5939 -2.0789 2.4034
-5.5233 -2.2811 2.4034
-5.4453 -2.4808 2.4034
-5.3600 -2.6777 2.4034
-5.2674 -2.8716 2.4034
-5.1677 -3.0622 2.4034
-5.0610 -3.2493 2.4034
-4.9474 -3.4325 2.4034
-4.8270 -3.6115 2.4034
-4.7001 -3.7862 2.4034
-4.5666 -3.9563 2.4034
-4.4269 -4.1215 2.4034
-4.2810 -4.2816 2.4034
-4.1293 -4.4363 2.4034
-3.9717 -4.5855 2.4034
-3.8087 -4.7288 2.4034
-3.6403 -4.8662 2.4034
-3.4669 -4.9973 2.4034
-3.2887 -5.1220 2.4034
-3.1058 -5.2400 2.4034
-2.9185 -5.3513 2.4034
-2.7272 -5.4556 2.4034
-2.5320 -5.5528 2.4034
-2.3332 -5.6427 2.4034
-2.1312 -5.7252 2.4034
-1.9262 -5.8002 2.4034
-1.7184 -5.8675 2.4034
-1.5082 -5.9271 2.4034
-1.2959 -5.9788 2.4034
-1.0818 -6.0226 2.4034
-0.8662 -6.0584 2.4034
-0.6493 -6.0861 2.4034
-0.4316 -6.1058 2.4034
-0.2132 -6.1174 2.4034
0.0054 -6.1208 2.4034
0.2239 -6.1160 2.4034
0.4422 -6.1032 2.4034
0.6597 -6.0822 2.4034
0.8763 -6.0532 2.4034
1.0916 -6.0161 2.4034
1.3053 -5.9711 2.4034
1.5171 -5.9181 2.4034
1.7268 -5.8574 2.4034
1.9339 -5.7889 2.4034
2.1383 -5.7129 2.4034
2.3396 -5.6293 2.4034
2.5375 -5.5384 2.4034
2.7318 -5.4402 2.4034
2.9223 -5.3350 2.4034
3.1086 -5.2229 2.4034
3.2905 -5.1041 2.4034
3.4678 -4.9787 2.4034
3.6401 -4.8470 2.4034
3.5660 -4.4105 2.2510
3.7177 -4.2757 2.2510
3.8641 -4.1357 2.2510
4.0052 -3.9904 2.2510
4.1408 -3.8402 2.2510
4.2706 -3.6853 2.2510
4.3945 -3.5258 2.2510
4.5123 -3.3621 2.2510
4.6240 -3.1944 2.2510
4.7294 -3.0229 2.2510
4.8283 -2.8479 2.2510
4.9207 -2.6695 2.2510
5.0064 -2.4881 2.2510
5.0854 -2.3040 2.2510
5.1575 -2.1173 2.2510
5.2227 -1.9283 2.2510
5.2810 -1.7373 2.2510
5.3445 -1.5481 2.2561
5.3890 -1.3535 2.2562
5.4263 -1.1577 2.2563
5.4565 -0.9608 2.2563
5.4794 -0.7632 2.2563
5.4952 -0.5652 2.2563
5.5039 -0.3669 2.2563
5.5054 -0.1688 2.2563
5.4999 0.0290 2.2563
5.4872 0.2263 2.2563
5.4675 0.4227 2.2563
5.4408 0.6181 2.2562
5.4071 0.8121 2.2562
5.3665 1.0046 2.2561
5.3192 1.1952 2.2560
5.2652 1.3838 2.2559
5.2045 1.5701 2.2558
5.1373 1.7539 2.2556
5.0638 1.9350 2.2555
4.9839 2.1131 2.2553
4.8979 2.2881 2.2552
4.8058 2.4598 2.2550
4.7079 2.6278 2.2548
4.6041 2.7921 2.2546
4.4948 2.9525 2.2544
4.3800 3.1087 2.2542
4.2599 3.2606 2.2540
4.1347 3.4081 2.2538
4.0045 3.5509 2.2535
3.8694 3.6889 2.2533
3.7298 3.8219 2.2530
3.5857 3.9499 2.2528
3.4374 4.0726 2.2525
3.2849 4.1899 2.2522
3.1287 4.3017 2.2519
2.9687 4.4079 2.2517
2.8052 4.5084 2.2514
2.6385 4.6030 2.2511
2.4689 4.6922 2.2510
2.4185 5.0293 2.3706
0.9201 2.1047 0.9763
0.8435 2.1367 0.9768
0.7658 2.1658 0.9772
0.6871 2.1922 0.9777
0.6074 2.2156 0.9780
0.5270 2.2362 0.9783
0.4459 2.2539 0.9786
0.3642 2.2687 0.9788
0.2820 2.2804 0.9790
0.1994 2.2892 0.9791
0.1165 2.2951 0.9792
0.0335 2.2979 0.9792
-0.0495 2.2977 0.9792
-0.1325 2.2945 0.9791
-0.2153 2.2884 0.9790
-0.2979 2.2792 0.9788
-0.3801 2.2671 0.9786
-0.4618 2.2520 0.9783
-0.5428 2.2340 0.9780
-0.6232 2.2130 0.9777
-0.7028 2.1892 0.9772
-0.7815 2.1625 0.9768
-0.8591 2.1330 0.9763
-2.3046 5.1744 2.4034
-2.4916 5.0912 2.4034
-2.6757 5.0015 2.4034
-2.8567 4.9054 2.4034
-3.0343 4.8029 2.4034
-3.2084 4.6943 2.4034
-3.3787 4.5795 2.4034
-3.5450 4.4588 2.4034
-3.7072 4.3322 2.4034
-3.8649 4.1999 2.4034
-4.0180 4.0620 2.4034
-4.1664 3.9187 2.4034
-4.3098 3.7701 2.4034
-4.4480 3.6165 2.4034
-4.5808 3.4579 2.4034
-4.7081 3.2946 2.4034
-4.8298 3.1267 2.4034
-4.9455 2.9545 2.4034
-5.0552 2.7780 2.4034
-5.1588 2.5976 2.4034
-5.2560 2.4135 2.4034
-5.3467 2.2258 2.4034
-5.4308 2.0347 2.4034
-5.5081 1.8406 2.4034
-5.5787 1.6436 2.4034
-5.6422 1.4440 2.4034
-5.6986 1.2420 2.4034
-5.7479 1.0378 2.4034
-5.7899 0.8318 2.4034
-5.8246 0.6241 2.4034
-5.8518 0.4151 2.4034
-5.8715 0.2049 2.4034
-5.8838 -0.0060 2.4034
-5.8884 -0.2176 2.4034
-5.8854 -0.4294 2.4034
-5.8748 -0.6413 2.4034
-5.8565 -0.8529 2.4034
-5.8305 -1.0640 2.4034
-5.7969 -1.2742 2.4034
-5.7557 -1.4833 2.4034
-5.7068 -1.6911 2.4034
-5.6504 -1.8972 2.4034
-5.5865 -2.1014 2.4034
-5.5150 -2.3033 2.4034
-5.4362 -2.5027 2.4034
-5.3501 -2.6993 2.4034
-5.2567 -2.8929 2.4034
-5.1563 -3.0831 2.4034
-5.0488 -3.2697 2.4034
-4.9344 -3.4525 2.4034
-4.8133 -3.6311 2.4034
-4.6856 -3.8053 2.4034
-4.5514 -3.9748 2.4034
-4.4110 -4.1395 2.4034
-4.2645 -4.2990 2.4034
-4.1120 -4.4531 2.4034
-3.9540 -4.6017 2.4034
-3.7903 -4.7444 2.4034
-3.6214 -4.8810 2.4034
-3.4475 -5.0114 2.4034
-3.2686 -5.1354 2.4034
-3.0852 -5.2527 2.4034
-2.8975 -5.3632 2.4034
-2.7058 -5.4667 2.4034
-2.5102 -5.5631 2.4034
-2.3110 -5.6522 2.4034
-2.1086 -5.7339 2.4034
-1.9033 -5.8080 2.4034
-1.6952 -5.8745 2.4034
-1.4848 -5.9332 2.4034
-1.2723 -5.9840 2.4034
-1.0580 -6.0269 2.4034
-0.8422 -6.0619 2.4034
-0.6253 -6.0887 2.4034
-0.4074 -6.1075 2.4034
-0.1890 -6.1181 2.4034
0.0296 -6.1206 2.4034
0.2481 -6.1150 2.4034
0.4663 -6.1013 2.4034
0.6837 -6.0794 2.4034
0.9002 -6.0495 2.4034
1.1153 -6.0115 2.4034
1.3289 -5.9656 2.4034
1.5404 -5.9118 2.4034
1.7498 -5.8502 2.4034
1.9567 -5.7809 2.4034
2.1607 -5.7040 2.4034
2.3616 -5.6196 2.4034
2.5592 -5.5279 2.4034
2.7531 -5.4289 2.4034
2.9431 -5.3230 2.4034
3.1290 -5.2101 2.4034
3.3104 -5.0905 2.4034
3.4871 -4.9645 2.4034
3.4269 -4.5256 2.2510
3.5830 -4.3958 2.2510
3.7341 -4.2605 2.2510
3.8800 -4.1198 2.2510
4.0205 -3.9740 2.2510
-0.7905 2.0080 0.9742
-0.8626 1.9782 0.9737
-2.3055 4.8057 2.4034
-2.4792 4.7225 2.4034
-2.6501 4.6332 2.4034
-2.8178 4.5380 2.4034
-2.9822 4.4368 2.4034
-3.1430 4.3300 2.4034
-3.3002 4.2174 2.4034
-3.4534 4.0993 2.4034
-3.6025 3.9759 2.4034
-3.7473 3.8472 2.4034
-3.8876 3.7133 2.4034
-4.0233 3.5745 2.4034
-4.1541 3.4309 2.4034
-4.2799 3.2826 2.4034
-4.4005 3.1298 2.4034
-4.5158 2.9727 2.4034
-4.6255 2.8115 2.4034
-4.7296 2.6463 2.4034
-4.8279 2.4773 2.4034
-4.9203 2.3049 2.4034
-5.0065 2.1290 2.4034
-5.0866 1.9500 2.4034
-5.1603 1.7681 2.4034
-5.2277 1.5834 2.4034
-5.2884 1.3963 2.4034
-5.3425 1.2069 2.4034
-5.3899 1.0154 2.4034
-5.4305 0.8222 2.4034
-5.4642 0.6274 2.4034
-5.4909 0.4313 2.4034
-5.5106 0.2341 2.4034
-5.5232 0.0362 2.4034
-5.5287 -0.1624 2.4034
-5.5270 -0.3612 2.4034
-5.5182 -0.5601 2.4034
-5.5022 -0.7588 2.4034
-5.4790 -0.9570 2.4034
-5.4487 -1.1545 2.4034
-5.4112 -1.3509 2.4034
-5.3665 -1.5461 2.4034
-5.3147 -1.7398 2.4034
-5.2559 -1.9316 2.4034
-5.1900 -2.1214 2.4034
-5.1172 -2.3089 2.4034
-5.0376 -2.4938 2.4034
-4.9512 -2.6759 2.4034
-4.8580 -2.8548 2.4034
-4.7584 -3.0305 2.4034
-4.6522 -3.2025 2.4034
-4.5397 -3.3707 2.4034
-4.4211 -3.5347 2.4034
-4.2963 -3.6945 2.4034
-4.1657 -3.8497 2.4034
-4.0294 -4.0002 2.4034
-3.8875 -4.1456 2.4034
-3.7402 -4.2858 2.4034
-3.5877 -4.4206 2.4034
-3.4303 -4.5497 2.4034
-3.2681 -4.6731 2.4034
-3.1013 -4.7904 2.4034
-2.9303 -4.9016 2.4034
-2.7551 -5.0064 2.4034
-2.5761 -5.1047 2.4034
-2.3935 -5.1964 2.4034
-2.2075 -5.2813 2.4034
-2.0184 -5.3592 2.4034
-1.8265 -5.4301 2.4034
-1.6321 -5.4939 2.4034
-1.4353 -5.5504 2.4034
-1.2366 -5.5996 2.4034
-1.0361 -5.6414 2.4034
-0.8342 -5.6758 2.4034
-0.6311 -5.7026 2.4034
-0.4271 -5.7218 2.4034
-0.2226 -5.7335 2.4034
-0.0177 -5.7375 2.4034
0.1871 -5.7340 2.4034
0.3916 -5.7228 2.4034
0.5956 -5.7041 2.4034
0.7986 -5.6778 2.4034
1.0005 -5.6440 2.4034
1.2010 -5.6027 2.4034
1.3998 -5.5540 2.4034
1.5965 -5.4980 2.4034
1.7909 -5.4348 2.4034
1.9828 -5.3645 2.4034
2.1719 -5.2871 2.4034
2.3578 -5.2029 2.4034
2.5405 -5.1118 2.4034
2.7195 -5.0141 2.4034
2.8947 -4.9100 2.4034
3.0658 -4.7995 2.4034
3.2327 -4.6829 2.4034
3.2009 -4.2997 2.2660
3.3272 -4.1508 2.2510
3.4701 -4.0253 2.2510
3.6082 -3.8947 2.2510
3.7413 -3.7592 2.2510
3.8692 -3.6191 2.2510
3.9918 -3.4745 2.2510
4.1089 -3.3256 2.2510
4.2203 -3.1728 2.2510
4.3260 -3.0160 2.2510
4.4258 -2.8557 2.2510
4.5196 -2.6921 2.2510
4.6073 -2.5253 2.2510
4.6888 -2.3556 2.2510
4.7639 -2.1832 2.2510
4.8327 -2.0084 2.2510
4.8950 -1.8314 2.2510
4.9508 -1.6525 2.2510
5.0101 -1.4749 2.2556
5.0530 -1.2925 2.2556
5.0891 -1.1089 2.2557
5.1186 -0.9243 2.2557
5.1413 -0.7389 2.2558
5.1574 -0.5531 2.2558
5.1666 -0.3671 2.2558
5.1692 -0.1810 2.2558
5.1651 0.0048 2.2558
5.1543 0.1901 2.2557
5.1369 0.3747 2.2557
5.1129 0.5583 2.2556
5.0823 0.7407 2.2556
5.0454 0.9217 2.2555
5.0020 1.1011 2.2554
4.9523 1.2786 2.2553
4.8963 1.4540 2.2552
4.8342 1.6271 2.2551
4.7661 1.7976 2.2550
4.6921 1.9655 2.2548
4.6122 2.1304 2.2547
4.5266 2.2922 2.2545
4.4355 2.4507 2.2544
4.3389 2.6057 2.2542
4.2369 2.7571 2.2540
4.1299 2.9046 2.2538
4.0177 3.0480 2.2536
3.9008 3.1874 2.2534
3.7791 3.3223 2.2531
3.6528 3.4528 2.2529
3.5222 3.5786 2.2527
3.3873 3.6997 2.2524
3.2484 3.8158 2.2522
3.1056 3.9269 2.2519
2.9592 4.0329 2.2517
2.8092 4.1336 2.2514
2.6559 4.2289 2.2511
2.4996 4.3190 2.2510
2.4149 4.5437 2.3225
2.3262 4.7865 2.4034
0.8717 1.9717 0.9741
0.7999 2.0020 0.9746
0.7270 2.0296 0.9750
0.6532 2.0546 0.9754
0.5785 2.0770 0.9757
0.5031 2.0966 0.9760
0.4270 2.1135 0.9763
0.3504 2.1276 0.9765
0.2732 2.1390 0.9767
0.1957 2.1475 0.9768
0.1180 2.1533 0.9769
0.0401 2.1563 0.9769
-0.0379 2.1564 0.9769
-0.1158 2.1537 0.9768
-0.1936 2.1483 0.9767
-0.2711 2.1400 0.9765
-0.3483 2.1289 0.9763
-0.4251 2.1150 0.9761
-0.5013 2.0984 0.9758
-0.5768 2.0791 0.9755
-0.6516 2.0570 0.9751
-0.7255 2.0322 0.9747
-0.7985 2.0048 0.9742
-0.8705 1.9748 0.9737
-2.3249 4.7968 2.4034
-2.4983 4.7129 2.4034
-2.6688 4.6230 2.4034
-2.8361 4.5271 2.4034
-3.0002 4.4253 2.4034
-3.1606 4.3178 2.4034
-3.3173 4.2046 2.4034
-3.4701 4.0859 2.4034
-3.6188 3.9619 2.4034
-3.7631 3.8326 2.4034
-3.9029 3.6982 2.4034
-4.0380 3.5588 2.4034
-4.1683 3.4147 2.4034
-4.2935 3.2659 2.4034
-4.4135 3.1126 2.4034
-4.5282 2.9550 2.4034
-4.6373 2.7934 2.4034
-4.7408 2.6278 2.4034
-4.8384 2.4584 2.4034
-4.9301 2.2855 2.4034
-5.0157 2.1093 2.4034
-5.0951 1.9300 2.4034
-5.1681 1.7478 2.4034
-5.2347 1.5628 2.4034
-5.2947 1.3754 2.4034
-5.3481 1.1858 2.4034
-5.3948 0.9941 2.4034
-5.4346 0.8007 2.4034
-5.4675 0.6058 2.4034
-5.4934 0.4095 2.4034
-5.5123 0.2123 2.4034
-5.5241 0.0142 2.4034
-5.5288 -0.1844 2.4034
-5.5264 -0.3832 2.4034
-5.5168 -0.5821 2.4034
-5.5000 -0.7808 2.4034
-5.4760 -0.9789 2.4034
-5.4449 -1.1763 2.4034
-5.4066 -1.3726 2.4034
-5.3611 -1.5676 2.4034
-5.3085 -1.7611 2.4034
-5.2489 -1.9527 2.4034
-5.1823 -2.1423 2.4034
-5.1088 -2.3295 2.4034
-5.0284 -2.5141 2.4034
-4.9412 -2.6959 2.4034
-4.8473 -2.8745 2.4034
-4.7469 -3.0497 2.4034
-4.6401 -3.2213 2.4034
-4.5269 -3.3890 2.4034
-4.4076 -3.5526 2.4034
-4.2822 -3.7119 2.4034
-4.1509 -3.8666 2.4034
-4.0139 -4.0165 2.4034
-3.8714 -4.1614 2.4034
-3.7235 -4.3010 2.4034
-3.5705 -4.4352 2.4034
-3.4125 -4.5637 2.4034
-3.2498 -4.6864 2.4034
-3.0826 -4.8030 2.4034
-2.9110 -4.9135 2.4034
-2.7355 -5.0176 2.4034
-2.5560 -5.1152 2.4034
-2.3730 -5.2061 2.4034
-2.1867 -5.2902 2.4034
-1.9973 -5.3674 2.4034
-1.8051 -5.4376 2.4034
-1.6104 -5.5005 2.4034
-1.4134 -5.5563 2.4034
-1.2145 -5.6046 2.4034
-1.0138 -5.6456 2.4034
-0.8117 -5.6791 2.4034
-0.6085 -5.7051 2.4034
-0.4045 -5.7235 2.4034
-0.1999 -5.7343 2.4034
0.0049 -5.7375 2.4034
0.2097 -5.7331 2.4034
0.4142 -5.7211 2.4034
0.6181 -5.7015 2.4034
0.8210 -5.6744 2.4034
1.0228 -5.6398 2.4034
1.2231 -5.5977 2.4034
1.4216 -5.5482 2.4034
1.6181 -5.4914 2.4034
1.8123 -5.4274 2.4034
2.0039 -5.3563 2.4034
2.1926 -5.2781 2.4034
2.3782 -5.1931 2.4034
2.5605 -5.1013 2.4034
2.7391 -5.0029 2.4034
2.9139 -4.8981 2.4034
3.0845 -4.7869 2.4034
3.2508 -4.6696 2.4034
3.1962 -4.2580 2.2510
3.3433 -4.1372 2.2510
3.4857 -4.0111 2.2510
3.6232 -3.8799 2.2510
3.7557 -3.7439 2.2510
3.8831 -3.6033 2.2510
4.0050 -3.4582 2.2510
4.1215 -3.3089 2.2510
4.2323 -3.1556 2.2510
4.3374 -2.9985 2.2510
4.4365 -2.8378 2.2510
4.5296 -2.6738 2.2510
4.6166 -2.5066 2.2510
4.6974 -2.3366 2.2510
4.7718 -2.1640 2.2510
4.8399 -1.9889 2.2510
4.9015 -1.8117 2.2510
4.9565 -1.6326 2.2510
5.0152 -1.4548 2.2556
5.0573 -1.2722 2.2556
5.0927 -1.0885 2.2557
5.1215 -0.9038 2.2557
5.1434 -0.7184 2.2558
5.1587 -0.5325 2.2558
5.1673 -0.3465 2.2558
5.1691 -0.1604 2.2558
5.1642 0.0253 2.2558
5.1527 0.2106 2.2557
5.1345 0.3951 2.2557
5.1098 0.5786 2.2556
5.0786 0.7608 2.2556
5.0409 0.9417 2.2555
4.9968 1.1208 2.2554
4.9464 1.2981 2.2553
4.8898 1.4732 2.2552
4.8270 1.6461 2.2551
4.7582 1.8163 2.2550
4.6835 1.9839 2.2548
4.6030 2.1485 2.2547
4.5168 2.3099 2.2545
4.4250 2.4681 2.2543
4.3278 2.6227 2.2542
4.2253 2.7736 2.2540
4.1177 2.9207 2.2538
4.0050 3.0637 2.2536
3.8875 3.2025 2.2533
3.7653 3.3370 2.2531
3.6386 3.4669 2.2529
3.5074 3.5922 2.2526
3.3721 3.7128 2.2524
3.2328 3.8284 2.2521
3.0896 3.9389 2.2519
2.9427 4.0443 2.2516
2.7924 4.1444 2.2514
2.6387 4.2391 2.2511
2.4822 4.3287 2.2510
2.4130 4.5843 2.3384
2.3069 4.7955 2.4034
0.8638 1.9752 0.9741
0.7918 2.0052 0.9746
0.7189 2.0325 0.9750
0.6450 2.0572 0.9754
0.5702 2.0793 0.9758
0.4947 2.0986 0.9761
0.4186 2.1152 0.9763
0.3418 2.1290 0.9765
0.2647 2.1401 0.9767
0.1871 2.1483 0.9768
0.1094 2.1538 0.9769
0.0314 2.1564 0.9769
-0.0465 2.1563 0.9769
-0.1244 2.1533 0.9768
-0.2022 2.1475 0.9767
-0.2797 2.1389 0.9765
-0.3569 2.1275 0.9763
-0.4335 2.1133 0.9761
-0.5097 2.0964 0.9758
-0.5851 2.0767 0.9754
-0.6598 2.0544 0.9750
-0.7337 2.0293 0.9746
-0.8066 2.0016 0.9741
-0.8784 1.9713 0.9736
-2.3442 4.7878 2.4034
-2.5173 4.7032 2.4034
-2.6875 4.6126 2.4034
-2.8545 4.5161 2.4034
-3.0181 4.4137 2.4034
-3.1782 4.3055 2.4034
-3.3344 4.1917 2.4034
-3.4868 4.0725 2.4034
-3.6349 3.9478 2.4034
-3.7788 3.8180 2.4034
-3.9181 3.6830 2.4034
-4.0527 3.5431 2.4034
-4.1824 3.3984 2.4034
-4.3070 3.2491 2.4034
-4.4265 3.0954 2.4034
-4.5405 2.9373 2.4034
-4.6490 2.7752 2.4034
-4.7519 2.6092 2.4034
-4.8489 2.4395 2.4034
-4.9399 2.2662 2.4034
-5.0248 2.0897 2.4034
-5.1035 1.9100 2.4034
-5.1758 1.7274 2.4034
-5.2417 1.5422 2.4034
-5.3010 1.3545 2.4034
-5.3536 1.1647 2.4034
-5.3995 0.9728 2.4034
-5.4385 0.7792 2.4034
-5.4707 0.5841 2.4034
-5.4958 0.3877 2.4034
-5.5140 0.1904 2.4034
-5.5250 -0.0078 2.4034
-5.5289 -0.2064 2.4034
-5.5257 -0.4053 2.4034
-5.5153 -0.6041 2.4034
-5.4977 -0.8027 2.4034
-5.4729 -1.0008 2.4034
-5.4410 -1.1980 2.4034
-5.4019 -1.3943 2.4034
-5.3556 -1.5891 2.4034
-5.3023 -1.7824 2.4034
-5.2419 -1.9738 2.4034
-5.1745 -2.1632 2.4034
-5.1002 -2.3501 2.4034
-5.0190 -2.5344 2.4034
-4.9311 -2.7158 2.4034
-4.8365 -2.8940 2.4034
-4.7354 -3.0689 2.4034
-4.6278 -3.2401 2.4034
-4.5140 -3.4073 2.4034
-4.3940 -3.5705 2.4034
-4.2679 -3.7293 2.4034
-4.1360 -3.8834 2.4034
-3.9984 -4.0328 2.4034
-3.8553 -4.1771 2.4034
-3.7069 -4.3161 2.4034
-3.5532 -4.4497 2.4034
-3.3948 -4.5776 2.4034
-3.2316 -4.6996 2.4034
-3.0638 -4.8156 2.4034
-2.8918 -4.9253 2.4034
-2.7158 -5.0287 2.4034
-2.5360 -5.1256 2.4034
-2.3526 -5.2158 2.4034
-2.1659 -5.2991 2.4034
-1.9762 -5.3755 2.4034
-1.7837 -5.4449 2.4034
-1.5887 -5.5071 2.4034
-1.3915 -5.5620 2.4034
-1.1923 -5.6095 2.4034
-0.9915 -5.6497 2.4034
-0.7893 -5.6824 2.4034
-0.5860 -5.7075 2.4034
-0.3819 -5.7251 2.4034
-0.1772 -5.7350 2.4034
0.0276 -5.7374 2.4034
0.2324 -5.7322 2.4034
0.4368 -5.7193 2.4034
0.6406 -5.6989 2.4034
0.8434 -5.6709 2.4034
1.0450 -5.6355 2.4034
1.2452 -5.5925 2.4034
1.4435 -5.5423 2.4034
1.6397 -5.4847 2.4034
1.8336 -5.4199 2.4034
2.0249 -5.3480 2.4034
2.2133 -5.2691 2.4034
2.3986 -5.1833 2.4034
2.5804 -5.0908 2.4034
2.7586 -4.9916 2.4034
2.9330 -4.8861 2.4034
3.1031 -4.7742 2.4034
3.2690 -4.6562 2.4034
3.2127 -4.2449 2.2510
3.3593 -4.1235 2.2510
3.5011 -3.9968 2.2510
3.6381 -3.8651 2.2510
3.7701 -3.7286 2.2510
-0.7441 1.8892 0.9723
-0.8119 1.8612 0.9718
-0.8787 1.8308 0.9713
-2.3381 4.4516 2.4034
-2.4991 4.3672 2.4034
-2.6572 4.2772 2.4034
-2.8121 4.1817 2.4034
-2.9637 4.0808 2.4034
-3.1117 3.9745 2.4034
-3.2561 3.8630 2.4034
-3.3965 3.7464 2.4034
-3.5328 3.6249 2.4034
-3.6649 3.4985 2.4034
-3.7926 3.3675 2.4034
-3.9157 3.2319 2.4034
-4.0341 3.0920 2.4034
-4.1475 2.9478 2.4034
-4.2559 2.7996 2.4034
-4.3591 2.6475 2.4034
-4.4569 2.4917 2.4034
-4.5493 2.3323 2.4034
-4.6360 2.1697 2.4034
-4.7170 2.0039 2.4034
-4.7921 1.8351 2.4034
-4.8613 1.6636 2.4034
-4.9244 1.4895 2.4034
-4.9813 1.3132 2.4034
-5.0319 1.1347 2.4034
-5.0762 0.9543 2.4034
-5.1141 0.7723 2.4034
-5.1454 0.5888 2.4034
-5.1702 0.4041 2.4034
-5.1884 0.2184 2.4034
-5.1999 0.0320 2.4034
-5.2047 -0.1549 2.4034
-5.2028 -0.3421 2.4034
-5.1942 -0.5292 2.4034
-5.1788 -0.7162 2.4034
-5.1566 -0.9027 2.4034
-5.1277 -1.0885 2.4034
-5.0920 -1.2732 2.4034
-5.0496 -1.4568 2.4034
-5.0006 -1.6389 2.4034
-4.9449 -1.8193 2.4034
-4.8826 -1.9978 2.4034
-4.8139 -2.1740 2.4034
-4.7386 -2.3478 2.4034
-4.6571 -2.5189 2.4034
-4.5692 -2.6871 2.4034
-4.4752 -2.8521 2.4034
-4.3751 -3.0137 2.4034
-4.2691 -3.1717 2.4034
-4.1573 -3.3258 2.4034
-4.0397 -3.4758 2.4034
-3.9167 -3.6216 2.4034
-3.7883 -3.7628 2.4034
-3.6548 -3.8994 2.4034
-3.5161 -4.0310 2.4034
-3.3727 -4.1575 2.4034
-3.2245 -4.2788 2.4034
-3.0719 -4.3945 2.4034
-2.9151 -4.5047 2.4034
-2.7542 -4.6090 2.4034
-2.5895 -4.7073 2.4034
-2.4212 -4.7996 2.4034
-2.2494 -4.8856 2.4034
-2.0746 -4.9653 2.4034
-1.8969 -5.0384 2.4034
-1.7165 -5.1049 2.4034
-1.5338 -5.1648 2.4034
-1.3489 -5.2178 2.4034
-1.1621 -5.2640 2.4034
-0.9737 -5.3032 2.4034
-0.7839 -5.3354 2.4034
-0.5931 -5.3605 2.4034
-0.4014 -5.3786 2.4034
-0.2092 -5.3896 2.4034
-0.0168 -5.3934 2.4034
0.1757 -5.3901 2.4034
0.3679 -5.3796 2.4034
0.5595 -5.3621 2.4034
0.7504 -5.3374 2.4034
0.9401 -5.3057 2.4034
1.1285 -5.2670 2.4034
1.3153 -5.2214 2.4034
1.5002 -5.1689 2.4034
1.6830 -5.1096 2.4034
1.8634 -5.0437 2.4034
2.0411 -4.9711 2.4034
2.2160 -4.8921 2.4034
2.3877 -4.8067 2.4034
2.5561 -4.7151 2.4034
2.7209 -4.6173 2.4034
2.8818 -4.5137 2.4034
3.0388 -4.4042 2.4034
3.0228 -4.0624 2.2763
3.1280 -3.9043 2.2510
3.2625 -3.7864 2.2510
3.3925 -3.6639 2.2510
3.5178 -3.5367 2.2510
3.6383 -3.4051 2.2510
3.7538 -3.2693 2.2510
3.8641 -3.1295 2.2510
3.9691 -2.9859 2.2510
4.0688 -2.8387 2.2510
4.1629 -2.6881 2.2510
4.2514 -2.5343 2.2510
4.3341 -2.3775 2.2510
4.4110 -2.2180 2.2510
4.4820 -2.0560 2.2510
4.5470 -1.8916 2.2510
4.6060 -1.7252 2.2510
4.6670 -1.5597 2.2549
4.7139 -1.3896 2.2550
4.7545 -1.2181 2.2551
4.7888 -1.0454 2.2551
