ply
format ascii 1.0
element vertex 2176
property float32 x
property float32 y
property float32 z
end_header
-0.6238 -9.3111 2.3796
-0.2868 -9.2167 2.3796
0.0429 -9.1126 2.3796
0.3651 -8.9992 2.3796
0.6797 -8.8771 2.3796
0.9865 -8.7465 2.3796
1.2854 -8.6081 2.3796
1.5765 -8.4620 2.3796
1.8595 -8.3087 2.3796
2.1345 -8.1487 2.3796
2.4014 -7.9821 2.3796
2.6602 -7.8095 2.3796
2.9109 -7.6310 2.3796
3.1534 -7.4471 2.3796
3.3879 -7.2580 2.3796
3.6143 -7.0641 2.3796
3.8327 -6.8655 2.3796
4.0430 -6.6626 2.3796
4.2453 -6.4557 2.3796
4.4397 -6.2449 2.3796
4.6263 -6.0304 2.3796
4.8050 -5.8126 2.3796
4.9759 -5.5916 2.3796
5.1390 -5.3677 2.3796
5.2945 -5.1409 2.3796
5.4423 -4.9116 2.3796
5.5826 -4.6798 2.3796
5.7153 -4.4458 2.3796
5.8406 -4.2097 2.3796
5.9585 -3.9716 2.3796
6.0689 -3.7317 2.3796
6.1721 -3.4902 2.3796
6.2680 -3.2470 2.3796
6.3566 -3.0024 2.3796
6.4381 -2.7567 2.3796
6.5124 -2.5098 2.3796
6.5796 -2.2618 2.3796
6.6397 -2.0128 2.3796
6.6928 -1.7631 2.3796
6.7388 -1.5126 2.3796
6.7778 -1.2614 2.3796
6.8098 -1.0098 2.3796
6.8349 -0.7577 2.3796
6.8529 -0.5053 2.3796
6.8641 -0.2527 2.3796
6.8682 0.0001 2.3796
6.8654 0.2530 2.3796
6.8557 0.5058 2.3796
6.8390 0.7584 2.3796
6.8153 1.0108 2.3796
6.7846 1.2629 2.3796
6.7469 1.5145 2.3796
6.7021 1.7656 2.3796
6.3074 1.9122 2.2569
6.1693 2.1207 2.2272
6.1075 2.3537 2.2272
6.0390 2.5857 2.2272
5.9638 2.8167 2.2272
5.8818 3.0466 2.2272
5.7929 3.2753 2.2272
5.6972 3.5026 2.2272
5.5946 3.7284 2.2272
5.4851 3.9526 2.2272
5.3685 4.1751 2.2272
5.2448 4.3956 2.2272
4.3507 3.9254 1.8948
4.9761 4.8303 2.2272
4.8310 5.0442 2.2272
4.6786 5.2555 2.2272
4.5188 5.4641 2.2272
4.3516 5.6698 2.2272
4.1771 5.8724 2.2272
3.9950 6.0716 2.2272
3.8054 6.2672 2.2272
3.6082 6.4590 2.2272
3.4035 6.6468 2.2272
3.1910 6.8303 2.2272
2.9709 7.0093 2.2272
2.7432 7.1834 2.2272
2.5077 7.3524 2.2272
2.2645 7.5159 2.2272
2.0136 7.6737 2.2272
0.7979 3.5580 1.0126
0.6701 3.5876 1.0025
0.5412 3.6126 0.9922
0.4116 3.6329 0.9819
0.2812 3.6485 0.9715
0.1504 3.6593 0.9610
0.0192 3.6654 0.9506
-0.1120 3.6667 0.9401
-0.2433 3.6632 0.9296
-0.3743 3.6549 0.9191
-0.5050 3.6419 0.9087
-0.6351 3.6242 0.8982
-0.7645 3.6017 0.8879
-0.8930 3.5746 0.8776
-4.3376 -8.6399 2.3796
-3.9833 -8.6907 2.3796
-3.6310 -8.7280 2.3796
-3.2812 -8.7522 2.3796
-2.9344 -8.7635 2.3796
-2.5911 -8.7624 2.3796
-2.2517 -8.7493 2.3796
-1.9166 -8.7245 2.3796
-1.5862 -8.6885 2.3796
-1.2608 -8.6416 2.3796
-0.9407 -8.5843 2.3796
-0.6263 -8.5170 2.3796
-0.3177 -8.4400 2.3796
-0.0152 -8.3538 2.3796
0.2811 -8.2587 2.3796
0.5709 -8.1552 2.3796
0.8541 -8.0436 2.3796
1.1306 -7.9242 2.3796
1.4002 -7.7974 2.3796
1.6629 -7.6635 2.3796
1.9185 -7.5230 2.3796
2.1670 -7.3760 2.3796
2.4084 -7.2230 2.3796
2.6426 -7.0642 2.3796
2.8696 -6.8999 2.3796
3.0893 -6.7304 2.3796
3.3018 -6.5560 2.3796
3.5070 -6.3769 2.3796
3.7050 -6.1934 2.3796
3.8957 -6.0057 2.3796
4.0791 -5.8141 2.3796
4.2554 -5.6188 2.3796
4.4244 -5.4200 2.3796
4.5863 -5.2178 2.3796
4.7410 -5.0126 2.3796
4.8886 -4.8044 2.3796
5.0291 -4.5936 2.3796
5.1626 -4.3801 2.3796
5.2890 -4.1643 2.3796
5.4085 -3.9463 2.3796
5.5210 -3.7262 2.3796
5.6266 -3.5041 2.3796
5.7253 -3.2803 2.3796
5.8171 -3.0549 2.3796
5.9022 -2.8279 2.3796
5.9804 -2.5995 2.3796
6.0519 -2.3699 2.3796
6.1166 -2.1392 2.3796
6.1746 -1.9074 2.3796
6.2259 -1.6747 2.3796
6.2705 -1.4413 2.3796
6.3084 -1.2071 2.3796
6.3397 -0.9724 2.3796
6.3644 -0.7372 2.3796
6.3824 -0.5017 2.3796
6.3938 -0.2659 2.3796
6.3985 -0.0299 2.3796
6.3967 0.2061 2.3796
6.3882 0.4420 2.3796
6.3730 0.6779 2.3796
6.3512 0.9134 2.3796
6.3228 1.1486 2.3796
6.2877 1.3834 2.3796
6.2459 1.6175 2.3796
6.1974 1.8510 2.3796
5.7489 1.9503 2.2272
5.6909 2.1672 2.2272
5.6265 2.3831 2.2272
5.5558 2.5980 2.2272
5.4787 2.8117 2.2272
5.3952 3.0241 2.2272
5.3052 3.2350 2.2272
5.2087 3.4444 2.2272
5.1057 3.6521 2.2272
4.9962 3.8579 2.2272
4.8800 4.0617 2.2272
4.3601 3.9075 2.0413
4.6278 4.4627 2.2272
4.4916 4.6597 2.2272
4.3488 4.8539 2.2272
4.1991 5.0454 2.2272
4.0427 5.2338 2.2272
3.8795 5.4191 2.2272
3.7094 5.6009 2.2272
3.5325 5.7792 2.2272
3.3487 5.9536 2.2272
3.1580 6.1239 2.2272
2.9604 6.2900 2.2272
2.7560 6.4515 2.2272
2.5446 6.6081 2.2272
2.3264 6.7598 2.2272
2.1014 6.9060 2.2272
0.8533 3.2164 1.0166
0.7377 3.2483 1.0074
0.6210 3.2759 0.9981
0.5033 3.2992 0.9888
0.3849 3.3183 0.9793
0.2658 3.3330 0.9698
0.1463 3.3435 0.9603
0.0264 3.3495 0.9507
-0.0935 3.3513 0.9411
-0.2135 3.3486 0.9316
-0.3333 3.3417 0.9220
-0.4528 3.3303 0.9124
-0.5718 3.3146 0.9029
-0.6901 3.2947 0.8934
-0.8077 3.2704 0.8840
-0.9243 3.2419 0.8746
-2.8592 8.8247 2.3796
-3.2073 8.8167 2.3796
-3.5585 8.7958 2.3796
-3.9124 8.7617 2.3796
-4.2683 8.7139 2.3796
-4.2922 -8.6471 2.3796
-3.9381 -8.6962 2.3796
-3.5861 -8.7319 2.3796
-3.2366 -8.7543 2.3796
-2.8903 -8.7640 2.3796
-2.5474 -8.7614 2.3796
-2.2085 -8.7467 2.3796
-1.8740 -8.7205 2.3796
-1.5442 -8.6830 2.3796
-1.2195 -8.6348 2.3796
-0.9002 -8.5762 2.3796
-0.5865 -8.5077 2.3796
-0.2786 -8.4295 2.3796
0.0231 -8.3421 2.3796
0.3185 -8.2460 2.3796
0.6075 -8.1414 2.3796
0.8898 -8.0287 2.3796
1.1654 -7.9083 2.3796
1.4342 -7.7806 2.3796
1.6960 -7.6459 2.3796
1.9507 -7.5045 2.3796
2.1983 -7.3568 2.3796
2.4388 -7.2030 2.3796
2.6721 -7.0435 2.3796
2.8981 -6.8785 2.3796
3.1169 -6.7084 2.3796
3.3285 -6.5333 2.3796
3.5328 -6.3537 2.3796
3.7298 -6.1696 2.3796
3.9195 -5.9814 2.3796
4.1021 -5.7893 2.3796
4.2774 -5.5935 2.3796
4.4455 -5.3943 2.3796
4.6064 -5.1917 2.3796
4.7603 -4.9861 2.3796
4.9069 -4.7776 2.3796
5.0466 -4.5664 2.3796
5.1791 -4.3527 2.3796
5.3047 -4.1366 2.3796
5.4232 -3.9182 2.3796
5.5349 -3.6979 2.3796
5.6396 -3.4756 2.3796
5.7374 -3.2516 2.3796
5.8284 -3.0259 2.3796
5.9126 -2.7988 2.3796
5.9899 -2.5702 2.3796
6.0605 -2.3405 2.3796
6.1244 -2.1095 2.3796
6.1815 -1.8777 2.3796
6.2319 -1.6449 2.3796
6.2757 -1.4114 2.3796
6.3128 -1.1772 2.3796
6.3432 -0.9424 2.3796
6.3670 -0.7071 2.3796
6.3842 -0.4716 2.3796
6.3947 -0.2357 2.3796
6.3986 0.0003 2.3796
6.3959 0.2363 2.3796
6.3866 0.4722 2.3796
6.3706 0.7080 2.3796
6.3480 0.9436 2.3796
6.3187 1.1787 2.3796
6.2827 1.4134 2.3796
6.2401 1.6475 2.3796
6.1908 1.8808 2.3796
5.7418 1.9781 2.2272
5.6830 2.1949 2.2272
5.6178 2.4107 2.2272
5.5463 2.6255 2.2272
5.4684 2.8390 2.2272
5.3840 3.0512 2.2272
5.2932 3.2619 2.2272
5.1959 3.4711 2.2272
5.0921 3.6785 2.2272
4.9817 3.8841 2.2272
4.5998 3.8650 2.1060
4.3469 3.9325 2.0421
4.6107 4.4881 2.2272
4.4737 4.6847 2.2272
4.3300 4.8786 2.2272
4.1795 5.0696 2.2272
4.0222 5.2577 2.2272
3.8581 5.4425 2.2272
3.6872 5.6239 2.2272
3.5094 5.8017 2.2272
3.3247 5.9756 2.2272
3.1331 6.1454 2.2272
2.9347 6.3109 2.2272
2.7293 6.4718 2.2272
2.5171 6.6278 2.2272
2.2980 6.7788 2.2272
2.0721 6.9243 2.2272
0.8386 3.2207 1.0154
0.7228 3.2520 1.0062
0.6060 3.2791 0.9969
0.4882 3.3019 0.9876
0.3697 3.3204 0.9781
0.2505 3.3346 0.9686
0.1310 3.3445 0.9591
0.0111 3.3500 0.9495
-0.1089 3.3512 0.9399
-0.2288 3.3480 0.9303
-0.3486 3.3404 0.9208
-0.4680 3.3285 0.9112
-0.5869 3.3123 0.9017
-0.7052 3.2918 0.8922
-0.8226 3.2670 0.8828
-0.9391 3.2379 0.8734
-2.9035 8.8244 2.3796
-3.2520 8.8148 2.3796
-3.6036 8.7922 2.3796
-3.9578 8.7563 2.3796
-7.0928 -6.6071 2.3796
-6.7958 -6.7941 2.3796
-6.4934 -6.9674 2.3796
-6.1863 -7.1269 2.3796
-5.8754 -7.2728 2.3796
-5.5613 -7.4051 2.3796
-5.2446 -7.5238 2.3796
-4.9262 -7.6292 2.3796
-4.6067 -7.7213 2.3796
-4.2867 -7.8004 2.3796
-3.9667 -7.8667 2.3796
-3.6473 -7.9205 2.3796
-3.3291 -7.9619 2.3796
-3.0126 -7.9913 2.3796
-2.6983 -8.0090 2.3796
-2.3865 -8.0153 2.3796
-2.0777 -8.0105 2.3796
-1.7723 -7.9949 2.3796
-1.4706 -7.9689 2.3796
-1.1731 -7.9328 2.3796
-0.8798 -7.8869 2.3796
-0.5913 -7.8316 2.3796
-0.3076 -7.7672 2.3796
-0.0291 -7.6941 2.3796
0.2442 -7.6125 2.3796
0.5118 -7.5229 2.3796
0.7738 -7.4255 2.3796
1.0299 -7.3207 2.3796
1.2801 -7.2088 2.3796
1.5241 -7.0900 2.3796
1.7620 -6.9647 2.3796
1.9935 -6.8332 2.3796
2.2187 -6.6957 2.3796
2.4375 -6.5526 2.3796
2.6497 -6.4041 2.3796
2.8555 -6.2504 2.3796
3.0546 -6.0919 2.3796
3.2472 -5.9288 2.3796
3.4332 -5.7612 2.3796
3.6125 -5.5895 2.3796
3.7852 -5.4138 2.3796
3.9512 -5.2344 2.3796
4.1107 -5.0514 2.3796
4.2634 -4.8651 2.3796
4.4096 -4.6757 2.3796
4.5492 -4.4833 2.3796
4.6821 -4.2881 2.3796
4.8085 -4.0903 2.3796
4.9283 -3.8901 2.3796
5.0415 -3.6876 2.3796
5.1483 -3.4829 2.3796
5.2485 -3.2763 2.3796
5.3422 -3.0678 2.3796
5.4295 -2.8576 2.3796
5.5103 -2.6459 2.3796
5.5847 -2.4327 2.3796
5.6527 -2.2183 2.3796
5.7143 -2.0026 2.3796
5.7695 -1.7860 2.3796
5.8183 -1.5682 2.3796
5.8608 -1.3498 2.3796
5.8969 -1.1305 2.3796
5.9267 -0.9108 2.3796
5.9501 -0.6905 2.3796
5.9673 -0.4699 2.3796
5.9781 -0.2490 2.3796
5.9826 -0.0279 2.3796
5.9808 0.1932 2.3796
5.9726 0.4143 2.3796
5.9581 0.6352 2.3796
5.9373 0.8558 2.3796
5.9102 1.0760 2.3796
5.8767 1.2957 2.3796
5.8368 1.5149 2.3796
5.7906 1.7333 2.3796
5.5500 1.8869 2.3017
5.3152 2.0286 2.2272
5.2540 2.2303 2.2272
5.1867 2.4309 2.2272
5.1133 2.6302 2.2272
5.0339 2.8282 2.2272
4.9483 3.0247 2.2272
4.8567 3.2195 2.2272
4.7589 3.4125 2.2272
4.6550 3.6037 2.2272
4.5449 3.7928 2.2272
4.3563 3.9147 2.1909
4.3060 4.1642 2.2272
4.1773 4.3461 2.2272
4.0422 4.5254 2.2272
3.9009 4.7019 2.2272
3.7534 4.8752 2.2272
3.5995 5.0454 2.2272
3.4394 5.2121 2.2272
3.2730 5.3752 2.2272
3.1003 5.5344 2.2272
2.9213 5.6896 2.2272
2.7361 5.8406 2.2272
2.5446 5.9870 2.2272
2.3469 6.1286 2.2272
2.1431 6.2653 2.2272
1.9331 6.3967 2.2272
0.7789 2.9588 1.0103
0.6725 2.9880 1.0019
0.5652 3.0134 0.9933
0.4569 3.0349 0.9847
0.3480 3.0524 0.9760
0.2384 3.0659 0.9673
0.1285 3.0755 0.9585
0.0183 3.0811 0.9497
-0.0921 3.0826 0.9409
-0.2024 3.0802 0.9321
-0.3126 3.0738 0.9233
-0.4225 3.0633 0.9145
-0.5320 3.0489 0.9057
-0.6408 3.0305 0.8970
-0.7489 3.0082 0.8883
-0.8562 2.9820 0.8797
-0.9624 2.9519 0.8712
-2.9443 8.0482 2.3796
-3.2621 8.0216 2.3796
-3.5816 7.9830 2.3796
-3.9024 7.9321 2.3796
-4.2239 7.8685 2.3796
-4.5456 7.7920 2.3796
-4.8668 7.7024 2.3796
-5.1870 7.5995 2.3796
-5.5054 7.4832 2.3796
-5.8214 7.3532 2.3796
-6.1344 7.2095 2.3796
-6.4435 7.0520 2.3796
-6.7479 6.8808 2.3796
-7.0552 -6.6318 2.3796
-6.7574 -6.8170 2.3796
-6.4544 -6.9885 2.3796
-6.1468 -7.1464 2.3796
-5.8354 -7.2905 2.3796
-5.5209 -7.4210 2.3796
-5.2040 -7.5380 2.3796
-4.8854 -7.6417 2.3796
-4.5658 -7.7321 2.3796
-4.2457 -7.8096 2.3796
-3.9258 -7.8743 2.3796
-3.6065 -7.9264 2.3796
-3.2885 -7.9663 2.3796
-2.9723 -7.9942 2.3796
-2.6582 -8.0104 2.3796
-2.3468 -8.0153 2.3796
-2.0384 -8.0091 2.3796
-1.7335 -7.9921 2.3796
-1.4323 -7.9648 2.3796
-1.1353 -7.9275 2.3796
-0.8427 -7.8804 2.3796
-0.5547 -7.8239 2.3796
-0.2717 -7.7584 2.3796
0.0062 -7.6841 2.3796
0.2787 -7.6015 2.3796
0.5457 -7.5109 2.3796
0.8069 -7.4125 2.3796
1.0623 -7.3068 2.3796
1.3116 -7.1939 2.3796
1.5549 -7.0743 2.3796
1.7920 -6.9482 2.3796
2.0227 -6.8159 2.3796
2.2471 -6.6777 2.3796
2.4650 -6.5339 2.3796
2.6764 -6.3847 2.3796
2.8813 -6.2304 2.3796
3.0796 -6.0713 2.3796
3.2714 -5.9076 2.3796
3.4565 -5.7395 2.3796
3.6350 -5.5672 2.3796
3.8068 -5.3910 2.3796
3.9720 -5.2111 2.3796
4.1306 -5.0278 2.3796
4.2825 -4.8411 2.3796
4.4278 -4.6512 2.3796
4.5665 -4.4585 2.3796
4.6986 -4.2630 2.3796
4.8242 -4.0648 2.3796
4.9431 -3.8643 2.3796
5.0556 -3.6615 2.3796
5.1615 -3.4566 2.3796
5.2609 -3.2497 2.3796
5.3538 -3.0410 2.3796
5.4402 -2.8306 2.3796
5.5202 -2.6187 2.3796
5.5938 -2.4054 2.3796
5.6609 -2.1908 2.3796
5.7217 -1.9749 2.3796
5.7761 -1.7581 2.3796
5.8241 -1.5403 2.3796
5.8657 -1.3218 2.3796
5.9010 -1.1024 2.3796
5.9300 -0.8826 2.3796
5.9527 -0.6623 2.3796
5.9690 -0.4416 2.3796
5.9790 -0.2207 2.3796
5.9827 0.0004 2.3796
5.9801 0.2215 2.3796
5.9711 0.4425 2.3796
5.9558 0.6634 2.3796
5.9342 0.8840 2.3796
5.9063 1.1042 2.3796
5.8720 1.3238 2.3796
5.8313 1.5429 2.3796
5.7842 1.7611 2.3796
5.4914 1.8959 2.2802
5.3077 2.0545 2.2272
5.2457 2.2561 2.2272
5.1776 2.4565 2.2272
5.1035 2.6557 2.2272
5.0233 2.8534 2.2272
4.9370 3.0497 2.2272
4.8445 3.2443 2.2272
4.7460 3.4371 2.2272
4.6412 3.6280 2.2272
4.5303 3.8168 2.2272
4.3431 3.9398 2.1919
4.2899 4.1876 2.2272
4.1603 4.3692 2.2272
4.0245 4.5482 2.2272
3.8824 4.7242 2.2272
3.7341 4.8972 2.2272
3.5794 5.0669 2.2272
3.4185 5.2332 2.2272
3.2512 5.3958 2.2272
3.0777 5.5545 2.2272
2.8980 5.7092 2.2272
2.7119 5.8595 2.2272
2.5197 6.0053 2.2272
2.3212 6.1464 2.2272
2.1166 6.2824 2.2272
1.9058 6.4131 2.2272
0.7654 2.9628 1.0093
0.6589 2.9915 1.0008
0.5514 3.0164 0.9922
0.4430 3.0373 0.9836
0.3340 3.0543 0.9749
0.2244 3.0674 0.9662
0.1144 3.0764 0.9574
0.0042 3.0815 0.9486
-0.1062 3.0826 0.9398
-0.2165 3.0796 0.9310
-0.3267 3.0727 0.9221
-0.4365 3.0617 0.9134
-0.5459 3.0468 0.9046
-0.6547 3.0279 0.8959
-0.7627 3.0051 0.8872
-0.8698 2.9783 0.8786
-0.9759 2.9477 0.8701
-2.9848 8.0454 2.3796
-3.3029 8.0174 2.3796
-3.6226 7.9772 2.3796
-3.9435 7.9246 2.3796
-4.2650 7.8594 2.3796
-4.5867 7.7813 2.3796
-4.9078 7.6900 2.3796
-5.2278 7.5854 2.3796
-5.5460 7.4673 2.3796
-5.8617 7.3356 2.3796
-6.1741 7.1901 2.3796
-6.4827 7.0309 2.3796
-6.7865 6.8578 2.3796
-7.0174 -6.6563 2.3796
-6.7189 -6.8397 2.3796
-6.4153 -7.0095 2.3796
-6.1071 -7.1656 2.3796
-5.7953 -7.3080 2.3796
-5.4805 -7.4367 2.3796
-9.5392 -1.4493 2.3796
-9.4615 -1.7794 2.3796
-9.3686 -2.1050 2.3796
-9.2608 -2.4253 2.3796
-9.1383 -2.7396 2.3796
-9.0018 -3.0471 2.3796
-8.8517 -3.3473 2.3796
-8.6884 -3.6394 2.3796
-8.5126 -3.9229 2.3796
-8.3248 -4.1972 2.3796
-8.1257 -4.4618 2.3796
-7.9159 -4.7163 2.3796
-7.6960 -4.9602 2.3796
-7.4668 -5.1933 2.3796
-7.2289 -5.4150 2.3796
-6.9829 -5.6253 2.3796
-6.7297 -5.8239 2.3796
-6.4699 -6.0106 2.3796
-6.2041 -6.1852 2.3796
-5.9331 -6.3477 2.3796
-5.6575 -6.4981 2.3796
-5.3780 -6.6362 2.3796
-5.0952 -6.7622 2.3796
-4.8097 -6.8760 2.3796
-4.5221 -6.9778 2.3796
-4.2330 -7.0677 2.3796
-3.9431 -7.1458 2.3796
-3.6527 -7.2123 2.3796
-3.3624 -7.2673 2.3796
-3.0727 -7.3111 2.3796
-2.7841 -7.3440 2.3796
-2.4970 -7.3660 2.3796
-2.2118 -7.3775 2.3796
-1.9290 -7.3788 2.3796
-1.6488 -7.3700 2.3796
-1.3716 -7.3516 2.3796
-1.0977 -7.3237 2.3796
-0.8274 -7.2867 2.3796
-0.5611 -7.2408 2.3796
-0.2989 -7.1864 2.3796
-0.0411 -7.1237 2.3796
0.2122 -7.0530 2.3796
0.4606 -6.9746 2.3796
0.7041 -6.8888 2.3796
0.9424 -6.7959 2.3796
1.1755 -6.6962 2.3796
1.4032 -6.5899 2.3796
1.6253 -6.4773 2.3796
1.8419 -6.3586 2.3796
2.0527 -6.2342 2.3796
2.2577 -6.1043 2.3796
2.4569 -5.9692 2.3796
2.6501 -5.8289 2.3796
2.8373 -5.6839 2.3796
3.0186 -5.5344 2.3796
3.1937 -5.3805 2.3796
3.3628 -5.2224 2.3796
3.5258 -5.0605 2.3796
3.6826 -4.8948 2.3796
3.8333 -4.7256 2.3796
3.9778 -4.5530 2.3796
4.1162 -4.3773 2.3796
4.2484 -4.1987 2.3796
4.3744 -4.0172 2.3796
4.4943 -3.8331 2.3796
4.6080 -3.6466 2.3796
4.7155 -3.4577 2.3796
4.8169 -3.2667 2.3796
4.9122 -3.0736 2.3796
5.0014 -2.8787 2.3796
5.0844 -2.6821 2.3796
5.1613 -2.4838 2.3796
5.2322 -2.2841 2.3796
5.2969 -2.0831 2.3796
5.3556 -1.8809 2.3796
5.4082 -1.6775 2.3796
5.4547 -1.4732 2.3796
5.4951 -1.2678 2.3796
5.5296 -1.0623 2.3796
5.5580 -0.8559 2.3796
5.5804 -0.6489 2.3796
5.5967 -0.4415 2.3796
5.6070 -0.2339 2.3796
5.6112 -0.0261 2.3796
5.6095 0.1817 2.3796
5.6016 0.3895 2.3796
5.5878 0.5970 2.3796
5.5679 0.8043 2.3796
5.5420 1.0112 2.3796
5.5100 1.2176 2.3796
5.4719 1.4233 2.3796
5.4278 1.6283 2.3796
5.3776 1.8324 2.3796
5.0904 1.9472 2.2764
4.9221 2.0942 2.2272
4.8579 2.2821 2.2272
4.7880 2.4687 2.2272
4.7124 2.6539 2.2272
4.6310 2.8376 2.2272
4.5438 3.0196 2.2272
4.4509 3.1998 2.2272
4.3521 3.3780 2.2272
4.2475 3.5542 2.2272
4.1372 3.7281 2.2272
4.0210 3.8996 2.2272
3.8989 4.0686 2.2272
3.7711 4.2349 2.2272
3.6374 4.3983 2.2272
3.4979 4.5586 2.2272
3.3525 4.7157 2.2272
3.2014 4.8694 2.2272
3.0445 5.0195 2.2272
2.8818 5.1657 2.2272
2.7133 5.3080 2.2272
2.5391 5.4460 2.2272
2.3592 5.5796 2.2272
2.1738 5.7086 2.2272
1.9827 5.8326 2.2272
0.8121 2.7060 1.0126
0.7147 2.7365 1.0049
0.6163 2.7636 0.9971
0.5170 2.7870 0.9892
0.4169 2.8068 0.9812
0.3162 2.8230 0.9732
0.2149 2.8355 0.9651
0.1132 2.8444 0.9570
0.0112 2.8495 0.9489
-0.0908 2.8509 0.9407
-0.1929 2.8487 0.9325
-0.2948 2.8427 0.9244
-0.3964 2.8331 0.9163
-0.4976 2.8197 0.9082
-0.5983 2.8027 0.9001
-0.6983 2.7821 0.8921
-0.7975 2.7578 0.8841
-0.8957 2.7300 0.8762
-2.7207 7.3946 2.3796
-3.0104 7.3644 2.3796
-3.3013 7.3232 2.3796
-3.5928 7.2706 2.3796
-3.8846 7.2066 2.3796
-4.1760 7.1309 2.3796
-4.4666 7.0433 2.3796
-4.7558 6.9438 2.3796
-5.0429 6.8321 2.3796
-5.3275 6.7082 2.3796
-5.6087 6.5721 2.3796
-5.8862 6.4237 2.3796
-6.1590 6.2630 2.3796
-6.4267 6.0901 2.3796
-6.6885 5.9050 2.3796
-6.9437 5.7080 2.3796
-7.1916 5.4992 2.3796
-7.4315 5.2788 2.3796
-7.6627 5.0470 2.3796
-7.8846 4.8043 2.3796
-8.0965 4.5509 2.3796
-8.2977 4.2873 2.3796
-8.4875 4.0140 2.3796
-8.6654 3.7313 2.3796
-8.8307 3.4400 2.3796
-8.9829 3.1405 2.3796
-9.1214 2.8336 2.3796
-9.2459 2.5198 2.3796
-9.3558 2.2000 2.3796
-9.4507 1.8748 2.3796
-9.5303 1.5450 2.3796
-9.5944 1.2115 2.3796
-9.6426 0.8750 2.3796
-9.6748 0.5364 2.3796
-9.6910 0.1966 2.3796
-9.6909 -0.1437 2.3796
-9.6747 -0.4835 2.3796
-9.6424 -0.8220 2.3796
-9.5942 -1.1584 2.3796
-9.5301 -1.4918 2.3796
-9.4505 -1.8213 2.3796
-9.3556 -2.1463 2.3796
-9.2459 -2.4659 2.3796
-9.1217 -2.7793 2.3796
-8.9834 -3.0859 2.3796
-8.8315 -3.3851 2.3796
-8.6666 -3.6762 2.3796
-8.4892 -3.9585 2.3796
-8.2999 -4.2316 2.3796
-8.0994 -4.4950 2.3796
-7.8883 -4.7481 2.3796
-7.6672 -4.9907 2.3796
-7.4368 -5.2223 2.3796
-7.1978 -5.4426 2.3796
-6.9509 -5.6514 2.3796
-6.6968 -5.8485 2.3796
-6.4362 -6.0336 2.3796
-6.1697 -6.2067 2.3796
-5.8981 -6.3677 2.3796
-5.6220 -6.5164 2.3796
-5.3420 -6.6530 2.3796
-5.0588 -6.7774 2.3796
-4.7730 -6.8897 2.3796
-4.4852 -6.9900 2.3796
-4.1960 -7.0784 2.3796
-3.9059 -7.1550 2.3796
-3.6155 -7.2200 2.3796
-3.3253 -7.2736 2.3796
-3.0357 -7.3159 2.3796
-2.7473 -7.3474 2.3796
-2.4604 -7.3680 2.3796
-2.1755 -7.3782 2.3796
-1.8930 -7.3782 2.3796
-1.6131 -7.3682 2.3796
-1.3363 -7.3485 2.3796
-1.0629 -7.3195 2.3796
-0.7931 -7.2812 2.3796
-0.5273 -7.2343 2.3796
-0.2657 -7.1788 2.3796
-0.0084 -7.1150 2.3796
0.2442 -7.0434 2.3796
0.4920 -6.9640 2.3796
0.7348 -6.8773 2.3796
0.9725 -6.7835 2.3796
1.2049 -6.6829 2.3796
1.4319 -6.5758 2.3796
1.6533 -6.4624 2.3796
1.8691 -6.3431 2.3796
2.0792 -6.2179 2.3796
2.2835 -6.0873 2.3796
2.4819 -5.9515 2.3796
2.6744 -5.8107 2.3796
2.8609 -5.6651 2.3796
3.0413 -5.5149 2.3796
3.2157 -5.3605 2.3796
3.3840 -5.2019 2.3796
3.5462 -5.0395 2.3796
3.7022 -4.8733 2.3796
3.8521 -4.7037 2.3796
3.9959 -4.5307 2.3796
4.1334 -4.3547 2.3796
4.2648 -4.1756 2.3796
4.3901 -3.9938 2.3796
4.5092 -3.8094 2.3796
4.6221 -3.6225 2.3796
4.7288 -3.4334 2.3796
4.8295 -3.2421 2.3796
4.9240 -3.0488 2.3796
5.0123 -2.8536 2.3796
5.0946 -2.6568 2.3796
5.1707 -2.4584 2.3796
5.2408 -2.2584 2.3796
5.3047 -2.0573 2.3796
5.3626 -1.8549 2.3796
5.4145 -1.6514 2.3796
5.4602 -1.4470 2.3796
5.4997 -1.2411 2.3796
5.5336 -1.0359 2.3796
5.5612 -0.8294 2.3796
5.5828 -0.6223 2.3796
5.5983 -0.4149 2.3796
5.6079 -0.2073 2.3796
5.6113 0.0005 2.3796
5.6088 0.2083 2.3796
5.6002 0.4160 2.3796
5.5856 0.6236 2.3796
5.5649 0.8308 2.3796
5.5382 1.0376 2.3796
5.5054 1.2439 2.3796
5.4666 1.4496 2.3796
5.4217 1.6544 2.3796
5.3707 1.8584 2.3796
5.0479 1.9583 2.2606
4.9142 2.1183 2.2272
4.8493 2.3061 2.2272
4.7787 2.4925 2.2272
4.7023 2.6775 2.2272
4.6202 2.8610 2.2272
4.5322 3.0427 2.2272
4.4385 3.2227 2.2272
4.3391 3.4007 2.2272
4.2337 3.5765 2.2272
4.1226 3.7502 2.2272
4.0057 3.9214 2.2272
3.8829 4.0900 2.2272
3.7543 4.2559 2.2272
3.6199 4.4189 2.2272
3.4796 4.5789 2.2272
3.3335 4.7355 2.2272
3.1816 4.8888 2.2272
3.0240 5.0384 2.2272
2.8605 5.1842 2.2272
2.6913 5.3259 2.2272
2.5164 5.4634 2.2272
2.3358 5.5964 2.2272
2.1496 5.7247 2.2272
1.9579 5.8482 2.2272
0.7997 2.7101 1.0117
0.7022 2.7402 1.0039
0.6037 2.7668 0.9961
0.5043 2.7897 0.9882
0.4041 2.8091 0.9802
0.3032 2.8248 0.9721
0.2019 2.8369 0.9641
0.1001 2.8452 0.9560
-0.0018 2.8499 0.9478
-0.1039 2.8509 0.9397
-0.2059 2.8481 0.9315
-0.3078 2.8417 0.9234
-0.4094 2.8316 0.9152
-0.5105 2.8177 0.9071
-0.6111 2.8003 0.8991
-0.7110 2.7792 0.8911
-0.8101 2.7545 0.8831
-0.9082 2.7262 0.8752
-2.7577 7.3913 2.3796
-3.0475 7.3597 2.3796
-3.3385 7.3171 2.3796
-3.6301 7.2631 2.3796
-3.9219 7.1976 2.3796
-4.2133 7.1204 2.3796
-4.5037 7.0312 2.3796
-4.7926 6.9302 2.3796
-5.0795 6.8169 2.3796
-5.3636 6.6915 2.3796
-5.6445 6.5538 2.3796
-5.9213 6.4038 2.3796
-6.1936 6.2415 2.3796
-6.4605 6.0671 2.3796
-6.7215 5.8805 2.3796
-6.9758 5.6820 2.3796
-7.2227 5.4716 2.3796
-7.4616 5.2498 2.3796
-7.6917 5.0166 2.3796
-7.9123 4.7725 2.3796
-8.1228 4.5178 2.3796
-8.3226 4.2529 2.3796
-8.5109 3.9783 2.3796
-8.6872 3.6945 2.3796
-8.8509 3.4021 2.3796
-9.0014 3.1017 2.3796
-9.1381 2.7938 2.3796
-9.2608 2.4792 2.3796
-9.3687 2.1587 2.3796
-9.4617 1.8329 2.3796
-9.5394 1.5026 2.3796
-9.6014 1.1686 2.3796
-9.6476 0.8318 2.3796
-9.6778 0.4930 2.3796
-9.6919 0.1530 2.3796
-9.6898 -0.1872 2.3796
-9.6715 -0.5269 2.3796
-9.6371 -0.8652 2.3796
-9.5868 -1.2012 2.3796
-9.5208 -1.5342 2.3796
-9.4392 -1.8632 2.3796
-9.3424 -2.1875 2.3796
-9.2308 -2.5063 2.3796
-9.1047 -2.8189 2.3796
-8.9647 -3.1247 2.3796
-8.8111 -3.4228 2.3796
-8.6446 -3.7128 2.3796
-8.4656 -3.9940 2.3796
-8.2749 -4.2658 2.3796
-8.0730 -4.5279 2.3796
-7.8605 -4.7797 2.3796
-7.6382 -5.0209 2.3796
-7.4067 -5.2511 2.3796
-7.1667 -5.4699 2.3796
-6.9188 -5.6773 2.3796
-6.6638 -5.8728 2.3796
-6.4024 -6.0564 2.3796
-6.1353 -6.2280 2.3796
-5.8630 -6.3874 2.3796
-5.5863 -6.5346 2.3796
-5.3059 -6.6696 2.3796
-5.0224 -6.7924 2.3796
-8.6928 -1.3179 2.3796
-8.6238 -1.6184 2.3796
-8.5411 -1.9150 2.3796
-8.4451 -2.2070 2.3796
-8.3361 -2.4937 2.3796
-8.2144 -2.7746 2.3796
-8.0805 -3.0490 2.3796
-7.9347 -3.3164 2.3796
-7.7776 -3.5762 2.3796
-7.6097 -3.8280 2.3796
-7.4315 -4.0713 2.3796
-7.2435 -4.3056 2.3796
-7.0464 -4.5307 2.3796
-6.8405 -4.7461 2.3796
-6.6267 -4.9516 2.3796
-6.4054 -5.1468 2.3796
-6.1773 -5.3317 2.3796
-5.9429 -5.5059 2.3796
-5.7029 -5.6695 2.3796
-5.4578 -5.8221 2.3796
-5.2083 -5.9639 2.3796
-4.9548 -6.0947 2.3796
-4.6981 -6.2145 2.3796
-4.4386 -6.3233 2.3796
-4.1768 -6.4213 2.3796
-3.9133 -6.5084 2.3796
-3.6486 -6.5849 2.3796
-3.3832 -6.6506 2.3796
-3.1175 -6.7060 2.3796
-2.8520 -6.7510 2.3796
-2.5872 -6.7859 2.3796
-2.3233 -6.8109 2.3796
-2.0609 -6.8261 2.3796
-1.8002 -6.8318 2.3796
-1.5416 -6.8282 2.3796
-1.2855 -6.8156 2.3796
-1.0322 -6.7941 2.3796
-0.7818 -6.7641 2.3796
-0.5348 -6.7257 2.3796
-0.2913 -6.6793 2.3796
-0.0516 -6.6250 2.3796
0.1842 -6.5632 2.3796
0.4157 -6.4941 2.3796
0.6429 -6.4179 2.3796
0.8655 -6.3349 2.3796
1.0835 -6.2454 2.3796
1.2967 -6.1495 2.3796
1.5049 -6.0476 2.3796
1.7080 -5.9399 2.3796
1.9060 -5.8266 2.3796
2.0987 -5.7079 2.3796
2.2861 -5.5842 2.3796
2.4681 -5.4555 2.3796
2.6446 -5.3221 2.3796
2.8156 -5.1843 2.3796
2.9810 -5.0422 2.3796
3.1408 -4.8960 2.3796
3.2949 -4.7460 2.3796
3.4433 -4.5923 2.3796
3.5861 -4.4352 2.3796
3.7230 -4.2747 2.3796
3.8543 -4.1111 2.3796
3.9797 -3.9445 2.3796
4.0994 -3.7751 2.3796
4.2133 -3.6031 2.3796
4.3214 -3.4287 2.3796
4.4237 -3.2519 2.3796
4.5202 -3.0730 2.3796
4.6109 -2.8920 2.3796
4.6958 -2.7092 2.3796
4.7749 -2.5246 2.3796
4.8482 -2.3384 2.3796
4.9157 -2.1507 2.3796
4.9775 -1.9617 2.3796
5.0334 -1.7715 2.3796
5.0836 -1.5801 2.3796
5.1280 -1.3879 2.3796
5.1667 -1.1947 2.3796
5.1995 -1.0008 2.3796
5.2266 -0.8063 2.3796
5.2479 -0.6113 2.3796
5.2635 -0.4160 2.3796
5.2733 -0.2203 2.3796
5.2773 -0.0245 2.3796
5.2756 0.1713 2.3796
5.2681 0.3671 2.3796
5.2549 0.5627 2.3796
5.2358 0.7581 2.3796
5.2110 0.9529 2.3796
5.1804 1.1473 2.3796
5.1441 1.3410 2.3796
5.1019 1.5340 2.3796
5.0539 1.7260 2.3796
5.0002 1.9170 2.3796
4.7417 2.0221 2.2838
4.5630 2.1486 2.2272
4.4963 2.3239 2.2272
4.4242 2.4977 2.2272
4.3467 2.6700 2.2272
4.2636 2.8405 2.2272
4.1751 3.0093 2.2272
4.0812 3.1761 2.2272
3.9817 3.3408 2.2272
3.8768 3.5033 2.2272
3.7664 3.6634 2.2272
3.6506 3.8209 2.2272
3.5293 3.9757 2.2272
3.4025 4.1277 2.2272
3.2704 4.2766 2.2272
3.1328 4.4224 2.2272
2.9898 4.5647 2.2272
2.8415 4.7035 2.2272
2.6878 4.8385 2.2272
2.5288 4.9696 2.2272
2.3646 5.0966 2.2272
2.1952 5.2192 2.2272
2.0207 5.3373 2.2272
0.8386 2.4827 1.0145
0.7492 2.5143 1.0074
0.6588 2.5427 1.0002
0.5673 2.5678 0.9929
0.4750 2.5895 0.9856
0.3820 2.6079 0.9782
0.2884 2.6229 0.9707
0.1943 2.6346 0.9632
0.0998 2.6428 0.9557
0.0051 2.6475 0.9481
-0.0897 2.6489 0.9405
-0.1845 2.6467 0.9329
-0.2792 2.6412 0.9254
-0.3737 2.6322 0.9178
-0.4677 2.6198 0.9103
-0.5612 2.6040 0.9028
-0.6541 2.5848 0.8953
-0.7463 2.5623 0.8880
-0.8375 2.5365 0.8806
-0.9278 2.5073 0.8734
-2.7939 6.7990 2.3796
-3.0605 6.7563 2.3796
-3.3273 6.7033 2.3796
-3.5940 6.6397 2.3796
-3.8600 6.5655 2.3796
-4.1248 6.4805 2.3796
-4.3880 6.3846 2.3796
-4.6491 6.2777 2.3796
-4.9074 6.1598 2.3796
-5.1624 6.0308 2.3796
-5.4137 5.8908 2.3796
-5.6604 5.7399 2.3796
-5.9022 5.5780 2.3796
-6.1384 5.4052 2.3796
-6.3683 5.2218 2.3796
-6.5914 5.0279 2.3796
-6.8071 4.8237 2.3796
-7.0148 4.6095 2.3796
-7.2139 4.3856 2.3796
-7.4038 4.1523 2.3796
-7.5839 3.9100 2.3796
-7.7537 3.6591 2.3796
-7.9127 3.4001 2.3796
-8.0604 3.1335 2.3796
-8.1963 2.8597 2.3796
-8.3199 2.5794 2.3796
-8.4309 2.2932 2.3796
-8.5288 2.0017 2.3796
-8.6134 1.7054 2.3796
-8.6843 1.4053 2.3796
-8.7414 1.1018 2.3796
-8.7843 0.7958 2.3796
-8.8131 0.4879 2.3796
-8.8275 0.1789 2.3796
-8.8275 -0.1305 2.3796
-8.8132 -0.4394 2.3796
-8.7845 -0.7472 2.3796
-8.7417 -1.0532 2.3796
-8.6848 -1.3565 2.3796
-8.6140 -1.6566 2.3796
-8.5296 -1.9526 2.3796
-8.4319 -2.2440 2.3796
-8.3212 -2.5300 2.3796
-8.1979 -2.8101 2.3796
-8.0625 -3.0837 2.3796
-7.9152 -3.3501 2.3796
-7.7568 -3.6089 2.3796
-7.5875 -3.8596 2.3796
-7.4080 -4.1018 2.3796
-7.2188 -4.3350 2.3796
-7.0205 -4.5588 2.3796
-6.8136 -4.7729 2.3796
-6.5988 -4.9771 2.3796
-6.3766 -5.1711 2.3796
-6.1476 -5.3546 2.3796
-5.9125 -5.5275 2.3796
-5.6718 -5.6896 2.3796
-5.4261 -5.8409 2.3796
-5.1761 -5.9812 2.3796
-4.9222 -6.1106 2.3796
-4.6650 -6.2290 2.3796
-4.4052 -6.3365 2.3796
-4.1432 -6.4331 2.3796
-3.8795 -6.5188 2.3796
-3.6147 -6.5939 2.3796
-3.3492 -6.6583 2.3796
-3.0835 -6.7123 2.3796
-2.8181 -6.7560 2.3796
-2.5533 -6.7897 2.3796
-2.2896 -6.8134 2.3796
-2.0274 -6.8274 2.3796
-1.7670 -6.8319 2.3796
-1.5087 -6.8271 2.3796
-1.2530 -6.8133 2.3796
-0.9999 -6.7907 2.3796
-0.7500 -6.7596 2.3796
-0.5035 -6.7203 2.3796
-0.2604 -6.6728 2.3796
-0.0212 -6.6175 2.3796
0.2140 -6.5548 2.3796
0.4450 -6.4847 2.3796
0.6716 -6.4077 2.3796
0.8937 -6.3238 2.3796
1.1111 -6.2335 2.3796
1.3236 -6.1368 2.3796
1.5311 -6.0342 2.3796
1.7336 -5.9257 2.3796
1.9310 -5.8117 2.3796
2.1230 -5.6924 2.3796
2.3097 -5.5680 2.3796
2.4910 -5.4387 2.3796
2.6668 -5.3047 2.3796
2.8371 -5.1663 2.3796
3.0018 -5.0237 2.3796
3.1608 -4.8771 2.3796
3.3142 -4.7266 2.3796
3.4619 -4.5724 2.3796
3.6039 -4.4148 2.3796
3.7401 -4.2539 2.3796
3.8706 -4.0899 2.3796
3.9954 -3.9230 2.3796
4.1143 -3.7533 2.3796
4.2274 -3.5810 2.3796
4.3348 -3.4062 2.3796
4.4363 -3.2291 2.3796
4.5321 -3.0499 2.3796
4.6221 -2.8687 2.3796
4.7062 -2.6856 2.3796
4.7846 -2.5009 2.3796
4.8572 -2.3145 2.3796
4.9240 -2.1266 2.3796
4.9850 -1.9375 2.3796
5.0402 -1.7471 2.3796
5.0896 -1.5556 2.3796
5.1333 -1.3632 2.3796
5.1712 -1.1699 2.3796
5.2033 -0.9760 2.3796
5.2297 -0.7814 2.3796
5.2502 -0.5864 2.3796
5.2651 -0.3909 2.3796
5.2742 -0.1953 2.3796
5.2774 0.0005 2.3796
5.2750 0.1964 2.3796
5.2667 0.3922 2.3796
5.2528 0.5877 2.3796
5.2330 0.7831 2.3796
5.2074 0.9778 2.3796
5.1761 1.1721 2.3796
5.1390 1.3657 2.3796
5.0961 1.5586 2.3796
5.0474 1.7505 2.3796
4.9929 1.9414 2.3796
4.7063 2.0334 2.2705
4.5548 2.1711 2.2272
4.4874 2.3462 2.2272
4.4146 2.5198 2.2272
4.3363 2.6919 2.2272
4.2526 2.8622 2.2272
4.1634 3.0308 2.2272
4.0687 3.1973 2.2272
3.9686 3.3617 2.2272
3.8630 3.5240 2.2272
3.7519 3.6837 2.2272
3.6354 3.8409 2.2272
3.5134 3.9954 2.2272
3.3859 4.1469 2.2272
3.2531 4.2955 2.2272
3.1148 4.4408 2.2272
2.9711 4.5827 2.2272
2.8221 4.7210 2.2272
2.6678 4.8555 2.2272
2.5081 4.9861 2.2272
2.3433 5.1125 2.2272
2.1732 5.2346 2.2272
1.9980 5.3521 2.2272
0.8272 2.4869 1.0136
0.7377 2.5181 1.0065
0.6471 2.5461 0.9993
0.5556 2.5707 0.9920
0.4632 2.5921 0.9846
0.3701 2.6100 0.9772
0.2764 2.6246 0.9697
0.1822 2.6358 0.9622
0.0877 2.6436 0.9547
-0.0070 2.6479 0.9471
-0.1019 2.6488 0.9396
-0.1967 2.6462 0.9320
-0.2913 2.6402 0.9244
-0.3857 2.6308 0.9168
-0.4797 2.6180 0.9093
-0.5731 2.6018 0.9018
-0.6660 2.5822 0.8944
-0.7580 2.5592 0.8870
-0.8492 2.5329 0.8797
-0.9393 2.5033 0.8725
-2.8280 6.7941 2.3796
-3.0946 6.7501 2.3796
-3.3614 6.6957 2.3796
-3.6280 6.6308 2.3796
-3.8939 6.5552 2.3796
-4.1586 6.4688 2.3796
-4.4216 6.3715 2.3796
-4.6823 6.2632 2.3796
-4.9402 6.1439 2.3796
-5.1948 6.0136 2.3796
-5.4455 5.8721 2.3796
-5.6917 5.7198 2.3796
-5.9327 5.5565 2.3796
-6.1681 5.3824 2.3796
-6.3972 5.1976 2.3796
-6.6194 5.0023 2.3796
-6.8341 4.7969 2.3796
-7.0407 4.5814 2.3796
-7.2387 4.3563 2.3796
-7.4274 4.1218 2.3796
-7.6062 3.8784 2.3796
-7.7747 3.6264 2.3796
-7.9323 3.3664 2.3796
-8.0784 3.0988 2.3796
-8.2128 2.8242 2.3796
-8.3348 2.5431 2.3796
-8.4441 2.2562 2.3796
-8.5404 1.9640 2.3796
-8.6232 1.6673 2.3796
-8.6924 1.3666 2.3796
-8.7476 1.0628 2.3796
-8.7888 0.7564 2.3796
-8.8157 0.4484 2.3796
-8.8283 0.1393 2.3796
-8.8265 -0.1700 2.3796
-8.8103 -0.4789 2.3796
-8.7798 -0.7865 2.3796
-8.7352 -1.0921 2.3796
-8.6765 -1.3951 2.3796
-8.6039 -1.6947 2.3796
-8.5178 -1.9902 2.3796
-8.4185 -2.2809 2.3796
-8.3061 -2.5662 2.3796
-8.1813 -2.8455 2.3796
-8.0443 -3.1182 2.3796
-7.8956 -3.3837 2.3796
-7.7357 -3.6415 2.3796
-7.5651 -3.8911 2.3796
-7.3843 -4.1321 2.3796
-7.1939 -4.3641 2.3796
-6.9945 -4.5867 2.3796
-6.7866 -4.7996 2.3796
-6.5708 -5.0025 2.3796
-6.3477 -5.1951 2.3796
-6.1179 -5.3773 2.3796
-5.8820 -5.5488 2.3796
-5.6407 -5.7096 2.3796
-5.3944 -5.8595 2.3796
-5.1438 -5.9984 2.3796
-4.8895 -6.1264 2.3796
-4.6319 -6.2434 2.3796
-7.9765 -1.2067 2.3796
-7.9145 -1.4821 2.3796
-7.8403 -1.7541 2.3796
-7.7540 -2.0220 2.3796
-7.6559 -2.2853 2.3796
-7.5464 -2.5434 2.3796
-7.4258 -2.7958 2.3796
-7.2945 -3.0420 2.3796
-7.1528 -3.2815 2.3796
-7.0013 -3.5139 2.3796
-6.8404 -3.7387 2.3796
-6.6704 -3.9556 2.3796
-6.4921 -4.1642 2.3796
-6.3057 -4.3642 2.3796
-6.1119 -4.5553 2.3796
-5.9111 -4.7373 2.3796
-5.7040 -4.9099 2.3796
-5.4909 -5.0731 2.3796
-5.2724 -5.2265 2.3796
-5.0492 -5.3702 2.3796
-4.8216 -5.5040 2.3796
-4.5902 -5.6279 2.3796
-4.3554 -5.7419 2.3796
-4.1179 -5.8458 2.3796
-3.8781 -5.9398 2.3796
-3.6363 -6.0240 2.3796
-3.3932 -6.0983 2.3796
-3.1492 -6.1629 2.3796
-2.9046 -6.2179 2.3796
-2.6599 -6.2633 2.3796
-2.4155 -6.2994 2.3796
-2.1717 -6.3263 2.3796
-1.9289 -6.3442 2.3796
-1.6875 -6.3532 2.3796
-1.4478 -6.3536 2.3796
-1.2101 -6.3454 2.3796
-0.9746 -6.3290 2.3796
-0.7418 -6.3046 2.3796
-0.5116 -6.2723 2.3796
-0.2846 -6.2324 2.3796
-0.0608 -6.1851 2.3796
0.1594 -6.1306 2.3796
0.3760 -6.0692 2.3796
0.5887 -6.0010 2.3796
0.7974 -5.9264 2.3796
1.0019 -5.8455 2.3796
1.2021 -5.7585 2.3796
1.3978 -5.6657 2.3796
1.5889 -5.5673 2.3796
1.7754 -5.4635 2.3796
1.9570 -5.3546 2.3796
2.1338 -5.2407 2.3796
2.3056 -5.1220 2.3796
2.4724 -4.9987 2.3796
2.6341 -4.8711 2.3796
2.7906 -4.7394 2.3796
2.9419 -4.6036 2.3796
3.0879 -4.4641 2.3796
3.2287 -4.3210 2.3796
3.3641 -4.1744 2.3796
3.4942 -4.0246 2.3796
3.6188 -3.8717 2.3796
3.7381 -3.7158 2.3796
3.8519 -3.5573 2.3796
3.9603 -3.3960 2.3796
4.0632 -3.2324 2.3796
4.1606 -3.0664 2.3796
4.2526 -2.8983 2.3796
4.3390 -2.7282 2.3796
4.4200 -2.5562 2.3796
4.4955 -2.3824 2.3796
4.5654 -2.2071 2.3796
4.6299 -2.0302 2.3796
4.6888 -1.8520 2.3796
4.7423 -1.6727 2.3796
4.7902 -1.4922 2.3796
4.8326 -1.3107 2.3796
4.8695 -1.1283 2.3796
4.9009 -0.9453 2.3796
4.9268 -0.7616 2.3796
4.9472 -0.5774 2.3796
4.9620 -0.3929 2.3796
4.9714 -0.2080 2.3796
4.9752 -0.0230 2.3796
4.9735 0.1620 2.3796
4.9664 0.3470 2.3796
4.9536 0.5317 2.3796
4.9354 0.7162 2.3796
4.9117 0.9002 2.3796
4.8824 1.0838 2.3796
4.8476 1.2666 2.3796
4.8073 1.4487 2.3796
4.7614 1.6299 2.3796
4.7100 1.8100 2.3796
4.6531 1.9890 2.3796
4.4560 2.1032 2.3098
4.2484 2.2010 2.2353
4.1642 2.3567 2.2272
4.0902 2.5188 2.2272
4.0110 2.6791 2.2272
3.9266 2.8377 2.2272
3.8371 2.9943 2.2272
3.7424 3.1488 2.2272
3.6425 3.3011 2.2272
3.5375 3.4510 2.2272
3.4274 3.5983 2.2272
3.3121 3.7430 2.2272
3.1917 3.8849 2.2272
3.0663 4.0238 2.2272
2.9358 4.1595 2.2272
2.8003 4.2918 2.2272
2.6598 4.4207 2.2272
2.5144 4.5459 2.2272
2.3641 4.6673 2.2272
2.2089 4.7846 2.2272
2.0489 4.8977 2.2272
1.8843 5.0064 2.2272
0.7772 2.3160 1.0093
0.6938 2.3455 1.0027
0.6094 2.3719 0.9960
0.5241 2.3953 0.9892
0.4381 2.4156 0.9824
0.3513 2.4327 0.9755
0.2640 2.4467 0.9685
0.1762 2.4576 0.9615
0.0880 2.4652 0.9545
-0.0003 2.4696 0.9474
-0.0888 2.4709 0.9404
-0.1772 2.4689 0.9333
-0.2655 2.4637 0.9262
-0.3536 2.4553 0.9192
-0.4413 2.4438 0.9122
-0.5286 2.4290 0.9052
-0.6152 2.4111 0.8982
-0.7012 2.3901 0.8913
-0.7863 2.3660 0.8845
-0.8705 2.3388 0.8777
-0.9537 2.3086 0.8710
-2.8512 6.2636 2.3796
-3.0968 6.2108 2.3796
-3.3420 6.1482 2.3796
-3.5863 6.0759 2.3796
-3.8293 5.9937 2.3796
-4.0705 5.9016 2.3796
-4.3094 5.7995 2.3796
-4.5455 5.6873 2.3796
-4.7784 5.5651 2.3796
-5.0076 5.4329 2.3796
-5.2324 5.2908 2.3796
-5.4525 5.1389 2.3796
-5.6672 4.9771 2.3796
-5.8760 4.8058 2.3796
-6.0785 4.6251 2.3796
-6.2740 4.4352 2.3796
-6.4621 4.2364 2.3796
-6.6423 4.0288 2.3796
-6.8140 3.8129 2.3796
-6.9767 3.5891 2.3796
-7.1300 3.3575 2.3796
-7.2735 3.1188 2.3796
-7.4066 2.8733 2.3796
-7.5291 2.6215 2.3796
-7.6404 2.3640 2.3796
-7.7403 2.1012 2.3796
-7.8284 1.8337 2.3796
-7.9045 1.5621 2.3796
-7.9683 1.2870 2.3796
-8.0197 1.0090 2.3796
-8.0583 0.7287 2.3796
-8.0842 0.4468 2.3796
-8.0972 0.1639 2.3796
-8.0973 -0.1193 2.3796
-8.0845 -0.4021 2.3796
-8.0588 -0.6839 2.3796
-8.0204 -0.9642 2.3796
-7.9693 -1.2421 2.3796
-7.9057 -1.5171 2.3796
-7.8299 -1.7886 2.3796
-7.7421 -2.0560 2.3796
-7.6425 -2.3186 2.3796
-7.5316 -2.5761 2.3796
-7.4096 -2.8277 2.3796
-7.2769 -3.0731 2.3796
-7.1340 -3.3117 2.3796
-6.9812 -3.5431 2.3796
-6.8191 -3.7669 2.3796
-6.6481 -3.9827 2.3796
-6.4687 -4.1902 2.3796
-6.2813 -4.3891 2.3796
-6.0866 -4.5791 2.3796
-5.8850 -4.7599 2.3796
-5.6770 -4.9313 2.3796
-5.4632 -5.0933 2.3796
-5.2441 -5.2455 2.3796
-5.0203 -5.3879 2.3796
-4.7922 -5.5204 2.3796
-4.5603 -5.6430 2.3796
-4.3252 -5.7557 2.3796
-4.0873 -5.8584 2.3796
-3.8472 -5.9512 2.3796
-3.6053 -6.0340 2.3796
-3.3621 -6.1071 2.3796
-3.1179 -6.1705 2.3796
-2.8733 -6.2242 2.3796
-2.6286 -6.2685 2.3796
-2.3842 -6.3034 2.3796
-2.1406 -6.3291 2.3796
-1.8980 -6.3459 2.3796
-1.6567 -6.3538 2.3796
-1.4173 -6.3530 2.3796
-1.1798 -6.3438 2.3796
-0.9447 -6.3263 2.3796
-0.7121 -6.3009 2.3796
-0.4824 -6.2677 2.3796
-0.2558 -6.2268 2.3796
-0.0325 -6.1785 2.3796
0.1873 -6.1231 2.3796
0.4034 -6.0608 2.3796
0.6157 -5.9918 2.3796
0.8238 -5.9164 2.3796
1.0278 -5.8347 2.3796
1.2274 -5.7470 2.3796
1.4225 -5.6534 2.3796
1.6130 -5.5543 2.3796
1.7989 -5.4499 2.3796
1.9799 -5.3403 2.3796
2.1560 -5.2257 2.3796
2.3272 -5.1065 2.3796
2.4933 -4.9827 2.3796
2.6544 -4.8545 2.3796
2.8102 -4.7222 2.3796
2.9609 -4.5860 2.3796
3.1062 -4.4460 2.3796
3.2463 -4.3024 2.3796
3.3810 -4.1554 2.3796
3.5104 -4.0052 2.3796
3.6344 -3.8519 2.3796
3.7530 -3.6957 2.3796
3.8661 -3.5368 2.3796
3.9738 -3.3752 2.3796
4.0760 -3.2113 2.3796
4.1727 -3.0450 2.3796
4.2640 -2.8766 2.3796
4.3497 -2.7063 2.3796
4.4300 -2.5340 2.3796
4.5047 -2.3601 2.3796
4.5740 -2.1845 2.3796
4.6377 -2.0075 2.3796
4.6960 -1.8292 2.3796
4.7487 -1.6496 2.3796
4.7959 -1.4690 2.3796
4.8376 -1.2874 2.3796
4.8738 -1.1050 2.3796
4.9045 -0.9218 2.3796
4.9297 -0.7381 2.3796
4.9494 -0.5538 2.3796
4.9635 -0.3692 2.3796
4.9722 -0.1844 2.3796
4.9753 0.0007 2.3796
4.9729 0.1857 2.3796
4.9650 0.3706 2.3796
4.9516 0.5554 2.3796
4.9327 0.7398 2.3796
4.9082 0.9238 2.3796
4.8783 1.1072 2.3796
4.8428 1.2899 2.3796
4.8017 1.4719 2.3796
4.7552 1.6530 2.3796
4.7031 1.8330 2.3796
4.6454 2.0119 2.3796
4.4275 2.1155 2.2993
4.2283 2.2161 2.2292
4.1550 2.3775 2.2272
4.0804 2.5394 2.2272
4.0005 2.6995 2.2272
3.9155 2.8578 2.2272
3.8253 3.0142 2.2272
3.7299 3.1684 2.2272
3.6294 3.3204 2.2272
3.5237 3.4699 2.2272
3.4129 3.6170 2.2272
3.2970 3.7613 2.2272
3.1760 3.9028 2.2272
3.0499 4.0413 2.2272
2.9188 4.1766 2.2272
2.7826 4.3085 2.2272
2.6415 4.4370 2.2272
2.4954 4.5617 2.2272
2.3445 4.6825 2.2272
2.1887 4.7993 2.2272
2.0281 4.9119 2.2272
0.8490 2.2878 1.0150
0.7666 2.3199 1.0085
0.6831 2.3490 1.0019
0.5986 2.3751 0.9952
0.5132 2.3981 0.9884
0.4270 2.4180 0.9815
0.3401 2.4347 0.9746
0.2527 2.4483 0.9676
0.1649 2.4587 0.9606
0.0767 2.4659 0.9536
-0.0116 2.4700 0.9465
-0.1001 2.4708 0.9395
-0.1885 2.4684 0.9324
-0.2768 2.4628 0.9253
-0.3648 2.4540 0.9183
-0.4525 2.4421 0.9113
-0.5397 2.4269 0.9043
-0.6263 2.4086 0.8973
-0.7121 2.3872 0.8904
-0.7971 2.3627 0.8836
-0.8812 2.3351 0.8769
-0.9643 2.3045 0.8702
-2.8826 6.2574 2.3796
-3.1282 6.2033 2.3796
-3.3733 6.1395 2.3796
-3.6175 6.0660 2.3796
-3.8603 5.9825 2.3796
-4.1012 5.8891 2.3796
-4.3397 5.7857 2.3796
-4.5755 5.6722 2.3796
-4.8080 5.5488 2.3796
-5.0366 5.4153 2.3796
-5.2608 5.2719 2.3796
-5.4802 5.1187 2.3796
-5.6942 4.9558 2.3796
-5.9023 4.7832 2.3796
-6.1039 4.6013 2.3796
-6.2985 4.4103 2.3796
-6.4856 4.2103 2.3796
-6.6647 4.0017 2.3796
-6.8353 3.7847 2.3796
-6.9969 3.5599 2.3796
-7.1489 3.3274 2.3796
-7.2911 3.0878 2.3796
-7.4229 2.8414 2.3796
-7.5439 2.5889 2.3796
-7.6538 2.3307 2.3796
-7.7522 2.0672 2.3796
-7.8389 1.7992 2.3796
-7.9134 1.5271 2.3796
-7.9756 1.2516 2.3796
-8.0253 0.9732 2.3796
-8.0623 0.6927 2.3796
-8.0866 0.4107 2.3796
-8.0979 0.1277 2.3796
-8.0964 -0.1555 2.3796
-8.0819 -0.4382 2.3796
-8.0546 -0.7199 2.3796
-8.0145 -0.9999 2.3796
-7.9618 -1.2774 2.3796
-7.8967 -1.5521 2.3796
-7.8193 -1.8231 2.3796
-7.7300 -2.0898 2.3796
-7.6290 -2.3519 2.3796
-7.5166 -2.6086 2.3796
-7.3932 -2.8595 2.3796
-7.2592 -3.1040 2.3796
-7.1150 -3.3417 2.3796
-6.9610 -3.5722 2.3796
-6.7977 -3.7950 2.3796
-6.6256 -4.0098 2.3796
-6.4451 -4.2162 2.3796
-6.2568 -4.4139 2.3796
-6.0612 -4.6027 2.3796
-5.8587 -4.7823 2.3796
-5.6500 -4.9526 2.3796
-5.4355 -5.1133 2.3796
-5.2158 -5.2642 2.3796
-4.9913 -5.4054 2.3796
-4.7627 -5.5367 2.3796
-4.5304 -5.6580 2.3796
-4.2949 -5.7694 2.3796
-7.3618 -1.1113 2.3796
-7.3057 -1.3651 2.3796
-7.2384 -1.6159 2.3796
-7.1602 -1.8631 2.3796
-7.0713 -2.1062 2.3796
-6.9720 -2.3447 2.3796
-6.8625 -2.5780 2.3796
-6.7433 -2.8058 2.3796
-6.6146 -3.0277 2.3796
-6.4768 -3.2431 2.3796
-6.3304 -3.4518 2.3796
-6.1757 -3.6534 2.3796
-6.0131 -3.8475 2.3796
-5.8432 -4.0339 2.3796
-5.6663 -4.2123 2.3796
-5.4829 -4.3824 2.3796
-5.2935 -4.5442 2.3796
-5.0985 -4.6973 2.3796
-4.8984 -4.8417 2.3796
-4.6937 -4.9771 2.3796
-4.4848 -5.1036 2.3796
-4.2723 -5.2211 2.3796
-4.0564 -5.3295 2.3796
-3.8378 -5.4287 2.3796
-3.6168 -5.5188 2.3796
-3.3939 -5.5999 2.3796
-3.1694 -5.6719 2.3796
-2.9439 -5.7350 2.3796
-2.7176 -5.7891 2.3796
-2.4909 -5.8345 2.3796
-2.2643 -5.8712 2.3796
-2.0380 -5.8993 2.3796
-1.8125 -5.9191 2.3796
-1.5880 -5.9305 2.3796
-1.3648 -5.9339 2.3796
-1.1433 -5.9293 2.3796
-0.9236 -5.9169 2.3796
-0.7061 -5.8970 2.3796
-0.4911 -5.8696 2.3796
-0.2787 -5.8351 2.3796
-0.0691 -5.7936 2.3796
0.1374 -5.7453 2.3796
0.3406 -5.6903 2.3796
0.5404 -5.6290 2.3796
0.7366 -5.5614 2.3796
0.9290 -5.4879 2.3796
1.1175 -5.4086 2.3796
1.3019 -5.3236 2.3796
1.4822 -5.2333 2.3796
1.6582 -5.1378 2.3796
1.8298 -5.0373 2.3796
1.9969 -4.9320 2.3796
2.1595 -4.8221 2.3796
2.3174 -4.7077 2.3796
2.4705 -4.5891 2.3796
2.6189 -4.4665 2.3796
2.7625 -4.3399 2.3796
2.9011 -4.2097 2.3796
3.0348 -4.0760 2.3796
3.1636 -3.9388 2.3796
3.2872 -3.7985 2.3796
3.4059 -3.6552 2.3796
3.5194 -3.5089 2.3796
3.6278 -3.3600 2.3796
3.7311 -3.2084 2.3796
3.8292 -3.0545 2.3796
3.9221 -2.8982 2.3796
4.0098 -2.7399 2.3796
4.0923 -2.5795 2.3796
4.1696 -2.4173 2.3796
4.2417 -2.2533 2.3796
4.3085 -2.0878 2.3796
4.3701 -1.9207 2.3796
4.4265 -1.7524 2.3796
4.4775 -1.5828 2.3796
4.5234 -1.4121 2.3796
4.5639 -1.2405 2.3796
4.5992 -1.0680 2.3796
4.6292 -0.8947 2.3796
4.6540 -0.7209 2.3796
4.6735 -0.5466 2.3796
4.6877 -0.3718 2.3796
4.6966 -0.1968 2.3796
4.7003 -0.0217 2.3796
4.6986 0.1535 2.3796
4.6917 0.3286 2.3796
4.6796 0.5035 2.3796
4.6621 0.6781 2.3796
4.6393 0.8523 2.3796
4.6113 1.0260 2.3796
4.5780 1.1989 2.3796
4.5394 1.3711 2.3796
4.4955 1.5425 2.3796
4.4464 1.7128 2.3796
4.3919 1.8819 2.3796
4.3322 2.0498 2.3796
4.2116 2.1874 2.3486
4.0238 2.2830 2.2815
3.8621 2.3844 2.2299
3.7819 2.5327 2.2272
3.7013 2.6821 2.2272
3.6159 2.8295 2.2272
3.5256 2.9748 2.2272
3.4304 3.1179 2.2272
3.3304 3.2587 2.2272
3.2255 3.3970 2.2272
3.1158 3.5326 2.2272
3.0013 3.6655 2.2272
2.8820 3.7954 2.2272
2.7581 3.9222 2.2272
2.6294 4.0458 2.2272
2.4961 4.1659 2.2272
2.3582 4.2825 2.2272
2.2158 4.3953 2.2272
2.0688 4.5041 2.2272
1.9175 4.6089 2.2272
0.7997 2.1375 1.0109
0.7227 2.1679 1.0048
0.6446 2.1955 0.9986
0.5656 2.2202 0.9923
0.4858 2.2421 0.9860
0.4052 2.2611 0.9796
0.3240 2.2771 0.9731
0.2422 2.2902 0.9666
0.1601 2.3003 0.9600
0.0776 2.3075 0.9534
-0.0051 2.3116 0.9468
-0.0879 2.3128 0.9402
-0.1707 2.3109 0.9336
-0.2534 2.3061 0.9270
-0.3358 2.2982 0.9204
-0.4179 2.2874 0.9138
-0.4996 2.2736 0.9073
-0.5807 2.2568 0.9008
-0.6611 2.2372 0.8943
-0.7408 2.2146 0.8879
-0.8196 2.1892 0.8816
-0.8975 2.1609 0.8753
-0.9743 2.1298 0.8692
-2.8947 5.7788 2.3796
-3.1213 5.7177 2.3796
-3.3468 5.6475 2.3796
-3.5709 5.5682 2.3796
-3.7932 5.4799 2.3796
-4.0131 5.3823 2.3796
-4.2302 5.2756 2.3796
-4.4442 5.1597 2.3796
-4.6545 5.0348 2.3796
-4.8606 4.9008 2.3796
-5.0622 4.7578 2.3796
-5.2587 4.6060 2.3796
-5.4497 4.4456 2.3796
-5.6346 4.2766 2.3796
-5.8131 4.0993 2.3796
-5.9847 3.9140 2.3796
-6.1489 3.7209 2.3796
-6.3053 3.5202 2.3796
-6.4534 3.3124 2.3796
-6.5929 3.0978 2.3796
-6.7233 2.8767 2.3796
-6.8443 2.6495 2.3796
-6.9555 2.4168 2.3796
-7.0565 2.1789 2.3796
-7.1472 1.9363 2.3796
-7.2271 1.6895 2.3796
-7.2962 1.4390 2.3796
-7.3540 1.1855 2.3796
-7.4006 0.9293 2.3796
-7.4356 0.6712 2.3796
-7.4591 0.4116 2.3796
-7.4709 0.1511 2.3796
-7.4710 -0.1096 2.3796
-7.4595 -0.3701 2.3796
-7.4363 -0.6297 2.3796
-7.4015 -0.8878 2.3796
-7.3553 -1.1439 2.3796
-7.2977 -1.3974 2.3796
-7.2290 -1.6478 2.3796
-7.1494 -1.8945 2.3796
-7.0592 -2.1370 2.3796
-6.9585 -2.3748 2.3796
-6.8478 -2.6075 2.3796
-6.7273 -2.8346 2.3796
-6.5975 -3.0556 2.3796
-6.4586 -3.2702 2.3796
-6.3110 -3.4780 2.3796
-6.1553 -3.6786 2.3796
-5.9918 -3.8718 2.3796
-5.8209 -4.0572 2.3796
-5.6432 -4.2345 2.3796
-5.4590 -4.4036 2.3796
-5.2688 -4.5643 2.3796
-5.0732 -4.7163 2.3796
-4.8725 -4.8595 2.3796
-4.6672 -4.9938 2.3796
-4.4579 -5.1192 2.3796
-4.2448 -5.2355 2.3796
-4.0286 -5.3427 2.3796
-3.8097 -5.4407 2.3796
-3.5884 -5.5297 2.3796
-3.3652 -5.6096 2.3796
-3.1406 -5.6805 2.3796
-2.9149 -5.7424 2.3796
-2.6886 -5.7954 2.3796
-2.4619 -5.8397 2.3796
-2.2353 -5.8753 2.3796
-2.0091 -5.9023 2.3796
-1.7837 -5.9210 2.3796
-1.5594 -5.9314 2.3796
-1.3364 -5.9337 2.3796
-1.1151 -5.9281 2.3796
-0.8957 -5.9148 2.3796
-0.6785 -5.8939 2.3796
-0.4638 -5.8657 2.3796
-0.2517 -5.8303 2.3796
-0.0425 -5.7877 2.3796
0.1636 -5.7386 2.3796
0.3664 -5.6828 2.3796
0.5657 -5.6207 2.3796
0.7614 -5.5524 2.3796
0.9533 -5.4781 2.3796
1.1413 -5.3980 2.3796
1.3252 -5.3124 2.3796
1.5049 -5.2214 2.3796
1.6804 -5.1252 2.3796
1.8514 -5.0241 2.3796
2.0180 -4.9182 2.3796
2.1799 -4.8077 2.3796
2.3372 -4.6928 2.3796
2.4898 -4.5736 2.3796
2.6376 -4.4505 2.3796
2.7805 -4.3235 2.3796
2.9185 -4.1928 2.3796
3.0516 -4.0586 2.3796
3.1797 -3.9211 2.3796
3.3027 -3.7803 2.3796
3.4207 -3.6366 2.3796
3.5335 -3.4900 2.3796
3.6413 -3.3407 2.3796
3.7439 -3.1889 2.3796
3.8413 -3.0346 2.3796
3.9336 -2.8781 2.3796
4.0207 -2.7195 2.3796
4.1025 -2.5588 2.3796
4.1792 -2.3964 2.3796
4.2506 -2.2322 2.3796
4.3167 -2.0665 2.3796
4.3776 -1.8993 2.3796
4.4333 -1.7307 2.3796
4.4837 -1.5610 2.3796
4.5288 -1.3902 2.3796
4.5687 -1.2185 2.3796
4.6034 -1.0458 2.3796
4.6327 -0.8725 2.3796
4.6568 -0.6986 2.3796
4.6756 -0.5242 2.3796
4.6891 -0.3495 2.3796
4.6974 -0.1744 2.3796
4.7004 0.0007 2.3796
4.6981 0.1759 2.3796
4.6905 0.3510 2.3796
4.6776 0.5259 2.3796
4.6595 0.7004 2.3796
4.6361 0.8746 2.3796
4.6073 1.0482 2.3796
4.5733 1.2211 2.3796
4.5341 1.3931 2.3796
4.4895 1.5643 2.3796
4.4397 1.7345 2.3796
4.3846 1.9035 2.3796
4.3242 2.0712 2.3796
4.1866 2.1997 2.3394
4.0013 2.2953 2.2738
3.8481 2.4010 2.2272
3.7718 2.5519 2.2272
3.6907 2.7010 2.2272
3.6046 2.8482 2.2272
3.5137 2.9933 2.2272
3.4179 3.1361 2.2272
3.3172 3.2765 2.2272
3.2117 3.4145 2.2272
3.1014 3.5498 2.2272
2.9863 3.6823 2.2272
2.8665 3.8118 2.2272
2.7419 3.9382 2.2272
2.6126 4.0613 2.2272
2.4787 4.1810 2.2272
2.3403 4.2971 2.2272
2.1972 4.4094 2.2272
2.0497 4.5178 2.2272
1.8978 4.6220 2.2272
0.7899 2.1416 1.0101
0.7127 2.1716 1.0040
0.6346 2.1988 0.9978
0.5555 2.2232 0.9915
0.4755 2.2447 0.9851
0.3948 2.2633 0.9787
0.3136 2.2790 0.9723
0.2317 2.2917 0.9657
0.1495 2.3014 0.9592
0.0670 2.3082 0.9526
-0.0157 2.3119 0.9460
-0.0985 2.3127 0.9394
-0.1813 2.3105 0.9328
-0.2639 2.3052 0.9261
-0.3463 2.2970 0.9196
-0.4284 2.2858 0.9130
-0.5100 2.2716 0.9064
-0.5910 2.2545 0.9000
-0.6714 2.2345 0.8935
-0.7509 2.2115 0.8871
-0.8296 2.1857 0.8808
-0.9074 2.1570 0.8745
-0.9840 2.1256 0.8684
-2.9237 5.7715 2.3796
-3.1502 5.7092 2.3796
-3.3756 5.6379 2.3796
-3.5995 5.5574 2.3796
-3.8214 5.4679 2.3796
-4.0410 5.3692 2.3796
-4.2578 5.2613 2.3796
-4.4713 5.1443 2.3796
-4.6811 5.0181 2.3796
-4.8867 4.8830 2.3796
-5.0876 4.7389 2.3796
-5.2834 4.5860 2.3796
-5.4737 4.4244 2.3796
-5.6578 4.2544 2.3796
-5.8355 4.0761 2.3796
-6.0061 3.8897 2.3796
-6.1694 3.6956 2.3796
-6.3247 3.4940 2.3796
-6.4718 3.2854 2.3796
-6.6101 3.0699 2.3796
-6.7393 2.8480 2.3796
-6.8591 2.6201 2.3796
-6.9690 2.3866 2.3796
-7.0687 2.1481 2.3796
-7.1580 1.9049 2.3796
-7.2366 1.6576 2.3796
-7.3042 1.4068 2.3796
-7.3606 1.1528 2.3796
-7.4057 0.8964 2.3796
-7.4393 0.6380 2.3796
-7.4612 0.3783 2.3796
-7.4716 0.1178 2.3796
-7.4702 -0.1430 2.3796
-7.4572 -0.4034 2.3796
-7.4325 -0.6628 2.3796
-7.3962 -0.9207 2.3796
-7.3485 -1.1765 2.3796
-7.2895 -1.4296 2.3796
-7.2195 -1.6795 2.3796
-7.1385 -1.9257 2.3796
-7.0469 -2.1677 2.3796
-6.9449 -2.4049 2.3796
-6.8329 -2.6369 2.3796
-6.7112 -2.8632 2.3796
-6.5802 -3.0834 2.3796
-6.4402 -3.2972 2.3796
-6.2916 -3.5041 2.3796
-6.1348 -3.7037 2.3796
-5.9703 -3.8959 2.3796
-5.7986 -4.0803 2.3796
-5.6200 -4.2566 2.3796
-5.4350 -4.4247 2.3796
-5.2441 -4.5842 2.3796
-5.0478 -4.7351 2.3796
-4.8465 -4.8772 2.3796
-4.6407 -5.0104 2.3796
-4.4308 -5.1346 2.3796
-4.2174 -5.2497 2.3796
-4.0008 -5.3557 2.3796
-6.8280 -1.0284 2.3796
-6.7769 -1.2635 2.3796
-6.7155 -1.4959 2.3796
-6.6442 -1.7250 2.3796
-6.5630 -1.9504 2.3796
-6.4723 -2.1717 2.3796
-6.3723 -2.3884 2.3796
-6.2633 -2.6002 2.3796
-6.1456 -2.8065 2.3796
-6.0196 -3.0071 2.3796
-5.8855 -3.2015 2.3796
-5.7438 -3.3895 2.3796
-5.5947 -3.5709 2.3796
-5.4388 -3.7452 2.3796
-5.2764 -3.9122 2.3796
-5.1079 -4.0718 2.3796
-4.9338 -4.2237 2.3796
-4.7544 -4.3678 2.3796
-4.5701 -4.5038 2.3796
-4.3814 -4.6318 2.3796
-4.1887 -4.7515 2.3796
-3.9925 -4.8630 2.3796
-3.7930 -4.9661 2.3796
-3.5908 -5.0608 2.3796
-3.3862 -5.1472 2.3796
-3.1796 -5.2252 2.3796
-2.9715 -5.2948 2.3796
-2.7621 -5.3561 2.3796
-2.5518 -5.4092 2.3796
-2.3410 -5.4541 2.3796
-2.1301 -5.4910 2.3796
-1.9193 -5.5198 2.3796
-1.7089 -5.5408 2.3796
-1.4994 -5.5541 2.3796
-1.2908 -5.5597 2.3796
-1.0837 -5.5580 2.3796
-0.8781 -5.5489 2.3796
-0.6743 -5.5326 2.3796
-0.4727 -5.5094 2.3796
-0.2733 -5.4794 2.3796
-0.0765 -5.4427 2.3796
0.1176 -5.3996 2.3796
0.3089 -5.3501 2.3796
0.4970 -5.2946 2.3796
0.6818 -5.2332 2.3796
0.8633 -5.1660 2.3796
1.0412 -5.0933 2.3796
1.2154 -5.0152 2.3796
1.3858 -4.9319 2.3796
1.5523 -4.8436 2.3796
1.7148 -4.7505 2.3796
1.8731 -4.6528 2.3796
2.0272 -4.5506 2.3796
2.1770 -4.4441 2.3796
2.3224 -4.3335 2.3796
2.4633 -4.2190 2.3796
2.5997 -4.1006 2.3796
2.7315 -3.9787 2.3796
2.8587 -3.8534 2.3796
2.9813 -3.7247 2.3796
3.0991 -3.5929 2.3796
3.2121 -3.4581 2.3796
3.3203 -3.3205 2.3796
3.4237 -3.1803 2.3796
3.5222 -3.0375 2.3796
3.6158 -2.8923 2.3796
3.7046 -2.7449 2.3796
3.7884 -2.5953 2.3796
3.8672 -2.4438 2.3796
3.9411 -2.2905 2.3796
4.0100 -2.1354 2.3796
4.0739 -1.9788 2.3796
4.1328 -1.8207 2.3796
4.1867 -1.6613 2.3796
4.2356 -1.5006 2.3796
4.2794 -1.3390 2.3796
4.3183 -1.1763 2.3796
4.3520 -1.0128 2.3796
4.3808 -0.8485 2.3796
4.4045 -0.6837 2.3796
4.4231 -0.5183 2.3796
4.4367 -0.3526 2.3796
4.4453 -0.1866 2.3796
4.4487 -0.0205 2.3796
4.4472 0.1457 2.3796
4.4405 0.3118 2.3796
4.4288 0.4777 2.3796
4.4121 0.6433 2.3796
4.3903 0.8085 2.3796
4.3634 0.9731 2.3796
4.3315 1.1371 2.3796
4.2945 1.3003 2.3796
4.2525 1.4626 2.3796
