ply
format ascii 1.0
element vertex 2170
property float32 x
property float32 y
property float32 z
end_header
-1.6768 -6.5314 2.3843
-1.4379 -6.5690 2.3843
-1.1984 -6.5980 2.3843
-0.9586 -6.6182 2.3843
-0.7188 -6.6299 2.3843
-0.4794 -6.6330 2.3843
-0.2405 -6.6276 2.3843
-0.0026 -6.6137 2.3843
0.2340 -6.5915 2.3843
0.4692 -6.5610 2.3843
0.7025 -6.5223 2.3843
0.9338 -6.4756 2.3843
1.1628 -6.4209 2.3843
1.3892 -6.3583 2.3843
1.6127 -6.2881 2.3843
1.8331 -6.2103 2.3843
2.0502 -6.1251 2.3843
2.2638 -6.0325 2.3843
2.4735 -5.9329 2.3843
2.6792 -5.8263 2.3843
2.8807 -5.7129 2.3843
3.0777 -5.5929 2.3843
3.2701 -5.4665 2.3843
3.4577 -5.3337 2.3843
3.6403 -5.1949 2.3843
3.8176 -5.0502 2.3843
3.9897 -4.8998 2.3843
4.1562 -4.7438 2.3843
4.3170 -4.5826 2.3843
4.4720 -4.4163 2.3843
4.6210 -4.2450 2.3843
4.7639 -4.0690 2.3843
4.9006 -3.8886 2.3843
5.0309 -3.7039 2.3843
5.1547 -3.5151 2.3843
5.2720 -3.3224 2.3843
5.3826 -3.1262 2.3843
5.4864 -2.9265 2.3843
5.5833 -2.7236 2.3843
5.6732 -2.5177 2.3843
5.7561 -2.3091 2.3843
5.8319 -2.0980 2.3843
5.9005 -1.8845 2.3843
5.9618 -1.6690 2.3843
6.0159 -1.4517 2.3843
6.0626 -1.2327 2.3843
6.1019 -1.0123 2.3843
6.1338 -0.7908 2.3843
6.1583 -0.5683 2.3843
6.1752 -0.3451 2.3843
6.1847 -0.1215 2.3843
6.1867 0.1024 2.3843
6.1811 0.3263 2.3843
6.1680 0.5499 2.3843
6.1474 0.7731 2.3843
6.1193 0.9956 2.3843
6.0837 1.2171 2.3843
6.0407 1.4375 2.3843
5.9902 1.6565 2.3843
5.9323 1.8739 2.3843
5.8671 2.0894 2.3843
5.7945 2.3028 2.3843
5.7147 2.5138 2.3843
5.6277 2.7223 2.3843
5.5336 2.9280 2.3843
5.4324 3.1307 2.3843
5.3242 3.3301 2.3843
5.2092 3.5261 2.3843
5.0874 3.7182 2.3843
4.9589 3.9065 2.3843
4.8238 4.0905 2.3843
4.6822 4.2702 2.3843
4.5344 4.4452 2.3843
4.3803 4.6154 2.3843
4.2202 4.7806 2.3843
4.0542 4.9404 2.3843
3.8824 5.0948 2.3843
3.7050 5.2434 2.3843
3.5222 5.3862 2.3843
3.3341 5.5228 2.3843
3.1410 5.6531 2.3843
2.9430 5.7769 2.3843
2.7404 5.8940 2.3843
2.5334 6.0042 2.3843
2.3221 6.1074 2.3843
0.8492 2.5004 0.9611
0.7592 2.5304 0.9589
0.6681 2.5571 0.9567
0.5762 2.5805 0.9545
0.4834 2.6005 0.9523
0.3900 2.6172 0.9500
0.2960 2.6306 0.9478
0.2016 2.6405 0.9455
0.1069 2.6470 0.9432
0.0121 2.6501 0.9410
-0.0829 2.6498 0.9387
-0.1777 2.6460 0.9364
-0.2724 2.6389 0.9341
-0.3667 2.6283 0.9319
-0.4607 2.6143 0.9296
-0.5540 2.5969 0.9274
-0.6466 2.5762 0.9252
-0.7385 2.5521 0.9230
-0.8294 2.5248 0.9208
-0.9193 2.4942 0.9187
-2.6221 6.4002 2.3843
-2.8561 6.3183 2.3843
-3.0873 6.2276 2.3843
-3.3155 6.1282 2.3843
-3.5403 6.0202 2.3843
-3.7613 5.9036 2.3843
-3.9783 5.7786 2.3843
-4.1908 5.6454 2.3843
-4.3986 5.5040 2.3843
-4.6013 5.3547 2.3843
-4.7985 5.1976 2.3843
-4.9900 5.0328 2.3843
-5.1754 4.8607 2.3843
-5.3545 4.6814 2.3843
-5.5269 4.4953 2.3843
-5.6923 4.3024 2.3843
-5.8504 4.1032 2.3843
-6.0010 3.8978 2.3843
-6.1439 3.6866 2.3843
-6.2787 3.4698 2.3843
-6.4052 3.2480 2.3843
-6.5233 3.0211 2.3843
-6.6327 2.7897 2.3843
-6.7331 2.5541 2.3843
-6.8246 2.3148 2.3843
-6.8492 2.0545 2.3644
-6.8627 1.7953 2.3444
-6.8755 1.5397 2.3276
-6.8875 1.2871 2.3140
-6.8989 1.0369 2.3036
-6.9097 0.7885 2.2962
-6.9199 0.5413 2.2917
-6.9295 0.2947 2.2903
-6.9385 0.0482 2.2918
-6.9471 -0.1989 2.2962
-6.9551 -0.4470 2.3037
-6.9626 -0.6968 2.3141
-6.9696 -0.9489 2.3277
-6.9762 -1.2039 2.3445
-6.9822 -1.4623 2.3645
-6.9774 -1.7227 2.3843
-6.9045 -1.9676 2.3843
-6.8224 -2.2094 2.3843
-6.7312 -2.4477 2.3843
-6.6310 -2.6822 2.3843
-6.5222 -2.9123 2.3843
-6.4047 -3.1378 2.3843
-6.2790 -3.3585 2.3843
-6.1452 -3.5739 2.3843
-6.0035 -3.7838 2.3843
-5.8542 -3.9879 2.3843
-5.6975 -4.1859 2.3843
-5.5338 -4.3775 2.3843
-5.3632 -4.5626 2.3843
-5.1862 -4.7407 2.3843
-5.0029 -4.9122 2.3843
-4.8138 -5.0756 2.3843
-4.6190 -5.2320 2.3843
-4.4190 -5.3807 2.3843
-4.2140 -5.5216 2.3843
-4.0043 -5.6545 2.3843
-3.7904 -5.7793 2.3843
-3.5725 -5.8959 2.3843
-3.3509 -6.0042 2.3843
-3.1260 -6.1040 2.3843
-2.8982 -6.1953 2.3843
-2.6677 -6.2781 2.3843
-2.4349 -6.3522 2.3843
-2.2001 -6.4177 2.3843
-1.9637 -6.4745 2.3843
-1.7259 -6.5226 2.3843
-1.4872 -6.5620 2.3843
-1.2478 -6.5927 2.3843
-1.0080 -6.6148 2.3843
-0.7682 -6.6282 2.3843
-0.5287 -6.6331 2.3843
-0.2897 -6.6294 2.3843
-0.0516 -6.6173 2.3843
0.1854 -6.5968 2.3843
0.4209 -6.5680 2.3843
0.6546 -6.5310 2.3843
0.8864 -6.4859 2.3843
1.1158 -6.4328 2.3843
1.3428 -6.3719 2.3843
1.5669 -6.3032 2.3843
1.7880 -6.2270 2.3843
2.0058 -6.1432 2.3843
2.2201 -6.0522 2.3843
2.4306 -5.9540 2.3843
2.6371 -5.8489 2.3843
2.8395 -5.7368 2.3843
3.0375 -5.6182 2.3843
3.2309 -5.4930 2.3843
3.4194 -5.3616 2.3843
3.6031 -5.2240 2.3843
3.7815 -5.0805 2.3843
3.9547 -4.9312 2.3843
4.1223 -4.7764 2.3843
4.2843 -4.6162 2.3843
4.4405 -4.4509 2.3843
4.5908 -4.2807 2.3843
4.7350 -4.1057 2.3843
4.8729 -3.9261 2.3843
5.0046 -3.7423 2.3843
5.1298 -3.5543 2.3843
5.2484 -3.3624 2.3843
5.3603 -3.1669 2.3843
5.4655 -2.9679 2.3843
5.5639 -2.7656 2.3843
5.6552 -2.5604 2.3843
5.7396 -2.3523 2.3843
5.8168 -2.1417 2.3843
5.8869 -1.9287 2.3843
5.9498 -1.7136 2.3843
6.0053 -1.4966 2.3843
6.0536 -1.2779 2.3843
6.0944 -1.0578 2.3843
6.1279 -0.8365 2.3843
6.1539 -0.6142 2.3843
6.1724 -0.3912 2.3843
6.1834 -0.1676 2.3843
6.1869 0.0562 2.3843
6.1829 0.2801 2.3843
6.1713 0.5039 2.3843
6.1523 0.7272 2.3843
6.1257 0.9498 2.3843
6.0917 1.1716 2.3843
6.0502 1.3922 2.3843
6.0012 1.6115 2.3843
5.9448 1.8292 2.3843
5.8811 2.0451 2.3843
5.8100 2.2590 2.3843
5.7317 2.4706 2.3843
5.6462 2.6796 2.3843
5.5535 2.8859 2.3843
5.4538 3.0892 2.3843
5.3471 3.2893 2.3843
5.2334 3.4859 2.3843
5.1130 3.6789 2.3843
4.9859 3.8680 2.3843
4.8521 4.0529 2.3843
4.7119 4.2335 2.3843
4.5654 4.4096 2.3843
4.4126 4.5808 2.3843
4.2537 4.7470 2.3843
4.0888 4.9079 2.3843
3.9182 5.0634 2.3843
3.7420 5.2133 2.3843
3.5603 5.3572 2.3843
3.3733 5.4952 2.3843
3.1812 5.6268 2.3843
2.9842 5.7519 2.3843
2.7825 5.8705 2.3843
2.5764 5.9821 2.3843
2.3659 6.0867 2.3843
0.8676 2.4939 0.9615
0.7778 2.5245 0.9594
0.6870 2.5519 0.9572
0.5952 2.5759 0.9550
0.5026 2.5967 0.9527
0.4093 2.6141 0.9505
0.3154 2.6281 0.9482
0.2211 2.6387 0.9460
0.1265 2.6460 0.9437
0.0316 2.6498 0.9414
-0.0633 2.6501 0.9392
-0.1582 2.6471 0.9369
-0.2529 2.6406 0.9346
-0.3473 2.6307 0.9324
-0.4413 2.6174 0.9301
-0.5348 2.6008 0.9279
-0.6276 2.5807 0.9256
-0.7196 2.5574 0.9234
-0.8108 2.5307 0.9213
-0.9009 2.5007 0.9191
-2.5736 6.4160 2.3843
-2.8081 6.3359 2.3843
-3.0399 6.2470 2.3843
-3.2687 6.1494 2.3843
-3.4942 6.0431 2.3843
-3.7161 5.9283 2.3843
-3.9339 5.8051 2.3843
-4.1474 5.6735 2.3843
-4.3562 5.5338 2.3843
-4.5599 5.3861 2.3843
-4.7583 5.2306 2.3843
-4.9510 5.0674 2.3843
-5.1377 4.8968 2.3843
-5.3181 4.7189 2.3843
-5.4919 4.5342 2.3843
-5.6588 4.3427 2.3843
-5.8184 4.1447 2.3843
-5.9706 3.9406 2.3843
-6.1151 3.7306 2.3843
-6.2516 3.5150 2.3843
-6.3798 3.2942 2.3843
-6.4997 3.0682 2.3843
-6.6108 2.8377 2.3843
-6.7132 2.6030 2.3843
-6.8065 2.3644 2.3843
-6.8463 2.1084 2.3690
-6.8600 1.8484 2.3482
-6.8729 1.5921 2.3308
-6.8851 1.3389 2.3166
-6.8966 1.0883 2.3055
-6.9075 0.8396 2.2974
-6.9178 0.5922 2.2924
-6.9276 0.3455 2.2903
-6.9367 0.0990 2.2912
-6.9454 -0.1479 2.2950
-6.9535 -0.3958 2.3019
-6.9611 -0.6452 2.3117
-6.9682 -0.8968 2.3247
-6.9749 -1.1511 2.3407
-6.9810 -1.4088 2.3601
-6.9867 -1.6707 2.3828
-6.9203 -1.9173 2.3843
-6.8401 -2.1599 2.3843
-6.7507 -2.3989 2.3843
-6.6524 -2.6340 2.3843
-6.5453 -2.8652 2.3843
-6.4296 -3.0918 2.3843
-6.3056 -3.3135 2.3843
-6.1734 -3.5299 2.3843
-6.0333 -3.7410 2.3843
-5.8855 -3.9464 2.3843
-5.7304 -4.1456 2.3843
-5.5681 -4.3386 2.3843
-5.3989 -4.5250 2.3843
-5.2232 -4.7046 2.3843
-5.0412 -4.8773 2.3843
-4.8532 -5.0427 2.3843
-4.6596 -5.2004 2.3843
-4.4606 -5.3507 2.3843
-4.2566 -5.4932 2.3843
-4.0479 -5.6278 2.3843
-3.8348 -5.7543 2.3843
-3.6177 -5.8726 2.3843
-3.3968 -5.9826 2.3843
-3.1726 -6.0841 2.3843
-2.9454 -6.1772 2.3843
-2.7154 -6.2617 2.3843
-2.4830 -6.3377 2.3843
-2.2486 -6.4049 2.3843
-2.0125 -6.4635 2.3843
-1.7750 -6.5134 2.3843
-1.5364 -6.5546 2.3843
-1.2972 -6.5871 2.3843
-1.0574 -6.6109 2.3843
-0.8176 -6.6261 2.3843
-6.2396 -2.3190 2.3843
-6.1454 -2.5361 2.3843
-6.0431 -2.7494 2.3843
-5.9330 -2.9584 2.3843
-5.8151 -3.1628 2.3843
-5.6898 -3.3624 2.3843
-5.5572 -3.5568 2.3843
-5.4176 -3.7458 2.3843
-5.2712 -3.9292 2.3843
-5.1183 -4.1066 2.3843
-4.9590 -4.2782 2.3843
-4.7937 -4.4436 2.3843
-4.6228 -4.6014 2.3843
-4.4463 -4.7530 2.3843
-4.2647 -4.8978 2.3843
-4.0781 -5.0354 2.3843
-3.8870 -5.1658 2.3843
-3.6915 -5.2888 2.3843
-3.4921 -5.4043 2.3843
-3.2889 -5.5121 2.3843
-3.0824 -5.6122 2.3843
-2.8728 -5.7045 2.3843
-2.6604 -5.7889 2.3843
-2.4456 -5.8653 2.3843
-2.2286 -5.9337 2.3843
-2.0097 -5.9941 2.3843
-1.7893 -6.0464 2.3843
-1.5677 -6.0905 2.3843
-1.3451 -6.1266 2.3843
-1.1219 -6.1546 2.3843
-0.8983 -6.1746 2.3843
-0.6747 -6.1865 2.3843
-0.4513 -6.1904 2.3843
-0.2284 -6.1863 2.3843
-0.0063 -6.1744 2.3843
0.2147 -6.1546 2.3843
0.4343 -6.1271 2.3843
0.6524 -6.0920 2.3843
0.8686 -6.0492 2.3843
1.0827 -5.9991 2.3843
1.2944 -5.9415 2.3843
1.5035 -5.8768 2.3843
1.7098 -5.8049 2.3843
1.9130 -5.7260 2.3843
2.1129 -5.6403 2.3843
2.3094 -5.5479 2.3843
2.5021 -5.4489 2.3843
2.6909 -5.3436 2.3843
2.8756 -5.2320 2.3843
3.0560 -5.1143 2.3843
3.2319 -4.9907 2.3843
3.4031 -4.8614 2.3843
3.5695 -4.7265 2.3843
3.7309 -4.5862 2.3843
3.8872 -4.4407 2.3843
4.0382 -4.2902 2.3843
4.1837 -4.1348 2.3843
4.3236 -3.9748 2.3843
4.4578 -3.8104 2.3843
4.5862 -3.6417 2.3843
4.7086 -3.4689 2.3843
4.8250 -3.2923 2.3843
4.9351 -3.1121 2.3843
5.0390 -2.9284 2.3843
5.1366 -2.7415 2.3843
5.2276 -2.5515 2.3843
5.3121 -2.3587 2.3843
5.3901 -2.1634 2.3843
5.4613 -1.9656 2.3843
5.5257 -1.7656 2.3843
5.5834 -1.5637 2.3843
5.6342 -1.3601 2.3843
5.6780 -1.1549 2.3843
5.7150 -0.9483 2.3843
5.7449 -0.7407 2.3843
5.7678 -0.5322 2.3843
5.7837 -0.3231 2.3843
5.7925 -0.1135 2.3843
5.7943 0.0963 2.3843
5.7890 0.3061 2.3843
5.7766 0.5157 2.3843
5.7571 0.7248 2.3843
5.7305 0.9333 2.3843
5.6970 1.1409 2.3843
5.6564 1.3473 2.3843
5.6088 1.5524 2.3843
5.5542 1.7560 2.3843
5.4928 1.9578 2.3843
5.4244 2.1575 2.3843
5.3493 2.3551 2.3843
5.2674 2.5502 2.3843
5.1788 2.7427 2.3843
5.0836 2.9322 2.3843
4.9819 3.1187 2.3843
4.8737 3.3018 2.3843
4.7592 3.4815 2.3843
4.6384 3.6573 2.3843
4.5115 3.8292 2.3843
4.3785 3.9970 2.3843
4.2396 4.1603 2.3843
4.0949 4.3189 2.3843
3.9446 4.4731 2.3843
3.7888 4.6220 2.3843
3.6276 4.7658 2.3843
3.4613 4.9042 2.3843
3.2898 5.0370 2.3843
3.1136 5.1641 2.3843
2.9326 5.2852 2.3843
2.7471 5.4001 2.3843
2.5573 5.5088 2.3843
2.3634 5.6110 2.3843
0.8735 2.3017 0.9617
0.7906 2.3326 0.9597
0.7066 2.3606 0.9577
0.6217 2.3855 0.9557
0.5359 2.4073 0.9536
0.4494 2.4260 0.9515
0.3623 2.4415 0.9494
0.2746 2.4540 0.9473
0.1865 2.4632 0.9452
0.0982 2.4693 0.9431
0.0097 2.4722 0.9410
-0.0788 2.4718 0.9388
-0.1673 2.4683 0.9367
-0.2556 2.4616 0.9346
-0.3436 2.4518 0.9325
-0.4312 2.4387 0.9304
-0.5183 2.4225 0.9283
-0.6047 2.4032 0.9263
-0.6904 2.3807 0.9242
-0.7752 2.3552 0.9222
-0.8590 2.3267 0.9202
-2.4456 5.9598 2.3843
-2.6630 5.8826 2.3843
-2.8778 5.7973 2.3843
-3.0897 5.7039 2.3843
-3.2985 5.6026 2.3843
-3.5037 5.4933 2.3843
-3.7050 5.3763 2.3843
-3.9023 5.2516 2.3843
-4.0950 5.1194 2.3843
-4.2829 4.9799 2.3843
-4.4658 4.8332 2.3843
-4.6433 4.6795 2.3843
-4.8152 4.5190 2.3843
-4.9811 4.3519 2.3843
-5.1408 4.1784 2.3843
-5.2940 3.9985 2.3843
-5.4405 3.8132 2.3843
-5.5799 3.6220 2.3843
-5.7122 3.4255 2.3843
-5.8370 3.2239 2.3843
-5.9541 3.0175 2.3843
-6.0634 2.8066 2.3843
-6.1646 2.5915 2.3843
-6.2577 2.3726 2.3843
-6.3423 2.1501 2.3843
-6.4184 1.9246 2.3843
-6.4858 1.6961 2.3843
-6.5445 1.4651 2.3843
-6.5943 1.2319 2.3843
-6.6351 0.9971 2.3843
-6.6669 0.7607 2.3843
-6.6896 0.5234 2.3843
-6.7032 0.2853 2.3843
-6.7077 0.0470 2.3843
-6.7030 -0.1914 2.3843
-6.6893 -0.4292 2.3843
-6.6664 -0.6663 2.3843
-6.6345 -0.9023 2.3843
-6.5936 -1.1366 2.3843
-6.5439 -1.3693 2.3843
-6.4853 -1.5996 2.3843
-6.4180 -1.8273 2.3843
-6.3422 -2.0522 2.3843
-6.2580 -2.2737 2.3843
-6.1654 -2.4918 2.3843
-6.0648 -2.7058 2.3843
-5.9563 -2.9157 2.3843
-5.8400 -3.1211 2.3843
-5.7162 -3.3217 2.3843
-5.5851 -3.5172 2.3843
-5.4469 -3.7073 2.3843
-5.3019 -3.8919 2.3843
-5.1503 -4.0706 2.3843
-4.9923 -4.2432 2.3843
-4.8283 -4.4095 2.3843
-4.6585 -4.5693 2.3843
-4.4831 -4.7223 2.3843
-4.3025 -4.8685 2.3843
-4.1169 -5.0076 2.3843
-3.9267 -5.1395 2.3843
-3.7321 -5.2641 2.3843
-3.5335 -5.3811 2.3843
-3.3311 -5.4905 2.3843
-3.1252 -5.5922 2.3843
-2.9162 -5.6861 2.3843
-2.7044 -5.7722 2.3843
-2.4900 -5.8502 2.3843
-2.2734 -5.9203 2.3843
-2.0549 -5.9823 2.3843
-1.8348 -6.0362 2.3843
-1.6134 -6.0821 2.3843
-1.3910 -6.1199 2.3843
-1.1679 -6.1495 2.3843
-0.9444 -6.1711 2.3843
-0.7207 -6.1847 2.3843
-0.4973 -6.1902 2.3843
-0.2743 -6.1878 2.3843
-0.0520 -6.1775 2.3843
0.1692 -6.1593 2.3843
0.3892 -6.1334 2.3843
0.6076 -6.0998 2.3843
0.8242 -6.0587 2.3843
1.0387 -6.0100 2.3843
1.2510 -5.9540 2.3843
1.4606 -5.8907 2.3843
1.6675 -5.8203 2.3843
1.8714 -5.7429 2.3843
2.0720 -5.6585 2.3843
2.2692 -5.5676 2.3843
2.4627 -5.4699 2.3843
2.6523 -5.3658 2.3843
2.8379 -5.2555 2.3843
3.0191 -5.1391 2.3843
3.1960 -5.0167 2.3843
3.3682 -4.8885 2.3843
3.5356 -4.7547 2.3843
3.6981 -4.6155 2.3843
3.8554 -4.4711 2.3843
4.0075 -4.3216 2.3843
4.1541 -4.1672 2.3843
4.2952 -4.0081 2.3843
4.4306 -3.8446 2.3843
4.5602 -3.6768 2.3843
4.6839 -3.5049 2.3843
4.8015 -3.3290 2.3843
4.9130 -3.1495 2.3843
5.0181 -2.9665 2.3843
5.1170 -2.7802 2.3843
5.2094 -2.5909 2.3843
5.2953 -2.3987 2.3843
5.3745 -2.2038 2.3843
5.4471 -2.0065 2.3843
5.5130 -1.8070 2.3843
5.5721 -1.6055 2.3843
5.6243 -1.4022 2.3843
5.6696 -1.1973 2.3843
5.7079 -0.9910 2.3843
5.7393 -0.7836 2.3843
5.7637 -0.5753 2.3843
5.7810 -0.3662 2.3843
5.7913 -0.1567 2.3843
5.7945 0.0531 2.3843
5.7906 0.2629 2.3843
5.7797 0.4725 2.3843
5.7617 0.6818 2.3843
5.7366 0.8904 2.3843
5.7045 1.0982 2.3843
5.6653 1.3049 2.3843
5.6191 1.5103 2.3843
5.5660 1.7142 2.3843
5.5060 1.9164 2.3843
5.4391 2.1166 2.3843
5.3653 2.3146 2.3843
5.2848 2.5102 2.3843
5.1976 2.7033 2.3843
5.1038 2.8934 2.3843
5.0034 3.0805 2.3843
4.8965 3.2644 2.3843
4.7833 3.4447 2.3843
4.6638 3.6214 2.3843
4.5381 3.7942 2.3843
4.4064 3.9628 2.3843
4.2687 4.1270 2.3843
4.1252 4.2868 2.3843
3.9761 4.4417 2.3843
3.8214 4.5918 2.3843
3.6613 4.7366 2.3843
3.4960 4.8762 2.3843
3.3256 5.0101 2.3843
3.1503 5.1384 2.3843
2.9702 5.2607 2.3843
2.7857 5.3770 2.3843
2.5968 5.4869 2.3843
2.4037 5.5905 2.3843
0.8905 2.2950 0.9621
0.8078 2.3265 0.9601
0.7240 2.3551 0.9581
0.6393 2.3806 0.9561
0.5537 2.4030 0.9540
0.4673 2.4224 0.9519
0.3803 2.4386 0.9499
0.2927 2.4517 0.9477
0.2047 2.4616 0.9456
0.1164 2.4683 0.9435
0.0280 2.4718 0.9414
-0.0606 2.4722 0.9393
-0.1491 2.4693 0.9372
-0.2375 2.4633 0.9350
-0.3255 2.4540 0.9329
-0.4132 2.4416 0.9308
-0.5004 2.4261 0.9287
-0.5870 2.4074 0.9267
-0.6728 2.3856 0.9246
-0.7578 2.3607 0.9226
-0.8418 2.3328 0.9206
-0.9248 2.3019 0.9186
-2.6184 5.8992 2.3843
-2.8337 5.8156 2.3843
-3.0463 5.7238 2.3843
-3.2557 5.6241 2.3843
-3.4617 5.5165 2.3843
-3.6639 5.4010 2.3843
-3.8620 5.2779 2.3843
-4.0557 5.1473 2.3843
-4.2446 5.0092 2.3843
-4.4286 4.8640 2.3843
-4.6072 4.7117 2.3843
-4.7803 4.5526 2.3843
-4.9474 4.3868 2.3843
-5.1084 4.2146 2.3843
-5.2629 4.0359 2.3843
-5.4108 3.8519 2.3843
-5.5518 3.6619 2.3843
-5.6855 3.4664 2.3843
-5.8119 3.2658 2.3843
-5.9306 3.0605 2.3843
-6.0416 2.8504 2.3843
-6.1444 2.6362 2.3843
-6.2392 2.4180 2.3843
-6.3255 2.1963 2.3843
-6.4034 1.9713 2.3843
-6.4726 1.7435 2.3843
-6.5331 1.5128 2.3843
-6.5847 1.2801 2.3843
-6.6274 1.0456 2.3843
-6.6611 0.8095 2.3843
-6.6857 0.5724 2.3843
-6.7011 0.3344 2.3843
-6.7075 0.0961 2.3843
-6.7047 -0.1423 2.3843
-6.6928 -0.3803 2.3843
-6.6719 -0.6176 2.3843
-6.6418 -0.8538 2.3843
-6.6028 -1.0885 2.3843
-6.5548 -1.3214 2.3843
-6.4981 -1.5523 2.3843
-6.4326 -1.7807 2.3843
-6.3585 -2.0061 2.3843
-6.2760 -2.2284 2.3843
-6.1852 -2.4471 2.3843
-6.0862 -2.6620 2.3843
-5.9793 -2.8728 2.3843
-5.8646 -3.0792 2.3843
-5.7423 -3.2807 2.3843
-5.6127 -3.4773 2.3843
-5.4760 -3.6686 2.3843
-5.3323 -3.8543 2.3843
-5.1821 -4.0342 2.3843
-5.0254 -4.2082 2.3843
-4.8626 -4.3758 2.3843
-4.6939 -4.5369 2.3843
-4.5197 -4.6914 2.3843
-4.3401 -4.8390 2.3843
-4.1556 -4.9796 2.3843
-3.9663 -5.1130 2.3843
-3.7726 -5.2390 2.3843
-3.5747 -5.3576 2.3843
-3.3731 -5.4686 2.3843
-3.1679 -5.5719 2.3843
-2.9595 -5.6674 2.3843
-2.7482 -5.7551 2.3843
-2.5344 -5.8348 2.3843
-2.3182 -5.9065 2.3843
-2.1001 -5.9702 2.3843
-1.8803 -6.0258 2.3843
-1.6591 -6.0733 2.3843
-1.4369 -6.1127 2.3843
-1.2139 -6.1441 2.3843
-0.9904 -6.1673 2.3843
-0.7668 -6.1825 2.3843
-5.8237 -2.1625 2.3843
-5.7363 -2.3653 2.3843
-5.6413 -2.5644 2.3843
-5.5390 -2.7596 2.3843
-5.4296 -2.9506 2.3843
-5.3131 -3.1371 2.3843
-5.1899 -3.3188 2.3843
-5.0602 -3.4957 2.3843
-4.9240 -3.6673 2.3843
-4.7818 -3.8333 2.3843
-4.6337 -3.9936 2.3843
-4.4799 -4.1481 2.3843
-4.3208 -4.2965 2.3843
-4.1565 -4.4387 2.3843
-3.9873 -4.5745 2.3843
-3.8136 -4.7037 2.3843
-3.6355 -4.8261 2.3843
-3.4534 -4.9417 2.3843
-3.2674 -5.0503 2.3843
-3.0780 -5.1518 2.3843
-2.8853 -5.2461 2.3843
-2.6898 -5.3332 2.3843
-2.4915 -5.4128 2.3843
-2.2910 -5.4851 2.3843
-2.0883 -5.5499 2.3843
-1.8839 -5.6072 2.3843
-1.6779 -5.6569 2.3843
-1.4707 -5.6991 2.3843
-1.2626 -5.7337 2.3843
-1.0539 -5.7608 2.3843
-0.8447 -5.7803 2.3843
-0.6354 -5.7923 2.3843
-0.4263 -5.7968 2.3843
-0.2176 -5.7938 2.3843
-0.0096 -5.7835 2.3843
0.1974 -5.7658 2.3843
0.4033 -5.7408 2.3843
0.6077 -5.7087 2.3843
0.8105 -5.6694 2.3843
1.0113 -5.6232 2.3843
1.2099 -5.5700 2.3843
1.4061 -5.5100 2.3843
1.5998 -5.4433 2.3843
1.7906 -5.3701 2.3843
1.9784 -5.2903 2.3843
2.1629 -5.2042 2.3843
2.3440 -5.1120 2.3843
2.5214 -5.0138 2.3843
2.6950 -4.9096 2.3843
2.8646 -4.7997 2.3843
3.0300 -4.6842 2.3843
3.1911 -4.5633 2.3843
3.3477 -4.4371 2.3843
3.4995 -4.3058 2.3843
3.6466 -4.1696 2.3843
3.7887 -4.0286 2.3843
3.9257 -3.8830 2.3843
4.0575 -3.7330 2.3843
4.1839 -3.5789 2.3843
4.3048 -3.4206 2.3843
4.4201 -3.2586 2.3843
4.5297 -3.0929 2.3843
4.6335 -2.9237 2.3843
4.7314 -2.7513 2.3843
4.8232 -2.5758 2.3843
4.9090 -2.3974 2.3843
4.9887 -2.2163 2.3843
5.0621 -2.0328 2.3843
5.1292 -1.8470 2.3843
5.1899 -1.6591 2.3843
5.2442 -1.4694 2.3843
5.2921 -1.2780 2.3843
5.3334 -1.0851 2.3843
5.3682 -0.8910 2.3843
5.3963 -0.6959 2.3843
5.4179 -0.4999 2.3843
5.4328 -0.3033 2.3843
5.4410 -0.1063 2.3843
5.4426 0.0909 2.3843
5.4375 0.2881 2.3843
5.4257 0.4851 2.3843
5.4073 0.6816 2.3843
5.3822 0.8775 2.3843
5.3504 1.0725 2.3843
5.3121 1.2665 2.3843
5.2671 1.4592 2.3843
5.2156 1.6504 2.3843
5.1576 1.8399 2.3843
5.0931 2.0275 2.3843
5.0221 2.2130 2.3843
4.9449 2.3961 2.3843
4.8613 2.5767 2.3843
4.7715 2.7546 2.3843
4.6756 2.9295 2.3843
4.5736 3.1013 2.3843
4.4656 3.2697 2.3843
4.3518 3.4345 2.3843
4.2322 3.5956 2.3843
4.1070 3.7527 2.3843
3.9762 3.9057 2.3843
3.8400 4.0543 2.3843
3.6985 4.1984 2.3843
3.5518 4.3377 2.3843
3.4002 4.4721 2.3843
3.2437 4.6014 2.3843
3.0825 4.7255 2.3843
2.9168 4.8440 2.3843
2.7467 4.9570 2.3843
2.5724 5.0642 2.3843
2.3941 5.1654 2.3843
0.8927 2.1229 0.9622
0.8162 2.1546 0.9604
0.7386 2.1836 0.9585
0.6600 2.2097 0.9566
0.5805 2.2330 0.9547
0.5002 2.2534 0.9528
0.4192 2.2709 0.9508
0.3376 2.2854 0.9489
0.2556 2.2971 0.9469
0.1731 2.3057 0.9449
0.0905 2.3114 0.9429
0.0076 2.3141 0.9410
-0.0753 2.3138 0.9390
-0.1581 2.3105 0.9370
-0.2407 2.3042 0.9350
-0.3231 2.2950 0.9330
-0.4051 2.2827 0.9311
-0.4866 2.2676 0.9291
-0.5675 2.2495 0.9272
-0.6477 2.2285 0.9253
-0.7271 2.2046 0.9234
-0.8055 2.1779 0.9215
-0.8830 2.1484 0.9197
-2.4920 5.4970 2.3843
-2.6924 5.4166 2.3843
-2.8901 5.3286 2.3843
-3.0847 5.2333 2.3843
-3.2759 5.1306 2.3843
-3.4636 5.0207 2.3843
-3.6473 4.9037 2.3843
-3.8268 4.7797 2.3843
-4.0018 4.6489 2.3843
-4.1721 4.5115 2.3843
-4.3373 4.3676 2.3843
-4.4972 4.2173 2.3843
-4.6516 4.0610 2.3843
-4.8002 3.8987 2.3843
-4.9427 3.7308 2.3843
-5.0789 3.5574 2.3843
-5.2086 3.3788 2.3843
-5.3316 3.1953 2.3843
-5.4476 3.0071 2.3843
-5.5565 2.8144 2.3843
-5.6581 2.6176 2.3843
-5.7522 2.4169 2.3843
-5.8387 2.2122 2.3843
-5.9174 2.0052 2.3843
-5.9881 1.7947 2.3843
-6.0508 1.5817 2.3843
-6.1054 1.3663 2.3843
-6.1517 1.1489 2.3843
-6.1897 0.9299 2.3843
-6.2193 0.7096 2.3843
-6.2405 0.4883 2.3843
-6.2532 0.2664 2.3843
-6.2575 0.0442 2.3843
-6.2532 -0.1780 2.3843
-6.2405 -0.3998 2.3843
-6.2194 -0.6209 2.3843
-6.1899 -0.8409 2.3843
-6.1521 -1.0595 2.3843
-6.1059 -1.2765 2.3843
-6.0516 -1.4912 2.3843
-5.9893 -1.7040 2.3843
-5.9189 -1.9135 2.3843
-5.8408 -2.1203 2.3843
-5.7549 -2.3238 2.3843
-5.6615 -2.5237 2.3843
-5.5607 -2.7197 2.3843
-5.4527 -2.9116 2.3843
-5.3377 -3.0990 2.3843
-5.2159 -3.2818 2.3843
-5.0874 -3.4594 2.3843
-4.9526 -3.6325 2.3843
-4.8116 -3.7994 2.3843
-4.6647 -3.9610 2.3843
-4.5121 -4.1168 2.3843
-4.3540 -4.2665 2.3843
-4.1908 -4.4099 2.3843
-4.0226 -4.5471 2.3843
-3.8498 -4.6776 2.3843
-3.6725 -4.8015 2.3843
-3.4912 -4.9185 2.3843
-3.3060 -5.0285 2.3843
-3.1173 -5.1315 2.3843
-2.9253 -5.2273 2.3843
-2.7303 -5.3159 2.3843
-2.5326 -5.3970 2.3843
-2.3325 -5.4708 2.3843
-2.1302 -5.5372 2.3843
-1.9261 -5.5960 2.3843
-1.7205 -5.6473 2.3843
-1.5135 -5.6910 2.3843
-1.3056 -5.7272 2.3843
-1.0969 -5.7558 2.3843
-0.8878 -5.7769 2.3843
-0.6785 -5.7904 2.3843
-0.4694 -5.7965 2.3843
-0.2606 -5.7950 2.3843
-0.0524 -5.7862 2.3843
0.1549 -5.7700 2.3843
0.3610 -5.7466 2.3843
0.5657 -5.7159 2.3843
0.7688 -5.6781 2.3843
0.9701 -5.6333 2.3843
1.1692 -5.5815 2.3843
1.3659 -5.5229 2.3843
1.5601 -5.4576 2.3843
1.7515 -5.3857 2.3843
1.9399 -5.3073 2.3843
2.1251 -5.2225 2.3843
2.3069 -5.1316 2.3843
2.4851 -5.0346 2.3843
2.6596 -4.9314 2.3843
2.8300 -4.8229 2.3843
2.9963 -4.7085 2.3843
3.1583 -4.5886 2.3843
3.3158 -4.4635 2.3843
3.4686 -4.3332 2.3843
3.6167 -4.1980 2.3843
3.7598 -4.0580 2.3843
3.8979 -3.9134 2.3843
4.0308 -3.7643 2.3843
4.1583 -3.6110 2.3843
4.2803 -3.4536 2.3843
4.3968 -3.2923 2.3843
4.5076 -3.1273 2.3843
4.6126 -2.9588 2.3843
4.7117 -2.7871 2.3843
4.8048 -2.6122 2.3843
4.8919 -2.4344 2.3843
4.9728 -2.2538 2.3843
5.0475 -2.0708 2.3843
5.1159 -1.8854 2.3843
5.1779 -1.6980 2.3843
5.2336 -1.5086 2.3843
5.2828 -1.3175 2.3843
5.3254 -1.1250 2.3843
5.3615 -0.9311 2.3843
5.3911 -0.7362 2.3843
5.4140 -0.5403 2.3843
5.4303 -0.3438 2.3843
5.4399 -0.1470 2.3843
5.4428 0.0502 2.3843
5.4391 0.2475 2.3843
5.4287 0.4445 2.3843
5.4116 0.6412 2.3843
5.3879 0.8372 2.3843
5.3575 1.0324 2.3843
5.3205 1.2266 2.3843
5.2769 1.4196 2.3843
5.2267 1.6111 2.3843
5.1700 1.8010 2.3843
5.1069 1.9890 2.3843
5.0373 2.1749 2.3843
4.9613 2.3586 2.3843
4.8790 2.5397 2.3843
4.7905 2.7182 2.3843
4.6958 2.8937 2.3843
4.5951 3.0662 2.3843
4.4884 3.2353 2.3843
4.3757 3.4009 2.3843
4.2573 3.5627 2.3843
4.1332 3.7207 2.3843
4.0036 3.8745 2.3843
3.8685 4.0240 2.3843
3.7281 4.1690 2.3843
3.5825 4.3094 2.3843
3.4318 4.4448 2.3843
3.2763 4.5752 2.3843
3.1161 4.7003 2.3843
2.9513 4.8201 2.3843
2.7821 4.9342 2.3843
2.6086 5.0426 2.3843
2.4311 5.1450 2.3843
2.2498 5.2414 2.3843
0.8320 2.1483 0.9608
0.7547 2.1779 0.9589
0.6762 2.2046 0.9570
0.5969 2.2284 0.9551
0.5168 2.2494 0.9532
0.4359 2.2675 0.9512
0.3545 2.2827 0.9493
0.2725 2.2949 0.9473
0.1901 2.3042 0.9453
0.1075 2.3105 0.9434
0.0247 2.3138 0.9414
-0.0582 2.3141 0.9394
-0.1410 2.3114 0.9374
-0.2237 2.3057 0.9354
-0.3062 2.2971 0.9334
-0.3882 2.2855 0.9315
-0.4698 2.2709 0.9295
-0.5509 2.2535 0.9276
-0.6312 2.2331 0.9257
-0.7108 2.2098 0.9238
-0.7894 2.1836 0.9219
-0.8671 2.1547 0.9200
-2.4504 5.5127 2.3843
-2.6514 5.4338 2.3843
-2.8496 5.3474 2.3843
-3.0448 5.2535 2.3843
-3.2368 5.1523 2.3843
-3.4252 5.0439 2.3843
-3.6098 4.9284 2.3843
-3.7902 4.8058 2.3843
-3.9661 4.6764 2.3843
-4.1374 4.5403 2.3843
-4.3037 4.3977 2.3843
-4.4647 4.2488 2.3843
-4.6203 4.0937 2.3843
-4.7701 3.9326 2.3843
-4.9138 3.7659 2.3843
-5.0514 3.5936 2.3843
-5.1824 3.4159 2.3843
-5.3068 3.2334 2.3843
-5.4243 3.0462 2.3843
-5.5347 2.8544 2.3843
-5.6378 2.6585 2.3843
-5.7335 2.4586 2.3843
-5.8215 2.2550 2.3843
-5.9018 2.0472 2.3843
-5.9742 1.8384 2.3843
-6.0386 1.6258 2.3843
-6.0948 1.4108 2.3843
-6.1428 1.1938 2.3843
-6.1825 0.9751 2.3843
-6.2139 0.7551 2.3843
-6.2368 0.5340 2.3843
-6.2513 0.3121 2.3843
-6.2573 0.0900 2.3843
-6.2548 -0.1323 2.3843
-6.2439 -0.3542 2.3843
-6.2245 -0.5754 2.3843
-6.1967 -0.7957 2.3843
-6.1605 -1.0146 2.3843
-6.1161 -1.2319 2.3843
-6.0635 -1.4472 2.3843
-6.0028 -1.6602 2.3843
-5.9341 -1.8705 2.3843
-5.8575 -2.0780 2.3843
-5.7732 -2.2822 2.3843
-5.6813 -2.4829 2.3843
-5.5821 -2.6797 2.3843
-5.4755 -2.8724 2.3843
-5.3619 -3.0608 2.3843
-5.2415 -3.2445 2.3843
-5.1144 -3.4234 2.3843
-4.9809 -3.5972 2.3843
-4.8412 -3.7654 2.3843
-4.6954 -3.9282 2.3843
-4.5440 -4.0851 2.3843
-4.3870 -4.2361 2.3843
-4.2248 -4.3809 2.3843
-4.0576 -4.5193 2.3843
-3.8857 -4.6513 2.3843
-3.7094 -4.7765 2.3843
-3.5289 -4.8949 2.3843
-3.3445 -5.0064 2.3843
-3.1565 -5.1109 2.3843
-2.9651 -5.2082 2.3843
-2.7707 -5.2982 2.3843
-2.5735 -5.3809 2.3843
-2.3739 -5.4562 2.3843
-2.1721 -5.5241 2.3843
-1.9683 -5.5845 2.3843
-1.7629 -5.6373 2.3843
-1.5562 -5.6826 2.3843
-1.3485 -5.7204 2.3843
-1.1400 -5.7505 2.3843
-0.9309 -5.7732 2.3843
-0.7217 -5.7882 2.3843
-5.4539 -2.0235 2.3843
-5.3724 -2.2134 2.3843
-5.2840 -2.3999 2.3843
-5.1886 -2.5828 2.3843
-5.0865 -2.7619 2.3843
-4.9780 -2.9367 2.3843
-4.8630 -3.1071 2.3843
-4.7420 -3.2728 2.3843
-4.6150 -3.4338 2.3843
-4.4822 -3.5897 2.3843
-4.3439 -3.7403 2.3843
-4.2003 -3.8854 2.3843
-4.0517 -4.0249 2.3843
-3.8982 -4.1586 2.3843
-3.7401 -4.2863 2.3843
-3.5777 -4.4078 2.3843
-3.4112 -4.5231 2.3843
-3.2408 -4.6320 2.3843
-3.0669 -4.7344 2.3843
-2.8897 -4.8302 2.3843
-2.7094 -4.9192 2.3843
-2.5263 -5.0015 2.3843
-2.3407 -5.0769 2.3843
-2.1528 -5.1453 2.3843
-1.9629 -5.2068 2.3843
-1.7713 -5.2612 2.3843
-1.5783 -5.3086 2.3843
-1.3840 -5.3489 2.3843
-1.1888 -5.3821 2.3843
-0.9930 -5.4082 2.3843
-0.7967 -5.4272 2.3843
-0.6003 -5.4392 2.3843
-0.4039 -5.4441 2.3843
-0.2080 -5.4421 2.3843
-0.0126 -5.4331 2.3843
0.1820 -5.4171 2.3843
0.3755 -5.3944 2.3843
0.5677 -5.3648 2.3843
0.7583 -5.3286 2.3843
0.9472 -5.2858 2.3843
1.1340 -5.2364 2.3843
1.3187 -5.1806 2.3843
1.5010 -5.1185 2.3843
1.6806 -5.0502 2.3843
1.8574 -4.9758 2.3843
2.0312 -4.8954 2.3843
2.2018 -4.8091 2.3843
2.3690 -4.7172 2.3843
2.5326 -4.6197 2.3843
2.6925 -4.5167 2.3843
2.8484 -4.4084 2.3843
3.0003 -4.2950 2.3843
3.1479 -4.1766 2.3843
3.2912 -4.0533 2.3843
3.4300 -3.9254 2.3843
3.5640 -3.7929 2.3843
3.6933 -3.6562 2.3843
3.8177 -3.5152 2.3843
3.9370 -3.3702 2.3843
4.0511 -3.2214 2.3843
4.1600 -3.0690 2.3843
4.2635 -2.9131 2.3843
4.3615 -2.7539 2.3843
4.4539 -2.5916 2.3843
4.5407 -2.4263 2.3843
4.6217 -2.2584 2.3843
4.6970 -2.0879 2.3843
4.7663 -1.9150 2.3843
4.8297 -1.7400 2.3843
4.8870 -1.5630 2.3843
4.9383 -1.3842 2.3843
4.9835 -1.2039 2.3843
5.0225 -1.0222 2.3843
5.0553 -0.8393 2.3843
5.0819 -0.6554 2.3843
5.1022 -0.4708 2.3843
5.1162 -0.2855 2.3843
5.1239 -0.0998 2.3843
5.1254 0.0860 2.3843
5.1205 0.2718 2.3843
5.1093 0.4574 2.3843
5.0918 0.6426 2.3843
5.0680 0.8271 2.3843
5.0379 1.0109 2.3843
5.0015 1.1936 2.3843
4.9590 1.3751 2.3843
4.9102 1.5552 2.3843
4.8553 1.7336 2.3843
4.7943 1.9102 2.3843
4.7272 2.0848 2.3843
4.6541 2.2572 2.3843
4.5751 2.4272 2.3843
4.4903 2.5945 2.3843
4.3996 2.7591 2.3843
4.3033 2.9206 2.3843
4.2013 3.0789 2.3843
4.0938 3.2339 2.3843
3.9808 3.3852 2.3843
3.8626 3.5328 2.3843
3.7391 3.6765 2.3843
3.6106 3.8160 2.3843
3.4770 3.9512 2.3843
3.3387 4.0819 2.3843
3.1957 4.2080 2.3843
3.0481 4.3292 2.3843
2.8961 4.4454 2.3843
2.7399 4.5564 2.3843
2.5796 4.6622 2.3843
2.4154 4.7624 2.3843
2.2475 4.8570 2.3843
0.8367 1.9932 0.9609
0.7649 2.0230 0.9592
0.6920 2.0502 0.9574
0.6182 2.0747 0.9557
0.5435 2.0965 0.9539
0.4682 2.1157 0.9521
0.3921 2.1321 0.9502
0.3155 2.1457 0.9484
0.2385 2.1566 0.9465
0.1611 2.1647 0.9447
0.0835 2.1701 0.9428
0.0057 2.1726 0.9410
-0.0721 2.1723 0.9391
-0.1498 2.1692 0.9372
-0.2274 2.1633 0.9354
-0.3047 2.1546 0.9335
-0.3817 2.1431 0.9317
-0.4582 2.1289 0.9298
-0.5342 2.1119 0.9280
-0.6094 2.0922 0.9262
-0.6840 2.0698 0.9244
-0.7576 2.0447 0.9227
-0.8303 2.0170 0.9210
-0.9020 1.9867 0.9192
-2.5271 5.0770 2.3843
-2.7120 4.9940 2.3843
-2.8941 4.9041 2.3843
-3.0729 4.8073 2.3843
-3.2484 4.7038 2.3843
-3.4201 4.5937 2.3843
-3.5879 4.4771 2.3843
-3.7515 4.3542 2.3843
-3.9106 4.2251 2.3843
-4.0649 4.0899 2.3843
-4.2143 3.9489 2.3843
-4.3585 3.8022 2.3843
-4.4972 3.6500 2.3843
-4.6302 3.4925 2.3843
-4.7574 3.3300 2.3843
-4.8784 3.1626 2.3843
-4.9932 2.9907 2.3843
-5.1015 2.8143 2.3843
-5.2031 2.6339 2.3843
-5.2979 2.4496 2.3843
-5.3857 2.2617 2.3843
-5.4664 2.0705 2.3843
-5.5398 1.8763 2.3843
-5.6058 1.6794 2.3843
-5.6644 1.4800 2.3843
-5.7153 1.2785 2.3843
-5.7585 1.0752 2.3843
-5.7940 0.8703 2.3843
-5.8217 0.6642 2.3843
-5.8415 0.4572 2.3843
-5.8534 0.2496 2.3843
-5.8575 0.0417 2.3843
-5.8536 -0.1662 2.3843
-5.8419 -0.3737 2.3843
-5.8223 -0.5805 2.3843
-5.7949 -0.7863 2.3843
-5.7597 -0.9909 2.3843
-5.7168 -1.1939 2.3843
-5.6662 -1.3950 2.3843
-5.6081 -1.5939 2.3843
-5.5426 -1.7903 2.3843
-5.4698 -1.9839 2.3843
-5.3898 -2.1745 2.3843
-5.3028 -2.3618 2.3843
-5.2088 -2.5454 2.3843
-5.1081 -2.7256 2.3843
-5.0009 -2.9010 2.3843
-4.8872 -3.0723 2.3843
-4.7674 -3.2391 2.3843
-4.6416 -3.4010 2.3843
-4.5100 -3.5580 2.3843
-4.3728 -3.7097 2.3843
-4.2303 -3.8560 2.3843
-4.0827 -3.9966 2.3843
-3.9302 -4.1315 2.3843
-3.7730 -4.2605 2.3843
-3.6115 -4.3833 2.3843
-3.4458 -4.4999 2.3843
-3.2762 -4.6101 2.3843
-3.1030 -4.7139 2.3843
-2.9265 -4.8110 2.3843
-2.7468 -4.9015 2.3843
-2.5642 -4.9851 2.3843
-2.3791 -5.0619 2.3843
-2.1917 -5.1318 2.3843
-2.0022 -5.1947 2.3843
-1.8109 -5.2506 2.3843
-1.6182 -5.2994 2.3843
-1.4241 -5.3412 2.3843
-1.2291 -5.3758 2.3843
-1.0334 -5.4034 2.3843
-0.8372 -5.4239 2.3843
-0.6407 -5.4373 2.3843
-0.4444 -5.4437 2.3843
-0.2483 -5.4431 2.3843
-0.0528 -5.4355 2.3843
0.1420 -5.4210 2.3843
0.3357 -5.3996 2.3843
0.5282 -5.3715 2.3843
0.7191 -5.3366 2.3843
0.9084 -5.2951 2.3843
1.0957 -5.2471 2.3843
1.2808 -5.1926 2.3843
1.4636 -5.1318 2.3843
1.6438 -5.0648 2.3843
1.8212 -4.9916 2.3843
1.9956 -4.9124 2.3843
2.1669 -4.8274 2.3843
2.3348 -4.7365 2.3843
2.4992 -4.6402 2.3843
2.6598 -4.5383 2.3843
2.8166 -4.4311 2.3843
2.9693 -4.3188 2.3843
3.1179 -4.2014 2.3843
3.2621 -4.0790 2.3843
3.4018 -3.9521 2.3843
3.5368 -3.8206 2.3843
3.6671 -3.6848 2.3843
3.7925 -3.5446 2.3843
3.9128 -3.4004 2.3843
4.0280 -3.2524 2.3843
4.1380 -3.1007 2.3843
4.2426 -2.9455 2.3843
4.3417 -2.7869 2.3843
4.4353 -2.6252 2.3843
4.5233 -2.4606 2.3843
4.6055 -2.2932 2.3843
4.6819 -2.1232 2.3843
4.7525 -1.9508 2.3843
4.8171 -1.7762 2.3843
4.8757 -1.5996 2.3843
4.9282 -1.4212 2.3843
4.9747 -1.2412 2.3843
5.0149 -1.0597 2.3843
5.0490 -0.8771 2.3843
5.0769 -0.6934 2.3843
5.0985 -0.5089 2.3843
5.1138 -0.3237 2.3843
5.1229 -0.1381 2.3843
5.1256 0.0477 2.3843
5.1220 0.2335 2.3843
5.1121 0.4192 2.3843
5.0959 0.6045 2.3843
5.0734 0.7892 2.3843
5.0446 0.9731 2.3843
5.0095 1.1560 2.3843
4.9683 1.3378 2.3843
4.9208 1.5182 2.3843
4.8671 1.6970 2.3843
4.8074 1.8740 2.3843
4.7415 2.0491 2.3843
4.6697 2.2219 2.3843
4.5919 2.3924 2.3843
4.5082 2.5603 2.3843
4.4188 2.7254 2.3843
4.3236 2.8876 2.3843
4.2227 3.0466 2.3843
4.1164 3.2022 2.3843
4.0045 3.3544 2.3843
3.8874 3.5027 2.3843
3.7650 3.6472 2.3843
3.6375 3.7876 2.3843
3.5050 3.9237 2.3843
3.3676 4.0554 2.3843
3.2255 4.1824 2.3843
3.0789 4.3046 2.3843
2.9278 4.4219 2.3843
2.7724 4.5340 2.3843
2.6130 4.6408 2.3843
2.4496 4.7422 2.3843
2.2824 4.8380 2.3843
0.8514 1.9868 0.9613
0.7797 2.0171 0.9596
0.7071 2.0448 0.9578
0.6335 2.0698 0.9560
0.5590 2.0922 0.9542
0.4837 2.1119 0.9524
0.4078 2.1289 0.9506
0.3314 2.1431 0.9488
0.2544 2.1546 0.9469
0.1771 2.1633 0.9451
0.0995 2.1692 0.9432
0.0218 2.1723 0.9413
-0.0560 2.1726 0.9395
-0.1338 2.1701 0.9376
-0.2114 2.1647 0.9357
-0.2888 2.1566 0.9339
-0.3659 2.1457 0.9321
-0.4425 2.1321 0.9302
-0.5186 2.1157 0.9284
-0.5940 2.0965 0.9266
-0.6687 2.0746 0.9248
-0.7425 2.0501 0.9231
-0.8154 2.0229 0.9213
-0.8873 1.9931 0.9196
-2.4887 5.0932 2.3843
-2.6742 5.0117 2.3843
-2.8568 4.9232 2.3843
-3.0364 4.8278 2.3843
-3.2125 4.7257 2.3843
-3.3851 4.6169 2.3843
-3.5537 4.5017 2.3843
-3.7182 4.3800 2.3843
-3.8782 4.2522 2.3843
-4.0335 4.1182 2.3843
-4.1839 3.9784 2.3843
-4.3292 3.8329 2.3843
-4.4691 3.6818 2.3843
-4.6033 3.5254 2.3843
-4.7317 3.3639 2.3843
-4.8540 3.1975 2.3843
-4.9701 3.0265 2.3843
-5.0797 2.8510 2.3843
-5.1828 2.6714 2.3843
-5.2790 2.4877 2.3843
-5.3682 2.3007 2.3843
-5.4504 2.1102 2.3843
-5.5253 1.9166 2.3843
-5.5929 1.7202 2.3843
-5.6529 1.5213 2.3843
-5.7054 1.3202 2.3843
-5.7502 1.1172 2.3843
-5.7873 0.9126 2.3843
-5.8166 0.7067 2.3843
-5.8381 0.4999 2.3843
-5.8516 0.2924 2.3843
-5.8573 0.0845 2.3843
-5.8551 -0.1233 2.3843
-5.8450 -0.3309 2.3843
-5.8270 -0.5379 2.3843
-5.8012 -0.7440 2.3843
-5.7675 -0.9489 2.3843
-5.7262 -1.1522 2.3843
-5.6772 -1.3537 2.3843
-5.6207 -1.5531 2.3843
-5.5567 -1.7500 2.3843
-5.4854 -1.9443 2.3843
-5.4069 -2.1355 2.3843
-5.3213 -2.3235 2.3843
-5.2287 -2.5079 2.3843
-5.1294 -2.6885 2.3843
-5.0235 -2.8651 2.3843
-4.9112 -3.0375 2.3843
-4.7926 -3.2051 2.3843
-4.6680 -3.3681 2.3843
-4.5376 -3.5261 2.3843
-4.4015 -3.6789 2.3843
-4.2601 -3.8263 2.3843
-4.1135 -3.9681 2.3843
-3.9620 -4.1042 2.3843
-3.8058 -4.2344 2.3843
-3.6451 -4.3585 2.3843
-3.4803 -4.4764 2.3843
-3.3115 -4.5879 2.3843
-3.1390 -4.6930 2.3843
-2.9631 -4.7915 2.3843
-2.7840 -4.8834 2.3843
-2.6021 -4.9684 2.3843
-2.4175 -5.0466 2.3843
-2.2305 -5.1180 2.3843
-2.0414 -5.1823 2.3843
-1.8505 -5.2396 2.3843
-1.6580 -5.2899 2.3843
-1.4642 -5.3331 2.3843
-1.2694 -5.3693 2.3843
-1.0738 -5.3983 2.3843
-0.8776 -5.4202 2.3843
-0.6812 -5.4351 2.3843
-5.1227 -1.8989 2.3843
-5.0465 -2.0775 2.3843
-4.9637 -2.2527 2.3843
-4.8746 -2.4244 2.3843
-4.7791 -2.5926 2.3843
-4.6775 -2.7569 2.3843
-4.5699 -2.9172 2.3843
-4.4566 -3.0731 2.3843
-4.3377 -3.2245 2.3843
-4.2134 -3.3712 2.3843
-4.0839 -3.5130 2.3843
-3.9494 -3.6497 2.3843
-3.8101 -3.7811 2.3843
-3.6663 -3.9070 2.3843
-3.5181 -4.0274 2.3843
-3.3658 -4.1421 2.3843
-3.2097 -4.2509 2.3843
-3.0499 -4.3538 2.3843
-2.8867 -4.4505 2.3843
-2.7204 -4.5410 2.3843
-2.5511 -4.6253 2.3843
-2.3792 -4.7032 2.3843
-2.2049 -4.7746 2.3843
-2.0285 -4.8395 2.3843
-1.8501 -4.8979 2.3843
-1.6700 -4.9497 2.3843
-1.4886 -4.9949 2.3843
-1.3059 -5.0334 2.3843
-1.1224 -5.0652 2.3843
-0.9381 -5.0904 2.3843
-0.7534 -5.1089 2.3843
-0.5686 -5.1208 2.3843
-0.3838 -5.1261 2.3843
-0.1992 -5.1247 2.3843
-0.0152 -5.1168 2.3843
0.1681 -5.1024 2.3843
0.3504 -5.0816 2.3843
0.5315 -5.0543 2.3843
0.7112 -5.0207 2.3843
0.8892 -4.9809 2.3843
1.0655 -4.9349 2.3843
1.2397 -4.8829 2.3843
1.4116 -4.8249 2.3843
1.5811 -4.7610 2.3843
1.7480 -4.6913 2.3843
1.9121 -4.6159 2.3843
2.0731 -4.5350 2.3843
2.2310 -4.4487 2.3843
2.3856 -4.3572 2.3843
2.5366 -4.2604 2.3843
2.6839 -4.1586 2.3843
2.8275 -4.0520 2.3843
2.9670 -3.9406 2.3843
3.1025 -3.8245 2.3843
3.2336 -3.7041 2.3843
3.3604 -3.5794 2.3843
3.4827 -3.4505 2.3843
3.6003 -3.3177 2.3843
3.7131 -3.1811 2.3843
3.8211 -3.0408 2.3843
3.9241 -2.8971 2.3843
4.0220 -2.7500 2.3843
4.1148 -2.5998 2.3843
4.2022 -2.4467 2.3843
4.2844 -2.2908 2.3843
4.3611 -2.1322 2.3843
4.4322 -1.9713 2.3843
4.4978 -1.8081 2.3843
4.5578 -1.6429 2.3843
4.6121 -1.4758 2.3843
4.6606 -1.3070 2.3843
4.7034 -1.1367 2.3843
4.7403 -0.9651 2.3843
4.7713 -0.7924 2.3843
4.7964 -0.6187 2.3843
4.8156 -0.4443 2.3843
4.8288 -0.2693 2.3843
4.8361 -0.0940 2.3843
4.8374 0.0815 2.3843
4.8327 0.2570 2.3843
4.8221 0.4323 2.3843
4.8054 0.6072 2.3843
4.7828 0.7815 2.3843
4.7543 0.9549 2.3843
4.7198 1.1275 2.3843
4.6794 1.2988 2.3843
4.6332 1.4688 2.3843
4.5811 1.6372 2.3843
4.5233 1.8039 2.3843
4.4598 1.9687 2.3843
4.3905 2.1313 2.3843
4.3157 2.2916 2.3843
4.2353 2.4494 2.3843
4.1495 2.6046 2.3843
4.0582 2.7569 2.3843
3.9617 2.9061 2.3843
3.8599 3.0521 2.3843
3.7531 3.1947 2.3843
3.6412 3.3338 2.3843
3.5244 3.4690 2.3843
3.4028 3.6003 2.3843
3.2766 3.7275 2.3843
3.1458 3.8504 2.3843
3.0106 3.9690 2.3843
2.8711 4.0829 2.3843
2.7275 4.1921 2.3843
2.5800 4.2963 2.3843
2.4286 4.3956 2.3843
2.2736 4.4896 2.3843
0.8528 1.8460 0.9614
0.7862 1.8764 0.9598
0.7186 1.9044 0.9581
0.6500 1.9299 0.9565
0.5805 1.9530 0.9548
0.5103 1.9735 0.9531
0.4393 1.9915 0.9514
0.3677 2.0070 0.9497
0.2957 2.0198 0.9479
0.2231 2.0301 0.9462
0.1503 2.0377 0.9445
0.0773 2.0427 0.9427
0.0041 2.0451 0.9409
-0.0692 2.0448 0.9392
-0.1424 2.0419 0.9374
-0.2154 2.0363 0.9357
-0.2882 2.0282 0.9339
-0.3606 2.0174 0.9322
-0.4326 2.0040 0.9305
-0.5041 1.9880 0.9288
-0.5750 1.9694 0.9271
-0.6451 1.9483 0.9254
-0.7145 1.9247 0.9238
-0.7829 1.8986 0.9221
-0.8503 1.8701 0.9205
-0.9167 1.8391 0.9189
-2.5521 4.6934 2.3843
-2.7229 4.6085 2.3843
-2.8907 4.5171 2.3843
-3.0553 4.4194 2.3843
-3.2163 4.3156 2.3843
-3.3736 4.2057 2.3843
-3.5269 4.0898 2.3843
-3.6760 3.9682 2.3843
-3.8207 3.8409 2.3843
-3.9606 3.7082 2.3843
-4.0957 3.5702 2.3843
-4.2256 3.4271 2.3843
-4.3502 3.2790 2.3843
-4.4693 3.1262 2.3843
-4.5827 2.9689 2.3843
-4.6901 2.8073 2.3843
-4.7915 2.6417 2.3843
-4.8866 2.4722 2.3843
-4.9754 2.2992 2.3843
-5.0576 2.1228 2.3843
-5.1331 1.9432 2.3843
-5.2018 1.7610 2.3843
-5.2636 1.5762 2.3843
-5.3184 1.3891 2.3843
-5.3661 1.2000 2.3843
-5.4066 1.0092 2.3843
-5.4398 0.8169 2.3843
-5.4658 0.6235 2.3843
-5.4844 0.4293 2.3843
-5.4956 0.2345 2.3843
-5.4995 0.0395 2.3843
-5.4959 -0.1555 2.3843
-5.4850 -0.3502 2.3843
-5.4668 -0.5443 2.3843
-5.4412 -0.7375 2.3843
-5.4083 -0.9295 2.3843
-5.3683 -1.1200 2.3843
-5.3211 -1.3088 2.3843
-5.2668 -1.4955 2.3843
-5.2056 -1.6799 2.3843
-5.1375 -1.8619 2.3843
-5.0627 -2.0408 2.3843
-4.9813 -2.2166 2.3843
-4.8934 -2.3897 2.3843
-4.7993 -2.5582 2.3843
-4.6989 -2.7234 2.3843
-4.5926 -2.8845 2.3843
-4.4804 -3.0413 2.3843
-4.3627 -3.1937 2.3843
-4.2394 -3.3414 2.3843
-4.1110 -3.4842 2.3843
-3.9775 -3.6219 2.3843
-3.8392 -3.7544 2.3843
-3.6963 -3.8815 2.3843
-3.5490 -4.0031 2.3843
-3.3975 -4.1190 2.3843
-3.2421 -4.2290 2.3843
-3.0831 -4.3331 2.3843
-2.9206 -4.4311 2.3843
-2.7549 -4.5229 2.3843
-2.5862 -4.6084 2.3843
-2.4149 -4.6876 2.3843
-2.2410 -4.7604 2.3843
-2.0650 -4.8267 2.3843
-1.8870 -4.8864 2.3843
-1.7072 -4.9396 2.3843
-1.5260 -4.9861 2.3843
-1.3436 -5.0260 2.3843
-1.1602 -5.0592 2.3843
-0.9761 -5.0858 2.3843
-0.7915 -5.1057 2.3843
-0.6067 -5.1189 2.3843
-0.4218 -5.1255 2.3843
-0.2372 -5.1255 2.3843
-0.0531 -5.1190 2.3843
0.1304 -5.1059 2.3843
0.3129 -5.0864 2.3843
0.4943 -5.0605 2.3843
0.6743 -5.0282 2.3843
0.8527 -4.9896 2.3843
1.0293 -4.9449 2.3843
1.2039 -4.8941 2.3843
1.3764 -4.8373 2.3843
1.5464 -4.7746 2.3843
1.7138 -4.7061 2.3843
1.8785 -4.6319 2.3843
2.0402 -4.5522 2.3843
2.1987 -4.4670 2.3843
2.3540 -4.3765 2.3843
2.5058 -4.2808 2.3843
2.6539 -4.1800 2.3843
2.7982 -4.0743 2.3843
2.9386 -3.9639 2.3843
3.0749 -3.8488 2.3843
3.2070 -3.7293 2.3843
3.3347 -3.6054 2.3843
3.4579 -3.4774 2.3843
3.5764 -3.3454 2.3843
3.6903 -3.2095 2.3843
3.7993 -3.0700 2.3843
3.9033 -2.9269 2.3843
4.0023 -2.7806 2.3843
4.0961 -2.6310 2.3843
4.1847 -2.4785 2.3843
4.2679 -2.3231 2.3843
4.3457 -2.1651 2.3843
4.4180 -2.0047 2.3843
4.4848 -1.8419 2.3843
4.5459 -1.6771 2.3843
4.6014 -1.5104 2.3843
4.6511 -1.3419 2.3843
4.6950 -1.1719 2.3843
4.7331 -1.0005 2.3843
4.7654 -0.8280 2.3843
4.7917 -0.6545 2.3843
4.8121 -0.4803 2.3843
4.8266 -0.3054 2.3843
4.8351 -0.1301 2.3843
4.8376 0.0454 2.3843
4.8342 0.2209 2.3843
4.8247 0.3962 2.3843
4.8093 0.5712 2.3843
4.7880 0.7456 2.3843
4.7606 0.9193 2.3843
4.7274 1.0920 2.3843
4.6882 1.2636 2.3843
4.6432 1.4339 2.3843
4.5923 1.6027 2.3843
4.5357 1.7697 2.3843
4.4733 1.9349 2.3843
4.4053 2.0980 2.3843
4.3316 2.2588 2.3843
4.2523 2.4171 2.3843
4.1676 2.5727 2.3843
4.0775 2.7257 2.3843
3.9820 2.8756 2.3843
3.8813 3.0223 2.3843
3.7755 3.1656 2.3843
3.6646 3.3054 2.3843
3.5489 3.4414 2.3843
3.4283 3.5735 2.3843
3.3030 3.7016 2.3843
3.1731 3.8255 2.3843
3.0388 3.9449 2.3843
2.9002 4.0598 2.3843
2.7575 4.1700 2.3843
2.6107 4.2753 2.3843
2.4601 4.3755 2.3843
2.3058 4.4706 2.3843
0.8664 1.8394 0.9617
0.8000 1.8703 0.9601
0.7326 1.8988 0.9585
0.6642 1.9249 0.9568
0.5949 1.9484 0.9551
0.5248 1.9695 0.9535
0.4540 1.9880 0.9518
0.3825 2.0040 0.9500
0.3105 2.0174 0.9483
0.2381 2.0282 0.9466
0.1653 2.0363 0.9448
0.0923 2.0419 0.9431
0.0191 2.0448 0.9413
-0.0541 2.0451 0.9396
-0.1273 2.0427 0.9378
-0.2004 2.0377 0.9361
-0.2732 2.0301 0.9343
-0.3457 2.0198 0.9326
-0.4178 2.0069 0.9308
-0.4894 1.9915 0.9291
-0.5604 1.9734 0.9274
-0.6307 1.9529 0.9258
-0.7002 1.9298 0.9241
-0.7689 1.9042 0.9225
-0.8365 1.8762 0.9208
-0.9031 1.8457 0.9193
-2.5166 4.7101 2.3843
-2.6880 4.6265 2.3843
-2.8564 4.5364 2.3843
-3.0216 4.4400 2.3843
-3.1834 4.3375 2.3843
-3.3415 4.2288 2.3843
-3.4957 4.1141 2.3843
-3.6457 3.9937 2.3843
-3.7912 3.8676 2.3843
-3.9322 3.7360 2.3843
-4.0683 3.5991 2.3843
-4.1993 3.4570 2.3843
-4.3250 3.3099 2.3843
-4.4452 3.1581 2.3843
-4.5598 3.0017 2.3843
-4.6685 2.8410 2.3843
-4.7711 2.6762 2.3843
-4.8676 2.5074 2.3843
-4.9576 2.3351 2.3843
-5.0412 2.1594 2.3843
-5.1181 1.9807 2.3843
-5.1882 1.7987 2.3843
-5.2514 1.6142 2.3843
-5.3077 1.4278 2.3843
-5.3568 1.2391 2.3843
-5.3988 1.0486 2.3843
-5.4336 0.8566 2.3843
-5.4610 0.6635 2.3843
-5.4812 0.4694 2.3843
-5.4939 0.2747 2.3843
-5.4993 0.0797 2.3843
-5.4973 -0.1154 2.3843
-5.4879 -0.3101 2.3843
-5.4711 -0.5044 2.3843
-5.4470 -0.6978 2.3843
-5.4157 -0.8900 2.3843
-5.3771 -1.0809 2.3843
-5.3314 -1.2700 2.3843
-5.2786 -1.4572 2.3843
-5.2188 -1.6421 2.3843
-5.1521 -1.8245 2.3843
-5.0787 -2.0042 2.3843
-4.9986 -2.1806 2.3843
-4.9121 -2.3540 2.3843
-4.8192 -2.5237 2.3843
-4.7201 -2.6897 2.3843
-4.6150 -2.8516 2.3843
-4.5040 -3.0094 2.3843
-4.3874 -3.1627 2.3843
-4.2653 -3.3113 2.3843
-4.1379 -3.4552 2.3843
-4.0054 -3.5940 2.3843
-3.8680 -3.7276 2.3843
-3.7261 -3.8558 2.3843
-3.5796 -3.9785 2.3843
-3.4290 -4.0956 2.3843
-3.2745 -4.2068 2.3843
-3.1162 -4.3121 2.3843
-2.9543 -4.4114 2.3843
-2.7893 -4.5045 2.3843
-2.6212 -4.5913 2.3843
-2.4504 -4.6718 2.3843
-2.2770 -4.7459 2.3843
-2.1014 -4.8136 2.3843
-1.9238 -4.8747 2.3843
-1.7444 -4.9292 2.3843
-1.5635 -4.9771 2.3843
-1.3813 -5.0183 2.3843
-1.1981 -5.0529 2.3843
-1.0141 -5.0808 2.3843
-0.8296 -5.1021 2.3843
-0.6448 -5.1167 2.3843
-4.8239 -1.7865 2.3843
-4.7525 -1.9545 2.3843
-4.6749 -2.1195 2.3843
-4.5912 -2.2814 2.3843
-4.5017 -2.4399 2.3843
-4.4063 -2.5947 2.3843
-4.3054 -2.7458 2.3843
-4.1990 -2.8928 2.3843
-4.0874 -3.0356 2.3843
-3.9707 -3.1739 2.3843
-3.8490 -3.3077 2.3843
-3.7227 -3.4367 2.3843
-3.5918 -3.5608 2.3843
-3.4567 -3.6797 2.3843
-3.3174 -3.7935 2.3843
-3.1742 -3.9019 2.3843
-3.0274 -4.0048 2.3843
-2.8772 -4.1021 2.3843
-2.7237 -4.1936 2.3843
-2.5672 -4.2794 2.3843
-2.4079 -4.3592 2.3843
-2.2461 -4.4331 2.3843
-2.0820 -4.5009 2.3843
-1.9159 -4.5626 2.3843
-1.7478 -4.6182 2.3843
-1.5782 -4.6675 2.3843
-1.4072 -4.7106 2.3843
-1.2351 -4.7474 2.3843
-1.0621 -4.7780 2.3843
-0.8884 -4.8023 2.3843
-0.7142 -4.8203 2.3843
-0.5398 -4.8320 2.3843
-0.3655 -4.8375 2.3843
-0.1913 -4.8367 2.3843
-0.0176 -4.8298 2.3843
0.1554 -4.8167 2.3843
0.3275 -4.7975 2.3843
0.4986 -4.7722 2.3843
0.6683 -4.7410 2.3843
0.8366 -4.7039 2.3843
1.0032 -4.6609 2.3843
1.1678 -4.6122 2.3843
1.3304 -4.5578 2.3843
1.4906 -4.4979 2.3843
1.6485 -4.4324 2.3843
1.8037 -4.3617 2.3843
1.9560 -4.2856 2.3843
2.1054 -4.2044 2.3843
2.2517 -4.1182 2.3843
2.3947 -4.0271 2.3843
2.5342 -3.9312 2.3843
2.6701 -3.8306 2.3843
2.8022 -3.7256 2.3843
2.9305 -3.6162 2.3843
3.0547 -3.5025 2.3843
3.1749 -3.3848 2.3843
3.2907 -3.2631 2.3843
3.4021 -3.1377 2.3843
3.5091 -3.0086 2.3843
3.6114 -2.8761 2.3843
3.7090 -2.7403 2.3843
3.8018 -2.6013 2.3843
3.8897 -2.4593 2.3843
3.9727 -2.3145 2.3843
4.0505 -2.1671 2.3843
4.1232 -2.0172 2.3843
4.1907 -1.8650 2.3843
4.2529 -1.7106 2.3843
4.3098 -1.5543 2.3843
4.3612 -1.3962 2.3843
4.4072 -1.2365 2.3843
4.4478 -1.0754 2.3843
4.4827 -0.9130 2.3843
4.5121 -0.7495 2.3843
4.5359 -0.5852 2.3843
4.5541 -0.4201 2.3843
4.5666 -0.2545 2.3843
4.5734 -0.0886 2.3843
4.5746 0.0775 2.3843
4.5701 0.2435 2.3843
4.5600 0.4094 2.3843
4.5441 0.5749 2.3843
4.5226 0.7398 2.3843
4.4955 0.9039 2.3843
4.4627 1.0671 2.3843
4.4244 1.2292 2.3843
4.3805 1.3900 2.3843
4.3311 1.5493 2.3843
4.2762 1.7069 2.3843
4.2158 1.8627 2.3843
4.1501 2.0164 2.3843
4.0791 2.1679 2.3843
4.0029 2.3171 2.3843
3.9215 2.4639 2.3843
3.8349 2.6076 2.3843
3.7434 2.7486 2.3843
3.6469 2.8865 2.3843
3.5456 3.0211 2.3843
3.4395 3.1523 2.3843
3.3288 3.2799 2.3843
3.2136 3.4038 2.3843
3.0940 3.5238 2.3843
2.9702 3.6397 2.3843
2.8421 3.7514 2.3843
2.7101 3.8588 2.3843
2.5742 3.9616 2.3843
2.4345 4.0598 2.3843
2.2912 4.1531 2.3843
0.8650 1.7108 0.9617
0.8033 1.7417 0.9602
0.7405 1.7704 0.9587
0.6767 1.7968 0.9571
0.6119 1.8209 0.9556
0.5464 1.8426 0.9540
0.4801 1.8620 0.9524
0.4132 1.8790 0.9508
0.3456 1.8935 0.9492
0.2776 1.9057 0.9475
0.2092 1.9153 0.9459
0.1405 1.9225 0.9443
0.0716 1.9272 0.9426
0.0025 1.9295 0.9409
-0.0666 1.9292 0.9393
-0.1356 1.9264 0.9376
-0.2045 1.9212 0.9360
-0.2732 1.9135 0.9343
-0.3415 1.9033 0.9327
-0.4094 1.8907 0.9311
-0.4769 1.8756 0.9295
-0.5437 1.8581 0.9279
-0.6099 1.8382 0.9263
-0.6753 1.8159 0.9247
-0.7399 1.7913 0.9232
-0.8035 1.7644 0.9217
-0.8661 1.7352 0.9202
-0.9277 1.7038 0.9187
-2.5683 4.3413 2.3843
-2.7261 4.2548 2.3843
-2.8808 4.1625 2.3843
-3.0322 4.0643 2.3843
-3.1801 3.9605 2.3843
-3.3242 3.8511 2.3843
-3.4643 3.7363 2.3843
-3.6002 3.6162 2.3843
-3.7317 3.4910 2.3843
-3.8585 3.3609 2.3843
-3.9806 3.2259 2.3843
-4.0976 3.0864 2.3843
-4.2094 2.9424 2.3843
-4.3159 2.7942 2.3843
-4.4168 2.6420 2.3843
-4.5120 2.4860 2.3843
-4.6013 2.3265 2.3843
-4.6846 2.1635 2.3843
-4.7617 1.9975 2.3843
-4.8326 1.8286 2.3843
-4.8972 1.6571 2.3843
-4.9552 1.4831 2.3843
-5.0066 1.3071 2.3843
-5.0514 1.1291 2.3843
-5.0894 0.9497 2.3843
-5.1206 0.7687 2.3843
-5.1450 0.5870 2.3843
-5.1625 0.4039 2.3843
-5.1731 0.2208 2.3843
-5.1768 0.0376 2.3843
-5.1735 -0.1464 2.3843
-5.1634 -0.3293 2.3843
-5.1463 -0.5117 2.3843
-5.1224 -0.6934 2.3843
-5.0916 -0.8740 2.3843
-5.0541 -1.0533 2.3843
-5.0099 -1.2311 2.3843
-4.9590 -1.4068 2.3843
-4.9017 -1.5804 2.3843
-4.8379 -1.7516 2.3843
-4.7677 -1.9201 2.3843
-4.6914 -2.0858 2.3843
-4.6090 -2.2483 2.3843
-4.5206 -2.4075 2.3843
-4.4265 -2.5631 2.3843
-4.3267 -2.7150 2.3843
-4.2214 -2.8628 2.3843
-4.1108 -3.0065 2.3843
-3.9951 -3.1458 2.3843
-3.8745 -3.2805 2.3843
-3.7491 -3.4105 2.3843
-3.6191 -3.5356 2.3843
-3.4849 -3.6557 2.3843
-3.3464 -3.7705 2.3843
-3.2041 -3.8800 2.3843
-3.0580 -3.9840 2.3843
-2.9084 -4.0825 2.3843
-2.7556 -4.1752 2.3843
-2.5997 -4.2622 2.3843
-2.4410 -4.3433 2.3843
-2.2797 -4.4184 2.3843
-2.1160 -4.4874 2.3843
-1.9503 -4.5504 2.3843
-1.7826 -4.6072 2.3843
-1.6133 -4.6578 2.3843
-1.4426 -4.7022 2.3843
-1.2707 -4.7403 2.3843
-1.0978 -4.7722 2.3843
-0.9242 -4.7978 2.3843
-0.7501 -4.8171 2.3843
-0.5758 -4.8301 2.3843
-0.4014 -4.8368 2.3843
-0.2272 -4.8374 2.3843
-0.0534 -4.8317 2.3843
0.1198 -4.8199 2.3843
0.2922 -4.8019 2.3843
0.4635 -4.7779 2.3843
0.6335 -4.7479 2.3843
0.8021 -4.7120 2.3843
0.9690 -4.6703 2.3843
1.1340 -4.6227 2.3843
1.2970 -4.5695 2.3843
1.4578 -4.5107 2.3843
1.6162 -4.4464 2.3843
1.7719 -4.3767 2.3843
1.9249 -4.3017 2.3843
2.0749 -4.2215 2.3843
2.2218 -4.1364 2.3843
2.3655 -4.0462 2.3843
2.5057 -3.9513 2.3843
2.6424 -3.8517 2.3843
2.7753 -3.7476 2.3843
2.9044 -3.6390 2.3843
3.0295 -3.5263 2.3843
3.1504 -3.4094 2.3843
3.2672 -3.2885 2.3843
3.3795 -3.1638 2.3843
3.4874 -3.0355 2.3843
3.5907 -2.9037 2.3843
3.6893 -2.7685 2.3843
3.7831 -2.6302 2.3843
3.8720 -2.4888 2.3843
3.9560 -2.3446 2.3843
4.0349 -2.1977 2.3843
4.1087 -2.0483 2.3843
4.1772 -1.8965 2.3843
4.2405 -1.7426 2.3843
4.2985 -1.5867 2.3843
4.3511 -1.4289 2.3843
4.3982 -1.2695 2.3843
4.4399 -1.1087 2.3843
4.4760 -0.9465 2.3843
4.5065 -0.7833 2.3843
4.5315 -0.6191 2.3843
4.5508 -0.4542 2.3843
4.5645 -0.2887 2.3843
4.5725 -0.1228 2.3843
4.5748 0.0432 2.3843
4.5715 0.2093 2.3843
4.5625 0.3753 2.3843
4.5478 0.5408 2.3843
4.5275 0.7059 2.3843
4.5015 0.8702 2.3843
4.4699 1.0336 2.3843
4.4327 1.1959 2.3843
4.3900 1.3570 2.3843
4.3417 1.5166 2.3843
4.2879 1.6746 2.3843
4.2287 1.8308 2.3843
4.1641 1.9849 2.3843
4.0942 2.1370 2.3843
4.0190 2.2866 2.3843
3.9386 2.4338 2.3843
3.8531 2.5782 2.3843
3.7626 2.7198 2.3843
3.6672 2.8583 2.3843
3.5668 2.9936 2.3843
3.4618 3.1256 2.3843
3.3520 3.2539 2.3843
3.2378 3.3786 2.3843
3.1190 3.4994 2.3843
2.9960 3.6162 2.3843
2.8689 3.7288 2.3843
2.7376 3.8370 2.3843
2.6025 3.9408 2.3843
2.4636 4.0399 2.3843
2.3210 4.1343 2.3843
0.8776 1.7041 0.9620
0.8161 1.7355 0.9605
0.7535 1.7646 0.9590
0.6899 1.7915 0.9575
