ply
format ascii 1.0
element vertex 2182
property float32 x
property float32 y
property float32 z
end_header
-6.3729 -4.8490 2.3917
-6.1714 -5.0492 2.3917
-5.9625 -5.2402 2.3917
-5.7467 -5.4217 2.3917
-5.5244 -5.5934 2.3917
-5.2962 -5.7555 2.3917
-5.0625 -5.9076 2.3917
-4.8239 -6.0495 2.3917
-4.5809 -6.1812 2.3917
-4.3340 -6.3025 2.3917
-4.0837 -6.4135 2.3917
-3.8305 -6.5140 2.3917
-3.5749 -6.6041 2.3917
-3.3173 -6.6839 2.3917
-3.0582 -6.7533 2.3917
-2.7981 -6.8124 2.3917
-2.5375 -6.8614 2.3917
-2.2766 -6.9002 2.3917
-2.0160 -6.9291 2.3917
-1.7561 -6.9482 2.3917
-1.4972 -6.9576 2.3917
-1.2397 -6.9575 2.3917
-0.9840 -6.9481 2.3917
-0.7304 -6.9295 2.3917
-0.4792 -6.9020 2.3917
-0.2307 -6.8658 2.3917
0.0147 -6.8210 2.3917
0.2569 -6.7680 2.3917
0.4955 -6.7069 2.3917
0.7303 -6.6379 2.3917
0.9610 -6.5613 2.3917
1.1876 -6.4774 2.3917
1.4097 -6.3863 2.3917
1.6271 -6.2883 2.3917
1.8398 -6.1837 2.3917
2.0475 -6.0727 2.3917
2.2500 -5.9555 2.3917
2.4473 -5.8323 2.3917
2.6393 -5.7034 2.3917
2.8257 -5.5691 2.3917
3.0065 -5.4295 2.3917
3.1816 -5.2849 2.3917
3.3509 -5.1356 2.3917
3.5144 -4.9818 2.3917
3.6719 -4.8234 2.3917
3.8234 -4.6611 2.3917
3.9687 -4.4944 2.3917
4.1080 -4.3248 2.3917
4.2412 -4.1513 2.3917
4.3681 -3.9745 2.3917
4.4888 -3.7947 2.3917
4.6032 -3.6119 2.3917
4.7113 -3.4264 2.3917
4.8131 -3.2384 2.3917
4.9085 -3.0481 2.3917
4.9976 -2.8555 2.3917
5.0804 -2.6611 2.3917
5.1568 -2.4648 2.3917
5.2268 -2.2669 2.3917
5.2904 -2.0675 2.3917
5.3477 -1.8667 2.3917
5.3985 -1.6649 2.3917
5.4431 -1.4620 2.3917
5.4812 -1.2584 2.3917
5.5130 -1.0543 2.3917
5.5384 -0.8494 2.3917
5.5575 -0.6442 2.3917
5.5703 -0.4389 2.3917
5.5768 -0.2334 2.3917
5.5769 -0.0280 2.3917
5.5708 0.1771 2.3917
5.5583 0.3818 2.3917
5.5396 0.5859 2.3917
5.5147 0.7895 2.3917
5.4835 0.9921 2.3917
5.4461 1.1938 2.3917
5.4025 1.3944 2.3917
5.3528 1.5939 2.3917
5.2968 1.7917 2.3917
5.2348 1.9881 2.3917
5.1666 2.1828 2.3917
5.0924 2.3755 2.3917
5.0121 2.5663 2.3917
4.9257 2.7550 2.3917
4.8334 2.9413 2.3917
4.7351 3.1249 2.3917
4.6308 3.3064 2.3917
4.5207 3.4847 2.3917
4.4047 3.6602 2.3917
4.2829 3.8325 2.3917
4.1553 4.0016 2.3917
4.0219 4.1672 2.3917
3.8829 4.3292 2.3917
3.7383 4.4873 2.3917
3.5881 4.6415 2.3917
3.4325 4.7916 2.3917
3.2714 4.9373 2.3917
3.1050 5.0784 2.3917
2.9333 5.2149 2.3917
2.7564 5.3465 2.3917
2.5744 5.4733 2.3917
2.3876 5.5941 2.3917
2.1958 5.7097 2.3917
0.8509 2.4771 1.0180
0.7614 2.5085 1.0128
0.6708 2.5367 1.0075
0.5792 2.5616 1.0021
0.4867 2.5831 0.9966
0.3936 2.6013 0.9911
0.2998 2.6162 0.9854
0.2056 2.6276 0.9798
0.1110 2.6356 0.9740
0.0162 2.6402 0.9683
-0.0787 2.6413 0.9624
-0.1737 2.6390 0.9566
-0.2684 2.6333 0.9507
-0.3629 2.6241 0.9449
-0.4570 2.6116 0.9390
-0.5506 2.5956 0.9331
-0.6436 2.5763 0.9272
-0.7357 2.5536 0.9213
-0.8271 2.5275 0.9155
-0.9174 2.4982 0.9097
-2.6633 6.5241 2.3917
-2.9145 6.4705 2.3917
-3.1651 6.4073 2.3917
-3.4146 6.3344 2.3917
-3.6628 6.2519 2.3917
-3.9092 6.1596 2.3917
-4.1534 6.0575 2.3917
-4.3948 5.9457 2.3917
-4.6332 5.8240 2.3917
-4.8680 5.6926 2.3917
-5.0987 5.5515 2.3917
-5.3250 5.4007 2.3917
-5.5462 5.2404 2.3917
-5.7621 5.0706 2.3917
-5.9720 4.8916 2.3917
-6.1755 4.7036 2.3917
-6.3721 4.5066 2.3917
-6.5614 4.3010 2.3917
-6.7429 4.0871 2.3917
-6.9160 3.8645 2.3917
-7.0805 3.6347 2.3917
-7.2360 3.3978 2.3917
-7.3818 3.1535 2.3917
-7.5178 2.9027 2.3917
-7.6434 2.6455 2.3917
-7.7583 2.3826 2.3917
-7.8622 2.1144 2.3917
-7.9548 1.8414 2.3917
-8.0358 1.5642 2.3917
-8.1049 1.2833 2.3917
-8.1620 0.9991 2.3917
-8.2068 0.7124 2.3917
-8.2392 0.4236 2.3917
-8.2591 0.1335 2.3917
-8.2663 -0.1575 2.3917
-8.2609 -0.4487 2.3917
-8.2428 -0.7394 2.3917
-8.2121 -1.0291 2.3917
-8.1688 -1.3172 2.3917
-8.1130 -1.6031 2.3917
-8.0448 -1.8861 2.3917
-7.9645 -2.1657 2.3917
-7.8722 -2.4413 2.3917
-7.7681 -2.7124 2.3917
-7.6526 -2.9783 2.3917
-7.5260 -3.2387 2.3917
-7.3885 -3.4929 2.3917
-7.2405 -3.7405 2.3917
-7.0824 -3.9810 2.3917
-6.9147 -4.2141 2.3917
-6.7377 -4.4393 2.3917
-6.5519 -4.6563 2.3917
-6.3576 -4.8650 2.3917
-6.1556 -5.0642 2.3917
-5.9462 -5.2542 2.3917
-5.7298 -5.4352 2.3917
-5.5070 -5.6062 2.3917
-5.2783 -5.7676 2.3917
-5.0443 -5.9189 2.3917
-4.8054 -6.0600 2.3917
-4.5620 -6.1909 2.3917
-4.3149 -6.3114 2.3917
-4.0643 -6.4216 2.3917
-3.8109 -6.5213 2.3917
-3.5551 -6.6106 2.3917
-3.2974 -6.6896 2.3917
-3.0382 -6.7582 2.3917
-2.7781 -6.8166 2.3917
-2.5174 -6.8647 2.3917
-2.2565 -6.9028 2.3917
-1.9960 -6.9309 2.3917
-1.7361 -6.9493 2.3917
-1.4773 -6.9580 2.3917
-1.2200 -6.9571 2.3917
-0.9644 -6.9470 2.3917
-0.7109 -6.9277 2.3917
-0.4600 -6.8996 2.3917
-0.2117 -6.8627 2.3917
0.0335 -6.8173 2.3917
0.2754 -6.7636 2.3917
0.5137 -6.7018 2.3917
0.7482 -6.6323 2.3917
0.9787 -6.5551 2.3917
1.2049 -6.4706 2.3917
1.4266 -6.3790 2.3917
1.6437 -6.2805 2.3917
1.8560 -6.1754 2.3917
2.0633 -6.0639 2.3917
2.2654 -5.9462 2.3917
2.4623 -5.8226 2.3917
2.6538 -5.6933 2.3917
2.8398 -5.5585 2.3917
3.0202 -5.4186 2.3917
3.1949 -5.2736 2.3917
3.3637 -5.1238 2.3917
3.5267 -4.9697 2.3917
3.6838 -4.8111 2.3917
3.8348 -4.6484 2.3917
3.9796 -4.4813 2.3917
4.1185 -4.3115 2.3917
4.2512 -4.1378 2.3917
4.3776 -3.9608 2.3917
4.4978 -3.7807 2.3917
4.6117 -3.5977 2.3917
4.7193 -3.4120 2.3917
4.8206 -3.2238 2.3917
4.9156 -3.0333 2.3917
5.0042 -2.8407 2.3917
5.0865 -2.6460 2.3917
5.1624 -2.4497 2.3917
5.2319 -2.2515 2.3917
5.2950 -2.0522 2.3917
5.3518 -1.8512 2.3917
5.4022 -1.6493 2.3917
5.4462 -1.4465 2.3917
5.4839 -1.2428 2.3917
5.5152 -1.0384 2.3917
5.5401 -0.8336 2.3917
5.5588 -0.6284 2.3917
5.5710 -0.4231 2.3917
5.5770 -0.2175 2.3917
5.5767 -0.0123 2.3917
5.5700 0.1929 2.3917
5.5571 0.3976 2.3917
5.5379 0.6017 2.3917
5.5125 0.8051 2.3917
5.4808 1.0077 2.3917
5.4430 1.2094 2.3917
5.3989 1.4099 2.3917
5.3487 1.6091 2.3917
5.2923 1.8069 2.3917
5.2297 2.0032 2.3917
5.1611 2.1977 2.3917
5.0864 2.3904 2.3917
5.0056 2.5810 2.3917
4.9188 2.7694 2.3917
4.8260 2.9555 2.3917
4.7273 3.1391 2.3917
4.6225 3.3204 2.3917
4.5120 3.4984 2.3917
4.3955 3.6736 2.3917
4.2732 3.8457 2.3917
4.1452 4.0145 2.3917
4.0114 4.1798 2.3917
3.8720 4.3415 2.3917
3.7270 4.4993 2.3917
3.5764 4.6532 2.3917
3.4203 4.8029 2.3917
3.2588 4.9483 2.3917
3.0920 5.0891 2.3917
2.9199 5.2252 2.3917
2.7426 5.3564 2.3917
2.5603 5.4825 2.3917
2.3730 5.6032 2.3917
2.1808 5.7185 2.3917
0.8441 2.4796 1.0176
0.7544 2.5108 1.0124
0.6637 2.5387 1.0071
0.5721 2.5634 1.0017
4.3592 3.0990 2.3917
4.2552 3.2666 2.3917
4.1457 3.4315 2.3917
4.0307 3.5933 2.3917
3.9103 3.7519 2.3917
3.7845 3.9072 2.3917
3.6534 4.0590 2.3917
3.5170 4.2071 2.3917
3.3754 4.3514 2.3917
3.2286 4.4917 2.3917
3.0768 4.6278 2.3917
2.9200 4.7599 2.3917
2.7583 4.8867 2.3917
2.5918 5.0092 2.3917
2.4206 5.1269 2.3917
2.2448 5.2394 2.3917
2.0645 5.3467 2.3917
0.7963 2.3079 1.0131
0.7128 2.3374 1.0082
0.6283 2.3639 1.0033
0.5430 2.3874 0.9983
0.4568 2.4077 0.9932
0.3699 2.4249 0.9880
0.2825 2.4390 0.9828
0.1947 2.4499 0.9775
0.1064 2.4576 0.9721
0.0180 2.4621 0.9667
-0.0705 2.4634 0.9613
-0.1591 2.4615 0.9559
-0.2475 2.4564 0.9504
-0.3356 2.4481 0.9449
-0.4235 2.4366 0.9394
-0.5108 2.4219 0.9339
-0.5975 2.4041 0.9284
-0.6836 2.3832 0.9230
-0.7688 2.3592 0.9175
-0.8531 2.3321 0.9121
-0.9364 2.3019 0.9067
-2.7027 6.0202 2.3917
-2.9346 5.9595 2.3917
-3.1653 5.8898 2.3917
-3.3946 5.8113 2.3917
-3.6220 5.7237 2.3917
-3.8472 5.6272 2.3917
-4.0698 5.5217 2.3917
-4.2893 5.4072 2.3917
-4.5054 5.2838 2.3917
-4.7176 5.1515 2.3917
-4.9255 5.0105 2.3917
-5.1287 4.8607 2.3917
-5.3268 4.7024 2.3917
-5.5193 4.5357 2.3917
-5.7059 4.3607 2.3917
-5.8860 4.1777 2.3917
-6.0593 3.9868 2.3917
-6.2254 3.7884 2.3917
-6.3839 3.5827 2.3917
-6.5343 3.3700 2.3917
-6.6763 3.1506 2.3917
-6.8095 2.9242 2.3917
-6.9338 2.6931 2.3917
-7.0485 2.4557 2.3917
-7.1534 2.2129 2.3917
-7.2484 1.9660 2.3917
-7.3330 1.7144 2.3917
-7.4070 1.4591 2.3917
-7.4703 1.2003 2.3917
-7.5226 0.9387 2.3917
-7.5637 0.6748 2.3917
-7.5936 0.4091 2.3917
-7.6121 0.1421 2.3917
-7.6191 -0.1256 2.3917
-7.6147 -0.3936 2.3917
-7.5987 -0.6612 2.3917
-7.5713 -0.9279 2.3917
-7.5325 -1.1931 2.3917
-7.4823 -1.4564 2.3917
-7.4209 -1.7172 2.3917
-7.3484 -1.9750 2.3917
-7.2650 -2.2292 2.3917
-7.1709 -2.4793 2.3917
-7.0663 -2.7249 2.3917
-6.9516 -2.9655 2.3917
-6.8270 -3.2006 2.3917
-6.6927 -3.4299 2.3917
-6.5492 -3.6528 2.3917
-6.3969 -3.8688 2.3917
-6.2359 -4.0782 2.3917
-6.0668 -4.2801 2.3917
-5.8900 -4.4742 2.3917
-5.7057 -4.6608 2.3917
-5.5148 -4.8378 2.3917
-5.3173 -5.0070 2.3917
-5.1137 -5.1675 2.3917
-4.9046 -5.3191 2.3917
-4.6904 -5.4616 2.3917
-4.4715 -5.5949 2.3917
-4.2485 -5.7188 2.3917
-4.0216 -5.8334 2.3917
-3.7915 -5.9385 2.3917
-3.5585 -6.0340 2.3917
-3.3231 -6.1201 2.3917
-3.0857 -6.1966 2.3917
-2.8467 -6.2636 2.3917
-2.6066 -6.3212 2.3917
-2.3657 -6.3693 2.3917
-2.1244 -6.4082 2.3917
-1.8833 -6.4379 2.3917
-1.6425 -6.4585 2.3917
-1.4024 -6.4700 2.3917
-1.1635 -6.4728 2.3917
-0.9259 -6.4669 2.3917
-0.6902 -6.4524 2.3917
-0.4564 -6.4296 2.3917
-0.2251 -6.3986 2.3917
0.0037 -6.3597 2.3917
0.2296 -6.3129 2.3917
0.4524 -6.2585 2.3917
0.6718 -6.1968 2.3917
0.8876 -6.1278 2.3917
1.0996 -6.0519 2.3917
1.3077 -5.9692 2.3917
1.5115 -5.8799 2.3917
1.7111 -5.7843 2.3917
1.9061 -5.6827 2.3917
2.0964 -5.5751 2.3917
2.2820 -5.4618 2.3917
2.4626 -5.3430 2.3917
2.6382 -5.2190 2.3917
2.8086 -5.0900 2.3917
2.9738 -4.9561 2.3917
3.1336 -4.8176 2.3917
3.2879 -4.6747 2.3917
3.4368 -4.5276 2.3917
3.5801 -4.3766 2.3917
3.7176 -4.2216 2.3917
3.8495 -4.0631 2.3917
3.9757 -3.9016 2.3917
4.0960 -3.7361 2.3917
4.2104 -3.5679 2.3917
4.3190 -3.3969 2.3917
4.4217 -3.2232 2.3917
4.5184 -3.0471 2.3917
4.6092 -2.8686 2.3917
4.6939 -2.6880 2.3917
4.7727 -2.5055 2.3917
4.8454 -2.3211 2.3917
4.9122 -2.1355 2.3917
4.9728 -1.9474 2.3917
5.0274 -1.7590 2.3917
5.0760 -1.5691 2.3917
5.1186 -1.3783 2.3917
5.1551 -1.1866 2.3917
5.1855 -0.9942 2.3917
5.2100 -0.8013 2.3917
5.2284 -0.6081 2.3917
5.2407 -0.4145 2.3917
5.2471 -0.2210 2.3917
5.2474 -0.0274 2.3917
5.2418 0.1659 2.3917
5.2302 0.3588 2.3917
5.2126 0.5513 2.3917
5.1891 0.7431 2.3917
5.1596 0.9341 2.3917
5.1242 1.1242 2.3917
5.0830 1.3133 2.3917
5.0358 1.5010 2.3917
4.9828 1.6875 2.3917
4.9240 1.8723 2.3917
4.8594 2.0556 2.3917
4.7890 2.2373 2.3917
4.7128 2.4172 2.3917
4.6310 2.5939 2.3917
4.5434 2.7691 2.3917
4.4502 2.9418 2.3917
4.3514 3.1120 2.3917
4.2470 3.2795 2.3917
4.1371 3.4440 2.3917
4.0217 3.6056 2.3917
3.9008 3.7640 2.3917
3.7746 3.9190 2.3917
3.6431 4.0705 2.3917
3.5062 4.2184 2.3917
3.3642 4.3624 2.3917
3.2171 4.5023 2.3917
3.0649 4.6381 2.3917
2.9077 4.7695 2.3917
2.7457 4.8963 2.3917
2.5788 5.0185 2.3917
2.4073 5.1357 2.3917
2.2311 5.2479 2.3917
2.0505 5.3547 2.3917
0.7899 2.3103 1.0127
0.7063 2.3396 1.0078
0.6218 2.3658 1.0029
0.5364 2.3890 0.9979
0.4501 2.4091 0.9928
0.3632 2.4261 0.9876
0.2758 2.4399 0.9823
0.1879 2.4506 0.9770
0.0996 2.4580 0.9717
0.0112 2.4623 0.9663
-0.0774 2.4633 0.9609
-0.1659 2.4612 0.9554
-0.2543 2.4558 0.9500
-0.3424 2.4473 0.9445
-0.4302 2.4356 0.9390
-0.5175 2.4207 0.9335
-0.6042 2.4026 0.9280
-0.6902 2.3815 0.9225
-0.7754 2.3572 0.9171
-0.8596 2.3298 0.9117
-0.9428 2.2995 0.9063
-2.7206 6.0158 2.3917
-2.9524 5.9544 2.3917
-3.1830 5.8841 2.3917
-3.4122 5.8049 2.3917
-3.6395 5.7166 2.3917
-3.8645 5.6194 2.3917
-4.0868 5.5132 2.3917
-4.3061 5.3980 2.3917
-4.5219 5.2740 2.3917
-4.7338 5.1410 2.3917
-4.9413 4.9993 2.3917
-5.1442 4.8488 2.3917
-5.3418 4.6899 2.3917
-5.5339 4.5225 2.3917
-5.7200 4.3469 2.3917
-5.8996 4.1632 2.3917
-6.0724 3.9718 2.3917
-6.2379 3.7728 2.3917
-6.3957 3.5666 2.3917
-6.5455 3.3533 2.3917
-6.6869 3.1334 2.3917
-6.8194 2.9066 2.3917
-6.9429 2.6747 2.3917
-7.0569 2.4371 2.3917
-7.1611 2.1941 2.3917
-7.2553 1.9468 2.3917
-7.3391 1.6949 2.3917
-7.4123 1.4392 2.3917
-7.4747 1.1803 2.3917
-7.5261 0.9185 2.3917
-7.5664 0.6544 2.3917
-7.5954 0.3886 2.3917
-7.6130 0.1215 2.3917
-7.6192 -0.1463 2.3917
-7.6139 -0.4142 2.3917
-7.5970 -0.6818 2.3917
-7.5687 -0.9484 2.3917
-7.5290 -1.2135 2.3917
-7.4779 -1.4766 2.3917
-7.4157 -1.7372 2.3917
-7.3423 -1.9947 2.3917
-7.2581 -2.2486 2.3917
-7.1632 -2.4984 2.3917
-7.0579 -2.7436 2.3917
-6.9424 -2.9838 2.3917
-6.8170 -3.2185 2.3917
-6.6820 -3.4473 2.3917
-6.5378 -3.6697 2.3917
-6.3847 -3.8856 2.3917
-6.2231 -4.0942 2.3917
-6.0535 -4.2950 2.3917
-5.8760 -4.4887 2.3917
-5.6913 -4.6745 2.3917
-5.4998 -4.8511 2.3917
-5.3018 -5.0197 2.3917
-5.0978 -5.1795 2.3917
-4.8883 -5.3304 2.3917
-4.6737 -5.4722 2.3917
-4.4545 -5.6048 2.3917
-4.2311 -5.7281 2.3917
-4.0040 -5.8419 2.3917
-3.7736 -5.9462 2.3917
-3.5404 -6.0410 2.3917
-3.3049 -6.1263 2.3917
-3.0673 -6.2021 2.3917
-2.8282 -6.2684 2.3917
-2.5880 -6.3252 2.3917
-2.3471 -6.3727 2.3917
-2.1059 -6.4108 2.3917
-1.8647 -6.4398 2.3917
-1.6239 -6.4597 2.3917
-1.3840 -6.4706 2.3917
-1.1451 -6.4727 2.3917
-0.9077 -6.4661 2.3917
-0.6721 -6.4510 2.3917
-0.4385 -6.4275 2.3917
-0.2074 -6.3959 2.3917
0.0212 -6.3563 2.3917
0.2469 -6.3090 2.3917
0.4694 -6.2540 2.3917
0.6885 -6.1917 2.3917
0.9041 -6.1222 2.3917
1.1158 -6.0458 2.3917
1.3235 -5.9625 2.3917
1.5271 -5.8728 2.3917
1.7263 -5.7767 2.3917
1.9209 -5.6746 2.3917
2.1109 -5.5665 2.3917
2.2961 -5.4528 2.3917
2.4763 -5.3336 2.3917
2.6515 -5.2093 2.3917
2.8215 -5.0798 2.3917
2.9863 -4.9456 2.3917
3.1457 -4.8068 2.3917
3.2996 -4.6635 2.3917
3.4480 -4.5161 2.3917
3.5909 -4.3648 2.3917
3.7280 -4.2096 2.3917
3.8594 -4.0503 2.3917
3.9850 -3.8878 2.3917
4.1050 -3.7232 2.3917
4.2190 -3.5549 2.3917
4.3272 -3.3836 2.3917
4.4294 -3.2097 2.3917
4.5256 -3.0334 2.3917
4.6159 -2.8548 2.3917
4.7002 -2.6740 2.3917
4.7785 -2.4913 2.3917
4.8508 -2.3069 2.3917
4.9170 -2.1206 2.3917
4.9771 -1.9305 2.3917
5.0314 -1.7444 2.3917
5.0795 -1.5544 2.3917
5.1216 -1.3635 2.3917
5.1576 -1.1718 2.3917
5.1876 -0.9794 2.3917
5.2116 -0.7865 2.3917
5.2295 -0.5931 2.3917
5.2414 -0.3995 2.3917
5.2473 -0.2060 2.3917
5.2472 -0.0126 2.3917
5.2411 0.1808 2.3917
5.2290 0.3737 2.3917
5.2110 0.5662 2.3917
5.1870 0.7578 2.3917
5.1571 0.9488 2.3917
5.1213 1.1388 2.3917
5.0795 1.3277 2.3917
5.0320 1.5154 2.3917
4.9785 1.7017 2.3917
4.9192 1.8865 2.3917
4.8542 2.0696 2.3917
4.7834 2.2502 2.3917
4.7067 2.4308 2.3917
4.6244 2.6075 2.3917
4.5364 2.7825 2.3917
4.4428 2.9550 2.3917
4.3435 3.1250 2.3917
4.2387 3.2922 2.3917
4.1284 3.4566 2.3917
4.0125 3.6179 2.3917
3.8913 3.7761 2.3917
3.7647 3.9308 2.3917
3.6327 4.0820 2.3917
3.4955 4.2296 2.3917
3.3531 4.3732 2.3917
3.2055 4.5129 2.3917
3.0530 4.6483 2.3917
2.8954 4.7794 2.3917
2.7330 4.9059 2.3917
2.5658 5.0276 2.3917
2.3938 5.1446 2.3917
2.2173 5.2563 2.3917
0.8660 2.2805 1.0171
0.7835 2.3126 1.0123
0.6999 2.3417 1.0075
0.6152 2.3677 1.0025
0.5297 2.3907 0.9975
4.1061 2.9240 2.3917
4.0074 3.0819 2.3917
3.9035 3.2369 2.3917
3.7943 3.3890 2.3917
3.6801 3.5381 2.3917
3.5608 3.6839 2.3917
3.4364 3.8264 2.3917
3.3071 3.9652 2.3917
3.1729 4.1004 2.3917
3.0339 4.2317 2.3917
2.8902 4.3590 2.3917
2.7418 4.4820 2.3917
2.5888 4.6007 2.3917
2.4314 4.7149 2.3917
2.2696 4.8244 2.3917
2.1035 4.9290 2.3917
0.8187 2.1294 1.0128
0.7416 2.1598 1.0084
0.6635 2.1875 1.0038
0.5844 2.2123 0.9992
0.5045 2.2342 0.9945
0.4239 2.2532 0.9897
0.3426 2.2693 0.9849
0.2607 2.2825 0.9800
0.1785 2.2927 0.9750
0.0959 2.2999 0.9700
0.0131 2.3041 0.9650
-0.0697 2.3053 0.9599
-0.1526 2.3035 0.9548
-0.2354 2.2987 0.9497
-0.3179 2.2910 0.9446
-0.4001 2.2802 0.9394
-0.4818 2.2665 0.9343
-0.5630 2.2498 0.9291
-0.6436 2.2302 0.9240
-0.7233 2.2077 0.9189
-0.8023 2.1824 0.9138
-0.8802 2.1542 0.9088
-0.9571 2.1232 0.9038
-2.7481 5.5597 2.3917
-2.9624 5.4926 2.3917
-3.1750 5.4172 2.3917
-3.3858 5.3335 2.3917
-3.5944 5.2415 2.3917
-3.8004 5.1413 2.3917
-4.0034 5.0327 2.3917
-4.2030 4.9160 2.3917
-4.3989 4.7911 2.3917
-4.5907 4.6582 2.3917
-4.7780 4.5173 2.3917
-4.9605 4.3686 2.3917
-5.1376 4.2122 2.3917
-5.3092 4.0483 2.3917
-5.4747 3.8771 2.3917
-5.6339 3.6987 2.3917
-5.7863 3.5135 2.3917
-5.9316 3.3217 2.3917
-6.0694 3.1235 2.3917
-6.1995 2.9192 2.3917
-6.3215 2.7093 2.3917
-6.4350 2.4939 2.3917
-6.5398 2.2735 2.3917
-6.6356 2.0480 2.3917
-6.7222 1.8186 2.3917
-6.7993 1.5856 2.3917
-6.8667 1.3491 2.3917
-6.9242 1.1090 2.3917
-6.9718 0.8674 2.3917
-7.0091 0.6231 2.3917
-7.0360 0.3772 2.3917
-7.0526 0.1302 2.3917
-7.0587 -0.1175 2.3917
-7.0543 -0.3653 2.3917
-7.0394 -0.6128 2.3917
-7.0140 -0.8595 2.3917
-6.9782 -1.1049 2.3917
-6.9320 -1.3484 2.3917
-6.8755 -1.5897 2.3917
-6.8089 -1.8283 2.3917
-6.7323 -2.0636 2.3917
-6.6459 -2.2959 2.3917
-6.5501 -2.5225 2.3917
-6.4448 -2.7460 2.3917
-6.3304 -2.9644 2.3917
-6.2072 -3.1770 2.3917
-6.0755 -3.3841 2.3917
-5.9355 -3.5849 2.3917
-5.7877 -3.7797 2.3917
-5.6324 -3.9671 2.3917
-5.4699 -4.1479 2.3917
-5.3006 -4.3215 2.3917
-5.1249 -4.4875 2.3917
-4.9431 -4.6458 2.3917
-4.7557 -4.7961 2.3917
-4.5630 -4.9383 2.3917
-4.3655 -5.0722 2.3917
-4.1637 -5.1977 2.3917
-3.9577 -5.3146 2.3917
-3.7482 -5.4229 2.3917
-3.5355 -5.5225 2.3917
-3.3201 -5.6134 2.3917
-3.1022 -5.6955 2.3917
-2.8823 -5.7688 2.3917
-2.6608 -5.8334 2.3917
-2.4381 -5.8893 2.3917
-2.2145 -5.9364 2.3917
-1.9904 -5.9749 2.3917
-1.7662 -6.0049 2.3917
-1.5422 -6.0264 2.3917
-1.3187 -6.0396 2.3917
-1.0961 -6.0445 2.3917
-0.8746 -6.0413 2.3917
-0.6546 -6.0301 2.3917
-0.4363 -6.0112 2.3917
-0.2201 -5.9845 2.3917
-0.0061 -5.9503 2.3917
0.2054 -5.9088 2.3917
0.4141 -5.8601 2.3917
0.6197 -5.8044 2.3917
0.8222 -5.7420 2.3917
1.0213 -5.6729 2.3917
1.2168 -5.5974 2.3917
1.4084 -5.5156 2.3917
1.5962 -5.4278 2.3917
1.7798 -5.3342 2.3917
1.9591 -5.2350 2.3917
2.1341 -5.1303 2.3917
2.3045 -5.0204 2.3917
2.4702 -4.9054 2.3917
2.6312 -4.7856 2.3917
2.7874 -4.6611 2.3917
2.9385 -4.5322 2.3917
3.0846 -4.3990 2.3917
3.2256 -4.2618 2.3917
3.3613 -4.1207 2.3917
3.4918 -3.9759 2.3917
3.6169 -3.8276 2.3917
3.7366 -3.6760 2.3917
3.8508 -3.5212 2.3917
3.9595 -3.3631 2.3917
4.0628 -3.2030 2.3917
4.1605 -3.0399 2.3917
4.2525 -2.8744 2.3917
4.3389 -2.7066 2.3917
4.4196 -2.5367 2.3917
4.4947 -2.3649 2.3917
4.5641 -2.1913 2.3917
4.6277 -2.0161 2.3917
4.6856 -1.8394 2.3917
4.7378 -1.6615 2.3917
4.7843 -1.4824 2.3917
4.8250 -1.3023 2.3917
4.8599 -1.1211 2.3917
4.8891 -0.9395 2.3917
4.9126 -0.7590 2.3917
4.9303 -0.5756 2.3917
4.9422 -0.3923 2.3917
4.9485 -0.2096 2.3917
4.9490 -0.0268 2.3917
4.9438 0.1558 2.3917
4.9329 0.3381 2.3917
4.9164 0.5199 2.3917
4.8941 0.7011 2.3917
4.8662 0.8812 2.3917
4.8327 1.0609 2.3917
4.7935 1.2395 2.3917
4.7488 1.4171 2.3917
4.6985 1.5925 2.3917
4.6426 1.7675 2.3917
4.5812 1.9405 2.3917
4.5143 2.1117 2.3917
4.4420 2.2810 2.3917
4.3642 2.4482 2.3917
4.2811 2.6133 2.3917
4.1925 2.7760 2.3917
4.0987 2.9363 2.3917
3.9996 3.0939 2.3917
3.8952 3.2487 2.3917
3.7857 3.4006 2.3917
3.6711 3.5494 2.3917
3.5514 3.6950 2.3917
3.4266 3.8372 2.3917
3.2969 3.9758 2.3917
3.1624 4.1106 2.3917
3.0231 4.2408 2.3917
2.8789 4.3686 2.3917
2.7302 4.4913 2.3917
2.5769 4.6097 2.3917
2.4191 4.7235 2.3917
2.2570 4.8326 2.3917
2.0906 4.9369 2.3917
0.8128 2.1318 1.0125
0.7356 2.1621 1.0080
0.6574 2.1895 1.0035
0.5783 2.2141 0.9988
0.4983 2.2358 0.9941
0.4176 2.2546 0.9893
0.3363 2.2704 0.9845
0.2544 2.2834 0.9796
0.1721 2.2933 0.9746
0.0895 2.3003 0.9696
0.0068 2.3043 0.9646
-0.0761 2.3052 0.9595
-0.1590 2.3032 0.9544
-0.2417 2.2982 0.9493
-0.3242 2.2902 0.9442
-0.4064 2.2792 0.9390
-0.4881 2.2653 0.9339
-0.5692 2.2484 0.9287
-0.6497 2.2286 0.9236
-0.7294 2.2059 0.9185
-0.8083 2.1803 0.9134
-0.8862 2.1519 0.9084
-0.9630 2.1206 0.9034
-2.7647 5.5548 2.3917
-2.9788 5.4871 2.3917
-3.1914 5.4111 2.3917
-3.4020 5.3267 2.3917
-3.6104 5.2341 2.3917
-3.8161 5.1332 2.3917
-4.0189 5.0240 2.3917
-4.2182 4.9067 2.3917
-4.4138 4.7812 2.3917
-4.6053 4.6476 2.3917
-4.7923 4.5061 2.3917
-4.9743 4.3568 2.3917
-5.1511 4.1998 2.3917
-5.3222 4.0353 2.3917
-5.4872 3.8636 2.3917
-5.6459 3.6847 2.3917
-5.7977 3.4990 2.3917
-5.9425 3.3066 2.3917
-6.0797 3.1079 2.3917
-6.2092 2.9033 2.3917
-6.3305 2.6929 2.3917
-6.4434 2.4771 2.3917
-6.5475 2.2563 2.3917
-6.6427 2.0310 2.3917
-6.7285 1.8010 2.3917
-6.8049 1.5678 2.3917
-6.8715 1.3305 2.3917
-6.9283 1.0908 2.3917
-6.9750 0.8487 2.3917
-7.0115 0.6042 2.3917
-7.0377 0.3582 2.3917
-7.0535 0.1112 2.3917
-7.0587 -0.1366 2.3917
-7.0535 -0.3844 2.3917
-7.0378 -0.6319 2.3917
-7.0116 -0.8784 2.3917
-6.9750 -1.1237 2.3917
-6.9280 -1.3671 2.3917
-6.8707 -1.6082 2.3917
-6.8034 -1.8465 2.3917
-6.7260 -2.0819 2.3917
-6.6389 -2.3132 2.3917
-6.5423 -2.5404 2.3917
-6.4362 -2.7632 2.3917
-6.3212 -2.9808 2.3917
-6.1973 -3.1930 2.3917
-6.0650 -3.3996 2.3917
-5.9244 -3.6001 2.3917
-5.7760 -3.7942 2.3917
-5.6202 -3.9813 2.3917
-5.4571 -4.1616 2.3917
-5.2873 -4.3346 2.3917
-5.1111 -4.5000 2.3917
-4.9288 -4.6577 2.3917
-4.7410 -4.8074 2.3917
-4.5480 -4.9489 2.3917
-4.3501 -5.0822 2.3917
-4.1479 -5.2070 2.3917
-3.9417 -5.3233 2.3917
-3.7320 -5.4310 2.3917
-3.5190 -5.5298 2.3917
-3.3034 -5.6200 2.3917
-3.0853 -5.7015 2.3917
-2.8653 -5.7741 2.3917
-2.6437 -5.8380 2.3917
-2.4209 -5.8932 2.3917
-2.1973 -5.9397 2.3917
-1.9732 -5.9775 2.3917
-1.7490 -6.0068 2.3917
-1.5250 -6.0277 2.3917
-1.3015 -6.0403 2.3917
-1.0790 -6.0445 2.3917
-0.8576 -6.0407 2.3917
-0.6377 -6.0290 2.3917
-0.4196 -6.0094 2.3917
-0.2035 -5.9821 2.3917
0.0103 -5.9474 2.3917
0.2215 -5.9053 2.3917
0.4300 -5.8561 2.3917
0.6355 -5.7999 2.3917
0.8377 -5.7369 2.3917
1.0365 -5.6673 2.3917
1.2317 -5.5913 2.3917
1.4230 -5.5091 2.3917
1.6105 -5.4208 2.3917
1.7937 -5.3268 2.3917
1.9728 -5.2271 2.3917
2.1474 -5.1220 2.3917
2.3174 -5.0117 2.3917
2.4828 -4.8963 2.3917
2.6434 -4.7762 2.3917
2.7992 -4.6513 2.3917
2.9499 -4.5221 2.3917
3.0956 -4.3886 2.3917
3.2362 -4.2510 2.3917
3.3715 -4.1096 2.3917
3.5016 -3.9646 2.3917
3.6263 -3.8161 2.3917
3.7456 -3.6642 2.3917
3.8594 -3.5092 2.3917
3.9678 -3.3520 2.3917
4.0705 -3.1905 2.3917
4.1678 -3.0272 2.3917
4.2594 -2.8615 2.3917
4.3453 -2.6936 2.3917
4.4256 -2.5235 2.3917
4.5002 -2.3516 2.3917
4.5692 -2.1778 2.3917
4.6324 -2.0025 2.3917
4.6899 -1.8258 2.3917
4.7416 -1.6477 2.3917
4.7876 -1.4686 2.3917
4.8278 -1.2884 2.3917
4.8623 -1.1070 2.3917
4.8911 -0.9259 2.3917
4.9140 -0.7424 2.3917
4.9314 -0.5611 2.3917
4.9429 -0.3786 2.3917
4.9487 -0.1956 2.3917
4.9488 -0.0127 2.3917
4.9432 0.1698 2.3917
4.9318 0.3521 2.3917
4.9148 0.5339 2.3917
4.8922 0.7151 2.3917
4.8638 0.8954 2.3917
4.8299 1.0744 2.3917
4.7903 1.2538 2.3917
4.7451 1.4308 2.3917
4.6944 1.6065 2.3917
4.6381 1.7809 2.3917
4.5763 1.9537 2.3917
4.5090 2.1248 2.3917
4.4362 2.2939 2.3917
4.3580 2.4610 2.3917
4.2744 2.6259 2.3917
4.1855 2.7885 2.3917
4.0913 2.9485 2.3917
3.9917 3.1059 2.3917
3.8870 3.2605 2.3917
3.7771 3.4122 2.3917
3.6620 3.5608 2.3917
3.5419 3.7061 2.3917
3.4168 3.8480 2.3917
3.2868 3.9863 2.3917
3.1518 4.1209 2.3917
3.0121 4.2516 2.3917
2.8676 4.3782 2.3917
2.7186 4.5004 2.3917
2.5649 4.6186 2.3917
2.4068 4.7321 2.3917
2.2443 4.8408 2.3917
2.0776 4.9447 2.3917
0.8069 2.1343 1.0121
0.7296 2.1643 1.0077
0.6514 2.1915 1.0031
0.5722 2.2158 0.9985
0.4921 2.2373 0.9938
3.8760 2.7649 2.3917
3.7821 2.9138 2.3917
3.6833 3.0601 2.3917
3.5796 3.2035 2.3917
3.4710 3.3439 2.3917
3.3576 3.4812 2.3917
3.2395 3.6152 2.3917
3.1167 3.7458 2.3917
2.9893 3.8727 2.3917
2.8574 3.9960 2.3917
2.7211 4.1154 2.3917
2.5803 4.2307 2.3917
2.4354 4.3418 2.3917
2.2862 4.4485 2.3917
2.1330 4.5508 2.3917
0.8363 1.9676 1.0124
0.7651 1.9988 1.0083
0.6927 2.0273 1.0041
0.6194 2.0533 0.9999
0.5451 2.0765 0.9955
0.4701 2.0971 0.9911
0.3944 2.1149 0.9866
0.3180 2.1301 0.9821
0.2412 2.1424 0.9775
0.1640 2.1519 0.9728
0.0865 2.1587 0.9681
0.0088 2.1626 0.9634
-0.0690 2.1638 0.9587
-0.1468 2.1621 0.9539
-0.2245 2.1576 0.9491
-0.3020 2.1503 0.9442
-0.3791 2.1402 0.9394
-0.4559 2.1273 0.9346
-0.5321 2.1117 0.9298
-0.6077 2.0933 0.9250
-0.6826 2.0722 0.9202
-0.7567 2.0484 0.9154
-0.8299 2.0219 0.9107
-0.9020 1.9928 0.9060
-2.5823 5.2040 2.3917
-2.7819 5.1394 2.3917
-2.9800 5.0670 2.3917
-3.1762 4.9870 2.3917
-3.3701 4.8993 2.3917
-3.5615 4.8040 2.3917
-3.7500 4.7009 2.3917
-3.9353 4.5903 2.3917
-4.1169 4.4722 2.3917
-4.2947 4.3467 2.3917
-4.4682 4.2139 2.3917
-4.6370 4.0738 2.3917
-4.8009 3.9268 2.3917
-4.9594 3.7728 2.3917
-5.1123 3.6121 2.3917
-5.2592 3.4450 2.3917
-5.3998 3.2715 2.3917
-5.5337 3.0920 2.3917
-5.6607 2.9067 2.3917
-5.7804 2.7159 2.3917
-5.8927 2.5199 2.3917
-5.9971 2.3190 2.3917
-6.0934 2.1135 2.3917
-6.1814 1.9038 2.3917
-6.2608 1.6902 2.3917
-6.3315 1.4731 2.3917
-6.3933 1.2530 2.3917
-6.4460 1.0301 2.3917
-6.4894 0.8049 2.3917
-6.5233 0.5777 2.3917
-6.5479 0.3492 2.3917
-6.5628 0.1195 2.3917
-6.5681 -0.1106 2.3917
-6.5638 -0.3406 2.3917
-6.5498 -0.5708 2.3917
-6.5262 -0.8000 2.3917
-6.4930 -1.0277 2.3917
-6.4503 -1.2539 2.3917
-6.3981 -1.4783 2.3917
-6.3366 -1.6999 2.3917
-6.2659 -1.9187 2.3917
-6.1863 -2.1341 2.3917
-6.0978 -2.3460 2.3917
-6.0007 -2.5531 2.3917
-5.8952 -2.7564 2.3917
-5.7815 -2.9547 2.3917
-5.6600 -3.1477 2.3917
-5.5308 -3.3352 2.3917
-5.3944 -3.5168 2.3917
-5.2510 -3.6923 2.3917
-5.1008 -3.8615 2.3917
-4.9444 -4.0239 2.3917
-4.7819 -4.1795 2.3917
-4.6138 -4.3279 2.3917
-4.4404 -4.4691 2.3917
-4.2620 -4.6028 2.3917
-4.0791 -4.7290 2.3917
-3.8921 -4.8473 2.3917
-3.7012 -4.9578 2.3917
-3.5068 -5.0604 2.3917
-3.3093 -5.1549 2.3917
-3.1092 -5.2414 2.3917
-2.9067 -5.3198 2.3917
-2.7022 -5.3900 2.3917
-2.4961 -5.4521 2.3917
-2.2887 -5.5062 2.3917
-2.0804 -5.5521 2.3917
-1.8714 -5.5900 2.3917
-1.6622 -5.6200 2.3917
-1.4530 -5.6421 2.3917
-1.2442 -5.6564 2.3917
-1.0361 -5.6630 2.3917
-0.8288 -5.6619 2.3917
-0.6228 -5.6534 2.3917
-0.4183 -5.6376 2.3917
-0.2156 -5.6145 2.3917
-0.0148 -5.5843 2.3917
0.1837 -5.5472 2.3917
0.3798 -5.5034 2.3917
0.5731 -5.4529 2.3917
0.7636 -5.3960 2.3917
0.9510 -5.3328 2.3917
1.1351 -5.2635 2.3917
1.3158 -5.1883 2.3917
1.4929 -5.1073 2.3917
1.6662 -5.0208 2.3917
1.8355 -4.9288 2.3917
2.0008 -4.8317 2.3917
2.1620 -4.7296 2.3917
2.3188 -4.6226 2.3917
2.4712 -4.5109 2.3917
2.6190 -4.3948 2.3917
2.7623 -4.2744 2.3917
2.9008 -4.1499 2.3917
3.0346 -4.0215 2.3917
3.1634 -3.8892 2.3917
3.2873 -3.7535 2.3917
3.4062 -3.6143 2.3917
3.5199 -3.4717 2.3917
3.6286 -3.3265 2.3917
3.7321 -3.1782 2.3917
3.8304 -3.0271 2.3917
3.9238 -2.8768 2.3917
4.0111 -2.7176 2.3917
4.0935 -2.5595 2.3917
4.1705 -2.3992 2.3917
4.2421 -2.2371 2.3917
4.3083 -2.0733 2.3917
4.3691 -1.9078 2.3917
4.4244 -1.7409 2.3917
4.4743 -1.5728 2.3917
4.5188 -1.4035 2.3917
4.5577 -1.2332 2.3917
4.5912 -1.0622 2.3917
4.6192 -0.8904 2.3917
4.6417 -0.7181 2.3917
4.6588 -0.5454 2.3917
4.6704 -0.3724 2.3917
4.6765 -0.1993 2.3917
4.6771 -0.0263 2.3917
4.6723 0.1466 2.3917
4.6621 0.3192 2.3917
4.6465 0.4913 2.3917
4.6254 0.6629 2.3917
4.5989 0.8337 2.3917
4.5671 1.0036 2.3917
4.5299 1.1726 2.3917
4.4873 1.3404 2.3917
4.4395 1.5069 2.3917
4.3863 1.6721 2.3917
4.3280 1.8356 2.3917
4.2643 1.9975 2.3917
4.1955 2.1576 2.3917
4.1215 2.3156 2.3917
4.0424 2.4716 2.3917
3.9582 2.6252 2.3917
3.8689 2.7765 2.3917
3.7747 2.9252 2.3917
3.6755 3.0712 2.3917
3.5714 3.2144 2.3917
3.4624 3.3546 2.3917
3.3487 3.4916 2.3917
3.2302 3.6254 2.3917
3.1070 3.7557 2.3917
2.9793 3.8827 2.3917
2.8470 4.0056 2.3917
2.7104 4.1244 2.3917
2.5693 4.2394 2.3917
2.4240 4.3501 2.3917
2.2746 4.4566 2.3917
2.1210 4.5585 2.3917
0.8309 1.9701 1.0121
0.7595 2.0010 1.0080
0.6871 2.0294 1.0038
0.6137 2.0551 0.9995
0.5394 2.0782 0.9952
0.4643 2.0986 0.9908
0.3885 2.1162 0.9863
0.3121 2.1311 0.9817
0.2353 2.1432 0.9771
0.1580 2.1526 0.9725
0.0805 2.1591 0.9678
0.0028 2.1628 0.9630
-0.0750 2.1637 0.9583
-0.1528 2.1619 0.9535
-0.2305 2.1571 0.9487
-0.3079 2.1496 0.9439
-0.3851 2.1393 0.9390
-0.4618 2.1262 0.9342
-0.5380 2.1104 0.9294
-0.6135 2.0918 0.9246
-0.6884 2.0704 0.9198
-0.7624 2.0464 0.9150
-0.8355 2.0197 0.9103
-0.9076 1.9905 0.9056
-2.5977 5.1993 2.3917
-2.7972 5.1341 2.3917
-2.9952 5.0612 2.3917
-3.1912 4.9805 2.3917
-3.3849 4.8923 2.3917
-3.5761 4.7963 2.3917
-3.7644 4.6927 2.3917
-3.9494 4.5815 2.3917
-4.1308 4.4628 2.3917
-4.3082 4.3367 2.3917
-4.4813 4.2033 2.3917
-4.6498 4.0627 2.3917
-4.8133 3.9151 2.3917
-4.9714 3.7607 2.3917
-5.1238 3.5995 2.3917
-5.2702 3.4318 2.3917
-5.4103 3.2579 2.3917
-5.5437 3.0779 2.3917
-5.6702 2.8922 2.3917
-5.7894 2.7010 2.3917
-5.9010 2.5046 2.3917
-6.0048 2.3033 2.3917
-6.1004 2.0975 2.3917
-6.1878 1.8875 2.3917
-6.2666 1.6736 2.3917
-6.3366 1.4563 2.3917
-6.3977 1.2359 2.3917
-6.4496 1.0128 2.3917
-6.4923 0.7874 2.3917
-6.5255 0.5599 2.3917
-6.5494 0.3316 2.3917
-6.5636 0.1021 2.3917
-6.5682 -0.1280 2.3917
-6.5630 -0.3586 2.3917
-6.5484 -0.5882 2.3917
-6.5240 -0.8174 2.3917
-6.4900 -1.0454 2.3917
-6.4466 -1.2712 2.3917
-6.3937 -1.4956 2.3917
-6.3315 -1.7168 2.3917
-6.2601 -1.9357 2.3917
-6.1798 -2.1506 2.3917
-6.0906 -2.3620 2.3917
-5.9928 -2.5696 2.3917
-5.8867 -2.7719 2.3917
-5.7724 -2.9697 2.3917
-5.6503 -3.1623 2.3917
-5.5206 -3.3494 2.3917
-5.3836 -3.5306 2.3917
-5.2396 -3.7056 2.3917
-5.0890 -3.8742 2.3917
-4.9321 -4.0361 2.3917
-4.7692 -4.1912 2.3917
-4.6006 -4.3391 2.3917
-4.4268 -4.4797 2.3917
-4.2481 -4.6129 2.3917
-4.0649 -4.7383 2.3917
-3.8775 -4.8561 2.3917
-3.6863 -4.9660 2.3917
-3.4917 -5.0679 2.3917
-3.2940 -5.1619 2.3917
-3.0937 -5.2477 2.3917
-2.8910 -5.3254 2.3917
-2.6864 -5.3951 2.3917
-2.4802 -5.4566 2.3917
-2.2727 -5.5100 2.3917
-2.0643 -5.5554 2.3917
-1.8553 -5.5926 2.3917
-1.6461 -5.6220 2.3917
-1.4369 -5.6435 2.3917
-1.2282 -5.6572 2.3917
-1.0201 -5.6632 2.3917
-0.8129 -5.6615 2.3917
-0.6070 -5.6525 2.3917
-0.4027 -5.6360 2.3917
-0.2000 -5.6124 2.3917
0.0005 -5.5817 2.3917
0.1989 -5.5441 2.3917
0.3947 -5.4997 2.3917
0.5879 -5.4488 2.3917
0.7782 -5.3913 2.3917
0.9653 -5.3277 2.3917
1.1492 -5.2579 2.3917
1.3296 -5.1822 2.3917
1.5063 -5.1009 2.3917
1.6793 -5.0139 2.3917
1.8484 -4.9216 2.3917
2.0134 -4.8240 2.3917
2.1742 -4.7215 2.3917
2.3307 -4.6141 2.3917
2.4827 -4.5021 2.3917
2.6302 -4.3857 2.3917
2.7731 -4.2650 2.3917
2.9113 -4.1401 2.3917
3.0446 -4.0114 2.3917
3.1731 -3.8789 2.3917
3.2966 -3.7428 2.3917
3.4151 -3.6034 2.3917
3.5285 -3.4608 2.3917
3.6368 -3.3152 2.3917
3.7399 -3.1670 2.3917
3.8378 -3.0158 2.3917
3.9303 -2.8616 2.3917
4.0176 -2.7055 2.3917
4.0996 -2.5472 2.3917
4.1762 -2.3868 2.3917
4.2474 -2.2245 2.3917
4.3132 -2.0605 2.3917
4.3735 -1.8950 2.3917
4.4285 -1.7280 2.3917
4.4779 -1.5598 2.3917
4.5219 -1.3904 2.3917
4.5605 -1.2201 2.3917
4.5935 -1.0490 2.3917
4.6211 -0.8771 2.3917
4.6432 -0.7048 2.3917
4.6599 -0.5321 2.3917
4.6710 -0.3591 2.3917
4.6767 -0.1860 2.3917
4.6770 -0.0130 2.3917
4.6718 0.1599 2.3917
4.6611 0.3325 2.3917
4.6450 0.5045 2.3917
4.6235 0.6760 2.3917
4.5967 0.8468 2.3917
4.5644 1.0167 2.3917
4.5268 1.1856 2.3917
4.4838 1.3533 2.3917
4.4356 1.5197 2.3917
4.3820 1.6847 2.3917
4.3232 1.8482 2.3917
4.2592 2.0099 2.3917
4.1900 2.1698 2.3917
4.1156 2.3277 2.3917
4.0361 2.4835 2.3917
3.9515 2.6370 2.3917
3.8618 2.7881 2.3917
3.7672 2.9366 2.3917
3.6676 3.0824 2.3917
3.5631 3.2253 2.3917
3.4538 3.3652 2.3917
3.3397 3.5021 2.3917
3.2209 3.6355 2.3917
3.0974 3.7656 2.3917
2.9693 3.8921 2.3917
2.8367 4.0144 2.3917
2.6997 4.1333 2.3917
2.5583 4.2481 2.3917
2.4127 4.3585 2.3917
2.2629 4.4646 2.3917
2.1090 4.5661 2.3917
0.8254 1.9726 1.0118
0.7540 2.0033 1.0077
0.6815 2.0315 1.0035
0.6080 2.0570 0.9992
0.5336 2.0799 0.9949
0.4585 2.1000 0.9904
3.6656 2.6195 2.3917
3.5762 2.7603 2.3917
3.4821 2.8985 2.3917
3.3833 3.0340 2.3917
3.2800 3.1665 2.3917
3.1721 3.2961 2.3917
3.0597 3.4225 2.3917
2.9430 3.5455 2.3917
2.8218 3.6652 2.3917
2.6965 3.7811 2.3917
2.5669 3.8935 2.3917
2.4333 4.0017 2.3917
2.2956 4.1060 2.3917
2.1541 4.2061 2.3917
0.8498 1.8200 1.0119
0.7838 1.8517 1.0081
0.7167 1.8810 1.0043
0.6486 1.9079 1.0003
0.5796 1.9323 0.9963
0.5097 1.9542 0.9922
0.4391 1.9736 0.9881
0.3678 1.9903 0.9839
0.2960 2.0045 0.9796
0.2236 2.0162 0.9753
0.1510 2.0251 0.9709
0.0780 2.0315 0.9665
0.0049 2.0352 0.9620
-0.0684 2.0363 0.9575
-0.1416 2.0347 0.9530
-0.2147 2.0304 0.9485
-0.2876 2.0236 0.9439
-0.3603 2.0141 0.9394
-0.4325 2.0019 0.9349
-0.5042 1.9872 0.9303
-0.5754 1.9699 0.9258
-0.6459 1.9500 0.9213
-0.7157 1.9276 0.9168
-0.7845 1.9027 0.9124
-0.8525 1.8753 0.9079
-0.9194 1.8455 0.9036
-2.6202 4.8229 2.3917
-2.8053 4.7536 2.3917
-2.9885 4.6770 2.3917
-3.1696 4.5934 2.3917
-3.3481 4.5025 2.3917
-3.5238 4.4046 2.3917
-3.6964 4.2997 2.3917
-3.8655 4.1878 2.3917
-4.0309 4.0691 2.3917
-4.1921 3.9436 2.3917
-4.3490 3.8114 2.3917
-4.5012 3.6728 2.3917
-4.6484 3.5278 2.3917
-4.7902 3.3767 2.3917
-4.9264 3.2195 2.3917
-5.0566 3.0567 2.3917
-5.1806 2.8882 2.3917
-5.2982 2.7145 2.3917
-5.4089 2.5357 2.3917
-5.5126 2.3521 2.3917
-5.6091 2.1641 2.3917
-5.6980 1.9719 2.3917
-5.7793 1.7758 2.3917
-5.8525 1.5762 2.3917
-5.9177 1.3734 2.3917
-5.9746 1.1678 2.3917
-6.0230 0.9598 2.3917
-6.0629 0.7496 2.3917
-6.0941 0.5378 2.3917
-6.1165 0.3246 2.3917
-6.1301 0.1106 2.3917
-6.1348 -0.1040 2.3917
-6.1305 -0.3187 2.3917
-6.1174 -0.5331 2.3917
-6.0953 -0.7467 2.3917
-6.0644 -0.9593 2.3917
-6.0247 -1.1703 2.3917
-5.9763 -1.3795 2.3917
-5.9193 -1.5863 2.3917
-5.8538 -1.7905 2.3917
-5.7799 -1.9916 2.3917
-5.6979 -2.1893 2.3917
-5.6079 -2.3832 2.3917
-5.5102 -2.5729 2.3917
-5.4049 -2.7582 2.3917
-5.2922 -2.9388 2.3917
-5.1725 -3.1143 2.3917
-5.0460 -3.2844 2.3917
-4.9129 -3.4489 2.3917
-4.7737 -3.6075 2.3917
-4.6285 -3.7600 2.3917
-4.4776 -3.9062 2.3917
-4.3215 -4.0458 2.3917
-4.1604 -4.1787 2.3917
-3.9946 -4.3048 2.3917
-3.8245 -4.4238 2.3917
-3.6505 -4.5356 2.3917
-3.4728 -4.6402 2.3917
-3.2918 -4.7375 2.3917
-3.1078 -4.8273 2.3917
-2.9212 -4.9097 2.3917
-2.7323 -4.9845 2.3917
-2.5414 -5.0518 2.3917
-2.3490 -5.1116 2.3917
-2.1552 -5.1638 2.3917
-1.9604 -5.2084 2.3917
-1.7649 -5.2456 2.3917
-1.5691 -5.2754 2.3917
-1.3731 -5.2977 2.3917
-1.1774 -5.3128 2.3917
-0.9822 -5.3206 2.3917
-0.7877 -5.3213 2.3917
-0.5943 -5.3149 2.3917
-0.4022 -5.3017 2.3917
-0.2115 -5.2816 2.3917
-0.0227 -5.2548 2.3917
0.1642 -5.2215 2.3917
0.3488 -5.1818 2.3917
0.5311 -5.1358 2.3917
0.7107 -5.0837 2.3917
0.8875 -5.0257 2.3917
1.0614 -4.9618 2.3917
1.2320 -4.8923 2.3917
1.3994 -4.8173 2.3917
1.5633 -4.7370 2.3917
1.7236 -4.6516 2.3917
1.8801 -4.5611 2.3917
2.0327 -4.4659 2.3917
2.1814 -4.3660 2.3917
2.3259 -4.2616 2.3917
2.4662 -4.1529 2.3917
2.6022 -4.0401 2.3917
2.7337 -3.9233 2.3917
2.8608 -3.8028 2.3917
2.9833 -3.6786 2.3917
3.1011 -3.5510 2.3917
3.2143 -3.4200 2.3917
3.3226 -3.2859 2.3917
3.4261 -3.1490 2.3917
3.5247 -3.0092 2.3917
3.6184 -2.8667 2.3917
3.7071 -2.7217 2.3917
3.7908 -2.5750 2.3917
3.8693 -2.4251 2.3917
3.9429 -2.2737 2.3917
4.0113 -2.1204 2.3917
4.0746 -1.9654 2.3917
4.1327 -1.8088 2.3917
4.1856 -1.6509 2.3917
4.2334 -1.4917 2.3917
4.2759 -1.3313 2.3917
4.3132 -1.1701 2.3917
4.3453 -1.0079 2.3917
4.3722 -0.8451 2.3917
4.3939 -0.6818 2.3917
4.4103 -0.5180 2.3917
4.4215 -0.3540 2.3917
4.4275 -0.1899 2.3917
4.4282 -0.0258 2.3917
4.4238 0.1382 2.3917
4.4141 0.3019 2.3917
4.3993 0.4651 2.3917
4.3793 0.6278 2.3917
4.3542 0.7898 2.3917
4.3239 0.9510 2.3917
4.2885 1.1112 2.3917
4.2480 1.2703 2.3917
4.2024 1.4282 2.3917
4.1518 1.5847 2.3917
4.0962 1.7397 2.3917
4.0355 1.8931 2.3917
3.9700 2.0447 2.3917
3.8995 2.1943 2.3917
3.8241 2.3419 2.3917
3.7439 2.4873 2.3917
3.6589 2.6304 2.3917
3.5691 2.7710 2.3917
3.4747 2.9090 2.3917
3.3755 3.0443 2.3917
3.2718 3.1766 2.3917
3.1636 3.3060 2.3917
3.0509 3.4321 2.3917
2.9338 3.5549 2.3917
2.8123 3.6742 2.3917
2.6866 3.7899 2.3917
2.5568 3.9018 2.3917
2.4228 4.0099 2.3917
2.2849 4.1139 2.3917
2.1430 4.2136 2.3917
0.8448 1.8225 1.0116
0.7787 1.8540 1.0078
0.7115 1.8832 1.0040
0.6433 1.9099 1.0000
0.5742 1.9341 0.9960
0.5043 1.9558 0.9919
0.4336 1.9749 0.9878
0.3623 1.9915 0.9835
0.2904 2.0055 0.9792
0.2181 2.0169 0.9749
0.1453 2.0257 0.9705
0.0724 2.0319 0.9661
-0.0008 2.0354 0.9617
-0.0740 2.0362 0.9572
-0.1472 2.0344 0.9527
-0.2203 2.0300 0.9481
-0.2932 2.0229 0.9436
-0.3658 2.0132 0.9391
-0.4380 2.0009 0.9345
-0.5098 1.9860 0.9300
-0.5809 1.9685 0.9255
-0.6513 1.9484 0.9209
-0.7210 1.9258 0.9165
-0.7898 1.9007 0.9120
-0.8577 1.8731 0.9076
-0.9245 1.8431 0.9032
-2.6346 4.8178 2.3917
-2.8195 4.7479 2.3917
-3.0026 4.6708 2.3917
-3.1834 4.5866 2.3917
-3.3617 4.4952 2.3917
-3.5372 4.3968 2.3917
-3.7095 4.2913 2.3917
-3.8784 4.1789 2.3917
-4.0434 4.0597 2.3917
-4.2044 3.9336 2.3917
-4.3609 3.8010 2.3917
-4.5127 3.6619 2.3917
-4.6595 3.5164 2.3917
-4.8009 3.3648 2.3917
-4.9366 3.2072 2.3917
-5.0664 3.0439 2.3917
-5.1899 2.8750 2.3917
-5.3069 2.7009 2.3917
-5.4172 2.5217 2.3917
-5.5203 2.3378 2.3917
-5.6162 2.1494 2.3917
-5.7046 1.9569 2.3917
-5.7852 1.7606 2.3917
-5.8578 1.5607 2.3917
-5.9224 1.3577 2.3917
-5.9786 1.1519 2.3917
-6.0264 0.9437 2.3917
-6.0656 0.7334 2.3917
-6.0961 0.5214 2.3917
-6.1179 0.3082 2.3917
-6.1307 0.0940 2.3917
-6.1347 -0.1205 2.3917
-6.1298 -0.3352 2.3917
-6.1160 -0.5495 2.3917
-6.0933 -0.7631 2.3917
-6.0617 -0.9756 2.3917
-6.0213 -1.1865 2.3917
-5.9722 -1.3955 2.3917
-5.9145 -1.6022 2.3917
-5.8484 -1.8061 2.3917
-5.7739 -2.0069 2.3917
-5.6913 -2.2043 2.3917
-5.6007 -2.3979 2.3917
-5.5023 -2.5874 2.3917
-5.3964 -2.7723 2.3917
-5.2832 -2.9525 2.3917
-5.1630 -3.1276 2.3917
-5.0360 -3.2973 2.3917
-4.9024 -3.4613 2.3917
-4.7627 -3.6195 2.3917
-4.6170 -3.7715 2.3917
-4.4658 -3.9172 2.3917
-4.3093 -4.0563 2.3917
-4.1478 -4.1887 2.3917
-3.9817 -4.3142 2.3917
-3.8113 -4.4327 2.3917
-3.6369 -4.5440 2.3917
-3.4589 -4.6480 2.3917
-3.2777 -4.7447 2.3917
-3.0935 -4.8339 2.3917
-2.9067 -4.9157 2.3917
-2.7177 -4.9900 2.3917
-2.5267 -5.0567 2.3917
-2.3341 -5.1158 2.3917
-2.1402 -5.1675 2.3917
-1.9453 -5.2115 2.3917
-1.7498 -5.2482 2.3917
-1.5540 -5.2774 2.3917
-1.3581 -5.2991 2.3917
-1.1624 -5.3136 2.3917
-0.9672 -5.3209 2.3917
-0.7728 -5.3210 2.3917
-0.5795 -5.3141 2.3917
-0.3874 -5.3004 2.3917
-0.1969 -5.2798 2.3917
-0.0082 -5.2525 2.3917
0.1785 -5.2187 2.3917
0.3630 -5.1785 2.3917
0.5450 -5.1320 2.3917
0.7244 -5.0795 2.3917
0.9010 -5.0210 2.3917
1.0746 -4.9567 2.3917
1.2450 -4.8867 2.3917
1.4121 -4.8113 2.3917
1.5758 -4.7306 2.3917
1.7358 -4.6448 2.3917
1.8920 -4.5539 2.3917
2.0443 -4.4583 2.3917
2.1926 -4.3581 2.3917
2.3368 -4.2534 2.3917
2.4768 -4.1444 2.3917
2.6125 -4.0313 2.3917
2.7437 -3.9142 2.3917
2.8704 -3.7934 2.3917
2.9925 -3.6689 2.3917
3.1100 -3.5410 2.3917
3.2228 -3.4098 2.3917
3.3307 -3.2755 2.3917
3.4339 -3.1383 2.3917
3.5321 -2.9983 2.3917
3.6254 -2.8556 2.3917
3.7137 -2.7103 2.3917
3.7970 -2.5631 2.3917
3.8752 -2.4135 2.3917
3.9483 -2.2619 2.3917
4.0163 -2.1085 2.3917
4.0792 -1.9534 2.3917
4.1369 -1.7967 2.3917
4.1895 -1.6386 2.3917
4.2368 -1.4793 2.3917
4.2790 -1.3190 2.3917
4.3159 -1.1576 2.3917
4.3476 -0.9954 2.3917
4.3741 -0.8326 2.3917
4.3953 -0.6692 2.3917
4.4113 -0.5054 2.3917
4.4221 -0.3414 2.3917
4.4277 -0.1773 2.3917
4.4281 -0.0132 2.3917
4.4232 0.1508 2.3917
4.4132 0.3145 2.3917
4.3980 0.4777 2.3917
4.3776 0.6403 2.3917
4.3520 0.8023 2.3917
4.3213 0.9634 2.3917
4.2855 1.1235 2.3917
4.2446 1.2825 2.3917
4.1987 1.4403 2.3917
4.1477 1.5967 2.3917
4.0917 1.7516 2.3917
4.0307 1.9048 2.3917
3.9647 2.0563 2.3917
3.8938 2.2058 2.3917
3.8181 2.3532 2.3917
3.7375 2.4985 2.3917
3.6521 2.6414 2.3917
3.5620 2.7818 2.3917
3.4672 2.9195 2.3917
3.3677 3.0546 2.3917
3.2637 3.1867 2.3917
3.1551 3.3158 2.3917
3.0421 3.4411 2.3917
2.9246 3.5642 2.3917
2.8028 3.6832 2.3917
2.6768 3.7984 2.3917
2.5466 3.9103 2.3917
2.4123 4.0180 2.3917
2.2741 4.1217 2.3917
2.1319 4.2212 2.3917
0.8397 1.8250 1.0113
0.7736 1.8564 1.0075
0.7063 1.8853 1.0037
0.6380 1.9118 0.9997
0.5689 1.9358 0.9957
0.4989 1.9573 0.9916
0.4281 1.9763 0.9874
3.4723 2.4859 2.3917
3.3871 2.6193 2.3917
3.2974 2.7501 2.3917
3.2032 2.8784 2.3917
3.1047 3.0038 2.3917
3.0019 3.1263 2.3917
2.8949 3.2459 2.3917
2.7837 3.3619 2.3917
2.6684 3.4748 2.3917
2.5490 3.5842 2.3917
2.4258 3.6898 2.3917
2.2986 3.7922 2.3917
2.1677 3.8901 2.3917
0.8596 1.6846 1.0112
0.7985 1.7167 1.0078
0.7362 1.7466 1.0042
0.6729 1.7743 1.0006
0.6086 1.7996 0.9969
0.5435 1.8226 0.9931
0.4776 1.8433 0.9892
0.4109 1.8615 0.9853
0.3437 1.8774 0.9813
0.2759 1.8907 0.9773
0.2077 1.9017 0.9732
0.1391 1.9102 0.9691
0.0703 1.9161 0.9649
0.0013 1.9196 0.9607
-0.0678 1.9206 0.9565
-0.1369 1.9191 0.9522
-0.2059 1.9152 0.9480
-0.2746 1.9087 0.9437
-0.3432 1.8997 0.9394
-0.4113 1.8883 0.9351
-0.4790 1.8744 0.9308
-0.5461 1.8580 0.9266
-0.6126 1.8393 0.9223
-0.6784 1.8182 0.9181
-0.7434 1.7947 0.9139
-0.8075 1.7688 0.9097
-0.8706 1.7407 0.9056
-0.9327 1.7103 0.9015
-2.6479 4.4710 2.3917
-2.8195 4.3978 2.3917
-2.9890 4.3179 2.3917
-3.1560 4.2313 2.3917
-3.3203 4.1382 2.3917
-3.4816 4.0385 2.3917
-3.6396 3.9324 2.3917
-3.7940 3.8198 2.3917
-3.9445 3.7010 2.3917
-4.0908 3.5761 2.3917
-4.2326 3.4452 2.3917
-4.3697 3.3083 2.3917
-4.5017 3.1658 2.3917
-4.6284 3.0178 2.3917
-4.7496 2.8644 2.3917
-4.8649 2.7060 2.3917
-4.9741 2.5426 2.3917
-5.0769 2.3746 2.3917
-5.1732 2.2023 2.3917
-5.2627 2.0258 2.3917
-5.3452 1.8454 2.3917
-5.4204 1.6616 2.3917
-5.4883 1.4745 2.3917
-5.5486 1.2845 2.3917
-5.6012 1.0919 2.3917
-5.6460 0.8971 2.3917
-5.6828 0.7004 2.3917
-5.7116 0.5021 2.3917
-5.7322 0.3026 2.3917
-5.7446 0.1024 2.3917
-5.7487 -0.0984 2.3917
-5.7446 -0.2992 2.3917
-5.7322 -0.4997 2.3917
-5.7116 -0.6996 2.3917
-5.6827 -0.8985 2.3917
-5.6457 -1.0959 2.3917
-5.6006 -1.2916 2.3917
-5.5475 -1.4852 2.3917
-5.4865 -1.6763 2.3917
-5.4178 -1.8646 2.3917
-5.3416 -2.0498 2.3917
-5.2578 -2.2314 2.3917
-5.1669 -2.4093 2.3917
-5.0689 -2.5831 2.3917
-4.9641 -2.7524 2.3917
-4.8527 -2.9171 2.3917
-4.7349 -3.0769 2.3917
-4.6111 -3.2315 2.3917
-4.4814 -3.3806 2.3917
-4.3461 -3.5241 2.3917
-4.2056 -3.6618 2.3917
-4.0601 -3.7934 2.3917
-3.9098 -3.9188 2.3917
-3.7552 -4.0379 2.3917
-3.5965 -4.1505 2.3917
-3.4340 -4.2563 2.3917
-3.2680 -4.3555 2.3917
-3.0989 -4.4479 2.3917
-2.9269 -4.5333 2.3917
-2.7524 -4.6118 2.3917
-2.5756 -4.6833 2.3917
-2.3969 -4.7478 2.3917
-2.2166 -4.8052 2.3917
-2.0350 -4.8556 2.3917
-1.8523 -4.8989 2.3917
-1.6689 -4.9352 2.3917
-1.4851 -4.9646 2.3917
-1.3010 -4.9870 2.3917
-1.1171 -5.0026 2.3917
-0.9335 -5.0113 2.3917
-0.7506 -5.0134 2.3917
-0.5685 -5.0088 2.3917
-0.3875 -4.9977 2.3917
-0.2079 -4.9802 2.3917
-0.0298 -4.9563 2.3917
0.1465 -4.9263 2.3917
0.3208 -4.8901 2.3917
0.4929 -4.8481 2.3917
0.6627 -4.8002 2.3917
0.8298 -4.7467 2.3917
0.9943 -4.6876 2.3917
1.1558 -4.6231 2.3917
1.3143 -4.5534 2.3917
1.4696 -4.4787 2.3917
1.6216 -4.3990 2.3917
1.7700 -4.3145 2.3917
1.9149 -4.2254 2.3917
2.0560 -4.1319 2.3917
2.1933 -4.0340 2.3917
2.3266 -3.9321 2.3917
2.4559 -3.8261 2.3917
2.5810 -3.7163 2.3917
2.7019 -3.6029 2.3917
2.8186 -3.4859 2.3917
2.9308 -3.3657 2.3917
3.0386 -3.2422 2.3917
3.1418 -3.1157 2.3917
3.2405 -2.9863 2.3917
3.3346 -2.8544 2.3917
3.4240 -2.7196 2.3917
3.5087 -2.5827 2.3917
3.5886 -2.4429 2.3917
3.6637 -2.3018 2.3917
3.7340 -2.1583 2.3917
3.7994 -2.0132 2.3917
3.8599 -1.8663 2.3917
3.9155 -1.7179 2.3917
3.9662 -1.5681 2.3917
4.0119 -1.4171 2.3917
4.0527 -1.2650 2.3917
4.0885 -1.1120 2.3917
4.1193 -0.9581 2.3917
4.1451 -0.8035 2.3917
4.1659 -0.6484 2.3917
4.1817 -0.4929 2.3917
4.1925 -0.3371 2.3917
4.1984 -0.1812 2.3917
4.1992 -0.0253 2.3917
4.1951 0.1304 2.3917
4.1860 0.2859 2.3917
4.1719 0.4410 2.3917
4.1529 0.5956 2.3917
4.1290 0.7495 2.3917
4.1001 0.9026 2.3917
4.0664 1.0547 2.3917
4.0278 1.2059 2.3917
3.9843 1.3558 2.3917
3.9361 1.5044 2.3917
3.8830 1.6515 2.3917
3.8252 1.7970 2.3917
3.7626 1.9409 2.3917
3.6954 2.0828 2.3917
3.6235 2.2228 2.3917
3.5470 2.3606 2.3917
3.4659 2.4962 2.3917
3.3803 2.6294 2.3917
3.2903 2.7601 2.3917
3.1963 2.8844 2.3917
3.0969 3.0134 2.3917
2.9938 3.1356 2.3917
2.8864 3.2553 2.3917
2.7749 3.3708 2.3917
2.6593 3.4834 2.3917
2.5397 3.5926 2.3917
2.4161 3.6980 2.3917
2.2886 3.8000 2.3917
2.1575 3.8976 2.3917
0.8550 1.6871 1.0110
0.7937 1.7191 1.0075
0.7314 1.7488 1.0039
0.6680 1.7763 1.0003
0.6037 1.8015 0.9966
0.5385 1.8243 0.9928
0.4725 1.8448 0.9889
0.4058 1.8628 0.9850
0.3385 1.8785 0.9810
0.2707 1.8917 0.9770
0.2024 1.9024 0.9729
0.1338 1.9107 0.9688
0.0650 1.9165 0.9646
-0.0040 1.9198 0.9604
-0.0731 1.9206 0.9562
-0.1422 1.9189 0.9519
-0.2112 1.9147 0.9476
-0.2799 1.9081 0.9434
-0.3484 1.8989 0.9391
-0.4165 1.8873 0.9348
-0.4842 1.8732 0.9305
-0.5513 1.8567 0.9262
-0.6177 1.8377 0.9220
-0.6835 1.8164 0.9178
-0.7484 1.7927 0.9136
-0.8124 1.7667 0.9094
-0.8754 1.7384 0.9053
-0.9374 1.7078 0.9012
-2.6612 4.4656 2.3917
-2.8327 4.3918 2.3917
-3.0020 4.3115 2.3917
-3.1688 4.2244 2.3917
-3.3329 4.1307 2.3917
-3.4939 4.0306 2.3917
-3.6516 3.9239 2.3917
-3.8057 3.8109 2.3917
-3.9559 3.6916 2.3917
-4.1019 3.5662 2.3917
-4.2433 3.4348 2.3917
-4.3800 3.2975 2.3917
-4.5117 3.1546 2.3917
-4.6380 3.0061 2.3917
-4.7587 2.8524 2.3917
-4.8735 2.6935 2.3917
-4.9822 2.5298 2.3917
-5.0846 2.3615 2.3917
-5.1804 2.1888 2.3917
-5.2693 2.0120 2.3917
-5.3512 1.8314 2.3917
-5.4259 1.6473 2.3917
-5.4932 1.4600 2.3917
-5.5530 1.2698 2.3917
-5.6050 1.0770 2.3917
-5.6491 0.8820 2.3917
-5.6853 0.6852 2.3917
-5.7134 0.4868 2.3917
-5.7334 0.2873 2.3917
-5.7452 0.0869 2.3917
-5.7487 -0.1139 2.3917
-5.7439 -0.3147 2.3917
-5.7309 -0.5152 2.3917
-5.7096 -0.7150 2.3917
-5.6801 -0.9137 2.3917
-5.6425 -1.1111 2.3917
-5.5968 -1.3066 2.3917
-5.5431 -1.5000 2.3917
-5.4815 -1.6909 2.3917
-5.4122 -1.8790 2.3917
-5.3354 -2.0639 2.3917
-5.2511 -2.2453 2.3917
-5.1596 -2.4228 2.3917
-5.0611 -2.5963 2.3917
-4.9558 -2.7653 2.3917
-4.8439 -2.9296 2.3917
-4.7256 -3.0890 2.3917
-4.6013 -3.2432 2.3917
-4.4712 -3.3919 2.3917
-4.3355 -3.5349 2.3917
-4.1946 -3.6722 2.3917
-4.0487 -3.8033 2.3917
-3.8981 -3.9282 2.3917
-3.7431 -4.0468 2.3917
-3.5841 -4.1588 2.3917
-3.4213 -4.2642 2.3917
-3.2551 -4.3629 2.3917
-3.0857 -4.4547 2.3917
-2.9135 -4.5396 2.3917
-2.7388 -4.6176 2.3917
-2.5619 -4.6885 2.3917
-2.3831 -4.7525 2.3917
-2.2026 -4.8093 2.3917
-2.0209 -4.8591 2.3917
-1.8382 -4.9020 2.3917
-1.6548 -4.9377 2.3917
-1.4709 -4.9666 2.3917
-1.2869 -4.9885 2.3917
-1.1030 -5.0035 2.3917
-0.9194 -5.0117 2.3917
-0.7365 -5.0133 2.3917
-0.5545 -5.0082 2.3917
-0.3737 -4.9966 2.3917
-0.1941 -4.9786 2.3917
-0.0162 -4.9542 2.3917
0.1600 -4.9237 2.3917
0.3341 -4.8871 2.3917
0.5061 -4.8446 2.3917
0.6756 -4.7963 2.3917
0.8426 -4.7423 2.3917
1.0068 -4.6828 2.3917
1.1682 -4.6179 2.3917
1.3264 -4.5479 2.3917
1.4815 -4.4727 2.3917
1.6331 -4.3926 2.3917
1.7813 -4.3078 2.3917
1.9259 -4.2184 2.3917
2.0667 -4.1245 2.3917
2.2037 -4.0263 2.3917
2.3367 -3.9240 2.3917
2.4657 -3.8178 2.3917
2.5905 -3.7077 2.3917
2.7111 -3.5940 2.3917
2.8274 -3.4768 2.3917
2.9393 -3.3563 2.3917
3.0467 -3.2326 2.3917
3.1496 -3.1058 2.3917
3.2480 -2.9763 2.3917
3.3417 -2.8440 2.3917
3.4307 -2.7091 2.3917
3.5150 -2.5719 2.3917
3.5946 -2.4325 2.3917
3.6693 -2.2908 2.3917
3.7393 -2.1481 2.3917
3.8042 -2.0019 2.3917
3.8644 -1.8549 2.3917
3.9196 -1.7064 2.3917
3.9699 -1.5566 2.3917
4.0152 -1.4054 2.3917
4.0556 -1.2532 2.3917
4.0910 -1.1001 2.3917
4.1214 -0.9462 2.3917
4.1469 -0.7916 2.3917
4.1673 -0.6364 2.3917
4.1827 -0.4809 2.3917
4.1932 -0.3251 2.3917
4.1986 -0.1692 2.3917
4.1991 -0.0133 2.3917
4.1946 0.1424 2.3917
4.1851 0.2979 2.3917
4.1706 0.4529 2.3917
4.1513 0.6075 2.3917
4.1269 0.7613 2.3917
4.0977 0.9143 2.3917
4.0636 1.0664 2.3917
4.0246 1.2175 2.3917
3.9808 1.3673 2.3917
3.9322 1.5157 2.3917
3.8787 1.6628 2.3917
3.8205 1.8082 2.3917
3.7576 1.9519 2.3917
3.6900 2.0937 2.3917
3.6178 2.2335 2.3917
3.5409 2.3712 2.3917
3.4595 2.5066 2.3917
3.3735 2.6396 2.3917
3.2831 2.7701 2.3917
3.1883 2.8979 2.3917
3.0891 3.0232 2.3917
2.9857 3.1449 2.3917
2.8780 3.2641 2.3917
2.7662 3.3796 2.3917
2.6502 3.4919 2.3917
2.5303 3.6007 2.3917
2.4064 3.7060 2.3917
2.2787 3.8074 2.3917
2.1472 3.9050 2.3917
0.8503 1.6897 1.0107
0.7890 1.7215 1.0072
0.7265 1.7510 1.0037
0.6631 1.7783 1.0000
0.5987 1.8033 0.9963
0.5334 1.8260 0.9925
0.4674 1.8462 0.9886
0.4006 1.8641 0.9847
3.2940 2.3626 2.3917
3.2126 2.4892 2.3917
3.1270 2.6133 2.3917
3.0371 2.7349 2.3917
2.9431 2.8538 2.3917
2.8451 2.9698 2.3917
2.7430 3.0828 2.3917
2.6369 3.1928 2.3917
2.5270 3.2996 2.3917
2.4133 3.4030 2.3917
2.2958 3.5029 2.3917
2.1748 3.5992 2.3917
2.0501 3.6918 2.3917
0.8095 1.5921 1.0073
0.7517 1.6225 1.0040
0.6928 1.6508 1.0007
0.6330 1.6769 0.9972
0.5722 1.7009 0.9937
0.5106 1.7226 0.9902
0.4483 1.7421 0.9865
0.3853 1.7594 0.9828
0.3217 1.7743 0.9790
0.2577 1.7870 0.9752
0.1932 1.7973 0.9714
0.1283 1.8053 0.9675
0.0633 1.8110 0.9635
-0.0020 1.8143 0.9596
-0.0673 1.8152 0.9556
-0.1326 1.8138 0.9515
-0.1978 1.8100 0.9475
-0.2628 1.8039 0.9435
-0.3276 1.7954 0.9394
-0.3920 1.7846 0.9354
-0.4560 1.7715 0.9313
-0.5194 1.7560 0.9273
-0.5823 1.7383 0.9232
-0.6445 1.7183 0.9192
-0.7059 1.6961 0.9153
-0.7665 1.6717 0.9113
-0.8262 1.6451 0.9074
-0.8848 1.6164 0.9036
-0.9424 1.5856 0.8997
-2.6664 4.1447 2.3917
-2.8254 4.0683 2.3917
-2.9821 3.9858 2.3917
