ply
format ascii 1.0
element vertex 2178
property float32 x
property float32 y
property float32 z
end_header
7.0739 -1.3077 2.3828
7.1233 -1.0580 2.3828
7.1625 -0.8063 2.3828
7.1914 -0.5530 2.3828
7.2098 -0.2983 2.3828
7.2179 -0.0436 2.3828
7.2154 0.2114 2.3828
7.2025 0.4662 2.3828
7.1792 0.7202 2.3828
7.1455 0.9729 2.3828
7.1014 1.2240 2.3828
7.0472 1.4729 2.3828
6.9829 1.7191 2.3828
6.9086 1.9626 2.3828
6.8246 2.2020 2.3828
6.7310 2.4377 2.3828
6.6281 2.6693 2.3828
6.5160 2.8960 2.3828
6.3951 3.1177 2.3828
6.2655 3.3339 2.3828
6.1276 3.5444 2.3828
5.9817 3.7487 2.3828
5.8281 3.9466 2.3828
5.6671 4.1377 2.3828
5.4991 4.3218 2.3828
5.3244 4.4987 2.3828
5.1433 4.6681 2.3828
4.9563 4.8298 2.3828
4.7636 4.9836 2.3828
4.5658 5.1293 2.3828
4.3631 5.2668 2.3828
4.1559 5.3959 2.3828
3.9447 5.5165 2.3828
3.7297 5.6286 2.3828
3.5115 5.7320 2.3828
3.2903 5.8266 2.3828
3.0665 5.9126 2.3828
2.8406 5.9897 2.3828
2.6128 6.0581 2.3828
0.9020 2.3151 0.9017
0.8185 2.3447 0.9057
0.7339 2.3713 0.9098
0.6485 2.3948 0.9139
0.5622 2.4152 0.9180
0.4753 2.4325 0.9222
0.3877 2.4466 0.9263
0.2997 2.4575 0.9305
0.2114 2.4653 0.9347
0.1228 2.4698 0.9390
0.0342 2.4711 0.9432
-0.0545 2.4693 0.9474
-0.1430 2.4642 0.9516
-0.2313 2.4559 0.9558
-0.3193 2.4444 0.9600
-0.4068 2.4298 0.9641
-0.4936 2.4120 0.9682
-0.5798 2.3911 0.9723
-0.6652 2.3670 0.9764
-0.7497 2.3399 0.9804
-0.8331 2.3098 0.9843
-2.2072 5.4896 2.3828
-2.3933 5.3816 2.3828
-2.5749 5.2681 2.3828
-2.7518 5.1489 2.3828
-2.9240 5.0244 2.3828
-3.0914 4.8942 2.3828
-3.2534 4.7598 2.3828
-3.4104 4.6202 2.3828
-3.5622 4.4760 2.3828
-3.7085 4.3274 2.3828
-3.8494 4.1746 2.3828
-3.9847 4.0177 2.3828
-4.1144 3.8569 2.3828
-4.2383 3.6925 2.3828
-4.3565 3.5247 2.3828
-4.4687 3.3535 2.3828
-4.5751 3.1793 2.3828
-4.6754 3.0021 2.3828
-4.7697 2.8223 2.3828
-4.8580 2.6398 2.3828
-4.9401 2.4551 2.3828
-5.0160 2.2681 2.3828
-5.0857 2.0792 2.3828
-5.1492 1.8883 2.3828
-5.2063 1.6960 2.3828
-5.2573 1.5021 2.3828
-5.3018 1.3070 2.3828
-5.3401 1.1108 2.3828
-5.3720 0.9135 2.3828
-5.3975 0.7156 2.3828
-5.4167 0.5171 2.3828
-5.4294 0.3181 2.3828
-5.4358 0.1190 2.3828
-5.4358 -0.0803 2.3828
-5.4295 -0.2794 2.3828
-5.4167 -0.4782 2.3828
-5.3976 -0.6766 2.3828
-5.3721 -0.8744 2.3828
-5.3403 -1.0713 2.3828
-5.3022 -1.2673 2.3828
-5.2577 -1.4621 2.3828
-5.2070 -1.6556 2.3828
-5.1499 -1.8476 2.3828
-5.0867 -2.0379 2.3828
-5.0172 -2.2264 2.3828
-4.9416 -2.4129 2.3828
-4.8599 -2.5971 2.3828
-4.7721 -2.7790 2.3828
-4.6782 -2.9584 2.3828
-4.5783 -3.1349 2.3828
-4.4726 -3.3086 2.3828
-4.3609 -3.4792 2.3828
-4.2435 -3.6464 2.3828
-4.1203 -3.8102 2.3828
-3.9914 -3.9704 2.3828
-3.8570 -4.1267 2.3828
-3.7170 -4.2790 2.3828
-3.5716 -4.4271 2.3828
-3.4210 -4.5708 2.3828
-3.2651 -4.7099 2.3828
-3.1041 -4.8442 2.3828
-2.9381 -4.9736 2.3828
-2.7672 -5.0979 2.3828
-2.5916 -5.2168 2.3828
-2.4114 -5.3302 2.3828
-2.2268 -5.4379 2.3828
-2.0378 -5.5397 2.3828
-1.8448 -5.6354 2.3828
-1.6477 -5.7249 2.3828
-1.4468 -5.8080 2.3828
-1.2424 -5.8844 2.3828
-1.0345 -5.9542 2.3828
-0.8234 -6.0169 2.3828
-0.6093 -6.0726 2.3828
-0.3924 -6.1209 2.3828
-0.1730 -6.1619 2.3828
0.0486 -6.1953 2.3828
0.2724 -6.2210 2.3828
0.4979 -6.2388 2.3828
0.7249 -6.2487 2.3828
0.9532 -6.2504 2.3828
1.1823 -6.2439 2.3828
1.4121 -6.2292 2.3828
1.6423 -6.2060 2.3828
1.8725 -6.1744 2.3828
2.1023 -6.1342 2.3828
2.3315 -6.0854 2.3828
2.5597 -6.0279 2.3828
2.7866 -5.9618 2.3828
3.0118 -5.8870 2.3828
3.2349 -5.8034 2.3828
3.4556 -5.7112 2.3828
3.6736 -5.6104 2.3828
3.8883 -5.5010 2.3828
4.0996 -5.3830 2.3828
4.3069 -5.2566 2.3828
4.5099 -5.1219 2.3828
4.7083 -4.9789 2.3828
4.9016 -4.8279 2.3828
5.0895 -4.6690 2.3828
5.2716 -4.5024 2.3828
5.4476 -4.3282 2.3828
5.6170 -4.1468 2.3828
-0.2364 -5.7589 2.3828
-0.0295 -5.7914 2.3828
0.1793 -5.8167 2.3828
0.3898 -5.8347 2.3828
0.6017 -5.8452 2.3828
0.8147 -5.8482 2.3828
1.0285 -5.8435 2.3828
1.2430 -5.8311 2.3828
1.4577 -5.8108 2.3828
1.6724 -5.7827 2.3828
1.8869 -5.7466 2.3828
2.1007 -5.7026 2.3828
2.3136 -5.6505 2.3828
2.5253 -5.5903 2.3828
2.7354 -5.5221 2.3828
2.9437 -5.4458 2.3828
3.1496 -5.3615 2.3828
3.3531 -5.2691 2.3828
3.5536 -5.1688 2.3828
3.7509 -5.0606 2.3828
3.9445 -4.9446 2.3828
4.1343 -4.8208 2.3828
4.3197 -4.6896 2.3828
4.5005 -4.5508 2.3828
4.6764 -4.4046 2.3828
4.8469 -4.2514 2.3828
5.0118 -4.0911 2.3828
5.1708 -3.9241 2.3828
5.3235 -3.7505 2.3828
5.4696 -3.5706 2.3828
5.6088 -3.3847 2.3828
5.7408 -3.1930 2.3828
5.8653 -2.9958 2.3828
5.9822 -2.7933 2.3828
6.0910 -2.5860 2.3828
6.1916 -2.3742 2.3828
6.2838 -2.1581 2.3828
6.3674 -1.9382 2.3828
6.4421 -1.7148 2.3828
6.5078 -1.4884 2.3828
6.5643 -1.2592 2.3828
6.6116 -1.0276 2.3828
6.6495 -0.7943 2.3828
6.6779 -0.5595 2.3828
6.6967 -0.3236 2.3828
6.7059 -0.0870 2.3828
6.7055 0.1497 2.3828
6.6955 0.3863 2.3828
6.6759 0.6222 2.3828
6.6467 0.8570 2.3828
6.6080 1.0904 2.3828
6.5599 1.3219 2.3828
6.5024 1.5511 2.3828
6.4359 1.7776 2.3828
6.3602 2.0009 2.3828
6.2758 2.2208 2.3828
6.1826 2.4369 2.3828
6.0809 2.6487 2.3828
5.9711 2.8560 2.3828
5.8531 3.0583 2.3828
5.7275 3.2554 2.3828
5.5943 3.4470 2.3828
5.4539 3.6328 2.3828
5.3066 3.8124 2.3828
5.1527 3.9857 2.3828
4.9924 4.1524 2.3828
4.8262 4.3123 2.3828
4.6543 4.4652 2.3828
4.4771 4.6108 2.3828
4.2949 4.7491 2.3828
4.1080 4.8798 2.3828
3.9169 5.0028 2.3828
3.7218 5.1181 2.3828
3.5231 5.2254 2.3828
3.3212 5.3248 2.3828
3.1163 5.4161 2.3828
2.9089 5.4994 2.3828
2.6993 5.5745 2.3828
0.9394 2.1303 0.8997
0.8625 2.1613 0.9034
0.7845 2.1896 0.9072
0.7055 2.2150 0.9110
0.6257 2.2376 0.9148
0.5451 2.2572 0.9186
0.4638 2.2739 0.9225
0.3819 2.2877 0.9264
0.2997 2.2985 0.9304
0.2170 2.3064 0.9343
0.1342 2.3112 0.9383
0.0512 2.3130 0.9422
-0.0318 2.3119 0.9462
-0.1147 2.3077 0.9501
-0.1974 2.3005 0.9540
-0.2798 2.2904 0.9579
-0.3618 2.2773 0.9618
-0.4432 2.2612 0.9657
-0.5240 2.2422 0.9695
-0.6041 2.2202 0.9733
-0.6833 2.1954 0.9770
-0.7616 2.1678 0.9807
-0.8388 2.1373 0.9844
-2.2065 5.0745 2.3828
-2.3785 4.9701 2.3828
-2.5462 4.8602 2.3828
-2.7095 4.7452 2.3828
-2.8682 4.6252 2.3828
-3.0222 4.5004 2.3828
-3.1715 4.3710 2.3828
-3.3159 4.2370 2.3828
-3.4552 4.0988 2.3828
-3.5894 3.9565 2.3828
-3.7184 3.8103 2.3828
-3.8422 3.6604 2.3828
-3.9606 3.5069 2.3828
-4.0735 3.3500 2.3828
-4.1809 3.1900 2.3828
-4.2828 3.0269 2.3828
-4.3790 2.8609 2.3828
-4.4696 2.6923 2.3828
-4.5544 2.5213 2.3828
-4.6334 2.3479 2.3828
-4.7066 2.1723 2.3828
-4.7739 1.9948 2.3828
-4.8353 1.8155 2.3828
-4.8907 1.6346 2.3828
-4.9403 1.4522 2.3828
-4.9838 1.2686 2.3828
-5.0213 1.0838 2.3828
-5.0528 0.8982 2.3828
-5.0783 0.7117 2.3828
-5.0977 0.5246 2.3828
-5.1111 0.3371 2.3828
-5.1184 0.1494 2.3828
-5.1196 -0.0385 2.3828
-5.1148 -0.2263 2.3828
-5.1039 -0.4138 2.3828
-5.0870 -0.6009 2.3828
-5.0640 -0.7875 2.3828
-5.0350 -0.9734 2.3828
-5.0000 -1.1581 2.3828
-4.9590 -1.3421 2.3828
-4.9120 -1.5246 2.3828
-4.8591 -1.7059 2.3828
-4.8003 -1.8855 2.3828
-4.7356 -2.0634 2.3828
-4.6651 -2.2393 2.3828
-4.5887 -2.4131 2.3828
-4.5066 -2.5847 2.3828
-4.4188 -2.7538 2.3828
-4.3253 -2.9203 2.3828
-4.2262 -3.0841 2.3828
-4.1215 -3.2449 2.3828
-4.0114 -3.4026 2.3828
-3.8959 -3.5569 2.3828
-3.7750 -3.7078 2.3828
-3.6489 -3.8551 2.3828
-3.5175 -3.9985 2.3828
-3.3811 -4.1379 2.3828
-3.2397 -4.2731 2.3828
-3.0934 -4.4040 2.3828
-2.9423 -4.5304 2.3828
-2.7866 -4.6520 2.3828
-2.6263 -4.7688 2.3828
-2.4615 -4.8805 2.3828
-2.2925 -4.9870 2.3828
-2.1193 -5.0881 2.3828
-1.9422 -5.1836 2.3828
-1.7611 -5.2734 2.3828
-1.5764 -5.3573 2.3828
-1.3882 -5.4351 2.3828
-1.1967 -5.5067 2.3828
-1.0020 -5.5719 2.3828
-0.8043 -5.6305 2.3828
-0.6039 -5.6825 2.3828
-0.4010 -5.7277 2.3828
-0.1958 -5.7659 2.3828
0.0116 -5.7970 2.3828
0.2207 -5.8208 2.3828
0.4315 -5.8373 2.3828
0.6436 -5.8464 2.3828
0.8568 -5.8478 2.3828
1.0708 -5.8417 2.3828
1.2853 -5.8277 2.3828
1.5000 -5.8059 2.3828
1.7147 -5.7762 2.3828
1.9291 -5.7386 2.3828
2.1428 -5.6929 2.3828
2.3555 -5.6392 2.3828
2.5669 -5.5775 2.3828
2.7767 -5.5077 2.3828
2.9845 -5.4298 2.3828
3.1900 -5.3439 2.3828
3.3929 -5.2500 2.3828
3.5928 -5.1481 2.3828
3.7893 -5.0384 2.3828
3.9823 -4.9208 2.3828
4.1712 -4.7956 2.3828
4.3558 -4.6628 2.3828
4.5356 -4.5225 2.3828
4.7104 -4.3750 2.3828
4.8799 -4.2203 2.3828
5.0437 -4.0587 2.3828
5.2014 -3.8904 2.3828
5.3528 -3.7155 2.3828
5.4976 -3.5344 2.3828
5.6354 -3.3473 2.3828
5.7659 -3.1545 2.3828
5.8890 -2.9562 2.3828
6.0043 -2.7528 2.3828
6.1115 -2.5446 2.3828
6.2105 -2.3319 2.3828
6.3010 -2.1150 2.3828
6.3828 -1.8944 2.3828
6.4558 -1.6704 2.3828
6.5197 -1.4433 2.3828
6.5744 -1.2137 2.3828
6.6198 -0.9818 2.3828
6.6558 -0.7481 2.3828
6.6823 -0.5130 2.3828
6.6993 -0.2770 2.3828
6.7066 -0.0404 2.3828
6.7043 0.1964 2.3828
6.6924 0.4329 2.3828
6.6709 0.6686 2.3828
6.6398 0.9032 2.3828
6.5992 1.1362 2.3828
6.5493 1.3674 2.3828
6.4900 1.5960 2.3828
6.4216 1.8219 2.3828
6.3443 2.0446 2.3828
6.2580 2.2638 2.3828
6.1632 2.4790 2.3828
6.0599 2.6900 2.3828
5.9484 2.8963 2.3828
5.8290 3.0976 2.3828
5.7018 3.2937 2.3828
5.5672 3.4841 2.3828
5.4254 3.6687 2.3828
5.2768 3.8471 2.3828
5.1216 4.0191 2.3828
4.9601 4.1845 2.3828
4.7927 4.3430 2.3828
4.6198 4.4945 2.3828
4.4416 4.6387 2.3828
4.2584 4.7754 2.3828
4.0707 4.9046 2.3828
3.8787 5.0262 2.3828
3.6829 5.1399 2.3828
3.4835 5.2456 2.3828
3.2810 5.3434 2.3828
3.0756 5.4332 2.3828
2.8677 5.5149 2.3828
2.6577 5.5884 2.3828
0.9243 2.1366 0.9005
0.8472 2.1671 0.9042
0.7690 2.1948 0.9079
0.6898 2.2197 0.9117
0.6098 2.2417 0.9155
0.5291 2.2607 0.9194
0.4477 2.2769 0.9233
0.3657 2.2901 0.9272
0.2834 2.3003 0.9311
0.2007 2.3075 0.9351
0.1178 2.3118 0.9390
0.0348 2.3130 0.9430
-0.0482 2.3113 0.9469
-0.1310 2.3065 0.9509
-0.2137 2.2988 0.9548
-0.2960 2.2880 0.9587
-0.3779 2.2743 0.9626
-0.4592 2.2577 0.9664
-0.5399 2.2381 0.9703
-0.6198 2.2156 0.9740
-0.6988 2.1902 0.9778
-0.7769 2.1620 0.9815
-0.8539 2.1310 0.9851
-2.2408 5.0544 2.3828
-2.4119 4.9488 2.3828
-2.5788 4.8379 2.3828
-2.7411 4.7219 2.3828
-2.8989 4.6010 2.3828
-3.0521 4.4752 2.3828
-3.2003 4.3449 2.3828
-3.3442 4.2086 2.3828
-3.4821 4.0711 2.3828
-3.6153 3.9280 2.3828
-3.7433 3.7811 2.3828
-3.8660 3.6304 2.3828
-3.9833 3.4762 2.3828
-4.0951 3.3187 2.3828
-4.2015 3.1580 2.3828
-4.3022 2.9944 2.3828
-4.3973 2.8279 2.3828
-4.4867 2.6588 2.3828
-4.5704 2.4872 2.3828
-4.6483 2.3134 2.3828
-4.7203 2.1375 2.3828
-4.7864 1.9596 2.3828
-4.8467 1.7800 2.3828
-4.9010 1.5987 2.3828
-4.9493 1.4161 2.3828
-4.9917 1.2322 2.3828
-5.0280 1.0473 2.3828
-5.0583 0.8614 2.3828
-5.0826 0.6748 2.3828
-5.1008 0.4877 2.3828
-5.1130 0.3001 2.3828
-5.1191 0.1123 2.3828
-5.1191 -0.0755 2.3828
-5.1131 -0.2633 2.3828
-5.1010 -0.4508 2.3828
-5.0829 -0.6378 2.3828
-5.0588 -0.8242 2.3828
-5.0286 -1.0099 2.3828
-4.9923 -1.1945 2.3828
-4.9502 -1.3782 2.3828
-4.9021 -1.5606 2.3828
-4.8480 -1.7414 2.3828
-4.7880 -1.9207 2.3828
-4.7222 -2.0982 2.3828
-4.6505 -2.2737 2.3828
-4.5730 -2.4471 2.3828
-4.4897 -2.6182 2.3828
-4.4008 -2.7869 2.3828
-4.3062 -2.9529 2.3828
-4.2060 -3.1161 2.3828
-4.1003 -3.2763 2.3828
-3.9891 -3.4333 2.3828
-3.8725 -3.5870 2.3828
-3.7505 -3.7372 2.3828
-3.6234 -3.8837 2.3828
-3.4910 -4.0263 2.3828
-3.3536 -4.1649 2.3828
-3.2112 -4.2993 2.3828
-3.0640 -4.4293 2.3828
-2.9120 -4.5548 2.3828
-2.7553 -4.6754 2.3828
-2.5941 -4.7912 2.3828
-2.4285 -4.9019 2.3828
-2.2587 -5.0074 2.3828
-2.0847 -5.1074 2.3828
-1.9068 -5.2017 2.3828
-1.7250 -5.2904 2.3828
-1.5396 -5.3731 2.3828
-1.3507 -5.4497 2.3828
-1.1585 -5.5200 2.3828
-0.9632 -5.5840 2.3828
-0.7650 -5.6413 2.3828
-0.5641 -5.6920 2.3828
-0.3607 -5.7358 2.3828
-0.1550 -5.7726 2.3828
0.0527 -5.8023 2.3828
0.2622 -5.8247 2.3828
0.4732 -5.8397 2.3828
0.6856 -5.8473 2.3828
0.8989 -5.8472 2.3828
1.1131 -5.8395 2.3828
1.3276 -5.8240 2.3828
1.5424 -5.8007 2.3828
1.7571 -5.7694 2.3828
1.9713 -5.7302 2.3828
2.1848 -5.6830 2.3828
2.3973 -5.6277 2.3828
2.6084 -5.5643 2.3828
2.8178 -5.4929 2.3828
3.0252 -5.4135 2.3828
3.2302 -5.3260 2.3828
3.4326 -5.2305 2.3828
3.6318 -5.1271 2.3828
3.8277 -5.0158 2.3828
4.0199 -4.8967 2.3828
4.2079 -4.7700 2.3828
4.3916 -4.6357 2.3828
4.5705 -4.4940 2.3828
4.7443 -4.3450 2.3828
4.9127 -4.1890 2.3828
5.0753 -4.0260 2.3828
5.2318 -3.8564 2.3828
-0.2154 -5.4112 2.3828
-0.0209 -5.4404 2.3828
0.1753 -5.4628 2.3828
0.3729 -5.4783 2.3828
0.5717 -5.4868 2.3828
0.7715 -5.4881 2.3828
0.9719 -5.4823 2.3828
1.1728 -5.4693 2.3828
1.3739 -5.4489 2.3828
1.5749 -5.4211 2.3828
1.7755 -5.3859 2.3828
1.9755 -5.3432 2.3828
2.1745 -5.2930 2.3828
2.3722 -5.2353 2.3828
2.5683 -5.1701 2.3828
2.7626 -5.0974 2.3828
2.9547 -5.0172 2.3828
3.1444 -4.9296 2.3828
3.3312 -4.8346 2.3828
3.5149 -4.7323 2.3828
3.6952 -4.6227 2.3828
3.8717 -4.5060 2.3828
4.0441 -4.3822 2.3828
4.2122 -4.2515 2.3828
4.3756 -4.1142 2.3828
4.5340 -3.9702 2.3828
4.6871 -3.8197 2.3828
4.8345 -3.6631 2.3828
4.9762 -3.5004 2.3828
5.1116 -3.3319 2.3828
5.2406 -3.1578 2.3828
5.3629 -2.9784 2.3828
5.4783 -2.7940 2.3828
5.5865 -2.6048 2.3828
5.6872 -2.4112 2.3828
5.7804 -2.2134 2.3828
5.8657 -2.0117 2.3828
5.9429 -1.8065 2.3828
6.0120 -1.5981 2.3828
6.0727 -1.3869 2.3828
6.1250 -1.1733 2.3828
6.1686 -0.9575 2.3828
6.2036 -0.7399 2.3828
6.2298 -0.5211 2.3828
6.2472 -0.3013 2.3828
6.2557 -0.0809 2.3828
6.2553 0.1397 2.3828
6.2460 0.3601 2.3828
6.2278 0.5799 2.3828
6.2007 0.7987 2.3828
6.1649 1.0162 2.3828
6.1204 1.2320 2.3828
6.0673 1.4456 2.3828
6.0056 1.6568 2.3828
5.9356 1.8652 2.3828
5.8574 2.0703 2.3828
5.7712 2.2719 2.3828
5.6771 2.4697 2.3828
5.5753 2.6632 2.3828
5.4661 2.8523 2.3828
5.3496 3.0366 2.3828
5.2262 3.2158 2.3828
5.0961 3.3896 2.3828
4.9595 3.5578 2.3828
4.8167 3.7202 2.3828
4.6679 3.8765 2.3828
4.5136 4.0265 2.3828
4.3540 4.1701 2.3828
4.1893 4.3070 2.3828
4.0200 4.4371 2.3828
3.8462 4.5602 2.3828
3.6684 4.6762 2.3828
3.4868 4.7850 2.3828
3.3018 4.8866 2.3828
3.1137 4.9807 2.3828
2.9228 5.0674 2.3828
2.7294 5.1465 2.3828
0.9558 1.9683 0.8988
0.8847 2.0000 0.9022
0.8124 2.0292 0.9057
0.7392 2.0557 0.9092
0.6651 2.0796 0.9128
0.5901 2.1007 0.9163
0.5144 2.1192 0.9200
0.4381 2.1349 0.9236
0.3613 2.1478 0.9273
0.2840 2.1579 0.9310
0.2065 2.1653 0.9347
0.1287 2.1698 0.9384
0.0508 2.1715 0.9421
-0.0271 2.1704 0.9458
-0.1050 2.1665 0.9495
-0.1826 2.1598 0.9532
-0.2600 2.1503 0.9568
-0.3369 2.1379 0.9605
-0.4134 2.1228 0.9641
-0.4892 2.1050 0.9677
-0.5644 2.0844 0.9713
-0.6388 2.0611 0.9748
-0.7123 2.0351 0.9783
-0.7848 2.0065 0.9817
-0.8562 1.9753 0.9850
-2.2335 4.6809 2.3828
-2.3919 4.5784 2.3828
-2.5463 4.4709 2.3828
-2.6964 4.3587 2.3828
-2.8421 4.2420 2.3828
-2.9833 4.1206 2.3828
-3.1200 3.9951 2.3828
-3.2519 3.8655 2.3828
-3.3791 3.7319 2.3828
-3.5014 3.5946 2.3828
-3.6187 3.4537 2.3828
-3.7309 3.3093 2.3828
-3.8381 3.1618 2.3828
-3.9400 3.0111 2.3828
-4.0367 2.8575 2.3828
-4.1280 2.7012 2.3828
-4.2140 2.5423 2.3828
-4.2946 2.3811 2.3828
-4.3696 2.2175 2.3828
-4.4392 2.0519 2.3828
-4.5031 1.8845 2.3828
-4.5615 1.7152 2.3828
-4.6143 1.5444 2.3828
-4.6613 1.3722 2.3828
-4.7028 1.1988 2.3828
-4.7385 1.0243 2.3828
-4.7684 0.8489 2.3828
-4.7927 0.6727 2.3828
-4.8112 0.4959 2.3828
-4.8239 0.3188 2.3828
-4.8309 0.1413 2.3828
-4.8321 -0.0362 2.3828
-4.8275 -0.2137 2.3828
-4.8172 -0.3909 2.3828
-4.8011 -0.5678 2.3828
-4.7793 -0.7440 2.3828
-4.7517 -0.9196 2.3828
-4.7185 -1.0943 2.3828
-4.6795 -1.2680 2.3828
-4.6349 -1.4405 2.3828
-4.5847 -1.6116 2.3828
-4.5288 -1.7812 2.3828
-4.4673 -1.9490 2.3828
-4.4003 -2.1150 2.3828
-4.3278 -2.2790 2.3828
-4.2499 -2.4409 2.3828
-4.1665 -2.6003 2.3828
-4.0778 -2.7573 2.3828
-3.9837 -2.9116 2.3828
-3.8844 -3.0630 2.3828
-3.7800 -3.2114 2.3828
-3.6704 -3.3567 2.3828
-3.5558 -3.4986 2.3828
-3.4362 -3.6370 2.3828
-3.3118 -3.7717 2.3828
-3.1826 -3.9026 2.3828
-3.0487 -4.0295 2.3828
-2.9102 -4.1522 2.3828
-2.7672 -4.2706 2.3828
-2.6199 -4.3844 2.3828
-2.4683 -4.4936 2.3828
-2.3126 -4.5980 2.3828
-2.1529 -4.6974 2.3828
-1.9894 -4.7916 2.3828
-1.8221 -4.8805 2.3828
-1.6513 -4.9640 2.3828
-1.4771 -5.0419 2.3828
-1.2996 -5.1139 2.3828
-1.1191 -5.1801 2.3828
-0.9357 -5.2402 2.3828
-0.7496 -5.2942 2.3828
-0.5610 -5.3418 2.3828
-0.3701 -5.3829 2.3828
-0.1772 -5.4175 2.3828
0.0177 -5.4454 2.3828
0.2141 -5.4664 2.3828
0.4120 -5.4805 2.3828
0.6110 -5.4876 2.3828
0.8109 -5.4876 2.3828
1.0115 -5.4803 2.3828
1.2125 -5.4658 2.3828
1.4136 -5.4440 2.3828
1.6145 -5.4148 2.3828
1.8150 -5.3781 2.3828
2.0148 -5.3339 2.3828
2.2136 -5.2822 2.3828
2.4110 -5.2231 2.3828
2.6068 -5.1564 2.3828
2.8007 -5.0822 2.3828
2.9924 -5.0005 2.3828
3.1815 -4.9114 2.3828
3.3677 -4.8150 2.3828
3.5507 -4.7112 2.3828
3.7303 -4.6002 2.3828
3.9060 -4.4821 2.3828
4.0776 -4.3570 2.3828
4.2448 -4.2250 2.3828
4.4072 -4.0863 2.3828
4.5646 -3.9410 2.3828
4.7166 -3.7893 2.3828
4.8630 -3.6314 2.3828
5.0034 -3.4676 2.3828
5.1376 -3.2980 2.3828
5.2653 -3.1229 2.3828
5.3863 -2.9425 2.3828
5.5002 -2.7571 2.3828
5.6070 -2.5670 2.3828
5.7062 -2.3725 2.3828
5.7978 -2.1739 2.3828
5.8815 -1.9715 2.3828
5.9572 -1.7656 2.3828
6.0246 -1.5567 2.3828
6.0837 -1.3450 2.3828
6.1343 -1.1308 2.3828
6.1763 -0.9147 2.3828
6.2095 -0.6969 2.3828
6.2339 -0.4778 2.3828
6.2496 -0.2579 2.3828
6.2563 -0.0374 2.3828
6.2541 0.1832 2.3828
6.2431 0.4035 2.3828
6.2231 0.6231 2.3828
6.1944 0.8417 2.3828
6.1568 1.0589 2.3828
6.1106 1.2743 2.3828
6.0558 1.4875 2.3828
5.9925 1.6981 2.3828
5.9209 1.9059 2.3828
5.8411 2.1104 2.3828
5.7532 2.3113 2.3828
5.6576 2.5082 2.3828
5.5543 2.7009 2.3828
5.4437 2.8890 2.3828
5.3258 3.0723 2.3828
5.2011 3.2505 2.3828
5.0696 3.4232 2.3828
4.9318 3.5903 2.3828
4.7878 3.7515 2.3828
4.6379 3.9066 2.3828
4.4825 4.0554 2.3828
4.3219 4.1976 2.3828
4.1563 4.3332 2.3828
3.9860 4.4619 2.3828
3.8115 4.5837 2.3828
3.6329 4.6983 2.3828
3.4506 4.8056 2.3828
3.2649 4.9057 2.3828
3.0762 4.9984 2.3828
2.8848 5.0836 2.3828
2.6909 5.1612 2.3828
0.9418 1.9748 0.8995
0.8705 2.0060 0.9029
0.7981 2.0346 0.9064
0.7247 2.0606 0.9099
0.6503 2.0839 0.9135
0.5752 2.1046 0.9171
0.4994 2.1225 0.9207
0.4230 2.1376 0.9243
0.3461 2.1500 0.9280
0.2688 2.1596 0.9317
0.1911 2.1664 0.9354
0.1133 2.1704 0.9391
0.0354 2.1715 0.9428
-0.0425 2.1699 0.9465
-0.1203 2.1654 0.9502
-0.1979 2.1581 0.9539
-0.2752 2.1480 0.9576
-0.3520 2.1352 0.9612
-0.4284 2.1195 0.9648
-0.5041 2.1011 0.9684
-0.5791 2.0800 0.9720
-0.6534 2.0562 0.9755
-0.7267 2.0297 0.9789
-0.7990 2.0006 0.9823
-2.1034 4.7595 2.3828
-2.2651 4.6611 2.3828
-2.4227 4.5576 2.3828
-2.5762 4.4492 2.3828
-2.7255 4.3360 2.3828
-2.8703 4.2183 2.3828
-3.0106 4.0962 2.3828
-3.1464 3.9699 2.3828
-3.2774 3.8394 2.3828
-3.4036 3.7052 2.3828
-3.5249 3.5671 2.3828
-3.6412 3.4255 2.3828
-3.7525 3.2805 2.3828
-3.8586 3.1323 2.3828
-3.9595 2.9810 2.3828
-4.0551 2.8269 2.3828
-4.1454 2.6701 2.3828
-4.2303 2.5107 2.3828
-4.3098 2.3490 2.3828
-4.3838 2.1850 2.3828
-4.4522 2.0191 2.3828
-4.5151 1.8512 2.3828
-4.5724 1.6816 2.3828
-4.6240 1.5106 2.3828
-4.6700 1.3381 2.3828
-4.7103 1.1644 2.3828
-4.7448 0.9897 2.3828
-4.7737 0.8142 2.3828
-4.7968 0.6379 2.3828
-4.8141 0.4610 2.3828
-4.8257 0.2838 2.3828
-4.8316 0.1063 2.3828
-4.8316 -0.0712 2.3828
-4.8258 -0.2483 2.3828
-4.8145 -0.4258 2.3828
-4.7973 -0.6026 2.3828
-4.7744 -0.7791 2.3828
-4.7457 -0.9542 2.3828
-4.7113 -1.1286 2.3828
-4.6712 -1.3022 2.3828
-4.6255 -1.4743 2.3828
-4.5741 -1.6451 2.3828
-4.5171 -1.8144 2.3828
-4.4546 -1.9819 2.3828
-4.3865 -2.1475 2.3828
-4.3129 -2.3111 2.3828
-4.2338 -2.4725 2.3828
-4.1494 -2.6315 2.3828
-4.0596 -2.7879 2.3828
-3.9646 -2.9417 2.3828
-3.8642 -3.0925 2.3828
-3.7588 -3.2404 2.3828
-3.6482 -3.3850 2.3828
-3.5326 -3.5262 2.3828
-3.4121 -3.6639 2.3828
-3.2867 -3.7979 2.3828
-3.1566 -3.9280 2.3828
-3.0217 -4.0540 2.3828
-2.8824 -4.1759 2.3828
-2.7385 -4.2934 2.3828
-2.5903 -4.4063 2.3828
-2.4379 -4.5146 2.3828
-2.2814 -4.6180 2.3828
-2.1210 -4.7164 2.3828
-1.9567 -4.8096 2.3828
-1.7887 -4.8974 2.3828
-1.6172 -4.9798 2.3828
-1.4423 -5.0565 2.3828
-1.2642 -5.1275 2.3828
-1.0831 -5.1925 2.3828
-0.8992 -5.2514 2.3828
-0.7126 -5.3041 2.3828
-0.5235 -5.3504 2.3828
-0.3322 -5.3903 2.3828
-0.1389 -5.4235 2.3828
0.0563 -5.4500 2.3828
0.2531 -5.4697 2.3828
0.4512 -5.4825 2.3828
0.6504 -5.4882 2.3828
0.8505 -5.4867 2.3828
1.0511 -5.4781 2.3828
1.2522 -5.4621 2.3828
1.4532 -5.4388 2.3828
1.6541 -5.4081 2.3828
1.8545 -5.3700 2.3828
2.0541 -5.3243 2.3828
2.2526 -5.2712 2.3828
2.4498 -5.2105 2.3828
2.6452 -5.1423 2.3828
2.8387 -5.0667 2.3828
3.0299 -4.9835 2.3828
3.2184 -4.8930 2.3828
3.4040 -4.7951 2.3828
3.5864 -4.6899 2.3828
3.7653 -4.5775 2.3828
3.9402 -4.4580 2.3828
4.1110 -4.3315 2.3828
4.2772 -4.1982 2.3828
4.4387 -4.0581 2.3828
4.5950 -3.9116 2.3828
4.7459 -3.7587 2.3828
4.8911 -3.5996 2.3828
-0.1964 -5.0973 2.3828
-0.0131 -5.1237 2.3828
0.1716 -5.1436 2.3828
0.3576 -5.1570 2.3828
0.5447 -5.1638 2.3828
0.7325 -5.1639 2.3828
0.9210 -5.1573 2.3828
1.1098 -5.1438 2.3828
1.2986 -5.1234 2.3828
1.4873 -5.0961 2.3828
1.6755 -5.0618 2.3828
1.8630 -5.0205 2.3828
2.0495 -4.9722 2.3828
2.2348 -4.9169 2.3828
2.4185 -4.8546 2.3828
2.6004 -4.7852 2.3828
2.7801 -4.7089 2.3828
2.9575 -4.6256 2.3828
3.1321 -4.5355 2.3828
3.3038 -4.4385 2.3828
3.4722 -4.3348 2.3828
3.6370 -4.2245 2.3828
3.7979 -4.1076 2.3828
3.9547 -3.9844 2.3828
4.1071 -3.8549 2.3828
4.2547 -3.7193 2.3828
4.3974 -3.5777 2.3828
4.5348 -3.4303 2.3828
4.6666 -3.2774 2.3828
4.7927 -3.1192 2.3828
4.9127 -2.9558 2.3828
5.0265 -2.7874 2.3828
5.1338 -2.6145 2.3828
5.2344 -2.4371 2.3828
5.3280 -2.2556 2.3828
5.4146 -2.0703 2.3828
5.4938 -1.8815 2.3828
5.5655 -1.6894 2.3828
5.6297 -1.4944 2.3828
5.6861 -1.2968 2.3828
5.7346 -1.0969 2.3828
5.7751 -0.8951 2.3828
5.8075 -0.6917 2.3828
5.8318 -0.4870 2.3828
5.8479 -0.2815 2.3828
5.8557 -0.0755 2.3828
5.8553 0.1308 2.3828
5.8466 0.3368 2.3828
5.8297 0.5423 2.3828
5.8046 0.7469 2.3828
5.7713 0.9503 2.3828
5.7299 1.1521 2.3828
5.6805 1.3519 2.3828
5.6233 1.5495 2.3828
5.5582 1.7444 2.3828
5.4855 1.9365 2.3828
5.4054 2.1252 2.3828
5.3179 2.3104 2.3828
5.2232 2.4918 2.3828
5.1217 2.6690 2.3828
5.0133 2.8417 2.3828
4.8985 3.0098 2.3828
4.7774 3.1730 2.3828
4.6502 3.3310 2.3828
4.5172 3.4835 2.3828
4.3786 3.6305 2.3828
4.2348 3.7717 2.3828
4.0860 3.9068 2.3828
3.9325 4.0358 2.3828
3.7745 4.1585 2.3828
3.6123 4.2747 2.3828
3.4463 4.3844 2.3828
3.2767 4.4873 2.3828
3.1039 4.5835 2.3828
2.9280 4.6728 2.3828
2.7495 4.7551 2.3828
2.5685 4.8304 2.3828
0.9023 1.8528 0.9012
0.8353 1.8827 0.9044
0.7673 1.9101 0.9077
0.6984 1.9351 0.9110
0.6286 1.9575 0.9144
0.5580 1.9774 0.9177
0.4868 1.9948 0.9211
0.4150 2.0095 0.9246
0.3427 2.0217 0.9280
0.2700 2.0312 0.9315
0.1969 2.0381 0.9350
0.1237 2.0424 0.9385
0.0504 2.0440 0.9420
-0.0229 2.0430 0.9455
-0.0962 2.0393 0.9489
-0.1693 2.0329 0.9524
-0.2421 2.0240 0.9559
-0.3145 2.0124 0.9593
-0.3865 1.9982 0.9627
-0.4579 1.9814 0.9661
-0.5286 1.9620 0.9694
-0.5986 1.9401 0.9728
-0.6678 1.9156 0.9760
-0.7361 1.8887 0.9792
-0.8033 1.8594 0.9824
-0.8694 1.8276 0.9855
-2.2520 4.3227 2.3828
-2.3982 4.2221 2.3828
-2.5404 4.1168 2.3828
-2.6785 4.0072 2.3828
-2.8124 3.8933 2.3828
-2.9420 3.7753 2.3828
-3.0672 3.6533 2.3828
-3.1879 3.5277 2.3828
-3.3040 3.3984 2.3828
-3.4153 3.2656 2.3828
-3.5220 3.1296 2.3828
-3.6238 2.9904 2.3828
-3.7207 2.8483 2.3828
-3.8126 2.7033 2.3828
-3.8994 2.5557 2.3828
-3.9812 2.4057 2.3828
-4.0578 2.2533 2.3828
-4.1292 2.0987 2.3828
-4.1954 1.9422 2.3828
-4.2563 1.7838 2.3828
-4.3119 1.6238 2.3828
-4.3621 1.4622 2.3828
-4.4069 1.2992 2.3828
-4.4464 1.1351 2.3828
-4.4804 0.9699 2.3828
-4.5090 0.8039 2.3828
-4.5320 0.6371 2.3828
-4.5497 0.4697 2.3828
-4.5618 0.3020 2.3828
-4.5685 0.1340 2.3828
-4.5698 -0.0345 2.3828
-4.5654 -0.2022 2.3828
-4.5555 -0.3700 2.3828
-4.5403 -0.5375 2.3828
-4.5196 -0.7045 2.3828
-4.4933 -0.8706 2.3828
-4.4617 -1.0360 2.3828
-4.4246 -1.2004 2.3828
-4.3821 -1.3636 2.3828
-4.3343 -1.5255 2.3828
-4.2812 -1.6859 2.3828
-4.2227 -1.8447 2.3828
-4.1589 -2.0018 2.3828
-4.0900 -2.1568 2.3828
-4.0159 -2.3098 2.3828
-3.9366 -2.4605 2.3828
-3.8522 -2.6087 2.3828
-3.7628 -2.7544 2.3828
-3.6685 -2.8974 2.3828
-3.5692 -3.0374 2.3828
-3.4652 -3.1744 2.3828
-3.3563 -3.3082 2.3828
-3.2428 -3.4386 2.3828
-3.1247 -3.5655 2.3828
-3.0021 -3.6887 2.3828
-2.8751 -3.8080 2.3828
-2.7438 -3.9234 2.3828
-2.6082 -4.0346 2.3828
-2.4686 -4.1415 2.3828
-2.3250 -4.2439 2.3828
-2.1775 -4.3417 2.3828
-2.0263 -4.4347 2.3828
-1.8715 -4.5228 2.3828
-1.7133 -4.6059 2.3828
-1.5518 -4.6838 2.3828
-1.3871 -4.7563 2.3828
-1.2194 -4.8233 2.3828
-1.0489 -4.8847 2.3828
-0.8757 -4.9404 2.3828
-0.7001 -4.9901 2.3828
-0.5222 -5.0339 2.3828
-0.3422 -5.0716 2.3828
-0.1603 -5.1030 2.3828
0.0232 -5.1281 2.3828
0.2082 -5.1468 2.3828
0.3944 -5.1589 2.3828
0.5817 -5.1644 2.3828
0.7697 -5.1631 2.3828
0.9582 -5.1551 2.3828
1.1470 -5.1403 2.3828
1.3358 -5.1186 2.3828
1.5244 -5.0899 2.3828
1.7126 -5.0542 2.3828
1.8999 -5.0116 2.3828
2.0862 -4.9619 2.3828
2.2712 -4.9052 2.3828
2.4545 -4.8414 2.3828
2.6360 -4.7707 2.3828
2.8153 -4.6930 2.3828
2.9922 -4.6084 2.3828
3.1662 -4.5169 2.3828
3.3373 -4.4186 2.3828
3.5050 -4.3136 2.3828
3.6691 -4.2020 2.3828
3.8292 -4.0838 2.3828
3.9851 -3.9593 2.3828
4.1366 -3.8286 2.3828
4.2833 -3.6918 2.3828
4.4249 -3.5491 2.3828
4.5612 -3.4006 2.3828
4.6920 -3.2466 2.3828
4.8169 -3.0873 2.3828
4.9357 -2.9229 2.3828
5.0482 -2.7537 2.3828
5.1542 -2.5798 2.3828
5.2534 -2.4016 2.3828
5.3457 -2.2194 2.3828
5.4308 -2.0334 2.3828
5.5085 -1.8438 2.3828
5.5788 -1.6511 2.3828
5.6414 -1.4556 2.3828
5.6962 -1.2575 2.3828
5.7432 -1.0572 2.3828
5.7821 -0.8551 2.3828
5.8129 -0.6514 2.3828
5.8356 -0.4466 2.3828
5.8501 -0.2409 2.3828
5.8563 -0.0348 2.3828
5.8542 0.1714 2.3828
5.8439 0.3774 2.3828
5.8254 0.5828 2.3828
5.7986 0.7872 2.3828
5.7638 0.9902 2.3828
5.7208 1.1917 2.3828
5.6699 1.3911 2.3828
5.6110 1.5882 2.3828
5.5445 1.7826 2.3828
5.4703 1.9740 2.3828
5.3887 2.1620 2.3828
5.2998 2.3465 2.3828
5.2037 2.5271 2.3828
5.1008 2.7034 2.3828
4.9912 2.8753 2.3828
4.8751 3.0424 2.3828
4.7527 3.2046 2.3828
4.6244 3.3615 2.3828
4.4903 3.5130 2.3828
4.3507 3.6588 2.3828
4.2059 3.7988 2.3828
4.0561 3.9328 2.3828
3.9017 4.0605 2.3828
3.7428 4.1819 2.3828
3.5799 4.2969 2.3828
3.4132 4.4052 2.3828
3.2429 4.5068 2.3828
3.0694 4.6016 2.3828
2.8930 4.6896 2.3828
2.7140 4.7705 2.3828
0.9552 1.8271 0.8987
0.8891 1.8589 0.9019
0.8220 1.8883 0.9051
0.7538 1.9152 0.9084
0.6847 1.9397 0.9117
0.6147 1.9616 0.9150
0.5440 1.9810 0.9184
0.4727 1.9979 0.9218
0.4007 2.0121 0.9253
0.3283 2.0238 0.9287
0.2556 2.0328 0.9322
0.1825 2.0392 0.9357
0.1093 2.0429 0.9392
0.0359 2.0440 0.9427
-0.0374 2.0424 0.9461
-0.1106 2.0382 0.9496
-0.1837 2.0314 0.9531
-0.2564 2.0219 0.9565
-0.3287 2.0098 0.9600
-0.4006 1.9950 0.9634
-0.4719 1.9777 0.9668
-0.5425 1.9579 0.9701
-0.6124 1.9354 0.9734
-0.6814 1.9105 0.9767
-0.7494 1.8831 0.9799
-0.8164 1.8533 0.9830
-2.1319 4.4002 2.3828
-2.2812 4.3032 2.3828
-2.4266 4.2017 2.3828
-2.5680 4.0955 2.3828
-2.7052 3.9850 2.3828
-2.8383 3.8703 2.3828
-2.9671 3.7516 2.3828
-3.0914 3.6289 2.3828
-3.2111 3.5025 2.3828
-3.3263 3.3725 2.3828
-3.4368 3.2390 2.3828
-3.5424 3.1024 2.3828
-3.6433 2.9626 2.3828
-3.7392 2.8199 2.3828
-3.8301 2.6744 2.3828
-3.9160 2.5263 2.3828
-3.9967 2.3758 2.3828
-4.0723 2.2229 2.3828
-4.1427 2.0680 2.3828
-4.2078 1.9111 2.3828
-4.2677 1.7524 2.3828
-4.3222 1.5920 2.3828
-4.3714 1.4301 2.3828
-4.4151 1.2670 2.3828
-4.4535 1.1026 2.3828
-4.4865 0.9372 2.3828
-4.5140 0.7710 2.3828
-4.5361 0.6038 2.3828
-4.5525 0.4367 2.3828
-4.5636 0.2688 2.3828
-4.5692 0.1008 2.3828
-4.5692 -0.0672 2.3828
-4.5639 -0.2354 2.3828
-4.5530 -0.4031 2.3828
-4.5366 -0.5704 2.3828
-4.5148 -0.7372 2.3828
-4.4875 -0.9033 2.3828
-4.4548 -1.0685 2.3828
-4.4167 -1.2327 2.3828
-4.3732 -1.3957 2.3828
-4.3242 -1.5573 2.3828
-4.2700 -1.7174 2.3828
-4.2105 -1.8759 2.3828
-4.1458 -2.0325 2.3828
-4.0758 -2.1872 2.3828
-4.0006 -2.3397 2.3828
-3.9203 -2.4899 2.3828
-3.8350 -2.6377 2.3828
-3.7446 -2.7828 2.3828
-3.6493 -2.9252 2.3828
-3.5491 -3.0647 2.3828
-3.4441 -3.2011 2.3828
-3.3343 -3.3342 2.3828
-3.2199 -3.4639 2.3828
-3.1009 -3.5901 2.3828
-2.9774 -3.7125 2.3828
-2.8495 -3.8311 2.3828
-2.7174 -3.9457 2.3828
-2.5810 -4.0560 2.3828
-2.4406 -4.1620 2.3828
-2.2962 -4.2635 2.3828
-2.1480 -4.3604 2.3828
-1.9961 -4.4525 2.3828
-1.8406 -4.5396 2.3828
-1.6817 -4.6217 2.3828
-1.5195 -4.6985 2.3828
-1.3542 -4.7699 2.3828
-1.1860 -4.8359 2.3828
-1.0149 -4.8961 2.3828
-0.8413 -4.9507 2.3828
-0.6652 -4.9993 2.3828
-0.4869 -5.0418 2.3828
-0.3065 -5.0783 2.3828
-0.1243 -5.1085 2.3828
0.0596 -5.1323 2.3828
0.2448 -5.1497 2.3828
0.4313 -5.1605 2.3828
0.6187 -5.1646 2.3828
0.8068 -5.1621 2.3828
0.9954 -5.1528 2.3828
1.1843 -5.1366 2.3828
1.3731 -5.1135 2.3828
1.5616 -5.0834 2.3828
1.7496 -5.0464 2.3828
1.9367 -5.0023 2.3828
2.1228 -4.9513 2.3828
2.3075 -4.8932 2.3828
2.4905 -4.8280 2.3828
2.6716 -4.7559 2.3828
2.8504 -4.6769 2.3828
3.0267 -4.5909 2.3828
3.2002 -4.4980 2.3828
3.3706 -4.3984 2.3828
3.5376 -4.2921 2.3828
3.7010 -4.1792 2.3828
3.8603 -4.0598 2.3828
4.0154 -3.9340 2.3828
4.1659 -3.8021 2.3828
4.3116 -3.6641 2.3828
4.4522 -3.5202 2.3828
4.5875 -3.3707 2.3828
-0.1791 -4.8123 2.3828
-0.0061 -4.8362 2.3828
0.1683 -4.8540 2.3828
0.3437 -4.8656 2.3828
0.5202 -4.8710 2.3828
0.6973 -4.8701 2.3828
0.8748 -4.8628 2.3828
1.0526 -4.8491 2.3828
1.2304 -4.8289 2.3828
1.4080 -4.8021 2.3828
1.5851 -4.7688 2.3828
1.7614 -4.7289 2.3828
1.9367 -4.6825 2.3828
2.1108 -4.6294 2.3828
2.2833 -4.5698 2.3828
2.4540 -4.5035 2.3828
2.6227 -4.4308 2.3828
2.7890 -4.3516 2.3828
2.9528 -4.2660 2.3828
3.1137 -4.1739 2.3828
3.2714 -4.0757 2.3828
3.4258 -3.9712 2.3828
3.5765 -3.8606 2.3828
3.7232 -3.7441 2.3828
3.8657 -3.6218 2.3828
4.0038 -3.4938 2.3828
4.1371 -3.3602 2.3828
4.2655 -3.2213 2.3828
4.3887 -3.0773 2.3828
4.5065 -2.9282 2.3828
4.6186 -2.7745 2.3828
4.7248 -2.6161 2.3828
4.8249 -2.4535 2.3828
4.9187 -2.2868 2.3828
5.0061 -2.1162 2.3828
5.0867 -1.9422 2.3828
5.1606 -1.7648 2.3828
5.2275 -1.5845 2.3828
5.2873 -1.4015 2.3828
5.3398 -1.2160 2.3828
5.3849 -1.0285 2.3828
5.4227 -0.8392 2.3828
5.4529 -0.6484 2.3828
5.4755 -0.4565 2.3828
5.4904 -0.2638 2.3828
5.4977 -0.0706 2.3828
5.4973 0.1228 2.3828
5.4892 0.3160 2.3828
5.4734 0.5087 2.3828
5.4499 0.7006 2.3828
5.4189 0.8913 2.3828
5.3803 1.0806 2.3828
5.3343 1.2680 2.3828
5.2809 1.4534 2.3828
5.2202 1.6363 2.3828
5.1524 1.8166 2.3828
5.0776 1.9938 2.3828
4.9960 2.1677 2.3828
4.9077 2.3381 2.3828
4.8129 2.5046 2.3828
4.7118 2.6671 2.3828
4.6045 2.8252 2.3828
4.4914 2.9787 2.3828
4.3726 3.1274 2.3828
4.2483 3.2711 2.3828
4.1188 3.4096 2.3828
3.9844 3.5427 2.3828
3.8452 3.6703 2.3828
3.7016 3.7921 2.3828
3.5537 3.9080 2.3828
3.4019 4.0179 2.3828
3.2465 4.1217 2.3828
3.0876 4.2193 2.3828
2.9256 4.3105 2.3828
2.7608 4.3953 2.3828
2.5933 4.4736 2.3828
0.9158 1.7177 0.9004
0.8537 1.7481 0.9034
0.7906 1.7763 0.9065
0.7264 1.8021 0.9095
0.6614 1.8257 0.9127
0.5956 1.8468 0.9158
0.5290 1.8656 0.9190
0.4618 1.8820 0.9222
0.3940 1.8959 0.9255
0.3258 1.9073 0.9287
0.2572 1.9163 0.9320
0.1883 1.9228 0.9353
0.1192 1.9269 0.9386
0.0501 1.9284 0.9419
-0.0191 1.9274 0.9452
-0.0882 1.9239 0.9484
-0.1572 1.9179 0.9517
-0.2259 1.9095 0.9550
-0.2942 1.8985 0.9582
-0.3621 1.8851 0.9614
-0.4295 1.8693 0.9646
-0.4962 1.8510 0.9678
-0.5623 1.8303 0.9709
-0.6275 1.8073 0.9740
-0.6919 1.7819 0.9770
-0.7553 1.7542 0.9800
-0.8177 1.7242 0.9830
-2.1244 4.0896 2.3828
-2.2631 3.9950 2.3828
-2.3980 3.8961 2.3828
-2.5292 3.7929 2.3828
-2.6563 3.6857 2.3828
-2.7794 3.5745 2.3828
-2.8984 3.4596 2.3828
-3.0132 3.3408 2.3828
-3.1235 3.2190 2.3828
-3.2294 3.0936 2.3828
-3.3309 2.9649 2.3828
-3.4277 2.8336 2.3828
-3.5199 2.6992 2.3828
-3.6074 2.5620 2.3828
-3.6901 2.4225 2.3828
-3.7680 2.2805 2.3828
-3.8409 2.1362 2.3828
-3.9091 1.9896 2.3828
-3.9719 1.8419 2.3828
-4.0300 1.6918 2.3828
-4.0831 1.5399 2.3828
-4.1310 1.3865 2.3828
-4.1737 1.2323 2.3828
-4.2113 1.0767 2.3828
-4.2437 0.9201 2.3828
-4.2711 0.7623 2.3828
-4.2930 0.6044 2.3828
-4.3100 0.4455 2.3828
-4.3215 0.2866 2.3828
-4.3279 0.1272 2.3828
-4.3290 -0.0322 2.3828
-4.3249 -0.1917 2.3828
-4.3156 -0.3509 2.3828
-4.3010 -0.5097 2.3828
-4.2813 -0.6680 2.3828
-4.2563 -0.8257 2.3828
-4.2261 -0.9825 2.3828
-4.1908 -1.1384 2.3828
-4.1504 -1.2931 2.3828
-4.1048 -1.4466 2.3828
-4.0542 -1.5987 2.3828
-3.9985 -1.7492 2.3828
-3.9378 -1.8979 2.3828
-3.8721 -2.0448 2.3828
-3.8015 -2.1897 2.3828
-3.7260 -2.3323 2.3828
-3.6457 -2.4727 2.3828
-3.5606 -2.6105 2.3828
-3.4708 -2.7457 2.3828
-3.3764 -2.8782 2.3828
-3.2774 -3.0076 2.3828
-3.1738 -3.1340 2.3828
-3.0659 -3.2572 2.3828
-2.9537 -3.3769 2.3828
-2.8371 -3.4932 2.3828
-2.7164 -3.6057 2.3828
-2.5917 -3.7144 2.3828
-2.4630 -3.8191 2.3828
-2.3305 -3.9197 2.3828
-2.1942 -4.0160 2.3828
-2.0543 -4.1078 2.3828
-1.9109 -4.1952 2.3828
-1.7641 -4.2778 2.3828
-1.6142 -4.3556 2.3828
-1.4611 -4.4285 2.3828
-1.3051 -4.4962 2.3828
-1.1464 -4.5587 2.3828
-0.9850 -4.6159 2.3828
-0.8212 -4.6676 2.3828
-0.6551 -4.7137 2.3828
-0.4869 -4.7542 2.3828
-0.3169 -4.7888 2.3828
-0.1451 -4.8175 2.3828
0.0282 -4.8402 2.3828
0.2028 -4.8568 2.3828
0.3785 -4.8672 2.3828
0.5550 -4.8713 2.3828
0.7322 -4.8692 2.3828
0.9099 -4.8606 2.3828
1.0877 -4.8456 2.3828
1.2655 -4.8241 2.3828
1.4430 -4.7961 2.3828
1.6199 -4.7615 2.3828
1.7961 -4.7203 2.3828
1.9712 -4.6725 2.3828
2.1449 -4.6182 2.3828
2.3171 -4.5572 2.3828
2.4875 -4.4897 2.3828
2.6557 -4.4157 2.3828
2.8216 -4.3352 2.3828
2.9848 -4.2483 2.3828
3.1451 -4.1551 2.3828
3.3022 -4.0555 2.3828
3.4558 -3.9499 2.3828
3.6057 -3.8381 2.3828
3.7516 -3.7205 2.3828
3.8933 -3.5970 2.3828
4.0305 -3.4679 2.3828
4.1629 -3.3333 2.3828
4.2903 -3.1933 2.3828
4.4124 -3.0483 2.3828
4.5291 -2.8983 2.3828
4.6400 -2.7436 2.3828
4.7450 -2.5844 2.3828
4.8439 -2.4209 2.3828
4.9365 -2.2534 2.3828
5.0225 -2.0822 2.3828
5.1019 -1.9074 2.3828
5.1744 -1.7295 2.3828
5.2398 -1.5486 2.3828
5.2982 -1.3651 2.3828
5.3493 -1.1792 2.3828
5.3930 -0.9913 2.3828
5.4292 -0.8017 2.3828
5.4579 -0.6107 2.3828
5.4790 -0.4186 2.3828
5.4925 -0.2257 2.3828
5.4982 -0.0325 2.3828
5.4963 0.1609 2.3828
5.4867 0.3540 2.3828
5.4694 0.5466 2.3828
5.4444 0.7383 2.3828
5.4119 0.9288 2.3828
5.3718 1.1177 2.3828
5.3243 1.3048 2.3828
5.2695 1.4897 2.3828
5.2074 1.6721 2.3828
5.1382 1.8518 2.3828
5.0621 2.0284 2.3828
4.9791 2.2016 2.3828
4.8895 2.3713 2.3828
4.7934 2.5370 2.3828
4.6911 2.6986 2.3828
4.5827 2.8558 2.3828
4.4684 3.0084 2.3828
4.3485 3.1561 2.3828
4.2232 3.2988 2.3828
4.0927 3.4363 2.3828
3.9573 3.5683 2.3828
3.8172 3.6947 2.3828
3.6728 3.8154 2.3828
3.5241 3.9302 2.3828
3.3716 4.0389 2.3828
3.2154 4.1415 2.3828
3.0559 4.2378 2.3828
2.8933 4.3277 2.3828
2.7279 4.4113 2.3828
0.9649 1.6917 0.8981
0.9037 1.7239 0.9010
0.8414 1.7538 0.9040
0.7780 1.7815 0.9071
0.7137 1.8069 0.9102
0.6485 1.8300 0.9133
0.5825 1.8507 0.9164
0.5158 1.8690 0.9196
0.4484 1.8849 0.9229
0.3806 1.8983 0.9261
0.3123 1.9093 0.9294
0.2436 1.9178 0.9326
0.1747 1.9238 0.9359
0.1056 1.9274 0.9392
0.0364 1.9284 0.9425
-0.0328 1.9269 0.9458
-0.1019 1.9229 0.9491
-0.1708 1.9165 0.9524
-0.2394 1.9075 0.9556
-0.3076 1.8961 0.9589
-0.3754 1.8822 0.9621
-0.4427 1.8659 0.9653
-0.5093 1.8471 0.9684
-0.5752 1.8260 0.9715
-0.6403 1.8024 0.9746
-0.7045 1.7766 0.9776
-0.7677 1.7485 0.9806
-0.8299 1.7180 0.9835
-2.1521 4.0713 2.3828
-2.2900 3.9758 2.3828
-2.4242 3.8761 2.3828
-2.5546 3.7721 2.3828
-2.6809 3.6641 2.3828
-2.8032 3.5521 2.3828
-2.9214 3.4365 2.3828
-3.0353 3.3171 2.3828
-3.1447 3.1945 2.3828
-3.2498 3.0685 2.3828
-3.3503 2.9394 2.3828
-3.4462 2.8073 2.3828
-3.5375 2.6724 2.3828
-3.6240 2.5349 2.3828
-3.7058 2.3947 2.3828
-3.7827 2.2522 2.3828
-3.8547 2.1075 2.3828
-3.9217 1.9609 2.3828
-3.9839 1.8122 2.3828
-4.0410 1.6616 2.3828
-4.0928 1.5099 2.3828
-4.1398 1.3564 2.3828
-4.1815 1.2017 2.3828
-4.2181 1.0459 2.3828
-4.2495 0.8891 2.3828
-4.2758 0.7313 2.3828
-4.2968 0.5732 2.3828
-4.3126 0.4144 2.3828
-4.3232 0.2552 2.3828
-4.3285 0.0957 2.3828
-4.3286 -0.0637 2.3828
-4.3235 -0.2232 2.3828
-4.3131 -0.3822 2.3828
-4.2975 -0.5410 2.3828
-4.2767 -0.6991 2.3828
-4.2507 -0.8567 2.3828
-4.2196 -1.0134 2.3828
-4.1833 -1.1690 2.3828
-4.1418 -1.3235 2.3828
-4.0952 -1.4767 2.3828
-4.0436 -1.6285 2.3828
-3.9869 -1.7787 2.3828
-3.9252 -1.9271 2.3828
-3.8585 -2.0736 2.3828
-3.7870 -2.2180 2.3828
-3.7105 -2.3602 2.3828
-3.6293 -2.5001 2.3828
-3.5433 -2.6374 2.3828
-3.4525 -2.7721 2.3828
-3.3572 -2.9039 2.3828
-3.2573 -3.0328 2.3828
-3.1529 -3.1586 2.3828
-3.0441 -3.2811 2.3828
-2.9310 -3.4002 2.3828
-2.8137 -3.5156 2.3828
-2.6922 -3.6274 2.3828
-2.5666 -3.7353 2.3828
-2.4372 -3.8393 2.3828
-2.3039 -3.9390 2.3828
-2.1669 -4.0344 2.3828
-2.0263 -4.1254 2.3828
-1.8822 -4.2119 2.3828
-1.7348 -4.2936 2.3828
-1.5842 -4.3704 2.3828
-1.4306 -4.4422 2.3828
-1.2740 -4.5090 2.3828
-1.1148 -4.5704 2.3828
-0.9529 -4.6265 2.3828
-0.7886 -4.6771 2.3828
-0.6221 -4.7221 2.3828
-0.4535 -4.7614 2.3828
-0.2831 -4.7949 2.3828
-0.1110 -4.8224 2.3828
0.0625 -4.8439 2.3828
0.2374 -4.8593 2.3828
0.4132 -4.8685 2.3828
0.5900 -4.8714 2.3828
0.7673 -4.8680 2.3828
0.9450 -4.8582 2.3828
1.1228 -4.8419 2.3828
1.3005 -4.8191 2.3828
1.4779 -4.7898 2.3828
1.6547 -4.7539 2.3828
1.8307 -4.7114 2.3828
2.0055 -4.6623 2.3828
2.1790 -4.6067 2.3828
2.3509 -4.5444 2.3828
2.5208 -4.4756 2.3828
2.6886 -4.4003 2.3828
2.8540 -4.3186 2.3828
3.0166 -4.2304 2.3828
3.1763 -4.1359 2.3828
3.3328 -4.0352 2.3828
3.4857 -3.9283 2.3828
3.6348 -3.8154 2.3828
3.7799 -3.6966 2.3828
3.9207 -3.5720 2.3828
4.0570 -3.4417 2.3828
4.1884 -3.3061 2.3828
4.3148 -3.1651 2.3828
-0.1634 -4.5520 2.3828
0.0003 -4.5738 2.3828
0.1652 -4.5898 2.3828
0.3311 -4.5999 2.3828
0.4978 -4.6041 2.3828
0.6651 -4.6024 2.3828
0.8328 -4.5946 2.3828
1.0006 -4.5808 2.3828
1.1684 -4.5608 2.3828
1.3359 -4.5347 2.3828
1.5028 -4.5024 2.3828
1.6690 -4.4639 2.3828
1.8342 -4.4192 2.3828
1.9981 -4.3682 2.3828
2.1605 -4.3112 2.3828
2.3212 -4.2479 2.3828
2.4799 -4.1785 2.3828
2.6363 -4.1031 2.3828
2.7902 -4.0216 2.3828
2.9414 -3.9342 2.3828
3.0896 -3.8409 2.3828
3.2345 -3.7418 2.3828
3.3760 -3.6370 2.3828
3.5136 -3.5267 2.3828
3.6473 -3.4109 2.3828
3.7768 -3.2899 2.3828
3.9019 -3.1636 2.3828
4.0222 -3.0324 2.3828
4.1376 -2.8964 2.3828
4.2479 -2.7558 2.3828
4.3529 -2.6107 2.3828
4.4523 -2.4614 2.3828
4.5460 -2.3081 2.3828
4.6338 -2.1511 2.3828
4.7155 -1.9904 2.3828
4.7910 -1.8265 2.3828
4.8601 -1.6596 2.3828
4.9226 -1.4899 2.3828
4.9785 -1.3177 2.3828
5.0276 -1.1432 2.3828
5.0698 -0.9669 2.3828
5.1050 -0.7888 2.3828
5.1332 -0.6095 2.3828
5.1543 -0.4290 2.3828
5.1683 -0.2478 2.3828
5.1751 -0.0662 2.3828
5.1747 0.1156 2.3828
5.1671 0.2972 2.3828
5.1523 0.4784 2.3828
5.1303 0.6588 2.3828
5.1013 0.8381 2.3828
5.0652 1.0161 2.3828
5.0221 1.1924 2.3828
4.9721 1.3667 2.3828
4.9154 1.5389 2.3828
4.8520 1.7084 2.3828
4.7820 1.8753 2.3828
4.7056 2.0390 2.3828
4.6230 2.1994 2.3828
4.5342 2.3563 2.3828
4.4395 2.5094 2.3828
4.3391 2.6584 2.3828
4.2332 2.8032 2.3828
4.1219 2.9435 2.3828
4.0054 3.0791 2.3828
3.8841 3.2099 2.3828
3.7580 3.3357 2.3828
3.6275 3.4563 2.3828
3.4927 3.5715 2.3828
3.3540 3.6813 2.3828
3.2115 3.7855 2.3828
3.0655 3.8839 2.3828
2.9163 3.9765 2.3828
2.7641 4.0631 2.3828
2.6091 4.1438 2.3828
0.9258 1.5930 0.8998
0.8682 1.6239 0.9026
0.8095 1.6526 0.9054
0.7498 1.6792 0.9083
0.6892 1.7037 0.9112
0.6277 1.7259 0.9142
0.5654 1.7459 0.9171
0.5025 1.7637 0.9202
0.4389 1.7791 0.9232
0.3749 1.7923 0.9263
0.3104 1.8031 0.9293
0.2455 1.8116 0.9324
0.1804 1.8177 0.9355
0.1151 1.8215 0.9387
0.0497 1.8230 0.9418
-0.0157 1.8220 0.9449
-0.0810 1.8187 0.9480
-0.1462 1.8131 0.9511
-0.2111 1.8051 0.9542
-0.2757 1.7947 0.9572
-0.3399 1.7821 0.9603
-0.4035 1.7671 0.9633
-0.4666 1.7498 0.9663
-0.5291 1.7303 0.9692
-0.5908 1.7085 0.9721
-0.6516 1.6845 0.9750
-0.7116 1.6583 0.9778
-0.7705 1.6300 0.9806
-0.8285 1.5995 0.9833
-2.1392 3.7868 2.3828
-2.2675 3.6936 2.3828
-2.3922 3.5963 2.3828
-2.5131 3.4951 2.3828
-2.6302 3.3902 2.3828
-2.7434 3.2816 2.3828
-2.8526 3.1695 2.3828
-2.9577 3.0541 2.3828
-3.0585 2.9356 2.3828
-3.1551 2.8140 2.3828
-3.2474 2.6894 2.3828
-3.3352 2.5623 2.3828
-3.4187 2.4323 2.3828
-3.4975 2.3000 2.3828
-3.5718 2.1653 2.3828
-3.6414 2.0285 2.3828
-3.7063 1.8897 2.3828
-3.7664 1.7490 2.3828
-3.8218 1.6067 2.3828
-3.8724 1.4627 2.3828
-3.9181 1.3173 2.3828
-3.9589 1.1707 2.3828
-3.9948 1.0229 2.3828
-4.0258 0.8741 2.3828
-4.0518 0.7246 2.3828
-4.0729 0.5744 2.3828
-4.0890 0.4236 2.3828
-4.1000 0.2724 2.3828
-4.1061 0.1210 2.3828
-4.1073 -0.0305 2.3828
-4.1034 -0.1819 2.3828
-4.0944 -0.3332 2.3828
-4.0806 -0.4841 2.3828
-4.0617 -0.6345 2.3828
-4.0379 -0.7843 2.3828
-4.0092 -0.9332 2.3828
-3.9755 -1.0813 2.3828
-3.9369 -1.2282 2.3828
-3.8934 -1.3740 2.3828
-3.8451 -1.5184 2.3828
-3.7920 -1.6612 2.3828
-3.7341 -1.8024 2.3828
-3.6715 -1.9417 2.3828
-3.6042 -2.0791 2.3828
-3.5322 -2.2144 2.3828
-3.4556 -2.3475 2.3828
-3.3745 -2.4782 2.3828
-3.2890 -2.6063 2.3828
-3.1990 -2.7317 2.3828
-3.1047 -2.8543 2.3828
-3.0061 -2.9740 2.3828
-2.9034 -3.0905 2.3828
-2.7965 -3.2037 2.3828
-2.6856 -3.3136 2.3828
-2.5708 -3.4199 2.3828
-2.4521 -3.5225 2.3828
-2.3297 -3.6213 2.3828
-2.2037 -3.7162 2.3828
-2.0742 -3.8069 2.3828
-1.9413 -3.8935 2.3828
-1.8051 -3.9756 2.3828
-1.6657 -4.0533 2.3828
-1.5234 -4.1264 2.3828
-1.3781 -4.1947 2.3828
-1.2301 -4.2582 2.3828
-1.0796 -4.3166 2.3828
-0.9266 -4.3700 2.3828
-0.7714 -4.4182 2.3828
-0.6140 -4.4611 2.3828
-0.4547 -4.4985 2.3828
-0.2938 -4.5304 2.3828
-0.1312 -4.5568 2.3828
0.0328 -4.5774 2.3828
0.1979 -4.5922 2.3828
0.3639 -4.6012 2.3828
0.5308 -4.6043 2.3828
0.6982 -4.6014 2.3828
0.8659 -4.5924 2.3828
1.0337 -4.5773 2.3828
1.2015 -4.5561 2.3828
1.3689 -4.5288 2.3828
1.5357 -4.4953 2.3828
1.7017 -4.4555 2.3828
1.8666 -4.4096 2.3828
2.0302 -4.3575 2.3828
2.1923 -4.2992 2.3828
2.3526 -4.2347 2.3828
2.5109 -4.1641 2.3828
2.6669 -4.0875 2.3828
2.8203 -4.0048 2.3828
2.9709 -3.9162 2.3828
3.1184 -3.8218 2.3828
3.2627 -3.7216 2.3828
3.4034 -3.6157 2.3828
3.5403 -3.5043 2.3828
3.6732 -3.3875 2.3828
3.8018 -3.2654 2.3828
3.9260 -3.1382 2.3828
4.0454 -3.0060 2.3828
4.1598 -2.8690 2.3828
4.2691 -2.7275 2.3828
4.3730 -2.5816 2.3828
4.4713 -2.4315 2.3828
4.5638 -2.2774 2.3828
4.6504 -2.1197 2.3828
4.7309 -1.9584 2.3828
4.8052 -1.7938 2.3828
4.8729 -1.6263 2.3828
4.9342 -1.4561 2.3828
4.9887 -1.2834 2.3828
5.0365 -1.1086 2.3828
5.0773 -0.9319 2.3828
5.1112 -0.7536 2.3828
5.1380 -0.5739 2.3828
5.1577 -0.3934 2.3828
5.1702 -0.2120 2.3828
5.1756 -0.0303 2.3828
5.1737 0.1514 2.3828
5.1647 0.3330 2.3828
5.1485 0.5140 2.3828
5.1251 0.6943 2.3828
5.0947 0.8733 2.3828
5.0572 1.0510 2.3828
5.0128 1.2270 2.3828
4.9615 1.4009 2.3828
4.9034 1.5725 2.3828
4.8387 1.7416 2.3828
4.7674 1.9078 2.3828
4.6898 2.0709 2.3828
4.6059 2.2307 2.3828
4.5160 2.3868 2.3828
4.4202 2.5391 2.3828
4.3187 2.6873 2.3828
4.2116 2.8312 2.3828
4.0993 2.9706 2.3828
3.9819 3.1053 2.3828
3.8595 3.2352 2.3828
3.7326 3.3599 2.3828
3.6012 3.4795 2.3828
3.4657 3.5936 2.3828
3.3262 3.7023 2.3828
3.1830 3.8053 2.3828
3.0363 3.9026 2.3828
2.8865 3.9940 2.3828
2.7337 4.0795 2.3828
2.5782 4.1590 2.3828
0.9146 1.5993 0.9004
0.8567 1.6297 0.9032
0.7978 1.6580 0.9060
0.7379 1.6842 0.9089
0.6771 1.7082 0.9118
0.6154 1.7300 0.9148
0.5531 1.7496 0.9177
0.4900 1.7669 0.9208
0.4263 1.7819 0.9238
0.3622 1.7946 0.9269
0.2976 1.8050 0.9300
0.2327 1.8130 0.9331
0.1676 1.8187 0.9362
0.1022 1.8220 0.9393
0.0368 1.8230 0.9424
-0.0286 1.8216 0.9455
-0.0939 1.8178 0.9486
-0.1590 1.8117 0.9517
-0.2239 1.8032 0.9548
-0.2884 1.7924 0.9578
-0.3525 1.7793 0.9609
-0.4160 1.7639 0.9639
-0.4790 1.7461 0.9669
-0.5413 1.7261 0.9698
-0.6028 1.7039 0.9727
-0.6635 1.6795 0.9756
-0.7233 1.6529 0.9784
-0.7821 1.6241 0.9812
-0.8397 1.5933 0.9839
-2.1648 3.7688 2.3828
-2.2924 3.6747 2.3828
-2.4163 3.5767 2.3828
-2.5365 3.4747 2.3828
-2.6528 3.3691 2.3828
-2.7653 3.2598 2.3828
-2.8736 3.1470 2.3828
-2.9779 3.0310 2.3828
-3.0779 2.9118 2.3828
-3.1737 2.7896 2.3828
-3.2651 2.6645 2.3828
-3.3521 2.5367 2.3828
-3.4346 2.4064 2.3828
-3.5125 2.2736 2.3828
-3.5858 2.1385 2.3828
-3.6545 2.0013 2.3828
-3.7185 1.8621 2.3828
-3.7777 1.7211 2.3828
-3.8321 1.5784 2.3828
-3.8818 1.4341 2.3828
-3.9265 1.2885 2.3828
-3.9664 1.1416 2.3828
-4.0013 0.9937 2.3828
-4.0313 0.8448 2.3828
-4.0564 0.6950 2.3828
-4.0764 0.5447 2.3828
-4.0916 0.3937 2.3828
-4.1016 0.2426 2.3828
-4.1068 0.0911 2.3828
-4.1069 -0.0604 2.3828
-4.1020 -0.2118 2.3828
-4.0921 -0.3630 2.3828
-4.0773 -0.5138 2.3828
-4.0574 -0.6641 2.3828
-4.0326 -0.8137 2.3828
-4.0029 -0.9625 2.3828
-3.9683 -1.1104 2.3828
-3.9287 -1.2571 2.3828
-3.8843 -1.4026 2.3828
-3.8350 -1.5467 2.3828
-3.7810 -1.6892 2.3828
-3.7221 -1.8300 2.3828
-3.6586 -1.9690 2.3828
-3.5903 -2.1060 2.3828
-3.5174 -2.2409 2.3828
-3.4400 -2.3735 2.3828
-3.3580 -2.5036 2.3828
-3.2716 -2.6312 2.3828
-3.1808 -2.7561 2.3828
-3.0856 -2.8782 2.3828
-2.9862 -2.9972 2.3828
-2.8826 -3.1131 2.3828
-2.7750 -3.2257 2.3828
-2.6633 -3.3348 2.3828
-2.5477 -3.4404 2.3828
-2.4283 -3.5423 2.3828
-2.3052 -3.6404 2.3828
-2.1785 -3.7344 2.3828
-2.0482 -3.8243 2.3828
-1.9147 -3.9100 2.3828
-1.7778 -3.9913 2.3828
-1.6379 -4.0681 2.3828
-1.4949 -4.1402 2.3828
-1.3491 -4.2076 2.3828
-1.2006 -4.2701 2.3828
-1.0496 -4.3276 2.3828
-0.8961 -4.3800 2.3828
-0.7405 -4.4271 2.3828
-0.5827 -4.4689 2.3828
-0.4231 -4.5053 2.3828
-0.2618 -4.5361 2.3828
-0.0989 -4.5613 2.3828
0.0652 -4.5808 2.3828
0.2306 -4.5945 2.3828
0.3968 -4.6023 2.3828
0.5638 -4.6042 2.3828
0.7312 -4.6001 2.3828
0.8990 -4.5899 2.3828
1.0668 -4.5736 2.3828
1.2345 -4.5512 2.3828
1.4018 -4.5227 2.3828
1.5685 -4.4879 2.3828
1.7343 -4.4470 2.3828
1.8990 -4.3998 2.3828
2.0624 -4.3465 2.3828
2.2241 -4.2869 2.3828
2.3840 -4.2213 2.3828
2.5419 -4.1495 2.3828
2.6973 -4.0717 2.3828
2.8502 -3.9878 2.3828
3.0002 -3.8981 2.3828
3.1472 -3.8025 2.3828
3.2907 -3.7011 2.3828
3.4307 -3.5942 2.3828
3.5669 -3.4817 2.3828
3.6989 -3.3638 2.3828
3.8267 -3.2407 2.3828
3.9499 -3.1125 2.3828
4.0683 -2.9793 2.3828
-0.1489 -4.3132 2.3828
0.0062 -4.3331 2.3828
0.1624 -4.3475 2.3828
0.3195 -4.3564 2.3828
0.4774 -4.3596 2.3828
0.6357 -4.3572 2.3828
0.7943 -4.3491 2.3828
0.9531 -4.3352 2.3828
1.1117 -4.3156 2.3828
1.2699 -4.2901 2.3828
1.4276 -4.2588 2.3828
1.5846 -4.2216 2.3828
1.7405 -4.1786 2.3828
1.8952 -4.1298 2.3828
2.0484 -4.0751 2.3828
2.1999 -4.0146 2.3828
2.3495 -3.9484 2.3828
2.4970 -3.8765 2.3828
2.6420 -3.7989 2.3828
2.7844 -3.7157 2.3828
2.9239 -3.6270 2.3828
3.0603 -3.5329 2.3828
3.1934 -3.4334 2.3828
3.3229 -3.3288 2.3828
3.4487 -3.2191 2.3828
3.5704 -3.1044 2.3828
3.6879 -2.9849 2.3828
3.8010 -2.8607 2.3828
3.9094 -2.7320 2.3828
4.0130 -2.5991 2.3828
4.1115 -2.4620 2.3828
4.2049 -2.3209 2.3828
4.2928 -2.1761 2.3828
4.3752 -2.0279 2.3828
4.4519 -1.8763 2.3828
4.5226 -1.7216 2.3828
4.5874 -1.5641 2.3828
4.6460 -1.4041 2.3828
4.6984 -1.2417 2.3828
4.7444 -1.0772 2.3828
4.7840 -0.9110 2.3828
4.8170 -0.7432 2.3828
4.8434 -0.5741 2.3828
4.8631 -0.4041 2.3828
4.8762 -0.2334 2.3828
4.8825 -0.0622 2.3828
4.8821 0.1091 2.3828
4.8750 0.2802 2.3828
4.8611 0.4509 2.3828
4.8405 0.6209 2.3828
4.8133 0.7899 2.3828
4.7794 0.9576 2.3828
4.7390 1.1238 2.3828
4.6921 1.2882 2.3828
4.6389 1.4504 2.3828
4.5794 1.6104 2.3828
4.5138 1.7677 2.3828
4.4421 1.9222 2.3828
4.3645 2.0736 2.3828
4.2812 2.2216 2.3828
4.1924 2.3662 2.3828
4.0981 2.5070 2.3828
3.9986 2.6437 2.3828
3.8940 2.7764 2.3828
3.7846 2.9047 2.3828
3.6706 3.0284 2.3828
3.5521 3.1475 2.3828
3.4294 3.2617 2.3828
3.3027 3.3709 2.3828
3.1722 3.4750 2.3828
3.0381 3.5738 2.3828
2.9007 3.6673 2.3828
2.7602 3.7553 2.3828
2.6168 3.8377 2.3828
0.9326 1.4776 0.8994
0.8792 1.5087 0.9020
0.8246 1.5379 0.9046
0.7690 1.5651 0.9073
0.7124 1.5903 0.9100
0.6550 1.6134 0.9127
0.5967 1.6345 0.9155
0.5378 1.6534 0.9184
0.4782 1.6702 0.9212
0.4180 1.6849 0.9241
0.3574 1.6973 0.9270
0.2963 1.7076 0.9299
0.2349 1.7156 0.9328
0.1732 1.7214 0.9358
0.1114 1.7250 0.9387
0.0494 1.7264 0.9417
-0.0125 1.7255 0.9446
-0.0743 1.7224 0.9476
-0.1361 1.7170 0.9505
-0.1975 1.7094 0.9534
-0.2587 1.6996 0.9563
-0.3195 1.6876 0.9592
-0.3798 1.6734 0.9621
-0.4396 1.6571 0.9649
-0.4987 1.6386 0.9677
-0.5571 1.6179 0.9704
-0.6147 1.5952 0.9732
-0.6715 1.5704 0.9758
-0.7273 1.5436 0.9785
-0.7822 1.5148 0.9810
-0.8359 1.4840 0.9836
-2.1472 3.5071 2.3828
-2.2659 3.4151 2.3828
-2.3810 3.3195 2.3828
-2.4926 3.2202 2.3828
-2.6004 3.1175 2.3828
-2.7045 3.0114 2.3828
-2.8046 2.9021 2.3828
-2.9008 2.7897 2.3828
-2.9930 2.6744 2.3828
-3.0810 2.5563 2.3828
-3.1648 2.4356 2.3828
-3.2444 2.3123 2.3828
-3.3195 2.1869 2.3828
-3.3904 2.0589 2.3828
-3.4569 1.9290 2.3828
-3.5189 1.7971 2.3828
-3.5763 1.6635 2.3828
-3.6292 1.5282 2.3828
-3.6775 1.3913 2.3828
-3.7212 1.2532 2.3828
