ply
format ascii 1.0
element vertex 2175
property float32 x
property float32 y
property float32 z
end_header
2.6331 5.1089 2.3917
2.4567 5.2235 2.3917
2.2758 5.3326 2.3917
0.8776 2.2819 1.0040
0.7950 2.3140 1.0001
0.7114 2.3431 0.9962
0.6267 2.3691 0.9922
0.5411 2.3920 0.9881
0.4548 2.4119 0.9839
0.3678 2.4286 0.9797
0.2803 2.4422 0.9755
0.1923 2.4526 0.9712
0.1040 2.4598 0.9669
0.0155 2.4638 0.9625
-0.0731 2.4646 0.9581
-0.1617 2.4622 0.9536
-0.2501 2.4566 0.9492
-0.3383 2.4478 0.9447
-0.4261 2.4358 0.9403
-0.5134 2.4207 0.9358
-0.6001 2.4024 0.9314
-0.6861 2.3809 0.9269
-0.7713 2.3564 0.9225
-0.8555 2.3288 0.9181
-0.9386 2.2982 0.9137
-2.6845 5.9564 2.3917
-2.9106 5.8882 2.3917
-3.1350 5.8113 2.3917
-3.3575 5.7259 2.3917
-3.5775 5.6317 2.3917
-3.7949 5.5290 2.3917
-4.0091 5.4177 2.3917
-4.2199 5.2980 2.3917
-4.4268 5.1697 2.3917
-4.6294 5.0332 2.3917
-4.8275 4.8884 2.3917
-5.0205 4.7355 2.3917
-5.2082 4.5747 2.3917
-5.3900 4.4061 2.3917
-5.5659 4.2299 2.3917
-5.7352 4.0464 2.3917
-5.8976 3.8558 2.3917
-6.0528 3.6583 2.3917
-6.2005 3.4542 2.3917
-6.3403 3.2437 2.3917
-6.4719 3.0273 2.3917
-6.5950 2.8053 2.3917
-6.7093 2.5779 2.3917
-6.8145 2.3456 2.3917
-6.9105 2.1088 2.3917
-6.9968 1.8678 2.3917
-7.0734 1.6230 2.3917
-7.1399 1.3750 2.3917
-7.1964 1.1241 2.3917
-7.2425 0.8707 2.3917
-7.2782 0.6154 2.3917
-7.3033 0.3587 2.3917
-7.3179 0.1009 2.3917
-7.3217 -0.1574 2.3917
-7.3149 -0.4158 2.3917
-7.2974 -0.6737 2.3917
-7.2692 -0.9307 2.3917
-7.2304 -1.1863 2.3917
-7.1810 -1.4400 2.3917
-7.1213 -1.6914 2.3917
-7.0512 -1.9399 2.3917
-6.9709 -2.1851 2.3917
-6.8807 -2.4266 2.3917
-6.7808 -2.6640 2.3917
-6.6712 -2.8968 2.3917
-6.5524 -3.1245 2.3917
-6.4246 -3.3469 2.3917
-6.2880 -3.5635 2.3917
-6.1429 -3.7739 2.3917
-5.9898 -3.9779 2.3917
-5.8288 -4.1752 2.3917
-5.6604 -4.3653 2.3917
-5.4849 -4.5480 2.3917
-5.3027 -4.7232 2.3917
-5.1142 -4.8904 2.3917
-4.9197 -5.0496 2.3917
-4.7197 -5.2005 2.3917
-4.5145 -5.3430 2.3917
-4.3046 -5.4768 2.3917
-4.0903 -5.6019 2.3917
-3.8721 -5.7182 2.3917
-3.6504 -5.8256 2.3917
-3.4255 -5.9240 2.3917
-3.1979 -6.0133 2.3917
-2.9679 -6.0936 2.3917
-2.7360 -6.1647 2.3917
-2.5026 -6.2268 2.3917
-2.2680 -6.2799 2.3917
-2.0325 -6.3239 2.3917
-1.7967 -6.3590 2.3917
-1.5607 -6.3853 2.3917
-1.3251 -6.4027 2.3917
-1.0900 -6.4114 2.3917
-0.8558 -6.4116 2.3917
-0.6229 -6.4032 2.3917
-0.3916 -6.3866 2.3917
-0.1620 -6.3617 2.3917
0.0654 -6.3288 2.3917
0.2903 -6.2880 2.3917
0.5127 -6.2395 2.3917
0.7321 -6.1835 2.3917
0.9484 -6.1201 2.3917
1.1612 -6.0495 2.3917
1.3705 -5.9719 2.3917
1.5760 -5.8875 2.3917
1.7775 -5.7965 2.3917
1.9748 -5.6990 2.3917
2.1677 -5.5954 2.3917
2.3561 -5.4857 2.3917
2.5398 -5.3702 2.3917
2.7187 -5.2492 2.3917
2.8927 -5.1227 2.3917
3.0615 -4.9910 2.3917
3.2251 -4.8544 2.3917
3.3834 -4.7129 2.3917
3.5363 -4.5669 2.3917
3.6836 -4.4165 2.3917
3.8253 -4.2619 2.3917
3.9613 -4.1034 2.3917
4.0916 -3.9410 2.3917
4.2159 -3.7751 2.3917
4.3344 -3.6058 2.3917
4.4469 -3.4334 2.3917
4.5534 -3.2579 2.3917
4.6023 -3.0455 2.3652
4.6308 -2.8271 2.3326
4.6579 -2.6153 2.3035
4.6838 -2.4093 2.2778
4.7087 -2.2085 2.2551
4.7428 -2.0165 2.2403
4.7999 -1.8366 2.2393
4.8532 -1.6562 2.2393
4.9006 -1.4745 2.2393
4.9421 -1.2918 2.2393
4.9776 -1.1081 2.2393
5.0073 -0.9236 2.2393
5.0310 -0.7386 2.2393
5.0488 -0.5531 2.2393
5.0607 -0.3674 2.2393
5.0666 -0.1815 2.2393
5.0667 0.0044 2.2393
5.0608 0.1900 2.2393
5.0490 0.3754 2.2393
5.0314 0.5602 2.2393
5.0219 0.7465 2.2456
5.0314 0.9376 2.2631
5.0477 1.1335 2.2866
5.0638 1.3339 2.3130
5.0798 1.5393 2.3427
5.0959 1.7505 2.3758
5.0679 1.9513 2.3917
4.9996 2.1385 2.3917
4.9253 2.3236 2.3917
4.8451 2.5066 2.3917
4.7588 2.6872 2.3917
4.6668 2.8653 2.3917
4.5688 3.0407 2.3917
4.4650 3.2132 2.3917
4.3555 3.3827 2.3917
4.2404 3.5490 2.3917
4.1196 3.7119 2.3917
3.9933 3.8713 2.3917
3.8615 4.0269 2.3917
3.7243 4.1787 2.3917
3.5818 4.3263 2.3917
3.4341 4.4698 2.3917
3.2813 4.6088 2.3917
3.1235 4.7432 2.3917
2.9608 4.8728 2.3917
2.7932 4.9975 2.3917
2.6210 5.1170 2.3917
2.4442 5.2313 2.3917
2.2630 5.3400 2.3917
0.8718 2.2843 1.0037
0.7892 2.3161 0.9998
0.7055 2.3450 0.9959
0.6208 2.3708 0.9919
0.5351 2.3935 0.9878
0.4488 2.4132 0.9837
0.3617 2.4297 0.9794
0.2741 2.4430 0.9752
0.1861 2.4532 0.9709
0.0978 2.4602 0.9665
0.0093 2.4639 0.9622
-0.0793 2.4645 0.9578
-0.1679 2.4619 0.9533
-0.2563 2.4561 0.9489
-0.3445 2.4471 0.9444
-0.4322 2.4348 0.9400
-0.5195 2.4195 0.9355
-0.6062 2.4010 0.9310
-0.6921 2.3793 0.9266
-0.7772 2.3546 0.9222
-0.8613 2.3268 0.9178
-0.9444 2.2960 0.9134
-2.7003 5.9519 2.3917
-2.9263 5.8831 2.3917
-3.1506 5.8057 2.3917
-3.3729 5.7196 2.3917
-3.5928 5.6249 2.3917
-3.8099 5.5215 2.3917
-4.0240 5.4097 2.3917
-4.2345 5.2893 2.3917
-4.4411 5.1605 2.3917
-4.6434 5.0233 2.3917
-4.8411 4.8780 2.3917
-5.0338 4.7245 2.3917
-5.2211 4.5632 2.3917
-5.4025 4.3940 2.3917
-5.5779 4.2174 2.3917
-5.7467 4.0333 2.3917
-5.9087 3.8422 2.3917
-6.0634 3.6442 2.3917
-6.2105 3.4397 2.3917
-6.3497 3.2288 2.3917
-6.4808 3.0120 2.3917
-6.6033 2.7896 2.3917
-6.7169 2.5619 2.3917
-6.8215 2.3293 2.3917
-6.9168 2.0921 2.3917
-7.0025 1.8508 2.3917
-7.0783 1.6058 2.3917
-7.1442 1.3576 2.3917
-7.1999 1.1065 2.3917
-7.2453 0.8530 2.3917
-7.2803 0.5976 2.3917
-7.3047 0.3407 2.3917
-7.3185 0.0829 2.3917
-7.3216 -0.1755 2.3917
-7.3140 -0.4338 2.3917
-7.2958 -0.6917 2.3917
-7.2668 -0.9486 2.3917
-7.2273 -1.2041 2.3917
-7.1772 -1.4576 2.3917
-7.1167 -1.7088 2.3917
-7.0459 -1.9571 2.3917
-6.9650 -2.2021 2.3917
-6.8741 -2.4433 2.3917
-6.7734 -2.6804 2.3917
-6.6632 -2.9128 2.3917
-6.5438 -3.1402 2.3917
-6.4153 -3.3622 2.3917
-6.2781 -3.5784 2.3917
-6.1325 -3.7884 2.3917
-5.9788 -3.9919 2.3917
-5.8173 -4.1886 2.3917
-5.6484 -4.3783 2.3917
-5.4724 -4.5605 2.3917
-5.2898 -4.7351 2.3917
-5.1008 -4.9018 2.3917
-4.9060 -5.0604 2.3917
-4.7056 -5.2107 2.3917
-4.5000 -5.3526 2.3917
-4.2898 -5.4858 2.3917
-4.0752 -5.6103 2.3917
-3.8568 -5.7260 2.3917
-3.6348 -5.8327 2.3917
-3.4097 -5.9305 2.3917
-3.1819 -6.0192 2.3917
-2.9518 -6.0988 2.3917
-2.7198 -6.1694 2.3917
-2.4863 -6.2308 2.3917
-2.2516 -6.2833 2.3917
-2.0161 -6.3267 2.3917
-1.7802 -6.3612 2.3917
-1.5443 -6.3868 2.3917
-1.3086 -6.4036 2.3917
-1.0736 -6.4117 2.3917
-0.8395 -6.4113 2.3917
-0.6067 -6.4023 2.3917
1.4568 -5.5267 2.3917
1.6465 -5.4433 2.3917
1.8324 -5.3539 2.3917
2.0142 -5.2585 2.3917
2.1920 -5.1573 2.3917
2.3654 -5.0506 2.3917
2.5344 -4.9386 2.3917
2.6987 -4.8214 2.3917
2.8584 -4.6992 2.3917
3.0133 -4.5722 2.3917
3.1631 -4.4406 2.3917
3.3080 -4.3046 2.3917
3.4477 -4.1644 2.3917
3.5821 -4.0201 2.3917
3.7112 -3.8720 2.3917
3.8349 -3.7203 2.3917
3.9531 -3.5651 2.3917
4.0658 -3.4066 2.3917
4.1729 -3.2450 2.3917
4.2742 -3.0805 2.3917
4.3699 -2.9132 2.3917
4.4599 -2.7434 2.3917
4.5440 -2.5713 2.3917
4.6222 -2.3969 2.3917
4.6836 -2.2153 2.3861
4.7076 -2.0194 2.3648
4.7307 -1.8273 2.3466
4.7529 -1.6386 2.3312
4.7744 -1.4526 2.3186
4.7951 -1.2689 2.3086
4.8151 -1.0870 2.3013
4.8345 -0.9065 2.2965
4.8533 -0.7269 2.2942
4.8717 -0.5478 2.2944
4.8895 -0.3687 2.2972
4.9070 -0.1893 2.3024
4.9240 -0.0091 2.3101
4.9407 0.1724 2.3204
4.9572 0.3555 2.3333
4.9737 0.5409 2.3491
4.9900 0.7289 2.3677
5.0061 0.9201 2.3892
4.9763 1.1049 2.3917
4.9352 1.2876 2.3917
4.8884 1.4689 2.3917
4.8356 1.6489 2.3917
4.7771 1.8272 2.3917
4.7129 2.0037 2.3917
4.6429 2.1783 2.3917
4.5672 2.3508 2.3917
4.4859 2.5211 2.3917
4.3990 2.6889 2.3917
4.3066 2.8541 2.3917
4.2087 3.0166 2.3917
4.1053 3.1762 2.3917
3.9966 3.3327 2.3917
3.8826 3.4860 2.3917
3.7634 3.6358 2.3917
3.6390 3.7821 2.3917
3.5096 3.9247 2.3917
3.3752 4.0634 2.3917
3.2359 4.1980 2.3917
3.0918 4.3283 2.3917
2.9429 4.4543 2.3917
2.7896 4.5757 2.3917
2.6316 4.6924 2.3917
2.4694 4.8041 2.3917
2.3029 4.9109 2.3917
2.1322 5.0123 2.3917
0.8184 2.1356 0.9999
0.7411 2.1656 0.9963
0.6628 2.1928 0.9926
0.5836 2.2172 0.9888
0.5035 2.2387 0.9850
0.4227 2.2572 0.9811
0.3413 2.2729 0.9772
0.2593 2.2855 0.9732
0.1769 2.2953 0.9692
0.0943 2.3020 0.9651
0.0115 2.3057 0.9610
-0.0715 2.3065 0.9569
-0.1544 2.3042 0.9528
-0.2372 2.2990 0.9486
-0.3197 2.2908 0.9444
-0.4019 2.2795 0.9403
-0.4836 2.2654 0.9361
-0.5647 2.2482 0.9319
-0.6452 2.2282 0.9277
-0.7249 2.2052 0.9236
-0.8037 2.1794 0.9195
-0.8816 2.1508 0.9154
-0.9583 2.1194 0.9113
-2.7255 5.4968 2.3917
-2.9342 5.4234 2.3917
-3.1409 5.3419 2.3917
-3.3453 5.2525 2.3917
-3.5470 5.1551 2.3917
-3.7457 5.0498 2.3917
-3.9410 4.9367 2.3917
-4.1327 4.8158 2.3917
-4.3203 4.6872 2.3917
-4.5035 4.5510 2.3917
-4.6820 4.4074 2.3917
-4.8554 4.2565 2.3917
-5.0234 4.0985 2.3917
-5.1856 3.9336 2.3917
-5.3418 3.7620 2.3917
-5.4915 3.5838 2.3917
-5.6345 3.3994 2.3917
-5.7705 3.2089 2.3917
-5.8992 3.0127 2.3917
-6.0202 2.8111 2.3917
-6.1334 2.6043 2.3917
-6.2384 2.3927 2.3917
-6.3350 2.1767 2.3917
-6.4231 1.9564 2.3917
-6.5023 1.7325 2.3917
-6.5724 1.5051 2.3917
-6.6334 1.2748 2.3917
-6.6850 1.0419 2.3917
-6.7272 0.8067 2.3917
-6.7597 0.5699 2.3917
-6.7825 0.3317 2.3917
-6.7956 0.0926 2.3917
-6.7989 -0.1470 2.3917
-6.7924 -0.3866 2.3917
-6.7761 -0.6258 2.3917
-6.7499 -0.8641 2.3917
-6.7140 -1.1011 2.3917
-6.6684 -1.3365 2.3917
-6.6133 -1.5696 2.3917
-6.5486 -1.8002 2.3917
-6.4746 -2.0278 2.3917
-6.3915 -2.2520 2.3917
-6.2993 -2.4724 2.3917
-6.1984 -2.6887 2.3917
-6.0889 -2.9003 2.3917
-5.9711 -3.1071 2.3917
-5.8451 -3.3086 2.3917
-5.7114 -3.5045 2.3917
-5.5702 -3.6945 2.3917
-5.4217 -3.8784 2.3917
-5.2663 -4.0557 2.3917
-5.1043 -4.2263 2.3917
-4.9361 -4.3900 2.3917
-4.7619 -4.5464 2.3917
-4.5822 -4.6955 2.3917
-4.3973 -4.8369 2.3917
-4.2075 -4.9706 2.3917
-4.0133 -5.0965 2.3917
-3.8149 -5.2142 2.3917
-3.6128 -5.3239 2.3917
-3.4073 -5.4254 2.3917
-3.1987 -5.5185 2.3917
-2.9876 -5.6033 2.3917
-2.7741 -5.6798 2.3917
-2.5587 -5.7478 2.3917
-2.3418 -5.8074 2.3917
-2.1236 -5.8587 2.3917
-1.9045 -5.9016 2.3917
-1.6849 -5.9362 2.3917
-1.4651 -5.9625 2.3917
-1.2454 -5.9806 2.3917
-1.0262 -5.9906 2.3917
-0.8076 -5.9926 2.3917
-0.5901 -5.9867 2.3917
-0.3739 -5.9730 2.3917
-0.1593 -5.9516 2.3917
0.0534 -5.9226 2.3917
0.2641 -5.8862 2.3917
0.4723 -5.8426 2.3917
0.6780 -5.7919 2.3917
0.8808 -5.7342 2.3917
1.0806 -5.6697 2.3917
1.2771 -5.5986 2.3917
1.4702 -5.5211 2.3917
1.6596 -5.4373 2.3917
1.8452 -5.3474 2.3917
2.0268 -5.2516 2.3917
2.2042 -5.1501 2.3917
2.3773 -5.0430 2.3917
2.5460 -4.9306 2.3917
2.7100 -4.8130 2.3917
2.8694 -4.6905 2.3917
3.0239 -4.5632 2.3917
3.1734 -4.4313 2.3917
3.3179 -4.2950 2.3917
3.4572 -4.1545 2.3917
3.5913 -4.0099 2.3917
3.7200 -3.8616 2.3917
3.8433 -3.7096 2.3917
3.9612 -3.5541 2.3917
4.0734 -3.3954 2.3917
4.1801 -3.2336 2.3917
4.2811 -3.0689 2.3917
4.3764 -2.9015 2.3917
4.4659 -2.7315 2.3917
4.5496 -2.5592 2.3917
4.6275 -2.3847 2.3917
4.6853 -2.2015 2.3845
4.7093 -2.0059 2.3635
4.7323 -1.8141 2.3454
4.7545 -1.6255 2.3302
4.7758 -1.4397 2.3178
4.7965 -1.2562 2.3080
4.8164 -1.0744 2.3009
4.8358 -0.8940 2.2963
4.8546 -0.7144 2.2942
4.8729 -0.5353 2.2946
4.8907 -0.3562 2.2974
4.9082 -0.1768 2.3028
4.9252 0.0035 2.3107
4.9419 0.1851 2.3212
4.9584 0.3684 2.3343
4.9749 0.5539 2.3503
4.9912 0.7421 2.3691
5.0072 0.9336 2.3908
4.9736 1.1177 2.3917
4.9322 1.3002 2.3917
4.8849 1.4815 2.3917
4.8318 1.6614 2.3917
4.7728 1.8396 2.3917
4.7082 2.0160 2.3917
4.6378 2.1904 2.3917
4.5617 2.3628 2.3917
4.4800 2.5328 2.3917
4.3927 2.7005 2.3917
4.2999 2.8655 2.3917
4.2016 3.0278 2.3917
4.0979 3.1872 2.3917
3.9888 3.3435 2.3917
3.8745 3.4965 2.3917
3.7549 3.6461 2.3917
3.6302 3.7922 2.3917
3.5004 3.9345 2.3917
3.3656 4.0729 2.3917
3.2260 4.2072 2.3917
3.0815 4.3373 2.3917
2.9324 4.4629 2.3917
2.7787 4.5840 2.3917
2.6205 4.7003 2.3917
2.4579 4.8118 2.3917
2.2911 4.9181 2.3917
2.1202 5.0192 2.3917
0.8131 2.1378 0.9996
0.7357 2.1676 0.9960
0.6573 2.1946 0.9923
0.5780 2.2188 0.9886
0.4979 2.2401 0.9847
0.4170 2.2584 0.9809
0.3356 2.2738 0.9769
0.2536 2.2863 0.9729
0.1712 2.2958 0.9689
0.0885 2.3024 0.9648
0.0057 2.3059 0.9608
-0.0773 2.3064 0.9566
-0.1602 2.3040 0.9525
-0.2429 2.2985 0.9483
-0.3254 2.2901 0.9441
-0.4076 2.2786 0.9400
-0.4893 2.2643 0.9358
-0.5704 2.2469 0.9316
-0.6508 2.2267 0.9274
-0.7305 2.2035 0.9233
-0.8092 2.1775 0.9192
-0.8870 2.1487 0.9151
-2.5299 5.5579 2.3917
-2.7401 5.4920 2.3917
-2.9487 5.4180 2.3917
-3.1553 5.3360 2.3917
-3.3595 5.2460 2.3917
-3.5610 5.1480 2.3917
-3.7594 5.0422 2.3917
-3.9545 4.9285 2.3917
-4.1459 4.8070 2.3917
-4.3332 4.6779 2.3917
-4.5161 4.5412 2.3917
-4.6943 4.3971 2.3917
-4.8673 4.2457 2.3917
-5.0349 4.0873 2.3917
-5.1967 3.9219 2.3917
-5.3524 3.7497 2.3917
-5.5017 3.5711 2.3917
-5.6442 3.3863 2.3917
-5.7797 3.1954 2.3917
-5.9079 2.9989 2.3917
-6.0284 2.7969 2.3917
-6.1410 2.5897 2.3917
-6.2454 2.3778 2.3917
-6.3415 2.1614 2.3917
-6.4289 1.9409 2.3917
-6.5074 1.7167 2.3917
-6.5770 1.4892 2.3917
-6.6373 1.2586 2.3917
-6.6883 1.0255 2.3917
-6.7297 0.7903 2.3917
-6.7616 0.5533 2.3917
-6.7838 0.3150 2.3917
-6.7962 0.0759 2.3917
-6.7988 -0.1637 2.3917
-6.7916 -0.4033 2.3917
-6.7746 -0.6424 2.3917
-6.7477 -0.8807 2.3917
-6.7112 -1.1176 2.3917
-6.6649 -1.3528 2.3917
-6.6091 -1.5858 2.3917
-6.5437 -1.8162 2.3917
-6.4691 -2.0436 2.3917
-6.3854 -2.2675 2.3917
-6.2926 -2.4876 2.3917
-6.1911 -2.7036 2.3917
-6.0810 -2.9149 2.3917
-5.9625 -3.1213 2.3917
-5.8361 -3.3224 2.3917
-5.7018 -3.5180 2.3917
-5.5600 -3.7076 2.3917
-5.4111 -3.8909 2.3917
-5.2552 -4.0678 2.3917
-5.0928 -4.2380 2.3917
-4.9241 -4.4011 2.3917
-4.7496 -4.5571 2.3917
-4.5695 -4.7056 2.3917
-4.3842 -4.8465 2.3917
-4.1941 -4.9797 2.3917
-3.9996 -5.1049 2.3917
-3.8009 -5.2222 2.3917
-3.5985 -5.3313 2.3917
-3.3928 -5.4321 2.3917
-3.1841 -5.5247 2.3917
-2.9727 -5.6089 2.3917
-2.7591 -5.6848 2.3917
-2.5436 -5.7522 2.3917
-2.3266 -5.8113 2.3917
-2.1083 -5.8619 2.3917
-1.8893 -5.9043 2.3917
-1.6696 -5.9383 2.3917
-1.4498 -5.9640 2.3917
-1.2301 -5.9816 2.3917
-1.0109 -5.9910 2.3917
-0.7924 -5.9924 2.3917
-0.5750 -5.9860 2.3917
1.3626 -5.1973 2.3917
1.5414 -5.1202 2.3917
1.7166 -5.0373 2.3917
1.8882 -4.9488 2.3917
2.0560 -4.8548 2.3917
2.2197 -4.7555 2.3917
2.3794 -4.6511 2.3917
2.5348 -4.5417 2.3917
2.6858 -4.4276 2.3917
2.8323 -4.3089 2.3917
2.9742 -4.1858 2.3917
3.1113 -4.0585 2.3917
3.2437 -3.9271 2.3917
3.3711 -3.7918 2.3917
3.4935 -3.6528 2.3917
3.6109 -3.5103 2.3917
3.7230 -3.3645 2.3917
3.8300 -3.2155 2.3917
3.9317 -3.0635 2.3917
4.0281 -2.9086 2.3917
4.1190 -2.7512 2.3917
4.2045 -2.5912 2.3917
4.2845 -2.4290 2.3917
4.3590 -2.2646 2.3917
4.4279 -2.0983 2.3917
4.4912 -1.9302 2.3917
4.5489 -1.7604 2.3917
4.6010 -1.5892 2.3917
4.6473 -1.4167 2.3917
4.6880 -1.2431 2.3917
4.7230 -1.0685 2.3917
4.7523 -0.8931 2.3917
4.7759 -0.7170 2.3917
4.7938 -0.5405 2.3917
4.8059 -0.3637 2.3917
4.8123 -0.1867 2.3917
4.8130 -0.0096 2.3917
4.8081 0.1672 2.3917
4.7974 0.3438 2.3917
4.7810 0.5199 2.3917
4.7590 0.6954 2.3917
4.7313 0.8700 2.3917
4.6980 1.0438 2.3917
4.6591 1.2165 2.3917
4.6146 1.3879 2.3917
4.5646 1.5579 2.3917
4.5090 1.7264 2.3917
4.4480 1.8932 2.3917
4.3816 2.0581 2.3917
4.3097 2.2210 2.3917
4.2326 2.3816 2.3917
4.1501 2.5400 2.3917
4.0623 2.6959 2.3917
3.9694 2.8491 2.3917
3.8713 2.9996 2.3917
3.7682 3.1470 2.3917
3.6600 3.2914 2.3917
3.5470 3.4325 2.3917
3.4291 3.5701 2.3917
3.3064 3.7042 2.3917
3.1790 3.8345 2.3917
3.0469 3.9609 2.3917
2.9104 4.0832 2.3917
2.7695 4.2014 2.3917
2.6243 4.3151 2.3917
2.4749 4.4244 2.3917
2.3214 4.5289 2.3917
2.1640 4.6286 2.3917
0.8370 1.9739 0.9995
0.7655 2.0047 0.9962
0.6929 2.0328 0.9928
0.6194 2.0584 0.9894
0.5450 2.0812 0.9858
0.4698 2.1014 0.9823
0.3939 2.1188 0.9786
0.3175 2.1335 0.9749
0.2405 2.1454 0.9712
0.1632 2.1545 0.9674
0.0856 2.1608 0.9636
0.0079 2.1643 0.9598
-0.0700 2.1650 0.9559
-0.1478 2.1629 0.9520
-0.2255 2.1579 0.9481
-0.3030 2.1502 0.9442
-0.3802 2.1397 0.9402
-0.4569 2.1264 0.9363
-0.5331 2.1103 0.9324
-0.6086 2.0915 0.9285
-0.6834 2.0699 0.9246
-0.7574 2.0457 0.9207
-0.8305 2.0188 0.9169
-0.9026 1.9893 0.9131
-2.5607 5.1482 2.3917
-2.7554 5.0780 2.3917
-2.9482 5.0003 2.3917
-3.1388 4.9153 2.3917
-3.3267 4.8228 2.3917
-3.5117 4.7230 2.3917
-3.6935 4.6159 2.3917
-3.8717 4.5017 2.3917
-4.0461 4.3803 2.3917
-4.2163 4.2520 2.3917
-4.3821 4.1167 2.3917
-4.5430 3.9748 2.3917
-4.6988 3.8264 2.3917
-4.8492 3.6715 2.3917
-4.9939 3.5105 2.3917
-5.1326 3.3435 2.3917
-5.2650 3.1707 2.3917
-5.3908 2.9924 2.3917
-5.5098 2.8089 2.3917
-5.6217 2.6203 2.3917
-5.7263 2.4271 2.3917
-5.8233 2.2295 2.3917
-5.9125 2.0277 2.3917
-5.9936 1.8222 2.3917
-6.0667 1.6133 2.3917
-6.1313 1.4013 2.3917
-6.1874 1.1866 2.3917
-6.2349 0.9695 2.3917
-6.2736 0.7504 2.3917
-6.3035 0.5298 2.3917
-6.3244 0.3079 2.3917
-6.3363 0.0853 2.3917
-6.3391 -0.1378 2.3917
-6.3328 -0.3609 2.3917
-6.3175 -0.5836 2.3917
-6.2932 -0.8055 2.3917
-6.2598 -1.0262 2.3917
-6.2175 -1.2454 2.3917
-6.1664 -1.4625 2.3917
-6.1065 -1.6773 2.3917
-6.0379 -1.8894 2.3917
-5.9609 -2.0983 2.3917
-5.8756 -2.3038 2.3917
-5.7822 -2.5055 2.3917
-5.6807 -2.7029 2.3917
-5.5716 -2.8959 2.3917
-5.4550 -3.0840 2.3917
-5.3311 -3.2671 2.3917
-5.2002 -3.4447 2.3917
-5.0626 -3.6166 2.3917
-4.9186 -3.7826 2.3917
-4.7684 -3.9424 2.3917
-4.6124 -4.0958 2.3917
-4.4508 -4.2426 2.3917
-4.2840 -4.3825 2.3917
-4.1123 -4.5155 2.3917
-3.9360 -4.6413 2.3917
-3.7555 -4.7599 2.3917
-3.5710 -4.8710 2.3917
-3.3830 -4.9746 2.3917
-3.1918 -5.0706 2.3917
-2.9977 -5.1590 2.3917
-2.8010 -5.2396 2.3917
-2.6020 -5.3124 2.3917
-2.4012 -5.3775 2.3917
-2.1988 -5.4347 2.3917
-1.9952 -5.4841 2.3917
-1.7907 -5.5258 2.3917
-1.5855 -5.5597 2.3917
-1.3800 -5.5858 2.3917
-1.1745 -5.6044 2.3917
-0.9693 -5.6153 2.3917
-0.7647 -5.6187 2.3917
-0.5609 -5.6147 2.3917
-0.3582 -5.6034 2.3917
-0.1569 -5.5849 2.3917
0.0427 -5.5593 2.3917
0.2405 -5.5266 2.3917
0.4362 -5.4872 2.3917
0.6295 -5.4410 2.3917
0.8203 -5.3882 2.3917
1.0083 -5.3291 2.3917
1.1933 -5.2636 2.3917
1.3752 -5.1921 2.3917
1.5537 -5.1146 2.3917
1.7287 -5.0313 2.3917
1.9001 -4.9424 2.3917
2.0675 -4.8480 2.3917
2.2310 -4.7484 2.3917
2.3904 -4.6436 2.3917
2.5455 -4.5339 2.3917
2.6962 -4.4195 2.3917
2.8423 -4.3005 2.3917
2.9839 -4.1771 2.3917
3.1207 -4.0494 2.3917
3.2527 -3.9178 2.3917
3.3798 -3.7822 2.3917
3.5019 -3.6430 2.3917
3.6189 -3.5003 2.3917
3.7307 -3.3542 2.3917
3.8373 -3.2050 2.3917
3.9386 -3.0527 2.3917
4.0346 -2.8977 2.3917
4.1251 -2.7401 2.3917
4.2103 -2.5800 2.3917
4.2899 -2.4176 2.3917
4.3640 -2.2531 2.3917
4.4325 -2.0866 2.3917
4.4954 -1.9184 2.3917
4.5527 -1.7485 2.3917
4.6044 -1.5772 2.3917
4.6504 -1.4046 2.3917
4.6907 -1.2309 2.3917
4.7253 -1.0563 2.3917
4.7542 -0.8808 2.3917
4.7773 -0.7047 2.3917
4.7948 -0.5282 2.3917
4.8065 -0.3513 2.3917
4.8125 -0.1743 2.3917
4.8129 0.0027 2.3917
4.8075 0.1796 2.3917
4.7964 0.3561 2.3917
4.7796 0.5321 2.3917
4.7572 0.7076 2.3917
4.7291 0.8822 2.3917
4.6954 1.0559 2.3917
4.6561 1.2285 2.3917
4.6113 1.3998 2.3917
4.5609 1.5697 2.3917
4.5050 1.7381 2.3917
4.4436 1.9047 2.3917
4.3767 2.0695 2.3917
4.3045 2.2322 2.3917
4.2270 2.3928 2.3917
4.1441 2.5510 2.3917
4.0560 2.7067 2.3917
3.9627 2.8597 2.3917
3.8643 3.0099 2.3917
3.7608 3.1572 2.3917
3.6523 3.3013 2.3917
3.5389 3.4422 2.3917
3.4207 3.5796 2.3917
3.2976 3.7134 2.3917
3.1699 3.8434 2.3917
3.0376 3.9696 2.3917
2.9008 4.0916 2.3917
2.7595 4.2095 2.3917
2.6140 4.3229 2.3917
2.4643 4.4318 2.3917
2.3106 4.5360 2.3917
2.1529 4.6354 2.3917
0.8320 1.9762 0.9993
0.7605 2.0067 0.9960
0.6878 2.0347 0.9926
0.6142 2.0600 0.9891
0.5398 2.0827 0.9856
0.4645 2.1027 0.9820
0.3886 2.1199 0.9784
0.3121 2.1344 0.9747
0.2352 2.1461 0.9709
0.1578 2.1550 0.9671
0.0802 2.1611 0.9633
0.0024 2.1644 0.9595
-0.0754 2.1649 0.9556
-0.1532 2.1626 0.9517
-0.2309 2.1575 0.9478
-0.3084 2.1496 0.9439
-0.3855 2.1388 0.9400
-0.4622 2.1253 0.9360
-0.5383 2.1091 0.9321
-0.6139 2.0901 0.9282
-0.6886 2.0683 0.9243
-0.7626 2.0439 0.9205
-0.8356 2.0168 0.9166
-0.9076 1.9872 0.9128
-2.5743 5.1435 2.3917
-2.7690 5.0728 2.3917
-2.9616 4.9946 2.3917
-3.1519 4.9091 2.3917
-3.3397 4.8161 2.3917
-3.5245 4.7158 2.3917
-3.7060 4.6082 2.3917
-3.8840 4.4934 2.3917
-4.0581 4.3716 2.3917
-4.2280 4.2427 2.3917
-4.3935 4.1071 2.3917
-4.5540 3.9647 2.3917
-4.7095 3.8158 2.3917
-4.8595 3.6605 2.3917
-5.0038 3.4990 2.3917
-5.1421 3.3316 2.3917
-5.2740 3.1584 2.3917
-5.3994 2.9798 2.3917
-5.5179 2.7959 2.3917
-5.6293 2.6070 2.3917
-5.7333 2.4134 2.3917
-5.8297 2.2155 2.3917
-5.9184 2.0135 2.3917
-5.9990 1.8078 2.3917
-6.0714 1.5986 2.3917
-6.1355 1.3864 2.3917
-6.1910 1.1715 2.3917
-6.2379 0.9543 2.3917
-6.2760 0.7351 2.3917
-6.3052 0.5143 2.3917
-6.3255 0.2924 2.3917
-6.3368 0.0697 2.3917
-6.3389 -0.1534 2.3917
-6.3321 -0.3764 2.3917
-6.3161 -0.5991 2.3917
-6.2911 -0.8209 2.3917
-6.2572 -1.0416 2.3917
-6.2142 -1.2606 2.3917
-6.1625 -1.4776 2.3917
-6.1020 -1.6922 2.3917
-6.0329 -1.9041 2.3917
-5.9553 -2.1128 2.3917
-5.8694 -2.3180 2.3917
-5.7753 -2.5194 2.3917
-5.6734 -2.7165 2.3917
-5.5637 -2.9092 2.3917
-5.4466 -3.0970 2.3917
-5.3222 -3.2796 2.3917
-5.1909 -3.4569 2.3917
-5.0528 -3.6284 2.3917
-4.9083 -3.7940 2.3917
-4.7577 -3.9533 2.3917
-4.6013 -4.1062 2.3917
-4.4393 -4.2525 2.3917
-4.2721 -4.3920 2.3917
-4.1001 -4.5245 2.3917
-3.9235 -4.6498 2.3917
-3.7427 -4.7678 2.3917
-3.5580 -4.8785 2.3917
-3.3698 -4.9816 2.3917
-3.1783 -5.0770 2.3917
-2.9840 -5.1648 2.3917
-2.7872 -5.2449 2.3917
-2.5881 -5.3172 2.3917
-2.3872 -5.3817 2.3917
-2.1847 -5.4384 2.3917
-1.9810 -5.4873 2.3917
-1.7764 -5.5284 2.3917
-1.5712 -5.5617 2.3917
-1.3657 -5.5874 2.3917
-1.1602 -5.6054 2.3917
-0.9550 -5.6158 2.3917
-0.7504 -5.6187 2.3917
-0.5467 -5.6142 2.3917
1.2774 -4.8995 2.3917
1.4463 -4.8280 2.3917
1.6119 -4.7509 2.3917
1.7742 -4.6684 2.3917
1.9328 -4.5808 2.3917
2.0878 -4.4881 2.3917
2.2389 -4.3905 2.3917
2.3861 -4.2882 2.3917
2.5292 -4.1813 2.3917
2.6681 -4.0700 2.3917
2.8026 -3.9545 2.3917
2.9327 -3.8349 2.3917
3.0584 -3.7115 2.3917
3.1793 -3.5843 2.3917
3.2956 -3.4535 2.3917
3.4071 -3.3193 2.3917
3.5137 -3.1820 2.3917
3.6155 -3.0415 2.3917
3.7122 -2.8982 2.3917
3.8039 -2.7522 2.3917
3.8904 -2.6035 2.3917
3.9718 -2.4525 2.3917
4.0480 -2.2993 2.3917
4.1190 -2.1440 2.3917
4.1847 -1.9868 2.3917
4.2451 -1.8279 2.3917
4.3001 -1.6673 2.3917
4.3498 -1.5054 2.3917
4.3940 -1.3422 2.3917
4.4329 -1.1778 2.3917
4.4664 -1.0126 2.3917
4.4944 -0.8465 2.3917
4.5170 -0.6798 2.3917
4.5341 -0.5127 2.3917
4.5458 -0.3452 2.3917
4.5520 -0.1775 2.3917
4.5528 -0.0098 2.3917
4.5482 0.1577 2.3917
4.5381 0.3250 2.3917
4.5226 0.4918 2.3917
4.5017 0.6580 2.3917
4.4755 0.8235 2.3917
4.4438 0.9880 2.3917
4.4069 1.1516 2.3917
4.3646 1.3139 2.3917
4.3171 1.4749 2.3917
4.2643 1.6344 2.3917
4.2062 1.7923 2.3917
4.1431 1.9483 2.3917
4.0748 2.1024 2.3917
4.0014 2.2544 2.3917
3.9229 2.4042 2.3917
3.8395 2.5516 2.3917
3.7512 2.6964 2.3917
3.6580 2.8385 2.3917
3.5600 2.9778 2.3917
3.4572 3.1140 2.3917
3.3498 3.2471 2.3917
3.2378 3.3770 2.3917
3.1213 3.5033 2.3917
3.0003 3.6261 2.3917
2.8750 3.7451 2.3917
2.7455 3.8602 2.3917
2.6118 3.9713 2.3917
2.4741 4.0782 2.3917
2.3325 4.1807 2.3917
2.1870 4.2788 2.3917
0.8513 1.8264 0.9991
0.7851 1.8577 0.9960
0.7178 1.8867 0.9929
0.6495 1.9132 0.9897
0.5803 1.9372 0.9865
0.5102 1.9587 0.9831
0.4394 1.9776 0.9798
0.3680 1.9940 0.9763
0.2961 2.0078 0.9729
0.2236 2.0190 0.9694
0.1509 2.0276 0.9658
0.0778 2.0335 0.9622
0.0046 2.0368 0.9586
-0.0687 2.0375 0.9549
-0.1419 2.0355 0.9513
-0.2151 2.0308 0.9476
-0.2880 2.0235 0.9439
-0.3606 2.0136 0.9402
-0.4328 2.0011 0.9365
-0.5045 1.9860 0.9328
-0.5756 1.9683 0.9292
-0.6461 1.9480 0.9255
-0.7157 1.9252 0.9219
-0.7845 1.8999 0.9182
-0.8523 1.8721 0.9146
-0.9191 1.8419 0.9111
-2.5951 4.7682 2.3917
-2.7755 4.6941 2.3917
-2.9537 4.6131 2.3917
-3.1293 4.5252 2.3917
-3.3022 4.4305 2.3917
-3.4720 4.3290 2.3917
-3.6384 4.2208 2.3917
-3.8011 4.1061 2.3917
-3.9598 3.9848 2.3917
-4.1143 3.8572 2.3917
-4.2642 3.7234 2.3917
-4.4093 3.5835 2.3917
-4.5493 3.4378 2.3917
-4.6839 3.2863 2.3917
-4.8129 3.1293 2.3917
-4.9359 2.9670 2.3917
-5.0528 2.7996 2.3917
-5.1633 2.6274 2.3917
-5.2672 2.4506 2.3917
-5.3642 2.2695 2.3917
-5.4541 2.0843 2.3917
-5.5368 1.8954 2.3917
-5.6121 1.7030 2.3917
-5.6797 1.5074 2.3917
-5.7395 1.3091 2.3917
-5.7914 1.1082 2.3917
-5.8353 0.9053 2.3917
-5.8711 0.7005 2.3917
-5.8986 0.4942 2.3917
-5.9178 0.2869 2.3917
-5.9286 0.0788 2.3917
-5.9310 -0.1297 2.3917
-5.9251 -0.3381 2.3917
-5.9107 -0.5462 2.3917
-5.8880 -0.7535 2.3917
-5.8568 -0.9598 2.3917
-5.8174 -1.1645 2.3917
-5.7698 -1.3675 2.3917
-5.7141 -1.5683 2.3917
-5.6504 -1.7665 2.3917
-5.5788 -1.9619 2.3917
-5.4995 -2.1541 2.3917
-5.4125 -2.3428 2.3917
-5.3182 -2.5276 2.3917
-5.2168 -2.7083 2.3917
-5.1083 -2.8845 2.3917
-4.9931 -3.0560 2.3917
-4.8713 -3.2226 2.3917
-4.7433 -3.3838 2.3917
-4.6093 -3.5396 2.3917
-4.4695 -3.6897 2.3917
-4.3242 -3.8339 2.3917
-4.1737 -3.9719 2.3917
-4.0182 -4.1037 2.3917
-3.8582 -4.2290 2.3917
-3.6938 -4.3477 2.3917
-3.5255 -4.4596 2.3917
-3.3534 -4.5646 2.3917
-3.1779 -4.6627 2.3917
-2.9993 -4.7538 2.3917
-2.8180 -4.8377 2.3917
-2.6341 -4.9144 2.3917
-2.4481 -4.9838 2.3917
-2.2603 -5.0460 2.3917
-2.0709 -5.1009 2.3917
-1.8802 -5.1486 2.3917
-1.6886 -5.1889 2.3917
-1.4963 -5.2220 2.3917
-1.3036 -5.2479 2.3917
-1.1108 -5.2666 2.3917
-0.9182 -5.2782 2.3917
-0.7260 -5.2827 2.3917
-0.5345 -5.2803 2.3917
-0.3440 -5.2710 2.3917
-0.1547 -5.2548 2.3917
0.0331 -5.2320 2.3917
0.2193 -5.2026 2.3917
0.4036 -5.1667 2.3917
0.5858 -5.1245 2.3917
0.7657 -5.0760 2.3917
0.9430 -5.0215 2.3917
1.1176 -4.9610 2.3917
1.2893 -4.8947 2.3917
1.4580 -4.8228 2.3917
1.6234 -4.7453 2.3917
1.7853 -4.6625 2.3917
1.9438 -4.5745 2.3917
2.0985 -4.4814 2.3917
2.2493 -4.3835 2.3917
2.3962 -4.2809 2.3917
2.5390 -4.1737 2.3917
2.6776 -4.0621 2.3917
2.8119 -3.9463 2.3917
2.9417 -3.8264 2.3917
3.0669 -3.7027 2.3917
3.1876 -3.5753 2.3917
3.3036 -3.4443 2.3917
3.4147 -3.3099 2.3917
3.5210 -3.1723 2.3917
3.6224 -3.0316 2.3917
3.7187 -2.8881 2.3917
3.8101 -2.7419 2.3917
3.8963 -2.5931 2.3917
3.9773 -2.4419 2.3917
4.0532 -2.2885 2.3917
4.1238 -2.1331 2.3917
4.1891 -1.9758 2.3917
4.2491 -1.8167 2.3917
4.3037 -1.6561 2.3917
4.3530 -1.4940 2.3917
4.3969 -1.3307 2.3917
4.4354 -1.1663 2.3917
4.4685 -1.0010 2.3917
4.4961 -0.8349 2.3917
4.5183 -0.6682 2.3917
4.5351 -0.5010 2.3917
4.5464 -0.3335 2.3917
4.5522 -0.1658 2.3917
4.5527 0.0019 2.3917
4.5476 0.1694 2.3917
4.5372 0.3366 2.3917
4.5213 0.5034 2.3917
4.5001 0.6696 2.3917
4.4734 0.8350 2.3917
4.4414 0.9995 2.3917
4.4041 1.1629 2.3917
4.3615 1.3252 2.3917
4.3135 1.4861 2.3917
4.2604 1.6455 2.3917
4.2020 1.8032 2.3917
4.1385 1.9591 2.3917
4.0698 2.1131 2.3917
3.9960 2.2650 2.3917
3.9173 2.4145 2.3917
3.8335 2.5617 2.3917
3.7448 2.7064 2.3917
3.6513 2.8483 2.3917
3.5529 2.9874 2.3917
3.4499 3.1234 2.3917
3.3421 3.2563 2.3917
3.2298 3.3859 2.3917
3.1130 3.5120 2.3917
2.9917 3.6345 2.3917
2.8661 3.7533 2.3917
2.7363 3.8681 2.3917
2.6023 3.9789 2.3917
2.4644 4.0855 2.3917
2.3224 4.1877 2.3917
2.1767 4.2855 2.3917
0.8467 1.8287 0.9989
0.7804 1.8598 0.9958
0.7130 1.8886 0.9927
0.6447 1.9149 0.9895
0.5754 1.9388 0.9862
0.5053 1.9601 0.9829
0.4345 1.9789 0.9795
0.3630 1.9951 0.9761
0.2910 2.0087 0.9726
0.2186 2.0197 0.9691
0.1458 2.0281 0.9655
0.0727 2.0338 0.9620
-0.0005 2.0370 0.9583
-0.0738 2.0374 0.9547
-0.1470 2.0352 0.9510
-0.2202 2.0304 0.9473
-0.2931 2.0229 0.9437
-0.3656 2.0128 0.9400
-0.4378 2.0001 0.9363
-0.5095 1.9848 0.9326
-0.5806 1.9669 0.9289
-0.6509 1.9465 0.9252
-0.7205 1.9235 0.9216
-0.7893 1.8980 0.9180
-0.8570 1.8701 0.9144
-0.9237 1.8397 0.9108
-2.6077 4.7632 2.3917
-2.7880 4.6887 2.3917
-2.9660 4.6072 2.3917
-3.1415 4.5188 2.3917
-3.3142 4.4236 2.3917
-3.4837 4.3217 2.3917
-3.6498 4.2130 2.3917
-3.8123 4.0978 2.3917
-3.9707 3.9761 2.3917
-4.1249 3.8481 2.3917
-4.2745 3.7139 2.3917
-4.4192 3.5736 2.3917
-4.5588 3.4274 2.3917
-4.6931 3.2755 2.3917
-4.8216 3.1182 2.3917
-4.9443 2.9555 2.3917
-5.0607 2.7878 2.3917
-5.1708 2.6152 2.3917
-5.2742 2.4381 2.3917
-5.3707 2.2567 2.3917
-5.4601 2.0712 2.3917
-5.5423 1.8820 2.3917
-5.6170 1.6894 2.3917
-5.6841 1.4937 2.3917
-5.7434 1.2952 2.3917
-5.7948 1.0941 2.3917
-5.8381 0.8910 2.3917
-5.8732 0.6861 2.3917
-5.9002 0.4798 2.3917
-5.9188 0.2724 2.3917
-5.9291 0.0643 2.3917
-5.9309 -0.1442 2.3917
-5.9244 -0.3526 2.3917
-5.9094 -0.5607 2.3917
-5.8861 -0.7679 2.3917
-5.8544 -0.9741 2.3917
-5.8144 -1.1788 2.3917
-5.7662 -1.3816 2.3917
-5.7099 -1.5822 2.3917
-5.6456 -1.7803 2.3917
-5.5735 -1.9754 2.3917
-5.4936 -2.1674 2.3917
-5.4062 -2.3558 2.3917
-5.3114 -2.5403 2.3917
-5.2094 -2.7207 2.3917
-5.1005 -2.8966 2.3917
-4.9848 -3.0678 2.3917
-4.8626 -3.2340 2.3917
-4.7342 -3.3949 2.3917
-4.5997 -3.5503 2.3917
-4.4595 -3.7000 2.3917
-4.3138 -3.8437 2.3917
-4.1630 -3.9813 2.3917
-4.0072 -4.1127 2.3917
-3.8469 -4.2375 2.3917
-3.6822 -4.3557 2.3917
-3.5136 -4.4671 2.3917
-3.3413 -4.5717 2.3917
-3.1655 -4.6693 2.3917
-2.9868 -4.7598 2.3917
-2.8052 -4.8432 2.3917
-2.6212 -4.9194 2.3917
-2.4351 -4.9884 2.3917
-2.2471 -5.0501 2.3917
-2.0576 -5.1045 2.3917
-1.8669 -5.1516 2.3917
-1.6752 -5.1915 2.3917
-1.4828 -5.2241 2.3917
-1.2901 -5.2494 2.3917
-1.0974 -5.2676 2.3917
-0.9048 -5.2787 2.3917
-0.7126 -5.2828 2.3917
-0.5212 -5.2799 2.3917
1.2000 -4.6288 2.3917
1.3598 -4.5622 2.3917
1.5166 -4.4903 2.3917
1.6703 -4.4133 2.3917
1.8207 -4.3313 2.3917
1.9676 -4.2445 2.3917
2.1109 -4.1530 2.3917
2.2506 -4.0570 2.3917
2.3864 -3.9566 2.3917
2.5182 -3.8520 2.3917
2.6461 -3.7434 2.3917
2.7697 -3.6308 2.3917
2.8891 -3.5145 2.3917
3.0041 -3.3946 2.3917
3.1147 -3.2713 2.3917
3.2208 -3.1447 2.3917
3.3223 -3.0151 2.3917
3.4192 -2.8824 2.3917
3.5113 -2.7470 2.3917
3.5986 -2.6089 2.3917
3.6811 -2.4684 2.3917
3.7587 -2.3255 2.3917
3.8314 -2.1805 2.3917
3.8991 -2.0335 2.3917
3.9618 -1.8846 2.3917
4.0194 -1.7341 2.3917
4.0720 -1.5820 2.3917
4.1194 -1.4285 2.3917
4.1617 -1.2738 2.3917
4.1989 -1.1180 2.3917
4.2309 -0.9613 2.3917
4.2577 -0.8038 2.3917
4.2794 -0.6457 2.3917
4.2958 -0.4871 2.3917
4.3071 -0.3282 2.3917
4.3131 -0.1691 2.3917
4.3140 -0.0100 2.3917
4.3096 0.1490 2.3917
4.3001 0.3077 2.3917
4.2855 0.4660 2.3917
4.2656 0.6237 2.3917
4.2407 0.7807 2.3917
4.2106 0.9368 2.3917
4.1754 1.0920 2.3917
4.1352 1.2460 2.3917
4.0899 1.3987 2.3917
4.0397 1.5500 2.3917
3.9844 1.6997 2.3917
3.9243 1.8476 2.3917
3.8592 1.9937 2.3917
3.7893 2.1378 2.3917
3.7147 2.2796 2.3917
3.6353 2.4192 2.3917
3.5511 2.5564 2.3917
3.4624 2.6909 2.3917
3.3692 2.8227 2.3917
3.2714 2.9516 2.3917
3.1692 3.0774 2.3917
3.0626 3.2001 2.3917
2.9518 3.3195 2.3917
2.8368 3.4354 2.3917
2.7177 3.5477 2.3917
2.5946 3.6563 2.3917
2.4676 3.7610 2.3917
2.3368 3.8616 2.3917
2.2023 3.9581 2.3917
0.8618 1.6910 0.9985
0.8005 1.7228 0.9957
0.7380 1.7524 0.9929
0.6745 1.7797 0.9899
0.6101 1.8047 0.9869
0.5448 1.8273 0.9838
0.4787 1.8476 0.9807
0.4119 1.8654 0.9775
0.3445 1.8809 0.9743
0.2766 1.8939 0.9710
0.2083 1.9045 0.9677
0.1397 1.9125 0.9643
0.0708 1.9181 0.9610
0.0017 1.9212 0.9575
-0.0674 1.9219 0.9541
-0.1366 1.9200 0.9506
-0.2056 1.9156 0.9472
-0.2743 1.9087 0.9437
-0.3429 1.8994 0.9402
-0.4110 1.8875 0.9367
-0.4786 1.8733 0.9332
-0.5457 1.8566 0.9298
-0.6122 1.8374 0.9263
-0.6779 1.8159 0.9229
-0.7428 1.7921 0.9195
-0.8067 1.7659 0.9161
-0.8698 1.7374 0.9127
-0.9317 1.7066 0.9094
-2.6196 4.4177 2.3917
-2.7867 4.3405 2.3917
-2.9514 4.2569 2.3917
-3.1135 4.1668 2.3917
-3.2725 4.0705 2.3917
-3.4283 3.9679 2.3917
-3.5805 3.8592 2.3917
-3.7290 3.7445 2.3917
-3.8735 3.6238 2.3917
-4.0136 3.4974 2.3917
-4.1492 3.3654 2.3917
-4.2799 3.2279 2.3917
-4.4055 3.0850 2.3917
-4.5259 2.9371 2.3917
-4.6407 2.7843 2.3917
-4.7497 2.6267 2.3917
-4.8527 2.4647 2.3917
-4.9494 2.2985 2.3917
-5.0398 2.1282 2.3917
-5.1235 1.9542 2.3917
-5.2004 1.7768 2.3917
-5.2704 1.5962 2.3917
-5.3333 1.4127 2.3917
-5.3889 1.2266 2.3917
-5.4371 1.0381 2.3917
-5.4778 0.8478 2.3917
-5.5109 0.6557 2.3917
-5.5364 0.4624 2.3917
-5.5541 0.2680 2.3917
-5.5641 0.0730 2.3917
-5.5662 -0.1224 2.3917
-5.5605 -0.3177 2.3917
-5.5470 -0.5127 2.3917
-5.5256 -0.7070 2.3917
-5.4965 -0.9003 2.3917
-5.4597 -1.0923 2.3917
-5.4152 -1.2825 2.3917
-5.3632 -1.4708 2.3917
-5.3037 -1.6567 2.3917
-5.2369 -1.8399 2.3917
-5.1629 -2.0202 2.3917
-5.0818 -2.1972 2.3917
-4.9938 -2.3707 2.3917
-4.8991 -2.5403 2.3917
-4.7979 -2.7059 2.3917
-4.6904 -2.8670 2.3917
-4.5768 -3.0236 2.3917
-4.4572 -3.1753 2.3917
-4.3320 -3.3219 2.3917
-4.2014 -3.4632 2.3917
-4.0657 -3.5990 2.3917
-3.9251 -3.7292 2.3917
-3.7798 -3.8535 2.3917
-3.6301 -3.9718 2.3917
-3.4764 -4.0839 2.3917
-3.3189 -4.1898 2.3917
-3.1578 -4.2893 2.3917
-2.9935 -4.3823 2.3917
-2.8262 -4.4687 2.3917
-2.6563 -4.5485 2.3917
-2.4839 -4.6215 2.3917
-2.3095 -4.6878 2.3917
-2.1332 -4.7473 2.3917
-1.9555 -4.8000 2.3917
-1.7765 -4.8459 2.3917
-1.5964 -4.8849 2.3917
-1.4157 -4.9172 2.3917
-1.2346 -4.9426 2.3917
-1.0532 -4.9614 2.3917
-0.8720 -4.9734 2.3917
-0.6911 -4.9788 2.3917
-0.5107 -4.9776 2.3917
-0.3312 -4.9700 2.3917
-0.1527 -4.9559 2.3917
0.0244 -4.9354 2.3917
0.2001 -4.9088 2.3917
0.3741 -4.8760 2.3917
0.5461 -4.8372 2.3917
0.7161 -4.7926 2.3917
0.8837 -4.7421 2.3917
1.0488 -4.6860 2.3917
1.2113 -4.6244 2.3917
1.3709 -4.5573 2.3917
1.5275 -4.4851 2.3917
1.6809 -4.4077 2.3917
1.8310 -4.3254 2.3917
1.9777 -4.2382 2.3917
2.1208 -4.1464 2.3917
2.2602 -4.0501 2.3917
2.3957 -3.9494 2.3917
2.5273 -3.8446 2.3917
2.6548 -3.7356 2.3917
2.7781 -3.6228 2.3917
2.8972 -3.5063 2.3917
3.0120 -3.3861 2.3917
3.1223 -3.2626 2.3917
3.2280 -3.1358 2.3917
3.3292 -3.0059 2.3917
3.4257 -2.8731 2.3917
3.5175 -2.7374 2.3917
3.6045 -2.5992 2.3917
3.6867 -2.4585 2.3917
3.7640 -2.3155 2.3917
3.8363 -2.1703 2.3917
3.9037 -2.0232 2.3917
3.9660 -1.8742 2.3917
4.0233 -1.7235 2.3917
4.0755 -1.5713 2.3917
4.1225 -1.4177 2.3917
4.1645 -1.2630 2.3917
4.2013 -1.1071 2.3917
4.2329 -0.9503 2.3917
4.2594 -0.7928 2.3917
4.2807 -0.6346 2.3917
4.2968 -0.4760 2.3917
4.3077 -0.3171 2.3917
4.3133 -0.1580 2.3917
4.3138 0.0011 2.3917
4.3091 0.1600 2.3917
4.2993 0.3187 2.3917
4.2842 0.4770 2.3917
4.2641 0.6347 2.3917
4.2387 0.7916 2.3917
4.2083 0.9477 2.3917
4.1728 1.1028 2.3917
4.1322 1.2567 2.3917
4.0866 1.4093 2.3917
4.0360 1.5605 2.3917
3.9804 1.7100 2.3917
3.9199 1.8579 2.3917
3.8545 2.0038 2.3917
3.7843 2.1477 2.3917
3.7093 2.2895 2.3917
3.6295 2.4289 2.3917
3.5451 2.5658 2.3917
3.4561 2.7002 2.3917
3.3625 2.8317 2.3917
3.2644 2.9604 2.3917
3.1619 3.0861 2.3917
3.0550 3.2086 2.3917
2.9439 3.3277 2.3917
2.8286 3.4434 2.3917
2.7093 3.5554 2.3917
2.5859 3.6637 2.3917
2.4586 3.7681 2.3917
2.3275 3.8685 2.3917
2.1928 3.9647 2.3917
0.8576 1.6933 0.9984
0.7961 1.7250 0.9955
0.7336 1.7544 0.9927
0.6700 1.7815 0.9897
0.6055 1.8063 0.9867
0.5402 1.8288 0.9836
0.4740 1.8489 0.9805
0.4072 1.8666 0.9773
0.3398 1.8819 0.9741
0.2719 1.8947 0.9708
0.2035 1.9051 0.9675
0.1349 1.9130 0.9641
0.0659 1.9184 0.9607
-0.0031 1.9214 0.9573
-0.0723 1.9218 0.9539
-0.1414 1.9197 0.9504
-0.2104 1.9152 0.9469
-0.2791 1.9081 0.9435
-0.3476 1.8986 0.9400
-0.4157 1.8866 0.9365
-0.4833 1.8722 0.9330
-0.5504 1.8553 0.9295
-0.6168 1.8360 0.9261
-0.6824 1.8143 0.9226
-0.7473 1.7903 0.9192
-0.8112 1.7639 0.9158
-0.8741 1.7353 0.9125
-0.9360 1.7044 0.9092
-2.6314 4.4125 2.3917
-2.7983 4.3349 2.3917
-2.9628 4.2508 2.3917
-3.1246 4.1603 2.3917
-3.2834 4.0635 2.3917
-3.4390 3.9605 2.3917
-3.5910 3.8514 2.3917
-3.7392 3.7363 2.3917
-3.8834 3.6152 2.3917
-4.0232 3.4884 2.3917
-4.1584 3.3560 2.3917
-4.2888 3.2181 2.3917
-4.4141 3.0749 2.3917
-4.5341 2.9266 2.3917
-4.6485 2.7734 2.3917
-4.7570 2.6156 2.3917
-4.8596 2.4533 2.3917
-4.9559 2.2867 2.3917
-5.0458 2.1162 2.3917
-5.1291 1.9420 2.3917
-5.2055 1.7643 2.3917
-5.2750 1.5835 2.3917
-5.3374 1.3998 2.3917
-5.3925 1.2135 2.3917
-5.4402 1.0249 2.3917
-5.4804 0.8344 2.3917
-5.5130 0.6423 2.3917
-5.5379 0.4489 2.3917
-5.5551 0.2544 2.3917
-5.5645 0.0594 2.3917
-5.5661 -0.1360 2.3917
-5.5598 -0.3313 2.3917
-5.5457 -0.5263 2.3917
-5.5238 -0.7206 2.3917
-5.4942 -0.9138 2.3917
-5.4569 -1.1056 2.3917
-5.4119 -1.2957 2.3917
-5.3593 -1.4838 2.3917
-5.2993 -1.6695 2.3917
-5.2320 -1.8526 2.3917
-5.1575 -2.0326 2.3917
-5.0759 -2.2094 2.3917
-4.9874 -2.3827 2.3917
-4.8923 -2.5520 2.3917
-4.7906 -2.7173 2.3917
-4.6827 -2.8781 2.3917
-4.5686 -3.0343 2.3917
-4.4487 -3.1857 2.3917
-4.3231 -3.3319 2.3917
-4.1922 -3.4729 2.3917
-4.0561 -3.6083 2.3917
-3.9151 -3.7380 2.3917
-3.7695 -3.8619 2.3917
-3.6195 -3.9798 2.3917
-3.4655 -4.0915 2.3917
-3.3077 -4.1970 2.3917
-3.1464 -4.2960 2.3917
-2.9819 -4.3886 2.3917
-2.8144 -4.4745 2.3917
-2.6443 -4.5538 2.3917
-2.4718 -4.6264 2.3917
-2.2973 -4.6922 2.3917
-2.1209 -4.7512 2.3917
-1.9430 -4.8034 2.3917
-1.7639 -4.8488 2.3917
-1.5839 -4.8874 2.3917
-1.4031 -4.9192 2.3917
-1.2219 -4.9442 2.3917
-1.0406 -4.9624 2.3917
-0.8593 -4.9740 2.3917
-0.6785 -4.9789 2.3917
-0.4982 -4.9773 2.3917
1.1293 -4.3814 2.3917
1.2808 -4.3192 2.3917
1.4295 -4.2519 2.3917
1.5753 -4.1798 2.3917
1.7180 -4.1029 2.3917
1.8575 -4.0214 2.3917
1.9937 -3.9354 2.3917
2.1264 -3.8451 2.3917
2.2555 -3.7506 2.3917
2.3808 -3.6521 2.3917
2.5024 -3.5497 2.3917
2.6200 -3.4435 2.3917
2.7337 -3.3337 2.3917
2.8432 -3.2205 2.3917
2.9486 -3.1040 2.3917
3.0497 -2.9843 2.3917
3.1464 -2.8617 2.3917
3.2387 -2.7362 2.3917
3.3266 -2.6079 2.3917
3.4099 -2.4772 2.3917
3.4886 -2.3441 2.3917
3.5627 -2.2087 2.3917
3.6321 -2.0712 2.3917
3.6967 -1.9318 2.3917
3.7566 -1.7906 2.3917
3.8117 -1.6477 2.3917
3.8619 -1.5034 2.3917
3.9073 -1.3577 2.3917
3.9477 -1.2108 2.3917
3.9833 -1.0629 2.3917
4.0139 -0.9140 2.3917
4.0396 -0.7644 2.3917
4.0604 -0.6142 2.3917
4.0762 -0.4636 2.3917
4.0870 -0.3126 2.3917
4.0929 -0.1614 2.3917
4.0938 -0.0102 2.3917
4.0897 0.1409 2.3917
4.0807 0.2917 2.3917
4.0668 0.4422 2.3917
4.0479 0.5921 2.3917
4.0242 0.7413 2.3917
3.9955 0.8897 2.3917
3.9620 1.0371 2.3917
3.9237 1.1834 2.3917
3.8806 1.3285 2.3917
3.8326 1.4722 2.3917
3.7800 1.6143 2.3917
3.7226 1.7548 2.3917
3.6606 1.8935 2.3917
3.5940 2.0303 2.3917
3.5228 2.1649 2.3917
3.4471 2.2973 2.3917
3.3669 2.4274 2.3917
3.2824 2.5550 2.3917
3.1935 2.6799 2.3917
3.1003 2.8020 2.3917
3.0030 2.9212 2.3917
2.9015 3.0374 2.3917
2.7960 3.1504 2.3917
2.6865 3.2600 2.3917
2.5731 3.3662 2.3917
2.4559 3.4688 2.3917
2.3351 3.5677 2.3917
2.2107 3.6627 2.3917
0.8690 1.5662 0.9979
0.8121 1.5983 0.9953
0.7541 1.6284 0.9927
0.6951 1.6563 0.9900
0.6350 1.6821 0.9872
0.5741 1.7057 0.9843
0.5124 1.7271 0.9814
0.4499 1.7463 0.9785
0.3868 1.7632 0.9755
0.3231 1.7778 0.9724
0.2589 1.7901 0.9693
0.1943 1.8000 0.9662
0.1294 1.8077 0.9630
0.0643 1.8129 0.9598
-0.0010 1.8159 0.9566
-0.0663 1.8164 0.9533
-0.1317 1.8147 0.9501
-0.1969 1.8105 0.9468
-0.2619 1.8040 0.9435
-0.3267 1.7952 0.9402
-0.3911 1.7840 0.9369
-0.4550 1.7705 0.9336
-0.5185 1.7547 0.9303
-0.5813 1.7366 0.9271
-0.6434 1.7163 0.9238
-0.7047 1.6937 0.9206
-0.7652 1.6690 0.9174
-0.8248 1.6421 0.9142
-0.8833 1.6130 0.9111
-0.9408 1.5818 0.9080
-2.6353 4.0932 2.3917
-2.7901 4.0135 2.3917
-2.9423 3.9278 2.3917
-3.0916 3.8362 2.3917
-3.2379 3.7388 2.3917
-3.3808 3.6357 2.3917
-3.5201 3.5269 2.3917
-3.6555 3.4127 2.3917
-3.7869 3.2930 2.3917
-3.9139 3.1681 2.3917
-4.0364 3.0381 2.3917
-4.1540 2.9032 2.3917
-4.2666 2.7635 2.3917
-4.3741 2.6193 2.3917
-4.4760 2.4707 2.3917
-4.5723 2.3179 2.3917
-4.6627 2.1612 2.3917
-4.7471 2.0008 2.3917
-4.8253 1.8370 2.3917
-4.8971 1.6699 2.3917
-4.9624 1.4999 2.3917
-5.0211 1.3273 2.3917
-5.0729 1.1522 2.3917
-5.1179 0.9750 2.3917
-5.1558 0.7960 2.3917
-5.1866 0.6155 2.3917
-5.2103 0.4337 2.3917
-5.2267 0.2511 2.3917
-5.2358 0.0678 2.3917
-5.2377 -0.1158 2.3917
-5.2323 -0.2994 2.3917
-5.2195 -0.4826 2.3917
-5.1994 -0.6652 2.3917
-5.1721 -0.8468 2.3917
-5.1376 -1.0272 2.3917
-5.0960 -1.2060 2.3917
-5.0472 -1.3829 2.3917
-4.9916 -1.5577 2.3917
-4.9290 -1.7300 2.3917
-4.8597 -1.8996 2.3917
-4.7838 -2.0661 2.3917
-4.7015 -2.2293 2.3917
-4.6129 -2.3890 2.3917
-4.5182 -2.5448 2.3917
-4.4175 -2.6966 2.3917
-4.3111 -2.8441 2.3917
-4.1991 -2.9871 2.3917
-4.0819 -3.1254 2.3917
-3.9596 -3.2588 2.3917
-3.8324 -3.3870 2.3917
-3.7006 -3.5100 2.3917
-3.5644 -3.6275 2.3917
-3.4240 -3.7394 2.3917
-3.2798 -3.8456 2.3917
-3.1320 -3.9459 2.3917
-2.9809 -4.0403 2.3917
-2.8266 -4.1286 2.3917
-2.6695 -4.2107 2.3917
-2.5098 -4.2866 2.3917
-2.3478 -4.3563 2.3917
-2.1839 -4.4196 2.3917
-2.0181 -4.4765 2.3917
-1.8508 -4.5271 2.3917
-1.6823 -4.5712 2.3917
-1.5128 -4.6090 2.3917
-1.3426 -4.6403 2.3917
-1.1719 -4.6653 2.3917
-1.0009 -4.6839 2.3917
-0.8300 -4.6963 2.3917
-0.6593 -4.7023 2.3917
-0.4890 -4.7022 2.3917
-0.3195 -4.6959 2.3917
-0.1509 -4.6835 2.3917
0.0165 -4.6652 2.3917
0.1826 -4.6410 2.3917
0.3471 -4.6109 2.3917
0.5099 -4.5752 2.3917
0.6708 -4.5338 2.3917
0.8295 -4.4870 2.3917
0.9859 -4.4347 2.3917
1.1399 -4.3773 2.3917
1.2912 -4.3147 2.3917
1.4398 -4.2471 2.3917
1.5853 -4.1746 2.3917
1.7279 -4.0974 2.3917
1.8671 -4.0155 2.3917
2.0031 -3.9293 2.3917
2.1355 -3.8387 2.3917
2.2643 -3.7439 2.3917
2.3894 -3.6451 2.3917
2.5107 -3.5424 2.3917
2.6281 -3.4360 2.3917
2.7415 -3.3259 2.3917
2.8507 -3.2125 2.3917
2.9557 -3.0957 2.3917
3.0565 -2.9759 2.3917
3.1530 -2.8530 2.3917
3.2450 -2.7273 2.3917
3.3325 -2.5989 2.3917
3.4155 -2.4680 2.3917
3.4939 -2.3347 2.3917
3.5677 -2.1991 2.3917
3.6367 -2.0615 2.3917
3.7010 -1.9220 2.3917
3.7606 -1.7807 2.3917
3.8153 -1.6377 2.3917
3.8652 -1.4933 2.3917
3.9102 -1.3475 2.3917
3.9504 -1.2005 2.3917
3.9856 -1.0525 2.3917
4.0159 -0.9036 2.3917
4.0413 -0.7540 2.3917
4.0617 -0.6037 2.3917
4.0771 -0.4530 2.3917
4.0876 -0.3020 2.3917
4.0931 -0.1509 2.3917
4.0937 0.0003 2.3917
4.0893 0.1514 2.3917
4.0799 0.3022 2.3917
4.0656 0.4526 2.3917
4.0464 0.6025 2.3917
4.0223 0.7516 2.3917
3.9934 0.9000 2.3917
3.9595 1.0473 2.3917
3.9208 1.1936 2.3917
3.8774 1.3386 2.3917
3.8291 1.4821 2.3917
3.7761 1.6242 2.3917
3.7185 1.7646 2.3917
3.6561 1.9031 2.3917
3.5892 2.0397 2.3917
3.5177 2.1742 2.3917
3.4417 2.3065 2.3917
3.3612 2.4364 2.3917
3.2763 2.5638 2.3917
3.1871 2.6885 2.3917
3.0937 2.8104 2.3917
2.9960 2.9295 2.3917
2.8943 3.0454 2.3917
2.7884 3.1582 2.3917
2.6787 3.2676 2.3917
2.5651 3.3735 2.3917
2.4476 3.4758 2.3917
2.3265 3.5745 2.3917
2.2019 3.6692 2.3917
0.8651 1.5685 0.9978
0.8081 1.6005 0.9952
0.7500 1.6304 0.9925
0.6909 1.6582 0.9898
0.6308 1.6838 0.9870
0.5698 1.7073 0.9841
0.5081 1.7285 0.9812
0.4455 1.7475 0.9783
0.3824 1.7642 0.9753
0.3186 1.7787 0.9722
0.2544 1.7908 0.9691
0.1898 1.8006 0.9660
0.1249 1.8081 0.9628
0.0598 1.8132 0.9596
-0.0055 1.8160 0.9564
-0.0709 1.8164 0.9531
-0.1362 1.8144 0.9498
-0.2014 1.8101 0.9466
-0.2665 1.8035 0.9433
-0.3312 1.7945 0.9400
-0.3956 1.7831 0.9367
-0.4595 1.7695 0.9334
-0.5229 1.7535 0.9301
-0.5856 1.7353 0.9268
-0.6477 1.7148 0.9236
-0.7090 1.6921 0.9204
-0.7694 1.6672 0.9172
-0.8289 1.6401 0.9140
-0.8873 1.6109 0.9108
-0.9447 1.5796 0.9077
-2.6461 4.0878 2.3917
-2.8008 4.0077 2.3917
-2.9528 3.9216 2.3917
-3.1019 3.8296 2.3917
-3.2480 3.7318 2.3917
-3.3906 3.6283 2.3917
-3.5297 3.5191 2.3917
-3.6648 3.4045 2.3917
-3.7959 3.2845 2.3917
-3.9226 3.1592 2.3917
-4.0447 3.0288 2.3917
-4.1620 2.8936 2.3917
-4.2743 2.7536 2.3917
-4.3813 2.6090 2.3917
-4.4829 2.4601 2.3917
-4.5788 2.3071 2.3917
-4.6688 2.1501 2.3917
-4.7528 1.9895 2.3917
-4.8305 1.8254 2.3917
-4.9019 1.6582 2.3917
-4.9667 1.4880 2.3917
-5.0249 1.3151 2.3917
-5.0763 1.1399 2.3917
-5.1207 0.9626 2.3917
-5.1581 0.7835 2.3917
-5.1885 0.6028 2.3917
-5.2116 0.4210 2.3917
-5.2276 0.2383 2.3917
-5.2362 0.0550 2.3917
-5.2376 -0.1286 2.3917
-5.2316 -0.3121 2.3917
-5.2183 -0.4954 2.3917
-5.1978 -0.6779 2.3917
-5.1700 -0.8594 2.3917
-5.1350 -1.0397 2.3917
-5.0928 -1.2184 2.3917
-5.0436 -1.3952 2.3917
-4.9874 -1.5698 2.3917
-4.9244 -1.7419 2.3917
-4.8546 -1.9113 2.3917
-4.7783 -2.0776 2.3917
-4.6955 -2.2406 2.3917
-4.6065 -2.4000 2.3917
-4.5113 -2.5556 2.3917
-4.4103 -2.7071 2.3917
-4.3035 -2.8543 2.3917
-4.1911 -2.9969 2.3917
-4.0735 -3.1349 2.3917
-3.9508 -3.2679 2.3917
-3.8233 -3.3957 2.3917
-3.6912 -3.5183 2.3917
-3.5547 -3.6355 2.3917
-3.4141 -3.7470 2.3917
-3.2696 -3.8528 2.3917
-3.1216 -3.9527 2.3917
-2.9702 -4.0466 2.3917
-2.8157 -4.1345 2.3917
-2.6584 -4.2162 2.3917
-2.4986 -4.2917 2.3917
-2.3365 -4.3609 2.3917
-2.1723 -4.4238 2.3917
-2.0065 -4.4803 2.3917
-1.8391 -4.5304 2.3917
-1.6705 -4.5741 2.3917
-1.5010 -4.6114 2.3917
-1.3307 -4.6423 2.3917
-1.1599 -4.6668 2.3917
-0.9890 -4.6850 2.3917
-0.8180 -4.6969 2.3917
-0.6474 -4.7025 2.3917
-0.4772 -4.7019 2.3917
1.0643 -4.1542 2.3917
1.2081 -4.0959 2.3917
1.3494 -4.0329 2.3917
1.4879 -3.9651 2.3917
1.6236 -3.8928 2.3917
1.7563 -3.8162 2.3917
1.8857 -3.7352 2.3917
2.0120 -3.6501 2.3917
2.1349 -3.5609 2.3917
2.2542 -3.4679 2.3917
2.3700 -3.3712 2.3917
2.4821 -3.2708 2.3917
2.5904 -3.1670 2.3917
2.6948 -3.0599 2.3917
2.7953 -2.9496 2.3917
2.8917 -2.8363 2.3917
2.9840 -2.7201 2.3917
3.0721 -2.6011 2.3917
3.1560 -2.4795 2.3917
3.2355 -2.3555 2.3917
3.3107 -2.2292 2.3917
3.3815 -2.1007 2.3917
3.4478 -1.9702 2.3917
3.5096 -1.8377 2.3917
3.5669 -1.7036 2.3917
3.6195 -1.5679 2.3917
3.6676 -1.4307 2.3917
3.7110 -1.2922 2.3917
3.7498 -1.1525 2.3917
3.7838 -1.0119 2.3917
3.8132 -0.8703 2.3917
3.8378 -0.7280 2.3917
3.8577 -0.5851 2.3917
3.8729 -0.4418 2.3917
3.8833 -0.2981 2.3917
3.8890 -0.1542 2.3917
3.8899 -0.0104 2.3917
3.8861 0.1334 2.3917
3.8776 0.2770 2.3917
3.8644 0.4201 2.3917
3.8464 0.5628 2.3917
3.8238 0.7048 2.3917
3.7965 0.8460 2.3917
3.7645 0.9862 2.3917
3.7279 1.1255 2.3917
3.6868 1.2635 2.3917
3.6410 1.4002 2.3917
3.5908 1.5354 2.3917
3.5360 1.6690 2.3917
3.4769 1.8008 2.3917
3.4133 1.9308 2.3917
3.3453 2.0588 2.3917
3.2731 2.1846 2.3917
3.1966 2.3082 2.3917
3.1159 2.4293 2.3917
3.0311 2.5479 2.3917
2.9422 2.6638 2.3917
2.8494 2.7769 2.3917
2.7526 2.8871 2.3917
2.6520 2.9942 2.3917
2.5476 3.0981 2.3917
2.4396 3.1987 2.3917
2.3279 3.2958 2.3917
2.2128 3.3893 2.3917
2.0944 3.4792 2.3917
0.8205 1.4830 0.9949
0.7666 1.5134 0.9924
0.7117 1.5418 0.9899
0.6557 1.5683 0.9873
0.5989 1.5927 0.9847
0.5412 1.6150 0.9820
0.4827 1.6353 0.9792
0.4236 1.6534 0.9764
0.3638 1.6694 0.9736
0.3035 1.6832 0.9707
0.2427 1.6949 0.9678
0.1815 1.7043 0.9648
0.1201 1.7115 0.9618
0.0584 1.7165 0.9588
-0.0034 1.7193 0.9557
-0.0653 1.7199 0.9526
-0.1272 1.7182 0.9495
-0.1890 1.7142 0.9464
-0.2505 1.7081 0.9433
-0.3119 1.6997 0.9402
-0.3728 1.6891 0.9371
-0.4334 1.6763 0.9340
-0.4935 1.6614 0.9308
-0.5529 1.6443 0.9278
-0.6118 1.6250 0.9247
-0.6699 1.6037 0.9216
-0.7271 1.5802 0.9186
-0.7835 1.5547 0.9156
-0.8390 1.5272 0.9126
-0.8934 1.4977 0.9097
-0.9467 1.4663 0.9068
-2.6429 3.7915 2.3917
-2.7862 3.7099 2.3917
-2.9268 3.6227 2.3917
-3.0645 3.5301 2.3917
-3.1989 3.4321 2.3917
-3.3299 3.3289 2.3917
-3.4572 3.2205 2.3917
-3.5807 3.1070 2.3917
-3.7000 2.9887 2.3917
-3.8150 2.8656 2.3917
-3.9254 2.7379 2.3917
-4.0311 2.6057 2.3917
-4.1318 2.4693 2.3917
-4.2274 2.3289 2.3917
-4.3177 2.1846 2.3917
-4.4025 2.0366 2.3917
-4.4815 1.8852 2.3917
-4.5548 1.7306 2.3917
-4.6220 1.5730 2.3917
-4.6831 1.4126 2.3917
-4.7380 1.2498 2.3917
-4.7865 1.0848 2.3917
-4.8285 0.9178 2.3917
-4.8639 0.7491 2.3917
-4.8927 0.5790 2.3917
-4.9147 0.4078 2.3917
-4.9300 0.2357 2.3917
-4.9385 0.0630 2.3917
-4.9401 -0.1099 2.3917
-4.9349 -0.2827 2.3917
-4.9228 -0.4553 2.3917
-4.9039 -0.6273 2.3917
-4.8782 -0.7984 2.3917
-4.8458 -0.9683 2.3917
-4.8067 -1.1367 2.3917
-4.7610 -1.3034 2.3917
-4.7087 -1.4680 2.3917
-4.6500 -1.6304 2.3917
-4.5850 -1.7902 2.3917
-4.5138 -1.9472 2.3917
-4.4365 -2.1011 2.3917
-4.3533 -2.2518 2.3917
-4.2644 -2.3988 2.3917
-4.1699 -2.5421 2.3917
-4.0701 -2.6813 2.3917
-3.9650 -2.8164 2.3917
-3.8549 -2.9471 2.3917
-3.7400 -3.0731 2.3917
-3.6205 -3.1944 2.3917
-3.4966 -3.3108 2.3917
-3.3686 -3.4221 2.3917
-3.2367 -3.5281 2.3917
-3.1011 -3.6288 2.3917
-2.9621 -3.7240 2.3917
-2.8199 -3.8137 2.3917
-2.6747 -3.8976 2.3917
-2.5268 -3.9758 2.3917
-2.3764 -4.0482 2.3917
-2.2239 -4.1146 2.3917
-2.0694 -4.1751 2.3917
-1.9131 -4.2296 2.3917
-1.7554 -4.2782 2.3917
-1.5964 -4.3207 2.3917
-1.4365 -4.3571 2.3917
-1.2758 -4.3876 2.3917
-1.1146 -4.4120 2.3917
-0.9531 -4.4304 2.3917
-0.7916 -4.4429 2.3917
-0.6302 -4.4495 2.3917
-0.4692 -4.4502 2.3917
-0.3088 -4.4450 2.3917
-0.1493 -4.4342 2.3917
0.0092 -4.4176 2.3917
0.1665 -4.3955 2.3917
0.3224 -4.3679 2.3917
0.4767 -4.3348 2.3917
0.6293 -4.2964 2.3917
0.7798 -4.2528 2.3917
0.9282 -4.2041 2.3917
1.0744 -4.1503 2.3917
1.2181 -4.0917 2.3917
1.3592 -4.0283 2.3917
1.4975 -3.9602 2.3917
1.6330 -3.8876 2.3917
1.7654 -3.8106 2.3917
1.8947 -3.7294 2.3917
2.0207 -3.6440 2.3917
2.1433 -3.5546 2.3917
2.2624 -3.4613 2.3917
2.3780 -3.3643 2.3917
2.4898 -3.2637 2.3917
2.5978 -3.1597 2.3917
2.7020 -3.0523 2.3917
2.8021 -2.9418 2.3917
2.8983 -2.8283 2.3917
2.9903 -2.7119 2.3917
3.0781 -2.5927 2.3917
3.1617 -2.4710 2.3917
3.2409 -2.3468 2.3917
