ply
format ascii 1.0
element vertex 2183
property float32 x
property float32 y
property float32 z
end_header
-1.8760 -8.2049 2.3903
-1.5833 -8.2842 2.3903
-1.2874 -8.3531 2.3903
-0.9886 -8.4114 2.3903
-0.6874 -8.4590 2.3903
-0.3840 -8.4959 2.3903
-0.0789 -8.5218 2.3903
0.2275 -8.5367 2.3903
0.5348 -8.5406 2.3903
0.8426 -8.5333 2.3903
1.1505 -8.5147 2.3903
1.4582 -8.4849 2.3903
1.7650 -8.4438 2.3903
2.0707 -8.3915 2.3903
2.3749 -8.3279 2.3903
2.6770 -8.2530 2.3903
2.9767 -8.1670 2.3903
3.2735 -8.0698 2.3903
3.5670 -7.9615 2.3903
3.8567 -7.8423 2.3903
4.1423 -7.7123 2.3903
4.4233 -7.5715 2.3903
4.6993 -7.4202 2.3903
4.9698 -7.2584 2.3903
5.2345 -7.0865 2.3903
5.4930 -6.9046 2.3903
5.7448 -6.7129 2.3903
5.9895 -6.5117 2.3903
6.2268 -6.3012 2.3903
6.4563 -6.0817 2.3903
6.5076 -5.7044 2.3294
6.4929 -5.2928 2.2524
6.6420 -5.0296 2.2379
6.8243 -4.7933 2.2379
6.9977 -4.5501 2.2379
7.1619 -4.3003 2.2379
7.3167 -4.0443 2.2379
7.4618 -3.7824 2.2379
7.5969 -3.5152 2.2379
7.7219 -3.2428 2.2379
7.8365 -2.9658 2.2379
7.9405 -2.6845 2.2379
8.0339 -2.3994 2.2379
8.1164 -2.1109 2.2379
8.1878 -1.8195 2.2379
8.2482 -1.5255 2.2379
8.2974 -1.2294 2.2379
8.3353 -0.9317 2.2379
8.3618 -0.6328 2.2379
8.3770 -0.3332 2.2379
8.3808 -0.0332 2.2379
8.3733 0.2665 2.2379
8.3544 0.5657 2.2379
8.3241 0.8637 2.2379
8.2827 1.1603 2.2379
8.2301 1.4549 2.2379
8.1664 1.7471 2.2379
8.0918 2.0365 2.2379
8.0063 2.3227 2.2379
7.9102 2.6051 2.2379
7.8037 2.8835 2.2379
7.6868 3.1575 2.2379
7.5599 3.4265 2.2379
7.4231 3.6904 2.2379
7.2766 3.9486 2.2379
7.1208 4.2009 2.2379
6.9559 4.4468 2.2379
6.7821 4.6861 2.2379
6.5998 4.9185 2.2379
6.4092 5.1435 2.2379
6.2106 5.3611 2.2379
6.0045 5.5708 2.2379
5.7910 5.7724 2.2379
5.6700 6.0721 2.2778
5.6264 6.4759 2.3563
5.4582 6.7571 2.3903
5.2027 6.9354 2.3903
4.9412 7.1039 2.3903
4.6742 7.2624 2.3903
4.4021 7.4108 2.3903
4.1253 7.5489 2.3903
3.8441 7.6766 2.3903
3.5589 7.7938 2.3903
3.2703 7.9003 2.3903
2.9785 7.9961 2.3903
2.6840 8.0812 2.3903
0.9410 3.2147 0.9422
0.8249 3.2463 0.9441
0.7078 3.2737 0.9461
0.5897 3.2969 0.9480
0.4709 3.3158 0.9499
0.3515 3.3303 0.9518
0.2315 3.3405 0.9537
0.1113 3.3464 0.9556
-0.0090 3.3480 0.9574
-0.1294 3.3451 0.9593
-0.2495 3.3379 0.9611
-0.3694 3.3264 0.9629
-0.4887 3.3105 0.9646
-0.6074 3.2904 0.9664
-0.7253 3.2659 0.9681
-0.8422 3.2372 0.9697
-2.3574 7.8849 2.3903
-2.6349 7.7809 2.3903
-2.9082 7.6675 2.3903
-3.1769 7.5448 2.3903
-3.4407 7.4130 2.3903
-3.6993 7.2724 2.3903
-3.9526 7.1231 2.3903
-4.2001 6.9653 2.3903
-4.4417 6.7993 2.3903
-4.6770 6.6253 2.3903
-4.9059 6.4434 2.3903
-5.1281 6.2541 2.3903
-5.3433 6.0574 2.3903
-5.5514 5.8537 2.3903
-5.7521 5.6432 2.3903
-5.9453 5.4261 2.3903
-6.1307 5.2028 2.3903
-6.3081 4.9735 2.3903
-6.4775 4.7384 2.3903
-6.6385 4.4979 2.3903
-6.7911 4.2522 2.3903
-6.9351 4.0016 2.3903
-7.0703 3.7463 2.3903
-7.1967 3.4868 2.3903
-7.3140 3.2233 2.3903
-7.4223 2.9560 2.3903
-7.5213 2.6852 2.3903
-7.6110 2.4114 2.3903
-7.6913 2.1347 2.3903
-7.7620 1.8555 2.3903
-7.8232 1.5741 2.3903
-7.8748 1.2908 2.3903
-7.9167 1.0058 2.3903
-7.9488 0.7196 2.3903
-7.9712 0.4324 2.3903
-7.9837 0.1446 2.3903
-7.9865 -0.1436 2.3903
-7.9794 -0.4319 2.3903
-7.9624 -0.7198 2.3903
-7.9356 -1.0072 2.3903
-7.8990 -1.2936 2.3903
-7.8526 -1.5788 2.3903
-7.7964 -1.8624 2.3903
-7.7305 -2.1441 2.3903
-7.6549 -2.4237 2.3903
-7.5697 -2.7007 2.3903
-7.4749 -2.9749 2.3903
-7.3707 -3.2460 2.3903
-7.2571 -3.5136 2.3903
-7.1343 -3.7775 2.3903
-7.0023 -4.0372 2.3903
-6.8612 -4.2926 2.3903
-6.7112 -4.5433 2.3903
-6.5524 -4.7889 2.3903
-6.3850 -5.0293 2.3903
-6.2091 -5.2641 2.3903
-6.0250 -5.4929 2.3903
-5.8326 -5.7156 2.3903
-5.6324 -5.9318 2.3903
-5.4244 -6.1412 2.3903
-5.2089 -6.3435 2.3903
-4.9861 -6.5386 2.3903
-4.7562 -6.7260 2.3903
-4.5194 -6.9056 2.3903
-4.2761 -7.0771 2.3903
-4.0264 -7.2402 2.3903
-3.7707 -7.3947 2.3903
-3.5092 -7.5404 2.3903
-3.2423 -7.6770 2.3903
-2.9701 -7.8043 2.3903
-2.6931 -7.9220 2.3903
-2.4116 -8.0301 2.3903
-2.1258 -8.1283 2.3903
-1.8362 -8.2164 2.3903
-1.5431 -8.2942 2.3903
-1.2467 -8.3617 2.3903
-0.9476 -8.4185 2.3903
-0.6460 -8.4647 2.3903
-0.3424 -8.5001 2.3903
-0.0371 -8.5245 2.3903
0.2694 -8.5379 2.3903
0.5768 -8.5402 2.3903
0.8847 -8.5314 2.3903
1.1926 -8.5113 2.3903
1.5001 -8.4800 2.3903
1.8069 -8.4374 2.3903
2.1124 -8.3835 2.3903
2.4163 -8.3183 2.3903
2.7181 -8.2419 2.3903
3.0174 -8.1543 2.3903
3.3138 -8.0556 2.3903
3.6068 -7.9459 2.3903
3.8960 -7.8252 2.3903
4.1810 -7.6937 2.3903
4.4613 -7.5514 2.3903
4.7366 -7.3987 2.3903
5.0063 -7.2356 2.3903
5.2702 -7.0623 2.3903
5.5278 -6.8790 2.3903
5.7786 -6.6860 2.3903
6.0224 -6.4835 2.3903
6.2586 -6.2717 2.3903
6.4870 -6.0510 2.3903
6.5055 -5.6465 2.3184
6.4971 -5.2436 2.2446
6.6675 -4.9978 2.2379
6.8486 -4.7605 2.2379
7.0207 -4.5163 2.2379
7.1837 -4.2657 2.2379
7.3371 -4.0089 2.2379
7.4808 -3.7462 2.2379
7.6146 -3.4782 2.2379
7.7382 -3.2052 2.2379
7.8513 -2.9276 2.2379
7.9539 -2.6458 2.2379
8.0458 -2.3602 2.2379
8.1268 -2.0713 2.2379
8.1967 -1.7795 2.2379
8.2556 -1.4852 2.2379
8.3032 -1.1888 2.2379
8.3396 -0.8909 2.2379
8.3646 -0.5919 2.2379
8.3782 -0.2922 2.2379
8.3805 0.0077 2.2379
8.3714 0.3074 2.2379
8.3509 0.6065 2.2379
8.3191 0.9043 2.2379
8.2762 1.2007 2.2379
8.2220 1.4950 2.2379
8.1568 1.7868 2.2379
8.0807 2.0758 2.2379
7.9938 2.3615 2.2379
7.8963 2.6434 2.2379
7.7883 2.9212 2.2379
7.6701 3.1945 2.2379
7.5418 3.4629 2.2379
7.4036 3.7260 2.2379
7.2559 3.9834 2.2379
7.0988 4.2348 2.2379
6.9327 4.4799 2.2379
6.7577 4.7183 2.2379
6.5742 4.9496 2.2379
6.3825 5.1737 2.2379
6.1829 5.3902 2.2379
5.9757 5.5988 2.2379
5.7613 5.7993 2.2379
5.6642 6.1258 2.2881
5.6201 6.5331 2.3677
5.4237 6.7820 2.3903
5.1673 6.9590 2.3903
4.9051 7.1261 2.3903
4.6374 7.2833 2.3903
4.3646 7.4303 2.3903
4.0871 7.5670 2.3903
3.8053 7.6932 2.3903
3.5197 7.8089 2.3903
3.2306 7.9140 2.3903
2.9384 8.0084 2.3903
2.6436 8.0920 2.3903
0.9252 3.2192 0.9425
0.8090 3.2503 0.9444
0.6917 3.2771 0.9463
0.5735 3.2997 0.9482
0.4546 3.3180 0.9502
0.3351 3.3320 0.9521
0.2151 3.3416 0.9540
0.0949 3.3469 0.9558
-0.0255 3.3478 0.9577
-0.1458 3.3444 0.9595
-0.2659 3.3366 0.9613
-0.3857 3.3245 0.9631
-0.5050 3.3080 0.9649
-0.6235 3.2873 0.9666
-0.7413 3.2622 0.9683
-0.8581 3.2329 0.9699
5.7602 4.9204 2.2503
5.7226 5.2543 2.3113
5.6845 5.6076 2.3794
5.4959 5.8246 2.3903
5.2749 6.0078 2.3903
5.0475 6.1824 2.3903
4.8143 6.3482 2.3903
4.5755 6.5052 2.3903
4.3315 6.6531 2.3903
4.0827 6.7917 2.3903
3.8294 6.9210 2.3903
3.5721 7.0407 2.3903
3.3109 7.1508 2.3903
3.0464 7.2512 2.3903
2.7789 7.3418 2.3903
2.5088 7.4225 2.3903
0.8812 2.9526 0.9419
0.7746 2.9822 0.9436
0.6670 3.0080 0.9454
0.5585 3.0298 0.9472
0.4493 3.0477 0.9490
0.3394 3.0616 0.9507
0.2292 3.0715 0.9525
0.1186 3.0774 0.9542
0.0079 3.0794 0.9559
-0.1028 3.0773 0.9576
-0.2133 3.0712 0.9593
-0.3236 3.0612 0.9609
-0.4334 3.0471 0.9625
-0.5427 3.0291 0.9641
-0.6512 3.0071 0.9657
-0.7589 2.9812 0.9672
-0.8656 2.9515 0.9687
-2.3924 7.1889 2.3903
-2.6454 7.0863 2.3903
-2.8941 6.9752 2.3903
-3.1385 6.8556 2.3903
-3.3782 6.7278 2.3903
-3.6130 6.5918 2.3903
-3.8426 6.4480 2.3903
-4.0667 6.2965 2.3903
-4.2852 6.1375 2.3903
-4.4977 5.9712 2.3903
-4.7041 5.7979 2.3903
-4.9042 5.6178 2.3903
-5.0977 5.4310 2.3903
-5.2844 5.2379 2.3903
-5.4642 5.0386 2.3903
-5.6368 4.8335 2.3903
-5.8021 4.6228 2.3903
-5.9599 4.4066 2.3903
-6.1101 4.1854 2.3903
-6.2525 3.9592 2.3903
-6.3870 3.7285 2.3903
-6.5133 3.4934 2.3903
-6.6315 3.2543 2.3903
-6.7413 3.0114 2.3903
-6.8427 2.7649 2.3903
-6.9356 2.5153 2.3903
-7.0198 2.2626 2.3903
-7.0953 2.0073 2.3903
-7.1620 1.7496 2.3903
-7.2198 1.4898 2.3903
-7.2687 1.2282 2.3903
-7.3086 0.9651 2.3903
-7.3394 0.7007 2.3903
-7.3613 0.4354 2.3903
-7.3740 0.1695 2.3903
-7.3776 -0.0968 2.3903
-7.3720 -0.3632 2.3903
-7.3573 -0.6293 2.3903
-7.3335 -0.8948 2.3903
-7.3006 -1.1596 2.3903
-7.2586 -1.4232 2.3903
-7.2076 -1.6853 2.3903
-7.1475 -1.9458 2.3903
-7.0785 -2.2042 2.3903
-7.0005 -2.4603 2.3903
-6.9137 -2.7137 2.3903
-6.8181 -2.9643 2.3903
-6.7139 -3.2116 2.3903
-6.6010 -3.4555 2.3903
-6.4797 -3.6956 2.3903
-6.3500 -3.9316 2.3903
-6.2120 -4.1632 2.3903
-6.0660 -4.3902 2.3903
-5.9119 -4.6123 2.3903
-5.7500 -4.8292 2.3903
-5.5804 -5.0406 2.3903
-5.4034 -5.2462 2.3903
-5.2190 -5.4459 2.3903
-5.0275 -5.6392 2.3903
-4.8290 -5.8261 2.3903
-4.6238 -6.0061 2.3903
-4.4121 -6.1792 2.3903
-4.1941 -6.3449 2.3903
-3.9700 -6.5032 2.3903
-3.7401 -6.6537 2.3903
-3.5047 -6.7962 2.3903
-3.2639 -6.9306 2.3903
-3.0182 -7.0566 2.3903
-2.7677 -7.1740 2.3903
-2.5128 -7.2826 2.3903
-2.2537 -7.3823 2.3903
-1.9907 -7.4728 2.3903
-1.7242 -7.5541 2.3903
-1.4545 -7.6259 2.3903
-1.1820 -7.6881 2.3903
-0.9069 -7.7406 2.3903
-0.6295 -7.7832 2.3903
-0.3504 -7.8159 2.3903
-0.0697 -7.8386 2.3903
0.2120 -7.8511 2.3903
0.4946 -7.8534 2.3903
0.7775 -7.8455 2.3903
1.0605 -7.8273 2.3903
1.3430 -7.7987 2.3903
1.6248 -7.7598 2.3903
1.9055 -7.7106 2.3903
2.1846 -7.6510 2.3903
2.4618 -7.5812 2.3903
2.7367 -7.5011 2.3903
3.0089 -7.4108 2.3903
3.2779 -7.3104 2.3903
3.5435 -7.2000 2.3903
3.8052 -7.0796 2.3903
4.0626 -6.9495 2.3903
4.3154 -6.8098 2.3903
4.5631 -6.6606 2.3903
4.8054 -6.5021 2.3903
5.0420 -6.3345 2.3903
5.2724 -6.1580 2.3903
5.4963 -5.9728 2.3903
5.7134 -5.7791 2.3903
5.9233 -5.5773 2.3903
6.1257 -5.3676 2.3903
6.3203 -5.1502 2.3903
6.4411 -4.8758 2.3662
6.4276 -4.5132 2.2983
6.4245 -4.1760 2.2405
6.5671 -3.9419 2.2379
6.7086 -3.7071 2.2379
6.8412 -3.4669 2.2379
6.9647 -3.2218 2.2379
7.0790 -2.9721 2.2379
7.1837 -2.7182 2.2379
7.2789 -2.4604 2.2379
7.3642 -2.1991 2.2379
7.4397 -1.9347 2.2379
7.5051 -1.6676 2.2379
7.5604 -1.3982 2.2379
7.6054 -1.1270 2.2379
7.6402 -0.8542 2.2379
7.6646 -0.5803 2.2379
7.6787 -0.3058 2.2379
7.6824 -0.0309 2.2379
7.6757 0.2437 2.2379
7.6587 0.5179 2.2379
7.6313 0.7911 2.2379
7.5937 1.0629 2.2379
7.5459 1.3330 2.2379
7.4879 1.6009 2.2379
7.4200 1.8663 2.2379
7.3422 2.1287 2.2379
7.2547 2.3878 2.2379
7.1576 2.6433 2.2379
7.0511 2.8947 2.2379
6.9353 3.1417 2.2379
6.8105 3.3840 2.2379
6.6769 3.6212 2.2379
6.5347 3.8529 2.2379
6.3841 4.0790 2.2379
6.2253 4.2990 2.2379
6.0588 4.5127 2.2379
5.8846 4.7199 2.2379
5.7535 4.9636 2.2576
5.7175 5.3014 2.3202
5.6791 5.6574 2.3892
5.4661 5.8502 2.3903
5.2442 6.0321 2.3903
5.0160 6.2055 2.3903
4.7820 6.3702 2.3903
4.5425 6.5259 2.3903
4.2978 6.6726 2.3903
4.0484 6.8099 2.3903
3.7945 6.9379 2.3903
3.5366 7.0563 2.3903
3.2750 7.1651 2.3903
3.0100 7.2642 2.3903
2.7422 7.3534 2.3903
2.4717 7.4328 2.3903
0.8667 2.9569 0.9421
0.7600 2.9860 0.9439
0.6522 3.0112 0.9457
0.5436 3.0325 0.9474
0.4343 3.0498 0.9492
0.3244 3.0632 0.9509
0.2141 3.0726 0.9527
0.1035 3.0779 0.9544
-0.0072 3.0793 0.9561
-0.1179 3.0767 0.9578
-0.2284 3.0701 0.9595
-0.3386 3.0595 0.9611
-0.4484 3.0449 0.9627
-0.5576 3.0263 0.9643
-0.6660 3.0038 0.9659
-0.7735 2.9774 0.9674
-0.8800 2.9471 0.9689
-2.4272 7.1754 2.3903
-2.6796 7.0717 2.3903
-2.9278 6.9594 2.3903
-3.1715 6.8386 2.3903
-3.4106 6.7097 2.3903
-3.6446 6.5726 2.3903
-3.8735 6.4278 2.3903
-4.0969 6.2752 2.3903
-4.3145 6.1152 2.3903
-4.5263 5.9479 2.3903
-4.7318 5.7737 2.3903
-4.9310 5.5926 2.3903
-5.1236 5.4050 2.3903
-5.3094 5.2110 2.3903
-5.4882 5.0110 2.3903
-5.6598 4.8051 2.3903
-5.8241 4.5936 2.3903
-5.9809 4.3767 2.3903
-6.1300 4.1547 2.3903
-6.2714 3.9280 2.3903
-6.4047 3.6966 2.3903
-6.5300 3.4610 2.3903
-6.6470 3.2213 2.3903
-6.7557 2.9779 2.3903
-6.8559 2.7310 2.3903
-6.9476 2.4809 2.3903
-7.0306 2.2279 2.3903
-7.1049 1.9723 2.3903
-7.1704 1.7143 2.3903
-7.2270 1.4542 2.3903
-7.2747 1.1924 2.3903
-7.3133 0.9290 2.3903
-7.3430 0.6645 2.3903
-7.3635 0.3991 2.3903
-7.3750 0.1331 2.3903
-7.3773 -0.1332 2.3903
-7.3706 -0.3995 2.3903
-7.3546 -0.6656 2.3903
-7.3296 -0.9311 2.3903
-7.2954 -1.1957 2.3903
-7.2522 -1.4591 2.3903
-7.1999 -1.7210 2.3903
-7.1386 -1.9812 2.3903
-7.0683 -2.2393 2.3903
-6.9892 -2.4951 2.3903
-6.9012 -2.7481 2.3903
-6.8044 -2.9983 2.3903
-6.6990 -3.2452 2.3903
-6.5849 -3.4885 2.3903
-6.4625 -3.7281 2.3903
-6.3316 -3.9635 2.3903
-6.1926 -4.1945 2.3903
-6.0454 -4.4208 2.3903
-5.8902 -4.6422 2.3903
-5.7273 -4.8584 2.3903
-5.5567 -5.0690 2.3903
-5.3786 -5.2739 2.3903
-5.1932 -5.4727 2.3903
-5.0008 -5.6652 2.3903
-4.8013 -5.8511 2.3903
-4.5952 -6.0302 2.3903
-4.3826 -6.2023 2.3903
-4.1638 -6.3670 2.3903
-3.9389 -6.5242 2.3903
-3.7083 -6.6736 2.3903
-3.4721 -6.8151 2.3903
-3.2307 -6.9483 2.3903
-2.9843 -7.0732 2.3903
-2.7331 -7.1894 2.3903
-2.4776 -7.2968 2.3903
-2.2180 -7.3952 2.3903
-1.9545 -7.4845 2.3903
-1.6876 -7.5645 2.3903
-1.4175 -7.6350 2.3903
-1.1445 -7.6958 2.3903
-0.8691 -7.7470 2.3903
-0.5915 -7.7883 2.3903
-0.3121 -7.8196 2.3903
-0.0313 -7.8409 2.3903
0.2506 -7.8520 2.3903
0.5332 -7.8530 2.3903
0.8162 -7.8436 2.3903
1.0991 -7.8240 2.3903
1.3816 -7.7940 2.3903
1.6632 -7.7537 2.3903
1.9437 -7.7031 2.3903
2.2226 -7.6421 2.3903
2.4995 -7.5708 2.3903
2.7740 -7.4893 2.3903
3.0458 -7.3977 2.3903
3.3144 -7.2959 2.3903
3.5795 -7.1841 2.3903
3.8406 -7.0624 2.3903
4.0974 -6.9310 2.3903
4.3495 -6.7900 2.3903
4.5965 -6.6395 2.3903
4.8381 -6.4797 2.3903
5.0738 -6.3109 2.3903
5.3034 -6.1332 2.3903
5.5264 -5.9468 2.3903
5.7425 -5.7520 2.3903
5.9514 -5.5491 2.3903
6.1527 -5.3383 2.3903
6.3462 -5.1199 2.3903
6.4393 -4.8251 2.3565
6.4258 -4.4652 2.2896
6.4381 -4.1402 2.2379
6.5870 -3.9102 2.2379
6.7273 -3.6746 2.2379
6.8586 -3.4337 2.2379
6.9809 -3.1880 2.2379
7.0938 -2.9377 2.2379
7.1973 -2.6832 2.2379
7.2911 -2.4249 2.2379
7.3751 -2.1631 2.2379
7.4492 -1.8984 2.2379
7.5132 -1.6310 2.2379
7.5671 -1.3613 2.2379
7.6108 -1.0898 2.2379
7.6441 -0.8168 2.2379
7.6671 -0.5429 2.2379
7.6798 -0.2682 2.2379
7.6821 0.0066 2.2379
7.6740 0.2812 2.2379
7.6555 0.5553 2.2379
7.6268 0.8283 2.2379
7.5877 1.0999 2.2379
7.5385 1.3697 2.2379
7.4793 1.6373 2.2379
7.4100 1.9023 2.2379
7.3309 2.1643 2.2379
7.2420 2.4230 2.2379
7.1436 2.6779 2.2379
7.0358 2.9287 2.2379
6.9188 3.1751 2.2379
6.7928 3.4167 2.2379
6.6580 3.6532 2.2379
6.5146 3.8842 2.2379
6.3628 4.1094 2.2379
6.2030 4.3286 2.2379
6.0354 4.5414 2.2379
5.8602 4.7476 2.2379
5.7487 5.0087 2.2658
5.7125 5.3489 2.3293
5.6525 5.6863 2.3903
5.4362 5.8755 2.3903
5.2134 6.0563 2.3903
4.9844 6.2286 2.3903
4.7496 6.3920 2.3903
4.5093 6.5465 2.3903
4.2640 6.6919 2.3903
4.0140 6.8280 2.3903
3.7595 6.9546 2.3903
3.5011 7.0717 2.3903
3.2390 7.1792 2.3903
2.9736 7.2769 2.3903
2.7053 7.3648 2.3903
2.4346 7.4428 2.3903
0.8522 2.9611 0.9423
0.7453 2.9897 0.9441
0.6374 3.0143 0.9459
0.5287 3.0351 0.9477
0.4193 3.0518 0.9494
0.3094 3.0647 0.9512
0.1990 3.0735 0.9529
0.0884 3.0784 0.9547
-0.0223 3.0792 0.9564
-0.1330 3.0760 0.9580
-0.2435 3.0689 0.9597
-0.3536 3.0577 0.9614
-0.4633 3.0426 0.9630
-0.5724 3.0235 0.9646
-0.6807 3.0004 0.9661
-0.7881 2.9735 0.9676
5.6505 4.8239 2.3903
5.4662 5.0158 2.3903
5.2751 5.2006 2.3903
5.0777 5.3780 2.3903
4.8741 5.5477 2.3903
4.6647 5.7096 2.3903
4.4498 5.8636 2.3903
4.2298 6.0093 2.3903
4.0049 6.1467 2.3903
3.7755 6.2756 2.3903
3.5419 6.3958 2.3903
3.3044 6.5073 2.3903
3.0634 6.6100 2.3903
2.8193 6.7037 2.3903
2.5723 6.7883 2.3903
0.9136 2.6997 0.9401
0.8161 2.7306 0.9418
0.7175 2.7580 0.9434
0.6179 2.7817 0.9451
0.5176 2.8019 0.9467
0.4166 2.8184 0.9484
0.3150 2.8313 0.9500
0.2130 2.8404 0.9516
0.1108 2.8459 0.9532
0.0084 2.8477 0.9548
-0.0940 2.8458 0.9563
-0.1962 2.8401 0.9579
-0.2982 2.8308 0.9594
-0.3998 2.8178 0.9609
-0.5008 2.8011 0.9624
-0.6012 2.7808 0.9638
-0.7008 2.7569 0.9653
-0.7994 2.7294 0.9666
-2.2149 6.6629 2.3903
-2.4496 6.5686 2.3903
-2.6806 6.4663 2.3903
-2.9074 6.3561 2.3903
-3.1300 6.2382 2.3903
-3.3480 6.1127 2.3903
-3.5613 5.9799 2.3903
-3.7695 5.8399 2.3903
-3.9725 5.6929 2.3903
-4.1700 5.5392 2.3903
-4.3619 5.3788 2.3903
-4.5479 5.2121 2.3903
-4.7278 5.0392 2.3903
-4.9014 4.8604 2.3903
-5.0686 4.6758 2.3903
-5.2291 4.4857 2.3903
-5.3829 4.2903 2.3903
-5.5297 4.0900 2.3903
-5.6694 3.8848 2.3903
-5.8019 3.6750 2.3903
-5.9269 3.4610 2.3903
-6.0445 3.2429 2.3903
-6.1544 3.0210 2.3903
-6.2566 2.7955 2.3903
-6.3509 2.5668 2.3903
-6.4373 2.3350 2.3903
-6.5156 2.1005 2.3903
-6.5858 1.8635 2.3903
-6.6478 1.6242 2.3903
-6.7015 1.3830 2.3903
-6.7469 1.1400 2.3903
-6.7839 0.8957 2.3903
-6.8126 0.6502 2.3903
-6.8327 0.4039 2.3903
-6.8444 0.1569 2.3903
-6.8476 -0.0903 2.3903
-6.8423 -0.3377 2.3903
-6.8285 -0.5847 2.3903
-6.8062 -0.8313 2.3903
-6.7754 -1.0770 2.3903
-6.7361 -1.3217 2.3903
-6.6884 -1.5650 2.3903
-6.6323 -1.8067 2.3903
-6.5679 -2.0464 2.3903
-6.4951 -2.2840 2.3903
-6.4142 -2.5191 2.3903
-6.3250 -2.7515 2.3903
-6.2279 -2.9808 2.3903
-6.1227 -3.2069 2.3903
-6.0096 -3.4294 2.3903
-5.8888 -3.6481 2.3903
-5.7603 -3.8627 2.3903
-5.6243 -4.0729 2.3903
-5.4809 -4.2785 2.3903
-5.3303 -4.4793 2.3903
-5.1725 -4.6749 2.3903
-5.0078 -4.8651 2.3903
-4.8363 -5.0497 2.3903
-4.6582 -5.2285 2.3903
-4.4738 -5.4011 2.3903
-4.2831 -5.5674 2.3903
-4.0863 -5.7271 2.3903
-3.8839 -5.8801 2.3903
-3.6758 -6.0260 2.3903
-3.4624 -6.1647 2.3903
-3.2439 -6.2960 2.3903
-3.0205 -6.4197 2.3903
-2.7925 -6.5356 2.3903
-2.5602 -6.6435 2.3903
-2.3238 -6.7432 2.3903
-2.0837 -6.8346 2.3903
-1.8400 -6.9175 2.3903
-1.5931 -6.9918 2.3903
-1.3433 -7.0573 2.3903
-1.0910 -7.1140 2.3903
-0.8363 -7.1616 2.3903
-0.5797 -7.2001 2.3903
-0.3214 -7.2294 2.3903
-0.0618 -7.2494 2.3903
0.1988 -7.2600 2.3903
0.4600 -7.2612 2.3903
0.7214 -7.2529 2.3903
0.9829 -7.2351 2.3903
1.2439 -7.2078 2.3903
1.5041 -7.1709 2.3903
1.7632 -7.1245 2.3903
2.0209 -7.0686 2.3903
2.2767 -7.0032 2.3903
2.5303 -6.9284 2.3903
2.7814 -6.8441 2.3903
3.0295 -6.7506 2.3903
3.2743 -6.6479 2.3903
3.5155 -6.5361 2.3903
3.7528 -6.4153 2.3903
3.9857 -6.2857 2.3903
4.2139 -6.1473 2.3903
4.4371 -6.0004 2.3903
4.6549 -5.8452 2.3903
4.8670 -5.6818 2.3903
5.0732 -5.5105 2.3903
5.2730 -5.3314 2.3903
5.4662 -5.1448 2.3903
5.6524 -4.9509 2.3903
5.8315 -4.7501 2.3903
6.0030 -4.5425 2.3903
6.1668 -4.3285 2.3903
6.3225 -4.1084 2.3903
6.3678 -3.8211 2.3525
6.3555 -3.5109 2.2986
6.3452 -3.2147 2.2505
6.4232 -2.9706 2.2379
6.5283 -2.7403 2.2379
6.6246 -2.5061 2.2379
6.7122 -2.2684 2.2379
6.7907 -2.0275 2.2379
6.8602 -1.7838 2.2379
6.9204 -1.5376 2.2379
6.9713 -1.2893 2.2379
7.0129 -1.0392 2.2379
7.0450 -0.7878 2.2379
7.0676 -0.5354 2.2379
7.0806 -0.2823 2.2379
7.0842 -0.0290 2.2379
7.0782 0.2242 2.2379
7.0627 0.4770 2.2379
7.0378 0.7288 2.2379
7.0034 0.9795 2.2379
6.9596 1.2285 2.2379
6.9066 1.4756 2.2379
6.8444 1.7204 2.2379
6.7731 1.9625 2.2379
6.6928 2.2016 2.2379
6.6037 2.4373 2.2379
6.5059 2.6694 2.2379
6.3997 2.8974 2.2379
6.2851 3.1212 2.2379
6.1623 3.3402 2.2379
6.0317 3.5544 2.2379
5.8933 3.7633 2.2379
5.8200 4.0169 2.2661
5.7897 4.3099 2.3160
5.7575 4.6152 2.3711
5.6258 4.8505 2.3903
5.4405 5.0415 2.3903
5.2485 5.2253 2.3903
5.0502 5.4016 2.3903
4.8458 5.5703 2.3903
4.6356 5.7311 2.3903
4.4201 5.8840 2.3903
4.1993 6.0286 2.3903
3.9738 6.1648 2.3903
3.7438 6.2925 2.3903
3.5096 6.4116 2.3903
3.2717 6.5219 2.3903
3.0303 6.6233 2.3903
2.7857 6.7158 2.3903
2.5384 6.7992 2.3903
0.9004 2.7042 0.9404
0.8027 2.7346 0.9420
0.7039 2.7614 0.9437
0.6043 2.7847 0.9453
0.5038 2.8044 0.9470
0.4027 2.8204 0.9486
0.3011 2.8327 0.9502
0.1991 2.8414 0.9518
0.0968 2.8464 0.9534
-0.0056 2.8476 0.9550
-0.1080 2.8452 0.9566
-0.2102 2.8391 0.9581
-0.3121 2.8292 0.9596
-0.4136 2.8157 0.9611
-0.5146 2.7986 0.9626
-0.6148 2.7778 0.9640
-0.7143 2.7533 0.9654
-0.8128 2.7253 0.9668
-2.2472 6.6505 2.3903
-2.4814 6.5551 2.3903
-2.7118 6.4517 2.3903
-2.9381 6.3404 2.3903
-3.1600 6.2215 2.3903
-3.3774 6.0950 2.3903
-3.5900 5.9612 2.3903
-3.7976 5.8203 2.3903
-3.9998 5.6723 2.3903
-4.1966 5.5177 2.3903
-4.3876 5.3564 2.3903
-4.5728 5.1888 2.3903
-4.7519 5.0151 2.3903
-4.9246 4.8355 2.3903
-5.0909 4.6501 2.3903
-5.2505 4.4593 2.3903
-5.4034 4.2633 2.3903
-5.5492 4.0622 2.3903
-5.6879 3.8564 2.3903
-5.8194 3.6460 2.3903
-5.9434 3.4314 2.3903
-6.0600 3.2128 2.3903
-6.1688 2.9904 2.3903
-6.2699 2.7645 2.3903
-6.3632 2.5353 2.3903
-6.4484 2.3031 2.3903
-6.5256 2.0682 2.3903
-6.5947 1.8309 2.3903
-6.6556 1.5913 2.3903
-6.7082 1.3499 2.3903
-6.7525 1.1067 2.3903
-6.7884 0.8622 2.3903
-6.8158 0.6166 2.3903
-6.8348 0.3701 2.3903
-6.8454 0.1232 2.3903
-6.8474 -0.1241 2.3903
-6.8409 -0.3714 2.3903
-6.8260 -0.6184 2.3903
-6.8025 -0.8649 2.3903
-6.7705 -1.1105 2.3903
-6.7301 -1.3550 2.3903
-6.6812 -1.5981 2.3903
-6.6240 -1.8395 2.3903
-6.5584 -2.0790 2.3903
-6.4845 -2.3163 2.3903
-6.4025 -2.5510 2.3903
-6.3122 -2.7830 2.3903
-6.2140 -3.0119 2.3903
-6.1077 -3.2375 2.3903
-5.9936 -3.4595 2.3903
-5.8717 -3.6776 2.3903
-5.7422 -3.8917 2.3903
-5.6052 -4.1013 2.3903
-5.4608 -4.3062 2.3903
-5.3091 -4.5063 2.3903
-5.1504 -4.7012 2.3903
-4.9848 -4.8907 2.3903
-4.8124 -5.0745 2.3903
-4.6334 -5.2524 2.3903
-4.4481 -5.4242 2.3903
-4.2565 -5.5896 2.3903
-4.0590 -5.7484 2.3903
-3.8558 -5.9004 2.3903
-3.6469 -6.0454 2.3903
-3.4328 -6.1831 2.3903
-3.2136 -6.3134 2.3903
-2.9896 -6.4360 2.3903
-2.7610 -6.5508 2.3903
-2.5281 -6.6576 2.3903
-2.2912 -6.7562 2.3903
-2.0506 -6.8464 2.3903
-1.8065 -6.9282 2.3903
-1.5592 -7.0013 2.3903
-1.3090 -7.0656 2.3903
-1.0563 -7.1210 2.3903
-0.8013 -7.1674 2.3903
-0.5445 -7.2046 2.3903
-0.2860 -7.2326 2.3903
-0.0263 -7.2514 2.3903
0.2344 -7.2607 2.3903
0.4957 -7.2606 2.3903
0.7572 -7.2510 2.3903
1.0186 -7.2319 2.3903
1.2795 -7.2033 2.3903
1.5396 -7.1651 2.3903
1.7986 -7.1174 2.3903
2.0560 -7.0602 2.3903
2.3115 -6.9935 2.3903
2.5648 -6.9174 2.3903
2.8154 -6.8319 2.3903
3.0631 -6.7371 2.3903
3.3075 -6.6332 2.3903
3.5482 -6.5201 2.3903
3.7848 -6.3981 2.3903
4.0171 -6.2673 2.3903
4.2447 -6.1277 2.3903
4.4671 -5.9797 2.3903
4.6842 -5.8234 2.3903
4.8956 -5.6589 2.3903
5.1009 -5.4864 2.3903
5.2998 -5.3063 2.3903
5.4921 -5.1187 2.3903
5.6773 -4.9239 2.3903
5.8553 -4.7221 2.3903
6.0258 -4.5137 2.3903
6.1885 -4.2988 2.3903
6.3432 -4.0779 2.3903
6.3661 -3.7779 2.3448
6.3538 -3.4696 2.2916
6.3474 -3.1770 2.2456
6.4380 -2.9393 2.2379
6.5419 -2.7085 2.2379
6.6371 -2.4738 2.2379
6.7234 -2.2356 2.2379
6.8008 -1.9944 2.2379
6.8689 -1.7503 2.2379
6.9279 -1.5038 2.2379
6.9775 -1.2552 2.2379
7.0178 -1.0050 2.2379
7.0486 -0.7534 2.2379
7.0699 -0.5008 2.2379
7.0817 -0.2477 2.2379
7.0840 0.0056 2.2379
7.0767 0.2588 2.2379
7.0599 0.5114 2.2379
7.0336 0.7631 2.2379
6.9980 1.0136 2.2379
6.9529 1.2624 2.2379
6.8986 1.5092 2.2379
6.8352 1.7536 2.2379
6.7626 1.9953 2.2379
6.6811 2.2340 2.2379
6.5908 2.4692 2.2379
6.4919 2.7008 2.2379
6.3845 2.9283 2.2379
6.2688 3.1514 2.2379
6.1449 3.3698 2.2379
6.0132 3.5833 2.2379
5.8738 3.7914 2.2379
5.8160 4.0562 2.2727
5.7854 4.3508 2.3233
5.7529 4.6580 2.3790
5.6009 4.8771 2.3903
5.4146 5.0670 2.3903
5.2218 5.2498 2.3903
5.0226 5.4251 2.3903
4.8174 5.5927 2.3903
4.6065 5.7525 2.3903
4.3902 5.9042 2.3903
4.1688 6.0477 2.3903
3.9426 6.1827 2.3903
3.7120 6.3093 2.3903
3.4773 6.4272 2.3903
3.2389 6.5363 2.3903
2.9970 6.6365 2.3903
2.7521 6.7277 2.3903
2.5044 6.8099 2.3903
0.8871 2.7085 0.9406
0.7892 2.7384 0.9422
0.6904 2.7648 0.9439
0.5906 2.7876 0.9455
0.4900 2.8068 0.9472
0.3888 2.8223 0.9488
0.2872 2.8341 0.9504
0.1851 2.8423 0.9520
0.0828 2.8468 0.9536
-0.0196 2.8475 0.9552
-0.1219 2.8446 0.9568
-0.2241 2.8379 0.9583
-0.3260 2.8276 0.9598
-0.4275 2.8136 0.9613
-0.5283 2.7959 0.9628
-0.6285 2.7746 0.9642
-0.7278 2.7497 0.9656
5.2439 4.4741 2.3903
5.0734 4.6526 2.3903
4.8966 4.8244 2.3903
4.7139 4.9895 2.3903
4.5255 5.1475 2.3903
4.3316 5.2983 2.3903
4.1326 5.4418 2.3903
3.9288 5.5776 2.3903
3.7204 5.7058 2.3903
3.5079 5.8261 2.3903
3.2913 5.9384 2.3903
3.0712 6.0426 2.3903
2.8477 6.1386 2.3903
2.6213 6.2264 2.3903
0.9394 2.4763 0.9387
0.8499 2.5083 0.9402
0.7592 2.5369 0.9417
0.6676 2.5623 0.9433
0.5751 2.5844 0.9448
0.4819 2.6031 0.9463
0.3880 2.6184 0.9478
0.2937 2.6304 0.9494
0.1989 2.6389 0.9509
0.1039 2.6439 0.9523
0.0088 2.6456 0.9538
-0.0863 2.6438 0.9553
-0.1813 2.6386 0.9567
-0.2761 2.6299 0.9581
-0.3704 2.6178 0.9595
-0.4643 2.6023 0.9609
-0.5576 2.5834 0.9622
-0.6501 2.5612 0.9635
-0.7417 2.5357 0.9648
-0.8324 2.5068 0.9661
-2.2782 6.1150 2.3903
-2.4934 6.0203 2.3903
-2.7049 5.9183 2.3903
-2.9124 5.8090 2.3903
-3.1157 5.6927 2.3903
-3.3146 5.5694 2.3903
-3.5089 5.4395 2.3903
-3.6983 5.3030 2.3903
-3.8826 5.1601 2.3903
-4.0616 5.0111 2.3903
-4.2352 4.8561 2.3903
-4.4031 4.6953 2.3903
-4.5652 4.5289 2.3903
-4.7213 4.3572 2.3903
-4.8712 4.1803 2.3903
-5.0147 3.9984 2.3903
-5.1518 3.8118 2.3903
-5.2823 3.6207 2.3903
-5.4060 3.4254 2.3903
-5.5228 3.2260 2.3903
-5.6326 3.0228 2.3903
-5.7352 2.8160 2.3903
-5.8307 2.6059 2.3903
-5.9187 2.3927 2.3903
-5.9994 2.1766 2.3903
-6.0725 1.9580 2.3903
-6.1380 1.7370 2.3903
-6.1959 1.5140 2.3903
-6.2460 1.2890 2.3903
-6.2883 1.0626 2.3903
-6.3229 0.8347 2.3903
-6.3495 0.6058 2.3903
-6.3683 0.3761 2.3903
-6.3791 0.1459 2.3903
-6.3819 -0.0847 2.3903
-6.3769 -0.3152 2.3903
-6.3638 -0.5455 2.3903
-6.3428 -0.7754 2.3903
-6.3139 -1.0044 2.3903
-6.2771 -1.2325 2.3903
-6.2323 -1.4592 2.3903
-6.1798 -1.6845 2.3903
-6.1194 -1.9079 2.3903
-6.0513 -2.1292 2.3903
-5.9755 -2.3482 2.3903
-5.8921 -2.5646 2.3903
-5.8012 -2.7782 2.3903
-5.7028 -2.9887 2.3903
-5.5971 -3.1958 2.3903
-5.4842 -3.3993 2.3903
-5.3641 -3.5990 2.3903
-5.2369 -3.7946 2.3903
-5.1030 -3.9858 2.3903
-4.9622 -4.1724 2.3903
-4.8148 -4.3543 2.3903
-4.6610 -4.5311 2.3903
-4.5009 -4.7026 2.3903
-4.3347 -4.8685 2.3903
-4.1626 -5.0288 2.3903
-3.9846 -5.1831 2.3903
-3.8011 -5.3313 2.3903
-3.6123 -5.4731 2.3903
-3.4183 -5.6084 2.3903
-3.2193 -5.7368 2.3903
-3.0157 -5.8584 2.3903
-2.8075 -5.9728 2.3903
-2.5952 -6.0800 2.3903
-2.3788 -6.1797 2.3903
-2.1587 -6.2717 2.3903
-1.9351 -6.3560 2.3903
-1.7083 -6.4324 2.3903
-1.4786 -6.5007 2.3903
-1.2463 -6.5609 2.3903
-1.0115 -6.6127 2.3903
-0.7747 -6.6562 2.3903
-0.5361 -6.6912 2.3903
-0.2961 -6.7177 2.3903
-0.0549 -6.7355 2.3903
0.1872 -6.7446 2.3903
0.4298 -6.7449 2.3903
0.6726 -6.7364 2.3903
0.9153 -6.7191 2.3903
1.1575 -6.6930 2.3903
1.3990 -6.6580 2.3903
1.6394 -6.6142 2.3903
1.8784 -6.5616 2.3903
2.1156 -6.5002 2.3903
2.3507 -6.4301 2.3903
2.5834 -6.3513 2.3903
2.8134 -6.2639 2.3903
3.0403 -6.1679 2.3903
3.2637 -6.0636 2.3903
3.4835 -5.9510 2.3903
3.6992 -5.8302 2.3903
3.9105 -5.7014 2.3903
4.1171 -5.5647 2.3903
4.3187 -5.4203 2.3903
4.5151 -5.2684 2.3903
4.7059 -5.1091 2.3903
4.8907 -4.9427 2.3903
5.0695 -4.7694 2.3903
5.2418 -4.5894 2.3903
5.4074 -4.4030 2.3903
5.5660 -4.2103 2.3903
5.7175 -4.0118 2.3903
5.8615 -3.8076 2.3903
5.9979 -3.5980 2.3903
6.1264 -3.3834 2.3903
6.2469 -3.1640 2.3903
6.2996 -2.9127 2.3679
6.2878 -2.6387 2.3255
6.2758 -2.3736 2.2874
6.2636 -2.1164 2.2532
6.2936 -1.8788 2.2379
6.3578 -1.6529 2.2379
6.4136 -1.4249 2.2379
6.4607 -1.1948 2.2379
6.4992 -0.9632 2.2379
6.5290 -0.7303 2.2379
6.5500 -0.4964 2.2379
6.5622 -0.2620 2.2379
6.5656 -0.0273 2.2379
6.5603 0.2073 2.2379
6.5461 0.4415 2.2379
6.5232 0.6748 2.2379
6.4916 0.9071 2.2379
6.4513 1.1379 2.2379
6.4024 1.3669 2.2379
6.3451 1.5938 2.2379
6.2793 1.8183 2.2379
6.2053 2.0400 2.2379
6.1231 2.2586 2.2379
6.0329 2.4739 2.2379
5.9347 2.6854 2.2379
5.8987 2.9276 2.2646
5.8738 3.1820 2.2998
5.8477 3.4440 2.3390
5.8202 3.7145 2.3824
5.6953 3.9286 2.3903
5.5441 4.1247 2.3903
5.3859 4.3149 2.3903
5.2210 4.4989 2.3903
5.0496 4.6764 2.3903
4.8720 4.8474 2.3903
4.6885 5.0115 2.3903
4.4993 5.1686 2.3903
4.3047 5.3184 2.3903
4.1051 5.4608 2.3903
3.9006 5.5956 2.3903
3.6916 5.7227 2.3903
3.4785 5.8419 2.3903
3.2615 5.9531 2.3903
3.0409 6.0562 2.3903
2.8170 6.1511 2.3903
2.5901 6.2377 2.3903
0.9273 2.4809 0.9389
0.8376 2.5124 0.9404
0.7468 2.5406 0.9420
0.6550 2.5655 0.9435
0.5624 2.5872 0.9450
0.4691 2.6054 0.9465
0.3752 2.6203 0.9481
0.2807 2.6317 0.9496
0.1860 2.6398 0.9511
0.0909 2.6444 0.9525
-0.0042 2.6455 0.9540
-0.0993 2.6433 0.9555
-0.1943 2.6376 0.9569
-0.2890 2.6284 0.9583
-0.3833 2.6159 0.9597
-0.4771 2.5999 0.9611
-0.5703 2.5806 0.9624
-0.6627 2.5579 0.9637
-0.7542 2.5319 0.9650
-0.8447 2.5026 0.9663
-2.3078 6.1025 2.3903
-2.5225 6.0068 2.3903
-2.7335 5.9038 2.3903
-2.9404 5.7935 2.3903
-3.1432 5.6762 2.3903
-3.3414 5.5521 2.3903
-3.5350 5.4212 2.3903
-3.7237 5.2838 2.3903
-3.9073 5.1401 2.3903
-4.0856 4.9903 2.3903
-4.2584 4.8345 2.3903
-4.4256 4.6729 2.3903
-4.5868 4.5058 2.3903
-4.7421 4.3333 2.3903
-4.8911 4.1557 2.3903
-5.0338 3.9732 2.3903
-5.1700 3.7860 2.3903
-5.2996 3.5943 2.3903
-5.4224 3.3984 2.3903
-5.5382 3.1984 2.3903
-5.6470 2.9947 2.3903
-5.7487 2.7875 2.3903
-5.8431 2.5769 2.3903
-5.9302 2.3633 2.3903
-6.0098 2.1469 2.3903
-6.0819 1.9280 2.3903
-6.1464 1.7067 2.3903
-6.2032 1.4833 2.3903
-6.2522 1.2582 2.3903
-6.2935 1.0315 2.3903
-6.3270 0.8035 2.3903
-6.3526 0.5745 2.3903
-6.3702 0.3447 2.3903
-6.3799 0.1144 2.3903
-6.3817 -0.1162 2.3903
-6.3756 -0.3467 2.3903
-6.3614 -0.5770 2.3903
-6.3393 -0.8067 2.3903
-6.3093 -1.0357 2.3903
-6.2714 -1.2636 2.3903
-6.2256 -1.4901 2.3903
-6.1720 -1.7151 2.3903
-6.1106 -1.9382 2.3903
-6.0414 -2.1593 2.3903
-5.9646 -2.3779 2.3903
-5.8802 -2.5940 2.3903
-5.7882 -2.8071 2.3903
-5.6888 -3.0172 2.3903
-5.5821 -3.2238 2.3903
-5.4682 -3.4268 2.3903
-5.3471 -3.6260 2.3903
-5.2190 -3.8210 2.3903
-5.0841 -4.0116 2.3903
-4.9425 -4.1976 2.3903
-4.7942 -4.3787 2.3903
-4.6395 -4.5548 2.3903
-4.4786 -4.7256 2.3903
-4.3115 -4.8908 2.3903
-4.1386 -5.0502 2.3903
-3.9599 -5.2037 2.3903
-3.7757 -5.3511 2.3903
-3.5861 -5.4920 2.3903
-3.3914 -5.6263 2.3903
-3.1918 -5.7539 2.3903
-2.9875 -5.8745 2.3903
-2.7788 -5.9879 2.3903
-2.5658 -6.0940 2.3903
-2.3489 -6.1927 2.3903
-2.1284 -6.2837 2.3903
-1.9043 -6.3669 2.3903
-1.6771 -6.4422 2.3903
-1.4470 -6.5094 2.3903
-1.2143 -6.5684 2.3903
-0.9793 -6.6192 2.3903
-0.7422 -6.6615 2.3903
-0.5034 -6.6954 2.3903
-0.2632 -6.7206 2.3903
-0.0219 -6.7372 2.3903
0.2203 -6.7451 2.3903
0.4629 -6.7443 2.3903
0.7057 -6.7346 2.3903
0.9484 -6.7161 2.3903
1.1906 -6.6888 2.3903
1.4319 -6.6526 2.3903
1.6722 -6.6076 2.3903
1.9109 -6.5537 2.3903
2.1478 -6.4911 2.3903
2.3827 -6.4198 2.3903
2.6150 -6.3398 2.3903
2.8446 -6.2513 2.3903
3.0710 -6.1542 2.3903
3.2940 -6.0487 2.3903
3.5132 -5.9350 2.3903
3.7283 -5.8131 2.3903
3.9390 -5.6832 2.3903
4.1450 -5.5454 2.3903
4.3459 -5.4000 2.3903
4.5415 -5.2470 2.3903
4.7315 -5.0868 2.3903
4.9155 -4.9194 2.3903
5.0934 -4.7452 2.3903
5.2648 -4.5643 2.3903
5.4295 -4.3770 2.3903
5.5871 -4.1836 2.3903
5.7376 -3.9842 2.3903
5.8806 -3.7793 2.3903
6.0159 -3.5690 2.3903
6.1434 -3.3537 2.3903
6.2627 -3.1337 2.3903
6.2980 -2.8747 2.3618
6.2861 -2.6020 2.3200
6.2741 -2.3380 2.2825
6.2645 -2.0827 2.2498
6.3029 -1.8481 2.2379
6.3660 -1.6219 2.2379
6.4205 -1.3935 2.2379
6.4665 -1.1633 2.2379
6.5038 -0.9314 2.2379
6.5324 -0.6984 2.2379
6.5522 -0.4644 2.2379
6.5632 -0.2299 2.2379
6.5654 0.0048 2.2379
6.5588 0.2393 2.2379
6.5435 0.4734 2.2379
6.5194 0.7066 2.2379
6.4866 0.9387 2.2379
6.4451 1.1693 2.2379
6.3951 1.3980 2.2379
6.3366 1.6246 2.2379
6.2697 1.8487 2.2379
6.1945 2.0700 2.2379
6.1112 2.2882 2.2379
6.0199 2.5030 2.2379
5.9283 2.7175 2.2407
5.8953 2.9620 2.2692
5.8703 3.2174 2.3049
5.8440 3.4805 2.3447
5.8163 3.7522 2.3887
5.6751 3.9557 2.3903
5.5229 4.1510 2.3903
5.3638 4.3404 2.3903
5.1979 4.5235 2.3903
5.0257 4.7002 2.3903
4.8473 4.8702 2.3903
4.6629 5.0334 2.3903
4.4730 5.1895 2.3903
4.2777 5.3383 2.3903
4.0774 5.4796 2.3903
3.8723 5.6134 2.3903
3.6628 5.7394 2.3903
3.4491 5.8576 2.3903
3.2315 5.9677 2.3903
3.0104 6.0697 2.3903
2.7861 6.1634 2.3903
2.5589 6.2489 2.3903
0.9151 2.4854 0.9391
0.8252 2.5164 0.9406
0.7343 2.5442 0.9422
0.6424 2.5687 0.9437
0.5497 2.5898 0.9452
0.4563 2.6076 0.9467
0.3623 2.6220 0.9483
0.2678 2.6330 0.9498
0.1730 2.6406 0.9513
0.0779 2.6447 0.9527
-0.0172 2.6454 0.9542
-0.1123 2.6427 0.9557
-0.2072 2.6365 0.9571
-0.3019 2.6269 0.9585
-0.3961 2.6139 0.9599
-0.4899 2.5975 0.9612
-0.5829 2.5777 0.9626
-0.6752 2.5546 0.9639
4.8869 4.1670 2.3903
4.7284 4.3336 2.3903
4.5642 4.4940 2.3903
4.3943 4.6482 2.3903
4.2191 4.7959 2.3903
4.0389 4.9369 2.3903
3.8538 5.0710 2.3903
3.6642 5.1981 2.3903
3.4703 5.3181 2.3903
3.2725 5.4307 2.3903
3.0709 5.5360 2.3903
2.8660 5.6337 2.3903
2.6579 5.7238 2.3903
2.4469 5.8062 2.3903
0.8773 2.3099 0.9388
0.7937 2.3396 0.9403
0.7092 2.3664 0.9417
0.6237 2.3900 0.9431
0.5374 2.4106 0.9446
0.4504 2.4280 0.9460
0.3629 2.4423 0.9474
0.2749 2.4534 0.9488
0.1865 2.4614 0.9502
0.0979 2.4661 0.9516
0.0092 2.4676 0.9530
-0.0796 2.4659 0.9543
-0.1682 2.4610 0.9556
-0.2566 2.4529 0.9570
-0.3446 2.4417 0.9583
-0.4322 2.4272 0.9595
-0.5191 2.4096 0.9608
-0.6054 2.3889 0.9620
-0.6909 2.3650 0.9632
-0.7755 2.3381 0.9644
-0.8590 2.3082 0.9655
-2.3279 5.6260 2.3903
-2.5258 5.5310 2.3903
-2.7199 5.4293 2.3903
-2.9102 5.3210 2.3903
-3.0964 5.2062 2.3903
-3.2782 5.0851 2.3903
-3.4555 4.9578 2.3903
-3.6281 4.8246 2.3903
-3.7957 4.6855 2.3903
-3.9583 4.5409 2.3903
-4.1155 4.3908 2.3903
-4.2674 4.2354 2.3903
-4.4136 4.0750 2.3903
-4.5540 3.9097 2.3903
-4.6885 3.7398 2.3903
-4.8170 3.5654 2.3903
-4.9392 3.3868 2.3903
-5.0551 3.2042 2.3903
-5.1646 3.0177 2.3903
-5.2675 2.8277 2.3903
-5.3637 2.6343 2.3903
-5.4531 2.4378 2.3903
-5.5356 2.2383 2.3903
-5.6111 2.0362 2.3903
-5.6797 1.8317 2.3903
-5.7410 1.6249 2.3903
-5.7952 1.4162 2.3903
-5.8422 1.2058 2.3903
-5.8818 0.9938 2.3903
-5.9141 0.7807 2.3903
-5.9390 0.5665 2.3903
-5.9565 0.3516 2.3903
-5.9665 0.1361 2.3903
-5.9691 -0.0796 2.3903
-5.9642 -0.2953 2.3903
-5.9519 -0.5108 2.3903
-5.9321 -0.7259 2.3903
-5.9049 -0.9401 2.3903
-5.8702 -1.1535 2.3903
-5.8282 -1.3656 2.3903
-5.7788 -1.5762 2.3903
-5.7221 -1.7851 2.3903
-5.6581 -1.9921 2.3903
-5.5869 -2.1968 2.3903
-5.5087 -2.3991 2.3903
-5.4233 -2.5987 2.3903
-5.3310 -2.7954 2.3903
-5.2318 -2.9890 2.3903
-5.1259 -3.1791 2.3903
-5.0132 -3.3656 2.3903
-4.8941 -3.5482 2.3903
-4.7684 -3.7267 2.3903
-4.6365 -3.9010 2.3903
-4.4984 -4.0706 2.3903
-4.3543 -4.2356 2.3903
-4.2043 -4.3955 2.3903
-4.0487 -4.5503 2.3903
-3.8874 -4.6997 2.3903
-3.7208 -4.8435 2.3903
-3.5491 -4.9815 2.3903
-3.3723 -5.1135 2.3903
-3.1908 -5.2394 2.3903
-3.0047 -5.3589 2.3903
-2.8142 -5.4719 2.3903
-2.6195 -5.5783 2.3903
-2.4210 -5.6778 2.3903
-2.2187 -5.7703 2.3903
-2.0130 -5.8557 2.3903
-1.8041 -5.9338 2.3903
-1.5922 -6.0045 2.3903
-1.3776 -6.0676 2.3903
-1.1607 -6.1232 2.3903
-0.9415 -6.1710 2.3903
-0.7204 -6.2109 2.3903
-0.4978 -6.2429 2.3903
-0.2738 -6.2670 2.3903
-0.0488 -6.2829 2.3903
0.1770 -6.2908 2.3903
0.4032 -6.2904 2.3903
0.6295 -6.2819 2.3903
0.8558 -6.2652 2.3903
1.0816 -6.2402 2.3903
1.3066 -6.2070 2.3903
1.5305 -6.1655 2.3903
1.7531 -6.1159 2.3903
1.9740 -6.0581 2.3903
2.1929 -5.9922 2.3903
2.4096 -5.9182 2.3903
2.6236 -5.8362 2.3903
2.8347 -5.7464 2.3903
3.0426 -5.6487 2.3903
3.2471 -5.5433 2.3903
3.4477 -5.4304 2.3903
3.6442 -5.3100 2.3903
3.8363 -5.1823 2.3903
4.0238 -5.0475 2.3903
4.2063 -4.9056 2.3903
4.3837 -4.7570 2.3903
4.5555 -4.6018 2.3903
4.7216 -4.4402 2.3903
4.8817 -4.2724 2.3903
5.0356 -4.0986 2.3903
5.1830 -3.9191 2.3903
5.3237 -3.7342 2.3903
5.4575 -3.5440 2.3903
5.5842 -3.3488 2.3903
5.7036 -3.1490 2.3903
5.8155 -2.9447 2.3903
5.9197 -2.7363 2.3903
6.0161 -2.5241 2.3903
6.1046 -2.3083 2.3903
6.1849 -2.0894 2.3903
6.2220 -1.8571 2.3769
6.2098 -1.6143 2.3483
6.1974 -1.3767 2.3232
6.1847 -1.1437 2.3016
6.1716 -0.9147 2.2831
6.1582 -0.6889 2.2678
6.1445 -0.4659 2.2554
6.1346 -0.2452 2.2476
6.1239 -0.0258 2.2425
6.1111 0.1926 2.2396
6.0961 0.4106 2.2389
6.0790 0.6282 2.2403
6.0597 0.8460 2.2440
6.0381 1.0642 2.2499
6.0179 1.2839 2.2594
5.9994 1.5060 2.2727
5.9802 1.7306 2.2890
5.9602 1.9582 2.3085
5.9394 2.1895 2.3312
5.9176 2.4252 2.3572
5.8948 2.6658 2.3868
5.7986 2.8763 2.3903
5.6863 3.0787 2.3903
5.5666 3.2766 2.3903
5.4398 3.4698 2.3903
5.3061 3.6580 2.3903
5.1657 3.8409 2.3903
5.0188 4.0183 2.3903
4.8656 4.1901 2.3903
4.7063 4.3559 2.3903
4.5413 4.5155 2.3903
4.3707 4.6688 2.3903
4.1948 4.8155 2.3903
4.0139 4.9556 2.3903
3.8282 5.0888 2.3903
3.6380 5.2149 2.3903
3.4435 5.3339 2.3903
3.2452 5.4455 2.3903
3.0431 5.5498 2.3903
2.8377 5.6465 2.3903
2.6292 5.7355 2.3903
2.4179 5.8169 2.3903
0.8659 2.3141 0.9390
0.7823 2.3435 0.9405
0.6976 2.3698 0.9419
0.6120 2.3930 0.9433
0.5256 2.4132 0.9447
0.4385 2.4302 0.9462
0.3509 2.4440 0.9476
0.2628 2.4547 0.9490
0.1744 2.4622 0.9504
0.0858 2.4665 0.9518
-0.0030 2.4676 0.9531
-0.0917 2.4654 0.9545
-0.1803 2.4601 0.9558
-0.2686 2.4516 0.9571
-0.3566 2.4399 0.9584
-0.4441 2.4250 0.9597
-0.5310 2.4070 0.9610
-0.6172 2.3858 0.9622
-0.7025 2.3615 0.9634
-0.7870 2.3342 0.9646
-0.8704 2.3038 0.9657
-2.3551 5.6134 2.3903
-2.5525 5.5175 2.3903
-2.7462 5.4149 2.3903
-2.9359 5.3057 2.3903
-3.1215 5.1900 2.3903
-3.3027 5.0681 2.3903
-3.4794 4.9400 2.3903
-3.6513 4.8059 2.3903
-3.8182 4.6661 2.3903
-3.9801 4.5207 2.3903
-4.1366 4.3698 2.3903
-4.2877 4.2138 2.3903
-4.4331 4.0527 2.3903
-4.5727 3.8868 2.3903
-4.7064 3.7162 2.3903
-4.8340 3.5413 2.3903
-4.9554 3.3621 2.3903
-5.0705 3.1789 2.3903
-5.1790 2.9920 2.3903
-5.2810 2.8015 2.3903
-5.3763 2.6076 2.3903
-5.4648 2.4107 2.3903
-5.5463 2.2109 2.3903
-5.6209 2.0084 2.3903
-5.6885 1.8036 2.3903
-5.7489 1.5965 2.3903
-5.8021 1.3876 2.3903
-5.8480 1.1769 2.3903
-5.8866 0.9648 2.3903
-5.9179 0.7515 2.3903
-5.9418 0.5372 2.3903
-5.9583 0.3221 2.3903
-5.9673 0.1066 2.3903
-5.9689 -0.1091 2.3903
-5.9630 -0.3248 2.3903
-5.9496 -0.5402 2.3903
-5.9288 -0.7552 2.3903
-5.9006 -0.9694 2.3903
-5.8649 -1.1825 2.3903
-5.8218 -1.3944 2.3903
-5.7714 -1.6048 2.3903
-5.7137 -1.8135 2.3903
-5.6488 -2.0202 2.3903
-5.5767 -2.2246 2.3903
-5.4974 -2.4266 2.3903
-5.4111 -2.6258 2.3903
-5.3179 -2.8221 2.3903
-5.2178 -3.0151 2.3903
-5.1109 -3.2048 2.3903
-4.9974 -3.3908 2.3903
-4.8773 -3.5728 2.3903
-4.7508 -3.7508 2.3903
-4.6180 -3.9244 2.3903
-4.4791 -4.0935 2.3903
-4.3342 -4.2577 2.3903
-4.1834 -4.4170 2.3903
-4.0269 -4.5710 2.3903
-3.8650 -4.7196 2.3903
-3.6977 -4.8627 2.3903
-3.5252 -4.9999 2.3903
-3.3478 -5.1311 2.3903
-3.1656 -5.2561 2.3903
-2.9789 -5.3747 2.3903
-2.7878 -5.4869 2.3903
-2.5926 -5.5923 2.3903
-2.3935 -5.6908 2.3903
-2.1908 -5.7824 2.3903
-1.9846 -5.8668 2.3903
-1.7753 -5.9439 2.3903
-1.5630 -6.0135 2.3903
-1.3481 -6.0757 2.3903
-1.1308 -6.1302 2.3903
-0.9114 -6.1769 2.3903
-0.6901 -6.2158 2.3903
-0.4673 -6.2467 2.3903
-0.2431 -6.2696 2.3903
-0.0180 -6.2845 2.3903
0.2078 -6.2912 2.3903
0.4341 -6.2898 2.3903
0.6605 -6.2801 2.3903
0.8867 -6.2622 2.3903
1.1123 -6.2361 2.3903
1.3372 -6.2018 2.3903
1.5610 -6.1592 2.3903
1.7834 -6.1085 2.3903
2.0040 -6.0496 2.3903
2.2227 -5.9826 2.3903
2.4390 -5.9075 2.3903
2.6526 -5.8244 2.3903
2.8633 -5.7335 2.3903
3.0708 -5.6348 2.3903
3.2747 -5.5284 2.3903
3.4748 -5.4144 2.3903
3.6707 -5.2930 2.3903
3.8622 -5.1643 2.3903
4.0490 -5.0285 2.3903
4.2309 -4.8857 2.3903
4.4075 -4.7362 2.3903
4.5785 -4.5801 2.3903
4.7438 -4.4176 2.3903
4.9031 -4.2490 2.3903
5.0561 -4.0745 2.3903
5.2026 -3.8942 2.3903
5.3424 -3.7085 2.3903
5.4752 -3.5176 2.3903
5.6009 -3.3218 2.3903
5.7193 -3.1213 2.3903
5.8302 -2.9165 2.3903
5.9334 -2.7075 2.3903
6.0287 -2.4948 2.3903
6.1160 -2.2786 2.3903
6.1953 -2.0593 2.3903
6.2204 -1.8236 2.3728
6.2082 -1.5815 2.3447
6.1957 -1.3446 2.3201
6.1829 -1.1122 2.2989
6.1698 -0.8837 2.2808
6.1564 -0.6583 2.2659
6.1426 -0.4356 2.2540
6.1332 -0.2152 2.2467
6.1223 0.0041 2.2419
6.1092 0.2224 2.2393
6.0939 0.4403 2.2389
6.0765 0.6580 2.2407
6.0568 0.8758 2.2447
6.0349 1.0941 2.2509
6.0154 1.3141 2.2610
5.9968 1.5365 2.2748
5.9775 1.7615 2.2915
5.9574 1.9896 2.3114
5.9365 2.2215 2.3345
5.9146 2.4577 2.3610
5.8896 2.6982 2.3903
5.7837 2.9042 2.3903
5.6703 3.1060 2.3903
5.5497 3.3033 2.3903
5.4220 3.4958 2.3903
5.2873 3.6833 2.3903
5.1460 3.8655 2.3903
4.9982 4.0421 2.3903
4.8442 4.2131 2.3903
4.6841 4.3780 2.3903
4.5183 4.5368 2.3903
4.3470 4.6892 2.3903
4.1704 4.8351 2.3903
3.9888 4.9742 2.3903
3.8024 5.1064 2.3903
3.6116 5.2316 2.3903
3.4167 5.3496 2.3903
3.2178 5.4602 2.3903
3.0153 5.5634 2.3903
2.8094 5.6591 2.3903
2.6005 5.7471 2.3903
0.9373 2.2863 0.9378
0.8546 2.3183 0.9392
0.7707 2.3472 0.9407
0.6859 2.3731 0.9421
0.6002 2.3960 0.9435
0.5137 2.4157 0.9449
0.4266 2.4322 0.9464
0.3389 2.4457 0.9478
0.2507 2.4559 0.9492
0.1623 2.4630 0.9506
0.0736 2.4668 0.9520
-0.0151 2.4675 0.9533
-0.1038 2.4649 0.9547
-0.1924 2.4591 0.9560
-0.2806 2.4502 0.9573
-0.3686 2.4380 0.9586
-0.4560 2.4227 0.9599
-0.5428 2.4043 0.9611
-0.6289 2.3827 0.9624
4.5706 3.8949 2.3903
4.4228 4.0509 2.3903
4.2695 4.2013 2.3903
4.1111 4.3458 2.3903
3.9476 4.4842 2.3903
3.7793 4.6164 2.3903
3.6065 4.7422 2.3903
3.4295 4.8615 2.3903
3.2485 4.9741 2.3903
3.0636 5.0799 2.3903
2.8754 5.1788 2.3903
2.6838 5.2707 2.3903
2.4894 5.3555 2.3903
0.8992 2.1313 0.9377
0.8221 2.1620 0.9390
0.7439 2.1898 0.9403
0.6647 2.2148 0.9417
0.5847 2.2370 0.9430
0.5039 2.2562 0.9443
0.4225 2.2725 0.9457
0.3406 2.2859 0.9470
0.2582 2.2963 0.9483
0.1755 2.3037 0.9496
0.0925 2.3081 0.9509
0.0095 2.3095 0.9522
-0.0736 2.3079 0.9535
-0.1565 2.3033 0.9547
-0.2392 2.2958 0.9560
-0.3216 2.2852 0.9572
-0.4036 2.2717 0.9584
-0.4850 2.2552 0.9595
-0.5658 2.2358 0.9607
-0.6458 2.2135 0.9618
-0.7250 2.1883 0.9629
-0.8032 2.1603 0.9640
-0.8803 2.1294 0.9650
-2.3660 5.1858 2.3903
-2.5483 5.0908 2.3903
-2.7269 4.9895 2.3903
-2.9017 4.8822 2.3903
-3.0724 4.7689 2.3903
-3.2389 4.6498 2.3903
-3.4010 4.5251 2.3903
-3.5585 4.3949 2.3903
-3.7111 4.2595 2.3903
-3.8589 4.1189 2.3903
-4.0015 3.9733 2.3903
-4.1389 3.8230 2.3903
-4.2708 3.6681 2.3903
-4.3972 3.5088 2.3903
-4.5179 3.3453 2.3903
-4.6328 3.1778 2.3903
-4.7418 3.0065 2.3903
-4.8446 2.8316 2.3903
-4.9413 2.6534 2.3903
-5.0317 2.4720 2.3903
-5.1157 2.2876 2.3903
-5.1933 2.1004 2.3903
-5.2643 1.9108 2.3903
-5.3287 1.7188 2.3903
-5.3863 1.5248 2.3903
-5.4372 1.3289 2.3903
-5.4813 1.1314 2.3903
-5.5185 0.9324 2.3903
-5.5488 0.7324 2.3903
-5.5721 0.5313 2.3903
-5.5885 0.3296 2.3903
-5.5979 0.1274 2.3903
-5.6002 -0.0751 2.3903
-5.5956 -0.2776 2.3903
-5.5839 -0.4798 2.3903
-5.5652 -0.6816 2.3903
-5.5395 -0.8827 2.3903
-5.5068 -1.0829 2.3903
-5.4671 -1.2819 2.3903
-5.4206 -1.4795 2.3903
-5.3672 -1.6755 2.3903
-5.3070 -1.8696 2.3903
-5.2400 -2.0616 2.3903
-5.1663 -2.2514 2.3903
-5.0860 -2.4385 2.3903
-4.9991 -2.6229 2.3903
-4.9058 -2.8043 2.3903
-4.8061 -2.9825 2.3903
-4.7002 -3.1573 2.3903
-4.5882 -3.3284 2.3903
-4.4700 -3.4956 2.3903
-4.3460 -3.6588 2.3903
-4.2162 -3.8177 2.3903
-4.0808 -3.9721 2.3903
-3.9399 -4.1218 2.3903
-3.7936 -4.2666 2.3903
-3.6422 -4.4063 2.3903
-3.4858 -4.5407 2.3903
-3.3245 -4.6698 2.3903
-3.1585 -4.7931 2.3903
-2.9882 -4.9107 2.3903
-2.8135 -5.0223 2.3903
-2.6348 -5.1278 2.3903
-2.4522 -5.2270 2.3903
-2.2659 -5.3198 2.3903
-2.0762 -5.4060 2.3903
-1.8833 -5.4855 2.3903
-1.6875 -5.5582 2.3903
-1.4889 -5.6239 2.3903
-1.2878 -5.6825 2.3903
-1.0845 -5.7340 2.3903
-0.8792 -5.7783 2.3903
-0.6722 -5.8151 2.3903
-0.4637 -5.8446 2.3903
-0.2540 -5.8665 2.3903
-0.0434 -5.8810 2.3903
0.1679 -5.8878 2.3903
0.3796 -5.8869 2.3903
0.5914 -5.8784 2.3903
0.8030 -5.8622 2.3903
1.0141 -5.8384 2.3903
1.2245 -5.8068 2.3903
1.4339 -5.7675 2.3903
1.6420 -5.7206 2.3903
1.8485 -5.6661 2.3903
2.0530 -5.6040 2.3903
2.2554 -5.5343 2.3903
2.4554 -5.4573 2.3903
2.6526 -5.3728 2.3903
2.8467 -5.2811 2.3903
3.0376 -5.1822 2.3903
3.2249 -5.0763 2.3903
3.4084 -4.9634 2.3903
3.5877 -4.8437 2.3903
3.7627 -4.7174 2.3903
3.9330 -4.5846 2.3903
4.0985 -4.4454 2.3903
4.2588 -4.3002 2.3903
4.4138 -4.1489 2.3903
4.5631 -3.9919 2.3903
4.7066 -3.8294 2.3903
4.8441 -3.6616 2.3903
4.9754 -3.4886 2.3903
5.1002 -3.3108 2.3903
5.2183 -3.1284 2.3903
5.3296 -2.9416 2.3903
5.4340 -2.7507 2.3903
5.5312 -2.5560 2.3903
5.6211 -2.3578 2.3903
5.7036 -2.1562 2.3903
5.7786 -1.9517 2.3903
5.8458 -1.7445 2.3903
5.9054 -1.5349 2.3903
5.9570 -1.3232 2.3903
6.0007 -1.1097 2.3903
6.0365 -0.8947 2.3903
6.0641 -0.6785 2.3903
6.0837 -0.4615 2.3903
6.0952 -0.2440 2.3903
6.0885 -0.0261 2.3863
6.0737 0.1910 2.3824
6.0583 0.4074 2.3813
6.0423 0.6238 2.3833
6.0258 0.8406 2.3882
5.9940 1.0556 2.3903
5.9491 1.2683 2.3903
5.8963 1.4791 2.3903
5.8358 1.6877 2.3903
5.7676 1.8937 2.3903
5.6918 2.0970 2.3903
5.6086 2.2972 2.3903
5.5181 2.4940 2.3903
5.4204 2.6871 2.3903
5.3158 2.8764 2.3903
5.2043 3.0616 2.3903
5.0861 3.2423 2.3903
4.9615 3.4184 2.3903
4.8306 3.5896 2.3903
4.6936 3.7557 2.3903
4.5507 3.9165 2.3903
4.4022 4.0718 2.3903
4.2482 4.2214 2.3903
4.0890 4.3650 2.3903
3.9249 4.5026 2.3903
3.7560 4.6340 2.3903
3.5826 4.7589 2.3903
3.4050 4.8773 2.3903
3.2234 4.9890 2.3903
3.0381 5.0939 2.3903
2.8494 5.1918 2.3903
2.6574 5.2827 2.3903
2.4626 5.3666 2.3903
0.8887 2.1357 0.9378
0.8114 2.1659 0.9392
0.7331 2.1934 0.9405
0.6538 2.2180 0.9418
0.5737 2.2398 0.9432
0.4928 2.2586 0.9445
0.4113 2.2745 0.9458
0.3293 2.2875 0.9472
0.2469 2.2974 0.9485
0.1641 2.3044 0.9498
0.0812 2.3085 0.9511
-0.0019 2.3095 0.9524
-0.0849 2.3075 0.9536
-0.1678 2.3025 0.9549
-0.2505 2.2945 0.9561
-0.3328 2.2835 0.9573
-0.4147 2.2696 0.9585
-0.4961 2.2527 0.9597
-0.5768 2.2329 0.9608
-0.6567 2.2102 0.9620
-0.7357 2.1846 0.9631
-0.8137 2.1562 0.9641
-0.8907 2.1250 0.9652
-2.3911 5.1732 2.3903
-2.5729 5.0773 2.3903
-2.7510 4.9752 2.3903
-2.9253 4.8671 2.3903
-3.0954 4.7530 2.3903
-3.2613 4.6331 2.3903
-3.4227 4.5077 2.3903
-3.5796 4.3768 2.3903
-3.7316 4.2406 2.3903
-3.8787 4.0993 2.3903
-4.0206 3.9531 2.3903
-4.1572 3.8021 2.3903
-4.2884 3.6466 2.3903
-4.4141 3.4867 2.3903
-4.5340 3.3227 2.3903
-4.6481 3.1546 2.3903
-4.7562 2.9828 2.3903
-4.8582 2.8075 2.3903
-4.9540 2.6288 2.3903
-5.0436 2.4469 2.3903
-5.1267 2.2622 2.3903
-5.2034 2.0747 2.3903
-5.2735 1.8847 2.3903
-5.3369 1.6924 2.3903
-5.3937 1.4981 2.3903
-5.4436 1.3020 2.3903
-5.4868 1.1043 2.3903
-5.5230 0.9052 2.3903
-5.5524 0.7049 2.3903
-5.5748 0.5038 2.3903
-5.5902 0.3020 2.3903
-5.5986 0.0997 2.3903
-5.6000 -0.1028 2.3903
-5.5944 -0.3052 2.3903
-5.5817 -0.5074 2.3903
-5.5621 -0.7091 2.3903
-5.5354 -0.9101 2.3903
-5.5018 -1.1101 2.3903
-5.4612 -1.3089 2.3903
-5.4137 -1.5064 2.3903
-5.3594 -1.7021 2.3903
-5.2982 -1.8960 2.3903
-5.2303 -2.0877 2.3903
-5.1557 -2.2771 2.3903
-5.0745 -2.4639 2.3903
-4.9867 -2.6479 2.3903
-4.8926 -2.8289 2.3903
-4.7920 -3.0066 2.3903
-4.6853 -3.1809 2.3903
-4.5724 -3.3515 2.3903
-4.4534 -3.5182 2.3903
-4.3286 -3.6808 2.3903
-4.1981 -3.8390 2.3903
-4.0619 -3.9928 2.3903
-3.9202 -4.1418 2.3903
-3.7733 -4.2860 2.3903
-3.6211 -4.4250 2.3903
-3.4640 -4.5587 2.3903
-3.3021 -4.6869 2.3903
-3.1355 -4.8095 2.3903
-2.9645 -4.9263 2.3903
-2.7893 -5.0371 2.3903
-2.6100 -5.1417 2.3903
-2.4269 -5.2401 2.3903
-2.2402 -5.3320 2.3903
-2.0500 -5.4173 2.3903
-1.8568 -5.4958 2.3903
-1.6605 -5.5676 2.3903
-1.4616 -5.6323 2.3903
-1.2602 -5.6900 2.3903
-1.0566 -5.7405 2.3903
-0.8511 -5.7837 2.3903
-0.6438 -5.8196 2.3903
-0.4351 -5.8480 2.3903
-0.2253 -5.8690 2.3903
-0.0146 -5.8823 2.3903
0.1968 -5.8881 2.3903
0.4085 -5.8862 2.3903
0.6203 -5.8767 2.3903
0.8319 -5.8594 2.3903
1.0429 -5.8345 2.3903
1.2532 -5.8019 2.3903
1.4624 -5.7616 2.3903
1.6703 -5.7136 2.3903
1.8765 -5.6580 2.3903
2.0808 -5.5949 2.3903
2.2829 -5.5242 2.3903
2.4825 -5.4462 2.3903
2.6793 -5.3607 2.3903
2.8730 -5.2680 2.3903
3.0634 -5.1682 2.3903
3.2502 -5.0613 2.3903
3.4331 -4.9474 2.3903
3.6119 -4.8268 2.3903
3.7862 -4.6996 2.3903
3.9559 -4.5659 2.3903
4.1207 -4.4259 2.3903
4.2803 -4.2798 2.3903
4.4345 -4.1278 2.3903
4.5831 -3.9701 2.3903
4.7258 -3.8068 2.3903
4.8624 -3.6382 2.3903
4.9928 -3.4646 2.3903
5.1167 -3.2861 2.3903
5.2339 -3.1031 2.3903
5.3443 -2.9158 2.3903
5.4477 -2.7244 2.3903
5.5439 -2.5291 2.3903
5.6328 -2.3304 2.3903
5.7143 -2.1285 2.3903
5.7882 -1.9236 2.3903
5.8544 -1.7160 2.3903
5.9129 -1.5061 2.3903
5.9635 -1.2941 2.3903
6.0061 -1.0804 2.3903
6.0407 -0.8652 2.3903
6.0673 -0.6489 2.3903
6.0858 -0.4318 2.3903
6.0962 -0.2142 2.3903
6.0865 0.0036 2.3856
6.0716 0.2206 2.3820
6.0561 0.4370 2.3814
6.0401 0.6534 2.3838
6.0235 0.8702 2.3891
5.9883 1.0848 2.3903
5.9424 1.2972 2.3903
5.8885 1.5077 2.3903
5.8269 1.7160 2.3903
5.7576 1.9217 2.3903
5.6809 2.1245 2.3903
5.5967 2.3243 2.3903
5.5052 2.5206 2.3903
5.4066 2.7132 2.3903
5.3009 2.9020 2.3903
5.1885 3.0865 2.3903
5.0695 3.2666 2.3903
4.9440 3.4421 2.3903
4.8122 3.6126 2.3903
4.6744 3.7780 2.3903
4.5307 3.9381 2.3903
4.3814 4.0926 2.3903
4.2268 4.2413 2.3903
4.0669 4.3842 2.3903
3.9021 4.5209 2.3903
3.7325 4.6514 2.3903
3.5586 4.7755 2.3903
3.3804 4.8929 2.3903
3.1983 5.0037 2.3903
3.0125 5.1077 2.3903
2.8233 5.2047 2.3903
2.6310 5.2946 2.3903
2.4357 5.3774 2.3903
0.8782 2.1400 0.9380
0.8008 2.1698 0.9394
0.7223 2.1969 0.9407
0.6429 2.2212 0.9420
0.5627 2.2425 0.9434
0.4818 2.2609 0.9447
0.4002 2.2764 0.9460
0.3181 2.2890 0.9473
0.2356 2.2986 0.9487
0.1528 2.3052 0.9500
0.0698 2.3088 0.9513
-0.0132 2.3094 0.9525
-0.0963 2.3070 0.9538
-0.1791 2.3016 0.9551
-0.2618 2.2932 0.9563
