ply
format ascii 1.0
element vertex 2166
property float32 x
property float32 y
property float32 z
end_header
4.2556 2.8992 2.3946
4.1506 3.0541 2.3946
4.0403 3.2055 2.3945
3.9248 3.3532 2.3945
3.8043 3.4969 2.3945
3.6788 3.6366 2.3944
3.5485 3.7721 2.3944
3.4135 3.9031 2.3944
3.2740 4.0296 2.3944
3.1300 4.1515 2.3943
2.9818 4.2684 2.3943
2.8294 4.3803 2.3943
2.6731 4.4871 2.3943
2.5130 4.5886 2.3943
2.3493 4.6847 2.3942
0.8945 1.9575 0.9815
0.8234 1.9895 0.9801
0.7512 2.0188 0.9786
0.6780 2.0456 0.9771
0.6039 2.0696 0.9756
0.5290 2.0910 0.9740
0.4533 2.1097 0.9724
0.3770 2.1256 0.9707
0.3001 2.1388 0.9690
0.2228 2.1491 0.9672
0.1452 2.1567 0.9654
0.0674 2.1615 0.9636
-0.0105 2.1634 0.9618
-0.0885 2.1626 0.9599
-0.1664 2.1589 0.9580
-0.2441 2.1524 0.9560
-0.3215 2.1431 0.9541
-0.3986 2.1310 0.9521
-0.4751 2.1162 0.9502
-0.5511 2.0986 0.9482
-0.6264 2.0782 0.9462
-0.7009 2.0552 0.9442
-0.7745 2.0295 0.9422
-0.8471 2.0011 0.9402
-0.9187 1.9701 0.9382
-2.5300 4.9538 2.3947
-2.7127 4.8721 2.3947
-2.8927 4.7836 2.3948
-3.0697 4.6885 2.3948
-3.2434 4.5867 2.3949
-3.4138 4.4785 2.3950
-3.5803 4.3639 2.3950
-3.7429 4.2431 2.3951
-3.9013 4.1161 2.3951
-4.0551 3.9832 2.3952
-4.2043 3.8444 2.3953
-4.3485 3.6999 2.3953
-4.4875 3.5499 2.3954
-4.6210 3.3946 2.3955
-4.7490 3.2342 2.3955
-4.8711 3.0689 2.3956
-4.9871 2.8988 2.3957
-5.0969 2.7243 2.3957
-5.2002 2.5455 2.3958
-5.2969 2.3627 2.3959
-5.3868 2.1762 2.3959
-5.4697 1.9861 2.3960
-5.5455 1.7928 2.3961
-5.6141 1.5966 2.3962
-5.6753 1.3977 2.3962
-5.7289 1.1964 2.3963
-5.7750 0.9930 2.3964
-5.8134 0.7878 2.3965
-5.8439 0.5811 2.3965
-5.8667 0.3732 2.3966
-5.8815 0.1644 2.3967
-5.8883 -0.0449 2.3967
-5.8872 -0.2544 2.3968
-5.8781 -0.4639 2.3969
-5.8611 -0.6729 2.3969
-5.8360 -0.8813 2.3970
-5.8148 -1.0908 2.4019
-5.7874 -1.3002 2.4077
-5.7494 -1.5082 2.4123
-5.7012 -1.7143 2.4160
-5.6431 -1.9181 2.4189
-5.5756 -2.1191 2.4211
-5.4989 -2.3169 2.4227
-5.4133 -2.5110 2.4236
-5.3193 -2.7012 2.4240
-5.2175 -2.8873 2.4241
-5.1084 -3.0691 2.4241
-4.9926 -3.2466 2.4241
-4.8701 -3.4194 2.4241
-4.7413 -3.5873 2.4241
-4.6063 -3.7501 2.4241
-4.4653 -3.9075 2.4241
-4.3185 -4.0594 2.4241
-4.1663 -4.2054 2.4241
-4.0088 -4.3454 2.4241
-3.8463 -4.4792 2.4241
-3.6790 -4.6067 2.4241
-3.5073 -4.7276 2.4241
-3.3314 -4.8418 2.4241
-3.1515 -4.9492 2.4241
-2.9680 -5.0496 2.4241
-2.7811 -5.1429 2.4241
-2.5911 -5.2291 2.4241
-2.3984 -5.3080 2.4241
-2.2031 -5.3795 2.4241
-2.0057 -5.4436 2.4241
-1.8063 -5.5003 2.4241
-1.6054 -5.5494 2.4241
-1.4031 -5.5910 2.4241
-1.1998 -5.6250 2.4241
-0.9957 -5.6515 2.4241
-0.7912 -5.6704 2.4241
-0.5865 -5.6818 2.4241
-0.3820 -5.6857 2.4241
-0.1778 -5.6821 2.4241
0.0257 -5.6711 2.4241
0.2282 -5.6527 2.4241
0.4295 -5.6271 2.4241
0.6294 -5.5942 2.4241
0.8275 -5.5542 2.4241
1.0237 -5.5072 2.4241
1.2176 -5.4533 2.4241
1.4090 -5.3925 2.4241
1.5978 -5.3251 2.4241
1.7836 -5.2512 2.4241
1.9663 -5.1708 2.4241
2.1456 -5.0841 2.4241
2.3213 -4.9913 2.4241
2.4933 -4.8926 2.4241
2.6614 -4.7880 2.4241
2.8253 -4.6778 2.4241
2.9849 -4.5621 2.4241
3.1400 -4.4411 2.4241
3.2904 -4.3150 2.4241
3.4361 -4.1840 2.4241
3.5768 -4.0482 2.4241
3.7124 -3.9078 2.4241
3.8428 -3.7630 2.4241
3.9678 -3.6141 2.4241
4.0874 -3.4612 2.4241
4.2014 -3.3045 2.4241
4.3097 -3.1442 2.4241
4.4122 -2.9806 2.4241
4.5088 -2.8138 2.4241
4.5993 -2.6439 2.4240
4.6835 -2.4711 2.4238
4.7605 -2.2952 2.4230
4.8304 -2.1168 2.4218
4.8931 -1.9360 2.4201
4.9483 -1.7532 2.4179
4.9957 -1.5686 2.4150
5.0352 -1.3825 2.4115
5.0665 -1.1952 2.4070
5.0894 -1.0072 2.4018
5.1043 -0.8188 2.3958
5.1254 -0.6323 2.3957
5.1401 -0.4454 2.3956
5.1484 -0.2582 2.3956
5.1504 -0.0710 2.3955
5.1459 0.1161 2.3955
5.1351 0.3028 2.3954
5.1180 0.4889 2.3953
5.0946 0.6743 2.3953
5.0649 0.8587 2.3952
5.0290 1.0419 2.3952
4.9869 1.2238 2.3951
4.9386 1.4041 2.3950
4.8843 1.5826 2.3950
4.8239 1.7592 2.3949
4.7575 1.9337 2.3949
4.6853 2.1059 2.3948
4.6072 2.2755 2.3948
4.5234 2.4424 2.3947
4.4340 2.6065 2.3947
4.3389 2.7675 2.3947
4.2384 2.9253 2.3946
4.1325 3.0797 2.3946
4.0213 3.2304 2.3945
3.9050 3.3775 2.3945
3.7837 3.5206 2.3945
3.6574 3.6595 2.3944
3.5263 3.7943 2.3944
3.3905 3.9246 2.3944
3.2502 4.0503 2.3943
3.1055 4.1713 2.3943
2.9566 4.2875 2.3943
2.8036 4.3985 2.3943
2.6466 4.5045 2.3943
2.4859 4.6051 2.3943
2.3216 4.7002 2.3942
0.8827 1.9631 0.9813
0.8114 1.9946 0.9799
0.7391 2.0235 0.9784
0.6657 2.0498 0.9769
0.5914 2.0734 0.9753
0.5164 2.0943 0.9737
0.4406 2.1125 0.9721
0.3642 2.1280 0.9704
0.2872 2.1407 0.9687
0.2099 2.1506 0.9669
0.1323 2.1577 0.9651
0.0544 2.1620 0.9633
-0.0236 2.1635 0.9614
-0.1015 2.1622 0.9596
-0.1794 2.1580 0.9577
-0.2571 2.1511 0.9557
-0.3344 2.1413 0.9538
-0.4114 2.1288 0.9518
-0.4879 2.1134 0.9498
-0.5637 2.0954 0.9478
-0.6389 2.0746 0.9458
-0.7132 2.0511 0.9438
-0.7867 2.0249 0.9418
-0.8591 1.9961 0.9398
-0.9305 1.9647 0.9378
-2.5607 4.9406 2.3947
-2.7429 4.8578 2.3948
-2.9224 4.7682 2.3948
-3.0989 4.6719 2.3949
-3.2721 4.5691 2.3949
-3.4418 4.4598 2.3950
-3.6078 4.3442 2.3950
-3.7697 4.2223 2.3951
-3.9273 4.0943 2.3951
-4.0804 3.9604 2.3952
-4.2287 3.8206 2.3953
-4.3721 3.6752 2.3953
-4.5102 3.5243 2.3954
-4.6428 3.3682 2.3955
-4.7698 3.2069 2.3955
-4.8909 3.0408 2.3956
-5.0059 2.8700 2.3957
-5.1146 2.6947 2.3957
-5.2168 2.5153 2.3958
-5.3124 2.3318 2.3959
-5.4011 2.1447 2.3960
-5.4829 1.9541 2.3960
-5.5575 1.7603 2.3961
-5.6248 1.5636 2.3962
-5.6848 1.3642 2.3962
-5.7372 1.1625 2.3963
-5.7820 0.9588 2.3964
-5.8190 0.7533 2.3965
-5.8483 0.5464 2.3965
-5.8697 0.3384 2.3966
-5.8832 0.1295 2.3967
-5.8887 -0.0799 2.3968
-5.8863 -0.2894 2.3968
-5.8759 -0.4988 2.3969
-5.8574 -0.7078 2.3970
-5.8311 -0.9160 2.3970
-5.8108 -1.1258 2.4029
-5.7817 -1.3350 2.4085
-5.7420 -1.5428 2.4130
-5.6921 -1.7485 2.4165
-5.6324 -1.9519 2.4193
-5.5633 -2.1523 2.4214
-5.4852 -2.3496 2.4228
-5.3983 -2.5431 2.4237
-5.3028 -2.7326 2.4240
-5.1997 -2.9180 2.4241
-5.0895 -3.0991 2.4241
-4.9726 -3.2758 2.4241
-4.8491 -3.4478 2.4241
-4.7192 -3.6149 2.4241
-4.5831 -3.7768 2.4241
-4.4411 -3.9333 2.4241
-4.2935 -4.0842 2.4241
-4.1403 -4.2292 2.4241
-3.9820 -4.3682 2.4241
-3.8187 -4.5009 2.4241
-3.6507 -4.6273 2.4241
-3.4782 -4.7471 2.4241
-3.3016 -4.8602 2.4241
-3.1211 -4.9664 2.4241
-2.9370 -5.0657 2.4241
-2.7496 -5.1578 2.4241
-2.5591 -5.2428 2.4241
-2.3659 -5.3204 2.4241
-2.1703 -5.3907 2.4241
-1.9725 -5.4536 2.4241
-1.7729 -5.5090 2.4241
-1.5717 -5.5569 2.4241
-1.3692 -5.5972 2.4241
-1.1657 -5.6300 2.4241
-0.9616 -5.6552 2.4241
-0.7570 -5.6729 2.4241
-0.5523 -5.6830 2.4241
-0.3478 -5.6856 2.4241
-0.1438 -5.6808 2.4241
0.0596 -5.6685 2.4241
0.2619 -5.6489 2.4241
-5.5055 0.3817 2.3966
-5.5204 0.1860 2.3966
-5.5278 -0.0103 2.3967
-5.5278 -0.2069 2.3968
-5.5203 -0.4035 2.3968
-5.5054 -0.5997 2.3969
-5.4830 -0.7952 2.3969
-5.4576 -0.9907 2.3989
-5.4332 -1.1870 2.4047
-5.3995 -1.3823 2.4096
-5.3562 -1.5760 2.4136
-5.3037 -1.7676 2.4169
-5.2424 -1.9566 2.4194
-5.1726 -2.1429 2.4213
-5.0947 -2.3260 2.4228
-5.0085 -2.5054 2.4236
-4.9148 -2.6809 2.4240
-4.8140 -2.8524 2.4241
-4.7066 -3.0197 2.4241
-4.5929 -3.1827 2.4241
-4.4732 -3.3412 2.4241
-4.3477 -3.4950 2.4241
-4.2165 -3.6437 2.4241
-4.0799 -3.7873 2.4241
-3.9381 -3.9255 2.4241
-3.7914 -4.0582 2.4241
-3.6399 -4.1851 2.4241
-3.4839 -4.3060 2.4241
-3.3236 -4.4209 2.4241
-3.1593 -4.5296 2.4241
-2.9913 -4.6319 2.4241
-2.8198 -4.7277 2.4241
-2.6450 -4.8169 2.4241
-2.4673 -4.8994 2.4241
-2.2869 -4.9752 2.4241
-2.1041 -5.0440 2.4241
-1.9191 -5.1059 2.4241
-1.7323 -5.1609 2.4241
-1.5438 -5.2088 2.4241
-1.3541 -5.2497 2.4241
-1.1632 -5.2834 2.4241
-0.9716 -5.3101 2.4241
-0.7795 -5.3297 2.4241
-0.5872 -5.3422 2.4241
-0.3948 -5.3477 2.4241
-0.2028 -5.3461 2.4241
-0.0113 -5.3376 2.4241
0.1794 -5.3221 2.4241
0.3691 -5.2997 2.4241
0.5574 -5.2706 2.4241
0.7442 -5.2347 2.4241
0.9293 -5.1922 2.4241
1.1123 -5.1432 2.4241
1.2931 -5.0877 2.4241
1.4714 -5.0259 2.4241
1.6470 -4.9579 2.4241
1.8198 -4.8838 2.4241
1.9895 -4.8037 2.4241
2.1559 -4.7179 2.4241
2.3188 -4.6263 2.4241
2.4780 -4.5292 2.4241
2.6334 -4.4268 2.4241
2.7848 -4.3191 2.4241
2.9321 -4.2064 2.4241
3.0750 -4.0888 2.4241
3.2134 -3.9664 2.4241
3.3472 -3.8395 2.4241
3.4762 -3.7083 2.4241
3.6004 -3.5728 2.4241
3.7195 -3.4334 2.4241
3.8335 -3.2901 2.4241
3.9423 -3.1432 2.4241
4.0458 -2.9928 2.4241
4.1438 -2.8392 2.4241
4.2362 -2.6825 2.4241
4.3227 -2.5227 2.4239
4.4028 -2.3599 2.4233
4.4765 -2.1945 2.4224
4.5437 -2.0265 2.4211
4.6038 -1.8562 2.4192
4.6569 -1.6840 2.4169
4.7029 -1.5100 2.4139
4.7414 -1.3347 2.4103
4.7723 -1.1582 2.4060
4.7956 -0.9809 2.4009
4.8128 -0.8035 2.3958
4.8339 -0.6276 2.3957
4.8491 -0.4511 2.3957
4.8581 -0.2743 2.3956
4.8611 -0.0975 2.3956
4.8581 0.0792 2.3955
4.8491 0.2556 2.3954
4.8340 0.4315 2.3954
4.8130 0.6067 2.3953
4.7860 0.7811 2.3953
4.7531 0.9544 2.3952
4.7144 1.1264 2.3952
4.6698 1.2970 2.3951
4.6194 1.4659 2.3951
4.5633 1.6331 2.3950
4.5015 1.7982 2.3950
4.4342 1.9612 2.3949
4.3613 2.1218 2.3949
4.2829 2.2799 2.3948
4.1992 2.4353 2.3948
4.1102 2.5878 2.3947
4.0160 2.7372 2.3947
3.9167 2.8835 2.3947
3.8124 3.0263 2.3946
3.7032 3.1656 2.3946
3.5892 3.3013 2.3946
3.4705 3.4330 2.3945
3.3473 3.5607 2.3945
3.2197 3.6843 2.3945
3.0877 3.8035 2.3945
2.9516 3.9182 2.3944
2.8115 4.0284 2.3944
2.6675 4.1337 2.3944
2.5198 4.2342 2.3944
2.3685 4.3297 2.3944
2.2137 4.4200 2.3943
0.8406 1.8422 0.9791
0.7737 1.8723 0.9778
0.7058 1.8999 0.9764
0.6369 1.9251 0.9750
0.5671 1.9477 0.9736
0.4965 1.9678 0.9721
0.4253 1.9854 0.9705
0.3535 2.0004 0.9689
0.2811 2.0127 0.9673
0.2084 2.0225 0.9657
0.1354 2.0296 0.9640
0.0621 2.0341 0.9623
-0.0113 2.0359 0.9605
-0.0847 2.0351 0.9588
-0.1580 2.0317 0.9570
-0.2311 2.0255 0.9552
-0.3040 2.0168 0.9533
-0.3765 2.0054 0.9515
-0.4486 1.9914 0.9496
-0.5201 1.9749 0.9478
-0.5909 1.9557 0.9459
-0.6610 1.9340 0.9440
-0.7303 1.9098 0.9421
-0.7987 1.8831 0.9402
-0.8660 1.8540 0.9383
-0.9323 1.8224 0.9364
-2.5558 4.5830 2.3948
-2.7248 4.4992 2.3949
-2.8910 4.4092 2.3949
-3.0541 4.3130 2.3950
-3.2139 4.2107 2.3950
-3.3701 4.1024 2.3951
-3.5226 3.9883 2.3951
-3.6710 3.8684 2.3952
-3.8152 3.7430 2.3952
-3.9550 3.6121 2.3953
-4.0900 3.4760 2.3954
-4.2202 3.3347 2.3954
-4.3453 3.1884 2.3955
-4.4650 3.0373 2.3956
-4.5792 2.8817 2.3956
-4.6878 2.7217 2.3957
-4.7904 2.5575 2.3958
-4.8870 2.3894 2.3958
-4.9773 2.2175 2.3959
-5.0613 2.0422 2.3960
-5.1387 1.8636 2.3960
-5.2095 1.6820 2.3961
-5.2735 1.4976 2.3962
-5.3305 1.3108 2.3962
-5.3805 1.1218 2.3963
-5.4234 0.9308 2.3964
-5.4591 0.7382 2.3964
-5.4874 0.5442 2.3965
-5.5085 0.3491 2.3966
-5.5221 0.1532 2.3966
-5.5283 -0.0432 2.3967
-5.5271 -0.2398 2.3968
-5.5184 -0.4363 2.3968
-5.5022 -0.6324 2.3969
-5.4786 -0.8278 2.3970
-5.4541 -1.0235 2.3999
-5.4283 -1.2198 2.4056
-5.3929 -1.4148 2.4104
-5.3480 -1.6081 2.4142
-5.2941 -1.7993 2.4173
-5.2313 -1.9880 2.4198
-5.1601 -2.1737 2.4216
-5.0808 -2.3562 2.4229
-4.9935 -2.5350 2.4237
-4.8985 -2.7098 2.4240
-4.7965 -2.8806 2.4241
-4.6880 -3.0473 2.4241
-4.5733 -3.2095 2.4241
-4.4526 -3.3672 2.4241
-4.3261 -3.5202 2.4241
-4.1941 -3.6681 2.4241
-4.0566 -3.8108 2.4241
-3.9140 -3.9481 2.4241
-3.7664 -4.0798 2.4241
-3.6141 -4.2057 2.4241
-3.4574 -4.3256 2.4241
-3.2964 -4.4395 2.4241
-3.1315 -4.5471 2.4241
-2.9629 -4.6483 2.4241
-2.7908 -4.7431 2.4241
-2.6155 -4.8312 2.4241
-2.4374 -4.9125 2.4241
-2.2565 -4.9871 2.4241
-2.0733 -5.0548 2.4241
-1.8880 -5.1156 2.4241
-1.7009 -5.1694 2.4241
-1.5122 -5.2161 2.4241
-1.3223 -5.2558 2.4241
-1.1313 -5.2884 2.4241
-0.9396 -5.3139 2.4241
-0.7474 -5.3323 2.4241
-0.5550 -5.3436 2.4241
-0.3627 -5.3479 2.4241
-0.1707 -5.3452 2.4241
0.0206 -5.3355 2.4241
0.2112 -5.3188 2.4241
0.4006 -5.2953 2.4241
0.5888 -5.2651 2.4241
0.7753 -5.2281 2.4241
0.9600 -5.1845 2.4241
1.1427 -5.1344 2.4241
1.3230 -5.0778 2.4241
1.5009 -5.0150 2.4241
1.6761 -4.9459 2.4241
1.8484 -4.8708 2.4241
2.0175 -4.7898 2.4241
2.1833 -4.7030 2.4241
2.3456 -4.6105 2.4241
2.5043 -4.5125 2.4241
2.6590 -4.4092 2.4241
2.8097 -4.3006 2.4241
2.9562 -4.1871 2.4241
3.0984 -4.0687 2.4241
3.2361 -3.9456 2.4241
3.3691 -3.8179 2.4241
3.4973 -3.6860 2.4241
3.6206 -3.5498 2.4241
3.7389 -3.4097 2.4241
3.8521 -3.2658 2.4241
3.9600 -3.1183 2.4241
4.0625 -2.9674 2.4241
4.1596 -2.8132 2.4241
4.2510 -2.6560 2.4240
4.3365 -2.4957 2.4238
4.4156 -2.3325 2.4232
4.4882 -2.1665 2.4222
4.5541 -1.9982 2.4208
4.6132 -1.8276 2.4189
4.6652 -1.6551 2.4164
4.7099 -1.4808 2.4134
4.7471 -1.3052 2.4097
4.7767 -1.1286 2.4052
4.7988 -0.9513 2.4000
4.8168 -0.7742 2.3958
4.8369 -0.5981 2.3957
4.8510 -0.4216 2.3957
4.8590 -0.2448 2.3956
4.8610 -0.0680 2.3955
4.8570 0.1087 2.3955
4.8470 0.2850 2.3954
4.8309 0.4608 2.3954
4.8089 0.6359 2.3953
4.7809 0.8101 2.3953
4.7471 0.9832 2.3952
4.7073 1.1550 2.3952
4.6618 1.3253 2.3951
4.6104 1.4940 2.3951
4.5534 1.6608 2.3950
4.4907 1.8256 2.3950
4.4224 1.9882 2.3949
4.3486 2.1484 2.3949
4.2693 2.3060 2.3948
4.1847 2.4609 2.3948
4.0948 2.6130 2.3947
3.9998 2.7619 2.3947
3.8996 2.9076 2.3947
3.7945 3.0499 2.3946
3.6845 3.1886 2.3946
3.5697 3.3235 2.3946
3.4503 3.4546 2.3945
3.3263 3.5816 2.3945
3.1979 3.7045 2.3945
3.0653 3.8230 2.3944
2.9285 3.9370 2.3944
2.7877 4.0463 2.3944
2.6431 4.1509 2.3944
2.4947 4.2505 2.3944
2.3428 4.3451 2.3944
0.8955 1.8154 0.9802
0.8295 1.8474 0.9789
0.7625 1.8771 0.9776
0.6943 1.9043 0.9762
0.6253 1.9290 0.9748
0.5554 1.9512 0.9733
0.4847 1.9709 0.9718
0.4133 1.9881 0.9702
0.3414 2.0026 0.9687
0.2690 2.0145 0.9670
0.1962 2.0239 0.9654
0.1231 2.0305 0.9637
0.0499 2.0346 0.9620
-0.0235 2.0360 0.9602
-0.0969 2.0347 0.9585
-0.1702 2.0308 0.9567
-0.2433 2.0243 0.9549
-0.3161 2.0151 0.9530
-0.3886 2.0033 0.9512
-0.4605 1.9889 0.9493
-0.5319 1.9718 0.9474
-0.6027 1.9523 0.9456
-0.6727 1.9302 0.9437
-0.7418 1.9055 0.9418
-0.8100 1.8784 0.9399
-0.8772 1.8489 0.9380
-2.4130 4.6480 2.3948
-2.5842 4.5695 2.3948
-2.7527 4.4846 2.3949
-2.9184 4.3935 2.3949
-3.0810 4.2963 2.3950
-3.2402 4.1930 2.3950
-3.3958 4.0837 2.3951
-3.5476 3.9687 2.3951
-3.6954 3.8479 2.3952
-3.8389 3.7215 2.3953
-3.9779 3.5898 2.3953
-4.1121 3.4527 2.3954
-4.2415 3.3106 2.3954
-4.3656 3.1635 2.3955
-4.4845 3.0117 2.3956
-4.5978 2.8553 2.3956
-4.7053 2.6946 2.3957
-4.8070 2.5297 2.3958
-4.9025 2.3609 2.3958
-4.9918 2.1885 2.3959
-5.0747 2.0126 2.3960
-5.1510 1.8334 2.3960
-5.2207 1.6514 2.3961
-5.2835 1.4666 2.3962
-5.3393 1.2794 2.3962
-5.3882 1.0900 2.3963
-5.4299 0.8987 2.3964
-5.4643 0.7059 2.3964
-5.4915 0.5117 2.3965
-5.5113 0.3164 2.3966
-5.5237 0.1204 2.3966
-5.5286 -0.0760 2.3967
-5.5262 -0.2726 2.3968
-5.5162 -0.4691 2.3968
-5.4988 -0.6651 2.3969
-5.4739 -0.8604 2.3970
-5.4505 -1.0564 2.4009
-5.4231 -1.2525 2.4065
-5.3862 -1.4473 2.4111
-5.3397 -1.6403 2.4148
-5.2842 -1.8310 2.4178
-5.2200 -2.0192 2.4201
-5.1474 -2.2044 2.4218
-5.0667 -2.3863 2.4230
-4.9782 -2.5645 2.4238
-4.8819 -2.7387 2.4240
-4.7788 -2.9088 2.4241
-4.6693 -3.0747 2.4241
-4.5536 -3.2362 2.4241
-4.4319 -3.3931 2.4241
-4.3045 -3.5452 2.4241
-4.1715 -3.6923 2.4241
-4.0331 -3.8341 2.4241
-3.8896 -3.9705 2.4241
-3.7413 -4.1012 2.4241
-3.5882 -4.2261 2.4241
-3.4308 -4.3451 2.4241
-3.2691 -4.4579 2.4241
-3.1036 -4.5645 2.4241
-2.9344 -4.6646 2.4241
-2.7617 -4.7582 2.4241
-2.5860 -4.8452 2.4241
-2.4073 -4.9255 2.4241
-2.2261 -4.9989 2.4241
-2.0425 -5.0655 2.4241
-1.8569 -5.1251 2.4241
-1.6695 -5.1777 2.4241
-1.4806 -5.2232 2.4241
-1.2904 -5.2617 2.4241
-1.0993 -5.2931 2.4241
-0.9075 -5.3175 2.4241
-0.7153 -5.3347 2.4241
-0.5229 -5.3448 2.4241
-0.3306 -5.3479 2.4241
-0.1387 -5.3440 2.4241
0.0525 -5.3332 2.4241
0.2429 -5.3154 2.4241
-5.1829 0.3581 2.3965
-5.1966 0.1739 2.3966
-5.2034 -0.0108 2.3967
-5.2033 -0.1957 2.3967
-5.1961 -0.3805 2.3968
-5.1819 -0.5651 2.3968
-5.1607 -0.7490 2.3969
-5.1326 -0.9321 2.3970
-5.1099 -1.1167 2.4028
-5.0782 -1.3002 2.4078
-5.0378 -1.4823 2.4120
-4.9888 -1.6625 2.4153
-4.9315 -1.8403 2.4180
-4.8663 -2.0156 2.4201
-4.7935 -2.1879 2.4217
-4.7134 -2.3570 2.4229
-4.6260 -2.5225 2.4237
-4.5317 -2.6841 2.4240
-4.4310 -2.8417 2.4241
-4.3242 -2.9951 2.4241
-4.2118 -3.1444 2.4241
-4.0938 -3.2892 2.4241
-3.9707 -3.4293 2.4241
-3.8423 -3.5646 2.4241
-3.7091 -3.6948 2.4241
-3.5712 -3.8199 2.4241
-3.4289 -3.9395 2.4241
-3.2823 -4.0536 2.4241
-3.1317 -4.1621 2.4241
-2.9773 -4.2646 2.4241
-2.8193 -4.3613 2.4241
-2.6581 -4.4518 2.4241
-2.4938 -4.5362 2.4241
-2.3267 -4.6143 2.4241
-2.1570 -4.6860 2.4241
-1.9850 -4.7513 2.4241
-1.8110 -4.8101 2.4241
-1.6351 -4.8623 2.4241
-1.4578 -4.9079 2.4241
-1.2791 -4.9469 2.4241
-1.0995 -4.9792 2.4241
-0.9190 -5.0049 2.4241
-0.7381 -5.0239 2.4241
-0.5568 -5.0362 2.4241
-0.3756 -5.0419 2.4241
-0.1946 -5.0409 2.4241
-0.0140 -5.0334 2.4241
0.1658 -5.0194 2.4241
0.3447 -4.9989 2.4241
0.5224 -4.9719 2.4241
0.6986 -4.9387 2.4241
0.8733 -4.8991 2.4241
1.0461 -4.8534 2.4241
1.2168 -4.8016 2.4241
1.3852 -4.7438 2.4241
1.5511 -4.6801 2.4241
1.7144 -4.6107 2.4241
1.8747 -4.5357 2.4241
2.0320 -4.4551 2.4241
2.1861 -4.3691 2.4241
2.3367 -4.2779 2.4241
2.4837 -4.1816 2.4241
2.6270 -4.0804 2.4241
2.7663 -3.9743 2.4241
2.9016 -3.8636 2.4241
3.0327 -3.7484 2.4241
3.1594 -3.6288 2.4241
3.2816 -3.5052 2.4241
3.3993 -3.3775 2.4241
3.5122 -3.2460 2.4241
3.6203 -3.1108 2.4241
3.7234 -2.9722 2.4241
3.8216 -2.8303 2.4241
3.9145 -2.6853 2.4241
4.0019 -2.5371 2.4239
4.0835 -2.3860 2.4234
4.1593 -2.2321 2.4227
4.2288 -2.0756 2.4215
4.2921 -1.9167 2.4199
4.3489 -1.7557 2.4179
4.3992 -1.5929 2.4154
4.4428 -1.4285 2.4124
4.4792 -1.2627 2.4086
4.5086 -1.0959 2.4042
4.5310 -0.9284 2.3992
4.5506 -0.7612 2.3958
4.5708 -0.5947 2.3958
4.5853 -0.4278 2.3957
4.5941 -0.2605 2.3956
4.5971 -0.0932 2.3956
4.5943 0.0740 2.3955
4.5859 0.2410 2.3955
4.5718 0.4075 2.3954
4.5520 0.5733 2.3954
4.5265 0.7383 2.3953
4.4954 0.9023 2.3953
4.4588 1.0651 2.3952
4.4166 1.2266 2.3952
4.3689 1.3865 2.3951
4.3158 1.5447 2.3951
4.2574 1.7010 2.3950
4.1936 1.8552 2.3950
4.1245 2.0072 2.3949
4.0503 2.1568 2.3949
3.9710 2.3038 2.3949
3.8867 2.4481 2.3948
3.7974 2.5894 2.3948
3.7033 2.7277 2.3947
3.6045 2.8628 2.3947
3.5010 2.9945 2.3947
3.3930 3.1227 2.3946
3.2806 3.2472 2.3946
3.1638 3.3679 2.3946
3.0429 3.4846 2.3946
2.9179 3.5972 2.3945
2.7890 3.7056 2.3945
2.6563 3.8095 2.3945
2.5199 3.9089 2.3945
2.3800 4.0037 2.3945
2.2367 4.0937 2.3944
0.8539 1.7071 0.9781
0.7918 1.7377 0.9769
0.7287 1.7660 0.9757
0.6646 1.7921 0.9744
0.5995 1.8158 0.9731
0.5337 1.8371 0.9717
0.4671 1.8561 0.9703
0.3999 1.8727 0.9688
0.3322 1.8868 0.9673
0.2639 1.8984 0.9658
0.1953 1.9077 0.9643
0.1264 1.9144 0.9627
0.0573 1.9186 0.9611
-0.0119 1.9203 0.9594
-0.0812 1.9195 0.9577
-0.1503 1.9163 0.9561
-0.2193 1.9105 0.9543
-0.2881 1.9023 0.9526
-0.3565 1.8915 0.9509
-0.4245 1.8783 0.9491
-0.4919 1.8627 0.9474
-0.5588 1.8446 0.9456
-0.6249 1.8242 0.9438
-0.6903 1.8013 0.9420
-0.7548 1.7761 0.9402
-0.8183 1.7486 0.9385
-0.8808 1.7189 0.9367
-2.4136 4.3212 2.3949
-2.5727 4.2416 2.3949
-2.7291 4.1563 2.3950
-2.8826 4.0651 2.3950
-3.0329 3.9682 2.3951
-3.1799 3.8657 2.3951
-3.3232 3.7578 2.3952
-3.4628 3.6444 2.3952
-3.5983 3.5258 2.3953
-3.7296 3.4022 2.3953
-3.8564 3.2735 2.3954
-3.9787 3.1401 2.3955
-4.0961 3.0020 2.3955
-4.2084 2.8595 2.3956
-4.3156 2.7127 2.3956
-4.4174 2.5618 2.3957
-4.5137 2.4069 2.3958
-4.6042 2.2485 2.3958
-4.6889 2.0865 2.3959
-4.7676 1.9213 2.3960
-4.8401 1.7530 2.3960
-4.9064 1.5820 2.3961
-4.9662 1.4084 2.3962
-5.0196 1.2325 2.3962
-5.0663 1.0545 2.3963
-5.1064 0.8748 2.3963
-5.1396 0.6935 2.3964
-5.1661 0.5109 2.3965
-5.1856 0.3274 2.3965
-5.1983 0.1431 2.3966
-5.2039 -0.0416 2.3967
-5.2025 -0.2266 2.3967
-5.1942 -0.4114 2.3968
-5.1788 -0.5959 2.3968
-5.1565 -0.7797 2.3969
-5.1297 -0.9630 2.3981
-5.1051 -1.1474 2.4037
-5.0720 -1.3307 2.4085
-5.0301 -1.5125 2.4125
-4.9798 -1.6924 2.4158
-4.9213 -1.8698 2.4184
-4.8547 -2.0446 2.4204
-4.7806 -2.2164 2.4219
-4.6992 -2.3849 2.4230
-4.6108 -2.5498 2.4238
-4.5153 -2.7107 2.4240
-4.4135 -2.8676 2.4241
-4.3058 -3.0204 2.4241
-4.1924 -3.1689 2.4241
-4.0736 -3.3129 2.4241
-3.9496 -3.4522 2.4241
-3.8204 -3.5867 2.4241
-3.6864 -3.7161 2.4241
-3.5478 -3.8402 2.4241
-3.4047 -3.9590 2.4241
-3.2574 -4.0721 2.4241
-3.1061 -4.1796 2.4241
-2.9511 -4.2812 2.4241
-2.7926 -4.3768 2.4241
-2.6308 -4.4664 2.4241
-2.4660 -4.5497 2.4241
-2.2985 -4.6267 2.4241
-2.1284 -4.6974 2.4241
-1.9561 -4.7616 2.4241
-1.7817 -4.8192 2.4241
-1.6056 -4.8704 2.4241
-1.4280 -4.9149 2.4241
-1.2492 -4.9527 2.4241
-1.0694 -4.9840 2.4241
-0.8888 -5.0085 2.4241
-0.7078 -5.0264 2.4241
-0.5265 -5.0376 2.4241
-0.3453 -5.0422 2.4241
-0.1644 -5.0401 2.4241
0.0161 -5.0315 2.4241
0.1958 -5.0164 2.4241
0.3745 -4.9948 2.4241
0.5519 -4.9668 2.4241
0.7279 -4.9325 2.4241
0.9023 -4.8919 2.4241
1.0747 -4.8452 2.4241
1.2451 -4.7924 2.4241
1.4131 -4.7336 2.4241
1.5786 -4.6689 2.4241
1.7414 -4.5986 2.4241
1.9012 -4.5226 2.4241
2.0580 -4.4411 2.4241
2.2115 -4.3542 2.4241
2.3615 -4.2622 2.4241
2.5079 -4.1650 2.4241
2.6505 -4.0630 2.4241
2.7892 -3.9561 2.4241
2.9238 -3.8446 2.4241
3.0542 -3.7287 2.4241
3.1801 -3.6085 2.4241
3.3016 -3.4841 2.4241
3.4185 -3.3558 2.4241
3.5306 -3.2237 2.4241
3.6379 -3.0879 2.4241
3.7401 -2.9487 2.4241
3.8374 -2.8063 2.4241
3.9295 -2.6607 2.4241
4.0160 -2.5121 2.4238
4.0966 -2.3604 2.4233
4.1713 -2.2061 2.4225
4.2399 -2.0492 2.4213
4.3020 -1.8899 2.4196
4.3578 -1.7286 2.4175
4.4069 -1.5655 2.4149
4.4493 -1.4009 2.4118
4.4848 -1.2349 2.4080
4.5129 -1.0679 2.4034
4.5341 -0.9004 2.3983
4.5544 -0.7335 2.3958
4.5736 -0.5669 2.3957
4.5872 -0.3999 2.3957
4.5950 -0.2326 2.3956
4.5970 -0.0653 2.3956
4.5933 0.1019 2.3955
4.5839 0.2688 2.3955
4.5689 0.4352 2.3954
4.5481 0.6009 2.3954
4.5217 0.7658 2.3953
4.4897 0.9296 2.3953
4.4521 1.0922 2.3952
4.4090 1.2534 2.3952
4.3605 1.4130 2.3951
4.3064 1.5709 2.3951
4.2471 1.7269 2.3950
4.1824 1.8808 2.3950
4.1125 2.0323 2.3949
4.0374 2.1815 2.3949
3.9572 2.3281 2.3948
3.8721 2.4719 2.3948
3.7820 2.6128 2.3948
3.6871 2.7505 2.3947
3.5875 2.8851 2.3947
3.4833 3.0162 2.3947
3.3745 3.1438 2.3946
3.2614 3.2677 2.3946
3.1439 3.3877 2.3946
3.0223 3.5037 2.3946
2.8966 3.6156 2.3945
2.7671 3.7232 2.3945
2.6337 3.8264 2.3945
2.4967 3.9251 2.3945
2.3563 4.0191 2.3945
2.2125 4.1083 2.3944
0.8436 1.7123 0.9779
0.7813 1.7426 0.9767
0.7180 1.7705 0.9755
0.6538 1.7962 0.9742
0.5886 1.8195 0.9729
0.5226 1.8405 0.9715
0.4560 1.8590 0.9700
0.3887 1.8752 0.9686
0.3208 1.8889 0.9671
0.2525 1.9002 0.9656
0.1838 1.9089 0.9640
0.1149 1.9152 0.9624
0.0457 1.9191 0.9608
-0.0235 1.9204 0.9591
-0.0927 1.9192 0.9575
-0.1619 1.9155 0.9558
-0.2308 1.9093 0.9541
-0.2995 1.9006 0.9523
-0.3679 1.8895 0.9506
-0.4358 1.8759 0.9488
-0.5031 1.8598 0.9471
-0.5699 1.8414 0.9453
-0.6359 1.8205 0.9435
-0.7011 1.7973 0.9417
-0.7655 1.7717 0.9399
-0.8288 1.7438 0.9382
-0.8912 1.7137 0.9364
-2.4404 4.3083 2.3949
-2.5990 4.2278 2.3949
-2.7550 4.1414 2.3950
-2.9079 4.0493 2.3950
-3.0577 3.9515 2.3951
-3.2041 3.8481 2.3951
-3.3468 3.7392 2.3952
-3.4857 3.6250 2.3952
-3.6205 3.5055 2.3953
-3.7511 3.3810 2.3954
-3.8772 3.2516 2.3954
-3.9986 3.1174 2.3955
-4.1152 2.9785 2.3955
-4.2267 2.8353 2.3956
-4.3330 2.6877 2.3957
-4.4339 2.5362 2.3957
-4.5292 2.3807 2.3958
-4.6188 2.2216 2.3958
-4.7025 2.0591 2.3959
-4.7801 1.8933 2.3960
-4.8516 1.7246 2.3960
-4.9168 1.5531 2.3961
-4.9756 1.3791 2.3962
-5.0278 1.2029 2.3962
-5.0735 1.0246 2.3963
-5.1124 0.8446 2.3964
-5.1445 0.6631 2.3964
-5.1698 0.4803 2.3965
-5.1882 0.2966 2.3966
-5.1997 0.1123 2.3966
-5.2042 -0.0726 2.3967
-5.2016 -0.2575 2.3967
-5.1921 -0.4423 2.3968
-5.1756 -0.6266 2.3969
-5.1521 -0.8103 2.3969
-5.1262 -0.9939 2.3991
-5.1001 -1.1781 2.4045
-5.0655 -1.3612 2.4092
-5.0222 -1.5427 2.4131
-4.9705 -1.7221 2.4162
-4.9107 -1.8993 2.4188
-4.8429 -2.0736 2.4207
-4.7675 -2.2448 2.4222
-4.6849 -2.4127 2.4232
-4.5953 -2.5769 2.4238
-4.4987 -2.7372 2.4240
-4.3959 -2.8934 2.4241
-4.2872 -3.0455 2.4241
-4.1730 -3.1933 2.4241
-4.0533 -3.3365 2.4241
-3.9283 -3.4750 2.4241
-3.7984 -3.6087 2.4241
-3.6636 -3.7372 2.4241
-3.5242 -3.8605 2.4241
-3.3804 -3.9783 2.4241
-3.2324 -4.0905 2.4241
-3.0805 -4.1970 2.4241
-2.9249 -4.2976 2.4241
-2.7658 -4.3922 2.4241
-2.6035 -4.4807 2.4241
-2.4382 -4.5630 2.4241
-2.2702 -4.6390 2.4241
-2.0998 -4.7085 2.4241
-1.9271 -4.7717 2.4241
-1.7524 -4.8282 2.4241
-1.5760 -4.8783 2.4241
-1.3982 -4.9217 2.4241
-1.2192 -4.9584 2.4241
-1.0392 -4.9885 2.4241
-0.8586 -5.0120 2.4241
-0.6775 -5.0287 2.4241
-0.4963 -5.0388 2.4241
-0.3151 -5.0423 2.4241
-0.1342 -5.0392 2.4241
0.0462 -5.0295 2.4241
0.2257 -5.0133 2.4241
-4.8903 0.3366 2.3965
-4.9031 0.1630 2.3966
-4.9093 -0.0112 2.3966
-4.9090 -0.1855 2.3967
-4.9021 -0.3598 2.3967
-4.8886 -0.5337 2.3968
-4.8685 -0.7071 2.3968
-4.8419 -0.8797 2.3969
-4.8169 -1.0529 2.4010
-4.7869 -1.2258 2.4059
-4.7489 -1.3973 2.4101
-4.7030 -1.5671 2.4136
-4.6495 -1.7349 2.4165
-4.5887 -1.9002 2.4188
-4.5205 -2.0628 2.4207
-4.4453 -2.2223 2.4220
-4.3636 -2.3786 2.4230
-4.2754 -2.5313 2.4237
-4.1808 -2.6801 2.4240
-4.0805 -2.8250 2.4241
-3.9747 -2.9659 2.4241
-3.8636 -3.1025 2.4241
-3.7476 -3.2348 2.4241
-3.6268 -3.3625 2.4241
-3.5014 -3.4855 2.4241
-3.3715 -3.6036 2.4241
-3.2374 -3.7167 2.4241
-3.0993 -3.8246 2.4241
-2.9575 -3.9271 2.4241
-2.8120 -4.0241 2.4241
-2.6632 -4.1156 2.4241
-2.5113 -4.2013 2.4241
-2.3564 -4.2812 2.4241
-2.1989 -4.3553 2.4241
-2.0389 -4.4233 2.4241
-1.8768 -4.4853 2.4241
-1.7127 -4.5411 2.4241
-1.5468 -4.5908 2.4241
-1.3795 -4.6343 2.4241
-1.2110 -4.6715 2.4241
-1.0414 -4.7025 2.4241
-0.8711 -4.7272 2.4241
-0.7003 -4.7456 2.4241
-0.5292 -4.7577 2.4241
-0.3580 -4.7635 2.4241
-0.1871 -4.7631 2.4241
-0.0165 -4.7565 2.4241
0.1534 -4.7437 2.4241
0.3225 -4.7248 2.4241
0.4904 -4.6998 2.4241
0.6571 -4.6688 2.4241
0.8222 -4.6319 2.4241
0.9857 -4.5892 2.4241
1.1472 -4.5406 2.4241
1.3065 -4.4865 2.4241
1.4636 -4.4267 2.4241
1.6181 -4.3615 2.4241
1.7700 -4.2909 2.4241
1.9189 -4.2151 2.4241
2.0648 -4.1342 2.4241
2.2076 -4.0484 2.4241
2.3469 -3.9576 2.4241
2.4827 -3.8622 2.4241
2.6148 -3.7622 2.4241
2.7431 -3.6577 2.4241
2.8674 -3.5490 2.4241
2.9877 -3.4362 2.4241
3.1037 -3.3194 2.4241
3.2153 -3.1988 2.4241
3.3225 -3.0745 2.4241
3.4251 -2.9468 2.4241
3.5231 -2.8157 2.4241
3.6162 -2.6815 2.4241
3.7043 -2.5442 2.4239
3.7870 -2.4038 2.4235
3.8644 -2.2607 2.4228
3.9359 -2.1148 2.4217
4.0017 -1.9665 2.4204
4.0617 -1.8161 2.4187
4.1154 -1.6636 2.4165
4.1630 -1.5094 2.4138
4.2042 -1.3537 2.4107
4.2389 -1.1967 2.4069
4.2670 -1.0388 2.4025
4.2886 -0.8803 2.3977
4.3102 -0.7224 2.3958
4.3296 -0.5647 2.3958
4.3435 -0.4064 2.3957
4.3519 -0.2479 2.3957
4.3549 -0.0893 2.3956
4.3524 0.0693 2.3956
4.3445 0.2275 2.3955
4.3312 0.3854 2.3955
4.3125 0.5426 2.3954
4.2885 0.6991 2.3954
4.2591 0.8546 2.3953
4.2243 1.0089 2.3953
4.1844 1.1620 2.3952
4.1392 1.3136 2.3952
4.0888 1.4636 2.3951
4.0333 1.6118 2.3951
3.9728 1.7580 2.3950
3.9073 1.9021 2.3950
3.8369 2.0438 2.3950
3.7616 2.1832 2.3949
3.6816 2.3199 2.3949
3.5969 2.4539 2.3948
3.5076 2.5849 2.3948
3.4138 2.7129 2.3948
3.3156 2.8376 2.3947
3.2131 2.9590 2.3947
3.1064 3.0769 2.3947
2.9956 3.1912 2.3947
2.8808 3.3016 2.3946
2.7622 3.4082 2.3946
2.6399 3.5106 2.3946
2.5140 3.6090 2.3946
2.3846 3.7029 2.3946
2.2519 3.7925 2.3945
0.8635 1.5824 0.9772
0.8059 1.6134 0.9761
0.7473 1.6423 0.9750
0.6876 1.6691 0.9738
0.6270 1.6937 0.9726
0.5655 1.7161 0.9713
0.5033 1.7363 0.9700
0.4404 1.7542 0.9687
0.3768 1.7699 0.9673
0.3127 1.7832 0.9659
0.2482 1.7943 0.9645
0.1834 1.8029 0.9630
0.1182 1.8093 0.9615
0.0529 1.8133 0.9600
-0.0125 1.8149 0.9584
-0.0780 1.8142 0.9568
-0.1434 1.8111 0.9552
-0.2086 1.8056 0.9536
-0.2736 1.7978 0.9520
-0.3382 1.7877 0.9503
-0.4025 1.7752 0.9487
-0.4663 1.7604 0.9470
-0.5295 1.7434 0.9453
-0.5920 1.7240 0.9437
-0.6538 1.7024 0.9420
-0.7147 1.6786 0.9403
-0.7748 1.6526 0.9386
-0.8339 1.6245 0.9369
-0.8919 1.5942 0.9352
-2.4342 4.0070 2.3950
-2.5817 3.9259 2.3950
-2.7265 3.8394 2.3951
-2.8682 3.7475 2.3951
-3.0067 3.6503 2.3952
-3.1418 3.5480 2.3952
-3.2733 3.4406 2.3953
-3.4009 3.3283 2.3953
-3.5246 3.2112 2.3954
-3.6440 3.0895 2.3954
-3.7591 2.9632 2.3955
-3.8696 2.8326 2.3956
-3.9753 2.6979 2.3956
-4.0761 2.5591 2.3957
-4.1719 2.4165 2.3957
-4.2624 2.2702 2.3958
-4.3475 2.1205 2.3958
-4.4270 1.9675 2.3959
-4.5009 1.8115 2.3960
-4.5690 1.6526 2.3960
-4.6312 1.4912 2.3961
-4.6874 1.3274 2.3962
-4.7374 1.1614 2.3962
-4.7812 0.9935 2.3963
-4.8188 0.8239 2.3963
-4.8499 0.6529 2.3964
-4.8746 0.4808 2.3965
-4.8929 0.3077 2.3965
-4.9046 0.1339 2.3966
-4.9097 -0.0403 2.3966
-4.9083 -0.2146 2.3967
-4.9003 -0.3889 2.3967
-4.8857 -0.5627 2.3968
-4.8645 -0.7360 2.3969
-4.8369 -0.9084 2.3969
-4.8125 -1.0819 2.4019
-4.7812 -1.2546 2.4067
-4.7418 -1.4258 2.4107
-4.6946 -1.5953 2.4141
-4.6398 -1.7626 2.4169
-4.5777 -1.9275 2.4191
-4.5085 -2.0897 2.4210
-4.4321 -2.2486 2.4222
-4.3492 -2.4043 2.4231
-4.2601 -2.5564 2.4238
-4.1645 -2.7046 2.4240
-4.0632 -2.8488 2.4241
-3.9565 -2.9890 2.4241
-3.8446 -3.1249 2.4241
-3.7278 -3.2564 2.4241
-3.6062 -3.3834 2.4241
-3.4800 -3.5056 2.4241
-3.3494 -3.6229 2.4241
-3.2147 -3.7351 2.4241
-3.0759 -3.8421 2.4241
-2.9334 -3.9437 2.4241
-2.7874 -4.0398 2.4241
-2.6380 -4.1303 2.4241
-2.4856 -4.2151 2.4241
-2.3303 -4.2940 2.4241
-2.1723 -4.3671 2.4241
-2.0120 -4.4341 2.4241
-1.8495 -4.4950 2.4241
-1.6851 -4.5499 2.4241
-1.5190 -4.5985 2.4241
-1.3515 -4.6410 2.4241
-1.1827 -4.6771 2.4241
-1.0130 -4.7071 2.4241
-0.8426 -4.7307 2.4241
-0.6717 -4.7480 2.4241
-0.5006 -4.7591 2.4241
-0.3295 -4.7639 2.4241
-0.1585 -4.7624 2.4241
0.0119 -4.7548 2.4241
0.1817 -4.7409 2.4241
0.3506 -4.7210 2.4241
0.5184 -4.6950 2.4241
0.6848 -4.6631 2.4241
0.8497 -4.6252 2.4241
1.0128 -4.5815 2.4241
1.1739 -4.5320 2.4241
1.3329 -4.4769 2.4241
1.4896 -4.4162 2.4241
1.6437 -4.3501 2.4241
1.7951 -4.2787 2.4241
1.9435 -4.2020 2.4241
2.0889 -4.1202 2.4241
2.2311 -4.0335 2.4241
2.3698 -3.9420 2.4241
2.5051 -3.8458 2.4241
2.6365 -3.7450 2.4241
2.7642 -3.6399 2.4241
2.8878 -3.5304 2.4241
3.0073 -3.4169 2.4241
3.1226 -3.2995 2.4241
3.2335 -3.1783 2.4241
3.3400 -3.0534 2.4241
3.4418 -2.9251 2.4241
3.5390 -2.7935 2.4241
3.6313 -2.6588 2.4240
3.7185 -2.5209 2.4238
3.8003 -2.3801 2.4234
3.8767 -2.2365 2.4227
3.9473 -2.0902 2.4216
4.0121 -1.9415 2.4201
4.0710 -1.7907 2.4183
4.1239 -1.6380 2.4161
4.1703 -1.4835 2.4134
4.2104 -1.3275 2.4101
4.2440 -1.1704 2.4062
4.2710 -1.0123 2.4017
4.2917 -0.8537 2.3968
4.3138 -0.6961 2.3958
4.3323 -0.5382 2.3958
4.3452 -0.3800 2.3957
4.3528 -0.2214 2.3957
4.3549 -0.0628 2.3956
4.3515 0.0957 2.3955
4.3427 0.2539 2.3955
4.3285 0.4117 2.3954
4.3089 0.5688 2.3954
4.2839 0.7251 2.3953
4.2536 0.8804 2.3953
4.2180 1.0346 2.3952
4.1772 1.1875 2.3952
4.1311 1.3388 2.3952
4.0799 1.4885 2.3951
4.0236 1.6363 2.3951
3.9622 1.7822 2.3950
3.8959 1.9259 2.3950
3.8247 2.0673 2.3949
3.7486 2.2062 2.3949
3.6678 2.3425 2.3949
3.5823 2.4760 2.3948
3.4922 2.6065 2.3948
3.3977 2.7340 2.3948
3.2988 2.8582 2.3947
3.1955 2.9790 2.3947
3.0882 3.0963 2.3947
2.9767 3.2099 2.3947
2.8613 3.3197 2.3946
2.7421 3.4256 2.3946
2.6191 3.5274 2.3946
2.4926 3.6250 2.3946
2.3627 3.7182 2.3946
2.2294 3.8070 2.3945
0.8540 1.5877 0.9770
0.7962 1.6184 0.9759
0.7374 1.6469 0.9748
0.6775 1.6734 0.9736
0.6168 1.6976 0.9724
0.5552 1.7197 0.9711
0.4928 1.7395 0.9698
0.4298 1.7570 0.9685
0.3661 1.7723 0.9671
0.3020 1.7852 0.9657
0.2374 1.7959 0.9642
0.1725 1.8042 0.9627
0.1073 1.8101 0.9612
0.0420 1.8137 0.9597
-0.0235 1.8150 0.9581
-0.0889 1.8138 0.9566
-0.1543 1.8103 0.9550
-0.2195 1.8045 0.9533
-0.2844 1.7963 0.9517
-0.3490 1.7858 0.9501
-0.4132 1.7729 0.9484
-0.4769 1.7577 0.9467
-0.5400 1.7403 0.9451
-0.6024 1.7206 0.9434
-0.6640 1.6986 0.9417
-0.7248 1.6744 0.9400
-0.7848 1.6481 0.9383
-0.8437 1.6196 0.9366
-0.9015 1.5890 0.9350
-2.4590 3.9938 2.3950
-2.6061 3.9118 2.3951
-2.7504 3.8244 2.3951
-2.8916 3.7316 2.3951
-3.0295 3.6336 2.3952
-3.1640 3.5304 2.3952
-3.2949 3.4222 2.3953
-3.4219 3.3091 2.3953
-3.5448 3.1912 2.3954
-3.6636 3.0687 2.3955
-3.7779 2.9417 2.3955
-3.8876 2.8104 2.3956
-3.9925 2.6749 2.3956
-4.0925 2.5355 2.3957
-4.1873 2.3923 2.3957
-4.2770 2.2454 2.3958
-4.3611 2.0951 2.3959
-4.4398 1.9416 2.3959
-4.5127 1.7851 2.3960
-4.5798 1.6258 2.3960
-4.6410 1.4640 2.3961
-4.6962 1.2998 2.3962
-4.7452 1.1335 2.3962
-4.7880 0.9653 2.3963
-4.8244 0.7955 2.3963
-4.8545 0.6243 2.3964
-4.8781 0.4519 2.3965
-4.8953 0.2787 2.3965
-4.9059 0.1048 2.3966
-4.9099 -0.0694 2.3966
-4.9074 -0.2437 2.3967
-4.8983 -0.4179 2.3968
-4.8826 -0.5917 2.3968
-4.8604 -0.7649 2.3969
-4.8326 -0.9373 2.3974
-4.8078 -1.1108 2.4027
-4.7753 -1.2833 2.4075
-4.7346 -1.4543 2.4114
-4.6860 -1.6234 2.4146
-4.6299 -1.7904 2.4173
-4.5666 -1.9548 2.4194
-4.4962 -2.1164 2.4212
-4.4188 -2.2749 2.4224
-4.3348 -2.4300 2.4232
-4.2445 -2.5814 2.4238
-4.1480 -2.7290 2.4240
-4.0457 -2.8725 2.4241
-3.9381 -3.0120 2.4241
-3.8254 -3.1472 2.4241
-3.7078 -3.2780 2.4241
-3.5854 -3.4042 2.4241
-3.4585 -3.5255 2.4241
-3.3272 -3.6420 2.4241
-3.1918 -3.7533 2.4241
-3.0524 -3.8594 2.4241
-2.9093 -3.9601 2.4241
-2.7627 -4.0553 2.4241
-2.6128 -4.1449 2.4241
-2.4598 -4.2287 2.4241
-2.3041 -4.3066 2.4241
-2.1457 -4.3787 2.4241
-1.9850 -4.4447 2.4241
-1.8222 -4.5046 2.4241
-1.6574 -4.5584 2.4241
-1.4911 -4.6060 2.4241
-1.3233 -4.6474 2.4241
-1.1544 -4.6826 2.4241
-0.9846 -4.7114 2.4241
-0.8141 -4.7340 2.4241
-0.6432 -4.7503 2.4241
-0.4720 -4.7603 2.4241
-0.3009 -4.7641 2.4241
-0.1300 -4.7616 2.4241
0.0403 -4.7529 2.4241
0.2100 -4.7380 2.4241
-4.6235 0.3171 2.3965
-4.6354 0.1530 2.3965
-4.6411 -0.0115 2.3966
-4.6407 -0.1762 2.3966
-4.6341 -0.3408 2.3967
-4.6212 -0.5052 2.3968
-4.6022 -0.6689 2.3968
-4.5770 -0.8319 2.3969
-4.5501 -0.9949 2.3993
-4.5216 -1.1580 2.4041
-4.4859 -1.3200 2.4084
-4.4429 -1.4804 2.4120
-4.3925 -1.6387 2.4150
-4.3352 -1.7949 2.4174
-4.2713 -1.9485 2.4194
-4.2010 -2.0995 2.4211
-4.1241 -2.2472 2.4222
-4.0412 -2.3917 2.4231
-3.9526 -2.5327 2.4237
-3.8581 -2.6698 2.4240
-3.7585 -2.8031 2.4241
-3.6537 -2.9323 2.4241
-3.5442 -3.0574 2.4241
-3.4302 -3.1782 2.4241
-3.3118 -3.2946 2.4241
-3.1893 -3.4064 2.4241
-3.0628 -3.5134 2.4241
-2.9324 -3.6155 2.4241
-2.7985 -3.7126 2.4241
-2.6612 -3.8046 2.4241
-2.5207 -3.8913 2.4241
-2.3772 -3.9726 2.4241
-2.2310 -4.0484 2.4241
-2.0822 -4.1187 2.4241
-1.9311 -4.1833 2.4241
-1.7779 -4.2423 2.4241
-1.6228 -4.2954 2.4241
-1.4661 -4.3428 2.4241
-1.3080 -4.3842 2.4241
-1.1487 -4.4198 2.4241
-0.9884 -4.4495 2.4241
-0.8274 -4.4732 2.4241
-0.6658 -4.4910 2.4241
-0.5039 -4.5028 2.4241
-0.3420 -4.5088 2.4241
-0.1802 -4.5088 2.4241
-0.0188 -4.5029 2.4241
0.1421 -4.4913 2.4241
0.3021 -4.4738 2.4241
0.4612 -4.4505 2.4241
0.6190 -4.4216 2.4241
0.7755 -4.3871 2.4241
0.9303 -4.3470 2.4241
1.0834 -4.3015 2.4241
1.2344 -4.2505 2.4241
1.3833 -4.1943 2.4241
1.5299 -4.1329 2.4241
1.6739 -4.0665 2.4241
1.8152 -3.9950 2.4241
1.9537 -3.9187 2.4241
2.0891 -3.8377 2.4241
2.2213 -3.7520 2.4241
2.3503 -3.6618 2.4241
2.4757 -3.5673 2.4241
2.5975 -3.4686 2.4241
2.7156 -3.3658 2.4241
2.8299 -3.2591 2.4241
2.9401 -3.1486 2.4241
3.0462 -3.0345 2.4241
3.1481 -2.9169 2.4241
3.2457 -2.7959 2.4241
3.3388 -2.6718 2.4241
3.4272 -2.5445 2.4239
3.5107 -2.4142 2.4235
3.5891 -2.2810 2.4229
3.6623 -2.1451 2.4220
3.7302 -2.0068 2.4208
3.7926 -1.8662 2.4193
3.8494 -1.7234 2.4173
3.9004 -1.5788 2.4151
3.9457 -1.4326 2.4124
3.9848 -1.2849 2.4091
4.0177 -1.1360 2.4052
4.0446 -0.9863 2.4009
4.0651 -0.8359 2.3959
4.0888 -0.6867 2.3958
4.1073 -0.5369 2.3958
4.1207 -0.3867 2.3957
4.1288 -0.2362 2.3957
4.1318 -0.0857 2.3956
4.1295 0.0649 2.3956
4.1221 0.2152 2.3955
4.1096 0.3650 2.3955
4.0919 0.5143 2.3954
4.0691 0.6629 2.3954
4.0412 0.8106 2.3953
4.0083 0.9572 2.3953
3.9703 1.1025 2.3953
3.9274 1.2465 2.3952
3.8796 1.3889 2.3952
3.8269 1.5296 2.3951
3.7694 1.6684 2.3951
3.7072 1.8052 2.3950
3.6402 1.9398 2.3950
3.5687 2.0720 2.3950
3.4927 2.2018 2.3949
3.4121 2.3290 2.3949
3.3273 2.4533 2.3949
3.2381 2.5747 2.3948
3.1448 2.6931 2.3948
3.0473 2.8083 2.3948
2.9459 2.9201 2.3948
2.8406 3.0284 2.3947
2.7316 3.1331 2.3947
2.6189 3.2341 2.3947
2.5027 3.3312 2.3947
2.3830 3.4243 2.3947
2.2601 3.5133 2.3946
0.8700 1.4669 0.9763
0.8166 1.4982 0.9753
0.7620 1.5276 0.9742
0.7065 1.5549 0.9732
0.6499 1.5803 0.9721
0.5925 1.6036 0.9709
0.5343 1.6248 0.9697
0.4754 1.6439 0.9685
0.4158 1.6609 0.9672
0.3556 1.6757 0.9659
0.2949 1.6883 0.9646
0.2339 1.6988 0.9632
0.1724 1.7070 0.9618
0.1107 1.7130 0.9604
0.0489 1.7168 0.9589
-0.0131 1.7183 0.9575
-0.0751 1.7176 0.9560
-0.1370 1.7147 0.9545
-0.1987 1.7095 0.9529
-0.2603 1.7021 0.9514
-0.3215 1.6925 0.9498
-0.3824 1.6807 0.9483
-0.4428 1.6667 0.9467
-0.5026 1.6505 0.9451
-0.5618 1.6322 0.9435
-0.6203 1.6118 0.9419
-0.6781 1.5892 0.9403
-0.7350 1.5646 0.9387
-0.7909 1.5380 0.9371
-0.8459 1.5094 0.9355
-0.8998 1.4787 0.9339
-2.4468 3.7151 2.3951
-2.5836 3.6328 2.3951
-2.7175 3.5455 2.3952
-2.8483 3.4532 2.3952
-2.9759 3.3561 2.3953
-3.1000 3.2542 2.3953
-3.2205 3.1477 2.3954
-3.3372 3.0367 2.3954
-3.4499 2.9213 2.3955
-3.5584 2.8016 2.3955
-3.6626 2.6779 2.3956
-3.7623 2.5502 2.3956
-3.8574 2.4188 2.3957
-3.9476 2.2837 2.3957
-4.0329 2.1453 2.3958
-4.1130 2.0036 2.3959
-4.1880 1.8589 2.3959
-4.2575 1.7113 2.3960
-4.3216 1.5610 2.3960
-4.3802 1.4084 2.3961
-4.4330 1.2534 2.3961
-4.4800 1.0965 2.3962
-4.5212 0.9378 2.3963
-4.5564 0.7776 2.3963
-4.5857 0.6160 2.3964
-4.6088 0.4533 2.3964
-4.6259 0.2897 2.3965
-4.6368 0.1255 2.3965
-4.6415 -0.0390 2.3966
-4.6400 -0.2037 2.3967
-4.6323 -0.3683 2.3967
-4.6185 -0.5326 2.3968
-4.5984 -0.6962 2.3968
-4.5722 -0.8591 2.3969
-4.5459 -1.0222 2.4001
-4.5162 -1.1851 2.4048
-4.4792 -1.3469 2.4090
-4.4349 -1.5069 2.4125
-4.3835 -1.6650 2.4154
-4.3250 -1.8207 2.4178
-4.2599 -1.9739 2.4197
-4.1885 -2.1243 2.4213
-4.1107 -2.2716 2.4224
-4.0268 -2.4155 2.4232
-3.9372 -2.5559 2.4238
-3.8418 -2.6923 2.4240
-3.7413 -2.8249 2.4241
-3.6357 -2.9535 2.4241
-3.5255 -3.0779 2.4241
-3.4107 -3.1980 2.4241
-3.2917 -3.3136 2.4241
-3.1684 -3.4246 2.4241
-3.0412 -3.5308 2.4241
-2.9103 -3.6321 2.4241
-2.7758 -3.7284 2.4241
-2.6379 -3.8194 2.4241
-2.4969 -3.9052 2.4241
-2.3529 -3.9856 2.4241
-2.2063 -4.0606 2.4241
-2.0571 -4.1299 2.4241
-1.9056 -4.1936 2.4241
-1.7521 -4.2516 2.4241
-1.5968 -4.3037 2.4241
-1.4398 -4.3501 2.4241
-1.2815 -4.3906 2.4241
-1.1220 -4.4252 2.4241
-0.9615 -4.4539 2.4241
-0.8004 -4.4766 2.4241
-0.6388 -4.4934 2.4241
-0.4769 -4.5042 2.4241
-0.3150 -4.5092 2.4241
-0.1532 -4.5082 2.4241
0.0081 -4.5014 2.4241
0.1689 -4.4887 2.4241
0.3288 -4.4703 2.4241
0.4876 -4.4461 2.4241
0.6453 -4.4162 2.4241
0.8015 -4.3808 2.4241
0.9560 -4.3398 2.4241
1.1088 -4.2933 2.4241
1.2595 -4.2415 2.4241
1.4080 -4.1844 2.4241
1.5541 -4.1222 2.4241
1.6977 -4.0549 2.4241
1.8385 -3.9826 2.4241
1.9765 -3.9055 2.4241
2.1114 -3.8237 2.4241
2.2431 -3.7372 2.4241
2.3715 -3.6464 2.4241
2.4963 -3.5511 2.4241
2.6175 -3.4517 2.4241
2.7350 -3.3483 2.4241
2.8486 -3.2409 2.4241
2.9581 -3.1298 2.4241
3.0636 -3.0151 2.4241
3.1647 -2.8969 2.4241
3.2616 -2.7754 2.4241
3.3539 -2.6507 2.4240
3.4415 -2.5230 2.4238
3.5241 -2.3921 2.4234
3.6018 -2.2586 2.4228
3.6740 -2.1222 2.4218
3.7410 -1.9835 2.4205
3.8026 -1.8425 2.4190
3.8583 -1.6994 2.4170
3.9084 -1.5545 2.4146
3.9526 -1.4080 2.4118
3.9908 -1.2601 2.4085
4.0226 -1.1111 2.4045
4.0485 -0.9612 2.4001
4.0695 -0.8110 2.3959
4.0923 -0.6617 2.3958
4.1099 -0.5119 2.3958
4.1224 -0.3616 2.3957
4.1297 -0.2111 2.3957
4.1317 -0.0605 2.3956
4.1287 0.0900 2.3956
4.1204 0.2402 2.3955
4.1070 0.3900 2.3955
4.0884 0.5392 2.3954
4.0648 0.6876 2.3954
4.0361 0.8351 2.3953
4.0023 0.9815 2.3953
3.9635 1.1267 2.3952
3.9198 1.2704 2.3952
3.8711 1.4125 2.3952
3.8176 1.5529 2.3951
3.7593 1.6914 2.3951
3.6963 1.8278 2.3950
3.6286 1.9620 2.3950
3.5563 2.0939 2.3950
3.4795 2.2232 2.3949
3.3983 2.3499 2.3949
3.3127 2.4738 2.3949
3.2228 2.5947 2.3948
3.1288 2.7126 2.3948
3.0307 2.8272 2.3948
2.9286 2.9384 2.3948
2.8227 3.0461 2.3947
2.7130 3.1502 2.3947
2.5997 3.2506 2.3947
2.4829 3.3470 2.3947
2.3627 3.4395 2.3947
2.2393 3.5278 2.3946
0.8612 1.4723 0.9761
0.8075 1.5032 0.9751
0.7528 1.5323 0.9741
0.6971 1.5593 0.9730
0.6404 1.5843 0.9719
0.5829 1.6073 0.9707
0.5245 1.6282 0.9695
0.4655 1.6469 0.9683
0.4058 1.6635 0.9670
0.3455 1.6780 0.9657
0.2848 1.6902 0.9643
0.2236 1.7003 0.9630
0.1621 1.7082 0.9616
0.1004 1.7138 0.9601
0.0385 1.7172 0.9587
-0.0234 1.7184 0.9572
-0.0854 1.7173 0.9557
-0.1473 1.7140 0.9542
-0.2090 1.7084 0.9527
-0.2705 1.7007 0.9511
-0.3317 1.6907 0.9496
-0.3925 1.6785 0.9480
-0.4528 1.6642 0.9464
-0.5125 1.6476 0.9448
-0.5716 1.6290 0.9432
-0.6300 1.6082 0.9416
-0.6876 1.5853 0.9400
-0.7444 1.5603 0.9384
-0.8002 1.5334 0.9369
-0.8550 1.5044 0.9353
-0.9087 1.4734 0.9337
-2.4698 3.7017 2.3951
-2.6061 3.6186 2.3952
-2.7395 3.5304 2.3952
-2.8698 3.4373 2.3952
-2.9968 3.3394 2.3953
-3.1204 3.2367 2.3953
-3.2403 3.1294 2.3954
-3.3563 3.0177 2.3954
-3.4683 2.9015 2.3955
-3.5761 2.7812 2.3955
-3.6796 2.6568 2.3956
-3.7785 2.5285 2.3956
-3.8728 2.3965 2.3957
-3.9622 2.2608 2.3958
-4.0466 2.1218 2.3958
-4.1259 1.9796 2.3959
-4.2000 1.8344 2.3959
-4.2686 1.6863 2.3960
-4.3318 1.5357 2.3960
-4.3894 1.3826 2.3961
-4.4412 1.2274 2.3962
-4.4873 1.0701 2.3962
-4.5275 0.9112 2.3963
-4.5617 0.7507 2.3963
-4.5900 0.5889 2.3964
-4.6121 0.4260 2.3964
-4.6281 0.2623 2.3965
-4.6380 0.0981 2.3966
-4.6417 -0.0665 2.3966
-4.6392 -0.2312 2.3967
-4.6305 -0.3958 2.3967
-4.6155 -0.5599 2.3968
-4.5945 -0.7235 2.3968
-4.5672 -0.8862 2.3969
-4.5415 -1.0495 2.4009
-4.5105 -1.2123 2.4056
-4.4723 -1.3737 2.4096
-4.4268 -1.5335 2.4130
-4.3742 -1.6912 2.4159
-4.3147 -1.8465 2.4182
-4.2484 -1.9993 2.4200
-4.1759 -2.1491 2.4215
-4.0971 -2.2959 2.4226
-4.0122 -2.4392 2.4233
-3.9216 -2.5789 2.4238
-3.8254 -2.7147 2.4240
-3.7240 -2.8467 2.4241
-3.6176 -2.9745 2.4241
-3.5066 -3.0982 2.4241
-3.3911 -3.2176 2.4241
-3.2714 -3.3325 2.4241
-3.1474 -3.4427 2.4241
-3.0196 -3.5481 2.4241
-2.8881 -3.6485 2.4241
-2.7530 -3.7439 2.4241
-2.6146 -3.8342 2.4241
-2.4731 -3.9191 2.4241
-2.3286 -3.9985 2.4241
-2.1815 -4.0725 2.4241
-2.0320 -4.1409 2.4241
-1.8801 -4.2037 2.4241
-1.7263 -4.2607 2.4241
-1.5707 -4.3119 2.4241
-1.4135 -4.3573 2.4241
-1.2549 -4.3968 2.4241
-1.0952 -4.4304 2.4241
-0.9347 -4.4581 2.4241
-0.7734 -4.4798 2.4241
-0.6117 -4.4956 2.4241
-0.4498 -4.5055 2.4241
-0.2880 -4.5094 2.4241
-0.1262 -4.5075 2.4241
0.0351 -4.4997 2.4241
0.1956 -4.4860 2.4241
-4.3789 0.2992 2.3965
-4.3901 0.1439 2.3965
-4.3954 -0.0118 2.3966
-4.3949 -0.1677 2.3966
-4.3885 -0.3235 2.3967
-4.3762 -0.4790 2.3967
-4.3581 -0.6340 2.3968
-4.3343 -0.7882 2.3968
-4.3060 -0.9417 2.3977
-4.2789 -1.0960 2.4024
-4.2451 -1.2491 2.4066
-4.2044 -1.4008 2.4103
-4.1570 -1.5506 2.4133
-4.1032 -1.6985 2.4160
-4.0430 -1.8439 2.4181
-3.9766 -1.9867 2.4199
-3.9044 -2.1267 2.4213
-3.8264 -2.2636 2.4224
-3.7429 -2.3972 2.4231
-3.6541 -2.5274 2.4237
-3.5601 -2.6537 2.4239
-3.4613 -2.7762 2.4241
-3.3578 -2.8948 2.4241
-3.2500 -3.0092 2.4241
-3.1381 -3.1195 2.4241
-3.0222 -3.2255 2.4241
-2.9026 -3.3270 2.4241
-2.7793 -3.4238 2.4241
-2.6527 -3.5160 2.4241
-2.5228 -3.6032 2.4241
-2.3899 -3.6855 2.4241
-2.2542 -3.7627 2.4241
-2.1158 -3.8348 2.4241
-1.9751 -3.9016 2.4241
-1.8321 -3.9631 2.4241
-1.6871 -4.0192 2.4241
-1.5404 -4.0698 2.4241
-1.3921 -4.1150 2.4241
-1.2424 -4.1546 2.4241
-1.0915 -4.1886 2.4241
-0.9397 -4.2170 2.4241
-0.7871 -4.2398 2.4241
-0.6341 -4.2570 2.4241
-0.4807 -4.2686 2.4241
-0.3273 -4.2746 2.4241
-0.1739 -4.2750 2.4241
-0.0209 -4.2698 2.4241
0.1316 -4.2590 2.4241
0.2834 -4.2428 2.4241
0.4342 -4.2212 2.4241
0.5840 -4.1941 2.4241
0.7324 -4.1617 2.4241
0.8794 -4.1241 2.4241
1.0247 -4.0812 2.4241
1.1680 -4.0332 2.4241
1.3094 -3.9803 2.4241
1.4486 -3.9223 2.4241
1.5854 -3.8596 2.4241
1.7196 -3.7921 2.4241
1.8511 -3.7200 2.4241
1.9798 -3.6434 2.4241
2.1055 -3.5624 2.4241
2.2281 -3.4771 2.4241
2.3474 -3.3876 2.4241
2.4632 -3.2942 2.4241
2.5756 -3.1968 2.4241
2.6842 -3.0957 2.4241
2.7891 -2.9910 2.4241
2.8901 -2.8828 2.4241
2.9871 -2.7713 2.4241
3.0799 -2.6566 2.4240
3.1684 -2.5387 2.4239
3.2524 -2.4178 2.4235
3.3316 -2.2940 2.4230
3.4060 -2.1674 2.4221
3.4757 -2.0384 2.4211
3.5400 -1.9069 2.4197
3.5992 -1.7733 2.4180
3.6533 -1.6378 2.4161
3.7017 -1.5004 2.4136
3.7446 -1.3615 2.4108
3.7820 -1.2213 2.4075
3.8135 -1.0799 2.4036
3.8392 -0.9378 2.3993
3.8614 -0.7954 2.3959
3.8840 -0.6537 2.3958
3.9017 -0.5113 2.3958
3.9145 -0.3685 2.3958
3.9224 -0.2255 2.3957
3.9253 -0.0823 2.3957
3.9233 0.0608 2.3956
3.9163 0.2037 2.3956
3.9045 0.3462 2.3955
3.8877 0.4882 2.3955
3.8661 0.6294 2.3954
3.8396 0.7699 2.3954
3.8083 0.9092 2.3953
3.7723 1.0475 2.3953
3.7315 1.1843 2.3953
3.6860 1.3197 2.3952
3.6359 1.4535 2.3952
3.5812 1.5855 2.3951
3.5220 1.7155 2.3951
3.4583 1.8435 2.3951
3.3902 1.9692 2.3950
3.3178 2.0926 2.3950
3.2412 2.2134 2.3950
3.1604 2.3316 2.3949
3.0756 2.4469 2.3949
2.9868 2.5594 2.3949
2.8940 2.6688 2.3949
2.7975 2.7750 2.3948
2.6973 2.8778 2.3948
2.5936 2.9773 2.3948
2.4863 3.0731 2.3948
2.3758 3.1653 2.3947
2.2619 3.2536 2.3947
0.8736 1.3595 0.9753
0.8240 1.3910 0.9744
0.7733 1.4207 0.9735
0.7216 1.4485 0.9725
0.6689 1.4745 0.9715
0.6153 1.4985 0.9704
0.5608 1.5206 0.9694
0.5056 1.5408 0.9682
0.4497 1.5589 0.9671
0.3932 1.5750 0.9658
0.3361 1.5890 0.9646
0.2786 1.6010 0.9633
0.2206 1.6109 0.9621
0.1624 1.6187 0.9607
0.1039 1.6244 0.9594
0.0452 1.6279 0.9580
-0.0136 1.6294 0.9566
-0.0724 1.6287 0.9552
-0.1311 1.6259 0.9538
-0.1897 1.6210 0.9523
-0.2481 1.6140 0.9509
-0.3061 1.6049 0.9494
-0.3638 1.5937 0.9479
-0.4211 1.5804 0.9464
-0.4779 1.5651 0.9449
-0.5340 1.5477 0.9434
-0.5895 1.5284 0.9419
-0.6443 1.5070 0.9403
-0.6983 1.4836 0.9388
-0.7513 1.4584 0.9373
-0.8035 1.4312 0.9358
-0.8546 1.4022 0.9343
-0.9046 1.3713 0.9328
-2.4522 3.4428 2.3952
-2.5789 3.3598 2.3952
-2.7027 3.2721 2.3953
-2.8233 3.1797 2.3953
-2.9408 3.0829 2.3954
-3.0547 2.9817 2.3954
-3.1650 2.8763 2.3955
-3.2716 2.7667 2.3955
-3.3741 2.6532 2.3956
-3.4726 2.5358 2.3956
-3.5668 2.4146 2.3957
-3.6565 2.2900 2.3957
-3.7417 2.1619 2.3958
-3.8222 2.0307 2.3958
-3.8979 1.8964 2.3959
-3.9686 1.7592 2.3959
-4.0343 1.6193 2.3960
-4.0947 1.4770 2.3960
-4.1499 1.3324 2.3961
-4.1997 1.1857 2.3961
-4.2440 1.0371 2.3962
-4.2828 0.8868 2.3963
-4.3160 0.7351 2.3963
-4.3435 0.5821 2.3964
-4.3652 0.4281 2.3964
-4.3812 0.2733 2.3965
-4.3914 0.1179 2.3965
-4.3957 -0.0378 2.3966
-4.3942 -0.1937 2.3966
-4.3868 -0.3495 2.3967
-4.3736 -0.5049 2.3967
-4.3546 -0.6598 2.3968
-4.3297 -0.8139 2.3968
-4.3019 -0.9676 2.3985
-4.2737 -1.1216 2.4031
-4.2389 -1.2746 2.4073
-4.1970 -1.4259 2.4108
-4.1484 -1.5755 2.4138
-4.0935 -1.7229 2.4164
-4.0324 -1.8680 2.4185
-3.9650 -2.0103 2.4201
-3.8918 -2.1498 2.4215
-3.8129 -2.2862 2.4225
-3.7284 -2.4192 2.4232
-3.6388 -2.5488 2.4238
-3.5439 -2.6744 2.4240
-3.4443 -2.7963 2.4241
-3.3401 -2.9142 2.4241
-3.2316 -3.0280 2.4241
-3.1190 -3.1375 2.4241
-3.0025 -3.2428 2.4241
-2.8822 -3.3435 2.4241
-2.7584 -3.4396 2.4241
-2.6312 -3.5309 2.4241
-2.5008 -3.6173 2.4241
-2.3674 -3.6988 2.4241
-2.2313 -3.7751 2.4241
-2.0925 -3.8463 2.4241
-1.9514 -3.9122 2.4241
-1.8080 -3.9728 2.4241
-1.6627 -4.0280 2.4241
-1.5157 -4.0777 2.4241
-1.3671 -4.1220 2.4241
-1.2172 -4.1606 2.4241
-1.0662 -4.1937 2.4241
-0.9142 -4.2212 2.4241
-0.7616 -4.2431 2.4241
-0.6085 -4.2594 2.4241
-0.4551 -4.2700 2.4241
-0.3016 -4.2750 2.4241
-0.1483 -4.2745 2.4241
0.0046 -4.2684 2.4241
0.1570 -4.2567 2.4241
0.3086 -4.2396 2.4241
0.4593 -4.2170 2.4241
0.6089 -4.1891 2.4241
0.7571 -4.1558 2.4241
0.9037 -4.1172 2.4241
1.0487 -4.0735 2.4241
1.1918 -4.0247 2.4241
1.3328 -3.9709 2.4241
1.4716 -3.9122 2.4241
1.6080 -3.8487 2.4241
1.7418 -3.7804 2.4241
1.8728 -3.7075 2.4241
2.0010 -3.6302 2.4241
2.1262 -3.5484 2.4241
2.2483 -3.4624 2.4241
2.3670 -3.3723 2.4241
2.4823 -3.2782 2.4241
2.5940 -3.1802 2.4241
2.7020 -3.0785 2.4241
2.8063 -2.9732 2.4241
2.9066 -2.8644 2.4241
3.0029 -2.7524 2.4241
3.0950 -2.6371 2.4240
3.1828 -2.5187 2.4238
3.2659 -2.3973 2.4234
3.3445 -2.2730 2.4229
3.4180 -2.1460 2.4219
3.4867 -2.0166 2.4209
3.5503 -1.8848 2.4195
3.6086 -1.7508 2.4177
3.6618 -1.6150 2.4157
3.7093 -1.4773 2.4132
3.7512 -1.3382 2.4102
3.7876 -1.1978 2.4068
3.8182 -1.0563 2.4030
3.8430 -0.9140 2.3986
3.8655 -0.7718 2.3959
3.8873 -0.6299 2.3958
3.9042 -0.4875 2.3958
3.9162 -0.3446 2.3957
3.9232 -0.2015 2.3957
3.9253 -0.0584 2.3956
3.9225 0.0847 2.3956
3.9147 0.2275 2.3956
3.9020 0.3700 2.3955
3.8844 0.5118 2.3955
3.8620 0.6530 2.3954
3.8347 0.7932 2.3954
3.8026 0.9324 2.3953
3.7658 1.0704 2.3953
3.7242 1.2071 2.3952
3.6779 1.3422 2.3952
3.6270 1.4757 2.3952
3.5716 1.6074 2.3951
3.5116 1.7371 2.3951
3.4472 1.8646 2.3951
3.3784 1.9900 2.3950
3.3053 2.1129 2.3950
3.2280 2.2333 2.3950
