ply
format ascii 1.0
element vertex 2178
property float32 x
property float32 y
property float32 z
end_header
7.7725 -1.0020 2.3920
7.7929 -0.7178 2.3920
7.8046 -0.4334 2.3920
7.8075 -0.1492 2.3920
7.8017 0.1347 2.3920
7.7872 0.4181 2.3920
7.7640 0.7008 2.3920
7.7322 0.9825 2.3920
7.6917 1.2632 2.3920
7.6426 1.5425 2.3920
7.5850 1.8202 2.3920
7.5188 2.0962 2.3920
7.4441 2.3703 2.3920
7.3610 2.6423 2.3920
7.2694 2.9119 2.3920
7.1693 3.1789 2.3920
7.0610 3.4432 2.3920
6.9443 3.7045 2.3920
6.8193 3.9626 2.3920
6.6862 4.2173 2.3920
6.5448 4.4684 2.3920
6.3953 4.7157 2.3920
6.2378 4.9589 2.3920
6.0722 5.1978 2.3920
5.8987 5.4322 2.3920
5.7173 5.6618 2.3920
5.5282 5.8865 2.3920
5.3313 6.1060 2.3920
5.1268 6.3200 2.3920
4.9147 6.5284 2.3920
4.6952 6.7308 2.3920
4.4684 6.9270 2.3920
4.2343 7.1168 2.3920
3.9931 7.2999 2.3920
3.7450 7.4760 2.3920
3.4900 7.6449 2.3920
3.2283 7.8064 2.3920
2.9601 7.9601 2.3920
2.6856 8.1058 2.3920
2.4048 8.2432 2.3920
0.8944 3.5354 1.0101
0.7669 3.5673 1.0048
0.6382 3.5945 0.9994
0.5086 3.6171 0.9940
0.3783 3.6349 0.9884
0.2474 3.6481 0.9828
0.1161 3.6564 0.9772
-0.0154 3.6600 0.9715
-0.1469 3.6589 0.9657
-0.2784 3.6529 0.9600
-0.4095 3.6422 0.9542
-0.5402 3.6268 0.9483
-0.6702 3.6066 0.9425
-0.7994 3.5818 0.9367
-0.9276 3.5522 0.9308
-2.7273 9.0972 2.3920
-3.0717 9.0538 2.3920
-3.4165 8.9976 2.3920
-3.7611 8.9286 2.3920
-5.2164 7.5072 2.3920
-5.5127 7.3586 2.3920
-5.8045 7.1980 2.3920
-6.0915 7.0255 2.3920
-6.3730 6.8413 2.3920
-6.6482 6.6456 2.3920
-6.9171 6.4380 2.3920
-7.1787 6.2194 2.3920
-7.4327 5.9896 2.3920
-7.6783 5.7490 2.3920
-7.9151 5.4978 2.3920
-8.1425 5.2364 2.3920
-6.3838 -7.2672 2.3920
-6.0933 -7.4557 2.3920
-5.7966 -7.6317 2.3920
-5.4944 -7.7952 2.3920
-5.1872 -7.9460 2.3920
-4.8757 -8.0840 2.3920
-4.5604 -8.2091 2.3920
-4.2420 -8.3215 2.3920
-3.9210 -8.4209 2.3920
-3.5979 -8.5076 2.3920
-3.2734 -8.5816 2.3920
-2.9480 -8.6428 2.3920
-2.6222 -8.6915 2.3920
-2.2965 -8.7278 2.3920
-1.9714 -8.7519 2.3920
-1.6474 -8.7638 2.3920
-1.3250 -8.7637 2.3920
-1.0045 -8.7520 2.3920
-0.6865 -8.7288 2.3920
-0.3714 -8.6942 2.3920
-0.0594 -8.6486 2.3920
0.2489 -8.5923 2.3920
0.5533 -8.5254 2.3920
0.8534 -8.4482 2.3920
1.1489 -8.3610 2.3920
1.4395 -8.2642 2.3920
1.7249 -8.1579 2.3920
2.0048 -8.0425 2.3920
2.2790 -7.9182 2.3920
2.5472 -7.7853 2.3920
2.8093 -7.6442 2.3920
3.0650 -7.4951 2.3920
3.3141 -7.3384 2.3920
3.5565 -7.1742 2.3920
3.7920 -7.0030 2.3920
4.0204 -6.8250 2.3920
4.2416 -6.6405 2.3920
4.4555 -6.4497 2.3920
4.6619 -6.2531 2.3920
4.8608 -6.0507 2.3920
5.0520 -5.8430 2.3920
5.2355 -5.6302 2.3920
5.4112 -5.4125 2.3920
5.5790 -5.1903 2.3920
5.7388 -4.9638 2.3920
5.8906 -4.7332 2.3920
6.0344 -4.4989 2.3920
6.1700 -4.2610 2.3920
6.2976 -4.0198 2.3920
6.4169 -3.7756 2.3920
6.5280 -3.5285 2.3920
6.6310 -3.2789 2.3920
6.7257 -3.0270 2.3920
6.8121 -2.7729 2.3920
6.8903 -2.5170 2.3920
6.9603 -2.2593 2.3920
7.0219 -2.0003 2.3920
7.0753 -1.7400 2.3920
7.1205 -1.4787 2.3920
7.1574 -1.2167 2.3920
7.1860 -0.9540 2.3920
7.2064 -0.6909 2.3920
7.2186 -0.4277 2.3920
7.2226 -0.1645 2.3920
7.2184 0.0984 2.3920
7.2060 0.3610 2.3920
7.1855 0.6229 2.3920
7.1569 0.8839 2.3920
7.1201 1.1439 2.3920
7.0753 1.4027 2.3920
7.0225 1.6601 2.3920
6.9617 1.9158 2.3920
6.8928 2.1697 2.3920
6.8161 2.4215 2.3920
6.7314 2.6712 2.3920
6.6389 2.9184 2.3920
6.5386 3.1629 2.3920
6.4305 3.4047 2.3920
6.3146 3.6433 2.3920
6.1911 3.8788 2.3920
6.0600 4.1107 2.3920
5.9213 4.3391 2.3920
5.7752 4.5635 2.3920
5.6216 4.7838 2.3920
5.4606 4.9998 2.3920
5.2924 5.2113 2.3920
5.1169 5.4181 2.3920
4.9344 5.6199 2.3920
4.7448 5.8164 2.3920
4.5483 6.0076 2.3920
4.3449 6.1931 2.3920
4.1349 6.3728 2.3920
3.9183 6.5463 2.3920
3.6951 6.7135 2.3920
3.4657 6.8741 2.3920
3.2301 7.0278 2.3920
2.9884 7.1745 2.3920
2.7408 7.3139 2.3920
2.4876 7.4458 2.3920
2.2288 7.5699 2.3920
0.8251 3.2278 1.0046
0.7086 3.2574 0.9997
0.5911 3.2826 0.9948
0.4727 3.3036 0.9898
0.3537 3.3203 0.9848
0.2341 3.3327 0.9797
0.1141 3.3408 0.9745
-0.0060 3.3444 0.9693
-0.1263 3.3438 0.9640
-0.2464 3.3388 0.9588
-0.3663 3.3294 0.9535
-0.4858 3.3157 0.9482
-0.6047 3.2977 0.9428
-0.7228 3.2753 0.9375
-0.8401 3.2487 0.9322
-2.4682 8.3048 2.3920
-2.7810 8.2617 2.3920
-3.0938 8.2071 2.3920
-3.4062 8.1408 2.3920
-3.7177 8.0627 2.3920
-4.0279 7.9727 2.3920
-4.3362 7.8709 2.3920
-4.6422 7.7571 2.3920
-4.9453 7.6313 2.3920
-5.2451 7.4934 2.3920
-5.5409 7.3437 2.3920
-5.8323 7.1819 2.3920
-6.1188 7.0083 2.3920
-6.3994 6.8232 2.3920
-6.6744 6.6260 2.3920
-6.9426 6.4175 2.3920
-7.2035 6.1978 2.3920
-7.4566 5.9669 2.3920
-7.7015 5.7253 2.3920
-7.9374 5.4731 2.3920
-8.1640 5.2107 2.3920
-6.3562 -7.2859 2.3920
-6.0650 -7.4732 2.3920
-5.7678 -7.6480 2.3920
-5.4650 -7.8102 2.3920
-5.1574 -7.9598 2.3920
-4.8455 -8.0966 2.3920
-4.5299 -8.2205 2.3920
-4.2112 -8.3316 2.3920
-3.8900 -8.4298 2.3920
-3.5668 -8.5153 2.3920
-3.2422 -8.5880 2.3920
-2.9167 -8.6480 2.3920
-2.5909 -8.6956 2.3920
-2.2652 -8.7307 2.3920
-1.9402 -8.7535 2.3920
-1.6163 -8.7643 2.3920
-1.2941 -8.7631 2.3920
-0.9739 -8.7503 2.3920
-0.6561 -8.7259 2.3920
-0.3412 -8.6903 2.3920
-0.0296 -8.6437 2.3920
0.2784 -8.5863 2.3920
0.5824 -8.5184 2.3920
0.8820 -8.4402 2.3920
1.1771 -8.3522 2.3920
1.4671 -8.2544 2.3920
1.7520 -8.1472 2.3920
2.0314 -8.0309 2.3920
2.3050 -7.9058 2.3920
2.5727 -7.7721 2.3920
2.8342 -7.6302 2.3920
3.0892 -7.4804 2.3920
3.3377 -7.3229 2.3920
3.5794 -7.1581 2.3920
3.8142 -6.9862 2.3920
4.0420 -6.8076 2.3920
4.2625 -6.6224 2.3920
4.4756 -6.4311 2.3920
4.6814 -6.2338 2.3920
4.8795 -6.0310 2.3920
5.0700 -5.8228 2.3920
5.2527 -5.6095 2.3920
5.4277 -5.3914 2.3920
5.5947 -5.1687 2.3920
5.7537 -4.9418 2.3920
5.9048 -4.7109 2.3920
6.0478 -4.4762 2.3920
6.1826 -4.2380 2.3920
6.3094 -3.9965 2.3920
6.4279 -3.7520 2.3920
6.5383 -3.5047 2.3920
6.6405 -3.2548 2.3920
6.7344 -3.0027 2.3920
6.8200 -2.7484 2.3920
6.8974 -2.4923 2.3920
6.9666 -2.2345 2.3920
7.0274 -1.9753 2.3920
7.0800 -1.7150 2.3920
7.1244 -1.4536 2.3920
7.1605 -1.1915 2.3920
7.1883 -0.9287 2.3920
7.2080 -0.6657 2.3920
7.2194 -0.4024 2.3920
7.2226 -0.1392 2.3920
7.2176 0.1237 2.3920
7.2044 0.3862 2.3920
7.1831 0.6480 2.3920
7.1537 0.9089 2.3920
7.1162 1.1688 2.3920
7.0706 1.4275 2.3920
7.0170 1.6847 2.3920
6.9554 1.9403 2.3920
6.8858 2.1940 2.3920
6.8083 2.4456 2.3920
6.7229 2.6950 2.3920
6.6296 2.9420 2.3920
6.5285 3.1863 2.3920
6.4197 3.4277 2.3920
6.3031 3.6661 2.3920
6.1788 3.9012 2.3920
6.0470 4.1328 2.3920
5.9076 4.3608 2.3920
5.7607 4.5848 2.3920
5.6064 4.8048 2.3920
5.4448 5.0203 2.3920
5.2758 5.2314 2.3920
5.0997 5.4377 2.3920
4.9164 5.6390 2.3920
4.7262 5.8351 2.3920
4.5290 6.0257 2.3920
4.3250 6.2107 2.3920
4.1144 6.3897 2.3920
3.8971 6.5626 2.3920
3.6734 6.7292 2.3920
3.4433 6.8892 2.3920
3.2071 7.0423 2.3920
2.9649 7.1882 2.3920
2.7167 7.3269 2.3920
2.4629 7.4581 2.3920
2.2036 7.5814 2.3920
0.8140 3.2309 1.0041
0.6973 3.2600 0.9993
0.5797 3.2848 0.9943
0.4613 3.3054 0.9893
0.3422 3.3217 0.9843
0.2226 3.3337 0.9792
0.1026 3.3413 0.9740
-0.0176 3.3446 0.9688
-0.1378 3.3435 0.9635
-0.2580 3.3381 0.9583
-0.3778 3.3283 0.9530
-0.4972 3.3141 0.9476
-0.6161 3.2957 0.9423
-0.7342 3.2730 0.9370
-0.8513 3.2460 0.9316
-2.4982 8.3012 2.3920
-2.8110 8.2570 2.3920
-3.1239 8.2012 2.3920
-3.4362 8.1338 2.3920
-3.7476 8.0546 2.3920
-4.0576 7.9635 2.3920
-4.3657 7.8605 2.3920
-4.6715 7.7455 2.3920
-4.9743 7.6185 2.3920
-5.2737 7.4796 2.3920
-5.5692 7.3286 2.3920
-5.8600 7.1658 2.3920
-6.1459 6.9911 2.3920
-6.4267 6.8042 2.3920
-4.7817 6.8674 2.3920
-5.0504 6.7282 2.3920
-5.3150 6.5784 2.3920
-5.5748 6.4178 2.3920
-5.8294 6.2467 2.3920
-6.0783 6.0652 2.3920
-6.3210 5.8733 2.3920
-6.5570 5.6714 2.3920
-6.7858 5.4596 2.3920
-7.0070 5.2380 2.3920
-7.2200 5.0071 2.3920
-7.4244 4.7671 2.3920
-7.6198 4.5183 2.3920
-7.8056 4.2611 2.3920
-7.9815 3.9958 2.3920
-8.1470 3.7228 2.3920
-8.3017 3.4425 2.3920
-8.4452 3.1554 2.3920
-8.5772 2.8620 2.3920
-8.6973 2.5628 2.3920
-8.8052 2.2582 2.3920
-8.9006 1.9489 2.3920
-8.9832 1.6353 2.3920
-9.0529 1.3180 2.3920
-9.1094 0.9977 2.3920
-9.1525 0.6749 2.3920
-9.1821 0.3502 2.3920
-9.1981 0.0244 2.3920
-9.2005 -0.3022 2.3920
-9.1891 -0.6286 2.3920
-9.1640 -0.9545 2.3920
-9.1253 -1.2790 2.3920
-9.0729 -1.6016 2.3920
-9.0071 -1.9217 2.3920
-8.9279 -2.2386 2.3920
-8.8355 -2.5517 2.3920
-8.7301 -2.8605 2.3920
-8.6121 -3.1643 2.3920
-8.4816 -3.4626 2.3920
-8.3389 -3.7548 2.3920
-8.1844 -4.0404 2.3920
-8.0184 -4.3189 2.3920
-7.8414 -4.5899 2.3920
-7.6537 -4.8527 2.3920
-7.4558 -5.1071 2.3920
-7.2481 -5.3526 2.3920
-7.0310 -5.5888 2.3920
-6.8052 -5.8154 2.3920
-6.5709 -6.0321 2.3920
-6.3288 -6.2385 2.3920
-6.0794 -6.4344 2.3920
-5.8232 -6.6196 2.3920
-5.5607 -6.7939 2.3920
-5.2925 -6.9570 2.3920
-5.0190 -7.1088 2.3920
-4.7408 -7.2493 2.3920
-4.4585 -7.3783 2.3920
-4.1726 -7.4958 2.3920
-3.8835 -7.6016 2.3920
-3.5919 -7.6959 2.3920
-3.2982 -7.7787 2.3920
-3.0028 -7.8498 2.3920
-2.7064 -7.9095 2.3920
-2.4094 -7.9578 2.3920
-2.1121 -7.9947 2.3920
-1.8152 -8.0205 2.3920
-1.5190 -8.0351 2.3920
-1.2239 -8.0389 2.3920
-0.9304 -8.0319 2.3920
-0.6389 -8.0143 2.3920
-0.3497 -7.9863 2.3920
-0.0631 -7.9481 2.3920
0.2203 -7.9000 2.3920
0.5005 -7.8421 2.3920
0.7769 -7.7746 2.3920
1.0493 -7.6978 2.3920
1.3174 -7.6121 2.3920
1.5809 -7.5175 2.3920
1.8397 -7.4143 2.3920
2.0934 -7.3029 2.3920
2.3418 -7.1833 2.3920
2.5847 -7.0561 2.3920
2.8218 -6.9213 2.3920
3.0531 -6.7792 2.3920
3.2783 -6.6302 2.3920
3.4972 -6.4745 2.3920
3.7098 -6.3123 2.3920
3.9158 -6.1438 2.3920
4.1151 -5.9695 2.3920
4.3077 -5.7895 2.3920
4.4933 -5.6040 2.3920
4.6719 -5.4134 2.3920
4.8434 -5.2179 2.3920
5.0078 -5.0178 2.3920
5.1648 -4.8132 2.3920
5.3145 -4.6045 2.3920
5.4568 -4.3918 2.3920
5.5917 -4.1755 2.3920
5.7190 -3.9558 2.3920
5.8387 -3.7328 2.3920
5.9509 -3.5068 2.3920
6.0554 -3.2782 2.3920
6.1523 -3.0469 2.3920
6.2415 -2.8134 2.3920
6.3229 -2.5778 2.3920
6.3967 -2.3404 2.3920
6.4627 -2.1013 2.3920
6.5210 -1.8607 2.3920
6.5715 -1.6190 2.3920
6.6143 -1.3762 2.3920
6.6493 -1.1326 2.3920
6.6766 -0.8884 2.3920
6.6962 -0.6437 2.3920
6.7080 -0.3989 2.3920
6.7121 -0.1541 2.3920
6.7085 0.0906 2.3920
6.6972 0.3348 2.3920
6.6783 0.5785 2.3920
6.6517 0.8214 2.3920
6.6175 1.0633 2.3920
6.5758 1.3041 2.3920
6.5264 1.5435 2.3920
6.4696 1.7814 2.3920
6.4052 2.0175 2.3920
6.3334 2.2517 2.3920
6.2542 2.4837 2.3920
6.1676 2.7134 2.3920
6.0736 2.9406 2.3920
5.9724 3.1650 2.3920
5.8640 3.3866 2.3920
5.7483 3.6050 2.3920
5.6256 3.8201 2.3920
5.4958 4.0317 2.3920
5.3590 4.2395 2.3920
5.2153 4.4435 2.3920
5.0648 4.6432 2.3920
4.9075 4.8387 2.3920
4.7435 5.0296 2.3920
4.5729 5.2158 2.3920
4.3958 5.3970 2.3920
4.2124 5.5730 2.3920
4.0227 5.7436 2.3920
3.8267 5.9086 2.3920
3.6248 6.0678 2.3920
3.4169 6.2209 2.3920
3.2033 6.3678 2.3920
2.9840 6.5082 2.3920
2.7592 6.6419 2.3920
2.5291 6.7687 2.3920
2.2938 6.8884 2.3920
0.8618 2.9378 1.0038
0.7557 2.9688 0.9994
0.6485 2.9959 0.9950
0.5404 3.0191 0.9904
0.4315 3.0384 0.9859
0.3220 3.0537 0.9812
0.2120 3.0651 0.9765
0.1017 3.0725 0.9718
-0.0089 3.0759 0.9670
-0.1195 3.0752 0.9621
-0.2300 3.0706 0.9573
-0.3403 3.0620 0.9524
-0.4502 3.0494 0.9475
-0.5595 3.0328 0.9426
-0.6682 3.0122 0.9377
-0.7761 2.9878 0.9328
-0.8830 2.9594 0.9279
-2.5624 7.5857 2.3920
-2.8484 7.5320 2.3920
-3.1338 7.4676 2.3920
-3.4180 7.3925 2.3920
-3.7007 7.3066 2.3920
-3.9815 7.2099 2.3920
-4.2599 7.1023 2.3920
-4.5354 6.9838 2.3920
-4.8076 6.8545 2.3920
-5.0760 6.7143 2.3920
-5.3401 6.5634 2.3920
-5.5995 6.4018 2.3920
-5.8535 6.2297 2.3920
-6.1019 6.0472 2.3920
-6.3439 5.8544 2.3920
-6.5793 5.6515 2.3920
-6.8074 5.4387 2.3920
-7.0278 5.2163 2.3920
-7.2400 4.9845 2.3920
-7.4436 4.7436 2.3920
-7.6381 4.4940 2.3920
-7.8230 4.2359 2.3920
-7.9978 3.9699 2.3920
-8.1623 3.6961 2.3920
-8.3159 3.4152 2.3920
-8.4584 3.1275 2.3920
-8.5892 2.8335 2.3920
-8.7082 2.5337 2.3920
-8.8149 2.2287 2.3920
-8.9091 1.9189 2.3920
-8.9905 1.6049 2.3920
-9.0589 1.2874 2.3920
-9.1141 0.9668 2.3920
-9.1559 0.6438 2.3920
-9.1842 0.3190 2.3920
-9.1990 -0.0070 2.3920
-9.2000 -0.3335 2.3920
-9.1873 -0.6600 2.3920
-9.1609 -0.9857 2.3920
-9.1208 -1.3101 2.3920
-9.0672 -1.6325 2.3920
-9.0000 -1.9523 2.3920
-8.9195 -2.2689 2.3920
-8.8259 -2.5816 2.3920
-8.7193 -2.8899 2.3920
-8.6001 -3.1932 2.3920
-8.4684 -3.4909 2.3920
-8.3245 -3.7825 2.3920
-8.1689 -4.0675 2.3920
-8.0019 -4.3453 2.3920
-7.8239 -4.6155 2.3920
-7.6352 -4.8775 2.3920
-7.4363 -5.1311 2.3920
-7.2276 -5.3757 2.3920
-7.0097 -5.6110 2.3920
-6.7830 -5.8367 2.3920
-6.5480 -6.0524 2.3920
-6.3052 -6.2578 2.3920
-6.0551 -6.4527 2.3920
-5.7982 -6.6368 2.3920
-5.5352 -6.8100 2.3920
-5.2664 -6.9721 2.3920
-4.9924 -7.1228 2.3920
-4.7139 -7.2622 2.3920
-4.4312 -7.3901 2.3920
-4.1449 -7.5064 2.3920
-3.8556 -7.6112 2.3920
-3.5637 -7.7044 2.3920
-3.2699 -7.7860 2.3920
-2.9744 -7.8561 2.3920
-2.6779 -7.9146 2.3920
-2.3808 -7.9618 2.3920
-2.0836 -7.9977 2.3920
-1.7867 -8.0223 2.3920
-1.4906 -8.0360 2.3920
-1.1957 -8.0387 2.3920
-0.9023 -8.0306 2.3920
-0.6110 -8.0120 2.3920
-0.3220 -7.9831 2.3920
-0.0358 -7.9439 2.3920
0.2474 -7.8948 2.3920
0.5272 -7.8360 2.3920
0.8032 -7.7676 2.3920
1.0752 -7.6900 2.3920
1.3429 -7.6033 2.3920
1.6060 -7.5079 2.3920
1.8643 -7.4039 2.3920
2.1175 -7.2917 2.3920
2.3653 -7.1715 2.3920
2.6077 -7.0434 2.3920
2.8443 -6.9079 2.3920
3.0750 -6.7652 2.3920
3.2996 -6.6155 2.3920
3.5179 -6.4592 2.3920
3.7299 -6.2963 2.3920
3.9352 -6.1273 2.3920
4.1339 -5.9524 2.3920
4.3258 -5.7719 2.3920
4.5108 -5.5859 2.3920
4.6887 -5.3949 2.3920
4.8596 -5.1989 2.3920
5.0232 -4.9983 2.3920
5.1795 -4.7933 2.3920
5.3285 -4.5842 2.3920
5.4701 -4.3712 2.3920
5.6042 -4.1545 2.3920
5.7308 -3.9345 2.3920
5.8498 -3.7112 2.3920
5.9613 -3.4850 2.3920
6.0651 -3.2560 2.3920
6.1612 -3.0246 2.3920
6.2496 -2.7909 2.3920
6.3304 -2.5551 2.3920
6.4034 -2.3175 2.3920
6.4686 -2.0782 2.3920
6.5262 -1.8375 2.3920
6.5760 -1.5957 2.3920
6.6180 -1.3528 2.3920
6.6523 -1.1091 2.3920
6.6788 -0.8649 2.3920
6.6976 -0.6202 2.3920
6.7087 -0.3754 2.3920
6.7121 -0.1305 2.3920
6.7078 0.1141 2.3920
6.6958 0.3583 2.3920
6.6761 0.6019 2.3920
6.6488 0.8447 2.3920
6.6139 1.0865 2.3920
6.5714 1.3272 2.3920
6.5213 1.5665 2.3920
6.4637 1.8041 2.3920
6.3986 2.0401 2.3920
6.3261 2.2741 2.3920
6.2462 2.5059 2.3920
6.1589 2.7354 2.3920
6.0642 2.9623 2.3920
5.9623 3.1865 2.3920
5.8532 3.4077 2.3920
5.7369 3.6258 2.3920
5.6134 3.8406 2.3920
5.4830 4.0518 2.3920
5.3455 4.2593 2.3920
5.2011 4.4628 2.3920
5.0500 4.6622 2.3920
4.8920 4.8572 2.3920
4.7274 5.0477 2.3920
4.5562 5.2334 2.3920
4.3785 5.4141 2.3920
4.1944 5.5896 2.3920
4.0041 5.7597 2.3920
3.8076 5.9242 2.3920
3.6051 6.0828 2.3920
3.3966 6.2353 2.3920
3.1824 6.3816 2.3920
2.9626 6.5214 2.3920
2.7373 6.6544 2.3920
2.5067 6.7805 2.3920
2.2710 6.8995 2.3920
0.8516 2.9409 1.0034
0.7454 2.9715 0.9990
0.6381 2.9983 0.9945
0.5300 3.0211 0.9900
0.4210 3.0400 0.9854
0.3115 3.0550 0.9808
0.2014 3.0660 0.9761
0.0910 3.0730 0.9713
-0.0195 3.0760 0.9665
-0.1301 3.0750 0.9617
-0.2406 3.0700 0.9568
-0.3508 3.0609 0.9519
-0.4607 3.0479 0.9470
-0.5700 3.0310 0.9421
-0.6786 3.0101 0.9372
-0.7864 2.9852 0.9323
-0.8932 2.9565 0.9274
-2.5899 7.5810 2.3920
-2.8759 7.5263 2.3920
-3.1611 7.4609 2.3920
-3.4452 7.3847 2.3920
-3.7278 7.2978 2.3920
-4.0084 7.2000 2.3920
-4.2865 7.0913 2.3920
-4.5618 6.9718 2.3920
-4.8336 6.8415 2.3920
-5.1016 6.7003 2.3920
-5.3653 6.5484 2.3920
-5.6241 6.3858 2.3920
-5.8776 6.2127 2.3920
-4.4103 6.3209 2.3920
-4.6560 6.1904 2.3920
-4.8975 6.0501 2.3920
-5.1346 5.9002 2.3920
-5.3667 5.7407 2.3920
-5.5934 5.5717 2.3920
-5.8143 5.3934 2.3920
-6.0290 5.2061 2.3920
-6.2369 5.0098 2.3920
-6.4378 4.8049 2.3920
-6.6311 4.5915 2.3920
-6.8164 4.3699 2.3920
-6.9934 4.1405 2.3920
-7.1616 3.9035 2.3920
-7.3207 3.6593 2.3920
-7.4702 3.4083 2.3920
-7.6099 3.1508 2.3920
-7.7395 2.8872 2.3920
-7.8585 2.6180 2.3920
-7.9667 2.3436 2.3920
-8.0638 2.0645 2.3920
-8.1495 1.7812 2.3920
-8.2238 1.4941 2.3920
-8.2862 1.2039 2.3920
-8.3367 0.9109 2.3920
-8.3752 0.6157 2.3920
-8.4014 0.3189 2.3920
-8.4154 0.0210 2.3920
-8.4170 -0.2774 2.3920
-8.4062 -0.5757 2.3920
-8.3831 -0.8734 2.3920
-8.3476 -1.1700 2.3920
-8.2999 -1.4648 2.3920
-8.2399 -1.7573 2.3920
-8.1679 -2.0470 2.3920
-8.0841 -2.3333 2.3920
-7.9885 -2.6157 2.3920
-7.8813 -2.8937 2.3920
-7.7630 -3.1668 2.3920
-7.6336 -3.4344 2.3920
-7.4935 -3.6961 2.3920
-7.3430 -3.9515 2.3920
-7.1824 -4.2001 2.3920
-7.0121 -4.4415 2.3920
-6.8325 -4.6753 2.3920
-6.6440 -4.9011 2.3920
-6.4469 -5.1186 2.3920
-6.2417 -5.3275 2.3920
-6.0288 -5.5275 2.3920
-5.8086 -5.7183 2.3920
-5.5817 -5.8996 2.3920
-5.3485 -6.0713 2.3920
-5.1094 -6.2330 2.3920
-4.8649 -6.3848 2.3920
-4.6156 -6.5264 2.3920
-4.3618 -6.6577 2.3920
-4.1040 -6.7786 2.3920
-3.8427 -6.8890 2.3920
-3.5784 -6.9889 2.3920
-3.3115 -7.0782 2.3920
-3.0425 -7.1570 2.3920
-2.7719 -7.2253 2.3920
-2.5001 -7.2831 2.3920
-2.2274 -7.3304 2.3920
-1.9544 -7.3674 2.3920
-1.6814 -7.3941 2.3920
-1.4089 -7.4106 2.3920
-1.1372 -7.4170 2.3920
-0.8668 -7.4135 2.3920
-0.5979 -7.4003 2.3920
-0.3310 -7.3774 2.3920
-0.0663 -7.3451 2.3920
0.1957 -7.3035 2.3920
0.4548 -7.2528 2.3920
0.7108 -7.1932 2.3920
0.9632 -7.1250 2.3920
1.2118 -7.0483 2.3920
1.4564 -6.9634 2.3920
1.6967 -6.8704 2.3920
1.9325 -6.7696 2.3920
2.1636 -6.6613 2.3920
2.3896 -6.5456 2.3920
2.6106 -6.4228 2.3920
2.8262 -6.2932 2.3920
3.0362 -6.1570 2.3920
3.2406 -6.0143 2.3920
3.4392 -5.8656 2.3920
3.6318 -5.7109 2.3920
3.8182 -5.5506 2.3920
3.9985 -5.3848 2.3920
4.1723 -5.2139 2.3920
4.3398 -5.0380 2.3920
4.5006 -4.8574 2.3920
4.6548 -4.6724 2.3920
4.8023 -4.4831 2.3920
4.9429 -4.2898 2.3920
5.0767 -4.0927 2.3920
5.2035 -3.8920 2.3920
5.3233 -3.6880 2.3920
5.4361 -3.4809 2.3920
5.5418 -3.2709 2.3920
5.6403 -3.0583 2.3920
5.7317 -2.8431 2.3920
5.8159 -2.6257 2.3920
5.8928 -2.4063 2.3920
5.9626 -2.1851 2.3920
6.0250 -1.9622 2.3920
6.0802 -1.7379 2.3920
6.1281 -1.5124 2.3920
6.1687 -1.2859 2.3920
6.2020 -1.0585 2.3920
6.2280 -0.8305 2.3920
6.2467 -0.6021 2.3920
6.2581 -0.3735 2.3920
6.2623 -0.1449 2.3920
6.2592 0.0837 2.3920
6.2489 0.3118 2.3920
6.2313 0.5394 2.3920
6.2066 0.7664 2.3920
6.1746 0.9924 2.3920
6.1355 1.2172 2.3920
6.0893 1.4408 2.3920
6.0360 1.6630 2.3920
5.9756 1.8834 2.3920
5.9082 2.1020 2.3920
5.8338 2.3186 2.3920
5.7525 2.5329 2.3920
5.6642 2.7448 2.3920
5.5692 2.9541 2.3920
5.4673 3.1606 2.3920
5.3587 3.3641 2.3920
5.2435 3.5644 2.3920
5.1216 3.7614 2.3920
4.9932 3.9547 2.3920
4.8583 4.1443 2.3920
4.7171 4.3300 2.3920
4.5695 4.5115 2.3920
4.4157 4.6886 2.3920
4.2558 4.8612 2.3920
4.0898 5.0291 2.3920
3.9180 5.1920 2.3920
3.7403 5.3497 2.3920
3.5569 5.5021 2.3920
3.3679 5.6490 2.3920
3.1735 5.7901 2.3920
2.9738 5.9252 2.3920
2.7689 6.0542 2.3920
2.5590 6.1769 2.3920
2.3443 6.2929 2.3920
2.1249 6.4023 2.3920
0.7939 2.7166 0.9990
0.6958 2.7453 0.9950
0.5966 2.7703 0.9908
0.4967 2.7918 0.9867
0.3960 2.8096 0.9824
0.2947 2.8238 0.9781
0.1930 2.8343 0.9738
0.0909 2.8411 0.9694
-0.0113 2.8442 0.9650
-0.1136 2.8436 0.9605
-0.2158 2.8393 0.9560
-0.3178 2.8313 0.9515
-0.4194 2.8196 0.9470
-0.5206 2.8043 0.9424
-0.6211 2.7853 0.9379
-0.7208 2.7627 0.9334
-0.8197 2.7365 0.9288
-0.9176 2.7067 0.9243
-2.6376 6.9520 2.3920
-2.8999 6.8898 2.3920
-3.1609 6.8177 2.3920
-3.4204 6.7358 2.3920
-3.6779 6.6439 2.3920
-3.9329 6.5421 2.3920
-4.1851 6.4304 2.3920
-4.4341 6.3088 2.3920
-4.6794 6.1773 2.3920
-4.9205 6.0361 2.3920
-5.1571 5.8853 2.3920
-5.3887 5.7248 2.3920
-5.6149 5.5550 2.3920
-5.8352 5.3758 2.3920
-6.0493 5.1876 2.3920
-6.2566 4.9905 2.3920
-6.4567 4.7847 2.3920
-6.6492 4.5705 2.3920
-6.8338 4.3482 2.3920
-7.0099 4.1181 2.3920
-7.1773 3.8803 2.3920
-7.3355 3.6355 2.3920
-7.4841 3.3838 2.3920
-7.6228 3.1257 2.3920
-7.7514 2.8616 2.3920
-7.8693 2.5919 2.3920
-7.9765 2.3170 2.3920
-8.0725 2.0375 2.3920
-8.1572 1.7538 2.3920
-8.2303 1.4664 2.3920
-8.2916 1.1758 2.3920
-8.3410 0.8826 2.3920
-8.3782 0.5872 2.3920
-8.4033 0.2903 2.3920
-8.4161 -0.0076 2.3920
-8.4165 -0.3060 2.3920
-8.4045 -0.6043 2.3920
-8.3802 -0.9020 2.3920
-8.3436 -1.1984 2.3920
-8.2946 -1.4930 2.3920
-8.2335 -1.7853 2.3920
-8.1604 -2.0747 2.3920
-8.0754 -2.3607 2.3920
-7.9787 -2.6427 2.3920
-7.8705 -2.9202 2.3920
-7.7510 -3.1927 2.3920
-7.6206 -3.4598 2.3920
-7.4795 -3.7209 2.3920
-7.3280 -3.9757 2.3920
-7.1665 -4.2236 2.3920
-6.9953 -4.4643 2.3920
-6.8148 -4.6973 2.3920
-6.6254 -4.9224 2.3920
-6.4275 -5.1391 2.3920
-6.2215 -5.3471 2.3920
-6.0079 -5.5462 2.3920
-5.7871 -5.7361 2.3920
-5.5596 -5.9165 2.3920
-5.3258 -6.0872 2.3920
-5.0862 -6.2481 2.3920
-4.8412 -6.3988 2.3920
-4.5914 -6.5394 2.3920
-4.3371 -6.6697 2.3920
-4.0790 -6.7896 2.3920
-3.8174 -6.8990 2.3920
-3.5529 -6.9979 2.3920
-3.2858 -7.0863 2.3920
-3.0166 -7.1641 2.3920
-2.7458 -7.2313 2.3920
-2.4739 -7.2881 2.3920
-2.2012 -7.3344 2.3920
-1.9281 -7.3704 2.3920
-1.6552 -7.3961 2.3920
-1.3828 -7.4116 2.3920
-1.1112 -7.4171 2.3920
-0.8409 -7.4127 2.3920
-0.5722 -7.3985 2.3920
-0.3055 -7.3747 2.3920
-0.0410 -7.3415 2.3920
0.2207 -7.2990 2.3920
0.4796 -7.2476 2.3920
0.7352 -7.1871 2.3920
0.9872 -7.1181 2.3920
1.2355 -7.0405 2.3920
1.4797 -6.9548 2.3920
1.7196 -6.8610 2.3920
1.9549 -6.7595 2.3920
2.1855 -6.6505 2.3920
2.4111 -6.5341 2.3920
2.6315 -6.4107 2.3920
2.8466 -6.2804 2.3920
3.0561 -6.1435 2.3920
3.2600 -6.0003 2.3920
3.4580 -5.8510 2.3920
3.6500 -5.6958 2.3920
3.8358 -5.5349 2.3920
4.0155 -5.3686 2.3920
4.1887 -5.1972 2.3920
4.3555 -5.0209 2.3920
4.5157 -4.8398 2.3920
4.6693 -4.6544 2.3920
4.8161 -4.4647 2.3920
4.9561 -4.2710 2.3920
5.0892 -4.0735 2.3920
5.2153 -3.8726 2.3920
5.3345 -3.6682 2.3920
5.4466 -3.4609 2.3920
5.5516 -3.2506 2.3920
5.6494 -3.0377 2.3920
5.7401 -2.8223 2.3920
5.8236 -2.6047 2.3920
5.8999 -2.3851 2.3920
5.9689 -2.1637 2.3920
6.0306 -1.9407 2.3920
6.0851 -1.7163 2.3920
6.1323 -1.4907 2.3920
6.1722 -1.2640 2.3920
6.2048 -1.0366 2.3920
6.2301 -0.8086 2.3920
6.2481 -0.5802 2.3920
6.2589 -0.3515 2.3920
6.2623 -0.1229 2.3920
6.2586 0.1056 2.3920
6.2475 0.3337 2.3920
6.2293 0.5613 2.3920
6.2038 0.7881 2.3920
6.1712 1.0140 2.3920
6.1314 1.2388 2.3920
6.0845 1.4622 2.3920
6.0305 1.6842 2.3920
5.9694 1.9045 2.3920
5.9013 2.1229 2.3920
5.8263 2.3393 2.3920
5.7443 2.5534 2.3920
5.6554 2.7650 2.3920
5.5597 2.9741 2.3920
5.4572 3.1803 2.3920
5.3479 3.3835 2.3920
5.2320 3.5835 2.3920
5.1095 3.7801 2.3920
4.9805 3.9731 2.3920
4.8450 4.1624 2.3920
4.7032 4.3476 2.3920
4.5550 4.5287 2.3920
4.4006 4.7054 2.3920
4.2401 4.8776 2.3920
4.0736 5.0449 2.3920
3.9011 5.2073 2.3920
3.7229 5.3646 2.3920
3.5390 5.5165 2.3920
3.3495 5.6628 2.3920
3.1546 5.8033 2.3920
2.9543 5.9379 2.3920
2.7490 6.0663 2.3920
2.5386 6.1883 2.3920
2.3234 6.3037 2.3920
0.8817 2.6877 1.0026
0.7845 2.7195 0.9986
0.6863 2.7478 0.9946
0.5871 2.7725 0.9905
0.4870 2.7936 0.9863
0.3863 2.8111 0.9820
0.2849 2.8249 0.9777
0.1832 2.8351 0.9734
0.0811 2.8415 0.9690
-0.0212 2.8443 0.9645
-0.1234 2.8433 0.9601
-0.2256 2.8387 0.9556
-0.3276 2.8304 0.9511
-0.4292 2.8183 0.9465
-0.5302 2.8026 0.9420
-0.6307 2.7833 0.9375
-0.7304 2.7603 0.9329
-0.8292 2.7338 0.9284
-0.9269 2.7037 0.9239
-2.6629 6.9465 2.3920
-2.9250 6.8833 2.3920
-3.1859 6.8103 2.3920
-3.4453 6.7274 2.3920
-3.7025 6.6346 2.3920
-3.9573 6.5318 2.3920
-4.2092 6.4191 2.3920
-4.4578 6.2966 2.3920
-4.7027 6.1642 2.3920
-4.9435 6.0221 2.3920
-5.1796 5.8703 2.3920
-5.4107 5.7089 2.3920
-4.0892 5.8483 2.3920
-4.3151 5.7256 2.3920
-4.5371 5.5940 2.3920
-4.7548 5.4535 2.3920
-4.9677 5.3043 2.3920
-5.1757 5.1465 2.3920
-5.3781 4.9802 2.3920
-5.5746 4.8057 2.3920
-5.7649 4.6231 2.3920
-5.9486 4.4326 2.3920
-6.1252 4.2344 2.3920
-6.2945 4.0289 2.3920
-6.4560 3.8163 2.3920
-6.6094 3.5969 2.3920
-6.7544 3.3710 2.3920
-6.8906 3.1389 2.3920
-7.0178 2.9010 2.3920
-7.1356 2.6577 2.3920
-7.2438 2.4093 2.3920
-7.3420 2.1563 2.3920
-7.4301 1.8990 2.3920
-7.5079 1.6380 2.3920
-7.5751 1.3736 2.3920
-7.6316 1.1064 2.3920
-7.6772 0.8367 2.3920
-7.7118 0.5651 2.3920
-7.7353 0.2921 2.3920
-7.7476 0.0182 2.3920
-7.7486 -0.2562 2.3920
-7.7384 -0.5305 2.3920
-7.7170 -0.8043 2.3920
-7.6843 -1.0770 2.3920
-7.6405 -1.3481 2.3920
-7.5856 -1.6171 2.3920
-7.5197 -1.8836 2.3920
-7.4430 -2.1470 2.3920
-7.3556 -2.4069 2.3920
-7.2577 -2.6628 2.3920
-7.1495 -2.9143 2.3920
-7.0313 -3.1608 2.3920
-6.9034 -3.4021 2.3920
-6.7659 -3.6376 2.3920
-6.6192 -3.8670 2.3920
-6.4636 -4.0899 2.3920
-6.2994 -4.3059 2.3920
-6.1270 -4.5147 2.3920
-5.9467 -4.7161 2.3920
-5.7590 -4.9096 2.3920
-5.5641 -5.0950 2.3920
-5.3626 -5.2722 2.3920
-5.1547 -5.4407 2.3920
-4.9410 -5.6005 2.3920
-4.7218 -5.7513 2.3920
-4.4975 -5.8930 2.3920
-4.2686 -6.0254 2.3920
-4.0355 -6.1485 2.3920
-3.7986 -6.2620 2.3920
-3.5584 -6.3660 2.3920
-3.3152 -6.4604 2.3920
-3.0696 -6.5451 2.3920
-2.8218 -6.6202 2.3920
-2.5723 -6.6856 2.3920
-2.3216 -6.7413 2.3920
-2.0699 -6.7875 2.3920
-1.8177 -6.8240 2.3920
-1.5655 -6.8511 2.3920
-1.3134 -6.8688 2.3920
-1.0620 -6.8772 2.3920
-0.8115 -6.8763 2.3920
-0.5623 -6.8664 2.3920
-0.3148 -6.8476 2.3920
-0.0691 -6.8200 2.3920
0.1742 -6.7837 2.3920
0.4151 -6.7389 2.3920
0.6531 -6.6859 2.3920
0.8880 -6.6247 2.3920
1.1196 -6.5556 2.3920
1.3475 -6.4787 2.3920
1.5716 -6.3944 2.3920
1.7916 -6.3026 2.3920
2.0074 -6.2037 2.3920
2.2186 -6.0980 2.3920
2.4252 -5.9854 2.3920
2.6269 -5.8664 2.3920
2.8236 -5.7411 2.3920
3.0150 -5.6098 2.3920
3.2012 -5.4726 2.3920
3.3818 -5.3298 2.3920
3.5568 -5.1816 2.3920
3.7260 -5.0282 2.3920
3.8893 -4.8699 2.3920
4.0467 -4.7068 2.3920
4.1980 -4.5392 2.3920
4.3431 -4.3674 2.3920
4.4819 -4.1914 2.3920
4.6144 -4.0116 2.3920
4.7405 -3.8281 2.3920
4.8601 -3.6412 2.3920
4.9731 -3.4510 2.3920
5.0796 -3.2579 2.3920
5.1794 -3.0619 2.3920
5.2725 -2.8634 2.3920
5.3589 -2.6624 2.3920
5.4385 -2.4593 2.3920
5.5114 -2.2542 2.3920
5.5774 -2.0473 2.3920
5.6366 -1.8388 2.3920
5.6889 -1.6289 2.3920
5.7344 -1.4178 2.3920
5.7729 -1.2057 2.3920
5.8046 -0.9927 2.3920
5.8295 -0.7792 2.3920
5.8474 -0.5652 2.3920
5.8584 -0.3510 2.3920
5.8626 -0.1367 2.3920
5.8600 0.0775 2.3920
5.8504 0.2914 2.3920
5.8341 0.5047 2.3920
5.8109 0.7174 2.3920
5.7810 0.9292 2.3920
5.7442 1.1400 2.3920
5.7008 1.3496 2.3920
5.6506 1.5577 2.3920
5.5938 1.7643 2.3920
5.5304 1.9691 2.3920
5.4603 2.1719 2.3920
5.3837 2.3726 2.3920
5.3007 2.5709 2.3920
5.2111 2.7668 2.3920
5.1152 2.9600 2.3920
5.0129 3.1503 2.3920
4.9044 3.3375 2.3920
4.7896 3.5216 2.3920
4.6687 3.7022 2.3920
4.5418 3.8791 2.3920
4.4089 4.0523 2.3920
4.2700 4.2216 2.3920
4.1254 4.3866 2.3920
3.9750 4.5473 2.3920
3.8190 4.7035 2.3920
3.6575 4.8549 2.3920
3.4906 5.0014 2.3920
3.3184 5.1428 2.3920
3.1410 5.2790 2.3920
2.9586 5.4096 2.3920
2.7713 5.5346 2.3920
2.5793 5.6537 2.3920
2.3826 5.7668 2.3920
2.1815 5.8737 2.3920
0.8249 2.4939 0.9985
0.7347 2.5237 0.9948
0.6435 2.5503 0.9911
0.5514 2.5736 0.9873
0.4585 2.5935 0.9834
0.3650 2.6100 0.9794
0.2709 2.6232 0.9754
0.1763 2.6329 0.9714
0.0815 2.6392 0.9673
-0.0135 2.6421 0.9632
-0.1085 2.6416 0.9591
-0.2034 2.6376 0.9549
-0.2982 2.6301 0.9507
-0.3926 2.6193 0.9465
-0.4866 2.6050 0.9423
-0.5800 2.5874 0.9381
-0.6727 2.5664 0.9339
-0.7645 2.5420 0.9297
-0.8554 2.5144 0.9255
-0.9453 2.4834 0.9213
-2.6967 6.3879 2.3920
-2.9378 6.3189 2.3920
-3.1773 6.2407 2.3920
-3.4147 6.1534 2.3920
-3.6497 6.0570 2.3920
-3.8820 5.9515 2.3920
-4.1111 5.8369 2.3920
-4.3366 5.7134 2.3920
-4.5582 5.5809 2.3920
-4.7754 5.4395 2.3920
-4.9879 5.2895 2.3920
-5.1954 5.1308 2.3920
-5.3972 4.9638 2.3920
-5.5932 4.7885 2.3920
-5.7829 4.6051 2.3920
-5.9659 4.4139 2.3920
-6.1418 4.2150 2.3920
-6.3103 4.0088 2.3920
-6.4711 3.7955 2.3920
-6.6237 3.5755 2.3920
-6.7679 3.3490 2.3920
-6.9033 3.1163 2.3920
-7.0295 2.8779 2.3920
-7.1464 2.6340 2.3920
-7.2536 2.3852 2.3920
-7.3509 2.1317 2.3920
-7.4381 1.8741 2.3920
-7.5148 1.6127 2.3920
-7.5810 1.3481 2.3920
-7.6364 1.0806 2.3920
-7.6810 0.8107 2.3920
-7.7145 0.5389 2.3920
-7.7369 0.2658 2.3920
-7.7482 -0.0082 2.3920
-7.7482 -0.2826 2.3920
-7.7369 -0.5569 2.3920
-7.7143 -0.8306 2.3920
-7.6806 -1.1031 2.3920
-7.6357 -1.3740 2.3920
-7.5797 -1.6429 2.3920
-7.5128 -1.9091 2.3920
-7.4350 -2.1722 2.3920
-7.3466 -2.4317 2.3920
-7.2477 -2.6872 2.3920
-7.1386 -2.9382 2.3920
-7.0195 -3.1842 2.3920
-6.8906 -3.4249 2.3920
-6.7522 -3.6599 2.3920
-6.6046 -3.8887 2.3920
-6.4481 -4.1109 2.3920
-6.2832 -4.3263 2.3920
-6.1100 -4.5344 2.3920
-5.9290 -4.7350 2.3920
-5.7406 -4.9278 2.3920
-5.5450 -5.1124 2.3920
-5.3429 -5.2887 2.3920
-5.1344 -5.4564 2.3920
-4.9202 -5.6154 2.3920
-4.7004 -5.7653 2.3920
-4.4757 -5.9061 2.3920
-4.2464 -6.0377 2.3920
-4.0129 -6.1598 2.3920
-3.7757 -6.2724 2.3920
-3.5352 -6.3755 2.3920
-3.2917 -6.4690 2.3920
-3.0458 -6.5528 2.3920
-2.7979 -6.6269 2.3920
-2.5483 -6.6914 2.3920
-2.2974 -6.7462 2.3920
-2.0457 -6.7914 2.3920
-1.7935 -6.8271 2.3920
-1.5412 -6.8532 2.3920
-1.2892 -6.8700 2.3920
-1.0379 -6.8775 2.3920
-0.7875 -6.8758 2.3920
-0.5385 -6.8650 2.3920
-0.2911 -6.8453 2.3920
-0.0457 -6.8169 2.3920
0.1975 -6.7797 2.3920
0.4381 -6.7342 2.3920
0.6758 -6.6804 2.3920
0.9104 -6.6184 2.3920
1.1416 -6.5486 2.3920
1.3692 -6.4710 2.3920
1.5929 -6.3859 2.3920
1.8126 -6.2934 2.3920
2.0279 -6.1939 2.3920
2.2387 -6.0874 2.3920
2.4448 -5.9743 2.3920
2.6460 -5.8547 2.3920
2.8422 -5.7288 2.3920
3.0332 -5.5969 2.3920
3.2188 -5.4591 2.3920
3.3988 -5.3158 2.3920
3.5733 -5.1671 2.3920
3.7419 -5.0132 2.3920
3.9047 -4.8544 2.3920
4.0615 -4.6909 2.3920
4.2122 -4.5229 2.3920
4.3567 -4.3506 2.3920
4.4949 -4.1743 2.3920
4.6268 -3.9941 2.3920
4.7523 -3.8103 2.3920
4.8712 -3.6231 2.3920
4.9837 -3.4326 2.3920
5.0895 -3.2392 2.3920
5.1886 -3.0430 2.3920
5.2811 -2.8442 2.3920
5.3669 -2.6430 2.3920
5.4458 -2.4397 2.3920
5.5180 -2.2344 2.3920
5.5834 -2.0273 2.3920
5.6419 -1.8187 2.3920
5.6936 -1.6086 2.3920
5.7384 -1.3974 2.3920
5.7763 -1.1852 2.3920
5.8073 -0.9722 2.3920
5.8315 -0.7586 2.3920
5.8488 -0.5446 2.3920
5.8591 -0.3304 2.3920
5.8627 -0.1161 2.3920
5.8593 0.0981 2.3920
5.8492 0.3119 2.3920
5.8321 0.5252 2.3920
5.8083 0.7378 2.3920
5.7777 0.9495 2.3920
5.7404 1.1602 2.3920
5.6963 1.3696 2.3920
5.6455 1.5776 2.3920
5.5880 1.7840 2.3920
5.5239 1.9886 2.3920
5.4533 2.1913 2.3920
5.3761 2.3917 2.3920
5.2923 2.5899 2.3920
5.2022 2.7855 2.3920
5.1056 2.9784 2.3920
5.0028 3.1684 2.3920
4.8936 3.3554 2.3920
4.7783 3.5391 2.3920
4.6568 3.7193 2.3920
4.5293 3.8960 2.3920
4.3958 4.0688 2.3920
4.2564 4.2376 2.3920
4.1112 4.4023 2.3920
3.9603 4.5625 2.3920
3.8037 4.7182 2.3920
3.6417 4.8692 2.3920
3.4743 5.0152 2.3920
3.3016 5.1562 2.3920
3.1237 5.2918 2.3920
2.9408 5.4219 2.3920
2.7531 5.5463 2.3920
2.5605 5.6649 2.3920
2.3635 5.7774 2.3920
2.1619 5.8836 2.3920
0.8163 2.4969 0.9982
0.7260 2.5264 0.9945
0.6347 2.5527 0.9907
0.5425 2.5756 0.9869
0.4496 2.5952 0.9830
0.3560 2.6114 0.9791
0.2618 2.6243 0.9751
0.1672 2.6337 0.9710
0.0724 2.6397 0.9669
-0.0226 2.6422 0.9628
-0.1176 2.6413 0.9587
-0.2126 2.6370 0.9545
-0.3073 2.6292 0.9503
-0.4017 2.6181 0.9461
-0.4956 2.6035 0.9419
-0.5889 2.5855 0.9377
-0.6815 2.5642 0.9335
-0.7733 2.5395 0.9293
-0.8641 2.5115 0.9251
-2.4777 6.4425 2.3920
-2.7200 6.3817 2.3920
-2.9609 6.3118 2.3920
-3.2002 6.2327 2.3920
-3.4374 6.1446 2.3920
-3.6722 6.0473 2.3920
-3.9041 5.9409 2.3920
-4.1329 5.8254 2.3920
-4.3581 5.7010 2.3920
-4.5793 5.5677 2.3920
-4.7961 5.4255 2.3920
-5.0081 5.2746 2.3920
-3.8085 5.4352 2.3920
-4.0173 5.3196 2.3920
-4.2224 5.1957 2.3920
-4.4233 5.0637 2.3920
-4.6199 4.9238 2.3920
-4.8116 4.7759 2.3920
-4.9981 4.6203 2.3920
-5.1792 4.4571 2.3920
-5.3543 4.2866 2.3920
-5.5233 4.1089 2.3920
-5.6857 3.9242 2.3920
-5.8412 3.7328 2.3920
-5.9895 3.5349 2.3920
-6.1303 3.3309 2.3920
-6.2633 3.1209 2.3920
-6.3881 2.9054 2.3920
-6.5046 2.6846 2.3920
-6.6125 2.4589 2.3920
-6.7115 2.2286 2.3920
-6.8013 1.9941 2.3920
-6.8819 1.7558 2.3920
-6.9528 1.5141 2.3920
-7.0141 1.2694 2.3920
-7.0656 1.0221 2.3920
-7.1071 0.7726 2.3920
-7.1384 0.5214 2.3920
-7.1596 0.2690 2.3920
-7.1706 0.0157 2.3920
-7.1712 -0.2379 2.3920
-7.1616 -0.4915 2.3920
-7.1416 -0.7446 2.3920
-7.1114 -0.9967 2.3920
-7.0709 -1.2473 2.3920
-7.0203 -1.4960 2.3920
-6.9596 -1.7424 2.3920
-6.8890 -1.9860 2.3920
-6.8087 -2.2264 2.3920
-6.7187 -2.4632 2.3920
-6.6193 -2.6960 2.3920
-6.5106 -2.9242 2.3920
-6.3930 -3.1477 2.3920
-6.2666 -3.3660 2.3920
-6.1317 -3.5787 2.3920
-5.9887 -3.7855 2.3920
-5.8377 -3.9860 2.3920
-5.6791 -4.1800 2.3920
-5.5133 -4.3672 2.3920
-5.3405 -4.5473 2.3920
-5.1611 -4.7200 2.3920
-4.9755 -4.8850 2.3920
-4.7840 -5.0423 2.3920
-4.5870 -5.1916 2.3920
-4.3849 -5.3326 2.3920
-4.1780 -5.4654 2.3920
-3.9667 -5.5896 2.3920
-3.7515 -5.7052 2.3920
-3.5327 -5.8121 2.3920
-3.3106 -5.9103 2.3920
-3.0857 -5.9995 2.3920
-2.8584 -6.0800 2.3920
-2.6290 -6.1515 2.3920
-2.3979 -6.2140 2.3920
-2.1655 -6.2677 2.3920
-1.9321 -6.3125 2.3920
-1.6981 -6.3484 2.3920
-1.4639 -6.3755 2.3920
-1.2297 -6.3939 2.3920
-0.9960 -6.4037 2.3920
-0.7630 -6.4048 2.3920
-0.5310 -6.3976 2.3920
-0.3005 -6.3820 2.3920
-0.0716 -6.3582 2.3920
0.1553 -6.3264 2.3920
0.3801 -6.2865 2.3920
0.6023 -6.2388 2.3920
0.8217 -6.1837 2.3920
1.0382 -6.1209 2.3920
1.2513 -6.0509 2.3920
1.4611 -5.9739 2.3920
1.6671 -5.8899 2.3920
1.8693 -5.7991 2.3920
2.0673 -5.7018 2.3920
2.2611 -5.5981 2.3920
2.4504 -5.4883 2.3920
2.6351 -5.3725 2.3920
2.8149 -5.2510 2.3920
2.9899 -5.1239 2.3920
3.1598 -4.9914 2.3920
3.3245 -4.8538 2.3920
3.4838 -4.7113 2.3920
3.6377 -4.5640 2.3920
3.7860 -4.4122 2.3920
3.9286 -4.2560 2.3920
4.0655 -4.0957 2.3920
4.1966 -3.9316 2.3920
4.3217 -3.7636 2.3920
4.4408 -3.5922 2.3920
4.5538 -3.4175 2.3920
4.6607 -3.2396 2.3920
4.7614 -3.0589 2.3920
4.8559 -2.8754 2.3920
4.9440 -2.6894 2.3920
5.0259 -2.5011 2.3920
5.1013 -2.3106 2.3920
5.1704 -2.1182 2.3920
5.2330 -1.9241 2.3920
5.2892 -1.7284 2.3920
5.3389 -1.5313 2.3920
5.3821 -1.3331 2.3920
5.4188 -1.1339 2.3920
5.4491 -0.9339 2.3920
5.4728 -0.7332 2.3920
5.4899 -0.5321 2.3920
5.5006 -0.3308 2.3920
5.5048 -0.1293 2.3920
5.5024 0.0720 2.3920
5.4936 0.2730 2.3920
5.4783 0.4736 2.3920
5.4566 0.6736 2.3920
5.4284 0.8727 2.3920
5.3939 1.0709 2.3920
5.3529 1.2679 2.3920
5.3056 1.4635 2.3920
5.2520 1.6576 2.3920
5.1922 1.8500 2.3920
5.1260 2.0406 2.3920
5.0537 2.2291 2.3920
4.9753 2.4153 2.3920
4.8908 2.5992 2.3920
4.8002 2.7805 2.3920
4.7036 2.9590 2.3920
4.6012 3.1347 2.3920
4.4929 3.3072 2.3920
4.3788 3.4764 2.3920
4.2590 3.6422 2.3920
4.1336 3.8043 2.3920
4.0026 3.9627 2.3920
3.8662 4.1170 2.3920
3.7244 4.2672 2.3920
3.5774 4.4130 2.3920
3.4252 4.5543 2.3920
3.2680 4.6910 2.3920
3.1058 4.8227 2.3920
2.9389 4.9494 2.3920
2.7673 5.0709 2.3920
2.5911 5.1870 2.3920
2.4105 5.2975 2.3920
2.2257 5.4022 2.3920
0.8498 2.2952 0.9980
0.7667 2.3260 0.9946
0.6826 2.3538 0.9912
0.5975 2.3786 0.9877
0.5116 2.4003 0.9841
0.4249 2.4188 0.9805
0.3377 2.4343 0.9768
0.2499 2.4465 0.9731
0.1617 2.4556 0.9693
0.0733 2.4615 0.9655
-0.0153 2.4641 0.9617
-0.1040 2.4636 0.9578
-0.1925 2.4599 0.9539
-0.2809 2.4530 0.9500
-0.3690 2.4429 0.9461
-0.4566 2.4295 0.9421
-0.5438 2.4131 0.9382
-0.6302 2.3935 0.9343
-0.7159 2.3708 0.9304
-0.8007 2.3450 0.9265
-0.8845 2.3161 0.9226
-2.5185 5.9475 2.3920
-2.7422 5.8814 2.3920
-2.9642 5.8068 2.3920
-3.1842 5.7239 2.3920
-3.4019 5.6324 2.3920
-3.6168 5.5326 2.3920
-3.8287 5.4245 2.3920
-4.0372 5.3080 2.3920
-4.2419 5.1834 2.3920
-4.4424 5.0506 2.3920
-4.6385 4.9099 2.3920
-4.8297 4.7613 2.3920
-5.0158 4.6049 2.3920
-5.1962 4.4411 2.3920
-5.3708 4.2698 2.3920
-5.5391 4.0914 2.3920
-5.7009 3.9061 2.3920
-5.8557 3.7141 2.3920
-6.0033 3.5156 2.3920
-6.1434 3.3110 2.3920
-6.2756 3.1005 2.3920
-6.3997 2.8844 2.3920
-6.5154 2.6631 2.3920
-6.6224 2.4369 2.3920
-6.7205 2.2062 2.3920
-6.8095 1.9714 2.3920
-6.8891 1.7327 2.3920
-6.9592 1.4907 2.3920
-7.0195 1.2457 2.3920
-7.0700 0.9982 2.3920
-7.1105 0.7486 2.3920
-7.1409 0.4972 2.3920
-7.1611 0.2447 2.3920
-7.1711 -0.0087 2.3920
-7.1707 -0.2623 2.3920
-7.1601 -0.5159 2.3920
-7.1392 -0.7689 2.3920
-7.1079 -1.0208 2.3920
-7.0665 -1.2713 2.3920
-7.0149 -1.5198 2.3920
-6.9533 -1.7659 2.3920
-6.8817 -2.0093 2.3920
-6.8004 -2.2493 2.3920
-6.7095 -2.4858 2.3920
-6.6092 -2.7181 2.3920
-6.4997 -2.9459 2.3920
-6.3812 -3.1689 2.3920
-6.2540 -3.3867 2.3920
-6.1183 -3.5988 2.3920
-5.9745 -3.8050 2.3920
-5.8228 -4.0050 2.3920
-5.6635 -4.1983 2.3920
-5.4970 -4.3848 2.3920
-5.3235 -4.5642 2.3920
-5.1435 -4.7362 2.3920
-4.9573 -4.9005 2.3920
-4.7653 -5.0570 2.3920
-4.5678 -5.2055 2.3920
-4.3652 -5.3457 2.3920
-4.1579 -5.4777 2.3920
-3.9462 -5.6011 2.3920
-3.7306 -5.7159 2.3920
-3.5115 -5.8219 2.3920
-3.2891 -5.9192 2.3920
-3.0640 -6.0077 2.3920
-2.8365 -6.0872 2.3920
-2.6069 -6.1578 2.3920
-2.3756 -6.2196 2.3920
-2.1431 -6.2724 2.3920
-1.9097 -6.3163 2.3920
-1.6756 -6.3514 2.3920
-1.4414 -6.3777 2.3920
-1.2072 -6.3952 2.3920
-0.9736 -6.4041 2.3920
-0.7407 -6.4045 2.3920
-0.5088 -6.3964 2.3920
-0.2784 -6.3800 2.3920
-0.0497 -6.3555 2.3920
0.1770 -6.3228 2.3920
0.4015 -6.2822 2.3920
0.6235 -6.2339 2.3920
0.8427 -6.1780 2.3920
1.0588 -6.1145 2.3920
1.2717 -6.0438 2.3920
1.4810 -5.9661 2.3920
1.6867 -5.8814 2.3920
1.8885 -5.7900 2.3920
2.0861 -5.6921 2.3920
2.2794 -5.5878 2.3920
2.4683 -5.4774 2.3920
2.6526 -5.3611 2.3920
2.8320 -5.2390 2.3920
3.0064 -5.1114 2.3920
3.1758 -4.9785 2.3920
3.3400 -4.8404 2.3920
3.4988 -4.6973 2.3920
3.6522 -4.5496 2.3920
3.7999 -4.3974 2.3920
3.9420 -4.2408 2.3920
4.0784 -4.0801 2.3920
4.2088 -3.9156 2.3920
4.3334 -3.7473 2.3920
4.4519 -3.5756 2.3920
4.5644 -3.4005 2.3920
4.6707 -3.2224 2.3920
4.7708 -3.0413 2.3920
4.8646 -2.8576 2.3920
4.9522 -2.6714 2.3920
5.0334 -2.4828 2.3920
5.1082 -2.2922 2.3920
5.1767 -2.0996 2.3920
5.2387 -1.9053 2.3920
5.2943 -1.7095 2.3920
5.3433 -1.5123 2.3920
5.3859 -1.3140 2.3920
5.4220 -1.1147 2.3920
5.4516 -0.9146 2.3920
5.4747 -0.7139 2.3920
5.4912 -0.5128 2.3920
5.5013 -0.3114 2.3920
5.5048 -0.1100 2.3920
5.5019 0.0913 2.3920
5.4924 0.2923 2.3920
5.4765 0.4929 2.3920
5.4542 0.6928 2.3920
5.4254 0.8918 2.3920
5.3902 1.0899 2.3920
5.3487 1.2867 2.3920
5.3008 1.4822 2.3920
5.2465 1.6762 2.3920
5.1861 1.8684 2.3920
5.1194 2.0588 2.3920
5.0465 2.2471 2.3920
4.9674 2.4331 2.3920
4.8823 2.6167 2.3920
4.7912 2.7978 2.3920
4.6941 2.9761 2.3920
4.5910 3.1514 2.3920
4.4821 3.3236 2.3920
4.3675 3.4925 2.3920
4.2472 3.6579 2.3920
4.1212 3.8197 2.3920
3.9897 3.9777 2.3920
3.8528 4.1316 2.3920
3.7105 4.2814 2.3920
3.5630 4.4268 2.3920
3.4103 4.5677 2.3920
3.2526 4.7038 2.3920
3.0900 4.8351 2.3920
2.9226 4.9613 2.3920
2.7505 5.0823 2.3920
2.5739 5.1978 2.3920
2.3930 5.3078 2.3920
2.2077 5.4120 2.3920
0.8419 2.2983 0.9977
0.7587 2.3288 0.9943
0.6745 2.3563 0.9908
0.5893 2.3808 0.9873
0.5033 2.4022 0.9838
0.4166 2.4205 0.9801
0.3292 2.4356 0.9764
0.2414 2.4475 0.9727
0.1532 2.4563 0.9689
0.0648 2.4619 0.9651
-0.0239 2.4642 0.9613
-0.1125 2.4634 0.9574
-0.2011 2.4594 0.9535
-0.2894 2.4521 0.9496
-0.3774 2.4417 0.9457
-0.4650 2.4281 0.9418
-0.5521 2.4113 0.9378
-0.6385 2.3914 0.9339
-0.7241 2.3684 0.9300
-0.8088 2.3423 0.9261
-0.8926 2.3132 0.9222
-2.5400 5.9415 2.3920
-2.7636 5.8746 2.3920
-2.9854 5.7992 2.3920
-3.2052 5.7154 2.3920
-3.4227 5.6232 2.3920
-3.6373 5.5226 2.3920
-3.8489 5.4136 2.3920
-4.0570 5.2964 2.3920
-4.2613 5.1710 2.3920
-4.4615 5.0375 2.3920
-4.6571 4.8959 2.3920
-3.5608 5.0707 2.3920
-3.7547 4.9615 2.3920
-3.9450 4.8447 2.3920
-4.1314 4.7204 2.3920
-4.3135 4.5887 2.3920
-4.4912 4.4498 2.3920
-4.6639 4.3037 2.3920
-4.8315 4.1507 2.3920
-4.9935 3.9909 2.3920
-5.1497 3.8246 2.3920
-5.2997 3.6518 2.3920
-5.4434 3.4729 2.3920
-5.5803 3.2881 2.3920
-5.7102 3.0976 2.3920
-5.8328 2.9018 2.3920
-5.9479 2.7008 2.3920
-6.0553 2.4951 2.3920
-6.1546 2.2848 2.3920
-6.2457 2.0704 2.3920
-6.3283 1.8522 2.3920
-6.4023 1.6305 2.3920
-6.4675 1.4057 2.3920
-6.5237 1.1783 2.3920
-6.5709 0.9484 2.3920
-6.6089 0.7166 2.3920
-6.6375 0.4833 2.3920
-6.6568 0.2488 2.3920
-6.6666 0.0136 2.3920
-6.6669 -0.2220 2.3920
-6.6578 -0.4575 2.3920
-6.6391 -0.6925 2.3920
-6.6110 -0.9265 2.3920
-6.5735 -1.1592 2.3920
-6.5266 -1.3902 2.3920
-6.4705 -1.6191 2.3920
-6.4052 -1.8454 2.3920
-6.3309 -2.0688 2.3920
-6.2477 -2.2888 2.3920
-6.1558 -2.5052 2.3920
-6.0555 -2.7175 2.3920
-5.9468 -2.9254 2.3920
-5.8300 -3.1285 2.3920
-5.7054 -3.3265 2.3920
-5.5732 -3.5192 2.3920
-5.4336 -3.7061 2.3920
-5.2870 -3.8870 2.3920
-5.1337 -4.0617 2.3920
-4.9739 -4.2298 2.3920
-4.8079 -4.3912 2.3920
-4.6361 -4.5456 2.3920
-4.4588 -4.6929 2.3920
-4.2764 -4.8327 2.3920
-4.0891 -4.9651 2.3920
-3.8973 -5.0897 2.3920
-3.7014 -5.2066 2.3920
-3.5018 -5.3155 2.3920
-3.2987 -5.4163 2.3920
-3.0925 -5.5091 2.3920
-2.8836 -5.5937 2.3920
-2.6724 -5.6701 2.3920
-2.4591 -5.7382 2.3920
-2.2441 -5.7981 2.3920
-2.0278 -5.8497 2.3920
-1.8104 -5.8930 2.3920
-1.5925 -5.9281 2.3920
-1.3741 -5.9550 2.3920
-1.1557 -5.9738 2.3920
-0.9376 -5.9845 2.3920
-0.7200 -5.9873 2.3920
-0.5033 -5.9821 2.3920
-0.2878 -5.9692 2.3920
-0.0738 -5.9485 2.3920
0.1386 -5.9203 2.3920
0.3490 -5.8846 2.3920
0.5571 -5.8416 2.3920
0.7628 -5.7914 2.3920
0.9657 -5.7342 2.3920
1.1658 -5.6701 2.3920
1.3626 -5.5994 2.3920
1.5562 -5.5220 2.3920
1.7461 -5.4383 2.3920
1.9323 -5.3484 2.3920
2.1146 -5.2525 2.3920
2.2927 -5.1507 2.3920
2.4666 -5.0432 2.3920
2.6361 -4.9303 2.3920
2.8010 -4.8120 2.3920
2.9612 -4.6887 2.3920
3.1165 -4.5605 2.3920
3.2669 -4.4275 2.3920
3.4122 -4.2899 2.3920
3.5523 -4.1481 2.3920
3.6871 -4.0021 2.3920
3.8166 -3.8521 2.3920
3.9405 -3.6984 2.3920
4.0589 -3.5411 2.3920
4.1716 -3.3804 2.3920
4.2787 -3.2165 2.3920
4.3800 -3.0496 2.3920
4.4754 -2.8799 2.3920
4.5650 -2.7076 2.3920
4.6486 -2.5329 2.3920
4.7263 -2.3559 2.3920
4.7979 -2.1768 2.3920
4.8635 -1.9958 2.3920
4.9230 -1.8132 2.3920
4.9764 -1.6290 2.3920
5.0237 -1.4435 2.3920
5.0649 -1.2569 2.3920
5.0998 -1.0692 2.3920
5.1287 -0.8808 2.3920
5.1513 -0.6918 2.3920
5.1678 -0.5023 2.3920
5.1781 -0.3126 2.3920
5.1822 -0.1227 2.3920
5.1802 0.0670 2.3920
5.1720 0.2565 2.3920
5.1576 0.4456 2.3920
5.1372 0.6341 2.3920
5.1106 0.8218 2.3920
5.0780 1.0085 2.3920
5.0393 1.1942 2.3920
4.9946 1.3785 2.3920
4.9439 1.5615 2.3920
4.8873 1.7427 2.3920
4.8248 1.9222 2.3920
4.7564 2.0997 2.3920
4.6821 2.2751 2.3920
4.6022 2.4482 2.3920
4.5165 2.6188 2.3920
4.4251 2.7868 2.3920
4.3282 2.9520 2.3920
4.2257 3.1142 2.3920
4.1178 3.2732 2.3920
4.0045 3.4290 2.3920
3.8859 3.5812 2.3920
3.7621 3.7298 2.3920
3.6332 3.8746 2.3920
3.4992 4.0154 2.3920
3.3603 4.1520 2.3920
3.2166 4.2843 2.3920
3.0682 4.4122 2.3920
2.9151 4.5353 2.3920
2.7575 4.6537 2.3920
2.5957 4.7671 2.3920
2.4295 4.8753 2.3920
2.2593 4.9782 2.3920
0.8694 2.1164 0.9974
0.7928 2.1480 0.9943
0.7150 2.1769 0.9911
0.6363 2.2029 0.9879
0.5566 2.2261 0.9846
0.4762 2.2463 0.9813
0.3951 2.2637 0.9779
0.3134 2.2781 0.9745
0.2312 2.2896 0.9710
0.1487 2.2981 0.9675
0.0659 2.3036 0.9639
-0.0170 2.3061 0.9603
-0.1000 2.3056 0.9567
-0.1829 2.3021 0.9530
-0.2656 2.2956 0.9494
-0.3480 2.2861 0.9457
-0.4301 2.2737 0.9420
-0.5116 2.2583 0.9383
-0.5925 2.2399 0.9347
-0.6727 2.2187 0.9310
-0.7521 2.1945 0.9273
-0.8306 2.1675 0.9237
-0.9080 2.1377 0.9201
-2.5690 5.4942 2.3920
-2.7757 5.4231 2.3920
-2.9805 5.3441 2.3920
-3.1829 5.2574 2.3920
-3.3827 5.1628 2.3920
-3.5795 5.0605 2.3920
-3.7731 4.9506 2.3920
-3.9631 4.8330 2.3920
-4.1491 4.7080 2.3920
-4.3308 4.5756 2.3920
-4.5080 4.4360 2.3920
-4.6802 4.2893 2.3920
-4.8473 4.1357 2.3920
-5.0088 3.9752 2.3920
-5.1644 3.8082 2.3920
-5.3138 3.6349 2.3920
-5.4568 3.4554 2.3920
-5.5931 3.2701 2.3920
-5.7223 3.0790 2.3920
-5.8442 2.8827 2.3920
-5.9586 2.6813 2.3920
-6.0652 2.4751 2.3920
-6.1637 2.2644 2.3920
-6.2540 2.0496 2.3920
-6.3358 1.8310 2.3920
-6.4089 1.6091 2.3920
-6.4733 1.3840 2.3920
-6.5287 1.1563 2.3920
-6.5750 0.9262 2.3920
-6.6120 0.6943 2.3920
-6.6398 0.4608 2.3920
-6.6581 0.2262 2.3920
-6.6670 -0.0091 2.3920
-6.6664 -0.2446 2.3920
-6.6564 -0.4801 2.3920
-6.6368 -0.7150 2.3920
-6.6078 -0.9489 2.3920
-6.5694 -1.1815 2.3920
-6.5216 -1.4123 2.3920
-6.4646 -1.6409 2.3920
-6.3984 -1.8670 2.3920
-6.3233 -2.0901 2.3920
-6.2393 -2.3098 2.3920
-6.1466 -2.5258 2.3920
-6.0454 -2.7377 2.3920
-5.9359 -2.9451 2.3920
-5.8184 -3.1477 2.3920
-5.6930 -3.3453 2.3920
-5.5601 -3.5374 2.3920
-5.4198 -3.7237 2.3920
-5.2726 -3.9041 2.3920
-5.1186 -4.0781 2.3920
-4.9582 -4.2456 2.3920
-4.7916 -4.4063 2.3920
-4.6193 -4.5601 2.3920
-4.4415 -4.7066 2.3920
-4.2586 -4.8458 2.3920
-4.0708 -4.9774 2.3920
-3.8787 -5.1013 2.3920
-3.6824 -5.2174 2.3920
-3.4824 -5.3255 2.3920
-3.2790 -5.4256 2.3920
-3.0726 -5.5176 2.3920
-2.8634 -5.6014 2.3920
-2.6520 -5.6770 2.3920
-2.4385 -5.7443 2.3920
-2.2234 -5.8034 2.3920
-2.0069 -5.8542 2.3920
-1.7895 -5.8967 2.3920
-1.5715 -5.9311 2.3920
-1.3531 -5.9572 2.3920
-1.1347 -5.9752 2.3920
-0.9166 -5.9852 2.3920
-0.6991 -5.9871 2.3920
-0.4826 -5.9812 2.3920
-0.2672 -5.9675 2.3920
-0.0533 -5.9461 2.3920
0.1589 -5.9171 2.3920
0.3691 -5.8808 2.3920
0.5770 -5.8371 2.3920
0.7824 -5.7862 2.3920
0.9851 -5.7283 2.3920
1.1848 -5.6636 2.3920
1.3814 -5.5922 2.3920
1.5746 -5.5143 2.3920
1.7642 -5.4300 2.3920
1.9500 -5.3394 2.3920
2.1319 -5.2429 2.3920
2.3096 -5.1406 2.3920
2.4831 -5.0326 2.3920
2.6521 -4.9191 2.3920
2.8166 -4.8004 2.3920
2.9763 -4.6766 2.3920
3.1312 -4.5479 2.3920
3.2811 -4.4144 2.3920
3.4259 -4.2765 2.3920
3.5655 -4.1343 2.3920
3.6998 -3.9879 2.3920
3.8287 -3.8375 2.3920
3.9521 -3.6834 2.3920
4.0700 -3.5258 2.3920
4.1822 -3.3648 2.3920
4.2887 -3.2006 2.3920
4.3894 -3.0334 2.3920
4.4843 -2.8635 2.3920
4.5733 -2.6909 2.3920
4.6563 -2.5160 2.3920
4.7334 -2.3387 2.3920
4.8045 -2.1595 2.3920
4.8695 -1.9784 2.3920
4.9284 -1.7956 2.3920
4.9812 -1.6113 2.3920
5.0279 -1.4256 2.3920
5.0685 -1.2389 2.3920
5.1029 -1.0512 2.3920
5.1311 -0.8627 2.3920
5.1532 -0.6736 2.3920
5.1690 -0.4841 2.3920
5.1787 -0.2943 2.3920
5.1823 -0.1045 2.3920
5.1796 0.0852 2.3920
5.1709 0.2747 2.3920
5.1559 0.4637 2.3920
5.1349 0.6522 2.3920
5.1078 0.8398 2.3920
5.0745 1.0264 2.3920
5.0353 1.2120 2.3920
4.9900 1.3962 2.3920
4.9388 1.5789 2.3920
4.8815 1.7601 2.3920
4.8184 1.9394 2.3920
4.7495 2.1167 2.3920
4.6747 2.2919 2.3920
4.5942 2.4647 2.3920
4.5079 2.6351 2.3920
4.4160 2.8028 2.3920
4.3186 2.9677 2.3920
4.2156 3.1296 2.3920
4.1072 3.2884 2.3920
3.9933 3.4438 2.3920
3.8742 3.5957 2.3920
3.7499 3.7439 2.3920
3.6205 3.8883 2.3920
3.4861 4.0287 2.3920
3.3467 4.1649 2.3920
3.2025 4.2968 2.3920
3.0536 4.4242 2.3920
2.9001 4.5469 2.3920
2.7422 4.6648 2.3920
2.5799 4.7777 2.3920
2.4133 4.8854 2.3920
2.2428 4.9878 2.3920
0.8621 2.1195 0.9971
0.7854 2.1509 0.9940
0.7075 2.1795 0.9908
0.6287 2.2052 0.9876
0.5489 2.2281 0.9843
0.4684 2.2481 0.9810
0.3873 2.2652 0.9776
0.3055 2.2793 0.9741
0.2233 2.2905 0.9706
0.1408 2.2987 0.9671
0.0580 2.3039 0.9635
-0.0250 2.3062 0.9599
-0.1079 2.3054 0.9563
-0.1908 2.3016 0.9527
-0.2735 2.2948 0.9490
-0.3559 2.2850 0.9454
-0.4379 2.2723 0.9417
-0.5194 2.2566 0.9380
-0.6003 2.2380 0.9343
-0.6804 2.2165 0.9306
-0.7597 2.1920 0.9270
-0.8381 2.1648 0.9234
-0.9154 2.1347 0.9197
-2.5890 5.4877 2.3920
-2.7955 5.4159 2.3920
-3.0000 5.3361 2.3920
-3.2022 5.2486 2.3920
-3.4017 5.1533 2.3920
-3.5983 5.0503 2.3920
-3.7915 4.9396 2.3920
-3.9811 4.8214 2.3920
-4.1667 4.6956 2.3920
-4.3480 4.5626 2.3920
-3.3403 4.7463 2.3920
-3.5211 4.6430 2.3920
-3.6984 4.5326 2.3920
-3.8719 4.4153 2.3920
-4.0415 4.2911 2.3920
-4.2067 4.1602 2.3920
-4.3674 4.0228 2.3920
-4.5231 3.8789 2.3920
-4.6736 3.7288 2.3920
-4.8186 3.5726 2.3920
-4.9579 3.4106 2.3920
-5.0912 3.2428 2.3920
-5.2181 3.0696 2.3920
-5.3385 2.8913 2.3920
-5.4522 2.7080 2.3920
-5.5587 2.5200 2.3920
-5.6581 2.3275 2.3920
-5.7499 2.1310 2.3920
-5.8342 1.9307 2.3920
-5.9105 1.7269 2.3920
-5.9789 1.5199 2.3920
-6.0391 1.3101 2.3920
-6.0910 1.0978 2.3920
-6.1344 0.8834 2.3920
-6.1693 0.6672 2.3920
-6.1956 0.4496 2.3920
-6.2132 0.2310 2.3920
-6.2221 0.0117 2.3920
-6.2222 -0.2079 2.3920
-6.2135 -0.4274 2.3920
-6.1960 -0.6465 2.3920
-6.1698 -0.8647 2.3920
-6.1349 -1.0816 2.3920
-6.0913 -1.2970 2.3920
-6.0391 -1.5103 2.3920
-5.9785 -1.7214 2.3920
-5.9095 -1.9297 2.3920
-5.8323 -2.1350 2.3920
-5.7470 -2.3369 2.3920
-5.6539 -2.5350 2.3920
-5.5530 -2.7291 2.3920
-5.4446 -2.9189 2.3920
-5.3290 -3.1039 2.3920
-5.2062 -3.2839 2.3920
-5.0767 -3.4588 2.3920
-4.9406 -3.6281 2.3920
-4.7981 -3.7916 2.3920
-4.6497 -3.9491 2.3920
-4.4955 -4.1004 2.3920
-4.3358 -4.2453 2.3920
-4.1710 -4.3835 2.3920
-4.0013 -4.5149 2.3920
-3.8271 -4.6394 2.3920
-3.6486 -4.7568 2.3920
-3.4662 -4.8670 2.3920
-3.2803 -4.9698 2.3920
-3.0911 -5.0651 2.3920
-2.8989 -5.1530 2.3920
-2.7041 -5.2332 2.3920
-2.5071 -5.3059 2.3920
-2.3080 -5.3708 2.3920
-2.1073 -5.4281 2.3920
-1.9052 -5.4777 2.3920
-1.7021 -5.5195 2.3920
-1.4983 -5.5537 2.3920
-1.2941 -5.5803 2.3920
-1.0897 -5.5992 2.3920
