ply
format ascii 1.0
element vertex 2172
property float32 x
property float32 y
property float32 z
end_header
5.8638 -2.1466 2.3963
5.9318 -1.9327 2.3963
5.9920 -1.7166 2.3963
6.0444 -1.4988 2.3963
6.0889 -1.2793 2.3963
6.1255 -1.0585 2.3963
6.1542 -0.8368 2.3963
6.1749 -0.6143 2.3963
6.1877 -0.3914 2.3963
6.1925 -0.1683 2.3963
6.1894 0.0546 2.3963
6.1783 0.2770 2.3963
6.1594 0.4987 2.3963
6.1326 0.7195 2.3963
6.0980 0.9391 2.3963
6.0556 1.1572 2.3963
6.0055 1.3735 2.3963
5.9479 1.5876 2.3963
5.8827 1.7996 2.3963
5.8102 2.0089 2.3963
5.7303 2.2154 2.3963
5.6432 2.4188 2.3963
5.5490 2.6189 2.3963
5.4479 2.8155 2.3963
5.3399 3.0083 2.3963
5.2252 3.1970 2.3963
5.1040 3.3816 2.3963
4.9765 3.5616 2.3963
4.8427 3.7369 2.3963
4.7028 3.9074 2.3963
4.5571 4.0727 2.3963
4.4058 4.2328 2.3963
4.2489 4.3875 2.3963
4.0867 4.5363 2.3963
3.9194 4.6795 2.3963
3.7473 4.8166 2.3963
3.5704 4.9475 2.3963
3.3891 5.0721 2.3963
3.2035 5.1902 2.3963
3.0140 5.3017 2.3963
2.8206 5.4065 2.3963
2.6237 5.5044 2.3963
2.4235 5.5953 2.3963
0.8957 2.2911 0.9667
0.8126 2.3222 0.9668
0.7284 2.3502 0.9668
0.6432 2.3752 0.9668
0.5572 2.3971 0.9668
0.4705 2.4159 0.9667
0.3831 2.4316 0.9666
0.2953 2.4440 0.9665
0.2070 2.4533 0.9663
0.1184 2.4594 0.9662
0.0297 2.4623 0.9659
-0.0591 2.4620 0.9657
-0.1478 2.4585 0.9654
-0.2364 2.4518 0.9651
-0.3246 2.4419 0.9647
-0.4124 2.4288 0.9643
-0.4997 2.4125 0.9639
-0.5864 2.3931 0.9635
-0.6723 2.3705 0.9630
-0.7573 2.3449 0.9625
-0.8413 2.3162 0.9619
-2.3037 5.6944 2.3963
-2.5089 5.6113 2.3963
-2.7112 5.5210 2.3963
-2.9103 5.4236 2.3963
-3.1060 5.3190 2.3963
-3.2979 5.2076 2.3963
-3.4859 5.0893 2.3963
-3.6697 4.9643 2.3963
-3.8490 4.8328 2.3963
-4.0237 4.6949 2.3963
-4.1935 4.5508 2.3963
-4.3582 4.4007 2.3963
-4.5175 4.2446 2.3963
-4.6713 4.0828 2.3963
-4.8193 3.9155 2.3963
-4.9614 3.7430 2.3963
-5.0973 3.5653 2.3963
-5.2269 3.3827 2.3963
-5.3500 3.1955 2.3963
-5.4663 3.0038 2.3963
-5.5758 2.8079 2.3963
-5.6783 2.6080 2.3963
-5.7737 2.4045 2.3963
-5.8617 2.1976 2.3963
-5.9423 1.9872 2.3963
-6.0153 1.7741 2.3963
-6.0806 1.5580 2.3963
-6.1383 1.3401 2.3963
-6.1879 1.1195 2.3963
-6.2298 0.8978 2.3963
-6.2635 0.6740 2.3963
-6.2892 0.4491 2.3963
-6.3067 0.2232 2.3963
-6.3160 -0.0033 2.3963
-6.3171 -0.2302 2.3963
-6.3100 -0.4571 2.3963
-6.2946 -0.6838 2.3963
-6.2710 -0.9099 2.3963
-6.2392 -1.1352 2.3963
-6.1992 -1.3593 2.3963
-6.1510 -1.5820 2.3963
-6.0947 -1.8029 2.3963
-6.0304 -2.0217 2.3963
-5.9581 -2.2381 2.3963
-5.8778 -2.4520 2.3963
-5.7898 -2.6628 2.3963
-5.6941 -2.8704 2.3963
-5.5908 -3.0745 2.3963
-5.4799 -3.2757 2.3963
-5.3620 -3.4711 2.3963
-5.2368 -3.6627 2.3963
-5.1046 -3.8499 2.3963
-4.9656 -4.0321 2.3963
-4.8199 -4.2093 2.3963
-4.6678 -4.3810 2.3963
-4.5094 -4.5471 2.3963
-4.3450 -4.7072 2.3963
-4.1748 -4.8613 2.3963
-3.9990 -5.0091 2.3963
-3.8179 -5.1504 2.3963
-3.6316 -5.2849 2.3963
-3.4405 -5.4125 2.3963
-3.2448 -5.5330 2.3963
-3.0449 -5.6463 2.3963
-2.8408 -5.7521 2.3963
-2.6330 -5.8504 2.3963
-2.4218 -5.9410 2.3963
-2.2073 -6.0237 2.3963
-1.9900 -6.0985 2.3963
-1.7700 -6.1653 2.3963
-1.5478 -6.2239 2.3963
-1.3236 -6.2743 2.3963
-1.0978 -6.3165 2.3963
-0.8706 -6.3503 2.3963
-0.6423 -6.3757 2.3963
-0.4134 -6.3928 2.3963
-0.1840 -6.4014 2.3963
0.0455 -6.4016 2.3963
0.2748 -6.3934 2.3963
0.5035 -6.3768 2.3963
0.7314 -6.3518 2.3963
0.9581 -6.3185 2.3963
1.1833 -6.2769 2.3963
1.4068 -6.2272 2.3963
1.6282 -6.1693 2.3963
1.8473 -6.1034 2.3963
2.0636 -6.0296 2.3963
2.2771 -5.9480 2.3963
2.4872 -5.8587 2.3963
2.6939 -5.7618 2.3963
2.8967 -5.6575 2.3963
3.0956 -5.5460 2.3963
3.2900 -5.4273 2.3963
3.4800 -5.3018 2.3963
3.6651 -5.1695 2.3963
3.8451 -5.0307 2.3963
4.0199 -4.8855 2.3963
4.1892 -4.7342 2.3963
4.3528 -4.5769 2.3963
4.5104 -4.4140 2.3963
4.6619 -4.2456 2.3963
4.8071 -4.0719 2.3963
4.9459 -3.8932 2.3963
5.0779 -3.7098 2.3963
5.2032 -3.5219 2.3963
5.3216 -3.3297 2.3963
5.4328 -3.1336 2.3963
5.5368 -2.9337 2.3963
5.6335 -2.7304 2.3963
5.7228 -2.5239 2.3963
5.8044 -2.3143 2.3963
5.8785 -2.1024 2.3963
5.9449 -1.8880 2.3963
6.0035 -1.6716 2.3963
6.0543 -1.4533 2.3963
6.0971 -1.2335 2.3963
6.1321 -1.0126 2.3963
6.1591 -0.7906 2.3963
6.1782 -0.5681 2.3963
6.1893 -0.3451 2.3963
6.1925 -0.1223 2.3963
6.1877 0.1007 2.3963
6.1750 0.3232 2.3963
6.1545 0.5446 2.3963
6.1260 0.7653 2.3963
6.0898 0.9845 2.3963
6.0458 1.2021 2.3963
5.9942 1.4181 2.3963
5.9350 1.6318 2.3963
5.8683 1.8433 2.3963
5.7942 2.0519 2.3963
5.7128 2.2578 2.3963
5.6242 2.4606 2.3963
5.5286 2.6600 2.3963
5.4260 2.8558 2.3963
5.3166 3.0478 2.3963
5.2006 3.2355 2.3963
5.0781 3.4193 2.3963
4.9492 3.5983 2.3963
4.8141 3.7727 2.3963
4.6731 3.9421 2.3963
4.5262 4.1064 2.3963
4.3737 4.2653 2.3963
4.2157 4.4188 2.3963
4.0524 4.5666 2.3963
3.8841 4.7084 2.3963
3.7109 4.8442 2.3963
3.5331 4.9739 2.3963
3.3509 5.0971 2.3963
3.1645 5.2139 2.3963
2.9741 5.3240 2.3963
2.7800 5.4273 2.3963
2.5824 5.5237 2.3963
2.3815 5.6132 2.3963
0.8785 2.2978 0.9667
0.7952 2.3282 0.9668
0.7108 2.3556 0.9668
0.6255 2.3800 0.9668
0.5393 2.4013 0.9668
0.4524 2.4194 0.9667
0.3649 2.4344 0.9666
0.2770 2.4462 0.9665
0.1886 2.4549 0.9663
0.1000 2.4603 0.9661
0.0113 2.4625 0.9659
-0.0775 2.4616 0.9656
-0.1662 2.4574 0.9653
-0.2547 2.4500 0.9650
-0.3429 2.4394 0.9646
-0.4306 2.4256 0.9642
-0.5178 2.4087 0.9638
-0.6043 2.3887 0.9634
-0.6900 2.3655 0.9629
-0.7748 2.3392 0.9624
-0.8586 2.3099 0.9618
-2.3465 5.6777 2.3963
-2.5512 5.5931 2.3963
-2.7528 5.5013 2.3963
-2.9512 5.4024 2.3963
-3.1461 5.2965 2.3963
-3.3372 5.1836 2.3963
-3.5243 5.0639 2.3963
-3.7072 4.9376 2.3963
-3.8856 4.8047 2.3963
-4.0593 4.6655 2.3963
-4.2281 4.5202 2.3963
-4.3917 4.3688 2.3963
-4.5499 4.2115 2.3963
-4.7025 4.0486 2.3963
-4.8493 3.8802 2.3963
-4.9901 3.7065 2.3963
-5.1247 3.5278 2.3963
-5.2530 3.3442 2.3963
-5.3747 3.1560 2.3963
-5.4896 2.9635 2.3963
-5.5977 2.7668 2.3963
-5.6987 2.5661 2.3963
-5.7925 2.3618 2.3963
-5.8790 2.1541 2.3963
-5.9580 1.9431 2.3963
-6.0295 1.7294 2.3963
-6.0933 1.5133 2.3963
-6.1492 1.2946 2.3963
-6.1973 1.0737 2.3963
-6.2373 0.8509 2.3963
-6.2695 0.6274 2.3963
-6.2935 0.4023 2.3963
-6.3093 0.1762 2.3963
-6.3169 -0.0504 2.3963
-6.3163 -0.2772 2.3963
-6.3075 -0.5042 2.3963
-6.2904 -0.7308 2.3963
-6.2651 -0.9567 2.3963
-6.2316 -1.1818 2.3963
-6.1899 -1.4056 2.3963
-6.1400 -1.6279 2.3963
-6.0820 -1.8484 2.3963
-6.0160 -2.0668 2.3963
-5.9421 -2.2827 2.3963
-5.8602 -2.4960 2.3963
-5.7706 -2.7062 2.3963
-5.6733 -2.9131 2.3963
-5.5684 -3.1164 2.3963
-5.4561 -3.3162 2.3963
-5.3366 -3.5109 2.3963
-5.2099 -3.7019 2.3963
-5.0763 -3.8881 2.3963
-4.9359 -4.0693 2.3963
-4.7889 -4.2453 2.3963
-4.6354 -4.4159 2.3963
-4.4758 -4.5808 2.3963
-4.3102 -4.7397 2.3963
-4.1388 -4.8925 2.3963
-3.9618 -5.0390 2.3963
-3.7796 -5.1788 2.3963
-3.5924 -5.3120 2.3963
-3.4003 -5.4381 2.3963
-3.2037 -5.5571 2.3963
-3.0029 -5.6689 2.3963
-2.7980 -5.7731 2.3963
-2.5895 -5.8698 2.3963
-2.3775 -5.9588 2.3963
-2.1624 -6.0399 2.3963
-1.9445 -6.1131 2.3963
-1.7241 -6.1781 2.3963
-1.5015 -6.2351 2.3963
-1.2769 -6.2838 2.3963
-1.0508 -6.3242 2.3963
-0.8233 -6.3563 2.3963
-0.5949 -6.3800 2.3963
-0.3658 -6.3953 2.3963
-0.1364 -6.4021 2.3963
0.0931 -6.4006 2.3963
0.3223 -6.3906 2.3963
0.5508 -6.3723 2.3963
0.7785 -6.3456 2.3963
1.0049 -6.3106 2.3963
1.2298 -6.2673 2.3963
1.4529 -6.2159 2.3963
1.6739 -6.1563 2.3963
1.8924 -6.0888 2.3963
2.1081 -6.0133 2.3963
2.3209 -5.9301 2.3963
2.5304 -5.8392 2.3963
2.7363 -5.7408 2.3963
-4.9228 -3.3898 2.3963
-4.8004 -3.5656 2.3963
-4.6715 -3.7369 2.3963
-4.5365 -3.9035 2.3963
-4.3954 -4.0650 2.3963
-4.2484 -4.2213 2.3963
-4.0957 -4.3722 2.3963
-3.9376 -4.5174 2.3963
-3.7743 -4.6568 2.3963
-3.6058 -4.7900 2.3963
-3.4326 -4.9171 2.3963
-3.2548 -5.0377 2.3963
-3.0727 -5.1517 2.3963
-2.8865 -5.2591 2.3963
-2.6965 -5.3594 2.3963
-2.5029 -5.4528 2.3963
-2.3061 -5.5390 2.3963
-2.1061 -5.6179 2.3963
-1.9035 -5.6894 2.3963
-1.6983 -5.7534 2.3963
-1.4910 -5.8099 2.3963
-1.2817 -5.8586 2.3963
-1.0709 -5.8997 2.3963
-0.8587 -5.9330 2.3963
-0.6455 -5.9585 2.3963
-0.4315 -5.9762 2.3963
-0.2171 -5.9860 2.3963
-0.0025 -5.9879 2.3963
0.2120 -5.9820 2.3963
0.4260 -5.9683 2.3963
0.6393 -5.9467 2.3963
0.8516 -5.9173 2.3963
1.0626 -5.8802 2.3963
1.2720 -5.8354 2.3963
1.4795 -5.7830 2.3963
1.6849 -5.7232 2.3963
1.8879 -5.6558 2.3963
2.0882 -5.5812 2.3963
2.2855 -5.4993 2.3963
2.4796 -5.4104 2.3963
2.6702 -5.3145 2.3963
2.8572 -5.2117 2.3963
3.0401 -5.1023 2.3963
3.2188 -4.9864 2.3963
3.3931 -4.8641 2.3963
3.5627 -4.7357 2.3963
3.7275 -4.6013 2.3963
3.8871 -4.4611 2.3963
4.0415 -4.3153 2.3963
4.1904 -4.1641 2.3963
4.3336 -4.0077 2.3963
4.4710 -3.8464 2.3963
4.6023 -3.6803 2.3963
4.7275 -3.5097 2.3963
4.8463 -3.3348 2.3963
4.9587 -3.1559 2.3963
5.0645 -2.9732 2.3963
5.1635 -2.7869 2.3963
5.2558 -2.5973 2.3963
5.3410 -2.4047 2.3963
5.4193 -2.2092 2.3963
5.4904 -2.0113 2.3963
5.5543 -1.8111 2.3963
5.6110 -1.6088 2.3963
5.6603 -1.4045 2.3963
5.7020 -1.1967 2.3963
5.7369 -0.9927 2.3963
5.7641 -0.7850 2.3963
5.7838 -0.5767 2.3963
5.7960 -0.3679 2.3963
5.8008 -0.1590 2.3963
5.7981 0.0499 2.3963
5.7880 0.2583 2.3963
5.7705 0.4661 2.3963
5.7456 0.6730 2.3963
5.7134 0.8788 2.3963
5.6740 1.0831 2.3963
5.6273 1.2858 2.3963
5.5735 1.4866 2.3963
5.5127 1.6853 2.3963
5.4449 1.8816 2.3963
5.3702 2.0750 2.3963
5.2887 2.2662 2.3963
5.2006 2.4536 2.3963
5.1060 2.6379 2.3963
5.0049 2.8187 2.3963
4.8976 2.9957 2.3963
4.7841 3.1688 2.3963
4.6647 3.3376 2.3963
4.5393 3.5021 2.3963
4.4084 3.6620 2.3963
4.2719 3.8171 2.3963
4.1300 3.9673 2.3963
3.9830 4.1123 2.3963
3.8310 4.2520 2.3963
3.6742 4.3862 2.3963
3.5129 4.5148 2.3963
3.3471 4.6376 2.3963
3.1771 4.7544 2.3963
3.0032 4.8652 2.3963
2.8254 4.9698 2.3963
2.6442 5.0681 2.3963
2.4595 5.1599 2.3963
0.9149 2.1122 0.9650
0.8382 2.1441 0.9651
0.7604 2.1731 0.9651
0.6816 2.1994 0.9652
0.6019 2.2228 0.9652
0.5214 2.2433 0.9652
0.4402 2.2609 0.9651
0.3584 2.2755 0.9650
0.2762 2.2872 0.9649
0.1935 2.2959 0.9647
0.1106 2.3016 0.9646
0.0276 2.3043 0.9643
-0.0555 2.3040 0.9641
-0.1386 2.3007 0.9638
-0.2214 2.2944 0.9635
-0.3040 2.2851 0.9632
-0.3862 2.2728 0.9628
-0.4679 2.2576 0.9624
-0.5490 2.2394 0.9620
-0.6294 2.2183 0.9616
-0.7090 2.1943 0.9611
-0.7877 2.1675 0.9606
-0.8653 2.1378 0.9601
-2.3519 5.2578 2.3963
-2.5414 5.1730 2.3963
-2.7279 5.0815 2.3963
-2.9111 4.9833 2.3963
-3.0909 4.8787 2.3963
-3.2669 4.7677 2.3963
-3.4390 4.6504 2.3963
-3.6069 4.5270 2.3963
-3.7704 4.3976 2.3963
-3.9293 4.2624 2.3963
-4.0834 4.1215 2.3963
-4.2324 3.9751 2.3963
-4.3763 3.8234 2.3963
-4.5148 3.6665 2.3963
-4.6476 3.5047 2.3963
-4.7747 3.3381 2.3963
-4.8958 3.1669 2.3963
-5.0108 2.9914 2.3963
-5.1195 2.8117 2.3963
-5.2218 2.6282 2.3963
-5.3175 2.4409 2.3963
-5.4065 2.2502 2.3963
-5.4887 2.0562 2.3963
-5.5639 1.8593 2.3963
-5.6320 1.6597 2.3963
-5.6928 1.4574 2.3963
-5.7465 1.2535 2.3963
-5.7927 1.0470 2.3963
-5.8315 0.8389 2.3963
-5.8628 0.6296 2.3963
-5.8866 0.4192 2.3963
-5.9026 0.2076 2.3963
-5.9111 -0.0041 2.3963
-5.9119 -0.2167 2.3963
-5.9049 -0.4290 2.3963
-5.8903 -0.6411 2.3963
-5.8679 -0.8530 2.3963
-5.8379 -1.0634 2.3963
-5.8002 -1.2732 2.3963
-5.7549 -1.4813 2.3963
-5.7019 -1.6882 2.3963
-5.6415 -1.8932 2.3963
-5.5738 -2.0945 2.3963
-5.4985 -2.2947 2.3963
-5.4160 -2.4919 2.3963
-5.3262 -2.6860 2.3963
-5.2295 -2.8765 2.3963
-5.1257 -3.0639 2.3963
-5.0151 -3.2476 2.3963
-4.8979 -3.4265 2.3963
-4.7742 -3.6015 2.3963
-4.6440 -3.7719 2.3963
-4.5077 -3.9374 2.3963
-4.3654 -4.0979 2.3963
-4.2172 -4.2531 2.3963
-4.0634 -4.4028 2.3963
-3.9042 -4.5468 2.3963
-3.7397 -4.6849 2.3963
-3.5703 -4.8169 2.3963
-3.3961 -4.9426 2.3963
-3.2174 -5.0619 2.3963
-3.0344 -5.1746 2.3963
-2.8474 -5.2804 2.3963
-2.6566 -5.3794 2.3963
-2.4624 -5.4713 2.3963
-2.2648 -5.5560 2.3963
-2.0643 -5.6333 2.3963
-1.8611 -5.7033 2.3963
-1.6555 -5.7657 2.3963
-1.4477 -5.8206 2.3963
-1.2381 -5.8678 2.3963
-1.0270 -5.9072 2.3963
-0.8145 -5.9390 2.3963
-0.6011 -5.9629 2.3963
-0.3870 -5.9789 2.3963
-0.1726 -5.9870 2.3963
0.0420 -5.9874 2.3963
0.2564 -5.9798 2.3963
0.4703 -5.9644 2.3963
0.6834 -5.9412 2.3963
0.8955 -5.9102 2.3963
1.1062 -5.8715 2.3963
1.3152 -5.8252 2.3963
1.5223 -5.7712 2.3963
1.7272 -5.7098 2.3963
1.9297 -5.6409 2.3963
2.1294 -5.5648 2.3963
2.3260 -5.4815 2.3963
2.5195 -5.3910 2.3963
2.7093 -5.2937 2.3963
2.8954 -5.1896 2.3963
3.0775 -5.0788 2.3963
3.2553 -4.9615 2.3963
3.4287 -4.8380 2.3963
3.5973 -4.7083 2.3963
3.7610 -4.5727 2.3963
3.9196 -4.4313 2.3963
4.0728 -4.2844 2.3963
4.2206 -4.1321 2.3963
4.3626 -3.9746 2.3963
4.4987 -3.8123 2.3963
4.6288 -3.6453 2.3963
4.7526 -3.4737 2.3963
4.8702 -3.2980 2.3963
4.9812 -3.1183 2.3963
5.0856 -2.9348 2.3963
5.1832 -2.7478 2.3963
5.2740 -2.5576 2.3963
5.3579 -2.3644 2.3963
5.4346 -2.1684 2.3963
5.5043 -1.9699 2.3963
5.5667 -1.7693 2.3963
5.6218 -1.5666 2.3963
5.6696 -1.3620 2.3963
5.7102 -1.1570 2.3963
5.7432 -0.9496 2.3963
5.7688 -0.7418 2.3963
5.7869 -0.5334 2.3963
5.7976 -0.3246 2.3963
5.8008 -0.1156 2.3963
5.7966 0.0932 2.3963
5.7850 0.3014 2.3963
5.7659 0.5091 2.3963
5.7396 0.7158 2.3963
5.7059 0.9213 2.3963
5.6649 1.1253 2.3963
5.6168 1.3277 2.3963
5.5615 1.5280 2.3963
5.4992 1.7262 2.3963
5.4299 1.9219 2.3963
5.3539 2.1146 2.3963
5.2710 2.3052 2.3963
5.1815 2.4921 2.3963
5.0855 2.6757 2.3963
4.9832 2.8557 2.3963
4.8746 3.0319 2.3963
4.7598 3.2041 2.3963
4.6391 3.3721 2.3963
4.5126 3.5357 2.3963
4.3805 3.6945 2.3963
4.2429 3.8487 2.3963
4.0999 3.9977 2.3963
3.9519 4.1417 2.3963
3.7989 4.2803 2.3963
3.6411 4.4136 2.3963
3.4789 4.5404 2.3963
3.3122 4.6624 2.3963
3.1414 4.7780 2.3963
2.9666 4.8874 2.3963
2.7881 4.9907 2.3963
2.6061 5.0877 2.3963
2.4208 5.1781 2.3963
0.8990 2.1191 0.9650
0.8221 2.1503 0.9651
0.7441 2.1788 0.9652
0.6651 2.2045 0.9652
0.5853 2.2273 0.9652
0.5046 2.2472 0.9651
0.4233 2.2641 0.9651
0.3414 2.2782 0.9650
0.2590 2.2892 0.9649
0.1763 2.2973 0.9647
0.0934 2.3024 0.9645
0.0103 2.3045 0.9643
-0.0728 2.3035 0.9640
-0.1558 2.2996 0.9638
-0.2386 2.2927 0.9635
-0.3211 2.2828 0.9631
-0.4032 2.2699 0.9628
-0.4848 2.2541 0.9624
-0.5658 2.2353 0.9619
-0.6460 2.2136 0.9615
-0.7254 2.1890 0.9610
-0.8038 2.1616 0.9605
-0.8812 2.1313 0.9600
-2.3915 5.2408 2.3963
-2.5804 5.1546 2.3963
-2.7662 5.0617 2.3963
-2.9487 4.9622 2.3963
-3.1277 4.8562 2.3963
-3.3029 4.7439 2.3963
-3.4742 4.6253 2.3963
-3.6412 4.5006 2.3963
-3.8037 4.3700 2.3963
-3.9616 4.2336 2.3963
-4.1147 4.0916 2.3963
-4.2627 3.9441 2.3963
-4.4055 3.7913 2.3963
-4.5428 3.6333 2.3963
-4.6744 3.4705 2.3963
-4.8003 3.3029 2.3963
-4.9202 3.1309 2.3963
-5.0339 2.9545 2.3963
-5.1413 2.7740 2.3963
-5.2422 2.5896 2.3963
-5.3366 2.4016 2.3963
-5.4241 2.2102 2.3963
-5.5049 2.0156 2.3963
-5.5786 1.8181 2.3963
-5.6452 1.6180 2.3963
-5.7046 1.4154 2.3963
-5.7567 1.2105 2.3963
-5.8013 1.0037 2.3963
-5.8386 0.7956 2.3963
-5.8684 0.5859 2.3963
-5.8906 0.3757 2.3963
-5.9050 0.1637 2.3963
-5.9119 -0.0484 2.3963
-5.9111 -0.2605 2.3963
-5.9025 -0.4732 2.3963
-5.8862 -0.6854 2.3963
-5.8624 -0.8963 2.3963
-5.8307 -1.1072 2.3963
-5.7914 -1.3164 2.3963
-5.7445 -1.5244 2.3963
-5.6900 -1.7310 2.3963
-5.6282 -1.9344 2.3963
-5.5587 -2.1366 2.3963
-5.4820 -2.3357 2.3963
-5.3979 -2.5324 2.3963
-5.3067 -2.7258 2.3963
-5.2085 -2.9157 2.3963
-5.1033 -3.1026 2.3963
-4.9914 -3.2848 2.3963
-4.8728 -3.4634 2.3963
-4.7477 -3.6372 2.3963
-4.6163 -3.8066 2.3963
-4.4787 -3.9711 2.3963
-4.3351 -4.1305 2.3963
-4.1857 -4.2846 2.3963
-4.0308 -4.4332 2.3963
-3.8705 -4.5760 2.3963
-3.7050 -4.7128 2.3963
-3.5346 -4.8435 2.3963
-3.3594 -4.9679 2.3963
-3.1798 -5.0858 2.3963
-2.9960 -5.1971 2.3963
-2.8082 -5.3015 2.3963
-2.6166 -5.3990 2.3963
-2.4216 -5.4894 2.3963
-2.2235 -5.5726 2.3963
-2.0224 -5.6484 2.3963
-1.8187 -5.7169 2.3963
-1.6126 -5.7778 2.3963
-1.4044 -5.8310 2.3963
-1.1944 -5.8766 2.3963
-0.9830 -5.9145 2.3963
-0.7703 -5.9446 2.3963
-0.5568 -5.9668 2.3963
-0.3426 -5.9812 2.3963
-0.1280 -5.9878 2.3963
0.0865 -5.9864 2.3963
0.3008 -5.9773 2.3963
0.5146 -5.9602 2.3963
0.7275 -5.9354 2.3963
0.9393 -5.9028 2.3963
1.1497 -5.8625 2.3963
1.3583 -5.8146 2.3963
1.5650 -5.7591 2.3963
1.7694 -5.6961 2.3963
1.9713 -5.6257 2.3963
2.1704 -5.5481 2.3963
2.3664 -5.4633 2.3963
2.5591 -5.3714 2.3963
-4.6185 -3.1810 2.3963
-4.5035 -3.3459 2.3963
-4.3826 -3.5065 2.3963
-4.2558 -3.6627 2.3963
-4.1233 -3.8141 2.3963
-3.9854 -3.9607 2.3963
-3.8422 -4.1021 2.3963
-3.6938 -4.2383 2.3963
-3.5405 -4.3689 2.3963
-3.3825 -4.4939 2.3963
-3.2200 -4.6130 2.3963
-3.0532 -4.7261 2.3963
-2.8824 -4.8330 2.3963
-2.7078 -4.9336 2.3963
-2.5295 -5.0277 2.3963
-2.3480 -5.1153 2.3963
-2.1633 -5.1961 2.3963
-1.9758 -5.2701 2.3963
-1.7857 -5.3372 2.3963
-1.5934 -5.3973 2.3963
-1.3989 -5.4502 2.3963
-1.2027 -5.4960 2.3963
-1.0049 -5.5346 2.3963
-0.8059 -5.5659 2.3963
-0.6059 -5.5899 2.3963
-0.4052 -5.6066 2.3963
-0.2041 -5.6159 2.3963
-0.0028 -5.6178 2.3963
0.1983 -5.6123 2.3963
0.3991 -5.5995 2.3963
0.5992 -5.5794 2.3963
0.7983 -5.5520 2.3963
0.9963 -5.5173 2.3963
1.1928 -5.4755 2.3963
1.3875 -5.4265 2.3963
1.5802 -5.3705 2.3963
1.7707 -5.3074 2.3963
1.9587 -5.2376 2.3963
2.1439 -5.1610 2.3963
2.3261 -5.0777 2.3963
2.5051 -4.9878 2.3963
2.6805 -4.8916 2.3963
2.8523 -4.7891 2.3963
3.0201 -4.6805 2.3963
3.1838 -4.5660 2.3963
3.3432 -4.4456 2.3963
3.4979 -4.3197 2.3963
3.6479 -4.1883 2.3963
3.7929 -4.0516 2.3963
3.9328 -3.9098 2.3963
4.0675 -3.7632 2.3963
4.1966 -3.6119 2.3963
4.3201 -3.4561 2.3963
4.4378 -3.2961 2.3963
4.5496 -3.1321 2.3963
4.6553 -2.9642 2.3963
4.7548 -2.7928 2.3963
4.8480 -2.6180 2.3963
4.9349 -2.4404 2.3963
5.0152 -2.2593 2.3963
5.0889 -2.0759 2.3963
5.1559 -1.8901 2.3963
5.2162 -1.7021 2.3963
5.2696 -1.5122 2.3963
5.3162 -1.3207 2.3963
5.3559 -1.1277 2.3963
5.3886 -0.9336 2.3963
5.4144 -0.7386 2.3963
5.4331 -0.5429 2.3963
5.4448 -0.3468 2.3963
5.4496 -0.1505 2.3963
5.4473 0.0457 2.3963
5.4378 0.2431 2.3963
5.4218 0.4368 2.3963
5.3986 0.6313 2.3963
5.3686 0.8247 2.3963
5.3317 1.0167 2.3963
5.2880 1.2073 2.3963
5.2377 1.3961 2.3963
5.1807 1.5828 2.3963
5.1171 1.7673 2.3963
5.0471 1.9494 2.3963
4.9707 2.1287 2.3963
4.8880 2.3052 2.3963
4.7992 2.4785 2.3963
4.7043 2.6485 2.3963
4.6035 2.8150 2.3963
4.4970 2.9777 2.3963
4.3847 3.1366 2.3963
4.2670 3.2913 2.3963
4.1440 3.4416 2.3963
4.0157 3.5875 2.3963
3.8824 3.7288 2.3963
3.7443 3.8651 2.3963
3.6015 3.9966 2.3963
3.4541 4.1228 2.3963
3.3024 4.2438 2.3963
3.1466 4.3593 2.3963
2.9868 4.4692 2.3963
2.8233 4.5733 2.3963
2.6561 4.6719 2.3963
2.4857 4.7642 2.3963
2.3121 4.8505 2.3963
0.8587 1.9826 0.9635
0.7867 2.0125 0.9636
0.7137 2.0398 0.9637
0.6397 2.0644 0.9637
0.5649 2.0863 0.9637
0.4893 2.1056 0.9637
0.4131 2.1221 0.9636
0.3363 2.1358 0.9635
0.2591 2.1467 0.9634
0.1815 2.1549 0.9633
0.1037 2.1602 0.9631
0.0257 2.1628 0.9629
-0.0523 2.1625 0.9627
-0.1303 2.1594 0.9624
-0.2081 2.1535 0.9622
-0.2856 2.1448 0.9618
-0.3628 2.1332 0.9615
-0.4395 2.1189 0.9611
-0.5156 2.1019 0.9607
-0.5911 2.0821 0.9603
-0.6658 2.0596 0.9599
-0.7396 2.0344 0.9594
-0.8125 2.0065 0.9589
-0.8843 1.9761 0.9584
-2.3891 4.8608 2.3963
-2.5643 4.7746 2.3963
-2.7364 4.6822 2.3963
-2.9052 4.5837 2.3963
-3.0705 4.4792 2.3963
-3.2321 4.3688 2.3963
-3.3897 4.2527 2.3963
-3.5432 4.1309 2.3963
-3.6924 4.0037 2.3963
-3.8370 3.8712 2.3963
-3.9769 3.7335 2.3963
-4.1119 3.5908 2.3963
-4.2418 3.4433 2.3963
-4.3664 3.2911 2.3963
-4.4856 3.1345 2.3963
-4.5991 2.9736 2.3963
-4.7070 2.8086 2.3963
-4.8089 2.6397 2.3963
-4.9047 2.4672 2.3963
-4.9944 2.2912 2.3963
-5.0777 2.1120 2.3963
-5.1546 1.9298 2.3963
-5.2250 1.7448 2.3963
-5.2887 1.5572 2.3963
-5.3456 1.3674 2.3963
-5.3957 1.1755 2.3963
-5.4389 0.9818 2.3963
-5.4751 0.7865 2.3963
-5.5042 0.5898 2.3963
-5.5264 0.3929 2.3963
-5.5411 0.1938 2.3963
-5.5489 -0.0051 2.3963
-5.5493 -0.2046 2.3963
-5.5425 -0.4039 2.3963
-5.5286 -0.6030 2.3963
-5.5074 -0.8014 2.3963
-5.4790 -0.9993 2.3963
-5.4435 -1.1956 2.3963
-5.4006 -1.3916 2.3963
-5.3509 -1.5849 2.3963
-5.2940 -1.7770 2.3963
-5.2300 -1.9672 2.3963
-5.1594 -2.1542 2.3963
-5.0818 -2.3390 2.3963
-4.9974 -2.5212 2.3963
-4.9065 -2.6999 2.3963
-4.8091 -2.8755 2.3963
-4.7052 -3.0474 2.3963
-4.5951 -3.2155 2.3963
-4.4789 -3.3796 2.3963
-4.3567 -3.5393 2.3963
-4.2288 -3.6945 2.3963
-4.0952 -3.8449 2.3963
-3.9561 -3.9905 2.3963
-3.8118 -4.1308 2.3963
-3.6624 -4.2658 2.3963
-3.5081 -4.3953 2.3963
-3.3492 -4.5190 2.3963
-3.1858 -4.6369 2.3963
-3.0181 -4.7488 2.3963
-2.8465 -4.8544 2.3963
-2.6711 -4.9537 2.3963
-2.4921 -5.0464 2.3963
-2.3099 -5.1326 2.3963
-2.1246 -5.2120 2.3963
-1.9366 -5.2846 2.3963
-1.7460 -5.3502 2.3963
-1.5532 -5.4088 2.3963
-1.3583 -5.4603 2.3963
-1.1618 -5.5046 2.3963
-0.9637 -5.5417 2.3963
-0.7645 -5.5715 2.3963
-0.5643 -5.5940 2.3963
-0.3635 -5.6091 2.3963
-0.1623 -5.6169 2.3963
0.0389 -5.6172 2.3963
0.2400 -5.6103 2.3963
0.4407 -5.5960 2.3963
0.6406 -5.5743 2.3963
0.8395 -5.5454 2.3963
1.0372 -5.5092 2.3963
1.2333 -5.4659 2.3963
1.4277 -5.4154 2.3963
1.6200 -5.3580 2.3963
1.8099 -5.2935 2.3963
1.9974 -5.2222 2.3963
2.1820 -5.1442 2.3963
2.3635 -5.0596 2.3963
2.5418 -4.9684 2.3963
2.7165 -4.8709 2.3963
2.8875 -4.7671 2.3963
3.0544 -4.6572 2.3963
3.2172 -4.5415 2.3963
3.3756 -4.4200 2.3963
3.5294 -4.2928 2.3963
3.6784 -4.1603 2.3963
3.8224 -4.0226 2.3963
3.9612 -3.8798 2.3963
4.0947 -3.7322 2.3963
4.2227 -3.5799 2.3963
4.3450 -3.4233 2.3963
4.4615 -3.2624 2.3963
4.5720 -3.0976 2.3963
4.6764 -2.9290 2.3963
4.7747 -2.7568 2.3963
4.8666 -2.5814 2.3963
4.9526 -2.4061 2.3963
5.0310 -2.2215 2.3963
5.1033 -2.0375 2.3963
5.1690 -1.8512 2.3963
5.2278 -1.6629 2.3963
5.2799 -1.4726 2.3963
5.3250 -1.2807 2.3963
5.3633 -1.0875 2.3963
5.3945 -0.8932 2.3963
5.4188 -0.6980 2.3963
5.4361 -0.5022 2.3963
5.4464 -0.3061 2.3963
5.4497 -0.1098 2.3963
5.4459 0.0863 2.3963
5.4352 0.2821 2.3963
5.4175 0.4772 2.3963
5.3929 0.6715 2.3963
5.3615 0.8646 2.3963
5.3232 1.0564 2.3963
5.2781 1.2466 2.3963
5.2264 1.4350 2.3963
5.1680 1.6213 2.3963
5.1031 1.8053 2.3963
5.0317 1.9868 2.3963
4.9540 2.1656 2.3963
4.8701 2.3414 2.3963
4.7800 2.5141 2.3963
4.6839 2.6834 2.3963
4.5819 2.8491 2.3963
4.4741 3.0110 2.3963
4.3608 3.1690 2.3963
4.2419 3.3228 2.3963
4.1178 3.4723 2.3963
3.9885 3.6172 2.3963
3.8542 3.7575 2.3963
3.7151 3.8928 2.3963
3.5713 4.0232 2.3963
3.4230 4.1482 2.3963
3.2704 4.2682 2.3963
3.1138 4.3826 2.3963
2.9532 4.4912 2.3963
2.7889 4.5943 2.3963
2.6211 4.6914 2.3963
2.4500 4.7826 2.3963
0.9150 1.9571 0.9634
0.8439 1.9890 0.9636
0.7716 2.0184 0.9636
0.6984 2.0451 0.9637
0.6242 2.0692 0.9637
0.5493 2.0906 0.9637
0.4735 2.1092 0.9637
0.3972 2.1251 0.9636
0.3203 2.1383 0.9635
0.2430 2.1487 0.9634
0.1654 2.1562 0.9633
0.0875 2.1610 0.9631
0.0095 2.1630 0.9629
-0.0685 2.1621 0.9626
-0.1464 2.1584 0.9624
-0.2242 2.1519 0.9621
-0.3017 2.1426 0.9618
-0.3787 2.1305 0.9614
-0.4553 2.1156 0.9611
-0.5313 2.0980 0.9607
-0.6067 2.0776 0.9602
-0.6812 2.0546 0.9598
-0.7548 2.0288 0.9593
-0.8275 2.0004 0.9588
-0.8991 1.9694 0.9583
-2.4257 4.8434 2.3963
-2.6002 4.7560 2.3963
-2.7717 4.6623 2.3963
-2.9398 4.5625 2.3963
-3.1043 4.4568 2.3963
-3.2651 4.3452 2.3963
-3.4219 4.2279 2.3963
-3.5745 4.1050 2.3963
-3.7227 3.9767 2.3963
-3.8664 3.8431 2.3963
-4.0053 3.7043 2.3963
-4.1392 3.5606 2.3963
-4.2681 3.4121 2.3963
-4.3916 3.2590 2.3963
-4.5096 3.1014 2.3963
-4.6220 2.9397 2.3963
-4.7286 2.7738 2.3963
-4.8292 2.6042 2.3963
-4.9238 2.4309 2.3963
-5.0122 2.2543 2.3963
-5.0942 2.0744 2.3963
-5.1698 1.8916 2.3963
-5.2388 1.7061 2.3963
-5.3011 1.5180 2.3963
-5.3566 1.3277 2.3963
-5.4053 1.1354 2.3963
-5.4470 0.9414 2.3963
-5.4817 0.7458 2.3963
-5.5094 0.5489 2.3963
-5.5299 0.3509 2.3963
-5.5433 0.1525 2.3963
-5.5496 -0.0464 2.3963
-5.5485 -0.2461 2.3963
-5.5402 -0.4452 2.3963
-5.5248 -0.6442 2.3963
-5.5021 -0.8427 2.3963
-5.4722 -1.0400 2.3963
-5.4351 -1.2365 2.3963
-5.3909 -1.4315 2.3963
-5.3396 -1.6252 2.3963
-5.2813 -1.8167 2.3963
-5.2160 -2.0060 2.3963
-5.1438 -2.1928 2.3963
-5.0648 -2.3772 2.3963
-4.9792 -2.5582 2.3963
-4.8868 -2.7368 2.3963
-4.7880 -2.9115 2.3963
-4.6829 -3.0826 2.3963
-4.5715 -3.2499 2.3963
-4.4541 -3.4131 2.3963
-4.3307 -3.5719 2.3963
-4.2015 -3.7261 2.3963
-4.0668 -3.8755 2.3963
-3.9266 -4.0200 2.3963
-3.7812 -4.1593 2.3963
-3.6308 -4.2931 2.3963
-3.4755 -4.4214 2.3963
-3.3156 -4.5440 2.3963
-3.1513 -4.6606 2.3963
-2.9828 -4.7712 2.3963
-2.8104 -4.8755 2.3963
-2.6342 -4.9734 2.3963
-2.4546 -5.0649 2.3963
-2.2717 -5.1496 2.3963
-2.0859 -5.2276 2.3963
-1.8973 -5.2988 2.3963
-1.7062 -5.3630 2.3963
-1.5129 -5.4201 2.3963
-1.3177 -5.4701 2.3963
-1.1208 -5.5129 2.3963
-0.9225 -5.5485 2.3963
-0.7230 -5.5768 2.3963
-0.5227 -5.5977 2.3963
-0.3218 -5.6113 2.3963
-0.1206 -5.6176 2.3963
0.0807 -5.6164 2.3963
0.2817 -5.6079 2.3963
0.4822 -5.5921 2.3963
0.6820 -5.5689 2.3963
0.8806 -5.5385 2.3963
1.0780 -5.5008 2.3963
1.2738 -5.4560 2.3963
1.4677 -5.4041 2.3963
1.6596 -5.3452 2.3963
1.8490 -5.2793 2.3963
2.0359 -5.2066 2.3963
2.2199 -5.1272 2.3963
2.4008 -5.0412 2.3963
-4.3446 -2.9931 2.3963
-4.2364 -3.1482 2.3963
-4.1226 -3.2992 2.3963
-4.0032 -3.4460 2.3963
-3.8786 -3.5884 2.3963
-3.7488 -3.7262 2.3963
-3.6140 -3.8592 2.3963
-3.4744 -3.9871 2.3963
-3.3302 -4.1100 2.3963
-3.1816 -4.2274 2.3963
-3.0287 -4.3394 2.3963
-2.8719 -4.4457 2.3963
-2.7112 -4.5462 2.3963
-2.5470 -4.6408 2.3963
-2.3793 -4.7294 2.3963
-2.2086 -4.8117 2.3963
-2.0349 -4.8877 2.3963
-1.8586 -4.9573 2.3963
-1.6799 -5.0204 2.3963
-1.4989 -5.0769 2.3963
-1.3161 -5.1267 2.3963
-1.1315 -5.1699 2.3963
-0.9455 -5.2062 2.3963
-0.7584 -5.2357 2.3963
-0.5703 -5.2583 2.3963
-0.3816 -5.2740 2.3963
-0.1924 -5.2829 2.3963
-0.0031 -5.2847 2.3963
0.1861 -5.2797 2.3963
0.3749 -5.2678 2.3963
0.5631 -5.2489 2.3963
0.7504 -5.2233 2.3963
0.9367 -5.1908 2.3963
1.1215 -5.1515 2.3963
1.3047 -5.1056 2.3963
1.4860 -5.0530 2.3963
1.6653 -4.9939 2.3963
1.8422 -4.9283 2.3963
2.0164 -4.8564 2.3963
2.1879 -4.7782 2.3963
2.3564 -4.6938 2.3963
2.5215 -4.6034 2.3963
2.6832 -4.5071 2.3963
2.8412 -4.4051 2.3963
2.9953 -4.2975 2.3963
3.1454 -4.1844 2.3963
3.2911 -4.0660 2.3963
3.4324 -3.9425 2.3963
3.5690 -3.8140 2.3963
3.7008 -3.6807 2.3963
3.8277 -3.5429 2.3963
3.9494 -3.4006 2.3963
4.0658 -3.2541 2.3963
4.1767 -3.1037 2.3963
4.2821 -2.9494 2.3963
4.3818 -2.7915 2.3963
4.4757 -2.6302 2.3963
4.5636 -2.4658 2.3963
4.6455 -2.2983 2.3963
4.7214 -2.1286 2.3963
4.7910 -1.9561 2.3963
4.8543 -1.7808 2.3963
4.9112 -1.6038 2.3963
4.9618 -1.4251 2.3963
5.0058 -1.2448 2.3963
5.0434 -1.0631 2.3963
5.0744 -0.8804 2.3963
5.0988 -0.6967 2.3963
5.1167 -0.5124 2.3963
5.1279 -0.3277 2.3963
5.1326 -0.1428 2.3963
5.1306 0.0419 2.3963
5.1221 0.2265 2.3963
5.1070 0.4104 2.3963
5.0853 0.5936 2.3963
5.0572 0.7759 2.3963
5.0226 0.9568 2.3963
4.9817 1.1364 2.3963
4.9344 1.3143 2.3963
4.8808 1.4903 2.3963
4.8210 1.6642 2.3963
4.7552 1.8358 2.3963
4.6833 2.0048 2.3963
4.6056 2.1711 2.3963
4.5220 2.3346 2.3963
4.4327 2.4948 2.3963
4.3378 2.6518 2.3963
4.2375 2.8052 2.3963
4.1318 2.9549 2.3963
4.0210 3.1008 2.3963
3.9051 3.2423 2.3963
3.7842 3.3804 2.3963
3.6587 3.5134 2.3963
3.5286 3.6417 2.3963
3.3940 3.7658 2.3963
3.2551 3.8848 2.3963
3.1122 3.9989 2.3963
2.9654 4.1078 2.3963
2.8148 4.2114 2.3963
2.6606 4.3097 2.3963
2.5032 4.4024 2.3963
2.3425 4.4895 2.3963
0.8748 1.8352 0.9621
0.8081 1.8658 0.9622
0.7403 1.8939 0.9623
0.6716 1.9196 0.9624
0.6020 1.9427 0.9624
0.5315 1.9634 0.9624
0.4604 1.9815 0.9624
0.3886 1.9970 0.9623
0.3164 2.0099 0.9622
0.2437 2.0202 0.9621
0.1706 2.0279 0.9620
0.0974 2.0329 0.9618
0.0240 2.0353 0.9616
-0.0494 2.0350 0.9614
-0.1228 2.0321 0.9612
-0.1960 2.0265 0.9609
-0.2690 2.0183 0.9606
-0.3416 2.0075 0.9603
-0.4138 1.9940 0.9600
-0.4855 1.9779 0.9596
-0.5565 1.9593 0.9592
-0.6269 1.9381 0.9588
-0.6964 1.9144 0.9584
-0.7650 1.8882 0.9579
-0.8326 1.8595 0.9574
-0.8991 1.8285 0.9569
-2.4165 4.4975 2.3963
-2.5786 4.4103 2.3963
-2.7375 4.3174 2.3963
-2.8932 4.2187 2.3963
-3.0453 4.1146 2.3963
-3.1937 4.0051 2.3963
-3.3382 3.8902 2.3963
-3.4785 3.7703 2.3963
-3.6146 3.6453 2.3963
-3.7463 3.5155 2.3963
-3.8733 3.3809 2.3963
-3.9954 3.2419 2.3963
-4.1126 3.0984 2.3963
-4.2247 2.9508 2.3963
-4.3315 2.7991 2.3963
-4.4329 2.6437 2.3963
-4.5286 2.4845 2.3963
-4.6187 2.3220 2.3963
-4.7029 2.1562 2.3963
-4.7812 1.9874 2.3963
-4.8534 1.8157 2.3963
-4.9195 1.6415 2.3963
-4.9792 1.4649 2.3963
-5.0326 1.2861 2.3963
-5.0796 1.1054 2.3963
-5.1200 0.9230 2.3963
-5.1539 0.7392 2.3963
-5.1811 0.5541 2.3963
-5.2016 0.3681 2.3963
-5.2154 0.1813 2.3963
-5.2225 -0.0060 2.3963
-5.2227 -0.1935 2.3963
-5.2162 -0.3810 2.3963
-5.2029 -0.5683 2.3963
-5.1827 -0.7551 2.3963
-5.1558 -0.9411 2.3963
-5.1222 -1.1261 2.3963
-5.0818 -1.3099 2.3963
-5.0348 -1.4922 2.3963
-4.9811 -1.6727 2.3963
-4.9209 -1.8513 2.3963
-4.8541 -2.0276 2.3963
-4.7810 -2.2015 2.3963
-4.7015 -2.3727 2.3963
-4.6159 -2.5409 2.3963
-4.5241 -2.7060 2.3963
-4.4263 -2.8676 2.3963
-4.3226 -3.0256 2.3963
-4.2132 -3.1798 2.3963
-4.0982 -3.3300 2.3963
-3.9778 -3.4759 2.3963
-3.8521 -3.6174 2.3963
-3.7212 -3.7542 2.3963
-3.5854 -3.8861 2.3963
-3.4449 -4.0131 2.3963
-3.2997 -4.1348 2.3963
-3.1502 -4.2511 2.3963
-2.9965 -4.3619 2.3963
-2.8389 -4.4671 2.3963
-2.6774 -4.5664 2.3963
-2.5125 -4.6597 2.3963
-2.3442 -4.7469 2.3963
-2.1728 -4.8280 2.3963
-1.9986 -4.9027 2.3963
-1.8217 -4.9709 2.3963
-1.6425 -5.0327 2.3963
-1.4611 -5.0878 2.3963
-1.2779 -5.1363 2.3963
-1.0931 -5.1780 2.3963
-0.9068 -5.2129 2.3963
-0.7194 -5.2410 2.3963
-0.5312 -5.2622 2.3963
-0.3424 -5.2764 2.3963
-0.1532 -5.2838 2.3963
0.0361 -5.2843 2.3963
0.2253 -5.2778 2.3963
0.4140 -5.2644 2.3963
0.6021 -5.2442 2.3963
0.7892 -5.2171 2.3963
0.9751 -5.1832 2.3963
1.1596 -5.1426 2.3963
1.3425 -5.0952 2.3963
1.5234 -5.0413 2.3963
1.7022 -4.9808 2.3963
1.8785 -4.9139 2.3963
2.0523 -4.8407 2.3963
2.2231 -4.7611 2.3963
2.3909 -4.6755 2.3963
2.5554 -4.5839 2.3963
2.7163 -4.4865 2.3963
2.8735 -4.3833 2.3963
3.0268 -4.2745 2.3963
3.1760 -4.1603 2.3963
3.3208 -4.0408 2.3963
3.4611 -3.9162 2.3963
3.5968 -3.7867 2.3963
3.7276 -3.6525 2.3963
3.8533 -3.5137 2.3963
3.9739 -3.3706 2.3963
4.0892 -3.2233 2.3963
4.1990 -3.0720 2.3963
4.3033 -2.9169 2.3963
4.4017 -2.7583 2.3963
4.4944 -2.5964 2.3963
4.5811 -2.4311 2.3963
4.6618 -2.2633 2.3963
4.7363 -2.0925 2.3963
4.8046 -1.9196 2.3963
4.8666 -1.7442 2.3963
4.9222 -1.5669 2.3963
4.9714 -1.3878 2.3963
5.0141 -1.2072 2.3963
5.0504 -1.0253 2.3963
5.0800 -0.8423 2.3963
5.1031 -0.6585 2.3963
5.1196 -0.4741 2.3963
5.1294 -0.2894 2.3963
5.1327 -0.1045 2.3963
5.1294 0.0803 2.3963
5.1195 0.2647 2.3963
5.1030 0.4485 2.3963
5.0800 0.6315 2.3963
5.0506 0.8135 2.3963
5.0147 0.9942 2.3963
4.9724 1.1734 2.3963
4.9238 1.3510 2.3963
4.8689 1.5265 2.3963
4.8079 1.7000 2.3963
4.7408 1.8711 2.3963
4.6677 2.0396 2.3963
4.5887 2.2053 2.3963
4.5039 2.3680 2.3963
4.4135 2.5277 2.3963
4.3175 2.6839 2.3963
4.2160 2.8365 2.3963
4.1093 2.9855 2.3963
3.9974 3.1305 2.3963
3.8804 3.2714 2.3963
3.7586 3.4081 2.3963
3.6321 3.5403 2.3963
3.5010 3.6680 2.3963
3.3655 3.7908 2.3963
3.2258 3.9089 2.3963
3.0821 4.0219 2.3963
2.9344 4.1296 2.3963
2.7831 4.2322 2.3963
2.6282 4.3295 2.3963
2.4701 4.4209 2.3963
2.3088 4.5069 2.3963
0.8611 1.8417 0.9621
0.7941 1.8718 0.9622
0.7262 1.8994 0.9623
0.6572 1.9246 0.9624
0.5874 1.9472 0.9624
0.5168 1.9673 0.9624
0.4455 1.9849 0.9624
0.3737 1.9999 0.9623
0.3013 2.0123 0.9622
0.2285 2.0220 0.9621
0.1555 2.0291 0.9620
0.0822 2.0336 0.9618
0.0088 2.0354 0.9616
-0.0647 2.0346 0.9614
-0.1380 2.0312 0.9611
-0.2112 2.0250 0.9609
-0.2841 2.0163 0.9606
-0.3567 2.0049 0.9602
-0.4288 1.9909 0.9599
-0.5003 1.9743 0.9595
-0.5712 1.9551 0.9591
-0.6413 1.9334 0.9587
-0.7107 1.9092 0.9583
-0.7791 1.8825 0.9578
-0.8465 1.8533 0.9573
-0.9127 1.8217 0.9568
-2.4504 4.4799 2.3963
-2.6118 4.3915 2.3963
-2.7701 4.2974 2.3963
-2.9250 4.1976 2.3963
-3.0764 4.0923 2.3963
-3.2240 3.9817 2.3963
-3.3676 3.8658 2.3963
-3.5071 3.7448 2.3963
-3.6423 3.6188 2.3963
-3.7730 3.4879 2.3963
-3.8990 3.3525 2.3963
-4.0202 3.2125 2.3963
-4.1363 3.0681 2.3963
-4.2473 2.9196 2.3963
-4.3530 2.7672 2.3963
-4.4532 2.6109 2.3963
-4.5478 2.4511 2.3963
-4.6367 2.2878 2.3963
-4.7197 2.1214 2.3963
-4.7967 1.9520 2.3963
-4.8677 1.7798 2.3963
-4.9324 1.6050 2.3963
-4.9908 1.4280 2.3963
-5.0429 1.2488 2.3963
-5.0885 1.0677 2.3963
-5.1276 0.8850 2.3963
-5.1601 0.7009 2.3963
-5.1859 0.5156 2.3963
-5.2051 0.3294 2.3963
-5.2175 0.1425 2.3963
-5.2231 -0.0449 2.3963
-5.2219 -0.2324 2.3963
-5.2140 -0.4199 2.3963
-5.1993 -0.6071 2.3963
-5.1777 -0.7937 2.3963
-5.1494 -0.9796 2.3963
-5.1144 -1.1643 2.3963
-5.0726 -1.3478 2.3963
-5.0242 -1.5298 2.3963
-4.9691 -1.7099 2.3963
-4.9075 -1.8881 2.3963
-4.8395 -2.0639 2.3963
-4.7650 -2.2372 2.3963
-4.6843 -2.4078 2.3963
-4.5973 -2.5754 2.3963
-4.5043 -2.7398 2.3963
-4.4053 -2.9007 2.3963
-4.3004 -3.0579 2.3963
-4.1898 -3.2113 2.3963
-4.0737 -3.3606 2.3963
-3.9522 -3.5056 2.3963
-3.8254 -3.6461 2.3963
-3.6935 -3.7819 2.3963
-3.5567 -3.9129 2.3963
-3.4151 -4.0387 2.3963
-3.2691 -4.1593 2.3963
-3.1187 -4.2745 2.3963
-2.9641 -4.3842 2.3963
-2.8057 -4.4882 2.3963
-2.6435 -4.5862 2.3963
-2.4778 -4.6783 2.3963
-2.3089 -4.7643 2.3963
-2.1369 -4.8440 2.3963
-1.9621 -4.9173 2.3963
-1.7847 -4.9843 2.3963
-1.6050 -5.0446 2.3963
-1.4233 -5.0984 2.3963
-1.2397 -5.1455 2.3963
-1.0545 -5.1858 2.3963
-0.8680 -5.2192 2.3963
-0.6805 -5.2459 2.3963
-0.4921 -5.2657 2.3963
-0.3031 -5.2785 2.3963
-0.1139 -5.2845 2.3963
0.0754 -5.2835 2.3963
0.2645 -5.2756 2.3963
0.4531 -5.2608 2.3963
0.6410 -5.2391 2.3963
0.8279 -5.2106 2.3963
1.0135 -5.1753 2.3963
1.1977 -5.1333 2.3963
1.3802 -5.0846 2.3963
1.5607 -5.0293 2.3963
1.7389 -4.9675 2.3963
1.9148 -4.8992 2.3963
2.0879 -4.8247 2.3963
2.2582 -4.7439 2.3963
-4.0966 -2.8230 2.3963
-3.9945 -2.9692 2.3963
-3.8871 -3.1115 2.3963
-3.7746 -3.2499 2.3963
-3.6570 -3.3840 2.3963
-3.5346 -3.5139 2.3963
-3.4075 -3.6392 2.3963
-3.2758 -3.7598 2.3963
-3.1399 -3.8755 2.3963
-2.9997 -3.9862 2.3963
-2.8556 -4.0918 2.3963
-2.7077 -4.1920 2.3963
-2.5562 -4.2867 2.3963
-2.4014 -4.3758 2.3963
-2.2434 -4.4593 2.3963
-2.0824 -4.5369 2.3963
-1.9187 -4.6085 2.3963
-1.7525 -4.6741 2.3963
-1.5840 -4.7336 2.3963
-1.4134 -4.7869 2.3963
-1.2411 -4.8339 2.3963
-1.0671 -4.8746 2.3963
-0.8918 -4.9089 2.3963
-0.7154 -4.9367 2.3963
-0.5381 -4.9581 2.3963
-0.3602 -4.9730 2.3963
-0.1819 -4.9814 2.3963
-0.0034 -4.9832 2.3963
0.1750 -4.9786 2.3963
0.3530 -4.9674 2.3963
0.5304 -4.9497 2.3963
0.7071 -4.9256 2.3963
0.8827 -4.8951 2.3963
1.0569 -4.8582 2.3963
1.2297 -4.8150 2.3963
1.4007 -4.7655 2.3963
1.5698 -4.7099 2.3963
1.7366 -4.6482 2.3963
1.9010 -4.5805 2.3963
2.0627 -4.5068 2.3963
2.2216 -4.4274 2.3963
2.3775 -4.3423 2.3963
2.5300 -4.2516 2.3963
2.6791 -4.1556 2.3963
2.8246 -4.0542 2.3963
2.9662 -3.9476 2.3963
3.1037 -3.8361 2.3963
3.2371 -3.7197 2.3963
3.3661 -3.5987 2.3963
3.4905 -3.4731 2.3963
3.6103 -3.3432 2.3963
3.7252 -3.2091 2.3963
3.8352 -3.0710 2.3963
3.9400 -2.9291 2.3963
4.0396 -2.7837 2.3963
4.1338 -2.6348 2.3963
4.2225 -2.4827 2.3963
4.3056 -2.3276 2.3963
4.3831 -2.1699 2.3963
4.4548 -2.0093 2.3963
4.5207 -1.8470 2.3963
4.5806 -1.6818 2.3963
4.6345 -1.5148 2.3963
4.6823 -1.3458 2.3963
4.7241 -1.1761 2.3963
4.7597 -1.0045 2.3963
4.7892 -0.8320 2.3963
4.8124 -0.6586 2.3963
4.8294 -0.4847 2.3963
4.8402 -0.3104 2.3963
4.8448 -0.1359 2.3963
4.8431 0.0385 2.3963
4.8352 0.2128 2.3963
4.8211 0.3864 2.3963
4.8008 0.5594 2.3963
4.7744 0.7315 2.3963
4.7419 0.9024 2.3963
4.7034 1.0720 2.3963
4.6588 1.2399 2.3963
4.6084 1.4062 2.3963
4.5521 1.5704 2.3963
4.4900 1.7325 2.3963
4.4223 1.8922 2.3963
4.3489 2.0494 2.3963
4.2701 2.2037 2.3963
4.1859 2.3551 2.3963
4.0964 2.5034 2.3963
4.0017 2.6483 2.3963
3.9019 2.7904 2.3963
3.7973 2.9277 2.3963
3.6880 3.0616 2.3963
3.5739 3.1915 2.3963
3.4554 3.3173 2.3963
3.3325 3.4389 2.3963
3.2054 3.5560 2.3963
3.0743 3.6685 2.3963
2.9393 3.7762 2.3963
2.8006 3.8791 2.3963
2.6584 3.9771 2.3963
2.5128 4.0699 2.3963
2.3641 4.1575 2.3963
0.8870 1.6999 0.9608
0.8252 1.7310 0.9609
0.7622 1.7598 0.9610
0.6983 1.7864 0.9611
0.6334 1.8106 0.9612
0.5677 1.8324 0.9612
0.5013 1.8519 0.9612
0.4342 1.8690 0.9612
0.3665 1.8836 0.9611
0.2983 1.8958 0.9610
0.2297 1.9055 0.9609
0.1608 1.9127 0.9608
0.0917 1.9174 0.9607
0.0225 1.9197 0.9605
-0.0468 1.9194 0.9603
-0.1160 1.9166 0.9601
-0.1851 1.9114 0.9598
-0.2540 1.9036 0.9595
-0.3225 1.8934 0.9592
-0.3906 1.8807 0.9589
-0.4582 1.8656 0.9586
-0.5252 1.8480 0.9582
-0.5916 1.8280 0.9578
-0.6571 1.8056 0.9574
-0.7218 1.7809 0.9569
-0.7856 1.7539 0.9565
-0.8484 1.7246 0.9560
-0.9100 1.6930 0.9555
-2.4352 4.1633 2.3963
-2.5852 4.0754 2.3963
-2.7321 3.9822 2.3963
-2.8756 3.8838 2.3963
-3.0156 3.7802 2.3963
-3.1520 3.6717 2.3963
-3.2844 3.5583 2.3963
-3.4127 3.4402 2.3963
-3.5369 3.3175 2.3963
-3.6566 3.1904 2.3963
-3.7718 3.0590 2.3963
-3.8823 2.9235 2.3963
-3.9880 2.7841 2.3963
-4.0886 2.6408 2.3963
-4.1841 2.4940 2.3963
-4.2744 2.3437 2.3963
-4.3592 2.1902 2.3963
-4.4385 2.0337 2.3963
-4.5122 1.8743 2.3963
-4.5802 1.7123 2.3963
-4.6424 1.5478 2.3963
-4.6986 1.3811 2.3963
-4.7488 1.2124 2.3963
-4.7929 1.0419 2.3963
-4.8309 0.8698 2.3963
-4.8627 0.6963 2.3963
-4.8882 0.5217 2.3963
-4.9074 0.3462 2.3963
-4.9202 0.1700 2.3963
-4.9267 -0.0067 2.3963
-4.9267 -0.1836 2.3963
-4.9204 -0.3604 2.3963
-4.9077 -0.5371 2.3963
-4.8885 -0.7132 2.3963
-4.8630 -0.8886 2.3963
-4.8311 -1.0631 2.3963
-4.7929 -1.2364 2.3963
-4.7484 -1.4082 2.3963
-4.6976 -1.5784 2.3963
-4.6407 -1.7468 2.3963
-4.5777 -1.9130 2.3963
-4.5086 -2.0769 2.3963
-4.4335 -2.2382 2.3963
-4.3527 -2.3968 2.3963
-4.2660 -2.5524 2.3963
-4.1737 -2.7047 2.3963
-4.0759 -2.8537 2.3963
-3.9727 -2.9990 2.3963
-3.8642 -3.1405 2.3963
-3.7506 -3.2780 2.3963
-3.6320 -3.4113 2.3963
-3.5086 -3.5403 2.3963
-3.3805 -3.6646 2.3963
-3.2480 -3.7842 2.3963
-3.1111 -3.8989 2.3963
-2.9702 -4.0085 2.3963
-2.8252 -4.1130 2.3963
-2.6766 -4.2121 2.3963
-2.5244 -4.3057 2.3963
-2.3689 -4.3936 2.3963
-2.2102 -4.4758 2.3963
-2.0487 -4.5522 2.3963
-1.8844 -4.6226 2.3963
-1.7177 -4.6870 2.3963
-1.5488 -4.7452 2.3963
-1.3778 -4.7972 2.3963
-1.2051 -4.8429 2.3963
-1.0309 -4.8822 2.3963
-0.8553 -4.9152 2.3963
-0.6787 -4.9417 2.3963
-0.5012 -4.9617 2.3963
-0.3232 -4.9753 2.3963
-0.1448 -4.9823 2.3963
0.0336 -4.9828 2.3963
0.2119 -4.9768 2.3963
0.3898 -4.9643 2.3963
0.5672 -4.9453 2.3963
0.7436 -4.9198 2.3963
0.9189 -4.8880 2.3963
1.0929 -4.8497 2.3963
1.2653 -4.8052 2.3963
1.4360 -4.7545 2.3963
1.6046 -4.6976 2.3963
1.7709 -4.6346 2.3963
1.9348 -4.5657 2.3963
2.0959 -4.4908 2.3963
2.2542 -4.4102 2.3963
2.4094 -4.3240 2.3963
2.5613 -4.2322 2.3963
2.7096 -4.1350 2.3963
2.8543 -4.0325 2.3963
2.9950 -3.9249 2.3963
3.1318 -3.8124 2.3963
3.2642 -3.6950 2.3963
3.3923 -3.5730 2.3963
3.5158 -3.4465 2.3963
3.6345 -3.3157 2.3963
3.7484 -3.1808 2.3963
3.8573 -3.0419 2.3963
3.9611 -2.8993 2.3963
4.0595 -2.7531 2.3963
4.1526 -2.6036 2.3963
4.2402 -2.4508 2.3963
4.3222 -2.2952 2.3963
4.3985 -2.1367 2.3963
4.4690 -1.9760 2.3963
4.5336 -1.8127 2.3963
4.5923 -1.6472 2.3963
4.6449 -1.4798 2.3963
4.6915 -1.3105 2.3963
4.7320 -1.1404 2.3963
4.7664 -0.9688 2.3963
4.7945 -0.7961 2.3963
4.8165 -0.6227 2.3963
4.8322 -0.4486 2.3963
4.8417 -0.2742 2.3963
4.8449 -0.0997 2.3963
4.8420 0.0747 2.3963
4.8328 0.2488 2.3963
4.8174 0.4224 2.3963
4.7958 0.5952 2.3963
4.7682 0.7670 2.3963
4.7344 0.9377 2.3963
4.6946 1.1070 2.3963
4.6489 1.2746 2.3963
4.5972 1.4404 2.3963
4.5397 1.6043 2.3963
4.4765 1.7658 2.3963
4.4075 1.9250 2.3963
4.3330 2.0816 2.3963
4.2531 2.2354 2.3963
4.1678 2.3861 2.3963
4.0772 2.5337 2.3963
3.9814 2.6780 2.3963
3.8807 2.8187 2.3963
3.7751 2.9554 2.3963
3.6647 3.0889 2.3963
3.5498 3.2176 2.3963
3.4302 3.3429 2.3963
3.3065 3.4636 2.3963
3.1785 3.5797 2.3963
3.0466 3.6912 2.3963
2.9108 3.7980 2.3963
2.7714 3.8999 2.3963
2.6285 3.9967 2.3963
2.4822 4.0885 2.3963
2.3328 4.1750 2.3963
0.8743 1.7066 0.9608
0.8122 1.7372 0.9609
0.7490 1.7655 0.9610
0.6849 1.7916 0.9611
0.6199 1.8153 0.9612
0.5540 1.8367 0.9612
0.4874 1.8556 0.9612
0.4202 1.8722 0.9612
0.3524 1.8863 0.9611
0.2841 1.8980 0.9610
0.2154 1.9072 0.9609
0.1465 1.9139 0.9608
0.0773 1.9181 0.9606
0.0081 1.9198 0.9604
-0.0612 1.9191 0.9602
-0.1304 1.9158 0.9600
-0.1994 1.9100 0.9597
-0.2682 1.9017 0.9595
-0.3367 1.8910 0.9592
-0.4047 1.8778 0.9588
-0.4722 1.8621 0.9585
-0.5390 1.8440 0.9581
-0.6052 1.8236 0.9577
-0.6706 1.8007 0.9573
-0.7352 1.7755 0.9568
-0.7987 1.7480 0.9564
-0.8613 1.7182 0.9559
-2.3142 4.2291 2.3963
-2.4666 4.1455 2.3963
-2.6160 4.0565 2.3963
-2.7622 3.9622 2.3963
-2.9050 3.8627 2.3963
-3.0442 3.7581 2.3963
-3.1797 3.6486 2.3963
-3.3113 3.5342 2.3963
-3.4389 3.4151 2.3963
-3.5621 3.2915 2.3963
-3.6809 3.1635 2.3963
-3.7952 3.0312 2.3963
-3.9047 2.8949 2.3963
-4.0093 2.7547 2.3963
-4.1089 2.6107 2.3963
-4.2033 2.4631 2.3963
-4.2924 2.3122 2.3963
-4.3761 2.1580 2.3963
-4.4543 2.0009 2.3963
-4.5268 1.8409 2.3963
-4.5936 1.6784 2.3963
-4.6545 1.5134 2.3963
-4.7095 1.3463 2.3963
-4.7585 1.1772 2.3963
-4.8013 1.0063 2.3963
-4.8380 0.8339 2.3963
-4.8685 0.6602 2.3963
-4.8927 0.4853 2.3963
-4.9105 0.3097 2.3963
-4.9221 0.1333 2.3963
-4.9272 -0.0434 2.3963
-4.9260 -0.2203 2.3963
-4.9183 -0.3971 2.3963
-4.9042 -0.5736 2.3963
-4.8838 -0.7497 2.3963
-4.8569 -0.9249 2.3963
-4.8237 -1.0991 2.3963
-4.7842 -1.2721 2.3963
-4.7384 -1.4437 2.3963
-4.6863 -1.6135 2.3963
-4.6281 -1.7814 2.3963
-4.5638 -1.9472 2.3963
-4.4935 -2.1106 2.3963
-4.4172 -2.2714 2.3963
-4.3352 -2.4293 2.3963
-4.2473 -2.5843 2.3963
-4.1539 -2.7359 2.3963
-4.0549 -2.8842 2.3963
-3.9506 -3.0287 2.3963
-3.8410 -3.1694 2.3963
-3.7264 -3.3061 2.3963
-3.6068 -3.4384 2.3963
-3.4824 -3.5664 2.3963
-3.3534 -3.6898 2.3963
-3.2199 -3.8084 2.3963
-3.0822 -3.9221 2.3963
-2.9404 -4.0307 2.3963
-2.7947 -4.1340 2.3963
-2.6453 -4.2319 2.3963
-2.4924 -4.3244 2.3963
-2.3362 -4.4111 2.3963
-2.1769 -4.4922 2.3963
-2.0148 -4.5673 2.3963
-1.8500 -4.6365 2.3963
-1.6829 -4.6996 2.3963
-1.5135 -4.7565 2.3963
-1.3421 -4.8072 2.3963
-1.1691 -4.8515 2.3963
-0.9945 -4.8896 2.3963
-0.8187 -4.9212 2.3963
-0.6419 -4.9464 2.3963
-0.4643 -4.9651 2.3963
-0.2862 -4.9773 2.3963
-0.1078 -4.9829 2.3963
0.0706 -4.9821 2.3963
0.2489 -4.9747 2.3963
0.4267 -4.9609 2.3963
0.6038 -4.9405 2.3963
0.7801 -4.9137 2.3963
0.9551 -4.8806 2.3963
1.1288 -4.8410 2.3963
1.3009 -4.7952 2.3963
1.4711 -4.7432 2.3963
1.6392 -4.6850 2.3963
1.8051 -4.6208 2.3963
1.9684 -4.5506 2.3963
2.1290 -4.4746 2.3963
-3.8708 -2.6682 2.3963
-3.7743 -2.8061 2.3963
-3.6728 -2.9406 2.3963
-3.5664 -3.0712 2.3963
-3.4552 -3.1980 2.3963
-3.3395 -3.3206 2.3963
-3.2194 -3.4389 2.3963
-3.0950 -3.5528 2.3963
-2.9666 -3.6621 2.3963
-2.8341 -3.7667 2.3963
-2.6980 -3.8663 2.3963
-2.5583 -3.9609 2.3963
-2.4152 -4.0504 2.3963
-2.2689 -4.1346 2.3963
-2.1196 -4.2134 2.3963
-1.9675 -4.2867 2.3963
-1.8129 -4.3544 2.3963
-1.6559 -4.4164 2.3963
-1.4967 -4.4726 2.3963
-1.3356 -4.5229 2.3963
-1.1728 -4.5673 2.3963
-1.0085 -4.6058 2.3963
-0.8429 -4.6382 2.3963
-0.6762 -4.6646 2.3963
-0.5088 -4.6848 2.3963
-0.3407 -4.6989 2.3963
-0.1722 -4.7069 2.3963
-0.0037 -4.7087 2.3963
0.1648 -4.7044 2.3963
0.3330 -4.6939 2.3963
0.5007 -4.6773 2.3963
0.6676 -4.6546 2.3963
0.8335 -4.6258 2.3963
0.9982 -4.5911 2.3963
1.1614 -4.5503 2.3963
1.3230 -4.5037 2.3963
1.4828 -4.4512 2.3963
1.6404 -4.3930 2.3963
1.7958 -4.3291 2.3963
1.9487 -4.2597 2.3963
2.0989 -4.1847 2.3963
2.2462 -4.1044 2.3963
2.3905 -4.0189 2.3963
2.5314 -3.9282 2.3963
2.6689 -3.8324 2.3963
2.8029 -3.7319 2.3963
2.9330 -3.6266 2.3963
3.0591 -3.5167 2.3963
3.1811 -3.4024 2.3963
3.2988 -3.2838 2.3963
3.4121 -3.1611 2.3963
3.5209 -3.0345 2.3963
3.6249 -2.9040 2.3963
3.7241 -2.7700 2.3963
3.8184 -2.6326 2.3963
3.9076 -2.4920 2.3963
3.9916 -2.3483 2.3963
4.0704 -2.2017 2.3963
4.1437 -2.0525 2.3963
4.2117 -1.9009 2.3963
4.2741 -1.7471 2.3963
4.3309 -1.5911 2.3963
4.3820 -1.4333 2.3963
4.4274 -1.2739 2.3963
4.4671 -1.1130 2.3963
4.5009 -0.9512 2.3963
4.5289 -0.7879 2.3963
4.5512 -0.6249 2.3963
4.5673 -0.4595 2.3963
4.5776 -0.2946 2.3963
4.5821 -0.1296 2.3963
4.5806 0.0355 2.3963
4.5733 0.2002 2.3963
4.5601 0.3645 2.3963
4.5410 0.5282 2.3963
4.5162 0.6909 2.3963
4.4856 0.8527 2.3963
4.4492 1.0131 2.3963
4.4072 1.1721 2.3963
4.3596 1.3294 2.3963
4.3064 1.4848 2.3963
4.2478 1.6382 2.3963
4.1838 1.7894 2.3963
4.1147 1.9373 2.3963
4.0400 2.0841 2.3963
3.9603 2.2278 2.3963
3.8758 2.3678 2.3963
3.7863 2.5050 2.3963
3.6920 2.6390 2.3963
3.5930 2.7693 2.3963
3.4896 2.8961 2.3963
3.3817 3.0193 2.3963
3.2695 3.1383 2.3963
3.1533 3.2534 2.3963
3.0330 3.3643 2.3963
2.9090 3.4707 2.3963
2.7812 3.5729 2.3963
2.6501 3.6702 2.3963
2.5155 3.7629 2.3963
2.3777 3.8508 2.3963
0.8958 1.5752 0.9596
0.8384 1.6066 0.9597
0.7799 1.6360 0.9598
0.7204 1.6632 0.9599
0.6599 1.6883 0.9600
0.5986 1.7112 0.9601
0.5365 1.7318 0.9601
0.4737 1.7502 0.9601
0.4102 1.7664 0.9601
0.3462 1.7802 0.9600
0.2818 1.7917 0.9600
0.2170 1.8009 0.9599
0.1518 1.8077 0.9597
0.0865 1.8122 0.9596
0.0211 1.8143 0.9594
-0.0444 1.8140 0.9592
-0.1099 1.8114 0.9590
-0.1752 1.8064 0.9588
-0.2402 1.7991 0.9585
-0.3050 1.7894 0.9582
-0.3694 1.7774 0.9579
-0.4333 1.7631 0.9576
-0.4967 1.7465 0.9573
-0.5594 1.7276 0.9569
-0.6213 1.7065 0.9565
-0.6825 1.6831 0.9561
-0.7428 1.6576 0.9556
-0.8022 1.6298 0.9552
-0.8604 1.6000 0.9547
-0.9176 1.5681 0.9542
-2.4461 3.8545 2.3963
-2.5850 3.7662 2.3963
-2.7207 3.6730 2.3963
-2.8531 3.5749 2.3963
-2.9820 3.4721 2.3963
-3.1071 3.3648 2.3963
-3.2284 3.2530 2.3963
-3.3458 3.1368 2.3963
-3.4589 3.0165 2.3963
-3.5678 2.8922 2.3963
-3.6722 2.7639 2.3963
-3.7719 2.6319 2.3963
-3.8670 2.4964 2.3963
-3.9572 2.3574 2.3963
-4.0424 2.2153 2.3963
-4.1225 2.0701 2.3963
-4.1973 1.9220 2.3963
-4.2669 1.7712 2.3963
-4.3310 1.6180 2.3963
-4.3896 1.4624 2.3963
-4.4426 1.3047 2.3963
-4.4899 1.1452 2.3963
-4.5315 0.9839 2.3963
-4.5673 0.8212 2.3963
-4.5971 0.6572 2.3963
-4.6211 0.4921 2.3963
-4.6391 0.3262 2.3963
-4.6511 0.1596 2.3963
-4.6570 -0.0074 2.3963
-4.6570 -0.1745 2.3963
-4.6508 -0.3417 2.3963
-4.6387 -0.5086 2.3963
-4.6204 -0.6750 2.3963
-4.5962 -0.8408 2.3963
-4.5659 -1.0057 2.3963
-4.5297 -1.1694 2.3963
-4.4875 -1.3317 2.3963
-4.4394 -1.4926 2.3963
-4.3855 -1.6516 2.3963
-4.3258 -1.8086 2.3963
-4.2604 -1.9634 2.3963
-4.1895 -2.1158 2.3963
-4.1129 -2.2656 2.3963
-4.0310 -2.4125 2.3963
-3.9437 -2.5564 2.3963
-3.8512 -2.6971 2.3963
-3.7536 -2.8343 2.3963
-3.6511 -2.9680 2.3963
-3.5437 -3.0978 2.3963
-3.4316 -3.2238 2.3963
-3.3150 -3.3455 2.3963
-3.1940 -3.4629 2.3963
-3.0687 -3.5759 2.3963
-2.9394 -3.6842 2.3963
-2.8062 -3.7877 2.3963
-2.6693 -3.8863 2.3963
-2.5288 -3.9799 2.3963
-2.3851 -4.0683 2.3963
-2.2381 -4.1514 2.3963
-2.0883 -4.2290 2.3963
-1.9357 -4.3012 2.3963
-1.7805 -4.3677 2.3963
-1.6231 -4.4285 2.3963
-1.4635 -4.4835 2.3963
-1.3020 -4.5326 2.3963
-1.1388 -4.5758 2.3963
-0.9742 -4.6130 2.3963
-0.8084 -4.6442 2.3963
-0.6416 -4.6693 2.3963
-0.4739 -4.6882 2.3963
-0.3058 -4.7011 2.3963
-0.1373 -4.7078 2.3963
0.0313 -4.7083 2.3963
0.1998 -4.7027 2.3963
0.3679 -4.6909 2.3963
0.5354 -4.6731 2.3963
0.7021 -4.6491 2.3963
0.8677 -4.6191 2.3963
1.0321 -4.5831 2.3963
1.1951 -4.5411 2.3963
1.3563 -4.4933 2.3963
1.5156 -4.4396 2.3963
1.6729 -4.3802 2.3963
1.8277 -4.3152 2.3963
1.9801 -4.2446 2.3963
2.1297 -4.1685 2.3963
2.2764 -4.0871 2.3963
2.4200 -4.0005 2.3963
2.5602 -3.9087 2.3963
2.6970 -3.8120 2.3963
2.8301 -3.7104 2.3963
2.9594 -3.6042 2.3963
3.0847 -3.4934 2.3963
3.2059 -3.3781 2.3963
3.3227 -3.2587 2.3963
3.4351 -3.1351 2.3963
3.5429 -3.0077 2.3963
3.6459 -2.8765 2.3963
3.7441 -2.7418 2.3963
3.8373 -2.6037 2.3963
3.9255 -2.4624 2.3963
4.0084 -2.3181 2.3963
4.0860 -2.1710 2.3963
4.1583 -2.0213 2.3963
4.2251 -1.8692 2.3963
4.2863 -1.7149 2.3963
4.3419 -1.5585 2.3963
4.3920 -1.4006 2.3963
4.4361 -1.2407 2.3963
4.4746 -1.0795 2.3963
4.5072 -0.9173 2.3963
4.5339 -0.7537 2.3963
4.5549 -0.5901 2.3963
4.5700 -0.4256 2.3963
4.5790 -0.2604 2.3963
4.5822 -0.0953 2.3963
4.5796 0.0697 2.3963
4.5710 0.2344 2.3963
4.5566 0.3985 2.3963
4.5363 0.5620 2.3963
4.5103 0.7246 2.3963
4.4785 0.8861 2.3963
4.4410 1.0462 2.3963
4.3978 1.2049 2.3963
4.3490 1.3618 2.3963
4.2947 1.5168 2.3963
4.2350 1.6697 2.3963
4.1699 1.8204 2.3963
4.0995 1.9686 2.3963
4.0238 2.1149 2.3963
3.9432 2.2569 2.3963
3.8576 2.3966 2.3963
3.7671 2.5329 2.3963
3.6718 2.6663 2.3963
3.5719 2.7959 2.3963
3.4675 2.9222 2.3963
3.3587 3.0445 2.3963
3.2458 3.1625 2.3963
3.1287 3.2766 2.3963
3.0076 3.3867 2.3963
2.8828 3.4923 2.3963
2.7543 3.5934 2.3963
2.6224 3.6898 2.3963
2.4871 3.7815 2.3963
2.3487 3.8684 2.3963
0.8839 1.5819 0.9596
0.8263 1.6129 0.9597
0.7676 1.6418 0.9599
0.7079 1.6686 0.9600
0.6473 1.6932 0.9600
0.5858 1.7156 0.9601
0.5235 1.7358 0.9601
0.4606 1.7538 0.9601
