ply
format ascii 1.0
element vertex 2176
property float32 x
property float32 y
property float32 z
end_header
7.7137 -0.8820 2.3874
7.7402 -0.6047 2.3874
7.7566 -0.3265 2.3874
7.7631 -0.0480 2.3874
7.7596 0.2306 2.3874
7.7460 0.5088 2.3874
7.7225 0.7864 2.3874
7.6891 1.0630 2.3874
7.6457 1.3382 2.3874
7.5925 1.6116 2.3874
7.5295 1.8829 2.3874
7.4569 2.1518 2.3874
7.3746 2.4179 2.3874
7.2829 2.6809 2.3874
7.1817 2.9404 2.3874
7.0714 3.1961 2.3874
6.9519 3.4477 2.3874
6.8235 3.6948 2.3874
6.6863 3.9371 2.3874
6.5405 4.1744 2.3874
6.3863 4.4063 2.3874
6.2239 4.6324 2.3874
6.0535 4.8527 2.3874
5.8752 5.0666 2.3874
5.6895 5.2740 2.3874
5.4964 5.4746 2.3874
5.2963 5.6682 2.3874
5.0893 5.8544 2.3874
4.8759 6.0331 2.3874
4.6561 6.2040 2.3874
4.4304 6.3670 2.3874
4.1989 6.5217 2.3874
3.9621 6.6680 2.3874
3.7202 6.8058 2.3874
3.4735 6.9347 2.3874
3.2223 7.0548 2.3874
2.9671 7.1657 2.3874
2.7080 7.2674 2.3874
2.4454 7.3598 2.3874
0.8666 2.9591 0.9492
0.7600 2.9887 0.9493
0.6523 3.0144 0.9495
0.5438 3.0362 0.9496
0.4345 3.0541 0.9497
0.3247 3.0680 0.9498
0.2144 3.0779 0.9499
0.1038 3.0839 0.9499
-0.0069 3.0858 0.9500
-0.1177 3.0837 0.9501
-0.2283 3.0776 0.9501
-0.3386 3.0674 0.9501
-0.4484 3.0533 0.9501
-0.5577 3.0353 0.9501
-0.6663 3.0133 0.9501
-0.7739 2.9873 0.9501
-0.8806 2.9575 0.9500
-2.4783 7.3480 2.3874
-2.7403 7.2543 2.3874
-2.9989 7.1514 2.3874
-3.2536 7.0392 2.3874
-3.5042 6.9180 2.3874
-3.7502 6.7879 2.3874
-3.9914 6.6490 2.3874
0.1845 2.8470 0.9492
0.0822 2.8520 0.9492
-0.0202 2.8532 0.9493
-0.1226 2.8508 0.9493
-0.2248 2.8446 0.9494
-0.3267 2.8348 0.9494
-0.4282 2.8213 0.9494
-0.5292 2.8040 0.9494
-0.6295 2.7832 0.9494
-0.7289 2.7587 0.9493
-0.8274 2.7307 0.9493
-2.3260 6.7884 2.3874
-2.5682 6.7006 2.3874
-2.8070 6.6042 2.3874
-3.0422 6.4992 2.3874
-3.2735 6.3859 2.3874
-3.5006 6.2644 2.3874
-3.7232 6.1348 2.3874
-3.9410 5.9973 2.3874
-4.1537 5.8521 2.3874
-4.3611 5.6994 2.3874
-4.5629 5.5393 2.3874
-4.7588 5.3721 2.3874
-4.9486 5.1979 2.3874
-5.1320 5.0171 2.3874
-5.3088 4.8298 2.3874
-5.4789 4.6363 2.3874
-5.6418 4.4368 2.3874
-5.7975 4.2316 2.3874
-5.9458 4.0209 2.3874
-6.0864 3.8050 2.3874
-6.2191 3.5842 2.3874
-6.3439 3.3589 2.3874
-6.4605 3.1291 2.3874
-6.5688 2.8954 2.3874
-6.6687 2.6578 2.3874
-6.7599 2.4169 2.3874
-6.8425 2.1728 2.3874
-6.9162 1.9260 2.3874
-6.9811 1.6766 2.3874
-7.0370 1.4250 2.3874
-7.0838 1.1716 2.3874
-7.1215 0.9167 2.3874
-7.1500 0.6606 2.3874
-7.1693 0.4036 2.3874
-7.1794 0.1461 2.3874
-7.1803 -0.1116 2.3874
-7.1719 -0.3692 2.3874
-7.1542 -0.6263 2.3874
-7.1274 -0.8827 2.3874
-7.0913 -1.1379 2.3874
-7.0462 -1.3916 2.3874
-6.9919 -1.6436 2.3874
-6.9287 -1.8935 2.3874
-6.8565 -2.1410 2.3874
-6.7754 -2.3857 2.3874
-6.6857 -2.6274 2.3874
-6.5873 -2.8657 2.3874
-6.4804 -3.1003 2.3874
-6.3652 -3.3309 2.3874
-6.2418 -3.5573 2.3874
-6.1103 -3.7791 2.3874
-5.9710 -3.9960 2.3874
-5.8239 -4.2078 2.3874
-5.6693 -4.4142 2.3874
-5.5075 -4.6149 2.3874
-5.3385 -4.8097 2.3874
-5.1626 -4.9982 2.3874
-4.9801 -5.1804 2.3874
-4.7911 -5.3559 2.3874
-4.5960 -5.5245 2.3874
-4.3949 -5.6860 2.3874
-4.1882 -5.8401 2.3874
-3.9760 -5.9868 2.3874
-3.7587 -6.1257 2.3874
-3.5366 -6.2568 2.3874
-3.3099 -6.3797 2.3874
-3.0789 -6.4945 2.3874
-2.8440 -6.6009 2.3874
-2.6053 -6.6988 2.3874
-2.3633 -6.7881 2.3874
-2.1183 -6.8686 2.3874
-1.8705 -6.9403 2.3874
-1.6203 -7.0030 2.3874
-1.3680 -7.0568 2.3874
-1.1140 -7.1014 2.3874
-0.8585 -7.1368 2.3874
-0.6018 -7.1631 2.3874
-0.3444 -7.1802 2.3874
-0.0866 -7.1879 2.3874
0.1714 -7.1865 2.3874
0.4291 -7.1757 2.3874
0.6863 -7.1557 2.3874
0.9426 -7.1265 2.3874
1.1977 -7.0881 2.3874
1.4512 -7.0406 2.3874
1.7029 -6.9840 2.3874
1.9524 -6.9183 2.3874
2.1993 -6.8438 2.3874
2.4434 -6.7605 2.3874
2.6844 -6.6684 2.3874
2.9219 -6.5677 2.3874
3.1557 -6.4586 2.3874
3.3853 -6.3412 2.3874
3.6106 -6.2156 2.3874
3.8313 -6.0820 2.3874
4.0470 -5.9405 2.3874
4.2574 -5.7914 2.3874
4.4624 -5.6348 2.3874
4.6617 -5.4710 2.3874
4.8549 -5.3001 2.3874
5.0418 -5.1224 2.3874
5.2223 -4.9381 2.3874
5.3960 -4.7475 2.3874
5.5628 -4.5507 2.3874
5.7223 -4.3481 2.3874
5.8745 -4.1399 2.3874
6.0191 -3.9264 2.3874
6.1560 -3.7078 2.3874
6.2849 -3.4845 2.3874
6.4057 -3.2566 2.3874
6.5183 -3.0246 2.3874
6.6224 -2.7887 2.3874
6.7181 -2.5492 2.3874
6.8050 -2.3065 2.3874
6.8832 -2.0607 2.3874
6.9525 -1.8124 2.3874
7.0129 -1.5617 2.3874
7.0642 -1.3090 2.3874
7.1064 -1.0547 2.3874
7.1394 -0.7990 2.3874
7.1633 -0.5423 2.3874
7.1779 -0.2849 2.3874
7.1833 -0.0272 2.3874
7.1794 0.2306 2.3874
7.1663 0.4880 2.3874
7.1439 0.7449 2.3874
7.1124 1.0006 2.3874
7.0716 1.2552 2.3874
7.0218 1.5081 2.3874
6.9630 1.7590 2.3874
6.8952 2.0077 2.3874
6.8185 2.2537 2.3874
6.7330 2.4969 2.3874
6.6388 2.7368 2.3874
6.5362 2.9731 2.3874
6.4251 3.2057 2.3874
6.3057 3.4340 2.3874
6.1782 3.6580 2.3874
6.0428 3.8772 2.3874
5.8996 4.0914 2.3874
5.7488 4.3004 2.3874
5.5907 4.5038 2.3874
5.4253 4.7014 2.3874
5.2529 4.8929 2.3874
5.0739 5.0781 2.3874
4.8882 5.2568 2.3874
4.6963 5.4287 2.3874
4.4984 5.5935 2.3874
4.2947 5.7512 2.3874
4.0854 5.9015 2.3874
3.8709 6.0442 2.3874
3.6515 6.1791 2.3874
3.4273 6.3060 2.3874
3.1988 6.4248 2.3874
2.9661 6.5353 2.3874
2.7296 6.6374 2.3874
2.4896 6.7310 2.3874
0.8924 2.7076 0.9484
0.7948 2.7383 0.9485
0.6961 2.7654 0.9487
0.5965 2.7889 0.9488
0.4961 2.8088 0.9489
0.3950 2.8251 0.9490
0.2934 2.8376 0.9491
0.1914 2.8466 0.9492
0.0891 2.8518 0.9492
-0.0133 2.8533 0.9493
-0.1157 2.8511 0.9493
-0.2179 2.8452 0.9494
-0.3199 2.8356 0.9494
-0.4214 2.8223 0.9494
-0.5225 2.8053 0.9494
-0.6228 2.7847 0.9494
-0.7223 2.7605 0.9493
-0.8209 2.7327 0.9493
-2.3097 6.7940 2.3874
-2.5520 6.7068 2.3874
-2.7910 6.6109 2.3874
-3.0265 6.5066 2.3874
-3.2581 6.3938 2.3874
-3.4854 6.2728 2.3874
-3.7083 6.1438 2.3874
-3.9265 6.0068 2.3874
-4.1396 5.8621 2.3874
-4.3473 5.7099 2.3874
-4.5495 5.5503 2.3874
-4.7458 5.3835 2.3874
-4.9360 5.2099 2.3874
-5.1199 5.0295 2.3874
-5.2972 4.8426 2.3874
-5.4677 4.6495 2.3874
-5.6311 4.4504 2.3874
-5.7873 4.2455 2.3874
-5.9360 4.0352 2.3874
-6.0772 3.8197 2.3874
-6.2105 3.5992 2.3874
-6.3358 3.3741 2.3874
-6.4530 3.1447 2.3874
-6.5618 2.9112 2.3874
-6.6622 2.6739 2.3874
-6.7541 2.4332 2.3874
-6.8372 2.1893 2.3874
-6.9116 1.9426 2.3874
-6.9770 1.6934 2.3874
-7.0335 1.4420 2.3874
-7.0809 1.1887 2.3874
-7.1193 0.9339 2.3874
-7.1484 0.6778 2.3874
-7.1683 0.4209 2.3874
-7.1790 0.1634 2.3874
-7.1805 -0.0943 2.3874
-7.1727 -0.3519 2.3874
-7.1557 -0.6091 2.3874
-7.1295 -0.8655 2.3874
-7.0941 -1.1208 2.3874
-7.0495 -1.3746 2.3874
-6.9959 -1.6268 2.3874
-6.9332 -1.8768 2.3874
-6.8616 -2.1245 2.3874
-6.7812 -2.3694 2.3874
-6.6920 -2.6113 2.3874
-6.5942 -2.8498 2.3874
-6.4879 -3.0847 2.3874
-6.3732 -3.3156 2.3874
-6.2503 -3.5422 2.3874
-6.1194 -3.7643 2.3874
-5.9806 -3.9816 2.3874
-5.8340 -4.1937 2.3874
-5.6800 -4.4005 2.3874
-5.5186 -4.6016 2.3874
-5.3501 -4.7968 2.3874
-5.1746 -4.9858 2.3874
-4.9925 -5.1684 2.3874
-4.8040 -5.3443 2.3874
-4.6093 -5.5134 2.3874
-4.4086 -5.6753 2.3874
-4.2022 -5.8300 2.3874
-3.9904 -5.9772 2.3874
-3.7735 -6.1166 2.3874
-3.5516 -6.2482 2.3874
-3.3252 -6.3717 2.3874
-3.0945 -6.4871 2.3874
-2.8598 -6.5940 2.3874
-2.6215 -6.6925 2.3874
-2.3797 -6.7824 2.3874
-2.1348 -6.8635 2.3874
-1.8872 -6.9358 2.3874
-1.6372 -6.9991 2.3874
-1.3850 -7.0534 2.3874
-1.1311 -7.0987 2.3874
-0.8756 -7.1348 2.3874
-0.6191 -7.1616 2.3874
-0.3617 -7.1793 2.3874
-0.1039 -7.1877 2.3874
0.1540 -7.1868 2.3874
0.4118 -7.1767 2.3874
0.6690 -7.1573 2.3874
0.9254 -7.1287 2.3874
1.1806 -7.0910 2.3874
1.4342 -7.0440 2.3874
1.6861 -6.9880 2.3874
1.9357 -6.9230 2.3874
2.1828 -6.8491 2.3874
2.4271 -6.7663 2.3874
2.6683 -6.6749 2.3874
2.9061 -6.5748 2.3874
3.1401 -6.4662 2.3874
3.3700 -6.3493 2.3874
3.5956 -6.2243 2.3874
3.8166 -6.0912 2.3874
4.0327 -5.9502 2.3874
4.2435 -5.8016 2.3874
4.4489 -5.6456 2.3874
4.6485 -5.4822 2.3874
4.8421 -5.3118 2.3874
5.0295 -5.1346 2.3874
5.2104 -4.9507 2.3874
5.3845 -4.7605 2.3874
5.5518 -4.5641 2.3874
5.7118 -4.3619 2.3874
5.8645 -4.1541 2.3874
6.0097 -3.9409 2.3874
6.1471 -3.7226 2.3874
6.2765 -3.4996 2.3874
6.3979 -3.2721 2.3874
6.5110 -3.0403 2.3874
6.6157 -2.8047 2.3874
6.7119 -2.5654 2.3874
6.7994 -2.3228 2.3874
6.8782 -2.0773 2.3874
6.9481 -1.8291 2.3874
7.0091 -1.5786 2.3874
7.0610 -1.3261 2.3874
7.1038 -1.0718 2.3874
7.1375 -0.8162 2.3874
7.1620 -0.5596 2.3874
7.1772 -0.3022 2.3874
7.1832 -0.0445 2.3874
7.1799 0.2133 2.3874
7.1674 0.4708 2.3874
7.1457 0.7276 2.3874
7.1148 0.9835 2.3874
7.0747 1.2382 2.3874
7.0255 1.4912 2.3874
6.9672 1.7422 2.3874
6.9000 1.9911 2.3874
6.8239 2.2373 2.3874
6.7390 2.4806 2.3874
6.6454 2.7208 2.3874
6.5433 2.9574 2.3874
6.4328 3.1902 2.3874
6.3140 3.4188 2.3874
6.1870 3.6431 2.3874
6.0521 3.8627 2.3874
5.9095 4.0772 2.3874
5.7592 4.2865 2.3874
5.6015 4.4903 2.3874
5.4366 4.6883 2.3874
5.2647 4.8802 2.3874
5.0861 5.0659 2.3874
4.9009 5.2450 2.3874
4.7094 5.4173 2.3874
4.5119 5.5827 2.3874
4.3085 5.7409 2.3874
4.0997 5.8917 2.3874
3.8855 6.0348 2.3874
3.6664 6.1702 2.3874
3.4425 6.2977 2.3874
3.2143 6.4171 2.3874
2.9818 6.5281 2.3874
2.7456 6.6308 2.3874
2.5059 6.7250 2.3874
0.8989 2.7054 0.9484
0.8014 2.7363 0.9485
0.7027 2.7637 0.9487
0.6032 2.7874 0.9488
0.5028 2.8076 0.9489
0.4018 2.8241 0.9490
0.3002 2.8369 0.9491
0.1982 2.8461 0.9492
0.0960 2.8515 0.9492
-0.0064 2.8533 0.9493
-0.1088 2.8513 0.9493
-0.2111 2.8457 0.9494
-0.3131 2.8363 0.9494
-0.4146 2.8233 0.9494
-0.5157 2.8066 0.9494
-0.6161 2.7862 0.9494
-0.7156 2.7622 0.9493
-0.8143 2.7347 0.9493
-2.2933 6.7995 2.3874
-2.5358 6.7129 2.3874
-2.7751 6.6176 2.3874
-3.0108 6.5138 2.3874
-3.2427 6.4016 2.3874
-3.4703 6.2812 2.3874
-3.6935 6.1527 2.3874
0.1714 2.6448 0.9485
0.0764 2.6494 0.9486
-0.0187 2.6505 0.9487
-0.1138 2.6483 0.9487
-0.2088 2.6425 0.9487
-0.3035 2.6334 0.9487
-0.3978 2.6208 0.9487
-0.4916 2.6048 0.9487
-0.5848 2.5855 0.9487
-0.6771 2.5627 0.9487
-0.7686 2.5367 0.9487
-0.8592 2.5074 0.9486
-2.3873 6.2287 2.3874
-2.6093 6.1390 2.3874
-2.8279 6.0415 2.3874
-3.0429 5.9362 2.3874
-3.2540 5.8232 2.3874
-3.4609 5.7027 2.3874
-3.6634 5.5749 2.3874
-3.8612 5.4400 2.3874
-4.0539 5.2980 2.3874
-4.2415 5.1491 2.3874
-4.4236 4.9937 2.3874
-4.6000 4.8318 2.3874
-4.7706 4.6637 2.3874
-4.9349 4.4896 2.3874
-5.0929 4.3097 2.3874
-5.2444 4.1242 2.3874
-5.3892 3.9335 2.3874
-5.5270 3.7376 2.3874
-5.6576 3.5370 2.3874
-5.7811 3.3317 2.3874
-5.8970 3.1222 2.3874
-6.0054 2.9087 2.3874
-6.1061 2.6914 2.3874
-6.1989 2.4706 2.3874
-6.2837 2.2466 2.3874
-6.3604 2.0197 2.3874
-6.4290 1.7902 2.3874
-6.4893 1.5584 2.3874
-6.5412 1.3246 2.3874
-6.5847 1.0890 2.3874
-6.6197 0.8521 2.3874
-6.6462 0.6140 2.3874
-6.6642 0.3751 2.3874
-6.6735 0.1358 2.3874
-6.6743 -0.1038 2.3874
-6.6665 -0.3432 2.3874
-6.6501 -0.5822 2.3874
-6.6251 -0.8205 2.3874
-6.5916 -1.0577 2.3874
-6.5496 -1.2936 2.3874
-6.4991 -1.5278 2.3874
-6.4403 -1.7601 2.3874
-6.3732 -1.9901 2.3874
-6.2979 -2.2176 2.3874
-6.2144 -2.4422 2.3874
-6.1230 -2.6637 2.3874
-6.0236 -2.8818 2.3874
-5.9166 -3.0962 2.3874
-5.8018 -3.3066 2.3874
-5.6796 -3.5127 2.3874
-5.5500 -3.7143 2.3874
-5.4133 -3.9112 2.3874
-5.2697 -4.1030 2.3874
-5.1192 -4.2896 2.3874
-4.9621 -4.4706 2.3874
-4.7986 -4.6459 2.3874
-4.6290 -4.8152 2.3874
-4.4533 -4.9783 2.3874
-4.2719 -5.1350 2.3874
-4.0850 -5.2851 2.3874
-3.8928 -5.4284 2.3874
-3.6956 -5.5647 2.3874
-3.4937 -5.6938 2.3874
-3.2872 -5.8156 2.3874
-3.0765 -5.9299 2.3874
-2.8618 -6.0366 2.3874
-2.6434 -6.1355 2.3874
-2.4216 -6.2265 2.3874
-2.1967 -6.3095 2.3874
-1.9689 -6.3843 2.3874
-1.7386 -6.4509 2.3874
-1.5060 -6.5092 2.3874
-1.2715 -6.5591 2.3874
-1.0354 -6.6006 2.3874
-0.7979 -6.6336 2.3874
-0.5594 -6.6580 2.3874
-0.3201 -6.6738 2.3874
-0.0805 -6.6811 2.3874
0.1593 -6.6797 2.3874
0.3988 -6.6697 2.3874
0.6379 -6.6511 2.3874
0.8761 -6.6239 2.3874
1.1132 -6.5883 2.3874
1.3489 -6.5441 2.3874
1.5828 -6.4914 2.3874
1.8147 -6.4305 2.3874
2.0442 -6.3612 2.3874
2.2711 -6.2837 2.3874
2.4951 -6.1982 2.3874
2.7159 -6.1046 2.3874
2.9331 -6.0032 2.3874
3.1466 -5.8940 2.3874
3.3560 -5.7773 2.3874
3.5611 -5.6531 2.3874
3.7616 -5.5216 2.3874
3.9572 -5.3830 2.3874
4.1478 -5.2375 2.3874
4.3329 -5.0852 2.3874
4.5126 -4.9264 2.3874
4.6863 -4.7613 2.3874
4.8540 -4.5900 2.3874
5.0155 -4.4128 2.3874
5.1705 -4.2299 2.3874
5.3188 -4.0416 2.3874
5.4603 -3.8481 2.3874
5.5948 -3.6496 2.3874
5.7220 -3.4464 2.3874
5.8418 -3.2388 2.3874
5.9541 -3.0271 2.3874
6.0587 -2.8114 2.3874
6.1556 -2.5921 2.3874
6.2444 -2.3695 2.3874
6.3253 -2.1439 2.3874
6.3980 -1.9155 2.3874
6.4624 -1.6847 2.3874
6.5185 -1.4517 2.3874
6.5662 -1.2168 2.3874
6.6055 -0.9804 2.3874
6.6362 -0.7427 2.3874
6.6584 -0.5041 2.3874
6.6720 -0.2649 2.3874
6.6770 -0.0253 2.3874
6.6734 0.2143 2.3874
6.6612 0.4536 2.3874
6.6404 0.6923 2.3874
6.6111 0.9301 2.3874
6.5733 1.1667 2.3874
6.5270 1.4018 2.3874
6.4723 1.6350 2.3874
6.4093 1.8662 2.3874
6.3380 2.0949 2.3874
6.2586 2.3209 2.3874
6.1711 2.5439 2.3874
6.0756 2.7636 2.3874
5.9724 2.9797 2.3874
5.8614 3.1920 2.3874
5.7429 3.4002 2.3874
5.6171 3.6040 2.3874
5.4840 3.8032 2.3874
5.3438 3.9974 2.3874
5.1968 4.1865 2.3874
5.0431 4.3701 2.3874
4.8829 4.5482 2.3874
4.7164 4.7203 2.3874
4.5439 4.8864 2.3874
4.3655 5.0462 2.3874
4.1815 5.1995 2.3874
3.9922 5.3461 2.3874
3.7977 5.4858 2.3874
3.5983 5.6184 2.3874
3.3943 5.7438 2.3874
3.1859 5.8618 2.3874
2.9735 5.9722 2.3874
2.7572 6.0750 2.3874
2.5374 6.1699 2.3874
0.9187 2.4837 0.9477
0.8291 2.5154 0.9478
0.7384 2.5439 0.9480
0.6467 2.5690 0.9481
0.5541 2.5908 0.9482
0.4608 2.6093 0.9483
0.3669 2.6244 0.9484
0.2725 2.6361 0.9485
0.1778 2.6443 0.9485
0.0828 2.6492 0.9486
-0.0123 2.6506 0.9487
-0.1075 2.6485 0.9487
-0.2024 2.6430 0.9487
-0.2972 2.6341 0.9487
-0.3915 2.6218 0.9487
-0.4853 2.6060 0.9487
-0.5785 2.5869 0.9487
-0.6710 2.5644 0.9487
-0.7625 2.5386 0.9487
-0.8531 2.5094 0.9486
-2.3723 6.2344 2.3874
-2.5945 6.1453 2.3874
-2.8134 6.0483 2.3874
-3.0286 5.9435 2.3874
-3.2400 5.8310 2.3874
-3.4472 5.7111 2.3874
-3.6500 5.5838 2.3874
-3.8480 5.4492 2.3874
-4.0411 5.3077 2.3874
-4.2291 5.1593 2.3874
-4.4116 5.0043 2.3874
-4.5884 4.8429 2.3874
-4.7593 4.6752 2.3874
-4.9241 4.5015 2.3874
-5.0825 4.3219 2.3874
-5.2345 4.1369 2.3874
-5.3797 3.9464 2.3874
-5.5179 3.7509 2.3874
-5.6491 3.5506 2.3874
-5.7730 3.3456 2.3874
-5.8895 3.1364 2.3874
-5.9984 2.9231 2.3874
-6.0996 2.7061 2.3874
-6.1929 2.4855 2.3874
-6.2783 2.2617 2.3874
-6.3555 2.0350 2.3874
-6.4246 1.8057 2.3874
-6.4855 1.5740 2.3874
-6.5380 1.3403 2.3874
-6.5820 1.1049 2.3874
-6.6176 0.8680 2.3874
-6.6447 0.6300 2.3874
-6.6632 0.3912 2.3874
-6.6732 0.1519 2.3874
-6.6745 -0.0877 2.3874
-6.6673 -0.3272 2.3874
-6.6514 -0.5662 2.3874
-6.6271 -0.8045 2.3874
-6.5941 -1.0418 2.3874
-6.5527 -1.2778 2.3874
-6.5028 -1.5122 2.3874
-6.4445 -1.7446 2.3874
-6.3780 -1.9748 2.3874
-6.3032 -2.2024 2.3874
-6.2203 -2.4272 2.3874
-6.1294 -2.6489 2.3874
-6.0306 -2.8673 2.3874
-5.9240 -3.0819 2.3874
-5.8097 -3.2926 2.3874
-5.6880 -3.4990 2.3874
-5.5590 -3.7009 2.3874
-5.4227 -3.8981 2.3874
-5.2795 -4.0903 2.3874
-5.1295 -4.2772 2.3874
-4.9728 -4.4586 2.3874
-4.8098 -4.6343 2.3874
-4.6405 -4.8040 2.3874
-4.4653 -4.9675 2.3874
-4.2843 -5.1247 2.3874
-4.0977 -5.2752 2.3874
-3.9059 -5.4190 2.3874
-3.7090 -5.5558 2.3874
-3.5074 -5.6854 2.3874
-3.3012 -5.8077 2.3874
-3.0908 -5.9225 2.3874
-2.8763 -6.0297 2.3874
-2.6582 -6.1291 2.3874
-2.4366 -6.2206 2.3874
-2.2118 -6.3041 2.3874
-1.9843 -6.3795 2.3874
-1.7541 -6.4467 2.3874
-1.5217 -6.5056 2.3874
-1.2873 -6.5561 2.3874
-1.0513 -6.5981 2.3874
-0.8139 -6.6316 2.3874
-0.5754 -6.6566 2.3874
-0.3362 -6.6730 2.3874
-0.0966 -6.6808 2.3874
0.1432 -6.6800 2.3874
0.3828 -6.6706 2.3874
0.6219 -6.6526 2.3874
0.8602 -6.6260 2.3874
1.0973 -6.5909 2.3874
1.3331 -6.5473 2.3874
1.5672 -6.4952 2.3874
1.7992 -6.4348 2.3874
2.0289 -6.3661 2.3874
2.2560 -6.2892 2.3874
2.4802 -6.2042 2.3874
2.7012 -6.1111 2.3874
2.9187 -6.0102 2.3874
3.1324 -5.9016 2.3874
3.3421 -5.7854 2.3874
3.5475 -5.6617 2.3874
3.7483 -5.5307 2.3874
3.9442 -5.3926 2.3874
4.1351 -5.2475 2.3874
4.3207 -5.0957 2.3874
4.5007 -4.9373 2.3874
4.6748 -4.7726 2.3874
4.8430 -4.6017 2.3874
5.0049 -4.4249 2.3874
5.1603 -4.2424 2.3874
5.3091 -4.0544 2.3874
5.4510 -3.8612 2.3874
5.5859 -3.6631 2.3874
5.7137 -3.4602 2.3874
5.8340 -3.2529 2.3874
5.9468 -3.0414 2.3874
6.0520 -2.8260 2.3874
6.1493 -2.6070 2.3874
6.2387 -2.3846 2.3874
6.3201 -2.1591 2.3874
6.3933 -1.9309 2.3874
6.4583 -1.7002 2.3874
6.5150 -1.4674 2.3874
6.5633 -1.2326 2.3874
6.6031 -0.9963 2.3874
6.6344 -0.7587 2.3874
6.6571 -0.5202 2.3874
6.6713 -0.2809 2.3874
6.6769 -0.0414 2.3874
6.6739 0.1982 2.3874
6.6623 0.4376 2.3874
6.6421 0.6763 2.3874
6.6134 0.9142 2.3874
6.5761 1.1509 2.3874
6.5304 1.3860 2.3874
6.4762 1.6194 2.3874
6.4138 1.8507 2.3874
6.3430 2.0796 2.3874
6.2641 2.3058 2.3874
6.1772 2.5290 2.3874
6.0823 2.7490 2.3874
5.9795 2.9654 2.3874
5.8691 3.1779 2.3874
5.7511 3.3864 2.3874
5.6258 3.5905 2.3874
5.4931 3.7899 2.3874
5.3535 3.9845 2.3874
5.2069 4.1739 2.3874
5.0536 4.3580 2.3874
4.8939 4.5364 2.3874
4.7278 4.7090 2.3874
4.5557 4.8755 2.3874
4.3777 5.0357 2.3874
4.1941 5.1894 2.3874
4.0051 5.3365 2.3874
3.8109 5.4766 2.3874
3.6118 5.6097 2.3874
3.4081 5.7356 2.3874
3.2001 5.8541 2.3874
2.9879 5.9651 2.3874
2.7718 6.0683 2.3874
2.5522 6.1638 2.3874
0.9247 2.4815 0.9477
0.8351 2.5134 0.9478
0.7445 2.5421 0.9480
0.6529 2.5674 0.9481
0.5604 2.5895 0.9482
0.4671 2.6082 0.9483
0.3733 2.6235 0.9484
0.2789 2.6354 0.9485
0.1841 2.6439 0.9485
0.0892 2.6490 0.9486
-0.0060 2.6506 0.9487
-0.1011 2.6488 0.9487
-0.1961 2.6435 0.9487
-0.2908 2.6348 0.9487
-0.3852 2.6227 0.9487
-0.4791 2.6072 0.9487
-0.5723 2.5883 0.9487
-0.6648 2.5660 0.9487
-0.7564 2.5404 0.9487
-0.8471 2.5115 0.9486
-2.3572 6.2401 2.3874
-2.5797 6.1516 2.3874
-2.7988 6.0551 2.3874
-3.0143 5.9508 2.3874
-3.2259 5.8388 2.3874
-3.4334 5.7194 2.3874
0.1599 2.4667 0.9480
0.0713 2.4710 0.9481
-0.0175 2.4721 0.9481
-0.1062 2.4699 0.9481
-0.1947 2.4646 0.9482
-0.2831 2.4560 0.9482
-0.3710 2.4443 0.9482
-0.4585 2.4294 0.9482
-0.5454 2.4114 0.9482
-0.6315 2.3902 0.9481
-0.7169 2.3659 0.9481
-0.8013 2.3385 0.9481
-0.8847 2.3082 0.9480
-2.4350 5.7290 2.3874
-2.6391 5.6380 2.3874
-2.8397 5.5397 2.3874
-3.0367 5.4343 2.3874
-3.2298 5.3218 2.3874
-3.4187 5.2026 2.3874
-3.6033 5.0766 2.3874
-3.7832 4.9441 2.3874
-3.9582 4.8052 2.3874
-4.1281 4.6601 2.3874
-4.2928 4.5090 2.3874
-4.4519 4.3522 2.3874
-4.6053 4.1897 2.3874
-4.7528 4.0218 2.3874
-4.8941 3.8487 2.3874
-5.0292 3.6707 2.3874
-5.1578 3.4879 2.3874
-5.2797 3.3006 2.3874
-5.3949 3.1091 2.3874
-5.5031 2.9136 2.3874
-5.6042 2.7143 2.3874
-5.6981 2.5115 2.3874
-5.7847 2.3055 2.3874
-5.8639 2.0965 2.3874
-5.9355 1.8847 2.3874
-5.9995 1.6706 2.3874
-6.0557 1.4542 2.3874
-6.1041 1.2360 2.3874
-6.1447 1.0162 2.3874
-6.1774 0.7951 2.3874
-6.2021 0.5729 2.3874
-6.2189 0.3500 2.3874
-6.2276 0.1267 2.3874
-6.2283 -0.0969 2.3874
-6.2210 -0.3203 2.3874
-6.2057 -0.5434 2.3874
-6.1823 -0.7657 2.3874
-6.1511 -0.9871 2.3874
-6.1119 -1.2072 2.3874
-6.0648 -1.4258 2.3874
-6.0099 -1.6425 2.3874
-5.9473 -1.8572 2.3874
-5.8769 -2.0694 2.3874
-5.7991 -2.2790 2.3874
-5.7137 -2.4857 2.3874
-5.6210 -2.6892 2.3874
-5.5210 -2.8892 2.3874
-5.4140 -3.0856 2.3874
-5.2999 -3.2779 2.3874
-5.1790 -3.4661 2.3874
-5.0515 -3.6498 2.3874
-4.9173 -3.8288 2.3874
-4.7769 -4.0028 2.3874
-4.6304 -4.1718 2.3874
-4.4778 -4.3353 2.3874
-4.3195 -4.4933 2.3874
-4.1556 -4.6455 2.3874
-3.9863 -4.7917 2.3874
-3.8119 -4.9318 2.3874
-3.6325 -5.0655 2.3874
-3.4485 -5.1926 2.3874
-3.2601 -5.3131 2.3874
-3.0674 -5.4268 2.3874
-2.8708 -5.5334 2.3874
-2.6704 -5.6330 2.3874
-2.4666 -5.7253 2.3874
-2.2596 -5.8102 2.3874
-2.0497 -5.8876 2.3874
-1.8372 -5.9574 2.3874
-1.6223 -6.0196 2.3874
-1.4053 -6.0740 2.3874
-1.1865 -6.1205 2.3874
-0.9661 -6.1592 2.3874
-0.7445 -6.1900 2.3874
-0.5220 -6.2128 2.3874
-0.2987 -6.2275 2.3874
-0.0751 -6.2343 2.3874
0.1486 -6.2330 2.3874
0.3722 -6.2237 2.3874
0.5952 -6.2063 2.3874
0.8175 -6.1810 2.3874
1.0388 -6.1477 2.3874
1.2587 -6.1065 2.3874
1.4769 -6.0574 2.3874
1.6933 -6.0005 2.3874
1.9075 -5.9358 2.3874
2.1192 -5.8635 2.3874
2.3282 -5.7837 2.3874
2.5343 -5.6964 2.3874
2.7370 -5.6018 2.3874
2.9362 -5.4999 2.3874
3.1316 -5.3910 2.3874
3.3230 -5.2751 2.3874
3.5100 -5.1524 2.3874
3.6926 -5.0231 2.3874
3.8704 -4.8873 2.3874
4.0432 -4.7452 2.3874
4.2108 -4.5970 2.3874
4.3730 -4.4429 2.3874
4.5295 -4.2831 2.3874
4.6801 -4.1178 2.3874
4.8248 -3.9471 2.3874
4.9632 -3.7714 2.3874
5.0952 -3.5908 2.3874
5.2207 -3.4056 2.3874
5.3394 -3.2160 2.3874
5.4512 -3.0223 2.3874
5.5560 -2.8247 2.3874
5.6537 -2.6235 2.3874
5.7440 -2.4189 2.3874
5.8270 -2.2112 2.3874
5.9024 -2.0006 2.3874
5.9703 -1.7875 2.3874
6.0304 -1.5721 2.3874
6.0827 -1.3547 2.3874
6.1273 -1.1355 2.3874
6.1639 -0.9149 2.3874
6.1926 -0.6931 2.3874
6.2133 -0.4705 2.3874
6.2260 -0.2472 2.3874
6.2307 -0.0236 2.3874
6.2274 0.1999 2.3874
6.2160 0.4232 2.3874
6.1966 0.6460 2.3874
6.1693 0.8679 2.3874
6.1340 1.0887 2.3874
6.0908 1.3080 2.3874
6.0398 1.5257 2.3874
5.9810 1.7414 2.3874
5.9145 1.9548 2.3874
5.8403 2.1658 2.3874
5.7587 2.3739 2.3874
5.6697 2.5789 2.3874
5.5733 2.7806 2.3874
5.4698 2.9787 2.3874
5.3592 3.1730 2.3874
5.2418 3.3632 2.3874
5.1176 3.5490 2.3874
4.9868 3.7303 2.3874
4.8496 3.9067 2.3874
4.7062 4.0781 2.3874
4.5567 4.2443 2.3874
4.4014 4.4050 2.3874
4.2404 4.5600 2.3874
4.0739 4.7091 2.3874
3.9022 4.8521 2.3874
3.7255 4.9889 2.3874
3.5440 5.1193 2.3874
3.3580 5.2431 2.3874
3.1676 5.3601 2.3874
2.9731 5.4702 2.3874
2.7749 5.5733 2.3874
2.5730 5.6692 2.3874
2.3679 5.7578 2.3874
0.8569 2.3166 0.9472
0.7733 2.3462 0.9473
0.6887 2.3727 0.9475
0.6032 2.3961 0.9476
0.5168 2.4165 0.9477
0.4298 2.4337 0.9478
0.3422 2.4477 0.9479
0.2542 2.4586 0.9479
0.1658 2.4663 0.9480
0.0772 2.4708 0.9481
-0.0115 2.4721 0.9481
-0.1002 2.4702 0.9481
-0.1888 2.4650 0.9482
-0.2772 2.4567 0.9482
-0.3651 2.4452 0.9482
-0.4526 2.4305 0.9482
-0.5396 2.4127 0.9482
-0.6258 2.3917 0.9481
-0.7112 2.3676 0.9481
-0.7957 2.3405 0.9481
-0.8791 2.3103 0.9480
-2.4212 5.7349 2.3874
-2.6255 5.6443 2.3874
-2.8264 5.5465 2.3874
-3.0236 5.4416 2.3874
-3.2170 5.3296 2.3874
-3.4062 5.2108 2.3874
-3.5910 5.0852 2.3874
-3.7712 4.9532 2.3874
-3.9466 4.8147 2.3874
-4.1169 4.6701 2.3874
-4.2819 4.5194 2.3874
-4.4414 4.3629 2.3874
-4.5952 4.2008 2.3874
-4.7430 4.0332 2.3874
-4.8848 3.8605 2.3874
-5.0203 3.6828 2.3874
-5.1493 3.5003 2.3874
-5.2717 3.3134 2.3874
-5.3874 3.1221 2.3874
-5.4960 2.9268 2.3874
-5.5977 2.7278 2.3874
-5.6921 2.5252 2.3874
-5.7792 2.3194 2.3874
-5.8588 2.1106 2.3874
-5.9309 1.8990 2.3874
-5.9954 1.6850 2.3874
-6.0522 1.4688 2.3874
-6.1011 1.2508 2.3874
-6.1423 1.0310 2.3874
-6.1755 0.8100 2.3874
-6.2007 0.5879 2.3874
-6.2180 0.3650 2.3874
-6.2273 0.1417 2.3874
-6.2285 -0.0819 2.3874
-6.2217 -0.3053 2.3874
-6.2070 -0.5284 2.3874
-6.1842 -0.7508 2.3874
-6.1534 -0.9723 2.3874
-6.1147 -1.1925 2.3874
-6.0682 -1.4111 2.3874
-6.0138 -1.6280 2.3874
-5.9517 -1.8428 2.3874
-5.8819 -2.0552 2.3874
-5.8045 -2.2650 2.3874
-5.7197 -2.4719 2.3874
-5.6275 -2.6756 2.3874
-5.5280 -2.8759 2.3874
-5.4214 -3.0725 2.3874
-5.3078 -3.2651 2.3874
-5.1873 -3.4536 2.3874
-5.0602 -3.6376 2.3874
-4.9266 -3.8169 2.3874
-4.7866 -3.9913 2.3874
-4.6404 -4.1606 2.3874
-4.4882 -4.3245 2.3874
-4.3303 -4.4829 2.3874
-4.1667 -4.6355 2.3874
-3.9978 -4.7821 2.3874
-3.8237 -4.9226 2.3874
-3.6447 -5.0567 2.3874
-3.4610 -5.1843 2.3874
-3.2728 -5.3053 2.3874
-3.0804 -5.4194 2.3874
-2.8841 -5.5265 2.3874
-2.6840 -5.6265 2.3874
-2.4804 -5.7193 2.3874
-2.2736 -5.8047 2.3874
-2.0639 -5.8826 2.3874
-1.8516 -5.9530 2.3874
-1.6368 -6.0156 2.3874
-1.4199 -6.0706 2.3874
-1.2012 -6.1177 2.3874
-0.9810 -6.1569 2.3874
-0.7594 -6.1882 2.3874
-0.5369 -6.2115 2.3874
-0.3137 -6.2268 2.3874
-0.0901 -6.2341 2.3874
0.1336 -6.2333 2.3874
0.3572 -6.2246 2.3874
0.5803 -6.2078 2.3874
0.8026 -6.1829 2.3874
1.0239 -6.1502 2.3874
1.2439 -6.1095 2.3874
1.4623 -6.0609 2.3874
1.6789 -6.0045 2.3874
1.8932 -5.9404 2.3874
2.1051 -5.8686 2.3874
2.3143 -5.7893 2.3874
2.5205 -5.7025 2.3874
2.7235 -5.6083 2.3874
2.9229 -5.5070 2.3874
3.1186 -5.3985 2.3874
3.3102 -5.2831 2.3874
3.4976 -5.1609 2.3874
3.6805 -5.0320 2.3874
3.8586 -4.8966 2.3874
4.0318 -4.7550 2.3874
4.1997 -4.6072 2.3874
4.3622 -4.4535 2.3874
4.5191 -4.2940 2.3874
4.6702 -4.1290 2.3874
4.8153 -3.9587 2.3874
4.9541 -3.7833 2.3874
5.0866 -3.6031 2.3874
5.2124 -3.4182 2.3874
5.3316 -3.2289 2.3874
5.4439 -3.0354 2.3874
5.5492 -2.8381 2.3874
5.6473 -2.6371 2.3874
5.7382 -2.4327 2.3874
5.8216 -2.2252 2.3874
5.8976 -2.0148 2.3874
5.9659 -1.8019 2.3874
6.0266 -1.5866 2.3874
6.0795 -1.3693 2.3874
6.1245 -1.1503 2.3874
6.1617 -0.9298 2.3874
6.1909 -0.7080 2.3874
6.2122 -0.4854 2.3874
6.2254 -0.2622 2.3874
6.2306 -0.0387 2.3874
6.2278 0.1849 2.3874
6.2170 0.4083 2.3874
6.1982 0.6311 2.3874
6.1714 0.8530 2.3874
6.1366 1.0739 2.3874
6.0939 1.2934 2.3874
6.0435 1.5112 2.3874
5.9852 1.7270 2.3874
5.9192 1.9406 2.3874
5.8456 2.1517 2.3874
5.7644 2.3600 2.3874
5.6759 2.5652 2.3874
5.5800 2.7672 2.3874
5.4770 2.9655 2.3874
5.3669 3.1601 2.3874
5.2499 3.3505 2.3874
5.1261 3.5367 2.3874
4.9958 3.7183 2.3874
4.8590 3.8950 2.3874
4.7160 4.0668 2.3874
4.5669 4.2333 2.3874
4.4120 4.3943 2.3874
4.2514 4.5497 2.3874
4.0853 4.6992 2.3874
3.9139 4.8427 2.3874
3.7375 4.9799 2.3874
3.5563 5.1107 2.3874
3.3706 5.2350 2.3874
3.1805 5.3525 2.3874
2.9863 5.4630 2.3874
2.7883 5.5666 2.3874
2.5867 5.6630 2.3874
2.3818 5.7521 2.3874
0.8624 2.3145 0.9472
0.7789 2.3443 0.9473
0.6944 2.3710 0.9474
0.6089 2.3946 0.9476
0.5226 2.4152 0.9477
0.4357 2.4326 0.9478
0.3481 2.4469 0.9478
0.2601 2.4580 0.9479
0.1718 2.4659 0.9480
0.0832 2.4706 0.9481
-0.0056 2.4721 0.9481
-0.0943 2.4704 0.9481
-0.1829 2.4655 0.9482
-0.2712 2.4574 0.9482
-0.3592 2.4461 0.9482
-0.4468 2.4316 0.9482
-0.5338 2.4140 0.9482
-0.6200 2.3932 0.9481
-0.7055 2.3693 0.9481
-0.7900 2.3424 0.9481
-0.8735 2.3124 0.9480
-2.4074 5.7407 2.3874
-2.6119 5.6506 2.3874
-2.8130 5.5533 2.3874
-3.0105 5.4488 2.3874
-3.2041 5.3373 2.3874
0.1496 2.3086 0.9475
0.0667 2.3126 0.9476
-0.0163 2.3135 0.9476
-0.0994 2.3115 0.9476
-0.1823 2.3065 0.9477
-0.2649 2.2986 0.9477
-0.3472 2.2876 0.9477
-0.4291 2.2736 0.9477
-0.5104 2.2567 0.9477
-0.5911 2.2369 0.9476
-0.6709 2.2142 0.9476
-0.7499 2.1886 0.9476
-0.8279 2.1602 0.9475
-0.9049 2.1289 0.9475
-2.4711 5.2792 2.3874
-2.6590 5.1872 2.3874
-2.8435 5.0884 2.3874
-3.0243 4.9832 2.3874
-3.2012 4.8715 2.3874
-3.3740 4.7535 2.3874
-3.5424 4.6294 2.3874
-3.7063 4.4994 2.3874
-3.8655 4.3635 2.3874
-4.0196 4.2221 2.3874
-4.1686 4.0752 2.3874
-4.3122 3.9230 2.3874
-4.4503 3.7658 2.3874
-4.5827 3.6038 2.3874
-4.7091 3.4371 2.3874
-4.8295 3.2659 2.3874
-4.9437 3.0906 2.3874
-5.0515 2.9112 2.3874
-5.1529 2.7281 2.3874
-5.2476 2.5415 2.3874
-5.3355 2.3516 2.3874
-5.4166 2.1587 2.3874
-5.4907 1.9630 2.3874
-5.5577 1.7647 2.3874
-5.6176 1.5642 2.3874
-5.6702 1.3616 2.3874
-5.7156 1.1573 2.3874
-5.7536 0.9515 2.3874
-5.7842 0.7445 2.3874
-5.8073 0.5364 2.3874
-5.8230 0.3277 2.3874
-5.8311 0.1185 2.3874
-5.8318 -0.0908 2.3874
-5.8249 -0.3000 2.3874
-5.8106 -0.5088 2.3874
-5.7888 -0.7170 2.3874
-5.7595 -0.9243 2.3874
-5.7227 -1.1304 2.3874
-5.6786 -1.3350 2.3874
-5.6272 -1.5380 2.3874
-5.5686 -1.7390 2.3874
-5.5027 -1.9377 2.3874
-5.4298 -2.1340 2.3874
-5.3499 -2.3275 2.3874
-5.2631 -2.5180 2.3874
-5.1695 -2.7053 2.3874
-5.0692 -2.8891 2.3874
-4.9624 -3.0692 2.3874
-4.8492 -3.2454 2.3874
-4.7297 -3.4174 2.3874
-4.6042 -3.5850 2.3874
-4.4727 -3.7480 2.3874
-4.3354 -3.9061 2.3874
-4.1926 -4.0592 2.3874
-4.0443 -4.2072 2.3874
-3.8909 -4.3497 2.3874
-3.7324 -4.4866 2.3874
-3.5691 -4.6177 2.3874
-3.4012 -4.7429 2.3874
-3.2289 -4.8619 2.3874
-3.0524 -4.9747 2.3874
-2.8720 -5.0811 2.3874
-2.6879 -5.1810 2.3874
-2.5003 -5.2742 2.3874
-2.3095 -5.3606 2.3874
-2.1157 -5.4401 2.3874
-1.9192 -5.5126 2.3874
-1.7202 -5.5779 2.3874
-1.5190 -5.6361 2.3874
-1.3158 -5.6871 2.3874
-1.1109 -5.7307 2.3874
-0.9046 -5.7669 2.3874
-0.6971 -5.7957 2.3874
-0.4887 -5.8170 2.3874
-0.2797 -5.8308 2.3874
-0.0703 -5.8372 2.3874
0.1392 -5.8360 2.3874
0.3485 -5.8272 2.3874
0.5573 -5.8110 2.3874
0.7654 -5.7873 2.3874
0.9726 -5.7561 2.3874
1.1785 -5.7175 2.3874
1.3829 -5.6715 2.3874
1.5855 -5.6182 2.3874
1.7860 -5.5577 2.3874
1.9843 -5.4900 2.3874
2.1799 -5.4153 2.3874
2.3728 -5.3335 2.3874
2.5626 -5.2449 2.3874
2.7491 -5.1496 2.3874
2.9321 -5.0476 2.3874
3.1113 -4.9391 2.3874
3.2864 -4.8242 2.3874
3.4574 -4.7031 2.3874
3.6238 -4.5760 2.3874
3.7857 -4.4430 2.3874
3.9426 -4.3042 2.3874
4.0944 -4.1599 2.3874
4.2409 -4.0103 2.3874
4.3820 -3.8555 2.3874
4.5175 -3.6957 2.3874
4.6471 -3.5312 2.3874
4.7707 -3.3621 2.3874
4.8882 -3.1887 2.3874
4.9993 -3.0112 2.3874
5.1040 -2.8299 2.3874
5.2022 -2.6448 2.3874
5.2936 -2.4564 2.3874
5.3782 -2.2649 2.3874
5.4559 -2.0704 2.3874
5.5265 -1.8732 2.3874
5.5900 -1.6737 2.3874
5.6464 -1.4720 2.3874
5.6954 -1.2684 2.3874
5.7371 -1.0632 2.3874
5.7714 -0.8567 2.3874
5.7983 -0.6490 2.3874
5.8177 -0.4405 2.3874
5.8296 -0.2315 2.3874
5.8340 -0.0222 2.3874
5.8309 0.1872 2.3874
5.8202 0.3963 2.3874
5.8021 0.6048 2.3874
5.7765 0.8126 2.3874
5.7435 1.0193 2.3874
5.7030 1.2247 2.3874
5.6553 1.4285 2.3874
5.6002 1.6305 2.3874
5.5380 1.8304 2.3874
5.4686 2.0278 2.3874
5.3921 2.2227 2.3874
5.3088 2.4147 2.3874
5.2186 2.6036 2.3874
5.1216 2.7891 2.3874
5.0181 2.9710 2.3874
4.9082 3.1491 2.3874
4.7919 3.3231 2.3874
4.6694 3.4928 2.3874
4.5410 3.6580 2.3874
4.4067 3.8185 2.3874
4.2667 3.9741 2.3874
4.1213 4.1246 2.3874
3.9705 4.2697 2.3874
3.8147 4.4094 2.3874
3.6539 4.5433 2.3874
3.4884 4.6714 2.3874
3.3185 4.7935 2.3874
3.1443 4.9094 2.3874
2.9660 5.0190 2.3874
2.7840 5.1221 2.3874
2.5983 5.2186 2.3874
2.4093 5.3084 2.3874
0.8792 2.1377 0.9466
0.8020 2.1682 0.9468
0.7238 2.1958 0.9469
0.6446 2.2206 0.9470
0.5645 2.2426 0.9471
0.4837 2.2616 0.9472
0.4023 2.2777 0.9473
0.3203 2.2908 0.9474
0.2379 2.3010 0.9474
0.1552 2.3082 0.9475
0.0723 2.3124 0.9476
-0.0108 2.3136 0.9476
-0.0938 2.3118 0.9476
-0.1767 2.3070 0.9477
-0.2594 2.2992 0.9477
-0.3417 2.2884 0.9477
-0.4236 2.2747 0.9477
-0.5050 2.2580 0.9477
-0.5857 2.2383 0.9477
-0.6656 2.2158 0.9476
-0.7447 2.1904 0.9476
-0.8227 2.1622 0.9475
-0.8997 2.1311 0.9475
-2.4584 5.2851 2.3874
-2.6465 5.1936 2.3874
-2.8312 5.0953 2.3874
-3.0123 4.9904 2.3874
-3.1894 4.8792 2.3874
-3.3625 4.7616 2.3874
-3.5313 4.6380 2.3874
-3.6955 4.5083 2.3874
-3.8549 4.3729 2.3874
-4.0094 4.2318 2.3874
-4.1588 4.0852 2.3874
-4.3028 3.9334 2.3874
-4.4412 3.7765 2.3874
-4.5740 3.6148 2.3874
-4.7008 3.4484 2.3874
-4.8216 3.2775 2.3874
-4.9362 3.1025 2.3874
-5.0445 2.9234 2.3874
-5.1463 2.7405 2.3874
-5.2414 2.5542 2.3874
-5.3298 2.3645 2.3874
-5.4113 2.1718 2.3874
-5.4859 1.9762 2.3874
-5.5534 1.7781 2.3874
-5.6138 1.5777 2.3874
-5.6669 1.3753 2.3874
-5.7128 1.1711 2.3874
-5.7513 0.9654 2.3874
-5.7824 0.7584 2.3874
-5.8060 0.5504 2.3874
-5.8222 0.3417 2.3874
-5.8308 0.1326 2.3874
-5.8320 -0.0767 2.3874
-5.8256 -0.2859 2.3874
-5.8118 -0.4948 2.3874
-5.7904 -0.7031 2.3874
-5.7616 -0.9104 2.3874
-5.7254 -1.1166 2.3874
-5.6818 -1.3213 2.3874
-5.6309 -1.5244 2.3874
-5.5727 -1.7255 2.3874
-5.5074 -1.9244 2.3874
-5.4349 -2.1209 2.3874
-5.3555 -2.3146 2.3874
-5.2691 -2.5053 2.3874
-5.1760 -2.6928 2.3874
-5.0761 -2.8769 2.3874
-4.9698 -3.0573 2.3874
-4.8570 -3.2337 2.3874
-4.7380 -3.4060 2.3874
-4.6128 -3.5739 2.3874
-4.4817 -3.7372 2.3874
-4.3448 -3.8956 2.3874
-4.2024 -4.0491 2.3874
-4.0545 -4.1974 2.3874
-3.9013 -4.3403 2.3874
-3.7432 -4.4775 2.3874
-3.5802 -4.6091 2.3874
-3.4126 -4.7346 2.3874
-3.2406 -4.8541 2.3874
-3.0644 -4.9674 2.3874
-2.8842 -5.0742 2.3874
-2.7003 -5.1745 2.3874
-2.5130 -5.2682 2.3874
-2.3224 -5.3550 2.3874
-2.1288 -5.4350 2.3874
-1.9325 -5.5079 2.3874
-1.7336 -5.5738 2.3874
-1.5325 -5.6325 2.3874
-1.3295 -5.6839 2.3874
-1.1247 -5.7280 2.3874
-0.9185 -5.7647 2.3874
-0.7110 -5.7940 2.3874
-0.5027 -5.8158 2.3874
-0.2937 -5.8302 2.3874
-0.0844 -5.8370 2.3874
0.1251 -5.8363 2.3874
0.3344 -5.8280 2.3874
0.5433 -5.8123 2.3874
0.7515 -5.7891 2.3874
0.9587 -5.7584 2.3874
1.1647 -5.7203 2.3874
1.3692 -5.6748 2.3874
1.5719 -5.6220 2.3874
1.7726 -5.5620 2.3874
1.9710 -5.4948 2.3874
2.1669 -5.4205 2.3874
2.3600 -5.3393 2.3874
2.5500 -5.2511 2.3874
2.7367 -5.1562 2.3874
2.9199 -5.0546 2.3874
3.0994 -4.9466 2.3874
3.2748 -4.8321 2.3874
3.4460 -4.7115 2.3874
3.6128 -4.5847 2.3874
3.7749 -4.4521 2.3874
3.9322 -4.3137 2.3874
4.0844 -4.1698 2.3874
4.2313 -4.0205 2.3874
4.3727 -3.8660 2.3874
4.5085 -3.7066 2.3874
4.6386 -3.5424 2.3874
4.7626 -3.3736 2.3874
4.8805 -3.2005 2.3874
4.9921 -3.0233 2.3874
5.0972 -2.8421 2.3874
5.1958 -2.6574 2.3874
5.2877 -2.4692 2.3874
5.3727 -2.2778 2.3874
5.4509 -2.0835 2.3874
5.5220 -1.8866 2.3874
5.5860 -1.6872 2.3874
5.6428 -1.4856 2.3874
5.6923 -1.2822 2.3874
5.7345 -1.0771 2.3874
5.7693 -0.8706 2.3874
5.7967 -0.6630 2.3874
5.8166 -0.4546 2.3874
5.8290 -0.2455 2.3874
5.8339 -0.0362 2.3874
5.8313 0.1731 2.3874
5.8212 0.3822 2.3874
5.8035 0.5908 2.3874
5.7785 0.7987 2.3874
5.7459 1.0055 2.3874
5.7060 1.2110 2.3874
5.6587 1.4149 2.3874
5.6041 1.6170 2.3874
5.5424 1.8170 2.3874
5.4734 2.0147 2.3874
5.3975 2.2097 2.3874
5.3146 2.4019 2.3874
5.2248 2.5910 2.3874
5.1284 2.7767 2.3874
5.0253 2.9589 2.3874
4.9157 3.1372 2.3874
4.7999 3.3115 2.3874
4.6778 3.4816 2.3874
4.5498 3.6471 2.3874
4.4159 3.8079 2.3874
4.2763 3.9638 2.3874
4.1312 4.1146 2.3874
3.9808 4.2601 2.3874
3.8253 4.4002 2.3874
3.6648 4.5345 2.3874
3.4997 4.6630 2.3874
3.3300 4.7855 2.3874
3.1561 4.9018 2.3874
2.9781 5.0118 2.3874
2.7963 5.1154 2.3874
2.6109 5.2123 2.3874
2.4221 5.3026 2.3874
0.8843 2.1356 0.9466
0.8072 2.1662 0.9468
0.7290 2.1941 0.9469
0.6499 2.2191 0.9470
0.5699 2.2412 0.9471
0.4892 2.2604 0.9472
0.4078 2.2767 0.9473
0.3258 2.2900 0.9474
0.2434 2.3004 0.9474
0.1607 2.3078 0.9475
0.0778 2.3122 0.9476
-0.0052 2.3136 0.9476
-0.0882 2.3120 0.9476
-0.1711 2.3074 0.9477
-0.2538 2.2998 0.9477
-0.3362 2.2892 0.9477
-0.4181 2.2757 0.9477
-0.4995 2.2592 0.9477
-0.5803 2.2397 0.9477
-0.6603 2.2174 0.9476
-0.7394 2.1922 0.9476
-0.8175 2.1642 0.9475
-0.8946 2.1333 0.9475
-2.4457 5.2911 2.3874
-2.6340 5.1999 2.3874
-2.8189 5.1021 2.3874
-3.0002 4.9977 2.3874
0.1405 2.1670 0.9471
0.0626 2.1708 0.9471
-0.0153 2.1717 0.9472
-0.0933 2.1698 0.9472
-0.1711 2.1651 0.9472
-0.2487 2.1576 0.9472
-0.3259 2.1473 0.9472
-0.4028 2.1342 0.9472
-0.4791 2.1184 0.9472
-0.5548 2.0998 0.9472
-0.6298 2.0784 0.9472
-0.7040 2.0544 0.9471
-0.7772 2.0277 0.9471
-0.8494 1.9984 0.9470
-2.3207 4.9579 2.3874
-2.4972 4.8714 2.3874
-2.6704 4.7787 2.3874
-2.8402 4.6798 2.3874
-3.0063 4.5749 2.3874
-3.1686 4.4642 2.3874
-3.3268 4.3476 2.3874
-3.4807 4.2255 2.3874
-3.6302 4.0979 2.3874
-3.7749 3.9650 2.3874
-3.9149 3.8271 2.3874
-4.0497 3.6842 2.3874
-4.1794 3.5365 2.3874
-4.3037 3.3843 2.3874
-4.4225 3.2278 2.3874
-4.5355 3.0671 2.3874
-4.6427 2.9024 2.3874
-4.7440 2.7340 2.3874
-4.8392 2.5620 2.3874
-4.9281 2.3868 2.3874
-5.0107 2.2084 2.3874
-5.0868 2.0272 2.3874
-5.1564 1.8434 2.3874
-5.2193 1.6573 2.3874
-5.2756 1.4689 2.3874
-5.3250 1.2787 2.3874
-5.3676 1.0868 2.3874
-5.4033 0.8935 2.3874
-5.4320 0.6991 2.3874
-5.4537 0.5037 2.3874
-5.4684 0.3077 2.3874
-5.4761 0.1113 2.3874
-5.4767 -0.0853 2.3874
-5.4702 -0.2817 2.3874
-5.4567 -0.4779 2.3874
-5.4362 -0.6734 2.3874
-5.4087 -0.8680 2.3874
-5.3742 -1.0616 2.3874
-5.3328 -1.2538 2.3874
-5.2845 -1.4443 2.3874
-5.2294 -1.6331 2.3874
-5.1676 -1.8197 2.3874
-5.0991 -2.0040 2.3874
-5.0240 -2.1857 2.3874
-4.9425 -2.3647 2.3874
-4.8546 -2.5405 2.3874
-4.7604 -2.7132 2.3874
-4.6601 -2.8823 2.3874
-4.5538 -3.0477 2.3874
-4.4416 -3.2092 2.3874
-4.3237 -3.3666 2.3874
-4.2002 -3.5197 2.3874
-4.0713 -3.6682 2.3874
-3.9372 -3.8120 2.3874
-3.7979 -3.9509 2.3874
-3.6538 -4.0847 2.3874
-3.5050 -4.2132 2.3874
-3.3516 -4.3364 2.3874
-3.1939 -4.4539 2.3874
-3.0321 -4.5657 2.3874
-2.8664 -4.6717 2.3874
-2.6970 -4.7716 2.3874
-2.5241 -4.8654 2.3874
-2.3479 -4.9529 2.3874
-2.1688 -5.0340 2.3874
-1.9868 -5.1086 2.3874
-1.8022 -5.1767 2.3874
-1.6154 -5.2381 2.3874
-1.4264 -5.2927 2.3874
-1.2356 -5.3406 2.3874
-1.0432 -5.3815 2.3874
-0.8494 -5.4155 2.3874
-0.6546 -5.4426 2.3874
-0.4589 -5.4626 2.3874
-0.2626 -5.4756 2.3874
-0.0660 -5.4815 2.3874
0.1307 -5.4804 2.3874
0.3272 -5.4722 2.3874
0.5234 -5.4569 2.3874
0.7188 -5.4346 2.3874
0.9133 -5.4053 2.3874
1.1067 -5.3691 2.3874
1.2986 -5.3259 2.3874
1.4888 -5.2759 2.3874
1.6772 -5.2191 2.3874
1.8633 -5.1555 2.3874
2.0471 -5.0853 2.3874
2.2282 -5.0086 2.3874
2.4065 -4.9254 2.3874
2.5816 -4.8358 2.3874
2.7534 -4.7400 2.3874
2.9217 -4.6381 2.3874
3.0862 -4.5303 2.3874
3.2467 -4.4166 2.3874
3.4030 -4.2972 2.3874
3.5550 -4.1723 2.3874
3.7023 -4.0420 2.3874
3.8449 -3.9065 2.3874
3.9825 -3.7660 2.3874
4.1150 -3.6206 2.3874
4.2422 -3.4706 2.3874
4.3639 -3.3161 2.3874
4.4800 -3.1573 2.3874
4.5903 -2.9945 2.3874
4.6947 -2.8278 2.3874
4.7931 -2.6575 2.3874
4.8852 -2.4837 2.3874
4.9711 -2.3068 2.3874
5.0506 -2.1269 2.3874
5.1235 -1.9443 2.3874
5.1899 -1.7592 2.3874
5.2495 -1.5718 2.3874
5.3024 -1.3824 2.3874
5.3485 -1.1912 2.3874
5.3876 -0.9985 2.3874
5.4199 -0.8045 2.3874
5.4451 -0.6095 2.3874
5.4633 -0.4137 2.3874
5.4745 -0.2174 2.3874
5.4787 -0.0209 2.3874
5.4757 0.1757 2.3874
5.4658 0.3721 2.3874
5.4488 0.5679 2.3874
5.4247 0.7631 2.3874
5.3937 0.9572 2.3874
5.3557 1.1501 2.3874
5.3109 1.3415 2.3874
5.2592 1.5312 2.3874
5.2007 1.7189 2.3874
5.1356 1.9043 2.3874
5.0638 2.0873 2.3874
4.9855 2.2676 2.3874
4.9008 2.4450 2.3874
4.8098 2.6192 2.3874
4.7126 2.7901 2.3874
4.6093 2.9573 2.3874
4.5001 3.1207 2.3874
4.3852 3.2801 2.3874
4.2645 3.4353 2.3874
4.1384 3.5860 2.3874
4.0070 3.7321 2.3874
3.8704 3.8734 2.3874
3.7288 4.0097 2.3874
3.5824 4.1409 2.3874
3.4315 4.2667 2.3874
3.2761 4.3870 2.3874
3.1165 4.5016 2.3874
2.9529 4.6105 2.3874
2.7855 4.7134 2.3874
2.6145 4.8103 2.3874
2.4402 4.9009 2.3874
0.8967 1.9756 0.9461
0.8253 2.0068 0.9463
0.7529 2.0354 0.9464
0.6794 2.0613 0.9465
0.6051 2.0846 0.9466
0.5299 2.1051 0.9467
0.4541 2.1230 0.9468
0.3776 2.1381 0.9469
0.3007 2.1504 0.9470
0.2233 2.1599 0.9470
0.1457 2.1667 0.9471
0.0678 2.1706 0.9471
-0.0101 2.1717 0.9472
-0.0880 2.1700 0.9472
-0.1659 2.1655 0.9472
-0.2435 2.1582 0.9472
-0.3208 2.1481 0.9472
-0.3976 2.1352 0.9472
-0.4740 2.1195 0.9472
-0.5498 2.1011 0.9472
-0.6248 2.0800 0.9472
-0.6990 2.0561 0.9471
-0.7723 2.0296 0.9471
-0.8446 2.0005 0.9470
-2.3088 4.9634 2.3874
-2.4854 4.8774 2.3874
-2.6589 4.7851 2.3874
-2.8289 4.6867 2.3874
-2.9953 4.5822 2.3874
-3.1578 4.4718 2.3874
-3.3163 4.3556 2.3874
-3.4705 4.2339 2.3874
-3.6203 4.1066 2.3874
-3.7654 3.9741 2.3874
-3.9056 3.8365 2.3874
-4.0408 3.6939 2.3874
-4.1709 3.5466 2.3874
-4.2955 3.3947 2.3874
-4.4147 3.2384 2.3874
-4.5281 3.0780 2.3874
-4.6357 2.9136 2.3874
-4.7374 2.7454 2.3874
-4.8330 2.5737 2.3874
-4.9223 2.3986 2.3874
-5.0053 2.2205 2.3874
-5.0819 2.0395 2.3874
-5.1519 1.8559 2.3874
-5.2153 1.6698 2.3874
-5.2720 1.4816 2.3874
-5.3219 1.2915 2.3874
-5.3649 1.0998 2.3874
-5.4011 0.9066 2.3874
-5.4303 0.7122 2.3874
-5.4525 0.5169 2.3874
-5.4676 0.3209 2.3874
-5.4758 0.1245 2.3874
-5.4768 -0.0721 2.3874
-5.4709 -0.2686 2.3874
-5.4579 -0.4647 2.3874
-5.4378 -0.6603 2.3874
-5.4108 -0.8550 2.3874
-5.3767 -1.0486 2.3874
-5.3358 -1.2409 2.3874
-5.2880 -1.4316 2.3874
-5.2333 -1.6205 2.3874
-5.1719 -1.8073 2.3874
-5.1039 -1.9917 2.3874
-5.0293 -2.1736 2.3874
-4.9482 -2.3527 2.3874
-4.8607 -2.5288 2.3874
-4.7669 -2.7017 2.3874
-4.6670 -2.8711 2.3874
-4.5611 -3.0367 2.3874
-4.4493 -3.1985 2.3874
-4.3318 -3.3562 2.3874
-4.2087 -3.5095 2.3874
-4.0801 -3.6584 2.3874
-3.9463 -3.8025 2.3874
-3.8074 -3.9417 2.3874
-3.6636 -4.0759 2.3874
-3.5151 -4.2048 2.3874
-3.3620 -4.3283 2.3874
-3.2046 -4.4462 2.3874
-3.0431 -4.5584 2.3874
-2.8776 -4.6648 2.3874
-2.7085 -4.7651 2.3874
-2.5358 -4.8593 2.3874
-2.3599 -4.9472 2.3874
-2.1809 -5.0288 2.3874
-1.9991 -5.1038 2.3874
-1.8147 -5.1723 2.3874
-1.6280 -5.2342 2.3874
-1.4391 -5.2893 2.3874
-1.2485 -5.3376 2.3874
-1.0562 -5.3790 2.3874
-0.8625 -5.4135 2.3874
-0.6677 -5.4410 2.3874
-0.4721 -5.4615 2.3874
-0.2758 -5.4749 2.3874
-0.0792 -5.4813 2.3874
0.1175 -5.4807 2.3874
0.3141 -5.4729 2.3874
0.5102 -5.4582 2.3874
0.7057 -5.4363 2.3874
0.9003 -5.4075 2.3874
1.0937 -5.3717 2.3874
1.2858 -5.3290 2.3874
1.4761 -5.2795 2.3874
1.6646 -5.2231 2.3874
1.8509 -5.1600 2.3874
2.0348 -5.0902 2.3874
2.2161 -5.0139 2.3874
2.3946 -4.9311 2.3874
2.5700 -4.8420 2.3874
2.7420 -4.7467 2.3874
2.9105 -4.6452 2.3874
3.0753 -4.5377 2.3874
3.2361 -4.4244 2.3874
3.3927 -4.3054 2.3874
3.5449 -4.1808 2.3874
3.6926 -4.0509 2.3874
3.8355 -3.9158 2.3874
3.9735 -3.7756 2.3874
4.1063 -3.6305 2.3874
4.2339 -3.4808 2.3874
4.3559 -3.3266 2.3874
4.4724 -3.1681 2.3874
4.5831 -3.0055 2.3874
4.6879 -2.8391 2.3874
4.7867 -2.6690 2.3874
4.8792 -2.4955 2.3874
4.9655 -2.3188 2.3874
5.0454 -2.1391 2.3874
5.1188 -1.9566 2.3874
5.1856 -1.7717 2.3874
5.2457 -1.5844 2.3874
5.2991 -1.3951 2.3874
5.3456 -1.2041 2.3874
5.3852 -1.0115 2.3874
5.4179 -0.8176 2.3874
5.4436 -0.6226 2.3874
5.4623 -0.4269 2.3874
5.4740 -0.2306 2.3874
5.4786 -0.0341 2.3874
5.4761 0.1625 2.3874
5.4667 0.3589 2.3874
5.4501 0.5548 2.3874
5.4265 0.7500 2.3874
5.3960 0.9442 2.3874
5.3585 1.1372 2.3874
5.3141 1.3287 2.3874
5.2629 1.5185 2.3874
5.2049 1.7063 2.3874
5.1401 1.8919 2.3874
5.0688 2.0751 2.3874
4.9910 2.2556 2.3874
4.9067 2.4332 2.3874
4.8161 2.6076 2.3874
4.7193 2.7787 2.3874
4.6164 2.9462 2.3874
4.5076 3.1099 2.3874
4.3930 3.2695 2.3874
4.2728 3.4250 2.3874
4.1470 3.5760 2.3874
4.0160 3.7225 2.3874
3.8797 3.8641 2.3874
3.7385 4.0007 2.3874
3.5924 4.1322 2.3874
3.4417 4.2584 2.3874
3.2866 4.3791 2.3874
3.1273 4.4941 2.3874
2.9640 4.6034 2.3874
2.7968 4.7067 2.3874
2.6261 4.8039 2.3874
2.4520 4.8950 2.3874
0.9014 1.9735 0.9461
0.8302 2.0048 0.9462
0.7578 2.0335 0.9464
0.6844 2.0596 0.9465
0.6101 2.0831 0.9466
0.5350 2.1038 0.9467
0.4592 2.1219 0.9468
0.3828 2.1371 0.9469
0.3059 2.1497 0.9469
0.2285 2.1594 0.9470
0.1509 2.1663 0.9471
0.0731 2.1704 0.9471
-0.0049 2.1718 0.9472
-0.0828 2.1702 0.9472
-0.1607 2.1659 0.9472
-0.2383 2.1588 0.9472
-0.3156 2.1489 0.9472
-0.3925 2.1361 0.9472
-0.4689 2.1207 0.9472
-0.5447 2.1024 0.9472
-0.6198 2.0815 0.9472
-0.6941 2.0578 0.9471
-0.7674 2.0315 0.9471
-0.8398 2.0025 0.9470
-0.9110 1.9710 0.9470
-2.4737 4.8834 2.3874
-2.6473 4.7915 2.3874
-2.8176 4.6935 2.3874
0.1322 2.0395 0.9467
0.0589 2.0430 0.9467
-0.0144 2.0439 0.9468
-0.0878 2.0421 0.9468
-0.1610 2.0377 0.9468
-0.2340 2.0306 0.9468
-0.3068 2.0209 0.9468
-0.3791 2.0086 0.9468
-0.4509 1.9937 0.9468
-0.5222 1.9762 0.9468
-0.5927 1.9561 0.9468
-0.6625 1.9335 0.9467
-0.7315 1.9084 0.9467
-0.7994 1.8809 0.9466
-0.8664 1.8509 0.9466
-2.3512 4.5867 2.3874
-2.5143 4.4994 2.3874
-2.6742 4.4063 2.3874
-2.8306 4.3075 2.3874
-2.9834 4.2032 2.3874
-3.1324 4.0935 2.3874
-3.2773 3.9785 2.3874
-3.4180 3.8584 2.3874
-3.5543 3.7333 2.3874
-3.6860 3.6034 2.3874
-3.8130 3.4688 2.3874
-3.9351 3.3298 2.3874
-4.0521 3.1865 2.3874
-4.1639 3.0391 2.3874
-4.2704 2.8877 2.3874
-4.3714 2.7327 2.3874
-4.4667 2.5741 2.3874
-4.5563 2.4122 2.3874
-4.6400 2.2472 2.3874
-4.7177 2.0793 2.3874
-4.7894 1.9087 2.3874
-4.8549 1.7356 2.3874
-4.9142 1.5603 2.3874
-4.9671 1.3830 2.3874
-5.0137 1.2039 2.3874
-5.0538 1.0233 2.3874
-5.0873 0.8413 2.3874
-5.1144 0.6582 2.3874
-5.1348 0.4742 2.3874
-5.1487 0.2897 2.3874
-5.1559 0.1047 2.3874
-5.1564 -0.0803 2.3874
-5.1504 -0.2653 2.3874
-5.1376 -0.4500 2.3874
-5.1183 -0.6340 2.3874
-5.0924 -0.8173 2.3874
-5.0599 -0.9995 2.3874
-5.0209 -1.1805 2.3874
-4.9755 -1.3599 2.3874
-4.9236 -1.5376 2.3874
-4.8654 -1.7133 2.3874
-4.8009 -1.8869 2.3874
-4.7302 -2.0579 2.3874
-4.6534 -2.2264 2.3874
-4.5706 -2.3920 2.3874
-4.4820 -2.5545 2.3874
-4.3875 -2.7138 2.3874
-4.2874 -2.8695 2.3874
-4.1818 -3.0216 2.3874
-4.0708 -3.1697 2.3874
-3.9545 -3.3138 2.3874
-3.8332 -3.4537 2.3874
-3.7069 -3.5890 2.3874
-3.5758 -3.7198 2.3874
-3.4401 -3.8458 2.3874
-3.2999 -3.9668 2.3874
-3.1555 -4.0827 2.3874
-3.0071 -4.1934 2.3874
-2.8547 -4.2987 2.3874
-2.6987 -4.3984 2.3874
-2.5392 -4.4925 2.3874
-2.3764 -4.5808 2.3874
-2.2106 -4.6631 2.3874
-2.0419 -4.7395 2.3874
-1.8705 -4.8098 2.3874
-1.6968 -4.8739 2.3874
-1.5208 -4.9317 2.3874
-1.3429 -4.9831 2.3874
-1.1633 -5.0281 2.3874
-0.9821 -5.0667 2.3874
-0.7997 -5.0987 2.3874
-0.6163 -5.1242 2.3874
-0.4320 -5.1430 2.3874
-0.2473 -5.1552 2.3874
-0.0621 -5.1608 2.3874
0.1231 -5.1597 2.3874
0.3081 -5.1520 2.3874
0.4927 -5.1377 2.3874
0.6767 -5.1167 2.3874
0.8599 -5.0891 2.3874
1.0419 -5.0550 2.3874
1.2226 -5.0143 2.3874
1.4017 -4.9672 2.3874
1.5791 -4.9137 2.3874
1.7543 -4.8539 2.3874
1.9273 -4.7878 2.3874
2.0979 -4.7156 2.3874
2.2657 -4.6372 2.3874
2.4306 -4.5529 2.3874
2.5923 -4.4627 2.3874
2.7508 -4.3668 2.3874
2.9056 -4.2653 2.3874
3.0568 -4.1582 2.3874
3.2040 -4.0458 2.3874
3.3470 -3.9282 2.3874
3.4857 -3.8056 2.3874
3.6200 -3.6780 2.3874
3.7496 -3.5457 2.3874
3.8743 -3.4088 2.3874
3.9941 -3.2676 2.3874
4.1086 -3.1221 2.3874
4.2179 -2.9726 2.3874
4.3218 -2.8193 2.3874
4.4201 -2.6624 2.3874
4.5127 -2.5021 2.3874
4.5995 -2.3385 2.3874
4.6803 -2.1719 2.3874
4.7551 -2.0025 2.3874
4.8238 -1.8306 2.3874
4.8863 -1.6563 2.3874
4.9425 -1.4799 2.3874
4.9923 -1.3016 2.3874
5.0356 -1.1216 2.3874
5.0725 -0.9401 2.3874
5.1029 -0.7575 2.3874
5.1267 -0.5739 2.3874
5.1438 -0.3896 2.3874
5.1544 -0.2048 2.3874
5.1583 -0.0197 2.3874
5.1555 0.1654 2.3874
5.1461 0.3503 2.3874
5.1301 0.5347 2.3874
5.1075 0.7184 2.3874
5.0783 0.9012 2.3874
5.0426 1.0828 2.3874
5.0003 1.2630 2.3874
4.9517 1.4416 2.3874
4.8966 1.6183 2.3874
4.8353 1.7929 2.3874
4.7677 1.9652 2.3874
4.6940 2.1350 2.3874
4.6143 2.3020 2.3874
4.5286 2.4660 2.3874
4.4371 2.6269 2.3874
4.3398 2.7844 2.3874
4.2370 2.9382 2.3874
4.1288 3.0883 2.3874
4.0152 3.2344 2.3874
3.8965 3.3763 2.3874
3.7727 3.5139 2.3874
3.6441 3.6470 2.3874
3.5108 3.7753 2.3874
3.3730 3.8988 2.3874
3.2309 4.0172 2.3874
3.0846 4.1305 2.3874
2.9343 4.2385 2.3874
2.7803 4.3410 2.3874
2.6227 4.4379 2.3874
2.4617 4.5291 2.3874
0.9101 1.8278 0.9457
0.8440 1.8595 0.9458
0.7768 1.8888 0.9459
0.7086 1.9157 0.9460
0.6395 1.9401 0.9461
0.5695 1.9620 0.9462
0.4988 1.9813 0.9463
0.4274 1.9981 0.9464
0.3554 2.0123 0.9465
0.2830 2.0239 0.9466
0.2102 2.0329 0.9466
0.1371 2.0392 0.9467
0.0638 2.0429 0.9467
-0.0095 2.0439 0.9468
-0.0829 2.0423 0.9468
-0.1561 2.0381 0.9468
-0.2291 2.0312 0.9468
-0.3019 2.0217 0.9468
-0.3742 2.0095 0.9468
-0.4461 1.9948 0.9468
-0.5174 1.9775 0.9468
-0.5880 1.9576 0.9468
-0.6579 1.9351 0.9467
-0.7269 1.9102 0.9467
-0.7949 1.8828 0.9466
-0.8619 1.8529 0.9466
-2.3402 4.5923 2.3874
-2.5035 4.5054 2.3874
-2.6636 4.4127 2.3874
-2.8202 4.3143 2.3874
-2.9733 4.2104 2.3874
-3.1225 4.1010 2.3874
-3.2677 3.9864 2.3874
-3.4087 3.8666 2.3874
-3.5453 3.7418 2.3874
-3.6773 3.6122 2.3874
-3.8046 3.4780 2.3874
-3.9271 3.3393 2.3874
-4.0444 3.1962 2.3874
-4.1566 3.0491 2.3874
-4.2634 2.8980 2.3874
-4.3648 2.7432 2.3874
-4.4605 2.5849 2.3874
-4.5504 2.4232 2.3874
-4.6346 2.2584 2.3874
-4.7127 2.0907 2.3874
-4.7848 1.9202 2.3874
-4.8507 1.7473 2.3874
-4.9104 1.5722 2.3874
-4.9638 1.3950 2.3874
-5.0108 1.2160 2.3874
-5.0513 1.0354 2.3874
-5.0853 0.8535 2.3874
-5.1128 0.6705 2.3874
-5.1337 0.4866 2.3874
-5.1479 0.3021 2.3874
-5.1556 0.1172 2.3874
-5.1566 -0.0679 2.3874
-5.1510 -0.2529 2.3874
-5.1387 -0.4376 2.3874
-5.1198 -0.6217 2.3874
-5.0944 -0.8050 2.3874
-5.0623 -0.9873 2.3874
-5.0238 -1.1684 2.3874
-4.9787 -1.3479 2.3874
-4.9273 -1.5257 2.3874
-4.8695 -1.7016 2.3874
-4.8054 -1.8753 2.3874
-4.7351 -2.0465 2.3874
-4.6588 -2.2152 2.3874
-4.5764 -2.3810 2.3874
-4.4881 -2.5437 2.3874
-4.3941 -2.7032 2.3874
-4.2943 -2.8592 2.3874
-4.1891 -3.0115 2.3874
-4.0784 -3.1599 2.3874
-3.9625 -3.3043 2.3874
-3.8415 -3.4444 2.3874
-3.7155 -3.5801 2.3874
-3.5847 -3.7112 2.3874
-3.4493 -3.8375 2.3874
-3.3095 -3.9589 2.3874
-3.1654 -4.0751 2.3874
-3.0172 -4.1861 2.3874
-2.8651 -4.2918 2.3874
-2.7093 -4.3919 2.3874
-2.5500 -4.4863 2.3874
-2.3874 -4.5750 2.3874
-2.2218 -4.6578 2.3874
-2.0533 -4.7346 2.3874
-1.8821 -4.8053 2.3874
-1.7085 -4.8698 2.3874
-1.5327 -4.9280 2.3874
-1.3549 -4.9799 2.3874
-1.1754 -5.0253 2.3874
-0.9944 -5.0643 2.3874
-0.8120 -5.0968 2.3874
-0.6286 -5.1227 2.3874
-0.4444 -5.1420 2.3874
-0.2597 -5.1546 2.3874
-0.0746 -5.1606 2.3874
0.1106 -5.1600 2.3874
0.2957 -5.1527 2.3874
0.4804 -5.1389 2.3874
0.6644 -5.1183 2.3874
0.8476 -5.0912 2.3874
1.0298 -5.0575 2.3874
1.2105 -5.0173 2.3874
1.3898 -4.9706 2.3874
