ply
format ascii 1.0
element vertex 2179
property float32 x
property float32 y
property float32 z
end_header
1.7173 -6.3239 2.3937
1.9488 -6.2817 2.3937
2.1794 -6.2307 2.3937
2.4085 -6.1710 2.3937
2.5710 -5.9523 2.3348
2.6790 -5.6423 2.2413
2.8878 -5.5613 2.2413
3.0939 -5.4729 2.2413
3.2970 -5.3765 2.2414
3.4969 -5.2721 2.2414
3.6931 -5.1599 2.2414
3.8860 -5.0409 2.2419
4.0748 -4.9143 2.2424
4.2588 -4.7801 2.2428
4.4380 -4.6386 2.2433
4.6119 -4.4899 2.2437
4.7802 -4.3342 2.2441
4.9389 -4.1684 2.2428
5.0799 -3.9878 2.2366
5.2145 -3.8025 2.2307
5.3436 -3.6134 2.2257
5.4715 -3.4240 2.2233
5.5964 -3.2321 2.2227
5.7163 -3.0361 2.2232
5.8301 -2.8365 2.2242
5.9343 -2.6313 2.2245
6.0299 -2.4218 2.2247
6.1173 -2.2086 2.2249
6.1961 -1.9920 2.2251
6.2664 -1.7722 2.2253
5.6449 -1.3825 1.9853
5.6371 -1.1706 1.9664
6.4243 -1.0983 2.2260
6.4590 -0.8701 2.2262
6.4846 -0.6406 2.2265
6.5010 -0.4104 2.2267
6.5083 -0.1797 2.2269
6.5065 0.0509 2.2272
6.4955 0.2812 2.2274
6.4754 0.5107 2.2276
6.4463 0.7390 2.2279
6.4082 0.9659 2.2281
6.3613 1.1908 2.2284
6.3056 1.4134 2.2286
6.2412 1.6334 2.2288
5.8218 1.7464 2.1038
6.0872 2.0641 2.2293
5.9979 2.2741 2.2295
5.8997 2.4798 2.2294
5.7933 2.6806 2.2291
5.6824 2.8785 2.2300
5.5712 3.0756 2.2337
5.4573 3.2709 2.2393
5.3354 3.4612 2.2448
5.1934 3.6376 2.2446
5.0445 3.8077 2.2442
4.8897 3.9715 2.2438
4.7292 4.1288 2.2434
4.5633 4.2795 2.2430
4.3922 4.4233 2.2426
4.2165 4.5602 2.2421
4.0362 4.6899 2.2417
3.8521 4.8128 2.2413
3.6646 4.9289 2.2413
3.4735 5.0377 2.2413
3.2791 5.1392 2.2413
3.2568 5.5300 2.3685
3.0779 5.6808 2.3937
2.8618 5.7648 2.3937
2.6436 5.8405 2.3937
0.9392 2.2897 0.9277
0.8564 2.3210 0.9310
0.7725 2.3493 0.9343
0.6876 2.3745 0.9377
0.6018 2.3966 0.9410
0.5153 2.4156 0.9444
0.4281 2.4315 0.9477
0.3404 2.4442 0.9510
0.2523 2.4538 0.9543
0.1640 2.4601 0.9576
0.0754 2.4633 0.9609
-0.0132 2.4633 0.9642
-0.1018 2.4600 0.9674
-0.1902 2.4536 0.9706
-0.2783 2.4440 0.9737
-0.3660 2.4312 0.9768
-0.4532 2.4152 0.9799
-0.5398 2.3961 0.9829
-0.6256 2.3739 0.9859
-0.7105 2.3486 0.9887
-0.7945 2.3203 0.9916
-0.8774 2.2889 0.9943
-2.3027 5.4127 2.3937
-2.4892 5.3093 2.3937
-2.6717 5.1999 2.3937
-2.8498 5.0848 2.3937
-3.0235 4.9641 2.3937
-3.1927 4.8379 2.3937
-3.3571 4.7065 2.3937
-3.5166 4.5699 2.3937
-3.6711 4.4285 2.3937
-3.8205 4.2823 2.3937
-3.9647 4.1315 2.3937
-4.1035 3.9763 2.3937
-4.2368 3.8169 2.3937
-4.3645 3.6535 2.3937
-4.4865 3.4863 2.3937
0.3216 2.2873 0.9503
0.2391 2.2963 0.9534
0.1564 2.3022 0.9565
0.0735 2.3052 0.9596
-0.0095 2.3052 0.9626
-0.0924 2.3022 0.9657
-0.1751 2.2962 0.9686
-0.2576 2.2872 0.9716
-0.3397 2.2753 0.9745
-0.4213 2.2604 0.9773
-0.5023 2.2425 0.9802
-0.5826 2.2217 0.9829
-0.6622 2.1981 0.9856
-0.7408 2.1716 0.9883
-0.8184 2.1423 0.9909
-2.1563 5.0846 2.3937
-2.3320 4.9883 2.3937
-2.5038 4.8863 2.3937
-2.6717 4.7789 2.3937
-2.8354 4.6662 2.3937
-2.9949 4.5483 2.3937
-3.1499 4.4253 2.3937
-3.3004 4.2976 2.3937
-3.4462 4.1651 2.3937
-3.5872 4.0281 2.3937
-3.7232 3.8868 2.3937
-3.8542 3.7413 2.3937
-3.9801 3.5917 2.3937
-4.1007 3.4383 2.3937
-4.2160 3.2812 2.3937
-4.3258 3.1207 2.3937
-4.4302 2.9568 2.3937
-4.5288 2.7897 2.3937
-4.6218 2.6197 2.3937
-4.7091 2.4469 2.3937
-4.7905 2.2715 2.3937
-4.8660 2.0936 2.3937
-4.9355 1.9133 2.3937
-4.9990 1.7311 2.3937
-5.0565 1.5469 2.3937
-5.1078 1.3610 2.3937
-5.1529 1.1736 2.3937
-5.1919 0.9848 2.3937
-5.2246 0.7948 2.3937
-5.2510 0.6039 2.3937
-5.2711 0.4121 2.3937
-5.2849 0.2197 2.3937
-5.2924 0.0269 2.3937
-5.2935 -0.1662 2.3937
-5.2882 -0.3594 2.3937
-5.2765 -0.5524 2.3937
-5.2584 -0.7451 2.3937
-5.2340 -0.9373 2.3937
-5.2031 -1.1288 2.3937
-5.1659 -1.3194 2.3937
-5.1223 -1.5089 2.3937
-5.0724 -1.6971 2.3937
-5.0162 -1.8839 2.3937
-4.9537 -2.0690 2.3937
-4.8850 -2.2523 2.3937
-4.8100 -2.4334 2.3937
-4.7289 -2.6124 2.3937
-4.6416 -2.7888 2.3937
-4.5483 -2.9627 2.3937
-4.4489 -3.1336 2.3937
-4.3437 -3.3015 2.3937
-4.2326 -3.4662 2.3937
-4.1157 -3.6274 2.3937
-3.9931 -3.7850 2.3937
-3.8648 -3.9387 2.3937
-3.7311 -4.0884 2.3937
-3.5920 -4.2338 2.3937
-3.4476 -4.3748 2.3937
-3.2980 -4.5112 2.3937
-3.1434 -4.6428 2.3937
-2.9839 -4.7693 2.3937
-2.8196 -4.8906 2.3937
-2.6507 -5.0065 2.3937
-2.4774 -5.1169 2.3937
-2.2997 -5.2215 2.3937
-2.1180 -5.3201 2.3937
-1.9323 -5.4126 2.3937
-1.7429 -5.4989 2.3937
-1.5499 -5.5786 2.3937
-1.3537 -5.6518 2.3937
-1.1543 -5.7182 2.3937
-0.9520 -5.7777 2.3937
-0.7470 -5.8301 2.3937
-0.5397 -5.8753 2.3937
-0.3302 -5.9131 2.3937
-0.1187 -5.9435 2.3937
0.0943 -5.9664 2.3937
0.3088 -5.9815 2.3937
0.5243 -5.9889 2.3937
0.7407 -5.9885 2.3937
0.9575 -5.9801 2.3937
1.1746 -5.9637 2.3937
1.3916 -5.9392 2.3937
1.6081 -5.9065 2.3937
1.8240 -5.8660 2.3937
2.0388 -5.8172 2.3937
2.2522 -5.7604 2.3937
2.4640 -5.6953 2.3937
2.6012 -5.4699 2.3288
2.6976 -5.1889 2.2413
2.8893 -5.1048 2.2413
3.0782 -5.0140 2.2413
3.2639 -4.9158 2.2413
3.4462 -4.8104 2.2414
3.6247 -4.6978 2.2414
3.7996 -4.5787 2.2417
3.9704 -4.4530 2.2421
4.1365 -4.3205 2.2425
4.2978 -4.1814 2.2429
4.4538 -4.0359 2.2433
4.6043 -3.8841 2.2436
4.7491 -3.7263 2.2440
4.8877 -3.5627 2.2443
5.0148 -3.3903 2.2423
5.1265 -3.2068 2.2365
5.2336 -3.0215 2.2319
5.3351 -2.8331 2.2281
5.4308 -2.6418 2.2250
5.5242 -2.4493 2.2241
5.6116 -2.2541 2.2238
5.6927 -2.0555 2.2240
5.7668 -1.8545 2.2246
5.8332 -1.6506 2.2253
5.6323 -1.3804 2.1280
5.6370 -1.1717 2.1124
5.9807 -1.0239 2.2262
6.0130 -0.8116 2.2264
6.0369 -0.5981 2.2266
6.0524 -0.3840 2.2268
6.0594 -0.1695 2.2270
6.0580 0.0451 2.2272
6.0481 0.2593 2.2275
5.7330 0.4495 2.1180
6.0032 0.6853 2.2279
5.9682 0.8964 2.2281
5.9250 1.1043 2.2283
5.8728 1.3129 2.2282
5.8122 1.5174 2.2279
5.7450 1.7195 2.2281
5.6713 1.9190 2.2287
5.5922 2.1158 2.2303
5.5116 2.3119 2.2342
5.4245 2.5051 2.2386
5.3320 2.6958 2.2438
5.2221 2.8773 2.2448
5.1028 3.0525 2.2444
4.9770 3.2226 2.2441
4.8451 3.3873 2.2438
4.7074 3.5465 2.2434
4.5640 3.6999 2.2430
4.4153 3.8474 2.2427
4.2616 3.9888 2.2423
4.1030 4.1238 2.2419
3.9399 4.2525 2.2414
3.7732 4.3751 2.2413
3.6025 4.4913 2.2413
3.4282 4.6008 2.2413
3.2505 4.7034 2.2413
3.2298 5.0496 2.3582
3.0823 5.2204 2.3937
2.8834 5.3077 2.3937
2.6821 5.3874 2.3937
0.9582 2.1107 0.9254
0.8818 2.1427 0.9285
0.8043 2.1720 0.9316
0.7257 2.1984 0.9347
0.6462 2.2220 0.9378
0.5659 2.2427 0.9410
0.4850 2.2605 0.9441
0.4034 2.2754 0.9472
0.3213 2.2873 0.9503
0.2389 2.2963 0.9534
0.1561 2.3023 0.9565
0.0732 2.3052 0.9596
-0.0097 2.3052 0.9626
-0.0926 2.3022 0.9657
-0.1753 2.2962 0.9686
-0.2578 2.2872 0.9716
-0.3399 2.2752 0.9745
-0.4215 2.2603 0.9774
-0.5026 2.2425 0.9802
-0.5829 2.2217 0.9829
-0.6624 2.1980 0.9856
-0.7410 2.1715 0.9883
-0.8186 2.1422 0.9909
-2.1569 5.0843 2.3937
-2.3325 4.9880 2.3937
-2.5043 4.8860 2.3937
-2.6722 4.7786 2.3937
-2.8359 4.6658 2.3937
-2.9953 4.5479 2.3937
-3.1504 4.4250 2.3937
-3.3008 4.2972 2.3937
-3.4466 4.1647 2.3937
-3.5876 4.0277 2.3937
-3.7236 3.8864 2.3937
-3.8546 3.7408 2.3937
-3.9805 3.5913 2.3937
-4.1011 3.4379 2.3937
-4.2163 3.2808 2.3937
-4.3262 3.1202 2.3937
-4.4304 2.9563 2.3937
-4.5291 2.7892 2.3937
-4.6221 2.6192 2.3937
-4.7093 2.4465 2.3937
-4.7907 2.2708 2.3937
-4.8662 2.0930 2.3937
-4.9357 1.9128 2.3937
-4.9992 1.7306 2.3937
-5.0566 1.5465 2.3937
-5.1079 1.3605 2.3937
-5.1531 1.1730 2.3937
-5.1920 0.9842 2.3937
-5.2247 0.7943 2.3937
-5.2511 0.6033 2.3937
-5.2712 0.4115 2.3937
-5.2850 0.2191 2.3937
-5.2924 0.0263 2.3937
-5.2935 -0.1668 2.3937
-5.2881 -0.3599 2.3937
-5.2764 -0.5530 2.3937
-5.2584 -0.7457 2.3937
-5.2339 -0.9379 2.3937
-5.2030 -1.1294 2.3937
-5.1658 -1.3199 2.3937
-5.1222 -1.5095 2.3937
-5.0723 -1.6977 2.3937
-5.0160 -1.8845 2.3937
-4.9535 -2.0696 2.3937
-4.8848 -2.2528 2.3937
-4.8098 -2.4340 2.3937
-4.7286 -2.6129 2.3937
-4.6413 -2.7894 2.3937
-4.5480 -2.9632 2.3937
-4.4486 -3.1341 2.3937
-4.3434 -3.3020 2.3937
-4.2322 -3.4667 2.3937
-4.1153 -3.6279 2.3937
-3.9927 -3.7855 2.3937
-3.8645 -3.9392 2.3937
-3.7307 -4.0888 2.3937
-3.5916 -4.2343 2.3937
-3.4472 -4.3753 2.3937
-3.2976 -4.5116 2.3937
-3.1429 -4.6431 2.3937
-2.9834 -4.7697 2.3937
-2.8191 -4.8910 2.3937
-2.6502 -5.0069 2.3937
-2.4768 -5.1172 2.3937
-2.2992 -5.2218 2.3937
-2.1174 -5.3204 2.3937
-1.9318 -5.4129 2.3937
-1.7423 -5.4991 2.3937
-1.5494 -5.5789 2.3937
-1.3531 -5.6520 2.3937
-1.1537 -5.7185 2.3937
-0.9514 -5.7779 2.3937
-0.7464 -5.8302 2.3937
-0.5391 -5.8754 2.3937
-0.3295 -5.9132 2.3937
-0.1181 -5.9436 2.3937
0.0950 -5.9664 2.3937
0.3094 -5.9816 2.3937
0.5250 -5.9889 2.3937
0.7413 -5.9884 2.3937
0.9582 -5.9800 2.3937
1.1752 -5.9636 2.3937
1.3922 -5.9391 2.3937
1.6088 -5.9059 2.3937
1.8246 -5.8659 2.3937
2.0394 -5.8171 2.3937
2.2529 -5.7601 2.3937
2.4646 -5.6951 2.3937
2.6014 -5.4687 2.3284
2.6982 -5.1883 2.2413
2.8899 -5.1046 2.2413
3.0787 -5.0137 2.2413
3.2645 -4.9155 2.2413
3.4467 -4.8100 2.2414
3.6252 -4.6975 2.2414
3.8001 -4.5783 2.2417
3.9709 -4.4526 2.2421
4.1370 -4.3201 2.2425
4.2983 -4.1810 2.2429
4.4543 -4.0355 2.2433
4.6048 -3.8837 2.2436
4.7495 -3.7258 2.2440
4.8881 -3.5622 2.2443
5.0152 -3.3893 2.2423
5.1268 -3.2060 2.2365
5.2339 -3.0210 2.2319
5.3354 -2.8328 2.2281
5.4311 -2.6413 2.2250
5.5245 -2.4489 2.2241
5.6119 -2.2533 2.2238
5.6929 -2.0550 2.2240
5.7670 -1.8537 2.2246
5.8334 -1.6497 2.2253
5.6324 -1.3798 2.1279
5.6371 -1.1711 2.1124
5.9808 -1.0232 2.2262
6.0131 -0.8109 2.2264
6.0370 -0.5975 2.2266
6.0524 -0.3834 2.2268
6.0594 -0.1689 2.2270
6.0580 0.0457 2.2272
6.0481 0.2599 2.2275
5.7331 0.4501 2.1181
6.0031 0.6859 2.2279
5.9681 0.8970 2.2281
5.9249 1.1066 2.2283
5.8726 1.3135 2.2282
5.8121 1.5179 2.2279
5.7448 1.7200 2.2281
5.6710 1.9193 2.2287
5.5920 2.1163 2.2303
5.5113 2.3124 2.2342
5.4243 2.5056 2.2386
5.3317 2.6963 2.2438
5.2218 2.8779 2.2448
5.1024 3.0530 2.2444
4.9766 3.2231 2.2441
4.8447 3.3878 2.2438
4.7070 3.5470 2.2434
4.5636 3.7004 2.2430
4.4149 3.8478 2.2427
4.2611 3.9892 2.2423
4.1025 4.1242 2.2419
3.9394 4.2528 2.2414
3.7727 4.3755 2.2413
3.6020 4.4917 2.2413
3.4277 4.6011 2.2413
3.2500 4.7037 2.2413
3.2298 5.0507 2.3586
3.0817 5.2206 2.3937
2.8828 5.3079 2.3937
2.6815 5.3876 2.3937
0.9580 2.1108 0.9254
0.8816 2.1428 0.9285
0.8040 2.1721 0.9316
0.7255 2.1985 0.9347
0.6460 2.2221 0.9378
0.5657 2.2428 0.9410
0.4847 2.2606 0.9441
0.4031 2.2755 0.9472
0.3211 2.2874 0.9503
0.2386 2.2963 0.9535
0.1559 2.3023 0.9565
0.0730 2.3052 0.9596
-0.0100 2.3052 0.9627
-0.0929 2.3022 0.9657
-0.1756 2.2962 0.9687
-0.2581 2.2872 0.9716
-0.3402 2.2752 0.9745
-0.4218 2.2603 0.9774
-0.5028 2.2424 0.9802
-0.5831 2.2216 0.9829
-0.6626 2.1980 0.9857
-0.7412 2.1714 0.9883
-0.8189 2.1421 0.9909
-2.1574 5.0840 2.3937
-2.3330 4.9877 2.3937
-2.5048 4.8857 2.3937
-2.6727 4.7783 2.3937
-2.8364 4.6655 2.3937
-2.9958 4.5476 2.3937
-3.1508 4.4246 2.3937
-3.3013 4.2968 2.3937
-3.4470 4.1643 2.3937
-3.5880 4.0273 2.3937
-3.7240 3.8859 2.3937
-3.8550 3.7404 2.3937
-3.9808 3.5908 2.3937
-4.1014 3.4374 2.3937
-4.2167 3.2803 2.3937
-4.3265 3.1197 2.3937
-4.4308 2.9558 2.3937
-4.5294 2.7888 2.3937
-4.6224 2.6187 2.3937
-4.7096 2.4461 2.3937
-4.7909 2.2704 2.3937
-4.8664 2.0924 2.3937
-4.9359 1.9122 2.3937
-4.9994 1.7300 2.3937
-5.0568 1.5458 2.3937
-5.1081 1.3599 2.3937
-5.1532 1.1725 2.3937
-5.1921 0.9837 2.3937
-5.2248 0.7937 2.3937
-5.2512 0.6027 2.3937
-5.2712 0.4110 2.3937
-5.2850 0.2186 2.3937
-5.2924 0.0257 2.3937
-5.2934 -0.1674 2.3937
-5.2881 -0.3605 2.3937
-5.2764 -0.5535 2.3937
-5.2583 -0.7462 2.3937
-5.2338 -0.9384 2.3937
-5.2029 -1.1299 2.3937
-5.1657 -1.3205 2.3937
-5.1221 -1.5100 2.3937
-5.0721 -1.6983 2.3937
-5.0159 -1.8850 2.3937
-4.9533 -2.0701 2.3937
-4.8845 -2.2533 2.3937
-4.8095 -2.4345 2.3937
-4.7284 -2.6134 2.3937
-4.6411 -2.7899 2.3937
-4.5477 -2.9637 2.3937
-4.4483 -3.1346 2.3937
-4.3430 -3.3025 2.3937
-4.2319 -3.4672 2.3937
-4.1150 -3.6284 2.3937
-3.9923 -3.7859 2.3937
-3.8641 -3.9396 2.3937
-3.7303 -4.0893 2.3937
-3.5912 -4.2347 2.3937
-3.4467 -4.3757 2.3937
-3.2971 -4.5120 2.3937
-3.1425 -4.6435 2.3937
-2.9829 -4.7700 2.3937
-2.8186 -4.8913 2.3937
-2.6497 -5.0072 2.3937
-2.4763 -5.1175 2.3937
-2.2987 -5.2221 2.3937
-2.1169 -5.3207 2.3937
-1.9312 -5.4132 2.3937
-1.7418 -5.4994 2.3937
-1.5488 -5.5790 2.3937
-1.3525 -5.6522 2.3937
-1.1531 -5.7186 2.3937
-0.9508 -5.7780 2.3937
-0.7458 -5.8304 2.3937
-0.5385 -5.8755 2.3937
-0.3289 -5.9133 2.3937
-0.1175 -5.9437 2.3937
0.0956 -5.9665 2.3937
0.3101 -5.9816 2.3937
0.5256 -5.9889 2.3937
0.7419 -5.9884 2.3937
0.9588 -5.9800 2.3937
1.1759 -5.9635 2.3937
1.3928 -5.9390 2.3937
1.6094 -5.9063 2.3937
1.8252 -5.8658 2.3937
2.0401 -5.8169 2.3937
2.2535 -5.7600 2.3937
2.4652 -5.6949 2.3937
2.6015 -5.4675 2.3280
2.6987 -5.1883 2.2413
2.8904 -5.1043 2.2413
3.0793 -5.0134 2.2413
3.2650 -4.9152 2.2413
3.4473 -4.8097 2.2414
3.6258 -4.6971 2.2414
3.8006 -4.5779 2.2417
3.9713 -4.4522 2.2421
4.1375 -4.3197 2.2425
4.2987 -4.1806 2.2429
4.4547 -4.0350 2.2433
4.6052 -3.8832 2.2436
4.7499 -3.7254 2.2440
4.8885 -3.5617 2.2443
5.0155 -3.3891 2.2423
5.1271 -3.2057 2.2365
5.2342 -3.0204 2.2319
5.3357 -2.8322 2.2281
5.4314 -2.6407 2.2250
5.5248 -2.4484 2.2241
5.6121 -2.2527 2.2238
5.6931 -2.0545 2.2240
5.7672 -1.8531 2.2246
5.8336 -1.6491 2.2253
5.6324 -1.3791 2.1279
5.6371 -1.1705 2.1123
5.9809 -1.0226 2.2262
6.0132 -0.8103 2.2264
6.0370 -0.5969 2.2266
6.0525 -0.3828 2.2268
6.0594 -0.1682 2.2270
6.0579 0.0463 2.2273
6.0480 0.2605 2.2275
5.7331 0.4507 2.1181
6.0030 0.6865 2.2279
5.9680 0.8976 2.2281
5.9247 1.1059 2.2283
5.8724 1.3141 2.2282
5.8119 1.5186 2.2279
5.7445 1.7205 2.2281
5.6708 1.9199 2.2287
5.5918 2.1170 2.2303
5.5111 2.3130 2.2342
5.4240 2.5062 2.2386
5.3314 2.6968 2.2438
5.2214 2.8784 2.2447
5.1020 3.0535 2.2444
4.9763 3.2236 2.2441
4.8444 3.3883 2.2438
4.7066 3.5474 2.2434
4.5632 3.7008 2.2430
4.4145 3.8482 2.2427
4.2606 3.9896 2.2423
4.1021 4.1246 2.2419
3.9389 4.2532 2.2414
3.7722 4.3758 2.2413
3.6015 4.4920 2.2413
3.4272 4.6014 2.2413
3.2495 4.7040 2.2413
3.2298 5.0519 2.3590
3.0811 5.2209 2.3937
2.8822 5.3082 2.3937
2.6809 5.3878 2.3937
0.9578 2.1109 0.9254
0.8814 2.1429 0.9285
0.8038 2.1721 0.9316
0.7252 2.1986 0.9347
0.6457 2.2222 0.9379
0.5655 2.2429 0.9410
0.4845 2.2606 0.9441
0.4029 2.2755 0.9472
0.3208 2.2874 0.9504
0.2384 2.2963 0.9535
0.1556 2.3023 0.9566
0.0728 2.3052 0.9596
-0.0102 2.3052 0.9627
-0.0931 2.3022 0.9657
-0.1758 2.2961 0.9687
-0.2583 2.2871 0.9716
-0.3404 2.2752 0.9745
-0.4220 2.2602 0.9774
-0.5030 2.2423 0.9802
-0.5833 2.2216 0.9830
-0.6629 2.1979 0.9857
-0.7415 2.1713 0.9883
-0.8191 2.1420 0.9909
-2.1579 5.0837 2.3937
-2.3335 4.9874 2.3937
-2.5053 4.8854 2.3937
-2.6732 4.7780 2.3937
-2.8369 4.6652 2.3937
-2.9963 4.5472 2.3937
-3.1513 4.4242 2.3937
-3.3017 4.2964 2.3937
-3.4474 4.1639 2.3937
-3.5884 4.0269 2.3937
-3.7244 3.8855 2.3937
-3.8554 3.7400 2.3937
-3.9812 3.5904 2.3937
-4.1018 3.4370 2.3937
-4.2170 3.2799 2.3937
0.3040 2.1469 0.9497
0.2266 2.1554 0.9526
0.1489 2.1610 0.9555
0.0711 2.1638 0.9584
-0.0068 2.1637 0.9613
-0.0846 2.1609 0.9641
-0.1623 2.1553 0.9669
-0.2397 2.1468 0.9697
-0.3168 2.1356 0.9724
-0.3934 2.1216 0.9751
-0.4695 2.1049 0.9777
-0.5449 2.0854 0.9803
-0.6195 2.0632 0.9829
-0.6934 2.0383 0.9854
-0.7662 2.0108 0.9878
-0.8380 1.9806 0.9902
-2.1917 4.6980 2.3937
-2.3539 4.6026 2.3937
-2.5124 4.5021 2.3937
-2.6671 4.3964 2.3937
-2.8177 4.2858 2.3937
-2.9642 4.1705 2.3937
-3.1064 4.0505 2.3937
-3.2442 3.9261 2.3937
-3.3775 3.7974 2.3937
-3.5062 3.6645 2.3937
-3.6301 3.5276 2.3937
-3.7492 3.3868 2.3937
-3.8633 3.2424 2.3937
-3.9723 3.0945 2.3937
-4.0762 2.9432 2.3937
-4.1749 2.7888 2.3937
-4.2683 2.6314 2.3937
-4.3563 2.4711 2.3937
-4.4389 2.3081 2.3937
-4.5159 2.1426 2.3937
-4.5873 1.9748 2.3937
-4.6531 1.8049 2.3937
-4.7132 1.6329 2.3937
-4.7675 1.4592 2.3937
-4.8160 1.2838 2.3937
-4.8587 1.1068 2.3937
-4.8955 0.9286 2.3937
-4.9263 0.7493 2.3937
-4.9512 0.5691 2.3937
-4.9702 0.3880 2.3937
-4.9831 0.2065 2.3937
-4.9900 0.0244 2.3937
-4.9908 -0.1577 2.3937
-4.9856 -0.3400 2.3937
-4.9744 -0.5222 2.3937
-4.9571 -0.7040 2.3937
-4.9337 -0.8853 2.3937
-4.9043 -1.0659 2.3937
-4.8689 -1.2457 2.3937
-4.8274 -1.4244 2.3937
-4.7800 -1.6018 2.3937
-4.7265 -1.7779 2.3937
-4.6672 -1.9523 2.3937
-4.6019 -2.1249 2.3937
-4.5307 -2.2956 2.3937
-4.4537 -2.4640 2.3937
-4.3709 -2.6301 2.3937
-4.2825 -2.7937 2.3937
-4.1883 -2.9545 2.3937
-4.0886 -3.1123 2.3937
-3.9833 -3.2671 2.3937
-3.8726 -3.4186 2.3937
-3.7566 -3.5665 2.3937
-3.6352 -3.7108 2.3937
-3.5088 -3.8512 2.3937
-3.3772 -3.9876 2.3937
-3.2407 -4.1197 2.3937
-3.0994 -4.2474 2.3937
-2.9533 -4.3705 2.3937
-2.8027 -4.4889 2.3937
-2.6477 -4.6022 2.3937
-2.4883 -4.7105 2.3937
-2.3248 -4.8134 2.3937
-2.1573 -4.9109 2.3937
-1.9860 -5.0027 2.3937
-1.8111 -5.0888 2.3937
-1.6328 -5.1689 2.3937
-1.4511 -5.2428 2.3937
-1.2664 -5.3105 2.3937
-1.0789 -5.3719 2.3937
-0.8887 -5.4267 2.3937
-0.6961 -5.4748 2.3937
-0.5013 -5.5161 2.3937
-0.3045 -5.5506 2.3937
-0.1061 -5.5780 2.3937
0.0939 -5.5983 2.3937
0.2950 -5.6114 2.3937
0.4971 -5.6172 2.3937
0.6999 -5.6157 2.3937
0.9030 -5.6067 2.3937
1.1063 -5.5902 2.3937
1.3094 -5.5662 2.3937
1.5121 -5.5347 2.3937
1.7140 -5.4956 2.3937
1.9148 -5.4489 2.3937
2.1143 -5.3946 2.3937
2.3122 -5.3327 2.3937
2.5081 -5.2633 2.3937
2.6272 -5.0433 2.3276
2.7086 -4.7779 2.2413
2.8848 -4.6914 2.2413
3.0581 -4.5988 2.2413
3.2281 -4.4995 2.2413
3.3945 -4.3936 2.2414
3.5571 -4.2811 2.2414
3.7156 -4.1623 2.2414
3.8703 -4.0379 2.2418
4.0204 -3.9074 2.2422
4.1656 -3.7709 2.2425
4.3057 -3.6286 2.2429
4.4403 -3.4808 2.2432
4.5693 -3.3277 2.2435
4.6923 -3.1694 2.2438
4.8093 -3.0061 2.2441
4.9199 -2.8383 2.2444
5.0207 -2.6644 2.2431
5.1106 -2.4845 2.2401
5.1903 -2.2999 2.2358
5.2660 -2.1140 2.2330
5.3353 -1.9258 2.2305
5.3980 -1.7349 2.2284
5.4537 -1.5426 2.2265
5.5052 -1.3487 2.2260
5.5496 -1.1534 2.2257
5.5865 -0.9566 2.2255
5.6160 -0.7581 2.2254
5.6382 -0.5591 2.2256
5.6528 -0.3594 2.2258
5.6596 -0.1591 2.2260
5.6584 0.0411 2.2262
5.6495 0.2410 2.2265
5.6335 0.4404 2.2270
5.6100 0.6390 2.2276
5.5790 0.8359 2.2283
5.5417 1.0323 2.2295
5.4994 1.2272 2.2319
5.4503 1.4205 2.2344
5.3946 1.6118 2.2374
5.3347 1.8020 2.2417
5.2634 1.9884 2.2443
5.1800 2.1695 2.2447
5.0884 2.3464 2.2444
4.9901 2.5193 2.2442
4.8855 2.6879 2.2439
4.7747 2.8521 2.2436
4.6579 3.0116 2.2433
4.5354 3.1661 2.2430
4.4073 3.3155 2.2427
4.2740 3.4596 2.2423
4.1357 3.5982 2.2420
3.9926 3.7311 2.2416
3.8452 3.8585 2.2414
3.6938 3.9803 2.2413
3.5385 4.0961 2.2413
3.3793 4.2056 2.2413
3.2183 4.3112 2.2424
3.2051 4.6289 2.3546
3.0779 4.8025 2.3937
2.8946 4.8923 2.3937
2.7087 4.9751 2.3937
2.5204 5.0508 2.3937
0.9017 1.9812 0.9263
0.8300 2.0113 0.9292
0.7571 2.0387 0.9321
0.6834 2.0635 0.9351
0.6088 2.0857 0.9380
0.5334 2.1051 0.9409
0.4574 2.1218 0.9439
0.3808 2.1358 0.9468
0.3037 2.1470 0.9497
0.2263 2.1554 0.9527
0.1487 2.1610 0.9556
0.0708 2.1638 0.9584
-0.0070 2.1637 0.9613
-0.0849 2.1609 0.9641
-0.1625 2.1553 0.9669
-0.2399 2.1468 0.9697
-0.3170 2.1356 0.9724
-0.3936 2.1216 0.9751
-0.4697 2.1048 0.9777
-0.5451 2.0853 0.9803
-0.6198 2.0631 0.9829
-0.6936 2.0382 0.9854
-0.7664 2.0107 0.9878
-0.8383 1.9805 0.9902
-2.1922 4.6977 2.3937
-2.3544 4.6023 2.3937
-2.5129 4.5018 2.3937
-2.6675 4.3961 2.3937
-2.8181 4.2855 2.3937
-2.9646 4.1702 2.3937
-3.1068 4.0502 2.3937
-3.2446 3.9257 2.3937
-3.3779 3.7970 2.3937
-3.5065 3.6641 2.3937
-3.6304 3.5272 2.3937
-3.7495 3.3864 2.3937
-3.8636 3.2420 2.3937
-3.9726 3.0941 2.3937
-4.0765 2.9428 2.3937
-4.1752 2.7884 2.3937
-4.2686 2.6309 2.3937
-4.3566 2.4706 2.3937
-4.4391 2.3077 2.3937
-4.5161 2.1422 2.3937
-4.5875 1.9743 2.3937
-4.6533 1.8044 2.3937
-4.7134 1.6324 2.3937
-4.7677 1.4586 2.3937
-4.8162 1.2832 2.3937
-4.8588 1.1063 2.3937
-4.8956 0.9281 2.3937
-4.9264 0.7488 2.3937
-4.9513 0.5685 2.3937
-4.9702 0.3875 2.3937
-4.9831 0.2059 2.3937
-4.9900 0.0239 2.3937
-4.9908 -0.1584 2.3937
-4.9856 -0.3406 2.3937
-4.9743 -0.5227 2.3937
-4.9570 -0.7045 2.3937
-4.9337 -0.8858 2.3937
-4.9042 -1.0665 2.3937
-4.8688 -1.2462 2.3937
-4.8273 -1.4249 2.3937
-4.7798 -1.6024 2.3937
-4.7264 -1.7784 2.3937
-4.6670 -1.9528 2.3937
-4.6017 -2.1254 2.3937
-4.5305 -2.2961 2.3937
-4.4535 -2.4645 2.3937
-4.3707 -2.6306 2.3937
-4.2822 -2.7942 2.3937
-4.1880 -2.9549 2.3937
-4.0883 -3.1128 2.3937
-3.9830 -3.2676 2.3937
-3.8723 -3.4190 2.3937
-3.7562 -3.5670 2.3937
-3.6349 -3.7112 2.3937
-3.5084 -3.8516 2.3937
-3.3768 -3.9880 2.3937
-3.2403 -4.1201 2.3937
-3.0990 -4.2478 2.3937
-2.9529 -4.3709 2.3937
-2.8023 -4.4892 2.3937
-2.6472 -4.6026 2.3937
-2.4878 -4.7108 2.3937
-2.3243 -4.8137 2.3937
-2.1568 -4.9112 2.3937
-1.9855 -5.0030 2.3937
-1.8106 -5.0890 2.3937
-1.6322 -5.1691 2.3937
-1.4506 -5.2431 2.3937
-1.2659 -5.3107 2.3937
-1.0783 -5.3721 2.3937
-0.8881 -5.4268 2.3937
-0.6955 -5.4749 2.3937
-0.5007 -5.5163 2.3937
-0.3039 -5.5507 2.3937
-0.1055 -5.5781 2.3937
0.0945 -5.5984 2.3937
0.2956 -5.6114 2.3937
0.4977 -5.6172 2.3937
0.7005 -5.6157 2.3937
0.9036 -5.6067 2.3937
1.1069 -5.5902 2.3937
1.3100 -5.5662 2.3937
1.5127 -5.5346 2.3937
1.7145 -5.4954 2.3937
1.9154 -5.4487 2.3937
2.1149 -5.3944 2.3937
2.3128 -5.3325 2.3937
2.5087 -5.2631 2.3937
2.6273 -5.0423 2.3272
2.7091 -4.7773 2.2413
2.8853 -4.6912 2.2413
3.0586 -4.5986 2.2413
3.2286 -4.4992 2.2413
3.3950 -4.3932 2.2414
3.5576 -4.2808 2.2414
3.7161 -4.1620 2.2414
3.8708 -4.0375 2.2418
4.0208 -3.9070 2.2422
4.1660 -3.7705 2.2425
4.3061 -3.6282 2.2429
4.4407 -3.4804 2.2432
4.5696 -3.3272 2.2435
4.6927 -3.1689 2.2438
4.8096 -3.0057 2.2441
4.9202 -2.8378 2.2444
5.0209 -2.6636 2.2431
5.1108 -2.4837 2.2401
5.1905 -2.2994 2.2358
5.2662 -2.1134 2.2329
5.3355 -1.9252 2.2305
5.3981 -1.7345 2.2284
5.4539 -1.5421 2.2265
5.5054 -1.3483 2.2260
5.5497 -1.1529 2.2257
5.5866 -0.9559 2.2255
5.6160 -0.7577 2.2254
5.6383 -0.5585 2.2256
5.6528 -0.3590 2.2258
5.6596 -0.1585 2.2260
5.6584 0.0417 2.2262
5.6495 0.2415 2.2265
5.6335 0.4409 2.2270
5.6099 0.6394 2.2276
5.5789 0.8367 2.2283
5.5416 1.0327 2.2296
5.4993 1.2276 2.2319
5.4501 1.4209 2.2345
5.3944 1.6125 2.2374
5.3345 1.8029 2.2417
5.2632 1.9889 2.2443
5.1797 2.1701 2.2447
5.0881 2.3469 2.2444
4.9898 2.5198 2.2442
4.8852 2.6884 2.2439
4.7743 2.8526 2.2436
4.6575 3.0120 2.2433
4.5350 3.1666 2.2430
4.4070 3.3160 2.2427
4.2736 3.4600 2.2423
4.1353 3.5986 2.2420
3.9921 3.7315 2.2416
3.8447 3.8589 2.2414
3.6934 3.9806 2.2413
3.5380 4.0964 2.2413
3.3788 4.2060 2.2413
3.2181 4.3119 2.2426
3.2051 4.6300 2.3550
3.0773 4.8028 2.3937
2.8941 4.8926 2.3937
2.7081 4.9753 2.3937
2.5199 5.0510 2.3937
0.9015 1.9813 0.9263
0.8297 2.0113 0.9292
0.7569 2.0388 0.9322
0.6832 2.0636 0.9351
0.6086 2.0858 0.9380
0.5332 2.1052 0.9410
0.4571 2.1219 0.9439
0.3806 2.1358 0.9468
0.3035 2.1470 0.9497
0.2261 2.1554 0.9527
0.1484 2.1610 0.9556
0.0706 2.1638 0.9584
-0.0073 2.1637 0.9613
-0.0851 2.1609 0.9641
-0.1628 2.1552 0.9669
-0.2402 2.1468 0.9697
-0.3172 2.1355 0.9724
-0.3939 2.1215 0.9751
-0.4699 2.1047 0.9778
-0.5453 2.0852 0.9803
-0.6200 2.0630 0.9829
-0.6938 2.0381 0.9854
-0.7666 2.0106 0.9878
-0.8385 1.9804 0.9902
-2.1927 4.6975 2.3937
-2.3549 4.6021 2.3937
-2.5133 4.5015 2.3937
-2.6680 4.3958 2.3937
-2.8186 4.2852 2.3937
-2.9650 4.1698 2.3937
-3.1072 4.0498 2.3937
-3.2450 3.9253 2.3937
-3.3783 3.7966 2.3937
-3.5069 3.6637 2.3937
-3.6308 3.5267 2.3937
-3.7498 3.3860 2.3937
-3.8639 3.2416 2.3937
-3.9730 3.0936 2.3937
-4.0768 2.9424 2.3937
-4.1755 2.7879 2.3937
-4.2689 2.6304 2.3937
-4.3568 2.4702 2.3937
-4.4394 2.3072 2.3937
-4.5163 2.1417 2.3937
-4.5877 1.9738 2.3937
-4.6535 1.8039 2.3937
-4.7135 1.6319 2.3937
-4.7678 1.4581 2.3937
-4.8163 1.2827 2.3937
-4.8589 1.1057 2.3937
-4.8957 0.9276 2.3937
-4.9265 0.7482 2.3937
-4.9514 0.5680 2.3937
-4.9702 0.3870 2.3937
-4.9831 0.2054 2.3937
-4.9900 0.0233 2.3937
-4.9908 -0.1589 2.3937
-4.9856 -0.3411 2.3937
-4.9743 -0.5232 2.3937
-4.9570 -0.7051 2.3937
-4.9336 -0.8863 2.3937
-4.9041 -1.0670 2.3937
-4.8687 -1.2467 2.3937
-4.8272 -1.4254 2.3937
-4.7797 -1.6029 2.3937
-4.7262 -1.7789 2.3937
-4.6668 -1.9533 2.3937
-4.6015 -2.1259 2.3937
-4.5303 -2.2966 2.3937
-4.4532 -2.4650 2.3937
-4.3704 -2.6311 2.3937
-4.2819 -2.7946 2.3937
-4.1877 -2.9554 2.3937
-4.0880 -3.1133 2.3937
-3.9827 -3.2680 2.3937
-3.8720 -3.4194 2.3937
-3.7559 -3.5674 2.3937
-3.6345 -3.7116 2.3937
-3.5080 -3.8520 2.3937
-3.3764 -3.9884 2.3937
-3.2399 -4.1205 2.3937
-3.0985 -4.2482 2.3937
-2.9525 -4.3712 2.3937
-2.8018 -4.4895 2.3937
-2.6467 -4.6029 2.3937
-2.4874 -4.7111 2.3937
-2.3238 -4.8140 2.3937
-2.1563 -4.9114 2.3937
-1.9850 -5.0033 2.3937
-1.8101 -5.0893 2.3937
-1.6317 -5.1693 2.3937
-1.4501 -5.2433 2.3937
-1.2653 -5.3109 2.3937
-1.0778 -5.3722 2.3937
-0.8876 -5.4270 2.3937
-0.6949 -5.4751 2.3937
-0.5001 -5.5164 2.3937
-0.3034 -5.5508 2.3937
-0.1049 -5.5781 2.3937
0.0951 -5.5984 2.3937
0.2962 -5.6115 2.3937
0.4983 -5.6172 2.3937
0.7011 -5.6156 2.3937
0.9042 -5.6066 2.3937
1.1075 -5.5901 2.3937
1.3106 -5.5661 2.3937
1.5132 -5.5345 2.3937
1.7151 -5.4953 2.3937
1.9160 -5.4486 2.3937
2.1155 -5.3942 2.3937
2.3133 -5.3323 2.3937
2.5092 -5.2629 2.3937
2.6274 -5.0412 2.3269
2.7096 -4.7773 2.2413
2.8858 -4.6909 2.2413
3.0591 -4.5983 2.2413
3.2290 -4.4989 2.2413
3.3955 -4.3929 2.2414
3.5581 -4.2804 2.2414
3.7165 -4.1616 2.2414
3.8712 -4.0371 2.2418
4.0213 -3.9066 2.2422
4.1664 -3.7701 2.2425
4.3065 -3.6278 2.2429
4.4411 -3.4799 2.2432
4.5700 -3.3267 2.2435
4.6930 -3.1684 2.2438
4.8100 -3.0052 2.2441
4.9206 -2.8373 2.2444
5.0212 -2.6633 2.2431
5.1110 -2.4834 2.2401
5.1908 -2.2988 2.2358
5.2664 -2.1129 2.2329
5.3357 -1.9246 2.2305
5.3983 -1.7341 2.2283
5.4540 -1.5416 2.2265
5.5055 -1.3479 2.2260
5.5498 -1.1524 2.2257
5.5867 -0.9555 2.2255
5.6161 -0.7569 2.2254
5.6384 -0.5579 2.2256
5.6529 -0.3582 2.2258
5.6596 -0.1580 2.2260
5.6584 0.0422 2.2262
5.6495 0.2420 2.2265
5.6334 0.4413 2.2270
5.6098 0.6398 2.2276
5.5788 0.8371 2.2283
5.5415 1.0334 2.2296
5.4991 1.2284 2.2319
5.4500 1.4216 2.2345
5.3943 1.6132 2.2374
5.3343 1.8032 2.2417
5.2630 1.9894 2.2443
5.1795 2.1706 2.2447
5.0878 2.3474 2.2444
4.9895 2.5203 2.2442
4.8849 2.6889 2.2439
4.7740 2.8531 2.2436
4.6572 3.0125 2.2433
4.5346 3.1670 2.2430
4.4066 3.3164 2.2427
4.2732 3.4605 2.2423
4.1349 3.5990 2.2420
3.9917 3.7319 2.2416
3.8443 3.8592 2.2414
3.6929 3.9810 2.2413
3.5375 4.0967 2.2413
3.3784 4.2063 2.2413
3.2179 4.3126 2.2428
3.2051 4.6310 2.3554
3.0768 4.8030 2.3937
2.8935 4.8928 2.3937
2.7076 4.9756 2.3937
2.5193 5.0513 2.3937
0.9013 1.9814 0.9263
0.8295 2.0114 0.9292
0.7567 2.0389 0.9322
0.6829 2.0637 0.9351
0.6083 2.0858 0.9380
0.5330 2.1052 0.9410
0.4569 2.1219 0.9439
0.3803 2.1359 0.9468
0.3033 2.1470 0.9498
0.2259 2.1554 0.9527
0.1482 2.1610 0.9556
0.0704 2.1638 0.9585
-0.0075 2.1637 0.9613
-0.0853 2.1609 0.9641
-0.1630 2.1552 0.9669
-0.2404 2.1468 0.9697
-0.3175 2.1355 0.9724
-0.3941 2.1215 0.9751
-0.4701 2.1047 0.9778
-0.5456 2.0852 0.9804
-0.6202 2.0630 0.9829
-0.6940 2.0380 0.9854
-0.7669 2.0105 0.9878
-0.8387 1.9803 0.9902
-2.1931 4.6972 2.3937
-2.3553 4.6018 2.3937
-2.5138 4.5011 2.3937
-2.6684 4.3955 2.3937
-2.8190 4.2848 2.3937
-2.9655 4.1695 2.3937
-3.1076 4.0494 2.3937
-3.2454 3.9250 2.3937
-3.3787 3.7962 2.3937
-3.5073 3.6633 2.3937
-3.6312 3.5263 2.3937
-3.7502 3.3856 2.3937
-3.8642 3.2411 2.3937
-3.9733 3.0932 2.3937
0.2881 2.0205 0.9492
0.2152 2.0284 0.9519
0.1421 2.0336 0.9547
0.0689 2.0363 0.9574
-0.0044 2.0362 0.9601
-0.0776 2.0336 0.9627
-0.1508 2.0283 0.9654
-0.2236 2.0203 0.9680
-0.2962 2.0098 0.9705
-0.3683 1.9966 0.9731
-0.4399 1.9808 0.9756
-0.5109 1.9625 0.9780
-0.5811 1.9416 0.9804
-0.6506 1.9181 0.9827
-0.7192 1.8922 0.9850
-0.7868 1.8639 0.9872
-0.8533 1.8331 0.9894
-2.2179 4.3453 2.3937
-2.3679 4.2508 2.3937
-2.5142 4.1515 2.3937
-2.6568 4.0476 2.3937
-2.7955 3.9391 2.3937
-2.9302 3.8261 2.3937
-3.0607 3.7089 2.3937
-3.1870 3.5876 2.3937
-3.3089 3.4624 2.3937
-3.4263 3.3333 2.3937
-3.5392 3.2005 2.3937
-3.6473 3.0643 2.3937
-3.7507 2.9247 2.3937
-3.8492 2.7819 2.3937
-3.9428 2.6360 2.3937
-4.0313 2.4873 2.3937
-4.1147 2.3359 2.3937
-4.1930 2.1818 2.3937
-4.2660 2.0254 2.3937
-4.3337 1.8668 2.3937
-4.3961 1.7061 2.3937
-4.4530 1.5435 2.3937
-4.5045 1.3792 2.3937
-4.5504 1.2133 2.3937
-4.5908 1.0460 2.3937
-4.6256 0.8774 2.3937
-4.6548 0.7078 2.3937
-4.6783 0.5374 2.3937
-4.6961 0.3661 2.3937
-4.7083 0.1944 2.3937
-4.7147 0.0223 2.3937
-4.7154 -0.1501 2.3937
-4.7103 -0.3225 2.3937
-4.6995 -0.4947 2.3937
-4.6829 -0.6666 2.3937
-4.6606 -0.8380 2.3937
-4.6325 -1.0087 2.3937
-4.5987 -1.1786 2.3937
-4.5592 -1.3475 2.3937
-4.5140 -1.5152 2.3937
-4.4631 -1.6815 2.3937
-4.4066 -1.8462 2.3937
-4.3445 -2.0092 2.3937
-4.2769 -2.1703 2.3937
-4.2037 -2.3292 2.3937
-4.1251 -2.4859 2.3937
-4.0410 -2.6402 2.3937
-3.9517 -2.7918 2.3937
-3.8570 -2.9406 2.3937
-3.7571 -3.0864 2.3937
-3.6521 -3.2292 2.3937
-3.5421 -3.3684 2.3937
-3.4270 -3.5041 2.3937
-3.3072 -3.6362 2.3937
-3.1826 -3.7644 2.3937
-3.0533 -3.8885 2.3937
-2.9195 -4.0085 2.3937
-2.7812 -4.1240 2.3937
-2.6387 -4.2350 2.3937
-2.4921 -4.3413 2.3937
-2.3414 -4.4426 2.3937
-2.1869 -4.5390 2.3937
-2.0286 -4.6301 2.3937
-1.8668 -4.7159 2.3937
-1.7017 -4.7962 2.3937
-1.5333 -4.8708 2.3937
-1.3619 -4.9396 2.3937
-1.1877 -5.0027 2.3937
-1.0109 -5.0594 2.3937
-0.8316 -5.1102 2.3937
-0.6502 -5.1546 2.3937
-0.4667 -5.1926 2.3937
-0.2814 -5.2240 2.3937
-0.0946 -5.2489 2.3937
0.0935 -5.2671 2.3937
0.2826 -5.2784 2.3937
0.4726 -5.2830 2.3937
0.6632 -5.2806 2.3937
0.8540 -5.2712 2.3937
1.0449 -5.2548 2.3937
1.2356 -5.2313 2.3937
1.4258 -5.2008 2.3937
1.6152 -5.1631 2.3937
1.8036 -5.1184 2.3937
1.9907 -5.0666 2.3937
2.1761 -5.0076 2.3937
2.3597 -4.9417 2.3937
2.5411 -4.8688 2.3937
2.6493 -4.6644 2.3315
2.7117 -4.4028 2.2413
2.8739 -4.3152 2.2413
3.0329 -4.2214 2.2413
3.1886 -4.1215 2.2413
3.3407 -4.0154 2.2414
3.4889 -3.9036 2.2414
3.6329 -3.7858 2.2414
3.7727 -3.6627 2.2415
3.9084 -3.5343 2.2419
4.0391 -3.4007 2.2422
4.1648 -3.2618 2.2425
4.2852 -3.1180 2.2428
4.4001 -2.9694 2.2431
4.5092 -2.8163 2.2433
4.6124 -2.6589 2.2436
4.7096 -2.4974 2.2438
4.8004 -2.3321 2.2440
4.8847 -2.1632 2.2442
4.9625 -1.9910 2.2444
5.0321 -1.8155 2.2440
5.0936 -1.6367 2.2430
5.1471 -1.4553 2.2416
5.1918 -1.2721 2.2395
5.2302 -1.0870 2.2377
5.2625 -0.9010 2.2364
5.2888 -0.7145 2.2358
5.3086 -0.5269 2.2354
5.3217 -0.3394 2.2353
5.3282 -0.1508 2.2356
5.3281 0.0379 2.2361
5.3213 0.2258 2.2369
5.3085 0.4135 2.2383
5.2897 0.6008 2.2401
5.2645 0.7874 2.2424
5.2296 0.9722 2.2436
5.1873 1.1554 2.2447
5.1353 1.3361 2.2446
5.0762 1.5143 2.2445
5.0104 1.6899 2.2443
4.9379 1.8625 2.2441
4.8590 2.0320 2.2439
4.7737 2.1980 2.2437
4.6822 2.3603 2.2434
4.5847 2.5188 2.2432
4.4815 2.6730 2.2429
4.3726 2.8229 2.2426
4.2584 2.9683 2.2423
4.1389 3.1089 2.2420
4.0145 3.2446 2.2417
3.8854 3.3752 2.2414
3.7522 3.5010 2.2413
3.6148 3.6214 2.2413
3.4733 3.7364 2.2413
3.3280 3.8457 2.2413
3.1904 3.9634 2.2493
3.1823 4.2551 2.3564
3.0667 4.4205 2.3937
2.8977 4.5123 2.3937
2.7260 4.5975 2.3937
2.5516 4.6762 2.3937
0.9173 1.8338 0.9245
0.8508 1.8645 0.9272
0.7832 1.8928 0.9299
0.7147 1.9186 0.9326
0.6453 1.9420 0.9354
0.5750 1.9628 0.9382
0.5041 1.9811 0.9409
0.4325 1.9968 0.9437
0.3604 2.0100 0.9464
0.2879 2.0205 0.9492
0.2150 2.0284 0.9519
0.1419 2.0336 0.9547
0.0687 2.0363 0.9574
-0.0046 2.0362 0.9601
-0.0779 2.0336 0.9627
-0.1510 2.0282 0.9654
-0.2238 2.0203 0.9680
-0.2964 2.0097 0.9705
-0.3685 1.9965 0.9731
-0.4401 1.9808 0.9756
-0.5111 1.9624 0.9780
-0.5813 1.9415 0.9804
-0.6508 1.9181 0.9827
-0.7194 1.8922 0.9850
-0.7870 1.8638 0.9873
-0.8535 1.8330 0.9894
-2.2183 4.3450 2.3937
-2.3683 4.2505 2.3937
-2.5146 4.1512 2.3937
-2.6572 4.0473 2.3937
-2.7959 3.9387 2.3937
-2.9306 3.8258 2.3937
-3.0611 3.7086 2.3937
-3.1874 3.5873 2.3937
-3.3092 3.4620 2.3937
-3.4267 3.3329 2.3937
-3.5395 3.2001 2.3937
-3.6476 3.0639 2.3937
-3.7510 2.9243 2.3937
-3.8495 2.7814 2.3937
-3.9430 2.6356 2.3937
-4.0316 2.4868 2.3937
-4.1150 2.3354 2.3937
-4.1932 2.1814 2.3937
-4.2662 2.0250 2.3937
-4.3339 1.8663 2.3937
-4.3962 1.7056 2.3937
-4.4532 1.5430 2.3937
-4.5046 1.3787 2.3937
-4.5505 1.2128 2.3937
-4.5909 1.0455 2.3937
-4.6257 0.8769 2.3937
-4.6549 0.7073 2.3937
-4.6784 0.5369 2.3937
-4.6962 0.3656 2.3937
-4.7083 0.1939 2.3937
-4.7147 0.0218 2.3937
-4.7153 -0.1506 2.3937
-4.7103 -0.3230 2.3937
-4.6994 -0.4952 2.3937
-4.6828 -0.6671 2.3937
-4.6605 -0.8385 2.3937
-4.6324 -1.0092 2.3937
-4.5986 -1.1791 2.3937
-4.5591 -1.3480 2.3937
-4.5139 -1.5157 2.3937
-4.4630 -1.6820 2.3937
-4.4065 -1.8467 2.3937
-4.3443 -2.0097 2.3937
-4.2767 -2.1707 2.3937
-4.2035 -2.3297 2.3937
-4.1248 -2.4864 2.3937
-4.0408 -2.6406 2.3937
-3.9514 -2.7922 2.3937
-3.8567 -2.9410 2.3937
-3.7568 -3.0868 2.3937
-3.6519 -3.2297 2.3937
-3.5417 -3.3688 2.3937
-3.4267 -3.5045 2.3937
-3.3068 -3.6366 2.3937
-3.1822 -3.7648 2.3937
-3.0529 -3.8889 2.3937
-2.9191 -4.0088 2.3937
-2.7808 -4.1243 2.3937
-2.6383 -4.2353 2.3937
-2.4916 -4.3416 2.3937
-2.3409 -4.4429 2.3937
-2.1864 -4.5393 2.3937
-2.0281 -4.6304 2.3937
-1.8664 -4.7162 2.3937
-1.7012 -4.7964 2.3937
-1.5328 -4.8710 2.3937
-1.3614 -4.9398 2.3937
-1.1872 -5.0028 2.3937
-1.0104 -5.0597 2.3937
-0.8311 -5.1103 2.3937
-0.6496 -5.1547 2.3937
-0.4661 -5.1927 2.3937
-0.2809 -5.2241 2.3937
-0.0941 -5.2490 2.3937
0.0940 -5.2671 2.3937
0.2832 -5.2785 2.3937
0.4732 -5.2830 2.3937
0.6637 -5.2805 2.3937
0.8546 -5.2711 2.3937
1.0455 -5.2547 2.3937
1.2362 -5.2312 2.3937
1.4264 -5.2007 2.3937
1.6158 -5.1630 2.3937
1.8042 -5.1182 2.3937
1.9912 -5.0664 2.3937
2.1767 -5.0075 2.3937
2.3602 -4.9415 2.3937
2.5416 -4.8685 2.3937
2.6494 -4.6635 2.3311
2.7122 -4.4025 2.2413
2.8743 -4.3149 2.2413
3.0334 -4.2211 2.2413
3.1890 -4.1212 2.2413
3.3411 -4.0152 2.2414
3.4893 -3.9032 2.2414
3.6333 -3.7855 2.2414
3.7732 -3.6623 2.2415
3.9087 -3.5340 2.2419
4.0395 -3.4003 2.2422
4.1652 -3.2614 2.2425
4.2856 -3.1176 2.2428
4.4004 -2.9690 2.2431
4.5095 -2.8159 2.2433
4.6127 -2.6584 2.2436
4.7098 -2.4969 2.2438
4.8006 -2.3316 2.2440
4.8850 -2.1627 2.2442
4.9627 -1.9905 2.2444
5.0323 -1.8148 2.2440
5.0938 -1.6360 2.2430
5.1473 -1.4548 2.2416
5.1919 -1.2711 2.2394
5.2303 -1.0865 2.2377
5.2625 -0.9005 2.2364
5.2889 -0.7140 2.2358
5.3086 -0.5260 2.2354
5.3217 -0.3384 2.2353
5.3282 -0.1501 2.2356
5.3280 0.0379 2.2361
5.3213 0.2263 2.2369
5.3085 0.4143 2.2383
5.2896 0.6014 2.2401
5.2644 0.7879 2.2424
5.2295 0.9727 2.2437
5.1872 1.1560 2.2447
5.1351 1.3366 2.2446
5.0760 1.5148 2.2445
5.0102 1.6904 2.2443
4.9377 1.8630 2.2441
4.8587 2.0325 2.2439
4.7734 2.1985 2.2437
4.6819 2.3608 2.2434
4.5844 2.5192 2.2432
4.4812 2.6735 2.2429
4.3723 2.8234 2.2426
4.2580 2.9687 2.2423
4.1386 3.1093 2.2420
4.0141 3.2450 2.2417
3.8850 3.3755 2.2414
3.7518 3.5013 2.2413
3.6144 3.6218 2.2413
3.4729 3.7367 2.2413
3.3275 3.8461 2.2413
3.1903 3.9643 2.2495
3.1822 4.2560 2.3567
3.0662 4.4208 2.3937
2.8972 4.5125 2.3937
2.7255 4.5978 2.3937
2.5511 4.6764 2.3937
0.9171 1.8339 0.9245
0.8506 1.8646 0.9272
0.7830 1.8929 0.9299
0.7145 1.9187 0.9326
0.6451 1.9421 0.9354
0.5748 1.9629 0.9382
0.5039 1.9812 0.9409
0.4323 1.9969 0.9437
0.3602 2.0100 0.9465
0.2877 2.0205 0.9492
0.2148 2.0284 0.9520
0.1417 2.0337 0.9547
0.0685 2.0363 0.9574
-0.0048 2.0362 0.9601
-0.0781 2.0335 0.9627
-0.1512 2.0282 0.9654
-0.2241 2.0203 0.9680
-0.2966 2.0097 0.9706
-0.3687 1.9965 0.9731
-0.4403 1.9807 0.9756
-0.5113 1.9623 0.9780
-0.5815 1.9414 0.9804
-0.6510 1.9180 0.9827
-0.7196 1.8921 0.9850
-0.7872 1.8637 0.9873
-0.8537 1.8329 0.9894
-2.2188 4.3447 2.3937
-2.3687 4.2502 2.3937
-2.5151 4.1509 2.3937
-2.6576 4.0469 2.3937
-2.7963 3.9384 2.3937
-2.9310 3.8255 2.3937
-3.0615 3.7082 2.3937
-3.1877 3.5869 2.3937
-3.3096 3.4616 2.3937
-3.4270 3.3325 2.3937
-3.5398 3.1997 2.3937
-3.6479 3.0635 2.3937
-3.7513 2.9238 2.3937
-3.8498 2.7810 2.3937
-3.9433 2.6351 2.3937
-4.0318 2.4864 2.3937
-4.1152 2.3349 2.3937
-4.1934 2.1809 2.3937
-4.2664 2.0245 2.3937
-4.3341 1.8659 2.3937
-4.3964 1.7052 2.3937
-4.4533 1.5425 2.3937
-4.5048 1.3782 2.3937
-4.5507 1.2123 2.3937
-4.5910 1.0450 2.3937
-4.6258 0.8764 2.3937
-4.6549 0.7068 2.3937
-4.6784 0.5364 2.3937
-4.6962 0.3651 2.3937
-4.7083 0.1934 2.3937
-4.7147 0.0212 2.3937
-4.7153 -0.1511 2.3937
-4.7102 -0.3235 2.3937
-4.6994 -0.4957 2.3937
-4.6828 -0.6676 2.3937
-4.6604 -0.8390 2.3937
-4.6323 -1.0097 2.3937
-4.5985 -1.1796 2.3937
-4.5589 -1.3485 2.3937
-4.5137 -1.5162 2.3937
-4.4628 -1.6824 2.3937
-4.4063 -1.8472 2.3937
-4.3442 -2.0101 2.3937
-4.2765 -2.1712 2.3937
-4.2033 -2.3302 2.3937
-4.1246 -2.4869 2.3937
-4.0405 -2.6411 2.3937
-3.9511 -2.7927 2.3937
-3.8564 -2.9415 2.3937
-3.7565 -3.0873 2.3937
-3.6515 -3.2298 2.3937
-3.5414 -3.3692 2.3937
-3.4264 -3.5049 2.3937
-3.3065 -3.6370 2.3937
-3.1818 -3.7651 2.3937
-3.0525 -3.8893 2.3937
-2.9187 -4.0092 2.3937
-2.7804 -4.1247 2.3937
-2.6379 -4.2356 2.3937
-2.4912 -4.3419 2.3937
-2.3405 -4.4432 2.3937
-2.1859 -4.5395 2.3937
-2.0277 -4.6306 2.3937
-1.8659 -4.7164 2.3937
-1.7007 -4.7967 2.3937
-1.5323 -4.8712 2.3937
-1.3609 -4.9400 2.3937
-1.1867 -5.0031 2.3937
-1.0098 -5.0598 2.3937
-0.8306 -5.1105 2.3937
-0.6491 -5.1548 2.3937
-0.4656 -5.1928 2.3937
-0.2803 -5.2242 2.3937
-0.0935 -5.2490 2.3937
0.0946 -5.2672 2.3937
0.2837 -5.2785 2.3937
0.4737 -5.2830 2.3937
0.6643 -5.2805 2.3937
0.8552 -5.2711 2.3937
1.0461 -5.2547 2.3937
1.2367 -5.2312 2.3937
1.4269 -5.2006 2.3937
1.6163 -5.1629 2.3937
1.8047 -5.1181 2.3937
1.9918 -5.0662 2.3937
2.1772 -5.0073 2.3937
2.3607 -4.9413 2.3937
2.5421 -4.8683 2.3937
2.6495 -4.6626 2.3308
2.7127 -4.4023 2.2413
2.8748 -4.3147 2.2413
3.0338 -4.2208 2.2413
3.1895 -4.1208 2.2413
3.3416 -4.0148 2.2414
3.4897 -3.9029 2.2414
3.6337 -3.7851 2.2414
3.7736 -3.6619 2.2415
3.9091 -3.5336 2.2419
4.0399 -3.3999 2.2422
4.1655 -3.2610 2.2425
4.2859 -3.1171 2.2428
4.4007 -2.9685 2.2431
4.5099 -2.8154 2.2433
4.6130 -2.6579 2.2436
4.7101 -2.4964 2.2438
4.8009 -2.3311 2.2440
4.8852 -2.1622 2.2442
4.9629 -1.9900 2.2444
5.0325 -1.8143 2.2440
5.0940 -1.6353 2.2430
5.1474 -1.4543 2.2416
5.1921 -1.2705 2.2394
5.2304 -1.0857 2.2377
5.2626 -0.8999 2.2364
5.2890 -0.7130 2.2358
5.3087 -0.5255 2.2354
5.3217 -0.3380 2.2353
5.3282 -0.1495 2.2356
5.3280 0.0387 2.2361
5.3212 0.2268 2.2369
5.3084 0.4147 2.2383
5.2895 0.6019 2.2402
5.2643 0.7884 2.2424
5.2294 0.9731 2.2437
5.1871 1.1565 2.2447
5.1349 1.3371 2.2446
5.0759 1.5154 2.2445
5.0100 1.6909 2.2443
4.9375 1.8635 2.2441
4.8585 2.0330 2.2439
4.7731 2.1990 2.2437
4.6816 2.3613 2.2434
4.5841 2.5197 2.2432
4.4809 2.6739 2.2429
4.3720 2.8238 2.2426
4.2577 2.9691 2.2423
4.1382 3.1097 2.2420
4.0138 3.2454 2.2417
3.8846 3.3759 2.2414
3.7514 3.5017 2.2413
3.6140 3.6221 2.2413
3.4725 3.7370 2.2413
3.3271 3.8464 2.2413
3.1901 3.9649 2.2497
3.1822 4.2569 2.3570
3.0657 4.4211 2.3937
2.8967 4.5128 2.3937
2.7249 4.5980 2.3937
2.5506 4.6766 2.3937
0.9169 1.8340 0.9245
0.8504 1.8647 0.9272
0.7828 1.8930 0.9299
0.7143 1.9188 0.9327
0.6448 1.9421 0.9354
0.5746 1.9630 0.9382
0.5037 1.9812 0.9409
0.4321 1.9969 0.9437
0.3600 2.0100 0.9465
0.2875 2.0205 0.9492
0.2146 2.0284 0.9520
0.1415 2.0337 0.9547
0.0683 2.0363 0.9574
-0.0050 2.0362 0.9601
-0.0783 2.0335 0.9628
-0.1514 2.0282 0.9654
-0.2243 2.0202 0.9680
-0.2968 2.0097 0.9706
-0.3689 1.9965 0.9731
-0.4405 1.9807 0.9756
-0.5115 1.9623 0.9780
-0.5818 1.9414 0.9804
-0.6512 1.9179 0.9828
-0.7198 1.8920 0.9850
-0.7874 1.8636 0.9873
-0.8539 1.8328 0.9894
-2.2192 4.3444 2.3937
-2.3692 4.2500 2.3937
-2.5155 4.1506 2.3937
-2.6581 4.0466 2.3937
-2.7967 3.9381 2.3937
-2.9314 3.8251 2.3937
-3.0619 3.7079 2.3937
-3.1881 3.5865 2.3937
-3.3099 3.4613 2.3937
-3.4273 3.3321 2.3937
-3.5401 3.1994 2.3937
-3.6482 3.0631 2.3937
-3.7516 2.9234 2.3937
0.2737 1.9058 0.9487
0.2050 1.9132 0.9513
0.1360 1.9182 0.9539
0.0669 1.9207 0.9564
-0.0022 1.9206 0.9590
-0.0713 1.9181 0.9615
-0.1403 1.9131 0.9640
-0.2090 1.9056 0.9664
-0.2775 1.8956 0.9688
-0.3455 1.8832 0.9712
-0.4131 1.8683 0.9736
-0.4800 1.8510 0.9759
-0.5463 1.8313 0.9781
-0.6119 1.8092 0.9803
-0.6766 1.7848 0.9825
-0.7403 1.7580 0.9846
-0.8031 1.7290 0.9867
-0.8648 1.6977 0.9886
-2.2360 4.0215 2.3937
-2.3747 3.9280 2.3937
-2.5100 3.8301 2.3937
-2.6415 3.7277 2.3937
-2.7693 3.6212 2.3937
-2.8931 3.5106 2.3937
-3.0129 3.3960 2.3937
-3.1286 3.2777 2.3937
-3.2401 3.1557 2.3937
-3.3472 3.0303 2.3937
-3.4499 2.9014 2.3937
-3.5480 2.7694 2.3937
-3.6416 2.6343 2.3937
-3.7304 2.4963 2.3937
-3.8145 2.3555 2.3937
-3.8937 2.2121 2.3937
-3.9680 2.0663 2.3937
-4.0374 1.9182 2.3937
-4.1017 1.7680 2.3937
-4.1609 1.6157 2.3937
-4.2149 1.4617 2.3937
-4.2637 1.3060 2.3937
-4.3073 1.1488 2.3937
-4.3457 0.9903 2.3937
-4.3787 0.8306 2.3937
-4.4063 0.6699 2.3937
-4.4285 0.5083 2.3937
-4.4454 0.3461 2.3937
-4.4568 0.1834 2.3937
-4.4628 0.0202 2.3937
-4.4633 -0.1430 2.3937
-4.4584 -0.3064 2.3937
-4.4479 -0.4695 2.3937
-4.4320 -0.6324 2.3937
-4.4107 -0.7947 2.3937
-4.3839 -0.9564 2.3937
-4.3516 -1.1173 2.3937
-4.3139 -1.2772 2.3937
-4.2708 -1.4359 2.3937
-4.2223 -1.5933 2.3937
-4.1685 -1.7492 2.3937
-4.1094 -1.9034 2.3937
-4.0450 -2.0558 2.3937
-3.9753 -2.2061 2.3937
-3.9005 -2.3543 2.3937
-3.8206 -2.5000 2.3937
-3.7356 -2.6433 2.3937
-3.6456 -2.7838 2.3937
-3.5507 -2.9215 2.3937
-3.4509 -3.0562 2.3937
-3.3464 -3.1876 2.3937
-3.2372 -3.3157 2.3937
-3.1234 -3.4402 2.3937
-3.0051 -3.5610 2.3937
-2.8825 -3.6779 2.3937
-2.7556 -3.7908 2.3937
-2.6245 -3.8995 2.3937
-2.4894 -4.0039 2.3937
-2.3505 -4.1038 2.3937
-2.2077 -4.1990 2.3937
-2.0614 -4.2894 2.3937
-1.9116 -4.3748 2.3937
-1.7585 -4.4552 2.3937
-1.6022 -4.5304 2.3937
-1.4430 -4.6002 2.3937
-1.2809 -4.6644 2.3937
-1.1163 -4.7230 2.3937
-0.9492 -4.7760 2.3937
-0.7799 -4.8231 2.3937
-0.6085 -4.8642 2.3937
-0.4353 -4.8992 2.3937
-0.2605 -4.9281 2.3937
-0.0843 -4.9508 2.3937
0.0931 -4.9671 2.3937
0.2714 -4.9770 2.3937
0.4504 -4.9805 2.3937
0.6300 -4.9774 2.3937
0.8097 -4.9678 2.3937
0.9895 -4.9515 2.3937
1.1689 -4.9286 2.3937
1.3479 -4.8991 2.3937
1.5261 -4.8629 2.3937
1.7032 -4.8202 2.3937
1.8791 -4.7705 2.3937
2.0534 -4.7143 2.3937
2.2258 -4.6516 2.3937
2.3962 -4.5823 2.3937
2.5642 -4.5065 2.3937
2.6682 -4.3248 2.3398
2.7116 -4.0651 2.2443
2.8571 -3.9709 2.2413
3.0032 -3.8764 2.2413
3.1458 -3.7763 2.2413
3.2848 -3.6707 2.2413
3.4198 -3.5596 2.2414
3.5508 -3.4433 2.2414
3.6773 -3.3219 2.2414
3.7996 -3.1958 2.2416
3.9173 -3.0650 2.2419
4.0300 -2.9296 2.2421
4.1376 -2.7899 2.2424
4.2397 -2.6458 2.2426
4.3364 -2.4978 2.2429
4.4273 -2.3460 2.2431
4.5123 -2.1906 2.2433
4.5912 -2.0319 2.2435
4.6640 -1.8702 2.2437
4.7305 -1.7056 2.2438
4.7905 -1.5385 2.2440
4.8440 -1.3691 2.2441
4.8908 -1.1977 2.2442
4.9309 -1.0246 2.2443
4.9643 -0.8500 2.2443
4.9907 -0.6743 2.2444
5.0103 -0.4977 2.2444
5.0230 -0.3205 2.2445
5.0288 -0.1429 2.2445
5.0276 0.0346 2.2444
5.0195 0.2119 2.2444
5.0046 0.3886 2.2444
4.9827 0.5645 2.2443
4.9541 0.7392 2.2442
4.9187 0.9126 2.2441
4.8767 1.0842 2.2440
4.8281 1.2540 2.2439
4.7731 1.4215 2.2437
4.7117 1.5866 2.2436
4.6441 1.7490 2.2434
4.5703 1.9083 2.2432
4.4907 2.0646 2.2430
4.4052 2.2174 2.2427
4.3142 2.3665 2.2425
4.2176 2.5119 2.2422
4.1158 2.6531 2.2420
4.0089 2.7902 2.2417
3.8972 2.9228 2.2414
3.7811 3.0512 2.2414
3.6606 3.1749 2.2413
3.5358 3.2937 2.2413
3.4070 3.4076 2.2413
3.2743 3.5163 2.2413
3.1637 3.6494 2.2596
3.1608 3.9196 2.3628
3.0495 4.0698 2.3937
2.8936 4.1629 2.3937
2.7349 4.2500 2.3937
2.5735 4.3309 2.3937
0.9290 1.6986 0.9228
0.8673 1.7298 0.9254
0.8046 1.7587 0.9279
0.7409 1.7854 0.9305
0.6762 1.8098 0.9331
0.6107 1.8318 0.9357
0.5444 1.8514 0.9383
0.4775 1.8687 0.9409
0.4100 1.8835 0.9435
0.3420 1.8959 0.9461
0.2735 1.9058 0.9487
0.2048 1.9132 0.9513
0.1358 1.9182 0.9539
0.0667 1.9207 0.9564
-0.0024 1.9206 0.9590
-0.0715 1.9181 0.9615
-0.1405 1.9131 0.9640
-0.2092 1.9056 0.9664
-0.2777 1.8956 0.9688
-0.3457 1.8832 0.9712
-0.4133 1.8683 0.9736
-0.4802 1.8510 0.9759
-0.5465 1.8313 0.9781
-0.6121 1.8092 0.9804
-0.6767 1.7847 0.9825
-0.7405 1.7579 0.9846
-0.8033 1.7289 0.9867
-0.8650 1.6976 0.9886
-2.2364 4.0213 2.3937
-2.3751 3.9278 2.3937
-2.5104 3.8298 2.3937
-2.6419 3.7274 2.3937
-2.7696 3.6209 2.3937
-2.8935 3.5102 2.3937
-3.0133 3.3957 2.3937
-3.1290 3.2774 2.3937
-3.2404 3.1554 2.3937
-3.3475 3.0299 2.3937
-3.4502 2.9010 2.3937
-3.5483 2.7690 2.3937
-3.6418 2.6339 2.3937
-3.7307 2.4958 2.3937
-3.8147 2.3551 2.3937
-3.8939 2.2117 2.3937
-3.9682 2.0659 2.3937
-4.0376 1.9178 2.3937
-4.1018 1.7675 2.3937
-4.1610 1.6153 2.3937
-4.2151 1.4613 2.3937
-4.2639 1.3056 2.3937
-4.3075 1.1484 2.3937
-4.3458 0.9898 2.3937
-4.3787 0.8301 2.3937
-4.4064 0.6694 2.3937
-4.4286 0.5079 2.3937
-4.4454 0.3456 2.3937
-4.4568 0.1829 2.3937
-4.4628 0.0198 2.3937
-4.4633 -0.1435 2.3937
-4.4583 -0.3068 2.3937
-4.4479 -0.4700 2.3937
-4.4320 -0.6329 2.3937
-4.4106 -0.7952 2.3937
-4.3838 -0.9569 2.3937
-4.3515 -1.1178 2.3937
-4.3138 -1.2777 2.3937
-4.2707 -1.4364 2.3937
-4.2222 -1.5938 2.3937
-4.1684 -1.7497 2.3937
-4.1092 -1.9039 2.3937
-4.0448 -2.0562 2.3937
-3.9751 -2.2065 2.3937
-3.9003 -2.3547 2.3937
-3.8203 -2.5005 2.3937
-3.7353 -2.6437 2.3937
-3.6453 -2.7843 2.3937
-3.5504 -2.9219 2.3937
-3.4506 -3.0566 2.3937
-3.3461 -3.1880 2.3937
-3.2369 -3.3160 2.3937
-3.1231 -3.4405 2.3937
-3.0048 -3.5613 2.3937
-2.8821 -3.6782 2.3937
-2.7552 -3.7911 2.3937
-2.6241 -3.8998 2.3937
-2.4890 -4.0042 2.3937
-2.3500 -4.1041 2.3937
-2.2073 -4.1993 2.3937
-2.0609 -4.2896 2.3937
-1.9111 -4.3751 2.3937
-1.7580 -4.4554 2.3937
-1.6017 -4.5305 2.3937
-1.4425 -4.6003 2.3937
-1.2805 -4.6645 2.3937
-1.1158 -4.7232 2.3937
-0.9487 -4.7761 2.3937
-0.7794 -4.8232 2.3937
-0.6080 -4.8643 2.3937
-0.4348 -4.8993 2.3937
-0.2600 -4.9282 2.3937
-0.0838 -4.9508 2.3937
0.0936 -4.9671 2.3937
0.2719 -4.9770 2.3937
0.4510 -4.9805 2.3937
0.6305 -4.9774 2.3937
0.8103 -4.9677 2.3937
0.9900 -4.9515 2.3937
1.1695 -4.9286 2.3937
1.3484 -4.8990 2.3937
1.5266 -4.8628 2.3937
1.7037 -4.8202 2.3937
1.8796 -4.7703 2.3937
2.0539 -4.7142 2.3937
2.2263 -4.6514 2.3937
2.3967 -4.5821 2.3937
2.5647 -4.5063 2.3937
2.6683 -4.3240 2.3395
2.7118 -4.0645 2.2441
2.8576 -3.9706 2.2413
3.0036 -3.8762 2.2413
3.1462 -3.7760 2.2413
3.2852 -3.6704 2.2413
3.4202 -3.5593 2.2414
3.5511 -3.4429 2.2414
3.6777 -3.3215 2.2414
3.7999 -3.1954 2.2416
3.9176 -3.0646 2.2419
4.0303 -2.9292 2.2421
4.1379 -2.7894 2.2424
4.2400 -2.6454 2.2426
4.3366 -2.4974 2.2429
4.4275 -2.3455 2.2431
4.5125 -2.1902 2.2433
4.5915 -2.0315 2.2435
4.6642 -1.8697 2.2437
4.7307 -1.7051 2.2438
4.7907 -1.5380 2.2440
4.8441 -1.3686 2.2441
4.8909 -1.1972 2.2442
4.9310 -1.0241 2.2443
4.9643 -0.8495 2.2443
4.9908 -0.6738 2.2444
5.0104 -0.4972 2.2444
5.0231 -0.3199 2.2445
5.0288 -0.1424 2.2445
5.0276 0.0351 2.2444
5.0195 0.2124 2.2444
5.0045 0.3891 2.2444
4.9826 0.5650 2.2443
4.9540 0.7397 2.2442
4.9186 0.9131 2.2441
4.8766 1.0848 2.2440
4.8280 1.2545 2.2439
4.7729 1.4220 2.2437
4.7115 1.5871 2.2436
4.6439 1.7494 2.2434
4.5701 1.9088 2.2432
4.4904 2.0650 2.2430
4.4050 2.2178 2.2427
4.3139 2.3670 2.2425
4.2173 2.5123 2.2422
4.1155 2.6536 2.2420
4.0086 2.7906 2.2417
3.8968 2.9232 2.2414
3.7808 3.0515 2.2414
3.6603 3.1752 2.2413
3.5355 3.2941 2.2413
3.4066 3.4079 2.2413
3.2739 3.5167 2.2413
3.1637 3.6503 2.2599
3.1608 3.9204 2.3631
3.0490 4.0701 2.3937
2.8932 4.1632 2.3937
2.7344 4.2502 2.3937
2.5730 4.3312 2.3937
0.9288 1.6986 0.9228
0.8671 1.7298 0.9254
0.8044 1.7588 0.9279
0.7407 1.7855 0.9305
0.6760 1.8098 0.9331
0.6105 1.8318 0.9357
0.5442 1.8515 0.9383
0.4773 1.8687 0.9409
0.4098 1.8835 0.9435
0.3418 1.8959 0.9461
0.2733 1.9058 0.9487
0.2046 1.9133 0.9513
0.1356 1.9182 0.9539
0.0665 1.9207 0.9564
-0.0026 1.9206 0.9590
-0.0717 1.9181 0.9615
-0.1407 1.9131 0.9640
-0.2094 1.9056 0.9664
-0.2779 1.8956 0.9689
-0.3459 1.8831 0.9712
-0.4135 1.8682 0.9736
-0.4804 1.8509 0.9759
-0.5467 1.8312 0.9781
-0.6122 1.8091 0.9804
-0.6769 1.7846 0.9825
-0.7407 1.7579 0.9846
-0.8035 1.7288 0.9867
-0.8652 1.6975 0.9886
-2.2368 4.0210 2.3937
-2.3756 3.9275 2.3937
-2.5107 3.8295 2.3937
-2.6423 3.7271 2.3937
-2.7700 3.6206 2.3937
-2.8938 3.5099 2.3937
-3.0136 3.3954 2.3937
-3.1293 3.2770 2.3937
-3.2407 3.1550 2.3937
-3.3478 3.0295 2.3937
-3.4505 2.9007 2.3937
-3.5486 2.7686 2.3937
-3.6421 2.6335 2.3937
-3.7309 2.4954 2.3937
-3.8150 2.3547 2.3937
-3.8942 2.2113 2.3937
-3.9685 2.0654 2.3937
-4.0378 1.9173 2.3937
-4.1020 1.7671 2.3937
-4.1612 1.6148 2.3937
-4.2152 1.4608 2.3937
-4.2640 1.3051 2.3937
-4.3076 1.1479 2.3937
-4.3459 0.9894 2.3937
-4.3788 0.8297 2.3937
-4.4064 0.6689 2.3937
-4.4287 0.5074 2.3937
-4.4455 0.3452 2.3937
-4.4569 0.1824 2.3937
-4.4628 0.0193 2.3937
-4.4633 -0.1440 2.3937
-4.4583 -0.3073 2.3937
-4.4479 -0.4705 2.3937
-4.4319 -0.6333 2.3937
-4.4105 -0.7957 2.3937
-4.3837 -0.9574 2.3937
-4.3514 -1.1183 2.3937
-4.3137 -1.2782 2.3937
-4.2706 -1.4369 2.3937
