ply
format ascii 1.0
element vertex 2174
property float32 x
property float32 y
property float32 z
end_header
-4.9042 6.8512 2.3874
-5.1468 6.6710 2.3874
-5.3829 6.4822 2.3874
-5.6120 6.2851 2.3874
-5.8339 6.0799 2.3874
-6.0483 5.8669 2.3874
-6.2550 5.6463 2.3874
-6.4536 5.4185 2.3874
-6.6440 5.1836 2.3874
-6.8258 4.9421 2.3874
-6.9988 4.6943 2.3874
-7.1628 4.4404 2.3874
-7.3177 4.1807 2.3874
-7.4631 3.9157 2.3874
-7.5990 3.6456 2.3874
-7.7251 3.3708 2.3874
-7.8412 3.0917 2.3874
-7.9473 2.8086 2.3874
-8.0432 2.5218 2.3874
-8.1287 2.2318 2.3874
-8.2038 1.9389 2.3874
-8.2684 1.6435 2.3874
-8.3223 1.3460 2.3874
-8.3655 1.0467 2.3874
-8.3979 0.7460 2.3874
-8.4196 0.4444 2.3874
-8.4304 0.1421 2.3874
-8.4304 -0.1603 2.3874
-8.4195 -0.4626 2.3874
-8.3978 -0.7643 2.3874
-8.3653 -1.0650 2.3874
-8.3220 -1.3644 2.3874
-8.2680 -1.6620 2.3874
-8.2034 -1.9575 2.3874
-8.1282 -2.2505 2.3874
-8.0426 -2.5407 2.3874
-7.9466 -2.8277 2.3874
-7.8404 -3.1108 2.3874
-7.7240 -3.3901 2.3874
-7.5977 -3.6651 2.3874
-7.4617 -3.9353 2.3874
-7.3160 -4.2006 2.3874
-7.1609 -4.4604 2.3874
-6.9966 -4.7144 2.3874
-6.8232 -4.9625 2.3874
-6.6411 -5.2042 2.3874
-6.4504 -5.4392 2.3874
-6.2514 -5.6671 2.3874
-6.0443 -5.8879 2.3874
-5.8294 -6.1010 2.3874
-5.6071 -6.3063 2.3874
-5.3775 -6.5036 2.3874
-5.1409 -6.6924 2.3874
-4.8977 -6.8726 2.3874
-4.6482 -7.0440 2.3874
-4.3928 -7.2064 2.3874
-4.1316 -7.3594 2.3874
-3.8651 -7.5030 2.3874
-3.5937 -7.6370 2.3874
-3.3175 -7.7611 2.3874
-3.0372 -7.8752 2.3874
-2.7528 -7.9792 2.3874
-2.4650 -8.0729 2.3874
-2.1739 -8.1563 2.3874
-1.8801 -8.2291 2.3874
-1.5838 -8.2914 2.3874
-1.2854 -8.3429 2.3874
-0.9854 -8.3837 2.3874
-0.6842 -8.4138 2.3874
-0.3820 -8.4330 2.3874
-0.0794 -8.4413 2.3874
0.2234 -8.4388 2.3874
0.5259 -8.4254 2.3874
0.8277 -8.4011 2.3874
1.1284 -8.3661 2.3874
1.4277 -8.3202 2.3874
1.7251 -8.2637 2.3874
2.0204 -8.1965 2.3874
2.3130 -8.1187 2.3874
2.6026 -8.0305 2.3874
2.8889 -7.9320 2.3874
3.1715 -7.8232 2.3874
3.4500 -7.7044 2.3874
3.7240 -7.5757 2.3874
3.9932 -7.4372 2.3874
4.2573 -7.2891 2.3874
4.5159 -7.1316 2.3874
4.7687 -6.9650 2.3874
5.0153 -6.7894 2.3874
5.2555 -6.6051 2.3874
5.4888 -6.4123 2.3874
5.7152 -6.2111 2.3874
5.9341 -6.0021 2.3874
6.1454 -5.7854 2.3874
6.3487 -5.5611 2.3874
6.5439 -5.3297 2.3874
6.7307 -5.0915 2.3874
6.9088 -4.8468 2.3874
7.0780 -4.5958 2.3874
7.2380 -4.3389 2.3874
7.3888 -4.0763 2.3874
7.5300 -3.8087 2.3874
7.6615 -3.5361 2.3874
7.7831 -3.2590 2.3874
7.8948 -2.9777 2.3874
7.9962 -2.6925 2.3874
8.0874 -2.4039 2.3874
8.1681 -2.1124 2.3874
8.2383 -1.8180 2.3874
8.2979 -1.5214 2.3874
8.3469 -1.2227 2.3874
8.3851 -0.9226 2.3874
8.4125 -0.6212 2.3874
8.4290 -0.3192 2.3874
8.4347 -0.0166 2.3874
8.4296 0.2859 2.3874
8.4137 0.5880 2.3874
8.3868 0.8893 2.3874
8.3493 1.1894 2.3874
8.3009 1.4880 2.3874
8.2419 1.7847 2.3874
8.1723 2.0791 2.3874
8.0922 2.3707 2.3874
8.0017 2.6594 2.3874
7.9009 2.9445 2.3874
7.7899 3.2259 2.3874
7.6689 3.5030 2.3874
7.5381 3.7756 2.3874
7.3976 4.0434 2.3874
7.2476 4.3060 2.3874
7.0882 4.5630 2.3874
6.9198 4.8141 2.3874
6.7425 5.0590 2.3874
6.5565 5.2974 2.3874
6.3621 5.5290 2.3874
6.1595 5.7534 2.3874
5.9490 5.9704 2.3874
5.7309 6.1798 2.3874
5.5054 6.3811 2.3874
5.2729 6.5743 2.3874
5.0336 6.7590 2.3874
4.7878 6.9350 2.3874
4.5359 7.1021 2.3874
4.2781 7.2600 2.3874
4.0149 7.4086 2.3874
3.7465 7.5477 2.3874
3.4734 7.6770 2.3874
3.1957 7.7965 2.3874
2.9140 7.9059 2.3874
2.6285 8.0052 2.3874
0.9310 3.2208 0.9500
0.8150 3.2526 0.9501
0.6979 3.2802 0.9503
0.5799 3.3035 0.9504
0.4611 3.3225 0.9505
0.3417 3.3372 0.9506
0.2218 3.3476 0.9507
0.1016 3.3537 0.9508
-0.0188 3.3554 0.9508
-0.1391 3.3527 0.9509
-0.2593 3.3457 0.9509
-0.3791 3.3343 0.9510
-0.4985 3.3186 0.9510
-0.6172 3.2985 0.9510
-0.7351 3.2742 0.9509
-0.8520 3.2456 0.9509
-2.4299 8.0667 2.3874
-2.7177 7.9744 2.3874
-3.0020 7.8718 2.3874
-3.2824 7.7592 2.3874
-3.5586 7.6365 2.3874
-3.8303 7.5040 2.3874
-4.0970 7.3619 2.3874
-4.3584 7.2103 2.3874
-4.6143 7.0495 2.3874
-4.8642 6.8795 2.3874
-5.1079 6.7008 2.3874
-5.3451 6.5134 2.3874
-5.5753 6.3176 2.3874
-5.7984 6.1137 2.3874
-6.0141 5.9019 2.3874
-6.2220 5.6826 2.3874
-6.4220 5.4559 2.3874
-6.6137 5.2222 2.3874
-6.7969 4.9817 2.3874
-6.9714 4.7349 2.3874
-7.1369 4.4819 2.3874
-7.2932 4.2232 2.3874
-7.4402 3.9590 2.3874
-7.5776 3.6897 2.3874
-7.7053 3.4157 2.3874
-7.8231 3.1372 2.3874
-7.9308 2.8547 2.3874
-8.0284 2.5685 2.3874
-8.1156 2.2790 2.3874
-8.1924 1.9866 2.3874
-8.2586 1.6915 2.3874
-8.3143 1.3943 2.3874
-8.3592 1.0953 2.3874
-8.3934 0.7948 2.3874
-8.4168 0.4933 2.3874
-8.4294 0.1911 2.3874
-8.4311 -0.1113 2.3874
-8.4220 -0.4136 2.3874
-8.4021 -0.7154 2.3874
-8.3713 -1.0163 2.3874
-8.3298 -1.3159 2.3874
-8.2775 -1.6139 2.3874
-8.2146 -1.9098 2.3874
-8.1411 -2.2032 2.3874
-8.0572 -2.4938 2.3874
-7.9628 -2.7813 2.3874
-7.8583 -3.0652 2.3874
-7.7435 -3.3452 2.3874
-7.6189 -3.6208 2.3874
-7.4844 -3.8919 2.3874
-7.3402 -4.1579 2.3874
-7.1867 -4.4186 2.3874
-7.0238 -4.6737 2.3874
-6.8519 -4.9227 2.3874
-6.6712 -5.1654 2.3874
-6.4819 -5.4015 2.3874
-6.2842 -5.6307 2.3874
-6.0784 -5.8526 2.3874
-5.8648 -6.0670 2.3874
-5.6436 -6.2736 2.3874
-5.4152 -6.4721 2.3874
-5.1797 -6.6624 2.3874
-4.9376 -6.8440 2.3874
-4.6891 -7.0168 2.3874
-4.4346 -7.1807 2.3874
-4.1743 -7.3353 2.3874
-3.9087 -7.4804 2.3874
-3.6380 -7.6159 2.3874
-3.3626 -7.7417 2.3874
-3.0829 -7.8574 2.3874
-2.7992 -7.9631 2.3874
-2.5119 -8.0585 2.3874
-2.2213 -8.1435 2.3874
-1.9279 -8.2180 2.3874
-1.6319 -8.2820 2.3874
-1.3339 -8.3353 2.3874
-1.0342 -8.3779 2.3874
-0.7331 -8.4096 2.3874
-0.4310 -8.4306 2.3874
-0.1284 -8.4407 2.3874
0.1743 -8.4399 2.3874
0.4769 -8.4283 2.3874
0.7788 -8.4058 2.3874
1.0798 -8.3725 2.3874
1.3793 -8.3284 2.3874
1.6771 -8.2736 2.3874
1.9727 -8.2081 2.3874
2.2658 -8.1321 2.3874
2.5559 -8.0455 2.3874
2.8428 -7.9487 2.3874
3.1260 -7.8416 2.3874
3.4051 -7.7243 2.3874
3.6799 -7.5972 2.3874
3.9499 -7.4603 2.3874
4.2149 -7.3137 2.3874
4.4744 -7.1578 2.3874
4.7281 -6.9927 2.3874
4.9758 -6.8185 2.3874
5.2170 -6.6356 2.3874
5.4515 -6.4441 2.3874
6.2217 -4.6499 2.3874
6.3843 -4.4237 2.3874
6.5386 -4.1918 2.3874
6.6846 -3.9545 2.3874
6.8219 -3.7121 2.3874
6.9505 -3.4650 2.3874
7.0701 -3.2135 2.3874
7.1806 -2.9578 2.3874
7.2818 -2.6983 2.3874
7.3736 -2.4353 2.3874
7.4560 -2.1693 2.3874
7.5288 -1.9004 2.3874
7.5919 -1.6291 2.3874
7.6451 -1.3558 2.3874
7.6886 -1.0807 2.3874
7.7222 -0.8043 2.3874
7.7458 -0.5268 2.3874
7.7594 -0.2487 2.3874
7.7631 0.0297 2.3874
7.7568 0.3081 2.3874
7.7405 0.5860 2.3874
7.7142 0.8633 2.3874
7.6781 1.1394 2.3874
7.6320 1.4140 2.3874
7.5761 1.6867 2.3874
7.5105 1.9572 2.3874
7.4352 2.2252 2.3874
7.3504 2.4904 2.3874
7.2561 2.7523 2.3874
7.1525 3.0106 2.3874
7.0397 3.2651 2.3874
6.9178 3.5153 2.3874
6.7871 3.7611 2.3874
6.6476 4.0019 2.3874
6.4996 4.2376 2.3874
6.3433 4.4679 2.3874
6.1788 4.6924 2.3874
6.0063 4.9108 2.3874
5.8261 5.1229 2.3874
5.6385 5.3284 2.3874
5.4436 5.5270 2.3874
5.2417 5.7186 2.3874
5.0332 5.9027 2.3874
4.8181 6.0793 2.3874
4.5968 6.2480 2.3874
4.3697 6.4087 2.3874
4.1369 6.5611 2.3874
3.8989 6.7051 2.3874
3.6558 6.8405 2.3874
3.4080 6.9671 2.3874
3.1559 7.0847 2.3874
2.8997 7.1932 2.3874
2.6398 7.2924 2.3874
2.3765 7.3823 2.3874
0.8390 2.9672 0.9492
0.7322 2.9957 0.9494
0.6243 3.0204 0.9495
0.5156 3.0412 0.9496
0.4063 3.0581 0.9497
0.2964 3.0710 0.9498
0.1860 3.0798 0.9499
0.0755 3.0847 0.9500
-0.0352 3.0856 0.9500
-0.1459 3.0825 0.9501
-0.2563 3.0754 0.9501
-0.3665 3.0642 0.9501
-0.4762 3.0491 0.9501
-0.5852 3.0301 0.9501
-0.6935 3.0071 0.9501
-0.8009 2.9802 0.9501
-2.2798 7.4119 2.3874
-2.5442 7.3254 2.3874
-2.8053 7.2295 2.3874
-3.0628 7.1243 2.3874
-3.3164 7.0099 2.3874
-3.5657 6.8865 2.3874
-3.8104 6.7543 2.3874
-4.0503 6.6133 2.3874
-4.2849 6.4639 2.3874
-4.5141 6.3061 2.3874
-4.7374 6.1403 2.3874
-4.9546 5.9665 2.3874
-5.1655 5.7851 2.3874
-5.3698 5.5962 2.3874
-5.5672 5.4001 2.3874
-5.7574 5.1971 2.3874
-5.9402 4.9873 2.3874
-6.1154 4.7712 2.3874
-6.2827 4.5489 2.3874
-6.4420 4.3208 2.3874
-6.5930 4.0870 2.3874
-6.7355 3.8480 2.3874
-6.8693 3.6041 2.3874
-6.9944 3.3555 2.3874
-7.1104 3.1025 2.3874
-7.2173 2.8456 2.3874
-7.3149 2.5851 2.3874
-7.4032 2.3211 2.3874
-7.4819 2.0542 2.3874
-7.5509 1.7846 2.3874
-7.6103 1.5127 2.3874
-7.6599 1.2388 2.3874
-7.6997 0.9633 2.3874
-7.7295 0.6866 2.3874
-7.7494 0.4089 2.3874
-7.7594 0.1308 2.3874
-7.7593 -0.1476 2.3874
-7.7493 -0.4258 2.3874
-7.7293 -0.7035 2.3874
-7.6994 -0.9803 2.3874
-7.6595 -1.2558 2.3874
-7.6098 -1.5297 2.3874
-7.5503 -1.8017 2.3874
-7.4811 -2.0714 2.3874
-7.4023 -2.3384 2.3874
-7.3139 -2.6025 2.3874
-7.2161 -2.8632 2.3874
-7.1090 -3.1203 2.3874
-6.9927 -3.3733 2.3874
-6.8675 -3.6220 2.3874
-6.7334 -3.8661 2.3874
-6.5906 -4.1052 2.3874
-6.4394 -4.3391 2.3874
-6.2798 -4.5673 2.3874
-6.1122 -4.7898 2.3874
-5.9367 -5.0060 2.3874
-5.7535 -5.2159 2.3874
-5.5629 -5.4190 2.3874
-5.3651 -5.6151 2.3874
-5.1605 -5.8041 2.3874
-4.9491 -5.9856 2.3874
-4.7314 -6.1594 2.3874
-4.5076 -6.3252 2.3874
-4.2780 -6.4830 2.3874
-4.0428 -6.6324 2.3874
-3.8025 -6.7732 2.3874
-3.5572 -6.9054 2.3874
-3.3074 -7.0286 2.3874
-3.0532 -7.1429 2.3874
-2.7952 -7.2479 2.3874
-2.5335 -7.3436 2.3874
-2.2686 -7.4298 2.3874
-2.0007 -7.5065 2.3874
-1.7303 -7.5735 2.3874
-1.4576 -7.6308 2.3874
-1.1830 -7.6783 2.3874
-0.9069 -7.7158 2.3874
-0.6297 -7.7435 2.3874
-0.3516 -7.7611 2.3874
-0.0730 -7.7688 2.3874
0.2056 -7.7665 2.3874
0.4840 -7.7541 2.3874
0.7617 -7.7318 2.3874
1.0385 -7.6995 2.3874
1.3140 -7.6573 2.3874
1.5877 -7.6053 2.3874
1.8594 -7.5435 2.3874
2.1287 -7.4719 2.3874
2.3953 -7.3907 2.3874
2.6588 -7.3001 2.3874
2.9188 -7.2000 2.3874
3.1751 -7.0906 2.3874
3.4273 -6.9721 2.3874
3.6751 -6.8447 2.3874
3.9181 -6.7084 2.3874
4.1561 -6.5635 2.3874
4.3888 -6.4102 2.3874
4.6157 -6.2486 2.3874
4.8368 -6.0789 2.3874
5.0516 -5.9015 2.3874
5.2599 -5.7164 2.3874
5.4614 -5.5240 2.3874
5.6558 -5.3245 2.3874
5.8430 -5.1182 2.3874
6.0227 -4.9052 2.3874
6.1946 -4.6860 2.3874
6.3585 -4.4607 2.3874
6.5142 -4.2297 2.3874
6.6615 -3.9933 2.3874
6.8003 -3.7518 2.3874
6.9302 -3.5054 2.3874
7.0513 -3.2545 2.3874
7.1632 -2.9995 2.3874
7.2660 -2.7406 2.3874
7.3594 -2.4781 2.3874
7.4433 -2.2126 2.3874
7.5176 -1.9441 2.3874
7.5823 -1.6733 2.3874
7.6372 -1.4002 2.3874
7.6822 -1.1254 2.3874
7.7174 -0.8491 2.3874
7.7426 -0.5718 2.3874
7.7579 -0.2938 2.3874
7.7632 -0.0154 2.3874
7.7585 0.2631 2.3874
7.7438 0.5411 2.3874
7.7192 0.8184 2.3874
7.6846 1.0947 2.3874
7.6401 1.3696 2.3874
7.5858 1.6426 2.3874
7.5218 1.9135 2.3874
7.4481 2.1820 2.3874
7.3648 2.4477 2.3874
7.2720 2.7100 2.3874
7.1699 2.9690 2.3874
7.0586 3.2241 2.3874
6.9382 3.4751 2.3874
6.8089 3.7216 2.3874
6.6708 3.9632 2.3874
6.5242 4.1998 2.3874
6.3691 4.4309 2.3874
6.2060 4.6564 2.3874
6.0348 4.8758 2.3874
5.8559 5.0890 2.3874
5.6694 5.2955 2.3874
5.4757 5.4953 2.3874
5.2749 5.6880 2.3874
5.0674 5.8734 2.3874
4.8534 6.0512 2.3874
4.6331 6.2212 2.3874
4.4069 6.3832 2.3874
4.1750 6.5370 2.3874
3.9378 6.6824 2.3874
3.6955 6.8192 2.3874
3.4485 6.9472 2.3874
3.1971 7.0662 2.3874
2.9415 7.1762 2.3874
2.6822 7.2770 2.3874
2.4194 7.3684 2.3874
0.8562 2.9622 0.9492
0.7496 2.9914 0.9493
0.6419 3.0167 0.9495
0.5333 3.0381 0.9496
0.4240 3.0556 0.9497
0.3142 3.0691 0.9498
0.2039 3.0787 0.9499
0.0934 3.0842 0.9500
-0.0173 3.0857 0.9500
-0.1279 3.0833 0.9501
-0.2385 3.0768 0.9501
-0.3487 3.0663 0.9501
-0.4584 3.0519 0.9501
-0.5676 3.0334 0.9501
-0.6760 3.0111 0.9501
-0.7835 2.9848 0.9501
-0.8900 2.9547 0.9500
-2.5015 7.3401 2.3874
-2.7632 7.2457 2.3874
-3.0213 7.1420 2.3874
-3.2756 7.0290 2.3874
-3.5256 6.9071 2.3874
-3.7711 6.7763 2.3874
-4.0117 6.6368 2.3874
-4.2472 6.4887 2.3874
-4.4773 6.3323 2.3874
-4.7016 6.1677 2.3874
-4.9199 5.9952 2.3874
-5.1318 5.8150 2.3874
-5.3372 5.6273 2.3874
-5.5357 5.4324 2.3874
-5.7270 5.2304 2.3874
-5.9111 5.0218 2.3874
-6.0875 4.8066 2.3874
-6.2561 4.5853 2.3874
-6.4167 4.3581 2.3874
-6.5690 4.1253 2.3874
-6.7129 3.8871 2.3874
-6.8482 3.6440 2.3874
-6.9747 3.3961 2.3874
-7.0922 3.1438 2.3874
-7.2006 2.8876 2.3874
-7.2997 2.6275 2.3874
-7.3895 2.3641 2.3874
-7.4698 2.0976 2.3874
-7.5404 1.8284 2.3874
-7.6014 1.5569 2.3874
-7.6526 1.2833 2.3874
-7.6939 1.0081 2.3874
-7.7254 0.7315 2.3874
-7.7469 0.4540 2.3874
-7.7585 0.1759 2.3874
-7.7600 -0.1025 2.3874
-7.7516 -0.3807 2.3874
-7.7332 -0.6585 2.3874
-7.7049 -0.9355 2.3874
-7.6667 -1.2112 2.3874
-7.6185 -1.4854 2.3874
-7.5606 -1.7578 2.3874
-7.4930 -2.0279 2.3874
-7.4157 -2.2953 2.3874
-7.3288 -2.5599 2.3874
-7.2326 -2.8212 2.3874
-7.1270 -3.0789 2.3874
-7.0122 -3.3326 2.3874
-6.8884 -3.5820 2.3874
-6.7557 -3.8269 2.3874
-6.6144 -4.0668 2.3874
-6.4645 -4.3015 2.3874
-6.3062 -4.5307 2.3874
-6.1399 -4.7541 2.3874
-5.9656 -4.9714 2.3874
-5.7837 -5.1823 2.3874
-5.5943 -5.3865 2.3874
-5.3977 -5.5838 2.3874
-5.1941 -5.7740 2.3874
-4.9838 -5.9567 2.3874
-4.7671 -6.1317 2.3874
-4.5443 -6.2989 2.3874
-4.3156 -6.4580 2.3874
-4.0813 -6.6087 2.3874
-3.8418 -6.7510 2.3874
-3.5973 -6.8846 2.3874
-3.3482 -7.0093 2.3874
-3.0947 -7.1250 2.3874
-2.8373 -7.2315 2.3874
-2.5762 -7.3287 2.3874
-2.3117 -7.4165 2.3874
-2.0443 -7.4947 2.3874
-1.7743 -7.5633 2.3874
-1.5019 -7.6222 2.3874
-1.2276 -7.6713 2.3874
-0.9518 -7.7104 2.3874
-0.6746 -7.7397 2.3874
-0.3967 -7.7589 2.3874
-0.1182 -7.7682 2.3874
0.1605 -7.7675 2.3874
0.4389 -7.7568 2.3874
0.7168 -7.7361 2.3874
0.9937 -7.7054 2.3874
1.2694 -7.6649 2.3874
1.5435 -7.6144 2.3874
1.8155 -7.5541 2.3874
2.0852 -7.4842 2.3874
2.3523 -7.4046 2.3874
2.6163 -7.3154 2.3874
2.8769 -7.2168 2.3874
3.1338 -7.1090 2.3874
3.3867 -6.9920 2.3874
3.6352 -6.8659 2.3874
3.8791 -6.7311 2.3874
4.1179 -6.5876 2.3874
4.3514 -6.4356 2.3874
4.5793 -6.2753 2.3874
4.8014 -6.1070 2.3874
5.0172 -5.9308 2.3874
5.7567 -4.3024 2.3874
5.9072 -4.0931 2.3874
6.0500 -3.8786 2.3874
6.1851 -3.6589 2.3874
6.3121 -3.4348 2.3874
6.4311 -3.2062 2.3874
6.5418 -2.9734 2.3874
6.6440 -2.7368 2.3874
6.7377 -2.4967 2.3874
6.8227 -2.2534 2.3874
6.8989 -2.0072 2.3874
6.9663 -1.7585 2.3874
7.0247 -1.5075 2.3874
7.0740 -1.2546 2.3874
7.1142 -1.0000 2.3874
7.1453 -0.7442 2.3874
7.1672 -0.4875 2.3874
7.1798 -0.2301 2.3874
7.1832 0.0275 2.3874
7.1774 0.2851 2.3874
7.1623 0.5423 2.3874
7.1380 0.7986 2.3874
7.1046 1.0543 2.3874
7.0620 1.3083 2.3874
7.0103 1.5606 2.3874
6.9496 1.8110 2.3874
6.8799 2.0590 2.3874
6.8015 2.3043 2.3874
6.7142 2.5467 2.3874
6.6184 2.7858 2.3874
6.5140 3.0212 2.3874
6.4013 3.2528 2.3874
6.2803 3.4802 2.3874
6.1513 3.7031 2.3874
6.0143 3.9212 2.3874
5.8697 4.1342 2.3874
5.7174 4.3420 2.3874
5.5579 4.5441 2.3874
5.3912 4.7404 2.3874
5.2176 4.9305 2.3874
5.0372 5.1144 2.3874
4.8505 5.2916 2.3874
4.6574 5.4620 2.3874
4.4584 5.6254 2.3874
4.2537 5.7816 2.3874
4.0435 5.9303 2.3874
3.8281 6.0713 2.3874
3.6078 6.2046 2.3874
3.3829 6.3299 2.3874
3.1537 6.4470 2.3874
2.9204 6.5558 2.3874
2.6833 6.6563 2.3874
2.4428 6.7481 2.3874
0.8737 2.7138 0.9484
0.7759 2.7438 0.9486
0.6770 2.7702 0.9487
0.5773 2.7930 0.9488
0.4768 2.8122 0.9489
0.3757 2.8277 0.9490
0.2740 2.8396 0.9491
0.1720 2.8478 0.9492
0.0698 2.8523 0.9492
-0.0326 2.8531 0.9493
-0.1349 2.8502 0.9493
-0.2370 2.8437 0.9494
-0.3389 2.8334 0.9494
-0.4403 2.8194 0.9494
-0.5411 2.8018 0.9494
-0.6412 2.7805 0.9494
-0.7405 2.7556 0.9493
-0.8389 2.7272 0.9493
-2.3543 6.7787 2.3874
-2.5959 6.6899 2.3874
-2.8342 6.5925 2.3874
-3.0689 6.4867 2.3874
-3.2996 6.3725 2.3874
-3.5260 6.2501 2.3874
-3.7480 6.1197 2.3874
-3.9651 5.9814 2.3874
-4.1771 5.8354 2.3874
-4.3838 5.6819 2.3874
-4.5848 5.5211 2.3874
-4.7800 5.3532 2.3874
-4.9690 5.1784 2.3874
-5.1516 4.9970 2.3874
-5.3276 4.8091 2.3874
-5.4968 4.6150 2.3874
-5.6589 4.4150 2.3874
-5.8137 4.2093 2.3874
-5.9611 3.9982 2.3874
-6.1008 3.7819 2.3874
-6.2326 3.5607 2.3874
-6.3565 3.3350 2.3874
-6.4722 3.1050 2.3874
-6.5796 2.8709 2.3874
-6.6785 2.6332 2.3874
-6.7688 2.3920 2.3874
-6.8504 2.1478 2.3874
-6.9232 1.9008 2.3874
-6.9871 1.6513 2.3874
-7.0421 1.3997 2.3874
-7.0880 1.1462 2.3874
-7.1247 0.8913 2.3874
-7.1523 0.6353 2.3874
-7.1708 0.3784 2.3874
-7.1799 0.1209 2.3874
-7.1799 -0.1366 2.3874
-7.1706 -0.3941 2.3874
-7.1520 -0.6510 2.3874
-7.1243 -0.9071 2.3874
-7.0874 -1.1620 2.3874
-7.0414 -1.4155 2.3874
-6.9864 -1.6672 2.3874
-6.9223 -1.9167 2.3874
-6.8493 -2.1638 2.3874
-6.7675 -2.4081 2.3874
-6.6770 -2.6494 2.3874
-6.5779 -2.8872 2.3874
-6.4704 -3.1213 2.3874
-6.3544 -3.3515 2.3874
-6.2303 -3.5773 2.3874
-6.0982 -3.7986 2.3874
-5.9583 -4.0149 2.3874
-5.8106 -4.2261 2.3874
-5.6555 -4.4319 2.3874
-5.4931 -4.6320 2.3874
-5.3236 -4.8262 2.3874
-5.1472 -5.0141 2.3874
-4.9642 -5.1956 2.3874
-4.7748 -5.3704 2.3874
-4.5793 -5.5383 2.3874
-4.3778 -5.6991 2.3874
-4.1707 -5.8526 2.3874
-3.9583 -5.9985 2.3874
-3.7407 -6.1367 2.3874
-3.5183 -6.2671 2.3874
-3.2914 -6.3893 2.3874
-3.0602 -6.5034 2.3874
-2.8250 -6.6090 2.3874
-2.5863 -6.7062 2.3874
-2.3442 -6.7948 2.3874
-2.0990 -6.8746 2.3874
-1.8512 -6.9455 2.3874
-1.6009 -7.0075 2.3874
-1.3486 -7.0605 2.3874
-1.0946 -7.1044 2.3874
-0.8391 -7.1391 2.3874
-0.5826 -7.1647 2.3874
-0.3253 -7.1811 2.3874
-0.0676 -7.1881 2.3874
0.1903 -7.1860 2.3874
0.4478 -7.1746 2.3874
0.7048 -7.1539 2.3874
0.9609 -7.1241 2.3874
1.2158 -7.0850 2.3874
1.4690 -7.0369 2.3874
1.7204 -6.9796 2.3874
1.9696 -6.9134 2.3874
2.2163 -6.8383 2.3874
2.4600 -6.7544 2.3874
2.7006 -6.6618 2.3874
2.9378 -6.5607 2.3874
3.1711 -6.4510 2.3874
3.4004 -6.3331 2.3874
3.6253 -6.2070 2.3874
3.8455 -6.0730 2.3874
4.0607 -5.9311 2.3874
4.2708 -5.7816 2.3874
4.4753 -5.6246 2.3874
4.6740 -5.4605 2.3874
4.8667 -5.2892 2.3874
5.0532 -5.1112 2.3874
5.2331 -4.9266 2.3874
5.4063 -4.7357 2.3874
5.5726 -4.5387 2.3874
5.7316 -4.3358 2.3874
5.8833 -4.1274 2.3874
6.0274 -3.9137 2.3874
6.1637 -3.6950 2.3874
6.2921 -3.4715 2.3874
6.4124 -3.2435 2.3874
6.5244 -3.0114 2.3874
6.6280 -2.7754 2.3874
6.7231 -2.5359 2.3874
6.8095 -2.2931 2.3874
6.8872 -2.0473 2.3874
6.9560 -1.7990 2.3874
7.0158 -1.5483 2.3874
7.0666 -1.2957 2.3874
7.1083 -1.0414 2.3874
7.1409 -0.7858 2.3874
7.1642 -0.5292 2.3874
7.1784 -0.2719 2.3874
7.1833 -0.0143 2.3874
7.1790 0.2433 2.3874
7.1654 0.5006 2.3874
7.1426 0.7572 2.3874
7.1106 1.0130 2.3874
7.0695 1.2672 2.3874
7.0193 1.5199 2.3874
6.9600 1.7706 2.3874
6.8918 2.0190 2.3874
6.8148 2.2648 2.3874
6.7290 2.5076 2.3874
6.6345 2.7473 2.3874
6.5315 2.9833 2.3874
6.4201 3.2156 2.3874
6.3004 3.4436 2.3874
6.1727 3.6673 2.3874
6.0371 3.8862 2.3874
5.8936 4.1001 2.3874
5.7426 4.3087 2.3874
5.5842 4.5117 2.3874
5.4187 4.7090 2.3874
5.2462 4.9002 2.3874
5.0669 5.0850 2.3874
4.8812 5.2633 2.3874
4.6891 5.4349 2.3874
4.4911 5.5994 2.3874
4.2873 5.7568 2.3874
4.0779 5.9067 2.3874
3.8634 6.0490 2.3874
3.6439 6.1835 2.3874
3.4197 6.3101 2.3874
3.1911 6.4286 2.3874
2.9584 6.5388 2.3874
2.7220 6.6406 2.3874
2.4820 6.7338 2.3874
0.8894 2.7086 0.9484
0.7918 2.7392 0.9485
0.6931 2.7661 0.9487
0.5935 2.7895 0.9488
0.4932 2.8093 0.9489
0.3921 2.8255 0.9490
0.2905 2.8379 0.9491
0.1886 2.8467 0.9492
0.0864 2.8519 0.9492
-0.0160 2.8533 0.9493
-0.1183 2.8510 0.9493
-0.2205 2.8450 0.9494
-0.3224 2.8353 0.9494
-0.4239 2.8219 0.9494
-0.5248 2.8049 0.9494
-0.6251 2.7842 0.9494
-0.7245 2.7599 0.9493
-0.8230 2.7321 0.9493
-2.3148 6.7922 2.3874
-2.5570 6.7049 2.3874
-2.7958 6.6089 2.3874
-3.0311 6.5044 2.3874
-3.2625 6.3916 2.3874
-3.4896 6.2705 2.3874
-3.7123 6.1414 2.3874
-3.9302 6.0044 2.3874
-4.1431 5.8596 2.3874
-4.3507 5.7073 2.3874
-4.5526 5.5477 2.3874
-4.7488 5.3809 2.3874
-4.9388 5.2072 2.3874
-5.1225 5.0269 2.3874
-5.2996 4.8400 2.3874
-5.4699 4.6469 2.3874
-5.6331 4.4478 2.3874
-5.7891 4.2430 2.3874
-5.9377 4.0327 2.3874
-6.0787 3.8173 2.3874
-6.2118 3.5969 2.3874
-6.3370 3.3719 2.3874
-6.4540 3.1425 2.3874
-6.5627 2.9091 2.3874
-6.6630 2.6719 2.3874
-6.7547 2.4313 2.3874
-6.8378 2.1875 2.3874
-6.9120 1.9410 2.3874
-6.9774 1.6919 2.3874
-7.0338 1.4406 2.3874
-7.0812 1.1874 2.3874
-7.1194 0.9327 2.3874
-7.1485 0.6768 2.3874
-7.1684 0.4200 2.3874
-7.1791 0.1627 2.3874
-7.1805 -0.0949 2.3874
-7.1727 -0.3524 2.3874
-7.1557 -0.6094 2.3874
-7.1295 -0.8656 2.3874
-7.0940 -1.1208 2.3874
-7.0495 -1.3745 2.3874
-6.9959 -1.6265 2.3874
-6.9333 -1.8764 2.3874
-6.8617 -2.1239 2.3874
-6.7814 -2.3687 2.3874
-6.6923 -2.6105 2.3874
-6.5946 -2.8489 2.3874
-6.4884 -3.0837 2.3874
-6.3738 -3.3145 2.3874
-6.2510 -3.5410 2.3874
-6.1202 -3.7630 2.3874
-5.9815 -3.9802 2.3874
-5.8351 -4.1923 2.3874
-5.6811 -4.3990 2.3874
-5.5199 -4.6000 2.3874
-5.3515 -4.7951 2.3874
-5.1763 -4.9841 2.3874
-4.9943 -5.1666 2.3874
-4.8059 -5.3426 2.3874
-4.6114 -5.5116 2.3874
-4.4109 -5.6736 2.3874
-4.2047 -5.8282 2.3874
-3.9931 -5.9754 2.3874
-3.7763 -6.1149 2.3874
-3.5547 -6.2465 2.3874
-3.3284 -6.3701 2.3874
-3.0979 -6.4855 2.3874
-2.8634 -6.5925 2.3874
-2.6252 -6.6911 2.3874
-2.3836 -6.7810 2.3874
-2.1389 -6.8622 2.3874
-1.8915 -6.9346 2.3874
-1.6416 -6.9981 2.3874
-1.3896 -7.0525 2.3874
-1.1359 -7.0979 2.3874
-0.8806 -7.1341 2.3874
-0.6242 -7.1612 2.3874
-0.3670 -7.1790 2.3874
-0.1093 -7.1876 2.3874
0.1485 -7.1870 2.3874
0.4061 -7.1770 2.3874
0.6632 -7.1579 2.3874
0.9195 -7.1295 2.3874
1.1745 -7.0920 2.3874
1.4281 -7.0453 2.3874
1.6798 -6.9895 2.3874
1.9294 -6.9248 2.3874
2.1765 -6.8511 2.3874
2.4207 -6.7686 2.3874
2.6619 -6.6774 2.3874
2.8996 -6.5776 2.3874
3.1336 -6.4694 2.3874
3.3635 -6.3528 2.3874
3.5891 -6.2280 2.3874
3.8101 -6.0952 2.3874
4.0262 -5.9546 2.3874
4.2371 -5.8063 2.3874
4.4425 -5.6506 2.3874
4.6422 -5.4875 2.3874
5.3508 -3.9991 2.3874
5.4907 -3.8046 2.3874
5.6234 -3.6052 2.3874
5.7490 -3.4011 2.3874
5.8671 -3.1927 2.3874
5.9777 -2.9802 2.3874
6.0806 -2.7638 2.3874
6.1756 -2.5439 2.3874
6.2627 -2.3207 2.3874
6.3417 -2.0946 2.3874
6.4126 -1.8658 2.3874
6.4752 -1.6346 2.3874
6.5295 -1.4013 2.3874
6.5753 -1.1662 2.3874
6.6127 -0.9296 2.3874
6.6416 -0.6918 2.3874
6.6620 -0.4532 2.3874
6.6738 -0.2140 2.3874
6.6769 0.0255 2.3874
6.6715 0.2649 2.3874
6.6575 0.5040 2.3874
6.6350 0.7424 2.3874
6.6039 0.9798 2.3874
6.5643 1.2160 2.3874
6.5163 1.4506 2.3874
6.4599 1.6833 2.3874
6.3951 1.9139 2.3874
6.3222 2.1419 2.3874
6.2411 2.3672 2.3874
6.1520 2.5894 2.3874
6.0550 2.8083 2.3874
5.9503 3.0236 2.3874
5.8378 3.2349 2.3874
5.7179 3.4421 2.3874
5.5906 3.6449 2.3874
5.4561 3.8429 2.3874
5.3147 4.0360 2.3874
5.1663 4.2239 2.3874
5.0114 4.4064 2.3874
4.8500 4.5832 2.3874
4.6824 4.7541 2.3874
4.5088 4.9188 2.3874
4.3294 5.0772 2.3874
4.1444 5.2291 2.3874
3.9541 5.3743 2.3874
3.7587 5.5125 2.3874
3.5585 5.6437 2.3874
3.3537 5.7675 2.3874
3.1447 5.8840 2.3874
2.9316 5.9929 2.3874
2.7147 6.0941 2.3874
2.4943 6.1874 2.3874
0.9014 2.4901 0.9477
0.8116 2.5212 0.9479
0.7208 2.5490 0.9480
0.6290 2.5735 0.9481
0.5363 2.5946 0.9482
0.4430 2.6125 0.9483
0.3490 2.6269 0.9484
0.2546 2.6379 0.9485
0.1598 2.6455 0.9486
0.0648 2.6497 0.9486
-0.0302 2.6504 0.9487
-0.1253 2.6477 0.9487
-0.2202 2.6416 0.9487
-0.3148 2.6321 0.9487
-0.4090 2.6191 0.9487
-0.5027 2.6027 0.9487
-0.5957 2.5830 0.9487
-0.6879 2.5599 0.9487
-0.7793 2.5335 0.9487
-0.8696 2.5038 0.9486
-2.4131 6.2187 2.3874
-2.6346 6.1282 2.3874
-2.8527 6.0298 2.3874
-3.0672 5.9237 2.3874
-3.2777 5.8099 2.3874
-3.4840 5.6887 2.3874
-3.6859 5.5601 2.3874
-3.8829 5.4244 2.3874
-4.0751 5.2817 2.3874
-4.2619 5.1323 2.3874
-4.4433 4.9762 2.3874
-4.6190 4.8137 2.3874
-4.7888 4.6450 2.3874
-4.9524 4.4703 2.3874
-5.1096 4.2899 2.3874
-5.2603 4.1040 2.3874
-5.4042 3.9128 2.3874
-5.5412 3.7165 2.3874
-5.6711 3.5155 2.3874
-5.7936 3.3099 2.3874
-5.9087 3.1000 2.3874
-6.0163 2.8862 2.3874
-6.1161 2.6686 2.3874
-6.2080 2.4476 2.3874
-6.2919 2.2235 2.3874
-6.3678 1.9964 2.3874
-6.4355 1.7668 2.3874
-6.4949 1.5349 2.3874
-6.5459 1.3010 2.3874
-6.5886 1.0655 2.3874
-6.6227 0.8285 2.3874
-6.6484 0.5905 2.3874
-6.6655 0.3517 2.3874
-6.6740 0.1124 2.3874
-6.6739 -0.1271 2.3874
-6.6653 -0.3663 2.3874
-6.6481 -0.6052 2.3874
-6.6223 -0.8432 2.3874
-6.5880 -1.0802 2.3874
-6.5452 -1.3158 2.3874
-6.4940 -1.5497 2.3874
-6.4344 -1.7817 2.3874
-6.3666 -2.0113 2.3874
-6.2905 -2.2384 2.3874
-6.2064 -2.4627 2.3874
-6.1143 -2.6837 2.3874
-6.0143 -2.9014 2.3874
-5.9065 -3.1153 2.3874
-5.7912 -3.3252 2.3874
-5.6683 -3.5308 2.3874
-5.5382 -3.7319 2.3874
-5.4010 -3.9283 2.3874
-5.2568 -4.1195 2.3874
-5.1058 -4.3055 2.3874
-4.9482 -4.4860 2.3874
-4.7843 -4.6606 2.3874
-4.6142 -4.8293 2.3874
-4.4382 -4.9918 2.3874
-4.2564 -5.1479 2.3874
-4.0692 -5.2973 2.3874
-3.8767 -5.4400 2.3874
-3.6792 -5.5756 2.3874
-3.4769 -5.7041 2.3874
-3.2702 -5.8252 2.3874
-3.0593 -5.9388 2.3874
-2.8444 -6.0448 2.3874
-2.6258 -6.1430 2.3874
-2.4039 -6.2334 2.3874
-2.1788 -6.3156 2.3874
-1.9510 -6.3898 2.3874
-1.7206 -6.4557 2.3874
-1.4880 -6.5134 2.3874
-1.2535 -6.5626 2.3874
-1.0174 -6.6034 2.3874
-0.7799 -6.6357 2.3874
-0.5415 -6.6595 2.3874
-0.3023 -6.6746 2.3874
-0.0628 -6.6812 2.3874
0.1768 -6.6792 2.3874
0.4162 -6.6686 2.3874
0.6551 -6.6494 2.3874
0.8931 -6.6217 2.3874
1.1300 -6.5854 2.3874
1.3654 -6.5406 2.3874
1.5991 -6.4874 2.3874
1.8307 -6.4259 2.3874
2.0600 -6.3561 2.3874
2.2865 -6.2781 2.3874
2.5102 -6.1921 2.3874
2.7306 -6.0980 2.3874
2.9475 -5.9961 2.3874
3.1606 -5.8865 2.3874
3.3696 -5.7694 2.3874
3.5743 -5.6448 2.3874
3.7744 -5.5129 2.3874
3.9696 -5.3739 2.3874
4.1597 -5.2280 2.3874
4.3444 -5.0754 2.3874
4.5236 -4.9163 2.3874
4.6969 -4.7508 2.3874
4.8641 -4.5793 2.3874
5.0251 -4.4018 2.3874
5.1796 -4.2187 2.3874
5.3275 -4.0302 2.3874
5.4685 -3.8364 2.3874
5.6024 -3.6378 2.3874
5.7291 -3.4345 2.3874
5.8485 -3.2267 2.3874
5.9603 -3.0149 2.3874
6.0644 -2.7991 2.3874
6.1607 -2.5798 2.3874
6.2491 -2.3571 2.3874
6.3295 -2.1314 2.3874
6.4017 -1.9030 2.3874
6.4656 -1.6722 2.3874
6.5213 -1.4392 2.3874
6.5685 -1.2044 2.3874
6.6073 -0.9680 2.3874
6.6375 -0.7304 2.3874
6.6593 -0.4919 2.3874
6.6724 -0.2528 2.3874
6.6770 -0.0133 2.3874
6.6730 0.2261 2.3874
6.6604 0.4653 2.3874
6.6392 0.7038 2.3874
6.6095 0.9414 2.3874
6.5713 1.1778 2.3874
6.5246 1.4127 2.3874
6.4696 1.6457 2.3874
6.4062 1.8767 2.3874
6.3346 2.1051 2.3874
6.2548 2.3309 2.3874
6.1670 2.5536 2.3874
6.0713 2.7731 2.3874
5.9678 2.9889 2.3874
5.8566 3.2010 2.3874
5.7378 3.4088 2.3874
5.6117 3.6123 2.3874
5.4784 3.8112 2.3874
5.3381 4.0051 2.3874
5.1908 4.1938 2.3874
5.0370 4.3772 2.3874
4.8766 4.5549 2.3874
4.7100 4.7268 2.3874
4.5373 4.8925 2.3874
4.3588 5.0520 2.3874
4.1747 5.2050 2.3874
3.9853 5.3512 2.3874
3.7907 5.4906 2.3874
3.5913 5.6229 2.3874
3.3872 5.7480 2.3874
3.1788 5.8656 2.3874
2.9664 5.9758 2.3874
2.7501 6.0782 2.3874
2.5303 6.1728 2.3874
0.9159 2.4848 0.9477
0.8263 2.5163 0.9478
0.7356 2.5447 0.9480
0.6439 2.5697 0.9481
0.5514 2.5914 0.9482
0.4581 2.6098 0.9483
0.3643 2.6248 0.9484
0.2699 2.6364 0.9485
0.1752 2.6445 0.9485
0.0802 2.6493 0.9486
-0.0148 2.6506 0.9487
-0.1099 2.6484 0.9487
-0.2048 2.6428 0.9487
-0.2995 2.6338 0.9487
-0.3938 2.6214 0.9487
-0.4875 2.6056 0.9487
-0.5807 2.5864 0.9487
-0.6730 2.5638 0.9487
-0.7645 2.5380 0.9487
-0.8550 2.5088 0.9486
-2.3769 6.2327 2.3874
-2.5989 6.1434 2.3874
-2.8176 6.0463 2.3874
-3.0327 5.9414 2.3874
-3.2439 5.8289 2.3874
-3.4509 5.7088 2.3874
-3.6535 5.5815 2.3874
-3.8513 5.4469 2.3874
-4.0443 5.3053 2.3874
-4.2320 5.1569 2.3874
-4.4143 5.0019 2.3874
-4.5910 4.8404 2.3874
-4.7617 4.6728 2.3874
-4.9263 4.4991 2.3874
-5.0846 4.3196 2.3874
-5.2363 4.1345 2.3874
-5.3814 3.9441 2.3874
-5.5195 3.7487 2.3874
-5.6505 3.5484 2.3874
-5.7743 3.3435 2.3874
-5.8906 3.1343 2.3874
-5.9994 2.9211 2.3874
-6.1004 2.7041 2.3874
-6.1936 2.4837 2.3874
-6.2789 2.2600 2.3874
-6.3561 2.0334 2.3874
-6.4251 1.8042 2.3874
-6.4858 1.5726 2.3874
-6.5382 1.3390 2.3874
-6.5822 1.1037 2.3874
-6.6178 0.8670 2.3874
-6.6448 0.6291 2.3874
-6.6633 0.3904 2.3874
-6.6732 0.1512 2.3874
-6.6745 -0.0882 2.3874
-6.6673 -0.3276 2.3874
-6.6514 -0.5665 2.3874
-6.6270 -0.8047 2.3874
-6.5941 -1.0419 2.3874
-6.5527 -1.2777 2.3874
-6.5029 -1.5119 2.3874
-6.4447 -1.7442 2.3874
-6.3781 -1.9743 2.3874
-6.3034 -2.2018 2.3874
-6.2206 -2.4265 2.3874
-6.1297 -2.6481 2.3874
-6.0310 -2.8663 2.3874
-5.9245 -3.0809 2.3874
-5.8104 -3.2915 2.3874
-5.6888 -3.4978 2.3874
-5.5598 -3.6997 2.3874
-5.4237 -3.8968 2.3874
-5.2806 -4.0889 2.3874
-5.1307 -4.2757 2.3874
-4.9742 -4.4571 2.3874
-4.8113 -4.6327 2.3874
-4.6422 -4.8024 2.3874
-4.4671 -4.9659 2.3874
-4.2862 -5.1230 2.3874
-4.0999 -5.2736 2.3874
-3.9082 -5.4173 2.3874
-3.7115 -5.5541 2.3874
-3.5100 -5.6837 2.3874
-3.3040 -5.8061 2.3874
-3.0937 -5.9209 2.3874
-2.8795 -6.0282 2.3874
-2.6615 -6.1277 2.3874
-2.4401 -6.2193 2.3874
-2.2155 -6.3029 2.3874
-1.9881 -6.3783 2.3874
-1.7581 -6.4456 2.3874
-1.5259 -6.5046 2.3874
-1.2916 -6.5552 2.3874
-1.0557 -6.5974 2.3874
-0.8185 -6.6311 2.3874
-0.5802 -6.6562 2.3874
-0.3411 -6.6728 2.3874
-0.1016 -6.6808 2.3874
0.1380 -6.6801 2.3874
0.3775 -6.6709 2.3874
0.6164 -6.6531 2.3874
0.8546 -6.6268 2.3874
1.0917 -6.5918 2.3874
1.3274 -6.5485 2.3874
1.5614 -6.4966 2.3874
1.7933 -6.4365 2.3874
2.0230 -6.3680 2.3874
2.2500 -6.2913 2.3874
2.4742 -6.2066 2.3874
2.6951 -6.1138 2.3874
2.9126 -6.0132 2.3874
3.1263 -5.9048 2.3874
3.3360 -5.7889 2.3874
3.5414 -5.6654 2.3874
3.7423 -5.5347 2.3874
3.9383 -5.3969 2.3874
4.1292 -5.2521 2.3874
4.3149 -5.1006 2.3874
4.9930 -3.7317 2.3874
5.1235 -3.5502 2.3874
5.2474 -3.3641 2.3874
5.3646 -3.1737 2.3874
5.4748 -2.9793 2.3874
5.5780 -2.7809 2.3874
5.6740 -2.5791 2.3874
5.7627 -2.3739 2.3874
5.8440 -2.1656 2.3874
5.9178 -1.9546 2.3874
5.9839 -1.7411 2.3874
6.0423 -1.5253 2.3874
6.0930 -1.3076 2.3874
6.1358 -1.0883 2.3874
6.1707 -0.8675 2.3874
6.1977 -0.6456 2.3874
6.2167 -0.4229 2.3874
6.2277 -0.1997 2.3874
6.2307 0.0237 2.3874
6.2256 0.2472 2.3874
6.2126 0.4703 2.3874
6.1915 0.6928 2.3874
6.1625 0.9143 2.3874
6.1256 1.1347 2.3874
6.0808 1.3536 2.3874
6.0282 1.5708 2.3874
5.9678 1.7859 2.3874
5.8997 1.9987 2.3874
5.8241 2.2090 2.3874
5.7410 2.4164 2.3874
5.6505 2.6206 2.3874
5.5527 2.8215 2.3874
5.4478 3.0188 2.3874
5.3359 3.2121 2.3874
5.2171 3.4013 2.3874
5.0916 3.5862 2.3874
4.9596 3.7664 2.3874
4.8212 3.9417 2.3874
4.6766 4.1120 2.3874
4.5260 4.2769 2.3874
4.3696 4.4364 2.3874
4.2076 4.5902 2.3874
4.0402 4.7380 2.3874
3.8676 4.8798 2.3874
3.6900 5.0152 2.3874
3.5077 5.1443 2.3874
3.3208 5.2666 2.3874
3.1297 5.3823 2.3874
2.9346 5.4909 2.3874
2.7358 5.5926 2.3874
2.5334 5.6870 2.3874
0.9234 2.2906 0.9471
0.8408 2.3226 0.9472
0.7570 2.3515 0.9474
0.6723 2.3774 0.9475
0.5866 2.4003 0.9476
0.5002 2.4200 0.9477
0.4131 2.4366 0.9478
0.3255 2.4500 0.9479
0.2374 2.4603 0.9479
0.1491 2.4674 0.9480
0.0605 2.4713 0.9481
-0.0282 2.4720 0.9481
-0.1169 2.4694 0.9481
-0.2054 2.4637 0.9482
-0.2936 2.4548 0.9482
-0.3814 2.4427 0.9482
-0.4688 2.4274 0.9482
-0.5556 2.4090 0.9482
-0.6416 2.3875 0.9481
-0.7268 2.3629 0.9481
-0.8110 2.3352 0.9481
-0.8942 2.3045 0.9480
-2.4587 5.7189 2.3874
-2.6622 5.6271 2.3874
-2.8623 5.5280 2.3874
-3.0588 5.4219 2.3874
-3.2513 5.3087 2.3874
-3.4397 5.1887 2.3874
-3.6236 5.0621 2.3874
-3.8029 4.9289 2.3874
-3.9773 4.7894 2.3874
-4.1465 4.6438 2.3874
-4.3105 4.4921 2.3874
-4.4689 4.3347 2.3874
-4.6216 4.1717 2.3874
-4.7683 4.0033 2.3874
-4.9089 3.8298 2.3874
-5.0432 3.6514 2.3874
-5.1710 3.4682 2.3874
-5.2922 3.2806 2.3874
-5.4066 3.0887 2.3874
-5.5140 2.8929 2.3874
-5.6143 2.6933 2.3874
-5.7075 2.4903 2.3874
-5.7933 2.2841 2.3874
-5.8716 2.0749 2.3874
-5.9424 1.8630 2.3874
-6.0055 1.6487 2.3874
-6.0609 1.4323 2.3874
-6.1086 1.2140 2.3874
-6.1483 0.9942 2.3874
-6.1802 0.7731 2.3874
-6.2041 0.5510 2.3874
-6.2201 0.3281 2.3874
-6.2280 0.1048 2.3874
-6.2279 -0.1186 2.3874
-6.2199 -0.3419 2.3874
-6.2038 -0.5648 2.3874
-6.1797 -0.7869 2.3874
-6.1477 -1.0081 2.3874
-6.1078 -1.2279 2.3874
-6.0600 -1.4462 2.3874
-6.0044 -1.6626 2.3874
-5.9411 -1.8770 2.3874
-5.8701 -2.0889 2.3874
-5.7916 -2.2981 2.3874
-5.7056 -2.5044 2.3874
-5.6122 -2.7075 2.3874
-5.5117 -2.9071 2.3874
-5.4040 -3.1030 2.3874
-5.2894 -3.2948 2.3874
-5.1680 -3.4825 2.3874
-5.0399 -3.6657 2.3874
-4.9053 -3.8442 2.3874
-4.7644 -4.0177 2.3874
-4.6174 -4.1861 2.3874
-4.4644 -4.3491 2.3874
-4.3057 -4.5065 2.3874
-4.1414 -4.6581 2.3874
-3.9718 -4.8037 2.3874
-3.7971 -4.9432 2.3874
-3.6174 -5.0763 2.3874
-3.4331 -5.2028 2.3874
-3.2444 -5.3227 2.3874
-3.0515 -5.4357 2.3874
-2.8547 -5.5418 2.3874
-2.6542 -5.6407 2.3874
-2.4502 -5.7323 2.3874
-2.2431 -5.8166 2.3874
-2.0331 -5.8934 2.3874
-1.8205 -5.9625 2.3874
-1.6055 -6.0241 2.3874
-1.3885 -6.0778 2.3874
-1.1697 -6.1238 2.3874
-0.9493 -6.1619 2.3874
-0.7278 -6.1920 2.3874
-0.5053 -6.2142 2.3874
-0.2821 -6.2283 2.3874
-0.0586 -6.2345 2.3874
0.1650 -6.2326 2.3874
0.3884 -6.2227 2.3874
0.6113 -6.2048 2.3874
0.8334 -6.1789 2.3874
1.0545 -6.1450 2.3874
1.2741 -6.1032 2.3874
1.4922 -6.0536 2.3874
1.7083 -5.9962 2.3874
1.9222 -5.9311 2.3874
2.1336 -5.8583 2.3874
2.3423 -5.7780 2.3874
2.5480 -5.6902 2.3874
2.7504 -5.5952 2.3874
2.9492 -5.4929 2.3874
3.1443 -5.3836 2.3874
3.3353 -5.2673 2.3874
3.5220 -5.1443 2.3874
3.7041 -5.0146 2.3874
3.8815 -4.8785 2.3874
4.0539 -4.7361 2.3874
4.2211 -4.5876 2.3874
4.3828 -4.4332 2.3874
4.5389 -4.2731 2.3874
4.6891 -4.1075 2.3874
4.8333 -3.9367 2.3874
4.9713 -3.7607 2.3874
5.1028 -3.5800 2.3874
5.2278 -3.3946 2.3874
5.3461 -3.2049 2.3874
5.4574 -3.0110 2.3874
5.5618 -2.8133 2.3874
5.6590 -2.6120 2.3874
5.7489 -2.4073 2.3874
5.8314 -2.1996 2.3874
5.9063 -1.9890 2.3874
5.9737 -1.7759 2.3874
6.0334 -1.5604 2.3874
6.0853 -1.3430 2.3874
6.1294 -1.1239 2.3874
6.1656 -0.9034 2.3874
6.1939 -0.6816 2.3874
6.2142 -0.4591 2.3874
6.2265 -0.2359 2.3874
6.2307 -0.0125 2.3874
6.2270 0.2110 2.3874
6.2152 0.4341 2.3874
6.1955 0.6567 2.3874
6.1678 0.8785 2.3874
6.1321 1.0991 2.3874
6.0886 1.3183 2.3874
6.0372 1.5357 2.3874
5.9781 1.7512 2.3874
5.9113 1.9644 2.3874
5.8369 2.1751 2.3874
5.7549 2.3830 2.3874
5.6656 2.5877 2.3874
5.5690 2.7892 2.3874
5.4653 2.9870 2.3874
5.3545 3.1810 2.3874
5.2368 3.3709 2.3874
5.1124 3.5565 2.3874
4.9814 3.7375 2.3874
4.8441 3.9136 2.3874
4.7005 4.0847 2.3874
4.5508 4.2506 2.3874
4.3954 4.4110 2.3874
4.2342 4.5657 2.3874
4.0677 4.7145 2.3874
3.8959 4.8572 2.3874
3.7191 4.9937 2.3874
3.5375 5.1238 2.3874
3.3514 5.2473 2.3874
3.1610 5.3640 2.3874
2.9665 5.4738 2.3874
2.7683 5.5766 2.3874
2.5664 5.6722 2.3874
2.3613 5.7605 2.3874
0.8543 2.3176 0.9472
0.7707 2.3470 0.9473
0.6861 2.3734 0.9475
0.6006 2.3968 0.9476
0.5143 2.4170 0.9477
0.4273 2.4341 0.9478
0.3398 2.4481 0.9479
0.2517 2.4589 0.9479
0.1634 2.4665 0.9480
0.0748 2.4709 0.9481
-0.0138 2.4721 0.9481
-0.1025 2.4701 0.9481
-0.1910 2.4649 0.9482
-0.2793 2.4565 0.9482
-0.3672 2.4449 0.9482
-0.4547 2.4301 0.9482
-0.5416 2.4122 0.9482
-0.6277 2.3912 0.9481
-0.7130 2.3671 0.9481
-0.7975 2.3399 0.9481
-0.8808 2.3096 0.9480
-2.4254 5.7331 2.3874
-2.6294 5.6425 2.3874
-2.8302 5.5446 2.3874
-3.0272 5.4395 2.3874
-3.2204 5.3275 2.3874
-3.4094 5.2086 2.3874
-3.5941 5.0831 2.3874
-3.7741 4.9509 2.3874
-3.9493 4.8125 2.3874
-4.1195 4.6678 2.3874
-4.2843 4.5171 2.3874
-4.4436 4.3606 2.3874
-4.5972 4.1985 2.3874
-4.7449 4.0310 2.3874
-4.8866 3.8583 2.3874
-5.0219 3.6806 2.3874
-5.1508 3.4982 2.3874
-5.2730 3.3113 2.3874
-5.3885 3.1201 2.3874
-5.4971 2.9249 2.3874
-5.5986 2.7259 2.3874
-5.6929 2.5234 2.3874
-5.7799 2.3177 2.3874
-5.8594 2.1090 2.3874
-5.9314 1.8975 2.3874
-5.9958 1.6836 2.3874
-6.0525 1.4675 2.3874
-6.1014 1.2495 2.3874
-6.1424 1.0299 2.3874
-6.1756 0.8090 2.3874
-6.2008 0.5870 2.3874
-6.2180 0.3643 2.3874
-6.2273 0.1410 2.3874
-6.2285 -0.0824 2.3874
-6.2217 -0.3057 2.3874
-6.2069 -0.5287 2.3874
-6.1842 -0.7509 2.3874
-6.1534 -0.9723 2.3874
-6.1147 -1.1924 2.3874
-6.0682 -1.4109 2.3874
-6.0139 -1.6277 2.3874
-5.9518 -1.8424 2.3874
-5.8821 -2.0547 2.3874
-5.8048 -2.2644 2.3874
-5.7200 -2.4712 2.3874
-5.6279 -2.6748 2.3874
-5.5285 -2.8750 2.3874
-5.4220 -3.0715 2.3874
-5.3085 -3.2640 2.3874
-5.1881 -3.4524 2.3874
-5.0611 -3.6363 2.3874
-4.9276 -3.8156 2.3874
-4.7877 -3.9899 2.3874
-4.6417 -4.1592 2.3874
-4.4896 -4.3230 2.3874
-4.3318 -4.4814 2.3874
-4.1684 -4.6339 2.3874
-3.9997 -4.7805 2.3874
-3.8257 -4.9210 2.3874
-3.6469 -5.0551 2.3874
-3.4633 -5.1828 2.3874
-3.2753 -5.3037 2.3874
-3.0831 -5.4179 2.3874
-2.8868 -5.5251 2.3874
-2.6869 -5.6251 2.3874
-2.4835 -5.7179 2.3874
-2.2769 -5.8034 2.3874
-2.0673 -5.8814 2.3874
-1.8551 -5.9519 2.3874
-1.6405 -6.0146 2.3874
-1.4238 -6.0697 2.3874
-1.2053 -6.1169 2.3874
-0.9851 -6.1562 2.3874
-0.7638 -6.1877 2.3874
-0.5414 -6.2111 2.3874
-0.3183 -6.2266 2.3874
-0.0948 -6.2340 2.3874
0.1288 -6.2334 2.3874
0.3522 -6.2248 2.3874
0.5752 -6.2082 2.3874
0.7975 -6.1836 2.3874
1.0187 -6.1510 2.3874
1.2386 -6.1106 2.3874
1.4569 -6.0622 2.3874
1.6734 -6.0060 2.3874
1.8877 -5.9422 2.3874
2.0996 -5.8706 2.3874
2.3087 -5.7915 2.3874
2.5149 -5.7050 2.3874
2.7178 -5.6111 2.3874
2.9173 -5.5100 2.3874
3.1129 -5.4018 2.3874
3.3046 -5.2866 2.3874
3.4920 -5.1646 2.3874
3.6749 -5.0360 2.3874
3.8531 -4.9010 2.3874
4.0263 -4.7596 2.3874
4.6750 -3.4941 2.3874
4.7972 -3.3241 2.3874
4.9132 -3.1499 2.3874
5.0229 -2.9716 2.3874
5.1261 -2.7895 2.3874
5.2228 -2.6039 2.3874
5.3127 -2.4148 2.3874
5.3957 -2.2227 2.3874
5.4718 -2.0277 2.3874
5.5409 -1.8302 2.3874
5.6028 -1.6303 2.3874
5.6576 -1.4282 2.3874
5.7050 -1.2244 2.3874
5.7451 -1.0190 2.3874
5.7778 -0.8123 2.3874
5.8030 -0.6046 2.3874
5.8208 -0.3960 2.3874
5.8311 -0.1870 2.3874
5.8340 0.0222 2.3874
5.8292 0.2314 2.3874
5.8170 0.4403 2.3874
5.7973 0.6486 2.3874
5.7702 0.8561 2.3874
5.7356 1.0624 2.3874
5.6937 1.2674 2.3874
5.6444 1.4707 2.3874
5.5879 1.6722 2.3874
5.5242 1.8715 2.3874
5.4534 2.0683 2.3874
5.3755 2.2625 2.3874
5.2908 2.4538 2.3874
5.1992 2.6419 2.3874
5.1010 2.8266 2.3874
4.9962 3.0076 2.3874
4.8850 3.1848 2.3874
4.7675 3.3579 2.3874
4.6439 3.5266 2.3874
4.5144 3.6908 2.3874
4.3790 3.8502 2.3874
4.2380 4.0047 2.3874
4.0915 4.1540 2.3874
3.9398 4.2980 2.3874
3.7831 4.4365 2.3874
3.6214 4.5692 2.3874
3.4551 4.6961 2.3874
3.2844 4.8168 2.3874
3.1095 4.9315 2.3874
2.9306 5.0397 2.3874
2.7479 5.1415 2.3874
2.5617 5.2367 2.3874
2.3722 5.3251 2.3874
0.8643 2.1439 0.9467
0.7869 2.1738 0.9468
0.7085 2.2008 0.9469
0.6292 2.2251 0.9470
0.5491 2.2464 0.9471
0.4682 2.2649 0.9472
0.3867 2.2804 0.9473
0.3047 2.2930 0.9474
0.2222 2.3026 0.9475
0.1395 2.3092 0.9475
0.0566 2.3128 0.9476
-0.0264 2.3135 0.9476
-0.1094 2.3111 0.9476
-0.1922 2.3057 0.9477
-0.2748 2.2974 0.9477
-0.3570 2.2861 0.9477
-0.4387 2.2718 0.9477
-0.5199 2.2546 0.9477
-0.6005 2.2344 0.9476
-0.6802 2.2114 0.9476
-0.7590 2.1854 0.9476
-0.8369 2.1567 0.9475
-0.9137 2.1252 0.9475
-2.4928 5.2690 2.3874
-2.6802 5.1763 2.3874
-2.8642 5.0768 2.3874
-3.0444 4.9709 2.3874
-3.2208 4.8586 2.3874
-3.3930 4.7400 2.3874
-3.5609 4.6153 2.3874
-3.7242 4.4846 2.3874
-3.8827 4.3482 2.3874
-4.0362 4.2063 2.3874
-4.1845 4.0588 2.3874
-4.3275 3.9062 2.3874
-4.4649 3.7485 2.3874
-4.5965 3.5861 2.3874
-4.7223 3.4190 2.3874
-4.8420 3.2475 2.3874
-4.9554 3.0718 2.3874
-5.0625 2.8921 2.3874
-5.1631 2.7088 2.3874
-5.2570 2.5219 2.3874
-5.3442 2.3318 2.3874
-5.4245 2.1387 2.3874
-5.4979 1.9428 2.3874
-5.5641 1.7444 2.3874
-5.6233 1.5437 2.3874
-5.6752 1.3411 2.3874
-5.7197 1.1367 2.3874
-5.7570 0.9309 2.3874
-5.7868 0.7238 2.3874
-5.8092 0.5159 2.3874
-5.8241 0.3072 2.3874
-5.8315 0.0981 2.3874
-5.8315 -0.1111 2.3874
-5.8239 -0.3202 2.3874
-5.8088 -0.5288 2.3874
-5.7863 -0.7368 2.3874
-5.7563 -0.9439 2.3874
-5.7189 -1.1498 2.3874
-5.6741 -1.3542 2.3874
-5.6221 -1.5568 2.3874
-5.5628 -1.7575 2.3874
-5.4963 -1.9559 2.3874
-5.4228 -2.1518 2.3874
-5.3423 -2.3450 2.3874
-5.2549 -2.5351 2.3874
-5.1607 -2.7220 2.3874
-5.0599 -2.9054 2.3874
-4.9526 -3.0851 2.3874
-4.8389 -3.2608 2.3874
-4.7189 -3.4323 2.3874
-4.5929 -3.5994 2.3874
-4.4610 -3.7619 2.3874
-4.3233 -3.9195 2.3874
-4.1801 -4.0721 2.3874
-4.0315 -4.2195 2.3874
-3.8776 -4.3615 2.3874
-3.7188 -4.4978 2.3874
-3.5552 -4.6284 2.3874
-3.3870 -4.7530 2.3874
-3.2145 -4.8715 2.3874
-3.0377 -4.9837 2.3874
-2.8571 -5.0895 2.3874
-2.6728 -5.1888 2.3874
-2.4851 -5.2814 2.3874
-2.2941 -5.3672 2.3874
-2.1002 -5.4461 2.3874
-1.9036 -5.5180 2.3874
-1.7045 -5.5828 2.3874
-1.5033 -5.6404 2.3874
-1.3001 -5.6907 2.3874
-1.0951 -5.7337 2.3874
-0.8888 -5.7694 2.3874
-0.6814 -5.7976 2.3874
-0.4731 -5.8183 2.3874
-0.2641 -5.8316 2.3874
-0.0548 -5.8373 2.3874
0.1545 -5.8356 2.3874
0.3637 -5.8263 2.3874
0.5724 -5.8095 2.3874
0.7803 -5.7853 2.3874
0.9873 -5.7536 2.3874
1.1930 -5.7145 2.3874
1.3971 -5.6680 2.3874
1.5995 -5.6143 2.3874
1.7997 -5.5533 2.3874
1.9977 -5.4851 2.3874
2.1931 -5.4099 2.3874
2.3857 -5.3278 2.3874
2.5752 -5.2388 2.3874
2.7613 -5.1430 2.3874
2.9440 -5.0406 2.3874
3.1228 -4.9318 2.3874
3.2976 -4.8166 2.3874
3.4682 -4.6952 2.3874
3.6343 -4.5677 2.3874
3.7957 -4.4344 2.3874
3.9522 -4.2954 2.3874
4.1036 -4.1508 2.3874
4.2498 -4.0010 2.3874
4.3904 -3.8459 2.3874
4.5254 -3.6859 2.3874
4.6546 -3.5212 2.3874
4.7778 -3.3520 2.3874
4.8948 -3.1784 2.3874
5.0056 -3.0008 2.3874
5.1099 -2.8193 2.3874
5.2076 -2.6342 2.3874
5.2986 -2.4457 2.3874
5.3827 -2.2541 2.3874
5.4600 -2.0595 2.3874
5.5302 -1.8624 2.3874
5.5933 -1.6628 2.3874
5.6492 -1.4611 2.3874
5.6978 -1.2576 2.3874
5.7391 -1.0524 2.3874
5.7730 -0.8459 2.3874
5.7995 -0.6383 2.3874
5.8185 -0.4299 2.3874
5.8300 -0.2209 2.3874
5.8340 -0.0117 2.3874
5.8305 0.1975 2.3874
5.8195 0.4065 2.3874
5.8010 0.6149 2.3874
5.7751 0.8225 2.3874
5.7417 1.0291 2.3874
5.7010 1.2343 2.3874
5.6529 1.4379 2.3874
5.5975 1.6397 2.3874
5.5350 1.8393 2.3874
5.4653 2.0366 2.3874
5.3886 2.2312 2.3874
5.3050 2.4230 2.3874
5.2145 2.6116 2.3874
5.1174 2.7969 2.3874
5.0137 2.9785 2.3874
4.9035 3.1563 2.3874
4.7870 3.3301 2.3874
4.6644 3.4995 2.3874
4.5358 3.6645 2.3874
4.4013 3.8247 2.3874
4.2612 3.9800 2.3874
4.1156 4.1302 2.3874
3.9648 4.2750 2.3874
3.8088 4.4144 2.3874
3.6479 4.5481 2.3874
3.4824 4.6759 2.3874
3.3124 4.7977 2.3874
3.1381 4.9133 2.3874
2.9599 5.0226 2.3874
2.7778 5.1254 2.3874
2.5921 5.2217 2.3874
2.4031 5.3112 2.3874
0.8767 2.1388 0.9466
0.7995 2.1691 0.9468
0.7213 2.1966 0.9469
0.6421 2.2213 0.9470
0.5621 2.2432 0.9471
0.4813 2.2621 0.9472
0.3999 2.2781 0.9473
0.3180 2.2911 0.9474
0.2356 2.3012 0.9475
0.1529 2.3083 0.9475
0.0700 2.3125 0.9476
-0.0129 2.3136 0.9476
-0.0959 2.3117 0.9476
-0.1788 2.3068 0.9477
-0.2614 2.2990 0.9477
-0.3437 2.2881 0.9477
-0.4255 2.2743 0.9477
-0.5068 2.2575 0.9477
-0.5875 2.2379 0.9477
-0.6673 2.2153 0.9476
-0.7463 2.1898 0.9476
-0.8243 2.1616 0.9475
-0.9013 2.1305 0.9475
-2.4621 5.2834 2.3874
-2.6501 5.1918 2.3874
-2.8346 5.0934 2.3874
-3.0155 4.9885 2.3874
-3.1925 4.8772 2.3874
-3.3654 4.7596 2.3874
-3.5340 4.6359 2.3874
-3.6980 4.5062 2.3874
-3.8573 4.3707 2.3874
-4.0117 4.2296 2.3874
-4.1609 4.0831 2.3874
-4.3047 3.9313 2.3874
-4.4430 3.7744 2.3874
-4.5756 3.6127 2.3874
-4.7023 3.4464 2.3874
-4.8230 3.2755 2.3874
-4.9375 3.1005 2.3874
-5.0456 2.9215 2.3874
-5.1472 2.7387 2.3874
-5.2423 2.5524 2.3874
-5.3306 2.3628 2.3874
-5.4120 2.1701 2.3874
-5.4865 1.9747 2.3874
-5.5539 1.7767 2.3874
-5.6142 1.5764 2.3874
-5.6672 1.3741 2.3874
-5.7130 1.1700 2.3874
-5.7515 0.9643 2.3874
-5.7825 0.7575 2.3874
-5.8061 0.5496 2.3874
-5.8222 0.3410 2.3874
-5.8308 0.1320 2.3874
-5.8320 -0.0772 2.3874
-5.8256 -0.2863 2.3874
-5.8118 -0.4951 2.3874
-5.7904 -0.7032 2.3874
-5.7616 -0.9104 2.3874
-5.7255 -1.1165 2.3874
-5.6819 -1.3211 2.3874
-5.6310 -1.5241 2.3874
-5.5729 -1.7251 2.3874
-5.5076 -1.9239 2.3874
-5.4352 -2.1203 2.3874
-5.3558 -2.3139 2.3874
-5.2695 -2.5045 2.3874
-5.1764 -2.6919 2.3874
-5.0767 -2.8759 2.3874
-4.9704 -3.0562 2.3874
-4.8577 -3.2326 2.3874
-4.7388 -3.4048 2.3874
-4.6138 -3.5726 2.3874
-4.4828 -3.7359 2.3874
-4.3460 -3.8943 2.3874
-4.2037 -4.0478 2.3874
-4.0559 -4.1960 2.3874
-3.9029 -4.3388 2.3874
-3.7449 -4.4761 2.3874
-3.5820 -4.6076 2.3874
-3.4146 -4.7332 2.3874
-3.2427 -4.8527 2.3874
-3.0667 -4.9659 2.3874
-2.8867 -5.0728 2.3874
-2.7029 -5.1732 2.3874
-2.5157 -5.2668 2.3874
-2.3253 -5.3538 2.3874
-2.1318 -5.4338 2.3874
-1.9356 -5.5068 2.3874
-1.7369 -5.5728 2.3874
-1.5360 -5.6315 2.3874
-1.3331 -5.6830 2.3874
-1.1285 -5.7272 2.3874
-0.9224 -5.7641 2.3874
-0.7151 -5.7935 2.3874
-0.5069 -5.8155 2.3874
-0.2980 -5.8299 2.3874
-0.0888 -5.8369 2.3874
0.1206 -5.8364 2.3874
0.3298 -5.8283 2.3874
0.5386 -5.8128 2.3874
0.7467 -5.7897 2.3874
0.9538 -5.7592 2.3874
1.1597 -5.7213 2.3874
1.3641 -5.6760 2.3874
1.5668 -5.6235 2.3874
1.7674 -5.5636 2.3874
1.9658 -5.4967 2.3874
2.1616 -5.4226 2.3874
2.3547 -5.3416 2.3874
2.5447 -5.2537 2.3874
2.7314 -5.1590 2.3874
2.9146 -5.0577 2.3874
3.0941 -4.9499 2.3874
3.2696 -4.8357 2.3874
3.4409 -4.7153 2.3874
3.6077 -4.5888 2.3874
3.7699 -4.4564 2.3874
4.3902 -3.2812 2.3874
4.5049 -3.1216 2.3874
4.6139 -2.9580 2.3874
4.7169 -2.7906 2.3874
4.8138 -2.6196 2.3874
4.9046 -2.4453 2.3874
4.9890 -2.2678 2.3874
5.0670 -2.0873 2.3874
5.1385 -1.9043 2.3874
5.2034 -1.7187 2.3874
5.2615 -1.5310 2.3874
5.3129 -1.3413 2.3874
5.3575 -1.1499 2.3874
5.3951 -0.9570 2.3874
5.4259 -0.7629 2.3874
5.4496 -0.5678 2.3874
5.4663 -0.3720 2.3874
5.4760 -0.1757 2.3874
5.4786 0.0208 2.3874
5.4742 0.2173 2.3874
5.4628 0.4134 2.3874
5.4443 0.6091 2.3874
5.4188 0.8039 2.3874
5.3863 0.9977 2.3874
5.3469 1.1902 2.3874
5.3007 1.3811 2.3874
5.2476 1.5703 2.3874
5.1878 1.7575 2.3874
5.1213 1.9423 2.3874
5.0482 2.1247 2.3874
4.9686 2.3043 2.3874
4.8827 2.4810 2.3874
4.7904 2.6544 2.3874
4.6920 2.8244 2.3874
4.5876 2.9908 2.3874
4.4773 3.1534 2.3874
4.3612 3.3118 2.3874
4.2395 3.4660 2.3874
4.1124 3.6158 2.3874
3.9800 3.7609 2.3874
3.8424 3.9011 2.3874
3.7000 4.0363 2.3874
3.5528 4.1663 2.3874
3.4010 4.2910 2.3874
3.2448 4.4101 2.3874
3.0845 4.5236 2.3874
2.9202 4.6312 2.3874
2.7522 4.7329 2.3874
2.5806 4.8285 2.3874
2.4058 4.9179 2.3874
0.8829 1.9819 0.9461
0.8113 2.0125 0.9463
0.7387 2.0406 0.9464
0.6651 2.0660 0.9465
0.5907 2.0887 0.9466
0.5154 2.1088 0.9467
0.4395 2.1261 0.9468
0.3630 2.1406 0.9469
0.2860 2.1524 0.9470
0.2086 2.1614 0.9470
0.1310 2.1676 0.9471
0.0531 2.1710 0.9471
-0.0248 2.1716 0.9472
-0.1027 2.1694 0.9472
-0.1804 2.1644 0.9472
-0.2579 2.1565 0.9472
-0.3351 2.1459 0.9472
-0.4118 2.1325 0.9472
-0.4881 2.1163 0.9472
-0.5636 2.0974 0.9472
-0.6385 2.0758 0.9472
-0.7125 2.0515 0.9471
-0.7856 2.0245 0.9471
-0.8577 1.9949 0.9470
-2.3411 4.9483 2.3874
-2.5171 4.8612 2.3874
-2.6898 4.7678 2.3874
-2.8591 4.6683 2.3874
-3.0248 4.5628 2.3874
-3.1865 4.4514 2.3874
-3.3441 4.3343 2.3874
-3.4975 4.2116 2.3874
-3.6463 4.0835 2.3874
-3.7905 3.9502 2.3874
-3.9298 3.8117 2.3874
-4.0641 3.6684 2.3874
-4.1931 3.5203 2.3874
-4.3167 3.3677 2.3874
-4.4348 3.2108 2.3874
-4.5472 3.0497 2.3874
-4.6538 2.8847 2.3874
-4.7543 2.7160 2.3874
-4.8488 2.5438 2.3874
-4.9370 2.3683 2.3874
-5.0189 2.1898 2.3874
-5.0943 2.0084 2.3874
-5.1631 1.8244 2.3874
-5.2254 1.6381 2.3874
-5.2809 1.4497 2.3874
-5.3296 1.2594 2.3874
-5.3715 1.0675 2.3874
-5.4064 0.8742 2.3874
-5.4345 0.6797 2.3874
-5.4555 0.4844 2.3874
-5.4695 0.2884 2.3874
-5.4764 0.0921 2.3874
-5.4764 -0.1044 2.3874
-5.4692 -0.3007 2.3874
-5.4551 -0.4967 2.3874
-5.4339 -0.6920 2.3874
-5.4057 -0.8865 2.3874
-5.3706 -1.0798 2.3874
-5.3285 -1.2717 2.3874
-5.2796 -1.4620 2.3874
-5.2239 -1.6505 2.3874
-5.1615 -1.8368 2.3874
-5.0925 -2.0208 2.3874
-5.0168 -2.2022 2.3874
-4.9348 -2.3807 2.3874
-4.8463 -2.5562 2.3874
-4.7517 -2.7285 2.3874
-4.6509 -2.8972 2.3874
-4.5441 -3.0622 2.3874
-4.4315 -3.2232 2.3874
-4.3131 -3.3802 2.3874
-4.1892 -3.5327 2.3874
-4.0599 -3.6808 2.3874
-3.9254 -3.8241 2.3874
-3.7858 -3.9625 2.3874
-3.6414 -4.0958 2.3874
-3.4922 -4.2238 2.3874
-3.3386 -4.3464 2.3874
-3.1806 -4.4634 2.3874
-3.0186 -4.5747 2.3874
-2.8527 -4.6801 2.3874
-2.6830 -4.7795 2.3874
-2.5100 -4.8727 2.3874
-2.3337 -4.9596 2.3874
-2.1543 -5.0402 2.3874
-1.9722 -5.1143 2.3874
-1.7876 -5.1818 2.3874
-1.6007 -5.2426 2.3874
-1.4116 -5.2967 2.3874
-1.2208 -5.3440 2.3874
-1.0284 -5.3844 2.3874
-0.8347 -5.4178 2.3874
-0.6399 -5.4443 2.3874
-0.4442 -5.4638 2.3874
-0.2480 -5.4763 2.3874
-0.0515 -5.4817 2.3874
0.1451 -5.4800 2.3874
0.3415 -5.4713 2.3874
0.5375 -5.4555 2.3874
0.7328 -5.4328 2.3874
0.9271 -5.4030 2.3874
1.1203 -5.3663 2.3874
1.3120 -5.3226 2.3874
1.5020 -5.2722 2.3874
1.6901 -5.2149 2.3874
1.8760 -5.1509 2.3874
2.0595 -5.0803 2.3874
2.2403 -5.0032 2.3874
2.4183 -4.9196 2.3874
2.5931 -4.8297 2.3874
2.7646 -4.7335 2.3874
2.9325 -4.6313 2.3874
3.0967 -4.5231 2.3874
3.2568 -4.4091 2.3874
3.4128 -4.2894 2.3874
3.5644 -4.1643 2.3874
3.7114 -4.0337 2.3874
3.8536 -3.8980 2.3874
3.9908 -3.7572 2.3874
4.1229 -3.6116 2.3874
4.2497 -3.4614 2.3874
4.3710 -3.3067 2.3874
4.4867 -3.1478 2.3874
4.5966 -2.9848 2.3874
4.7006 -2.8180 2.3874
4.7985 -2.6476 2.3874
4.8903 -2.4737 2.3874
4.9758 -2.2967 2.3874
5.0548 -2.1168 2.3874
