ply
format ascii 1.0
element vertex 2169
property float32 x
property float32 y
property float32 z
end_header
-0.9211 2.2948 0.9398
-2.5668 5.7860 2.3974
-2.7821 5.7103 2.3974
-2.9951 5.6266 2.3974
-3.2056 5.5350 2.3974
-3.4133 5.4355 2.3974
-3.6179 5.3282 2.3974
-3.8189 5.2132 2.3974
-4.0162 5.0905 2.3974
-4.2094 4.9602 2.3974
-4.3982 4.8226 2.3974
-4.5823 4.6777 2.3974
-4.7613 4.5256 2.3974
-4.9351 4.3665 2.3974
-5.1032 4.2007 2.3974
-5.2654 4.0282 2.3974
-5.4214 3.8493 2.3974
-5.5709 3.6642 2.3974
-5.7137 3.4731 2.3974
-5.8494 3.2764 2.3974
-5.9778 3.0742 2.3974
-6.0987 2.8668 2.3974
-6.2118 2.6545 2.3974
-6.3170 2.4376 2.3974
-6.4139 2.2164 2.3974
-6.5024 1.9913 2.3974
-6.5823 1.7626 2.3974
-6.6534 1.5305 2.3974
-6.7156 1.2956 2.3974
-6.7687 1.0580 2.3974
-6.8126 0.8183 2.3974
-6.8472 0.5767 2.3974
-6.8724 0.3338 2.3974
-6.8882 0.0898 2.3974
-6.8943 -0.1549 2.3974
-6.8910 -0.3999 2.3974
-6.8780 -0.6446 2.3974
-6.8554 -0.8889 2.3974
-6.8233 -1.1321 2.3974
-6.7816 -1.3740 2.3974
-6.7305 -1.6142 2.3974
-6.6699 -1.8522 2.3974
-6.6001 -2.0877 2.3974
-6.5211 -2.3202 2.3974
-6.4330 -2.5494 2.3974
-6.3360 -2.7749 2.3974
-6.2303 -2.9964 2.3974
-6.1161 -3.2135 2.3974
-5.9935 -3.4257 2.3974
-5.8628 -3.6329 2.3974
-5.7241 -3.8347 2.3974
-5.5779 -4.0307 2.3974
-5.4243 -4.2207 2.3974
-5.2635 -4.4043 2.3974
-5.0960 -4.5814 2.3974
-4.9219 -4.7516 2.3974
-4.7416 -4.9146 2.3974
-4.5554 -5.0704 2.3974
-4.3636 -5.2186 2.3974
-4.1666 -5.3591 2.3974
-3.9647 -5.4917 2.3974
-3.7583 -5.6161 2.3974
-3.5476 -5.7324 2.3974
-3.3331 -5.8404 2.3974
-3.1151 -5.9398 2.3974
-2.8939 -6.0308 2.3974
-2.6700 -6.1131 2.3974
-2.4437 -6.1867 2.3974
-2.2152 -6.2516 2.3974
-1.9851 -6.3077 2.3974
-1.7537 -6.3550 2.3974
-1.5212 -6.3936 2.3974
-1.2881 -6.4234 2.3974
-1.0546 -6.4444 2.3974
-0.8212 -6.4568 2.3974
-0.5882 -6.4606 2.3974
-0.3558 -6.4558 2.3974
-0.1244 -6.4425 2.3974
0.1056 -6.4208 2.3974
0.3341 -6.3909 2.3974
0.5606 -6.3528 2.3974
0.7849 -6.3066 2.3974
1.0067 -6.2526 2.3974
1.2258 -6.1908 2.3974
1.4418 -6.1213 2.3974
1.6546 -6.0445 2.3974
1.8639 -5.9603 2.3974
2.0694 -5.8691 2.3974
2.2709 -5.7709 2.3974
2.4682 -5.6660 2.3974
2.6611 -5.5546 2.3974
2.8494 -5.4368 2.3974
3.0329 -5.3128 2.3974
3.2114 -5.1829 2.3974
3.3848 -5.0473 2.3974
3.5528 -4.9061 2.3974
3.7154 -4.7596 2.3974
3.8724 -4.6080 2.3974
4.0236 -4.4516 2.3974
4.1690 -4.2904 2.3974
4.3083 -4.1248 2.3974
4.4416 -3.9551 2.3974
4.5686 -3.7812 2.3974
4.6894 -3.6036 2.3974
4.8037 -3.4225 2.3974
4.9115 -3.2380 2.3974
5.0128 -3.0505 2.3974
5.1075 -2.8600 2.3974
5.1955 -2.6669 2.3974
5.2768 -2.4713 2.3974
5.3513 -2.2734 2.3974
5.4190 -2.0736 2.3974
5.4798 -1.8721 2.3974
5.5337 -1.6689 2.3974
5.5807 -1.4644 2.3974
5.6209 -1.2588 2.3974
5.6540 -1.0523 2.3974
5.6803 -0.8450 2.3974
5.6996 -0.6373 2.3974
5.7119 -0.4292 2.3974
5.7173 -0.2211 2.3974
5.7158 -0.0132 2.3974
5.7074 0.1944 2.3974
5.6922 0.4015 2.3974
5.6701 0.6078 2.3974
5.6412 0.8131 2.3974
5.6055 1.0173 2.3974
5.5631 1.2201 2.3974
5.5140 1.4214 2.3974
5.4583 1.6209 2.3974
5.3960 1.8184 2.3974
5.3272 2.0138 2.3974
5.2520 2.2068 2.3974
5.1704 2.3974 2.3974
5.0824 2.5851 2.3974
4.9883 2.7700 2.3974
4.8880 2.9518 2.3974
4.7816 3.1302 2.3974
4.6693 3.3052 2.3974
4.5511 3.4765 2.3974
4.4272 3.6440 2.3974
4.2976 3.8075 2.3974
4.1625 3.9668 2.3974
4.0219 4.1216 2.3974
3.8760 4.2719 2.3974
3.7250 4.4175 2.3974
3.5689 4.5582 2.3974
3.4079 4.6939 2.3974
3.2421 4.8242 2.3974
3.0718 4.9492 2.3974
2.8969 5.0686 2.3974
2.7178 5.1823 2.3974
2.5345 5.2902 2.3974
2.3473 5.3920 2.3974
0.8954 2.2787 0.9955
0.8128 2.3107 0.9933
0.7291 2.3398 0.9911
0.6444 2.3658 0.9888
0.5588 2.3887 0.9864
0.4724 2.4085 0.9840
0.3854 2.4252 0.9815
0.2978 2.4387 0.9790
0.2098 2.4491 0.9764
0.1214 2.4562 0.9738
0.0329 2.4602 0.9711
-0.0558 2.4610 0.9684
-0.1444 2.4586 0.9656
-0.2328 2.4530 0.9628
-0.3211 2.4442 0.9600
-0.4089 2.4322 0.9572
-0.4962 2.4170 0.9543
-0.5830 2.3987 0.9514
-0.6690 2.3773 0.9485
-0.7542 2.3528 0.9456
-0.8384 2.3252 0.9427
-0.9216 2.2946 0.9398
-2.5681 5.7856 2.3974
-2.7834 5.7098 2.3974
-2.9965 5.6261 2.3974
-3.2070 5.5344 2.3974
-3.4146 5.4349 2.3974
-3.6191 5.3275 2.3974
-3.8202 5.2124 2.3974
-4.0174 5.0897 2.3974
-4.2106 4.9594 2.3974
-4.3994 4.8217 2.3974
-4.5834 4.6767 2.3974
-4.7624 4.5246 2.3974
-4.9362 4.3655 2.3974
-5.1042 4.1996 2.3974
-5.2664 4.0271 2.3974
-5.4224 3.8481 2.3974
-5.5718 3.6630 2.3974
-5.7145 3.4719 2.3974
-5.8502 3.2751 2.3974
-5.9786 3.0729 2.3974
-6.0995 2.8655 2.3974
-6.2125 2.6531 2.3974
-6.3176 2.4362 2.3974
-6.4145 2.2150 2.3974
-6.5029 1.9899 2.3974
-6.5828 1.7611 2.3974
-6.6539 1.5291 2.3974
-6.7160 1.2941 2.3974
-6.7690 1.0565 2.3974
-6.8129 0.8168 2.3974
-6.8474 0.5752 2.3974
-6.8726 0.3322 2.3974
-6.8882 0.0882 2.3974
-6.8944 -0.1565 2.3974
-6.8909 -0.4014 2.3974
-6.8779 -0.6462 2.3974
-6.8552 -0.8904 2.3974
-6.8230 -1.1336 2.3974
-6.7813 -1.3756 2.3974
-6.7301 -1.6157 2.3974
-6.6695 -1.8537 2.3974
-6.5996 -2.0891 2.3974
-6.5205 -2.3217 2.3974
-6.4324 -2.5509 2.3974
-6.3354 -2.7763 2.3974
-6.2296 -2.9978 2.3974
-6.1153 -3.2148 2.3974
-5.9927 -3.4271 2.3974
-5.8619 -3.6342 2.3974
-5.7232 -3.8359 2.3974
-5.5769 -4.0319 2.3974
-5.4233 -4.2219 2.3974
-5.2625 -4.4055 2.3974
-5.0949 -4.5825 2.3974
-4.9208 -4.7526 2.3974
-4.7404 -4.9156 2.3974
-4.5542 -5.0713 2.3974
-4.3624 -5.2195 2.3974
-4.1654 -5.3600 2.3974
-3.9634 -5.4925 2.3974
-3.7569 -5.6169 2.3974
-3.5463 -5.7331 2.3974
-3.3317 -5.8410 2.3974
-3.1137 -5.9404 2.3974
-2.8925 -6.0313 2.3974
-2.6686 -6.1136 2.3974
-2.4422 -6.1871 2.3974
-2.2138 -6.2519 2.3974
-1.9837 -6.3080 2.3974
-1.7522 -6.3553 2.3974
-1.5197 -6.3938 2.3974
-1.2866 -6.4235 2.3974
-1.0532 -6.4445 2.3974
-0.8198 -6.4569 2.3974
-0.5867 -6.4606 2.3974
-0.3543 -6.4557 2.3974
-0.1230 -6.4424 2.3974
0.1071 -6.4206 2.3974
0.3355 -6.3906 2.3974
0.5620 -6.3525 2.3974
0.7863 -6.3063 2.3974
1.0081 -6.2522 2.3974
1.2272 -6.1903 2.3974
1.4432 -6.1209 2.3974
1.6559 -6.0440 2.3974
1.8652 -5.9598 2.3974
2.0707 -5.8685 2.3974
2.2721 -5.7703 2.3974
2.4694 -5.6653 2.3974
2.6623 -5.5538 2.3974
2.8506 -5.4360 2.3974
3.0340 -5.3120 2.3974
3.2125 -5.1821 2.3974
3.3859 -5.0464 2.3974
3.5539 -4.9052 2.3974
3.7164 -4.7587 2.3974
3.8734 -4.6071 2.3974
4.0246 -4.4506 2.3974
4.1699 -4.2894 2.3974
4.3092 -4.1238 2.3974
4.4424 -3.9540 2.3974
4.5694 -3.7801 2.3974
4.6901 -3.6025 2.3974
4.8044 -3.4214 2.3974
4.9122 -3.2369 2.3974
5.0135 -3.0492 2.3974
5.1081 -2.8588 2.3974
5.1961 -2.6656 2.3974
5.2773 -2.4700 2.3974
5.3517 -2.2722 2.3974
5.4194 -2.0724 2.3974
5.4801 -1.8708 2.3974
5.5340 -1.6676 2.3974
5.5810 -1.4631 2.3974
5.6211 -1.2575 2.3974
5.6542 -1.0510 2.3974
5.6804 -0.8437 2.3974
5.6996 -0.6359 2.3974
5.7120 -0.4279 2.3974
5.7173 -0.2198 2.3974
5.7158 -0.0119 2.3974
5.7074 0.1957 2.3974
5.6921 0.4028 2.3974
5.6699 0.6091 2.3974
5.6410 0.8144 2.3974
5.6053 1.0186 2.3974
5.5628 1.2214 2.3974
5.5137 1.4227 2.3974
5.4579 1.6221 2.3974
5.3956 1.8196 2.3974
5.3268 2.0150 2.3974
5.2515 2.2080 2.3974
5.1698 2.3985 2.3974
5.0818 2.5863 2.3974
4.9876 2.7712 2.3974
4.8873 2.9529 2.3974
4.7809 3.1313 2.3974
4.6686 3.3063 2.3974
4.5504 3.4776 2.3974
4.4264 3.6451 2.3974
4.2968 3.8085 2.3974
4.1616 3.9677 2.3974
4.0210 4.1226 2.3974
3.8751 4.2729 2.3974
3.7240 4.4185 2.3974
3.5679 4.5591 2.3974
3.4069 4.6947 2.3974
3.2411 4.8250 2.3974
3.0707 4.9500 2.3974
2.8958 5.0694 2.3974
2.7166 5.1830 2.3974
2.5333 5.2908 2.3974
2.3461 5.3926 2.3974
0.8949 2.2789 0.9955
0.8123 2.3109 0.9933
0.7285 2.3399 0.9911
0.6438 2.3659 0.9888
0.5582 2.3888 0.9864
0.4719 2.4086 0.9840
0.3848 2.4253 0.9815
0.2972 2.4388 0.9790
0.2092 2.4491 0.9764
0.1209 2.4563 0.9737
0.0323 2.4602 0.9711
-0.0563 2.4610 0.9684
-0.1449 2.4586 0.9656
-0.2334 2.4529 0.9628
-0.3216 2.4441 0.9600
-0.4094 2.4321 0.9572
-0.4968 2.4169 0.9543
-0.5835 2.3986 0.9514
-0.6695 2.3771 0.9485
-0.7547 2.3526 0.9456
-0.8389 2.3250 0.9427
-0.9221 2.2944 0.9398
-2.5695 5.7851 2.3974
-2.7848 5.7093 2.3974
-2.9978 5.6255 2.3974
-3.2083 5.5338 2.3974
-3.4159 5.4342 2.3974
-3.6204 5.3268 2.3974
-3.8214 5.2117 2.3974
-4.0187 5.0889 2.3974
-4.2118 4.9586 2.3974
-4.4005 4.8208 2.3974
-4.5846 4.6758 2.3974
-4.7636 4.5236 2.3974
-4.9372 4.3645 2.3974
-5.1053 4.1985 2.3974
-5.2674 4.0260 2.3974
-5.4233 3.8470 2.3974
-5.5727 3.6618 2.3974
-5.7154 3.4707 2.3974
-5.8510 3.2739 2.3974
-5.9794 3.0716 2.3974
-6.1002 2.8641 2.3974
-6.2132 2.6518 2.3974
-6.3183 2.4348 2.3974
-6.4151 2.2136 2.3974
-6.5035 1.9884 2.3974
-6.5833 1.7597 2.3974
-6.6543 1.5276 2.3974
-6.7164 1.2926 2.3974
-6.7693 1.0550 2.3974
-6.8131 0.8152 2.3974
-6.8476 0.5737 2.3974
-6.8727 0.3307 2.3974
-6.8883 0.0867 2.3974
-6.8944 -0.1580 2.3974
-6.8909 -0.4029 2.3974
-6.8778 -0.6477 2.3974
-6.8551 -0.8919 2.3974
-6.8228 -1.1352 2.3974
-6.7810 -1.3771 2.3974
-6.7297 -1.6172 2.3974
-6.6691 -1.8552 2.3974
-6.5991 -2.0906 2.3974
-6.5200 -2.3231 2.3974
-6.4318 -2.5523 2.3974
-6.3347 -2.7778 2.3974
-6.2289 -2.9992 2.3974
-6.1146 -3.2162 2.3974
-5.9919 -3.4284 2.3974
-5.8611 -3.6355 2.3974
-5.7223 -3.8372 2.3974
-5.5760 -4.0331 2.3974
-5.4223 -4.2230 2.3974
-5.2614 -4.4066 2.3974
-5.0938 -4.5836 2.3974
-4.9196 -4.7537 2.3974
-4.7393 -4.9166 2.3974
-4.5530 -5.0723 2.3974
-4.3612 -5.2204 2.3974
-4.1641 -5.3608 2.3974
-3.9622 -5.4933 2.3974
-3.7556 -5.6177 2.3974
-3.5449 -5.7338 2.3974
-3.3304 -5.8417 2.3974
-3.1123 -5.9410 2.3974
-2.8911 -6.0319 2.3974
-6.3570 -1.0540 2.3974
-6.3181 -1.2792 2.3974
-6.2705 -1.5027 2.3974
-6.2141 -1.7243 2.3974
-6.1492 -1.9434 2.3974
-6.0757 -2.1599 2.3974
-5.9939 -2.3733 2.3974
-5.9038 -2.5834 2.3974
-5.8056 -2.7896 2.3974
-5.6996 -2.9918 2.3974
-5.5857 -3.1896 2.3974
-5.4644 -3.3827 2.3974
-5.3357 -3.5708 2.3974
-5.2000 -3.7537 2.3974
-5.0574 -3.9309 2.3974
-4.9081 -4.1023 2.3974
-4.7526 -4.2676 2.3974
-4.5909 -4.4266 2.3974
-4.4235 -4.5791 2.3974
-4.2505 -4.7248 2.3974
-4.0724 -4.8635 2.3974
-3.8893 -4.9951 2.3974
-3.7017 -5.1194 2.3974
-3.5097 -5.2362 2.3974
-3.3139 -5.3454 2.3974
-3.1143 -5.4469 2.3974
-2.9115 -5.5405 2.3974
-2.7057 -5.6263 2.3974
-2.4972 -5.7040 2.3974
-2.2865 -5.7737 2.3974
-2.0737 -5.8353 2.3974
-1.8593 -5.8888 2.3974
-1.6435 -5.9341 2.3974
-1.4267 -5.9712 2.3974
-1.2093 -6.0002 2.3974
-0.9914 -6.0210 2.3974
-0.7735 -6.0338 2.3974
-0.5559 -6.0385 2.3974
-0.3388 -6.0352 2.3974
-0.1226 -6.0240 2.3974
0.0925 -6.0050 2.3974
0.3062 -5.9782 2.3974
0.5182 -5.9438 2.3974
0.7282 -5.9018 2.3974
0.9359 -5.8525 2.3974
1.1411 -5.7958 2.3974
1.3436 -5.7320 2.3974
1.5432 -5.6612 2.3974
1.7395 -5.5835 2.3974
1.9323 -5.4992 2.3974
2.1215 -5.4083 2.3974
2.3068 -5.3111 2.3974
2.4881 -5.2077 2.3974
2.6651 -5.0982 2.3974
2.8376 -4.9830 2.3974
3.0056 -4.8621 2.3974
3.1687 -4.7358 2.3974
3.3270 -4.6042 2.3974
3.4801 -4.4676 2.3974
3.6281 -4.3262 2.3974
3.7706 -4.1800 2.3974
3.9077 -4.0295 2.3974
4.0392 -3.8747 2.3974
4.1650 -3.7159 2.3974
4.2850 -3.5532 2.3974
4.3990 -3.3870 2.3974
4.5071 -3.2173 2.3974
4.6091 -3.0444 2.3974
4.7049 -2.8687 2.3974
4.7945 -2.6900 2.3974
4.8778 -2.5088 2.3974
4.9548 -2.3253 2.3974
5.0255 -2.1396 2.3974
5.0897 -1.9521 2.3974
5.1474 -1.7627 2.3974
5.1987 -1.5719 2.3974
5.2434 -1.3797 2.3974
5.2816 -1.1865 2.3974
5.3133 -0.9922 2.3974
5.3384 -0.7974 2.3974
5.3570 -0.6020 2.3974
5.3690 -0.4064 2.3974
5.3744 -0.2106 2.3974
5.3733 -0.0150 2.3974
5.3657 0.1804 2.3974
5.3516 0.3752 2.3974
5.3310 0.5693 2.3974
5.3040 0.7626 2.3974
5.2706 0.9548 2.3974
5.2308 1.1456 2.3974
5.1847 1.3350 2.3974
5.1324 1.5228 2.3974
5.0738 1.7086 2.3974
5.0090 1.8925 2.3974
4.9382 2.0742 2.3974
4.8613 2.2534 2.3974
4.7785 2.4301 2.3974
4.6898 2.6040 2.3974
4.5952 2.7750 2.3974
4.4950 2.9427 2.3974
4.3892 3.1072 2.3974
4.2778 3.2682 2.3974
4.1610 3.4256 2.3974
4.0388 3.5792 2.3974
3.9114 3.7287 2.3974
3.7790 3.8741 2.3974
3.6415 4.0152 2.3974
3.4992 4.1518 2.3974
3.3521 4.2837 2.3974
3.2004 4.4108 2.3974
3.0443 4.5329 2.3974
2.8838 4.6499 2.3974
2.7192 4.7616 2.3974
2.5505 4.8679 2.3974
2.3780 4.9687 2.3974
2.2018 5.0637 2.3974
0.8367 2.1322 0.9920
0.7594 2.1622 0.9900
0.6811 2.1894 0.9879
0.6018 2.2137 0.9857
0.5217 2.2352 0.9835
0.4408 2.2537 0.9812
0.3594 2.2693 0.9789
0.2774 2.2820 0.9765
0.1950 2.2917 0.9741
0.1123 2.2984 0.9717
0.0294 2.3022 0.9692
-0.0535 2.3029 0.9666
-0.1365 2.3007 0.9640
-0.2193 2.2954 0.9614
-0.3019 2.2872 0.9588
-0.3841 2.2760 0.9561
-0.4658 2.2618 0.9535
-0.5470 2.2447 0.9508
-0.6275 2.2247 0.9481
-0.7073 2.2018 0.9453
-0.7861 2.1760 0.9426
-0.8640 2.1473 0.9399
-0.9408 2.1159 0.9372
-2.6076 5.3409 2.3974
-2.8064 5.2616 2.3974
-3.0028 5.1749 2.3974
-3.1964 5.0808 2.3974
-3.3870 4.9795 2.3974
-3.5743 4.8710 2.3974
-3.7579 4.7554 2.3974
-3.9377 4.6328 2.3974
-4.1134 4.5034 2.3974
-4.2845 4.3672 2.3974
-4.4509 4.2243 2.3974
-4.6123 4.0751 2.3974
-4.7684 3.9195 2.3974
-4.9190 3.7578 2.3974
-5.0637 3.5903 2.3974
-5.2024 3.4170 2.3974
-5.3347 3.2382 2.3974
-5.4604 3.0542 2.3974
-5.5793 2.8651 2.3974
-5.6912 2.6713 2.3974
-5.7959 2.4731 2.3974
-5.8931 2.2705 2.3974
-5.9826 2.0641 2.3974
-6.0643 1.8541 2.3974
-6.1379 1.6406 2.3974
-6.2036 1.4243 2.3974
-6.2609 1.2053 2.3974
-6.3097 0.9839 2.3974
-6.3500 0.7606 2.3974
-6.3817 0.5356 2.3974
-6.4046 0.3093 2.3974
-6.4188 0.0820 2.3974
-6.4241 -0.1458 2.3974
-6.4206 -0.3738 2.3974
-6.4082 -0.6017 2.3974
-6.3869 -0.8290 2.3974
-6.3568 -1.0554 2.3974
-6.3179 -1.2806 2.3974
-6.2701 -1.5041 2.3974
-6.2137 -1.7256 2.3974
-6.1487 -1.9448 2.3974
-6.0752 -2.1613 2.3974
-5.9933 -2.3747 2.3974
-5.9032 -2.5847 2.3974
-5.8050 -2.7909 2.3974
-5.6989 -2.9931 2.3974
-5.5850 -3.1909 2.3974
-5.4636 -3.3839 2.3974
-5.3349 -3.5720 2.3974
-5.1991 -3.7548 2.3974
-5.0564 -3.9320 2.3974
-4.9072 -4.1034 2.3974
-4.7516 -4.2687 2.3974
-4.5899 -4.4276 2.3974
-4.4224 -4.5800 2.3974
-4.2494 -4.7257 2.3974
-4.0712 -4.8644 2.3974
-3.8881 -4.9959 2.3974
-3.7005 -5.1201 2.3974
-3.5085 -5.2369 2.3974
-3.3126 -5.3460 2.3974
-3.1131 -5.4475 2.3974
-2.9102 -5.5411 2.3974
-2.7044 -5.6268 2.3974
-2.4959 -5.7045 2.3974
-2.2851 -5.7741 2.3974
-2.0723 -5.8357 2.3974
-1.8579 -5.8891 2.3974
-1.6421 -5.9343 2.3974
-1.4254 -5.9714 2.3974
-1.2079 -6.0003 2.3974
-0.9901 -6.0211 2.3974
-0.7722 -6.0338 2.3974
-0.5545 -6.0385 2.3974
-0.3374 -6.0352 2.3974
-0.1212 -6.0239 2.3974
0.0939 -6.0048 2.3974
0.3075 -5.9780 2.3974
0.5195 -5.9435 2.3974
0.7295 -5.9015 2.3974
0.9372 -5.8521 2.3974
1.1424 -5.7954 2.3974
1.3449 -5.7316 2.3974
1.5444 -5.6607 2.3974
1.7407 -5.5830 2.3974
1.9335 -5.4986 2.3974
2.1227 -5.4077 2.3974
2.3080 -5.3104 2.3974
2.4892 -5.2070 2.3974
2.6662 -5.0975 2.3974
2.8387 -4.9822 2.3974
3.0066 -4.8613 2.3974
3.1698 -4.7350 2.3974
3.3280 -4.6034 2.3974
3.4811 -4.4667 2.3974
3.6290 -4.3252 2.3974
3.7715 -4.1791 2.3974
3.9086 -4.0285 2.3974
4.0400 -3.8737 2.3974
4.1658 -3.7149 2.3974
4.2857 -3.5522 2.3974
4.3997 -3.3859 2.3974
4.5077 -3.2162 2.3974
4.6097 -3.0434 2.3974
4.7055 -2.8675 2.3974
4.7951 -2.6889 2.3974
4.8783 -2.5077 2.3974
4.9553 -2.3242 2.3974
5.0259 -2.1385 2.3974
5.0901 -1.9508 2.3974
5.1478 -1.7615 2.3974
5.1990 -1.5706 2.3974
5.2437 -1.3785 2.3974
5.2818 -1.1852 2.3974
5.3135 -0.9910 2.3974
5.3385 -0.7961 2.3974
5.3571 -0.6008 2.3974
5.3690 -0.4051 2.3974
5.3744 -0.2094 2.3974
5.3733 -0.0137 2.3974
5.3656 0.1816 2.3974
5.3515 0.3764 2.3974
5.3309 0.5706 2.3974
5.3038 0.7638 2.3974
5.2704 0.9560 2.3974
5.2306 1.1468 2.3974
5.1844 1.3362 2.3974
5.1320 1.5240 2.3974
5.0734 1.7098 2.3974
5.0086 1.8936 2.3974
4.9377 2.0753 2.3974
4.8608 2.2545 2.3974
4.7779 2.4312 2.3974
4.6892 2.6051 2.3974
4.5946 2.7760 2.3974
4.4944 2.9438 2.3974
4.3885 3.1082 2.3974
4.2771 3.2692 2.3974
4.1602 3.4267 2.3974
4.0380 3.5801 2.3974
3.9106 3.7296 2.3974
3.7781 3.8750 2.3974
3.6406 4.0160 2.3974
3.4982 4.1526 2.3974
3.3511 4.2845 2.3974
3.1994 4.4116 2.3974
3.0433 4.5337 2.3974
2.8828 4.6506 2.3974
2.7181 4.7623 2.3974
2.5494 4.8686 2.3974
2.3769 4.9693 2.3974
2.2007 5.0643 2.3974
0.8362 2.1324 0.9920
0.7589 2.1624 0.9900
0.6806 2.1895 0.9879
0.6013 2.2138 0.9857
0.5212 2.2353 0.9835
0.4403 2.2538 0.9812
0.3588 2.2694 0.9789
0.2769 2.2821 0.9765
0.1945 2.2918 0.9741
0.1118 2.2985 0.9716
0.0289 2.3022 0.9691
-0.0541 2.3029 0.9666
-0.1370 2.3007 0.9640
-0.2198 2.2954 0.9614
-0.3024 2.2871 0.9588
-0.3846 2.2759 0.9561
-0.4663 2.2617 0.9534
-0.5475 2.2446 0.9507
-0.6280 2.2245 0.9480
-0.7078 2.2016 0.9453
-0.7866 2.1758 0.9426
-0.8645 2.1472 0.9399
-0.9413 2.1157 0.9372
-2.6089 5.3405 2.3974
-2.8077 5.2611 2.3974
-3.0040 5.1743 2.3974
-3.1976 5.0802 2.3974
-3.3882 4.9789 2.3974
-3.5754 4.8703 2.3974
-3.7591 4.7547 2.3974
-3.9389 4.6321 2.3974
-4.1144 4.5025 2.3974
-4.2856 4.3663 2.3974
-4.4520 4.2234 2.3974
-4.6133 4.0741 2.3974
-4.7694 3.9185 2.3974
-4.9199 3.7568 2.3974
-5.0646 3.5892 2.3974
-5.2032 3.4159 2.3974
-5.3355 3.2371 2.3974
-5.4612 3.0530 2.3974
-5.5801 2.8639 2.3974
-5.6919 2.6701 2.3974
-5.7965 2.4718 2.3974
-5.8936 2.2693 2.3974
-5.9831 2.0628 2.3974
-6.0648 1.8527 2.3974
-6.1385 1.6393 2.3974
-6.2040 1.4230 2.3974
-6.2612 1.2039 2.3974
-6.3100 0.9825 2.3974
-6.3502 0.7592 2.3974
-6.3818 0.5341 2.3974
-6.4047 0.3078 2.3974
-6.4188 0.0806 2.3974
-6.4241 -0.1472 2.3974
-6.4206 -0.3752 2.3974
-6.4081 -0.6031 2.3974
-6.3868 -0.8304 2.3974
-6.3566 -1.0568 2.3974
-6.3176 -1.2820 2.3974
-6.2698 -1.5055 2.3974
-6.2133 -1.7270 2.3974
-6.1483 -1.9462 2.3974
-6.0747 -2.1626 2.3974
-5.9928 -2.3760 2.3974
-5.9026 -2.5860 2.3974
-5.8043 -2.7922 2.3974
-5.6982 -2.9944 2.3974
-5.5843 -3.1921 2.3974
-5.4628 -3.3851 2.3974
-5.3341 -3.5732 2.3974
-5.1982 -3.7559 2.3974
-5.0555 -3.9331 2.3974
-4.9062 -4.1045 2.3974
-4.7506 -4.2697 2.3974
-4.5888 -4.4286 2.3974
-4.4213 -4.5810 2.3974
-4.2483 -4.7266 2.3974
-4.0701 -4.8652 2.3974
-3.8870 -4.9967 2.3974
-3.6993 -5.1209 2.3974
-3.5073 -5.2376 2.3974
-3.3114 -5.3467 2.3974
-3.1118 -5.4481 2.3974
-2.9089 -5.5417 2.3974
-2.7031 -5.6273 2.3974
-2.4946 -5.7050 2.3974
-2.2838 -5.7746 2.3974
-2.0710 -5.8360 2.3974
-1.8566 -5.8894 2.3974
-1.6408 -5.9346 2.3974
-1.4240 -5.9716 2.3974
-1.2065 -6.0005 2.3974
-0.9887 -6.0212 2.3974
-0.7708 -6.0339 2.3974
-0.5532 -6.0385 2.3974
-0.3361 -6.0351 2.3974
-0.1198 -6.0238 2.3974
0.0953 -6.0047 2.3974
0.3089 -5.9778 2.3974
0.5208 -5.9433 2.3974
0.7308 -5.9012 2.3974
0.9385 -5.8518 2.3974
1.1437 -5.7950 2.3974
1.3462 -5.7311 2.3974
1.5457 -5.6603 2.3974
1.7419 -5.5825 2.3974
1.9347 -5.4981 2.3974
2.1238 -5.4071 2.3974
2.3091 -5.3098 2.3974
2.4903 -5.2063 2.3974
2.6673 -5.0968 2.3974
2.8398 -4.9815 2.3974
3.0077 -4.8606 2.3974
3.1708 -4.7342 2.3974
3.3290 -4.6025 2.3974
3.4820 -4.4659 2.3974
3.6299 -4.3243 2.3974
3.7724 -4.1782 2.3974
3.9094 -4.0276 2.3974
4.0408 -3.8727 2.3974
4.1665 -3.7138 2.3974
4.2864 -3.5512 2.3974
4.4004 -3.3849 2.3974
4.5084 -3.2151 2.3974
4.6103 -3.0422 2.3974
4.7061 -2.8664 2.3974
4.7956 -2.6878 2.3974
4.8788 -2.5065 2.3974
4.9558 -2.3230 2.3974
5.0263 -2.1373 2.3974
5.0904 -1.9496 2.3974
5.1481 -1.7603 2.3974
5.1993 -1.5694 2.3974
5.2439 -1.3772 2.3974
5.2821 -1.1840 2.3974
5.3136 -0.9897 2.3974
5.3387 -0.7949 2.3974
5.3571 -0.5995 2.3974
5.3691 -0.4039 2.3974
5.3744 -0.2081 2.3974
5.3733 -0.0125 2.3974
5.3656 0.1828 2.3974
5.3514 0.3777 2.3974
5.3307 0.5718 2.3974
5.3036 0.7650 2.3974
5.2701 0.9572 2.3974
5.2303 1.1480 2.3974
5.1841 1.3374 2.3974
5.1317 1.5251 2.3974
5.0730 1.7110 2.3974
5.0082 1.8949 2.3974
4.9372 2.0765 2.3974
4.8603 2.2557 2.3974
4.7774 2.4323 2.3974
4.6886 2.6061 2.3974
4.5940 2.7771 2.3974
4.4937 2.9448 2.3974
4.3878 3.1093 2.3974
4.2763 3.2703 2.3974
4.1594 3.4276 2.3974
4.0372 3.5811 2.3974
3.9098 3.7306 2.3974
3.7773 3.8759 2.3974
3.6397 4.0169 2.3974
3.4973 4.1534 2.3974
3.3502 4.2853 2.3974
3.1985 4.4123 2.3974
3.0423 4.5344 2.3974
2.8818 4.6514 2.3974
2.7171 4.7630 2.3974
2.5484 4.8693 2.3974
2.3758 4.9699 2.3974
2.1996 5.0649 2.3974
0.8358 2.1326 0.9920
0.7584 2.1626 0.9900
0.6801 2.1897 0.9879
0.6008 2.2140 0.9857
0.5206 2.2354 0.9835
0.4398 2.2539 0.9812
0.3583 2.2695 0.9789
0.2763 2.2821 0.9765
0.1939 2.2918 0.9741
0.1112 2.2985 0.9716
0.0284 2.3022 0.9691
-0.0546 2.3029 0.9666
-0.1375 2.3006 0.9640
-0.2203 2.2954 0.9614
-0.3029 2.2871 0.9588
-0.3851 2.2758 0.9561
-0.4669 2.2616 0.9534
-0.5480 2.2445 0.9507
-0.6285 2.2244 0.9480
-0.7083 2.2015 0.9453
-0.7871 2.1756 0.9426
-0.8650 2.1470 0.9399
-0.9418 2.1155 0.9371
-2.6101 5.3400 2.3974
-2.8089 5.2605 2.3974
-3.0052 5.1737 2.3974
-3.1988 5.0796 2.3974
-3.3894 4.9782 2.3974
-3.5766 4.8696 2.3974
-3.7602 4.7539 2.3974
-3.9400 4.6313 2.3974
-4.1155 4.5017 2.3974
-4.2866 4.3654 2.3974
-4.4530 4.2225 2.3974
-4.6143 4.0732 2.3974
-4.7704 3.9175 2.3974
-4.9208 3.7558 2.3974
-5.0655 3.5881 2.3974
-5.2041 3.4148 2.3974
-5.3363 3.2359 2.3974
-5.4619 3.0518 2.3974
-5.5808 2.8627 2.3974
-5.6926 2.6689 2.3974
-5.7971 2.4705 2.3974
-5.8942 2.2680 2.3974
-5.9837 2.0615 2.3974
-6.0653 1.8514 2.3974
-6.1389 1.6380 2.3974
-6.2044 1.4216 2.3974
-6.2615 1.2025 2.3974
-6.3102 0.9811 2.3974
-6.3504 0.7577 2.3974
-6.3820 0.5327 2.3974
-6.4048 0.3064 2.3974
-6.4189 0.0791 2.3974
-6.4241 -0.1487 2.3974
-6.4205 -0.3767 2.3974
-6.4080 -0.6045 2.3974
-6.3866 -0.8318 2.3974
-6.3564 -1.0583 2.3974
-6.3173 -1.2834 2.3974
-6.2695 -1.5069 2.3974
-6.2130 -1.7284 2.3974
-6.1478 -1.9476 2.3974
-6.0742 -2.1640 2.3974
-5.9922 -2.3774 2.3974
-5.9020 -2.5873 2.3974
-5.8037 -2.7935 2.3974
-5.6975 -2.9956 2.3974
-5.5835 -3.1933 2.3974
-5.4620 -3.3863 2.3974
-5.3332 -3.5744 2.3974
-5.1973 -3.7571 2.3974
-5.0546 -3.9342 2.3974
-4.9052 -4.1055 2.3974
-4.7496 -4.2707 2.3974
-4.5878 -4.4296 2.3974
-4.4203 -4.5819 2.3974
-4.2472 -4.7275 2.3974
-4.0689 -4.8661 2.3974
-3.8858 -4.9975 2.3974
-3.6981 -5.1216 2.3974
-3.5061 -5.2383 2.3974
-3.3101 -5.3474 2.3974
-3.1105 -5.4487 2.3974
-2.9076 -5.5422 2.3974
-2.7018 -5.6278 2.3974
-5.9438 -0.9861 2.3974
-5.9073 -1.1965 2.3974
-5.8627 -1.4053 2.3974
-5.8100 -1.6122 2.3974
-5.7493 -1.8170 2.3974
-5.6808 -2.0192 2.3974
-5.6044 -2.2186 2.3974
-5.5204 -2.4149 2.3974
-5.4288 -2.6077 2.3974
-5.3299 -2.7967 2.3974
-5.2238 -2.9816 2.3974
-5.1107 -3.1622 2.3974
-4.9907 -3.3381 2.3974
-4.8642 -3.5092 2.3974
-4.7312 -3.6751 2.3974
-4.5921 -3.8356 2.3974
-4.4471 -3.9904 2.3974
-4.2964 -4.1394 2.3974
-4.1402 -4.2823 2.3974
-3.9790 -4.4190 2.3974
-3.8128 -4.5491 2.3974
-3.6420 -4.6727 2.3974
-3.4669 -4.7895 2.3974
-3.2878 -4.8993 2.3974
-3.1050 -5.0021 2.3974
-2.9187 -5.0978 2.3974
-2.7293 -5.1861 2.3974
-2.5371 -5.2671 2.3974
-2.3423 -5.3407 2.3974
-2.1453 -5.4067 2.3974
-1.9464 -5.4652 2.3974
-1.7459 -5.5161 2.3974
-1.5441 -5.5594 2.3974
-1.3413 -5.5951 2.3974
-1.1377 -5.6231 2.3974
-0.9338 -5.6436 2.3974
-0.7297 -5.6565 2.3974
-0.5258 -5.6619 2.3974
-0.3223 -5.6598 2.3974
-0.1196 -5.6503 2.3974
0.0821 -5.6334 2.3974
0.2826 -5.6093 2.3974
0.4815 -5.5780 2.3974
0.6787 -5.5396 2.3974
0.8738 -5.4942 2.3974
1.0666 -5.4420 2.3974
1.2570 -5.3830 2.3974
1.4445 -5.3175 2.3974
1.6292 -5.2455 2.3974
1.8106 -5.1671 2.3974
1.9887 -5.0826 2.3974
2.1632 -4.9921 2.3974
2.3339 -4.8958 2.3974
2.5007 -4.7937 2.3974
2.6633 -4.6862 2.3974
2.8217 -4.5732 2.3974
2.9756 -4.4552 2.3974
3.1250 -4.3321 2.3974
3.2695 -4.2043 2.3974
3.4092 -4.0718 2.3974
3.5439 -3.9349 2.3974
3.6734 -3.7938 2.3974
3.7977 -3.6486 2.3974
3.9167 -3.4996 2.3974
4.0302 -3.3469 2.3974
4.1381 -3.1908 2.3974
4.2404 -3.0314 2.3974
4.3370 -2.8689 2.3974
4.4278 -2.7036 2.3974
4.5127 -2.5357 2.3974
4.5918 -2.3652 2.3974
4.6648 -2.1924 2.3974
4.7319 -2.0177 2.3974
4.7928 -1.8411 2.3974
4.8477 -1.6628 2.3974
4.8964 -1.4831 2.3974
4.9390 -1.3020 2.3974
4.9754 -1.1198 2.3974
5.0057 -0.9368 2.3974
5.0297 -0.7531 2.3974
5.0475 -0.5690 2.3974
5.0591 -0.3845 2.3974
5.0645 -0.1999 2.3974
5.0637 -0.0154 2.3974
5.0567 0.1689 2.3974
5.0436 0.3526 2.3974
5.0244 0.5358 2.3974
4.9990 0.7181 2.3974
4.9676 0.8993 2.3974
4.9301 1.0794 2.3974
4.8867 1.2581 2.3974
4.8373 1.4352 2.3974
4.7820 1.6106 2.3974
4.7209 1.7840 2.3974
4.6540 1.9553 2.3974
4.5814 2.1244 2.3974
4.5032 2.2910 2.3974
4.4194 2.4549 2.3974
4.3300 2.6161 2.3974
4.2353 2.7742 2.3974
4.1353 2.9293 2.3974
4.0301 3.0810 2.3974
3.9197 3.2291 2.3974
3.8042 3.3738 2.3974
3.6839 3.5146 2.3974
3.5587 3.6514 2.3974
3.4288 3.7841 2.3974
3.2944 3.9126 2.3974
3.1555 4.0366 2.3974
3.0122 4.1560 2.3974
2.8648 4.2707 2.3974
2.7132 4.3806 2.3974
2.5578 4.4854 2.3974
2.3987 4.5850 2.3974
2.2359 4.6794 2.3974
0.8553 1.9705 0.9907
0.7838 2.0013 0.9889
0.7112 2.0294 0.9870
0.6376 2.0549 0.9850
0.5632 2.0777 0.9830
0.4879 2.0979 0.9809
0.4120 2.1153 0.9788
0.3356 2.1299 0.9766
0.2586 2.1418 0.9744
0.1813 2.1509 0.9721
0.1036 2.1572 0.9698
0.0258 2.1607 0.9674
-0.0521 2.1614 0.9650
-0.1299 2.1593 0.9626
-0.2077 2.1544 0.9602
-0.2852 2.1467 0.9577
-0.3624 2.1361 0.9552
-0.4391 2.1228 0.9527
-0.5153 2.1068 0.9501
-0.5909 2.0880 0.9476
-0.6658 2.0664 0.9451
-0.7398 2.0422 0.9425
-0.8129 2.0154 0.9399
-0.8850 1.9859 0.9374
-2.4516 5.0106 2.3974
-2.6377 4.9353 2.3974
-2.8215 4.8531 2.3974
-3.0026 4.7640 2.3974
-3.1808 4.6682 2.3974
-3.3559 4.5656 2.3974
-3.5275 4.4565 2.3974
-3.6954 4.3408 2.3974
-3.8594 4.2187 2.3974
-4.0191 4.0904 2.3974
-4.1743 3.9559 2.3974
-4.3248 3.8155 2.3974
-4.4704 3.6692 2.3974
-4.6106 3.5172 2.3974
-4.7454 3.3598 2.3974
-4.8745 3.1971 2.3974
-4.9976 3.0293 2.3974
-5.1146 2.8566 2.3974
-5.2252 2.6794 2.3974
-5.3292 2.4977 2.3974
-5.4264 2.3119 2.3974
-5.5166 2.1222 2.3974
-5.5997 1.9289 2.3974
-5.6755 1.7322 2.3974
-5.7438 1.5326 2.3974
-5.8043 1.3300 2.3974
-5.8575 1.1252 2.3974
-5.9026 0.9182 2.3974
-5.9398 0.7094 2.3974
-5.9689 0.4990 2.3974
-5.9899 0.2875 2.3974
-6.0028 0.0752 2.3974
-6.0074 -0.1377 2.3974
-6.0038 -0.3507 2.3974
-5.9920 -0.5636 2.3974
-5.9719 -0.7760 2.3974
-5.9436 -0.9875 2.3974
-5.9071 -1.1978 2.3974
-5.8624 -1.4066 2.3974
-5.8097 -1.6135 2.3974
-5.7489 -1.8183 2.3974
-5.6803 -2.0205 2.3974
-5.6039 -2.2199 2.3974
-5.5198 -2.4161 2.3974
-5.4282 -2.6089 2.3974
-5.3292 -2.7979 2.3974
-5.2231 -2.9828 2.3974
-5.1099 -3.1633 2.3974
-4.9899 -3.3392 2.3974
-4.8634 -3.5102 2.3974
-4.7304 -3.6761 2.3974
-4.5912 -3.8366 2.3974
-4.4461 -3.9914 2.3974
-4.2954 -4.1403 2.3974
-4.1392 -4.2832 2.3974
-3.9779 -4.4198 2.3974
-3.8117 -4.5499 2.3974
-3.6409 -4.6735 2.3974
-3.4658 -4.7902 2.3974
-3.2867 -4.9000 2.3974
-3.1038 -5.0028 2.3974
-2.9175 -5.0984 2.3974
-2.7281 -5.1867 2.3974
-2.5359 -5.2676 2.3974
-2.3411 -5.3411 2.3974
-2.1441 -5.4071 2.3974
-1.9452 -5.4655 2.3974
-1.7446 -5.5164 2.3974
-1.5428 -5.5596 2.3974
-1.3400 -5.5953 2.3974
-1.1364 -5.6233 2.3974
-0.9325 -5.6437 2.3974
-0.7284 -5.6566 2.3974
-0.5245 -5.6619 2.3974
-0.3210 -5.6598 2.3974
-0.1183 -5.6502 2.3974
0.0834 -5.6333 2.3974
0.2839 -5.6091 2.3974
0.4828 -5.5777 2.3974
0.6799 -5.5393 2.3974
0.8750 -5.4939 2.3974
1.0678 -5.4416 2.3974
1.2581 -5.3826 2.3974
1.4457 -5.3170 2.3974
1.6303 -5.2450 2.3974
1.8117 -5.1666 2.3974
1.9898 -5.0821 2.3974
2.1643 -4.9915 2.3974
2.3350 -4.8951 2.3974
2.5017 -4.7931 2.3974
2.6644 -4.6855 2.3974
2.8227 -4.5725 2.3974
2.9766 -4.4544 2.3974
3.1259 -4.3313 2.3974
3.2704 -4.2034 2.3974
3.4101 -4.0709 2.3974
3.5447 -3.9340 2.3974
3.6742 -3.7929 2.3974
3.7985 -3.6477 2.3974
3.9174 -3.4986 2.3974
4.0309 -3.3459 2.3974
4.1388 -3.1898 2.3974
4.2410 -3.0304 2.3974
4.3376 -2.8680 2.3974
4.4284 -2.7026 2.3974
4.5133 -2.5346 2.3974
4.5922 -2.3641 2.3974
4.6653 -2.1915 2.3974
4.7323 -2.0167 2.3974
4.7932 -1.8400 2.3974
4.8480 -1.6617 2.3974
4.8967 -1.4819 2.3974
4.9393 -1.3008 2.3974
4.9756 -1.1187 2.3974
5.0058 -0.9357 2.3974
5.0298 -0.7520 2.3974
5.0476 -0.5678 2.3974
5.0591 -0.3834 2.3974
5.0645 -0.1988 2.3974
5.0637 -0.0142 2.3974
5.0567 0.1700 2.3974
5.0435 0.3538 2.3974
5.0242 0.5369 2.3974
4.9988 0.7192 2.3974
4.9674 0.9005 2.3974
4.9299 1.0805 2.3974
4.8864 1.2592 2.3974
4.8370 1.4363 2.3974
4.7816 1.6117 2.3974
4.7205 1.7851 2.3974
4.6536 1.9565 2.3974
4.5809 2.1254 2.3974
4.5027 2.2920 2.3974
4.4188 2.4559 2.3974
4.3295 2.6171 2.3974
4.2347 2.7752 2.3974
4.1347 2.9302 2.3974
4.0294 3.0819 2.3974
3.9190 3.2300 2.3974
3.8035 3.3747 2.3974
3.6831 3.5155 2.3974
3.5579 3.6523 2.3974
3.4280 3.7850 2.3974
3.2935 3.9134 2.3974
3.1546 4.0374 2.3974
3.0113 4.1568 2.3974
2.8638 4.2714 2.3974
2.7123 4.3812 2.3974
2.5568 4.4860 2.3974
2.3976 4.5857 2.3974
2.2348 4.6800 2.3974
0.8548 1.9707 0.9907
0.7833 2.0015 0.9889
0.7107 2.0296 0.9870
0.6371 2.0550 0.9850
0.5627 2.0779 0.9830
0.4875 2.0980 0.9809
0.4116 2.1154 0.9788
0.3351 2.1300 0.9766
0.2581 2.1419 0.9743
0.1808 2.1510 0.9721
0.1031 2.1573 0.9698
0.0253 2.1608 0.9674
-0.0526 2.1614 0.9650
-0.1304 2.1593 0.9626
-0.2082 2.1543 0.9601
-0.2857 2.1466 0.9577
-0.3628 2.1361 0.9552
-0.4396 2.1227 0.9527
-0.5158 2.1067 0.9501
-0.5914 2.0878 0.9476
-0.6662 2.0663 0.9450
-0.7403 2.0421 0.9425
-0.8134 2.0152 0.9399
-0.8855 1.9857 0.9374
-2.4528 5.0102 2.3974
-2.6389 4.9348 2.3974
-2.8226 4.8525 2.3974
-3.0037 4.7634 2.3974
-3.1819 4.6675 2.3974
-3.3570 4.5650 2.3974
-3.5285 4.4558 2.3974
-3.6964 4.3401 2.3974
-3.8604 4.2180 2.3974
-4.0201 4.0896 2.3974
-4.1753 3.9551 2.3974
-4.3258 3.8146 2.3974
-4.4713 3.6682 2.3974
-4.6115 3.5162 2.3974
-4.7463 3.3588 2.3974
-4.8753 3.1960 2.3974
-4.9984 3.0282 2.3974
-5.1153 2.8555 2.3974
-5.2259 2.6782 2.3974
-5.3298 2.4965 2.3974
-5.4270 2.3107 2.3974
-5.5172 2.1210 2.3974
-5.6002 1.9277 2.3974
-5.6759 1.7310 2.3974
-5.7442 1.5313 2.3974
-5.8048 1.3288 2.3974
-5.8578 1.1240 2.3974
-5.9029 0.9169 2.3974
-5.9400 0.7081 2.3974
-5.9691 0.4977 2.3974
-5.9900 0.2862 2.3974
-6.0029 0.0738 2.3974
-6.0074 -0.1390 2.3974
-6.0038 -0.3521 2.3974
-5.9919 -0.5649 2.3974
-5.9718 -0.7773 2.3974
-5.9434 -0.9888 2.3974
-5.9068 -1.1991 2.3974
-5.8621 -1.4079 2.3974
-5.8093 -1.6148 2.3974
-5.7485 -1.8196 2.3974
-5.6798 -2.0218 2.3974
-5.6034 -2.2212 2.3974
-5.5193 -2.4173 2.3974
-5.4276 -2.6101 2.3974
-5.3286 -2.7990 2.3974
-5.2224 -2.9839 2.3974
-5.1092 -3.1644 2.3974
-4.9892 -3.3403 2.3974
-4.8625 -3.5113 2.3974
-4.7295 -3.6771 2.3974
-4.5903 -3.8376 2.3974
-4.4452 -3.9923 2.3974
-4.2944 -4.1412 2.3974
-4.1382 -4.2841 2.3974
-3.9769 -4.4206 2.3974
-3.8107 -4.5507 2.3974
-3.6398 -4.6742 2.3974
-3.4647 -4.7909 2.3974
-3.2855 -4.9007 2.3974
-3.1027 -5.0034 2.3974
-2.9163 -5.0989 2.3974
-2.7269 -5.1872 2.3974
-2.5346 -5.2681 2.3974
-2.3398 -5.3415 2.3974
-2.1428 -5.4075 2.3974
-1.9439 -5.4659 2.3974
-1.7434 -5.5167 2.3974
-1.5415 -5.5599 2.3974
-1.3387 -5.5955 2.3974
-1.1351 -5.6235 2.3974
-0.9312 -5.6438 2.3974
-0.7271 -5.6566 2.3974
-0.5232 -5.6619 2.3974
-0.3198 -5.6597 2.3974
-0.1170 -5.6501 2.3974
0.0847 -5.6332 2.3974
0.2851 -5.6089 2.3974
0.4840 -5.5775 2.3974
0.6812 -5.5390 2.3974
0.8762 -5.4936 2.3974
1.0690 -5.4413 2.3974
1.2593 -5.3822 2.3974
1.4469 -5.3166 2.3974
1.6315 -5.2445 2.3974
1.8129 -5.1661 2.3974
1.9909 -5.0815 2.3974
2.1654 -4.9909 2.3974
2.3360 -4.8945 2.3974
2.5028 -4.7924 2.3974
2.6654 -4.6848 2.3974
2.8237 -4.5718 2.3974
2.9775 -4.4536 2.3974
3.1268 -4.3305 2.3974
3.2713 -4.2026 2.3974
3.4109 -4.0701 2.3974
3.5456 -3.9331 2.3974
3.6750 -3.7920 2.3974
3.7993 -3.6467 2.3974
3.9182 -3.4977 2.3974
4.0316 -3.3450 2.3974
4.1394 -3.1888 2.3974
4.2417 -3.0294 2.3974
4.3382 -2.8668 2.3974
4.4289 -2.7015 2.3974
4.5138 -2.5335 2.3974
4.5927 -2.3630 2.3974
4.6657 -2.1903 2.3974
4.7327 -2.0155 2.3974
4.7936 -1.8389 2.3974
4.8484 -1.6606 2.3974
4.8970 -1.4808 2.3974
4.9395 -1.2997 2.3974
4.9759 -1.1176 2.3974
5.0060 -0.9346 2.3974
5.0299 -0.7508 2.3974
5.0477 -0.5667 2.3974
5.0592 -0.3822 2.3974
5.0645 -0.1976 2.3974
5.0636 -0.0131 2.3974
5.0566 0.1712 2.3974
5.0434 0.3550 2.3974
5.0241 0.5381 2.3974
4.9986 0.7204 2.3974
4.9671 0.9016 2.3974
4.9296 1.0817 2.3974
4.8861 1.2604 2.3974
4.8366 1.4374 2.3974
4.7813 1.6128 2.3974
4.7201 1.7862 2.3974
4.6531 1.9575 2.3974
4.5805 2.1265 2.3974
4.5021 2.2930 2.3974
4.4183 2.4570 2.3974
4.3289 2.6181 2.3974
4.2341 2.7762 2.3974
4.1340 2.9312 2.3974
4.0287 3.0828 2.3974
3.9182 3.2310 2.3974
3.8027 3.3756 2.3974
3.6823 3.5163 2.3974
3.5571 3.6531 2.3974
3.4272 3.7858 2.3974
3.2926 3.9142 2.3974
3.1537 4.0381 2.3974
3.0104 4.1575 2.3974
2.8629 4.2721 2.3974
2.7113 4.3819 2.3974
2.5558 4.4867 2.3974
2.3966 4.5863 2.3974
2.2338 4.6806 2.3974
0.8544 1.9709 0.9907
0.7828 2.0016 0.9889
0.7102 2.0297 0.9870
0.6367 2.0552 0.9850
0.5622 2.0780 0.9830
0.4870 2.0981 0.9809
0.4111 2.1155 0.9787
0.3346 2.1301 0.9766
0.2576 2.1420 0.9743
0.1803 2.1510 0.9721
0.1026 2.1573 0.9697
0.0248 2.1608 0.9674
-0.0531 2.1614 0.9650
-0.1309 2.1593 0.9626
-0.2086 2.1543 0.9601
-0.2861 2.1465 0.9577
-0.3633 2.1360 0.9552
-0.4401 2.1226 0.9526
-0.5163 2.1066 0.9501
-0.5919 2.0877 0.9476
-0.6667 2.0662 0.9450
-0.7407 2.0419 0.9425
-0.8138 2.0150 0.9399
-0.8859 1.9855 0.9374
-2.4540 5.0097 2.3974
-2.6401 4.9343 2.3974
-2.8238 4.8520 2.3974
-3.0049 4.7628 2.3974
-3.1830 4.6669 2.3974
-3.3580 4.5643 2.3974
-3.5296 4.4551 2.3974
-3.6975 4.3393 2.3974
-3.8614 4.2172 2.3974
-4.0211 4.0887 2.3974
-4.1763 3.9542 2.3974
-4.3267 3.8137 2.3974
-4.4722 3.6673 2.3974
-4.6124 3.5153 2.3974
-4.7471 3.3578 2.3974
-4.8761 3.1950 2.3974
-4.9992 3.0271 2.3974
-5.1160 2.8544 2.3974
-5.2265 2.6771 2.3974
-5.3304 2.4954 2.3974
-5.4276 2.3095 2.3974
-5.5177 2.1198 2.3974
-5.6007 1.9264 2.3974
-5.6764 1.7297 2.3974
-5.7446 1.5300 2.3974
-5.8052 1.3275 2.3974
-5.8581 1.1226 2.3974
-5.9031 0.9156 2.3974
-5.9402 0.7067 2.3974
-5.9692 0.4964 2.3974
-5.9901 0.2849 2.3974
-6.0029 0.0725 2.3974
-6.0074 -0.1404 2.3974
-6.0038 -0.3534 2.3974
-5.9918 -0.5663 2.3974
-5.9716 -0.7786 2.3974
-5.9432 -0.9901 2.3974
-5.9066 -1.2004 2.3974
-5.8618 -1.4092 2.3974
-5.8090 -1.6161 2.3974
-5.7481 -1.8209 2.3974
-5.6794 -2.0230 2.3974
-5.6029 -2.2224 2.3974
-5.5187 -2.4186 2.3974
-5.4270 -2.6113 2.3974
-5.3279 -2.8002 2.3974
-5.2217 -2.9851 2.3974
-5.1085 -3.1656 2.3974
-4.9884 -3.3414 2.3974
-4.8617 -3.5124 2.3974
-4.7286 -3.6782 2.3974
-4.5894 -3.8386 2.3974
-4.4443 -3.9933 2.3974
-4.2935 -4.1422 2.3974
-4.1372 -4.2850 2.3974
-3.9759 -4.4215 2.3974
-3.8096 -4.5515 2.3974
-3.6387 -4.6750 2.3974
-3.4636 -4.7916 2.3974
-3.2844 -4.9014 2.3974
-3.1015 -5.0040 2.3974
-2.9152 -5.0995 2.3974
-2.7257 -5.1877 2.3974
-2.5334 -5.2686 2.3974
-5.5748 -0.9256 2.3974
-5.5406 -1.1226 2.3974
-5.4987 -1.3183 2.3974
-5.4493 -1.5122 2.3974
-5.3924 -1.7041 2.3974
-5.3282 -1.8936 2.3974
-5.2567 -2.0805 2.3974
-5.1780 -2.2645 2.3974
-5.0923 -2.4452 2.3974
-4.9998 -2.6224 2.3974
-4.9005 -2.7958 2.3974
-4.7947 -2.9652 2.3974
-4.6826 -3.1303 2.3974
-4.5642 -3.2908 2.3974
-4.4398 -3.4465 2.3974
-4.3097 -3.5972 2.3974
-4.1741 -3.7426 2.3974
-4.0331 -3.8826 2.3974
-3.8870 -4.0170 2.3974
-3.7361 -4.1455 2.3974
-3.5806 -4.2680 2.3974
-3.4208 -4.3843 2.3974
-3.2569 -4.4943 2.3974
-3.0892 -4.5979 2.3974
-2.9180 -4.6949 2.3974
-2.7436 -4.7852 2.3974
-2.5661 -4.8687 2.3974
-2.3860 -4.9453 2.3974
-2.2035 -5.0150 2.3974
-2.0188 -5.0777 2.3974
-1.8323 -5.1333 2.3974
-1.6442 -5.1818 2.3974
-1.4549 -5.2232 2.3974
-1.2645 -5.2575 2.3974
-1.0735 -5.2847 2.3974
-0.8820 -5.3047 2.3974
-0.6903 -5.3176 2.3974
-0.4987 -5.3235 2.3974
-0.3075 -5.3223 2.3974
-0.1169 -5.3142 2.3974
0.0728 -5.2992 2.3974
0.2614 -5.2773 2.3974
0.4486 -5.2487 2.3974
0.6341 -5.2134 2.3974
0.8179 -5.1715 2.3974
0.9995 -5.1232 2.3974
1.1788 -5.0685 2.3974
1.3556 -5.0076 2.3974
1.5297 -4.9406 2.3974
1.7008 -4.8676 2.3974
1.8688 -4.7887 2.3974
2.0335 -4.7042 2.3974
2.1947 -4.6141 2.3974
2.3522 -4.5186 2.3974
2.5059 -4.4179 2.3974
2.6555 -4.3121 2.3974
2.8010 -4.2014 2.3974
2.9422 -4.0860 2.3974
3.0790 -3.9660 2.3974
3.2112 -3.8416 2.3974
3.3386 -3.7130 2.3974
3.4613 -3.5803 2.3974
3.5790 -3.4438 2.3974
3.6917 -3.3036 2.3974
3.7993 -3.1599 2.3974
3.9016 -3.0129 2.3974
3.9986 -2.8628 2.3974
4.0903 -2.7097 2.3974
4.1765 -2.5540 2.3974
4.2571 -2.3956 2.3974
4.3322 -2.2349 2.3974
4.4016 -2.0721 2.3974
4.4653 -1.9071 2.3974
4.5233 -1.7404 2.3974
4.5755 -1.5721 2.3974
4.6219 -1.4024 2.3974
4.6625 -1.2315 2.3974
4.6972 -1.0594 2.3974
4.7261 -0.8866 2.3974
4.7491 -0.7130 2.3974
4.7662 -0.5390 2.3974
4.7774 -0.3646 2.3974
4.7827 -0.1902 2.3974
4.7822 -0.0158 2.3974
4.7758 0.1584 2.3974
4.7635 0.3321 2.3974
4.7455 0.5053 2.3974
4.7216 0.6776 2.3974
4.6920 0.8490 2.3974
4.6566 1.0192 2.3974
4.6156 1.1882 2.3974
4.5689 1.3556 2.3974
4.5167 1.5214 2.3974
4.4589 1.6853 2.3974
4.3956 1.8473 2.3974
4.3269 2.0070 2.3974
4.2528 2.1645 2.3974
4.1735 2.3193 2.3974
4.0889 2.4716 2.3974
3.9992 2.6210 2.3974
3.9045 2.7674 2.3974
3.8049 2.9106 2.3974
3.7003 3.0507 2.3974
3.5911 3.1871 2.3974
3.4771 3.3200 2.3974
3.3586 3.4491 2.3974
3.2356 3.5742 2.3974
3.1084 3.6953 2.3974
2.9769 3.8122 2.3974
2.8413 3.9247 2.3974
2.7018 4.0327 2.3974
2.5584 4.1361 2.3974
2.4114 4.2347 2.3974
2.2609 4.3284 2.3974
0.8696 1.8230 0.9895
0.8033 1.8543 0.9878
0.7360 1.8832 0.9861
0.6677 1.9097 0.9843
0.5984 1.9337 0.9824
0.5284 1.9552 0.9805
0.4576 1.9741 0.9785
0.3861 1.9905 0.9765
0.3141 2.0043 0.9745
0.2417 2.0155 0.9724
0.1689 2.0240 0.9702
0.0958 2.0300 0.9681
0.0226 2.0333 0.9658
-0.0507 2.0339 0.9636
-0.1240 2.0319 0.9613
-0.1972 2.0273 0.9590
-0.2701 2.0200 0.9567
-0.3428 2.0101 0.9543
-0.4150 1.9976 0.9520
-0.4868 1.9825 0.9496
-0.5579 1.9648 0.9472
-0.6284 1.9445 0.9448
-0.6981 1.9217 0.9424
-0.7669 1.8964 0.9400
-0.8347 1.8687 0.9376
-0.9015 1.8385 0.9352
-2.4859 4.6416 2.3974
-2.6583 4.5635 2.3974
-2.8283 4.4790 2.3974
-2.9954 4.3882 2.3974
-3.1595 4.2911 2.3974
-3.3204 4.1878 2.3974
-3.4777 4.0785 2.3974
-3.6313 3.9631 2.3974
-3.7808 3.8419 2.3974
-3.9261 3.7150 2.3974
-4.0669 3.5826 2.3974
-4.2030 3.4446 2.3974
-4.3341 3.3015 2.3974
-4.4601 3.1532 2.3974
-4.5807 3.0000 2.3974
-4.6957 2.8421 2.3974
-4.8049 2.6797 2.3974
-4.9081 2.5130 2.3974
-5.0050 2.3422 2.3974
-5.0957 2.1676 2.3974
-5.1798 1.9894 2.3974
-5.2572 1.8079 2.3974
-5.3277 1.6233 2.3974
-5.3913 1.4359 2.3974
-5.4477 1.2459 2.3974
-5.4969 1.0537 2.3974
-5.5388 0.8595 2.3974
-5.5732 0.6637 2.3974
-5.6001 0.4664 2.3974
-5.6195 0.2681 2.3974
-5.6312 0.0691 2.3974
-5.6353 -0.1305 2.3974
-5.6317 -0.3301 2.3974
-5.6204 -0.5296 2.3974
-5.6013 -0.7286 2.3974
-5.5747 -0.9268 2.3974
-5.5403 -1.1239 2.3974
-5.4984 -1.3195 2.3974
-5.4489 -1.5134 2.3974
-5.3920 -1.7053 2.3974
-5.3277 -1.8948 2.3974
-5.2562 -2.0817 2.3974
-5.1775 -2.2656 2.3974
-5.0918 -2.4463 2.3974
-4.9992 -2.6235 2.3974
-4.8999 -2.7969 2.3974
-4.7940 -2.9663 2.3974
-4.6818 -3.1313 2.3974
-4.5634 -3.2918 2.3974
-4.4390 -3.4475 2.3974
-4.3089 -3.5981 2.3974
-4.1732 -3.7435 2.3974
-4.0322 -3.8835 2.3974
-3.8861 -4.0178 2.3974
-3.7351 -4.1463 2.3974
-3.5796 -4.2687 2.3974
-3.4198 -4.3850 2.3974
-3.2559 -4.4950 2.3974
-3.0882 -4.5985 2.3974
-2.9169 -4.6955 2.3974
-2.7424 -4.7857 2.3974
-2.5650 -4.8692 2.3974
-2.3849 -4.9458 2.3974
-2.2023 -5.0154 2.3974
-2.0176 -5.0780 2.3974
-1.8311 -5.1336 2.3974
-1.6430 -5.1821 2.3974
-1.4537 -5.2235 2.3974
-1.2633 -5.2577 2.3974
-1.0723 -5.2848 2.3974
-0.8808 -5.3048 2.3974
-0.6891 -5.3177 2.3974
-0.4975 -5.3235 2.3974
-0.3063 -5.3223 2.3974
-0.1157 -5.3141 2.3974
0.0740 -5.2991 2.3974
0.2626 -5.2772 2.3974
0.4497 -5.2485 2.3974
0.6353 -5.2131 2.3974
0.8190 -5.1712 2.3974
1.0006 -5.1229 2.3974
1.1799 -5.0681 2.3974
1.3567 -5.0072 2.3974
1.5308 -4.9401 2.3974
1.7019 -4.8671 2.3974
1.8699 -4.7882 2.3974
2.0345 -4.7036 2.3974
2.1957 -4.6135 2.3974
2.3532 -4.5180 2.3974
2.5068 -4.4173 2.3974
2.6564 -4.3114 2.3974
2.8019 -4.2007 2.3974
2.9431 -4.0853 2.3974
3.0798 -3.9652 2.3974
3.2120 -3.8408 2.3974
3.3394 -3.7121 2.3974
3.4621 -3.5795 2.3974
3.5798 -3.4429 2.3974
3.6924 -3.3027 2.3974
3.7999 -3.1590 2.3974
3.9022 -3.0120 2.3974
3.9992 -2.8618 2.3974
4.0908 -2.7088 2.3974
4.1770 -2.5530 2.3974
4.2576 -2.3946 2.3974
4.3326 -2.2339 2.3974
4.4020 -2.0709 2.3974
4.4657 -1.9061 2.3974
4.5236 -1.7394 2.3974
4.5758 -1.5710 2.3974
4.6222 -1.4013 2.3974
4.6628 -1.2304 2.3974
4.6974 -1.0584 2.3974
4.7263 -0.8855 2.3974
4.7492 -0.7119 2.3974
4.7663 -0.5379 2.3974
4.7775 -0.3635 2.3974
4.7828 -0.1891 2.3974
4.7822 -0.0146 2.3974
4.7757 0.1595 2.3974
4.7635 0.3332 2.3974
4.7453 0.5063 2.3974
4.7214 0.6787 2.3974
4.6918 0.8501 2.3974
4.6564 1.0203 2.3974
4.6153 1.1892 2.3974
4.5686 1.3566 2.3974
4.5163 1.5224 2.3974
4.4585 1.6863 2.3974
4.3951 1.8483 2.3974
4.3264 2.0080 2.3974
4.2523 2.1655 2.3974
4.1729 2.3203 2.3974
4.0884 2.4726 2.3974
3.9987 2.6220 2.3974
3.9039 2.7684 2.3974
3.8042 2.9115 2.3974
3.6997 3.0515 2.3974
3.5903 3.1880 2.3974
3.4764 3.3208 2.3974
3.3578 3.4499 2.3974
3.2349 3.5750 2.3974
3.1075 3.6961 2.3974
2.9760 3.8129 2.3974
2.8404 3.9254 2.3974
2.7009 4.0334 2.3974
2.5575 4.1367 2.3974
2.4105 4.2353 2.3974
2.2599 4.3289 2.3974
0.8692 1.8232 0.9895
0.8029 1.8545 0.9878
0.7356 1.8834 0.9860
0.6672 1.9099 0.9842
0.5980 1.9339 0.9824
0.5279 1.9553 0.9805
0.4571 1.9742 0.9785
0.3857 1.9906 0.9765
0.3137 2.0044 0.9745
0.2412 2.0155 0.9724
0.1684 2.0241 0.9702
0.0954 2.0300 0.9680
0.0221 2.0333 0.9658
-0.0512 2.0339 0.9636
-0.1245 2.0319 0.9613
-0.1977 2.0272 0.9590
-0.2706 2.0200 0.9567
-0.3432 2.0100 0.9543
-0.4155 1.9975 0.9520
-0.4872 1.9824 0.9496
-0.5584 1.9646 0.9472
-0.6288 1.9444 0.9448
-0.6985 1.9216 0.9424
-0.7673 1.8963 0.9400
-0.8352 1.8685 0.9376
-0.9020 1.8383 0.9352
-2.4870 4.6411 2.3974
-2.6594 4.5630 2.3974
-2.8293 4.4785 2.3974
-2.9964 4.3876 2.3974
-3.1605 4.2904 2.3974
-3.3214 4.1871 2.3974
-3.4787 4.0777 2.3974
-3.6322 3.9624 2.3974
-3.7817 3.8412 2.3974
-3.9270 3.7142 2.3974
-4.0678 3.5817 2.3974
-4.2038 3.4438 2.3974
-4.3350 3.3005 2.3974
-4.4609 3.1522 2.3974
-4.5814 2.9990 2.3974
-4.6964 2.8411 2.3974
-4.8055 2.6787 2.3974
-4.9087 2.5119 2.3974
-5.0056 2.3411 2.3974
-5.0962 2.1665 2.3974
-5.1803 1.9883 2.3974
-5.2576 1.8067 2.3974
-5.3281 1.6221 2.3974
-5.3916 1.4347 2.3974
-5.4480 1.2447 2.3974
-5.4972 1.0525 2.3974
-5.5390 0.8583 2.3974
-5.5734 0.6624 2.3974
-5.6003 0.4652 2.3974
-5.6196 0.2669 2.3974
-5.6313 0.0678 2.3974
-5.6353 -0.1317 2.3974
-5.6316 -0.3314 2.3974
-5.6203 -0.5309 2.3974
-5.6012 -0.7299 2.3974
-5.5745 -0.9280 2.3974
-5.5401 -1.1251 2.3974
-5.4981 -1.3208 2.3974
-5.4486 -1.5147 2.3974
-5.3916 -1.7065 2.3974
-5.3273 -1.8960 2.3974
-5.2557 -2.0829 2.3974
-5.1770 -2.2668 2.3974
-5.0912 -2.4475 2.3974
-4.9986 -2.6246 2.3974
-4.8992 -2.7980 2.3974
-4.7934 -2.9673 2.3974
-4.6811 -3.1323 2.3974
-4.5627 -3.2928 2.3974
-4.4382 -3.4484 2.3974
-4.3080 -3.5991 2.3974
-4.1723 -3.7444 2.3974
-4.0313 -3.8844 2.3974
-3.8851 -4.0186 2.3974
-3.7342 -4.1471 2.3974
-3.5786 -4.2695 2.3974
-3.4188 -4.3858 2.3974
-3.2548 -4.4957 2.3974
-3.0871 -4.5992 2.3974
-2.9158 -4.6961 2.3974
-2.7413 -4.7863 2.3974
-2.5639 -4.8697 2.3974
-2.3837 -4.9462 2.3974
-2.2012 -5.0158 2.3974
-2.0164 -5.0784 2.3974
-1.8299 -5.1339 2.3974
-1.6418 -5.1824 2.3974
-1.4525 -5.2237 2.3974
-1.2621 -5.2579 2.3974
-1.0711 -5.2850 2.3974
-0.8796 -5.3049 2.3974
-0.6879 -5.3178 2.3974
-0.4963 -5.3235 2.3974
-0.3051 -5.3223 2.3974
-0.1145 -5.3141 2.3974
0.0752 -5.2990 2.3974
0.2637 -5.2770 2.3974
0.4509 -5.2483 2.3974
0.6365 -5.2129 2.3974
0.8202 -5.1710 2.3974
1.0018 -5.1225 2.3974
1.1811 -5.0678 2.3974
1.3578 -5.0068 2.3974
1.5319 -4.9397 2.3974
1.7030 -4.8666 2.3974
1.8709 -4.7877 2.3974
2.0356 -4.7031 2.3974
2.1967 -4.6129 2.3974
2.3542 -4.5174 2.3974
2.5078 -4.4166 2.3974
2.6574 -4.3108 2.3974
2.8028 -4.2000 2.3974
2.9440 -4.0845 2.3974
3.0807 -3.9644 2.3974
3.2128 -3.8400 2.3974
3.3402 -3.7113 2.3974
3.4628 -3.5786 2.3974
3.5805 -3.4420 2.3974
3.6931 -3.3018 2.3974
3.8006 -3.1581 2.3974
3.9029 -3.0110 2.3974
3.9998 -2.8609 2.3974
4.0914 -2.7078 2.3974
4.1775 -2.5520 2.3974
4.2581 -2.3936 2.3974
4.3331 -2.2328 2.3974
4.4024 -2.0698 2.3974
4.4661 -1.9050 2.3974
4.5240 -1.7383 2.3974
4.5761 -1.5700 2.3974
4.6225 -1.4002 2.3974
4.6630 -1.2293 2.3974
4.6976 -1.0573 2.3974
4.7264 -0.8844 2.3974
4.7494 -0.7108 2.3974
4.7664 -0.5368 2.3974
4.7775 -0.3624 2.3974
4.7828 -0.1880 2.3974
4.7822 -0.0136 2.3974
4.7757 0.1606 2.3974
4.7634 0.3343 2.3974
4.7452 0.5074 2.3974
4.7213 0.6798 2.3974
4.6916 0.8511 2.3974
4.6562 1.0214 2.3974
4.6151 1.1903 2.3974
4.5683 1.3577 2.3974
4.5160 1.5234 2.3974
4.4581 1.6874 2.3974
4.3947 1.8493 2.3974
4.3260 2.0090 2.3974
4.2518 2.1665 2.3974
4.1724 2.3213 2.3974
4.0878 2.4735 2.3974
3.9981 2.6229 2.3974
3.9033 2.7693 2.3974
3.8036 2.9125 2.3974
3.6990 3.0524 2.3974
3.5896 3.1888 2.3974
3.4756 3.3217 2.3974
3.3571 3.4507 2.3974
3.2341 3.5758 2.3974
3.1067 3.6968 2.3974
2.9752 3.8136 2.3974
2.8396 3.9261 2.3974
2.7000 4.0340 2.3974
2.5566 4.1373 2.3974
2.4095 4.2359 2.3974
2.2589 4.3295 2.3974
0.8687 1.8234 0.9894
0.8025 1.8547 0.9878
0.7352 1.8836 0.9860
0.6668 1.9100 0.9842
0.5976 1.9340 0.9824
0.5275 1.9554 0.9805
0.4567 1.9744 0.9785
0.3852 1.9907 0.9765
0.3132 2.0045 0.9744
0.2408 2.0156 0.9723
0.1680 2.0241 0.9702
0.0949 2.0300 0.9680
0.0216 2.0333 0.9658
-0.0517 2.0339 0.9636
-0.1249 2.0319 0.9613
-0.1981 2.0272 0.9590
-0.2711 2.0199 0.9567
-0.3437 2.0100 0.9543
-0.4159 1.9974 0.9519
-0.4877 1.9823 0.9496
-0.5588 1.9645 0.9472
-0.6293 1.9442 0.9448
-0.6989 1.9214 0.9424
-0.7677 1.8961 0.9400
-0.8356 1.8683 0.9375
-0.9024 1.8381 0.9351
-2.4881 4.6406 2.3974
-2.6605 4.5625 2.3974
-2.8304 4.4779 2.3974
-2.9975 4.3870 2.3974
-3.1616 4.2898 2.3974
-3.3224 4.1865 2.3974
-3.4797 4.0770 2.3974
-3.6332 3.9616 2.3974
-3.7827 3.8404 2.3974
-3.9279 3.7134 2.3974
-4.0687 3.5809 2.3974
-4.2047 3.4429 2.3974
-4.3358 3.2996 2.3974
-4.4617 3.1513 2.3974
-4.5822 2.9980 2.3974
-4.6971 2.8401 2.3974
-4.8062 2.6776 2.3974
-4.9093 2.5109 2.3974
-5.0062 2.3401 2.3974
-5.0968 2.1654 2.3974
-5.1808 1.9872 2.3974
-5.2581 1.8056 2.3974
-5.3286 1.6209 2.3974
-5.3920 1.4335 2.3974
-5.4484 1.2435 2.3974
-5.4975 1.0512 2.3974
-5.5392 0.8571 2.3974
-5.5736 0.6612 2.3974
-5.6004 0.4639 2.3974
-5.6197 0.2656 2.3974
-5.6313 0.0665 2.3974
-5.6353 -0.1330 2.3974
-5.6316 -0.3326 2.3974
-5.6202 -0.5321 2.3974
-5.6011 -0.7311 2.3974
-5.5743 -0.9293 2.3974
-5.5398 -1.1264 2.3974
-5.4978 -1.3220 2.3974
-5.4483 -1.5159 2.3974
-5.3912 -1.7077 2.3974
-5.3269 -1.8972 2.3974
-5.2552 -2.0841 2.3974
-5.1765 -2.2679 2.3974
-5.0907 -2.4486 2.3974
-4.9980 -2.6257 2.3974
-4.8986 -2.7991 2.3974
-4.7927 -2.9684 2.3974
-4.6804 -3.1334 2.3974
-4.5619 -3.2938 2.3974
-4.4374 -3.4494 2.3974
-4.3072 -3.6000 2.3974
-4.1715 -3.7453 2.3974
-4.0304 -3.8852 2.3974
-3.8842 -4.0195 2.3974
-3.7332 -4.1479 2.3974
-3.5776 -4.2703 2.3974
-3.4177 -4.3865 2.3974
-3.2538 -4.4964 2.3974
-3.0860 -4.5998 2.3974
-2.9147 -4.6967 2.3974
-2.7402 -4.7868 2.3974
-2.5627 -4.8702 2.3974
-2.3826 -4.9467 2.3974
-5.2431 -0.8711 2.3974
-5.2108 -1.0563 2.3974
-5.1714 -1.2401 2.3974
-5.1249 -1.4223 2.3974
-5.0715 -1.6026 2.3974
-5.0111 -1.7807 2.3974
-4.9440 -1.9564 2.3974
-4.8702 -2.1292 2.3974
-4.7898 -2.2991 2.3974
-4.7030 -2.4657 2.3974
-4.6098 -2.6288 2.3974
-4.5106 -2.7881 2.3974
-4.4054 -2.9433 2.3974
-4.2943 -3.0943 2.3974
-4.1777 -3.2409 2.3974
-4.0556 -3.3827 2.3974
-3.9284 -3.5197 2.3974
-3.7961 -3.6515 2.3974
-3.6591 -3.7781 2.3974
-3.5175 -3.8993 2.3974
-3.3715 -4.0148 2.3974
-3.2215 -4.1246 2.3974
-3.0677 -4.2284 2.3974
-2.9103 -4.3263 2.3974
-2.7495 -4.4179 2.3974
-2.5857 -4.5034 2.3974
-2.4190 -4.5824 2.3974
-2.2497 -4.6551 2.3974
-2.0782 -4.7212 2.3974
-1.9046 -4.7808 2.3974
-1.7293 -4.8337 2.3974
-1.5524 -4.8800 2.3974
-1.3743 -4.9197 2.3974
-1.1952 -4.9526 2.3974
-1.0154 -4.9788 2.3974
-0.8352 -4.9984 2.3974
-0.6547 -5.0112 2.3974
-0.4742 -5.0174 2.3974
-0.2941 -5.0171 2.3974
-0.1145 -5.0101 2.3974
0.0643 -4.9966 2.3974
0.2421 -4.9767 2.3974
0.4187 -4.9504 2.3974
0.5938 -4.9179 2.3974
0.7672 -4.8791 2.3974
0.9386 -4.8342 2.3974
1.1080 -4.7833 2.3974
1.2750 -4.7265 2.3974
1.4394 -4.6639 2.3974
1.6012 -4.5956 2.3974
1.7600 -4.5219 2.3974
1.9157 -4.4427 2.3974
2.0682 -4.3582 2.3974
2.2173 -4.2686 2.3974
2.3627 -4.1741 2.3974
2.5044 -4.0747 2.3974
2.6422 -3.9707 2.3974
2.7760 -3.8621 2.3974
2.9056 -3.7492 2.3974
3.0309 -3.6321 2.3974
3.1518 -3.5109 2.3974
3.2681 -3.3859 2.3974
3.3798 -3.2572 2.3974
3.4868 -3.1250 2.3974
3.5889 -2.9895 2.3974
3.6861 -2.8508 2.3974
3.7782 -2.7091 2.3974
3.8653 -2.5646 2.3974
3.9472 -2.4174 2.3974
4.0239 -2.2678 2.3974
4.0953 -2.1160 2.3974
4.1613 -1.9620 2.3974
4.2220 -1.8061 2.3974
4.2772 -1.6485 2.3974
4.3270 -1.4893 2.3974
4.3712 -1.3287 2.3974
4.4100 -1.1670 2.3974
4.4431 -1.0042 2.3974
4.4707 -0.8405 2.3974
4.4927 -0.6763 2.3974
4.5092 -0.5115 2.3974
4.5200 -0.3465 2.3974
4.5252 -0.1813 2.3974
4.5249 -0.0161 2.3974
4.5190 0.1488 2.3974
4.5075 0.3134 2.3974
4.4905 0.4773 2.3974
4.4680 0.6406 2.3974
4.4400 0.8030 2.3974
4.4066 0.9642 2.3974
4.3678 1.1242 2.3974
4.3236 1.2828 2.3974
4.2741 1.4398 2.3974
4.2193 1.5951 2.3974
