ply
format ascii 1.0
element vertex 2173
property float32 x
property float32 y
property float32 z
end_header
-5.6243 -6.2909 2.3874
-5.3948 -6.4891 2.3874
-5.1584 -6.6789 2.3874
-4.9152 -6.8601 2.3874
-4.6657 -7.0325 2.3874
-4.4101 -7.1958 2.3874
-4.1488 -7.3497 2.3874
-3.8821 -7.4942 2.3874
-3.6104 -7.6290 2.3874
-3.3341 -7.7540 2.3874
-3.0534 -7.8689 2.3874
-2.7687 -7.9737 2.3874
-2.4805 -8.0682 2.3874
-2.1891 -8.1522 2.3874
-1.8948 -8.2257 2.3874
-1.5980 -8.2886 2.3874
-1.2992 -8.3408 2.3874
-0.9987 -8.3822 2.3874
-0.6969 -8.4127 2.3874
-0.3942 -8.4324 2.3874
-0.0910 -8.4412 2.3874
0.2123 -8.4391 2.3874
0.5154 -8.4260 2.3874
0.8178 -8.4021 2.3874
1.1192 -8.3673 2.3874
1.4191 -8.3217 2.3874
1.7171 -8.2654 2.3874
2.0130 -8.1983 2.3874
2.3062 -8.1207 2.3874
2.5965 -8.0325 2.3874
2.8834 -7.9340 2.3874
3.1666 -7.8252 2.3874
3.4457 -7.7064 2.3874
3.7203 -7.5775 2.3874
3.9901 -7.4389 2.3874
4.2547 -7.2906 2.3874
4.5138 -7.1330 2.3874
4.7671 -6.9661 2.3874
5.0143 -6.7902 2.3874
5.2549 -6.6056 2.3874
5.4887 -6.4124 2.3874
5.7155 -6.2109 2.3874
5.9348 -6.0014 2.3874
6.1465 -5.7842 2.3874
6.3502 -5.5595 2.3874
6.5457 -5.3276 2.3874
6.7327 -5.0889 2.3874
6.9110 -4.8436 2.3874
7.0804 -4.5920 2.3874
7.2406 -4.3346 2.3874
7.3915 -4.0715 2.3874
7.5328 -3.8031 2.3874
7.6643 -3.5300 2.3874
7.7860 -3.2522 2.3874
7.8975 -2.9702 2.3874
7.9989 -2.6845 2.3874
8.0899 -2.3953 2.3874
8.1705 -2.1030 2.3874
8.2405 -1.8080 2.3874
8.2999 -1.5107 2.3874
8.3485 -1.2114 2.3874
8.3863 -0.9107 2.3874
8.4134 -0.6087 2.3874
8.4295 -0.3061 2.3874
8.4348 -0.0029 2.3874
8.4291 0.3001 2.3874
8.4126 0.6027 2.3874
8.3852 0.9046 2.3874
8.3470 1.2052 2.3874
8.2980 1.5043 2.3874
8.2383 1.8015 2.3874
8.1679 2.0962 2.3874
8.0870 2.3882 2.3874
7.9957 2.6772 2.3874
7.8941 2.9627 2.3874
7.7822 3.2443 2.3874
7.6604 3.5217 2.3874
7.5286 3.7945 2.3874
7.3872 4.0624 2.3874
7.2362 4.3251 2.3874
7.0758 4.5822 2.3874
6.9064 4.8333 2.3874
6.7280 5.0782 2.3874
6.5410 5.3165 2.3874
6.3455 5.5479 2.3874
6.1419 5.7722 2.3874
5.9304 5.9889 2.3874
5.7111 6.1980 2.3874
5.4846 6.3990 2.3874
5.2510 6.5918 2.3874
5.0106 6.7760 2.3874
4.7637 6.9515 2.3874
4.5108 7.1180 2.3874
4.2520 7.2753 2.3874
3.9877 7.4233 2.3874
3.7183 7.5616 2.3874
3.4441 7.6901 2.3874
3.1655 7.8088 2.3874
2.8828 7.9173 2.3874
2.5964 8.0157 2.3874
0.9179 3.2246 0.9500
0.8015 3.2560 0.9501
0.6841 3.2831 0.9503
0.5657 3.3060 0.9504
0.4466 3.3245 0.9505
0.3269 3.3388 0.9506
0.2067 3.3486 0.9507
0.0863 3.3541 0.9508
-0.0343 3.3553 0.9509
-0.1549 3.3520 0.9509
-0.2752 3.3444 0.9509
-0.3952 3.3324 0.9510
-0.5147 3.3161 0.9510
-0.6335 3.2954 0.9510
-0.7515 3.2704 0.9509
-0.8685 3.2412 0.9509
-2.4716 8.0540 2.3874
-2.7594 7.9601 2.3874
-3.0437 7.8558 2.3874
-3.3241 7.7414 2.3874
-3.6001 7.6171 2.3874
-3.8716 7.4828 2.3874
-4.1380 7.3390 2.3874
-4.3991 7.1856 2.3874
-4.6545 7.0230 2.3874
-4.9040 6.8513 2.3874
-5.1471 6.6708 2.3874
-5.3835 6.4816 2.3874
-5.6131 6.2841 2.3874
-5.8354 6.0785 2.3874
-6.0501 5.8650 2.3874
-6.2571 5.6439 2.3874
-6.4560 5.4156 2.3874
-6.6466 5.1802 2.3874
-6.8286 4.9381 2.3874
-7.0019 4.6897 2.3874
-7.1660 4.4352 2.3874
-7.3210 4.1750 2.3874
-7.4665 3.9093 2.3874
-7.6024 3.6386 2.3874
-7.7284 3.3632 2.3874
-7.8445 3.0834 2.3874
-7.9505 2.7996 2.3874
-8.0462 2.5122 2.3874
-8.1316 2.2215 2.3874
-8.2064 1.9280 2.3874
-8.2707 1.6319 2.3874
-8.3242 1.3337 2.3874
-8.3671 1.0338 2.3874
-8.3991 0.7325 2.3874
-8.4203 0.4302 2.3874
-8.4306 0.1274 2.3874
-8.4301 -0.1756 2.3874
-8.4186 -0.4784 2.3874
-8.3963 -0.7806 2.3874
-8.3631 -1.0818 2.3874
-8.3192 -1.3817 2.3874
-8.2645 -1.6798 2.3874
-8.1991 -1.9757 2.3874
-8.1231 -2.2691 2.3874
-8.0366 -2.5596 2.3874
-7.9397 -2.8469 2.3874
-7.8326 -3.1304 2.3874
-7.7153 -3.4099 2.3874
-7.5881 -3.6851 2.3874
-7.4511 -3.9555 2.3874
-7.3044 -4.2208 2.3874
-7.1482 -4.4807 2.3874
-6.9829 -4.7348 2.3874
-6.8085 -4.9828 2.3874
-6.6253 -5.2243 2.3874
-6.4335 -5.4592 2.3874
-6.2334 -5.6870 2.3874
-6.0252 -5.9075 2.3874
-5.8092 -6.1203 2.3874
-5.5857 -6.3253 2.3874
-5.3550 -6.5221 2.3874
-5.1174 -6.7104 2.3874
-4.8731 -6.8902 2.3874
-4.6225 -7.0610 2.3874
-4.3659 -7.2227 2.3874
-4.1037 -7.3751 2.3874
-3.8362 -7.5179 2.3874
-3.5637 -7.6510 2.3874
-3.2865 -7.7743 2.3874
-3.0051 -7.8875 2.3874
-2.7199 -7.9905 2.3874
-2.4310 -8.0832 2.3874
-2.1391 -8.1655 2.3874
-1.8444 -8.2372 2.3874
-1.5473 -8.2983 2.3874
-1.2481 -8.3486 2.3874
-0.9474 -8.3882 2.3874
-0.6454 -8.4168 2.3874
-0.3426 -8.4347 2.3874
-0.0393 -8.4416 2.3874
0.2640 -8.4376 2.3874
0.5670 -8.4227 2.3874
0.8693 -8.3969 2.3874
1.1704 -8.3603 2.3874
1.4700 -8.3129 2.3874
1.7677 -8.2547 2.3874
2.0632 -8.1858 2.3874
2.3559 -8.1064 2.3874
2.6456 -8.0165 2.3874
2.9319 -7.9162 2.3874
3.2144 -7.8057 2.3874
3.4928 -7.6851 2.3874
3.7666 -7.5546 2.3874
4.0355 -7.4143 2.3874
4.2993 -7.2644 2.3874
4.5574 -7.1052 2.3874
4.8097 -6.9367 2.3874
5.0557 -6.7593 2.3874
5.2952 -6.5732 2.3874
5.5279 -6.3786 2.3874
5.7534 -6.1758 2.3874
5.9714 -5.9649 2.3874
6.1818 -5.7464 2.3874
6.3841 -5.5205 2.3874
6.5782 -5.2874 2.3874
6.7637 -5.0475 2.3874
6.9405 -4.8011 2.3874
7.1084 -4.5486 2.3874
7.2670 -4.2901 2.3874
7.4162 -4.0261 2.3874
7.5559 -3.7570 2.3874
7.6858 -3.4829 2.3874
7.8057 -3.2044 2.3874
7.9155 -2.9218 2.3874
8.0152 -2.6354 2.3874
8.1044 -2.3456 2.3874
8.1832 -2.0529 2.3874
8.2514 -1.7575 2.3874
8.3089 -1.4598 2.3874
8.3557 -1.1603 2.3874
8.3917 -0.8593 2.3874
8.4169 -0.5572 2.3874
8.4312 -0.2544 2.3874
8.4346 0.0487 2.3874
8.4271 0.3517 2.3874
8.4087 0.6543 2.3874
8.3794 0.9559 2.3874
8.3394 1.2563 2.3874
8.2886 1.5551 2.3874
8.2270 1.8519 2.3874
8.1549 2.1462 2.3874
8.0722 2.4378 2.3874
7.9791 2.7262 2.3874
7.8757 3.0110 2.3874
7.7622 3.2919 2.3874
7.6386 3.5685 2.3874
7.5052 3.8405 2.3874
7.3621 4.1076 2.3874
7.2095 4.3693 2.3874
7.0476 4.6254 2.3874
6.8766 4.8755 2.3874
6.6968 5.1193 2.3874
6.5083 5.3564 2.3874
6.3114 5.5867 2.3874
6.1064 5.8097 2.3874
5.8935 6.0251 2.3874
5.6731 6.2328 2.3874
5.4453 6.4325 2.3874
5.2105 6.6238 2.3874
4.9689 6.8066 2.3874
4.7210 6.9805 2.3874
4.4670 7.1455 2.3874
4.2073 7.3012 2.3874
3.9421 7.4475 2.3874
3.6719 7.5842 2.3874
3.3969 7.7111 2.3874
3.1176 7.8280 2.3874
2.8343 7.9348 2.3874
2.5472 8.0314 2.3874
0.8981 3.2302 0.9500
0.7816 3.2609 0.9502
0.6640 3.2873 0.9503
0.5455 3.3094 0.9504
0.4263 3.3273 0.9505
0.3064 3.3408 0.9506
0.1862 3.3499 0.9507
0.0657 3.3546 0.9508
-0.0549 3.3550 0.9509
-0.1754 3.3510 0.9509
-0.2957 3.3427 0.9509
-0.4156 3.3299 0.9510
-0.5350 3.3129 0.9510
-0.6537 3.2915 0.9510
-0.7716 3.2658 0.9509
-0.8884 3.2358 0.9509
-2.5209 8.0387 2.3874
-2.8082 7.9430 2.3874
-3.0918 7.8370 2.3874
-3.3714 7.7209 2.3874
-3.6467 7.5949 2.3874
-3.9173 7.4590 2.3874
-4.1829 7.3135 2.3874
-4.4430 7.1586 2.3874
-4.6975 6.9944 2.3874
-4.9458 6.8212 2.3874
-5.1878 6.6391 2.3874
-5.4232 6.4486 2.3874
-5.6515 6.2496 2.3874
-5.8725 6.0426 2.3874
-6.0860 5.8278 2.3874
-6.2916 5.6055 2.3874
-6.4891 5.3759 2.3874
-6.6783 5.1394 2.3874
-6.8588 4.8962 2.3874
-7.0305 4.6468 2.3874
-7.1931 4.3912 2.3874
-7.3465 4.1300 2.3874
-7.4903 3.8635 2.3874
-7.6246 3.5920 2.3874
-7.7489 3.3158 2.3874
-7.8633 3.0353 2.3874
-7.9675 2.7509 2.3874
-8.0615 2.4629 2.3874
-8.1451 2.1717 2.3874
-8.2181 1.8777 2.3874
-8.2806 1.5812 2.3874
-8.3323 1.2827 2.3874
-8.3733 0.9825 2.3874
-8.4035 0.6810 2.3874
-8.4229 0.3787 2.3874
-8.4313 0.0758 2.3874
-8.4289 -0.2272 2.3874
-8.4156 -0.5300 2.3874
-8.3914 -0.8320 2.3874
-8.3564 -1.1331 2.3874
-8.3106 -1.4326 2.3874
-8.2541 -1.7304 2.3874
-8.1869 -2.0259 2.3874
-8.1091 -2.3189 2.3874
-8.0208 -2.6088 2.3874
-7.9222 -2.8954 2.3874
-7.8133 -3.1783 2.3874
-7.6943 -3.4571 2.3874
-7.5654 -3.7315 2.3874
-7.4267 -4.0011 2.3874
-7.2784 -4.2655 2.3874
-7.1207 -4.5244 2.3874
-6.9538 -4.7775 2.3874
-6.7779 -5.0244 2.3874
-6.5932 -5.2649 2.3874
-6.4000 -5.4985 2.3874
-6.1984 -5.7251 2.3874
-5.9889 -5.9443 2.3874
-7.5573 -1.7722 2.3874
-7.4890 -2.0427 2.3874
-7.4110 -2.3105 2.3874
-7.3234 -2.5754 2.3874
-7.2264 -2.8370 2.3874
-7.1201 -3.0949 2.3874
-7.0045 -3.3488 2.3874
-6.8799 -3.5985 2.3874
-6.7463 -3.8435 2.3874
-6.6041 -4.0835 2.3874
-6.4533 -4.3183 2.3874
-6.2942 -4.5475 2.3874
-6.1269 -4.7709 2.3874
-5.9517 -4.9881 2.3874
-5.7688 -5.1988 2.3874
-5.5785 -5.4029 2.3874
-5.3809 -5.6000 2.3874
-5.1764 -5.7899 2.3874
-4.9651 -5.9723 2.3874
-4.7475 -6.1470 2.3874
-4.5237 -6.3137 2.3874
-4.2940 -6.4724 2.3874
-4.0588 -6.6226 2.3874
-3.8183 -6.7643 2.3874
-3.5729 -6.8973 2.3874
-3.3228 -7.0213 2.3874
-3.0685 -7.1363 2.3874
-2.8101 -7.2421 2.3874
-2.5482 -7.3385 2.3874
-2.2829 -7.4254 2.3874
-2.0147 -7.5028 2.3874
-1.7438 -7.5704 2.3874
-1.4707 -7.6283 2.3874
-1.1957 -7.6763 2.3874
-0.9192 -7.7144 2.3874
-0.6414 -7.7425 2.3874
-0.3628 -7.7606 2.3874
-0.0837 -7.7687 2.3874
0.1954 -7.7667 2.3874
0.4743 -7.7547 2.3874
0.7526 -7.7327 2.3874
1.0300 -7.7007 2.3874
1.3060 -7.6587 2.3874
1.5803 -7.6069 2.3874
1.8526 -7.5451 2.3874
2.1225 -7.4737 2.3874
2.3896 -7.3926 2.3874
2.6537 -7.3019 2.3874
2.9143 -7.2018 2.3874
3.1711 -7.0924 2.3874
3.4239 -6.9738 2.3874
3.6722 -6.8462 2.3874
3.9157 -6.7098 2.3874
4.1542 -6.5647 2.3874
4.3874 -6.4111 2.3874
4.6148 -6.2493 2.3874
4.8363 -6.0793 2.3874
5.0515 -5.9016 2.3874
5.2601 -5.7162 2.3874
5.4620 -5.5234 2.3874
5.6568 -5.3235 2.3874
5.8443 -5.1167 2.3874
6.0242 -4.9033 2.3874
6.1964 -4.6836 2.3874
6.3605 -4.4578 2.3874
6.5164 -4.2263 2.3874
6.6639 -3.9893 2.3874
6.8028 -3.7472 2.3874
6.9328 -3.5003 2.3874
7.0539 -3.2489 2.3874
7.1659 -2.9932 2.3874
7.2686 -2.7337 2.3874
7.3619 -2.4707 2.3874
7.4457 -2.2046 2.3874
7.5198 -1.9356 2.3874
7.5843 -1.6641 2.3874
7.6390 -1.3904 2.3874
7.6837 -1.1151 2.3874
7.7186 -0.8382 2.3874
7.7435 -0.5603 2.3874
7.7583 -0.2817 2.3874
7.7632 -0.0028 2.3874
7.7580 0.2762 2.3874
7.7428 0.5547 2.3874
7.7176 0.8325 2.3874
7.6825 1.1092 2.3874
7.6374 1.3845 2.3874
7.5825 1.6581 2.3874
7.5178 1.9293 2.3874
7.4433 2.1981 2.3874
7.3593 2.4640 2.3874
7.2657 2.7268 2.3874
7.1628 2.9860 2.3874
7.0507 3.2413 2.3874
6.9294 3.4925 2.3874
6.7992 3.7391 2.3874
6.6603 3.9809 2.3874
6.5127 4.2175 2.3874
6.3568 4.4486 2.3874
6.1926 4.6740 2.3874
6.0205 4.8934 2.3874
5.8406 5.1064 2.3874
5.6532 5.3128 2.3874
5.4585 5.5124 2.3874
5.2567 5.7048 2.3874
5.0482 5.8899 2.3874
4.8332 6.0673 2.3874
4.6119 6.2369 2.3874
4.3848 6.3984 2.3874
4.1519 6.5517 2.3874
3.9137 6.6965 2.3874
3.6705 6.8327 2.3874
3.4225 6.9600 2.3874
3.1702 7.0783 2.3874
2.9137 7.1876 2.3874
2.6535 7.2875 2.3874
2.3899 7.3780 2.3874
0.8442 2.9657 0.9492
0.7372 2.9945 0.9494
0.6291 3.0194 0.9495
0.5203 3.0404 0.9496
0.4108 3.0575 0.9497
0.3007 3.0705 0.9498
0.1901 3.0796 0.9499
0.0793 3.0846 0.9500
-0.0315 3.0856 0.9500
-0.1424 3.0827 0.9501
-0.2531 3.0756 0.9501
-0.3635 3.0646 0.9501
-0.4733 3.0496 0.9501
-0.5826 3.0306 0.9501
-0.6911 3.0076 0.9501
-0.7987 2.9808 0.9501
-0.9053 2.9500 0.9500
-2.5400 7.3269 2.3874
-2.8016 7.2309 2.3874
-3.0597 7.1256 2.3874
-3.3138 7.0111 2.3874
-3.5636 6.8876 2.3874
-3.8088 6.7552 2.3874
-4.0492 6.6140 2.3874
-4.2843 6.4643 2.3874
-4.5139 6.3063 2.3874
-4.7376 6.1401 2.3874
-4.9553 5.9660 2.3874
-5.1666 5.7842 2.3874
-5.3711 5.5949 2.3874
-5.5688 5.3984 2.3874
-5.7594 5.1949 2.3874
-5.9424 4.9847 2.3874
-6.1178 4.7680 2.3874
-6.2854 4.5452 2.3874
-6.4448 4.3166 2.3874
-6.5959 4.0823 2.3874
-6.7385 3.8427 2.3874
-6.8724 3.5982 2.3874
-6.9975 3.3490 2.3874
-7.1135 3.0955 2.3874
-7.2203 2.8380 2.3874
-7.3179 2.5768 2.3874
-7.4059 2.3122 2.3874
-7.4845 2.0447 2.3874
-7.5533 1.7745 2.3874
-7.6125 1.5020 2.3874
-7.6618 1.2275 2.3874
-7.7012 0.9515 2.3874
-7.7306 0.6742 2.3874
-7.7501 0.3960 2.3874
-7.7596 0.1172 2.3874
-7.7591 -0.1617 2.3874
-7.7485 -0.4404 2.3874
-7.7280 -0.7185 2.3874
-7.6974 -0.9958 2.3874
-7.6569 -1.2718 2.3874
-7.6065 -1.5461 2.3874
-7.5463 -1.8185 2.3874
-7.4764 -2.0885 2.3874
-7.3967 -2.3559 2.3874
-7.3076 -2.6202 2.3874
-7.2089 -2.8812 2.3874
-7.1010 -3.1385 2.3874
-6.9839 -3.3917 2.3874
-6.8577 -3.6406 2.3874
-6.7227 -3.8847 2.3874
-6.5790 -4.1239 2.3874
-6.4268 -4.3577 2.3874
-6.2662 -4.5860 2.3874
-6.0976 -4.8083 2.3874
-5.9211 -5.0245 2.3874
-5.7369 -5.2341 2.3874
-5.5453 -5.4370 2.3874
-5.3465 -5.6329 2.3874
-5.1408 -5.8215 2.3874
-4.9285 -6.0026 2.3874
-4.7097 -6.1760 2.3874
-4.4849 -6.3414 2.3874
-4.2543 -6.4986 2.3874
-4.0181 -6.6474 2.3874
-3.7768 -6.7876 2.3874
-3.5306 -6.9191 2.3874
-3.2797 -7.0416 2.3874
-3.0247 -7.1550 2.3874
-2.7657 -7.2592 2.3874
-2.5032 -7.3540 2.3874
-2.2374 -7.4393 2.3874
-1.9687 -7.5150 2.3874
-1.6974 -7.5810 2.3874
-1.4240 -7.6372 2.3874
-1.1487 -7.6835 2.3874
-0.8719 -7.7199 2.3874
-0.5940 -7.7463 2.3874
-0.3153 -7.7627 2.3874
-0.0362 -7.7691 2.3874
0.2430 -7.7654 2.3874
0.5218 -7.7517 2.3874
0.8000 -7.7280 2.3874
1.0771 -7.6942 2.3874
1.3529 -7.6506 2.3874
1.6269 -7.5970 2.3874
1.8988 -7.5337 2.3874
2.1682 -7.4605 2.3874
2.4348 -7.3778 2.3874
2.6983 -7.2855 2.3874
2.9583 -7.1838 2.3874
3.2145 -7.0728 2.3874
3.4665 -6.9527 2.3874
3.7140 -6.8236 2.3874
3.9567 -6.6857 2.3874
4.1944 -6.5391 2.3874
4.4265 -6.3841 2.3874
4.6530 -6.2209 2.3874
4.8734 -6.0496 2.3874
5.0875 -5.8705 2.3874
5.2951 -5.6838 2.3874
5.4957 -5.4898 2.3874
5.6893 -5.2887 2.3874
5.8755 -5.0808 2.3874
6.0542 -4.8663 2.3874
6.2249 -4.6455 2.3874
6.3877 -4.4187 2.3874
6.5422 -4.1863 2.3874
6.6882 -3.9484 2.3874
6.8255 -3.7055 2.3874
6.9541 -3.4578 2.3874
7.0736 -3.2056 2.3874
7.1840 -2.9493 2.3874
7.2851 -2.6891 2.3874
7.3768 -2.4256 2.3874
7.4590 -2.1589 2.3874
7.5315 -1.8895 2.3874
7.5943 -1.6175 2.3874
7.6473 -1.3436 2.3874
7.6904 -1.0679 2.3874
7.7235 -0.7909 2.3874
7.7467 -0.5129 2.3874
7.7599 -0.2342 2.3874
7.7630 0.0447 2.3874
7.7561 0.3236 2.3874
7.7392 0.6021 2.3874
7.7124 0.8798 2.3874
7.6755 1.1563 2.3874
7.6287 1.4313 2.3874
7.5721 1.7044 2.3874
7.5057 1.9753 2.3874
7.4297 2.2436 2.3874
7.3440 2.5091 2.3874
7.2489 2.7712 2.3874
7.1444 3.0298 2.3874
7.0306 3.2844 2.3874
6.9079 3.5348 2.3874
6.7762 3.7806 2.3874
6.6357 4.0216 2.3874
6.4867 4.2573 2.3874
6.3294 4.4875 2.3874
6.1639 4.7119 2.3874
5.9904 4.9301 2.3874
5.8092 5.1421 2.3874
5.6205 5.3473 2.3874
5.4246 5.5457 2.3874
5.2217 5.7369 2.3874
5.0120 5.9206 2.3874
4.7959 6.0967 2.3874
4.5736 6.2650 2.3874
4.3455 6.4251 2.3874
4.1117 6.5770 2.3874
3.8726 6.7203 2.3874
3.6285 6.8550 2.3874
3.3798 6.9808 2.3874
3.1267 7.0976 2.3874
2.8696 7.2052 2.3874
2.6088 7.3036 2.3874
0.9321 2.9388 0.9491
0.8260 2.9709 0.9492
0.7188 2.9990 0.9494
0.6107 3.0233 0.9495
0.5017 3.0436 0.9496
0.3920 3.0600 0.9497
0.2818 3.0724 0.9498
0.1713 3.0807 0.9499
0.0605 3.0851 0.9500
-0.0504 3.0854 0.9500
-0.1613 3.0817 0.9501
-0.2719 3.0740 0.9501
-0.3822 3.0623 0.9501
-0.4920 3.0466 0.9501
-0.6012 3.0269 0.9501
-0.7095 3.0033 0.9501
-0.8170 2.9758 0.9501
-2.3204 7.3993 2.3874
-2.5848 7.3112 2.3874
-2.8459 7.2136 2.3874
-3.1033 7.1067 2.3874
-3.3566 6.9907 2.3874
-3.6057 6.8656 2.3874
-3.8501 6.7317 2.3874
-4.0896 6.5891 2.3874
-4.3238 6.4380 2.3874
-4.5524 6.2785 2.3874
-4.7752 6.1110 2.3874
-4.9918 5.9355 2.3874
-5.2019 5.7524 2.3874
-5.4054 5.5619 2.3874
-5.6018 5.3642 2.3874
-5.7911 5.1595 2.3874
-5.9729 4.9482 2.3874
-6.1470 4.7305 2.3874
-6.3131 4.5067 2.3874
-6.4711 4.2770 2.3874
-6.6208 4.0418 2.3874
-6.7619 3.8014 2.3874
-6.8944 3.5561 2.3874
-7.0179 3.3061 2.3874
-7.1323 3.0519 2.3874
-7.2376 2.7937 2.3874
-7.3335 2.5319 2.3874
-7.4200 2.2669 2.3874
-7.4969 1.9988 2.3874
-7.5641 1.7282 2.3874
-7.6216 1.4553 2.3874
-7.6692 1.1806 2.3874
-7.7069 0.9043 2.3874
-7.7347 0.6268 2.3874
-7.7525 0.3485 2.3874
-7.7602 0.0697 2.3874
-7.7580 -0.2092 2.3874
-7.7457 -0.4878 2.3874
-7.7234 -0.7659 2.3874
-7.6912 -1.0429 2.3874
-7.6490 -1.3185 2.3874
-7.5970 -1.5927 2.3874
-7.5351 -1.8647 2.3874
-7.4635 -2.1343 2.3874
-7.3822 -2.4012 2.3874
-7.2914 -2.6650 2.3874
-7.1912 -2.9253 2.3874
-7.0817 -3.1819 2.3874
-6.9630 -3.4344 2.3874
-6.8353 -3.6825 2.3874
-6.6988 -3.9258 2.3874
-6.5536 -4.1641 2.3874
-6.4000 -4.3971 2.3874
-6.2381 -4.6243 2.3874
-6.0681 -4.8456 2.3874
-5.8902 -5.0607 2.3874
-5.7048 -5.2692 2.3874
-5.5119 -5.4709 2.3874
-6.9928 -1.6399 2.3874
-6.9296 -1.8901 2.3874
-6.8574 -2.1380 2.3874
-6.7764 -2.3831 2.3874
-6.6866 -2.6251 2.3874
-6.5882 -2.8637 2.3874
-6.4812 -3.0987 2.3874
-6.3659 -3.3297 2.3874
-6.2423 -3.5564 2.3874
-6.1107 -3.7785 2.3874
-5.9712 -3.9957 2.3874
-5.8239 -4.2078 2.3874
-5.6691 -4.4144 2.3874
-5.5070 -4.6154 2.3874
-5.3378 -4.8104 2.3874
-5.1616 -4.9992 2.3874
-4.9788 -5.1816 2.3874
-4.7895 -5.3573 2.3874
-4.5941 -5.5260 2.3874
-4.3927 -5.6877 2.3874
-4.1856 -5.8420 2.3874
-3.9731 -5.9887 2.3874
-3.7554 -6.1277 2.3874
-3.5329 -6.2588 2.3874
-3.3058 -6.3818 2.3874
-3.0745 -6.4966 2.3874
-2.8391 -6.6030 2.3874
-2.6001 -6.7009 2.3874
-2.3577 -6.7901 2.3874
-2.1122 -6.8705 2.3874
-1.8641 -6.9421 2.3874
-1.6135 -7.0046 2.3874
-1.3608 -7.0582 2.3874
-1.1063 -7.1026 2.3874
-0.8504 -7.1378 2.3874
-0.5934 -7.1638 2.3874
-0.3357 -7.1806 2.3874
-0.0775 -7.1880 2.3874
0.1808 -7.1862 2.3874
0.4389 -7.1751 2.3874
0.6964 -7.1547 2.3874
0.9530 -7.1251 2.3874
1.2084 -7.0863 2.3874
1.4622 -7.0383 2.3874
1.7141 -6.9812 2.3874
1.9638 -6.9151 2.3874
2.2110 -6.8401 2.3874
2.4553 -6.7562 2.3874
2.6965 -6.6636 2.3874
2.9341 -6.5623 2.3874
3.1679 -6.4526 2.3874
3.3977 -6.3346 2.3874
3.6231 -6.2084 2.3874
3.8437 -6.0741 2.3874
4.0594 -5.9320 2.3874
4.2699 -5.7822 2.3874
4.4748 -5.6250 2.3874
4.6739 -5.4605 2.3874
4.8670 -5.2890 2.3874
5.0538 -5.1106 2.3874
5.2341 -4.9256 2.3874
5.4076 -4.7343 2.3874
5.5740 -4.5369 2.3874
5.7333 -4.3336 2.3874
5.8852 -4.1247 2.3874
6.0294 -3.9105 2.3874
6.1659 -3.6912 2.3874
6.2944 -3.4673 2.3874
6.4148 -3.2388 2.3874
6.5268 -3.0062 2.3874
6.6304 -2.7696 2.3874
6.7255 -2.5295 2.3874
6.8118 -2.2862 2.3874
6.8894 -2.0399 2.3874
6.9580 -1.7910 2.3874
7.0177 -1.5398 2.3874
7.0683 -1.2866 2.3874
7.1097 -1.0318 2.3874
7.1420 -0.7756 2.3874
7.1650 -0.5185 2.3874
7.1788 -0.2607 2.3874
7.1833 -0.0026 2.3874
7.1785 0.2555 2.3874
7.1645 0.5132 2.3874
7.1412 0.7703 2.3874
7.1087 1.0265 2.3874
7.0670 1.2811 2.3874
7.0162 1.5341 2.3874
6.9563 1.7852 2.3874
6.8874 2.0339 2.3874
6.8097 2.2800 2.3874
6.7232 2.5231 2.3874
6.6280 2.7630 2.3874
6.5242 2.9992 2.3874
6.4120 3.2316 2.3874
6.2916 3.4598 2.3874
6.1630 3.6836 2.3874
6.0265 3.9025 2.3874
5.8822 4.1164 2.3874
5.7303 4.3250 2.3874
5.5710 4.5280 2.3874
5.4046 4.7251 2.3874
5.2312 4.9161 2.3874
5.0510 5.1008 2.3874
4.8643 5.2789 2.3874
4.6714 5.4501 2.3874
4.4724 5.6143 2.3874
4.2677 5.7713 2.3874
4.0575 5.9207 2.3874
3.8420 6.0626 2.3874
3.6216 6.1966 2.3874
3.3965 6.3226 2.3874
3.1671 6.4404 2.3874
2.9335 6.5500 2.3874
2.6962 6.6510 2.3874
2.4555 6.7435 2.3874
0.8785 2.7122 0.9484
0.7806 2.7424 0.9486
0.6817 2.7690 0.9487
0.5818 2.7920 0.9488
0.4811 2.8114 0.9489
0.3798 2.8272 0.9490
0.2780 2.8392 0.9491
0.1758 2.8476 0.9492
0.0734 2.8522 0.9492
-0.0292 2.8532 0.9493
-0.1317 2.8504 0.9493
-0.2340 2.8439 0.9494
-0.3361 2.8337 0.9494
-0.4377 2.8198 0.9494
-0.5387 2.8022 0.9494
-0.6391 2.7810 0.9494
-0.7386 2.7562 0.9493
-0.8371 2.7278 0.9493
-2.3504 6.7800 2.3874
-2.5925 6.6912 2.3874
-2.8313 6.5938 2.3874
-3.0664 6.4878 2.3874
-3.2976 6.3735 2.3874
-3.5246 6.2510 2.3874
-3.7469 6.1203 2.3874
-3.9645 5.9818 2.3874
-4.1770 5.8356 2.3874
-4.3840 5.6818 2.3874
-4.5854 5.5207 2.3874
-4.7809 5.3524 2.3874
-4.9703 5.1772 2.3874
-5.1532 4.9954 2.3874
-5.3294 4.8071 2.3874
-5.4989 4.6126 2.3874
-5.6612 4.4121 2.3874
-5.8162 4.2059 2.3874
-5.9637 3.9943 2.3874
-6.1035 3.7775 2.3874
-6.2355 3.5558 2.3874
-6.3594 3.3295 2.3874
-6.4751 3.0990 2.3874
-6.5824 2.8644 2.3874
-6.6813 2.6261 2.3874
-6.7715 2.3844 2.3874
-6.8530 2.1396 2.3874
-6.9256 1.8920 2.3874
-6.9894 1.6420 2.3874
-7.0440 1.3898 2.3874
-7.0897 1.1358 2.3874
-7.1261 0.8804 2.3874
-7.1534 0.6238 2.3874
-7.1714 0.3663 2.3874
-7.1801 0.1084 2.3874
-7.1796 -0.1496 2.3874
-7.1698 -0.4075 2.3874
-7.1508 -0.6649 2.3874
-7.1225 -0.9214 2.3874
-7.0850 -1.1768 2.3874
-7.0384 -1.4307 2.3874
-6.9827 -1.6827 2.3874
-6.9179 -1.9326 2.3874
-6.8442 -2.1800 2.3874
-6.7617 -2.4245 2.3874
-6.6704 -2.6660 2.3874
-6.5705 -2.9040 2.3874
-6.4621 -3.1384 2.3874
-6.3454 -3.3686 2.3874
-6.2204 -3.5945 2.3874
-6.0875 -3.8158 2.3874
-5.9466 -4.0322 2.3874
-5.7980 -4.2434 2.3874
-5.6420 -4.4491 2.3874
-5.4787 -4.6491 2.3874
-5.3082 -4.8431 2.3874
-5.1309 -5.0308 2.3874
-4.9470 -5.2120 2.3874
-4.7567 -5.3865 2.3874
-4.5602 -5.5541 2.3874
-4.3578 -5.7145 2.3874
-4.1497 -5.8675 2.3874
-3.9363 -6.0130 2.3874
-3.7178 -6.1506 2.3874
-3.4945 -6.2804 2.3874
-3.2667 -6.4020 2.3874
-3.0346 -6.5154 2.3874
-2.7986 -6.6203 2.3874
-2.5590 -6.7167 2.3874
-2.3161 -6.8044 2.3874
-2.0701 -6.8833 2.3874
-1.8215 -6.9533 2.3874
-1.5705 -7.0144 2.3874
-1.3175 -7.0664 2.3874
-1.0628 -7.1092 2.3874
-0.8067 -7.1429 2.3874
-0.5495 -7.1673 2.3874
-0.2917 -7.1825 2.3874
-0.0334 -7.1884 2.3874
0.2248 -7.1850 2.3874
0.4828 -7.1723 2.3874
0.7402 -7.1503 2.3874
0.9966 -7.1191 2.3874
1.2518 -7.0787 2.3874
1.5053 -7.0292 2.3874
1.7569 -6.9706 2.3874
2.0061 -6.9029 2.3874
2.2529 -6.8264 2.3874
2.4966 -6.7410 2.3874
2.7372 -6.6469 2.3874
2.9742 -6.5442 2.3874
3.2074 -6.4331 2.3874
3.4364 -6.3136 2.3874
3.6610 -6.1860 2.3874
3.8809 -6.0504 2.3874
4.0957 -5.9070 2.3874
4.3052 -5.7560 2.3874
4.5092 -5.5975 2.3874
4.7073 -5.4318 2.3874
4.8993 -5.2591 2.3874
5.0850 -5.0795 2.3874
5.2641 -4.8935 2.3874
5.4364 -4.7011 2.3874
5.6017 -4.5026 2.3874
5.7597 -4.2984 2.3874
5.9103 -4.0886 2.3874
6.0533 -3.8735 2.3874
6.1884 -3.6534 2.3874
6.3155 -3.4286 2.3874
6.4344 -3.1994 2.3874
6.5451 -2.9661 2.3874
6.6472 -2.7289 2.3874
6.7408 -2.4883 2.3874
6.8257 -2.2444 2.3874
6.9017 -1.9977 2.3874
6.9688 -1.7483 2.3874
7.0269 -1.4968 2.3874
7.0760 -1.2433 2.3874
7.1159 -0.9882 2.3874
7.1466 -0.7319 2.3874
7.1680 -0.4746 2.3874
7.1802 -0.2168 2.3874
7.1831 0.0414 2.3874
7.1768 0.2994 2.3874
7.1612 0.5571 2.3874
7.1363 0.8140 2.3874
7.1022 1.0700 2.3874
7.0590 1.3243 2.3874
7.0066 1.5771 2.3874
6.9452 1.8277 2.3874
6.8748 2.0760 2.3874
6.7956 2.3216 2.3874
6.7075 2.5642 2.3874
6.6109 2.8035 2.3874
6.5057 3.0391 2.3874
6.3921 3.2708 2.3874
6.2702 3.4983 2.3874
6.1403 3.7212 2.3874
6.0024 3.9394 2.3874
5.8568 4.1524 2.3874
5.7037 4.3600 2.3874
5.5432 4.5620 2.3874
5.3755 4.7581 2.3874
5.2009 4.9481 2.3874
5.0196 5.1316 2.3874
4.8319 5.3085 2.3874
4.6379 5.4786 2.3874
4.4379 5.6416 2.3874
4.2322 5.7973 2.3874
4.0211 5.9455 2.3874
3.8048 6.0860 2.3874
3.5835 6.2187 2.3874
3.3577 6.3433 2.3874
3.1275 6.4597 2.3874
2.8934 6.5678 2.3874
2.6554 6.6674 2.3874
2.4141 6.7584 2.3874
0.8619 2.7176 0.9484
0.7638 2.7472 0.9486
0.6647 2.7732 0.9487
0.5647 2.7956 0.9488
0.4639 2.8144 0.9489
0.3625 2.8295 0.9490
0.2606 2.8409 0.9491
0.1584 2.8486 0.9492
0.0559 2.8527 0.9492
-0.0466 2.8530 0.9493
-0.1491 2.8496 0.9493
-0.2514 2.8424 0.9494
-0.3534 2.8316 0.9494
-0.4550 2.8171 0.9494
-0.5559 2.7989 0.9494
-0.6561 2.7770 0.9494
-0.7554 2.7516 0.9493
-0.8538 2.7226 0.9493
-2.3919 6.7655 2.3874
-2.6335 6.6752 2.3874
-2.8717 6.5763 2.3874
-3.1061 6.4689 2.3874
-3.3366 6.3532 2.3874
-3.5628 6.2293 2.3874
-3.7844 6.0973 2.3874
-4.0011 5.9574 2.3874
-4.2126 5.8099 2.3874
-4.4188 5.6548 2.3874
-4.6192 5.4925 2.3874
-4.8136 5.3230 2.3874
-5.0019 5.1467 2.3874
-5.1837 4.9637 2.3874
-5.3588 4.7744 2.3874
-5.5270 4.5788 2.3874
-5.6881 4.3773 2.3874
-5.8419 4.1702 2.3874
-5.9881 3.9577 2.3874
-6.1266 3.7400 2.3874
-6.2571 3.5176 2.3874
-6.3797 3.2905 2.3874
-6.4940 3.0593 2.3874
-6.5999 2.8240 2.3874
-6.6973 2.5851 2.3874
-6.7860 2.3428 2.3874
-6.8660 2.0976 2.3874
-6.9371 1.8495 2.3874
-6.9993 1.5991 2.3874
-7.0525 1.3466 2.3874
-7.0965 1.0924 2.3874
-7.1314 0.8367 2.3874
-7.1571 0.5799 2.3874
-7.1735 0.3224 2.3874
-7.1807 0.0644 2.3874
-7.1786 -0.1936 2.3874
-7.1672 -0.4515 2.3874
-7.1466 -0.7087 2.3874
-7.1168 -0.9651 2.3874
-7.0777 -1.2202 2.3874
-7.0295 -1.4738 2.3874
-6.9723 -1.7254 2.3874
-6.9060 -1.9749 2.3874
-6.8308 -2.2219 2.3874
-6.7467 -2.4659 2.3874
-6.6540 -2.7068 2.3874
-6.5526 -2.9443 2.3874
-6.4428 -3.1779 2.3874
-6.3247 -3.4074 2.3874
-6.1983 -3.6326 2.3874
-6.0640 -3.8531 2.3874
-5.9218 -4.0686 2.3874
-5.7720 -4.2789 2.3874
-5.6147 -4.4836 2.3874
-5.4501 -4.6826 2.3874
-5.2785 -4.8755 2.3874
-5.1000 -5.0621 2.3874
-6.5000 -1.5244 2.3874
-6.4412 -1.7570 2.3874
-6.3741 -1.9873 2.3874
-6.2988 -2.2152 2.3874
-6.2153 -2.4401 2.3874
-6.1238 -2.6619 2.3874
-6.0243 -2.8803 2.3874
-5.9171 -3.0950 2.3874
-5.8023 -3.3057 2.3874
-5.6799 -3.5122 2.3874
-5.5502 -3.7141 2.3874
-5.4133 -3.9112 2.3874
-5.2695 -4.1033 2.3874
-5.1188 -4.2901 2.3874
-4.9614 -4.4713 2.3874
-4.7977 -4.6468 2.3874
-4.6278 -4.8163 2.3874
-4.4519 -4.9796 2.3874
-4.2702 -5.1365 2.3874
-4.0829 -5.2867 2.3874
-3.8904 -5.4301 2.3874
-3.6929 -5.5665 2.3874
-3.4906 -5.6957 2.3874
-3.2838 -5.8175 2.3874
-3.0727 -5.9319 2.3874
-2.8577 -6.0386 2.3874
-2.6389 -6.1374 2.3874
-2.4167 -6.2284 2.3874
-2.1914 -6.3113 2.3874
-1.9633 -6.3860 2.3874
-1.7326 -6.4525 2.3874
-1.4997 -6.5107 2.3874
-1.2648 -6.5605 2.3874
-1.0283 -6.6017 2.3874
-0.7905 -6.6345 2.3874
-0.5516 -6.6586 2.3874
-0.3120 -6.6742 2.3874
-0.0720 -6.6811 2.3874
0.1681 -6.6795 2.3874
0.4080 -6.6691 2.3874
0.6473 -6.6502 2.3874
0.8858 -6.6227 2.3874
1.1232 -6.5866 2.3874
1.3591 -6.5420 2.3874
1.5932 -6.4889 2.3874
1.8253 -6.4274 2.3874
2.0551 -6.3577 2.3874
2.2822 -6.2797 2.3874
2.5063 -6.1936 2.3874
2.7272 -6.0996 2.3874
2.9445 -5.9976 2.3874
3.1581 -5.8879 2.3874
3.3676 -5.7706 2.3874
3.5727 -5.6458 2.3874
3.7732 -5.5137 2.3874
3.9688 -5.3745 2.3874
4.1593 -5.2284 2.3874
4.3443 -5.0755 2.3874
4.5238 -4.9161 2.3874
4.6974 -4.7503 2.3874
4.8650 -4.5784 2.3874
5.0263 -4.4005 2.3874
5.1810 -4.2170 2.3874
5.3291 -4.0281 2.3874
5.4702 -3.8339 2.3874
5.6043 -3.6348 2.3874
5.7312 -3.4310 2.3874
5.8506 -3.2228 2.3874
5.9625 -3.0105 2.3874
6.0667 -2.7942 2.3874
6.1630 -2.5744 2.3874
6.2513 -2.3512 2.3874
6.3316 -2.1251 2.3874
6.4037 -1.8962 2.3874
6.4675 -1.6648 2.3874
6.5230 -1.4313 2.3874
6.5700 -1.1960 2.3874
6.6086 -0.9591 2.3874
6.6386 -0.7210 2.3874
6.6600 -0.4820 2.3874
6.6728 -0.2424 2.3874
6.6770 -0.0025 2.3874
6.6726 0.2374 2.3874
6.6596 0.4770 2.3874
6.6379 0.7159 2.3874
6.6077 0.9540 2.3874
6.5690 1.1907 2.3874
6.5217 1.4259 2.3874
6.4661 1.6593 2.3874
6.4021 1.8905 2.3874
6.3298 2.1193 2.3874
6.2494 2.3453 2.3874
6.1609 2.5682 2.3874
6.0645 2.7879 2.3874
5.9602 3.0039 2.3874
5.8483 3.2160 2.3874
5.7288 3.4240 2.3874
5.6019 3.6275 2.3874
5.4678 3.8264 2.3874
5.3266 4.0203 2.3874
5.1786 4.2090 2.3874
5.0239 4.3922 2.3874
4.8627 4.5698 2.3874
4.6952 4.7414 2.3874
4.5217 4.9070 2.3874
4.3423 5.0662 2.3874
4.1574 5.2188 2.3874
3.9671 5.3647 2.3874
3.7717 5.5037 2.3874
3.5714 5.6355 2.3874
3.3665 5.7601 2.3874
3.1573 5.8772 2.3874
2.9440 5.9868 2.3874
2.7269 6.0886 2.3874
2.5063 6.1826 2.3874
0.9061 2.4884 0.9477
0.8162 2.5197 0.9478
0.7252 2.5477 0.9480
0.6333 2.5724 0.9481
0.5405 2.5938 0.9482
0.4470 2.6118 0.9483
0.3528 2.6264 0.9484
0.2583 2.6376 0.9485
0.1633 2.6453 0.9486
0.0682 2.6496 0.9486
-0.0271 2.6505 0.9487
-0.1223 2.6479 0.9487
-0.2174 2.6418 0.9487
-0.3122 2.6324 0.9487
-0.4066 2.6195 0.9487
-0.5005 2.6031 0.9487
-0.5937 2.5834 0.9487
-0.6861 2.5604 0.9487
-0.7776 2.5340 0.9487
-0.8681 2.5043 0.9486
-2.4099 6.2200 2.3874
-2.6319 6.1294 2.3874
-2.8505 6.0309 2.3874
-3.0654 5.9246 2.3874
-3.2763 5.8107 2.3874
-3.4831 5.6893 2.3874
-3.6853 5.5605 2.3874
-3.8828 5.4245 2.3874
-4.0753 5.2816 2.3874
-4.2625 5.1318 2.3874
-4.4442 4.9754 2.3874
-4.6202 4.8126 2.3874
-4.7902 4.6435 2.3874
-4.9541 4.4685 2.3874
-5.1116 4.2876 2.3874
-5.2624 4.1013 2.3874
-5.4065 3.9096 2.3874
-5.5436 3.7129 2.3874
-5.6736 3.5114 2.3874
-5.7962 3.3053 2.3874
-5.9114 3.0950 2.3874
-6.0189 2.8806 2.3874
-6.1187 2.6626 2.3874
-6.2106 2.4410 2.3874
-6.2945 2.2164 2.3874
-6.3702 1.9888 2.3874
-6.4377 1.7587 2.3874
-6.4969 1.5262 2.3874
-6.5478 1.2918 2.3874
-6.5901 1.0558 2.3874
-6.6240 0.8183 2.3874
-6.6493 0.5798 2.3874
-6.6661 0.3405 2.3874
-6.6742 0.1007 2.3874
-6.6737 -0.1391 2.3874
-6.6646 -0.3789 2.3874
-6.6469 -0.6181 2.3874
-6.6206 -0.8566 2.3874
-6.5857 -1.0939 2.3874
-6.5424 -1.3299 2.3874
-6.4905 -1.5642 2.3874
-6.4303 -1.7964 2.3874
-6.3618 -2.0264 2.3874
-6.2851 -2.2537 2.3874
-6.2002 -2.4782 2.3874
-6.1074 -2.6994 2.3874
-6.0066 -2.9172 2.3874
-5.8981 -3.1312 2.3874
-5.7820 -3.3412 2.3874
-5.6583 -3.5469 2.3874
-5.5274 -3.7480 2.3874
-5.3893 -3.9443 2.3874
-5.2443 -4.1355 2.3874
-5.0924 -4.3214 2.3874
-4.9340 -4.5017 2.3874
-4.7692 -4.6761 2.3874
-4.5982 -4.8446 2.3874
-4.4213 -5.0068 2.3874
-4.2386 -5.1625 2.3874
-4.0505 -5.3116 2.3874
-3.8571 -5.4538 2.3874
-3.6588 -5.5890 2.3874
-3.4557 -5.7170 2.3874
-3.2481 -5.8376 2.3874
-3.0363 -5.9506 2.3874
-2.8206 -6.0560 2.3874
-2.6013 -6.1535 2.3874
-2.3785 -6.2431 2.3874
-2.1527 -6.3246 2.3874
-1.9241 -6.3980 2.3874
-1.6931 -6.4630 2.3874
-1.4598 -6.5198 2.3874
-1.2246 -6.5681 2.3874
-0.9878 -6.6079 2.3874
-0.7498 -6.6392 2.3874
-0.5108 -6.6619 2.3874
-0.2711 -6.6760 2.3874
-0.0311 -6.6815 2.3874
0.2090 -6.6783 2.3874
0.4488 -6.6665 2.3874
0.6880 -6.6461 2.3874
0.9264 -6.6171 2.3874
1.1635 -6.5796 2.3874
1.3991 -6.5335 2.3874
1.6330 -6.4790 2.3874
1.8647 -6.4161 2.3874
2.0940 -6.3450 2.3874
2.3206 -6.2656 2.3874
2.5442 -6.1782 2.3874
2.7645 -6.0827 2.3874
2.9812 -5.9794 2.3874
3.1941 -5.8684 2.3874
3.4028 -5.7498 2.3874
3.6072 -5.6238 2.3874
3.8068 -5.4905 2.3874
4.0016 -5.3501 2.3874
4.1912 -5.2028 2.3874
4.3754 -5.0488 2.3874
4.5538 -4.8882 2.3874
4.7264 -4.7214 2.3874
4.8929 -4.5485 2.3874
5.0531 -4.3696 2.3874
5.2067 -4.1852 2.3874
5.3536 -3.9953 2.3874
5.4936 -3.8003 2.3874
5.6265 -3.6004 2.3874
5.7521 -3.3959 2.3874
5.8702 -3.1869 2.3874
5.9808 -2.9739 2.3874
6.0836 -2.7570 2.3874
6.1786 -2.5366 2.3874
6.2656 -2.3129 2.3874
6.3445 -2.0862 2.3874
6.4152 -1.8569 2.3874
6.4776 -1.6251 2.3874
6.5316 -1.3913 2.3874
6.5772 -1.1557 2.3874
6.6143 -0.9186 2.3874
6.6428 -0.6803 2.3874
6.6628 -0.4412 2.3874
6.6741 -0.2015 2.3874
6.6769 0.0384 2.3874
6.6710 0.2783 2.3874
6.6565 0.5178 2.3874
6.6334 0.7566 2.3874
6.6017 0.9944 2.3874
6.5615 1.2309 2.3874
6.5128 1.4659 2.3874
6.4558 1.6989 2.3874
6.3904 1.9297 2.3874
6.3167 2.1580 2.3874
6.2349 2.3835 2.3874
6.1450 2.6059 2.3874
6.0473 2.8250 2.3874
5.9417 3.0403 2.3874
5.8284 3.2518 2.3874
5.7077 3.4590 2.3874
5.5795 3.6618 2.3874
5.4442 3.8598 2.3874
5.3019 4.0528 2.3874
5.1527 4.2406 2.3874
4.9968 4.4229 2.3874
4.8346 4.5995 2.3874
4.6660 4.7701 2.3874
4.4915 4.9346 2.3874
4.3112 5.0926 2.3874
4.1253 5.2442 2.3874
3.9341 5.3889 2.3874
3.7379 5.5267 2.3874
3.5368 5.6573 2.3874
3.3312 5.7806 2.3874
3.1212 5.8965 2.3874
2.9073 6.0047 2.3874
2.6896 6.1052 2.3874
2.4684 6.1978 2.3874
0.8908 2.4939 0.9477
0.8008 2.5247 0.9479
0.7096 2.5521 0.9480
0.6175 2.5763 0.9481
0.5246 2.5971 0.9482
0.4310 2.6145 0.9483
0.3368 2.6285 0.9484
0.2421 2.6391 0.9485
0.1471 2.6463 0.9486
0.0519 2.6500 0.9486
-0.0433 2.6503 0.9487
-0.1385 2.6471 0.9487
-0.2336 2.6405 0.9487
-0.3283 2.6304 0.9487
-0.4226 2.6169 0.9487
-0.5164 2.6000 0.9487
-0.6095 2.5797 0.9487
-0.7018 2.5561 0.9487
-0.7931 2.5291 0.9487
-0.8835 2.4989 0.9486
-2.4480 6.2051 2.3874
-2.6694 6.1132 2.3874
-2.8874 6.0133 2.3874
-3.1016 5.9057 2.3874
-3.3119 5.7905 2.3874
-3.5179 5.6678 2.3874
-3.7193 5.5378 2.3874
-3.9160 5.4007 2.3874
-4.1075 5.2565 2.3874
-4.2939 5.1056 2.3874
-4.4746 4.9481 2.3874
-4.6496 4.7842 2.3874
-4.8186 4.6141 2.3874
-4.9814 4.4381 2.3874
-5.1377 4.2563 2.3874
-5.2875 4.0690 2.3874
-5.4304 3.8764 2.3874
-5.5663 3.6789 2.3874
-5.6950 3.4766 2.3874
-5.8164 3.2698 2.3874
-5.9303 3.0587 2.3874
-6.0365 2.8437 2.3874
-6.1349 2.6250 2.3874
-6.2255 2.4029 2.3874
-6.3079 2.1778 2.3874
-6.3823 1.9497 2.3874
-6.4484 1.7192 2.3874
-6.5062 1.4864 2.3874
-6.5556 1.2517 2.3874
-6.5965 1.0154 2.3874
-6.6289 0.7777 2.3874
-6.6528 0.5390 2.3874
-6.6681 0.2996 2.3874
-6.6747 0.0599 2.3874
-6.6727 -0.1800 2.3874
-6.6622 -0.4197 2.3874
-6.6430 -0.6588 2.3874
-6.6152 -0.8971 2.3874
-6.5789 -1.1343 2.3874
-6.5341 -1.3699 2.3874
-6.4809 -1.6039 2.3874
-6.4193 -1.8358 2.3874
-6.3493 -2.0653 2.3874
-6.2712 -2.2922 2.3874
-6.1850 -2.5161 2.3874
-6.0908 -2.7368 2.3874
-5.9887 -2.9539 2.3874
-5.8788 -3.1673 2.3874
-5.7614 -3.3766 2.3874
-5.6365 -3.5815 2.3874
-5.5044 -3.7818 2.3874
-5.3651 -3.9773 2.3874
-5.2188 -4.1676 2.3874
-5.0659 -4.3525 2.3874
-4.9063 -4.5318 2.3874
-4.7405 -4.7053 2.3874
-6.0655 -1.4225 2.3874
-6.0107 -1.6396 2.3874
-5.9481 -1.8545 2.3874
-5.8777 -2.0671 2.3874
-5.7998 -2.2771 2.3874
-5.7144 -2.4840 2.3874
-5.6217 -2.6878 2.3874
-5.5216 -2.8882 2.3874
-5.4144 -3.0848 2.3874
-5.3002 -3.2774 2.3874
-5.1792 -3.4658 2.3874
-5.0514 -3.6498 2.3874
-4.9172 -3.8290 2.3874
-4.7765 -4.0033 2.3874
-4.6297 -4.1724 2.3874
-4.4769 -4.3362 2.3874
-4.3184 -4.4944 2.3874
-4.1542 -4.6467 2.3874
-3.9846 -4.7931 2.3874
-3.8099 -4.9333 2.3874
-3.6303 -5.0671 2.3874
-3.4460 -5.1943 2.3874
-3.2572 -5.3149 2.3874
-3.0642 -5.4286 2.3874
-2.8672 -5.5353 2.3874
-2.6666 -5.6348 2.3874
-2.4624 -5.7271 2.3874
-2.2551 -5.8119 2.3874
-2.0449 -5.8893 2.3874
-1.8320 -5.9590 2.3874
-1.6167 -6.0211 2.3874
-1.3994 -6.0753 2.3874
-1.1802 -6.1218 2.3874
-0.9595 -6.1603 2.3874
-0.7376 -6.1908 2.3874
-0.5147 -6.2134 2.3874
-0.2911 -6.2279 2.3874
-0.0672 -6.2344 2.3874
0.1568 -6.2328 2.3874
0.3807 -6.2232 2.3874
0.6040 -6.2055 2.3874
0.8266 -6.1798 2.3874
1.0481 -6.1461 2.3874
1.2682 -6.1045 2.3874
1.4867 -6.0550 2.3874
1.7033 -5.9976 2.3874
1.9176 -5.9326 2.3874
2.1296 -5.8598 2.3874
2.3387 -5.7795 2.3874
2.5448 -5.6917 2.3874
2.7476 -5.5965 2.3874
2.9469 -5.4942 2.3874
3.1424 -5.3847 2.3874
3.3338 -5.2683 2.3874
3.5208 -5.1450 2.3874
3.7034 -5.0151 2.3874
3.8811 -4.8788 2.3874
4.0538 -4.7361 2.3874
4.2213 -4.5874 2.3874
4.3833 -4.4327 2.3874
4.5397 -4.2722 2.3874
4.6902 -4.1063 2.3874
4.8346 -3.9351 2.3874
4.9727 -3.7588 2.3874
5.1045 -3.5776 2.3874
5.2296 -3.3918 2.3874
5.3480 -3.2017 2.3874
5.4594 -3.0074 2.3874
5.5638 -2.8092 2.3874
5.6611 -2.6075 2.3874
5.7510 -2.4023 2.3874
5.8334 -2.1941 2.3874
5.9083 -1.9830 2.3874
5.9756 -1.7694 2.3874
6.0352 -1.5535 2.3874
6.0869 -1.3357 2.3874
6.1308 -1.1161 2.3874
6.1668 -0.8950 2.3874
6.1948 -0.6729 2.3874
6.2148 -0.4499 2.3874
6.2268 -0.2263 2.3874
6.2307 -0.0024 2.3874
6.2266 0.2215 2.3874
6.2145 0.4451 2.3874
6.1943 0.6681 2.3874
6.1661 0.8902 2.3874
6.1300 1.1111 2.3874
6.0859 1.3306 2.3874
6.0340 1.5484 2.3874
5.9743 1.7641 2.3874
5.9069 1.9776 2.3874
5.8318 2.1885 2.3874
5.7493 2.3966 2.3874
5.6593 2.6016 2.3874
5.5620 2.8031 2.3874
5.4575 3.0011 2.3874
5.3460 3.1952 2.3874
5.2276 3.3851 2.3874
5.1025 3.5707 2.3874
4.9708 3.7516 2.3874
4.8326 3.9277 2.3874
4.6882 4.0987 2.3874
4.5378 4.2645 2.3874
4.3816 4.4246 2.3874
4.2196 4.5791 2.3874
4.0523 4.7277 2.3874
3.8797 4.8701 2.3874
3.7021 5.0063 2.3874
3.5197 5.1360 2.3874
3.3328 5.2591 2.3874
3.1417 5.3753 2.3874
2.9464 5.4846 2.3874
2.7474 5.5869 2.3874
2.5448 5.6819 2.3874
0.9279 2.2888 0.9471
0.8451 2.3210 0.9472
0.7613 2.3501 0.9473
0.6764 2.3762 0.9475
0.5906 2.3993 0.9476
0.5041 2.4192 0.9477
0.4169 2.4360 0.9478
0.3291 2.4496 0.9479
0.2409 2.4600 0.9479
0.1523 2.4672 0.9480
0.0636 2.4712 0.9481
-0.0253 2.4720 0.9481
-0.1141 2.4696 0.9481
-0.2028 2.4639 0.9482
-0.2912 2.4551 0.9482
-0.3792 2.4431 0.9482
-0.4668 2.4278 0.9482
-0.5537 2.4095 0.9482
-0.6399 2.3879 0.9481
-0.7253 2.3633 0.9481
-0.8097 2.3356 0.9481
-0.8930 2.3049 0.9480
-2.4561 5.7200 2.3874
-2.6601 5.6281 2.3874
-2.8607 5.5289 2.3874
-3.0575 5.4226 2.3874
-3.2504 5.3093 2.3874
-3.4392 5.1891 2.3874
-3.6234 5.0622 2.3874
-3.8031 4.9288 2.3874
-3.9778 4.7890 2.3874
-4.1474 4.6431 2.3874
-4.3116 4.4911 2.3874
-4.4703 4.3333 2.3874
-4.6232 4.1700 2.3874
-4.7701 4.0012 2.3874
-4.9109 3.8273 2.3874
-5.0454 3.6484 2.3874
-5.1733 3.4648 2.3874
-5.2946 3.2768 2.3874
-5.4090 3.0845 2.3874
-5.5165 2.8882 2.3874
-5.6168 2.6882 2.3874
-5.7099 2.4846 2.3874
-5.7957 2.2779 2.3874
-5.8739 2.0682 2.3874
-5.9446 1.8559 2.3874
-6.0076 1.6411 2.3874
-6.0629 1.4242 2.3874
-6.1103 1.2055 2.3874
-6.1498 0.9852 2.3874
-6.1814 0.7636 2.3874
-6.2050 0.5410 2.3874
-6.2206 0.3177 2.3874
-6.2282 0.0940 2.3874
-6.2277 -0.1299 2.3874
-6.2192 -0.3536 2.3874
-6.2027 -0.5768 2.3874
-6.1781 -0.7994 2.3874
-6.1456 -1.0209 2.3874
-6.1051 -1.2410 2.3874
-6.0567 -1.4597 2.3874
-6.0006 -1.6764 2.3874
-5.9366 -1.8910 2.3874
-5.8650 -2.1031 2.3874
-5.7858 -2.3126 2.3874
-5.6991 -2.5190 2.3874
-5.6051 -2.7222 2.3874
-5.5038 -2.9220 2.3874
-5.3954 -3.1179 2.3874
-5.2801 -3.3098 2.3874
-5.1579 -3.4975 2.3874
-5.0290 -3.6807 2.3874
-4.8936 -3.8591 2.3874
-4.7519 -4.0325 2.3874
-4.6041 -4.2007 2.3874
-4.4503 -4.3636 2.3874
-4.2908 -4.5207 2.3874
-4.1257 -4.6721 2.3874
-3.9552 -4.8174 2.3874
-3.7797 -4.9565 2.3874
-3.5992 -5.0892 2.3874
-3.4141 -5.2154 2.3874
-3.2246 -5.3348 2.3874
-3.0309 -5.4473 2.3874
-2.8333 -5.5527 2.3874
-2.6320 -5.6510 2.3874
-2.4273 -5.7421 2.3874
-2.2195 -5.8256 2.3874
-2.0088 -5.9017 2.3874
-1.7955 -5.9701 2.3874
-1.5798 -6.0309 2.3874
-1.3621 -6.0838 2.3874
-1.1427 -6.1289 2.3874
-0.9218 -6.1661 2.3874
-0.6997 -6.1952 2.3874
-0.4766 -6.2164 2.3874
-0.2530 -6.2296 2.3874
-0.0290 -6.2347 2.3874
0.1950 -6.2317 2.3874
0.4188 -6.2207 2.3874
0.6420 -6.2017 2.3874
0.8644 -6.1746 2.3874
1.0857 -6.1396 2.3874
1.3056 -6.0966 2.3874
1.5238 -6.0457 2.3874
1.7400 -5.9871 2.3874
1.9540 -5.9207 2.3874
2.1654 -5.8466 2.3874
2.3740 -5.7650 2.3874
2.5796 -5.6760 2.3874
2.7818 -5.5796 2.3874
2.9805 -5.4760 2.3874
3.1753 -5.3653 2.3874
3.3660 -5.2477 2.3874
3.5523 -5.1234 2.3874
3.7340 -4.9924 2.3874
3.9109 -4.8549 2.3874
4.0828 -4.7112 2.3874
4.2493 -4.5614 2.3874
4.4104 -4.4057 2.3874
4.5658 -4.2444 2.3874
4.7152 -4.0775 2.3874
4.8586 -3.9054 2.3874
4.9957 -3.7282 2.3874
5.1263 -3.5463 2.3874
5.2503 -3.3597 2.3874
5.3675 -3.1689 2.3874
5.4777 -2.9739 2.3874
5.5809 -2.7751 2.3874
5.6769 -2.5727 2.3874
5.7655 -2.3671 2.3874
5.8467 -2.1583 2.3874
5.9204 -1.9468 2.3874
5.9863 -1.7328 2.3874
6.0445 -1.5165 2.3874
6.0950 -1.2984 2.3874
6.1375 -1.0785 2.3874
6.1722 -0.8572 2.3874
6.1988 -0.6349 2.3874
6.2174 -0.4118 2.3874
6.2280 -0.1881 2.3874
6.2306 0.0358 2.3874
6.2251 0.2596 2.3874
6.2116 0.4831 2.3874
6.1900 0.7060 2.3874
6.1605 0.9279 2.3874
6.1230 1.1486 2.3874
6.0776 1.3679 2.3874
6.0244 1.5853 2.3874
5.9633 1.8007 2.3874
5.8946 2.0137 2.3874
5.8183 2.2242 2.3874
5.7344 2.4318 2.3874
5.6432 2.6362 2.3874
5.5447 2.8371 2.3874
5.4390 3.0345 2.3874
5.3263 3.2279 2.3874
5.2068 3.4171 2.3874
5.0805 3.6019 2.3874
4.9477 3.7820 2.3874
4.8084 3.9572 2.3874
4.6630 4.1274 2.3874
4.5116 4.2922 2.3874
4.3543 4.4514 2.3874
4.1915 4.6049 2.3874
4.0232 4.7524 2.3874
3.8498 4.8938 2.3874
3.6713 5.0289 2.3874
3.4882 5.1574 2.3874
3.3006 5.2794 2.3874
3.1087 5.3944 2.3874
2.9127 5.5026 2.3874
2.7131 5.6036 2.3874
2.5099 5.6974 2.3874
0.9138 2.2945 0.9471
0.8309 2.3262 0.9472
0.7469 2.3548 0.9474
0.6619 2.3804 0.9475
0.5759 2.4029 0.9476
0.4893 2.4223 0.9477
0.4020 2.4385 0.9478
0.3141 2.4516 0.9479
0.2258 2.4614 0.9480
0.1372 2.4681 0.9480
0.0484 2.4716 0.9481
-0.0404 2.4718 0.9481
-0.1292 2.4688 0.9481
-0.2178 2.4627 0.9482
-0.3062 2.4533 0.9482
-0.3942 2.4407 0.9482
-0.4816 2.4249 0.9482
-0.5684 2.4060 0.9482
-0.6545 2.3840 0.9481
-0.7397 2.3588 0.9481
-0.8240 2.3306 0.9481
-0.9071 2.2994 0.9480
-2.4911 5.7048 2.3874
-2.6945 5.6117 2.3874
-2.8945 5.5113 2.3874
-3.0907 5.4037 2.3874
-3.2829 5.2893 2.3874
-3.4709 5.1679 2.3874
-3.6544 5.0399 2.3874
-3.8332 4.9054 2.3874
-4.0071 4.7646 2.3874
-4.1757 4.6176 2.3874
-4.3390 4.4646 2.3874
-4.4967 4.3059 2.3874
-4.6486 4.1416 2.3874
-4.7946 3.9719 2.3874
-4.9343 3.7971 2.3874
-5.0676 3.6175 2.3874
-5.1945 3.4331 2.3874
-5.3146 3.2443 2.3874
-5.4278 3.0513 2.3874
-5.5341 2.8543 2.3874
-5.6332 2.6537 2.3874
-5.7251 2.4496 2.3874
-5.8095 2.2424 2.3874
-5.8865 2.0322 2.3874
-5.9559 1.8194 2.3874
-6.0176 1.6043 2.3874
-6.0715 1.3871 2.3874
-6.1176 1.1680 2.3874
-6.1558 0.9475 2.3874
-6.1860 0.7257 2.3874
-6.2082 0.5030 2.3874
-6.2225 0.2796 2.3874
-6.2287 0.0558 2.3874
-6.2269 -0.1680 2.3874
-6.2170 -0.3917 2.3874
-6.1990 -0.6148 2.3874
-6.1731 -0.8372 2.3874
-6.1392 -1.0585 2.3874
-6.0974 -1.2784 2.3874
-6.0477 -1.4967 2.3874
-5.9902 -1.7131 2.3874
-5.9250 -1.9273 2.3874
-5.8520 -2.1390 2.3874
-5.7716 -2.3480 2.3874
-5.6836 -2.5539 2.3874
-5.5884 -2.7565 2.3874
-5.4859 -2.9556 2.3874
-5.3763 -3.1509 2.3874
-5.2597 -3.3421 2.3874
-5.1364 -3.5290 2.3874
-5.0064 -3.7114 2.3874
-4.8699 -3.8890 2.3874
-4.7272 -4.0616 2.3874
-4.5783 -4.2289 2.3874
-4.4235 -4.3908 2.3874
-5.6794 -1.3320 2.3874
-5.6280 -1.5352 2.3874
-5.5693 -1.7365 2.3874
-5.5035 -1.9356 2.3874
-5.4305 -2.1321 2.3874
-5.3506 -2.3259 2.3874
-5.2637 -2.5167 2.3874
-5.1700 -2.7043 2.3874
-5.0696 -2.8884 2.3874
-4.9627 -3.0687 2.3874
-4.8494 -3.2451 2.3874
-4.7297 -3.4174 2.3874
-4.6040 -3.5852 2.3874
-4.4723 -3.7484 2.3874
-4.3349 -3.9067 2.3874
-4.1918 -4.0601 2.3874
-4.0433 -4.2082 2.3874
-3.8896 -4.3508 2.3874
-3.7308 -4.4878 2.3874
-3.5673 -4.6191 2.3874
-3.3991 -4.7444 2.3874
-3.2265 -4.8635 2.3874
-3.0497 -4.9764 2.3874
-2.8690 -5.0828 2.3874
-2.6846 -5.1827 2.3874
-2.4967 -5.2759 2.3874
-2.3056 -5.3623 2.3874
-2.1115 -5.4417 2.3874
-1.9146 -5.5142 2.3874
-1.7153 -5.5795 2.3874
-1.5137 -5.6375 2.3874
-1.3102 -5.6884 2.3874
-1.1050 -5.7318 2.3874
-0.8984 -5.7679 2.3874
-0.6906 -5.7965 2.3874
-0.4819 -5.8176 2.3874
-0.2726 -5.8312 2.3874
-0.0629 -5.8373 2.3874
0.1469 -5.8358 2.3874
0.3564 -5.8267 2.3874
0.5655 -5.8102 2.3874
0.7739 -5.7861 2.3874
0.9813 -5.7546 2.3874
1.1874 -5.7156 2.3874
1.3920 -5.6693 2.3874
1.5948 -5.6156 2.3874
1.7955 -5.5546 2.3874
1.9939 -5.4865 2.3874
2.1897 -5.4113 2.3874
2.3827 -5.3291 2.3874
2.5726 -5.2401 2.3874
2.7592 -5.1442 2.3874
2.9422 -5.0417 2.3874
3.1214 -4.9327 2.3874
3.2966 -4.8173 2.3874
3.4675 -4.6957 2.3874
3.6339 -4.5680 2.3874
3.7956 -4.4345 2.3874
3.9524 -4.2952 2.3874
4.1041 -4.1504 2.3874
4.2505 -4.0001 2.3874
4.3914 -3.8448 2.3874
4.5266 -3.6845 2.3874
4.6560 -3.5194 2.3874
4.7794 -3.3498 2.3874
4.8965 -3.1758 2.3874
5.0074 -2.9978 2.3874
5.1117 -2.8159 2.3874
5.2095 -2.6304 2.3874
5.3005 -2.4414 2.3874
5.3847 -2.2494 2.3874
5.4619 -2.0544 2.3874
5.5321 -1.8568 2.3874
5.5951 -1.6568 2.3874
5.6508 -1.4547 2.3874
5.6993 -1.2506 2.3874
5.7404 -1.0450 2.3874
5.7741 -0.8381 2.3874
5.8003 -0.6301 2.3874
5.8191 -0.4212 2.3874
5.8303 -0.2119 2.3874
5.8340 -0.0023 2.3874
5.8302 0.2074 2.3874
5.8188 0.4167 2.3874
5.7999 0.6255 2.3874
5.7735 0.8335 2.3874
5.7397 1.0403 2.3874
5.6985 1.2459 2.3874
5.6499 1.4498 2.3874
5.5940 1.6518 2.3874
5.5309 1.8517 2.3874
5.4606 2.0492 2.3874
5.3833 2.2440 2.3874
5.2991 2.4359 2.3874
5.2080 2.6247 2.3874
5.1102 2.8100 2.3874
5.0058 2.9918 2.3874
4.8949 3.1696 2.3874
4.7777 3.3434 2.3874
4.6544 3.5128 2.3874
4.5250 3.6777 2.3874
4.3899 3.8378 2.3874
4.2490 3.9930 2.3874
4.1027 4.1430 2.3874
3.9511 4.2877 2.3874
3.7944 4.4268 2.3874
3.6328 4.5602 2.3874
3.4665 4.6877 2.3874
3.2958 4.8091 2.3874
3.1208 4.9244 2.3874
2.9418 5.0332 2.3874
2.7589 5.1356 2.3874
2.5726 5.2313 2.3874
2.3829 5.3203 2.3874
0.8684 2.1422 0.9467
0.7910 2.1723 0.9468
0.7125 2.1995 0.9469
0.6331 2.2240 0.9470
0.5528 2.2455 0.9471
0.4718 2.2641 0.9472
0.3902 2.2798 0.9473
0.3080 2.2925 0.9474
0.2254 2.3023 0.9475
0.1426 2.3090 0.9475
0.0595 2.3128 0.9476
-0.0236 2.3135 0.9476
-0.1068 2.3112 0.9476
-0.1898 2.3059 0.9477
-0.2725 2.2977 0.9477
-0.3549 2.2864 0.9477
-0.4368 2.2722 0.9477
-0.5182 2.2550 0.9477
-0.5989 2.2348 0.9476
-0.6788 2.2118 0.9476
-0.7578 2.1859 0.9476
-0.8358 2.1571 0.9475
-0.9127 2.1256 0.9475
-2.4908 5.2699 2.3874
-2.6786 5.1771 2.3874
-2.8630 5.0775 2.3874
-3.0436 4.9714 2.3874
-3.2203 4.8589 2.3874
-3.3929 4.7401 2.3874
-3.5611 4.6151 2.3874
-3.7247 4.4842 2.3874
-3.8835 4.3476 2.3874
-4.0372 4.2053 2.3874
-4.1858 4.0575 2.3874
-4.3290 3.9046 2.3874
-4.4666 3.7466 2.3874
-4.5984 3.5837 2.3874
-4.7243 3.4162 2.3874
-4.8441 3.2443 2.3874
-4.9576 3.0682 2.3874
-5.0648 2.8881 2.3874
-5.1654 2.7043 2.3874
-5.2594 2.5170 2.3874
-5.3465 2.3265 2.3874
-5.4268 2.1329 2.3874
-5.5001 1.9366 2.3874
-5.5662 1.7377 2.3874
-5.6252 1.5366 2.3874
-5.6769 1.3335 2.3874
-5.7213 1.1287 2.3874
-5.7584 0.9224 2.3874
-5.7879 0.7149 2.3874
-5.8100 0.5065 2.3874
-5.8246 0.2974 2.3874
-5.8317 0.0879 2.3874
-5.8313 -0.1217 2.3874
-5.8233 -0.3311 2.3874
-5.8078 -0.5402 2.3874
-5.7848 -0.7485 2.3874
-5.7543 -0.9559 2.3874
-5.7164 -1.1621 2.3874
-5.6711 -1.3668 2.3874
-5.6185 -1.5697 2.3874
-5.5586 -1.7706 2.3874
-5.4916 -1.9692 2.3874
-5.4174 -2.1653 2.3874
-5.3362 -2.3586 2.3874
-5.2482 -2.5489 2.3874
-5.1533 -2.7359 2.3874
-5.0519 -2.9194 2.3874
-4.9438 -3.0991 2.3874
-4.8294 -3.2748 2.3874
-4.7087 -3.4463 2.3874
-4.5820 -3.6134 2.3874
-4.4493 -3.7757 2.3874
-4.3109 -3.9333 2.3874
-4.1669 -4.0857 2.3874
-4.0175 -4.2328 2.3874
-3.8629 -4.3746 2.3874
-3.7033 -4.5106 2.3874
-3.5389 -4.6409 2.3874
-3.3700 -4.7651 2.3874
-3.1967 -4.8832 2.3874
-3.0192 -4.9950 2.3874
-2.8378 -5.1003 2.3874
-2.6528 -5.1991 2.3874
-2.4643 -5.2911 2.3874
-2.2727 -5.3763 2.3874
-2.0781 -5.4546 2.3874
-1.8808 -5.5258 2.3874
-1.6811 -5.5899 2.3874
-1.4792 -5.6467 2.3874
-1.2754 -5.6963 2.3874
-1.0699 -5.7385 2.3874
-0.8630 -5.7733 2.3874
-0.6551 -5.8006 2.3874
-0.4462 -5.8204 2.3874
-0.2368 -5.8328 2.3874
-0.0271 -5.8375 2.3874
0.1826 -5.8348 2.3874
0.3921 -5.8245 2.3874
0.6011 -5.8066 2.3874
0.8093 -5.7813 2.3874
1.0165 -5.7485 2.3874
1.2224 -5.7082 2.3874
1.4267 -5.6606 2.3874
1.6291 -5.6057 2.3874
1.8295 -5.5435 2.3874
2.0275 -5.4742 2.3874
2.2228 -5.3978 2.3874
2.4153 -5.3144 2.3874
2.6046 -5.2242 2.3874
2.7906 -5.1272 2.3874
2.9730 -5.0236 2.3874
3.1515 -4.9135 2.3874
3.3260 -4.7970 2.3874
3.4962 -4.6744 2.3874
3.6618 -4.5457 2.3874
3.8227 -4.4111 2.3874
3.9786 -4.2709 2.3874
4.1295 -4.1251 2.3874
4.2749 -3.9740 2.3874
4.4149 -3.8178 2.3874
4.5491 -3.6567 2.3874
4.6775 -3.4908 2.3874
4.7998 -3.3204 2.3874
4.9159 -3.1458 2.3874
5.0256 -2.9671 2.3874
5.1289 -2.7845 2.3874
5.2255 -2.5984 2.3874
5.3154 -2.4089 2.3874
5.3983 -2.2163 2.3874
5.4744 -2.0209 2.3874
5.5433 -1.8229 2.3874
5.6051 -1.6225 2.3874
5.6596 -1.4200 2.3874
5.7068 -1.2157 2.3874
5.7467 -1.0098 2.3874
5.7791 -0.8027 2.3874
5.8041 -0.5945 2.3874
5.8215 -0.3856 2.3874
5.8315 -0.1762 2.3874
5.8339 0.0335 2.3874
5.8288 0.2431 2.3874
5.8161 0.4523 2.3874
5.7959 0.6610 2.3874
5.7683 0.8688 2.3874
5.7332 1.0755 2.3874
5.6907 1.2807 2.3874
5.6408 1.4843 2.3874
5.5837 1.6860 2.3874
5.5194 1.8855 2.3874
5.4479 2.0826 2.3874
5.3694 2.2769 2.3874
5.2840 2.4683 2.3874
5.1918 2.6565 2.3874
5.0928 2.8413 2.3874
4.9873 3.0224 2.3874
4.8754 3.1995 2.3874
4.7571 3.3726 2.3874
4.6328 3.5412 2.3874
4.5024 3.7053 2.3874
4.3662 3.8646 2.3874
4.2245 4.0190 2.3874
4.0772 4.1680 2.3874
3.9247 4.3118 2.3874
3.7672 4.4499 2.3874
3.6048 4.5823 2.3874
3.4377 4.7088 2.3874
3.2662 4.8292 2.3874
3.0905 4.9434 2.3874
2.9109 5.0511 2.3874
2.7274 5.1524 2.3874
2.5404 5.2470 2.3874
2.3502 5.3348 2.3874
0.8553 2.1475 0.9467
0.7777 2.1771 0.9468
0.6990 2.2039 0.9469
0.6194 2.2278 0.9470
0.5390 2.2489 0.9471
0.4579 2.2670 0.9472
0.3762 2.2822 0.9473
0.2940 2.2944 0.9474
0.2113 2.3036 0.9475
0.1284 2.3099 0.9475
0.0453 2.3131 0.9476
-0.0378 2.3133 0.9476
-0.1209 2.3105 0.9477
-0.2039 2.3047 0.9477
-0.2866 2.2960 0.9477
-0.3689 2.2842 0.9477
-0.4507 2.2694 0.9477
-0.5320 2.2517 0.9477
-0.6125 2.2311 0.9476
-0.6923 2.2076 0.9476
-0.7711 2.1812 0.9476
-0.8490 2.1520 0.9475
-2.3326 5.3418 2.3874
-2.5231 5.2546 2.3874
-2.7103 5.1606 2.3874
-2.8940 5.0599 2.3874
-3.0740 4.9527 2.3874
-3.2500 4.8391 2.3874
-3.4219 4.7192 2.3874
-3.5893 4.5932 2.3874
-3.7521 4.4614 2.3874
-3.9100 4.3237 2.3874
-4.0629 4.1805 2.3874
-4.2106 4.0318 2.3874
-4.3528 3.8780 2.3874
-4.4894 3.7191 2.3874
-4.6203 3.5555 2.3874
-4.7451 3.3872 2.3874
-4.8639 3.2146 2.3874
-4.9764 3.0378 2.3874
-5.0824 2.8571 2.3874
-5.1819 2.6726 2.3874
-5.2747 2.4848 2.3874
-5.3607 2.2937 2.3874
-5.4398 2.0996 2.3874
-5.5119 1.9028 2.3874
-5.5768 1.7036 2.3874
-5.6346 1.5021 2.3874
-5.6850 1.2987 2.3874
-5.7282 1.0937 2.3874
-5.7639 0.8871 2.3874
-5.7922 0.6795 2.3874
-5.8131 0.4709 2.3874
-5.8264 0.2617 2.3874
-5.8322 0.0522 2.3874
-5.8304 -0.1574 2.3874
-5.8212 -0.3668 2.3874
-5.8044 -0.5757 2.3874
-5.7801 -0.7839 2.3874
-5.7484 -0.9911 2.3874
-5.7092 -1.1971 2.3874
-5.6627 -1.4015 2.3874
-5.6088 -1.6041 2.3874
-5.5477 -1.8046 2.3874
-5.4794 -2.0029 2.3874
-5.4041 -2.1985 2.3874
-5.3217 -2.3913 2.3874
-5.2325 -2.5811 2.3874
-5.1365 -2.7674 2.3874
-5.0339 -2.9503 2.3874
-4.9248 -3.1293 2.3874
