ply
format ascii 1.0
element vertex 2180
property float32 x
property float32 y
property float32 z
end_header
3.3132 -5.5274 2.4022
3.5054 -5.3999 2.4022
3.6927 -5.2654 2.4022
3.8747 -5.1242 2.4022
4.0513 -4.9766 2.4022
4.2222 -4.8228 2.4022
4.3872 -4.6630 2.4022
4.5461 -4.4974 2.4022
4.6986 -4.3263 2.4022
4.8447 -4.1500 2.4022
4.6679 -3.7168 2.2498
4.7920 -3.5425 2.2498
4.9096 -3.3640 2.2498
5.0205 -3.1816 2.2498
5.1246 -2.9954 2.2498
5.2217 -2.8058 2.2498
5.3118 -2.6131 2.2498
5.3948 -2.4175 2.2498
5.4706 -2.2192 2.2498
5.3120 -1.9358 2.1576
5.4000 -1.7509 2.1694
5.6541 -1.6113 2.2498
5.7004 -1.4052 2.2498
5.7393 -1.1978 2.2498
5.7707 -0.9894 2.2498
5.7945 -0.7802 2.2498
5.8144 -0.5710 2.2512
5.8262 -0.3613 2.2523
5.8300 -0.1514 2.2533
5.8264 0.0584 2.2543
5.8152 0.2677 2.2552
5.7942 0.4761 2.2552
5.7658 0.6835 2.2552
5.7302 0.8894 2.2552
5.6873 1.0938 2.2552
5.6373 1.2962 2.2552
5.5802 1.4966 2.2552
5.5161 1.6946 2.2552
5.4449 1.8899 2.2550
5.3669 2.0823 2.2549
5.2822 2.2717 2.2548
5.1909 2.4578 2.2546
5.0932 2.6404 2.2544
4.9893 2.8192 2.2542
4.8792 2.9941 2.2540
4.7632 3.1648 2.2538
4.6413 3.3312 2.2536
4.5138 3.4930 2.2534
4.3808 3.6502 2.2532
4.2424 3.8025 2.2529
4.0990 3.9497 2.2527
3.9505 4.0916 2.2524
3.7973 4.2282 2.2521
3.6395 4.3593 2.2518
3.4774 4.4847 2.2515
3.3111 4.6042 2.2512
3.1408 4.7178 2.2509
2.9667 4.8253 2.2506
2.7890 4.9267 2.2503
2.6081 5.0217 2.2500
2.4242 5.1107 2.2498
2.3378 5.4266 2.3507
0.8896 2.2890 0.9772
0.8064 2.3199 0.9775
0.7222 2.3477 0.9776
0.6370 2.3724 0.9778
0.5509 2.3941 0.9779
0.4642 2.4127 0.9779
0.3768 2.4281 0.9779
0.2889 2.4403 0.9779
0.2006 2.4494 0.9778
0.1120 2.4552 0.9776
0.0233 2.4579 0.9775
-0.0655 2.4573 0.9772
-0.1542 2.4536 0.9769
-0.2426 2.4466 0.9766
-0.3308 2.4364 0.9762
-0.4186 2.4231 0.9758
-0.5058 2.4066 0.9753
-0.5924 2.3870 0.9748
-0.6782 2.3642 0.9743
-0.7632 2.3384 0.9737
-0.8471 2.3095 0.9730
-2.2975 5.6270 2.4022
-2.5010 5.5449 2.4022
-2.7016 5.4558 2.4022
-2.8992 5.3595 2.4022
-3.0935 5.2564 2.4022
-3.2842 5.1464 2.4022
-3.4710 5.0296 2.4022
-3.6538 4.9063 2.4022
-3.8323 4.7765 2.4022
-4.0064 4.6404 2.4022
-4.1756 4.4980 2.4022
-4.3400 4.3497 2.4022
-4.4991 4.1955 2.4022
-4.6529 4.0356 2.4022
-4.8010 3.8702 2.4022
-4.9434 3.6994 2.4022
-5.0798 3.5236 2.4022
-5.2101 3.3428 2.4022
-5.3339 3.1572 2.4022
-5.4512 2.9672 2.4022
-5.5619 2.7729 2.4022
-5.6656 2.5745 2.4022
-5.7623 2.3724 2.4022
-5.8519 2.1666 2.4022
-5.9341 1.9576 2.4022
-6.0089 1.7455 2.4022
-6.0762 1.5305 2.4022
-6.1357 1.3131 2.4022
-6.1875 1.0933 2.4022
-6.2314 0.8716 2.4022
-6.2673 0.6482 2.4022
-6.2952 0.4234 2.4022
-6.3149 0.1974 2.4022
-6.3265 -0.0294 2.4022
-6.3299 -0.2568 2.4022
-6.3251 -0.4843 2.4022
-6.3119 -0.7118 2.4022
-6.2905 -0.9390 2.4022
-6.2609 -1.1655 2.4022
-6.2230 -1.3910 2.4022
-6.1768 -1.6151 2.4022
-6.1224 -1.8377 2.4022
-6.0599 -2.0584 2.4022
-5.9892 -2.2769 2.4022
-5.9106 -2.4929 2.4022
-5.8240 -2.7060 2.4022
-5.7296 -2.9161 2.4022
-5.6274 -3.1227 2.4022
-5.5176 -3.3256 2.4022
-5.4003 -3.5245 2.4022
-5.2756 -3.7191 2.4022
-5.1438 -3.9091 2.4022
-5.0050 -4.0943 2.4022
-4.8593 -4.2744 2.4022
-4.7070 -4.4491 2.4022
-4.5482 -4.6181 2.4022
-4.3831 -4.7812 2.4022
-4.2120 -4.9383 2.4022
-4.0352 -5.0889 2.4022
-3.8528 -5.2330 2.4022
-3.6650 -5.3703 2.4022
-3.4723 -5.5006 2.4022
-3.2747 -5.6237 2.4022
-3.0727 -5.7394 2.4022
-2.8664 -5.8475 2.4022
-2.6562 -5.9480 2.4022
-2.4424 -6.0406 2.4022
-2.2252 -6.1251 2.4022
-2.0050 -6.2016 2.4022
-1.7822 -6.2698 2.4022
-1.5569 -6.3297 2.4022
-1.3295 -6.3812 2.4022
-1.1004 -6.4242 2.4022
-0.8699 -6.4587 2.4022
-0.6383 -6.4845 2.4022
-0.4059 -6.5017 2.4022
-0.1730 -6.5103 2.4022
0.0599 -6.5102 2.4022
0.2925 -6.5015 2.4022
0.5247 -6.4841 2.4022
0.7559 -6.4582 2.4022
0.9859 -6.4237 2.4022
1.2144 -6.3807 2.4022
1.4410 -6.3293 2.4022
1.6654 -6.2696 2.4022
1.8873 -6.2016 2.4022
2.1064 -6.1256 2.4022
2.3225 -6.0415 2.4022
2.5351 -5.9496 2.4022
2.7440 -5.8500 2.4022
2.9490 -5.7428 2.4022
3.1497 -5.6282 2.4022
3.3460 -5.5065 2.4022
3.5374 -5.3776 2.4022
3.7238 -5.2420 2.4022
3.9049 -5.0998 2.4022
4.0806 -4.9511 2.4022
4.2505 -4.7962 2.4022
4.4144 -4.6354 2.4022
4.5723 -4.4689 2.4022
4.7237 -4.2969 2.4022
4.8687 -4.1197 2.4022
4.6893 -3.6877 2.2498
4.8123 -3.5127 2.2498
4.9288 -3.3335 2.2498
5.0385 -3.1504 2.2498
5.1414 -2.9637 2.2498
5.2374 -2.7735 2.2498
5.3264 -2.5803 2.2498
5.4081 -2.3842 2.2498
5.4827 -2.1855 2.2498
5.3016 -1.8957 2.1491
5.4614 -1.7343 2.1902
5.6624 -1.5766 2.2498
5.7075 -1.3702 2.2498
5.7451 -1.1627 2.2498
5.7752 -0.9541 2.2498
5.7978 -0.7449 2.2498
5.8172 -0.5357 2.2515
5.8273 -0.3258 2.2525
5.8299 -0.1160 2.2535
5.8251 0.0937 2.2544
5.8122 0.3029 2.2552
5.7899 0.5112 2.2552
5.7603 0.7183 2.2552
5.7235 0.9240 2.2552
5.6794 1.1281 2.2552
5.6282 1.3302 2.2552
5.5699 1.5302 2.2552
5.5046 1.7277 2.2552
5.4322 1.9226 2.2550
5.3530 2.1145 2.2549
5.2672 2.3034 2.2547
5.1749 2.4889 2.2546
5.0761 2.6708 2.2544
4.9712 2.8490 2.2542
4.8601 3.0232 2.2540
4.7430 3.1932 2.2538
4.6202 3.3588 2.2536
4.4917 3.5199 2.2534
4.3578 3.6762 2.2531
4.2186 3.8277 2.2529
4.0743 3.9740 2.2526
3.9250 4.1151 2.2523
3.7710 4.2507 2.2521
3.6125 4.3808 2.2518
3.4496 4.5052 2.2515
3.2826 4.6238 2.2512
3.1116 4.7364 2.2509
2.9369 4.8429 2.2506
2.7587 4.9432 2.2503
2.5772 5.0371 2.2499
2.3929 5.1252 2.2498
2.3327 5.5067 2.3793
0.8756 2.2944 0.9773
0.7923 2.3248 0.9775
0.7079 2.3521 0.9777
0.6225 2.3763 0.9778
0.5364 2.3975 0.9779
0.4495 2.4155 0.9779
0.3620 2.4303 0.9779
0.2740 2.4420 0.9779
0.1857 2.4506 0.9778
0.0971 2.4559 0.9776
0.0083 2.4580 0.9774
-0.0804 2.4569 0.9772
-0.1691 2.4526 0.9769
-0.2576 2.4451 0.9765
-0.3457 2.4344 0.9762
-0.4334 2.4205 0.9757
-0.5205 2.4035 0.9752
-0.6070 2.3834 0.9747
-0.6926 2.3601 0.9742
-0.7774 2.3337 0.9736
-0.8611 2.3043 0.9729
-2.3320 5.6136 2.4022
-2.5350 5.5304 2.4022
-2.7352 5.4400 2.4022
-2.9322 5.3426 2.4022
-3.1259 5.2383 2.4022
-3.3160 5.1271 2.4022
-3.5022 5.0093 2.4022
-3.6842 4.8849 2.4022
-3.8620 4.7540 2.4022
-4.0353 4.6168 2.4022
-4.2037 4.4734 2.4022
-4.3672 4.3241 2.4022
-4.5254 4.1689 2.4022
-4.6783 4.0081 2.4022
-4.8255 3.8417 2.4022
-4.9669 3.6701 2.4022
-5.1022 3.4934 2.4022
-5.2314 3.3118 2.4022
-5.3542 3.1255 2.4022
-5.4704 2.9346 2.4022
-5.5799 2.7397 2.4022
-5.6824 2.5407 2.4022
-5.7780 2.3379 2.4022
-5.8663 2.1316 2.4022
-5.9473 1.9220 2.4022
-6.0208 1.7094 2.4022
-6.0868 1.4940 2.4022
-6.1450 1.2761 2.4022
-6.1955 1.0560 2.4022
-6.2380 0.8340 2.4022
-6.2726 0.6103 2.4022
-6.2991 0.3853 2.4022
-6.3175 0.1592 2.4022
-6.3277 -0.0678 2.4022
-6.3297 -0.2952 2.4022
-6.3234 -0.5227 2.4022
-6.3089 -0.7502 2.4022
-6.2861 -0.9773 2.4022
-6.2551 -1.2036 2.4022
-6.2157 -1.4289 2.4022
-6.1682 -1.6528 2.4022
-6.1124 -1.8751 2.4022
-6.0485 -2.0955 2.4022
-5.9765 -2.3136 2.4022
4.1288 3.3965 2.2527
4.0001 3.5402 2.2525
3.8666 3.6792 2.2522
3.7283 3.8134 2.2520
3.5855 3.9425 2.2517
3.4384 4.0665 2.2515
3.2871 4.1852 2.2512
3.1319 4.2984 2.2509
2.9729 4.4060 2.2506
2.8102 4.5080 2.2504
2.6442 4.6042 2.2501
2.4751 4.6947 2.2498
2.3476 4.8716 2.2931
0.9221 2.1046 0.9746
0.8455 2.1367 0.9749
0.7679 2.1660 0.9751
0.6892 2.1925 0.9753
0.6096 2.2162 0.9754
0.5292 2.2370 0.9755
0.4480 2.2548 0.9756
0.3663 2.2697 0.9756
0.2841 2.2817 0.9755
0.2015 2.2906 0.9755
0.1187 2.2966 0.9753
0.0356 2.2996 0.9752
-0.0474 2.2996 0.9749
-0.1305 2.2966 0.9747
-0.2133 2.2905 0.9744
-0.2959 2.2815 0.9740
-0.3782 2.2696 0.9736
-0.4599 2.2546 0.9732
-0.5410 2.2367 0.9727
-0.6215 2.2159 0.9722
-0.7011 2.1922 0.9717
-0.7799 2.1657 0.9711
-0.8576 2.1363 0.9704
-2.3141 5.2121 2.4022
-2.5026 5.1294 2.4022
-2.6883 5.0400 2.4022
-2.8709 4.9441 2.4022
-3.0501 4.8417 2.4022
-3.2258 4.7331 2.4022
-3.3976 4.6182 2.4022
-3.5655 4.4973 2.4022
-3.7292 4.3704 2.4022
-3.8884 4.2377 2.4022
-4.0430 4.0993 2.4022
-4.1927 3.9554 2.4022
-4.3374 3.8062 2.4022
-4.4769 3.6517 2.4022
-4.6110 3.4923 2.4022
-4.7394 3.3281 2.4022
-4.8621 3.1592 2.4022
-4.9788 2.9859 2.4022
-5.0894 2.8083 2.4022
-5.1938 2.6267 2.4022
-5.2917 2.4414 2.4022
-5.3830 2.2524 2.4022
-5.4676 2.0601 2.4022
-5.5454 1.8646 2.4022
-5.6162 1.6663 2.4022
-5.6799 1.4654 2.4022
-5.7365 1.2620 2.4022
-5.7857 1.0565 2.4022
-5.8276 0.8492 2.4022
-5.8620 0.6402 2.4022
-5.8889 0.4299 2.4022
-5.9083 0.2186 2.4022
-5.9200 0.0064 2.4022
-5.9240 -0.2063 2.4022
-5.9203 -0.4192 2.4022
-5.9089 -0.6321 2.4022
-5.8898 -0.8446 2.4022
-5.8629 -1.0566 2.4022
-5.8283 -1.2676 2.4022
-5.7860 -1.4774 2.4022
-5.7360 -1.6858 2.4022
-5.6784 -1.8924 2.4022
-5.6133 -2.0970 2.4022
-5.5406 -2.2993 2.4022
-5.4605 -2.4989 2.4022
-5.3731 -2.6956 2.4022
-5.2785 -2.8892 2.4022
-5.1767 -3.0793 2.4022
-5.0679 -3.2657 2.4022
-4.9523 -3.4482 2.4022
-4.8299 -3.6264 2.4022
-4.7010 -3.8001 2.4022
-4.5657 -3.9690 2.4022
-4.4241 -4.1329 2.4022
-4.2765 -4.2917 2.4022
-4.1231 -4.4449 2.4022
-3.9640 -4.5925 2.4022
-3.7995 -4.7341 2.4022
-3.6298 -4.8696 2.4022
-3.4551 -4.9988 2.4022
-3.2756 -5.1216 2.4022
-3.0917 -5.2376 2.4022
-2.9035 -5.3467 2.4022
-2.7114 -5.4489 2.4022
-2.5156 -5.5439 2.4022
-2.3163 -5.6315 2.4022
-2.1139 -5.7118 2.4022
-1.9086 -5.7845 2.4022
-1.7008 -5.8495 2.4022
-1.4907 -5.9068 2.4022
-1.2786 -5.9562 2.4022
-1.0648 -5.9977 2.4022
-0.8496 -6.0313 2.4022
-0.6334 -6.0569 2.4022
-0.4164 -6.0744 2.4022
-0.1989 -6.0838 2.4022
0.0187 -6.0852 2.4022
0.2362 -6.0786 2.4022
0.4532 -6.0639 2.4022
0.6694 -6.0411 2.4022
0.8846 -6.0104 2.4022
1.0984 -5.9718 2.4022
1.3105 -5.9253 2.4022
1.5206 -5.8710 2.4022
1.7285 -5.8090 2.4022
1.9338 -5.7394 2.4022
2.1363 -5.6624 2.4022
2.3357 -5.5780 2.4022
2.5318 -5.4863 2.4022
2.7241 -5.3876 2.4022
2.9126 -5.2819 2.4022
3.0969 -5.1695 2.4022
3.2769 -5.0505 2.4022
3.4522 -4.9251 2.4022
3.6226 -4.7933 2.4022
3.7879 -4.6556 2.4022
3.9480 -4.5121 2.4022
4.1026 -4.3629 2.4022
4.2514 -4.2083 2.4022
4.3944 -4.0486 2.4022
4.5313 -3.8839 2.4022
4.3663 -3.4789 2.2498
4.4827 -3.3160 2.2498
4.5931 -3.1493 2.2498
4.6972 -2.9788 2.2498
4.7949 -2.8048 2.2498
4.8862 -2.6276 2.2498
4.9709 -2.4474 2.2498
5.0490 -2.2645 2.2498
5.1204 -2.0791 2.2498
5.1849 -1.8914 2.2498
5.2426 -1.7018 2.2498
5.2933 -1.5104 2.2498
5.3371 -1.3175 2.2498
5.3739 -1.1234 2.2498
5.4037 -0.9283 2.2498
5.4265 -0.7325 2.2498
5.4422 -0.5363 2.2498
5.4509 -0.3398 2.2498
5.4526 -0.1433 2.2498
5.4599 0.0529 2.2551
5.4475 0.2490 2.2551
5.4282 0.4443 2.2550
5.4019 0.6386 2.2550
5.3687 0.8316 2.2549
5.3287 1.0231 2.2548
5.2820 1.2129 2.2548
5.2286 1.4006 2.2547
5.1687 1.5862 2.2546
5.1023 1.7694 2.2544
5.0295 1.9498 2.2543
4.9504 2.1275 2.2542
4.8652 2.3020 2.2540
4.7739 2.4733 2.2539
4.6768 2.6411 2.2537
4.5739 2.8052 2.2535
4.4653 2.9654 2.2533
4.3513 3.1216 2.2531
4.2320 3.2735 2.2529
4.1075 3.4211 2.2527
3.9779 3.5640 2.2524
3.8436 3.7022 2.2522
3.7045 3.8355 2.2519
3.5610 3.9638 2.2517
3.4132 4.0869 2.2514
3.2612 4.2046 2.2512
3.1053 4.3169 2.2509
2.9457 4.4237 2.2506
2.7825 4.5247 2.2503
2.6159 4.6199 2.2500
2.4464 4.7094 2.2498
2.3431 4.9390 2.3182
0.9093 2.1102 0.9746
0.8325 2.1419 0.9749
0.7546 2.1707 0.9751
0.6758 2.1967 0.9753
0.5960 2.2199 0.9754
0.5155 2.2402 0.9755
0.4343 2.2575 0.9756
0.3525 2.2719 0.9756
0.2702 2.2834 0.9755
0.1876 2.2918 0.9754
0.1047 2.2973 0.9753
0.0216 2.2998 0.9751
-0.0615 2.2993 0.9749
-0.1445 2.2958 0.9746
-0.2273 2.2892 0.9743
-0.3098 2.2797 0.9740
-0.3920 2.2672 0.9736
-0.4736 2.2518 0.9731
-0.5547 2.2334 0.9727
-0.6350 2.2121 0.9721
-0.7145 2.1879 0.9716
-0.7930 2.1609 0.9710
-0.8706 2.1310 0.9703
-2.3461 5.1986 2.4022
-2.5342 5.1147 2.4022
-2.7193 5.0243 2.4022
-2.9014 4.9273 2.4022
-3.0800 4.8238 2.4022
-3.2550 4.7141 2.4022
-3.4262 4.5982 2.4022
-3.5934 4.4763 2.4022
-3.7564 4.3484 2.4022
-3.9148 4.2147 2.4022
-4.0686 4.0754 2.4022
-4.2175 3.9306 2.4022
-4.3613 3.7805 2.4022
-4.4999 3.6252 2.4022
-4.6330 3.4649 2.4022
-4.7605 3.2999 2.4022
-4.8822 3.1302 2.4022
-4.9979 2.9562 2.4022
-5.1075 2.7779 2.4022
-5.2107 2.5957 2.4022
-5.3075 2.4097 2.4022
-5.3977 2.2202 2.4022
-5.4812 2.0273 2.4022
-5.5578 1.8314 2.4022
-5.6274 1.6326 2.4022
-5.6900 1.4312 2.4022
-5.7453 1.2275 2.4022
-5.7933 1.0217 2.4022
-5.8339 0.8140 2.4022
-5.8671 0.6048 2.4022
-5.8927 0.3943 2.4022
-5.9108 0.1828 2.4022
-5.9212 -0.0295 2.4022
-5.9239 -0.2422 2.4022
-5.9189 -0.4551 2.4022
-5.9062 -0.6680 2.4022
-5.8858 -0.8804 2.4022
-5.8576 -1.0922 2.4022
-5.8217 -1.3031 2.4022
-5.7781 -1.5127 2.4022
-5.7268 -1.7208 2.4022
-5.6680 -1.9271 2.4022
-5.6015 -2.1313 2.4022
-5.5276 -2.3331 2.4022
-5.4463 -2.5323 2.4022
-5.3577 -2.7285 2.4022
-5.2618 -2.9215 2.4022
-5.1589 -3.1111 2.4022
-5.0489 -3.2968 2.4022
-4.9321 -3.4785 2.4022
-4.8086 -3.6560 2.4022
-4.6786 -3.8289 2.4022
-4.5422 -3.9970 2.4022
-4.3997 -4.1601 2.4022
-4.2511 -4.3179 2.4022
-4.0966 -4.4702 2.4022
-3.9366 -4.6168 2.4022
-3.7712 -4.7574 2.4022
-3.6006 -4.8919 2.4022
-3.4251 -5.0200 2.4022
-3.2449 -5.1416 2.4022
-3.0602 -5.2565 2.4022
-2.8714 -5.3645 2.4022
-2.6786 -5.4654 2.4022
-2.4822 -5.5592 2.4022
-2.2824 -5.6456 2.4022
-2.0795 -5.7246 2.4022
-1.8737 -5.7960 2.4022
-1.6655 -5.8597 2.4022
-1.4550 -5.9156 2.4022
-1.2426 -5.9638 2.4022
-1.0286 -6.0040 2.4022
-0.8132 -6.0362 2.4022
-0.5968 -6.0604 2.4022
-0.3797 -6.0765 2.4022
-0.1622 -6.0846 2.4022
0.0554 -6.0847 2.4022
0.2729 -6.0767 2.4022
0.4897 -6.0606 2.4022
0.7058 -6.0365 2.4022
0.9208 -6.0044 2.4022
1.1343 -5.9645 2.4022
1.3461 -5.9166 2.4022
1.5559 -5.8611 2.4022
1.7633 -5.7978 2.4022
1.9682 -5.7270 2.4022
2.1702 -5.6487 2.4022
2.3691 -5.5630 2.4022
2.5645 -5.4702 2.4022
2.7562 -5.3703 2.4022
2.9440 -5.2634 2.4022
3.1276 -5.1499 2.4022
3.3068 -5.0298 2.4022
3.4813 -4.9033 2.4022
3.6509 -4.7705 2.4022
3.8153 -4.6318 2.4022
3.9745 -4.4873 2.4022
4.1281 -4.3372 2.4022
4.2760 -4.1817 2.4022
4.4179 -4.0211 2.4022
4.2649 -3.6110 2.2498
4.3864 -3.4517 2.2498
4.5018 -3.2882 2.2498
4.6111 -3.1208 2.2498
4.7141 -2.9497 2.2498
4.8108 -2.7751 2.2498
4.9010 -2.5974 2.2498
4.9846 -2.4167 2.2498
5.0615 -2.2334 2.2498
5.1317 -2.0476 2.2498
5.1951 -1.8595 2.2498
5.2516 -1.6696 2.2498
5.3012 -1.4779 2.2498
5.3438 -1.2848 2.2498
5.3794 -1.0905 2.2498
5.4080 -0.8953 2.2498
5.4296 -0.6994 2.2498
5.4442 -0.5031 2.2498
5.4517 -0.3066 2.2498
5.4521 -0.1102 2.2498
5.4583 0.0861 2.2551
5.4447 0.2820 2.2551
5.4242 0.4772 2.2550
5.3968 0.6713 2.2550
5.3624 0.8640 2.2549
5.3213 1.0553 2.2548
5.2735 1.2447 2.2547
5.2190 1.4321 2.2546
5.1579 1.6173 2.2545
5.0904 1.8000 2.2544
5.0166 1.9800 2.2543
4.9365 2.1571 2.2541
4.8502 2.3312 2.2540
4.7580 2.5019 2.2538
4.6598 2.6690 2.2537
4.5560 2.8325 2.2535
4.4465 2.9920 2.2533
4.3315 3.1475 2.2531
4.2113 3.2987 2.2529
4.0859 3.4455 2.2526
3.9556 3.5877 2.2524
3.8204 3.7251 2.2522
3.6806 3.8575 2.2519
3.5364 3.9849 2.2517
3.3878 4.1071 2.2514
3.2352 4.2240 2.2511
3.0786 4.3353 2.2508
2.9184 4.4411 2.2506
2.7546 4.5411 2.2503
2.5875 4.6354 2.2500
2.4175 4.7240 2.2498
2.3384 5.0078 2.3438
0.8964 2.1158 0.9747
0.8194 2.1469 0.9749
0.7414 2.1753 0.9752
0.6624 2.2008 0.9753
0.5825 2.2235 0.9755
0.5019 2.2433 0.9755
0.4205 2.2602 0.9756
0.3386 2.2741 0.9756
0.2563 2.2850 0.9755
0.1736 2.2930 0.9754
0.0907 2.2979 0.9753
0.0076 2.2999 0.9751
-0.0755 2.2989 0.9749
-0.1585 2.2949 0.9746
-0.2413 2.2878 0.9743
-0.3237 2.2778 0.9739
-0.4058 2.2648 0.9735
-0.4874 2.2489 0.9731
-0.5683 2.2300 0.9726
-0.6485 2.2082 0.9720
-0.7278 2.1836 0.9715
-0.8062 2.1561 0.9709
-0.8836 2.1257 0.9702
-2.3780 5.1849 2.4022
-2.5656 5.0999 2.4022
-2.7503 5.0083 2.4022
-2.9317 4.9103 2.4022
-3.1098 4.8058 2.4022
-3.2842 4.6950 2.4022
-3.4547 4.5781 2.4022
-3.6212 4.4551 2.4022
-3.7834 4.3262 2.4022
-3.9411 4.1916 2.4022
-4.0941 4.0513 2.4022
-4.2421 3.9056 2.4022
-4.3851 3.7546 2.4022
-4.5228 3.5985 2.4022
-4.6550 3.4374 2.4022
-4.7815 3.2716 2.4022
-4.9022 3.1012 2.4022
-5.0168 2.9264 2.4022
-5.1253 2.7475 2.4022
-5.2275 2.5646 2.4022
-5.3232 2.3780 2.4022
-5.4123 2.1879 2.4022
-5.4946 1.9945 2.4022
-5.5701 1.7980 2.4022
-5.6385 1.5988 2.4022
-5.6998 1.3971 2.4022
-5.7539 1.1929 2.4022
-5.8007 0.9867 2.4022
-5.8401 0.7788 2.4022
-5.8720 0.5694 2.4022
-5.8963 0.3587 2.4022
-5.9131 0.1470 2.4022
-5.9222 -0.0653 2.4022
-5.9236 -0.2781 2.4022
-5.9173 -0.4911 2.4022
-5.9033 -0.7039 2.4022
-5.8816 -0.9162 2.4022
-5.8521 -1.1279 2.4022
-5.8149 -1.3386 2.4022
-5.7700 -1.5479 2.4022
-5.7174 -1.7558 2.4022
-5.6573 -1.9617 2.4022
-5.5896 -2.1655 2.4022
3.8820 3.1921 2.2523
3.7612 3.3274 2.2521
3.6357 3.4583 2.2518
3.5059 3.5846 2.2516
3.3717 3.7062 2.2514
3.2335 3.8229 2.2511
3.0913 3.9347 2.2509
2.9454 4.0413 2.2506
2.7959 4.1427 2.2503
2.6430 4.2388 2.2501
2.4870 4.3294 2.2498
2.3509 4.4581 2.2718
2.3133 4.7995 2.4022
0.8655 1.9752 0.9725
0.7936 2.0053 0.9728
0.7207 2.0328 0.9730
0.6468 2.0577 0.9732
0.5721 2.0799 0.9733
0.4966 2.0994 0.9734
0.4204 2.1161 0.9735
0.3437 2.1301 0.9735
0.2666 2.1413 0.9734
0.1890 2.1497 0.9734
0.1112 2.1553 0.9732
0.0333 2.1581 0.9731
-0.0447 2.1581 0.9729
-0.1227 2.1553 0.9726
-0.2005 2.1496 0.9723
-0.2780 2.1412 0.9720
-0.3552 2.1299 0.9717
-0.4319 2.1159 0.9712
-0.5081 2.0991 0.9708
-0.5836 2.0796 0.9703
-0.6584 2.0573 0.9698
-0.7323 2.0324 0.9692
-0.8053 2.0048 0.9687
-0.8772 1.9746 0.9680
-2.3540 4.8222 2.4022
-2.5286 4.7379 2.4022
-2.7001 4.6475 2.4022
-2.8685 4.5511 2.4022
-3.0336 4.4487 2.4022
-3.1950 4.3404 2.4022
-3.3527 4.2265 2.4022
-3.5064 4.1070 2.4022
-3.6559 3.9820 2.4022
-3.8010 3.8517 2.4022
-3.9415 3.7162 2.4022
-4.0773 3.5757 2.4022
-4.2082 3.4304 2.4022
-4.3339 3.2803 2.4022
-4.4543 3.1258 2.4022
-4.5693 2.9669 2.4022
-4.6787 2.8038 2.4022
-4.7824 2.6368 2.4022
-4.8801 2.4660 2.4022
-4.9717 2.2917 2.4022
-5.0572 2.1140 2.4022
-5.1363 1.9333 2.4022
-5.2090 1.7496 2.4022
-5.2752 1.5632 2.4022
-5.3346 1.3743 2.4022
-5.3874 1.1833 2.4022
-5.4333 0.9903 2.4022
-5.4722 0.7955 2.4022
-5.5042 0.5993 2.4022
-5.5291 0.4018 2.4022
-5.5468 0.2033 2.4022
-5.5574 0.0042 2.4022
-5.5608 -0.1955 2.4022
-5.5570 -0.3953 2.4022
-5.5459 -0.5951 2.4022
-5.5276 -0.7945 2.4022
-5.5020 -0.9933 2.4022
-5.4692 -1.1912 2.4022
-5.4292 -1.3881 2.4022
-5.3819 -1.5835 2.4022
-5.3276 -1.7772 2.4022
-5.2662 -1.9690 2.4022
-5.1977 -2.1586 2.4022
-5.1223 -2.3457 2.4022
-5.0400 -2.5301 2.4022
-4.9510 -2.7116 2.4022
-4.8553 -2.8897 2.4022
-4.7530 -3.0644 2.4022
-4.6443 -3.2353 2.4022
-4.5294 -3.4022 2.4022
-4.4083 -3.5650 2.4022
-4.2812 -3.7232 2.4022
-4.1484 -3.8768 2.4022
-4.0098 -4.0254 2.4022
-3.8658 -4.1689 2.4022
-3.7165 -4.3071 2.4022
-3.5622 -4.4398 2.4022
-3.4030 -4.5667 2.4022
-3.2391 -4.6877 2.4022
-3.0709 -4.8026 2.4022
-2.8984 -4.9112 2.4022
-2.7220 -5.0134 2.4022
-2.5418 -5.1091 2.4022
-2.3583 -5.1980 2.4022
-2.1715 -5.2801 2.4022
-1.9817 -5.3553 2.4022
-1.7893 -5.4234 2.4022
-1.5945 -5.4843 2.4022
-1.3976 -5.5380 2.4022
-1.1988 -5.5843 2.4022
-0.9984 -5.6233 2.4022
-0.7967 -5.6547 2.4022
-0.5941 -5.6788 2.4022
-0.3907 -5.6952 2.4022
-0.1869 -5.7042 2.4022
0.0171 -5.7056 2.4022
0.2209 -5.6994 2.4022
0.4243 -5.6858 2.4022
0.6270 -5.6646 2.4022
0.8287 -5.6359 2.4022
1.0292 -5.5999 2.4022
1.2280 -5.5565 2.4022
1.4251 -5.5058 2.4022
1.6200 -5.4479 2.4022
1.8126 -5.3828 2.4022
2.0025 -5.3108 2.4022
2.1896 -5.2319 2.4022
2.3735 -5.1462 2.4022
2.5540 -5.0538 2.4022
2.7309 -4.9550 2.4022
2.9038 -4.8498 2.4022
3.0727 -4.7384 2.4022
3.2373 -4.6210 2.4022
3.3973 -4.4976 2.4022
3.5526 -4.3688 2.4022
3.7030 -4.2344 2.4022
3.8482 -4.0947 2.4022
3.9881 -3.9500 2.4022
4.1225 -3.8003 2.4022
4.0634 -3.4849 2.2961
4.0966 -3.2661 2.2498
4.2062 -3.1135 2.2498
4.3100 -2.9572 2.2498
4.4080 -2.7974 2.2498
4.5000 -2.6343 2.2498
4.5860 -2.4681 2.2498
4.6659 -2.2991 2.2498
4.7395 -2.1276 2.2498
4.8068 -1.9536 2.2498
4.8677 -1.7776 2.2498
4.9222 -1.5996 2.2498
4.9702 -1.4200 2.2498
5.0117 -1.2390 2.2498
5.0466 -1.0568 2.2498
5.0749 -0.8736 2.2498
5.0966 -0.6898 2.2498
5.1118 -0.5055 2.2498
5.1203 -0.3209 2.2498
5.1222 -0.1364 2.2498
5.1281 0.0480 2.2545
5.1168 0.2322 2.2545
5.0989 0.4157 2.2544
5.0746 0.5983 2.2544
5.0437 0.7796 2.2543
5.0065 0.9596 2.2543
4.9629 1.1380 2.2542
4.9131 1.3145 2.2541
4.8570 1.4890 2.2540
4.7949 1.6612 2.2539
4.7267 1.8310 2.2538
4.6527 1.9980 2.2536
4.5729 2.1622 2.2535
4.4873 2.3233 2.2533
4.3962 2.4812 2.2532
4.2997 2.6356 2.2530
4.1979 2.7864 2.2528
4.0909 2.9334 2.2526
3.9789 3.0764 2.2524
3.8620 3.2152 2.2522
3.7403 3.3498 2.2520
3.6141 3.4799 2.2518
3.4835 3.6055 2.2516
3.3487 3.7262 2.2513
3.2097 3.8421 2.2511
3.0669 3.9530 2.2508
2.9204 4.0588 2.2506
2.7703 4.1593 2.2503
2.6169 4.2544 2.2500
2.4604 4.3443 2.2498
2.3468 4.5169 2.2945
2.2839 4.8133 2.4022
0.8535 1.9804 0.9726
0.7814 2.0101 0.9728
0.7083 2.0372 0.9730
0.6343 2.0616 0.9732
0.5594 2.0834 0.9733
0.4838 2.1024 0.9734
0.4075 2.1187 0.9735
0.3307 2.1322 0.9735
0.2535 2.1429 0.9734
0.1759 2.1509 0.9733
0.0981 2.1560 0.9732
0.0201 2.1583 0.9730
-0.0579 2.1578 0.9728
-0.1358 2.1545 0.9726
-0.2136 2.1484 0.9723
-0.2911 2.1395 0.9720
-0.3682 2.1277 0.9716
-0.4448 2.1132 0.9712
-0.5209 2.0960 0.9707
-0.5963 2.0760 0.9702
-0.6709 2.0533 0.9697
-0.7447 2.0279 0.9691
-0.8175 1.9999 0.9685
-0.8892 1.9692 0.9679
-2.3837 4.8084 2.4022
-2.5577 4.7231 2.4022
-2.7288 4.6316 2.4022
-2.8966 4.5342 2.4022
-3.0611 4.4308 2.4022
-3.2219 4.3216 2.4022
-3.3789 4.2067 2.4022
-3.5319 4.0863 2.4022
-3.6807 3.9604 2.4022
-3.8250 3.8292 2.4022
-3.9648 3.6928 2.4022
-4.0997 3.5515 2.4022
-4.2297 3.4054 2.4022
-4.3546 3.2545 2.4022
-4.4741 3.0992 2.4022
-4.5882 2.9396 2.4022
-4.6966 2.7759 2.4022
-4.7993 2.6082 2.4022
-4.8959 2.4369 2.4022
-4.9866 2.2620 2.4022
-5.0710 2.0838 2.4022
-5.1490 1.9025 2.4022
-5.2206 1.7183 2.4022
-5.2857 1.5315 2.4022
-5.3440 1.3422 2.4022
-5.3956 1.1508 2.4022
-5.4403 0.9575 2.4022
-5.4781 0.7625 2.4022
-5.5089 0.5660 2.4022
-5.5326 0.3684 2.4022
-5.5491 0.1698 2.4022
-5.5585 -0.0295 2.4022
-5.5607 -0.2292 2.4022
-5.5556 -0.4290 2.4022
-5.5433 -0.6287 2.4022
-5.5238 -0.8281 2.4022
-5.4970 -1.0268 2.4022
-5.4630 -1.2245 2.4022
-5.4217 -1.4211 2.4022
-5.3733 -1.6163 2.4022
-5.3177 -1.8097 2.4022
-5.2551 -2.0012 2.4022
-5.1854 -2.1904 2.4022
-5.1089 -2.3771 2.4022
-5.0255 -2.5610 2.4022
-4.9353 -2.7419 2.4022
-4.8385 -2.9194 2.4022
-4.7351 -3.0935 2.4022
-4.6254 -3.2638 2.4022
-4.5094 -3.4300 2.4022
-4.3873 -3.5920 2.4022
-4.2592 -3.7494 2.4022
-4.1254 -3.9022 2.4022
-3.9859 -4.0500 2.4022
-3.8410 -4.1926 2.4022
-3.6908 -4.3299 2.4022
-3.5357 -4.4616 2.4022
-3.3757 -4.5875 2.4022
-3.2110 -4.7075 2.4022
-3.0421 -4.8213 2.4022
-2.8689 -4.9289 2.4022
-2.6918 -5.0300 2.4022
-2.5111 -5.1246 2.4022
-2.3270 -5.2124 2.4022
-2.1397 -5.2933 2.4022
-1.9495 -5.3673 2.4022
-1.7566 -5.4342 2.4022
-1.5614 -5.4939 2.4022
-1.3642 -5.5463 2.4022
-1.1651 -5.5914 2.4022
-0.9645 -5.6291 2.4022
-0.7626 -5.6593 2.4022
-0.5598 -5.6821 2.4022
-0.3563 -5.6973 2.4022
-0.1524 -5.7050 2.4022
0.0515 -5.7051 2.4022
0.2553 -5.6977 2.4022
0.4586 -5.6827 2.4022
0.6612 -5.6603 2.4022
0.8627 -5.6304 2.4022
1.0628 -5.5931 2.4022
1.2614 -5.5484 2.4022
1.4581 -5.4965 2.4022
1.6527 -5.4374 2.4022
1.8448 -5.3712 2.4022
2.0343 -5.2980 2.4022
2.2208 -5.2179 2.4022
2.4042 -5.1311 2.4022
2.5841 -5.0376 2.4022
2.7603 -4.9377 2.4022
2.9326 -4.8314 2.4022
3.1008 -4.7190 2.4022
3.2646 -4.6006 2.4022
3.4239 -4.4764 2.4022
3.5784 -4.3465 2.4022
3.7278 -4.2112 2.4022
3.8722 -4.0707 2.4022
4.0111 -3.9250 2.4022
4.1446 -3.7746 2.4022
4.0013 -3.3899 2.2498
4.1155 -3.2406 2.2498
4.2241 -3.0874 2.2498
4.3270 -2.9305 2.2498
4.4240 -2.7701 2.2498
4.5150 -2.6065 2.2498
4.5999 -2.4398 2.2498
4.6787 -2.2704 2.2498
4.7513 -2.0984 2.2498
4.8175 -1.9241 2.2498
4.8774 -1.7477 2.2498
4.9308 -1.5694 2.2498
4.9777 -1.3896 2.2498
5.0180 -1.2083 2.2498
5.0518 -1.0259 2.2498
5.0790 -0.8426 2.2498
5.0997 -0.6587 2.2498
5.1137 -0.4743 2.2498
5.1210 -0.2898 2.2498
5.1218 -0.1053 2.2498
5.1266 0.0791 2.2545
5.1142 0.2632 2.2545
5.0953 0.4466 2.2544
5.0698 0.6290 2.2544
5.0379 0.8101 2.2543
4.9996 0.9898 2.2543
4.9549 1.1679 2.2542
4.9040 1.3441 2.2541
4.8470 1.5182 2.2540
4.7838 1.6900 2.2539
4.7147 1.8593 2.2538
4.6396 2.0259 2.2536
4.5588 2.1896 2.2535
4.4723 2.3502 2.2533
4.3803 2.5075 2.2532
4.2829 2.6613 2.2530
4.1802 2.8115 2.2528
4.0723 2.9578 2.2526
3.9595 3.1001 2.2524
3.8418 3.2383 2.2522
3.7193 3.3721 2.2520
3.5924 3.5014 2.2518
3.4611 3.6262 2.2515
3.3255 3.7461 2.2513
3.1859 3.8612 2.2510
3.0425 3.9712 2.2508
2.8953 4.0761 2.2505
2.7447 4.1757 2.2502
2.5907 4.2699 2.2500
2.4337 4.3589 2.2498
2.3426 4.5768 2.3177
0.9125 1.9538 0.9724
0.8414 1.9856 0.9726
0.7691 2.0149 0.9729
0.6959 2.0415 0.9731
0.6217 2.0655 0.9732
0.5467 2.0868 0.9734
0.4710 2.1053 0.9734
0.3946 2.1211 0.9735
0.3177 2.1342 0.9735
0.2404 2.1444 0.9734
0.1628 2.1519 0.9733
0.0849 2.1566 0.9732
0.0070 2.1584 0.9730
-0.0710 2.1575 0.9728
-0.1489 2.1537 0.9725
-0.2267 2.1471 0.9722
-0.3041 2.1377 0.9719
-0.3811 2.1255 0.9715
-0.4577 2.1105 0.9711
-0.5337 2.0928 0.9706
-0.6089 2.0723 0.9702
-0.6834 2.0492 0.9696
-0.7570 2.0234 0.9690
-0.8296 1.9949 0.9684
-0.9012 1.9638 0.9678
-2.4132 4.7944 2.4022
-2.5868 4.7081 2.4022
-2.7573 4.6156 2.4022
-2.9246 4.5172 2.4022
-3.0885 4.4128 2.4022
-3.2487 4.3026 2.4022
-3.4050 4.1868 2.4022
-3.5573 4.0654 2.4022
-3.7053 3.9386 2.4022
-3.8489 3.8065 2.4022
-3.9879 3.6693 2.4022
-4.1220 3.5272 2.4022
-4.2512 3.3802 2.4022
-4.3751 3.2287 2.4022
-4.4938 3.0726 2.4022
-4.6069 2.9123 2.4022
-4.7144 2.7479 2.4022
-4.8160 2.5796 2.4022
-4.9117 2.4076 2.4022
-5.0012 2.2321 2.4022
-5.0846 2.0534 2.4022
-5.1616 1.8716 2.4022
-5.2321 1.6869 2.4022
-5.2960 1.4997 2.4022
-5.3532 1.3101 2.4022
-5.4036 1.1184 2.4022
-5.4472 0.9247 2.4022
-5.4838 0.7294 2.4022
-5.5134 0.5327 2.4022
-5.5358 0.3349 2.4022
-5.5512 0.1362 2.4022
-5.5594 -0.0632 2.4022
-5.5603 -0.2629 2.4022
-5.5541 -0.4627 2.4022
-5.5405 -0.6624 2.4022
-5.5198 -0.8617 2.4022
-5.4917 -1.0602 2.4022
-5.4565 -1.2578 2.4022
-5.4140 -1.4542 2.4022
-5.3644 -1.6491 2.4022
-5.3076 -1.8422 2.4022
-5.2438 -2.0333 2.4022
3.6589 3.0074 2.2519
3.5452 3.1350 2.2517
3.4270 3.2586 2.2515
3.3047 3.3778 2.2512
3.1784 3.4925 2.2510
3.0481 3.6027 2.2508
2.9142 3.7082 2.2505
2.7767 3.8088 2.2503
2.6358 3.9045 2.2500
2.4918 3.9953 2.2498
2.3561 4.1007 2.2605
2.3294 4.4165 2.3874
0.8811 1.8278 0.9704
0.8145 1.8585 0.9707
0.7469 1.8869 0.9709
0.6782 1.9128 0.9711
0.6087 1.9362 0.9713
0.5383 1.9570 0.9714
0.4673 1.9754 0.9715
0.3956 1.9911 0.9716
0.3234 2.0043 0.9716
0.2507 2.0148 0.9715
0.1778 2.0227 0.9715
0.1045 2.0280 0.9713
0.0312 2.0306 0.9712
-0.0423 2.0306 0.9710
-0.1156 2.0279 0.9708
-0.1888 2.0226 0.9705
-0.2618 2.0147 0.9702
-0.3345 2.0041 0.9699
-0.4067 1.9909 0.9695
-0.4784 1.9751 0.9691
-0.5495 1.9567 0.9686
-0.6199 1.9357 0.9681
-0.6894 1.9123 0.9676
-0.7581 1.8863 0.9670
-0.8258 1.8579 0.9664
-0.8924 1.8270 0.9658
-2.3841 4.4648 2.4022
-2.5458 4.3794 2.4022
-2.7044 4.2883 2.4022
-2.8599 4.1916 2.4022
-3.0119 4.0894 2.4022
-3.1604 3.9818 2.4022
-3.3051 3.8689 2.4022
-3.4458 3.7510 2.4022
-3.5824 3.6280 2.4022
-3.7146 3.5001 2.4022
-3.8424 3.3676 2.4022
-3.9655 3.2304 2.4022
-4.0837 3.0889 2.4022
-4.1969 2.9431 2.4022
-4.3050 2.7932 2.4022
-4.4078 2.6395 2.4022
-4.5052 2.4820 2.4022
-4.5969 2.3210 2.4022
-4.6830 2.1567 2.4022
-4.7632 1.9892 2.4022
-4.8374 1.8189 2.4022
-4.9056 1.6457 2.4022
-4.9676 1.4701 2.4022
-5.0233 1.2923 2.4022
-5.0726 1.1123 2.4022
-5.1155 0.9305 2.4022
-5.1519 0.7471 2.4022
-5.1816 0.5623 2.4022
-5.2047 0.3764 2.4022
-5.2211 0.1896 2.4022
-5.2308 0.0021 2.4022
-5.2337 -0.1857 2.4022
-5.2297 -0.3738 2.4022
-5.2190 -0.5617 2.4022
-5.2015 -0.7493 2.4022
-5.1771 -0.9363 2.4022
-5.1459 -1.1225 2.4022
-5.1080 -1.3076 2.4022
-5.0633 -1.4914 2.4022
-5.0118 -1.6735 2.4022
-4.9538 -1.8538 2.4022
-4.8891 -2.0321 2.4022
-4.8180 -2.2080 2.4022
-4.7403 -2.3813 2.4022
-4.6564 -2.5518 2.4022
-4.5662 -2.7192 2.4022
-4.4698 -2.8833 2.4022
-4.3675 -3.0439 2.4022
-4.2592 -3.2007 2.4022
-4.1451 -3.3536 2.4022
-4.0255 -3.5022 2.4022
-3.9004 -3.6465 2.4022
-3.7701 -3.7861 2.4022
-3.6346 -3.9209 2.4022
-3.4941 -4.0507 2.4022
-3.3490 -4.1752 2.4022
-3.1992 -4.2944 2.4022
-3.0451 -4.4080 2.4022
-2.8869 -4.5160 2.4022
-2.7247 -4.6180 2.4022
-2.5588 -4.7140 2.4022
-2.3895 -4.8038 2.4022
-2.2169 -4.8873 2.4022
-2.0413 -4.9645 2.4022
-1.8630 -5.0350 2.4022
-1.6822 -5.0990 2.4022
-1.4991 -5.1562 2.4022
-1.3140 -5.2067 2.4022
-1.1271 -5.2502 2.4022
-0.9388 -5.2868 2.4022
-0.7493 -5.3165 2.4022
-0.5588 -5.3391 2.4022
-0.3676 -5.3546 2.4022
-0.1761 -5.3631 2.4022
0.0156 -5.3645 2.4022
0.2072 -5.3588 2.4022
0.3984 -5.3461 2.4022
0.5890 -5.3263 2.4022
0.7786 -5.2995 2.4022
0.9670 -5.2657 2.4022
1.1540 -5.2250 2.4022
1.3392 -5.1775 2.4022
1.5225 -5.1233 2.4022
1.7036 -5.0623 2.4022
1.8822 -4.9948 2.4022
2.0582 -4.9207 2.4022
2.2312 -4.8404 2.4022
2.4010 -4.7537 2.4022
2.5674 -4.6610 2.4022
2.7302 -4.5623 2.4022
2.8891 -4.4578 2.4022
3.0440 -4.3475 2.4022
3.1947 -4.2318 2.4022
3.3409 -4.1108 2.4022
3.4825 -3.9846 2.4022
3.6193 -3.8534 2.4022
3.7511 -3.7174 2.4022
3.8777 -3.5769 2.4022
3.9037 -3.3501 2.3449
3.8539 -3.0745 2.2498
3.9572 -2.9311 2.2498
4.0551 -2.7842 2.2498
4.1476 -2.6340 2.2498
4.2344 -2.4807 2.2498
4.3156 -2.3245 2.2498
4.3910 -2.1656 2.2498
4.4606 -2.0042 2.2498
4.5242 -1.8406 2.2498
4.5818 -1.6750 2.2498
4.6334 -1.5075 2.2498
4.6789 -1.3385 2.2498
4.7182 -1.1682 2.2498
4.7514 -0.9967 2.2498
4.7784 -0.8243 2.2498
4.7991 -0.6512 2.2498
4.8136 -0.4777 2.2498
4.8219 -0.3039 2.2498
4.8240 -0.1301 2.2498
4.8287 0.0436 2.2540
4.8184 0.2171 2.2539
4.8019 0.3899 2.2539
4.7792 0.5619 2.2539
4.7504 0.7327 2.2538
4.7156 0.9023 2.2538
4.6748 1.0704 2.2537
4.6281 1.2368 2.2536
4.5756 1.4012 2.2535
4.5173 1.5636 2.2534
4.4533 1.7236 2.2533
4.3838 1.8811 2.2532
4.3088 2.0359 2.2530
4.2284 2.1879 2.2529
4.1428 2.3367 2.2527
4.0520 2.4824 2.2526
3.9562 2.6246 2.2524
3.8555 2.7633 2.2522
3.7501 2.8982 2.2520
3.6400 3.0292 2.2518
3.5255 3.1562 2.2516
3.4067 3.2790 2.2514
3.2837 3.3974 2.2512
3.1567 3.5114 2.2510
3.0258 3.6208 2.2507
2.8912 3.7255 2.2505
2.7532 3.8253 2.2503
2.6117 3.9202 2.2500
2.4672 4.0101 2.2498
2.3492 4.1470 2.2783
2.3167 4.4580 2.4022
0.8700 1.8331 0.9705
0.8032 1.8635 0.9707
0.7354 1.8914 0.9710
0.6665 1.9169 0.9712
0.5969 1.9399 0.9713
0.5264 1.9603 0.9714
0.4552 1.9782 0.9715
0.3834 1.9935 0.9716
0.3111 2.0062 0.9716
0.2384 2.0163 0.9715
0.1654 2.0238 0.9714
0.0922 2.0286 0.9713
0.0188 2.0308 0.9712
-0.0546 2.0303 0.9710
-0.1280 2.0272 0.9707
-0.2012 2.0215 0.9705
-0.2741 2.0131 0.9701
-0.3467 2.0020 0.9698
-0.4189 1.9884 0.9694
-0.4905 1.9721 0.9690
-0.5614 1.9533 0.9685
-0.6317 1.9319 0.9680
-0.7011 1.9081 0.9675
-0.7696 1.8817 0.9669
-0.8371 1.8529 0.9663
-0.9035 1.8216 0.9657
-2.4116 4.4508 2.4022
-2.5728 4.3644 2.4022
-2.7309 4.2723 2.4022
-2.8858 4.1747 2.4022
-3.0372 4.0716 2.4022
-3.1851 3.9631 2.4022
-3.3291 3.8494 2.4022
-3.4691 3.7306 2.4022
-3.6050 3.6067 2.4022
-3.7365 3.4781 2.4022
-3.8635 3.3447 2.4022
-3.9858 3.2068 2.4022
-4.1032 3.0646 2.4022
-4.2156 2.9181 2.4022
-4.3228 2.7676 2.4022
-4.4246 2.6132 2.4022
-4.5211 2.4551 2.4022
-4.6119 2.2935 2.4022
-4.6969 2.1286 2.4022
-4.7761 1.9607 2.4022
-4.8494 1.7898 2.4022
-4.9165 1.6163 2.4022
-4.9774 1.4403 2.4022
-5.0321 1.2620 2.4022
-5.0803 1.0817 2.4022
-5.1221 0.8997 2.4022
-5.1573 0.7160 2.4022
-5.1860 0.5310 2.4022
-5.2080 0.3450 2.4022
-5.2232 0.1580 2.4022
-5.2317 -0.0295 2.4022
-5.2335 -0.2174 2.4022
-5.2284 -0.4055 2.4022
-5.2165 -0.5934 2.4022
-5.1978 -0.7809 2.4022
-5.1723 -0.9678 2.4022
-5.1400 -1.1538 2.4022
-5.1009 -1.3387 2.4022
-5.0550 -1.5222 2.4022
-5.0025 -1.7041 2.4022
-4.9433 -1.8841 2.4022
-4.8776 -2.0619 2.4022
-4.8053 -2.2374 2.4022
-4.7266 -2.4103 2.4022
-4.6416 -2.5802 2.4022
-4.5503 -2.7471 2.4022
-4.4530 -2.9107 2.4022
-4.3496 -3.0706 2.4022
-4.2403 -3.2268 2.4022
-4.1253 -3.3790 2.4022
-4.0048 -3.5269 2.4022
-3.8788 -3.6704 2.4022
-3.7476 -3.8092 2.4022
-3.6112 -3.9431 2.4022
-3.4700 -4.0720 2.4022
-3.3240 -4.1957 2.4022
-3.1735 -4.3140 2.4022
-3.0187 -4.4267 2.4022
-2.8598 -4.5336 2.4022
-2.6970 -4.6346 2.4022
-2.5305 -4.7296 2.4022
-2.3606 -4.8183 2.4022
-2.1875 -4.9008 2.4022
-2.0114 -4.9768 2.4022
-1.8327 -5.0463 2.4022
-1.6514 -5.1091 2.4022
-1.4680 -5.1652 2.4022
-1.2825 -5.2145 2.4022
-1.0954 -5.2569 2.4022
-0.9069 -5.2923 2.4022
-0.7172 -5.3208 2.4022
-0.5266 -5.3422 2.4022
-0.3353 -5.3565 2.4022
-0.1437 -5.3638 2.4022
0.0480 -5.3640 2.4022
0.2395 -5.3571 2.4022
0.4306 -5.3432 2.4022
0.6210 -5.3222 2.4022
0.8105 -5.2943 2.4022
0.9986 -5.2593 2.4022
1.1853 -5.2175 2.4022
1.3703 -5.1688 2.4022
1.5532 -5.1134 2.4022
1.7339 -5.0514 2.4022
1.9121 -4.9827 2.4022
2.0876 -4.9076 2.4022
2.2600 -4.8262 2.4022
2.4293 -4.7385 2.4022
2.5951 -4.6448 2.4022
2.7573 -4.5450 2.4022
2.9156 -4.4395 2.4022
3.0698 -4.3284 2.4022
3.2197 -4.2118 2.4022
3.3651 -4.0898 2.4022
3.5059 -3.9628 2.4022
3.6419 -3.8308 2.4022
3.7728 -3.6940 2.4022
3.8986 -3.5527 2.4022
3.7817 -3.2058 2.2604
3.8717 -3.0506 2.2498
3.9741 -2.9066 2.2498
4.0711 -2.7591 2.2498
4.1626 -2.6083 2.2498
4.2485 -2.4545 2.2498
4.3287 -2.2978 2.2498
4.4032 -2.1385 2.2498
4.4717 -1.9767 2.2498
4.5343 -1.8128 2.2498
4.5910 -1.6468 2.2498
4.6415 -1.4791 2.2498
4.6860 -1.3099 2.2498
4.7243 -1.1393 2.2498
4.7564 -0.9676 2.2498
4.7823 -0.7951 2.2498
4.8020 -0.6219 2.2498
4.8155 -0.4483 2.2498
4.8227 -0.2745 2.2498
4.8238 -0.1008 2.2498
4.8274 0.0729 2.2540
4.8160 0.2463 2.2539
4.7985 0.4190 2.2539
4.7748 0.5908 2.2539
4.7450 0.7614 2.2538
4.7092 0.9308 2.2537
4.6674 1.0986 2.2537
4.6197 1.2647 2.2536
4.5662 1.4288 2.2535
4.5069 1.5907 2.2534
4.4420 1.7503 2.2533
4.3715 1.9074 2.2531
4.2956 2.0618 2.2530
4.2143 2.2132 2.2529
4.1278 2.3615 2.2527
4.0362 2.5066 2.2525
3.9395 2.6483 2.2524
3.8380 2.7863 2.2522
3.7318 2.9206 2.2520
3.6210 3.0509 2.2518
3.5058 3.1772 2.2516
3.3862 3.2993 2.2514
3.2625 3.4170 2.2512
3.1349 3.5302 2.2509
3.0034 3.6388 2.2507
2.8682 3.7427 2.2505
2.7295 3.8417 2.2502
2.5876 3.9357 2.2500
2.4426 4.0249 2.2498
2.3454 4.1998 2.2995
2.2893 4.4718 2.4022
0.8588 1.8384 0.9705
0.7918 1.8684 0.9708
0.7238 1.8959 0.9710
0.6549 1.9209 0.9712
0.5850 1.9435 0.9714
0.5144 1.9635 0.9715
0.4431 1.9810 0.9715
0.3713 1.9959 0.9716
0.2989 2.0081 0.9716
0.2261 2.0178 0.9715
0.1531 2.0248 0.9714
0.0798 2.0292 0.9713
0.0064 2.0309 0.9711
-0.0670 2.0300 0.9709
-0.1404 2.0264 0.9707
-0.2135 2.0202 0.9704
-0.2864 2.0114 0.9701
-0.3589 1.9999 0.9697
-0.4310 1.9858 0.9693
-0.5025 1.9691 0.9689
-0.5733 1.9499 0.9684
-0.6434 1.9281 0.9679
-0.7127 1.9038 0.9674
-0.7811 1.8770 0.9668
-0.8484 1.8478 0.9662
-0.9146 1.8161 0.9656
-2.4390 4.4366 2.4022
-2.5997 4.3493 2.4022
-2.7572 4.2563 2.4022
-2.9116 4.1577 2.4022
-3.0624 4.0537 2.4022
-3.2096 3.9443 2.4022
-3.3530 3.8297 2.4022
-3.4923 3.7100 2.4022
-3.6275 3.5854 2.4022
-3.7582 3.4559 2.4022
-3.8844 3.3218 2.4022
-4.0059 3.1831 2.4022
-4.1225 3.0402 2.4022
-4.2340 2.8930 2.4022
-4.3403 2.7418 2.4022
-4.4413 2.5867 2.4022
-4.5368 2.4281 2.4022
-4.6266 2.2659 2.4022
-4.7107 2.1005 2.4022
-4.7889 1.9321 2.4022
-4.8611 1.7607 2.4022
-4.9272 1.5868 2.4022
-4.9871 1.4104 2.4022
-5.0406 1.2317 2.4022
-5.0878 1.0511 2.4022
-5.1285 0.8688 2.4022
-5.1626 0.6849 2.4022
-5.1902 0.4997 2.4022
-5.2110 0.3135 2.4022
-5.2251 0.1264 2.4022
-5.2325 -0.0612 2.4022
-5.2331 -0.2492 2.4022
-5.2269 -0.4372 2.4022
-5.2138 -0.6251 2.4022
-5.1940 -0.8125 2.4022
-5.1673 -0.9993 2.4022
-5.1339 -1.1851 2.4022
-5.0936 -1.3698 2.4022
-5.0467 -1.5530 2.4022
-4.9930 -1.7346 2.4022
-4.9327 -1.9142 2.4022
3.4561 2.8394 2.2515
3.3487 2.9601 2.2513
3.2373 3.0769 2.2511
3.1218 3.1896 2.2509
3.0025 3.2981 2.2507
2.8796 3.4023 2.2505
2.7531 3.5021 2.2503
2.6233 3.5973 2.2500
2.4903 3.6879 2.2498
2.3605 3.7837 2.2556
2.3324 4.0584 2.3683
0.8929 1.6925 0.9685
0.8311 1.7237 0.9688
0.7683 1.7528 0.9690
0.7045 1.7795 0.9693
0.6397 1.8039 0.9694
0.5741 1.8260 0.9696
0.5077 1.8457 0.9697
0.4407 1.8629 0.9698
0.3730 1.8778 0.9698
0.3049 1.8902 0.9698
0.2364 1.9001 0.9698
0.1675 1.9076 0.9697
0.0985 1.9126 0.9696
0.0292 1.9150 0.9695
-0.0400 1.9150 0.9693
-0.1092 1.9125 0.9691
-0.1783 1.9075 0.9688
-0.2472 1.9000 0.9686
-0.3157 1.8900 0.9682
-0.3839 1.8775 0.9679
-0.4515 1.8626 0.9675
-0.5186 1.8453 0.9670
-0.5849 1.8255 0.9666
-0.6506 1.8034 0.9661
-0.7154 1.7789 0.9656
-0.7792 1.7521 0.9650
-0.8421 1.7230 0.9644
-0.9038 1.6916 0.9638
-2.4054 4.1356 2.4022
-2.5552 4.0493 2.4022
-2.7019 3.9578 2.4022
-2.8454 3.8611 2.4022
-2.9855 3.7594 2.4022
-3.1221 3.6526 2.4022
-3.2549 3.5410 2.4022
-3.3837 3.4247 2.4022
-3.5084 3.3038 2.4022
-3.6289 3.1784 2.4022
-3.7450 3.0488 2.4022
-3.8564 2.9150 2.4022
-3.9632 2.7772 2.4022
-4.0650 2.6355 2.4022
-4.1618 2.4902 2.4022
-4.2535 2.3415 2.4022
-4.3399 2.1894 2.4022
-4.4209 2.0341 2.4022
-4.4964 1.8759 2.4022
-4.5662 1.7150 2.4022
-4.6303 1.5516 2.4022
-4.6885 1.3857 2.4022
-4.7408 1.2178 2.4022
-4.7871 1.0479 2.4022
-4.8273 0.8763 2.4022
-4.8613 0.7032 2.4022
-4.8891 0.5288 2.4022
-4.9106 0.3534 2.4022
-4.9258 0.1772 2.4022
-4.9347 0.0003 2.4022
-4.9371 -0.1769 2.4022
-4.9332 -0.3542 2.4022
-4.9228 -0.5315 2.4022
-4.9059 -0.7084 2.4022
-4.8827 -0.8847 2.4022
-4.8530 -1.0603 2.4022
-4.8170 -1.2347 2.4022
-4.7746 -1.4079 2.4022
-4.7259 -1.5796 2.4022
-4.6709 -1.7496 2.4022
-4.6098 -1.9175 2.4022
-4.5425 -2.0832 2.4022
-4.4691 -2.2465 2.4022
-4.3897 -2.4071 2.4022
-4.3045 -2.5649 2.4022
-4.2135 -2.7194 2.4022
-4.1169 -2.8707 2.4022
-4.0147 -3.0184 2.4022
-3.9071 -3.1623 2.4022
-3.7942 -3.3023 2.4022
-3.6762 -3.4381 2.4022
-3.5532 -3.5696 2.4022
-3.4254 -3.6965 2.4022
-3.2930 -3.8187 2.4022
-3.1561 -3.9360 2.4022
-3.0149 -4.0482 2.4022
-2.8697 -4.1552 2.4022
-2.7205 -4.2568 2.4022
-2.5677 -4.3528 2.4022
-2.4113 -4.4432 2.4022
-2.2518 -4.5278 2.4022
-2.0891 -4.6064 2.4022
-1.9237 -4.6790 2.4022
-1.7556 -4.7455 2.4022
-1.5853 -4.8057 2.4022
-1.4127 -4.8596 2.4022
-1.2383 -4.9071 2.4022
-1.0623 -4.9482 2.4022
-0.8849 -4.9827 2.4022
-0.7063 -5.0106 2.4022
-0.5269 -5.0320 2.4022
-0.3468 -5.0466 2.4022
-0.1663 -5.0547 2.4022
0.0143 -5.0561 2.4022
0.1948 -5.0508 2.4022
0.3750 -5.0389 2.4022
0.5545 -5.0203 2.4022
0.7332 -4.9952 2.4022
0.9107 -4.9635 2.4022
1.0869 -4.9253 2.4022
1.2616 -4.8806 2.4022
1.4343 -4.8296 2.4022
1.6050 -4.7723 2.4022
1.7734 -4.7088 2.4022
1.9393 -4.6392 2.4022
2.1024 -4.5637 2.4022
2.2625 -4.4822 2.4022
2.4195 -4.3949 2.4022
2.5730 -4.3021 2.4022
2.7230 -4.2037 2.4022
2.8691 -4.1000 2.4022
3.0113 -3.9911 2.4022
3.1492 -3.8772 2.4022
3.2829 -3.7584 2.4022
3.4120 -3.6349 2.4022
3.5364 -3.5068 2.4022
3.6560 -3.3745 2.4022
3.7706 -3.2380 2.4022
3.6339 -2.9010 2.2498
3.7315 -2.7659 2.2498
3.8241 -2.6275 2.2498
3.9115 -2.4860 2.2498
3.9937 -2.3415 2.2498
4.0705 -2.1942 2.2498
4.1418 -2.0444 2.2498
4.2077 -1.8923 2.2498
4.2679 -1.7381 2.2498
4.3226 -1.5819 2.2498
4.3715 -1.4240 2.2498
4.4146 -1.2646 2.2498
4.4520 -1.1039 2.2498
4.4836 -0.9422 2.2498
4.5093 -0.7795 2.2498
4.5291 -0.6162 2.2498
4.5431 -0.4524 2.2498
4.5511 -0.2884 2.2498
4.5534 -0.1244 2.2498
4.5571 0.0396 2.2535
4.5476 0.2033 2.2535
4.5322 0.3664 2.2534
4.5110 0.5288 2.2534
4.4841 0.6901 2.2533
4.4515 0.8503 2.2533
4.4132 1.0090 2.2532
4.3694 1.1661 2.2531
4.3200 1.3215 2.2531
4.2651 1.4748 2.2530
4.2049 1.6260 2.2528
4.1395 1.7748 2.2527
4.0688 1.9211 2.2526
3.9931 2.0647 2.2525
3.9124 2.2054 2.2523
3.8268 2.3431 2.2522
3.7365 2.4775 2.2520
3.6415 2.6086 2.2518
3.5421 2.7362 2.2517
3.4383 2.8600 2.2515
3.3302 2.9801 2.2513
3.2181 3.0962 2.2511
3.1020 3.2082 2.2509
2.9820 3.3160 2.2507
2.8585 3.4195 2.2504
2.7314 3.5185 2.2502
2.6010 3.6129 2.2500
2.4676 3.7028 2.2498
2.3505 3.8195 2.2684
2.3285 4.1095 2.3899
0.8825 1.6979 0.9685
0.8206 1.7288 0.9688
0.7576 1.7574 0.9691
0.6936 1.7838 0.9693
0.6287 1.8078 0.9695
0.5629 1.8295 0.9696
0.4964 1.8487 0.9697
0.4293 1.8656 0.9698
0.3616 1.8801 0.9698
0.2934 1.8920 0.9698
0.2248 1.9016 0.9698
0.1559 1.9086 0.9697
0.0868 1.9132 0.9696
0.0176 1.9152 0.9695
-0.0517 1.9148 0.9693
-0.1209 1.9118 0.9691
-0.1900 1.9064 0.9688
-0.2588 1.8984 0.9685
-0.3272 1.8880 0.9682
-0.3953 1.8752 0.9678
-0.4629 1.8598 0.9674
-0.5298 1.8421 0.9670
-0.5961 1.8219 0.9665
-0.6616 1.7994 0.9660
-0.7262 1.7745 0.9655
-0.7899 1.7473 0.9649
-0.8526 1.7179 0.9643
-0.9141 1.6861 0.9637
-2.4309 4.1214 2.4022
-2.5802 4.0343 2.4022
-2.7264 3.9419 2.4022
-2.8693 3.8443 2.4022
-3.0088 3.7417 2.4022
-3.1448 3.6341 2.4022
-3.2769 3.5217 2.4022
-3.4050 3.4046 2.4022
-3.5291 3.2830 2.4022
-3.6488 3.1569 2.4022
-3.7641 3.0265 2.4022
-3.8748 2.8920 2.4022
-3.9807 2.7535 2.4022
-4.0817 2.6113 2.4022
-4.1777 2.4654 2.4022
-4.2685 2.3160 2.4022
-4.3540 2.1634 2.4022
-4.4340 2.0076 2.4022
-4.5085 1.8490 2.4022
-4.5774 1.6876 2.4022
-4.6405 1.5237 2.4022
-4.6977 1.3575 2.4022
-4.7490 1.1892 2.4022
-4.7943 1.0191 2.4022
-4.8335 0.8472 2.4022
-4.8664 0.6739 2.4022
-4.8932 0.4993 2.4022
-4.9136 0.3237 2.4022
-4.9278 0.1474 2.4022
-4.9355 -0.0296 2.4022
-4.9369 -0.2068 2.4022
-4.9319 -0.3842 2.4022
-4.9204 -0.5614 2.4022
-4.9025 -0.7382 2.4022
-4.8781 -0.9144 2.4022
-4.8474 -1.0898 2.4022
-4.8103 -1.2641 2.4022
-4.7668 -1.4370 2.4022
-4.7171 -1.6084 2.4022
-4.6611 -1.7780 2.4022
-4.5988 -1.9456 2.4022
-4.5305 -2.1110 2.4022
-4.4561 -2.2738 2.4022
-4.3758 -2.4340 2.4022
-4.2896 -2.5912 2.4022
-4.1976 -2.7452 2.4022
-4.1000 -2.8959 2.4022
-3.9969 -3.0430 2.4022
-3.8884 -3.1863 2.4022
-3.7746 -3.3255 2.4022
-3.6558 -3.4606 2.4022
-3.5319 -3.5913 2.4022
-3.4034 -3.7175 2.4022
-3.2702 -3.8388 2.4022
-3.1326 -3.9553 2.4022
-2.9907 -4.0666 2.4022
-2.8448 -4.1727 2.4022
-2.6950 -4.2734 2.4022
-2.5415 -4.3685 2.4022
-2.3846 -4.4579 2.4022
-2.2245 -4.5415 2.4022
-2.0614 -4.6191 2.4022
-1.8955 -4.6907 2.4022
-1.7271 -4.7561 2.4022
-1.5563 -4.8153 2.4022
-1.3834 -4.8681 2.4022
-1.2088 -4.9145 2.4022
-1.0325 -4.9545 2.4022
-0.8548 -4.9879 2.4022
-0.6761 -5.0147 2.4022
-0.4965 -5.0349 2.4022
-0.3164 -5.0485 2.4022
-0.1358 -5.0554 2.4022
0.0448 -5.0556 2.4022
0.2253 -5.0492 2.4022
0.4053 -5.0362 2.4022
0.5847 -5.0165 2.4022
0.7632 -4.9903 2.4022
0.9406 -4.9575 2.4022
1.1165 -4.9182 2.4022
1.2908 -4.8725 2.4022
1.4633 -4.8204 2.4022
1.6336 -4.7621 2.4022
1.8016 -4.6975 2.4022
1.9670 -4.6269 2.4022
2.1296 -4.5503 2.4022
2.2892 -4.4679 2.4022
2.4456 -4.3797 2.4022
2.5986 -4.2859 2.4022
2.7479 -4.1866 2.4022
2.8934 -4.0820 2.4022
3.0348 -3.9722 2.4022
3.1721 -3.8575 2.4022
3.3050 -3.7378 2.4022
3.4333 -3.6136 2.4022
3.5569 -3.4848 2.4022
3.6757 -3.3517 2.4022
3.6582 -3.1032 2.3190
3.6508 -2.8784 2.2498
3.7475 -2.7428 2.2498
3.8392 -2.6038 2.2498
3.9257 -2.4618 2.2498
4.0070 -2.3168 2.2498
4.0829 -2.1691 2.2498
4.1533 -2.0189 2.2498
4.2182 -1.8665 2.2498
4.2776 -1.7119 2.2498
4.3312 -1.5554 2.2498
4.3792 -1.3972 2.2498
4.4213 -1.2376 2.2498
4.4577 -1.0767 2.2498
4.4883 -0.9148 2.2498
4.5130 -0.7520 2.2498
4.5319 -0.5886 2.2498
4.5448 -0.4248 2.2498
4.5519 -0.2607 2.2498
4.5532 -0.0967 2.2498
4.5559 0.0672 2.2535
4.5454 0.2309 2.2535
4.5290 0.3939 2.2534
4.5069 0.5561 2.2534
4.4790 0.7172 2.2533
4.4454 0.8772 2.2533
4.4062 1.0356 2.2532
4.3614 1.1925 2.2531
4.3111 1.3475 2.2530
4.2553 1.5005 2.2529
4.1943 1.6513 2.2528
4.1279 1.7997 2.2527
4.0564 1.9456 2.2526
3.9798 2.0887 2.2524
3.8983 2.2289 2.2523
3.8119 2.3660 2.2521
3.7208 2.4999 2.2520
3.6251 2.6304 2.2518
3.5249 2.7573 2.2516
3.4203 2.8806 2.2514
3.3116 3.0000 2.2513
3.1987 3.1154 2.2511
3.0820 3.2267 2.2508
2.9614 3.3338 2.2506
2.8373 3.4365 2.2504
2.7097 3.5347 2.2502
2.5787 3.6284 2.2499
2.4448 3.7175 2.2498
2.3470 3.8664 2.2879
2.3151 4.1447 2.4022
0.8722 1.7033 0.9686
0.8101 1.7338 0.9689
0.7469 1.7620 0.9691
0.6827 1.7880 0.9693
0.6176 1.8116 0.9695
0.5518 1.8329 0.9696
0.4852 1.8518 0.9697
0.4179 1.8682 0.9698
0.3501 1.8823 0.9698
0.2818 1.8938 0.9698
0.2132 1.9029 0.9698
0.1442 1.9096 0.9697
0.0751 1.9137 0.9696
0.0059 1.9153 0.9694
-0.0634 1.9144 0.9692
-0.1326 1.9111 0.9690
-0.2016 1.9052 0.9688
-0.2703 1.8969 0.9685
-0.3388 1.8860 0.9681
-0.4067 1.8727 0.9677
-0.4742 1.8570 0.9673
-0.5410 1.8389 0.9669
-0.6072 1.8183 0.9664
-0.6725 1.7954 0.9659
-0.7370 1.7701 0.9654
-0.8006 1.7425 0.9648
-0.8630 1.7127 0.9642
-2.3046 4.1897 2.4022
-2.4563 4.1071 2.4022
-2.6051 4.0190 2.4022
-2.7507 3.9258 2.4022
-2.8931 3.8273 2.4022
-3.0320 3.7239 2.4022
-3.1673 3.6155 2.4022
-3.2988 3.5023 2.4022
-3.4263 3.3844 2.4022
-3.5496 3.2620 2.4022
-3.6686 3.1352 2.4022
-3.7831 3.0041 2.4022
-3.8930 2.8689 2.4022
-3.9981 2.7298 2.4022
-4.0983 2.5869 2.4022
-4.1934 2.4404 2.4022
-4.2833 2.2905 2.4022
-4.3679 2.1373 2.4022
-4.4470 1.9811 2.4022
-4.5206 1.8219 2.4022
-4.5885 1.6601 2.4022
-4.6506 1.4959 2.4022
-4.7068 1.3293 2.4022
-4.7571 1.1607 2.4022
-4.8013 0.9902 2.4022
-4.8395 0.8180 2.4022
-4.8714 0.6445 2.4022
-4.8971 0.4697 2.4022
-4.9165 0.2940 2.4022
-4.9295 0.1175 2.4022
-4.9362 -0.0594 2.4022
-4.9365 -0.2367 2.4022
-4.9304 -0.4141 2.4022
-4.9178 -0.5912 2.4022
-4.8988 -0.7680 2.4022
-4.8734 -0.9441 2.4022
-4.8416 -1.1193 2.4022
-4.8034 -1.2933 2.4022
-4.7589 -1.4661 2.4022
-4.7081 -1.6372 2.4022
-4.6510 -1.8065 2.4022
3.2707 2.6859 2.2512
3.1692 2.8002 2.2510
3.0638 2.9109 2.2508
2.9546 3.0176 2.2506
2.8418 3.1204 2.2504
2.7255 3.2192 2.2502
2.6058 3.3137 2.2500
2.4830 3.4040 2.2498
2.3617 3.4966 2.2540
2.3341 3.7406 2.3562
0.9012 1.5677 0.9667
0.8439 1.5994 0.9670
0.7856 1.6289 0.9673
0.7262 1.6563 0.9675
0.6658 1.6816 0.9677
0.6046 1.7046 0.9679
0.5425 1.7255 0.9680
0.4798 1.7441 0.9682
0.4164 1.7604 0.9682
0.3525 1.7745 0.9683
0.2881 1.7862 0.9683
0.2233 1.7956 0.9682
0.1582 1.8026 0.9682
0.0929 1.8073 0.9681
0.0275 1.8097 0.9679
-0.0380 1.8096 0.9678
-0.1034 1.8072 0.9676
-0.1687 1.8025 0.9673
-0.2338 1.7954 0.9671
-0.2986 1.7859 0.9667
-0.3630 1.7742 0.9664
-0.4270 1.7601 0.9660
-0.4903 1.7437 0.9656
-0.5531 1.7250 0.9652
-0.6152 1.7041 0.9647
-0.6764 1.6809 0.9642
-0.7368 1.6556 0.9637
-0.7962 1.6281 0.9631
-0.8546 1.5985 0.9626
-0.9118 1.5668 0.9619
-2.4188 3.8309 2.4022
-2.5576 3.7442 2.4022
-2.6933 3.6525 2.4022
-2.8258 3.5561 2.4022
-2.9549 3.4549 2.4022
-3.0804 3.3492 2.4022
-3.2022 3.2390 2.4022
-3.3201 3.1244 2.4022
-3.4339 3.0057 2.4022
-3.5436 2.8829 2.4022
-3.6488 2.7562 2.4022
-3.7496 2.6257 2.4022
-3.8458 2.4916 2.4022
-3.9372 2.3540 2.4022
-4.0238 2.2131 2.4022
-4.1053 2.0692 2.4022
-4.1817 1.9222 2.4022
-4.2528 1.7725 2.4022
-4.3187 1.6203 2.4022
-4.3790 1.4656 2.4022
-4.4339 1.3087 2.4022
-4.4831 1.1499 2.4022
-4.5266 0.9892 2.4022
-4.5644 0.8269 2.4022
-4.5964 0.6632 2.4022
-4.6224 0.4983 2.4022
-4.6425 0.3325 2.4022
-4.6566 0.1658 2.4022
-4.6648 -0.0013 2.4022
-4.6668 -0.1688 2.4022
-4.6629 -0.3364 2.4022
-4.6528 -0.5039 2.4022
-4.6367 -0.6711 2.4022
-4.6145 -0.8377 2.4022
-4.5863 -1.0035 2.4022
-4.5520 -1.1684 2.4022
-4.5117 -1.3320 2.4022
-4.4655 -1.4941 2.4022
-4.4134 -1.6546 2.4022
-4.3554 -1.8132 2.4022
-4.2916 -1.9697 2.4022
-4.2221 -2.1238 2.4022
-4.1470 -2.2755 2.4022
-4.0663 -2.4244 2.4022
-3.9802 -2.5703 2.4022
-3.8888 -2.7131 2.4022
-3.7922 -2.8525 2.4022
-3.6904 -2.9883 2.4022
-3.5837 -3.1204 2.4022
-3.4721 -3.2486 2.4022
-3.3559 -3.3727 2.4022
-3.2351 -3.4924 2.4022
-3.1100 -3.6077 2.4022
-2.9806 -3.7184 2.4022
-2.8473 -3.8242 2.4022
-2.7101 -3.9252 2.4022
-2.5692 -4.0210 2.4022
-2.4248 -4.1116 2.4022
-2.2772 -4.1969 2.4022
-2.1265 -4.2767 2.4022
-1.9729 -4.3509 2.4022
-1.8167 -4.4195 2.4022
-1.6580 -4.4822 2.4022
-1.4971 -4.5390 2.4022
-1.3342 -4.5899 2.4022
-1.1696 -4.6347 2.4022
-1.0034 -4.6735 2.4022
-0.8359 -4.7061 2.4022
-0.6673 -4.7325 2.4022
-0.4979 -4.7527 2.4022
-0.3278 -4.7666 2.4022
-0.1574 -4.7742 2.4022
0.0131 -4.7756 2.4022
0.1836 -4.7706 2.4022
0.3537 -4.7595 2.4022
0.5232 -4.7420 2.4022
0.6919 -4.7184 2.4022
0.8596 -4.6885 2.4022
1.0260 -4.6526 2.4022
1.1909 -4.6105 2.4022
1.3541 -4.5625 2.4022
1.5153 -4.5085 2.4022
1.6744 -4.4487 2.4022
1.8311 -4.3831 2.4022
1.9852 -4.3118 2.4022
2.1365 -4.2350 2.4022
2.2848 -4.1528 2.4022
2.4300 -4.0652 2.4022
2.5717 -3.9725 2.4022
2.7098 -3.8747 2.4022
2.8442 -3.7719 2.4022
2.9747 -3.6645 2.4022
3.1011 -3.5524 2.4022
3.2232 -3.4358 2.4022
3.3409 -3.3150 2.4022
3.4541 -3.1901 2.4022
3.5625 -3.0613 2.4022
3.4336 -2.7429 2.2498
3.5260 -2.6154 2.2498
3.6136 -2.4847 2.2498
3.6964 -2.3510 2.2498
3.7742 -2.2146 2.2498
3.8470 -2.0755 2.2498
3.9147 -1.9341 2.2498
3.9771 -1.7904 2.2498
4.0343 -1.6446 2.2498
4.0861 -1.4971 2.2498
4.1326 -1.3479 2.2498
4.1736 -1.1972 2.2498
4.2092 -1.0454 2.2498
4.2392 -0.8924 2.2498
4.2637 -0.7387 2.2498
4.2827 -0.5843 2.2498
4.2961 -0.4294 2.2498
4.3040 -0.2743 2.2498
4.3063 -0.1192 2.2498
4.3092 0.0359 2.2530
4.3004 0.1907 2.2530
4.2861 0.3450 2.2530
4.2663 0.4986 2.2530
4.2410 0.6513 2.2529
4.2104 0.8028 2.2529
