ply
format ascii 1.0
element vertex 2183
property float32 x
property float32 y
property float32 z
end_header
5.8417 0.2985 2.2424
5.5427 0.4833 2.1335
5.5533 0.6859 2.1462
5.5641 0.8912 2.1619
5.7329 1.1307 2.2424
5.6871 1.3355 2.2424
5.6341 1.5385 2.2424
5.5738 1.7395 2.2424
5.5062 1.9380 2.2423
5.4313 2.1339 2.2422
5.3495 2.3269 2.2420
5.2608 2.5168 2.2418
5.1654 2.7033 2.2417
5.0633 2.8862 2.2415
4.9548 3.0652 2.2413
4.8400 3.2402 2.2410
4.7189 3.4109 2.2408
4.5919 3.5772 2.2406
4.4590 3.7387 2.2403
4.3205 3.8952 2.2401
4.1764 4.0467 2.2398
4.0271 4.1929 2.2395
3.8726 4.3336 2.2392
3.7133 4.4686 2.2389
3.5493 4.5978 2.2386
3.3808 4.7210 2.2383
3.2080 4.8380 2.2380
3.0312 4.9487 2.2377
2.8506 5.0531 2.2373
2.6665 5.1510 2.2371
2.5346 5.3597 2.2869
2.4451 5.6910 2.3895
0.8914 2.2992 0.9514
0.8082 2.3300 0.9516
0.7241 2.3577 0.9517
0.6389 2.3824 0.9519
0.5529 2.4041 0.9520
0.4662 2.4226 0.9521
0.3788 2.4379 0.9522
0.2910 2.4501 0.9523
0.2028 2.4592 0.9524
0.1142 2.4650 0.9525
0.0256 2.4676 0.9525
-0.0631 2.4670 0.9526
-0.1518 2.4633 0.9526
-0.2402 2.4563 0.9526
-0.3283 2.4461 0.9526
-0.4160 2.4328 0.9526
-0.5032 2.4163 0.9525
-0.5897 2.3966 0.9525
-0.6755 2.3739 0.9524
-0.7604 2.3480 0.9523
-0.8442 2.3192 0.9522
-2.3265 5.7401 2.3895
-2.5315 5.6534 2.3895
-2.7334 5.5594 2.3895
-2.9317 5.4582 2.3895
-3.1264 5.3500 2.3895
-3.3171 5.2349 2.3895
-3.5035 5.1130 2.3895
-3.6856 4.9846 2.3895
-3.8629 4.8497 2.3895
-4.0354 4.7085 2.3895
-4.2027 4.5613 2.3895
-4.3646 4.4081 2.3895
-4.5210 4.2492 2.3895
-4.6717 4.0848 2.3895
-4.8164 3.9151 2.3895
-4.9550 3.7403 2.3895
-5.0872 3.5606 2.3895
-5.2130 3.3763 2.3895
-5.3321 3.1875 2.3895
-5.4444 2.9946 2.3895
-5.5497 2.7977 2.3895
-5.6479 2.5972 2.3895
-5.7389 2.3932 2.3895
-5.8226 2.1860 2.3895
-5.8988 1.9759 2.3895
-5.9674 1.7632 2.3895
-6.0284 1.5481 2.3895
-6.0817 1.3310 2.3895
-6.1271 1.1120 2.3895
-6.1647 0.8914 2.3895
-6.1943 0.6697 2.3895
-6.2160 0.4469 2.3895
-6.2296 0.2234 2.3895
-6.2353 -0.0004 2.3895
-6.2328 -0.2244 2.3895
-6.2224 -0.4481 2.3895
-6.2039 -0.6714 2.3895
-6.1774 -0.8940 2.3895
-6.1429 -1.1155 2.3895
-6.1004 -1.3356 2.3895
-6.0501 -1.5541 2.3895
-5.9919 -1.7708 2.3895
-5.9259 -1.9852 2.3895
-5.8523 -2.1972 2.3895
-5.7710 -2.4064 2.3895
-5.6823 -2.6127 2.3895
-5.5862 -2.8156 2.3895
-5.4828 -3.0150 2.3895
-5.3722 -3.2106 2.3895
-5.2547 -3.4020 2.3895
-5.1303 -3.5892 2.3895
-4.9993 -3.7718 2.3895
-4.8617 -3.9496 2.3895
-4.7178 -4.1224 2.3895
-4.5677 -4.2898 2.3895
-4.4116 -4.4518 2.3895
-4.2498 -4.6081 2.3895
-4.0824 -4.7584 2.3895
-3.9097 -4.9027 2.3895
-3.7318 -5.0406 2.3895
-3.5491 -5.1720 2.3895
-3.3617 -5.2968 2.3895
-3.1699 -5.4148 2.3895
-2.9740 -5.5257 2.3895
-2.7742 -5.6295 2.3895
-2.5707 -5.7261 2.3895
-2.3639 -5.8152 2.3895
-2.1539 -5.8968 2.3895
-1.9411 -5.9708 2.3895
-1.7258 -6.0371 2.3895
-1.5082 -6.0955 2.3895
-1.2886 -6.1461 2.3895
-1.0674 -6.1886 2.3895
-0.8447 -6.2232 2.3895
-0.6209 -6.2497 2.3895
-0.3963 -6.2681 2.3895
-0.1712 -6.2783 2.3895
0.0542 -6.2804 2.3895
0.2794 -6.2744 2.3895
0.5043 -6.2602 2.3895
0.7286 -6.2380 2.3895
0.9519 -6.2076 2.3895
1.1739 -6.1692 2.3895
1.3944 -6.1228 2.3895
1.6131 -6.0684 2.3895
1.8296 -6.0062 2.3895
2.0437 -5.9362 2.3895
2.2552 -5.8586 2.3895
2.4637 -5.7733 2.3895
2.6689 -5.6806 2.3895
2.8707 -5.5805 2.3895
2.8730 -5.1242 2.2371
3.0546 -5.0171 2.2371
3.2322 -4.9036 2.2371
3.4055 -4.7838 2.2371
3.5744 -4.6578 2.2371
3.7387 -4.5258 2.2371
3.8980 -4.3880 2.2371
4.0522 -4.2445 2.2371
4.2011 -4.0956 2.2371
4.3446 -3.9415 2.2371
4.4824 -3.7823 2.2371
4.6143 -3.6183 2.2371
4.7402 -3.4496 2.2371
4.8599 -3.2766 2.2371
4.9733 -3.0994 2.2371
5.0802 -2.9182 2.2371
6.2281 -3.2862 2.6895
5.2864 -2.5511 2.2423
5.3735 -2.3592 2.2424
5.4534 -2.1643 2.2424
5.5262 -1.9667 2.2424
5.5919 -1.7666 2.2424
5.6503 -1.5643 2.2424
5.7013 -1.3601 2.2424
5.7450 -1.1543 2.2424
5.7813 -0.9470 2.2424
5.8101 -0.7387 2.2424
5.8313 -0.5294 2.2424
5.8451 -0.3196 2.2424
5.8513 -0.1095 2.2424
5.8499 0.1006 2.2424
5.8410 0.3105 2.2424
5.5433 0.4948 2.1341
5.5539 0.6976 2.1470
5.5647 0.9030 2.1629
5.7304 1.1425 2.2424
5.6843 1.3472 2.2424
5.6308 1.5501 2.2424
5.5701 1.7509 2.2424
5.5021 1.9493 2.2423
5.4268 2.1450 2.2422
5.3446 2.3378 2.2420
5.2555 2.5275 2.2418
5.1597 2.7138 2.2416
5.0573 2.8965 2.2415
4.9484 3.0754 2.2412
4.8332 3.2501 2.2410
4.7118 3.4206 2.2408
4.5844 3.5866 2.2406
4.4512 3.7478 2.2403
4.3123 3.9041 2.2400
4.1680 4.0552 2.2398
4.0184 4.2011 2.2395
3.8636 4.3415 2.2392
3.7040 4.4761 2.2389
3.5397 4.6050 2.2386
3.3710 4.7278 2.2383
3.1980 4.8445 2.2380
3.0210 4.9549 2.2377
2.8402 5.0589 2.2373
2.6559 5.1564 2.2371
2.5342 5.3873 2.2965
2.4334 5.6960 2.3895
0.8866 2.3010 0.9514
0.8034 2.3316 0.9516
0.7192 2.3592 0.9517
0.6340 2.3838 0.9519
0.5480 2.4052 0.9520
0.4612 2.4235 0.9521
0.3738 2.4387 0.9522
0.2859 2.4507 0.9523
0.1977 2.4596 0.9524
0.1092 2.4652 0.9525
0.0205 2.4677 0.9525
-0.0682 2.4669 0.9526
-0.1568 2.4629 0.9526
-0.2453 2.4558 0.9526
-0.3334 2.4454 0.9526
-0.4211 2.4319 0.9526
-0.5082 2.4152 0.9525
-0.5947 2.3954 0.9525
-0.6804 2.3725 0.9524
-0.7652 2.3465 0.9523
-0.8490 2.3174 0.9522
-2.3383 5.7354 2.3895
-2.5432 5.6482 2.3895
-2.7448 5.5538 2.3895
-2.9430 5.4522 2.3895
-3.1374 5.3436 2.3895
-3.3279 5.2281 2.3895
-3.5141 5.1059 2.3895
-3.6959 4.9770 2.3895
-3.8729 4.8418 2.3895
-4.0451 4.7002 2.3895
-4.2121 4.5526 2.3895
-4.3737 4.3991 2.3895
-4.5298 4.2399 2.3895
-4.6801 4.0752 2.3895
-4.8245 3.9052 2.3895
-4.9627 3.7301 2.3895
-5.0946 3.5502 2.3895
-5.2200 3.3656 2.3895
-5.3387 3.1766 2.3895
-5.4506 2.9834 2.3895
-5.5555 2.7863 2.3895
-5.6533 2.5855 2.3895
-5.7439 2.3814 2.3895
-5.8272 2.1740 2.3895
-5.9029 1.9638 2.3895
-5.9712 1.7510 2.3895
-6.0317 1.5358 2.3895
-6.0845 1.3184 2.3895
-6.1295 1.0994 2.3895
-6.1666 0.8788 2.3895
-6.1958 0.6569 2.3895
-6.2170 0.4341 2.3895
-6.2302 0.2106 2.3895
-6.2353 -0.0132 2.3895
-6.2325 -0.2372 2.3895
-6.2215 -0.4609 2.3895
-6.2026 -0.6842 2.3895
-6.1756 -0.9067 2.3895
-6.1407 -1.1281 2.3895
-6.0978 -1.3482 2.3895
-6.0470 -1.5666 2.3895
-5.9883 -1.7831 2.3895
-5.9219 -1.9974 2.3895
-5.8478 -2.2093 2.3895
-5.7662 -2.4183 2.3895
-5.6770 -2.6244 2.3895
-5.5804 -2.8271 2.3895
-5.4766 -3.0263 2.3895
-5.3657 -3.2216 2.3895
-5.2478 -3.4129 2.3895
-5.1230 -3.5998 2.3895
-4.9916 -3.7821 2.3895
-4.8536 -3.9597 2.3895
-4.7093 -4.1321 2.3895
-4.5589 -4.2993 2.3895
-4.4025 -4.4609 2.3895
-4.2403 -4.6169 2.3895
-4.0726 -4.7669 2.3895
-3.8996 -4.9107 2.3895
-3.7215 -5.0483 2.3895
-3.5385 -5.1794 2.3895
-3.3509 -5.3038 2.3895
-3.1589 -5.4213 2.3895
-2.9627 -5.5319 2.3895
-2.7626 -5.6353 2.3895
-2.5589 -5.7314 2.3895
-2.3519 -5.8201 2.3895
-2.1417 -5.9013 2.3895
-1.9289 -5.9748 2.3895
-1.7134 -6.0406 2.3895
-1.4957 -6.0986 2.3895
-1.2760 -6.1487 2.3895
-1.0546 -6.1908 2.3895
-0.8319 -6.2249 2.3895
-0.6081 -6.2509 2.3895
-0.3834 -6.2689 2.3895
-0.1583 -6.2787 2.3895
0.0671 -6.2803 2.3895
0.2923 -6.2738 2.3895
0.5172 -6.2592 2.3895
0.7414 -6.2364 2.3895
0.9646 -6.2056 2.3895
1.1866 -6.1667 2.3895
1.4070 -6.1199 2.3895
1.6255 -6.0651 2.3895
1.8419 -6.0024 2.3895
2.0559 -5.9320 2.3895
2.2672 -5.8539 2.3895
2.4755 -5.7682 2.3895
2.6806 -5.6750 2.3895
2.8822 -5.5746 2.3895
2.8835 -5.1182 2.2371
3.0649 -5.0108 2.2371
3.2422 -4.8969 2.2371
3.4153 -4.7767 2.2371
3.5840 -4.6504 2.2371
3.7479 -4.5181 2.2371
3.9070 -4.3799 2.2371
4.0609 -4.2362 2.2371
4.2095 -4.0869 2.2371
4.3526 -3.9325 2.2371
4.4901 -3.7730 2.2371
4.6216 -3.6087 2.2371
4.7472 -3.4398 2.2371
4.8666 -3.2666 2.2371
4.9796 -3.0891 2.2371
5.0861 -2.9078 2.2371
5.1979 -2.7289 2.2422
5.2916 -2.5402 2.2423
5.3782 -2.3481 2.2424
5.4577 -2.1530 2.2424
5.5302 -1.9553 2.2424
5.5954 -1.7551 2.2424
5.6534 -1.5527 2.2424
5.7041 -1.3484 2.2424
5.7473 -1.1424 2.2424
5.7831 -0.9351 2.2424
5.8115 -0.7267 2.2424
5.8323 -0.5174 2.2424
5.8456 -0.3076 2.2424
5.8514 -0.0975 2.2424
5.8496 0.1127 2.2424
5.8403 0.3226 2.2424
5.5439 0.5064 2.1348
5.5545 0.7093 2.1479
5.5653 0.9149 2.1639
5.7280 1.1543 2.2424
5.6814 1.3589 2.2424
5.6275 1.5617 2.2424
5.5664 1.7624 2.2424
5.4979 1.9606 2.2423
5.4223 2.1562 2.2422
5.3397 2.3488 2.2420
5.2502 2.5383 2.2418
5.1540 2.7244 2.2416
5.0512 2.9069 2.2414
4.9420 3.0855 2.2412
4.8264 3.2600 2.2410
4.7047 3.4302 2.2408
4.5770 3.5959 2.2405
4.4434 3.7569 2.2403
4.3042 3.9129 2.2400
4.1596 4.0637 2.2398
4.0096 4.2093 2.2395
3.8546 4.3493 2.2392
3.6947 4.4837 2.2389
3.5302 4.6122 2.2386
3.3612 4.7347 2.2383
3.1880 4.8510 2.2380
3.0107 4.9610 2.2376
2.8297 5.0646 2.2373
2.6452 5.1619 2.2371
2.5337 5.4154 2.3062
2.4216 5.7010 2.3895
0.8819 2.3029 0.9514
0.7986 2.3333 0.9516
0.7143 2.3607 0.9517
0.6291 2.3851 0.9519
0.5430 2.4063 0.9520
0.4562 2.4245 0.9521
0.3688 2.4395 0.9523
0.2809 2.4513 0.9523
0.1926 2.4600 0.9524
0.1041 2.4654 0.9525
0.0154 2.4677 0.9525
-0.0733 2.4668 0.9526
-0.1619 2.4626 0.9526
-0.2503 2.4553 0.9526
-0.3384 2.4447 0.9526
-0.4261 2.4310 0.9526
-0.5132 2.4142 0.9525
-0.5996 2.3942 0.9525
-0.6853 2.3711 0.9524
-0.7700 2.3449 0.9523
-0.8538 2.3157 0.9522
-2.3501 5.7306 2.3895
-2.5548 5.6430 2.3895
-2.7563 5.5481 2.3895
-2.9542 5.4462 2.3895
-3.1484 5.3372 2.3895
-3.3387 5.2213 2.3895
-3.5246 5.0986 2.3895
-3.7061 4.9694 2.3895
-3.8829 4.8338 2.3895
-4.0548 4.6920 2.3895
-4.2215 4.5440 2.3895
-4.3828 4.3902 2.3895
-4.5386 4.2306 2.3895
-4.6886 4.0656 2.3895
-4.8326 3.8953 2.3895
-4.9704 3.7199 2.3895
-5.1019 3.5397 2.3895
-5.2270 3.3548 2.3895
-5.3453 3.1656 2.3895
-5.4568 2.9722 2.3895
-5.5613 2.7749 2.3895
-5.6587 2.5739 2.3895
-5.7489 2.3696 2.3895
-5.8317 2.1621 2.3895
-5.9071 1.9517 2.3895
-3.3320 -4.8346 2.3895
-3.1568 -4.9517 2.3895
-2.9775 -5.0625 2.3895
-2.7943 -5.1667 2.3895
-2.6074 -5.2642 2.3895
-2.4172 -5.3549 2.3895
-2.2237 -5.4387 2.3895
-2.0273 -5.5155 2.3895
-1.8283 -5.5851 2.3895
-1.6269 -5.6475 2.3895
-1.4234 -5.7026 2.3895
-1.2179 -5.7504 2.3895
-1.0109 -5.7906 2.3895
-0.8025 -5.8234 2.3895
-0.5931 -5.8486 2.3895
-0.3830 -5.8662 2.3895
-0.1723 -5.8763 2.3895
0.0386 -5.8787 2.3895
0.2495 -5.8735 2.3895
0.4600 -5.8607 2.3895
0.6699 -5.8402 2.3895
0.8790 -5.8123 2.3895
1.0868 -5.7767 2.3895
1.2933 -5.7338 2.3895
1.4981 -5.6833 2.3895
1.7009 -5.6255 2.3895
1.9015 -5.5605 2.3895
2.0995 -5.4882 2.3895
2.2949 -5.4089 2.3895
2.4872 -5.3225 2.3895
2.6762 -5.2293 2.3895
2.6793 -4.8022 2.2371
2.8495 -4.7024 2.2371
3.0159 -4.5965 2.2371
3.1785 -4.4847 2.2371
3.3369 -4.3671 2.2371
3.4909 -4.2439 2.2371
3.6403 -4.1153 2.2371
3.7850 -3.9813 2.2371
3.9247 -3.8423 2.2371
4.0593 -3.6983 2.2371
4.1887 -3.5496 2.2371
4.3125 -3.3964 2.2371
4.4307 -3.2388 2.2371
4.5432 -3.0770 2.2371
4.6497 -2.9114 2.2371
4.7502 -2.7421 2.2371
4.8542 -2.5744 2.2416
4.9427 -2.3981 2.2417
5.0248 -2.2188 2.2418
5.1003 -2.0367 2.2419
5.1691 -1.8519 2.2421
5.2313 -1.6649 2.2422
5.2866 -1.4757 2.2422
5.3351 -1.2847 2.2423
5.3766 -1.0921 2.2424
5.4111 -0.8982 2.2424
5.4385 -0.7032 2.2424
5.4589 -0.5073 2.2424
5.4723 -0.3109 2.2424
5.4785 -0.1142 2.2424
5.4778 0.0826 2.2424
5.4699 0.2792 2.2424
5.4549 0.4753 2.2424
5.4328 0.6707 2.2423
5.4038 0.8651 2.2422
5.3677 1.0583 2.2422
5.3247 1.2501 2.2421
5.2749 1.4401 2.2420
5.2182 1.6282 2.2418
5.1549 1.8140 2.2417
5.0849 1.9974 2.2416
5.0084 2.1782 2.2414
4.9254 2.3560 2.2413
4.8362 2.5306 2.2411
4.7407 2.7019 2.2409
4.6392 2.8696 2.2407
4.5318 3.0336 2.2405
4.4185 3.1935 2.2403
4.2996 3.3492 2.2401
4.1753 3.5004 2.2398
4.0456 3.6471 2.2396
3.9108 3.7890 2.2393
3.7710 3.9260 2.2391
3.6265 4.0578 2.2388
3.4774 4.1843 2.2385
3.3238 4.3053 2.2383
3.1661 4.4208 2.2380
3.0043 4.5305 2.2377
2.8388 4.6343 2.2374
2.6749 4.7412 2.2414
2.5168 4.8613 2.2542
2.4806 5.2451 2.3895
0.9111 2.1204 0.9505
0.8344 2.1520 0.9507
0.7565 2.1808 0.9509
0.6777 2.2068 0.9510
0.5980 2.2299 0.9512
0.5175 2.2501 0.9513
0.4364 2.2674 0.9514
0.3546 2.2818 0.9515
0.2724 2.2932 0.9516
0.1898 2.3016 0.9517
0.1069 2.3071 0.9518
0.0239 2.3095 0.9518
-0.0591 2.3090 0.9518
-0.1420 2.3054 0.9519
-0.2248 2.2989 0.9519
-0.3073 2.2894 0.9519
-0.3894 2.2769 0.9518
-0.4710 2.2615 0.9518
-0.5520 2.2431 0.9518
-0.6322 2.2218 0.9517
-0.7117 2.1976 0.9516
-0.7902 2.1706 0.9515
-0.8677 2.1407 0.9514
-2.3712 5.2950 2.3895
-2.5602 5.2069 2.3895
-2.7460 5.1121 2.3895
-2.9283 5.0107 2.3895
-3.1069 4.9029 2.3895
-3.2816 4.7887 2.3895
-3.4520 4.6684 2.3895
-3.6181 4.5420 2.3895
-3.7796 4.4097 2.3895
-3.9363 4.2718 2.3895
-4.0879 4.1283 2.3895
-4.2344 3.9794 2.3895
-4.3754 3.8254 2.3895
-4.5109 3.6664 2.3895
-4.6406 3.5026 2.3895
-4.7644 3.3343 2.3895
-4.8821 3.1616 2.3895
-4.9936 2.9848 2.3895
-5.0987 2.8041 2.3895
-5.1973 2.6197 2.3895
-5.2892 2.4318 2.3895
-5.3744 2.2408 2.3895
-5.4527 2.0468 2.3895
-5.5240 1.8500 2.3895
-5.5882 1.6508 2.3895
-5.6452 1.4494 2.3895
-5.6950 1.2460 2.3895
-5.7374 1.0409 2.3895
-5.7725 0.8344 2.3895
-5.8002 0.6267 2.3895
-5.8204 0.4181 2.3895
-5.8331 0.2089 2.3895
-5.8383 -0.0007 2.3895
-5.8359 -0.2104 2.3895
-5.8261 -0.4199 2.3895
-5.8087 -0.6290 2.3895
-5.7838 -0.8374 2.3895
-5.7514 -1.0447 2.3895
-5.7116 -1.2508 2.3895
-5.6643 -1.4554 2.3895
-5.6098 -1.6582 2.3895
-5.5479 -1.8590 2.3895
-5.4789 -2.0574 2.3895
-5.4028 -2.2533 2.3895
-5.3196 -2.4463 2.3895
-5.2296 -2.6362 2.3895
-5.1327 -2.8229 2.3895
-5.0292 -3.0059 2.3895
-4.9191 -3.1851 2.3895
-4.8026 -3.3603 2.3895
-4.6799 -3.5312 2.3895
-4.5510 -3.6976 2.3895
-4.4162 -3.8593 2.3895
-4.2757 -4.0160 2.3895
-4.1296 -4.1676 2.3895
-3.9780 -4.3138 2.3895
-3.8213 -4.4545 2.3895
-3.6596 -4.5895 2.3895
-3.4931 -4.7185 2.3895
-3.3221 -4.8415 2.3895
-3.1466 -4.9583 2.3895
-2.9671 -5.0686 2.3895
-2.7837 -5.1724 2.3895
-2.5966 -5.2696 2.3895
-2.4062 -5.3599 2.3895
-2.2125 -5.4433 2.3895
-2.0160 -5.5197 2.3895
-1.8169 -5.5889 2.3895
-1.6153 -5.6509 2.3895
-1.4116 -5.7056 2.3895
-1.2061 -5.7529 2.3895
-0.9990 -5.7927 2.3895
-0.7906 -5.8250 2.3895
-0.5812 -5.8498 2.3895
-0.3709 -5.8670 2.3895
-0.1602 -5.8766 2.3895
0.0507 -5.8786 2.3895
0.2616 -5.8729 2.3895
0.4720 -5.8597 2.3895
0.6819 -5.8388 2.3895
0.8909 -5.8104 2.3895
1.0987 -5.7745 2.3895
1.3051 -5.7311 2.3895
1.5098 -5.6802 2.3895
1.7124 -5.6220 2.3895
1.9129 -5.5565 2.3895
2.1108 -5.4839 2.3895
2.3060 -5.4041 2.3895
2.4981 -5.3174 2.3895
2.6870 -5.2237 2.3895
2.6891 -4.7966 2.2371
2.8591 -4.6965 2.2371
3.0254 -4.5902 2.2371
3.1877 -4.4781 2.2371
3.3458 -4.3602 2.2371
3.4995 -4.2367 2.2371
3.6487 -4.1077 2.2371
3.7931 -3.9735 2.2371
3.9326 -3.8342 2.2371
4.0669 -3.6899 2.2371
4.1959 -3.5409 2.2371
4.3194 -3.3874 2.2371
4.4373 -3.2296 2.2371
4.5495 -3.0676 2.2371
4.6557 -2.9018 2.2371
4.7558 -2.7323 2.2371
4.8595 -2.5644 2.2416
4.9476 -2.3879 2.2417
5.0293 -2.2085 2.2418
5.1044 -2.0261 2.2420
5.1729 -1.8413 2.2421
5.2346 -1.6541 2.2422
5.2896 -1.4648 2.2422
5.3376 -1.2737 2.2423
5.3787 -1.0810 2.2424
5.4129 -0.8870 2.2424
5.4399 -0.6919 2.2424
5.4599 -0.4961 2.2424
5.4728 -0.2996 2.2424
5.4787 -0.1029 2.2424
5.4775 0.0939 2.2424
5.4692 0.2904 2.2424
5.4538 0.4865 2.2424
5.4314 0.6819 2.2423
5.4019 0.8762 2.2422
5.3654 1.0694 2.2422
5.3220 1.2610 2.2421
5.2718 1.4510 2.2420
5.2148 1.6389 2.2418
5.1510 1.8246 2.2417
5.0807 2.0079 2.2416
5.0038 2.1884 2.2414
4.9205 2.3661 2.2413
4.8309 2.5405 2.2411
4.7351 2.7116 2.2409
4.6332 2.8791 2.2407
4.5254 3.0428 2.2405
4.4119 3.2025 2.2403
4.2927 3.3579 2.2401
4.1680 3.5090 2.2398
4.0380 3.6554 2.2396
3.9029 3.7970 2.2393
3.7629 3.9337 2.2391
3.6181 4.0652 2.2388
3.4687 4.1914 2.2385
3.3149 4.3121 2.2382
3.1569 4.4272 2.2379
2.9949 4.5366 2.2376
2.8292 4.6400 2.2373
2.6600 4.7375 2.2371
2.5163 4.8851 2.2628
2.4698 5.2501 2.3895
0.9067 2.1223 0.9506
0.8299 2.1537 0.9507
0.7521 2.1823 0.9509
0.6732 2.2082 0.9511
0.5934 2.2311 0.9512
0.5129 2.2512 0.9513
0.4317 2.2683 0.9514
0.3499 2.2825 0.9515
0.2676 2.2938 0.9516
0.1850 2.3020 0.9517
0.1022 2.3073 0.9518
0.0192 2.3096 0.9518
-0.0638 2.3089 0.9518
-0.1468 2.3051 0.9519
-0.2296 2.2984 0.9519
-0.3120 2.2887 0.9519
-0.3941 2.2761 0.9518
-0.4757 2.2605 0.9518
-0.5566 2.2419 0.9518
-0.6368 2.2205 0.9517
-0.7162 2.1961 0.9516
-0.7947 2.1689 0.9515
-0.8721 2.1389 0.9514
-2.3821 5.2902 2.3895
-2.5710 5.2017 2.3895
-2.7566 5.1065 2.3895
-2.9387 5.0047 2.3895
-3.1170 4.8965 2.3895
-3.2914 4.7820 2.3895
-3.4617 4.6613 2.3895
-3.6275 4.5346 2.3895
-3.7887 4.4020 2.3895
-3.9451 4.2637 2.3895
-4.0964 4.1199 2.3895
-4.2426 3.9707 2.3895
-4.3833 3.8164 2.3895
-4.5185 3.6572 2.3895
-4.6479 3.4931 2.3895
-4.7713 3.3245 2.3895
-4.8887 3.1516 2.3895
-4.9998 2.9746 2.3895
-5.1045 2.7936 2.3895
-5.2028 2.6090 2.3895
-5.2943 2.4210 2.3895
-5.3791 2.2297 2.3895
-5.4569 2.0356 2.3895
-5.5278 1.8387 2.3895
-5.5916 1.6393 2.3895
-5.6482 1.4377 2.3895
-5.6976 1.2343 2.3895
-5.7397 1.0291 2.3895
-5.7743 0.8225 2.3895
-5.8016 0.6147 2.3895
-5.8213 0.4061 2.3895
-5.8336 0.1969 2.3895
-5.8384 -0.0128 2.3895
-5.8356 -0.2225 2.3895
-5.8253 -0.4319 2.3895
-5.8074 -0.6410 2.3895
-5.7821 -0.8493 2.3895
-5.7493 -1.0566 2.3895
-5.7090 -1.2626 2.3895
-5.6614 -1.4671 2.3895
-5.6064 -1.6698 2.3895
-5.5442 -1.8704 2.3895
-5.4747 -2.0687 2.3895
-5.3982 -2.2644 2.3895
-5.3147 -2.4573 2.3895
-5.2242 -2.6470 2.3895
-5.1270 -2.8334 2.3895
-5.0230 -3.0163 2.3895
-4.9126 -3.1953 2.3895
-4.7957 -3.3702 2.3895
-4.6726 -3.5408 2.3895
-4.5434 -3.7070 2.3895
-4.4083 -3.8684 2.3895
-4.2675 -4.0248 2.3895
-4.1210 -4.1761 2.3895
-3.9692 -4.3220 2.3895
-3.8122 -4.4624 2.3895
-3.6502 -4.5970 2.3895
-3.4834 -4.7257 2.3895
-3.3121 -4.8484 2.3895
-3.1365 -4.9648 2.3895
-2.9567 -5.0748 2.3895
-2.7731 -5.1782 2.3895
-2.5858 -5.2749 2.3895
-2.3951 -5.3649 2.3895
-2.2013 -5.4479 2.3895
-2.0046 -5.5238 2.3895
-1.8054 -5.5927 2.3895
-1.6037 -5.6542 2.3895
-1.3999 -5.7085 2.3895
-1.1943 -5.7553 2.3895
-0.9871 -5.7948 2.3895
-0.7786 -5.8266 2.3895
-0.5690 -5.8510 2.3895
-0.3588 -5.8678 2.3895
-0.1481 -5.8769 2.3895
0.0628 -5.8785 2.3895
0.2736 -5.8724 2.3895
0.4841 -5.8587 2.3895
0.6939 -5.8374 2.3895
0.9028 -5.8086 2.3895
1.1106 -5.7722 2.3895
1.3169 -5.7283 2.3895
1.5214 -5.6771 2.3895
1.7240 -5.6185 2.3895
1.9243 -5.5526 2.3895
2.1221 -5.4795 2.3895
2.3171 -5.3993 2.3895
2.5090 -5.3122 2.3895
2.6977 -5.2182 2.3895
2.6990 -4.7910 2.2371
2.8688 -4.6905 2.2371
3.0348 -4.5840 2.2371
3.1968 -4.4715 2.2371
3.3547 -4.3533 2.2371
3.5082 -4.2294 2.2371
3.6571 -4.1002 2.2371
3.8012 -3.9656 2.2371
3.9404 -3.8260 2.2371
4.0744 -3.6815 2.2371
4.2031 -3.5323 2.2371
4.3263 -3.3785 2.2371
4.4439 -3.2204 2.2371
4.5557 -3.0582 2.2371
4.6616 -2.8922 2.2371
4.7613 -2.7224 2.2371
4.8647 -2.5544 2.2416
4.9525 -2.3777 2.2417
5.0338 -2.1981 2.2418
5.1085 -2.0156 2.2420
5.1766 -1.8306 2.2421
5.2380 -1.6433 2.2422
5.2925 -1.4539 2.2422
5.3402 -1.2627 2.2423
5.3809 -1.0699 2.2424
5.4146 -0.8759 2.2424
5.4412 -0.6807 2.2424
5.4608 -0.4848 2.2424
5.4734 -0.2884 2.2424
5.4788 -0.0916 2.2424
5.4772 0.1051 2.2424
5.4686 0.3017 2.2424
5.4527 0.4977 2.2424
5.4299 0.6930 2.2423
5.4000 0.8873 2.2422
5.3631 1.0804 2.2422
5.3194 1.2720 2.2421
5.2687 1.4618 2.2420
5.2113 1.6496 2.2418
5.1472 1.8352 2.2417
5.0765 2.0183 2.2416
4.9992 2.1987 2.2414
4.9155 2.3762 2.2412
4.8255 2.5505 2.2411
4.7294 2.7213 2.2409
4.6272 2.8886 2.2407
4.5191 3.0521 2.2405
4.4052 3.2115 2.2403
4.2857 3.3667 2.2400
4.1607 3.5175 2.2398
4.0304 3.6636 2.2396
3.8951 3.8050 2.2393
3.7547 3.9414 2.2390
3.6096 4.0726 2.2388
3.4600 4.1984 2.2385
3.3059 4.3189 2.2382
3.1477 4.4336 2.2379
2.9855 4.5427 2.2376
2.8196 4.6458 2.2373
2.6502 4.7430 2.2371
2.5158 4.9090 2.2715
2.4590 5.2552 2.3895
0.9023 2.1242 0.9506
0.8255 2.1554 0.9507
0.7476 2.1839 0.9509
0.6686 2.2096 0.9511
0.5888 2.2323 0.9512
0.5083 2.2522 0.9513
0.4270 2.2692 0.9514
0.3452 2.2832 0.9515
0.2629 2.2943 0.9516
0.1803 2.3024 0.9517
0.0974 2.3075 0.9518
0.0144 2.3096 0.9518
-0.0686 2.3087 0.9518
-0.1516 2.3048 0.9519
-0.2343 2.2980 0.9519
-0.3168 2.2881 0.9519
-0.3988 2.2753 0.9518
-0.4803 2.2595 0.9518
-0.5612 2.2408 0.9518
-0.6414 2.2191 0.9517
-0.7207 2.1946 0.9516
-0.7991 2.1673 0.9515
-0.8765 2.1371 0.9514
-2.3930 5.2853 2.3895
-2.5817 5.1964 2.3895
-2.7671 5.1008 2.3895
-2.9490 4.9987 2.3895
-3.1272 4.8901 2.3895
-3.3013 4.7752 2.3895
-3.4713 4.6542 2.3895
-3.6369 4.5271 2.3895
-3.7978 4.3942 2.3895
-3.9539 4.2556 2.3895
-4.1050 4.1115 2.3895
-4.2508 3.9620 2.3895
-4.3912 3.8074 2.3895
-4.5261 3.6479 2.3895
-4.6551 3.4836 2.3895
-4.7782 3.3147 2.3895
-4.8952 3.1416 2.3895
-5.0060 2.9643 2.3895
-5.1104 2.7831 2.3895
-5.2082 2.5983 2.3895
-5.2993 2.4101 2.3895
-5.3837 2.2187 2.3895
-5.4612 2.0242 2.3895
-5.5317 1.8273 2.3895
-3.1281 -4.5392 2.3895
-2.9637 -4.6491 2.3895
-2.7953 -4.7530 2.3895
-2.6233 -4.8508 2.3895
-2.4479 -4.9424 2.3895
-2.2692 -5.0275 2.3895
-2.0876 -5.1061 2.3895
-1.9032 -5.1782 2.3895
-1.7164 -5.2435 2.3895
-1.5273 -5.3021 2.3895
-1.3362 -5.3538 2.3895
-1.1434 -5.3986 2.3895
-0.9490 -5.4364 2.3895
-0.7534 -5.4671 2.3895
-0.5568 -5.4908 2.3895
-0.3595 -5.5073 2.3895
-0.1618 -5.5167 2.3895
0.0362 -5.5190 2.3895
0.2342 -5.5141 2.3895
0.4318 -5.5021 2.3895
0.6289 -5.4829 2.3895
0.8251 -5.4567 2.3895
1.0203 -5.4234 2.3895
1.2141 -5.3830 2.3895
1.4064 -5.3357 2.3895
1.5967 -5.2815 2.3895
1.7850 -5.2204 2.3895
1.9710 -5.1526 2.3895
2.1544 -5.0781 2.3895
2.3349 -4.9971 2.3895
2.5124 -4.9096 2.3895
2.5262 -4.5281 2.2468
2.6751 -4.4149 2.2371
2.8314 -4.3156 2.2371
2.9840 -4.2107 2.2371
3.1327 -4.1003 2.2371
3.2773 -3.9847 2.2371
3.4177 -3.8639 2.2371
3.5535 -3.7382 2.2371
3.6848 -3.6077 2.2371
3.8112 -3.4726 2.2371
3.9326 -3.3330 2.2371
4.0490 -3.1891 2.2371
4.1600 -3.0412 2.2371
4.2656 -2.8894 2.2371
4.3657 -2.7339 2.2371
4.4677 -2.5793 2.2409
4.5567 -2.4170 2.2410
4.6398 -2.2515 2.2411
4.7169 -2.0832 2.2413
4.7878 -1.9122 2.2414
4.8525 -1.7388 2.2415
4.9109 -1.5632 2.2416
4.9629 -1.3857 2.2416
5.0084 -1.2064 2.2417
5.0474 -1.0256 2.2418
5.0799 -0.8435 2.2418
5.1058 -0.6605 2.2418
5.1251 -0.4766 2.2419
5.1377 -0.2922 2.2419
5.1436 -0.1075 2.2419
5.1429 0.0772 2.2418
5.1355 0.2618 2.2418
5.1215 0.4459 2.2418
5.1009 0.6294 2.2417
5.0736 0.8120 2.2417
5.0399 0.9934 2.2416
4.9996 1.1734 2.2415
4.9529 1.3519 2.2414
4.8997 1.5285 2.2413
4.8403 1.7030 2.2412
4.7747 1.8753 2.2410
4.7029 2.0450 2.2409
4.6251 2.2120 2.2407
4.5414 2.3760 2.2406
4.4518 2.5369 2.2404
4.3565 2.6945 2.2402
4.2557 2.8484 2.2400
4.1494 2.9987 2.2398
4.0379 3.1449 2.2396
3.9212 3.2870 2.2394
3.7995 3.4249 2.2392
3.6729 3.5582 2.2389
3.5417 3.6869 2.2387
3.4060 3.8107 2.2384
3.2660 3.9296 2.2382
3.1218 4.0433 2.2379
2.9737 4.1518 2.2376
2.8218 4.2549 2.2374
2.6664 4.3525 2.2371
2.5104 4.4494 2.2393
2.4919 4.8129 2.3759
2.3303 4.9269 2.3895
0.8554 1.9906 0.9500
0.7833 2.0202 0.9501
0.7103 2.0472 0.9503
0.6363 2.0716 0.9504
0.5614 2.0933 0.9506
0.4859 2.1123 0.9507
0.4097 2.1285 0.9508
0.3329 2.1420 0.9509
0.2557 2.1527 0.9510
0.1782 2.1606 0.9511
0.1004 2.1657 0.9511
0.0225 2.1680 0.9512
-0.0555 2.1675 0.9512
-0.1334 2.1642 0.9512
-0.2111 2.1580 0.9512
-0.2885 2.1491 0.9512
-0.3656 2.1374 0.9512
-0.4422 2.1229 0.9512
-0.5182 2.1056 0.9511
-0.5935 2.0856 0.9511
-0.6681 2.0629 0.9510
-0.7418 2.0376 0.9509
-0.8146 2.0096 0.9508
-0.8863 1.9789 0.9507
-2.4051 4.8911 2.3895
-2.5796 4.8020 2.3895
-2.7509 4.7067 2.3895
-2.9186 4.6054 2.3895
-3.0826 4.4981 2.3895
-3.2427 4.3850 2.3895
-3.3987 4.2662 2.3895
-3.5504 4.1419 2.3895
-3.6975 4.0123 2.3895
-3.8399 3.8775 2.3895
-3.9775 3.7376 2.3895
-4.1099 3.5929 2.3895
-4.2371 3.4435 2.3895
-4.3589 3.2897 2.3895
-4.4752 3.1315 2.3895
-4.5857 2.9693 2.3895
-4.6904 2.8032 2.3895
-4.7890 2.6334 2.3895
-4.8816 2.4602 2.3895
-4.9679 2.2837 2.3895
-5.0478 2.1043 2.3895
-5.1212 1.9220 2.3895
-5.1881 1.7372 2.3895
-5.2484 1.5501 2.3895
-5.3019 1.3609 2.3895
-5.3486 1.1698 2.3895
-5.3884 0.9772 2.3895
-5.4213 0.7832 2.3895
-5.4472 0.5882 2.3895
-5.4661 0.3923 2.3895
-5.4779 0.1958 2.3895
-5.4827 -0.0010 2.3895
-5.4805 -0.1980 2.3895
-5.4711 -0.3947 2.3895
-5.4547 -0.5910 2.3895
-5.4312 -0.7867 2.3895
-5.4008 -0.9814 2.3895
-5.3633 -1.1749 2.3895
-5.3189 -1.3670 2.3895
-5.2676 -1.5574 2.3895
-5.2095 -1.7459 2.3895
-5.1446 -1.9322 2.3895
-5.0731 -2.1161 2.3895
-4.9949 -2.2973 2.3895
-4.9103 -2.4756 2.3895
-4.8193 -2.6508 2.3895
-4.7220 -2.8227 2.3895
-4.6186 -2.9909 2.3895
-4.5092 -3.1553 2.3895
-4.3939 -3.3158 2.3895
-4.2729 -3.4720 2.3895
-4.1463 -3.6237 2.3895
-4.0143 -3.7708 2.3895
-3.8771 -3.9131 2.3895
-3.7348 -4.0504 2.3895
-3.5876 -4.1824 2.3895
-3.4358 -4.3091 2.3895
-3.2794 -4.4302 2.3895
-3.1188 -4.5457 2.3895
-2.9541 -4.6552 2.3895
-2.7855 -4.7588 2.3895
-2.6133 -4.8562 2.3895
-2.4377 -4.9474 2.3895
-2.2589 -5.0322 2.3895
-2.0771 -5.1105 2.3895
-1.8926 -5.1821 2.3895
-1.7056 -5.2471 2.3895
-1.5164 -5.3053 2.3895
-1.3252 -5.3566 2.3895
-1.1323 -5.4009 2.3895
-0.9378 -5.4383 2.3895
-0.7422 -5.4687 2.3895
-0.5456 -5.4919 2.3895
-0.3482 -5.5081 2.3895
-0.1504 -5.5171 2.3895
0.0476 -5.5189 2.3895
0.2455 -5.5136 2.3895
0.4431 -5.5012 2.3895
0.6402 -5.4816 2.3895
0.8364 -5.4550 2.3895
1.0314 -5.4212 2.3895
1.2252 -5.3805 2.3895
1.4173 -5.3328 2.3895
1.6076 -5.2782 2.3895
1.7958 -5.2167 2.3895
1.9816 -5.1485 2.3895
2.1648 -5.0737 2.3895
2.3452 -4.9922 2.3895
2.5225 -4.9044 2.3895
2.5252 -4.5045 2.2376
2.6842 -4.4094 2.2371
2.8403 -4.3097 2.2371
2.9927 -4.2045 2.2371
3.1411 -4.0938 2.2371
3.2855 -3.9779 2.2371
3.4256 -3.8569 2.2371
3.5612 -3.7309 2.2371
3.6921 -3.6001 2.2371
3.8183 -3.4647 2.2371
3.9395 -3.3249 2.2371
4.0555 -3.1808 2.2371
4.1662 -3.0326 2.2371
4.2715 -2.8806 2.2371
4.3713 -2.7249 2.2371
4.4730 -2.5701 2.2409
4.5617 -2.4076 2.2410
4.6444 -2.2419 2.2412
4.7211 -2.0735 2.2413
4.7917 -1.9024 2.2414
4.8560 -1.7288 2.2415
4.9140 -1.5531 2.2416
4.9657 -1.3754 2.2417
5.0108 -1.1961 2.2417
5.0495 -1.0152 2.2418
5.0816 -0.8331 2.2418
5.1071 -0.6499 2.2418
5.1260 -0.4661 2.2419
5.1382 -0.2816 2.2419
5.1438 -0.0969 2.2419
5.1427 0.0878 2.2418
5.1349 0.2723 2.2418
5.1205 0.4564 2.2418
5.0995 0.6399 2.2417
5.0719 0.8224 2.2417
5.0377 1.0037 2.2416
4.9971 1.1837 2.2415
4.9500 1.3621 2.2414
4.8965 1.5385 2.2413
4.8367 1.7130 2.2412
4.7707 1.8851 2.2410
4.6986 2.0546 2.2409
4.6205 2.2215 2.2407
4.5364 2.3854 2.2406
4.4465 2.5461 2.2404
4.3509 2.7034 2.2402
4.2498 2.8572 2.2400
4.1432 3.0071 2.2398
4.0313 3.1532 2.2396
3.9143 3.2951 2.2394
3.7923 3.4326 2.2392
3.6655 3.5657 2.2389
3.5340 3.6941 2.2387
3.3981 3.8177 2.2384
3.2578 3.9363 2.2382
3.1134 4.0497 2.2379
2.9651 4.1579 2.2376
2.8130 4.2607 2.2374
2.6574 4.3579 2.2371
2.5064 4.4638 2.2439
2.4913 4.8362 2.3849
0.9222 1.9603 0.9498
0.8513 1.9924 0.9500
0.7792 2.0218 0.9501
0.7061 2.0487 0.9503
0.6320 2.0729 0.9504
0.5571 2.0945 0.9506
0.4815 2.1133 0.9507
0.4053 2.1294 0.9508
0.3285 2.1427 0.9509
0.2513 2.1532 0.9510
0.1737 2.1610 0.9511
0.0959 2.1659 0.9511
0.0180 2.1681 0.9512
-0.0599 2.1674 0.9512
-0.1378 2.1639 0.9512
-0.2155 2.1576 0.9512
-0.2929 2.1485 0.9512
-0.3700 2.1366 0.9512
-0.4465 2.1220 0.9512
-0.5225 2.1045 0.9511
-0.5978 2.0844 0.9511
-0.6724 2.0616 0.9510
-0.7460 2.0360 0.9509
-0.8187 2.0079 0.9508
-0.8903 1.9771 0.9507
-2.4152 4.8861 2.3895
-2.5895 4.7967 2.3895
-2.7606 4.7010 2.3895
-2.9281 4.5994 2.3895
-3.0919 4.4917 2.3895
-3.2518 4.3783 2.3895
-3.4075 4.2592 2.3895
-3.5589 4.1347 2.3895
-3.7058 4.0047 2.3895
-3.8479 3.8696 2.3895
-3.9852 3.7295 2.3895
-4.1173 3.5845 2.3895
-4.2443 3.4349 2.3895
-4.3658 3.2807 2.3895
-4.4817 3.1224 2.3895
-4.5919 2.9599 2.3895
-4.6962 2.7936 2.3895
-4.7945 2.6236 2.3895
-4.8867 2.4502 2.3895
-4.9726 2.2735 2.3895
-5.0522 2.0939 2.3895
-5.1253 1.9115 2.3895
-5.1918 1.7265 2.3895
-5.2516 1.5393 2.3895
-5.3047 1.3500 2.3895
-5.3510 1.1588 2.3895
-5.3904 0.9661 2.3895
-5.4229 0.7721 2.3895
-5.4484 0.5770 2.3895
-5.4669 0.3810 2.3895
-5.4784 0.1845 2.3895
-5.4828 -0.0123 2.3895
-5.4801 -0.2092 2.3895
-5.4704 -0.4060 2.3895
-5.4535 -0.6023 2.3895
-5.4297 -0.7979 2.3895
-5.3988 -0.9925 2.3895
-5.3609 -1.1860 2.3895
-5.3161 -1.3780 2.3895
-5.2644 -1.5683 2.3895
-5.2059 -1.7566 2.3895
-5.1407 -1.9428 2.3895
-5.0687 -2.1265 2.3895
-4.9902 -2.3076 2.3895
-4.9053 -2.4858 2.3895
-4.8139 -2.6608 2.3895
-4.7163 -2.8324 2.3895
-4.6125 -3.0004 2.3895
-4.5027 -3.1647 2.3895
-4.3871 -3.3248 2.3895
-4.2658 -3.4808 2.3895
-4.1389 -3.6323 2.3895
-4.0066 -3.7791 2.3895
-3.8691 -3.9211 2.3895
-3.7265 -4.0581 2.3895
-3.5790 -4.1898 2.3895
-3.4269 -4.3162 2.3895
-3.2703 -4.4370 2.3895
-3.1095 -4.5521 2.3895
-2.9445 -4.6613 2.3895
-2.7758 -4.7646 2.3895
-2.6033 -4.8616 2.3895
-2.4275 -4.9524 2.3895
-2.2485 -5.0368 2.3895
-2.0666 -5.1147 2.3895
-1.8819 -5.1860 2.3895
-1.6948 -5.2506 2.3895
-1.5055 -5.3084 2.3895
-1.3142 -5.3593 2.3895
-1.1211 -5.4033 2.3895
-0.9266 -5.4403 2.3895
-0.7309 -5.4702 2.3895
-0.5343 -5.4930 2.3895
-0.3369 -5.5088 2.3895
-0.1391 -5.5174 2.3895
0.0589 -5.5188 2.3895
0.2569 -5.5131 2.3895
0.4544 -5.5003 2.3895
0.6514 -5.4803 2.3895
0.8476 -5.4532 2.3895
1.0426 -5.4191 2.3895
1.2363 -5.3779 2.3895
1.4283 -5.3298 2.3895
1.6184 -5.2748 2.3895
1.8065 -5.2130 2.3895
1.9922 -5.1444 2.3895
2.1752 -5.0692 2.3895
2.3555 -4.9874 2.3895
2.5326 -4.8992 2.3895
2.5338 -4.4982 2.2371
2.6932 -4.4038 2.2371
2.8491 -4.3038 2.2371
3.0013 -4.1983 2.2371
3.1495 -4.0873 2.2371
3.2937 -3.9711 2.2371
3.4335 -3.8498 2.2371
3.5688 -3.7235 2.2371
3.6995 -3.5924 2.2371
3.8254 -3.4568 2.2371
3.9462 -3.3167 2.2371
4.0620 -3.1724 2.2371
4.1724 -3.0240 2.2371
4.2774 -2.8718 2.2371
4.3768 -2.7158 2.2371
4.4782 -2.5609 2.2409
4.5666 -2.3981 2.2410
4.6490 -2.2324 2.2412
4.7253 -2.0637 2.2413
4.7956 -1.8925 2.2414
4.8595 -1.7188 2.2415
4.9172 -1.5430 2.2416
4.9684 -1.3652 2.2417
5.0132 -1.1857 2.2417
5.0515 -1.0048 2.2418
5.0832 -0.8226 2.2418
5.1083 -0.6394 2.2418
5.1268 -0.4555 2.2419
5.1387 -0.2711 2.2419
5.1439 -0.0863 2.2419
5.1424 0.0984 2.2418
5.1343 0.2829 2.2418
5.1195 0.4670 2.2418
5.0981 0.6504 2.2417
5.0701 0.8328 2.2417
5.0356 1.0141 2.2416
4.9945 1.1940 2.2415
4.9471 1.3722 2.2414
4.8933 1.5486 2.2413
4.8331 1.7229 2.2412
4.7668 1.8948 2.2410
4.6943 2.0643 2.2409
4.6158 2.2309 2.2407
4.5314 2.3947 2.2406
4.4412 2.5552 2.2404
4.3453 2.7123 2.2402
4.2438 2.8659 2.2400
4.1369 3.0156 2.2398
4.0248 3.1614 2.2396
3.9075 3.3031 2.2394
3.7852 3.4404 2.2391
3.6581 3.5732 2.2389
3.5264 3.7013 2.2387
3.3901 3.8246 2.2384
3.2496 3.9429 2.2382
3.1050 4.0560 2.2379
2.9565 4.1639 2.2376
2.8042 4.2664 2.2373
2.6555 4.3752 2.2431
2.5024 4.4782 2.2486
2.4861 4.8507 2.3895
0.9182 1.9622 0.9498
0.8472 1.9941 0.9500
0.7750 2.0235 0.9502
0.7018 2.0502 0.9503
0.6277 2.0742 0.9505
0.5528 2.0956 0.9506
0.4772 2.1143 0.9507
0.4009 2.1302 0.9508
0.3241 2.1434 0.9509
0.2468 2.1538 0.9510
0.1693 2.1613 0.9511
0.0915 2.1661 0.9511
0.0135 2.1681 0.9512
-0.0644 2.1673 0.9512
-0.1423 2.1636 0.9512
-0.2200 2.1572 0.9512
-0.2974 2.1479 0.9512
-0.3744 2.1359 0.9512
-0.4509 2.1210 0.9512
-0.5269 2.1035 0.9511
-0.6021 2.0832 0.9510
-0.6766 2.0602 0.9510
-0.7502 2.0345 0.9509
-0.8229 2.0062 0.9508
-0.8944 1.9753 0.9507
-2.4253 4.8811 2.3895
-2.5994 4.7914 2.3895
-2.7703 4.6954 2.3895
-2.9376 4.5933 2.3895
-3.1012 4.4854 2.3895
-3.2608 4.3716 2.3895
-3.4163 4.2522 2.3895
-3.5675 4.1274 2.3895
-3.7141 3.9971 2.3895
-3.8559 3.8617 2.3895
-3.9929 3.7213 2.3895
-4.1248 3.5760 2.3895
-4.2514 3.4261 2.3895
-4.3725 3.2718 2.3895
-4.4881 3.1132 2.3895
-4.5980 2.9505 2.3895
-4.7020 2.7839 2.3895
-4.8000 2.6137 2.3895
-4.8918 2.4401 2.3895
-4.9773 2.2633 2.3895
-5.0565 2.0835 2.3895
-5.1292 1.9009 2.3895
-5.1954 1.7158 2.3895
-2.9444 -4.2730 2.3895
-2.7896 -4.3764 2.3895
-2.6311 -4.4742 2.3895
-2.4692 -4.5662 2.3895
-2.3040 -4.6523 2.3895
-2.1359 -4.7324 2.3895
-1.9649 -4.8064 2.3895
-1.7914 -4.8742 2.3895
-1.6155 -4.9357 2.3895
-1.4375 -4.9908 2.3895
-1.2577 -5.0395 2.3895
-1.0762 -5.0816 2.3895
-0.8932 -5.1172 2.3895
-0.7091 -5.1461 2.3895
-0.5241 -5.1684 2.3895
-0.3384 -5.1839 2.3895
-0.1523 -5.1928 2.3895
0.0341 -5.1949 2.3895
0.2204 -5.1903 2.3895
0.4064 -5.1790 2.3895
0.5919 -5.1610 2.3895
0.7766 -5.1363 2.3895
0.9603 -5.1049 2.3895
1.1428 -5.0670 2.3895
1.3237 -5.0224 2.3895
1.5029 -4.9714 2.3895
1.6801 -4.9140 2.3895
1.8552 -4.8502 2.3895
2.0278 -4.7801 2.3895
2.1978 -4.7038 2.3895
2.3648 -4.6215 2.3895
2.4532 -4.3976 2.3180
2.5180 -4.1559 2.2371
2.6651 -4.0624 2.2371
2.8088 -3.9637 2.2371
2.9488 -3.8599 2.2371
3.0849 -3.7511 2.2371
3.2170 -3.6374 2.2371
3.3450 -3.5191 2.2371
3.4685 -3.3963 2.2371
3.5875 -3.2691 2.2371
3.7019 -3.1377 2.2371
3.8114 -3.0024 2.2371
3.9160 -2.8631 2.2371
4.0155 -2.7203 2.2371
4.1155 -2.5776 2.2402
4.2049 -2.4279 2.2404
4.2887 -2.2751 2.2405
4.3669 -2.1194 2.2407
4.4395 -1.9610 2.2408
4.5063 -1.8001 2.2409
4.5672 -1.6369 2.2410
4.6222 -1.4717 2.2411
4.6712 -1.3045 2.2411
4.7141 -1.1358 2.2412
4.7509 -0.9656 2.2412
4.7815 -0.7943 2.2413
4.8059 -0.6220 2.2413
4.8241 -0.4489 2.2413
4.8360 -0.2754 2.2413
4.8416 -0.1015 2.2413
4.8410 0.0724 2.2413
4.8341 0.2461 2.2413
4.8210 0.4194 2.2412
4.8016 0.5921 2.2412
4.7761 0.7640 2.2411
4.7443 0.9348 2.2411
4.7065 1.1043 2.2410
4.6626 1.2723 2.2409
4.6126 1.4386 2.2408
4.5568 1.6029 2.2407
4.4950 1.7651 2.2406
4.4275 1.9249 2.2404
4.3543 2.0822 2.2403
4.2756 2.2367 2.2401
4.1913 2.3882 2.2400
4.1017 2.5365 2.2398
4.0068 2.6815 2.2396
3.9068 2.8230 2.2394
3.8018 2.9608 2.2392
3.6920 3.0946 2.2390
3.5774 3.2244 2.2388
3.4583 3.3500 2.2386
3.3348 3.4712 2.2383
3.2071 3.5879 2.2381
3.0753 3.6999 2.2379
2.9396 3.8070 2.2376
2.8002 3.9093 2.2374
2.6572 4.0064 2.2371
2.5112 4.0988 2.2371
2.4771 4.3899 2.3461
2.3603 4.5584 2.3895
0.8719 1.8433 0.9493
0.8051 1.8736 0.9495
0.7373 1.9015 0.9496
0.6686 1.9269 0.9498
0.5989 1.9498 0.9499
0.5285 1.9702 0.9500
0.4573 1.9881 0.9501
0.3856 2.0034 0.9502
0.3133 2.0160 0.9503
0.2407 2.0261 0.9504
0.1677 2.0336 0.9505
0.0945 2.0384 0.9505
0.0212 2.0405 0.9506
-0.0522 2.0400 0.9506
-0.1255 2.0369 0.9506
-0.1987 2.0311 0.9506
-0.2716 2.0227 0.9506
-0.3441 2.0117 0.9506
-0.4162 1.9980 0.9506
-0.4877 1.9818 0.9505
-0.5587 1.9629 0.9505
-0.6289 1.9416 0.9504
-0.6982 1.9177 0.9503
-0.7667 1.8913 0.9502
-0.8342 1.8625 0.9501
-0.9006 1.8313 0.9500
-2.4295 4.5221 2.3895
-2.5907 4.4324 2.3895
-2.7487 4.3369 2.3895
-2.9031 4.2358 2.3895
-3.0539 4.1293 2.3895
-3.2008 4.0174 2.3895
-3.3436 3.9004 2.3895
-3.4821 3.7783 2.3895
-3.6162 3.6512 2.3895
-3.7457 3.5195 2.3895
-3.8704 3.3832 2.3895
-3.9902 3.2425 2.3895
-4.1048 3.0976 2.3895
-4.2143 2.9486 2.3895
-4.3183 2.7958 2.3895
-4.4168 2.6394 2.3895
-4.5097 2.4795 2.3895
-4.5968 2.3163 2.3895
-4.6780 2.1501 2.3895
-4.7532 1.9811 2.3895
-4.8223 1.8095 2.3895
-4.8853 1.6354 2.3895
-4.9419 1.4592 2.3895
-4.9922 1.2810 2.3895
-5.0361 1.1012 2.3895
-5.0736 0.9198 2.3895
-5.1045 0.7371 2.3895
-5.1288 0.5535 2.3895
-5.1466 0.3690 2.3895
-5.1577 0.1840 2.3895
-5.1621 -0.0013 2.3895
-5.1599 -0.1867 2.3895
-5.1511 -0.3720 2.3895
-5.1355 -0.5568 2.3895
-5.1134 -0.7410 2.3895
-5.0847 -0.9243 2.3895
-5.0493 -1.1065 2.3895
-5.0075 -1.2873 2.3895
-4.9591 -1.4666 2.3895
-4.9043 -1.6440 2.3895
-4.8432 -1.8194 2.3895
-4.7758 -1.9924 2.3895
-4.7022 -2.1630 2.3895
-4.6225 -2.3309 2.3895
-4.5368 -2.4958 2.3895
-4.4451 -2.6575 2.3895
-4.3478 -2.8159 2.3895
-4.2447 -2.9706 2.3895
-4.1362 -3.1216 2.3895
-4.0222 -3.2686 2.3895
-3.9030 -3.4114 2.3895
-3.7787 -3.5499 2.3895
-3.6495 -3.6838 2.3895
-3.5155 -3.8129 2.3895
-3.3770 -3.9372 2.3895
-3.2340 -4.0564 2.3895
-3.0869 -4.1704 2.3895
-2.9356 -4.2790 2.3895
-2.7806 -4.3822 2.3895
-2.6219 -4.4796 2.3895
-2.4598 -4.5713 2.3895
-2.2945 -4.6571 2.3895
-2.1262 -4.7369 2.3895
-1.9550 -4.8105 2.3895
-1.7814 -4.8779 2.3895
-1.6054 -4.9391 2.3895
-1.4273 -4.9938 2.3895
-1.2473 -5.0421 2.3895
-1.0657 -5.0838 2.3895
-0.8827 -5.1190 2.3895
-0.6986 -5.1476 2.3895
-0.5135 -5.1694 2.3895
-0.3277 -5.1846 2.3895
-0.1416 -5.1931 2.3895
0.0448 -5.1948 2.3895
0.2311 -5.1899 2.3895
0.4171 -5.1782 2.3895
0.6025 -5.1598 2.3895
0.7872 -5.1347 2.3895
0.9708 -5.1029 2.3895
1.1532 -5.0646 2.3895
1.3340 -5.0197 2.3895
1.5131 -4.9683 2.3895
1.6902 -4.9105 2.3895
1.8651 -4.8463 2.3895
2.0376 -4.7759 2.3895
2.2074 -4.6993 2.3895
2.3743 -4.6166 2.3895
2.4388 -4.3507 2.2959
2.5265 -4.1507 2.2371
2.6735 -4.0569 2.2371
2.8169 -3.9579 2.2371
2.9567 -3.8538 2.2371
3.0926 -3.7447 2.2371
3.2245 -3.6308 2.2371
3.3522 -3.5122 2.2371
3.4755 -3.3891 2.2371
3.5942 -3.2617 2.2371
3.7083 -3.1301 2.2371
3.8176 -2.9945 2.2371
3.9218 -2.8550 2.2371
4.0210 -2.7120 2.2371
4.1208 -2.5691 2.2403
4.2098 -2.4192 2.2404
4.2933 -2.2663 2.2405
4.3712 -2.1104 2.2407
4.4435 -1.9518 2.2408
4.5099 -1.7908 2.2409
4.5705 -1.6275 2.2410
4.6252 -1.4621 2.2411
4.6738 -1.2949 2.2411
4.7163 -1.1261 2.2412
4.7528 -0.9559 2.2412
4.7830 -0.7844 2.2413
4.8071 -0.6121 2.2413
4.8249 -0.4390 2.2413
4.8365 -0.2654 2.2413
4.8418 -0.0916 2.2413
4.8408 0.0823 2.2413
4.8336 0.2560 2.2413
4.8201 0.4294 2.2412
4.8003 0.6020 2.2412
4.7744 0.7738 2.2411
4.7423 0.9446 2.2411
4.7041 1.1140 2.2410
4.6599 1.2819 2.2409
4.6096 1.4481 2.2408
4.5534 1.6123 2.2407
4.4913 1.7743 2.2405
4.4235 1.9340 2.2404
4.3500 2.0911 2.2403
4.2709 2.2454 2.2401
4.1863 2.3968 2.2399
4.0964 2.5449 2.2398
4.0012 2.6897 2.2396
3.9009 2.8310 2.2394
3.7957 2.9685 2.2392
3.6855 3.1022 2.2390
3.5707 3.2317 2.2388
3.4514 3.3571 2.2386
3.3276 3.4780 2.2383
3.1997 3.5944 2.2381
3.0676 3.7062 2.2378
2.9317 3.8130 2.2376
2.7921 3.9150 2.2373
2.6489 4.0118 2.2371
2.5027 4.1039 2.2371
2.4765 4.4102 2.3542
2.3508 4.5632 2.3895
0.8681 1.8451 0.9493
0.8013 1.8753 0.9495
0.7334 1.9030 0.9496
0.6646 1.9283 0.9498
0.5949 1.9511 0.9499
0.5244 1.9713 0.9500
0.4532 1.9890 0.9501
0.3815 2.0042 0.9502
0.3092 2.0167 0.9503
0.2365 2.0266 0.9504
0.1635 2.0339 0.9505
0.0903 2.0385 0.9505
0.0170 2.0406 0.9506
-0.0564 2.0399 0.9506
-0.1297 2.0366 0.9506
-0.2028 2.0307 0.9506
-0.2757 2.0221 0.9506
-0.3482 2.0109 0.9506
-0.4203 1.9971 0.9506
-0.4918 1.9808 0.9505
-0.5627 1.9618 0.9505
-0.6329 1.9403 0.9504
-0.7022 1.9163 0.9503
-0.7706 1.8898 0.9502
-0.8380 1.8608 0.9501
-0.9044 1.8294 0.9500
-2.4388 4.5171 2.3895
-2.5999 4.4270 2.3895
-2.7576 4.3313 2.3895
-2.9119 4.2299 2.3895
-3.0624 4.1230 2.3895
-3.2091 4.0109 2.3895
-3.3516 3.8935 2.3895
-3.4899 3.7711 2.3895
-3.6238 3.6438 2.3895
-3.7530 3.5118 2.3895
-3.8774 3.3753 2.3895
-3.9969 3.2343 2.3895
-4.1113 3.0892 2.3895
-4.2204 2.9400 2.3895
-4.3241 2.7870 2.3895
-4.4223 2.6303 2.3895
-4.5148 2.4702 2.3895
-4.6016 2.3069 2.3895
-4.6825 2.1405 2.3895
-4.7573 1.9713 2.3895
-4.8261 1.7996 2.3895
-4.8887 1.6254 2.3895
-4.9450 1.4491 2.3895
-4.9949 1.2708 2.3895
-5.0385 1.0908 2.3895
-5.0755 0.9093 2.3895
-5.1061 0.7266 2.3895
-5.1300 0.5429 2.3895
-5.1474 0.3584 2.3895
-5.1581 0.1734 2.3895
-5.1622 -0.0119 2.3895
-5.1596 -0.1974 2.3895
-5.1503 -0.3826 2.3895
-5.1345 -0.5674 2.3895
-5.1119 -0.7515 2.3895
-5.0828 -0.9348 2.3895
-5.0471 -1.1169 2.3895
-5.0049 -1.2976 2.3895
-4.9561 -1.4768 2.3895
-4.9010 -1.6541 2.3895
-4.8395 -1.8293 2.3895
-4.7717 -2.0023 2.3895
-4.6978 -2.1727 2.3895
-4.6177 -2.3404 2.3895
-4.5317 -2.5051 2.3895
-4.4397 -2.6667 2.3895
-4.3420 -2.8248 2.3895
-4.2386 -2.9794 2.3895
-4.1298 -3.1301 2.3895
-4.0155 -3.2769 2.3895
-3.8960 -3.4195 2.3895
-3.7714 -3.5577 2.3895
-3.6420 -3.6913 2.3895
-3.5077 -3.8202 2.3895
-3.3689 -3.9442 2.3895
-3.2257 -4.0631 2.3895
-3.0783 -4.1768 2.3895
-2.9269 -4.2851 2.3895
-2.7716 -4.3879 2.3895
-2.6127 -4.4850 2.3895
-2.4504 -4.5764 2.3895
-2.2849 -4.6618 2.3895
-2.1164 -4.7412 2.3895
-1.9452 -4.8145 2.3895
-1.7713 -4.8816 2.3895
-1.5952 -4.9424 2.3895
-1.4170 -4.9967 2.3895
-1.2369 -5.0447 2.3895
-1.0553 -5.0860 2.3895
-0.8722 -5.1208 2.3895
-0.6880 -5.1490 2.3895
-0.5029 -5.1705 2.3895
-0.3171 -5.1853 2.3895
-0.1309 -5.1934 2.3895
0.0555 -5.1947 2.3895
0.2418 -5.1894 2.3895
0.4277 -5.1773 2.3895
0.6131 -5.1585 2.3895
0.7977 -5.1330 2.3895
0.9813 -5.1009 2.3895
1.1636 -5.0622 2.3895
1.3443 -5.0169 2.3895
1.5233 -4.9652 2.3895
1.7003 -4.9070 2.3895
1.8751 -4.8424 2.3895
2.0474 -4.7717 2.3895
2.2171 -4.6947 2.3895
2.3838 -4.6117 2.3895
2.4246 -4.3046 2.2742
2.5372 -4.1490 2.2390
2.6818 -4.0514 2.2371
2.8250 -3.9520 2.2371
2.9646 -3.8476 2.2371
3.1003 -3.7383 2.2371
3.2319 -3.6241 2.2371
3.3593 -3.5053 2.2371
3.4824 -3.3819 2.2371
3.6009 -3.2543 2.2371
3.7147 -3.1224 2.2371
3.8237 -2.9866 2.2371
3.9277 -2.8469 2.2371
4.0265 -2.7037 2.2371
4.1261 -2.5606 2.2403
4.2147 -2.4105 2.2404
4.2979 -2.2574 2.2405
4.3755 -2.1014 2.2407
4.4474 -1.9427 2.2408
4.5136 -1.7815 2.2409
4.5738 -1.6181 2.2410
4.6281 -1.4526 2.2411
4.6764 -1.2853 2.2411
4.7186 -1.1164 2.2412
4.7547 -0.9461 2.2412
4.7846 -0.7746 2.2413
4.8083 -0.6022 2.2413
4.8257 -0.4291 2.2413
4.8369 -0.2555 2.2413
4.8419 -0.0816 2.2413
4.8406 0.0923 2.2413
4.8330 0.2660 2.2413
4.8191 0.4393 2.2412
4.7990 0.6119 2.2412
4.7728 0.7837 2.2411
4.7403 0.9543 2.2411
4.7018 1.1237 2.2410
4.6571 1.2915 2.2409
4.6065 1.4575 2.2408
4.5500 1.6216 2.2407
4.4876 1.7835 2.2405
4.4194 1.9431 2.2404
4.3456 2.1000 2.2403
4.2662 2.2542 2.2401
4.1813 2.4053 2.2399
4.0911 2.5533 2.2398
3.9956 2.6979 2.2396
3.8950 2.8390 2.2394
3.7895 2.9763 2.2392
3.6791 3.1097 2.2390
3.5640 3.2391 2.2388
3.4444 3.3641 2.2385
3.3204 3.4848 2.2383
3.1922 3.6010 2.2381
3.0599 3.7124 2.2378
2.9238 3.8190 2.2376
2.7840 3.9207 2.2373
2.6427 4.0205 2.2389
2.4953 4.1109 2.2381
2.4760 4.4306 2.3624
2.3414 4.5680 2.3895
0.8643 1.8469 0.9493
0.7974 1.8769 0.9495
0.7295 1.9045 0.9496
0.6606 1.9297 0.9498
0.5909 1.9523 0.9499
0.5203 1.9724 0.9500
0.4491 1.9900 0.9501
0.3773 2.0049 0.9503
0.3050 2.0173 0.9503
0.2323 2.0271 0.9504
0.1593 2.0342 0.9505
0.0861 2.0387 0.9505
0.0127 2.0406 0.9506
-0.0606 2.0398 0.9506
-0.1339 2.0364 0.9506
-0.2070 2.0303 0.9506
-0.2799 2.0216 0.9506
-0.3524 2.0102 0.9506
-0.4244 1.9963 0.9506
-0.4959 1.9797 0.9505
-0.5668 1.9606 0.9505
-0.6369 1.9390 0.9504
-0.7061 1.9148 0.9503
-0.7745 1.8882 0.9502
-0.8419 1.8591 0.9501
-0.9081 1.8276 0.9500
-2.4481 4.5121 2.3895
-2.6090 4.4217 2.3895
-2.7666 4.3256 2.3895
-2.9206 4.2239 2.3895
-3.0709 4.1167 2.3895
-3.2174 4.0043 2.3895
-3.3597 3.8866 2.3895
-3.4977 3.7639 2.3895
-3.6313 3.6364 2.3895
-3.7602 3.5041 2.3895
-3.8844 3.3673 2.3895
-4.0036 3.2261 2.3895
-4.1176 3.0807 2.3895
-4.2265 2.9313 2.3895
-4.3299 2.7781 2.3895
-4.4278 2.6212 2.3895
-4.5200 2.4609 2.3895
-4.6064 2.2974 2.3895
-4.6869 2.1309 2.3895
-4.7614 1.9616 2.3895
-4.8298 1.7896 2.3895
-4.8921 1.6153 2.3895
-2.7778 -4.0315 2.3895
-2.6318 -4.1291 2.3895
-2.4822 -4.2213 2.3895
-2.3295 -4.3081 2.3895
-2.1736 -4.3894 2.3895
-2.0150 -4.4649 2.3895
-1.8537 -4.5347 2.3895
-1.6900 -4.5987 2.3895
-1.5241 -4.6566 2.3895
-1.3562 -4.7086 2.3895
-1.1865 -4.7545 2.3895
-1.0152 -4.7942 2.3895
-0.8427 -4.8278 2.3895
-0.6690 -4.8550 2.3895
-0.4944 -4.8760 2.3895
-0.3192 -4.8907 2.3895
-0.1436 -4.8991 2.3895
0.0322 -4.9011 2.3895
0.2079 -4.8968 2.3895
0.3834 -4.8861 2.3895
0.5584 -4.8691 2.3895
0.7327 -4.8458 2.3895
0.9060 -4.8162 2.3895
1.0781 -4.7804 2.3895
1.2488 -4.7384 2.3895
1.4178 -4.6903 2.3895
1.5850 -4.6361 2.3895
1.7502 -4.5759 2.3895
1.9130 -4.5099 2.3895
2.0734 -4.4379 2.3895
2.2310 -4.3603 2.3895
2.3857 -4.2770 2.3895
2.3755 -3.9211 2.2371
2.5143 -3.8329 2.2371
2.6499 -3.7398 2.2371
2.7820 -3.6418 2.2371
2.9104 -3.5392 2.2371
3.0351 -3.4320 2.2371
3.1558 -3.3204 2.2371
3.2724 -3.2046 2.2371
3.3847 -3.0846 2.2371
3.4926 -2.9607 2.2371
3.5960 -2.8330 2.2371
3.6947 -2.7016 2.2371
3.7930 -2.5699 2.2397
3.8823 -2.4318 2.2398
3.9666 -2.2906 2.2400
4.0457 -2.1465 2.2401
4.1195 -1.9996 2.2402
4.1880 -1.8502 2.2403
4.2510 -1.6984 2.2404
4.3085 -1.5445 2.2405
4.3604 -1.3886 2.2406
4.4067 -1.2310 2.2406
4.4472 -1.0718 2.2407
4.4819 -0.9113 2.2408
4.5109 -0.7497 2.2408
4.5339 -0.5871 2.2408
4.5511 -0.4238 2.2408
4.5624 -0.2601 2.2408
4.5678 -0.0961 2.2408
4.5673 0.0680 2.2408
4.5609 0.2319 2.2408
4.5485 0.3954 2.2408
4.5303 0.5584 2.2407
4.5062 0.7205 2.2407
4.4763 0.8817 2.2406
4.4407 1.0416 2.2405
4.3993 1.2002 2.2404
4.3522 1.3571 2.2403
4.2996 1.5121 2.2402
4.2414 1.6652 2.2401
4.1778 1.8160 2.2400
4.1087 1.9644 2.2398
4.0345 2.1102 2.2397
3.9550 2.2532 2.2395
3.8705 2.3932 2.2394
3.7810 2.5301 2.2392
3.6867 2.6636 2.2390
3.5877 2.7937 2.2389
3.4841 2.9200 2.2387
3.3760 3.0426 2.2385
3.2637 3.1611 2.2382
3.1472 3.2756 2.2380
3.0267 3.3857 2.2378
2.9023 3.4914 2.2376
2.7743 3.5926 2.2373
2.6427 3.6891 2.2371
2.5081 3.7812 2.2371
2.4633 4.0203 2.3248
2.3813 4.2199 2.3895
0.8845 1.7081 0.9487
0.8226 1.7389 0.9488
0.7596 1.7675 0.9490
0.6956 1.7938 0.9491
0.6307 1.8178 0.9493
0.5650 1.8394 0.9494
0.4986 1.8586 0.9495
0.4315 1.8755 0.9496
0.3638 1.8899 0.9497
0.2956 1.9018 0.9498
0.2271 1.9113 0.9499
0.1582 1.9183 0.9500
0.0891 1.9229 0.9500
0.0200 1.9249 0.9500
-0.0493 1.9244 0.9501
-0.1184 1.9215 0.9501
-0.1874 1.9160 0.9501
-0.2562 1.9081 0.9501
-0.3246 1.8977 0.9501
-0.3926 1.8848 0.9500
-0.4601 1.8695 0.9500
-0.5270 1.8517 0.9500
-0.5933 1.8316 0.9499
-0.6587 1.8090 0.9498
-0.7233 1.7842 0.9497
-0.7870 1.7570 0.9496
-0.8496 1.7275 0.9495
-0.9111 1.6958 0.9494
-2.4454 4.1834 2.3895
-2.5944 4.0932 2.3895
-2.7402 3.9978 2.3895
-2.8825 3.8972 2.3895
-3.0211 3.7916 2.3895
-3.1559 3.6811 2.3895
-3.2866 3.5658 2.3895
-3.4132 3.4459 2.3895
-3.5354 3.3215 2.3895
-3.6530 3.1929 2.3895
-3.7660 3.0600 2.3895
-3.8742 2.9232 2.3895
-3.9775 2.7826 2.3895
-4.0756 2.6384 2.3895
-4.1686 2.4907 2.3895
-4.2562 2.3398 2.3895
-4.3384 2.1858 2.3895
-4.4149 2.0289 2.3895
-4.4859 1.8694 2.3895
-4.5511 1.7074 2.3895
-4.6104 1.5431 2.3895
-4.6639 1.3768 2.3895
-4.7113 1.2086 2.3895
-4.7527 1.0389 2.3895
-4.7880 0.8677 2.3895
-4.8171 0.6953 2.3895
-4.8400 0.5220 2.3895
-4.8567 0.3479 2.3895
-4.8671 0.1733 2.3895
-4.8713 -0.0016 2.3895
-4.8691 -0.1765 2.3895
-4.8607 -0.3513 2.3895
-4.8460 -0.5257 2.3895
-4.8251 -0.6995 2.3895
-4.7979 -0.8725 2.3895
-4.7645 -1.0444 2.3895
-4.7250 -1.2150 2.3895
-4.6793 -1.3841 2.3895
-4.6276 -1.5515 2.3895
-4.5698 -1.7170 2.3895
-4.5062 -1.8803 2.3895
-4.4367 -2.0412 2.3895
-4.3615 -2.1996 2.3895
-4.2806 -2.3551 2.3895
-4.1941 -2.5077 2.3895
-4.1021 -2.6571 2.3895
-4.0049 -2.8031 2.3895
-3.9024 -2.9455 2.3895
-3.7949 -3.0842 2.3895
-3.6824 -3.2189 2.3895
-3.5651 -3.3495 2.3895
-3.4432 -3.4758 2.3895
-3.3168 -3.5976 2.3895
-3.1860 -3.7149 2.3895
-3.0511 -3.8273 2.3895
-2.9122 -3.9348 2.3895
-2.7696 -4.0373 2.3895
-2.6233 -4.1345 2.3895
-2.4735 -4.2265 2.3895
-2.3206 -4.3129 2.3895
-2.1646 -4.3938 2.3895
-2.0058 -4.4691 2.3895
-1.8444 -4.5385 2.3895
-1.6805 -4.6021 2.3895
-1.5145 -4.6598 2.3895
-1.3465 -4.7114 2.3895
-1.1767 -4.7569 2.3895
-1.0054 -4.7963 2.3895
-0.8327 -4.8295 2.3895
-0.6590 -4.8564 2.3895
-0.4844 -4.8771 2.3895
-0.3092 -4.8914 2.3895
-0.1336 -4.8994 2.3895
0.0422 -4.9010 2.3895
0.2180 -4.8963 2.3895
0.3935 -4.8853 2.3895
0.5684 -4.8679 2.3895
0.7426 -4.8443 2.3895
0.9159 -4.8143 2.3895
1.0879 -4.7782 2.3895
1.2585 -4.7358 2.3895
1.4275 -4.6874 2.3895
1.5946 -4.6328 2.3895
1.7596 -4.5723 2.3895
1.9223 -4.5059 2.3895
2.0825 -4.4336 2.3895
2.2400 -4.3557 2.3895
2.3856 -4.2561 2.3805
2.3836 -3.9162 2.2371
2.5222 -3.8277 2.2371
2.6576 -3.7343 2.2371
2.7894 -3.6361 2.2371
2.9177 -3.5332 2.2371
3.0421 -3.4257 2.2371
3.1626 -3.3139 2.2371
3.2790 -3.1978 2.2371
3.3910 -3.0776 2.2371
3.4987 -2.9535 2.2371
3.6018 -2.8255 2.2371
3.7002 -2.6940 2.2371
3.7983 -2.5620 2.2397
3.8873 -2.4238 2.2398
3.9712 -2.2824 2.2400
4.0500 -2.1382 2.2401
4.1236 -1.9911 2.2402
4.1918 -1.8416 2.2403
4.2545 -1.6897 2.2404
4.3117 -1.5356 2.2405
4.3632 -1.3796 2.2406
4.4092 -1.2219 2.2407
4.4493 -1.0626 2.2407
4.4838 -0.9021 2.2408
4.5124 -0.7404 2.2408
4.5351 -0.5778 2.2408
4.5519 -0.4145 2.2408
4.5629 -0.2507 2.2408
4.5679 -0.0867 2.2408
4.5671 0.0774 2.2408
4.5603 0.2413 2.2408
4.5476 0.4048 2.2408
4.5291 0.5677 2.2407
4.5047 0.7298 2.2407
4.4744 0.8909 2.2406
4.4385 1.0508 2.2405
4.3967 1.2092 2.2404
4.3494 1.3660 2.2403
4.2964 1.5210 2.2402
4.2379 1.6739 2.2401
4.1739 1.8246 2.2400
4.1046 1.9729 2.2398
4.0300 2.1185 2.2397
3.9503 2.2613 2.2395
3.8655 2.4012 2.2394
3.7757 2.5379 2.2392
3.6811 2.6712 2.2390
3.5819 2.8010 2.2388
3.4780 2.9272 2.2386
3.3697 3.0495 2.2384
3.2571 3.1678 2.2382
3.1404 3.2820 2.2380
3.0196 3.3919 2.2378
2.8951 3.4974 2.2376
2.7668 3.5983 2.2373
2.6351 3.6945 2.2371
2.5003 3.7864 2.2371
2.4628 4.0381 2.3322
2.3726 4.2248 2.3895
0.8810 1.7099 0.9487
0.8190 1.7406 0.9488
0.7560 1.7691 0.9490
0.6919 1.7952 0.9491
0.6270 1.8191 0.9493
0.5612 1.8406 0.9494
0.4947 1.8597 0.9495
0.4276 1.8764 0.9496
0.3599 1.8906 0.9497
0.2917 1.9024 0.9498
0.2231 1.9118 0.9499
0.1543 1.9187 0.9500
0.0852 1.9231 0.9500
0.0160 1.9249 0.9500
-0.0532 1.9243 0.9501
-0.1224 1.9212 0.9501
-0.1914 1.9156 0.9501
-0.2601 1.9075 0.9501
-0.3285 1.8970 0.9501
