ply
format ascii 1.0
element vertex 2186
property float32 x
property float32 y
property float32 z
end_header
8.4055 0.9053 2.3822
8.3644 1.2017 2.3822
8.3111 1.4959 2.3822
8.2456 1.7877 2.3822
8.1680 2.0761 2.3822
8.0786 2.3608 2.3822
7.9776 2.6412 2.3822
7.8652 2.9169 2.3822
7.7417 3.1873 2.3822
7.6073 3.4519 2.3822
7.4624 3.7103 2.3822
7.3074 3.9621 2.3822
7.1425 4.2068 2.3822
6.9682 4.4441 2.3822
6.7848 4.6735 2.3822
6.5928 4.8948 2.3822
6.3926 5.1075 2.3822
6.1845 5.3118 2.3822
5.9693 5.5064 2.3822
5.7472 5.6920 2.3822
5.5186 5.8680 2.3822
5.2840 6.0344 2.3822
5.0440 6.1908 2.3822
4.7989 6.3372 2.3822
4.5493 6.4735 2.3822
4.2957 6.5995 2.3822
4.0384 6.7152 2.3822
3.7780 6.8205 2.3822
3.5149 6.9154 2.3822
3.2495 6.9999 2.3822
2.9824 7.0741 2.3822
2.7139 7.1378 2.3822
0.9217 2.7114 0.8981
0.8240 2.7415 0.9027
0.7254 2.7681 0.9073
0.6258 2.7911 0.9119
0.5255 2.8105 0.9166
0.4245 2.8262 0.9213
0.3230 2.8383 0.9261
0.2212 2.8467 0.9308
0.1191 2.8514 0.9356
0.0169 2.8525 0.9404
-0.0853 2.8498 0.9452
-0.1874 2.8434 0.9499
-0.2891 2.8334 0.9547
-0.3904 2.8196 0.9594
-0.4912 2.8022 0.9641
-0.5912 2.7812 0.9688
-0.6904 2.7566 0.9735
-0.7887 2.7284 0.9781
-2.1477 6.5374 2.3822
-2.3695 6.4226 2.3822
-2.5862 6.3009 2.3822
-2.7978 6.1726 2.3822
-3.0039 6.0380 2.3822
-3.2045 5.8971 2.3822
-3.3993 5.7503 2.3822
-3.5884 5.5981 2.3822
-3.7714 5.4399 2.3822
-3.9484 5.2766 2.3822
-4.1192 5.1084 2.3822
-4.2838 4.9353 2.3822
-4.4419 4.7577 2.3822
-4.5936 4.5757 2.3822
-4.7388 4.3895 2.3822
-4.8773 4.1994 2.3822
-5.0092 4.0056 2.3822
-5.1343 3.8083 2.3822
-5.2527 3.6078 2.3822
-5.3641 3.4041 2.3822
-5.4688 3.1976 2.3822
-5.5664 2.9883 2.3822
-5.6571 2.7767 2.3822
-5.7408 2.5627 2.3822
-5.8175 2.3467 2.3822
-5.8871 2.1289 2.3822
-5.9496 1.9093 2.3822
-6.0050 1.6883 2.3822
-6.0534 1.4659 2.3822
-6.0946 1.2425 2.3822
-6.1286 1.0182 2.3822
-6.1556 0.7931 2.3822
-6.1754 0.5675 2.3822
-6.1880 0.3415 2.3822
-6.1936 0.1154 2.3822
-6.1920 -0.1107 2.3822
-6.1832 -0.3366 2.3822
-6.1673 -0.5621 2.3822
-6.1444 -0.7870 2.3822
-6.1143 -1.0112 2.3822
-6.0771 -1.2345 2.3822
-6.0329 -1.4566 2.3822
-5.9817 -1.6774 2.3822
-5.9234 -1.8967 2.3822
-5.8582 -2.1143 2.3822
-5.7860 -2.3300 2.3822
-5.7068 -2.5437 2.3822
-5.6208 -2.7552 2.3822
-5.5279 -2.9642 2.3822
-5.4282 -3.1706 2.3822
-5.3218 -3.3741 2.3822
-5.2086 -3.5746 2.3822
-5.0888 -3.7720 2.3822
-4.9624 -3.9659 2.3822
-4.8294 -4.1562 2.3822
-4.6900 -4.3427 2.3822
-4.5442 -4.5252 2.3822
-4.3921 -4.7035 2.3822
-4.2337 -4.8774 2.3822
-4.0692 -5.0466 2.3822
-3.8986 -5.2110 2.3822
-3.7221 -5.3704 2.3822
-3.5398 -5.5246 2.3822
-3.3517 -5.6732 2.3822
-3.1581 -5.8162 2.3822
-2.9589 -5.9534 2.3822
-2.7545 -6.0844 2.3822
-2.5449 -6.2091 2.3822
-2.3302 -6.3273 2.3822
-2.1107 -6.4388 2.3822
-1.8866 -6.5433 2.3822
-1.6579 -6.6407 2.3822
-1.4250 -6.7307 2.3822
-1.1879 -6.8132 2.3822
-0.9470 -6.8879 2.3822
-0.7025 -6.9546 2.3822
-0.4545 -7.0131 2.3822
-0.2035 -7.0634 2.3822
0.0505 -7.1050 2.3822
0.3071 -7.1380 2.3822
0.5659 -7.1620 2.3822
0.8269 -7.1771 2.3822
1.0895 -7.1828 2.3822
1.3534 -7.1793 2.3822
1.6185 -7.1662 2.3822
1.8842 -7.1435 2.3822
2.1503 -7.1111 2.3822
2.4163 -7.0688 2.3822
2.6819 -7.0166 2.3822
2.9467 -6.9544 2.3822
3.2103 -6.8821 2.3822
3.4723 -6.7997 2.3822
3.7323 -6.7072 2.3822
3.9897 -6.6045 2.3822
4.2443 -6.4917 2.3822
4.4955 -6.3688 2.3822
4.7429 -6.2359 2.3822
4.9860 -6.0930 2.3822
5.2245 -5.9402 2.3822
5.4578 -5.7777 2.3822
5.6855 -5.6056 2.3822
5.9071 -5.4241 2.3822
6.1222 -5.2333 2.3822
6.3304 -5.0335 2.3822
6.5311 -4.8250 2.3822
6.7240 -4.6079 2.3822
6.9086 -4.3826 2.3822
7.0845 -4.1494 2.3822
7.2514 -3.9087 2.3822
7.4088 -3.6608 2.3822
7.5563 -3.4060 2.3822
7.6937 -3.1449 2.3822
7.8205 -2.8778 2.3822
7.9365 -2.6052 2.3822
8.0414 -2.3276 2.3822
8.1349 -2.0454 2.3822
8.2168 -1.7592 2.3822
8.2868 -1.4695 2.3822
8.3448 -1.1768 2.3822
8.3905 -0.8813 2.3822
8.4242 -0.5847 2.3822
8.4453 -0.2863 2.3822
8.4540 0.0128 2.3822
8.4502 0.3121 2.3822
8.4339 0.6110 2.3822
8.4051 0.9088 2.3822
8.3639 1.2052 2.3822
8.3104 1.4995 2.3822
8.2447 1.7911 2.3822
8.1670 2.0795 2.3822
8.0775 2.3642 2.3822
7.9763 2.6445 2.3822
7.8638 2.9201 2.3822
7.7401 3.1905 2.3822
7.6056 3.4550 2.3822
7.4606 3.7134 2.3822
7.3055 3.9651 2.3822
7.1405 4.2097 2.3822
6.9661 4.4469 2.3822
6.7826 4.6762 2.3822
6.5905 4.8974 2.3822
6.3902 5.1100 2.3822
6.1820 5.3142 2.3822
5.9667 5.5087 2.3822
5.7445 5.6941 2.3822
5.5158 5.8701 2.3822
5.2812 6.0363 2.3822
5.0411 6.1926 2.3822
4.7960 6.3389 2.3822
4.5463 6.4750 2.3822
4.2926 6.6009 2.3822
4.0353 6.7165 2.3822
3.7749 6.8217 2.3822
3.5118 6.9165 2.3822
3.2464 7.0009 2.3822
2.9793 7.0749 2.3822
2.7108 7.1385 2.3822
0.9205 2.7117 0.8982
0.8229 2.7418 0.9028
0.7242 2.7684 0.9074
0.6246 2.7913 0.9120
0.5243 2.8107 0.9167
0.4233 2.8264 0.9214
0.3218 2.8384 0.9261
0.2200 2.8468 0.9309
0.1179 2.8515 0.9357
0.0157 2.8525 0.9404
-1.3257 -6.2705 2.3822
-1.1045 -6.3454 2.3822
-0.8798 -6.4131 2.3822
-0.6519 -6.4733 2.3822
-0.4209 -6.5258 2.3822
-0.1872 -6.5705 2.3822
0.0490 -6.6072 2.3822
0.2876 -6.6357 2.3822
0.5281 -6.6559 2.3822
0.7703 -6.6677 2.3822
1.0139 -6.6709 2.3822
1.2587 -6.6654 2.3822
1.5042 -6.6511 2.3822
1.7502 -6.6278 2.3822
1.9964 -6.5955 2.3822
2.2424 -6.5541 2.3822
2.4878 -6.5036 2.3822
2.7322 -6.4438 2.3822
2.9754 -6.3747 2.3822
3.2170 -6.2963 2.3822
3.4564 -6.2087 2.3822
3.6935 -6.1117 2.3822
3.9277 -6.0054 2.3822
4.1586 -5.8899 2.3822
4.3859 -5.7653 2.3822
4.6092 -5.6315 2.3822
4.8281 -5.4888 2.3822
5.0420 -5.3371 2.3822
5.2507 -5.1768 2.3822
5.4537 -5.0079 2.3822
5.6506 -4.8306 2.3822
5.8410 -4.6452 2.3822
6.0245 -4.4518 2.3822
6.2008 -4.2507 2.3822
6.3695 -4.0422 2.3822
6.5301 -3.8265 2.3822
6.6824 -3.6041 2.3822
6.8260 -3.3751 2.3822
6.9605 -3.1401 2.3822
7.0858 -2.8993 2.3822
7.2013 -2.6531 2.3822
7.3070 -2.4020 2.3822
7.4026 -2.1464 2.3822
7.4877 -1.8867 2.3822
7.5623 -1.6234 2.3822
7.6261 -1.3569 2.3822
7.6789 -1.0877 2.3822
7.7206 -0.8164 2.3822
7.7512 -0.5434 2.3822
7.7705 -0.2692 2.3822
7.7785 0.0057 2.3822
7.7751 0.2808 2.3822
7.7604 0.5554 2.3822
7.7344 0.8293 2.3822
7.6970 1.1017 2.3822
7.6485 1.3723 2.3822
7.5889 1.6405 2.3822
7.5184 1.9058 2.3822
7.4371 2.1678 2.3822
7.3451 2.4260 2.3822
7.2428 2.6798 2.3822
7.1304 2.9290 2.3822
7.0080 3.1729 2.3822
6.8761 3.4113 2.3822
6.7348 3.6437 2.3822
6.5845 3.8698 2.3822
6.4256 4.0891 2.3822
6.2583 4.3014 2.3822
6.0830 4.5063 2.3822
5.9002 4.7036 2.3822
5.7102 4.8929 2.3822
5.5133 5.0740 2.3822
5.3101 5.2467 2.3822
5.1009 5.4107 2.3822
4.8861 5.5659 2.3822
4.6661 5.7122 2.3822
4.4414 5.8493 2.3822
4.2124 5.9771 2.3822
3.9795 6.0956 2.3822
3.7431 6.2047 2.3822
3.5036 6.3043 2.3822
3.2615 6.3944 2.3822
3.0172 6.4750 2.3822
2.7711 6.5460 2.3822
0.9501 2.4878 0.8969
0.8605 2.5191 0.9011
0.7698 2.5471 0.9053
0.6782 2.5718 0.9096
0.5857 2.5932 0.9139
0.4924 2.6112 0.9182
0.3986 2.6259 0.9226
0.3043 2.6371 0.9270
0.2097 2.6450 0.9314
0.1148 2.6494 0.9359
0.0199 2.6504 0.9403
-0.0751 2.6479 0.9448
-0.1699 2.6420 0.9492
-0.2644 2.6327 0.9536
-0.3585 2.6200 0.9580
-0.4521 2.6039 0.9624
-0.5451 2.5844 0.9667
-0.6373 2.5616 0.9711
-0.7286 2.5354 0.9753
-0.8189 2.5060 0.9796
-2.1990 5.9891 2.3822
-2.4019 5.8775 2.3822
-2.6000 5.7597 2.3822
-2.7932 5.6358 2.3822
-2.9813 5.5060 2.3822
-3.1641 5.3706 2.3822
-3.3416 5.2297 2.3822
-3.5136 5.0835 2.3822
-3.6800 4.9324 2.3822
-3.8406 4.7764 2.3822
-3.9954 4.6158 2.3822
-4.1443 4.4508 2.3822
-4.2872 4.2817 2.3822
-4.4240 4.1085 2.3822
-4.5546 3.9315 2.3822
-4.6790 3.7510 2.3822
-4.7971 3.5671 2.3822
-4.9088 3.3800 2.3822
-5.0142 3.1899 2.3822
-5.1130 2.9970 2.3822
-5.2053 2.8016 2.3822
-5.2911 2.6037 2.3822
-5.3703 2.4036 2.3822
-5.4429 2.2016 2.3822
-5.5088 1.9977 2.3822
-5.5681 1.7921 2.3822
-5.6207 1.5852 2.3822
-5.6665 1.3769 2.3822
-5.7057 1.1676 2.3822
-5.7380 0.9573 2.3822
-5.7637 0.7464 2.3822
-5.7826 0.5349 2.3822
-5.7948 0.3231 2.3822
-5.8002 0.1111 2.3822
-5.7988 -0.1009 2.3822
-5.7907 -0.3127 2.3822
-5.7759 -0.5241 2.3822
-5.7543 -0.7350 2.3822
-5.7261 -0.9452 2.3822
-5.6911 -1.1545 2.3822
-5.6495 -1.3627 2.3822
-5.6012 -1.5696 2.3822
-5.5463 -1.7751 2.3822
-5.4848 -1.9790 2.3822
-5.4168 -2.1810 2.3822
-5.3422 -2.3811 2.3822
-5.2611 -2.5790 2.3822
-5.1735 -2.7746 2.3822
-5.0796 -2.9676 2.3822
-4.9793 -3.1580 2.3822
-4.8726 -3.3454 2.3822
-4.7598 -3.5297 2.3822
-4.6407 -3.7107 2.3822
-4.5155 -3.8883 2.3822
-4.3843 -4.0622 2.3822
-4.2470 -4.2323 2.3822
-4.1039 -4.3983 2.3822
-3.9550 -4.5601 2.3822
-3.8003 -4.7175 2.3822
-3.6401 -4.8702 2.3822
-3.4743 -5.0182 2.3822
-3.3031 -5.1610 2.3822
-3.1265 -5.2988 2.3822
-2.9449 -5.4311 2.3822
-2.7582 -5.5578 2.3822
-2.5666 -5.6787 2.3822
-2.3702 -5.7936 2.3822
-2.1693 -5.9023 2.3822
-1.9640 -6.0046 2.3822
-1.7543 -6.1003 2.3822
-1.5406 -6.1893 2.3822
-1.3231 -6.2714 2.3822
-1.1018 -6.3463 2.3822
-0.8771 -6.4139 2.3822
-0.6492 -6.4740 2.3822
-0.4182 -6.5264 2.3822
-0.1844 -6.5710 2.3822
0.0519 -6.6076 2.3822
0.2904 -6.6360 2.3822
0.5309 -6.6561 2.3822
0.7732 -6.6678 2.3822
1.0168 -6.6709 2.3822
1.2616 -6.6653 2.3822
1.5071 -6.6509 2.3822
1.7532 -6.6275 2.3822
1.9993 -6.5951 2.3822
2.2453 -6.5536 2.3822
2.4907 -6.5029 2.3822
2.7351 -6.4430 2.3822
2.9783 -6.3738 2.3822
3.2198 -6.2953 2.3822
3.4593 -6.2076 2.3822
3.6963 -6.1105 2.3822
3.9304 -6.0041 2.3822
4.1614 -5.8885 2.3822
4.3886 -5.7637 2.3822
4.6119 -5.6299 2.3822
4.8306 -5.4870 2.3822
5.0445 -5.3353 2.3822
5.2531 -5.1749 2.3822
5.4560 -5.0058 2.3822
5.6529 -4.8285 2.3822
5.8432 -4.6429 2.3822
6.0267 -4.4494 2.3822
6.2029 -4.2482 2.3822
6.3714 -4.0396 2.3822
6.5320 -3.8239 2.3822
6.6841 -3.6014 2.3822
6.8276 -3.3724 2.3822
6.9621 -3.1372 2.3822
7.0872 -2.8964 2.3822
7.2027 -2.6501 2.3822
7.3082 -2.3990 2.3822
7.4037 -2.1433 2.3822
7.4887 -1.8836 2.3822
7.5631 -1.6202 2.3822
7.6267 -1.3537 2.3822
7.6794 -1.0845 2.3822
7.7211 -0.8131 2.3822
7.7515 -0.5401 2.3822
7.7707 -0.2659 2.3822
7.7785 0.0090 2.3822
7.7750 0.2840 2.3822
7.7602 0.5587 2.3822
7.7340 0.8325 2.3822
7.6965 1.1050 2.3822
7.6479 1.3755 2.3822
7.5881 1.6437 2.3822
7.5175 1.9090 2.3822
7.4360 2.1709 2.3822
7.3440 2.4290 2.3822
7.2416 2.6828 2.3822
7.1290 2.9319 2.3822
7.0065 3.1758 2.3822
6.8745 3.4141 2.3822
6.7331 3.6465 2.3822
6.5827 3.8724 2.3822
6.4236 4.0917 2.3822
6.2562 4.3039 2.3822
6.0809 4.5087 2.3822
5.8980 4.7059 2.3822
5.7079 4.8951 2.3822
5.5110 5.0761 2.3822
5.3077 5.2487 2.3822
5.0984 5.4126 2.3822
4.8835 5.5677 2.3822
4.6634 5.7138 2.3822
4.4387 5.8508 2.3822
4.2096 5.9786 2.3822
3.9767 6.0970 2.3822
3.7403 6.2060 2.3822
3.5008 6.3055 2.3822
3.2587 6.3954 2.3822
3.0143 6.4759 2.3822
2.7682 6.5468 2.3822
0.9491 2.4882 0.8969
0.8594 2.5194 0.9011
0.7687 2.5474 0.9054
0.6771 2.5721 0.9096
0.5846 2.5934 0.9139
0.4913 2.6114 0.9183
0.3975 2.6260 0.9227
0.3032 2.6373 0.9271
0.2086 2.6451 0.9315
0.1137 2.6494 0.9359
0.0187 2.6504 0.9404
-0.0762 2.6479 0.9448
-0.1710 2.6420 0.9492
-0.2655 2.6326 0.9537
-0.3596 2.6199 0.9581
-0.4532 2.6037 0.9624
-0.5462 2.5842 0.9668
-0.6384 2.5613 0.9711
-0.7297 2.5351 0.9754
-0.8200 2.5056 0.9796
-2.2015 5.9878 2.3822
-2.4043 5.8762 2.3822
-2.6024 5.7582 2.3822
-2.7955 5.6343 2.3822
-2.9835 5.5044 2.3822
-3.1663 5.3689 2.3822
-3.3437 5.2280 2.3822
-3.5156 5.0818 2.3822
-3.6819 4.9306 2.3822
-3.8425 4.7745 2.3822
-3.9972 4.6139 2.3822
-4.1461 4.4488 2.3822
-4.2889 4.2796 2.3822
-4.4256 4.1064 2.3822
-4.5562 3.9294 2.3822
-4.6805 3.7488 2.3822
-4.7985 3.5649 2.3822
-4.9101 3.3777 2.3822
-5.0154 3.1876 2.3822
-5.1141 2.9947 2.3822
-5.2064 2.7992 2.3822
-5.2921 2.6015 2.3822
-5.3712 2.4013 2.3822
-5.4437 2.1992 2.3822
-5.5096 1.9952 2.3822
-5.5687 1.7897 2.3822
-5.6212 1.5827 2.3822
-5.6670 1.3744 2.3822
-5.7061 1.1651 2.3822
-5.7384 0.9549 2.3822
-5.7640 0.7439 2.3822
-5.7828 0.5324 2.3822
-5.7949 0.3206 2.3822
-5.8002 0.1086 2.3822
-5.7988 -0.1034 2.3822
-5.7906 -0.3152 2.3822
-5.7757 -0.5267 2.3822
-5.7540 -0.7375 2.3822
-5.7257 -0.9477 2.3822
-5.6907 -1.1570 2.3822
-5.6490 -1.3651 2.3822
-5.6006 -1.5721 2.3822
-5.5456 -1.7775 2.3822
-5.4841 -1.9814 2.3822
-5.4159 -2.1834 2.3822
-5.3412 -2.3835 2.3822
-5.2601 -2.5814 2.3822
-5.1725 -2.7769 2.3822
-5.0784 -2.9699 2.3822
-4.9780 -3.1602 2.3822
-4.8713 -3.3476 2.3822
-4.7584 -3.5319 2.3822
-4.6392 -3.7129 2.3822
-4.5140 -3.8904 2.3822
-4.3827 -4.0643 2.3822
-4.2454 -4.2343 2.3822
-4.1022 -4.4003 2.3822
-3.9532 -4.5620 2.3822
-3.7985 -4.7193 2.3822
-3.6381 -4.8720 2.3822
-3.4723 -5.0199 2.3822
-3.3010 -5.1627 2.3822
-3.1244 -5.3004 2.3822
-2.9427 -5.4326 2.3822
-2.7559 -5.5592 2.3822
-2.5643 -5.6801 2.3822
-2.3679 -5.7949 2.3822
-2.1669 -5.9035 2.3822
-1.9615 -6.0057 2.3822
-1.7518 -6.1014 2.3822
-1.5381 -6.1904 2.3822
-1.3205 -6.2723 2.3822
-1.0992 -6.3471 2.3822
-0.8744 -6.4146 2.3822
-0.6464 -6.4746 2.3822
-0.4154 -6.5270 2.3822
-0.1816 -6.5715 2.3822
0.0547 -6.6080 2.3822
0.2933 -6.6363 2.3822
0.5338 -6.6563 2.3822
0.7761 -6.6679 2.3822
1.0197 -6.6709 2.3822
1.2645 -6.6652 2.3822
1.5101 -6.6506 2.3822
1.7561 -6.6272 2.3822
2.0023 -6.5947 2.3822
2.2482 -6.5530 2.3822
2.4936 -6.5023 2.3822
2.7380 -6.4422 2.3822
2.9812 -6.3729 2.3822
3.2227 -6.2943 2.3822
3.4621 -6.2064 2.3822
3.6991 -6.1093 2.3822
3.9332 -6.0028 2.3822
4.1641 -5.8871 2.3822
4.3913 -5.7622 2.3822
4.6145 -5.6282 2.3822
4.8332 -5.4853 2.3822
5.0470 -5.3334 2.3822
5.2556 -5.1729 2.3822
5.4584 -5.0038 2.3822
5.6552 -4.8263 2.3822
5.8454 -4.6407 2.3822
6.0288 -4.4471 2.3822
6.2049 -4.2458 2.3822
6.3734 -4.0371 2.3822
6.5338 -3.8213 2.3822
6.6859 -3.5987 2.3822
6.8293 -3.3696 2.3822
6.9636 -3.1344 2.3822
7.0886 -2.8935 2.3822
7.2040 -2.6472 2.3822
7.3094 -2.3960 2.3822
7.4047 -2.1402 2.3822
7.4896 -1.8805 2.3822
7.5639 -1.6171 2.3822
7.6274 -1.3505 2.3822
7.6800 -1.0813 2.3822
7.7215 -0.8099 2.3822
7.7518 -0.5369 2.3822
7.7708 -0.2626 2.3822
7.7785 0.0122 2.3822
7.7749 0.2873 2.3822
7.7599 0.5620 2.3822
7.7336 0.8358 2.3822
7.6960 1.1082 2.3822
7.6472 1.3787 2.3822
7.5874 1.6468 2.3822
7.5166 1.9121 2.3822
7.4350 2.1740 2.3822
7.3428 2.4320 2.3822
7.2403 2.6858 2.3822
7.1276 2.9348 2.3822
7.0050 3.1786 2.3822
6.8728 3.4169 2.3822
6.7313 3.6492 2.3822
6.5808 3.8751 2.3822
6.4217 4.0942 2.3822
6.2542 4.3064 2.3822
6.0788 4.5111 2.3822
5.8958 4.7082 2.3822
5.7056 4.8973 2.3822
5.5086 5.0782 2.3822
5.3052 5.2507 2.3822
5.0958 5.4145 2.3822
4.8809 5.5695 2.3822
4.6608 5.7155 2.3822
4.4360 5.8524 2.3822
4.2069 5.9800 2.3822
3.9739 6.0983 2.3822
3.7374 6.2072 2.3822
3.4979 6.3066 2.3822
3.2558 6.3964 2.3822
3.0114 6.4768 2.3822
2.7653 6.5476 2.3822
0.9480 2.4886 0.8970
0.8584 2.5198 0.9012
0.7677 2.5477 0.9054
0.6760 2.5723 0.9097
0.5835 2.5936 0.9140
0.4902 2.6116 0.9183
0.3964 2.6262 0.9227
0.3021 2.6374 0.9271
0.2075 2.6451 0.9315
0.1126 2.6495 0.9360
0.0176 2.6504 0.9404
-1.2328 -5.8645 2.3822
-1.0256 -5.9330 2.3822
-0.8153 -5.9946 2.3822
-0.6020 -6.0491 2.3822
-0.3860 -6.0963 2.3822
-0.1676 -6.1362 2.3822
0.0531 -6.1686 2.3822
0.2758 -6.1934 2.3822
0.5001 -6.2103 2.3822
0.7260 -6.2193 2.3822
0.9529 -6.2204 2.3822
1.1809 -6.2133 2.3822
1.4093 -6.1979 2.3822
1.6381 -6.1743 2.3822
1.8669 -6.1422 2.3822
2.0953 -6.1017 2.3822
2.3231 -6.0527 2.3822
2.5498 -5.9951 2.3822
2.7753 -5.9289 2.3822
2.9990 -5.8542 2.3822
3.2207 -5.7708 2.3822
3.4401 -5.6791 2.3822
3.6565 -5.5784 2.3822
3.8700 -5.4695 2.3822
4.0798 -5.3521 2.3822
4.2859 -5.2263 2.3822
4.4877 -5.0924 2.3822
4.6849 -4.9503 2.3822
4.8771 -4.8002 2.3822
5.0640 -4.6423 2.3822
5.2452 -4.4767 2.3822
5.4203 -4.3037 2.3822
5.5890 -4.1235 2.3822
5.7510 -3.9363 2.3822
5.9058 -3.7423 2.3822
6.0533 -3.5418 2.3822
6.1929 -3.3352 2.3822
6.3246 -3.1227 2.3822
6.4479 -2.9046 2.3822
6.5626 -2.6814 2.3822
6.6684 -2.4533 2.3822
6.7652 -2.2207 2.3822
6.8526 -1.9840 2.3822
6.9304 -1.7437 2.3822
6.9985 -1.5001 2.3822
7.0568 -1.2536 2.3822
7.1050 -1.0048 2.3822
7.1431 -0.7540 2.3822
7.1709 -0.5016 2.3822
7.1885 -0.2482 2.3822
7.1956 0.0057 2.3822
7.1924 0.2599 2.3822
7.1788 0.5137 2.3822
7.1548 0.7667 2.3822
7.1205 1.0185 2.3822
7.0760 1.2685 2.3822
7.0213 1.5165 2.3822
6.9565 1.7620 2.3822
6.8821 2.0041 2.3822
6.7978 2.2429 2.3822
6.7040 2.4778 2.3822
6.6008 2.7085 2.3822
6.4886 2.9345 2.3822
6.3675 3.1554 2.3822
6.2379 3.3709 2.3822
6.0999 3.5806 2.3822
5.9541 3.7840 2.3822
5.8003 3.9815 2.3822
5.6393 4.1720 2.3822
5.4712 4.3556 2.3822
5.2965 4.5319 2.3822
5.1154 4.7007 2.3822
4.9283 4.8619 2.3822
4.7356 5.0152 2.3822
4.5377 5.1604 2.3822
4.3350 5.2974 2.3822
4.1277 5.4261 2.3822
3.9164 5.5462 2.3822
3.7013 5.6579 2.3822
3.4829 5.7608 2.3822
3.2616 5.8551 2.3822
3.0377 5.9405 2.3822
2.8115 6.0172 2.3822
2.5836 6.0852 2.3822
0.8892 2.3209 0.8998
0.8056 2.3500 0.9037
0.7210 2.3761 0.9076
0.6355 2.3992 0.9116
0.5492 2.4191 0.9157
0.4623 2.4359 0.9197
0.3748 2.4496 0.9238
0.2868 2.4601 0.9279
0.1985 2.4674 0.9320
0.1101 2.4715 0.9362
0.0215 2.4724 0.9403
-0.0671 2.4701 0.9444
-0.1555 2.4646 0.9486
-0.2437 2.4559 0.9527
-0.3315 2.4441 0.9568
-0.4188 2.4290 0.9609
-0.5055 2.4108 0.9650
-0.5915 2.3895 0.9690
-0.6767 2.3651 0.9730
-0.7610 2.3377 0.9769
-0.8442 2.3072 0.9808
-2.2407 5.5007 2.3822
-2.4268 5.3919 2.3822
-2.6083 5.2772 2.3822
-2.7852 5.1570 2.3822
-2.9571 5.0314 2.3822
-3.1242 4.9006 2.3822
-3.2861 4.7648 2.3822
-3.4429 4.6242 2.3822
-3.5943 4.4790 2.3822
-3.7403 4.3293 2.3822
-3.8807 4.1755 2.3822
-4.0156 4.0175 2.3822
-4.1447 3.8558 2.3822
-4.2681 3.6904 2.3822
-4.3857 3.5216 2.3822
-4.4973 3.3495 2.3822
-4.6029 3.1743 2.3822
-4.7025 2.9963 2.3822
-4.7961 2.8155 2.3822
-4.8835 2.6323 2.3822
-4.9647 2.4467 2.3822
-5.0397 2.2590 2.3822
-5.1085 2.0694 2.3822
-5.1710 1.8781 2.3822
-5.2272 1.6849 2.3822
-5.2771 1.4905 2.3822
-5.3206 1.2948 2.3822
-5.3577 1.0981 2.3822
-5.3885 0.9005 2.3822
-5.4129 0.7022 2.3822
-5.4309 0.5034 2.3822
-5.4425 0.3042 2.3822
-5.4477 0.1048 2.3822
-5.4465 -0.0945 2.3822
-5.4389 -0.2937 2.3822
-5.4249 -0.4925 2.3822
-5.4046 -0.6908 2.3822
-5.3779 -0.8885 2.3822
-5.3449 -1.0852 2.3822
-5.3055 -1.2809 2.3822
-5.2599 -1.4754 2.3822
-5.2080 -1.6686 2.3822
-5.1498 -1.8601 2.3822
-5.0854 -2.0499 2.3822
-5.0149 -2.2378 2.3822
-4.9382 -2.4236 2.3822
-4.8554 -2.6072 2.3822
-4.7666 -2.7883 2.3822
-4.6717 -2.9668 2.3822
-4.5710 -3.1425 2.3822
-4.4643 -3.3152 2.3822
-4.3518 -3.4848 2.3822
-4.2336 -3.6510 2.3822
-4.1097 -3.8137 2.3822
-3.9802 -3.9727 2.3822
-3.8451 -4.1279 2.3822
-3.7047 -4.2788 2.3822
-3.5588 -4.4257 2.3822
-3.4078 -4.5681 2.3822
-3.2515 -4.7059 2.3822
-3.0903 -4.8390 2.3822
-2.9241 -4.9670 2.3822
-2.7532 -5.0898 2.3822
-2.5775 -5.2075 2.3822
-2.3974 -5.3194 2.3822
-2.2129 -5.4257 2.3822
-2.0242 -5.5261 2.3822
-1.8314 -5.6204 2.3822
-1.6347 -5.7085 2.3822
-1.4343 -5.7903 2.3822
-1.2304 -5.8654 2.3822
-1.0231 -5.9338 2.3822
-0.8127 -5.9953 2.3822
-0.5994 -6.0497 2.3822
-0.3834 -6.0968 2.3822
-0.1650 -6.1367 2.3822
0.0558 -6.1690 2.3822
0.2784 -6.1936 2.3822
0.5028 -6.2105 2.3822
0.7286 -6.2194 2.3822
0.9557 -6.2203 2.3822
1.1836 -6.2131 2.3822
1.4120 -6.1977 2.3822
1.6408 -6.1739 2.3822
1.8696 -6.1418 2.3822
2.0980 -6.1012 2.3822
2.3258 -6.0520 2.3822
2.5525 -5.9944 2.3822
2.7779 -5.9281 2.3822
3.0016 -5.8532 2.3822
3.2233 -5.7698 2.3822
3.4426 -5.6777 2.3822
3.6591 -5.5772 2.3822
3.8725 -5.4681 2.3822
4.0823 -5.3506 2.3822
4.2883 -5.2248 2.3822
4.4901 -5.0907 2.3822
4.6872 -4.9485 2.3822
4.8794 -4.7984 2.3822
5.0662 -4.6404 2.3822
5.2473 -4.4747 2.3822
5.4224 -4.3016 2.3822
5.5910 -4.1213 2.3822
5.7529 -3.9340 2.3822
5.9076 -3.7399 2.3822
6.0550 -3.5394 2.3822
6.1946 -3.3327 2.3822
6.3261 -3.1201 2.3822
6.4493 -2.9020 2.3822
6.5639 -2.6787 2.3822
6.6696 -2.4505 2.3822
6.7662 -2.2179 2.3822
6.8535 -1.9812 2.3822
6.9313 -1.7408 2.3822
6.9993 -1.4972 2.3822
7.0574 -1.2507 2.3822
7.1055 -1.0018 2.3822
7.1435 -0.7510 2.3822
7.1712 -0.4986 2.3822
7.1886 -0.2452 2.3822
7.1956 0.0088 2.3822
7.1923 0.2629 2.3822
7.1786 0.5167 2.3822
7.1545 0.7697 2.3822
7.1200 1.0215 2.3822
7.0754 1.2715 2.3822
7.0206 1.5194 2.3822
6.9558 1.7648 2.3822
6.8811 2.0069 2.3822
6.7967 2.2457 2.3822
6.7028 2.4806 2.3822
6.5996 2.7112 2.3822
6.4872 2.9371 2.3822
6.3661 3.1579 2.3822
6.2363 3.3734 2.3822
6.0982 3.5830 2.3822
5.9522 3.7865 2.3822
5.7984 3.9838 2.3822
5.6373 4.1742 2.3822
5.4692 4.3577 2.3822
5.2944 4.5339 2.3822
5.1132 4.7027 2.3822
4.9261 4.8638 2.3822
4.7333 5.0169 2.3822
4.5353 5.1621 2.3822
4.3325 5.2990 2.3822
4.1252 5.4275 2.3822
3.9138 5.5476 2.3822
3.6987 5.6591 2.3822
3.4803 5.7620 2.3822
3.2589 5.8561 2.3822
3.0350 5.9415 2.3822
2.8088 6.0181 2.3822
2.5809 6.0859 2.3822
0.8883 2.3212 0.8999
0.8046 2.3503 0.9037
0.7200 2.3764 0.9077
0.6345 2.3994 0.9117
0.5482 2.4193 0.9157
0.4612 2.4361 0.9198
0.3737 2.4497 0.9238
0.2858 2.4602 0.9280
0.1975 2.4674 0.9321
0.1090 2.4715 0.9362
0.0204 2.4724 0.9404
-0.0681 2.4701 0.9445
-0.1566 2.4645 0.9486
-0.2447 2.4558 0.9528
-0.3325 2.4439 0.9569
-0.4198 2.4288 0.9609
-0.5066 2.4106 0.9650
-0.5926 2.3893 0.9690
-0.6777 2.3648 0.9730
-0.7619 2.3373 0.9770
-0.8451 2.3068 0.9809
-2.2429 5.4995 2.3822
-2.4289 5.3905 2.3822
-2.6104 5.2759 2.3822
-2.7872 5.1556 2.3822
-2.9592 5.0299 2.3822
-3.1261 4.8991 2.3822
-3.2880 4.7632 2.3822
-3.4447 4.6225 2.3822
-3.5960 4.4772 2.3822
-3.7420 4.3275 2.3822
-3.8824 4.1736 2.3822
-4.0172 4.0156 2.3822
-4.1462 3.8539 2.3822
-4.2696 3.6884 2.3822
-4.3870 3.5196 2.3822
-4.4986 3.3474 2.3822
-4.6042 3.1722 2.3822
-4.7037 2.9942 2.3822
-4.7972 2.8134 2.3822
-4.8845 2.6301 2.3822
-4.9656 2.4445 2.3822
-5.0406 2.2568 2.3822
-5.1093 2.0671 2.3822
-5.1718 1.8759 2.3822
-5.2278 1.6826 2.3822
-5.2776 1.4882 2.3822
-5.3210 1.2925 2.3822
-5.3581 1.0957 2.3822
-5.3888 0.8981 2.3822
-5.4131 0.6998 2.3822
-5.4311 0.5010 2.3822
-5.4426 0.3018 2.3822
-5.4477 0.1025 2.3822
-5.4464 -0.0969 2.3822
-5.4388 -0.2961 2.3822
-5.4247 -0.4949 2.3822
-5.4043 -0.6932 2.3822
-5.3776 -0.8908 2.3822
-5.3445 -1.0876 2.3822
-5.3050 -1.2832 2.3822
-5.2593 -1.4777 2.3822
-5.2073 -1.6708 2.3822
-5.1491 -1.8624 2.3822
-5.0846 -2.0522 2.3822
-5.0140 -2.2400 2.3822
-4.9372 -2.4258 2.3822
-4.8544 -2.6093 2.3822
-4.7655 -2.7904 2.3822
-4.6706 -2.9689 2.3822
-4.5697 -3.1445 2.3822
-4.4630 -3.3172 2.3822
-4.3505 -3.4867 2.3822
-4.2322 -3.6529 2.3822
-4.1082 -3.8156 2.3822
-3.9786 -3.9746 2.3822
-3.8435 -4.1297 2.3822
-3.7030 -4.2805 2.3822
-3.5570 -4.4275 2.3822
-3.4059 -4.5698 2.3822
-3.2496 -4.7076 2.3822
-3.0883 -4.8405 2.3822
-2.9221 -4.9685 2.3822
-2.7511 -5.0913 2.3822
-2.5754 -5.2089 2.3822
-2.3953 -5.3207 2.3822
-2.2107 -5.4269 2.3822
-2.0219 -5.5272 2.3822
-1.8291 -5.6215 2.3822
-1.6323 -5.7096 2.3822
-1.4319 -5.7912 2.3822
-1.2279 -5.8662 2.3822
-1.0206 -5.9345 2.3822
-0.8102 -5.9959 2.3822
-0.5969 -6.0503 2.3822
-0.3808 -6.0974 2.3822
-0.1624 -6.1371 2.3822
0.0584 -6.1693 2.3822
0.2811 -6.1939 2.3822
0.5055 -6.2106 2.3822
0.7313 -6.2195 2.3822
0.9584 -6.2203 2.3822
1.1863 -6.2130 2.3822
1.4148 -6.1974 2.3822
1.6435 -6.1736 2.3822
1.8723 -6.1413 2.3822
2.1007 -6.1006 2.3822
2.3285 -6.0514 2.3822
2.5552 -5.9936 2.3822
2.7806 -5.9272 2.3822
3.0043 -5.8523 2.3822
3.2259 -5.7687 2.3822
3.4452 -5.6767 2.3822
3.6617 -5.5760 2.3822
3.8750 -5.4668 2.3822
4.0848 -5.3492 2.3822
4.2907 -5.2233 2.3822
4.4925 -5.0891 2.3822
4.6896 -4.9468 2.3822
4.8817 -4.7965 2.3822
5.0684 -4.6384 2.3822
5.2495 -4.4727 2.3822
5.4244 -4.2995 2.3822
5.5930 -4.1191 2.3822
5.7548 -3.9317 2.3822
5.9094 -3.7376 2.3822
6.0567 -3.5370 2.3822
6.1962 -3.3302 2.3822
6.3276 -3.1176 2.3822
6.4507 -2.8994 2.3822
6.5652 -2.6760 2.3822
6.6708 -2.4478 2.3822
6.7673 -2.2151 2.3822
6.8545 -1.9784 2.3822
6.9321 -1.7379 2.3822
7.0000 -1.4942 2.3822
7.0581 -1.2477 2.3822
7.1061 -0.9989 2.3822
7.1439 -0.7480 2.3822
7.1715 -0.4956 2.3822
7.1887 -0.2422 2.3822
7.1957 0.0118 2.3822
7.1922 0.2659 2.3822
7.1783 0.5197 2.3822
7.1541 0.7727 2.3822
7.1196 1.0244 2.3822
7.0748 1.2745 2.3822
7.0199 1.5223 2.3822
6.9550 1.7675 2.3822
6.8802 2.0098 2.3822
6.7957 2.2485 2.3822
6.7016 2.4834 2.3822
6.5983 2.7139 2.3822
6.4858 2.9397 2.3822
6.3645 3.1605 2.3822
6.2347 3.3759 2.3822
6.0966 3.5855 2.3822
5.9504 3.7890 2.3822
5.7966 3.9861 2.3822
5.6354 4.1764 2.3822
5.4672 4.3598 2.3822
5.2922 4.5360 2.3822
5.1110 4.7046 2.3822
4.9238 4.8656 2.3822
4.7310 5.0187 2.3822
4.5330 5.1638 2.3822
4.3301 5.3006 2.3822
4.1227 5.4290 2.3822
3.9113 5.5490 2.3822
3.6962 5.6604 2.3822
3.4777 5.7632 2.3822
3.2563 5.8572 2.3822
3.0323 5.9425 2.3822
2.8061 6.0190 2.3822
0.9698 2.2895 0.8961
0.8873 2.3216 0.8999
0.8036 2.3507 0.9038
0.7190 2.3767 0.9077
0.6335 2.3997 0.9117
0.5472 2.4195 0.9158
0.4602 2.4363 0.9198
0.3727 2.4499 0.9239
0.2847 2.4603 0.9280
0.1964 2.4675 0.9321
0.1080 2.4715 0.9363
0.0194 2.4724 0.9404
-1.1499 -5.5021 2.3822
-0.9552 -5.5650 2.3822
-0.7577 -5.6212 2.3822
-0.5575 -5.6709 2.3822
-0.3549 -5.7137 2.3822
-0.1501 -5.7496 2.3822
0.0567 -5.7783 2.3822
0.2653 -5.7999 2.3822
0.4753 -5.8142 2.3822
0.6866 -5.8210 2.3822
0.8988 -5.8204 2.3822
1.1118 -5.8121 2.3822
1.3252 -5.7961 2.3822
1.5388 -5.7723 2.3822
1.7522 -5.7407 2.3822
1.9652 -5.7012 2.3822
2.1774 -5.6538 2.3822
2.3886 -5.5984 2.3822
2.5984 -5.5351 2.3822
2.8066 -5.4638 2.3822
3.0127 -5.3844 2.3822
3.2164 -5.2972 2.3822
3.4175 -5.2020 2.3822
3.6156 -5.0991 2.3822
3.8103 -4.9883 2.3822
4.0014 -4.8698 2.3822
4.1884 -4.7438 2.3822
4.3710 -4.6102 2.3822
4.5490 -4.4693 2.3822
4.7219 -4.3213 2.3822
4.8895 -4.1662 2.3822
5.0513 -4.0042 2.3822
5.2072 -3.8357 2.3822
5.3567 -3.6607 2.3822
5.4997 -3.4796 2.3822
5.6357 -3.2925 2.3822
5.7645 -3.0998 2.3822
5.8859 -2.9018 2.3822
5.9995 -2.6987 2.3822
6.1051 -2.4908 2.3822
6.2026 -2.2786 2.3822
6.2916 -2.0622 2.3822
6.3720 -1.8422 2.3822
6.4436 -1.6188 2.3822
6.5063 -1.3924 2.3822
6.5598 -1.1635 2.3822
6.6041 -0.9324 2.3822
6.6390 -0.6995 2.3822
6.6645 -0.4652 2.3822
6.6805 -0.2300 2.3822
6.6870 0.0058 2.3822
6.6839 0.2417 2.3822
6.6713 0.4772 2.3822
6.6491 0.7121 2.3822
6.6174 0.9458 2.3822
6.5764 1.1780 2.3822
6.5259 1.4083 2.3822
6.4663 1.6360 2.3822
6.3975 1.8611 2.3822
6.3198 2.0830 2.3822
6.2333 2.3014 2.3822
6.1382 2.5158 2.3822
6.0347 2.7260 2.3822
5.9230 2.9316 2.3822
5.8034 3.1323 2.3822
5.6761 3.3277 2.3822
5.5413 3.5175 2.3822
5.3995 3.7014 2.3822
5.2507 3.8792 2.3822
5.0955 4.0507 2.3822
4.9339 4.2155 2.3822
4.7665 4.3735 2.3822
4.5934 4.5244 2.3822
4.4151 4.6681 2.3822
4.2319 4.8043 2.3822
4.0441 4.9331 2.3822
3.8520 5.0541 2.3822
3.6561 5.1673 2.3822
3.4566 5.2727 2.3822
3.2539 5.3700 2.3822
3.0484 5.4593 2.3822
2.8403 5.5405 2.3822
2.6301 5.6135 2.3822
0.9124 2.1425 0.8988
0.8351 2.1726 0.9024
0.7569 2.1998 0.9060
0.6777 2.2243 0.9097
0.5976 2.2458 0.9135
0.5169 2.2645 0.9172
0.4355 2.2802 0.9210
0.3536 2.2930 0.9248
0.2712 2.3028 0.9287
0.1886 2.3096 0.9326
0.1058 2.3135 0.9364
0.0229 2.3143 0.9403
-0.0600 2.3122 0.9442
-0.1428 2.3070 0.9480
-0.2253 2.2989 0.9519
-0.3075 2.2878 0.9557
-0.3892 2.2737 0.9596
-0.4704 2.2567 0.9634
-0.5509 2.2367 0.9671
-0.6306 2.2139 0.9709
-0.7095 2.1882 0.9746
-0.7873 2.1597 0.9782
-0.8641 2.1284 0.9818
-2.2718 5.0630 2.3822
-2.4429 4.9565 2.3822
-2.6096 4.8447 2.3822
-2.7718 4.7278 2.3822
-2.9294 4.6058 2.3822
-3.0822 4.4792 2.3822
-3.2303 4.3479 2.3822
-3.3733 4.2122 2.3822
-3.5113 4.0722 2.3822
-3.6441 3.9282 2.3822
-3.7716 3.7803 2.3822
-3.8938 3.6288 2.3822
-4.0106 3.4737 2.3822
-4.1219 3.3154 2.3822
-4.2276 3.1538 2.3822
-4.3277 2.9893 2.3822
-4.4222 2.8221 2.3822
-4.5108 2.6522 2.3822
-4.5937 2.4799 2.3822
-4.6708 2.3054 2.3822
-4.7420 2.1288 2.3822
-4.8072 1.9503 2.3822
-4.8666 1.7700 2.3822
-4.9199 1.5883 2.3822
-4.9673 1.4051 2.3822
-5.0087 1.2209 2.3822
-5.0440 1.0354 2.3822
-5.0733 0.8492 2.3822
-5.0965 0.6623 2.3822
-5.1137 0.4749 2.3822
-5.1247 0.2871 2.3822
-5.1298 0.0992 2.3822
-5.1287 -0.0888 2.3822
-5.1216 -0.2766 2.3822
-5.1084 -0.4640 2.3822
-5.0891 -0.6510 2.3822
-5.0639 -0.8373 2.3822
-5.0326 -1.0228 2.3822
-4.9953 -1.2072 2.3822
-4.9521 -1.3905 2.3822
-4.9029 -1.5725 2.3822
-4.8477 -1.7529 2.3822
-4.7867 -1.9317 2.3822
-4.7199 -2.1087 2.3822
-4.6472 -2.2836 2.3822
-4.5688 -2.4563 2.3822
-4.4846 -2.6267 2.3822
-4.3948 -2.7946 2.3822
-4.2994 -2.9598 2.3822
-4.1984 -3.1221 2.3822
-4.0919 -3.2814 2.3822
-3.9800 -3.4375 2.3822
-3.8628 -3.5901 2.3822
-3.7402 -3.7393 2.3822
-3.6125 -3.8847 2.3822
-3.4797 -4.0263 2.3822
-3.3419 -4.1638 2.3822
-3.1992 -4.2970 2.3822
-3.0516 -4.4258 2.3822
-2.8994 -4.5500 2.3822
-2.7426 -4.6695 2.3822
-2.5813 -4.7840 2.3822
-2.4157 -4.8934 2.3822
-2.2459 -4.9977 2.3822
-2.0721 -5.0963 2.3822
-1.8943 -5.1895 2.3822
-1.7128 -5.2769 2.3822
-1.5278 -5.3584 2.3822
-1.3393 -5.4337 2.3822
-1.1476 -5.5029 2.3822
-0.9529 -5.5657 2.3822
-0.7553 -5.6219 2.3822
-0.5551 -5.6714 2.3822
-0.3525 -5.7142 2.3822
-0.1476 -5.7499 2.3822
0.0592 -5.7786 2.3822
0.2677 -5.8001 2.3822
0.4778 -5.8143 2.3822
0.6891 -5.8211 2.3822
0.9013 -5.8203 2.3822
1.1143 -5.8119 2.3822
1.3277 -5.7958 2.3822
1.5413 -5.7720 2.3822
1.7547 -5.7403 2.3822
1.9677 -5.7007 2.3822
2.1799 -5.6532 2.3822
2.3911 -5.5977 2.3822
2.6009 -5.5343 2.3822
2.8090 -5.4629 2.3822
3.0151 -5.3835 2.3822
3.2188 -5.2961 2.3822
3.4199 -5.2009 2.3822
3.6179 -5.0978 2.3822
3.8126 -4.9869 2.3822
4.0036 -4.8684 2.3822
4.1906 -4.7422 2.3822
4.3732 -4.6086 2.3822
4.5511 -4.4676 2.3822
4.7239 -4.3194 2.3822
4.8914 -4.1643 2.3822
5.0532 -4.0023 2.3822
5.2090 -3.8336 2.3822
5.3585 -3.6586 2.3822
5.5013 -3.4774 2.3822
5.6373 -3.2903 2.3822
5.7660 -3.0975 2.3822
5.8873 -2.8994 2.3822
6.0008 -2.6962 2.3822
6.1064 -2.4883 2.3822
6.2037 -2.2760 2.3822
6.2926 -2.0596 2.3822
6.3729 -1.8396 2.3822
6.4444 -1.6161 2.3822
6.5070 -1.3897 2.3822
6.5604 -1.1608 2.3822
6.6045 -0.9296 2.3822
6.6394 -0.6967 2.3822
6.6648 -0.4624 2.3822
6.6807 -0.2272 2.3822
6.6870 0.0086 2.3822
6.6838 0.2445 2.3822
6.6711 0.4800 2.3822
6.6488 0.7149 2.3822
6.6170 0.9486 2.3822
6.5758 1.1807 2.3822
6.5253 1.4110 2.3822
6.4655 1.6387 2.3822
6.3966 1.8638 2.3822
6.3188 2.0856 2.3822
6.2322 2.3040 2.3822
6.1370 2.5184 2.3822
6.0334 2.7285 2.3822
5.9216 2.9340 2.3822
5.8019 3.1346 2.3822
5.6745 3.3299 2.3822
5.5397 3.5197 2.3822
5.3978 3.7036 2.3822
5.2489 3.8813 2.3822
5.0936 4.0527 2.3822
4.9320 4.2174 2.3822
4.7645 4.3753 2.3822
4.5913 4.5261 2.3822
4.4130 4.6697 2.3822
4.2297 4.8059 2.3822
4.0418 4.9345 2.3822
3.8497 5.0555 2.3822
3.6537 5.1686 2.3822
3.4542 5.2739 2.3822
3.2515 5.3711 2.3822
3.0459 5.4603 2.3822
2.8378 5.5414 2.3822
2.6276 5.6144 2.3822
0.9115 2.1429 0.8988
0.8342 2.1729 0.9024
0.7559 2.2001 0.9061
0.6767 2.2245 0.9098
0.5967 2.2461 0.9135
0.5159 2.2647 0.9173
0.4345 2.2804 0.9211
0.3526 2.2931 0.9249
0.2703 2.3029 0.9287
0.1876 2.3097 0.9326
0.1048 2.3135 0.9365
0.0219 2.3143 0.9403
-0.0610 2.3121 0.9442
-0.1438 2.3069 0.9481
-0.2263 2.2988 0.9519
-0.3085 2.2876 0.9558
-0.3902 2.2735 0.9596
-0.4713 2.2565 0.9634
-0.5518 2.2365 0.9672
-0.6316 2.2136 0.9709
-0.7104 2.1879 0.9746
-0.7883 2.1593 0.9783
-0.8650 2.1280 0.9819
-2.2739 5.0617 2.3822
-2.4449 4.9552 2.3822
-2.6115 4.8433 2.3822
-2.7737 4.7263 2.3822
-2.9312 4.6044 2.3822
-3.0840 4.4776 2.3822
-3.2320 4.3463 2.3822
-3.3750 4.2105 2.3822
-3.5129 4.0705 2.3822
-3.6456 3.9265 2.3822
-3.7731 3.7786 2.3822
-3.8953 3.6270 2.3822
-4.0120 3.4719 2.3822
-4.1232 3.3134 2.3822
-4.2289 3.1519 2.3822
-4.3289 2.9874 2.3822
-4.4232 2.8201 2.3822
-4.5118 2.6502 2.3822
-4.5947 2.4779 2.3822
-4.6717 2.3033 2.3822
-4.7428 2.1267 2.3822
-4.8080 1.9481 2.3822
-4.8673 1.7679 2.3822
-4.9205 1.5861 2.3822
-4.9678 1.4030 2.3822
-5.0092 1.2186 2.3822
-5.0444 1.0332 2.3822
-5.0736 0.8470 2.3822
-5.0967 0.6601 2.3822
-5.1138 0.4727 2.3822
-5.1248 0.2849 2.3822
-5.1298 0.0970 2.3822
-5.1286 -0.0910 2.3822
-5.1214 -0.2788 2.3822
-5.1082 -0.4662 2.3822
-5.0889 -0.6532 2.3822
-5.0635 -0.8395 2.3822
-5.0322 -1.0249 2.3822
-4.9948 -1.2094 2.3822
-4.9515 -1.3927 2.3822
-4.9022 -1.5746 2.3822
-4.8470 -1.7551 2.3822
-4.7860 -1.9338 2.3822
-4.7190 -2.1107 2.3822
-4.6463 -2.2856 2.3822
-4.5678 -2.4584 2.3822
-4.4836 -2.6288 2.3822
-4.3937 -2.7966 2.3822
-4.2982 -2.9617 2.3822
-4.1971 -3.1240 2.3822
-4.0906 -3.2833 2.3822
-3.9786 -3.4393 2.3822
-3.8613 -3.5920 2.3822
-3.7387 -3.7411 2.3822
-3.6110 -3.8864 2.3822
-3.4781 -4.0279 2.3822
-3.3402 -4.1654 2.3822
-3.1974 -4.2985 2.3822
-3.0498 -4.4273 2.3822
-2.8976 -4.5514 2.3822
-2.7407 -4.6709 2.3822
-2.5794 -4.7853 2.3822
-2.4137 -4.8947 2.3822
-2.2439 -4.9989 2.3822
-2.0700 -5.0975 2.3822
-1.8922 -5.1906 2.3822
-1.7107 -5.2779 2.3822
-1.5255 -5.3593 2.3822
-1.3370 -5.4346 2.3822
-1.1453 -5.5037 2.3822
-0.9505 -5.5664 2.3822
-0.7529 -5.6225 2.3822
-0.5527 -5.6720 2.3822
-0.3500 -5.7146 2.3822
-0.1452 -5.7503 2.3822
0.0616 -5.7789 2.3822
0.2702 -5.8003 2.3822
0.4803 -5.8144 2.3822
0.6916 -5.8211 2.3822
0.9039 -5.8203 2.3822
1.1168 -5.8118 2.3822
1.3303 -5.7956 2.3822
1.5438 -5.7717 2.3822
1.7572 -5.7399 2.3822
1.9702 -5.7002 2.3822
2.1824 -5.6526 2.3822
2.3936 -5.5970 2.3822
2.6034 -5.5335 2.3822
2.8115 -5.4620 2.3822
3.0176 -5.3825 2.3822
3.2212 -5.2950 2.3822
3.4223 -5.1997 2.3822
3.6203 -5.0965 2.3822
3.8149 -4.9856 2.3822
4.0059 -4.8669 2.3822
4.1928 -4.7407 2.3822
4.3753 -4.6069 2.3822
4.5532 -4.4659 2.3822
4.7259 -4.3176 2.3822
4.8934 -4.1624 2.3822
5.0551 -4.0003 2.3822
5.2108 -3.8316 2.3822
5.3602 -3.6565 2.3822
5.5030 -3.4752 2.3822
5.6388 -3.2880 2.3822
5.7675 -3.0952 2.3822
5.8886 -2.8970 2.3822
6.0021 -2.6938 2.3822
6.1075 -2.4858 2.3822
6.2048 -2.2735 2.3822
6.2936 -2.0570 2.3822
6.3738 -1.8369 2.3822
6.4452 -1.6135 2.3822
6.5076 -1.3870 2.3822
6.5609 -1.1580 2.3822
6.6050 -0.9269 2.3822
6.6397 -0.6939 2.3822
6.6650 -0.4597 2.3822
6.6808 -0.2244 2.3822
6.6870 0.0114 2.3822
6.6837 0.2472 2.3822
6.6709 0.4828 2.3822
6.6485 0.7177 2.3822
6.6166 0.9514 2.3822
6.5753 1.1835 2.3822
6.5246 1.4137 2.3822
6.4647 1.6414 2.3822
6.3958 1.8664 2.3822
6.3178 2.0882 2.3822
6.2311 2.3065 2.3822
6.1358 2.5209 2.3822
6.0321 2.7310 2.3822
5.9203 2.9365 2.3822
5.8005 3.1370 2.3822
5.6730 3.3322 2.3822
5.5381 3.5219 2.3822
5.3960 3.7057 2.3822
5.2471 3.8834 2.3822
5.0917 4.0547 2.3822
4.9300 4.2193 2.3822
4.7624 4.3771 2.3822
4.5892 4.5279 2.3822
4.4108 4.6714 2.3822
4.2275 4.8075 2.3822
4.0396 4.9360 2.3822
3.8474 5.0569 2.3822
3.6514 5.1699 2.3822
3.4518 5.2751 2.3822
3.2490 5.3722 2.3822
3.0434 5.4613 2.3822
2.8354 5.5423 2.3822
2.6251 5.6152 2.3822
0.9105 2.1432 0.8989
0.8333 2.1732 0.9025
0.7550 2.2004 0.9061
0.6758 2.2248 0.9098
0.5957 2.2463 0.9135
0.5150 2.2649 0.9173
0.4336 2.2805 0.9211
0.3516 2.2932 0.9249
0.2693 2.3030 0.9288
0.1867 2.3097 0.9326
0.1038 2.3135 0.9365
0.0209 2.3143 0.9404
-1.0753 -5.1762 2.3822
-0.8919 -5.2342 2.3822
-0.7060 -5.2859 2.3822
-0.5175 -5.3313 2.3822
-0.3270 -5.3703 2.3822
-0.1344 -5.4027 2.3822
0.0600 -5.4284 2.3822
0.2559 -5.4474 2.3822
0.4530 -5.4594 2.3822
0.6513 -5.4645 2.3822
0.8504 -5.4625 2.3822
1.0500 -5.4533 2.3822
1.2500 -5.4370 2.3822
1.4500 -5.4133 2.3822
1.6498 -5.3823 2.3822
1.8490 -5.3439 2.3822
2.0475 -5.2981 2.3822
2.2449 -5.2449 2.3822
2.4409 -5.1842 2.3822
2.6352 -5.1161 2.3822
2.8276 -5.0407 2.3822
3.0176 -4.9577 2.3822
3.2051 -4.8675 2.3822
3.3896 -4.7700 2.3822
3.5710 -4.6652 2.3822
3.7488 -4.5534 2.3822
3.9228 -4.4345 2.3822
4.0927 -4.3087 2.3822
4.2581 -4.1761 2.3822
4.4188 -4.0368 2.3822
4.5744 -3.8911 2.3822
4.7247 -3.7391 2.3822
4.8693 -3.5810 2.3822
5.0080 -3.4170 2.3822
5.1406 -3.2473 2.3822
5.2666 -3.0722 2.3822
5.3860 -2.8919 2.3822
5.4984 -2.7067 2.3822
5.6036 -2.5169 2.3822
5.7014 -2.3227 2.3822
5.7915 -2.1244 2.3822
5.8739 -1.9225 2.3822
5.9482 -1.7171 2.3822
6.0144 -1.5087 2.3822
6.0722 -1.2975 2.3822
6.1217 -1.0841 2.3822
6.1625 -0.8686 2.3822
6.1948 -0.6515 2.3822
6.2183 -0.4331 2.3822
6.2330 -0.2139 2.3822
6.2389 0.0058 2.3822
6.2359 0.2256 2.3822
6.2242 0.4451 2.3822
6.2036 0.6640 2.3822
6.1742 0.8818 2.3822
6.1361 1.0982 2.3822
6.0894 1.3128 2.3822
6.0341 1.5252 2.3822
5.9704 1.7351 2.3822
5.8984 1.9421 2.3822
5.8183 2.1458 2.3822
5.7302 2.3460 2.3822
5.6343 2.5422 2.3822
5.5308 2.7342 2.3822
5.4199 2.9217 2.3822
5.3019 3.1043 2.3822
5.1770 3.2819 2.3822
5.0453 3.4540 2.3822
4.9074 3.6205 2.3822
4.7632 3.7811 2.3822
4.6133 3.9357 2.3822
4.4578 4.0839 2.3822
4.2970 4.2256 2.3822
4.1313 4.3607 2.3822
3.9609 4.4889 2.3822
3.7862 4.6101 2.3822
3.6075 4.7243 2.3822
3.4251 4.8312 2.3822
3.2393 4.9308 2.3822
3.0505 5.0230 2.3822
2.8589 5.1077 2.3822
2.6649 5.1849 2.3822
0.9306 1.9808 0.8980
0.8592 2.0116 0.9013
0.7867 2.0398 0.9047
0.7132 2.0654 0.9081
0.6389 2.0883 0.9116
0.5637 2.1086 0.9151
0.4879 2.1261 0.9186
0.4115 2.1408 0.9222
0.3346 2.1528 0.9258
0.2573 2.1620 0.9294
0.1797 2.1684 0.9330
0.1020 2.1720 0.9367
0.0241 2.1728 0.9403
-0.0537 2.1708 0.9439
-0.1314 2.1659 0.9476
-0.2088 2.1583 0.9512
-0.2860 2.1479 0.9548
-0.3627 2.1347 0.9584
-0.4389 2.1187 0.9620
-0.5145 2.1000 0.9655
-0.5893 2.0785 0.9690
-0.6634 2.0544 0.9725
-0.7365 2.0276 0.9759
-0.8086 1.9982 0.9793
-2.1323 4.7668 2.3822
-2.2939 4.6676 2.3822
-2.4514 4.5632 2.3822
-2.6047 4.4540 2.3822
-2.7537 4.3400 2.3822
-2.8983 4.2214 2.3822
-3.0383 4.0984 2.3822
-3.1738 3.9712 2.3822
-3.3044 3.8398 2.3822
-3.4302 3.7049 2.3822
-3.5511 3.5659 2.3822
-3.6669 3.4235 2.3822
-3.7777 3.2777 2.3822
-3.8833 3.1287 2.3822
-3.9836 2.9767 2.3822
-4.0786 2.8219 2.3822
-4.1682 2.6643 2.3822
-4.2525 2.5042 2.3822
-4.3312 2.3418 2.3822
-4.4044 2.1773 2.3822
-4.4721 2.0107 2.3822
-4.5341 1.8423 2.3822
-4.5906 1.6722 2.3822
-4.6413 1.5006 2.3822
-4.6864 1.3278 2.3822
-4.7258 1.1537 2.3822
-4.7594 0.9786 2.3822
-4.7873 0.8027 2.3822
-4.8095 0.6261 2.3822
-4.8258 0.4492 2.3822
-4.8364 0.2716 2.3822
-4.8412 0.0941 2.3822
-4.8403 -0.0835 2.3822
-4.8336 -0.2610 2.3822
-4.8211 -0.4381 2.3822
-4.8029 -0.6148 2.3822
-4.7789 -0.7908 2.3822
-4.7492 -0.9661 2.3822
-4.7138 -1.1403 2.3822
-4.6728 -1.3135 2.3822
-4.6261 -1.4853 2.3822
-4.5737 -1.6557 2.3822
-4.5158 -1.8245 2.3822
-4.4524 -1.9916 2.3822
-4.3834 -2.1566 2.3822
-4.3089 -2.3196 2.3822
-4.2291 -2.4803 2.3822
-4.1438 -2.6386 2.3822
-4.0533 -2.7942 2.3822
-3.9575 -2.9472 2.3822
-3.8565 -3.0972 2.3822
-3.7504 -3.2442 2.3822
-3.6393 -3.3879 2.3822
-3.5231 -3.5281 2.3822
-3.4021 -3.6649 2.3822
-3.2763 -3.7978 2.3822
-3.1458 -3.9269 2.3822
-3.0107 -4.0519 2.3822
-2.8711 -4.1727 2.3822
-2.7270 -4.2891 2.3822
-2.5787 -4.4009 2.3822
-2.4262 -4.5080 2.3822
-2.2697 -4.6103 2.3822
-2.1093 -4.7075 2.3822
-1.9451 -4.7996 2.3822
-1.7773 -4.8863 2.3822
-1.6061 -4.9676 2.3822
-1.4315 -5.0432 2.3822
-1.2538 -5.1130 2.3822
-1.0732 -5.1769 2.3822
-0.8897 -5.2348 2.3822
-0.7037 -5.2865 2.3822
-0.5153 -5.3318 2.3822
-0.3247 -5.3707 2.3822
-0.1321 -5.4031 2.3822
0.0623 -5.4287 2.3822
0.2582 -5.4476 2.3822
0.4554 -5.4595 2.3822
0.6537 -5.4645 2.3822
0.8528 -5.4624 2.3822
1.0524 -5.4532 2.3822
1.2524 -5.4367 2.3822
1.4524 -5.4130 2.3822
1.6521 -5.3819 2.3822
1.8514 -5.3434 2.3822
2.0498 -5.2975 2.3822
2.2472 -5.2442 2.3822
2.4432 -5.1835 2.3822
2.6375 -5.1153 2.3822
2.8298 -5.0397 2.3822
3.0199 -4.9567 2.3822
3.2073 -4.8664 2.3822
3.3918 -4.7688 2.3822
3.5731 -4.6640 2.3822
3.7509 -4.5520 2.3822
3.9249 -4.4330 2.3822
4.0947 -4.3071 2.3822
4.2601 -4.1745 2.3822
4.4207 -4.0351 2.3822
4.5762 -3.8894 2.3822
4.7264 -3.7373 2.3822
4.8710 -3.5791 2.3822
5.0097 -3.4150 2.3822
5.1421 -3.2453 2.3822
5.2681 -3.0701 2.3822
5.3874 -2.8898 2.3822
5.4997 -2.7045 2.3822
5.6048 -2.5146 2.3822
5.7025 -2.3203 2.3822
5.7926 -2.1220 2.3822
5.8748 -1.9200 2.3822
5.9490 -1.7146 2.3822
6.0151 -1.5062 2.3822
6.0729 -1.2950 2.3822
6.1222 -1.0815 2.3822
6.1630 -0.8660 2.3822
6.1951 -0.6489 2.3822
6.2185 -0.4305 2.3822
6.2331 -0.2113 2.3822
6.2389 0.0084 2.3822
6.2358 0.2282 2.3822
6.2240 0.4477 2.3822
6.2033 0.6666 2.3822
6.1738 0.8844 2.3822
6.1356 1.1008 2.3822
6.0888 1.3153 2.3822
6.0334 1.5277 2.3822
5.9696 1.7376 2.3822
5.8975 1.9445 2.3822
5.8173 2.1482 2.3822
5.7291 2.3483 2.3822
5.6331 2.5445 2.3822
5.5295 2.7365 2.3822
5.4185 2.9239 2.3822
5.3004 3.1065 2.3822
5.1754 3.2839 2.3822
5.0438 3.4560 2.3822
4.9057 3.6224 2.3822
4.7615 3.7830 2.3822
4.6115 3.9375 2.3822
4.4559 4.0856 2.3822
4.2951 4.2273 2.3822
4.1293 4.3622 2.3822
3.9589 4.4904 2.3822
3.7841 4.6115 2.3822
3.6054 4.7256 2.3822
3.4229 4.8324 2.3822
3.2371 4.9319 2.3822
3.0482 5.0240 2.3822
2.8566 5.1086 2.3822
2.6626 5.1857 2.3822
0.9298 1.9812 0.8980
0.8584 2.0119 0.9014
0.7859 2.0401 0.9047
0.7124 2.0657 0.9082
0.6380 2.0886 0.9116
0.5628 2.1088 0.9151
0.4870 2.1263 0.9187
0.4106 2.1410 0.9222
0.3337 2.1529 0.9258
0.2564 2.1621 0.9294
0.1788 2.1685 0.9331
0.1011 2.1720 0.9367
0.0232 2.1728 0.9403
-0.0546 2.1707 0.9440
-0.1323 2.1659 0.9476
-0.2098 2.1582 0.9512
-0.2869 2.1477 0.9548
-0.3636 2.1345 0.9584
-0.4398 2.1185 0.9620
-0.5154 2.0997 0.9655
-0.5902 2.0783 0.9690
-0.6643 2.0541 0.9725
-0.7373 2.0273 0.9759
-0.8094 1.9979 0.9793
-2.1343 4.7657 2.3822
-2.2958 4.6663 2.3822
-2.4532 4.5619 2.3822
-2.6065 4.4526 2.3822
-2.7554 4.3386 2.3822
-2.9000 4.2200 2.3822
-3.0400 4.0969 2.3822
-3.1753 3.9697 2.3822
-3.3059 3.8384 2.3822
-3.4317 3.7035 2.3822
-3.5525 3.5643 2.3822
-3.6683 3.4218 2.3822
-3.7790 3.2760 2.3822
-3.8845 3.1269 2.3822
-3.9847 2.9749 2.3822
-4.0797 2.8200 2.3822
-4.1693 2.6624 2.3822
-4.2534 2.5023 2.3822
-4.3321 2.3399 2.3822
-4.4052 2.1753 2.3822
-4.4728 2.0087 2.3822
-4.5348 1.8403 2.3822
-4.5912 1.6702 2.3822
-4.6419 1.4986 2.3822
-4.6869 1.3257 2.3822
-4.7262 1.1516 2.3822
-4.7598 0.9765 2.3822
-4.7876 0.8006 2.3822
-4.8097 0.6240 2.3822
-4.8260 0.4470 2.3822
-4.8365 0.2695 2.3822
-4.8413 0.0920 2.3822
-4.8402 -0.0857 2.3822
-4.8335 -0.2631 2.3822
-4.8209 -0.4402 2.3822
-4.8026 -0.6169 2.3822
-4.7786 -0.7929 2.3822
-4.7488 -0.9681 2.3822
-4.7134 -1.1424 2.3822
-4.6723 -1.3155 2.3822
-4.6255 -1.4874 2.3822
-4.5731 -1.6577 2.3822
-4.5151 -1.8265 2.3822
-4.4516 -1.9935 2.3822
-4.3825 -2.1586 2.3822
-4.3080 -2.3215 2.3822
-4.2281 -2.4822 2.3822
-4.1428 -2.6405 2.3822
-4.0522 -2.7960 2.3822
-3.9563 -2.9490 2.3822
-3.8553 -3.0990 2.3822
-3.7491 -3.2459 2.3822
-3.6379 -3.3895 2.3822
-3.5217 -3.5298 2.3822
-3.4007 -3.6665 2.3822
-3.2748 -3.7994 2.3822
-3.1442 -3.9284 2.3822
-3.0091 -4.0534 2.3822
-2.8694 -4.1741 2.3822
-2.7253 -4.2904 2.3822
-2.5769 -4.4022 2.3822
-2.4244 -4.5093 2.3822
-2.2678 -4.6115 2.3822
-2.1074 -4.7086 2.3822
-1.9432 -4.8007 2.3822
-1.7753 -4.8873 2.3822
-1.6040 -4.9685 2.3822
-1.4294 -5.0440 2.3822
-1.2517 -5.1138 2.3822
-1.0710 -5.1777 2.3822
-0.8876 -5.2355 2.3822
-0.7015 -5.2871 2.3822
-0.5131 -5.3323 2.3822
-0.3224 -5.3712 2.3822
-0.1298 -5.4034 2.3822
0.0646 -5.4290 2.3822
0.2605 -5.4478 2.3822
0.4577 -5.4596 2.3822
0.6560 -5.4645 2.3822
0.8551 -5.4624 2.3822
1.0548 -5.4530 2.3822
1.2547 -5.4365 2.3822
1.4547 -5.4126 2.3822
1.6545 -5.3815 2.3822
1.8537 -5.3429 2.3822
2.0522 -5.2969 2.3822
2.2496 -5.2435 2.3822
2.4455 -5.1827 2.3822
2.6398 -5.1144 2.3822
2.8321 -5.0387 2.3822
3.0221 -4.9557 2.3822
3.2095 -4.8653 2.3822
3.3940 -4.7676 2.3822
3.5753 -4.6627 2.3822
3.7530 -4.5506 2.3822
3.9269 -4.4316 2.3822
4.0967 -4.3056 2.3822
4.2620 -4.1728 2.3822
4.4226 -4.0334 2.3822
4.5780 -3.8876 2.3822
4.7282 -3.7354 2.3822
4.8727 -3.5772 2.3822
5.0113 -3.4130 2.3822
5.1436 -3.2432 2.3822
5.2696 -3.0680 2.3822
5.3887 -2.8876 2.3822
5.5010 -2.7023 2.3822
5.6060 -2.5123 2.3822
5.7036 -2.3180 2.3822
5.7936 -2.1197 2.3822
5.8757 -1.9176 2.3822
5.9499 -1.7122 2.3822
6.0158 -1.5037 2.3822
6.0735 -1.2925 2.3822
6.1227 -1.0790 2.3822
6.1634 -0.8634 2.3822
6.1954 -0.6463 2.3822
6.2187 -0.4279 2.3822
6.2332 -0.2087 2.3822
6.2389 0.0110 2.3822
6.2357 0.2308 2.3822
6.2238 0.4503 2.3822
6.2030 0.6692 2.3822
6.1734 0.8870 2.3822
6.1351 1.1033 2.3822
6.0881 1.3178 2.3822
6.0327 1.5302 2.3822
5.9688 1.7400 2.3822
5.8966 1.9469 2.3822
5.8163 2.1506 2.3822
5.7280 2.3507 2.3822
5.6319 2.5468 2.3822
5.5282 2.7387 2.3822
5.4172 2.9261 2.3822
5.2990 3.1086 2.3822
5.1739 3.2860 2.3822
5.0422 3.4580 2.3822
4.9040 3.6244 2.3822
4.7598 3.7849 2.3822
4.6097 3.9393 2.3822
4.4540 4.0873 2.3822
4.2931 4.2289 2.3822
4.1273 4.3638 2.3822
3.9568 4.4919 2.3822
3.7820 4.6129 2.3822
3.6032 4.7269 2.3822
3.4208 4.8336 2.3822
3.2349 4.9330 2.3822
3.0460 5.0251 2.3822
2.8543 5.1096 2.3822
2.6603 5.1866 2.3822
0.9290 1.9815 0.8981
0.8575 2.0123 0.9014
0.7850 2.0405 0.9048
0.7115 2.0660 0.9082
0.6371 2.0888 0.9117
0.5619 2.1090 0.9152
0.4861 2.1264 0.9187
0.4097 2.1411 0.9223
0.3328 2.1531 0.9259
0.2555 2.1622 0.9295
0.1779 2.1685 0.9331
0.1001 2.1721 0.9367
0.0223 2.1728 0.9404
-1.0079 -4.8813 2.3822
-0.8347 -4.9350 2.3822
-0.6592 -4.9827 2.3822
-0.4815 -5.0245 2.3822
-0.3017 -5.0601 2.3822
-0.1202 -5.0896 2.3822
0.0629 -5.1127 2.3822
0.2474 -5.1294 2.3822
0.4330 -5.1396 2.3822
0.6195 -5.1432 2.3822
0.8068 -5.1402 2.3822
0.9944 -5.1304 2.3822
1.1823 -5.1138 2.3822
1.3702 -5.0904 2.3822
1.5577 -5.0601 2.3822
1.7447 -5.0228 2.3822
1.9308 -4.9786 2.3822
2.1159 -4.9275 2.3822
2.2995 -4.8694 2.3822
2.4815 -4.8044 2.3822
2.6616 -4.7324 2.3822
2.8395 -4.6536 2.3822
3.0146 -4.5674 2.3822
3.1874 -4.4754 2.3822
3.3568 -4.3762 2.3822
3.5230 -4.2703 2.3822
3.6854 -4.1580 2.3822
3.8440 -4.0392 2.3822
3.9983 -3.9141 2.3822
4.1482 -3.7829 2.3822
4.2932 -3.6456 2.3822
4.4332 -3.5026 2.3822
4.5680 -3.3539 2.3822
4.6972 -3.1997 2.3822
4.8205 -3.0403 2.3822
4.9378 -2.8759 2.3822
5.0488 -2.7067 2.3822
5.1534 -2.5330 2.3822
5.2511 -2.3550 2.3822
5.3420 -2.1730 2.3822
5.4258 -1.9873 2.3822
5.5022 -1.7981 2.3822
5.5713 -1.6058 2.3822
5.6327 -1.4107 2.3822
5.6864 -1.2132 2.3822
5.7322 -1.0134 2.3822
5.7701 -0.8119 2.3822
5.7999 -0.6088 2.3822
5.8217 -0.4046 2.3822
5.8353 -0.1996 2.3822
5.8407 0.0058 2.3822
5.8379 0.2113 2.3822
5.8268 0.4166 2.3822
5.8076 0.6212 2.3822
5.7803 0.8249 2.3822
5.7448 1.0273 2.3822
5.7014 1.2280 2.3822
5.6499 1.4267 2.3822
5.5907 1.6231 2.3822
5.5238 1.8168 2.3822
5.4492 2.0075 2.3822
5.3673 2.1949 2.3822
5.2781 2.3787 2.3822
5.1818 2.5586 2.3822
5.0786 2.7343 2.3822
4.9687 2.9055 2.3822
4.8525 3.0721 2.3822
4.7299 3.2336 2.3822
4.6014 3.3900 2.3822
4.4671 3.5409 2.3822
4.3274 3.6862 2.3822
4.1824 3.8256 2.3822
4.0325 3.9591 2.3822
3.8780 4.0863 2.3822
3.7190 4.2072 2.3822
3.5559 4.3217 2.3822
3.3891 4.4295 2.3822
3.2187 4.5307 2.3822
3.0450 4.6250 2.3822
2.8685 4.7124 2.3822
2.6893 4.7929 2.3822
0.9447 1.8332 0.8974
0.8786 1.8646 0.9005
0.8113 1.8936 0.9036
0.7431 1.9202 0.9068
0.6739 1.9443 0.9100
0.6039 1.9658 0.9133
0.5332 1.9849 0.9166
0.4618 2.0013 0.9199
0.3899 2.0152 0.9233
0.3175 2.0265 0.9266
0.2447 2.0351 0.9300
0.1717 2.0412 0.9334
0.0985 2.0445 0.9369
0.0253 2.0453 0.9403
-0.0480 2.0434 0.9437
-0.1211 2.0388 0.9471
-0.1940 2.0316 0.9505
-0.2666 2.0218 0.9539
-0.3389 2.0094 0.9573
-0.4106 1.9943 0.9607
-0.4817 1.9767 0.9640
-0.5522 1.9565 0.9673
-0.6218 1.9338 0.9706
-0.6906 1.9086 0.9738
-0.7585 1.8810 0.9770
-0.8253 1.8509 0.9801
-2.1588 4.4057 2.3822
-2.3079 4.3080 2.3822
-2.4531 4.2056 2.3822
-2.5943 4.0987 2.3822
-2.7313 3.9874 2.3822
-2.8641 3.8719 2.3822
-2.9925 3.7524 2.3822
-3.1165 3.6289 2.3822
-3.2358 3.5017 2.3822
-3.3506 3.3710 2.3822
-3.4606 3.2368 2.3822
-3.5658 3.0994 2.3822
-3.6661 2.9589 2.3822
-3.7614 2.8155 2.3822
-3.8518 2.6694 2.3822
-3.9370 2.5206 2.3822
-4.0171 2.3695 2.3822
-4.0920 2.2161 2.3822
-4.1617 2.0605 2.3822
-4.2261 1.9031 2.3822
-4.2852 1.7439 2.3822
-4.3389 1.5830 2.3822
-4.3873 1.4207 2.3822
-4.4302 1.2571 2.3822
-4.4678 1.0924 2.3822
-4.4998 0.9268 2.3822
-4.5264 0.7603 2.3822
-4.5475 0.5931 2.3822
-4.5632 0.4255 2.3822
-4.5733 0.2575 2.3822
-4.5780 0.0894 2.3822
-4.5771 -0.0787 2.3822
-4.5708 -0.2468 2.3822
-4.5590 -0.4145 2.3822
-4.5417 -0.5817 2.3822
-4.5189 -0.7484 2.3822
-4.4907 -0.9143 2.3822
-4.4571 -1.0792 2.3822
-4.4180 -1.2432 2.3822
-4.3736 -1.4057 2.3822
-4.3239 -1.5670 2.3822
-4.2688 -1.7266 2.3822
-4.2084 -1.8847 2.3822
-4.1429 -2.0408 2.3822
-4.0721 -2.1949 2.3822
-3.9962 -2.3468 2.3822
-3.9151 -2.4964 2.3822
-3.8291 -2.6435 2.3822
-3.7381 -2.7879 2.3822
-3.6422 -2.9295 2.3822
-3.5414 -3.0682 2.3822
-3.4358 -3.2037 2.3822
-3.3256 -3.3360 2.3822
-3.2107 -3.4648 2.3822
-3.0913 -3.5901 2.3822
-2.9675 -3.7115 2.3822
-2.8394 -3.8292 2.3822
-2.7070 -3.9427 2.3822
-2.5704 -4.0520 2.3822
-2.4299 -4.1570 2.3822
-2.2855 -4.2575 2.3822
-2.1373 -4.3534 2.3822
-1.9854 -4.4444 2.3822
-1.8300 -4.5305 2.3822
-1.6713 -4.6115 2.3822
-1.5094 -4.6873 2.3822
-1.3444 -4.7578 2.3822
-1.1765 -4.8227 2.3822
-1.0058 -4.8820 2.3822
-0.8327 -4.9356 2.3822
-0.6571 -4.9832 2.3822
-0.4793 -5.0249 2.3822
-0.2996 -5.0605 2.3822
-0.1181 -5.0899 2.3822
0.0651 -5.1129 2.3822
0.2496 -5.1295 2.3822
0.4352 -5.1397 2.3822
0.6217 -5.1432 2.3822
0.8090 -5.1401 2.3822
0.9967 -5.1302 2.3822
1.1846 -5.1136 2.3822
1.3724 -5.0900 2.3822
