ply
format ascii 1.0
element vertex 2176
property float32 x
property float32 y
property float32 z
end_header
-3.5669 8.6422 2.3839
-3.9125 8.6001 2.3839
-4.2597 8.5448 2.3839
-4.6078 8.4758 2.3839
-4.9015 7.5222 2.3839
-5.2125 7.4121 2.3839
-5.5213 7.2889 2.3839
-5.8273 7.1527 2.3839
-6.1299 7.0033 2.3839
-6.4282 6.8407 2.3839
-6.7217 6.6650 2.3839
-7.0096 6.4761 2.3839
-7.2912 6.2741 2.3839
-7.5657 6.0593 2.3839
-7.1992 -6.4794 2.3839
-6.9128 -6.6778 2.3839
-6.6202 -6.8630 2.3839
-6.3220 -7.0347 2.3839
-6.0190 -7.1930 2.3839
-5.7119 -7.3379 2.3839
-5.4014 -7.4694 2.3839
-5.0882 -7.5876 2.3839
-4.7730 -7.6925 2.3839
-4.4565 -7.7844 2.3839
-4.1391 -7.8634 2.3839
-3.8215 -7.9296 2.3839
-3.5043 -7.9833 2.3839
-3.1881 -8.0248 2.3839
-2.8732 -8.0543 2.3839
-2.5602 -8.0720 2.3839
-2.2496 -8.0783 2.3839
-1.9417 -8.0733 2.3839
-1.6370 -8.0576 2.3839
-1.3358 -8.0313 2.3839
-1.0385 -7.9949 2.3839
-0.7454 -7.9485 2.3839
-0.4567 -7.8926 2.3839
-0.1728 -7.8274 2.3839
0.1061 -7.7533 2.3839
0.3797 -7.6707 2.3839
0.6480 -7.5798 2.3839
0.9106 -7.4810 2.3839
1.1675 -7.3746 2.3839
1.4184 -7.2609 2.3839
1.6632 -7.1401 2.3839
1.9018 -7.0127 2.3839
2.1342 -6.8790 2.3839
2.3602 -6.7390 2.3839
2.5797 -6.5933 2.3839
2.7927 -6.4420 2.3839
2.9991 -6.2855 2.3839
3.1989 -6.1239 2.3839
3.3919 -5.9576 2.3839
3.5783 -5.7867 2.3839
3.7580 -5.6115 2.3839
3.9309 -5.4322 2.3839
4.0970 -5.2492 2.3839
4.2564 -5.0625 2.3839
4.4090 -4.8723 2.3839
4.5548 -4.6790 2.3839
4.6939 -4.4826 2.3839
4.8262 -4.2834 2.3839
4.9518 -4.0816 2.3839
5.0706 -3.8772 2.3839
5.1828 -3.6706 2.3839
5.2882 -3.4618 2.3839
5.3869 -3.2510 2.3839
5.4790 -3.0384 2.3839
5.5645 -2.8241 2.3839
5.6433 -2.6083 2.3839
5.7155 -2.3911 2.3839
5.7811 -2.1727 2.3839
5.8401 -1.9531 2.3839
5.8925 -1.7325 2.3839
5.9384 -1.5111 2.3839
5.9778 -1.2890 2.3839
6.0107 -1.0663 2.3839
6.0371 -0.8431 2.3839
6.0569 -0.6195 2.3839
6.0703 -0.3957 2.3839
6.0772 -0.1717 2.3839
6.0776 0.0522 2.3839
6.0716 0.2760 2.3839
6.0591 0.4996 2.3839
6.0401 0.7229 2.3839
6.0146 0.9456 2.3839
5.9827 1.1678 2.3839
5.9444 1.3893 2.3839
5.8995 1.6099 2.3839
5.8482 1.8296 2.3839
5.7904 2.0482 2.3839
5.7261 2.2656 2.3839
5.6553 2.4817 2.3839
5.5780 2.6963 2.3839
5.4942 2.9093 2.3839
5.4039 3.1205 2.3839
5.3070 3.3299 2.3839
5.2036 3.5372 2.3839
5.0936 3.7423 2.3839
4.9770 3.9451 2.3839
4.8539 4.1454 2.3839
4.7242 4.3430 2.3839
4.5879 4.5378 2.3839
4.4450 4.7296 2.3839
4.2955 4.9181 2.3839
4.1395 5.1033 2.3839
3.9768 5.2850 2.3839
3.8076 5.4628 2.3839
3.6318 5.6366 2.3839
3.4495 5.8063 2.3839
3.2606 5.9715 2.3839
3.0653 6.1321 2.3839
2.8635 6.2877 2.3839
2.6553 6.4383 2.3839
2.4408 6.5835 2.3839
2.2199 6.7231 2.3839
0.8529 2.9346 1.0203
0.7474 2.9663 1.0125
0.6407 2.9942 1.0046
0.5331 3.0183 0.9966
0.4247 3.0384 0.9886
0.3157 3.0546 0.9805
0.2061 3.0668 0.9723
0.0961 3.0750 0.9641
-0.0140 3.0793 0.9558
-0.1243 3.0795 0.9475
-0.2345 3.0758 0.9392
-0.3445 3.0681 0.9309
-0.4542 3.0564 0.9227
-0.5634 3.0407 0.9144
-0.6719 3.0211 0.9062
-0.7796 2.9975 0.8980
-0.8865 2.9701 0.8898
-2.6825 7.9451 2.3839
-2.9924 7.9220 2.3839
-3.3040 7.8875 2.3839
-3.6168 7.8410 2.3839
-3.9303 7.7826 2.3839
-4.2442 7.7118 2.3839
-4.5577 7.6285 2.3839
-4.8703 7.5325 2.3839
-5.1815 7.4236 2.3839
-5.4906 7.3018 2.3839
-5.7969 7.1669 2.3839
-6.0998 7.0188 2.3839
-6.3986 6.8576 2.3839
-6.6927 6.6831 2.3839
-6.9812 6.4955 2.3839
-7.2634 6.2949 2.3839
-7.5386 6.0813 2.3839
-7.2274 -6.4589 2.3839
-6.9417 -6.6586 2.3839
-6.6497 -6.8451 2.3839
-6.3520 -7.0181 2.3839
-6.0494 -7.1778 2.3839
-5.7427 -7.3240 2.3839
-5.4325 -7.4569 2.3839
-5.1196 -7.5764 2.3839
-4.8046 -7.6826 2.3839
-4.4881 -7.7758 2.3839
-4.1708 -7.8561 2.3839
-3.8532 -7.9236 2.3839
-3.5360 -7.9785 2.3839
-3.2196 -8.0212 2.3839
-2.9046 -8.0519 2.3839
-2.5914 -8.0707 2.3839
-2.2805 -8.0781 2.3839
-1.9723 -8.0743 2.3839
-1.6673 -8.0597 2.3839
-1.3657 -8.0344 2.3839
-1.0680 -7.9990 2.3839
-0.7744 -7.9536 2.3839
-0.4853 -7.8986 2.3839
-0.2010 -7.8343 2.3839
0.0785 -7.7611 2.3839
0.3527 -7.6793 2.3839
0.6214 -7.5893 2.3839
0.8846 -7.4912 2.3839
1.1421 -7.3855 2.3839
1.3936 -7.2725 2.3839
1.6390 -7.1525 2.3839
1.8783 -7.0258 2.3839
2.1113 -6.8926 2.3839
2.3379 -6.7533 2.3839
2.5581 -6.6081 2.3839
2.7717 -6.4574 2.3839
2.9788 -6.3014 2.3839
3.1792 -6.1403 2.3839
3.3730 -5.9744 2.3839
3.5600 -5.8039 2.3839
3.7403 -5.6292 2.3839
3.9139 -5.4503 2.3839
4.0807 -5.2676 2.3839
4.2408 -5.0813 2.3839
4.3941 -4.8915 2.3839
4.5406 -4.6984 2.3839
4.6803 -4.5024 2.3839
4.8133 -4.3034 2.3839
4.9396 -4.1018 2.3839
5.0591 -3.8977 2.3839
5.1719 -3.6913 2.3839
5.2780 -3.4827 2.3839
5.3774 -3.2721 2.3839
5.4701 -3.0597 2.3839
5.5562 -2.8456 2.3839
5.6357 -2.6299 2.3839
5.7086 -2.4129 2.3839
5.7748 -2.1945 2.3839
5.8345 -1.9751 2.3839
5.8876 -1.7546 2.3839
5.9342 -1.5333 2.3839
5.9742 -1.3112 2.3839
6.0077 -1.0885 2.3839
6.0347 -0.8654 2.3839
6.0552 -0.6418 2.3839
6.0692 -0.4180 2.3839
6.0768 -0.1941 2.3839
6.0779 0.0299 2.3839
6.0725 0.2537 2.3839
6.0606 0.4773 2.3839
6.0423 0.7006 2.3839
6.0175 0.9234 2.3839
5.9862 1.1457 2.3839
5.9485 1.3672 2.3839
5.9043 1.5879 2.3839
5.8536 1.8077 2.3839
5.7965 2.0264 2.3839
5.7328 2.2440 2.3839
5.6627 2.4602 2.3839
5.5860 2.6749 2.3839
5.5029 2.8881 2.3839
5.4132 3.0995 2.3839
5.3170 3.3090 2.3839
5.2142 3.5166 2.3839
5.1048 3.7219 2.3839
4.9890 3.9250 2.3839
4.8665 4.1255 2.3839
4.7374 4.3234 2.3839
4.6018 4.5185 2.3839
4.4596 4.7106 2.3839
4.3108 4.8995 2.3839
4.1554 5.0850 2.3839
3.9934 5.2670 2.3839
3.8248 5.4452 2.3839
3.6497 5.6195 2.3839
3.4680 5.7895 2.3839
3.2798 5.9552 2.3839
3.0851 6.1162 2.3839
2.8840 6.2724 2.3839
2.6764 6.4235 2.3839
2.4625 6.5693 2.3839
2.2423 6.7094 2.3839
2.0158 6.8436 2.3839
0.7580 2.9633 1.0133
0.6514 2.9916 1.0054
0.5439 3.0160 0.9974
0.4356 3.0366 0.9894
0.3266 3.0531 0.9813
0.2171 3.0657 0.9731
0.1071 3.0744 0.9649
-0.0030 3.0790 0.9566
-0.1133 3.0797 0.9484
-0.2235 3.0764 0.9401
-0.3336 3.0690 0.9318
-0.4433 3.0577 0.9235
-0.5525 3.0424 0.9152
-0.6611 3.0232 0.9070
-0.7689 3.0001 0.8988
-0.8759 2.9730 0.8907
-2.6517 7.9467 2.3839
-2.9614 7.9249 2.3839
-3.2728 7.8914 2.3839
-3.5855 7.8462 2.3839
-3.8990 7.7889 2.3839
-4.2129 7.7194 2.3839
-4.5264 7.6374 2.3839
-4.8392 7.5426 2.3839
-5.1505 7.4351 2.3839
-5.4598 7.3146 2.3839
-5.7665 7.1810 2.3839
-6.0697 7.0342 2.3839
-6.3690 6.8743 2.3839
-6.6636 6.7011 2.3839
-6.9526 6.5148 2.3839
-7.2355 6.3155 2.3839
-7.5115 6.1032 2.3839
-4.5029 6.8868 2.3839
-4.7843 6.7810 2.3839
-5.0633 6.6635 2.3839
-5.3393 6.5342 2.3839
-5.6119 6.3932 2.3839
-5.8802 6.2404 2.3839
-6.1439 6.0758 2.3839
-6.4021 5.8996 2.3839
-6.6543 5.7118 2.3839
-6.8999 5.5126 2.3839
-7.1381 5.3022 2.3839
-7.3684 5.0808 2.3839
-7.5900 4.8487 2.3839
-7.8025 4.6062 2.3839
-8.0050 4.3536 2.3839
-8.1971 4.0914 2.3839
-8.3781 3.8201 2.3839
-8.5475 3.5400 2.3839
-8.7047 3.2517 2.3839
-8.8492 2.9558 2.3839
-8.9805 2.6529 2.3839
-9.0982 2.3437 2.3839
-9.2018 2.0287 2.3839
-9.2911 1.7088 2.3839
-9.3657 1.3845 2.3839
-9.4252 1.0568 2.3839
-9.4696 0.7263 2.3839
-9.4986 0.3939 2.3839
-9.5121 0.0603 2.3839
-9.5101 -0.2736 2.3839
-9.4925 -0.6071 2.3839
-9.4594 -0.9393 2.3839
-9.4110 -1.2694 2.3839
-9.3474 -1.5967 2.3839
-9.2687 -1.9204 2.3839
-9.1753 -2.2396 2.3839
-9.0674 -2.5537 2.3839
-8.9455 -2.8620 2.3839
-8.8100 -3.1638 2.3839
-8.6612 -3.4584 2.3839
-8.4997 -3.7453 2.3839
-8.3260 -4.0237 2.3839
-8.1406 -4.2934 2.3839
-7.9440 -4.5537 2.3839
-7.7371 -4.8040 2.3839
-7.5202 -5.0443 2.3839
-7.2941 -5.2739 2.3839
-7.0594 -5.4926 2.3839
-6.8168 -5.7001 2.3839
-6.5668 -5.8962 2.3839
-6.3103 -6.0806 2.3839
-6.0477 -6.2533 2.3839
-5.7798 -6.4142 2.3839
-5.5072 -6.5631 2.3839
-5.2306 -6.6999 2.3839
-4.9506 -6.8249 2.3839
-4.6677 -6.9378 2.3839
-4.3825 -7.0389 2.3839
-4.0957 -7.1282 2.3839
-3.8078 -7.2058 2.3839
-3.5193 -7.2718 2.3839
-3.2306 -7.3265 2.3839
-2.9424 -7.3699 2.3839
-2.6551 -7.4024 2.3839
-2.3691 -7.4241 2.3839
-2.0848 -7.4353 2.3839
-1.8026 -7.4361 2.3839
-1.5229 -7.4269 2.3839
-1.2461 -7.4079 2.3839
-0.9724 -7.3795 2.3839
-0.7022 -7.3417 2.3839
-0.4358 -7.2950 2.3839
-0.1734 -7.2397 2.3839
0.0848 -7.1759 2.3839
0.3384 -7.1040 2.3839
0.5873 -7.0243 2.3839
0.8313 -6.9371 2.3839
1.0702 -6.8426 2.3839
1.3039 -6.7411 2.3839
1.5322 -6.6330 2.3839
1.7550 -6.5183 2.3839
1.9721 -6.3975 2.3839
2.1836 -6.2708 2.3839
2.3892 -6.1385 2.3839
2.5889 -6.0007 2.3839
2.7826 -5.8578 2.3839
2.9703 -5.7101 2.3839
3.1519 -5.5575 2.3839
3.3273 -5.4006 2.3839
3.4966 -5.2394 2.3839
3.6596 -5.0742 2.3839
3.8164 -4.9051 2.3839
3.9670 -4.7325 2.3839
4.1112 -4.5565 2.3839
4.2492 -4.3773 2.3839
4.3809 -4.1950 2.3839
4.5062 -4.0099 2.3839
4.6253 -3.8222 2.3839
4.7380 -3.6319 2.3839
4.8445 -3.4393 2.3839
4.9446 -3.2446 2.3839
5.0384 -3.0478 2.3839
5.1260 -2.8492 2.3839
5.2073 -2.6488 2.3839
5.2823 -2.4469 2.3839
5.3510 -2.2436 2.3839
5.4135 -2.0390 2.3839
5.4698 -1.8333 2.3839
5.5198 -1.6265 2.3839
5.5636 -1.4189 2.3839
5.6012 -1.2105 2.3839
5.6326 -1.0014 2.3839
5.6578 -0.7919 2.3839
5.6768 -0.5820 2.3839
5.6896 -0.3719 2.3839
5.6963 -0.1616 2.3839
5.6968 0.0487 2.3839
5.6911 0.2590 2.3839
5.6793 0.4689 2.3839
5.6613 0.6786 2.3839
5.6371 0.8877 2.3839
5.6068 1.0963 2.3839
5.5703 1.3041 2.3839
5.5277 1.5112 2.3839
5.4789 1.7172 2.3839
5.4239 1.9222 2.3839
5.3628 2.1260 2.3839
5.2955 2.3284 2.3839
5.2221 2.5293 2.3839
5.1424 2.7286 2.3839
5.0566 2.9262 2.3839
4.9647 3.1218 2.3839
4.8665 3.3154 2.3839
4.7622 3.5068 2.3839
4.6517 3.6959 2.3839
4.5350 3.8825 2.3839
4.4122 4.0664 2.3839
4.2831 4.2474 2.3839
4.1480 4.4255 2.3839
4.0067 4.6004 2.3839
3.8592 4.7719 2.3839
3.7057 4.9399 2.3839
3.5460 5.1041 2.3839
3.3803 5.2644 2.3839
3.2086 5.4206 2.3839
3.0309 5.5724 2.3839
2.8472 5.7196 2.3839
2.6577 5.8621 2.3839
2.4623 5.9996 2.3839
2.2611 6.1318 2.3839
2.0542 6.2586 2.3839
0.7835 2.7140 1.0141
0.6859 2.7433 1.0069
0.5872 2.7691 0.9996
0.4877 2.7913 0.9923
0.3875 2.8099 0.9848
0.2866 2.8248 0.9773
0.1853 2.8361 0.9697
0.0836 2.8437 0.9621
-0.0183 2.8476 0.9545
-0.1203 2.8479 0.9468
-0.2222 2.8444 0.9392
-0.3240 2.8372 0.9315
-0.4254 2.8264 0.9239
-0.5263 2.8119 0.9162
-0.6267 2.7938 0.9086
-0.7263 2.7720 0.9010
-0.8251 2.7466 0.8935
-0.9230 2.7177 0.8860
-2.7665 7.2854 2.3839
-3.0510 7.2483 2.3839
-3.3361 7.2004 2.3839
-3.6216 7.1414 2.3839
-3.9068 7.0712 2.3839
-4.1914 6.9897 2.3839
-4.4747 6.8967 2.3839
-4.7563 6.7920 2.3839
-5.0355 6.6757 2.3839
-5.3119 6.5476 2.3839
-5.5848 6.4078 2.3839
-5.8537 6.2561 2.3839
-6.1178 6.0928 2.3839
-6.3766 5.9177 2.3839
-6.6294 5.7311 2.3839
-6.8757 5.5330 2.3839
-7.1147 5.3237 2.3839
-7.3458 5.1034 2.3839
-7.5683 4.8723 2.3839
-7.7817 4.6309 2.3839
-7.9853 4.3793 2.3839
-8.1784 4.1180 2.3839
-8.3605 3.8476 2.3839
-8.5311 3.5683 2.3839
-8.6896 3.2808 2.3839
-8.8353 2.9857 2.3839
-8.9680 2.6835 2.3839
-9.0871 2.3748 2.3839
-9.1921 2.0604 2.3839
-9.2829 1.7409 2.3839
-9.3589 1.4171 2.3839
-9.4200 1.0897 2.3839
-9.4658 0.7594 2.3839
-9.4964 0.4272 2.3839
-9.5114 0.0936 2.3839
-9.5110 -0.2403 2.3839
-9.4950 -0.5739 2.3839
-9.4634 -0.9062 2.3839
-9.4165 -1.2366 2.3839
-9.3544 -1.5642 2.3839
-9.2772 -1.8882 2.3839
-9.1853 -2.2079 2.3839
-9.0788 -2.5226 2.3839
-8.9583 -2.8315 2.3839
-8.8241 -3.1340 2.3839
-8.6766 -3.4293 2.3839
-8.5164 -3.7170 2.3839
-8.3438 -3.9963 2.3839
-8.1596 -4.2669 2.3839
-7.9641 -4.5281 2.3839
-7.7582 -4.7795 2.3839
-7.5423 -5.0207 2.3839
-7.3171 -5.2514 2.3839
-7.0832 -5.4712 2.3839
-6.8413 -5.6799 2.3839
-6.5921 -5.8771 2.3839
-6.3362 -6.0627 2.3839
-6.0742 -6.2366 2.3839
-5.8068 -6.3986 2.3839
-5.5347 -6.5487 2.3839
-5.2584 -6.6868 2.3839
-4.9787 -6.8129 2.3839
-4.6960 -6.9271 2.3839
-4.4111 -7.0293 2.3839
-4.1244 -7.1198 2.3839
-3.8366 -7.1985 2.3839
-3.5481 -7.2657 2.3839
-3.2594 -7.3215 2.3839
-2.9712 -7.3661 2.3839
-2.6837 -7.3997 2.3839
-2.3975 -7.4224 2.3839
-2.1131 -7.4346 2.3839
-1.8306 -7.4365 2.3839
-1.5507 -7.4283 2.3839
-1.2736 -7.4103 2.3839
-0.9996 -7.3827 2.3839
-0.7290 -7.3459 2.3839
-0.4622 -7.3001 2.3839
-0.1994 -7.2456 2.3839
0.0592 -7.1826 2.3839
0.3132 -7.1116 2.3839
0.5626 -7.0326 2.3839
0.8071 -6.9462 2.3839
1.0466 -6.8524 2.3839
1.2808 -6.7516 2.3839
1.5096 -6.6441 2.3839
1.7330 -6.5301 2.3839
1.9507 -6.4099 2.3839
2.1627 -6.2838 2.3839
2.3689 -6.1520 2.3839
2.5692 -6.0147 2.3839
2.7635 -5.8723 2.3839
2.9518 -5.7250 2.3839
3.1340 -5.5729 2.3839
3.3101 -5.4164 2.3839
3.4800 -5.2556 2.3839
3.6436 -5.0908 2.3839
3.8011 -4.9222 2.3839
3.9522 -4.7499 2.3839
4.0971 -4.5742 2.3839
4.2357 -4.3953 2.3839
4.3680 -4.2134 2.3839
4.4940 -4.0285 2.3839
4.6137 -3.8410 2.3839
4.7270 -3.6510 2.3839
4.8341 -3.4586 2.3839
4.9349 -3.2641 2.3839
5.0293 -3.0675 2.3839
5.1175 -2.8691 2.3839
5.1994 -2.6689 2.3839
5.2751 -2.4672 2.3839
5.3444 -2.2640 2.3839
5.4075 -2.0595 2.3839
5.4644 -1.8538 2.3839
5.5151 -1.6472 2.3839
5.5595 -1.4396 2.3839
5.5977 -1.2313 2.3839
5.6297 -1.0223 2.3839
5.6556 -0.8129 2.3839
5.6752 -0.6030 2.3839
5.6886 -0.3929 2.3839
5.6959 -0.1826 2.3839
5.6970 0.0277 2.3839
5.6919 0.2380 2.3839
5.6807 0.4480 2.3839
5.6633 0.6576 2.3839
5.6398 0.8669 2.3839
5.6101 1.0755 2.3839
5.5742 1.2834 2.3839
5.5322 1.4905 2.3839
5.4840 1.6967 2.3839
5.4297 1.9018 2.3839
5.3692 2.1057 2.3839
5.3025 2.3082 2.3839
5.2297 2.5093 2.3839
5.1507 2.7088 2.3839
5.0655 2.9065 2.3839
4.9741 3.1024 2.3839
4.8766 3.2962 2.3839
4.7729 3.4878 2.3839
4.6630 3.6771 2.3839
4.5469 3.8640 2.3839
4.4247 4.0481 2.3839
4.2963 4.2295 2.3839
4.1618 4.4079 2.3839
4.0210 4.5831 2.3839
3.8742 4.7549 2.3839
3.7213 4.9233 2.3839
3.5622 5.0879 2.3839
3.3971 5.2486 2.3839
3.2260 5.4052 2.3839
3.0489 5.5574 2.3839
2.8658 5.7052 2.3839
2.6768 5.8481 2.3839
2.4820 5.9861 2.3839
2.2814 6.1189 2.3839
2.0752 6.2462 2.3839
0.7932 2.7109 1.0148
0.6957 2.7405 1.0077
0.5971 2.7667 1.0004
0.4977 2.7892 0.9930
0.3975 2.8082 0.9856
0.2967 2.8235 0.9781
0.1954 2.8351 0.9705
0.0938 2.8431 0.9629
-0.0081 2.8474 0.9553
-0.1101 2.8480 0.9476
-0.2121 2.8449 0.9399
-0.3138 2.8381 0.9323
-0.4153 2.8277 0.9246
-0.5163 2.8135 0.9170
-0.6167 2.7957 0.9094
-0.7164 2.7743 0.9018
-0.8153 2.7493 0.8943
-0.9132 2.7207 0.8868
-2.7382 7.2885 2.3839
-3.0225 7.2525 2.3839
-3.3076 7.2056 2.3839
-3.5931 7.1478 2.3839
-3.8784 7.0787 2.3839
-4.1630 6.9984 2.3839
-4.4465 6.9065 2.3839
-4.7282 6.8030 2.3839
-5.0078 6.6879 2.3839
-5.2845 6.5610 2.3839
-5.5578 6.4223 2.3839
-5.8270 6.2718 2.3839
-6.0917 6.1096 2.3839
-6.3510 5.9357 2.3839
-6.6045 5.7502 2.3839
-6.8514 5.5533 2.3839
-7.0912 5.3451 2.3839
-7.3231 5.1259 2.3839
-7.5465 4.8959 2.3839
-7.7608 4.6554 2.3839
-7.9654 4.4048 2.3839
-8.1596 4.1445 2.3839
-8.3429 3.8750 2.3839
-4.1617 6.3428 2.3839
-4.4182 6.2414 2.3839
-4.6722 6.1295 2.3839
-4.9233 6.0069 2.3839
-5.1708 5.8737 2.3839
-5.4143 5.7298 2.3839
-5.6531 5.5754 2.3839
-5.8868 5.4106 2.3839
-6.1148 5.2354 2.3839
-6.3365 5.0500 2.3839
-6.5514 4.8547 2.3839
-6.7588 4.6495 2.3839
-6.9583 4.4349 2.3839
-7.1493 4.2110 2.3839
-7.3312 3.9783 2.3839
-7.5036 3.7371 2.3839
-7.6659 3.4877 2.3839
-7.8176 3.2307 2.3839
-7.9582 2.9665 2.3839
-8.0875 2.6957 2.3839
-8.2048 2.4187 2.3839
-8.3099 2.1361 2.3839
-8.4024 1.8485 2.3839
-8.4819 1.5566 2.3839
-8.5484 1.2609 2.3839
-8.6014 0.9622 2.3839
-8.6408 0.6611 2.3839
-8.6665 0.3583 2.3839
-8.6784 0.0545 2.3839
-8.6764 -0.2496 2.3839
-8.6606 -0.5533 2.3839
-8.6309 -0.8559 2.3839
-8.5876 -1.1566 2.3839
-8.5306 -1.4549 2.3839
-8.4602 -1.7500 2.3839
-8.3766 -2.0412 2.3839
-8.2801 -2.3279 2.3839
-8.1710 -2.6095 2.3839
-8.0496 -2.8854 2.3839
-7.9162 -3.1551 2.3839
-7.7715 -3.4179 2.3839
-7.6156 -3.6733 2.3839
-7.4492 -3.9209 2.3839
-7.2727 -4.1603 2.3839
-7.0867 -4.3910 2.3839
-6.8916 -4.6126 2.3839
-6.6880 -4.8249 2.3839
-6.4764 -5.0275 2.3839
-6.2575 -5.2201 2.3839
-6.0315 -5.4026 2.3839
-5.7997 -5.5746 2.3839
-5.5621 -5.7362 2.3839
-5.3193 -5.8871 2.3839
-5.0721 -6.0273 2.3839
-4.8208 -6.1567 2.3839
-4.5661 -6.2753 2.3839
-4.3086 -6.3830 2.3839
-4.0486 -6.4801 2.3839
-3.7869 -6.5663 2.3839
-3.5238 -6.6420 2.3839
-3.2598 -6.7071 2.3839
-2.9954 -6.7618 2.3839
-2.7310 -6.8062 2.3839
-2.4671 -6.8405 2.3839
-2.2041 -6.8649 2.3839
-1.9423 -6.8795 2.3839
-1.6821 -6.8846 2.3839
-1.4240 -6.8803 2.3839
-1.1681 -6.8670 2.3839
-0.9149 -6.8447 2.3839
-0.6646 -6.8138 2.3839
-0.4175 -6.7745 2.3839
-0.1738 -6.7270 2.3839
0.0661 -6.6716 2.3839
0.3022 -6.6085 2.3839
0.5341 -6.5380 2.3839
0.7617 -6.4604 2.3839
0.9848 -6.3758 2.3839
1.2033 -6.2846 2.3839
1.4169 -6.1869 2.3839
1.6257 -6.0830 2.3839
1.8293 -5.9733 2.3839
2.0278 -5.8578 2.3839
2.2209 -5.7368 2.3839
2.4087 -5.6106 2.3839
2.5911 -5.4794 2.3839
2.7679 -5.3435 2.3839
2.9391 -5.2029 2.3839
3.1047 -5.0580 2.3839
3.2645 -4.9090 2.3839
3.4186 -4.7560 2.3839
3.5669 -4.5992 2.3839
3.7094 -4.4389 2.3839
3.8461 -4.2753 2.3839
3.9768 -4.1084 2.3839
4.1017 -3.9386 2.3839
4.2207 -3.7659 2.3839
4.3337 -3.5906 2.3839
4.4409 -3.4128 2.3839
4.5421 -3.2326 2.3839
4.6373 -3.0503 2.3839
4.7266 -2.8660 2.3839
4.8100 -2.6798 2.3839
4.8874 -2.4918 2.3839
4.9589 -2.3023 2.3839
5.0244 -2.1114 2.3839
5.0840 -1.9192 2.3839
5.1377 -1.7258 2.3839
5.1855 -1.5314 2.3839
5.2273 -1.3361 2.3839
5.2632 -1.1400 2.3839
5.2932 -0.9433 2.3839
5.3174 -0.7460 2.3839
5.3356 -0.5484 2.3839
5.3479 -0.3505 2.3839
5.3543 -0.1524 2.3839
5.3548 0.0456 2.3839
5.3495 0.2436 2.3839
5.3383 0.4413 2.3839
5.3212 0.6388 2.3839
5.2982 0.8357 2.3839
5.2693 1.0321 2.3839
5.2346 1.2277 2.3839
5.1940 1.4225 2.3839
5.1475 1.6164 2.3839
5.0952 1.8092 2.3839
5.0370 2.0007 2.3839
4.9730 2.1909 2.3839
4.9031 2.3797 2.3839
4.8273 2.5668 2.3839
4.7457 2.7521 2.3839
4.6583 2.9356 2.3839
4.5650 3.1170 2.3839
4.4659 3.2963 2.3839
4.3609 3.4732 2.3839
4.2501 3.6476 2.3839
4.1336 3.8194 2.3839
4.0112 3.9883 2.3839
3.8831 4.1543 2.3839
3.7492 4.3172 2.3839
3.6096 4.4767 2.3839
3.4644 4.6328 2.3839
3.3134 4.7852 2.3839
3.1568 4.9337 2.3839
2.9947 5.0781 2.3839
2.8270 5.2183 2.3839
2.6539 5.3541 2.3839
2.4753 5.4852 2.3839
2.2914 5.6114 2.3839
2.1023 5.7326 2.3839
0.8127 2.4910 1.0154
0.7230 2.5215 1.0088
0.6323 2.5488 1.0021
0.5406 2.5727 0.9953
0.4481 2.5933 0.9884
0.3550 2.6106 0.9815
0.2613 2.6244 0.9746
0.1671 2.6349 0.9675
0.0726 2.6420 0.9605
-0.0220 2.6456 0.9534
-0.1168 2.6458 0.9463
-0.2115 2.6426 0.9391
-0.3060 2.6359 0.9320
-0.4002 2.6258 0.9249
-0.4940 2.6124 0.9178
-0.5873 2.5955 0.9107
-0.6799 2.5753 0.9037
-0.7717 2.5517 0.8967
-0.8625 2.5248 0.8898
-0.9524 2.4947 0.8829
-2.8329 6.6974 2.3839
-3.0946 6.6488 2.3839
-3.3561 6.5902 2.3839
-3.6172 6.5213 2.3839
-3.8773 6.4421 2.3839
-4.1359 6.3523 2.3839
-4.3927 6.2520 2.3839
-4.6470 6.1411 2.3839
-4.8984 6.0196 2.3839
-5.1463 5.8874 2.3839
-5.3902 5.7447 2.3839
-5.6295 5.5913 2.3839
-5.8637 5.4275 2.3839
-6.0923 5.2534 2.3839
-6.3147 5.0690 2.3839
-6.5302 4.8746 2.3839
-6.7385 4.6705 2.3839
-6.9388 4.4568 2.3839
-7.1306 4.2338 2.3839
-7.3135 4.0019 2.3839
-7.4868 3.7615 2.3839
-7.6501 3.5130 2.3839
-7.8029 3.2567 2.3839
-7.9447 2.9932 2.3839
-8.0751 2.7230 2.3839
-8.1936 2.4466 2.3839
-8.3000 2.1645 2.3839
-8.3937 1.8774 2.3839
-8.4746 1.5859 2.3839
-8.5423 1.2906 2.3839
-8.5967 0.9921 2.3839
-8.6375 0.6912 2.3839
-8.6646 0.3886 2.3839
-8.6779 0.0848 2.3839
-8.6773 -0.2193 2.3839
-8.6628 -0.5230 2.3839
-8.6345 -0.8257 2.3839
-8.5925 -1.1267 2.3839
-8.5369 -1.4252 2.3839
-8.4678 -1.7207 2.3839
-8.3855 -2.0123 2.3839
-8.2903 -2.2995 2.3839
-8.1824 -2.5817 2.3839
-8.0622 -2.8582 2.3839
-7.9301 -3.1284 2.3839
-7.7864 -3.3919 2.3839
-7.6317 -3.6481 2.3839
-7.4663 -3.8966 2.3839
-7.2908 -4.1368 2.3839
-7.1057 -4.3684 2.3839
-6.9114 -4.5909 2.3839
-6.7086 -4.8041 2.3839
-6.4979 -5.0077 2.3839
-6.2796 -5.2013 2.3839
-6.0545 -5.3848 2.3839
-5.8231 -5.5579 2.3839
-5.5860 -5.7205 2.3839
-5.3438 -5.8725 2.3839
-5.0969 -6.0138 2.3839
-4.8460 -6.1443 2.3839
-4.5917 -6.2639 2.3839
-4.3344 -6.3728 2.3839
-4.0747 -6.4708 2.3839
-3.8131 -6.5582 2.3839
-3.5501 -6.6349 2.3839
-3.2861 -6.7010 2.3839
-3.0218 -6.7568 2.3839
-2.7574 -6.8022 2.3839
-2.4934 -6.8375 2.3839
-2.2303 -6.8629 2.3839
-1.9684 -6.8785 2.3839
-1.7080 -6.8845 2.3839
-1.4497 -6.8812 2.3839
-1.1936 -6.8687 2.3839
-0.9401 -6.8473 2.3839
-0.6895 -6.8173 2.3839
-0.4420 -6.7788 2.3839
-0.1980 -6.7321 2.3839
0.0423 -6.6775 2.3839
0.2788 -6.6152 2.3839
0.5111 -6.5454 2.3839
0.7392 -6.4684 2.3839
0.9628 -6.3846 2.3839
1.1817 -6.2940 2.3839
1.3958 -6.1969 2.3839
1.6050 -6.0937 2.3839
1.8092 -5.9845 2.3839
2.0082 -5.8696 2.3839
2.2019 -5.7491 2.3839
2.3902 -5.6235 2.3839
2.5731 -5.4928 2.3839
2.7505 -5.3573 2.3839
2.9223 -5.2172 2.3839
3.0884 -5.0727 2.3839
3.2488 -4.9240 2.3839
3.4035 -4.7714 2.3839
3.5524 -4.6150 2.3839
3.6955 -4.4551 2.3839
3.8327 -4.2918 2.3839
3.9641 -4.1252 2.3839
4.0895 -3.9557 2.3839
4.2091 -3.7833 2.3839
4.3227 -3.6082 2.3839
4.4304 -3.4306 2.3839
4.5322 -3.2507 2.3839
4.6281 -3.0686 2.3839
4.7180 -2.8845 2.3839
4.8019 -2.6984 2.3839
4.8799 -2.5107 2.3839
4.9520 -2.3213 2.3839
5.0181 -2.1305 2.3839
5.0783 -1.9384 2.3839
5.1326 -1.7452 2.3839
5.1810 -1.5508 2.3839
5.2234 -1.3556 2.3839
5.2599 -1.1596 2.3839
5.2905 -0.9629 2.3839
5.3152 -0.7657 2.3839
5.3340 -0.5681 2.3839
5.3469 -0.3703 2.3839
5.3539 -0.1722 2.3839
5.3551 0.0259 2.3839
5.3503 0.2238 2.3839
5.3397 0.4216 2.3839
5.3231 0.6191 2.3839
5.3007 0.8161 2.3839
5.2725 1.0125 2.3839
5.2383 1.2082 2.3839
5.1983 1.4031 2.3839
5.1525 1.5971 2.3839
5.1007 1.7900 2.3839
5.0431 1.9817 2.3839
4.9797 2.1720 2.3839
4.9103 2.3609 2.3839
4.8352 2.5482 2.3839
4.7541 2.7337 2.3839
4.6673 2.9174 2.3839
4.5746 3.0990 2.3839
4.4760 3.2785 2.3839
4.3716 3.4556 2.3839
4.2614 3.6303 2.3839
4.1455 3.8023 2.3839
4.0237 3.9716 2.3839
3.8961 4.1379 2.3839
3.7628 4.3011 2.3839
3.6238 4.4610 2.3839
3.4791 4.6174 2.3839
3.3287 4.7701 2.3839
3.1727 4.9190 2.3839
3.0111 5.0639 2.3839
2.8440 5.2045 2.3839
2.6714 5.3407 2.3839
2.4934 5.4723 2.3839
2.3100 5.5990 2.3839
2.1214 5.7207 2.3839
0.8215 2.4878 1.0160
0.7320 2.5186 1.0094
0.6414 2.5462 1.0028
0.5498 2.5705 0.9960
0.4574 2.5914 0.9891
0.3643 2.6090 0.9822
0.2707 2.6232 0.9752
0.1765 2.6340 0.9682
0.0821 2.6414 0.9612
-0.0126 2.6454 0.9541
-0.1073 2.6459 0.9470
-0.2020 2.6430 0.9398
-0.2966 2.6367 0.9327
-0.3908 2.6270 0.9256
-0.4847 2.6139 0.9185
-0.5780 2.5973 0.9114
-0.6707 2.5774 0.9044
-0.7625 2.5542 0.8974
-0.8535 2.5277 0.8905
-0.9435 2.4978 0.8836
-2.8068 6.7017 2.3839
-3.0684 6.6541 2.3839
-3.3300 6.5965 2.3839
-3.5912 6.5287 2.3839
-3.8514 6.4505 2.3839
-4.1102 6.3618 2.3839
-4.3671 6.2625 2.3839
-4.6217 6.1527 2.3839
-4.8734 6.0322 2.3839
-5.1217 5.9011 2.3839
-5.3660 5.7594 2.3839
-5.6058 5.6071 2.3839
-5.8406 5.4443 2.3839
-6.0698 5.2712 2.3839
-6.2928 5.0879 2.3839
-6.5090 4.8945 2.3839
-6.7180 4.6913 2.3839
-6.9191 4.4785 2.3839
-7.1119 4.2565 2.3839
-7.2956 4.0255 2.3839
-7.4699 3.7859 2.3839
-7.6343 3.5382 2.3839
-3.8660 5.8714 2.3839
-4.1014 5.7745 2.3839
-4.3342 5.6678 2.3839
-4.5640 5.5515 2.3839
-4.7904 5.4256 2.3839
-5.0128 5.2900 2.3839
-5.2308 5.1448 2.3839
-5.4438 4.9902 2.3839
-5.6515 4.8263 2.3839
-5.8532 4.6532 2.3839
-6.0485 4.4711 2.3839
-6.2369 4.2803 2.3839
-6.4179 4.0809 2.3839
-6.5910 3.8733 2.3839
-6.7558 3.6578 2.3839
-6.9118 3.4347 2.3839
-7.0585 3.2044 2.3839
-7.1956 2.9673 2.3839
-7.3227 2.7237 2.3839
-7.4393 2.4743 2.3839
-7.5451 2.2194 2.3839
-7.6398 1.9596 2.3839
-7.7231 1.6954 2.3839
-7.7947 1.4273 2.3839
-7.8545 1.1560 2.3839
-7.9021 0.8819 2.3839
-7.9375 0.6057 2.3839
-7.9605 0.3281 2.3839
-7.9711 0.0495 2.3839
-7.9692 -0.2292 2.3839
-7.9548 -0.5077 2.3839
-7.9280 -0.7851 2.3839
-7.8887 -1.0609 2.3839
-7.8373 -1.3345 2.3839
-7.7737 -1.6053 2.3839
-7.6982 -1.8727 2.3839
-7.6110 -2.1361 2.3839
-7.5125 -2.3949 2.3839
-7.4028 -2.6487 2.3839
-7.2823 -2.8969 2.3839
-7.1514 -3.1391 2.3839
-7.0104 -3.3747 2.3839
-6.8597 -3.6034 2.3839
-6.6998 -3.8247 2.3839
-6.5312 -4.0382 2.3839
-6.3542 -4.2437 2.3839
-6.1693 -4.4408 2.3839
-5.9771 -4.6292 2.3839
-5.7780 -4.8087 2.3839
-5.5726 -4.9790 2.3839
-5.3612 -5.1400 2.3839
-5.1445 -5.2915 2.3839
-4.9230 -5.4334 2.3839
-4.6971 -5.5656 2.3839
-4.4673 -5.6880 2.3839
-4.2341 -5.8006 2.3839
-3.9981 -5.9034 2.3839
-3.7596 -5.9963 2.3839
-3.5192 -6.0794 2.3839
-3.2773 -6.1528 2.3839
-3.0343 -6.2165 2.3839
-2.7907 -6.2706 2.3839
-2.5469 -6.3153 2.3839
-2.3032 -6.3506 2.3839
-2.0600 -6.3768 2.3839
-1.8178 -6.3939 2.3839
-1.5768 -6.4021 2.3839
-1.3374 -6.4016 2.3839
-1.0998 -6.3926 2.3839
-0.8645 -6.3752 2.3839
-0.6316 -6.3498 2.3839
-0.4014 -6.3165 2.3839
-0.1743 -6.2754 2.3839
0.0497 -6.2269 2.3839
0.2702 -6.1711 2.3839
0.4871 -6.1083 2.3839
0.7002 -6.0387 2.3839
0.9093 -5.9625 2.3839
1.1142 -5.8799 2.3839
1.3147 -5.7912 2.3839
1.5108 -5.6965 2.3839
1.7023 -5.5961 2.3839
1.8891 -5.4903 2.3839
2.0711 -5.3792 2.3839
2.2482 -5.2630 2.3839
2.4202 -5.1419 2.3839
2.5872 -5.0163 2.3839
2.7490 -4.8861 2.3839
2.9056 -4.7517 2.3839
3.0569 -4.6133 2.3839
3.2028 -4.4711 2.3839
3.3434 -4.3251 2.3839
3.4785 -4.1757 2.3839
3.6082 -4.0229 2.3839
3.7324 -3.8671 2.3839
3.8510 -3.7082 2.3839
3.9641 -3.5466 2.3839
4.0716 -3.3824 2.3839
4.1736 -3.2156 2.3839
4.2699 -3.0466 2.3839
4.3606 -2.8754 2.3839
4.4457 -2.7022 2.3839
4.5252 -2.5271 2.3839
4.5990 -2.3503 2.3839
4.6672 -2.1720 2.3839
4.7298 -1.9922 2.3839
4.7867 -1.8111 2.3839
4.8380 -1.6288 2.3839
4.8837 -1.4455 2.3839
4.9237 -1.2613 2.3839
4.9580 -1.0763 2.3839
4.9867 -0.8907 2.3839
5.0098 -0.7046 2.3839
5.0273 -0.5180 2.3839
5.0391 -0.3312 2.3839
5.0453 -0.1442 2.3839
5.0458 0.0428 2.3839
5.0408 0.2297 2.3839
5.0301 0.4164 2.3839
5.0138 0.6028 2.3839
4.9920 0.7887 2.3839
4.9645 0.9741 2.3839
4.9314 1.1587 2.3839
4.8927 1.3425 2.3839
4.8484 1.5254 2.3839
4.7985 1.7071 2.3839
4.7430 1.8877 2.3839
4.6820 2.0669 2.3839
4.6154 2.2447 2.3839
4.5432 2.4208 2.3839
4.4654 2.5952 2.3839
4.3822 2.7678 2.3839
4.2933 2.9383 2.3839
4.1990 3.1067 2.3839
4.0992 3.2727 2.3839
3.9939 3.4363 2.3839
3.8831 3.5973 2.3839
3.7668 3.7555 2.3839
3.6452 3.9108 2.3839
3.5181 4.0630 2.3839
3.3857 4.2119 2.3839
3.2480 4.3575 2.3839
3.1050 4.4994 2.3839
2.9568 4.6375 2.3839
2.8033 4.7717 2.3839
2.6448 4.9018 2.3839
2.4812 5.0275 2.3839
2.3126 5.1487 2.3839
2.1391 5.2652 2.3839
0.8359 2.2922 1.0163
0.7533 2.3236 1.0102
0.6696 2.3520 1.0041
0.5850 2.3774 0.9978
0.4995 2.3997 0.9915
0.4133 2.4189 0.9851
0.3264 2.4350 0.9786
0.2390 2.4479 0.9721
0.1511 2.4577 0.9656
0.0630 2.4643 0.9590
-0.0253 2.4676 0.9524
-0.1137 2.4678 0.9457
-0.2020 2.4648 0.9391
-0.2902 2.4586 0.9324
-0.3781 2.4492 0.9258
-0.4656 2.4366 0.9192
-0.5526 2.4209 0.9126
-0.6389 2.4020 0.9060
-0.7246 2.3801 0.8995
-0.8093 2.3550 0.8930
-0.8931 2.3269 0.8866
-0.9759 2.2957 0.8803
-2.8842 6.1686 2.3839
-3.1253 6.1109 2.3839
-3.3656 6.0437 2.3839
-3.6048 5.9669 2.3839
-3.8424 5.8806 2.3839
-4.0780 5.7846 2.3839
-4.3110 5.6789 2.3839
-4.5412 5.5636 2.3839
-4.7679 5.4386 2.3839
-4.9908 5.3039 2.3839
-5.2092 5.1597 2.3839
-5.4228 5.0061 2.3839
-5.6310 4.8431 2.3839
-5.8333 4.6709 2.3839
-6.0293 4.4897 2.3839
-6.2184 4.2997 2.3839
-6.4001 4.1012 2.3839
-6.5741 3.8944 2.3839
-6.7397 3.6797 2.3839
-6.8966 3.4573 2.3839
-7.0443 3.2277 2.3839
-7.1824 2.9912 2.3839
-7.3105 2.7483 2.3839
-7.4281 2.4995 2.3839
-7.5350 2.2451 2.3839
-7.6309 1.9858 2.3839
-7.7153 1.7219 2.3839
-7.7881 1.4542 2.3839
-7.8490 1.1832 2.3839
-7.8979 0.9094 2.3839
-7.9345 0.6334 2.3839
-7.9588 0.3559 2.3839
-7.9706 0.0774 2.3839
-7.9699 -0.2014 2.3839
-7.9568 -0.4799 2.3839
-7.9312 -0.7574 2.3839
-7.8932 -1.0335 2.3839
-7.8430 -1.3073 2.3839
-7.7806 -1.5784 2.3839
-7.7063 -1.8461 2.3839
-7.6203 -2.1099 2.3839
-7.5228 -2.3693 2.3839
-7.4142 -2.6236 2.3839
-7.2948 -2.8724 2.3839
-7.1649 -3.1152 2.3839
-7.0249 -3.3515 2.3839
-6.8752 -3.5808 2.3839
-6.7162 -3.8029 2.3839
-6.5484 -4.0173 2.3839
-6.3722 -4.2235 2.3839
-6.1881 -4.4215 2.3839
-5.9966 -4.6108 2.3839
-5.7982 -4.7912 2.3839
-5.5933 -4.9624 2.3839
-5.3826 -5.1244 2.3839
-5.1664 -5.2768 2.3839
-4.9453 -5.4197 2.3839
-4.7198 -5.5529 2.3839
-4.4904 -5.6763 2.3839
-4.2575 -5.7898 2.3839
-4.0218 -5.8936 2.3839
-3.7835 -5.9875 2.3839
-3.5433 -6.0716 2.3839
-3.3015 -6.1459 2.3839
-3.0586 -6.2106 2.3839
-2.8151 -6.2657 2.3839
-2.5712 -6.3113 2.3839
-2.3275 -6.3475 2.3839
-2.0843 -6.3746 2.3839
-1.8419 -6.3925 2.3839
-1.6008 -6.4016 2.3839
-1.3612 -6.4020 2.3839
-1.1235 -6.3938 2.3839
-0.8879 -6.3773 2.3839
-0.6547 -6.3527 2.3839
-0.4243 -6.3202 2.3839
-0.1968 -6.2799 2.3839
0.0275 -6.2321 2.3839
0.2484 -6.1770 2.3839
0.4656 -6.1149 2.3839
0.6791 -6.0460 2.3839
0.8886 -5.9704 2.3839
1.0939 -5.8884 2.3839
1.2949 -5.8003 2.3839
1.4914 -5.7062 2.3839
1.6834 -5.6064 2.3839
1.8707 -5.5011 2.3839
2.0532 -5.3905 2.3839
2.2307 -5.2748 2.3839
2.4033 -5.1542 2.3839
2.5708 -5.0290 2.3839
2.7331 -4.8993 2.3839
2.8902 -4.7654 2.3839
3.0420 -4.6273 2.3839
3.1885 -4.4854 2.3839
3.3296 -4.3399 2.3839
3.4653 -4.1908 2.3839
3.5955 -4.0383 2.3839
3.7202 -3.8828 2.3839
3.8394 -3.7242 2.3839
3.9531 -3.5629 2.3839
4.0611 -3.3989 2.3839
4.1636 -3.2324 2.3839
4.2605 -3.0636 2.3839
4.3518 -2.8926 2.3839
4.4375 -2.7196 2.3839
4.5175 -2.5447 2.3839
4.5919 -2.3680 2.3839
4.6607 -2.1898 2.3839
4.7238 -2.0102 2.3839
4.7813 -1.8292 2.3839
4.8331 -1.6471 2.3839
4.8793 -1.4639 2.3839
4.9199 -1.2797 2.3839
4.9548 -1.0948 2.3839
4.9841 -0.9093 2.3839
5.0077 -0.7232 2.3839
5.0258 -0.5367 2.3839
5.0381 -0.3498 2.3839
5.0449 -0.1629 2.3839
5.0460 0.0241 2.3839
5.0416 0.2111 2.3839
5.0314 0.3978 2.3839
5.0157 0.5842 2.3839
4.9944 0.7702 2.3839
4.9674 0.9556 2.3839
4.9349 1.1403 2.3839
4.8968 1.3242 2.3839
4.8530 1.5071 2.3839
4.8037 1.6890 2.3839
4.7488 1.8697 2.3839
4.6883 2.0491 2.3839
4.6222 2.2270 2.3839
4.5506 2.4033 2.3839
4.4734 2.5779 2.3839
4.3907 2.7507 2.3839
4.3025 2.9214 2.3839
4.2087 3.0900 2.3839
4.1094 3.2562 2.3839
4.0046 3.4201 2.3839
3.8944 3.5813 2.3839
3.7787 3.7398 2.3839
3.6576 3.8954 2.3839
3.5310 4.0479 2.3839
3.3992 4.1972 2.3839
3.2620 4.3431 2.3839
3.1195 4.4854 2.3839
2.9718 4.6239 2.3839
2.8189 4.7585 2.3839
2.6608 4.8890 2.3839
2.4977 5.0151 2.3839
2.3296 5.1368 2.3839
2.1566 5.2537 2.3839
0.8441 2.2889 1.0169
0.7616 2.3206 1.0108
0.6781 2.3493 1.0047
0.5935 2.3750 0.9984
0.5081 2.3976 0.9921
0.4219 2.4172 0.9857
0.3351 2.4336 0.9793
0.2477 2.4468 0.9728
0.1599 2.4569 0.9662
0.0718 2.4638 0.9596
-0.0165 2.4675 0.9530
-0.1049 2.4680 0.9464
-0.1932 2.4653 0.9398
-0.2814 2.4594 0.9331
-0.3693 2.4503 0.9265
-0.4569 2.4380 0.9199
-0.5439 2.4226 0.9133
-0.6303 2.4041 0.9067
-0.7160 2.3824 0.9002
-0.8009 2.3576 0.8937
-0.8848 2.3298 0.8873
-0.9677 2.2990 0.8809
-2.8601 6.1739 2.3839
-3.1012 6.1171 2.3839
-3.3417 6.0508 2.3839
-3.5810 5.9750 2.3839
-3.8188 5.8896 2.3839
-4.0546 5.7946 2.3839
-4.2879 5.6899 2.3839
-4.5184 5.5755 2.3839
-4.7455 5.4515 2.3839
-4.9687 5.3178 2.3839
-5.1876 5.1745 2.3839
-5.4017 5.0218 2.3839
-5.6104 4.8597 2.3839
-5.8134 4.6885 2.3839
-6.0100 4.5082 2.3839
-6.1998 4.3191 2.3839
-6.3823 4.1214 2.3839
-6.5571 3.9154 2.3839
-6.7236 3.7015 2.3839
-6.8814 3.4798 2.3839
-7.0300 3.2509 2.3839
-3.6071 5.4587 2.3839
-3.8242 5.3660 2.3839
-4.0387 5.2644 2.3839
-4.2503 5.1540 2.3839
-4.4585 5.0347 2.3839
-4.6629 4.9067 2.3839
-4.8631 4.7699 2.3839
-5.0585 4.6246 2.3839
-5.2488 4.4708 2.3839
-5.4335 4.3086 2.3839
-5.6122 4.1384 2.3839
-5.7845 3.9602 2.3839
-5.9498 3.7744 2.3839
-6.1079 3.5811 2.3839
-6.2582 3.3807 2.3839
-6.4004 3.1734 2.3839
-6.5341 2.9597 2.3839
-6.6589 2.7399 2.3839
-6.7744 2.5143 2.3839
-6.8805 2.2835 2.3839
-6.9766 2.0477 2.3839
-7.0626 1.8076 2.3839
-7.1382 1.5636 2.3839
-7.2032 1.3161 2.3839
-7.2574 1.0656 2.3839
-7.3005 0.8128 2.3839
-7.3326 0.5581 2.3839
-7.3534 0.3021 2.3839
-7.3629 0.0453 2.3839
-7.3610 -0.2117 2.3839
-7.3479 -0.4684 2.3839
-7.3234 -0.7242 2.3839
-7.2877 -0.9786 2.3839
-7.2408 -1.2309 2.3839
-7.1830 -1.4808 2.3839
-7.1143 -1.7276 2.3839
-7.0350 -1.9708 2.3839
-6.9453 -2.2100 2.3839
-6.8454 -2.4447 2.3839
-6.7357 -2.6744 2.3839
-6.6164 -2.8986 2.3839
-6.4879 -3.1169 2.3839
-6.3506 -3.3291 2.3839
-6.2047 -3.5346 2.3839
-6.0508 -3.7331 2.3839
-5.8891 -3.9244 2.3839
-5.7201 -4.1081 2.3839
-5.5443 -4.2840 2.3839
-5.3621 -4.4518 2.3839
-5.1739 -4.6113 2.3839
-4.9801 -4.7623 2.3839
-4.7813 -4.9048 2.3839
-4.5779 -5.0385 2.3839
-4.3703 -5.1633 2.3839
-4.1589 -5.2792 2.3839
-3.9442 -5.3862 2.3839
-3.7267 -5.4841 2.3839
-3.5068 -5.5731 2.3839
-3.2848 -5.6530 2.3839
-3.0613 -5.7240 2.3839
-2.8365 -5.7860 2.3839
-2.6110 -5.8392 2.3839
-2.3850 -5.8836 2.3839
-2.1589 -5.9194 2.3839
-1.9331 -5.9466 2.3839
-1.7080 -5.9655 2.3839
-1.4838 -5.9760 2.3839
-1.2608 -5.9784 2.3839
-1.0394 -5.9728 2.3839
-0.8198 -5.9594 2.3839
-0.6023 -5.9384 2.3839
-0.3872 -5.9100 2.3839
-0.1746 -5.8743 2.3839
0.0351 -5.8315 2.3839
0.2418 -5.7818 2.3839
0.4453 -5.7255 2.3839
0.6453 -5.6627 2.3839
0.8418 -5.5936 2.3839
1.0345 -5.5184 2.3839
1.2233 -5.4374 2.3839
1.4081 -5.3506 2.3839
1.5886 -5.2584 2.3839
1.7649 -5.1609 2.3839
1.9367 -5.0583 2.3839
2.1041 -4.9509 2.3839
2.2668 -4.8387 2.3839
2.4248 -4.7221 2.3839
2.5780 -4.6011 2.3839
2.7264 -4.4761 2.3839
2.8698 -4.3470 2.3839
3.0083 -4.2143 2.3839
3.1418 -4.0779 2.3839
3.2701 -3.9381 2.3839
3.3934 -3.7951 2.3839
3.5115 -3.6490 2.3839
3.6243 -3.5000 2.3839
3.7320 -3.3483 2.3839
3.8344 -3.1939 2.3839
3.9316 -3.0372 2.3839
4.0234 -2.8781 2.3839
4.1099 -2.7169 2.3839
4.1911 -2.5537 2.3839
4.2670 -2.3887 2.3839
4.3375 -2.2220 2.3839
4.4026 -2.0537 2.3839
4.4624 -1.8839 2.3839
4.5168 -1.7129 2.3839
4.5659 -1.5407 2.3839
4.6095 -1.3675 2.3839
4.6478 -1.1934 2.3839
4.6807 -1.0185 2.3839
4.7082 -0.8430 2.3839
4.7303 -0.6669 2.3839
4.7470 -0.4904 2.3839
4.7584 -0.3136 2.3839
4.7644 -0.1367 2.3839
4.7650 0.0402 2.3839
4.7602 0.2171 2.3839
4.7500 0.3938 2.3839
4.7345 0.5701 2.3839
4.7136 0.7460 2.3839
4.6874 0.9213 2.3839
4.6558 1.0960 2.3839
4.6189 1.2698 2.3839
4.5766 1.4426 2.3839
4.5290 1.6144 2.3839
4.4760 1.7851 2.3839
4.4178 1.9543 2.3839
4.3542 2.1222 2.3839
4.2853 2.2884 2.3839
4.2112 2.4530 2.3839
4.1318 2.6156 2.3839
4.0471 2.7763 2.3839
3.9572 2.9349 2.3839
3.8621 3.0912 2.3839
3.7618 3.2450 2.3839
3.6564 3.3963 2.3839
3.5458 3.5449 2.3839
3.4301 3.6906 2.3839
3.3093 3.8333 2.3839
3.1835 3.9728 2.3839
3.0527 4.1090 2.3839
2.9170 4.2416 2.3839
2.7764 4.3706 2.3839
2.6309 4.4957 2.3839
2.4807 4.6168 2.3839
2.3258 4.7337 2.3839
2.1663 4.8462 2.3839
2.0022 4.9541 2.3839
0.7779 2.1454 1.0113
0.7006 2.1749 1.0056
0.6223 2.2015 0.9999
0.5431 2.2252 0.9940
0.4630 2.2461 0.9881
0.3823 2.2640 0.9821
0.3010 2.2791 0.9761
0.2191 2.2912 0.9700
0.1369 2.3003 0.9638
0.0544 2.3064 0.9577
-0.0282 2.3096 0.9515
-0.1110 2.3097 0.9453
-0.1936 2.3069 0.9391
-0.2762 2.3011 0.9328
-0.3584 2.2923 0.9266
-0.4403 2.2805 0.9204
-0.5217 2.2658 0.9143
-0.6026 2.2482 0.9081
-0.6827 2.2276 0.9020
-0.7621 2.2041 0.8960
-0.8405 2.1778 0.8900
-0.9180 2.1487 0.8840
-2.6992 5.7463 2.3839
-2.9225 5.6897 2.3839
-3.1448 5.6245 2.3839
-3.3659 5.5504 2.3839
-3.5853 5.4674 2.3839
-3.8026 5.3756 2.3839
-4.0174 5.2749 2.3839
-4.2293 5.1654 2.3839
-4.4379 5.0470 2.3839
-4.6427 4.9198 2.3839
-4.8433 4.7840 2.3839
-5.0392 4.6395 2.3839
-5.2301 4.4865 2.3839
-5.4154 4.3252 2.3839
-5.5947 4.1557 2.3839
-5.7676 3.9783 2.3839
-5.9336 3.7932 2.3839
-6.0924 3.6007 2.3839
-6.2435 3.4010 2.3839
-6.3866 3.1944 2.3839
-6.5211 2.9813 2.3839
-6.6468 2.7621 2.3839
-6.7633 2.5371 2.3839
-6.8703 2.3067 2.3839
-6.9675 2.0715 2.3839
-7.0545 1.8318 2.3839
-7.1312 1.5881 2.3839
-7.1972 1.3409 2.3839
-7.2525 1.0908 2.3839
-7.2967 0.8381 2.3839
-7.3299 0.5836 2.3839
-7.3518 0.3277 2.3839
-7.3624 0.0710 2.3839
-7.3617 -0.1861 2.3839
-7.3497 -0.4428 2.3839
-7.3263 -0.6987 2.3839
-7.2917 -0.9532 2.3839
-7.2460 -1.2058 2.3839
-7.1892 -1.4560 2.3839
-7.1216 -1.7031 2.3839
-7.0434 -1.9467 2.3839
-6.9547 -2.1863 2.3839
-6.8558 -2.4215 2.3839
-6.7471 -2.6517 2.3839
-6.6288 -2.8764 2.3839
-6.5012 -3.0954 2.3839
-6.3647 -3.3082 2.3839
-6.2197 -3.5144 2.3839
-6.0665 -3.7136 2.3839
-5.9056 -3.9056 2.3839
-5.7373 -4.0901 2.3839
-5.5622 -4.2668 2.3839
-5.3806 -4.4354 2.3839
-5.1929 -4.5957 2.3839
-4.9997 -4.7476 2.3839
-4.8014 -4.8909 2.3839
-4.5984 -5.0255 2.3839
-4.3912 -5.1512 2.3839
-4.1801 -5.2681 2.3839
-3.9658 -5.3759 2.3839
-3.7485 -5.4748 2.3839
-3.5288 -5.5646 2.3839
-3.3071 -5.6454 2.3839
-3.0837 -5.7173 2.3839
-2.8590 -5.7802 2.3839
-2.6335 -5.8343 2.3839
-2.4075 -5.8796 2.3839
-2.1815 -5.9162 2.3839
-1.9557 -5.9443 2.3839
-1.7304 -5.9640 2.3839
-1.5061 -5.9753 2.3839
-1.2830 -5.9785 2.3839
-1.0614 -5.9737 2.3839
-0.8416 -5.9611 2.3839
-0.6239 -5.9409 2.3839
-0.4085 -5.9132 2.3839
-0.1957 -5.8782 2.3839
0.0143 -5.8361 2.3839
0.2213 -5.7871 2.3839
0.4251 -5.7314 2.3839
0.6255 -5.6693 2.3839
0.8224 -5.6008 2.3839
1.0154 -5.5262 2.3839
1.2047 -5.4457 2.3839
1.3898 -5.3595 2.3839
1.5708 -5.2679 2.3839
1.7475 -5.1709 2.3839
1.9198 -5.0688 2.3839
2.0876 -4.9618 2.3839
2.2507 -4.8502 2.3839
2.4092 -4.7339 2.3839
2.5629 -4.6134 2.3839
2.7118 -4.4887 2.3839
2.8557 -4.3601 2.3839
2.9947 -4.2277 2.3839
3.1287 -4.0917 2.3839
3.2575 -3.9522 2.3839
3.3813 -3.8095 2.3839
3.4999 -3.6637 2.3839
3.6133 -3.5150 2.3839
3.7215 -3.3635 2.3839
3.8244 -3.2094 2.3839
3.9221 -3.0529 2.3839
4.0145 -2.8941 2.3839
4.1015 -2.7331 2.3839
4.1833 -2.5701 2.3839
4.2597 -2.4053 2.3839
4.3307 -2.2387 2.3839
4.3964 -2.0705 2.3839
4.4567 -1.9010 2.3839
4.5117 -1.7301 2.3839
4.5612 -1.5580 2.3839
4.6054 -1.3849 2.3839
4.6442 -1.2108 2.3839
4.6776 -1.0360 2.3839
4.7057 -0.8605 2.3839
4.7283 -0.6845 2.3839
4.7456 -0.5080 2.3839
4.7575 -0.3313 2.3839
4.7640 -0.1544 2.3839
4.7652 0.0226 2.3839
4.7609 0.1995 2.3839
4.7513 0.3762 2.3839
4.7363 0.5525 2.3839
4.7160 0.7285 2.3839
4.6903 0.9039 2.3839
4.6592 1.0786 2.3839
4.6228 1.2525 2.3839
4.5811 1.4254 2.3839
4.5340 1.5973 2.3839
4.4816 1.7681 2.3839
4.4238 1.9375 2.3839
4.3608 2.1055 2.3839
4.2925 2.2719 2.3839
4.2188 2.4366 2.3839
4.1400 2.5995 2.3839
4.0558 2.7604 2.3839
3.9665 2.9192 2.3839
3.8719 3.0757 2.3839
3.7721 3.2298 2.3839
3.6671 3.3814 2.3839
3.5571 3.5302 2.3839
3.4419 3.6762 2.3839
3.3216 3.8192 2.3839
3.1963 3.9590 2.3839
3.0660 4.0955 2.3839
2.9308 4.2285 2.3839
2.7906 4.3579 2.3839
2.6457 4.4834 2.3839
2.4959 4.6049 2.3839
2.3415 4.7222 2.3839
2.1824 4.8352 2.3839
2.0188 4.9436 2.3839
0.7855 2.1424 1.0119
0.7084 2.1720 1.0062
0.6301 2.1989 1.0004
0.5510 2.2230 0.9946
0.4710 2.2441 0.9887
0.3904 2.2624 0.9827
0.3091 2.2777 0.9767
0.2273 2.2901 0.9706
0.1451 2.2995 0.9645
0.0627 2.3059 0.9583
-0.0200 2.3094 0.9521
-0.1027 2.3099 0.9459
-0.1854 2.3073 0.9397
-0.2679 2.3018 0.9335
-0.3502 2.2933 0.9272
-0.4322 2.2818 0.9210
-0.5136 2.2674 0.9149
-0.5945 2.2500 0.9087
-0.6747 2.2298 0.9026
-0.7542 2.2066 0.8966
-0.8327 2.1806 0.8905
-0.9103 2.1517 0.8846
-2.6769 5.7515 2.3839
-2.9002 5.6958 2.3839
-3.1227 5.6314 2.3839
-3.3439 5.5582 2.3839
-3.5635 5.4761 2.3839
-3.7810 5.3852 2.3839
-3.9961 5.2854 2.3839
-4.2083 5.1767 2.3839
-4.4173 5.0592 2.3839
-4.6224 4.9329 2.3839
-4.8235 4.7979 2.3839
-5.0199 4.6543 2.3839
-5.2113 4.5021 2.3839
-5.3971 4.3417 2.3839
-5.5771 4.1730 2.3839
-5.7506 3.9964 2.3839
-5.9174 3.8121 2.3839
-6.0769 3.6202 2.3839
-6.2288 3.4212 2.3839
-6.3727 3.2153 2.3839
-6.5081 3.0029 2.3839
-3.3783 5.0938 2.3839
-3.5794 5.0053 2.3839
-3.7781 4.9085 2.3839
-3.9738 4.8035 2.3839
-4.1663 4.6905 2.3839
-4.3551 4.5694 2.3839
-4.5398 4.4403 2.3839
-4.7200 4.3033 2.3839
-4.8954 4.1587 2.3839
-5.0655 4.0064 2.3839
-5.2299 3.8467 2.3839
-5.3882 3.6799 2.3839
-5.5402 3.5060 2.3839
-5.6853 3.3254 2.3839
-5.8232 3.1384 2.3839
-5.9536 2.9451 2.3839
-6.0761 2.7460 2.3839
-6.1905 2.5414 2.3839
-6.2963 2.3316 2.3839
-6.3933 2.1171 2.3839
-6.4812 1.8981 2.3839
-6.5598 1.6752 2.3839
-6.6289 1.4488 2.3839
-6.6883 1.2192 2.3839
-6.7377 0.9870 2.3839
-6.7771 0.7527 2.3839
-6.8063 0.5167 2.3839
-6.8252 0.2795 2.3839
-6.8338 0.0416 2.3839
-6.8320 -0.1965 2.3839
-6.8199 -0.4343 2.3839
-6.7974 -0.6712 2.3839
-6.7647 -0.9069 2.3839
-6.7218 -1.1408 2.3839
-6.6688 -1.3724 2.3839
-6.6059 -1.6013 2.3839
-6.5333 -1.8270 2.3839
-6.4512 -2.0490 2.3839
-6.3597 -2.2669 2.3839
-6.2592 -2.4803 2.3839
-6.1499 -2.6888 2.3839
-6.0320 -2.8920 2.3839
-5.9060 -3.0896 2.3839
-5.7722 -3.2812 2.3839
-5.6308 -3.4664 2.3839
-5.4822 -3.6451 2.3839
-5.3269 -3.8169 2.3839
-5.1652 -3.9815 2.3839
-4.9975 -4.1389 2.3839
-4.8242 -4.2887 2.3839
-4.6456 -4.4307 2.3839
-4.4622 -4.5649 2.3839
-4.2744 -4.6911 2.3839
-4.0826 -4.8093 2.3839
-3.8873 -4.9192 2.3839
-3.6887 -5.0209 2.3839
-3.4873 -5.1142 2.3839
-3.2835 -5.1993 2.3839
-3.0776 -5.2761 2.3839
-2.8701 -5.3446 2.3839
-2.6613 -5.4048 2.3839
-2.4516 -5.4568 2.3839
-2.2414 -5.5007 2.3839
-2.0308 -5.5365 2.3839
-1.8204 -5.5644 2.3839
-1.6103 -5.5844 2.3839
-1.4009 -5.5966 2.3839
-1.1926 -5.6013 2.3839
-0.9855 -5.5984 2.3839
-0.7799 -5.5882 2.3839
-0.5762 -5.5709 2.3839
-0.3744 -5.5465 2.3839
-0.1750 -5.5152 2.3839
0.0220 -5.4773 2.3839
0.2163 -5.4328 2.3839
0.4077 -5.3820 2.3839
0.5961 -5.3250 2.3839
0.7812 -5.2620 2.3839
0.9629 -5.1932 2.3839
1.1410 -5.1188 2.3839
1.3155 -5.0390 2.3839
1.4861 -4.9539 2.3839
1.6528 -4.8637 2.3839
1.8154 -4.7687 2.3839
1.9738 -4.6689 2.3839
2.1280 -4.5646 2.3839
2.2778 -4.4560 2.3839
2.4232 -4.3431 2.3839
2.5640 -4.2263 2.3839
2.7003 -4.1056 2.3839
2.8319 -3.9814 2.3839
2.9588 -3.8536 2.3839
3.0809 -3.7224 2.3839
3.1983 -3.5881 2.3839
3.3107 -3.4508 2.3839
3.4183 -3.3107 2.3839
3.5209 -3.1678 2.3839
3.6186 -3.0224 2.3839
3.7113 -2.8747 2.3839
3.7989 -2.7246 2.3839
3.8815 -2.5725 2.3839
3.9591 -2.4184 2.3839
4.0316 -2.2625 2.3839
4.0990 -2.1049 2.3839
4.1613 -1.9458 2.3839
4.2184 -1.7852 2.3839
4.2705 -1.6233 2.3839
4.3174 -1.4603 2.3839
4.3592 -1.2963 2.3839
4.3959 -1.1314 2.3839
4.4274 -0.9657 2.3839
4.4537 -0.7993 2.3839
4.4750 -0.6324 2.3839
4.4910 -0.4652 2.3839
4.5019 -0.2976 2.3839
4.5077 -0.1299 2.3839
4.5083 0.0379 2.3839
4.5038 0.2056 2.3839
4.4941 0.3731 2.3839
4.4793 0.5403 2.3839
4.4594 0.7070 2.3839
4.4343 0.8732 2.3839
4.4041 1.0387 2.3839
4.3688 1.2034 2.3839
4.3284 1.3671 2.3839
4.2829 1.5298 2.3839
4.2323 1.6914 2.3839
4.1766 1.8516 2.3839
4.1159 2.0104 2.3839
4.0501 2.1676 2.3839
3.9793 2.3232 2.3839
3.9035 2.4769 2.3839
3.8227 2.6287 2.3839
3.7370 2.7784 2.3839
3.6462 2.9258 2.3839
3.5506 3.0709 2.3839
3.4501 3.2134 2.3839
3.3447 3.3534 2.3839
3.2345 3.4904 2.3839
3.1196 3.6246 2.3839
2.9998 3.7556 2.3839
2.8755 3.8834 2.3839
2.7464 4.0077 2.3839
2.6128 4.1285 2.3839
2.4747 4.2455 2.3839
2.3321 4.3586 2.3839
2.1852 4.4677 2.3839
2.0339 4.5725 2.3839
0.7975 1.9839 1.0121
0.7260 2.0141 1.0069
0.6534 2.0417 1.0015
0.5799 2.0667 0.9961
0.5055 2.0889 0.9906
0.4304 2.1085 0.9851
0.3546 2.1254 0.9794
0.2782 2.1395 0.9738
0.2014 2.1508 0.9681
0.1242 2.1594 0.9623
0.0468 2.1651 0.9565
-0.0308 2.1681 0.9507
-0.1085 2.1683 0.9449
-0.1861 2.1656 0.9390
-0.2636 2.1601 0.9332
-0.3408 2.1519 0.9274
-0.4177 2.1408 0.9215
-0.4941 2.1270 0.9157
-0.5700 2.1104 0.9100
-0.6453 2.0911 0.9042
-0.7197 2.0691 0.8986
-0.7934 2.0444 0.8929
-0.8661 2.0170 0.8873
-0.9378 1.9871 0.8818
-2.7427 5.3165 2.3839
-2.9493 5.2532 2.3839
-3.1546 5.1818 2.3839
-3.3581 5.1022 2.3839
-3.5594 5.0145 2.3839
-3.7584 4.9185 2.3839
-3.9544 4.8144 2.3839
-4.1472 4.7021 2.3839
-4.3364 4.5818 2.3839
-4.5215 4.4535 2.3839
-4.7022 4.3174 2.3839
-4.8781 4.1735 2.3839
-5.0487 4.0219 2.3839
-5.2137 3.8630 2.3839
-5.3727 3.6969 2.3839
-5.5253 3.5237 2.3839
-5.6711 3.3438 2.3839
-5.8098 3.1573 2.3839
-5.9409 2.9647 2.3839
-6.0643 2.7662 2.3839
-6.1794 2.5621 2.3839
-6.2861 2.3528 2.3839
-6.3840 2.1387 2.3839
-6.4729 1.9202 2.3839
-6.5524 1.6976 2.3839
-6.6225 1.4715 2.3839
-6.6828 1.2423 2.3839
-6.7332 1.0103 2.3839
-6.7736 0.7762 2.3839
-6.8038 0.5403 2.3839
-6.8237 0.3032 2.3839
-6.8334 0.0654 2.3839
-6.8326 -0.1727 2.3839
-6.8215 -0.4106 2.3839
-6.8001 -0.6476 2.3839
-6.7684 -0.8835 2.3839
-6.7265 -1.1175 2.3839
-6.6745 -1.3494 2.3839
-6.6127 -1.5786 2.3839
-6.5410 -1.8046 2.3839
-6.4598 -2.0270 2.3839
-6.3692 -2.2453 2.3839
-6.2696 -2.4592 2.3839
-6.1611 -2.6682 2.3839
-6.0442 -2.8720 2.3839
-5.9190 -3.0701 2.3839
-5.7859 -3.2623 2.3839
-5.6452 -3.4482 2.3839
-5.4974 -3.6275 2.3839
-5.3427 -3.8000 2.3839
-5.1817 -3.9654 2.3839
-5.0145 -4.1235 2.3839
-4.8417 -4.2741 2.3839
-4.6636 -4.4169 2.3839
-4.4807 -4.5519 2.3839
-4.2934 -4.6789 2.3839
-4.1020 -4.7978 2.3839
-3.9069 -4.9086 2.3839
-3.7086 -5.0111 2.3839
-3.5075 -5.1053 2.3839
-3.3039 -5.1912 2.3839
-3.0983 -5.2688 2.3839
-2.8909 -5.3381 2.3839
-2.6822 -5.3992 2.3839
-2.4726 -5.4520 2.3839
-2.2624 -5.4967 2.3839
-2.0518 -5.5333 2.3839
-1.8414 -5.5619 2.3839
-1.6312 -5.5827 2.3839
-1.4218 -5.5957 2.3839
-1.2133 -5.6011 2.3839
-1.0061 -5.5990 2.3839
-0.8004 -5.5896 2.3839
-0.5964 -5.5729 2.3839
-0.3945 -5.5492 2.3839
-0.1948 -5.5186 2.3839
0.0025 -5.4813 2.3839
0.1971 -5.4375 2.3839
0.3888 -5.3873 2.3839
0.5774 -5.3310 2.3839
0.7628 -5.2686 2.3839
0.9449 -5.2004 2.3839
1.1234 -5.1265 2.3839
1.2983 -5.0472 2.3839
1.4693 -4.9626 2.3839
1.6363 -4.8730 2.3839
1.7993 -4.7783 2.3839
1.9582 -4.6791 2.3839
2.1128 -4.5752 2.3839
2.2631 -4.4670 2.3839
2.4089 -4.3546 2.3839
2.5502 -4.2382 2.3839
2.6869 -4.1178 2.3839
2.8190 -3.9939 2.3839
2.9464 -3.8665 2.3839
3.0690 -3.7357 2.3839
3.1868 -3.6017 2.3839
3.2997 -3.4647 2.3839
3.4078 -3.3248 2.3839
3.5109 -3.1822 2.3839
3.6090 -3.0371 2.3839
3.7022 -2.8895 2.3839
3.7904 -2.7397 2.3839
3.8735 -2.5878 2.3839
3.9516 -2.4339 2.3839
4.0246 -2.2781 2.3839
4.0925 -2.1207 2.3839
4.1553 -1.9617 2.3839
4.2130 -1.8013 2.3839
4.2655 -1.6396 2.3839
4.3130 -1.4767 2.3839
4.3553 -1.3127 2.3839
4.3924 -1.1479 2.3839
4.4245 -0.9823 2.3839
4.4513 -0.8160 2.3839
4.4731 -0.6491 2.3839
4.4896 -0.4819 2.3839
4.5011 -0.3143 2.3839
4.5073 -0.1466 2.3839
4.5085 0.0212 2.3839
4.5045 0.1889 2.3839
4.4953 0.3564 2.3839
4.4810 0.5236 2.3839
4.4616 0.6904 2.3839
4.4370 0.8566 2.3839
4.4073 1.0222 2.3839
4.3725 1.1869 2.3839
4.3326 1.3508 2.3839
4.2877 1.5136 2.3839
4.2376 1.6753 2.3839
4.1824 1.8356 2.3839
4.1222 1.9946 2.3839
4.0569 2.1520 2.3839
3.9866 2.3077 2.3839
3.9113 2.4617 2.3839
3.8310 2.6136 2.3839
3.7457 2.7635 2.3839
3.6555 2.9112 2.3839
3.5604 3.0565 2.3839
3.4604 3.1993 2.3839
3.3555 3.3395 2.3839
3.2457 3.4769 2.3839
3.1313 3.6113 2.3839
3.0120 3.7427 2.3839
2.8881 3.8708 2.3839
2.7595 3.9955 2.3839
2.6263 4.1166 2.3839
2.4887 4.2340 2.3839
2.3465 4.3475 2.3839
2.2000 4.4570 2.3839
2.0492 4.5622 2.3839
0.8046 1.9808 1.0126
0.7332 2.0112 1.0074
0.6607 2.0391 1.0021
0.5873 2.0643 0.9967
0.5130 2.0868 0.9912
0.4379 2.1067 0.9856
0.3622 2.1238 0.9800
0.2858 2.1382 0.9743
0.2091 2.1498 0.9686
0.1319 2.1587 0.9629
0.0545 2.1647 0.9571
-0.0231 2.1679 0.9513
-0.1008 2.1684 0.9454
-0.1784 2.1660 0.9396
-0.2559 2.1608 0.9338
-0.3331 2.1528 0.9279
-0.4100 2.1420 0.9221
-0.4865 2.1285 0.9163
-0.5625 2.1122 0.9105
-0.6378 2.0932 0.9048
-0.7123 2.0714 0.8991
-0.7861 2.0470 0.8935
-0.8589 2.0199 0.8879
-0.9307 1.9902 0.8824
-2.7220 5.3224 2.3839
-2.9288 5.2599 2.3839
-3.1341 5.1893 2.3839
-3.3378 5.1106 2.3839
-3.5394 5.0236 2.3839
-3.7386 4.9285 2.3839
-3.9350 4.8251 2.3839
-4.1281 4.7137 2.3839
-4.3177 4.5942 2.3839
-4.5032 4.4667 2.3839
-4.6844 4.3313 2.3839
-4.8608 4.1882 2.3839
-5.0319 4.0374 2.3839
-5.1975 3.8792 2.3839
-5.3571 3.7138 2.3839
-5.5104 3.5413 2.3839
-5.6569 3.3620 2.3839
-5.7963 3.1762 2.3839
-5.9282 2.9842 2.3839
-6.0523 2.7863 2.3839
-3.1744 4.7688 2.3839
-3.3615 4.6841 2.3839
-3.5462 4.5918 2.3839
-3.7280 4.4920 2.3839
-3.9067 4.3847 2.3839
-4.0818 4.2700 2.3839
-4.2530 4.1479 2.3839
-4.4200 4.0186 2.3839
-4.5823 3.8822 2.3839
-4.7396 3.7389 2.3839
-4.8917 3.5888 2.3839
-5.0380 3.4321 2.3839
-5.1782 3.2690 2.3839
-5.3122 3.0997 2.3839
-5.4394 2.9246 2.3839
-5.5596 2.7438 2.3839
-5.6724 2.5577 2.3839
-5.7777 2.3666 2.3839
-5.8751 2.1708 2.3839
-5.9643 1.9706 2.3839
-6.0452 1.7665 2.3839
-6.1175 1.5587 2.3839
-6.1810 1.3478 2.3839
-6.2355 1.1340 2.3839
-6.2808 0.9179 2.3839
-6.3170 0.6999 2.3839
-6.3437 0.4803 2.3839
-6.3610 0.2596 2.3839
-6.3688 0.0384 2.3839
-6.3671 -0.1831 2.3839
-6.3559 -0.4043 2.3839
-6.3352 -0.6247 2.3839
-6.3051 -0.8439 2.3839
-6.2656 -1.0616 2.3839
-6.2168 -1.2772 2.3839
-6.1589 -1.4902 2.3839
-6.0921 -1.7004 2.3839
-6.0165 -1.9073 2.3839
-5.9322 -2.1104 2.3839
-5.8396 -2.3095 2.3839
-5.7389 -2.5040 2.3839
-5.6303 -2.6938 2.3839
-5.5141 -2.8784 2.3839
-5.3906 -3.0576 2.3839
-5.2602 -3.2311 2.3839
-5.1230 -3.3985 2.3839
-4.9795 -3.5596 2.3839
-4.8301 -3.7142 2.3839
-4.6750 -3.8621 2.3839
-4.5146 -4.0031 2.3839
-4.3493 -4.1370 2.3839
-4.1794 -4.2637 2.3839
-4.0053 -4.3831 2.3839
-3.8273 -4.4950 2.3839
-3.6460 -4.5993 2.3839
