ply
format ascii 1.0
element vertex 2184
property float32 x
property float32 y
property float32 z
end_header
2.9322 9.1546 2.3834
2.6192 9.3170 2.3834
1.7884 -9.5141 2.3834
2.1147 -9.3798 2.3834
2.4341 -9.2358 2.3834
2.7464 -9.0825 2.3834
3.0516 -8.9202 2.3834
3.3493 -8.7491 2.3834
3.6395 -8.5696 2.3834
3.9219 -8.3822 2.3834
4.1964 -8.1869 2.3834
4.4630 -7.9842 2.3834
4.7214 -7.7744 2.3834
4.9716 -7.5577 2.3834
5.2134 -7.3346 2.3834
5.4469 -7.1052 2.3834
5.6718 -6.8699 2.3834
5.8882 -6.6289 2.3834
6.0959 -6.3826 2.3834
6.2949 -6.1310 2.3834
6.4852 -5.8747 2.3834
6.6667 -5.6137 2.3834
6.8393 -5.3484 2.3834
7.0031 -5.0790 2.3834
7.1579 -4.8057 2.3834
7.3038 -4.5288 2.3834
7.4408 -4.2486 2.3834
7.5687 -3.9651 2.3834
7.6877 -3.6788 2.3834
7.7976 -3.3897 2.3834
7.8984 -3.0982 2.3834
7.9902 -2.8043 2.3834
8.0729 -2.5084 2.3834
8.1465 -2.2107 2.3834
8.2110 -1.9113 2.3834
8.2663 -1.6105 2.3834
8.3126 -1.3085 2.3834
8.3497 -1.0054 2.3834
8.3776 -0.7016 2.3834
8.3964 -0.3971 2.3834
8.4061 -0.0922 2.3834
8.4065 0.2129 2.3834
8.3978 0.5180 2.3834
8.3798 0.8231 2.3834
8.3527 1.1277 2.3834
8.3164 1.4317 2.3834
8.2708 1.7349 2.3834
8.2160 2.0371 2.3834
8.1521 2.3379 2.3834
8.0788 2.6376 2.3834
7.9964 2.9354 2.3834
7.9047 3.2314 2.3834
7.8037 3.5254 2.3834
7.6936 3.8170 2.3834
7.5742 4.1061 2.3834
7.4456 4.3923 2.3834
7.3077 4.6756 2.3834
7.1607 4.9556 2.3834
7.0045 5.2321 2.3834
6.8391 5.5048 2.3834
-0.8322 -9.2383 2.3834
-0.4975 -9.2000 2.3834
-0.1664 -9.1503 2.3834
0.1606 -9.0897 2.3834
0.4832 -9.0184 2.3834
0.8012 -8.9366 2.3834
1.1141 -8.8446 2.3834
1.4218 -8.7428 2.3834
1.7241 -8.6313 2.3834
2.0205 -8.5106 2.3834
2.3110 -8.3809 2.3834
2.5952 -8.2425 2.3834
2.8731 -8.0957 2.3834
3.1444 -7.9408 2.3834
3.4089 -7.7781 2.3834
3.6665 -7.6077 2.3834
3.9171 -7.4302 2.3834
4.1604 -7.2457 2.3834
4.3964 -7.0544 2.3834
4.6250 -6.8567 2.3834
4.8460 -6.6529 2.3834
5.0594 -6.4432 2.3834
5.2651 -6.2279 2.3834
5.4629 -6.0072 2.3834
5.6528 -5.7814 2.3834
5.8347 -5.5507 2.3834
6.0087 -5.3154 2.3834
6.1745 -5.0757 2.3834
6.3322 -4.8319 2.3834
6.4816 -4.5841 2.3834
6.6229 -4.3327 2.3834
6.7559 -4.0779 2.3834
6.8805 -3.8198 2.3834
6.9968 -3.5587 2.3834
7.1048 -3.2949 2.3834
7.2043 -3.0285 2.3834
7.2954 -2.7597 2.3834
7.3780 -2.4887 2.3834
7.4522 -2.2159 2.3834
7.5179 -1.9413 2.3834
7.5751 -1.6651 2.3834
7.6237 -1.3877 2.3834
7.6638 -1.1091 2.3834
7.6954 -0.8296 2.3834
7.7184 -0.5494 2.3834
7.7328 -0.2686 2.3834
7.7387 0.0125 2.3834
7.7360 0.2937 2.3834
7.7247 0.5748 2.3834
7.7047 0.8557 2.3834
7.6762 1.1360 2.3834
7.6391 1.4157 2.3834
7.5933 1.6945 2.3834
7.5390 1.9723 2.3834
7.4760 2.2487 2.3834
7.4045 2.5236 2.3834
7.3243 2.7968 2.3834
7.2355 3.0681 2.3834
7.1382 3.3372 2.3834
7.0323 3.6040 2.3834
6.9178 3.8681 2.3834
6.7949 4.1294 2.3834
6.6633 4.3877 2.3834
6.5233 4.6427 2.3834
6.3749 4.8941 2.3834
6.2180 5.1418 2.3834
6.0528 5.3854 2.3834
5.8792 5.6248 2.3834
5.6973 5.8596 2.3834
5.5071 6.0896 2.3834
5.3088 6.3146 2.3834
5.1024 6.5342 2.3834
4.8880 6.7483 2.3834
4.6657 6.9564 2.3834
4.4355 7.1583 2.3834
4.1976 7.3538 2.3834
3.9521 7.5425 2.3834
3.6992 7.7242 2.3834
3.4389 7.8985 2.3834
3.1713 8.0652 2.3834
2.8968 8.2239 2.3834
2.6155 8.3742 2.3834
2.3274 8.5161 2.3834
0.8364 3.5581 0.9805
0.7085 3.5879 0.9748
0.5796 3.6129 0.9690
0.4499 3.6334 0.9631
0.3195 3.6491 0.9573
0.1886 3.6600 0.9514
0.0574 3.6663 0.9455
-0.0739 3.6677 0.9396
-0.2052 3.6645 0.9337
-0.3363 3.6564 0.9278
-0.4671 3.6437 0.9219
-0.5973 3.6262 0.9160
-0.7268 3.6040 0.9102
-0.8554 3.5771 0.9044
-6.2821 -7.4149 2.2310
-5.9783 -7.5884 2.2310
-5.6696 -7.7493 2.2310
-2.9564 -9.2099 2.3834
-2.6077 -9.2470 2.3834
-2.2603 -9.2707 2.3834
-1.9143 -9.2822 2.3834
-1.5704 -9.2814 2.3834
-1.2289 -9.2685 2.3834
-0.8903 -9.2438 2.3834
-0.5550 -9.2074 2.3834
-0.2233 -9.1597 2.3834
0.1045 -9.1010 2.3834
0.4279 -9.0314 2.3834
0.7466 -8.9514 2.3834
1.0605 -8.8612 2.3834
1.3691 -8.7610 2.3834
1.6723 -8.6512 2.3834
1.9698 -8.5321 2.3834
2.2613 -8.4039 2.3834
2.5466 -8.2670 2.3834
2.8256 -8.1216 2.3834
3.0980 -7.9681 2.3834
3.3637 -7.8066 2.3834
3.6226 -7.6376 2.3834
3.8743 -7.4613 2.3834
4.1189 -7.2780 2.3834
4.3562 -7.0879 2.3834
4.5861 -6.8913 2.3834
4.8085 -6.6885 2.3834
5.0232 -6.4798 2.3834
5.2301 -6.2654 2.3834
5.4293 -6.0456 2.3834
5.6206 -5.8207 2.3834
5.8039 -5.5908 2.3834
5.9792 -5.3563 2.3834
6.1465 -5.1173 2.3834
6.3055 -4.8742 2.3834
6.4564 -4.6271 2.3834
6.5991 -4.3764 2.3834
6.7335 -4.1221 2.3834
6.8596 -3.8646 2.3834
6.9774 -3.6040 2.3834
7.0867 -3.3406 2.3834
7.1877 -3.0746 2.3834
7.2803 -2.8062 2.3834
7.3644 -2.5356 2.3834
7.4400 -2.2631 2.3834
7.5072 -1.9888 2.3834
7.5658 -1.7129 2.3834
7.6159 -1.4356 2.3834
7.6575 -1.1572 2.3834
7.6906 -0.8779 2.3834
7.7150 -0.5978 2.3834
7.7310 -0.3171 2.3834
7.7383 -0.0360 2.3834
7.7371 0.2452 2.3834
7.7272 0.5263 2.3834
7.7088 0.8072 2.3834
7.6817 1.0877 2.3834
7.6461 1.3675 2.3834
7.6018 1.6465 2.3834
7.5490 1.9244 2.3834
7.4875 2.2011 2.3834
7.4174 2.4763 2.3834
7.3387 2.7498 2.3834
7.2515 3.0214 2.3834
7.1556 3.2910 2.3834
7.0512 3.5581 2.3834
6.9382 3.8227 2.3834
6.8167 4.0846 2.3834
6.6866 4.3434 2.3834
6.5481 4.5989 2.3834
6.4011 4.8510 2.3834
6.2457 5.0993 2.3834
6.0819 5.3437 2.3834
5.9097 5.5838 2.3834
5.7292 5.8194 2.3834
5.5405 6.0503 2.3834
5.3436 6.2762 2.3834
5.1386 6.4967 2.3834
4.9256 6.7117 2.3834
4.7046 6.9209 2.3834
4.4758 7.1239 2.3834
4.2392 7.3206 2.3834
3.9950 7.5105 2.3834
3.7433 7.6934 2.3834
3.4843 7.8690 2.3834
3.2180 8.0370 2.3834
2.9447 8.1970 2.3834
2.6645 8.3489 2.3834
2.3776 8.4922 2.3834
0.8583 3.5525 0.9815
0.7306 3.5831 0.9758
0.6019 3.6089 0.9700
0.4723 3.6302 0.9641
0.3420 3.6467 0.9583
0.2112 3.6585 0.9524
0.0801 3.6655 0.9465
-0.0512 3.6678 0.9406
-0.1826 3.6654 0.9347
-0.3137 3.6582 0.9288
-0.4446 3.6462 0.9229
-0.5749 3.6295 0.9170
-0.7045 3.6081 0.9112
-0.8333 3.5821 0.9054
-6.3340 -7.3837 2.2310
-6.0311 -7.5594 2.2310
-5.7232 -7.7223 2.2310
-3.0166 -9.2023 2.3834
-2.6678 -9.2415 2.3834
-2.3201 -9.2675 2.3834
-1.9739 -9.2811 2.3834
-1.6296 -9.2824 2.3834
-1.2876 -9.2716 2.3834
-0.9485 -9.2489 2.3834
-0.6126 -9.2145 2.3834
-0.2802 -9.1687 2.3834
0.0482 -9.1119 2.3834
0.3724 -9.0442 2.3834
0.6920 -8.9660 2.3834
1.0067 -8.8774 2.3834
1.3163 -8.7790 2.3834
1.6204 -8.6708 2.3834
1.9189 -8.5533 2.3834
2.2114 -8.4266 2.3834
2.4979 -8.2912 2.3834
2.7779 -8.1473 2.3834
3.0515 -7.9951 2.3834
3.3184 -7.8350 2.3834
3.5784 -7.6673 2.3834
3.8314 -7.4923 2.3834
4.0773 -7.3101 2.3834
4.3158 -7.1211 2.3834
4.5470 -6.9256 2.3834
4.7706 -6.7239 2.3834
4.9867 -6.5162 2.3834
5.1950 -6.3028 2.3834
5.3955 -6.0839 2.3834
5.5882 -5.8598 2.3834
5.7729 -5.6308 2.3834
5.9496 -5.3970 2.3834
6.1182 -5.1589 2.3834
6.2787 -4.9164 2.3834
6.4310 -4.6700 2.3834
6.5751 -4.4199 2.3834
6.7109 -4.1662 2.3834
6.8384 -3.9092 2.3834
6.9576 -3.6491 2.3834
7.0685 -3.3862 2.3834
7.1709 -3.1206 2.3834
7.2649 -2.8527 2.3834
7.3505 -2.5824 2.3834
7.4276 -2.3102 2.3834
7.4962 -2.0362 2.3834
7.5563 -1.7606 2.3834
7.6079 -1.4836 2.3834
7.6510 -1.2053 2.3834
7.6855 -0.9261 2.3834
7.7114 -0.6461 2.3834
7.7288 -0.3655 2.3834
7.7377 -0.0845 2.3834
7.7379 0.1966 2.3834
7.7295 0.4778 2.3834
7.7126 0.7588 2.3834
7.6870 1.0394 2.3834
7.6529 1.3193 2.3834
7.6101 1.5985 2.3834
7.5587 1.8766 2.3834
7.4987 2.1535 2.3834
7.4301 2.4290 2.3834
7.3529 2.7028 2.3834
7.2671 2.9747 2.3834
7.1728 3.2446 2.3834
7.0698 3.5122 2.3834
6.9583 3.7773 2.3834
6.8383 4.0396 2.3834
6.7097 4.2989 2.3834
6.5726 4.5551 2.3834
6.4271 4.8078 2.3834
6.2731 5.0568 2.3834
-0.7700 -8.4446 2.3834
-0.4642 -8.4141 2.3834
-0.1615 -8.3732 2.3834
0.1379 -8.3221 2.3834
0.4336 -8.2610 2.3834
0.7252 -8.1903 2.3834
1.0127 -8.1101 2.3834
1.2955 -8.0206 2.3834
1.5736 -7.9223 2.3834
1.8466 -7.8152 2.3834
2.1144 -7.6997 2.3834
2.3767 -7.5759 2.3834
2.6333 -7.4443 2.3834
2.8841 -7.3050 2.3834
3.1288 -7.1583 2.3834
3.3673 -7.0045 2.3834
3.5995 -6.8436 2.3834
3.8252 -6.6763 2.3834
4.0442 -6.5025 2.3834
4.2565 -6.3225 2.3834
4.4619 -6.1367 2.3834
4.6603 -5.9453 2.3834
4.8517 -5.7484 2.3834
5.0359 -5.5464 2.3834
5.2128 -5.3395 2.3834
5.3824 -5.1278 2.3834
5.5446 -4.9118 2.3834
5.6993 -4.6915 2.3834
5.8465 -4.4672 2.3834
5.9861 -4.2391 2.3834
6.1181 -4.0074 2.3834
6.2423 -3.7725 2.3834
6.3589 -3.5343 2.3834
6.4677 -3.2934 2.3834
6.5686 -3.0496 2.3834
6.6617 -2.8034 2.3834
6.7469 -2.5549 2.3834
6.8243 -2.3043 2.3834
6.8937 -2.0518 2.3834
6.9551 -1.7977 2.3834
7.0086 -1.5420 2.3834
7.0541 -1.2851 2.3834
7.0916 -1.0271 2.3834
7.1211 -0.7682 2.3834
7.1425 -0.5086 2.3834
7.1559 -0.2485 2.3834
7.1613 0.0119 2.3834
7.1586 0.2724 2.3834
7.1478 0.5328 2.3834
7.1290 0.7929 2.3834
7.1021 1.0526 2.3834
7.0671 1.3116 2.3834
7.0240 1.5696 2.3834
6.9729 1.8266 2.3834
6.9138 2.0824 2.3834
6.8466 2.3366 2.3834
6.7713 2.5891 2.3834
6.6880 2.8397 2.3834
6.5968 3.0882 2.3834
6.4975 3.3344 2.3834
6.3903 3.5780 2.3834
6.2751 3.8189 2.3834
6.1520 4.0567 2.3834
6.0211 4.2914 2.3834
5.8823 4.5226 2.3834
5.7357 4.7502 2.3834
5.5814 4.9738 2.3834
5.4194 5.1933 2.3834
5.2498 5.4084 2.3834
5.0726 5.6188 2.3834
4.8880 5.8244 2.3834
4.6959 6.0248 2.3834
4.4966 6.2199 2.3834
4.2900 6.4093 2.3834
4.0763 6.5928 2.3834
3.8556 6.7701 2.3834
3.6281 6.9409 2.3834
3.3938 7.1050 2.3834
3.1529 7.2622 2.3834
2.9056 7.4121 2.3834
2.6521 7.5544 2.3834
2.3924 7.6890 2.3834
0.8766 3.2209 0.9823
0.7607 3.2523 0.9770
0.6439 3.2794 0.9718
0.5261 3.3023 0.9665
0.4075 3.3209 0.9612
0.2883 3.3352 0.9558
0.1687 3.3453 0.9504
0.0488 3.3509 0.9450
-0.0712 3.3523 0.9396
-0.1912 3.3493 0.9342
-0.3111 3.3419 0.9288
-0.4306 3.3302 0.9235
-0.5496 3.3142 0.9181
-0.6679 3.2939 0.9128
-0.7854 3.2694 0.9075
-0.9020 3.2406 0.9022
-2.7034 8.5226 2.3834
-3.0241 8.4725 2.3834
-3.3445 8.4101 2.3834
-3.6641 8.3355 2.3834
-3.9823 8.2484 2.3834
-4.2986 8.1489 2.3834
-4.6125 8.0368 2.3834
-4.9234 7.9121 2.3834
-5.2308 7.7750 2.3834
-5.5340 7.6253 2.3834
-5.8325 7.4631 2.3834
-6.1258 7.2886 2.3834
-6.4131 7.1019 2.3834
-6.6940 6.9031 2.3834
-6.9677 6.6924 2.3834
-7.2339 6.4700 2.3834
-7.4043 6.1635 2.3556
-7.3616 5.6979 2.2667
-7.4701 5.3689 2.2310
-7.6851 5.1199 2.2310
-7.8902 4.8614 2.2310
-8.0850 4.5939 2.2310
-8.2690 4.3178 2.2310
-8.4418 4.0337 2.2310
-8.6028 3.7419 2.2310
-8.7518 3.4430 2.2310
-8.8882 3.1376 2.2310
-9.0119 2.8261 2.2310
-9.1224 2.5092 2.2310
-9.2194 2.1876 2.2310
-9.3028 1.8618 2.2310
-9.3723 1.5324 2.2310
-9.4276 1.2001 2.2310
-9.4688 0.8656 2.2310
-9.4956 0.5296 2.2310
-9.5080 0.1927 2.2310
-9.5060 -0.1443 2.2310
-9.4897 -0.4809 2.2310
-9.4589 -0.8163 2.2310
-9.4139 -1.1498 2.2310
-9.3548 -1.4808 2.2310
-9.2818 -1.8086 2.2310
-9.1950 -2.1326 2.2310
-9.0947 -2.4522 2.2310
-8.9813 -2.7667 2.2310
-8.8549 -3.0756 2.2310
-8.7159 -3.3783 2.2310
-8.5648 -3.6743 2.2310
-8.4018 -3.9630 2.2310
-8.2275 -4.2439 2.2310
-8.0423 -4.5166 2.2310
-7.8466 -4.7808 2.2310
-7.6409 -5.0358 2.2310
-7.4257 -5.2815 2.2310
-7.2015 -5.5174 2.2310
-6.9688 -5.7432 2.2310
-6.7283 -5.9588 2.2310
-6.4803 -6.1637 2.2310
-6.2255 -6.3578 2.2310
-5.9717 -6.5490 2.2338
-5.7710 -6.7997 2.2598
-5.7012 -7.2235 2.3445
-5.5000 -7.5029 2.3834
-5.1998 -7.6503 2.3834
-4.8957 -7.7854 2.3834
-4.5882 -7.9083 2.3834
-4.2779 -8.0189 2.3834
-3.9654 -8.1172 2.3834
-3.6511 -8.2034 2.3834
-3.3356 -8.2774 2.3834
-3.0194 -8.3394 2.3834
-2.7029 -8.3895 2.3834
-2.3866 -8.4279 2.3834
-2.0709 -8.4546 2.3834
-1.7563 -8.4699 2.3834
-1.4432 -8.4738 2.3834
-1.1320 -8.4667 2.3834
-0.8231 -8.4488 2.3834
-0.5168 -8.4201 2.3834
-0.2135 -8.3810 2.3834
0.0865 -8.3316 2.3834
0.3828 -8.2723 2.3834
0.6752 -8.2032 2.3834
0.9634 -8.1246 2.3834
1.2471 -8.0367 2.3834
1.5260 -7.9399 2.3834
1.7999 -7.8343 2.3834
2.0686 -7.7202 2.3834
2.3319 -7.5979 2.3834
2.5895 -7.4676 2.3834
2.8413 -7.3296 2.3834
3.0870 -7.1841 2.3834
3.3266 -7.0315 2.3834
3.5599 -6.8720 2.3834
3.7867 -6.7056 2.3834
4.0069 -6.5329 2.3834
4.2204 -6.3540 2.3834
4.4270 -6.1692 2.3834
4.6266 -5.9787 2.3834
4.8192 -5.7827 2.3834
5.0046 -5.5816 2.3834
5.1828 -5.3755 2.3834
5.3537 -5.1647 2.3834
5.5172 -4.9494 2.3834
5.6732 -4.7298 2.3834
5.8217 -4.5061 2.3834
5.9626 -4.2787 2.3834
6.0959 -4.0476 2.3834
6.2215 -3.8132 2.3834
6.3393 -3.5756 2.3834
6.4494 -3.3351 2.3834
6.5517 -3.0918 2.3834
6.6462 -2.8460 2.3834
6.7328 -2.5979 2.3834
6.8115 -2.3477 2.3834
6.8823 -2.0955 2.3834
6.9451 -1.8416 2.3834
7.0000 -1.5862 2.3834
7.0468 -1.3295 2.3834
7.0857 -1.0717 2.3834
7.1166 -0.8129 2.3834
7.1394 -0.5534 2.3834
7.1542 -0.2934 2.3834
7.1609 -0.0330 2.3834
7.1596 0.2275 2.3834
7.1502 0.4879 2.3834
7.1328 0.7481 2.3834
7.1073 1.0078 2.3834
7.0737 1.2669 2.3834
7.0320 1.5252 2.3834
6.9823 1.7824 2.3834
6.9245 2.0383 2.3834
6.8587 2.2928 2.3834
6.7849 2.5457 2.3834
6.7030 2.7966 2.3834
6.6131 3.0455 2.3834
6.5152 3.2921 2.3834
6.4093 3.5362 2.3834
6.2955 3.7775 2.3834
6.1738 4.0159 2.3834
6.0442 4.2512 2.3834
5.9068 4.4830 2.3834
5.7616 4.7112 2.3834
5.6086 4.9355 2.3834
5.4479 5.1557 2.3834
5.2796 5.3716 2.3834
5.1037 5.5829 2.3834
4.9204 5.7893 2.3834
4.7296 5.9906 2.3834
4.5315 6.1866 2.3834
4.3261 6.3770 2.3834
4.1137 6.5615 2.3834
3.8942 6.7399 2.3834
3.6678 6.9119 2.3834
3.4347 7.0772 2.3834
3.1949 7.2356 2.3834
2.9487 7.3868 2.3834
2.6963 7.5304 2.3834
2.4377 7.6663 2.3834
2.1732 7.7942 2.3834
0.7808 3.2471 0.9780
0.6641 3.2750 0.9727
0.5465 3.2986 0.9674
0.4280 3.3180 0.9621
0.3089 3.3331 0.9567
0.1894 3.3438 0.9514
0.0695 3.3503 0.9460
-0.0505 3.3523 0.9406
-0.1705 3.3501 0.9352
-0.2904 3.3435 0.9298
-0.4100 3.3325 0.9244
-0.5291 3.3173 0.9190
-0.6475 3.2977 0.9137
-0.7652 3.2739 0.9084
-0.8820 3.2458 0.9031
-2.6481 8.5300 2.3834
-2.9688 8.4820 2.3834
-3.2893 8.4218 2.3834
-3.6090 8.3493 2.3834
-3.9275 8.2643 2.3834
-4.2442 8.1669 2.3834
-4.5585 8.0570 2.3834
-4.8700 7.9345 2.3834
-5.1780 7.7995 2.3834
-5.4820 7.6520 2.3834
-5.7814 7.4920 2.3834
-6.0756 7.3196 2.3834
-6.3640 7.1349 2.3834
-6.6460 6.9382 2.3834
-6.9210 6.7296 2.3834
-7.1885 6.5092 2.3834
-7.4119 6.2470 2.3719
-7.3688 5.7760 2.2814
-7.4320 5.4109 2.2310
-7.6487 5.1635 2.2310
-7.8555 4.9066 2.2310
-8.0522 4.6407 2.2310
-8.2380 4.3661 2.2310
-8.4128 4.0833 2.2310
-8.5759 3.7928 2.2310
-8.7269 3.4951 2.2310
-8.8656 3.1907 2.2310
-8.9915 2.8802 2.2310
-9.1043 2.5643 2.2310
-9.2037 2.2434 2.2310
-9.2894 1.9182 2.2310
-9.3613 1.5894 2.2310
-9.4191 1.2576 2.2310
-9.4627 0.9235 2.2310
-9.4920 0.5877 2.2310
-9.5069 0.2509 2.2310
-9.5074 -0.0862 2.2310
-9.4935 -0.4229 2.2310
-9.4652 -0.7585 2.2310
-9.4227 -1.0924 2.2310
-9.3660 -1.4239 2.2310
-9.2954 -1.7523 2.2310
-9.2110 -2.0770 2.2310
-9.1130 -2.3974 2.2310
-9.0018 -2.7129 2.2310
-8.8776 -3.0228 2.2310
-8.7408 -3.3266 2.2310
-8.5917 -3.6237 2.2310
-8.4308 -3.9137 2.2310
-8.2584 -4.1960 2.2310
-8.0750 -4.4702 2.2310
-7.8811 -4.7358 2.2310
-7.6770 -4.9925 2.2310
-7.4634 -5.2398 2.2310
-7.2408 -5.4774 2.2310
-7.0096 -5.7050 2.2310
-6.7703 -5.9223 2.2310
-6.5236 -6.1291 2.2310
-6.2699 -6.3251 2.2310
-6.0098 -6.5102 2.2310
-5.7826 -6.7292 2.2461
-5.7136 -7.1484 2.3293
-5.5514 -7.4762 2.3834
-5.2519 -7.6256 2.3834
-4.9484 -7.7630 2.3834
-4.6414 -7.8880 2.3834
-4.3316 -8.0007 2.3834
-4.0195 -8.1011 2.3834
-3.7055 -8.1894 2.3834
-3.3901 -8.2655 2.3834
-3.0740 -8.3297 2.3834
-2.7575 -8.3817 2.3834
-2.4411 -8.4221 2.3834
-2.1253 -8.4508 2.3834
-1.8105 -8.4680 2.3834
-1.4971 -8.4740 2.3834
-1.1856 -8.4688 2.3834
-0.8762 -8.4526 2.3834
-0.5694 -8.4258 2.3834
-0.2656 -8.3884 2.3834
0.0350 -8.3408 2.3834
0.3320 -8.2832 2.3834
0.6251 -8.2158 2.3834
0.9140 -8.1388 2.3834
1.1985 -8.0525 2.3834
1.4782 -7.9572 2.3834
1.7530 -7.8531 2.3834
2.0226 -7.7405 2.3834
2.2868 -7.6195 2.3834
2.5454 -7.4906 2.3834
2.7982 -7.3539 2.3834
3.0451 -7.2097 2.3834
3.2857 -7.0583 2.3834
3.5201 -6.8998 2.3834
3.7480 -6.7347 2.3834
3.9694 -6.5631 2.3834
4.1840 -6.3853 2.3834
4.3918 -6.2015 2.3834
4.5927 -6.0119 2.3834
4.7865 -5.8169 2.3834
4.9731 -5.6167 2.3834
5.1526 -5.4114 2.3834
5.3247 -5.2014 2.3834
5.4895 -4.9868 2.3834
5.6468 -4.7679 2.3834
5.7966 -4.5450 2.3834
5.9388 -4.3182 2.3834
6.0734 -4.0877 2.3834
6.2003 -3.8539 2.3834
6.3195 -3.6169 2.3834
6.4310 -3.3768 2.3834
6.5347 -3.1340 2.3834
6.6305 -2.8886 2.3834
6.7184 -2.6409 2.3834
6.7985 -2.3910 2.3834
6.8706 -2.1391 2.3834
6.9348 -1.8855 2.3834
6.9911 -1.6304 2.3834
7.0393 -1.3739 2.3834
7.0796 -1.1162 2.3834
7.1118 -0.8576 2.3834
7.1360 -0.5982 2.3834
7.1522 -0.3383 2.3834
7.1604 -0.0780 2.3834
7.1604 0.1825 2.3834
7.1524 0.4430 2.3834
7.1364 0.7032 2.3834
7.1123 0.9631 2.3834
7.0801 1.2223 2.3834
7.0398 1.4807 2.3834
6.9915 1.7381 2.3834
6.9351 1.9943 2.3834
6.8707 2.2490 2.3834
6.7982 2.5022 2.3834
6.7177 2.7535 2.3834
6.6292 3.0027 2.3834
6.5326 3.2497 2.3834
6.4282 3.4942 2.3834
6.3157 3.7361 2.3834
6.1954 3.9750 2.3834
6.0671 4.2108 2.3834
5.9311 4.4432 2.3834
5.7872 4.6721 2.3834
-0.7171 -7.7685 2.3834
-0.4359 -7.7440 2.3834
-0.1573 -7.7099 2.3834
0.1185 -7.6663 2.3834
0.3911 -7.6134 2.3834
0.6603 -7.5515 2.3834
0.9257 -7.4808 2.3834
1.1872 -7.4014 2.3834
1.4445 -7.3137 2.3834
1.6973 -7.2178 2.3834
1.9454 -7.1139 2.3834
2.1887 -7.0023 2.3834
2.4268 -6.8833 2.3834
2.6598 -6.7570 2.3834
2.8872 -6.6237 2.3834
3.1091 -6.4836 2.3834
3.3252 -6.3371 2.3834
3.5353 -6.1840 2.3834
3.7395 -6.0249 2.3834
3.9374 -5.8601 2.3834
4.1291 -5.6895 2.3834
4.3144 -5.5136 2.3834
4.4932 -5.3325 2.3834
4.6653 -5.1465 2.3834
4.8308 -4.9557 2.3834
4.9894 -4.7605 2.3834
5.1412 -4.5609 2.3834
5.2861 -4.3573 2.3834
5.4240 -4.1499 2.3834
5.5548 -3.9387 2.3834
5.6785 -3.7242 2.3834
5.7950 -3.5064 2.3834
5.9043 -3.2856 2.3834
6.0064 -3.0620 2.3834
6.1011 -2.8358 2.3834
6.1885 -2.6071 2.3834
6.2685 -2.3763 2.3834
6.3411 -2.1434 2.3834
6.4062 -1.9086 2.3834
6.4639 -1.6723 2.3834
6.5141 -1.4346 2.3834
6.5568 -1.1956 2.3834
6.5920 -0.9555 2.3834
6.6196 -0.7146 2.3834
6.6397 -0.4730 2.3834
6.6522 -0.2309 2.3834
6.6571 0.0114 2.3834
6.6544 0.2538 2.3834
6.6442 0.4962 2.3834
6.6263 0.7382 2.3834
6.6009 0.9798 2.3834
6.5679 1.2206 2.3834
6.5273 1.4606 2.3834
6.4791 1.6996 2.3834
6.4233 1.9372 2.3834
6.3601 2.1734 2.3834
6.2892 2.4080 2.3834
6.2109 2.6407 2.3834
6.1250 2.8713 2.3834
6.0317 3.0996 2.3834
5.9310 3.3255 2.3834
5.8228 3.5486 2.3834
5.7073 3.7689 2.3834
5.5844 3.9860 2.3834
5.4542 4.1998 2.3834
5.3168 4.4100 2.3834
5.1723 4.6165 2.3834
5.0206 4.8189 2.3834
4.8619 5.0171 2.3834
4.6961 5.2108 2.3834
4.5235 5.3999 2.3834
4.3441 5.5840 2.3834
4.1580 5.7629 2.3834
3.9653 5.9364 2.3834
3.7661 6.1043 2.3834
3.5605 6.2663 2.3834
3.3486 6.4221 2.3834
3.1307 6.5716 2.3834
2.9068 6.7144 2.3834
2.6771 6.8503 2.3834
2.4417 6.9791 2.3834
2.2009 7.1006 2.3834
0.8029 2.9630 0.9789
0.6964 2.9918 0.9741
0.5888 3.0167 0.9693
0.4805 3.0378 0.9644
0.3714 3.0549 0.9595
0.2618 3.0680 0.9546
0.1518 3.0772 0.9496
0.0415 3.0824 0.9446
-0.0689 3.0836 0.9397
-0.1793 3.0809 0.9347
-0.2895 3.0741 0.9298
-0.3995 3.0633 0.9248
-0.5089 3.0486 0.9199
-0.6178 3.0299 0.9150
-0.7259 3.0074 0.9101
-0.8331 2.9809 0.9053
-0.9393 2.9505 0.9005
-2.7787 7.7598 2.3834
-3.0707 7.6990 2.3834
-3.3617 7.6271 2.3834
-3.6512 7.5438 2.3834
-3.9387 7.4493 2.3834
-4.2237 7.3434 2.3834
-4.5057 7.2262 2.3834
-4.7843 7.0977 2.3834
-5.0589 6.9580 2.3834
-5.3290 6.8070 2.3834
-5.5941 6.6450 2.3834
-5.8536 6.4721 2.3834
-6.1071 6.2882 2.3834
-6.3540 6.0940 2.3834
-6.5939 5.8893 2.3834
-6.8261 5.6744 2.3834
-7.0502 5.4497 2.3834
-7.2656 5.2154 2.3834
-7.2415 4.8184 2.3099
-7.2103 4.4371 2.2409
-7.3534 4.1733 2.2310
-7.5185 3.9215 2.2310
-7.6735 3.6625 2.2310
-7.8178 3.3968 2.2310
-7.9513 3.1249 2.2310
-8.0736 2.8471 2.2310
-8.1844 2.5641 2.2310
-8.2834 2.2763 2.2310
-8.3703 1.9843 2.2310
-8.4450 1.6886 2.2310
-8.5072 1.3898 2.2310
-8.5569 1.0885 2.2310
-8.5938 0.7852 2.2310
-8.6180 0.4805 2.2310
-8.6293 0.1751 2.2310
-8.6277 -0.1304 2.2310
-8.6133 -0.4356 2.2310
-8.5860 -0.7397 2.2310
-8.5460 -1.0422 2.2310
-8.4934 -1.3426 2.2310
-8.4283 -1.6401 2.2310
-8.3509 -1.9343 2.2310
-8.2615 -2.2246 2.2310
-8.1601 -2.5105 2.2310
-8.0472 -2.7914 2.2310
-7.9230 -3.0669 2.2310
-7.7878 -3.3365 2.2310
-7.6419 -3.5997 2.2310
-7.4857 -3.8561 2.2310
-7.3197 -4.1052 2.2310
-7.1441 -4.3467 2.2310
-6.9594 -4.5803 2.2310
-6.7661 -4.8055 2.2310
-6.5645 -5.0220 2.2310
-6.3552 -5.2296 2.2310
-6.1385 -5.4281 2.2310
-5.9313 -5.6326 2.2372
-5.8672 -5.9821 2.3025
-5.8056 -6.3561 2.3769
-5.5638 -6.5441 2.3834
-5.3008 -6.7036 2.3834
-5.0330 -6.8526 2.3834
-4.7609 -6.9905 2.3834
-4.4850 -7.1173 2.3834
-4.2059 -7.2330 2.3834
-3.9239 -7.3376 2.3834
-3.6396 -7.4312 2.3834
-3.3534 -7.5137 2.3834
-3.0658 -7.5853 2.3834
-2.7773 -7.6456 2.3834
-2.4883 -7.6953 2.3834
-2.1992 -7.7342 2.3834
-1.9103 -7.7624 2.3834
-1.6222 -7.7801 2.3834
-1.3352 -7.7875 2.3834
-1.0496 -7.7846 2.3834
-0.7658 -7.7717 2.3834
-0.4843 -7.7489 2.3834
-0.2052 -7.7164 2.3834
0.0711 -7.6745 2.3834
0.3443 -7.6232 2.3834
0.6141 -7.5628 2.3834
0.8802 -7.4936 2.3834
1.1424 -7.4157 2.3834
1.4004 -7.3294 2.3834
1.6540 -7.2349 2.3834
1.9030 -7.1324 2.3834
2.1471 -7.0221 2.3834
2.3861 -6.9043 2.3834
2.6200 -6.7793 2.3834
2.8484 -6.6472 2.3834
3.0712 -6.5082 2.3834
3.2883 -6.3627 2.3834
3.4995 -6.2109 2.3834
3.7047 -6.0528 2.3834
3.9037 -5.8889 2.3834
4.0965 -5.7193 2.3834
4.2829 -5.5443 2.3834
4.4628 -5.3641 2.3834
4.6361 -5.1789 2.3834
4.8027 -4.9890 2.3834
4.9625 -4.7945 2.3834
5.1155 -4.5957 2.3834
5.2616 -4.3927 2.3834
5.4007 -4.1859 2.3834
5.5328 -3.9754 2.3834
5.6577 -3.7615 2.3834
5.7755 -3.5442 2.3834
5.8860 -3.3239 2.3834
5.9893 -3.1008 2.3834
6.0853 -2.8750 2.3834
6.1739 -2.6467 2.3834
6.2552 -2.4162 2.3834
6.3291 -2.1837 2.3834
6.3955 -1.9492 2.3834
6.4545 -1.7132 2.3834
6.5060 -1.4757 2.3834
6.5500 -1.2369 2.3834
6.5864 -0.9970 2.3834
6.6154 -0.7562 2.3834
6.6367 -0.5147 2.3834
6.6505 -0.2727 2.3834
6.6568 -0.0304 2.3834
6.6554 0.2120 2.3834
6.6465 0.4544 2.3834
6.6299 0.6965 2.3834
6.6058 0.9381 2.3834
6.5741 1.1791 2.3834
6.5348 1.4193 2.3834
6.4879 1.6584 2.3834
6.4335 1.8963 2.3834
6.3715 2.1328 2.3834
6.3020 2.3677 2.3834
6.2249 2.6007 2.3834
6.1404 2.8317 2.3834
6.0483 3.0604 2.3834
5.9489 3.2867 2.3834
5.8420 3.5103 2.3834
5.7277 3.7311 2.3834
5.6061 3.9488 2.3834
5.4772 4.1631 2.3834
5.3410 4.3740 2.3834
5.1977 4.5811 2.3834
5.0473 4.7843 2.3834
4.8897 4.9832 2.3834
4.7252 5.1777 2.3834
4.5538 5.3676 2.3834
4.3756 5.5526 2.3834
4.1906 5.7324 2.3834
3.9990 5.9069 2.3834
3.8009 6.0758 2.3834
3.5964 6.2388 2.3834
3.3856 6.3957 2.3834
3.1687 6.5463 2.3834
2.9458 6.6902 2.3834
2.7171 6.8274 2.3834
2.4827 6.9574 2.3834
2.2429 7.0801 2.3834
0.8212 2.9576 0.9797
0.7148 2.9871 0.9749
0.6075 3.0127 0.9701
0.4992 3.0344 0.9652
0.3903 3.0522 0.9603
0.2808 3.0661 0.9554
0.1708 3.0759 0.9505
0.0605 3.0818 0.9455
-0.0499 3.0837 0.9405
-0.1603 3.0816 0.9356
-0.2705 3.0755 0.9306
-0.3805 3.0655 0.9257
-0.4901 3.0514 0.9207
-0.5990 3.0334 0.9158
-0.7073 3.0115 0.9109
-0.8147 2.9857 0.9061
-0.9211 2.9560 0.9013
-2.7283 7.7691 2.3834
-3.0204 7.7103 2.3834
-3.3116 7.6403 2.3834
-3.6014 7.5590 2.3834
-3.8892 7.4664 2.3834
-4.1747 7.3625 2.3834
-4.4573 7.2473 2.3834
-4.7365 7.1207 2.3834
-5.0118 6.9829 2.3834
-5.2828 6.8339 2.3834
-5.5487 6.6738 2.3834
-5.8093 6.5027 2.3834
-6.0638 6.3208 2.3834
-6.3119 6.1283 2.3834
-6.5530 5.9254 2.3834
-6.7866 5.7122 2.3834
-7.0121 5.4892 2.3834
-7.2291 5.2565 2.3834
-7.2478 4.8869 2.3228
-7.2118 4.4992 2.2511
-7.3239 4.2160 2.2310
-7.4907 3.9655 2.2310
-7.6475 3.7077 2.2310
-7.7937 3.4431 2.2310
-7.9291 3.1722 2.2310
-8.0533 2.8954 2.2310
-8.1661 2.6132 2.2310
-8.2671 2.3263 2.2310
-8.3562 2.0349 2.2310
-8.4330 1.7398 2.2310
-8.4974 1.4415 2.2310
-8.5492 1.1406 2.2310
-8.5884 0.8376 2.2310
-8.6147 0.5332 2.2310
-8.6282 0.2279 2.2310
-8.6289 -0.0777 2.2310
-8.6167 -0.3830 2.2310
-8.5916 -0.6873 2.2310
-8.5538 -0.9902 2.2310
-8.5034 -1.2909 2.2310
-8.4404 -1.5890 2.2310
-8.3652 -1.8838 2.2310
-8.2777 -2.1748 2.2310
-8.1784 -2.4615 2.2310
-8.0675 -2.7434 2.2310
-7.9452 -3.0198 2.2310
-7.8118 -3.2905 2.2310
-7.6678 -3.5548 2.2310
-7.5134 -3.8124 2.2310
-7.3490 -4.0628 2.2310
-7.1751 -4.3056 2.2310
-6.9919 -4.5406 2.2310
-6.8000 -4.7672 2.2310
-6.5999 -4.9853 2.2310
-6.3918 -5.1945 2.2310
-6.1764 -5.3945 2.2310
-5.9541 -5.5849 2.2310
-5.8774 -5.9195 2.2903
-5.8165 -6.2901 2.3635
-5.6087 -6.5154 2.3834
-5.3465 -6.6770 2.3834
-5.0795 -6.8278 2.3834
-4.8082 -6.9675 2.3834
-4.5329 -7.0962 2.3834
-4.2543 -7.2138 2.3834
-3.9727 -7.3204 2.3834
-3.6888 -7.4158 2.3834
-3.4029 -7.5002 2.3834
-3.1155 -7.5739 2.3834
-2.8272 -7.6360 2.3834
-2.5382 -7.6875 2.3834
-2.2490 -7.7282 2.3834
-1.9601 -7.7583 2.3834
-1.6718 -7.7778 2.3834
-1.3846 -7.7870 2.3834
-1.0988 -7.7858 2.3834
-0.8147 -7.7746 2.3834
-0.5327 -7.7535 2.3834
-0.2531 -7.7227 2.3834
0.0237 -7.6824 2.3834
0.2974 -7.6327 2.3834
0.5678 -7.5739 2.3834
0.8346 -7.5062 2.3834
1.0975 -7.4298 2.3834
1.3562 -7.3449 2.3834
1.6106 -7.2518 2.3834
1.8604 -7.1506 2.3834
2.1053 -7.0417 2.3834
2.3452 -6.9252 2.3834
2.5800 -6.8014 2.3834
2.8094 -6.6705 2.3834
3.0332 -6.5327 2.3834
3.2513 -6.3883 2.3834
3.4635 -6.2375 2.3834
3.6697 -6.0805 2.3834
3.8699 -5.9176 2.3834
4.0637 -5.7490 2.3834
4.2512 -5.5749 2.3834
4.4322 -5.3956 2.3834
4.6067 -5.2113 2.3834
4.7744 -5.0221 2.3834
4.9355 -4.8284 2.3834
5.0896 -4.6303 2.3834
5.2369 -4.4280 2.3834
5.3772 -4.2219 2.3834
5.5105 -4.0120 2.3834
5.6366 -3.7986 2.3834
5.7557 -3.5819 2.3834
5.8675 -3.3621 2.3834
5.9720 -3.1395 2.3834
6.0693 -2.9141 2.3834
6.1592 -2.6863 2.3834
6.2417 -2.4562 2.3834
6.3169 -2.2240 2.3834
6.3846 -1.9899 2.3834
6.4449 -1.7540 2.3834
6.4977 -1.5167 2.3834
6.5429 -1.2781 2.3834
6.5807 -1.0384 2.3834
6.6109 -0.7978 2.3834
6.6336 -0.5564 2.3834
6.6487 -0.3145 2.3834
6.6562 -0.0722 2.3834
6.6562 0.1702 2.3834
6.6485 0.4126 2.3834
6.6333 0.6547 2.3834
6.6105 0.8965 2.3834
6.5801 1.1376 2.3834
6.5421 1.3779 2.3834
6.4966 1.6173 2.3834
6.4434 1.8554 2.3834
6.3827 2.0921 2.3834
6.3145 2.3273 2.3834
6.2388 2.5606 2.3834
6.1555 2.7920 2.3834
6.0648 3.0211 2.3834
5.9666 3.2478 2.3834
5.8609 3.4719 2.3834
5.7480 3.6932 2.3834
5.6276 3.9114 2.3834
5.4999 4.1264 2.3834
5.3650 4.3379 2.3834
-0.6714 -7.1851 2.3834
-0.4115 -7.1653 2.3834
-0.1536 -7.1366 2.3834
0.1017 -7.0990 2.3834
0.3543 -7.0528 2.3834
0.6040 -6.9981 2.3834
0.8504 -6.9351 2.3834
1.0932 -6.8641 2.3834
1.3323 -6.7851 2.3834
1.5675 -6.6985 2.3834
1.7984 -6.6044 2.3834
2.0250 -6.5030 2.3834
2.2470 -6.3946 2.3834
2.4642 -6.2793 2.3834
2.6765 -6.1574 2.3834
2.8836 -6.0290 2.3834
3.0856 -5.8944 2.3834
3.2821 -5.7538 2.3834
3.4730 -5.6074 2.3834
3.6583 -5.4554 2.3834
3.8378 -5.2980 2.3834
4.0114 -5.1356 2.3834
4.1789 -4.9681 2.3834
4.3404 -4.7959 2.3834
4.4956 -4.6191 2.3834
4.6445 -4.4381 2.3834
4.7871 -4.2529 2.3834
4.9231 -4.0638 2.3834
5.0527 -3.8710 2.3834
5.1757 -3.6747 2.3834
5.2920 -3.4751 2.3834
5.4016 -3.2724 2.3834
5.5044 -3.0667 2.3834
5.6004 -2.8584 2.3834
5.6895 -2.6475 2.3834
5.7718 -2.4343 2.3834
5.8471 -2.2189 2.3834
5.9155 -2.0021 2.3834
5.9767 -1.7825 2.3834
6.0310 -1.5619 2.3834
6.0783 -1.3398 2.3834
6.1184 -1.1166 2.3834
6.1515 -0.8924 2.3834
6.1775 -0.6673 2.3834
6.1963 -0.4416 2.3834
6.2080 -0.2155 2.3834
6.2125 0.0110 2.3834
6.2099 0.2375 2.3834
6.2002 0.4638 2.3834
6.1832 0.6899 2.3834
6.1592 0.9156 2.3834
6.1279 1.1405 2.3834
6.0895 1.3646 2.3834
6.0440 1.5876 2.3834
5.9914 1.8094 2.3834
5.9317 2.0298 2.3834
5.8648 2.2486 2.3834
5.7909 2.4655 2.3834
5.7100 2.6804 2.3834
5.6220 2.8931 2.3834
5.5271 3.1034 2.3834
5.4252 3.3111 2.3834
5.3165 3.5159 2.3834
5.2008 3.7178 2.3834
5.0784 3.9164 2.3834
4.9492 4.1115 2.3834
4.8135 4.3024 2.3834
4.6709 4.4907 2.3834
4.5219 4.6743 2.3834
4.3664 4.8535 2.3834
4.2045 5.0283 2.3834
4.0364 5.1983 2.3834
3.8620 5.3634 2.3834
3.6816 5.5233 2.3834
3.4952 5.6778 2.3834
3.3029 5.8267 2.3834
3.1049 5.9698 2.3834
2.9014 6.1067 2.3834
2.6924 6.2374 2.3834
2.4782 6.3615 2.3834
2.2588 6.4789 2.3834
0.8369 2.7104 0.9804
0.7394 2.7405 0.9760
0.6408 2.7671 0.9716
0.5414 2.7902 0.9671
0.4412 2.8096 0.9626
0.3403 2.8254 0.9580
0.2389 2.8375 0.9535
0.1372 2.8460 0.9489
0.0352 2.8508 0.9443
-0.0670 2.8519 0.9397
-0.1691 2.8494 0.9351
-0.2710 2.8431 0.9305
-0.3726 2.8331 0.9260
-0.4739 2.8195 0.9214
-0.5745 2.8023 0.9169
-0.6745 2.7814 0.9124
-0.7737 2.7569 0.9079
-0.8719 2.7288 0.9035
-2.5687 7.1500 2.3834
-2.8367 7.0912 2.3834
-3.1034 7.0220 2.3834
-3.3686 6.9426 2.3834
-3.6318 6.8528 2.3834
-3.8925 6.7528 2.3834
-4.1502 6.6424 2.3834
-4.4046 6.5218 2.3834
-4.6552 6.3910 2.3834
-4.9015 6.2500 2.3834
-5.1431 6.0991 2.3834
-5.3794 5.9382 2.3834
-5.6100 5.7677 2.3834
-5.8346 5.5876 2.3834
-6.0525 5.3981 2.3834
-6.2634 5.1995 2.3834
-6.4668 4.9921 2.3834
-6.6623 4.7761 2.3834
-6.8494 4.5518 2.3834
-7.0278 4.3196 2.3834
-7.1331 4.0435 2.3622
-7.1007 3.6993 2.3005
-7.0703 3.3703 2.2449
-7.1573 3.1064 2.2310
-7.2780 2.8572 2.2310
-7.3886 2.6028 2.2310
-7.4888 2.3438 2.2310
-7.5783 2.0805 2.2310
-7.6569 1.8135 2.2310
-7.7244 1.5431 2.2310
-7.7807 1.2701 2.2310
-7.8256 0.9947 2.2310
-7.8591 0.7176 2.2310
-7.8810 0.4394 2.2310
-7.8914 0.1604 2.2310
-7.8901 -0.1188 2.2310
-7.8772 -0.3975 2.2310
-7.8528 -0.6754 2.2310
-7.8169 -0.9519 2.2310
-7.7696 -1.2264 2.2310
-7.7110 -1.4984 2.2310
-7.6413 -1.7675 2.2310
-7.5607 -2.0332 2.2310
-7.4693 -2.2949 2.2310
-7.3674 -2.5523 2.2310
-7.2553 -2.8048 2.2310
-7.1332 -3.0520 2.2310
-7.0013 -3.2936 2.2310
-6.8601 -3.5290 2.2310
-6.7099 -3.7581 2.2310
-6.5510 -3.9803 2.2310
-6.3837 -4.1954 2.2310
-6.2084 -4.4030 2.2310
-6.0549 -4.6252 2.2419
-6.0024 -4.9318 2.2948
-5.9503 -5.2536 2.3542
-5.8070 -5.5056 2.3834
-5.5836 -5.6834 2.3834
-5.3543 -5.8519 2.3834
-5.1195 -6.0107 2.3834
-4.8799 -6.1585 2.3834
-4.6354 -6.2990 2.3834
-4.3870 -6.4283 2.3834
-4.1349 -6.5475 2.3834
-3.8796 -6.6566 2.3834
-3.6215 -6.7557 2.3834
-3.3610 -6.8446 2.3834
-3.0987 -6.9234 2.3834
-2.8348 -6.9921 2.3834
-2.5698 -7.0508 2.3834
-2.3042 -7.0995 2.3834
-2.0382 -7.1383 2.3834
-1.7723 -7.1674 2.3834
-1.5068 -7.1867 2.3834
-1.2421 -7.1964 2.3834
-0.9785 -7.1967 2.3834
-0.7165 -7.1876 2.3834
-0.4562 -7.1694 2.3834
-0.1980 -7.1422 2.3834
0.0578 -7.1061 2.3834
0.3110 -7.0613 2.3834
0.5611 -7.0081 2.3834
0.8081 -6.9466 2.3834
1.0516 -6.8769 2.3834
1.2914 -6.7993 2.3834
1.5272 -6.7140 2.3834
1.7589 -6.6212 2.3834
1.9862 -6.5211 2.3834
2.2090 -6.4138 2.3834
2.4271 -6.2997 2.3834
2.6402 -6.1789 2.3834
2.8483 -6.0516 2.3834
3.0511 -5.9180 2.3834
3.2486 -5.7784 2.3834
3.4405 -5.6331 2.3834
3.6268 -5.4819 2.3834
3.8072 -5.3256 2.3834
3.9818 -5.1639 2.3834
4.1505 -4.9973 2.3834
4.3130 -4.8259 2.3834
4.4693 -4.6499 2.3834
4.6193 -4.4696 2.3834
4.7629 -4.2851 2.3834
4.9001 -4.0967 2.3834
5.0308 -3.9045 2.3834
5.1549 -3.7088 2.3834
5.2724 -3.5098 2.3834
5.3831 -3.3076 2.3834
5.4871 -3.1024 2.3834
5.5843 -2.8945 2.3834
5.6746 -2.6840 2.3834
5.7581 -2.4712 2.3834
5.8346 -2.2562 2.3834
5.9041 -2.0392 2.3834
5.9667 -1.8204 2.3834
6.0222 -1.6000 2.3834
6.0706 -1.3783 2.3834
6.1120 -1.1552 2.3834
6.1463 -0.9312 2.3834
6.1735 -0.7062 2.3834
6.1936 -0.4806 2.3834
6.2065 -0.2545 2.3834
6.2123 -0.0281 2.3834
6.2109 0.1984 2.3834
6.2024 0.4248 2.3834
6.1867 0.6510 2.3834
6.1638 0.8767 2.3834
6.1338 1.1017 2.3834
6.0967 1.3260 2.3834
6.0524 1.5492 2.3834
6.0010 1.7713 2.3834
5.9425 1.9919 2.3834
5.8769 2.2110 2.3834
5.8042 2.4282 2.3834
5.7244 2.6435 2.3834
5.6377 2.8566 2.3834
5.5440 3.0673 2.3834
5.4433 3.2754 2.3834
5.3357 3.4808 2.3834
5.2213 3.6832 2.3834
5.1000 3.8824 2.3834
4.9720 4.0781 2.3834
4.8373 4.2703 2.3834
4.6960 4.4586 2.3834
4.5481 4.6429 2.3834
4.3937 4.8229 2.3834
4.2329 4.9985 2.3834
4.0658 5.1694 2.3834
3.8925 5.3353 2.3834
3.7131 5.4961 2.3834
3.5277 5.6516 2.3834
3.3365 5.8015 2.3834
3.1395 5.9455 2.3834
2.9369 6.0835 2.3834
2.7288 6.2153 2.3834
2.5155 6.3406 2.3834
2.2970 6.4591 2.3834
0.8536 2.7048 0.9811
0.7563 2.7356 0.9767
0.6579 2.7628 0.9723
0.5586 2.7864 0.9679
0.4585 2.8065 0.9634
0.3577 2.8229 0.9588
0.2564 2.8357 0.9543
0.1547 2.8448 0.9497
0.0528 2.8503 0.9451
-0.0493 2.8520 0.9405
-0.1514 2.8501 0.9359
-0.2534 2.8444 0.9313
-0.3551 2.8351 0.9268
-0.4564 2.8221 0.9222
-0.5572 2.8055 0.9177
-0.6573 2.7852 0.9131
-0.7566 2.7614 0.9087
-0.8550 2.7339 0.9042
-2.5224 7.1592 2.3834
-2.7905 7.1020 2.3834
-3.0575 7.0347 2.3834
-3.3230 6.9570 2.3834
-3.5865 6.8691 2.3834
-3.8477 6.7708 2.3834
-4.1060 6.6622 2.3834
-4.3610 6.5433 2.3834
-4.6123 6.4143 2.3834
-4.8593 6.2751 2.3834
-5.1017 6.1258 2.3834
-5.3390 5.9667 2.3834
-5.5707 5.7978 2.3834
-5.7963 5.6193 2.3834
-6.0154 5.4315 2.3834
-6.2275 5.2344 2.3834
-6.4323 5.0285 2.3834
-6.6291 4.8140 2.3834
-6.8178 4.5911 2.3834
-6.9977 4.3602 2.3834
-7.1387 4.1045 2.3735
-7.1063 3.7576 2.3107
-7.0747 3.4261 2.2538
-7.1354 3.1488 2.2310
-7.2579 2.9006 2.2310
-7.3703 2.6471 2.2310
-7.4722 2.3888 2.2310
-7.5636 2.1262 2.2310
-7.6441 1.8598 2.2310
-7.7135 1.5900 2.2310
-7.7718 1.3173 2.2310
-7.8187 1.0424 2.2310
-7.8542 0.7655 2.2310
-7.8781 0.4874 2.2310
-7.8904 0.2085 2.2310
-7.8912 -0.0706 2.2310
-7.8803 -0.3495 2.2310
-7.8579 -0.6276 2.2310
-7.8239 -0.9043 2.2310
-7.7786 -1.1792 2.2310
-7.7219 -1.4517 2.2310
-7.6541 -1.7213 2.2310
-7.5754 -1.9876 2.2310
-7.4858 -2.2500 2.2310
-7.3857 -2.5082 2.2310
-7.2753 -2.7616 2.2310
-7.1549 -3.0097 2.2310
-7.0248 -3.2523 2.2310
-6.8852 -3.4889 2.2310
-6.7365 -3.7190 2.2310
-6.5790 -3.9425 2.2310
-6.4131 -4.1588 2.2310
-6.2482 -4.3741 2.2342
-6.0681 -4.5769 2.2349
-6.0111 -4.8777 2.2851
-5.9595 -5.1970 2.3436
-5.8449 -5.4740 2.3834
-5.6226 -5.6535 2.3834
-5.3943 -5.8233 2.3834
-5.1604 -5.9840 2.3834
-4.9215 -6.1348 2.3834
-4.6779 -6.2757 2.3834
-4.4301 -6.4067 2.3834
-4.1786 -6.5276 2.3834
-3.9238 -6.6385 2.3834
-3.6662 -6.7393 2.3834
-3.4061 -6.8299 2.3834
-3.1440 -6.9105 2.3834
-2.8804 -6.9810 2.3834
-2.6156 -7.0414 2.3834
-2.3500 -7.0918 2.3834
-2.0841 -7.1323 2.3834
-1.8181 -7.1630 2.3834
-1.5525 -7.1840 2.3834
-1.2877 -7.1954 2.3834
-1.0239 -7.1973 2.3834
-0.7616 -7.1898 2.3834
-0.5009 -7.1732 2.3834
-0.2423 -7.1475 2.3834
0.0139 -7.1129 2.3834
0.2675 -7.0697 2.3834
0.5182 -7.0179 2.3834
0.7657 -6.9577 2.3834
1.0098 -6.8895 2.3834
1.2503 -6.8133 2.3834
1.4868 -6.7293 2.3834
1.7192 -6.6377 2.3834
1.9473 -6.5388 2.3834
2.1709 -6.4328 2.3834
2.3898 -6.3199 2.3834
2.6038 -6.2002 2.3834
2.8128 -6.0740 2.3834
3.0165 -5.9415 2.3834
3.2149 -5.8029 2.3834
3.4078 -5.6587 2.3834
3.5950 -5.5085 2.3834
3.7765 -5.3529 2.3834
3.9521 -5.1922 2.3834
4.1218 -5.0264 2.3834
4.2854 -4.8558 2.3834
4.4427 -4.6806 2.3834
4.5938 -4.5010 2.3834
4.7386 -4.3172 2.3834
4.8769 -4.1295 2.3834
5.0087 -3.9380 2.3834
5.1340 -3.7428 2.3834
5.2526 -3.5443 2.3834
5.3645 -3.3427 2.3834
5.4697 -3.1380 2.3834
5.5680 -2.9306 2.3834
5.6595 -2.7205 2.3834
5.7442 -2.5081 2.3834
5.8219 -2.2934 2.3834
5.8926 -2.0768 2.3834
5.9564 -1.8583 2.3834
6.0131 -1.6382 2.3834
6.0628 -1.4166 2.3834
6.1054 -1.1938 2.3834
6.1409 -0.9698 2.3834
6.1693 -0.7451 2.3834
6.1906 -0.5196 2.3834
6.2048 -0.2935 2.3834
6.2118 -0.0672 2.3834
6.2116 0.1593 2.3834
6.2043 0.3858 2.3834
6.1899 0.6120 2.3834
6.1683 0.8378 2.3834
6.1395 1.0630 2.3834
6.1036 1.2874 2.3834
6.0605 1.5108 2.3834
6.0104 1.7331 2.3834
5.9531 1.9540 2.3834
5.8887 2.1733 2.3834
5.8172 2.3908 2.3834
5.7387 2.6065 2.3834
5.6532 2.8200 2.3834
5.5606 3.0311 2.3834
5.4612 3.2397 2.3834
5.3548 3.4456 2.3834
5.2415 3.6485 2.3834
5.1214 3.8482 2.3834
4.9946 4.0446 2.3834
-0.6316 -6.6762 2.3834
-0.3901 -6.6601 2.3834
-0.1505 -6.6357 2.3834
0.0871 -6.6030 2.3834
0.3222 -6.5622 2.3834
0.5547 -6.5134 2.3834
0.7843 -6.4570 2.3834
1.0108 -6.3929 2.3834
1.2339 -6.3214 2.3834
1.4535 -6.2426 2.3834
1.6693 -6.1568 2.3834
1.8811 -6.0641 2.3834
2.0888 -5.9647 2.3834
2.2921 -5.8588 2.3834
2.4909 -5.7466 2.3834
2.6850 -5.6284 2.3834
2.8743 -5.5041 2.3834
3.0586 -5.3742 2.3834
3.2378 -5.2388 2.3834
3.4118 -5.0980 2.3834
3.5804 -4.9521 2.3834
3.7435 -4.8013 2.3834
3.9010 -4.6458 2.3834
4.0528 -4.4856 2.3834
4.1989 -4.3212 2.3834
4.3391 -4.1526 2.3834
4.4733 -3.9800 2.3834
4.6015 -3.8037 2.3834
4.7235 -3.6238 2.3834
4.8394 -3.4406 2.3834
4.9490 -3.2541 2.3834
5.0524 -3.0647 2.3834
5.1493 -2.8725 2.3834
5.2399 -2.6776 2.3834
5.3240 -2.4803 2.3834
5.4016 -2.2807 2.3834
5.4727 -2.0791 2.3834
5.5372 -1.8756 2.3834
5.5950 -1.6704 2.3834
5.6463 -1.4637 2.3834
5.6909 -1.2556 2.3834
5.7288 -1.0464 2.3834
5.7599 -0.8362 2.3834
5.7844 -0.6253 2.3834
5.8021 -0.4137 2.3834
5.8136 -0.2043 2.3834
5.8173 0.0106 2.3834
5.8148 0.2229 2.3834
5.8055 0.4351 2.3834
5.7894 0.6470 2.3834
5.7665 0.8585 2.3834
5.7369 1.0693 2.3834
5.7006 1.2793 2.3834
5.6575 1.4882 2.3834
5.6077 1.6959 2.3834
5.5512 1.9022 2.3834
5.4880 2.1070 2.3834
5.4181 2.3100 2.3834
5.3416 2.5110 2.3834
5.2585 2.7098 2.3834
5.1689 2.9064 2.3834
5.0727 3.1004 2.3834
4.9701 3.2917 2.3834
4.8610 3.4801 2.3834
4.7455 3.6653 2.3834
4.6238 3.8473 2.3834
4.4958 4.0257 2.3834
4.3616 4.2003 2.3834
4.2213 4.3711 2.3834
4.0750 4.5377 2.3834
3.9227 4.7001 2.3834
3.7646 4.8578 2.3834
3.6008 5.0109 2.3834
3.4313 5.1590 2.3834
3.2564 5.3019 2.3834
3.0760 5.4395 2.3834
2.8904 5.5714 2.3834
2.6996 5.6976 2.3834
2.5039 5.8179 2.3834
2.3034 5.9319 2.3834
0.8641 2.4872 0.9815
0.7745 2.5184 0.9775
0.6839 2.5464 0.9734
0.5924 2.5711 0.9693
0.5000 2.5925 0.9652
0.4069 2.6106 0.9610
0.3131 2.6252 0.9568
0.2189 2.6365 0.9525
0.1244 2.6444 0.9483
0.0296 2.6488 0.9440
-0.0652 2.6498 0.9398
-0.1601 2.6474 0.9355
-0.2548 2.6416 0.9312
-0.3492 2.6324 0.9270
-0.4433 2.6197 0.9227
-0.5368 2.6037 0.9185
-0.6297 2.5843 0.9143
-0.7218 2.5615 0.9102
-0.8131 2.5354 0.9061
-0.9033 2.5061 0.9020
-2.6341 6.5650 2.3834
-2.8801 6.4987 2.3834
-3.1245 6.4230 2.3834
-3.3668 6.3378 2.3834
-3.6067 6.2431 2.3834
-3.8437 6.1390 2.3834
-4.0775 6.0255 2.3834
-4.3076 5.9028 2.3834
-4.5337 5.7707 2.3834
-4.7552 5.6296 2.3834
-4.9719 5.4795 2.3834
-5.1832 5.3205 2.3834
-5.3888 5.1529 2.3834
-5.5882 4.9768 2.3834
-5.7811 4.7924 2.3834
-5.9670 4.6001 2.3834
-6.1457 4.4000 2.3834
-6.3166 4.1924 2.3834
-6.4795 3.9776 2.3834
-6.6339 3.7560 2.3834
-6.7796 3.5279 2.3834
-6.9163 3.2937 2.3834
-7.0033 3.0362 2.3698
-6.9740 2.7349 2.3211
-6.9452 2.4441 2.2773
-6.9220 2.1642 2.2396
-6.9768 1.9135 2.2310
-7.0484 1.6678 2.2310
-7.1100 1.4191 2.2310
-7.1613 1.1680 2.2310
-7.2023 0.9148 2.2310
-7.2328 0.6601 2.2310
-7.2529 0.4042 2.2310
-7.2624 0.1478 2.2310
-7.2614 -0.1088 2.2310
-7.2498 -0.3651 2.2310
-7.2277 -0.6206 2.2310
-7.1952 -0.8748 2.2310
-7.1523 -1.1273 2.2310
-7.0991 -1.3776 2.2310
-7.0358 -1.6252 2.2310
-6.9625 -1.8698 2.2310
-6.8795 -2.1108 2.2310
-6.7868 -2.3480 2.2310
-6.6848 -2.5807 2.2310
-6.5736 -2.8088 2.2310
-6.4536 -3.0318 2.2310
-6.3250 -3.2492 2.2310
-6.2062 -3.4711 2.2376
-6.1586 -3.7366 2.2737
-6.1154 -4.0133 2.3162
-6.0702 -4.2987 2.3633
-5.9434 -4.5333 2.3834
-5.7578 -4.7236 2.3834
-5.5655 -4.9058 2.3834
-5.3669 -5.0801 2.3834
-5.1623 -5.2458 2.3834
-4.9522 -5.4030 2.3834
-4.7369 -5.5514 2.3834
-4.5169 -5.6910 2.3834
-4.2925 -5.8215 2.3834
-4.0642 -5.9430 2.3834
-3.8324 -6.0553 2.3834
-3.5974 -6.1589 2.3834
-3.3598 -6.2523 2.3834
-3.1199 -6.3367 2.3834
-2.8779 -6.4120 2.3834
-2.6344 -6.4780 2.3834
-2.3898 -6.5347 2.3834
-2.1443 -6.5822 2.3834
-1.8983 -6.6205 2.3834
-1.6522 -6.6499 2.3834
-1.4063 -6.6702 2.3834
-1.1610 -6.6816 2.3834
-0.9166 -6.6842 2.3834
-0.6734 -6.6781 2.3834
-0.4316 -6.6635 2.3834
-0.1917 -6.6405 2.3834
0.0462 -6.6092 2.3834
0.2818 -6.5698 2.3834
0.5148 -6.5224 2.3834
0.7449 -6.4673 2.3834
0.9719 -6.4045 2.3834
1.1957 -6.3342 2.3834
1.4159 -6.2567 2.3834
1.6323 -6.1721 2.3834
1.8449 -6.0806 2.3834
2.0532 -5.9823 2.3834
2.2573 -5.8776 2.3834
2.4569 -5.7664 2.3834
2.6518 -5.6492 2.3834
2.8420 -5.5260 2.3834
3.0272 -5.3970 2.3834
3.2072 -5.2626 2.3834
3.3821 -5.1227 2.3834
3.5516 -4.9777 2.3834
3.7157 -4.8277 2.3834
3.8742 -4.6729 2.3834
4.0271 -4.5135 2.3834
4.1741 -4.3498 2.3834
4.3153 -4.1819 2.3834
4.4506 -4.0101 2.3834
4.5798 -3.8344 2.3834
4.7029 -3.6551 2.3834
4.8199 -3.4724 2.3834
4.9306 -3.2865 2.3834
5.0350 -3.0976 2.3834
5.1331 -2.9058 2.3834
5.2247 -2.7114 2.3834
5.3100 -2.5145 2.3834
5.3887 -2.3153 2.3834
5.4609 -2.1140 2.3834
5.5265 -1.9108 2.3834
5.5855 -1.7059 2.3834
5.6379 -1.4994 2.3834
5.6836 -1.2916 2.3834
5.7227 -1.0825 2.3834
5.7550 -0.8726 2.3834
5.7807 -0.6617 2.3834
5.7995 -0.4503 2.3834
5.8117 -0.2383 2.3834
5.8171 -0.0261 2.3834
5.8157 0.1863 2.3834
5.8076 0.3985 2.3834
5.7926 0.6105 2.3834
5.7710 0.8220 2.3834
5.7425 1.0330 2.3834
5.7073 1.2431 2.3834
5.6654 1.4522 2.3834
5.6168 1.6601 2.3834
5.5614 1.8667 2.3834
5.4993 2.0718 2.3834
5.4306 2.2751 2.3834
5.3553 2.4764 2.3834
5.2733 2.6757 2.3834
5.1848 2.8727 2.3834
5.0898 3.0672 2.3834
4.9882 3.2589 2.3834
4.8803 3.4478 2.3834
4.7659 3.6336 2.3834
4.6452 3.8161 2.3834
4.5183 3.9951 2.3834
4.3852 4.1705 2.3834
4.2459 4.3419 2.3834
4.1007 4.5093 2.3834
3.9494 4.6724 2.3834
3.7923 4.8309 2.3834
3.6295 4.9848 2.3834
3.4610 5.1338 2.3834
3.2869 5.2776 2.3834
3.1075 5.4161 2.3834
2.9228 5.5491 2.3834
2.7329 5.6763 2.3834
2.5380 5.7976 2.3834
2.3383 5.9127 2.3834
0.8794 2.4815 0.9822
0.7901 2.5133 0.9782
0.6996 2.5418 0.9742
0.6082 2.5671 0.9700
0.5160 2.5891 0.9659
0.4230 2.6077 0.9617
0.3293 2.6229 0.9575
0.2352 2.6348 0.9533
0.1407 2.6433 0.9490
0.0460 2.6483 0.9448
-0.0489 2.6499 0.9405
-0.1437 2.6481 0.9362
-0.2385 2.6429 0.9320
-0.3330 2.6342 0.9277
-0.4271 2.6221 0.9235
-0.5207 2.6067 0.9193
-0.6137 2.5878 0.9151
-0.7060 2.5657 0.9109
-0.7974 2.5402 0.9068
-0.8878 2.5114 0.9027
-2.5916 6.5755 2.3834
-2.8378 6.5109 2.3834
-3.0824 6.4367 2.3834
-3.3251 6.3532 2.3834
-3.5655 6.2601 2.3834
-3.8030 6.1576 2.3834
-4.0374 6.0458 2.3834
-4.2682 5.9246 2.3834
-4.4950 5.7942 2.3834
-4.7173 5.6546 2.3834
-4.9349 5.5060 2.3834
-5.1471 5.3486 2.3834
-5.3537 5.1824 2.3834
-5.5542 5.0078 2.3834
-5.7483 4.8247 2.3834
-5.9355 4.6339 2.3834
-6.1154 4.4351 2.3834
-6.2877 4.2288 2.3834
-6.4520 4.0152 2.3834
-6.6079 3.7947 2.3834
-6.7551 3.5677 2.3834
-6.8934 3.3345 2.3834
-7.0084 3.0893 2.3787
-6.9791 2.7861 2.3292
-6.9501 2.4935 2.2845
-6.9227 2.2106 2.2448
-6.9634 1.9556 2.2310
-7.0368 1.7104 2.2310
-7.1001 1.4622 2.2310
-7.1532 1.2114 2.2310
-7.1959 0.9586 2.2310
-7.2283 0.7041 2.2310
-7.2502 0.4484 2.2310
-7.2615 0.1921 2.2310
-7.2623 -0.0646 2.2310
-7.2526 -0.3209 2.2310
-7.2323 -0.5766 2.2310
-7.2015 -0.8311 2.2310
-7.1604 -1.0839 2.2310
-7.1090 -1.3346 2.2310
-7.0475 -1.5827 2.2310
-6.9759 -1.8278 2.2310
-6.8945 -2.0695 2.2310
-6.8035 -2.3074 2.2310
-6.7031 -2.5409 2.2310
-6.5935 -2.7698 2.2310
-6.4749 -2.9937 2.2310
-6.3477 -3.2121 2.2310
-6.2168 -3.4274 2.2327
-6.1658 -3.6896 2.2668
-6.1230 -3.9649 2.3086
-6.0782 -4.2487 2.3549
-5.9747 -4.4996 2.3834
-5.7903 -4.6913 2.3834
-5.5992 -4.8749 2.3834
-5.4016 -5.0506 2.3834
-5.1980 -5.2178 2.3834
-4.9888 -5.3765 2.3834
-4.7744 -5.5265 2.3834
-4.5551 -5.6675 2.3834
-4.3315 -5.7997 2.3834
-4.1039 -5.9227 2.3834
-3.8727 -6.0366 2.3834
-3.6382 -6.1417 2.3834
-3.4010 -6.2368 2.3834
-3.1614 -6.3228 2.3834
-2.9198 -6.3997 2.3834
-2.6766 -6.4672 2.3834
-2.4320 -6.5256 2.3834
-2.1867 -6.5746 2.3834
-1.9408 -6.6146 2.3834
-1.6947 -6.6454 2.3834
-1.4487 -6.6673 2.3834
-1.2033 -6.6802 2.3834
-0.9587 -6.6843 2.3834
-0.7152 -6.6798 2.3834
-0.4732 -6.6666 2.3834
-0.2329 -6.6450 2.3834
0.0053 -6.6152 2.3834
0.2413 -6.5772 2.3834
0.4748 -6.5311 2.3834
0.7054 -6.4773 2.3834
0.9330 -6.4158 2.3834
1.1573 -6.3469 2.3834
1.3782 -6.2706 2.3834
1.5953 -6.1872 2.3834
1.8085 -6.0968 2.3834
2.0176 -5.9997 2.3834
2.2224 -5.8961 2.3834
2.4228 -5.7860 2.3834
2.6185 -5.6698 2.3834
2.8095 -5.5477 2.3834
2.9956 -5.4197 2.3834
3.1765 -5.2861 2.3834
3.3523 -5.1473 2.3834
3.5228 -5.0030 2.3834
3.6878 -4.8538 2.3834
3.8473 -4.6999 2.3834
4.0011 -4.5413 2.3834
4.1491 -4.3785 2.3834
4.2914 -4.2112 2.3834
4.4277 -4.0400 2.3834
4.5579 -3.8649 2.3834
4.6821 -3.6863 2.3834
4.8001 -3.5042 2.3834
4.9119 -3.3188 2.3834
5.0174 -3.1304 2.3834
5.1166 -2.9391 2.3834
5.2094 -2.7451 2.3834
5.2957 -2.5486 2.3834
5.3756 -2.3498 2.3834
5.4489 -2.1489 2.3834
5.5157 -1.9460 2.3834
5.5758 -1.7414 2.3834
5.6294 -1.5352 2.3834
5.6762 -1.3276 2.3834
5.7164 -1.1187 2.3834
5.7499 -0.9089 2.3834
5.7767 -0.6981 2.3834
5.7968 -0.4868 2.3834
5.8101 -0.2749 2.3834
5.8166 -0.0627 2.3834
5.8164 0.1496 2.3834
5.8094 0.3619 2.3834
5.7957 0.5740 2.3834
5.7752 0.7856 2.3834
5.7479 0.9967 2.3834
5.7139 1.2069 2.3834
5.6731 1.4162 2.3834
5.6256 1.6244 2.3834
5.5714 1.8312 2.3834
5.5105 2.0365 2.3834
5.4430 2.2401 2.3834
5.3688 2.4418 2.3834
5.2879 2.6415 2.3834
5.2006 2.8389 2.3834
5.1066 3.0338 2.3834
5.0062 3.2260 2.3834
4.8994 3.4154 2.3834
4.7861 3.6018 2.3834
4.6665 3.7849 2.3834
-0.5964 -6.2279 2.3834
-0.3713 -6.2148 2.3834
-0.1477 -6.1938 2.3834
0.0741 -6.1651 2.3834
0.2938 -6.1289 2.3834
0.5111 -6.0852 2.3834
0.7259 -6.0341 2.3834
0.9379 -5.9759 2.3834
1.1468 -5.9107 2.3834
1.3525 -5.8387 2.3834
1.5548 -5.7600 2.3834
1.7535 -5.6748 2.3834
1.9484 -5.5832 2.3834
2.1392 -5.4855 2.3834
2.3260 -5.3818 2.3834
2.5084 -5.2723 2.3834
2.6864 -5.1571 2.3834
2.8598 -5.0365 2.3834
3.0284 -4.9107 2.3834
3.1922 -4.7797 2.3834
3.3510 -4.6440 2.3834
3.5047 -4.5034 2.3834
3.6532 -4.3583 2.3834
3.7964 -4.2088 2.3834
3.9341 -4.0553 2.3834
4.0664 -3.8977 2.3834
4.1931 -3.7363 2.3834
4.3141 -3.5713 2.3834
4.4294 -3.4029 2.3834
4.5389 -3.2313 2.3834
4.6425 -3.0566 2.3834
4.7401 -2.8790 2.3834
4.8318 -2.6987 2.3834
4.9174 -2.5158 2.3834
4.9969 -2.3307 2.3834
5.0703 -2.1433 2.3834
5.1375 -1.9540 2.3834
5.1985 -1.7628 2.3834
5.2533 -1.5700 2.3834
5.3017 -1.3758 2.3834
5.3439 -1.1802 2.3834
5.3797 -0.9836 2.3834
5.4092 -0.7860 2.3834
5.4323 -0.5876 2.3834
5.4490 -0.3887 2.3834
5.4594 -0.1894 2.3834
5.4633 0.0102 2.3834
5.4608 0.2098 2.3834
5.4519 0.4094 2.3834
5.4366 0.6086 2.3834
5.4149 0.8074 2.3834
5.3868 1.0055 2.3834
5.3523 1.2028 2.3834
5.3115 1.3992 2.3834
5.2642 1.5943 2.3834
5.2107 1.7881 2.3834
5.1508 1.9803 2.3834
5.0846 2.1709 2.3834
5.0122 2.3595 2.3834
4.9335 2.5461 2.3834
4.8487 2.7304 2.3834
4.7577 2.9122 2.3834
4.6606 3.0914 2.3834
4.5575 3.2678 2.3834
4.4484 3.4412 2.3834
4.3333 3.6114 2.3834
4.2124 3.7782 2.3834
4.0857 3.9414 2.3834
3.9533 4.1009 2.3834
3.8153 4.2564 2.3834
3.6717 4.4077 2.3834
3.5227 4.5547 2.3834
3.3684 4.6971 2.3834
3.2088 4.8348 2.3834
3.0441 4.9677 2.3834
2.8744 5.0953 2.3834
2.6998 5.2177 2.3834
2.5205 5.3345 2.3834
2.3367 5.4457 2.3834
2.1484 5.5510 2.3834
0.8032 2.3203 0.9788
0.7196 2.3494 0.9750
0.6351 2.3755 0.9712
0.5497 2.3985 0.9674
0.4635 2.4185 0.9635
0.3766 2.4353 0.9596
0.2892 2.4490 0.9557
0.2014 2.4595 0.9517
0.1132 2.4668 0.9477
0.0248 2.4709 0.9438
-0.0637 2.4719 0.9398
-0.1522 2.4696 0.9358
-0.2405 2.4642 0.9318
-0.3286 2.4555 0.9279
-0.4164 2.4437 0.9239
-0.5036 2.4288 0.9200
-0.5902 2.4107 0.9161
-0.6762 2.3894 0.9122
-0.7613 2.3651 0.9084
-0.8455 2.3378 0.9046
-0.9286 2.3074 0.9008
-2.6849 6.0413 2.3834
-2.9111 5.9691 2.3834
-3.1354 5.8881 2.3834
-3.3573 5.7984 2.3834
-3.5764 5.7001 2.3834
-3.7924 5.5931 2.3834
-4.0049 5.4776 2.3834
-4.2135 5.3536 2.3834
-4.4179 5.2212 2.3834
-4.6176 5.0807 2.3834
-4.8123 4.9320 2.3834
-5.0016 4.7755 2.3834
-5.1852 4.6112 2.3834
-5.3627 4.4393 2.3834
-5.5337 4.2602 2.3834
-5.6979 4.0740 2.3834
-5.8550 3.8811 2.3834
-6.0046 3.6815 2.3834
-6.1465 3.4758 2.3834
-6.2802 3.2642 2.3834
-6.4056 3.0470 2.3834
-6.5224 2.8244 2.3834
-6.6303 2.5973 2.3834
-6.7290 2.3655 2.3834
-6.8184 2.1296 2.3834
-6.8560 1.8784 2.3688
-6.8286 1.6142 2.3356
-6.8012 1.3563 2.3062
-6.7738 1.1038 2.2806
-6.7464 0.8563 2.2586
-6.7228 0.6131 2.2412
-6.7106 0.3739 2.2310
-6.7194 0.1369 2.2310
-6.7186 -0.1002 2.2310
-6.7081 -0.3371 2.2310
-6.6879 -0.5733 2.2310
-6.6582 -0.8083 2.2310
-6.6191 -1.0417 2.2310
-6.5705 -1.2732 2.2310
-6.5126 -1.5023 2.2310
-6.4455 -1.7288 2.2310
-6.3960 -1.9598 2.2403
-6.3579 -2.1966 2.2570
-6.3231 -2.4378 2.2785
-6.2872 -2.6827 2.3035
-6.2501 -2.9321 2.3320
-6.2117 -3.1867 2.3643
-6.1276 -3.4223 2.3834
-5.9854 -3.6263 2.3834
-5.8357 -3.8241 2.3834
-5.6786 -4.0154 2.3834
-5.5146 -4.1998 2.3834
-5.3440 -4.3772 2.3834
-5.1671 -4.5474 2.3834
-4.9842 -4.7100 2.3834
-4.7958 -4.8651 2.3834
-4.6021 -5.0122 2.3834
-4.4036 -5.1513 2.3834
-4.2006 -5.2824 2.3834
-3.9935 -5.4051 2.3834
-3.7826 -5.5195 2.3834
-3.5683 -5.6257 2.3834
-3.3510 -5.7230 2.3834
-3.1311 -5.8120 2.3834
-2.9089 -5.8924 2.3834
-2.6847 -5.9642 2.3834
-2.4589 -6.0275 2.3834
-2.2319 -6.0822 2.3834
-2.0040 -6.1283 2.3834
-1.7755 -6.1660 2.3834
-1.5467 -6.1952 2.3834
-1.3180 -6.2161 2.3834
-1.0897 -6.2287 2.3834
-0.8621 -6.2330 2.3834
-0.6354 -6.2293 2.3834
-0.4100 -6.2176 2.3834
-0.1861 -6.1980 2.3834
0.0360 -6.1706 2.3834
0.2560 -6.1357 2.3834
0.4738 -6.0932 2.3834
0.6890 -6.0435 2.3834
