ply
format ascii 1.0
element vertex 2175
property float32 x
property float32 y
property float32 z
end_header
-7.6400 -3.3940 2.3906
-7.5174 -3.6680 2.3906
-7.3851 -3.9376 2.3906
-7.2433 -4.2025 2.3906
-7.0920 -4.4623 2.3906
-6.9315 -4.7166 2.3906
-6.7619 -4.9653 2.3906
-6.5835 -5.2079 2.3906
-6.3964 -5.4441 2.3906
-6.2009 -5.6736 2.3906
-5.9972 -5.8961 2.3906
-5.7856 -6.1114 2.3906
-5.5663 -6.3191 2.3906
-5.3395 -6.5189 2.3906
-5.1057 -6.7105 2.3906
-4.8649 -6.8938 2.3906
-4.6176 -7.0685 2.3906
-4.3641 -7.2343 2.3906
-4.1046 -7.3910 2.3906
-3.8394 -7.5383 2.3906
-3.5691 -7.6762 2.3906
-3.2937 -7.8043 2.3906
-3.0138 -7.9225 2.3906
-2.7296 -8.0306 2.3906
-2.4416 -8.1285 2.3906
-2.1500 -8.2160 2.3906
-1.8553 -8.2929 2.3906
-1.5579 -8.3593 2.3906
-1.2581 -8.4149 2.3906
-0.9563 -8.4596 2.3906
-0.6529 -8.4935 2.3906
-0.3483 -8.5163 2.3906
-0.0430 -8.5282 2.3906
0.2628 -8.5290 2.3906
0.5685 -8.5187 2.3906
0.8738 -8.4973 2.3906
1.1783 -8.4649 2.3906
1.4815 -8.4215 2.3906
1.7831 -8.3670 2.3906
2.0827 -8.3016 2.3906
2.3798 -8.2254 2.3906
2.6741 -8.1383 2.3906
2.9651 -8.0407 2.3906
3.2525 -7.9324 2.3906
3.5358 -7.8137 2.3906
3.8148 -7.6848 2.3906
4.0889 -7.5457 2.3906
4.3579 -7.3968 2.3906
4.6214 -7.2381 2.3906
4.8789 -7.0698 2.3906
5.1303 -6.8923 2.3906
5.3750 -6.7056 2.3906
5.6128 -6.5101 2.3906
5.8434 -6.3061 2.3906
6.0665 -6.0937 2.3906
6.2816 -5.8734 2.3906
6.4886 -5.6453 2.3906
6.6872 -5.4098 2.3906
6.8770 -5.1671 2.3906
7.0579 -4.9177 2.3906
7.2296 -4.6619 2.3906
7.3919 -4.4000 2.3906
7.5444 -4.1324 2.3906
7.6871 -3.8593 2.3906
7.8197 -3.5812 2.3906
7.9421 -3.2986 2.3906
8.0541 -3.0117 2.3906
8.1556 -2.7209 2.3906
8.2463 -2.4267 2.3906
8.3263 -2.1294 2.3906
8.3953 -1.8294 2.3906
8.4534 -1.5273 2.3906
8.5004 -1.2232 2.3906
8.5363 -0.9177 2.3906
8.5611 -0.6112 2.3906
8.5746 -0.3041 2.3906
8.5770 0.0033 2.3906
8.5682 0.3103 2.3906
8.5483 0.6168 2.3906
8.5172 0.9222 2.3906
8.4751 1.2262 2.3906
8.4220 1.5283 2.3906
8.3580 1.8282 2.3906
8.2831 2.1254 2.3906
8.1976 2.4196 2.3906
8.1015 2.7104 2.3906
7.9950 2.9973 2.3906
7.8782 3.2801 2.3906
7.7514 3.5583 2.3906
7.6146 3.8316 2.3906
7.4681 4.0996 2.3906
7.3121 4.3620 2.3906
7.1468 4.6185 2.3906
6.9724 4.8687 2.3906
6.7893 5.1123 2.3906
6.5976 5.3490 2.3906
6.3975 5.5785 2.3906
6.1895 5.8006 2.3906
5.9738 6.0147 2.3906
5.7506 6.2211 2.3906
5.5203 6.4191 2.3906
5.2831 6.6085 2.3906
5.0395 6.7892 2.3906
4.7896 6.9609 2.3906
4.5340 7.1235 2.3906
4.2728 7.2767 2.3906
4.0065 7.4204 2.3906
3.7353 7.5543 2.3906
3.4597 7.6784 2.3906
3.1801 7.7925 2.3906
2.8967 7.8965 2.3906
2.6099 7.9902 2.3906
0.9243 3.2165 0.9524
0.8084 3.2479 0.9531
0.6914 3.2750 0.9537
0.5735 3.2979 0.9544
0.4549 3.3165 0.9550
0.3356 3.3309 0.9556
0.2159 3.3409 0.9562
0.0959 3.3466 0.9568
-0.0243 3.3479 0.9573
-0.1444 3.3449 0.9578
-0.2644 3.3376 0.9583
-0.3840 3.3259 0.9588
-0.5031 3.3099 0.9593
-0.6215 3.2897 0.9597
-0.7392 3.2651 0.9601
-0.8559 3.2363 0.9605
-2.4168 7.9697 2.3906
-2.7002 7.8746 2.3906
-2.9800 7.7695 2.3906
-3.2557 7.6546 2.3906
-3.5272 7.5301 2.3906
-3.7939 7.3961 2.3906
-4.0557 7.2529 2.3906
-4.3122 7.1005 2.3906
-4.5631 6.9392 2.3906
-4.8081 6.7692 2.3906
-5.0469 6.5906 2.3906
-5.2792 6.4038 2.3906
-5.5046 6.2090 2.3906
-5.7231 6.0063 2.3906
-5.9342 5.7962 2.3906
-6.1378 5.5787 2.3906
-6.3335 5.3542 2.3906
-6.5212 5.1229 2.3906
-6.7003 4.8853 2.3906
-6.8715 4.6413 2.3906
-7.0337 4.3916 2.3906
-7.1870 4.1363 2.3906
-7.3312 3.8757 2.3906
-7.4661 3.6102 2.3906
-7.5916 3.3401 2.3906
-7.7075 3.0657 2.3906
-7.8137 2.7873 2.3906
-7.9100 2.5054 2.3906
-7.9963 2.2202 2.3906
-8.0725 1.9320 2.3906
-8.1384 1.6413 2.3906
-8.1941 1.3484 2.3906
-8.2395 1.0536 2.3906
-8.2744 0.7573 2.3906
-8.2988 0.4599 2.3906
-8.3127 0.1617 2.3906
-8.3161 -0.1368 2.3906
-8.3089 -0.4354 2.3906
-8.2911 -0.7337 2.3906
-8.2628 -1.0313 2.3906
-8.2239 -1.3278 2.3906
-8.1746 -1.6228 2.3906
-8.1148 -1.9161 2.3906
-8.0446 -2.2071 2.3906
-7.9642 -2.4957 2.3906
-7.8735 -2.7813 2.3906
-7.7726 -3.0636 2.3906
-7.6618 -3.3424 2.3906
-7.5410 -3.6172 2.3906
-7.4106 -3.8876 2.3906
-7.2705 -4.1534 2.3906
-7.1209 -4.4141 2.3906
-6.9621 -4.6696 2.3906
-6.7942 -4.9193 2.3906
-6.6174 -5.1630 2.3906
-6.4320 -5.4005 2.3906
-6.2380 -5.6313 2.3906
-6.0358 -5.8551 2.3906
-5.8257 -6.0718 2.3906
-5.6078 -6.2808 2.3906
-5.3824 -6.4821 2.3906
-5.1499 -6.6754 2.3906
-4.9104 -6.8602 2.3906
-4.6643 -7.0366 2.3906
-4.4119 -7.2040 2.3906
-4.1535 -7.3624 2.3906
-3.8894 -7.5115 2.3906
-3.6200 -7.6512 2.3906
-3.3455 -7.7811 2.3906
-3.0664 -7.9012 2.3906
-2.7830 -8.0112 2.3906
-2.4957 -8.1110 2.3906
-2.2047 -8.2004 2.3906
-1.9106 -8.2794 2.3906
-1.6136 -8.3477 2.3906
-1.3142 -8.4053 2.3906
-1.0128 -8.4521 2.3906
-0.7096 -8.4880 2.3906
-0.4053 -8.5129 2.3906
-0.1000 -8.5268 2.3906
0.2057 -8.5297 2.3906
0.5114 -8.5215 2.3906
0.8169 -8.5022 2.3906
1.1215 -8.4718 2.3906
1.4250 -8.4304 2.3906
1.7270 -8.3780 2.3906
2.0269 -8.3147 2.3906
2.3245 -8.2404 2.3906
2.6194 -8.1554 2.3906
2.9110 -8.0597 2.3906
3.1991 -7.9534 2.3906
3.4832 -7.8367 2.3906
3.7630 -7.7096 2.3906
4.0381 -7.5725 2.3906
4.3081 -7.4253 2.3906
4.5726 -7.2684 2.3906
4.8313 -7.1020 2.3906
5.0838 -6.9261 2.3906
5.3298 -6.7411 2.3906
5.5690 -6.5473 2.3906
5.8009 -6.3448 2.3906
6.0254 -6.1340 2.3906
6.2420 -5.9151 2.3906
6.4506 -5.6884 2.3906
6.6508 -5.4543 2.3906
6.8423 -5.2130 2.3906
7.0248 -4.9648 2.3906
7.1983 -4.7102 2.3906
7.3623 -4.4494 2.3906
7.5167 -4.1827 2.3906
7.6612 -3.9108 2.3906
7.7957 -3.6335 2.3906
7.9201 -3.3518 2.3906
8.0340 -3.0656 2.3906
8.1374 -2.7755 2.3906
8.2302 -2.4819 2.3906
8.3122 -2.1852 2.3906
8.3833 -1.8856 2.3906
8.4434 -1.5838 2.3906
8.4925 -1.2801 2.3906
8.5305 -0.9748 2.3906
8.5573 -0.6685 2.3906
8.5730 -0.3615 2.3906
8.5774 -0.0541 2.3906
8.5707 0.2530 2.3906
8.5528 0.5596 2.3906
8.5239 0.8653 2.3906
8.4838 1.1696 2.3906
8.4327 1.4721 2.3906
8.3707 1.7724 2.3906
8.2979 2.0701 2.3906
8.2144 2.3649 2.3906
8.1203 2.6563 2.3906
8.0157 2.9440 2.3906
7.9008 3.2276 2.3906
7.7758 3.5067 2.3906
7.6409 3.7809 2.3906
7.4962 4.0500 2.3906
7.3419 4.3135 2.3906
7.1784 4.5711 2.3906
7.0057 4.8225 2.3906
6.8241 5.0673 2.3906
6.6340 5.3054 2.3906
6.4355 5.5362 2.3906
6.2290 5.7597 2.3906
6.0146 5.9754 2.3906
5.7928 6.1832 2.3906
5.5638 6.3827 2.3906
5.3279 6.5738 2.3906
5.0854 6.7562 2.3906
4.8368 6.9296 2.3906
4.5821 7.0939 2.3906
4.3220 7.2488 2.3906
4.0566 7.3943 2.3906
3.7863 7.5301 2.3906
3.5115 7.6560 2.3906
3.2326 7.7720 2.3906
2.9499 7.8779 2.3906
2.6637 7.9735 2.3906
2.3745 8.0588 2.3906
0.8302 3.2423 0.9530
0.7134 3.2703 0.9536
0.5956 3.2940 0.9543
0.4771 3.3134 0.9549
0.3579 3.3285 0.9555
0.2383 3.3394 0.9561
0.1183 3.3459 0.9567
-0.0018 3.3480 0.9572
-0.1220 3.3458 0.9577
-0.2420 3.3393 0.9582
-0.3617 3.3284 0.9587
-0.4809 3.3132 0.9592
-2.2749 7.3266 2.3906
-2.5355 7.2374 2.3906
-2.7927 7.1391 2.3906
-3.0461 7.0318 2.3906
-3.2956 6.9156 2.3906
-3.5406 6.7907 2.3906
-3.7810 6.6573 2.3906
-4.0166 6.5155 2.3906
-4.2468 6.3654 2.3906
-4.4716 6.2074 2.3906
-4.6908 6.0415 2.3906
-4.9037 5.8681 2.3906
-5.1103 5.6872 2.3906
-5.3104 5.4992 2.3906
-5.5038 5.3043 2.3906
-5.6902 5.1027 2.3906
-5.8691 4.8946 2.3906
-6.0407 4.6804 2.3906
-6.2047 4.4603 2.3906
-6.3607 4.2345 2.3906
-6.5087 4.0033 2.3906
-6.6484 3.7671 2.3906
-6.7797 3.5261 2.3906
-6.9024 3.2805 2.3906
-7.0163 3.0308 2.3906
-7.1214 2.7772 2.3906
-7.2175 2.5200 2.3906
-7.3044 2.2595 2.3906
-7.3821 1.9961 2.3906
-7.4505 1.7301 2.3906
-7.5094 1.4618 2.3906
-7.5588 1.1914 2.3906
-7.5986 0.9195 2.3906
-7.6288 0.6463 2.3906
-7.6494 0.3720 2.3906
-7.6602 0.0972 2.3906
-7.6613 -0.1780 2.3906
-7.6526 -0.4531 2.3906
-7.6342 -0.7278 2.3906
-7.6061 -1.0017 2.3906
-7.5682 -1.2746 2.3906
-7.5207 -1.5461 2.3906
-7.4636 -1.8159 2.3906
-7.3969 -2.0836 2.3906
-7.3208 -2.3488 2.3906
-7.2352 -2.6113 2.3906
-7.1403 -2.8707 2.3906
-7.0362 -3.1266 2.3906
-6.9231 -3.3789 2.3906
-6.8009 -3.6270 2.3906
-6.6700 -3.8708 2.3906
-6.5304 -4.1099 2.3906
-6.3823 -4.3440 2.3906
-6.2258 -4.5727 2.3906
-6.0613 -4.7959 2.3906
-5.8887 -5.0132 2.3906
-5.7085 -5.2243 2.3906
-5.5207 -5.4289 2.3906
-5.3256 -5.6268 2.3906
-5.1234 -5.8177 2.3906
-4.9145 -6.0014 2.3906
-4.6990 -6.1775 2.3906
-4.4772 -6.3459 2.3906
-4.2493 -6.5064 2.3906
-4.0158 -6.6587 2.3906
-3.7767 -6.8025 2.3906
-3.5326 -6.9378 2.3906
-3.2836 -7.0643 2.3906
-3.0301 -7.1819 2.3906
-2.7724 -7.2903 2.3906
-2.5108 -7.3894 2.3906
-2.2456 -7.4791 2.3906
-1.9773 -7.5592 2.3906
-1.7061 -7.6297 2.3906
-1.4324 -7.6904 2.3906
-1.1565 -7.7412 2.3906
-0.8788 -7.7820 2.3906
-0.5998 -7.8128 2.3906
-0.3196 -7.8335 2.3906
-0.0387 -7.8441 2.3906
0.2425 -7.8445 2.3906
0.5236 -7.8347 2.3906
0.8044 -7.8147 2.3906
1.0843 -7.7846 2.3906
1.3631 -7.7444 2.3906
1.6404 -7.6940 2.3906
1.9158 -7.6336 2.3906
2.1889 -7.5633 2.3906
2.4594 -7.4830 2.3906
2.7268 -7.3930 2.3906
2.9910 -7.2932 2.3906
3.2514 -7.1839 2.3906
3.5077 -7.0652 2.3906
3.7597 -6.9372 2.3906
4.0069 -6.8001 2.3906
4.2489 -6.6541 2.3906
4.4856 -6.4993 2.3906
4.7166 -6.3359 2.3906
4.9415 -6.1643 2.3906
5.1600 -5.9845 2.3906
5.3719 -5.7969 2.3906
5.5768 -5.6016 2.3906
5.7745 -5.3990 2.3906
5.9647 -5.1893 2.3906
6.1472 -4.9728 2.3906
6.3217 -4.7498 2.3906
6.4879 -4.5205 2.3906
6.6457 -4.2854 2.3906
6.7948 -4.0447 2.3906
6.9351 -3.7987 2.3906
7.0663 -3.5477 2.3906
7.1882 -3.2922 2.3906
7.3008 -3.0324 2.3906
7.4038 -2.7687 2.3906
7.4971 -2.5015 2.3906
7.5806 -2.2311 2.3906
7.6542 -1.9577 2.3906
7.7178 -1.6821 2.3906
7.7714 -1.4043 2.3906
7.8147 -1.1249 2.3906
7.8479 -0.8441 2.3906
7.8708 -0.5623 2.3906
7.8835 -0.2800 2.3906
7.8859 0.0024 2.3906
7.8780 0.2848 2.3906
7.8599 0.5666 2.3906
7.8316 0.8474 2.3906
7.7931 1.1269 2.3906
7.7445 1.4047 2.3906
7.6859 1.6805 2.3906
7.6174 1.9539 2.3906
7.5391 2.2245 2.3906
7.4510 2.4920 2.3906
7.3533 2.7559 2.3906
7.2462 3.0161 2.3906
7.1298 3.2721 2.3906
7.0043 3.5236 2.3906
6.8699 3.7703 2.3906
6.7267 4.0118 2.3906
6.5749 4.2479 2.3906
6.4148 4.4783 2.3906
6.2466 4.7026 2.3906
6.0705 4.9206 2.3906
5.8868 5.1320 2.3906
5.6957 5.3365 2.3906
5.4974 5.5339 2.3906
5.2923 5.7240 2.3906
5.0806 5.9064 2.3906
4.8626 6.0811 2.3906
4.6386 6.2477 2.3906
4.4089 6.4060 2.3906
4.1738 6.5560 2.3906
3.9335 6.6973 2.3906
3.6887 6.8299 2.3906
3.4393 6.9535 2.3906
3.1857 7.0681 2.3906
2.9284 7.1735 2.3906
2.6676 7.2695 2.3906
2.4037 7.3562 2.3906
0.8506 2.9586 0.9515
0.7439 2.9874 0.9521
0.6363 3.0124 0.9527
0.5279 3.0334 0.9533
0.4187 3.0505 0.9539
0.3090 3.0637 0.9545
0.1989 3.0729 0.9550
0.0885 3.0781 0.9555
-0.0220 3.0793 0.9560
-0.1325 3.0765 0.9565
-0.2429 3.0698 0.9570
-0.3529 3.0590 0.9574
-0.4624 3.0443 0.9578
-0.5714 3.0257 0.9582
-0.6796 3.0031 0.9586
-0.7869 2.9766 0.9590
-0.8932 2.9463 0.9593
-2.4871 7.2548 2.3906
-2.7449 7.1582 2.3906
-2.9991 7.0525 2.3906
-3.2493 6.9380 2.3906
-3.4952 6.8147 2.3906
-3.7365 6.6829 2.3906
-3.9730 6.5426 2.3906
-4.2044 6.3940 2.3906
-4.4301 6.2375 2.3906
-4.6502 6.0731 2.3906
-4.8644 5.9010 2.3906
-5.0722 5.7216 2.3906
-5.2736 5.5349 2.3906
-5.4682 5.3412 2.3906
-5.6558 5.1408 2.3906
-5.8363 4.9340 2.3906
-6.0093 4.7209 2.3906
-6.1746 4.5018 2.3906
-6.3322 4.2771 2.3906
-6.4816 4.0469 2.3906
-6.6229 3.8116 2.3906
-6.7558 3.5714 2.3906
-6.8801 3.3267 2.3906
-6.9957 3.0778 2.3906
-7.1025 2.8249 2.3906
-7.2002 2.5683 2.3906
-7.2889 2.3084 2.3906
-7.3683 2.0455 2.3906
-7.4384 1.7799 2.3906
-7.4991 1.5120 2.3906
-7.5503 1.2421 2.3906
-7.5919 0.9704 2.3906
-7.6239 0.6974 2.3906
-7.6463 0.4233 2.3906
-7.6589 0.1485 2.3906
-7.6618 -0.1266 2.3906
-7.6550 -0.4017 2.3906
-7.6384 -0.6765 2.3906
-7.6121 -0.9506 2.3906
-7.5760 -1.2238 2.3906
-7.5303 -1.4956 2.3906
-7.4750 -1.7657 2.3906
-7.4101 -2.0337 2.3906
-7.3357 -2.2995 2.3906
-7.2519 -2.5625 2.3906
-7.1587 -2.8225 2.3906
-7.0564 -3.0791 2.3906
-6.9449 -3.3320 2.3906
-6.8244 -3.5810 2.3906
-6.6951 -3.8256 2.3906
-6.5571 -4.0656 2.3906
-6.4106 -4.3006 2.3906
-6.2557 -4.5304 2.3906
-6.0926 -4.7547 2.3906
-5.9215 -4.9731 2.3906
-5.7427 -5.1853 2.3906
-5.5563 -5.3912 2.3906
-5.3626 -5.5904 2.3906
-5.1617 -5.7826 2.3906
-4.9540 -5.9676 2.3906
-4.7397 -6.1452 2.3906
-4.5190 -6.3151 2.3906
-4.2923 -6.4770 2.3906
-4.0598 -6.6309 2.3906
-3.8218 -6.7763 2.3906
-3.5785 -6.9132 2.3906
-3.3304 -7.0414 2.3906
-3.0778 -7.1606 2.3906
-2.8208 -7.2707 2.3906
-2.5599 -7.3716 2.3906
-2.2954 -7.4631 2.3906
-2.0276 -7.5450 2.3906
-1.7569 -7.6173 2.3906
-1.4836 -7.6798 2.3906
-1.2082 -7.7324 2.3906
-0.9308 -7.7751 2.3906
-0.6520 -7.8078 2.3906
-0.3720 -7.8304 2.3906
-0.0912 -7.8428 2.3906
0.1899 -7.8452 2.3906
0.4711 -7.8373 2.3906
0.7520 -7.8192 2.3906
1.0321 -7.7910 2.3906
1.3112 -7.7527 2.3906
1.5887 -7.7042 2.3906
1.8645 -7.6457 2.3906
2.1381 -7.5772 2.3906
2.4091 -7.4988 2.3906
2.6771 -7.4105 2.3906
2.9419 -7.3126 2.3906
3.2031 -7.2051 2.3906
3.4602 -7.0881 2.3906
3.7130 -6.9618 2.3906
3.9611 -6.8264 2.3906
4.2041 -6.6820 2.3906
4.4419 -6.5288 2.3906
4.6739 -6.3671 2.3906
4.8999 -6.1970 2.3906
5.1197 -6.0187 2.3906
5.3328 -5.8325 2.3906
5.5391 -5.6386 2.3906
5.7382 -5.4374 2.3906
5.9298 -5.2290 2.3906
6.1137 -5.0137 2.3906
6.2897 -4.7919 2.3906
6.4575 -4.5638 2.3906
6.6169 -4.3297 2.3906
6.7676 -4.0900 2.3906
6.9096 -3.8450 2.3906
7.0425 -3.5949 2.3906
7.1661 -3.3402 2.3906
7.2805 -3.0812 2.3906
7.3853 -2.8182 2.3906
7.4804 -2.5516 2.3906
7.5658 -2.2819 2.3906
7.6413 -2.0091 2.3906
7.7067 -1.7338 2.3906
7.7621 -1.4563 2.3906
7.8074 -1.1772 2.3906
7.8425 -0.8966 2.3906
7.8673 -0.6150 2.3906
7.8819 -0.3328 2.3906
7.8862 -0.0503 2.3906
7.8803 0.2321 2.3906
7.8641 0.5140 2.3906
7.8377 0.7950 2.3906
7.8011 1.0748 2.3906
7.7544 1.3530 2.3906
7.6977 1.6292 2.3906
7.6310 1.9031 2.3906
7.5544 2.1742 2.3906
7.4682 2.4423 2.3906
7.3723 2.7069 2.3906
7.2669 2.9678 2.3906
7.1523 3.2246 2.3906
7.0284 3.4770 2.3906
6.8957 3.7246 2.3906
6.7541 3.9672 2.3906
6.6039 4.2043 2.3906
6.4453 4.4357 2.3906
6.2787 4.6611 2.3906
6.1040 4.8804 2.3906
5.9217 5.0930 2.3906
5.7319 5.2989 2.3906
5.5350 5.4976 2.3906
5.3311 5.6891 2.3906
5.1206 5.8730 2.3906
4.9038 6.0491 2.3906
4.6809 6.2172 2.3906
4.4523 6.3771 2.3906
4.2181 6.5286 2.3906
3.9789 6.6716 2.3906
3.7349 6.8058 2.3906
3.4862 6.9311 2.3906
3.2334 7.0474 2.3906
2.9767 7.1545 2.3906
2.7166 7.2523 2.3906
2.4532 7.3407 2.3906
0.8704 2.9528 0.9514
0.7639 2.9823 0.9520
0.6565 3.0080 0.9526
0.5482 3.0298 0.9532
0.4391 3.0476 0.9538
0.3295 3.0615 0.9544
0.2195 3.0715 0.9549
0.1091 3.0774 0.9554
-0.0014 3.0794 0.9559
-0.1119 3.0774 0.9564
-0.2223 3.0713 0.9569
-0.3324 3.0613 0.9573
-0.4420 3.0474 0.9578
-0.8440 2.7189 0.9580
-2.3477 6.7025 2.3906
-2.5858 6.6116 2.3906
-2.8206 6.5124 2.3906
-3.0517 6.4049 2.3906
-3.2789 6.2894 2.3906
-3.5016 6.1659 2.3906
-3.7197 6.0347 2.3906
-3.9331 5.8958 2.3906
-4.1414 5.7495 2.3906
-4.3444 5.5959 2.3906
-4.5417 5.4353 2.3906
-4.7333 5.2678 2.3906
-4.9186 5.0937 2.3906
-5.0977 4.9132 2.3906
-5.2704 4.7265 2.3906
-5.4363 4.5338 2.3906
-5.5953 4.3353 2.3906
-5.7471 4.1314 2.3906
-5.8917 3.9223 2.3906
-6.0288 3.7081 2.3906
-6.1582 3.4893 2.3906
-6.2798 3.2660 2.3906
-6.3934 3.0385 2.3906
-6.4990 2.8072 2.3906
-6.5963 2.5722 2.3906
-6.6852 2.3340 2.3906
-6.7657 2.0926 2.3906
-6.8376 1.8486 2.3906
-6.9008 1.6022 2.3906
-6.9553 1.3536 2.3906
-7.0009 1.1032 2.3906
-7.0377 0.8513 2.3906
-7.0655 0.5981 2.3906
-7.0844 0.3441 2.3906
-7.0943 0.0896 2.3906
-7.0951 -0.1653 2.3906
-7.0869 -0.4201 2.3906
-7.0697 -0.6745 2.3906
-7.0435 -0.9282 2.3906
-7.0083 -1.1809 2.3906
-6.9641 -1.4323 2.3906
-6.9110 -1.6821 2.3906
-6.8490 -1.9299 2.3906
-6.7783 -2.1754 2.3906
-6.6988 -2.4184 2.3906
-6.6107 -2.6585 2.3906
-6.5141 -2.8954 2.3906
-6.4091 -3.1288 2.3906
-6.2958 -3.3585 2.3906
-6.1744 -3.5841 2.3906
-6.0449 -3.8053 2.3906
-5.9076 -4.0218 2.3906
-5.7625 -4.2334 2.3906
-5.6100 -4.4398 2.3906
-5.4500 -4.6408 2.3906
-5.2830 -4.8360 2.3906
-5.1090 -5.0252 2.3906
-4.9282 -5.2081 2.3906
-4.7409 -5.3846 2.3906
-4.5473 -5.5543 2.3906
-4.3477 -5.7171 2.3906
-4.1423 -5.8727 2.3906
-3.9313 -6.0210 2.3906
-3.7150 -6.1617 2.3906
-3.4937 -6.2944 2.3906
-3.2675 -6.4192 2.3906
-3.0370 -6.5360 2.3906
-2.8025 -6.6446 2.3906
-2.5640 -6.7446 2.3906
-2.3219 -6.8361 2.3906
-2.0765 -6.9187 2.3906
-1.8282 -6.9926 2.3906
-1.5773 -7.0575 2.3906
-1.3241 -7.1133 2.3906
-1.0689 -7.1600 2.3906
-0.8120 -7.1975 2.3906
-0.5539 -7.2257 2.3906
-0.2948 -7.2446 2.3906
-0.0351 -7.2541 2.3906
0.2249 -7.2542 2.3906
0.4849 -7.2449 2.3906
0.7445 -7.2262 2.3906
1.0033 -7.1981 2.3906
1.2610 -7.1607 2.3906
1.5173 -7.1139 2.3906
1.7719 -7.0579 2.3906
2.0243 -6.9926 2.3906
2.2743 -6.9183 2.3906
2.5215 -6.8348 2.3906
2.7656 -6.7424 2.3906
3.0063 -6.6413 2.3906
3.2432 -6.5313 2.3906
3.4760 -6.4129 2.3906
3.7044 -6.2860 2.3906
3.9281 -6.1509 2.3906
4.1468 -6.0077 2.3906
4.3602 -5.8567 2.3906
4.5680 -5.6979 2.3906
4.7699 -5.5317 2.3906
4.9657 -5.3582 2.3906
5.1550 -5.1777 2.3906
5.3377 -4.9904 2.3906
5.5135 -4.7966 2.3906
5.6821 -4.5964 2.3906
5.8433 -4.3903 2.3906
5.9970 -4.1784 2.3906
6.1428 -3.9611 2.3906
6.2806 -3.7386 2.3906
6.4102 -3.5112 2.3906
6.5315 -3.2793 2.3906
6.6443 -3.0432 2.3906
6.7483 -2.8031 2.3906
6.8436 -2.5594 2.3906
6.9299 -2.3124 2.3906
7.0072 -2.0626 2.3906
7.0753 -1.8100 2.3906
7.1342 -1.5552 2.3906
7.1838 -1.2985 2.3906
7.2240 -1.0402 2.3906
7.2548 -0.7807 2.3906
7.2762 -0.5204 2.3906
7.2880 -0.2594 2.3906
7.2904 0.0018 2.3906
7.2833 0.2628 2.3906
7.2667 0.5233 2.3906
7.2407 0.7829 2.3906
7.2054 1.0413 2.3906
7.1607 1.2982 2.3906
7.1067 1.5533 2.3906
7.0435 1.8060 2.3906
6.9713 2.0563 2.3906
6.8901 2.3037 2.3906
6.8000 2.5478 2.3906
6.7012 2.7885 2.3906
6.5939 3.0253 2.3906
6.4780 3.2580 2.3906
6.3539 3.4863 2.3906
6.2217 3.7099 2.3906
6.0816 3.9283 2.3906
5.9338 4.1415 2.3906
5.7785 4.3491 2.3906
5.6158 4.5509 2.3906
5.4461 4.7467 2.3906
5.2695 4.9361 2.3906
5.0863 5.1189 2.3906
4.8968 5.2949 2.3906
4.7011 5.4639 2.3906
4.4996 5.6257 2.3906
4.2926 5.7801 2.3906
4.0802 5.9269 2.3906
3.8628 6.0659 2.3906
3.6407 6.1969 2.3906
3.4142 6.3199 2.3906
3.1835 6.4346 2.3906
2.9490 6.5409 2.3906
2.7109 6.6386 2.3906
2.4698 6.7278 2.3906
0.8846 2.7060 0.9502
0.7870 2.7361 0.9507
0.6883 2.7627 0.9513
0.5888 2.7858 0.9519
0.4885 2.8052 0.9524
0.3875 2.8210 0.9529
0.2861 2.8332 0.9535
0.1842 2.8417 0.9540
0.0821 2.8465 0.9544
-0.0201 2.8476 0.9549
-0.1223 2.8450 0.9553
-0.2243 2.8388 0.9558
-0.3261 2.8288 0.9562
-0.4274 2.8152 0.9566
-0.5281 2.7980 0.9570
-0.6282 2.7771 0.9573
-0.7275 2.7526 0.9576
-0.8258 2.7246 0.9579
-2.3027 6.7186 2.3906
-2.5415 6.6293 2.3906
-2.7772 6.5315 2.3906
-3.0089 6.4256 2.3906
-3.2368 6.3116 2.3906
-3.4605 6.1895 2.3906
-3.6794 6.0597 2.3906
-3.8936 5.9223 2.3906
-4.1028 5.7774 2.3906
-4.3069 5.6251 2.3906
-4.5052 5.4658 2.3906
-4.6978 5.2996 2.3906
-4.8847 5.1267 2.3906
-5.0648 4.9474 2.3906
-5.2386 4.7618 2.3906
-5.4058 4.5702 2.3906
-5.5661 4.3728 2.3906
-5.7193 4.1699 2.3906
-5.8653 3.9617 2.3906
-6.0037 3.7485 2.3906
-6.1346 3.5305 2.3906
-6.2577 3.3080 2.3906
-6.3728 3.0813 2.3906
-6.4799 2.8507 2.3906
-6.5787 2.6164 2.3906
-6.6692 2.3787 2.3906
-6.7513 2.1379 2.3906
-6.8248 1.8944 2.3906
-6.8896 1.6483 2.3906
-6.9458 1.4002 2.3906
-6.9931 1.1501 2.3906
-7.0315 0.8984 2.3906
-7.0610 0.6455 2.3906
-7.0816 0.3916 2.3906
-7.0931 0.1371 2.3906
-7.0957 -0.1177 2.3906
-7.0892 -0.3725 2.3906
-7.0736 -0.6270 2.3906
-7.0491 -0.8809 2.3906
-7.0155 -1.1338 2.3906
-6.9730 -1.3855 2.3906
-6.9216 -1.6356 2.3906
-6.8613 -1.8838 2.3906
-6.7921 -2.1298 2.3906
-6.7143 -2.3732 2.3906
-6.6278 -2.6139 2.3906
-6.5328 -2.8514 2.3906
-6.4294 -3.0855 2.3906
-6.3176 -3.3159 2.3906
-6.1977 -3.5423 2.3906
-6.0697 -3.7643 2.3906
-5.9338 -3.9817 2.3906
-5.7902 -4.1943 2.3906
-5.6390 -4.4017 2.3906
-5.4805 -4.6037 2.3906
-5.3147 -4.8000 2.3906
-5.1420 -4.9903 2.3906
-4.9624 -5.1744 2.3906
-4.7764 -5.3521 2.3906
-4.5839 -5.5232 2.3906
-4.3854 -5.6873 2.3906
-4.1811 -5.8442 2.3906
-3.9711 -5.9938 2.3906
-3.7558 -6.1360 2.3906
-3.5355 -6.2704 2.3906
-3.3101 -6.3966 2.3906
-3.0804 -6.5148 2.3906
-2.8466 -6.6250 2.3906
-2.6088 -6.7266 2.3906
-2.3673 -6.8197 2.3906
-2.1225 -6.9040 2.3906
-1.8748 -6.9795 2.3906
-1.6243 -7.0461 2.3906
-1.3715 -7.1036 2.3906
-1.1167 -7.1520 2.3906
-0.8601 -7.1912 2.3906
-0.6022 -7.2211 2.3906
-0.3433 -7.2418 2.3906
-0.0836 -7.2530 2.3906
0.1764 -7.2549 2.3906
0.4364 -7.2474 2.3906
0.6960 -7.2304 2.3906
0.9550 -7.2041 2.3906
1.2130 -7.1684 2.3906
1.4696 -7.1234 2.3906
1.7245 -7.0691 2.3906
1.9774 -7.0055 2.3906
2.2278 -6.9328 2.3906
2.4756 -6.8511 2.3906
2.7203 -6.7604 2.3906
2.9616 -6.6608 2.3906
3.1992 -6.5525 2.3906
3.4328 -6.4356 2.3906
3.6621 -6.3103 2.3906
3.8867 -6.1768 2.3906
4.1064 -6.0351 2.3906
4.3208 -5.8855 2.3906
4.5296 -5.7281 2.3906
4.7327 -5.5633 2.3906
4.9296 -5.3911 2.3906
5.1202 -5.2119 2.3906
5.3041 -5.0259 2.3906
5.4812 -4.8332 2.3906
5.6512 -4.6343 2.3906
5.8138 -4.4292 2.3906
5.9689 -4.2184 2.3906
6.1162 -4.0021 2.3906
6.2555 -3.7805 2.3906
6.3867 -3.5541 2.3906
6.5095 -3.3230 2.3906
6.6239 -3.0876 2.3906
6.7296 -2.8482 2.3906
6.8265 -2.6052 2.3906
6.9145 -2.3588 2.3906
6.9934 -2.1094 2.3906
7.0633 -1.8573 2.3906
7.1239 -1.6030 2.3906
7.1752 -1.3466 2.3906
7.2172 -1.0886 2.3906
7.2496 -0.8283 2.3906
7.2729 -0.5689 2.3906
7.2865 -0.3081 2.3906
7.2907 -0.0470 2.3906
7.2853 0.2141 2.3906
7.2705 0.4747 2.3906
7.2463 0.7345 2.3906
7.2127 0.9932 2.3906
7.1697 1.2504 2.3906
7.1175 1.5058 2.3906
7.0560 1.7590 2.3906
6.9855 2.0098 2.3906
6.9060 2.2577 2.3906
6.8175 2.5025 2.3906
6.7203 2.7438 2.3906
6.6146 2.9813 2.3906
6.5003 3.2149 2.3906
6.3777 3.4440 2.3906
6.2470 3.6684 2.3906
6.1084 3.8879 2.3906
5.9620 4.1021 2.3906
5.8080 4.3108 2.3906
5.6467 4.5137 2.3906
5.4783 4.7106 2.3906
5.3030 4.9012 2.3906
5.1210 5.0853 2.3906
4.9326 5.2626 2.3906
4.7381 5.4329 2.3906
4.5377 5.5961 2.3906
4.3316 5.7519 2.3906
4.1203 5.9001 2.3906
3.9038 6.0405 2.3906
3.6826 6.1731 2.3906
3.4568 6.2975 2.3906
3.2269 6.4138 2.3906
2.9933 6.5217 2.3906
2.7556 6.6210 2.3906
2.5150 6.7118 2.3906
0.9027 2.7000 0.9500
0.8053 2.7308 0.9506
0.7068 2.7580 0.9512
0.6074 2.7818 0.9518
0.5073 2.8019 0.9523
0.4064 2.8184 0.9528
0.3050 2.8312 0.9534
0.2033 2.8404 0.9539
0.1012 2.8459 0.9543
-0.0010 2.8477 0.9548
-0.1032 2.8458 0.9553
-0.2053 2.8402 0.9557
-0.3071 2.8310 0.9561
-0.4085 2.8181 0.9565
-0.7839 2.5260 0.9568
-0.8740 2.4960 0.9571
-2.4049 6.1503 2.3906
-2.6233 6.0581 2.3906
-2.8384 5.9582 2.3906
-3.0497 5.8508 2.3906
-3.2569 5.7361 2.3906
-3.4600 5.6140 2.3906
-3.6586 5.4849 2.3906
-3.8526 5.3488 2.3906
-4.0413 5.2061 2.3906
-4.2250 5.0567 2.3906
-4.4032 4.9009 2.3906
-4.5758 4.7390 2.3906
-4.7425 4.5710 2.3906
-4.9031 4.3973 2.3906
-5.0575 4.2180 2.3906
-5.2055 4.0334 2.3906
-5.3468 3.8437 2.3906
-5.4813 3.6491 2.3906
-5.6089 3.4498 2.3906
-5.7293 3.2462 2.3906
-5.8424 3.0384 2.3906
-5.9481 2.8268 2.3906
-6.0463 2.6115 2.3906
-6.1368 2.3929 2.3906
-6.2195 2.1712 2.3906
-6.2943 1.9466 2.3906
-6.3611 1.7195 2.3906
-6.4199 1.4902 2.3906
-6.4705 1.2589 2.3906
-6.5129 1.0259 2.3906
-6.5470 0.7916 2.3906
-6.5728 0.5560 2.3906
-6.5902 0.3197 2.3906
-6.5993 0.0829 2.3906
-6.6000 -0.1542 2.3906
-6.5922 -0.3912 2.3906
-6.5760 -0.6279 2.3906
-6.5515 -0.8639 2.3906
-6.5186 -1.0989 2.3906
-6.4773 -1.3328 2.3906
-6.4277 -1.5651 2.3906
-6.3699 -1.7955 2.3906
-6.3040 -2.0239 2.3906
-6.2299 -2.2498 2.3906
-6.1478 -2.4730 2.3906
-6.0578 -2.6933 2.3906
-5.9599 -2.9103 2.3906
-5.8544 -3.1238 2.3906
-5.7412 -3.3335 2.3906
-5.6207 -3.5391 2.3906
-5.4928 -3.7403 2.3906
-5.3577 -3.9370 2.3906
-5.2157 -4.1288 2.3906
-5.0668 -4.3155 2.3906
-4.9113 -4.4968 2.3906
-4.7493 -4.6725 2.3906
-4.5811 -4.8425 2.3906
-4.4068 -5.0063 2.3906
-4.2267 -5.1640 2.3906
-4.0410 -5.3151 2.3906
-3.8498 -5.4596 2.3906
-3.6536 -5.5971 2.3906
-3.4525 -5.7277 2.3906
-3.2466 -5.8510 2.3906
-3.0363 -5.9667 2.3906
-2.8219 -6.0750 2.3906
-2.6039 -6.1757 2.3906
-2.3821 -6.2685 2.3906
-2.1570 -6.3532 2.3906
-1.9289 -6.4298 2.3906
-1.6981 -6.4982 2.3906
-1.4649 -6.5583 2.3906
-1.2296 -6.6099 2.3906
-0.9924 -6.6531 2.3906
-0.7538 -6.6877 2.3906
-0.5139 -6.7137 2.3906
-0.2732 -6.7310 2.3906
-0.0319 -6.7396 2.3906
0.2096 -6.7395 2.3906
0.4511 -6.7307 2.3906
0.6922 -6.7131 2.3906
0.9326 -6.6868 2.3906
1.1720 -6.6519 2.3906
1.4101 -6.6082 2.3906
1.6465 -6.5560 2.3906
1.8809 -6.4953 2.3906
2.1130 -6.4260 2.3906
2.3426 -6.3484 2.3906
2.5692 -6.2624 2.3906
2.7927 -6.1683 2.3906
3.0127 -6.0661 2.3906
3.2288 -5.9560 2.3906
3.4409 -5.8381 2.3906
3.6485 -5.7125 2.3906
3.8516 -5.5795 2.3906
4.0497 -5.4391 2.3906
4.2426 -5.2916 2.3906
4.4301 -5.1372 2.3906
4.6118 -4.9761 2.3906
4.7876 -4.8084 2.3906
4.9572 -4.6344 2.3906
5.1204 -4.4544 2.3906
5.2769 -4.2686 2.3906
5.4266 -4.0771 2.3906
5.5693 -3.8804 2.3906
5.7047 -3.6786 2.3906
5.8327 -3.4720 2.3906
5.9530 -3.2609 2.3906
6.0657 -3.0455 2.3906
6.1704 -2.8263 2.3906
6.2671 -2.6033 2.3906
6.3556 -2.3771 2.3906
6.4358 -2.1478 2.3906
6.5076 -1.9157 2.3906
6.5709 -1.6812 2.3906
6.6257 -1.4447 2.3906
6.6718 -1.2063 2.3906
6.7093 -0.9665 2.3906
6.7380 -0.7254 2.3906
6.7579 -0.4836 2.3906
6.7691 -0.2413 2.3906
6.7714 0.0013 2.3906
6.7650 0.2436 2.3906
6.7497 0.4856 2.3906
6.7257 0.7267 2.3906
6.6930 0.9668 2.3906
6.6517 1.2054 2.3906
6.6017 1.4423 2.3906
6.5433 1.6772 2.3906
6.4763 1.9097 2.3906
6.4011 2.1395 2.3906
6.3176 2.3664 2.3906
6.2260 2.5900 2.3906
6.1265 2.8101 2.3906
6.0191 3.0263 2.3906
5.9039 3.2386 2.3906
5.7813 3.4463 2.3906
5.6513 3.6495 2.3906
5.5142 3.8477 2.3906
5.3700 4.0408 2.3906
5.2190 4.2284 2.3906
5.0615 4.4105 2.3906
4.8976 4.5866 2.3906
4.7275 4.7567 2.3906
4.5515 4.9205 2.3906
4.3699 5.0777 2.3906
4.1828 5.2284 2.3906
3.9905 5.3720 2.3906
3.7932 5.5086 2.3906
3.5913 5.6380 2.3906
3.3850 5.7600 2.3906
3.1745 5.8745 2.3906
2.9602 5.9813 2.3906
2.7423 6.0804 2.3906
2.5211 6.1715 2.3906
0.9118 2.4828 0.9490
0.8221 2.5141 0.9495
0.7315 2.5421 0.9501
0.6398 2.5668 0.9506
0.5473 2.5882 0.9511
0.4541 2.6062 0.9516
0.3603 2.6209 0.9521
0.2660 2.6322 0.9526
0.1714 2.6400 0.9530
0.0766 2.6445 0.9535
-0.0184 2.6455 0.9539
-0.1133 2.6431 0.9543
-0.2081 2.6373 0.9547
-0.3027 2.6281 0.9551
-0.3968 2.6154 0.9555
-0.4904 2.5994 0.9558
-0.5834 2.5800 0.9562
-0.6756 2.5573 0.9565
-0.7669 2.5312 0.9568
-0.8573 2.5019 0.9570
-2.3637 6.1667 2.3906
-2.5828 6.0759 2.3906
-2.7986 5.9775 2.3906
-3.0105 5.8715 2.3906
-3.2186 5.7581 2.3906
-3.4225 5.6374 2.3906
-3.6219 5.5096 2.3906
-3.8169 5.3747 2.3906
-4.0064 5.2332 2.3906
-4.1911 5.0851 2.3906
-4.3703 4.9305 2.3906
-4.5440 4.7697 2.3906
-4.7118 4.6029 2.3906
-4.8736 4.4302 2.3906
-5.0292 4.2519 2.3906
-5.1784 4.0683 2.3906
-5.3209 3.8795 2.3906
-5.4567 3.6858 2.3906
-5.5856 3.4874 2.3906
-5.7073 3.2846 2.3906
-5.8218 3.0775 2.3906
-5.9290 2.8666 2.3906
-6.0285 2.6520 2.3906
-6.1205 2.4339 2.3906
-6.2046 2.2128 2.3906
-6.2809 1.9888 2.3906
-6.3493 1.7621 2.3906
-6.4095 1.5332 2.3906
-6.4617 1.3023 2.3906
-6.5056 1.0696 2.3906
-6.5413 0.8354 2.3906
-6.5686 0.6001 2.3906
-6.5876 0.3639 2.3906
-6.5982 0.1271 2.3906
-6.6005 -0.1099 2.3906
-6.5943 -0.3470 2.3906
-6.5797 -0.5837 2.3906
-6.5567 -0.8199 2.3906
-6.5254 -1.0551 2.3906
-6.4856 -1.2892 2.3906
-6.4376 -1.5218 2.3906
-6.3814 -1.7526 2.3906
-6.3169 -1.9814 2.3906
-6.2443 -2.2078 2.3906
-6.1637 -2.4316 2.3906
-6.0752 -2.6524 2.3906
-5.9788 -2.8701 2.3906
-5.8747 -3.0842 2.3906
-5.7629 -3.2946 2.3906
-5.6437 -3.5010 2.3906
-5.5172 -3.7031 2.3906
-5.3835 -3.9006 2.3906
-5.2427 -4.0933 2.3906
-5.0951 -4.2810 2.3906
-4.9408 -4.4633 2.3906
-4.7800 -4.6402 2.3906
-4.6130 -4.8112 2.3906
-4.4398 -4.9762 2.3906
-4.2608 -5.1350 2.3906
-4.0761 -5.2874 2.3906
-3.8859 -5.4331 2.3906
-3.6906 -5.5720 2.3906
-3.4903 -5.7038 2.3906
-3.2854 -5.8285 2.3906
-3.0760 -5.9458 2.3906
-2.8624 -6.0555 2.3906
-2.6449 -6.1575 2.3906
-2.4238 -6.2517 2.3906
-2.1993 -6.3380 2.3906
-1.9717 -6.4161 2.3906
-1.7414 -6.4861 2.3906
-1.5087 -6.5477 2.3906
-1.2737 -6.6009 2.3906
-1.0369 -6.6457 2.3906
-0.7985 -6.6819 2.3906
-0.5588 -6.7095 2.3906
-0.3182 -6.7284 2.3906
-0.0770 -6.7387 2.3906
0.1645 -6.7402 2.3906
0.4061 -6.7330 2.3906
0.6473 -6.7171 2.3906
0.8878 -6.6924 2.3906
1.1274 -6.6591 2.3906
1.3657 -6.6171 2.3906
1.6025 -6.5664 2.3906
1.8373 -6.5072 2.3906
2.0699 -6.4396 2.3906
2.2999 -6.3635 2.3906
2.5272 -6.2791 2.3906
2.7512 -6.1865 2.3906
2.9719 -6.0858 2.3906
3.1887 -5.9772 2.3906
3.4016 -5.8607 2.3906
3.6101 -5.7366 2.3906
3.8140 -5.6049 2.3906
4.0131 -5.4659 2.3906
4.2070 -5.3197 2.3906
4.3955 -5.1666 2.3906
4.5783 -5.0066 2.3906
4.7552 -4.8402 2.3906
4.9260 -4.6674 2.3906
5.0904 -4.4885 2.3906
5.2482 -4.3037 2.3906
5.3992 -4.1133 2.3906
5.5432 -3.9175 2.3906
5.6800 -3.7166 2.3906
5.8093 -3.5109 2.3906
5.9311 -3.3006 2.3906
6.0452 -3.0861 2.3906
6.1514 -2.8675 2.3906
6.2496 -2.6452 2.3906
6.3397 -2.4196 2.3906
6.4214 -2.1908 2.3906
6.4948 -1.9592 2.3906
6.5598 -1.7252 2.3906
6.6161 -1.4890 2.3906
6.6639 -1.2509 2.3906
6.7029 -1.0113 2.3906
6.7333 -0.7705 2.3906
6.7549 -0.5288 2.3906
6.7677 -0.2866 2.3906
6.7716 -0.0441 2.3906
6.7668 0.1984 2.3906
6.7532 0.4404 2.3906
6.7309 0.6818 2.3906
6.6998 0.9220 2.3906
6.6601 1.1610 2.3906
6.6117 1.3982 2.3906
6.5548 1.6335 2.3906
6.4895 1.8664 2.3906
6.4158 2.0968 2.3906
6.3338 2.3243 2.3906
6.2437 2.5485 2.3906
6.1457 2.7693 2.3906
6.0397 2.9863 2.3906
5.9260 3.1992 2.3906
5.8048 3.4079 2.3906
5.6761 3.6119 2.3906
5.5403 3.8111 2.3906
5.3974 4.0051 2.3906
5.2477 4.1938 2.3906
5.0914 4.3769 2.3906
4.9287 4.5542 2.3906
4.7597 4.7254 2.3906
4.5848 4.8904 2.3906
4.4042 5.0489 2.3906
4.2181 5.2007 2.3906
4.0268 5.3457 2.3906
3.8304 5.4836 2.3906
3.6294 5.6144 2.3906
3.4238 5.7378 2.3906
3.2141 5.8537 2.3906
3.0005 5.9620 2.3906
2.7832 6.0625 2.3906
2.5626 6.1551 2.3906
0.9284 2.4766 0.9489
0.8390 2.5085 0.9494
0.7485 2.5371 0.9500
0.6570 2.5624 0.9505
0.5647 2.5844 0.9510
0.4716 2.6031 0.9515
0.3779 2.6184 0.9520
0.2837 2.6303 0.9525
0.1891 2.6388 0.9530
0.0943 2.6439 0.9534
-0.0007 2.6456 0.9538
-0.0956 2.6438 0.9543
-0.1904 2.6387 0.9547
-0.2850 2.6301 0.9551
-0.3793 2.6180 0.9554
-0.7309 2.3560 0.9558
-0.8150 2.3281 0.9560
-0.8980 2.2971 0.9562
-2.4492 5.6570 2.3906
-2.6500 5.5639 2.3906
-2.8475 5.4636 2.3906
-3.0411 5.3565 2.3906
-3.2308 5.2426 2.3906
-3.4162 5.1221 2.3906
-3.5973 4.9951 2.3906
-3.7737 4.8618 2.3906
-3.9453 4.7223 2.3906
-4.1118 4.5769 2.3906
-4.2730 4.4257 2.3906
-4.4288 4.2689 2.3906
-4.5788 4.1066 2.3906
-4.7231 3.9392 2.3906
-4.8613 3.7668 2.3906
-4.9933 3.5896 2.3906
-5.1189 3.4078 2.3906
-5.2380 3.2217 2.3906
-5.3505 3.0315 2.3906
-5.4561 2.8375 2.3906
-5.5549 2.6398 2.3906
-5.6465 2.4387 2.3906
-5.7310 2.2345 2.3906
-5.8082 2.0274 2.3906
-5.8780 1.8177 2.3906
-5.9404 1.6056 2.3906
-5.9952 1.3914 2.3906
-6.0424 1.1754 2.3906
-6.0819 0.9577 2.3906
-6.1137 0.7388 2.3906
-6.1377 0.5189 2.3906
-6.1539 0.2982 2.3906
-6.1623 0.0770 2.3906
-6.1628 -0.1444 2.3906
-6.1554 -0.3657 2.3906
-6.1402 -0.5867 2.3906
-6.1172 -0.8071 2.3906
-6.0863 -1.0266 2.3906
-6.0476 -1.2449 2.3906
-6.0012 -1.4618 2.3906
-5.9471 -1.6769 2.3906
-5.8854 -1.8901 2.3906
-5.8161 -2.1010 2.3906
-5.7393 -2.3094 2.3906
-5.6551 -2.5150 2.3906
-5.5636 -2.7175 2.3906
-5.4649 -2.9167 2.3906
-5.3591 -3.1124 2.3906
-5.2464 -3.3042 2.3906
-5.1268 -3.4920 2.3906
-5.0006 -3.6755 2.3906
-4.8679 -3.8544 2.3906
-4.7288 -4.0285 2.3906
-4.5835 -4.1977 2.3906
-4.4322 -4.3616 2.3906
-4.2750 -4.5200 2.3906
-4.1122 -4.6728 2.3906
-3.9440 -4.8198 2.3906
-3.7705 -4.9607 2.3906
-3.5921 -5.0953 2.3906
-3.4088 -5.2235 2.3906
-3.2209 -5.3451 2.3906
-3.0288 -5.4601 2.3906
-2.8326 -5.5680 2.3906
-2.6325 -5.6688 2.3906
-2.4288 -5.7625 2.3906
-2.2218 -5.8489 2.3906
-2.0118 -5.9277 2.3906
-1.7989 -5.9990 2.3906
-1.5836 -6.0627 2.3906
-1.3659 -6.1185 2.3906
-1.1464 -6.1665 2.3906
-0.9251 -6.2066 2.3906
-0.7025 -6.2387 2.3906
-0.4787 -6.2627 2.3906
-0.2542 -6.2787 2.3906
-0.0291 -6.2866 2.3906
0.1962 -6.2863 2.3906
0.4214 -6.2779 2.3906
0.6463 -6.2614 2.3906
0.8705 -6.2367 2.3906
1.0937 -6.2039 2.3906
1.3157 -6.1631 2.3906
1.5361 -6.1142 2.3906
1.7547 -6.0574 2.3906
1.9711 -5.9927 2.3906
2.1851 -5.9202 2.3906
2.3964 -5.8400 2.3906
2.6047 -5.7521 2.3906
2.8098 -5.6567 2.3906
3.0113 -5.5540 2.3906
3.2090 -5.4439 2.3906
3.4026 -5.3268 2.3906
3.5918 -5.2027 2.3906
3.7765 -5.0717 2.3906
3.9563 -4.9341 2.3906
4.1310 -4.7901 2.3906
4.3005 -4.6398 2.3906
4.4643 -4.4835 2.3906
4.6224 -4.3213 2.3906
4.7745 -4.1534 2.3906
4.9205 -3.9801 2.3906
5.0600 -3.8016 2.3906
5.1930 -3.6182 2.3906
5.3192 -3.4300 2.3906
5.4386 -3.2374 2.3906
5.5508 -3.0406 2.3906
5.6558 -2.8398 2.3906
5.7535 -2.6354 2.3906
5.8436 -2.4276 2.3906
5.9262 -2.2166 2.3906
6.0010 -2.0029 2.3906
6.0680 -1.7865 2.3906
6.1271 -1.5679 2.3906
6.1783 -1.3474 2.3906
6.2214 -1.1251 2.3906
6.2564 -0.9015 2.3906
6.2832 -0.6768 2.3906
6.3019 -0.4513 2.3906
6.3124 -0.2254 2.3906
6.3147 0.0008 2.3906
6.3088 0.2268 2.3906
6.2947 0.4524 2.3906
6.2725 0.6772 2.3906
6.2421 0.9011 2.3906
6.2037 1.1237 2.3906
6.1572 1.3446 2.3906
6.1028 1.5637 2.3906
6.0406 1.7805 2.3906
5.9706 1.9950 2.3906
5.8929 2.2066 2.3906
5.8076 2.4153 2.3906
5.7149 2.6206 2.3906
5.6148 2.8224 2.3906
5.5076 3.0204 2.3906
5.3934 3.2143 2.3906
5.2723 3.4039 2.3906
5.1445 3.5889 2.3906
5.0102 3.7691 2.3906
4.8695 3.9443 2.3906
4.7227 4.1143 2.3906
4.5699 4.2787 2.3906
4.4114 4.4375 2.3906
4.2473 4.5905 2.3906
4.0780 4.7374 2.3906
3.9035 4.8780 2.3906
3.7242 5.0123 2.3906
3.5403 5.1399 2.3906
3.3520 5.2608 2.3906
3.1595 5.3749 2.3906
2.9632 5.4819 2.3906
2.7633 5.5818 2.3906
2.5600 5.6744 2.3906
2.3536 5.7596 2.3906
0.8508 2.3159 0.9484
0.7672 2.3450 0.9490
0.6826 2.3711 0.9495
0.5971 2.3942 0.9500
0.5108 2.4141 0.9504
0.4239 2.4309 0.9509
0.3364 2.4446 0.9514
0.2484 2.4551 0.9518
0.1602 2.4624 0.9523
0.0717 2.4666 0.9527
-0.0169 2.4675 0.9531
-0.1055 2.4653 0.9535
-0.1939 2.4599 0.9538
-0.2821 2.4512 0.9542
-0.3699 2.4394 0.9545
-0.4572 2.4245 0.9548
-0.5439 2.4064 0.9552
-0.6299 2.3852 0.9554
-0.7151 2.3609 0.9557
-0.7994 2.3335 0.9560
-0.8826 2.3031 0.9562
-2.4113 5.6736 2.3906
-2.6128 5.5818 2.3906
-2.8109 5.4829 2.3906
-3.0053 5.3770 2.3906
-3.1956 5.2644 2.3906
-3.3819 5.1451 2.3906
-3.5639 5.0193 2.3906
-3.7412 4.8872 2.3906
-3.9137 4.7489 2.3906
-4.0811 4.6045 2.3906
-4.2433 4.4544 2.3906
-4.4001 4.2986 2.3906
-4.5512 4.1373 2.3906
-4.6966 3.9709 2.3906
-4.8359 3.7994 2.3906
-4.9691 3.6230 2.3906
-5.0959 3.4421 2.3906
-5.2163 3.2568 2.3906
-5.3300 3.0674 2.3906
-5.4369 2.8740 2.3906
-5.5370 2.6770 2.3906
-5.6299 2.4765 2.3906
-5.7158 2.2729 2.3906
-5.7943 2.0663 2.3906
-5.8656 1.8570 2.3906
-5.9293 1.6454 2.3906
-5.9856 1.4315 2.3906
-6.0342 1.2158 2.3906
-6.0751 0.9985 2.3906
-6.1084 0.7798 2.3906
-6.1338 0.5600 2.3906
-6.1515 0.3395 2.3906
-6.1613 0.1183 2.3906
-6.1633 -0.1031 2.3906
-6.1574 -0.3244 2.3906
-6.1437 -0.5455 2.3906
-6.1221 -0.7660 2.3906
-6.0927 -0.9857 2.3906
-6.0554 -1.2042 2.3906
-6.0105 -1.4214 2.3906
-5.9578 -1.6369 2.3906
-5.8975 -1.8504 2.3906
-5.8296 -2.0618 2.3906
-5.7542 -2.2707 2.3906
-5.6713 -2.4768 2.3906
-5.5812 -2.6799 2.3906
-5.4838 -2.8798 2.3906
-5.3794 -3.0761 2.3906
-5.2680 -3.2687 2.3906
-5.1497 -3.4572 2.3906
-5.0247 -3.6415 2.3906
-4.8932 -3.8213 2.3906
-4.7552 -3.9964 2.3906
-4.6111 -4.1665 2.3906
-4.4609 -4.3314 2.3906
-4.3048 -4.4908 2.3906
-4.1430 -4.6447 2.3906
-3.9758 -4.7928 2.3906
-3.8033 -4.9348 2.3906
-3.6258 -5.0706 2.3906
-3.4434 -5.2001 2.3906
-3.2564 -5.3230 2.3906
-3.0650 -5.4391 2.3906
-2.8695 -5.5483 2.3906
-2.6701 -5.6506 2.3906
-2.4671 -5.7456 2.3906
-2.2607 -5.8333 2.3906
-2.0512 -5.9136 2.3906
-1.8389 -5.9863 2.3906
-1.6240 -6.0514 2.3906
-1.4067 -6.1087 2.3906
-1.1875 -6.1581 2.3906
-0.9666 -6.1997 2.3906
-0.7442 -6.2333 2.3906
-0.5206 -6.2589 2.3906
-0.2962 -6.2763 2.3906
-0.0712 -6.2857 2.3906
0.1541 -6.2870 2.3906
0.3794 -6.2801 2.3906
0.6043 -6.2651 2.3906
0.8287 -6.2419 2.3906
1.0521 -6.2107 2.3906
1.2743 -6.1713 2.3906
1.4950 -6.1240 2.3906
1.7140 -6.0687 2.3906
1.9308 -6.0054 2.3906
2.1453 -5.9344 2.3906
2.3572 -5.8556 2.3906
2.5661 -5.7691 2.3906
2.7717 -5.6751 2.3906
2.9739 -5.5737 2.3906
3.1723 -5.4650 2.3906
3.3667 -5.3492 2.3906
3.5568 -5.2263 2.3906
3.7424 -5.0967 2.3906
3.9231 -4.9603 2.3906
4.0988 -4.8175 2.3906
4.2692 -4.6684 2.3906
4.4342 -4.5131 2.3906
4.5933 -4.3520 2.3906
4.7466 -4.1851 2.3906
4.8937 -4.0129 2.3906
5.0345 -3.8353 2.3906
5.1687 -3.6528 2.3906
5.2962 -3.4655 2.3906
5.4168 -3.2737 2.3906
5.5304 -3.0777 2.3906
5.6368 -2.8776 2.3906
5.7358 -2.6739 2.3906
5.8274 -2.4667 2.3906
5.9114 -2.2563 2.3906
5.9876 -2.0430 2.3906
6.0561 -1.8271 2.3906
6.1167 -1.6089 2.3906
6.1693 -1.3887 2.3906
6.2139 -1.1668 2.3906
6.2504 -0.9434 2.3906
6.2788 -0.7189 2.3906
6.2990 -0.4935 2.3906
6.3110 -0.2676 2.3906
6.3149 -0.0415 2.3906
6.3105 0.1846 2.3906
6.2980 0.4103 2.3906
6.2772 0.6353 2.3906
6.2484 0.8594 2.3906
6.2115 1.0822 2.3906
6.1665 1.3035 2.3906
6.1136 1.5229 2.3906
6.0528 1.7402 2.3906
5.9842 1.9551 2.3906
5.9080 2.1673 2.3906
5.8241 2.3765 2.3906
5.7327 2.5825 2.3906
5.6341 2.7850 2.3906
5.5282 2.9837 2.3906
5.4153 3.1784 2.3906
5.2954 3.3688 2.3906
5.1689 3.5547 2.3906
5.0358 3.7358 2.3906
4.8963 3.9120 2.3906
4.7506 4.0829 2.3906
4.5989 4.2484 2.3906
4.4414 4.4083 2.3906
4.2784 4.5624 2.3906
4.1100 4.7104 2.3906
3.9365 4.8522 2.3906
3.7580 4.9877 2.3906
3.5750 5.1166 2.3906
3.3874 5.2388 2.3906
3.1958 5.3541 2.3906
3.0002 5.4624 2.3906
2.8009 5.5636 2.3906
2.5982 5.6576 2.3906
2.3924 5.7442 2.3906
0.8663 2.3101 0.9483
0.7829 2.3398 0.9489
0.6985 2.3665 0.9494
0.6131 2.3901 0.9499
0.5270 2.4106 0.9504
0.4402 2.4280 0.9508
0.3527 2.4423 0.9513
0.2649 2.4534 0.9517
0.1767 2.4613 0.9522
0.0882 2.4661 0.9526
-0.0004 2.4676 0.9530
-0.0889 2.4660 0.9534
-0.1774 2.4611 0.9538
-0.2656 2.4531 0.9541
-0.3535 2.4419 0.9545
-0.6839 2.2050 0.9548
-0.7626 2.1789 0.9550
-0.8403 2.1500 0.9553
-2.2942 5.2999 2.3906
-2.4824 5.2127 2.3906
-2.6674 5.1189 2.3906
-2.8488 5.0186 2.3906
-3.0266 4.9120 2.3906
-3.2005 4.7991 2.3906
-3.3702 4.6801 2.3906
-3.5355 4.5553 2.3906
-3.6963 4.4246 2.3906
-3.8523 4.2884 2.3906
-4.0034 4.1467 2.3906
-4.1494 3.9998 2.3906
-4.2901 3.8478 2.3906
-4.4252 3.6909 2.3906
-4.5547 3.5294 2.3906
-4.6784 3.3633 2.3906
-4.7962 3.1930 2.3906
-4.9078 3.0186 2.3906
-5.0132 2.8404 2.3906
-5.1122 2.6585 2.3906
-5.2047 2.4733 2.3906
-5.2905 2.2848 2.3906
-5.3697 2.0935 2.3906
-5.4420 1.8994 2.3906
-5.5074 1.7029 2.3906
-5.5658 1.5041 2.3906
-5.6171 1.3034 2.3906
-5.6613 1.1009 2.3906
-5.6982 0.8970 2.3906
-5.7280 0.6919 2.3906
-5.7504 0.4858 2.3906
-5.7655 0.2790 2.3906
-5.7732 0.0718 2.3906
-5.7736 -0.1357 2.3906
-5.7666 -0.3431 2.3906
-5.7523 -0.5501 2.3906
-5.7306 -0.7566 2.3906
-5.7015 -0.9622 2.3906
-5.6652 -1.1667 2.3906
-5.6216 -1.3698 2.3906
-5.5708 -1.5714 2.3906
-5.5129 -1.7710 2.3906
-5.4478 -1.9686 2.3906
-5.3757 -2.1637 2.3906
-5.2967 -2.3563 2.3906
-5.2109 -2.5459 2.3906
-5.1183 -2.7325 2.3906
-5.0191 -2.9157 2.3906
-4.9134 -3.0953 2.3906
-4.8013 -3.2711 2.3906
-4.6830 -3.4429 2.3906
-4.5585 -3.6103 2.3906
-4.4281 -3.7733 2.3906
-4.2919 -3.9316 2.3906
-4.1501 -4.0850 2.3906
-4.0028 -4.2333 2.3906
-3.8503 -4.3762 2.3906
-3.6926 -4.5137 2.3906
-3.5301 -4.6455 2.3906
-3.3629 -4.7715 2.3906
-3.1912 -4.8914 2.3906
-3.0152 -5.0052 2.3906
-2.8352 -5.1126 2.3906
-2.6514 -5.2135 2.3906
-2.4640 -5.3077 2.3906
-2.2733 -5.3953 2.3906
-2.0794 -5.4760 2.3906
-1.8827 -5.5497 2.3906
-1.6834 -5.6163 2.3906
-1.4818 -5.6757 2.3906
-1.2780 -5.7278 2.3906
-1.0725 -5.7726 2.3906
-0.8653 -5.8099 2.3906
-0.6569 -5.8398 2.3906
-0.4475 -5.8622 2.3906
-0.2373 -5.8770 2.3906
-0.0266 -5.8842 2.3906
0.1842 -5.8838 2.3906
0.3950 -5.8758 2.3906
0.6054 -5.8602 2.3906
0.8152 -5.8370 2.3906
1.0241 -5.8062 2.3906
1.2318 -5.7679 2.3906
1.4381 -5.7220 2.3906
1.6426 -5.6688 2.3906
1.8451 -5.6081 2.3906
2.0453 -5.5401 2.3906
2.2430 -5.4650 2.3906
2.4379 -5.3827 2.3906
2.6297 -5.2933 2.3906
2.8182 -5.1971 2.3906
3.0031 -5.0941 2.3906
3.1842 -4.9844 2.3906
3.3613 -4.8682 2.3906
3.5340 -4.7456 2.3906
3.7022 -4.6169 2.3906
3.8657 -4.4821 2.3906
4.0241 -4.3414 2.3906
4.1774 -4.1951 2.3906
4.3253 -4.0433 2.3906
4.4676 -3.8863 2.3906
4.6041 -3.7241 2.3906
4.7347 -3.5571 2.3906
4.8591 -3.3855 2.3906
4.9772 -3.2095 2.3906
5.0888 -3.0292 2.3906
5.1938 -2.8451 2.3906
5.2921 -2.6573 2.3906
5.3835 -2.4660 2.3906
5.4679 -2.2716 2.3906
5.5451 -2.0743 2.3906
5.6152 -1.8743 2.3906
5.6779 -1.6719 2.3906
5.7333 -1.4674 2.3906
5.7812 -1.2610 2.3906
5.8215 -1.0531 2.3906
5.8544 -0.8439 2.3906
5.8796 -0.6337 2.3906
5.8971 -0.4227 2.3906
5.9070 -0.2113 2.3906
5.9093 0.0003 2.3906
5.9038 0.2118 2.3906
5.8908 0.4229 2.3906
5.8701 0.6333 2.3906
5.8418 0.8428 2.3906
5.8059 1.0511 2.3906
5.7626 1.2579 2.3906
5.7118 1.4629 2.3906
5.6537 1.6659 2.3906
5.5882 1.8666 2.3906
5.5156 2.0647 2.3906
5.4360 2.2601 2.3906
5.3493 2.4523 2.3906
5.2558 2.6413 2.3906
5.1556 2.8266 2.3906
5.0488 3.0082 2.3906
4.9356 3.1857 2.3906
4.8161 3.3590 2.3906
4.6905 3.5278 2.3906
4.5590 3.6919 2.3906
4.4216 3.8511 2.3906
4.2787 4.0051 2.3906
4.1305 4.1539 2.3906
3.9770 4.2972 2.3906
3.8185 4.4349 2.3906
3.6553 4.5667 2.3906
3.4875 4.6925 2.3906
3.3154 4.8121 2.3906
3.1392 4.9255 2.3906
2.9591 5.0324 2.3906
2.7753 5.1328 2.3906
2.5882 5.2264 2.3906
2.3979 5.3133 2.3906
0.8738 2.1376 0.9475
0.7966 2.1676 0.9480
0.7183 2.1949 0.9485
0.6392 2.2193 0.9489
0.5591 2.2408 0.9494
0.4784 2.2595 0.9498
0.3970 2.2752 0.9503
0.3151 2.2880 0.9507
0.2328 2.2978 0.9511
0.1502 2.3047 0.9515
0.0673 2.3086 0.9519
-0.0156 2.3094 0.9523
-0.0985 2.3073 0.9527
-0.1812 2.3023 0.9530
-0.2638 2.2942 0.9534
-0.3459 2.2831 0.9537
-0.4277 2.2691 0.9540
-0.5089 2.2522 0.9543
-0.5894 2.2323 0.9545
-0.6691 2.2096 0.9548
-0.7480 2.1840 0.9550
-0.8259 2.1556 0.9552
-0.9027 2.1244 0.9554
-2.4475 5.2295 2.3906
-2.6331 5.1369 2.3906
-2.8152 5.0378 2.3906
-2.9937 4.9324 2.3906
-3.1683 4.8206 2.3906
-3.3388 4.7028 2.3906
-3.5050 4.5790 2.3906
-3.6666 4.4495 2.3906
-3.8236 4.3143 2.3906
-3.9756 4.1736 2.3906
-4.1225 4.0276 2.3906
-4.2642 3.8766 2.3906
-4.4004 3.7206 2.3906
-4.5310 3.5599 2.3906
-4.6558 3.3947 2.3906
-4.7747 3.2251 2.3906
-4.8874 3.0515 2.3906
-4.9940 2.8739 2.3906
-5.0942 2.6927 2.3906
-5.1879 2.5081 2.3906
-5.2750 2.3203 2.3906
-5.3554 2.1294 2.3906
-5.4290 1.9358 2.3906
-5.4957 1.7397 2.3906
-5.5554 1.5414 2.3906
-5.6081 1.3410 2.3906
-5.6536 1.1389 2.3906
-5.6919 0.9352 2.3906
-5.7230 0.7303 2.3906
-5.7467 0.5244 2.3906
-5.7632 0.3177 2.3906
-5.7723 0.1105 2.3906
-5.7741 -0.0970 2.3906
-5.7685 -0.3044 2.3906
-5.7555 -0.5115 2.3906
-5.7352 -0.7181 2.3906
-5.7075 -0.9239 2.3906
-5.6726 -1.1286 2.3906
-5.6303 -1.3320 2.3906
-5.5809 -1.5339 2.3906
-5.5242 -1.7339 2.3906
-5.4605 -1.9319 2.3906
-5.3897 -2.1275 2.3906
-5.3120 -2.3205 2.3906
-5.2274 -2.5107 2.3906
-5.1361 -2.6979 2.3906
-5.0382 -2.8817 2.3906
-4.9336 -3.0620 2.3906
-4.8227 -3.2386 2.3906
-4.7055 -3.4111 2.3906
-4.5822 -3.5794 2.3906
-4.4529 -3.7432 2.3906
-4.3178 -3.9024 2.3906
-4.1770 -4.0567 2.3906
-4.0307 -4.2060 2.3906
-3.8791 -4.3500 2.3906
-3.7224 -4.4885 2.3906
-3.5608 -4.6214 2.3906
-3.3944 -4.7484 2.3906
-3.2236 -4.8695 2.3906
-3.0484 -4.9844 2.3906
-2.8691 -5.0929 2.3906
-2.6860 -5.1951 2.3906
-2.4993 -5.2907 2.3906
-2.3090 -5.3794 2.3906
-2.1158 -5.4615 2.3906
-1.9197 -5.5365 2.3906
-1.7208 -5.6044 2.3906
-1.5196 -5.6651 2.3906
-1.3162 -5.7186 2.3906
-1.1110 -5.7648 2.3906
-0.9041 -5.8035 2.3906
-0.6959 -5.8348 2.3906
-0.4866 -5.8586 2.3906
-0.2766 -5.8748 2.3906
-0.0660 -5.8834 2.3906
0.1449 -5.8845 2.3906
0.3557 -5.8779 2.3906
0.5662 -5.8637 2.3906
0.7761 -5.8419 2.3906
0.9852 -5.8125 2.3906
1.1931 -5.7756 2.3906
1.3997 -5.7311 2.3906
1.6045 -5.6793 2.3906
1.8074 -5.6200 2.3906
2.0081 -5.5534 2.3906
2.2063 -5.4796 2.3906
2.4017 -5.3986 2.3906
2.5941 -5.3105 2.3906
2.7833 -5.2156 2.3906
2.9689 -5.1138 2.3906
3.1507 -5.0054 2.3906
3.3285 -4.8904 2.3906
3.5021 -4.7690 2.3906
3.6712 -4.6414 2.3906
3.8355 -4.5077 2.3906
3.9949 -4.3681 2.3906
4.1492 -4.2229 2.3906
4.2981 -4.0721 2.3906
4.4415 -3.9160 2.3906
4.5791 -3.7548 2.3906
4.7108 -3.5887 2.3906
4.8363 -3.4179 2.3906
4.9556 -3.2426 2.3906
5.0685 -3.0632 2.3906
5.1747 -2.8798 2.3906
5.2743 -2.6926 2.3906
5.3669 -2.5020 2.3906
5.4526 -2.3082 2.3906
5.5312 -2.1114 2.3906
5.6026 -1.9118 2.3906
5.6668 -1.7099 2.3906
5.7235 -1.5057 2.3906
5.7728 -1.2997 2.3906
5.8146 -1.0921 2.3906
5.8488 -0.8831 2.3906
5.8754 -0.6730 2.3906
5.8944 -0.4622 2.3906
5.9058 -0.2508 2.3906
5.9094 -0.0392 2.3906
5.9054 0.1723 2.3906
5.8938 0.3835 2.3906
5.8745 0.5941 2.3906
5.8476 0.8038 2.3906
5.8132 1.0123 2.3906
5.7712 1.2194 2.3906
5.7218 1.4248 2.3906
5.6651 1.6282 2.3906
5.6010 1.8293 2.3906
5.5297 2.0279 2.3906
5.4514 2.2238 2.3906
5.3660 2.4167 2.3906
5.2738 2.6062 2.3906
5.1748 2.7923 2.3906
5.0693 2.9746 2.3906
4.9573 3.1529 2.3906
4.8389 3.3270 2.3906
4.7144 3.4966 2.3906
4.5840 3.6616 2.3906
4.4477 3.8217 2.3906
4.3059 3.9768 2.3906
4.1586 4.1266 2.3906
4.0060 4.2709 2.3906
3.8485 4.4096 2.3906
3.6861 4.5425 2.3906
3.5192 4.6695 2.3906
3.3479 4.7903 2.3906
3.1724 4.9048 2.3906
2.9930 5.0129 2.3906
2.8099 5.1146 2.3906
2.6234 5.2095 2.3906
2.4337 5.2976 2.3906
0.8881 2.1316 0.9474
0.8111 2.1622 0.9479
0.7330 2.1900 0.9484
0.6540 2.2149 0.9488
0.5741 2.2370 0.9493
0.4935 2.2562 0.9498
0.4122 2.2725 0.9502
0.3304 2.2858 0.9506
0.2482 2.2962 0.9511
0.1656 2.3036 0.9515
0.0828 2.3081 0.9519
-0.0001 2.3095 0.9522
-0.0830 2.3080 0.9526
-0.1658 2.3034 0.9530
-0.2484 2.2959 0.9533
-0.3306 2.2854 0.9536
-0.6418 2.0699 0.9540
-0.7157 2.0454 0.9542
-0.7886 2.0182 0.9544
-0.8606 1.9884 0.9546
-2.3320 4.8978 2.3906
-2.5059 4.8097 2.3906
-2.6764 4.7156 2.3906
-2.8435 4.6154 2.3906
-3.0069 4.5094 2.3906
-3.1664 4.3976 2.3906
-3.3218 4.2803 2.3906
-3.4730 4.1576 2.3906
-3.6196 4.0296 2.3906
-3.7616 3.8965 2.3906
-3.8988 3.7584 2.3906
-4.0310 3.6156 2.3906
-4.1581 3.4682 2.3906
-4.2798 3.3164 2.3906
-4.3960 3.1603 2.3906
-4.5067 3.0003 2.3906
-4.6116 2.8364 2.3906
-4.7106 2.6689 2.3906
-4.8036 2.4980 2.3906
-4.8905 2.3239 2.3906
-4.9712 2.1468 2.3906
-5.0456 1.9670 2.3906
-5.1135 1.7846 2.3906
-5.1749 1.5999 2.3906
-5.2298 1.4131 2.3906
-5.2780 1.2244 2.3906
-5.3194 1.0342 2.3906
-5.3541 0.8426 2.3906
-5.3820 0.6498 2.3906
-5.4030 0.4561 2.3906
-5.4171 0.2618 2.3906
-5.4243 0.0670 2.3906
-5.4246 -0.1279 2.3906
-5.4180 -0.3227 2.3906
-5.4044 -0.5173 2.3906
-5.3839 -0.7113 2.3906
-5.3566 -0.9044 2.3906
-5.3223 -1.0966 2.3906
-5.2813 -1.2874 2.3906
-5.2334 -1.4767 2.3906
-5.1789 -1.6643 2.3906
-5.1177 -1.8499 2.3906
-5.0498 -2.0332 2.3906
-4.9755 -2.2140 2.3906
-4.8948 -2.3921 2.3906
-4.8077 -2.5673 2.3906
-4.7144 -2.7394 2.3906
-4.6150 -2.9080 2.3906
-4.5096 -3.0731 2.3906
-4.3983 -3.2344 2.3906
-4.2813 -3.3916 2.3906
-4.1587 -3.5446 2.3906
-4.0307 -3.6932 2.3906
-3.8974 -3.8372 2.3906
-3.7590 -3.9764 2.3906
-3.6156 -4.1106 2.3906
-3.4674 -4.2396 2.3906
-3.3147 -4.3632 2.3906
-3.1576 -4.4814 2.3906
-2.9963 -4.5939 2.3906
-2.8309 -4.7006 2.3906
-2.6618 -4.8014 2.3906
-2.4891 -4.8960 2.3906
-2.3131 -4.9844 2.3906
-2.1339 -5.0665 2.3906
-1.9519 -5.1421 2.3906
-1.7672 -5.2112 2.3906
-1.5800 -5.2736 2.3906
-1.3906 -5.3292 2.3906
-1.1993 -5.3780 2.3906
-1.0063 -5.4199 2.3906
-0.8118 -5.4549 2.3906
-0.6161 -5.4828 2.3906
-0.4195 -5.5037 2.3906
-0.2222 -5.5174 2.3906
-0.0244 -5.5241 2.3906
0.1735 -5.5236 2.3906
0.3714 -5.5160 2.3906
0.5689 -5.5012 2.3906
0.7658 -5.4793 2.3906
0.9619 -5.4503 2.3906
1.1568 -5.4142 2.3906
1.3504 -5.3711 2.3906
1.5423 -5.3210 2.3906
1.7323 -5.2640 2.3906
1.9202 -5.2001 2.3906
2.1057 -5.1295 2.3906
2.2886 -5.0522 2.3906
2.4686 -4.9682 2.3906
2.6455 -4.8779 2.3906
2.8190 -4.7811 2.3906
2.9889 -4.6781 2.3906
3.1550 -4.5690 2.3906
3.3171 -4.4540 2.3906
3.4750 -4.3331 2.3906
3.6283 -4.2066 2.3906
3.7770 -4.0746 2.3906
3.9208 -3.9372 2.3906
4.0596 -3.7947 2.3906
4.1931 -3.6473 2.3906
4.3212 -3.4952 2.3906
4.4437 -3.3385 2.3906
4.5604 -3.1774 2.3906
4.6713 -3.0122 2.3906
4.7760 -2.8431 2.3906
4.8746 -2.6703 2.3906
4.9668 -2.4941 2.3906
5.0526 -2.3146 2.3906
5.1318 -2.1321 2.3906
5.2043 -1.9470 2.3906
5.2701 -1.7593 2.3906
5.3290 -1.5694 2.3906
5.3810 -1.3775 2.3906
5.4260 -1.1838 2.3906
5.4639 -0.9887 2.3906
5.4948 -0.7924 2.3906
5.5185 -0.5951 2.3906
5.5350 -0.3971 2.3906
5.5444 -0.1987 2.3906
5.5466 -0.0001 2.3906
5.5416 0.1984 2.3906
5.5294 0.3965 2.3906
5.5101 0.5940 2.3906
5.4836 0.7907 2.3906
5.4500 0.9862 2.3906
5.4095 1.1803 2.3906
5.3619 1.3728 2.3906
5.3074 1.5633 2.3906
5.2461 1.7518 2.3906
5.1781 1.9378 2.3906
5.1034 2.1212 2.3906
5.0222 2.3017 2.3906
4.9345 2.4791 2.3906
4.8406 2.6532 2.3906
4.7404 2.8237 2.3906
4.6343 2.9904 2.3906
