ply
format ascii 1.0
element vertex 2192
property float32 x
property float32 y
property float32 z
end_header
7.0102 -3.0313 2.3934
7.0928 -2.7638 2.3934
7.1679 -2.4951 2.3934
7.2354 -2.2253 2.3934
7.2954 -1.9545 2.3934
7.3479 -1.6829 2.3934
7.3929 -1.4105 2.3934
7.4305 -1.1374 2.3934
7.4607 -0.8638 2.3934
7.4835 -0.5896 2.3934
7.4989 -0.3150 2.3934
7.5068 -0.0401 2.3934
7.4592 0.2335 2.3781
7.3663 0.5012 2.3506
7.2846 0.7645 2.3290
7.2137 1.0253 2.3131
7.1593 1.2865 2.3047
7.1231 1.5511 2.3045
7.0980 1.8200 2.3103
7.0890 2.0969 2.3238
7.0970 2.3847 2.3456
7.1270 2.6885 2.3776
7.0857 2.9730 2.3889
6.9947 3.2401 2.3861
6.8948 3.5050 2.3829
6.7799 3.7639 2.3770
6.6512 4.0165 2.3689
6.5262 4.2730 2.3648
6.4045 4.5349 2.3647
6.2746 4.7952 2.3646
6.1366 5.0536 2.3645
5.9903 5.3100 2.3644
5.8357 5.5643 2.3644
5.6726 5.8163 2.3643
5.5010 6.0657 2.3642
5.3207 6.3124 2.3641
5.1318 6.5562 2.3640
4.9342 6.7967 2.3639
4.7276 7.0339 2.3638
4.5121 7.2674 2.3637
4.2876 7.4970 2.3637
6.7845 -1.7046 2.3934
6.8310 -1.4522 2.3934
6.8705 -1.1990 2.3934
6.9029 -0.9451 2.3934
6.9283 -0.6907 2.3934
6.9466 -0.4358 2.3934
6.9579 -0.1805 2.3934
6.9621 0.0750 2.3934
6.9592 0.3306 2.3934
6.9492 0.5863 2.3934
6.9322 0.8420 2.3934
6.9081 1.0975 2.3934
6.8768 1.3528 2.3934
6.8383 1.6077 2.3934
6.7927 1.8622 2.3934
6.7399 2.1161 2.3934
6.6790 2.3690 2.3931
6.6087 2.6202 2.3921
6.5282 2.8690 2.3899
6.4375 3.1148 2.3867
6.3364 3.3571 2.3823
6.2242 3.5947 2.3763
6.1010 3.8272 2.3687
5.9804 4.0630 2.3649
5.8619 4.3030 2.3648
5.7358 4.5411 2.3647
5.6021 4.7772 2.3646
5.4607 5.0110 2.3645
5.3115 5.2424 2.3645
5.1545 5.4711 2.3644
4.9897 5.6971 2.3643
4.8169 5.9200 2.3642
4.6362 6.1397 2.3641
4.4475 6.3560 2.3641
4.2507 6.5686 2.3640
4.0458 6.7772 2.3639
3.8327 6.9816 2.3638
3.6115 7.1815 2.3638
3.3821 7.3767 2.3637
3.1444 7.5668 2.3636
2.8986 7.7516 2.3636
2.6444 7.9307 2.3635
2.3821 8.1038 2.3634
2.1116 8.2705 2.3634
0.7754 3.5667 0.9998
0.6476 3.5953 0.9899
0.5188 3.6193 0.9799
0.3892 3.6387 0.9698
0.2590 3.6533 0.9597
0.1283 3.6632 0.9496
-0.0026 3.6683 0.9394
-0.1337 3.6687 0.9293
-0.2647 3.6644 0.9191
-0.3954 3.6553 0.9090
-0.5258 3.6414 0.8989
-0.6555 3.6229 0.8889
-0.7845 3.5996 0.8789
-0.9126 3.5717 0.8690
-1.6088 -9.4615 2.3934
-1.2555 -9.4018 2.3934
-0.9085 -9.3311 2.3934
-0.5680 -9.2500 2.3934
-0.2343 -9.1588 2.3934
0.0924 -9.0580 2.3934
0.4119 -8.9480 2.3934
0.7241 -8.8293 2.3934
1.0289 -8.7021 2.3934
1.3261 -8.5670 2.3934
1.6157 -8.4243 2.3934
1.8976 -8.2744 2.3934
2.1717 -8.1176 2.3934
2.4380 -7.9542 2.3934
2.6965 -7.7847 2.3934
2.9471 -7.6092 2.3934
3.1898 -7.4282 2.3934
3.4246 -7.2418 2.3934
3.6516 -7.0504 2.3934
3.8707 -6.8543 2.3934
4.0820 -6.6537 2.3934
4.2855 -6.4488 2.3934
4.4812 -6.2400 2.3934
4.6692 -6.0273 2.3934
4.8494 -5.8111 2.3934
5.0220 -5.5915 2.3934
5.1870 -5.3688 2.3934
5.3444 -5.1431 2.3934
5.4942 -4.9146 2.3934
5.6365 -4.6834 2.3934
5.7714 -4.4499 2.3934
5.8989 -4.2140 2.3934
6.0189 -3.9760 2.3934
6.1317 -3.7359 2.3934
6.2371 -3.4941 2.3934
6.3353 -3.2505 2.3934
6.4262 -3.0053 2.3934
6.5099 -2.7586 2.3934
6.5865 -2.5106 2.3934
6.6559 -2.2614 2.3934
6.7182 -2.0110 2.3934
6.7734 -1.7596 2.3934
6.8215 -1.5074 2.3934
6.8625 -1.2543 2.3934
6.8965 -1.0006 2.3934
6.9234 -0.7463 2.3934
6.9432 -0.4915 2.3934
6.9560 -0.2363 2.3934
6.9617 0.0191 2.3934
6.9604 0.2748 2.3934
6.9520 0.5305 2.3934
6.9365 0.7862 2.3934
6.9139 1.0417 2.3934
6.8842 1.2971 2.3934
6.8473 1.5521 2.3934
6.8033 1.8067 2.3934
6.7520 2.0607 2.3934
6.6929 2.3138 2.3932
6.6248 2.5655 2.3923
6.5467 2.8149 2.3905
6.4583 3.0614 2.3875
6.3593 3.3044 2.3833
6.2498 3.5433 2.3778
6.1288 3.7769 2.3705
6.0052 4.0103 2.3649
5.8884 4.2507 2.3648
5.7640 4.4893 2.3647
5.6319 4.7258 2.3646
5.4922 4.9601 2.3646
5.3447 5.1920 2.3645
5.1895 5.4214 2.3644
5.0264 5.6480 2.3643
4.8554 5.8716 2.3642
4.6764 6.0920 2.3642
4.4894 6.3091 2.3641
4.2944 6.5225 2.3640
4.0912 6.7320 2.3639
3.8800 6.9373 2.3639
3.6605 7.1383 2.3638
3.4329 7.3345 2.3637
3.1971 7.5258 2.3637
2.9530 7.7117 2.3636
2.7007 7.8921 2.3635
2.4401 8.0665 2.3635
2.1714 8.2346 2.3634
0.8032 3.5598 1.0020
0.6756 3.5895 0.9921
0.5470 3.6145 0.9821
0.4176 3.6349 0.9720
0.2875 3.6505 0.9619
0.1569 3.6614 0.9518
0.0260 3.6676 0.9416
-0.1050 3.6691 0.9315
-0.2361 3.6657 0.9213
-0.3669 3.6577 0.9112
-0.4973 3.6449 0.9011
-0.6272 3.6273 0.8911
-0.7564 3.6051 0.8811
-0.8847 3.5782 0.8712
-1.6868 -9.4731 2.3934
-1.3322 -9.4158 2.3934
-0.9837 -9.3475 2.3934
-0.6418 -9.2685 2.3934
-0.3066 -9.1795 2.3934
0.0216 -9.0808 2.3934
0.3427 -8.9728 2.3934
0.6566 -8.8559 2.3934
0.9630 -8.7306 2.3934
1.2619 -8.5972 2.3934
1.5531 -8.4561 2.3934
1.8367 -8.3078 2.3934
2.1125 -8.1524 2.3934
2.3805 -7.9905 2.3934
2.6407 -7.8222 2.3934
2.8930 -7.6480 2.3934
3.1375 -7.4682 2.3934
3.3740 -7.2830 2.3934
3.6027 -7.0927 2.3934
3.8235 -6.8976 2.3934
4.0365 -6.6979 2.3934
4.2417 -6.4939 2.3934
4.4391 -6.2859 2.3934
4.6288 -6.0741 2.3934
4.8107 -5.8586 2.3934
4.9850 -5.6398 2.3934
5.1516 -5.4177 2.3934
5.3106 -5.1926 2.3934
5.4621 -4.9647 2.3934
5.6061 -4.7341 2.3934
5.7426 -4.5011 2.3934
5.8716 -4.2657 2.3934
5.9933 -4.0281 2.3934
6.1077 -3.7885 2.3934
6.2147 -3.5471 2.3934
6.3145 -3.3038 2.3934
6.4070 -3.0590 2.3934
6.4923 -2.8126 2.3934
6.5704 -2.5649 2.3934
6.6414 -2.3159 2.3934
6.7052 -2.0658 2.3934
6.7619 -1.8146 2.3934
6.8116 -1.5626 2.3934
6.8541 -1.3097 2.3934
6.8897 -1.0561 2.3934
6.9181 -0.8019 2.3934
6.9395 -0.5472 2.3934
6.9538 -0.2921 2.3934
6.9611 -0.0367 2.3934
6.9613 0.2189 2.3934
6.9545 0.4746 2.3934
6.9405 0.7303 2.3934
6.9195 0.9859 2.3934
6.8913 1.2413 2.3934
6.8560 1.4964 2.3934
6.8135 1.7511 2.3934
6.7638 2.0052 2.3934
6.7065 2.2586 2.3932
6.6405 2.5107 2.3926
6.5645 2.7606 2.3910
6.4786 3.0079 2.3883
6.3819 3.2517 2.3844
6.2745 3.4915 2.3791
6.1562 3.7263 2.3722
6.0298 3.9575 2.3649
5.9146 4.1984 2.3648
5.7918 4.4373 2.3648
5.6614 4.6743 2.3647
5.5234 4.9091 2.3646
5.3776 5.1416 2.3645
5.2241 5.3715 2.3644
5.0627 5.5987 2.3643
4.8934 5.8230 2.3643
4.7162 6.0442 2.3642
4.5309 6.2620 2.3641
4.3377 6.4762 2.3640
4.1363 6.6865 2.3640
3.9268 6.8928 2.3639
6.3158 -1.5895 2.3934
6.3599 -1.3541 2.3934
6.3973 -1.1180 2.3934
6.4279 -0.8812 2.3934
6.4518 -0.6439 2.3934
6.4691 -0.4061 2.3934
6.4796 -0.1679 2.3934
6.4833 0.0705 2.3934
6.4804 0.3090 2.3934
6.4707 0.5476 2.3934
6.4543 0.7860 2.3934
6.4311 1.0243 2.3934
6.4012 1.2623 2.3934
6.3644 1.4998 2.3934
6.3208 1.7368 2.3934
6.2704 1.9732 2.3934
6.2123 2.2085 2.3931
6.1456 2.4422 2.3921
6.0697 2.6736 2.3902
5.9845 2.9024 2.3874
5.8900 3.1279 2.3835
5.7858 3.3495 2.3783
5.6716 3.5665 2.3718
5.5502 3.7800 2.3650
5.4379 4.0019 2.3649
5.3186 4.2217 2.3648
5.1921 4.4393 2.3647
5.0585 4.6546 2.3647
4.9177 4.8673 2.3646
4.7696 5.0773 2.3645
4.6143 5.2843 2.3644
4.4517 5.4883 2.3644
4.2818 5.6889 2.3643
4.1045 5.8860 2.3642
3.9199 6.0793 2.3642
3.7279 6.2686 2.3641
3.5286 6.4536 2.3640
3.3218 6.6341 2.3640
3.1077 6.8098 2.3639
2.8862 6.9805 2.3638
2.6574 7.1459 2.3638
2.4212 7.3056 2.3637
2.1778 7.4593 2.3637
0.8183 3.2298 1.0036
0.7024 3.2602 0.9946
0.5856 3.2863 0.9855
0.4679 3.3082 0.9763
0.3494 3.3259 0.9671
0.2304 3.3392 0.9579
0.1110 3.3482 0.9486
-0.0087 3.3529 0.9393
-0.1285 3.3533 0.9301
-0.2482 3.3493 0.9208
-0.3677 3.3410 0.9115
-0.4868 3.3283 0.9023
-0.6054 3.3113 0.8931
-0.7233 3.2901 0.8840
-0.8404 3.2646 0.8750
-0.9565 3.2348 0.8660
-2.9537 8.8247 2.3632
-3.3007 8.8098 2.3632
-3.6504 8.7819 2.3632
-4.0022 8.7405 2.3632
-4.3555 8.6855 2.3632
-4.5481 -8.5224 2.3934
-4.1975 -8.5849 2.3934
-3.8482 -8.6340 2.3934
-3.5009 -8.6699 2.3934
-3.1560 -8.6930 2.3934
-2.8140 -8.7036 2.3934
-2.4754 -8.7021 2.3934
-2.1406 -8.6889 2.3934
-1.8099 -8.6643 2.3934
-1.4838 -8.6287 2.3934
-1.1624 -8.5825 2.3934
-0.8462 -8.5261 2.3934
-0.5354 -8.4598 2.3934
-0.2303 -8.3841 2.3934
0.0690 -8.2992 2.3934
0.3623 -8.2056 2.3934
0.6494 -8.1036 2.3934
0.9300 -7.9936 2.3934
1.2042 -7.8758 2.3934
1.4718 -7.7507 2.3934
1.7326 -7.6186 2.3934
1.9866 -7.4798 2.3934
2.2338 -7.3346 2.3934
2.4740 -7.1832 2.3934
2.7072 -7.0261 2.3934
2.9334 -6.8634 2.3934
3.1525 -6.6954 2.3934
3.3645 -6.5225 2.3934
3.5695 -6.3448 2.3934
3.7673 -6.1626 2.3934
3.9581 -5.9761 2.3934
4.1417 -5.7855 2.3934
4.3182 -5.5911 2.3934
4.4877 -5.3931 2.3934
4.6501 -5.1917 2.3934
4.8055 -4.9870 2.3934
4.9538 -4.7793 2.3934
5.0951 -4.5688 2.3934
5.2295 -4.3555 2.3934
5.3569 -4.1397 2.3934
5.4773 -3.9215 2.3934
5.5909 -3.7011 2.3934
5.6975 -3.4787 2.3934
5.7973 -3.2543 2.3934
5.8903 -3.0281 2.3934
5.9764 -2.8003 2.3934
6.0557 -2.5709 2.3934
6.1282 -2.3402 2.3934
6.1940 -2.1081 2.3934
6.2530 -1.8750 2.3934
6.3053 -1.6408 2.3934
6.3508 -1.4056 2.3934
6.3897 -1.1697 2.3934
6.4218 -0.9330 2.3934
6.4472 -0.6958 2.3934
6.4659 -0.4580 2.3934
6.4778 -0.2200 2.3934
6.4831 0.0184 2.3934
6.4816 0.2569 2.3934
6.4734 0.4955 2.3934
6.4585 0.7340 2.3934
6.4368 0.9723 2.3934
6.4083 1.2103 2.3934
6.3730 1.4480 2.3934
6.3309 1.6851 2.3934
6.2820 1.9216 2.3934
6.2256 2.1572 2.3932
6.1608 2.3913 2.3924
6.0870 2.6233 2.3907
6.0041 2.8527 2.3882
5.9115 3.0789 2.3844
5.8093 3.3014 2.3795
5.6973 3.5195 2.3733
5.5762 3.7329 2.3660
5.4631 3.9536 2.3649
5.3453 4.1738 2.3648
5.2204 4.3920 2.3648
5.0883 4.6077 2.3647
4.9490 4.8210 2.3646
4.8026 5.0316 2.3645
4.6488 5.2394 2.3645
4.4878 5.4440 2.3644
4.3195 5.6454 2.3643
4.1439 5.8432 2.3642
3.9609 6.0374 2.3642
3.7705 6.2276 2.3641
3.5728 6.4135 2.3640
3.3676 6.5950 2.3640
3.1551 6.7719 2.3639
2.9352 6.9437 2.3639
2.7080 7.1102 2.3638
2.4734 7.2712 2.3637
2.2316 7.4263 2.3637
0.8434 3.2226 1.0055
0.7278 3.2539 0.9965
0.6112 3.2810 0.9875
0.4937 3.3038 0.9783
0.3754 3.3224 0.9691
0.2565 3.3367 0.9599
0.1371 3.3466 0.9506
0.0175 3.3523 0.9414
-0.1023 3.3536 0.9321
-0.2220 3.3505 0.9228
-0.3416 3.3431 0.9135
-0.4608 3.3314 0.9043
-0.5795 3.3154 0.8951
-0.6976 3.2951 0.8860
-0.8149 3.2705 0.8770
-0.9312 3.2417 0.8680
-2.8784 8.8263 2.3632
-3.2247 8.8142 2.3632
-3.5738 8.7891 2.3632
-3.9252 8.7507 2.3632
-4.2782 8.6987 2.3632
-4.6249 -8.5069 2.3934
-4.2740 -8.5724 2.3934
-3.9244 -8.6244 2.3934
-3.5766 -8.6632 2.3934
-3.2311 -8.6891 2.3934
-2.8884 -8.7024 2.3934
-2.5491 -8.7035 2.3934
-2.2134 -8.6928 2.3934
-1.8818 -8.6706 2.3934
-1.5546 -8.6374 2.3934
-1.2322 -8.5935 2.3934
-0.9149 -8.5393 2.3934
-0.6029 -8.4751 2.3934
-0.2964 -8.4014 2.3934
0.0042 -8.3185 2.3934
0.2988 -8.2268 2.3934
0.5872 -8.1266 2.3934
0.8693 -8.0183 2.3934
1.1449 -7.9022 2.3934
1.4139 -7.7787 2.3934
1.6762 -7.6481 2.3934
1.9317 -7.5107 2.3934
2.1804 -7.3668 2.3934
2.4221 -7.2168 2.3934
2.6568 -7.0609 2.3934
2.8846 -6.8994 2.3934
3.1052 -6.7326 2.3934
3.3188 -6.5607 2.3934
3.5253 -6.3840 2.3934
3.7247 -6.2027 2.3934
3.9170 -6.0171 2.3934
4.1022 -5.8275 2.3934
4.2803 -5.6339 2.3934
4.4513 -5.4367 2.3934
4.6152 -5.2360 2.3934
4.7721 -5.0320 2.3934
4.9220 -4.8250 2.3934
5.0649 -4.6150 2.3934
5.2007 -4.4023 2.3934
5.3296 -4.1870 2.3934
5.4516 -3.9694 2.3934
5.5667 -3.7495 2.3934
5.6748 -3.5274 2.3934
5.7761 -3.3035 2.3934
5.8705 -3.0777 2.3934
5.9582 -2.8502 2.3934
6.0390 -2.6212 2.3934
6.1130 -2.3907 2.3934
6.1802 -2.1589 2.3934
6.2407 -1.9260 2.3934
6.2945 -1.6920 2.3934
6.3415 -1.4570 2.3934
6.3818 -1.2213 2.3934
6.4153 -0.9848 2.3934
6.4422 -0.7476 2.3934
6.4624 -0.5100 2.3934
6.4758 -0.2720 2.3934
6.4825 -0.0337 2.3934
6.4825 0.2048 2.3934
6.4758 0.4433 2.3934
6.4623 0.6819 2.3934
6.4421 0.9202 2.3934
6.4151 1.1584 2.3934
6.3813 1.3961 2.3934
6.3407 1.6334 2.3934
6.2932 1.8700 2.3934
6.2386 2.1058 2.3933
6.1757 2.3403 2.3926
6.1038 2.5727 2.3911
6.0229 2.8028 2.3887
5.9326 3.0299 2.3854
5.8326 3.2532 2.3808
5.7226 3.4722 2.3748
5.6033 3.6866 2.3676
5.4879 3.9052 2.3649
5.3716 4.1259 2.3649
5.2483 4.3445 2.3648
5.1177 4.5608 2.3647
4.9801 4.7747 2.3646
4.8352 4.9859 2.3646
4.6830 5.1942 2.3645
4.5236 5.3996 2.3644
4.3569 5.6017 2.3643
4.1829 5.8003 2.3643
4.0015 5.9953 2.3642
3.8127 6.1864 2.3641
3.6166 6.3733 2.3641
5.9013 -1.4876 2.3934
5.9431 -1.2674 2.3934
5.9785 -1.0464 2.3934
6.0075 -0.8247 2.3934
6.0302 -0.6025 2.3934
6.0464 -0.3798 2.3934
6.0562 -0.1567 2.3934
6.0597 0.0665 2.3934
6.0567 0.2899 2.3934
6.0473 0.5133 2.3934
6.0315 0.7365 2.3934
6.0093 0.9595 2.3934
5.9805 1.1822 2.3934
5.9454 1.4044 2.3934
5.9037 1.6260 2.3934
5.8556 1.8470 2.3934
5.8002 2.0668 2.3931
5.7367 2.2850 2.3922
5.6650 2.5012 2.3905
5.5848 2.7149 2.3880
5.4960 2.9256 2.3845
5.3985 3.1329 2.3800
5.2921 3.3360 2.3743
5.1773 3.5349 2.3676
5.0652 3.7371 2.3650
4.9520 3.9410 2.3649
4.8321 4.1426 2.3649
4.7056 4.3418 2.3648
4.5724 4.5384 2.3647
4.4325 4.7323 2.3646
4.2858 4.9231 2.3646
4.1324 5.1108 2.3645
3.9722 5.2952 2.3644
3.8053 5.4759 2.3644
3.6317 5.6529 2.3643
3.4513 5.8258 2.3643
3.2641 5.9945 2.3642
3.0703 6.1587 2.3641
2.8697 6.3182 2.3641
2.6625 6.4726 2.3640
2.4488 6.6218 2.3640
2.2284 6.7655 2.3639
0.8523 2.9395 1.0065
0.7468 2.9713 0.9983
0.6403 2.9992 0.9900
0.5328 3.0232 0.9817
0.4245 3.0433 0.9733
0.3156 3.0595 0.9648
0.2061 3.0718 0.9563
0.0962 3.0801 0.9478
-0.0138 3.0844 0.9393
-0.1240 3.0847 0.9307
-0.2341 3.0810 0.9222
-0.3441 3.0733 0.9137
-0.4536 3.0617 0.9052
-0.5627 3.0461 0.8968
-0.6712 3.0265 0.8884
-0.7789 3.0030 0.8801
-0.8856 2.9757 0.8718
-2.7128 8.0576 2.3634
-3.0270 8.0368 2.3634
-3.3431 8.0041 2.3635
-3.6606 7.9592 2.3635
-3.9789 7.9019 2.3635
-4.2974 7.8320 2.3635
-4.6157 7.7491 2.3635
-4.9330 7.6532 2.3636
-5.2488 7.5440 2.3636
-5.5607 7.4193 2.3630
-5.8689 7.2803 2.3621
-6.1756 7.1307 2.3621
-6.4780 6.9675 2.3621
-6.7752 6.7906 2.3621
-7.0665 6.6003 2.3621
-9.3026 -2.9107 2.2335
-9.1686 -3.2267 2.2374
-9.0161 -3.5339 2.2402
-8.8422 -3.8295 2.2410
-8.6525 -4.1145 2.2410
-8.4510 -4.3896 2.2410
-8.2384 -4.6542 2.2410
-8.0153 -4.9080 2.2410
-7.7824 -5.1506 2.2410
-7.5405 -5.3816 2.2410
-7.3371 -5.6368 2.2554
-7.2110 -5.9554 2.2979
-7.0820 -6.2814 2.3450
-6.9388 -6.6059 2.3934
-6.6438 -6.7875 2.3934
-6.3437 -6.9557 2.3934
-6.0393 -7.1106 2.3934
-5.7313 -7.2522 2.3934
-5.4202 -7.3805 2.3934
-5.1071 -7.4956 2.3934
-4.7922 -7.5976 2.3934
-4.4763 -7.6868 2.3934
-4.1601 -7.7634 2.3934
-3.8439 -7.8274 2.3934
-3.5284 -7.8792 2.3934
-3.2141 -7.9191 2.3934
-2.9015 -7.9472 2.3934
-2.5909 -7.9639 2.3934
-2.2829 -7.9695 2.3934
-1.9777 -7.9642 2.3934
-1.6759 -7.9484 2.3934
-1.3777 -7.9223 2.3934
-1.0834 -7.8864 2.3934
-0.7933 -7.8409 2.3934
-0.5077 -7.7861 2.3934
-0.2268 -7.7224 2.3934
0.0491 -7.6500 2.3934
0.3198 -7.5694 2.3934
0.5852 -7.4808 2.3934
0.8450 -7.3844 2.3934
1.0992 -7.2808 2.3934
1.3476 -7.1700 2.3934
1.5901 -7.0524 2.3934
1.8266 -6.9284 2.3934
2.0569 -6.7981 2.3934
2.2811 -6.6618 2.3934
2.4990 -6.5199 2.3934
2.7105 -6.3726 2.3934
2.9157 -6.2200 2.3934
3.1145 -6.0626 2.3934
3.3068 -5.9004 2.3934
3.4926 -5.7338 2.3934
3.6719 -5.5629 2.3934
3.8447 -5.3880 2.3934
4.0110 -5.2092 2.3934
4.1707 -5.0268 2.3934
4.3239 -4.8410 2.3934
4.4706 -4.6519 2.3934
4.6107 -4.4598 2.3934
4.7443 -4.2648 2.3934
4.8714 -4.0670 2.3934
4.9920 -3.8666 2.3934
5.1060 -3.6639 2.3934
5.2136 -3.4589 2.3934
5.3147 -3.2518 2.3934
5.4093 -3.0427 2.3934
5.4974 -2.8318 2.3934
5.5791 -2.6193 2.3934
5.6544 -2.4051 2.3934
5.7233 -2.1896 2.3934
5.7857 -1.9727 2.3934
5.8417 -1.7547 2.3934
5.8913 -1.5356 2.3934
5.9345 -1.3156 2.3934
5.9713 -1.0947 2.3934
6.0017 -0.8732 2.3934
6.0258 -0.6511 2.3934
6.0434 -0.4284 2.3934
6.0546 -0.2055 2.3934
6.0595 0.0177 2.3934
6.0579 0.2411 2.3934
6.0499 0.4645 2.3934
6.0355 0.6878 2.3934
6.0147 0.9108 2.3934
5.9874 1.1336 2.3934
5.9536 1.3559 2.3934
5.9134 1.5777 2.3934
5.8666 1.7988 2.3934
5.8128 2.0189 2.3932
5.7512 2.2375 2.3924
5.6813 2.4541 2.3909
5.6030 2.6684 2.3886
5.5162 2.8799 2.3854
5.4207 3.0880 2.3811
5.3162 3.2921 2.3757
5.2030 3.4918 2.3691
5.0890 3.6922 2.3650
4.9773 3.8966 2.3649
4.8589 4.0988 2.3649
4.7338 4.2985 2.3648
4.6021 4.4957 2.3647
4.4636 4.6902 2.3647
4.3184 4.8817 2.3646
4.1665 5.0701 2.3645
4.0078 5.2552 2.3645
3.8424 5.4367 2.3644
3.6702 5.6145 2.3643
3.4912 5.7884 2.3643
3.3056 5.9580 2.3642
3.1132 6.1232 2.3641
2.9141 6.2837 2.3641
2.7084 6.4393 2.3640
2.4960 6.5897 2.3640
2.2771 6.7346 2.3639
2.0517 6.8738 2.3639
0.7700 2.9646 1.0001
0.6637 2.9934 0.9919
0.5564 3.0183 0.9835
0.4482 3.0393 0.9751
0.3394 3.0563 0.9667
0.2300 3.0695 0.9582
0.1203 3.0786 0.9497
0.0102 3.0838 0.9411
-0.0999 3.0849 0.9326
-0.2101 3.0821 0.9241
-0.3201 3.0753 0.9155
-0.4297 3.0646 0.9071
-0.5389 3.0498 0.8986
-0.6475 3.0311 0.8902
-0.7554 3.0085 0.8819
-0.8624 2.9820 0.8736
-0.9683 2.9516 0.8654
-2.9582 8.0423 2.3634
-3.2740 8.0122 2.3635
-3.5912 7.9701 2.3635
-3.9093 7.9155 2.3635
-4.2278 7.8483 2.3635
-4.5462 7.7683 2.3635
-4.8638 7.6753 2.3636
-5.1799 7.5690 2.3636
-5.4948 7.4504 2.3640
-5.8017 7.3119 2.3622
-6.1090 7.1645 2.3621
-6.4124 7.0043 2.3621
-6.7108 6.8304 2.3621
-7.0035 6.6430 2.3621
-9.1994 -3.1583 2.2366
-9.0517 -3.4678 2.2399
-8.8818 -3.7659 2.2410
-8.6950 -4.0531 2.2410
-8.4960 -4.3304 2.2410
-8.2858 -4.5973 2.2410
-8.0649 -4.8535 2.2410
-7.8341 -5.0986 2.2410
-7.5940 -5.3321 2.2410
-7.3689 -5.5715 2.2481
-7.2387 -5.8851 2.2882
-7.1105 -6.2096 2.3343
-6.9784 -6.5419 2.3852
-6.7087 -6.7490 2.3934
-6.4096 -6.9201 2.3934
-6.1061 -7.0779 2.3934
-5.7988 -7.2224 2.3934
-5.4884 -7.3536 2.3934
-5.1756 -7.4715 2.3934
-4.8611 -7.5764 2.3934
-4.5454 -7.6684 2.3934
-4.2292 -7.7477 2.3934
-3.9129 -7.8145 2.3934
-3.5973 -7.8690 2.3934
-3.2827 -7.9114 2.3934
-2.9696 -7.9421 2.3934
-2.6585 -7.9612 2.3934
-2.3499 -7.9692 2.3934
-2.0441 -7.9662 2.3934
-1.7415 -7.9527 2.3934
-1.4425 -7.9289 2.3934
-1.1473 -7.8951 2.3934
-0.8563 -7.8516 2.3934
-0.5697 -7.7988 2.3934
-0.2878 -7.7370 2.3934
-0.0108 -7.6666 2.3934
0.2611 -7.5877 2.3934
0.5277 -7.5008 2.3934
0.7887 -7.4061 2.3934
1.0442 -7.3040 2.3934
1.2939 -7.1948 2.3934
1.5377 -7.0787 2.3934
1.7755 -6.9560 2.3934
2.0071 -6.8271 2.3934
2.2326 -6.6921 2.3934
2.4519 -6.5514 2.3934
2.6649 -6.4052 2.3934
2.8714 -6.2538 2.3934
3.0716 -6.0974 2.3934
3.2653 -5.9362 2.3934
3.4525 -5.7706 2.3934
3.6333 -5.6006 2.3934
3.8075 -5.4265 2.3934
3.9752 -5.2486 2.3934
4.1364 -5.0670 2.3934
4.2910 -4.8819 2.3934
4.4391 -4.6935 2.3934
4.5807 -4.5020 2.3934
4.7157 -4.3076 2.3934
4.8442 -4.1104 2.3934
4.9662 -3.9106 2.3934
5.0816 -3.7084 2.3934
5.1906 -3.5039 2.3934
5.2931 -3.2972 2.3934
5.3892 -3.0886 2.3934
5.4787 -2.8781 2.3934
5.5618 -2.6658 2.3934
5.6385 -2.4520 2.3934
5.7088 -2.2368 2.3934
5.7726 -2.0202 2.3934
5.8300 -1.8024 2.3934
5.8810 -1.5835 2.3934
5.9256 -1.3637 2.3934
5.9638 -1.1430 2.3934
5.9956 -0.9216 2.3934
6.0211 -0.6996 2.3934
6.0401 -0.4771 2.3934
6.0527 -0.2542 2.3934
6.0590 -0.0310 2.3934
6.0588 0.1923 2.3934
6.0522 0.4157 2.3934
6.0392 0.6390 2.3934
6.0198 0.8621 2.3934
5.9939 1.0850 2.3934
5.9615 1.3074 2.3934
5.9227 1.5293 2.3934
5.8774 1.7505 2.3934
5.8252 1.9709 2.3932
5.7653 2.1898 2.3926
5.6972 2.4070 2.3913
5.6207 2.6218 2.3891
5.5358 2.8339 2.3861
5.4423 3.0428 2.3821
5.3399 3.2479 2.3771
5.2285 3.4485 2.3707
5.1125 3.6473 2.3650
5.0023 3.8521 2.3650
4.8853 4.0548 2.3649
4.7617 4.2551 2.3648
4.6314 4.4529 2.3647
4.4944 4.6479 2.3647
4.3507 4.8401 2.3646
4.2002 5.0292 2.3645
4.0430 5.2151 2.3645
3.8791 5.3974 2.3644
3.7084 5.5760 2.3643
3.5309 5.7508 2.3643
3.3467 5.9213 2.3642
5.5316 -1.3968 2.3934
5.5714 -1.1901 2.3934
5.6050 -0.9825 2.3934
5.6326 -0.7743 2.3934
5.6540 -0.5655 2.3934
5.6693 -0.3563 2.3934
5.6786 -0.1468 2.3934
5.6817 0.0630 2.3934
5.6788 0.2728 2.3934
5.6697 0.4826 2.3934
5.6544 0.6923 2.3934
5.6331 0.9018 2.3934
5.6056 1.1108 2.3934
5.5719 1.3194 2.3934
5.5321 1.5273 2.3934
5.4860 1.7345 2.3934
5.4331 1.9406 2.3931
5.3727 2.1451 2.3922
5.3047 2.3477 2.3907
5.2289 2.5480 2.3884
5.1454 2.7456 2.3854
5.0540 2.9401 2.3815
4.9543 3.1309 2.3765
4.8467 3.3176 2.3705
4.7345 3.5022 2.3651
4.6270 3.6921 2.3650
4.5132 3.8798 2.3649
4.3932 4.0650 2.3649
4.2670 4.2476 2.3648
4.1344 4.4273 2.3647
3.9957 4.6041 2.3647
3.8506 4.7777 2.3646
3.6993 4.9480 2.3646
3.5417 5.1147 2.3645
3.3780 5.2776 2.3644
3.2080 5.4365 2.3644
3.0318 5.5913 2.3643
2.8496 5.7416 2.3643
2.6612 5.8872 2.3642
2.4667 6.0280 2.3642
2.2663 6.1636 2.3641
2.0600 6.2939 2.3641
0.7827 2.7189 1.0014
0.6852 2.7482 0.9938
0.5867 2.7740 0.9862
0.4873 2.7962 0.9784
0.3871 2.8148 0.9706
0.2864 2.8298 0.9628
0.1851 2.8411 0.9550
0.0835 2.8488 0.9471
-0.0183 2.8527 0.9392
-0.1202 2.8530 0.9313
-0.2220 2.8496 0.9234
-0.3237 2.8425 0.9155
-0.4250 2.8317 0.9077
-0.5259 2.8173 0.8999
-0.6262 2.7992 0.8921
-0.7258 2.7775 0.8845
-0.8245 2.7522 0.8768
-0.9223 2.7233 0.8693
-2.7946 7.3802 2.3637
-3.0826 7.3446 2.3637
-3.3715 7.2979 2.3637
-3.6606 7.2398 2.3637
-3.9496 7.1702 2.3637
-4.2378 7.0890 2.3638
-4.5248 6.9960 2.3638
-4.8099 6.8910 2.3638
-5.0926 6.7740 2.3639
-5.3723 6.6449 2.3639
-5.6484 6.5037 2.3640
-5.9226 6.3531 2.3650
-6.1858 6.1840 2.3636
-6.4413 6.0015 2.3616
-6.6958 5.8124 2.3616
-6.9433 5.6116 2.3616
-7.1831 5.3994 2.3616
-7.4146 5.1759 2.3615
-7.6371 4.9416 2.3615
-7.8499 4.6967 2.3614
-8.0524 4.4417 2.3614
-8.2441 4.1769 2.3613
-8.4241 3.9029 2.3612
-8.5921 3.6203 2.3611
-8.7475 3.3294 2.3610
-8.8897 3.0311 2.3609
-9.0182 2.7259 2.3608
-9.1327 2.4144 2.3607
-9.2328 2.0975 2.3606
-9.3181 1.7759 2.3605
-9.3883 1.4503 2.3603
-9.4432 1.1214 2.3602
-9.4826 0.7902 2.3601
-9.5064 0.4575 2.3599
-9.5145 0.1239 2.3598
-9.5069 -0.2095 2.3596
-9.4868 -0.5422 2.3602
-9.4618 -0.8745 2.3635
-9.4210 -1.2051 2.3667
-9.3526 -1.5313 2.3668
-9.2959 -1.8588 2.3737
-9.2213 -2.1828 2.3799
-9.1247 -2.5009 2.3843
-8.9413 -2.7913 2.3695
-8.6769 -3.0468 2.3360
-8.4504 -3.3047 2.3153
-8.2529 -3.5662 2.3053
-8.0778 -3.8325 2.3046
-7.9235 -4.1061 2.3132
-7.7880 -4.3895 2.3309
-7.6665 -4.6833 2.3569
-7.5496 -4.9845 2.3888
-7.3341 -5.2214 2.3934
-7.0958 -5.4377 2.3934
-6.8500 -5.6426 2.3934
-6.5973 -5.8360 2.3934
-6.3383 -6.0177 2.3934
-6.0738 -6.1876 2.3934
-5.8043 -6.3457 2.3934
-5.5305 -6.4918 2.3934
-5.2531 -6.6260 2.3934
-4.9725 -6.7484 2.3934
-4.6895 -6.8588 2.3934
-4.4046 -6.9576 2.3934
-4.1183 -7.0447 2.3934
-3.8312 -7.1203 2.3934
-3.5438 -7.1845 2.3934
-3.2566 -7.2376 2.3934
-2.9699 -7.2797 2.3934
-2.6844 -7.3111 2.3934
-2.4003 -7.3320 2.3934
-2.1181 -7.3425 2.3934
-1.8382 -7.3430 2.3934
-1.5609 -7.3338 2.3934
-1.2864 -7.3150 2.3934
-1.0153 -7.2870 2.3934
-0.7476 -7.2500 2.3934
-0.4837 -7.2042 2.3934
-0.2238 -7.1501 2.3934
0.0318 -7.0878 2.3934
0.2829 -7.0176 2.3934
0.5294 -6.9399 2.3934
0.7711 -6.8547 2.3934
1.0078 -6.7626 2.3934
1.2394 -6.6636 2.3934
1.4658 -6.5581 2.3934
1.6867 -6.4464 2.3934
1.9022 -6.3286 2.3934
2.1121 -6.2051 2.3934
2.3163 -6.0760 2.3934
2.5149 -5.9417 2.3934
2.7076 -5.8022 2.3934
2.8945 -5.6580 2.3934
3.0754 -5.5091 2.3934
3.2504 -5.3559 2.3934
3.4195 -5.1984 2.3934
3.5825 -5.0370 2.3934
3.7395 -4.8717 2.3934
3.8904 -4.7029 2.3934
4.0352 -4.5306 2.3934
4.1740 -4.3551 2.3934
4.3066 -4.1766 2.3934
4.4332 -3.9951 2.3934
4.5536 -3.8109 2.3934
4.6679 -3.6242 2.3934
4.7761 -3.4350 2.3934
4.8782 -3.2436 2.3934
4.9742 -3.0500 2.3934
5.0640 -2.8545 2.3934
5.1478 -2.6571 2.3934
5.2254 -2.4581 2.3934
5.2970 -2.2575 2.3934
5.3624 -2.0554 2.3934
5.4218 -1.8520 2.3934
5.4750 -1.6475 2.3934
5.5222 -1.4418 2.3934
5.5632 -1.2353 2.3934
5.5982 -1.0279 2.3934
5.6271 -0.8198 2.3934
5.6498 -0.6112 2.3934
5.6665 -0.4020 2.3934
5.6771 -0.1926 2.3934
5.6816 0.0172 2.3934
5.6799 0.2270 2.3934
5.6722 0.4368 2.3934
5.6583 0.6465 2.3934
5.6383 0.8560 2.3934
5.6121 1.0652 2.3934
5.5798 1.2738 2.3934
5.5413 1.4819 2.3934
5.4966 1.6893 2.3934
5.4452 1.8956 2.3932
5.3865 2.1005 2.3924
5.3201 2.3036 2.3910
5.2461 2.5044 2.3889
5.1642 2.7027 2.3861
5.0745 2.8979 2.3824
4.9768 3.0896 2.3777
4.8709 3.2772 2.3719
4.7571 3.4604 2.3651
4.6510 3.6508 2.3650
4.5386 3.8390 2.3650
4.4200 4.0247 2.3649
4.2951 4.2079 2.3648
4.1639 4.3883 2.3648
4.0265 4.5658 2.3647
3.8828 4.7401 2.3646
3.7329 4.9111 2.3646
3.5767 5.0786 2.3645
3.4143 5.2423 2.3645
3.2456 5.4022 2.3644
3.0708 5.5578 2.3643
2.8899 5.7091 2.3643
2.7028 5.8558 2.3642
2.5097 5.9977 2.3642
2.3106 6.1344 2.3641
2.1056 6.2659 2.3641
0.8039 2.7120 1.0031
0.7066 2.7421 0.9955
0.6083 2.7687 0.9878
0.5091 2.7917 0.9801
0.4091 2.8111 0.9724
0.3084 2.8269 0.9645
0.2073 2.8390 0.9567
0.1057 2.8474 0.9488
0.0039 2.8522 0.9409
-0.0979 2.8532 0.9330
-0.1998 2.8506 0.9251
-0.3015 2.8443 0.9173
-0.4029 2.8344 0.9094
-0.5039 2.8207 0.9016
-0.6044 2.8034 0.8938
-0.7041 2.7825 0.8861
-0.8030 2.7580 0.8785
-0.9010 2.7299 0.8709
-2.7318 7.3866 2.3637
-3.0196 7.3533 2.3637
-3.3083 7.3090 2.3637
-3.5974 7.2535 2.3637
-3.8865 7.1864 2.3637
-4.1749 7.1078 2.3638
-4.4622 7.0173 2.3638
-4.7478 6.9149 2.3638
-5.0311 6.8006 2.3639
-5.3115 6.6741 2.3639
-5.5884 6.5356 2.3640
-5.8612 6.3850 2.3640
-6.1264 6.2195 2.3630
-6.3862 6.0425 2.3621
-6.6408 5.8547 2.3616
-6.8899 5.6564 2.3616
-7.1314 5.4467 2.3616
-7.3648 5.2257 2.3615
-7.5893 4.9937 2.3615
-7.8043 4.7511 2.3614
-8.0091 4.4982 2.3614
-8.2032 4.2356 2.3613
-8.3858 3.9636 2.3612
-8.5565 3.6827 2.3612
-8.7146 3.3936 2.3611
-8.8598 3.0969 2.3610
-8.9913 2.7931 2.3609
-9.1089 2.4830 2.3607
-9.2122 2.1672 2.3606
-9.3007 1.8465 2.3605
-9.3742 1.5217 2.3604
-9.4325 1.1935 2.3602
-9.4753 0.8627 2.3601
-9.5025 0.5302 2.3599
-9.5141 0.1968 2.3598
-9.5099 -0.1367 2.3596
-9.4901 -0.4695 2.3595
-9.4693 -0.8020 2.3630
-9.4334 -1.1333 2.3665
-9.3688 -1.4603 2.3668
-9.3078 -1.7872 2.3717
-9.2404 -2.1127 2.3790
-9.1469 -2.4318 2.3833
-9.0036 -2.7352 2.3783
-8.7321 -2.9912 2.3425
-8.4967 -3.2479 2.3188
-8.2942 -3.5088 2.3068
-8.1140 -3.7737 2.3039
-7.9550 -4.0453 2.3104
-7.8151 -4.3261 2.3259
-7.6918 -4.6181 2.3504
-7.5754 -4.9183 2.3815
-7.3851 -5.1727 2.3934
-7.1485 -5.3914 2.3934
-6.9043 -5.5988 2.3934
-6.6530 -5.7947 2.3934
-6.3954 -5.9790 2.3934
-6.1320 -6.1515 2.3934
-5.8635 -6.3122 2.3934
-5.5907 -6.4609 2.3934
-5.3139 -6.5977 2.3934
-5.0340 -6.7226 2.3934
-4.7515 -6.8357 2.3934
-4.4670 -6.9370 2.3934
-4.1810 -7.0266 2.3934
-3.8940 -7.1047 2.3934
-3.6066 -7.1714 2.3934
-3.3193 -7.2269 2.3934
-3.0325 -7.2715 2.3934
-2.7466 -7.3052 2.3934
-2.4622 -7.3283 2.3934
-2.1796 -7.3411 2.3934
-1.8991 -7.3438 2.3934
-1.6212 -7.3366 2.3934
-1.3461 -7.3199 2.3934
-1.0742 -7.2939 2.3934
-0.8057 -7.2588 2.3934
-0.5410 -7.2150 2.3934
-0.2803 -7.1626 2.3934
-0.0237 -7.1021 2.3934
0.2284 -7.0336 2.3934
0.4760 -6.9575 2.3934
0.7187 -6.8739 2.3934
0.9566 -6.7833 2.3934
1.1893 -6.6858 2.3934
1.4168 -6.5817 2.3934
1.6389 -6.4713 2.3934
1.8556 -6.3549 2.3934
2.0667 -6.2326 2.3934
2.2722 -6.1047 2.3934
2.4720 -5.9714 2.3934
2.6660 -5.8331 2.3934
2.8541 -5.6899 2.3934
3.0364 -5.5420 2.3934
3.2127 -5.3897 2.3934
3.3831 -5.2332 2.3934
3.5474 -5.0726 2.3934
3.7057 -4.9081 2.3934
3.8579 -4.7401 2.3934
4.0041 -4.5686 2.3934
4.1442 -4.3938 2.3934
4.2782 -4.2158 2.3934
4.4061 -4.0350 2.3934
4.5278 -3.8514 2.3934
4.6435 -3.6652 2.3934
4.7530 -3.4765 2.3934
4.8564 -3.2856 2.3934
4.9537 -3.0925 2.3934
5.0449 -2.8974 2.3934
5.1300 -2.7004 2.3934
5.2090 -2.5017 2.3934
5.2819 -2.3014 2.3934
5.3486 -2.0996 2.3934
5.4093 -1.8965 2.3934
5.4639 -1.6922 2.3934
5.5124 -1.4868 2.3934
5.5548 -1.2805 2.3934
5.5911 -1.0733 2.3934
5.6213 -0.8653 2.3934
5.6454 -0.6568 2.3934
5.6634 -0.4478 2.3934
5.6753 -0.2383 2.3934
5.6811 -0.0287 2.3934
5.6808 0.1812 2.3934
5.6744 0.3910 2.3934
5.6619 0.6007 2.3934
5.6432 0.8103 2.3934
5.6184 1.0195 2.3934
5.5874 1.2283 2.3934
5.5502 1.4365 2.3934
5.5069 1.6441 2.3934
5.4570 1.8507 2.3932
5.3999 2.0559 2.3926
5.3352 2.2594 2.3914
5.2629 2.4607 2.3895
5.1827 2.6596 2.3868
5.0947 2.8555 2.3832
4.9987 3.0480 2.3788
4.8946 3.2365 2.3732
4.7830 3.4210 2.3668
4.6747 3.6094 2.3650
4.5637 3.7981 2.3650
4.4464 3.9844 2.3649
4.3229 4.1681 2.3648
4.1931 4.3492 2.3648
4.0571 4.5273 2.3647
3.9147 4.7023 2.3646
3.7662 4.8740 2.3646
3.6113 5.0423 2.3645
3.4503 5.2069 2.3645
3.2830 5.3676 2.3644
3.1096 5.5242 2.3644
5.1997 -1.3152 2.3934
5.2375 -1.1206 2.3934
5.2695 -0.9251 2.3934
5.2957 -0.7290 2.3934
5.3160 -0.5323 2.3934
5.3306 -0.3352 2.3934
5.3393 -0.1378 2.3934
5.3422 0.0598 2.3934
5.3392 0.2575 2.3934
5.3304 0.4552 2.3934
5.3158 0.6527 2.3934
5.2953 0.8499 2.3934
5.2689 1.0467 2.3934
5.2366 1.2430 2.3934
5.1985 1.4387 2.3934
5.1544 1.6336 2.3934
5.1039 1.8274 2.3931
5.0463 2.0196 2.3922
4.9816 2.2100 2.3908
4.9099 2.3983 2.3888
4.8309 2.5842 2.3861
4.7447 2.7671 2.3826
4.6511 2.9467 2.3783
4.5501 3.1226 2.3730
4.4423 3.2947 2.3670
4.3366 3.4698 2.3651
4.2285 3.6451 2.3650
4.1145 3.8179 2.3650
3.9946 3.9881 2.3649
3.8689 4.1556 2.3648
3.7373 4.3200 2.3648
3.5999 4.4813 2.3647
3.4566 4.6393 2.3647
3.3076 4.7937 2.3646
3.1528 4.9445 2.3646
2.9922 5.0913 2.3645
2.8260 5.2340 2.3645
2.6542 5.3723 2.3644
2.4767 5.5061 2.3644
2.2937 5.6351 2.3643
2.1053 5.7592 2.3643
0.8117 2.4960 1.0039
0.7221 2.5265 0.9970
0.6315 2.5537 0.9899
0.5399 2.5777 0.9828
0.4476 2.5983 0.9756
0.3545 2.6155 0.9684
0.2609 2.6294 0.9611
0.1668 2.6399 0.9538
0.0724 2.6470 0.9465
-0.0222 2.6507 0.9391
-0.1169 2.6509 0.9318
-0.2115 2.6477 0.9245
-0.3059 2.6411 0.9172
-0.4001 2.6311 0.9099
-0.4938 2.6177 0.9026
-0.5870 2.6009 0.8954
-0.6795 2.5807 0.8883
-0.7712 2.5572 0.8812
-0.8621 2.5304 0.8742
-0.9519 2.5004 0.8673
-2.8587 6.7779 2.3639
-3.1233 6.7303 2.3639
-3.3879 6.6724 2.3639
-3.6519 6.6040 2.3639
-3.9149 6.5249 2.3640
-4.1764 6.4351 2.3640
-4.4360 6.3345 2.3640
-4.6930 6.2230 2.3641
-4.9469 6.1006 2.3641
-5.1972 5.9674 2.3642
-5.4434 5.8232 2.3642
-5.6848 5.6683 2.3643
-5.9208 5.5027 2.3643
-6.1509 5.3265 2.3644
-6.3746 5.1399 2.3645
-6.5941 4.9454 2.3656
-6.7973 4.7346 2.3637
-6.9981 4.5185 2.3638
-7.1845 4.2897 2.3621
-7.3629 4.0532 2.3610
-7.5348 3.8101 2.3609
-7.6961 3.5588 2.3608
-7.8466 3.3000 2.3608
-7.9857 3.0340 2.3607
-8.1129 2.7613 2.3606
-8.2279 2.4827 2.3605
-8.3303 2.1987 2.3604
-8.4198 1.9098 2.3603
-8.4966 1.6169 2.3603
-8.5648 1.3212 2.3616
-8.6204 1.0225 2.3633
-8.6605 0.7211 2.3644
-8.6888 0.4180 2.3661
-8.6973 0.1138 2.3662
-8.6918 -0.1905 2.3663
-8.6723 -0.4940 2.3664
-8.6389 -0.7961 2.3665
-8.5918 -1.0962 2.3666
-8.5370 -1.3943 2.3684
-8.4927 -1.6942 2.3768
-8.4273 -1.9902 2.3832
-8.3428 -2.2814 2.3880
-8.2396 -2.5664 2.3910
-8.1195 -2.8445 2.3928
-7.9834 -3.1149 2.3934
-7.8340 -3.3775 2.3934
-7.6737 -3.6323 2.3934
-7.5030 -3.8791 2.3934
-7.3225 -4.1174 2.3934
-7.1326 -4.3467 2.3934
-6.9340 -4.5668 2.3934
-6.7271 -4.7773 2.3934
-6.5126 -4.9780 2.3934
-6.2910 -5.1686 2.3934
-6.0630 -5.3489 2.3934
-5.8290 -5.5188 2.3934
-5.5896 -5.6781 2.3934
-5.3455 -5.8268 2.3934
-5.0972 -5.9648 2.3934
-4.8452 -6.0920 2.3934
-4.5901 -6.2085 2.3934
-4.3324 -6.3143 2.3934
-4.0726 -6.4093 2.3934
-3.8113 -6.4939 2.3934
-3.5488 -6.5679 2.3934
-3.2857 -6.6315 2.3934
-3.0224 -6.6849 2.3934
-2.7593 -6.7282 2.3934
-2.4969 -6.7616 2.3934
-2.2354 -6.7853 2.3934
-1.9754 -6.7995 2.3934
-1.7171 -6.8043 2.3934
-1.4609 -6.8000 2.3934
-1.2071 -6.7868 2.3934
-0.9560 -6.7650 2.3934
-0.7078 -6.7347 2.3934
-0.4628 -6.6962 2.3934
-0.2212 -6.6498 2.3934
0.0166 -6.5957 2.3934
0.2506 -6.5340 2.3934
0.4805 -6.4652 2.3934
0.7062 -6.3894 2.3934
0.9274 -6.3069 2.3934
1.1441 -6.2178 2.3934
1.3561 -6.1225 2.3934
1.5633 -6.0211 2.3934
1.7655 -5.9140 2.3934
1.9627 -5.8013 2.3934
2.1547 -5.6832 2.3934
2.3416 -5.5600 2.3934
2.5231 -5.4318 2.3934
2.6992 -5.2990 2.3934
2.8699 -5.1616 2.3934
3.0352 -5.0199 2.3934
3.1949 -4.8742 2.3934
3.3490 -4.7245 2.3934
3.4976 -4.5711 2.3934
3.6404 -4.4141 2.3934
3.7777 -4.2537 2.3934
3.9092 -4.0902 2.3934
4.0350 -3.9236 2.3934
4.1551 -3.7542 2.3934
4.2694 -3.5820 2.3934
4.3780 -3.4073 2.3934
4.4808 -3.2301 2.3934
4.5779 -3.0508 2.3934
4.6691 -2.8693 2.3934
4.7546 -2.6858 2.3934
4.8343 -2.5005 2.3934
4.9082 -2.3135 2.3934
4.9763 -2.1250 2.3934
5.0386 -1.9350 2.3934
5.0951 -1.7437 2.3934
5.1458 -1.5512 2.3934
5.1906 -1.3576 2.3934
5.2297 -1.1632 2.3934
5.2630 -0.9679 2.3934
5.2904 -0.7719 2.3934
5.3121 -0.5753 2.3934
5.3279 -0.3783 2.3934
5.3379 -0.1809 2.3934
5.3420 0.0166 2.3934
5.3403 0.2143 2.3934
5.3328 0.4120 2.3934
5.3195 0.6095 2.3934
5.3002 0.8068 2.3934
5.2751 1.0038 2.3934
5.2442 1.2002 2.3934
5.2073 1.3960 2.3934
5.1646 1.5911 2.3934
5.1154 1.7851 2.3932
5.0594 1.9777 2.3924
4.9963 2.1686 2.3912
4.9261 2.3574 2.3893
4.8487 2.5438 2.3867
4.7641 2.7274 2.3834
4.6721 2.9078 2.3793
4.5727 3.0845 2.3742
4.4663 3.2574 2.3683
4.3594 3.4312 2.3651
4.2526 3.6070 2.3650
4.1399 3.7804 2.3650
4.0213 3.9512 2.3649
3.8968 4.1192 2.3649
3.7665 4.2844 2.3648
3.6304 4.4464 2.3647
3.4884 4.6051 2.3647
3.3406 4.7603 2.3646
3.1871 4.9119 2.3646
3.0278 5.0595 2.3645
2.8628 5.2031 2.3645
2.6922 5.3425 2.3644
2.5159 5.4773 2.3644
2.3342 5.6074 2.3643
2.1469 5.7325 2.3643
0.8311 2.4889 1.0054
0.7418 2.5201 0.9985
0.6514 2.5480 0.9914
0.5600 2.5727 0.9843
0.4678 2.5941 0.9772
0.3749 2.6121 0.9699
0.2814 2.6267 0.9627
0.1874 2.6379 0.9554
0.0930 2.6458 0.9481
-0.0015 2.6502 0.9407
-0.0962 2.6512 0.9334
-0.1908 2.6487 0.9261
-0.2853 2.6429 0.9187
-0.3795 2.6336 0.9115
-0.4734 2.6209 0.9042
-0.5667 2.6049 0.8970
-0.6594 2.5854 0.8898
-0.7513 2.5627 0.8827
-0.8423 2.5366 0.8757
-0.9324 2.5072 0.8688
-2.8010 6.7869 2.3639
-3.0655 6.7416 2.3639
-3.3301 6.6859 2.3639
-3.5943 6.6198 2.3639
-3.8575 6.5431 2.3640
-4.1194 6.4557 2.3640
-4.3795 6.3574 2.3640
-4.6371 6.2483 2.3641
-4.8917 6.1283 2.3641
-5.1429 5.9974 2.3642
-5.3900 5.8557 2.3642
-5.6325 5.7031 2.3643
-5.8697 5.5398 2.3643
-6.1012 5.3659 2.3644
-6.3263 5.1816 2.3644
-6.5459 4.9881 2.3650
-6.7537 4.7815 2.3641
-6.9548 4.5664 2.3637
-7.1446 4.3404 2.3625
-7.3241 4.1051 2.3610
-7.4981 3.8639 2.3609
-7.6618 3.6144 2.3609
-7.8147 3.3572 2.3608
-7.9563 3.0927 2.3607
-8.0861 2.8214 2.3606
-8.2038 2.5441 2.3605
-8.3090 2.2611 2.3604
-8.4014 1.9733 2.3603
-8.4806 1.6811 2.3602
-8.5509 1.3861 2.3613
-8.6093 1.0880 2.3629
-8.6522 0.7870 2.3639
-8.6854 0.4844 2.3662
-8.6966 0.1803 2.3662
-8.6942 -0.1240 2.3663
-8.6777 -0.4278 2.3664
-8.6474 -0.7303 2.3665
-8.6032 -1.0308 2.3666
-8.5455 -1.3287 2.3667
-8.5040 -1.6289 2.3751
-8.4433 -1.9259 2.3820
-8.3627 -2.2182 2.3870
-8.2637 -2.5047 2.3905
-8.1470 -2.7844 2.3925
-8.0143 -3.0565 2.3933
-7.8676 -3.3207 2.3934
-7.7096 -3.5773 2.3934
-7.5412 -3.8259 2.3934
-7.3628 -4.0661 2.3934
-7.1749 -4.2974 2.3934
-6.9781 -4.5195 2.3934
-6.7730 -4.7321 2.3934
-6.5601 -4.9350 2.3934
-6.3400 -5.1278 2.3934
-6.1133 -5.3104 2.3934
-5.8806 -5.4826 2.3934
-5.6423 -5.6442 2.3934
-5.3992 -5.7953 2.3934
-5.1518 -5.9356 2.3934
-4.9005 -6.0651 2.3934
-4.6461 -6.1840 2.3934
-4.3889 -6.2921 2.3934
-4.1295 -6.3895 2.3934
-3.8685 -6.4763 2.3934
-3.6062 -6.5526 2.3934
-3.3432 -6.6185 2.3934
-3.0799 -6.6741 2.3934
-2.8167 -6.7196 2.3934
-2.5541 -6.7552 2.3934
-2.2924 -6.7810 2.3934
-2.0321 -6.7972 2.3934
-1.7734 -6.8040 2.3934
-1.5167 -6.8017 2.3934
-1.2623 -6.7904 2.3934
-1.0106 -6.7704 2.3934
-0.7617 -6.7420 2.3934
-0.5160 -6.7053 2.3934
-0.2737 -6.6606 2.3934
-0.0350 -6.6081 2.3934
0.1998 -6.5481 2.3934
0.4307 -6.4809 2.3934
0.6573 -6.4066 2.3934
0.8795 -6.3255 2.3934
1.0972 -6.2378 2.3934
1.3102 -6.1438 2.3934
1.5185 -6.0438 2.3934
1.7218 -5.9379 2.3934
1.9201 -5.8263 2.3934
2.1132 -5.7094 2.3934
2.3012 -5.5873 2.3934
2.4839 -5.4602 2.3934
2.6612 -5.3284 2.3934
2.8331 -5.1920 2.3934
2.9996 -5.0513 2.3934
3.1605 -4.9064 2.3934
3.3158 -4.7575 2.3934
3.4656 -4.6049 2.3934
3.6097 -4.4487 2.3934
3.7482 -4.2890 2.3934
3.8809 -4.1262 2.3934
4.0080 -3.9602 2.3934
4.1293 -3.7914 2.3934
4.2449 -3.6198 2.3934
4.3548 -3.4456 2.3934
4.4589 -3.2690 2.3934
4.5572 -3.0901 2.3934
4.6497 -2.9091 2.3934
4.7364 -2.7260 2.3934
4.8174 -2.5411 2.3934
4.8925 -2.3545 2.3934
4.9619 -2.1663 2.3934
5.0255 -1.9766 2.3934
5.0832 -1.7856 2.3934
5.1352 -1.5933 2.3934
5.1813 -1.4000 2.3934
5.2217 -1.2057 2.3934
5.2562 -1.0106 2.3934
5.2849 -0.8148 2.3934
5.3078 -0.6183 2.3934
5.3249 -0.4214 2.3934
5.3362 -0.2241 2.3934
5.3416 -0.0265 2.3934
5.3412 0.1711 2.3934
5.3350 0.3688 2.3934
5.3229 0.5664 2.3934
5.3049 0.7638 2.3934
5.2811 0.9608 2.3934
5.2514 1.1573 2.3934
5.2159 1.3533 2.3934
5.1744 1.5485 2.3934
5.1267 1.7428 2.3932
5.0722 1.9358 2.3926
5.0107 2.1271 2.3915
4.9421 2.3163 2.3898
4.8663 2.5033 2.3873
4.7832 2.6875 2.3842
4.6929 2.8687 2.3803
4.5951 3.0462 2.3754
4.4901 3.2199 2.3696
4.3820 3.3924 2.3651
4.2764 3.5688 2.3651
4.1650 3.7427 2.3650
4.0477 3.9141 2.3649
3.9245 4.0828 2.3649
3.7955 4.2486 2.3648
3.6606 4.4113 2.3648
3.5199 4.5707 2.3647
3.3734 4.7267 2.3646
3.2211 4.8791 2.3646
3.0631 5.0276 2.3645
2.8993 5.1721 2.3645
4.8996 -1.2415 2.3934
4.9356 -1.0578 2.3934
4.9661 -0.8732 2.3934
4.9910 -0.6880 2.3934
5.0104 -0.5023 2.3934
5.0242 -0.3162 2.3934
5.0324 -0.1297 2.3934
5.0351 0.0569 2.3934
5.0322 0.2436 2.3934
5.0237 0.4303 2.3934
5.0096 0.6168 2.3934
4.9899 0.8030 2.3934
4.9646 0.9888 2.3934
4.9337 1.1740 2.3934
4.8971 1.3586 2.3934
4.8549 1.5424 2.3934
4.8066 1.7251 2.3931
4.7516 1.9063 2.3923
4.6901 2.0858 2.3910
4.6219 2.2633 2.3891
4.5471 2.4385 2.3867
4.4656 2.6110 2.3836
4.3773 2.7805 2.3797
4.2822 2.9465 2.3751
4.1806 3.1089 2.3697
4.0753 3.2697 2.3652
3.9724 3.4340 2.3651
3.8639 3.5959 2.3650
3.7500 3.7551 2.3650
3.6305 3.9116 2.3649
3.5055 4.0652 2.3649
3.3751 4.2156 2.3648
3.2392 4.3628 2.3648
3.0979 4.5064 2.3647
2.9513 4.6465 2.3647
2.7994 4.7827 2.3646
2.6422 4.9148 2.3646
2.4798 5.0428 2.3645
2.3122 5.1663 2.3645
2.1396 5.2852 2.3644
0.8347 2.2971 1.0060
0.7523 2.3286 0.9995
0.6687 2.3570 0.9930
0.5841 2.3824 0.9864
0.4987 2.4047 0.9798
0.4126 2.4239 0.9731
0.3258 2.4400 0.9663
0.2384 2.4529 0.9596
0.1507 2.4627 0.9527
0.0626 2.4693 0.9459
-0.0256 2.4727 0.9391
-0.1139 2.4730 0.9322
-0.2022 2.4700 0.9254
-0.2903 2.4638 0.9186
-0.3781 2.4545 0.9118
-0.4655 2.4419 0.9050
-0.5524 2.4263 0.8983
-0.6387 2.4075 0.8916
-0.7243 2.3855 0.8850
-0.8090 2.3606 0.8785
-0.8928 2.3325 0.8720
-0.9755 2.3015 0.8657
-2.9079 6.2374 2.3641
-3.1513 6.1802 2.3641
-3.3940 6.1134 2.3641
-3.6355 6.0368 2.3641
-3.8754 5.9504 2.3642
-4.1132 5.8542 2.3642
-4.3484 5.7480 2.3642
-4.5805 5.6319 2.3643
-4.8092 5.5060 2.3643
-5.0337 5.3703 2.3644
-5.2537 5.2247 2.3644
-5.4687 5.0696 2.3645
-5.6780 4.9049 2.3645
-5.8812 4.7309 2.3646
-6.0779 4.5478 2.3647
-6.2674 4.3558 2.3647
-6.4493 4.1552 2.3648
-6.6230 3.9462 2.3649
-6.7882 3.7292 2.3649
-6.9443 3.5045 2.3650
-7.0910 3.2726 2.3651
-7.2277 3.0339 2.3652
-7.3540 2.7889 2.3653
-7.4697 2.5379 2.3654
-7.5744 2.2816 2.3655
-7.6676 2.0204 2.3655
-7.7492 1.7549 2.3656
-7.8190 1.4857 2.3657
-7.8766 1.2133 2.3658
-7.9219 0.9385 2.3659
-7.9548 0.6617 2.3660
-7.9752 0.3836 2.3661
-7.9830 0.1049 2.3662
-7.9783 -0.1738 2.3663
-7.9609 -0.4519 2.3664
-7.9311 -0.7288 2.3665
-7.8889 -1.0039 2.3666
-7.8522 -1.2793 2.3721
-7.8083 -1.5539 2.3791
-7.7471 -1.8253 2.3846
-7.6688 -2.0922 2.3885
-7.5749 -2.3539 2.3912
-7.4663 -2.6097 2.3928
-7.3437 -2.8587 2.3934
-7.2090 -3.1008 2.3934
-7.0643 -3.3360 2.3934
-6.9101 -3.5641 2.3934
-6.7469 -3.7846 2.3934
-6.5750 -3.9971 2.3934
-6.3951 -4.2014 2.3934
-6.2075 -4.3971 2.3934
-6.0128 -4.5841 2.3934
-5.8115 -4.7619 2.3934
-5.6041 -4.9306 2.3934
-5.3911 -5.0898 2.3934
-5.1729 -5.2396 2.3934
-4.9502 -5.3797 2.3934
-4.7234 -5.5101 2.3934
-4.4929 -5.6307 2.3934
-4.2594 -5.7416 2.3934
-4.0232 -5.8427 2.3934
-3.7848 -5.9341 2.3934
-3.5447 -6.0158 2.3934
-3.3033 -6.0878 2.3934
-3.0611 -6.1503 2.3934
-2.8184 -6.2034 2.3934
-2.5756 -6.2472 2.3934
-2.3331 -6.2818 2.3934
-2.0913 -6.3073 2.3934
-1.8505 -6.3240 2.3934
-1.6110 -6.3321 2.3934
-1.3733 -6.3316 2.3934
-1.1374 -6.3227 2.3934
-0.9038 -6.3058 2.3934
-0.6727 -6.2809 2.3934
-0.4443 -6.2483 2.3934
-0.2189 -6.2082 2.3934
0.0032 -6.1608 2.3934
0.2220 -6.1064 2.3934
0.4372 -6.0450 2.3934
0.6486 -5.9770 2.3934
0.8561 -5.9026 2.3934
1.0595 -5.8219 2.3934
1.2587 -5.7353 2.3934
1.4535 -5.6428 2.3934
1.6438 -5.5447 2.3934
1.8295 -5.4413 2.3934
2.0106 -5.3327 2.3934
2.1868 -5.2191 2.3934
2.3582 -5.1008 2.3934
2.5246 -4.9779 2.3934
2.6861 -4.8506 2.3934
2.8424 -4.7191 2.3934
2.9936 -4.5836 2.3934
3.1397 -4.4442 2.3934
3.2805 -4.3012 2.3934
3.4160 -4.1547 2.3934
3.5462 -4.0049 2.3934
3.6711 -3.8520 2.3934
3.7907 -3.6960 2.3934
3.9048 -3.5373 2.3934
4.0135 -3.3758 2.3934
4.1168 -3.2118 2.3934
4.2147 -3.0455 2.3934
4.3071 -2.8769 2.3934
4.3940 -2.7062 2.3934
4.4754 -2.5336 2.3934
4.5513 -2.3591 2.3934
4.6217 -2.1830 2.3934
4.6866 -2.0053 2.3934
4.7460 -1.8262 2.3934
4.7999 -1.6458 2.3934
4.8482 -1.4642 2.3934
4.8910 -1.2815 2.3934
4.9282 -1.0980 2.3934
4.9599 -0.9136 2.3934
4.9861 -0.7285 2.3934
5.0066 -0.5429 2.3934
5.0217 -0.3569 2.3934
5.0311 -0.1705 2.3934
5.0350 0.0162 2.3934
5.0333 0.2029 2.3934
5.0260 0.3895 2.3934
5.0131 0.5761 2.3934
4.9946 0.7623 2.3934
4.9706 0.9482 2.3934
4.9409 1.1336 2.3934
4.9056 1.3184 2.3934
4.8647 1.5024 2.3934
4.8177 1.6853 2.3931
4.7641 1.8669 2.3925
4.7041 2.0468 2.3913
4.6374 2.2247 2.3896
4.5640 2.4004 2.3873
4.4840 2.5736 2.3843
4.3972 2.7437 2.3807
4.3036 2.9106 2.3762
4.2034 3.0738 2.3709
4.0971 3.2335 2.3652
3.9954 3.3983 2.3651
3.8881 3.5607 2.3651
3.7753 3.7206 2.3650
3.6570 3.8777 2.3649
3.5333 4.0319 2.3649
3.4040 4.1830 2.3648
3.2693 4.3309 2.3648
3.1292 4.4754 2.3647
2.9838 4.6162 2.3647
2.8330 4.7533 2.3646
2.6770 4.8863 2.3646
2.5157 5.0152 2.3645
2.3493 5.1397 2.3645
2.1777 5.2596 2.3644
2.0012 5.3747 2.3644
0.7704 2.3219 1.0009
0.6870 2.3510 0.9944
0.6027 2.3771 0.9879
0.5175 2.4001 0.9812
0.4314 2.4200 0.9746
0.3448 2.4367 0.9678
0.2575 2.4504 0.9610
0.1699 2.4609 0.9542
0.0819 2.4682 0.9474
-0.0063 2.4723 0.9406
-0.0946 2.4732 0.9337
-0.1829 2.4709 0.9269
-0.2710 2.4654 0.9201
-0.3589 2.4568 0.9133
-0.4465 2.4449 0.9065
-0.5335 2.4300 0.8998
-0.6200 2.4118 0.8931
-0.7057 2.3906 0.8865
-0.7906 2.3663 0.8799
-0.8746 2.3389 0.8734
-0.9576 2.3085 0.8671
-2.8546 6.2487 2.3641
-3.0982 6.1936 2.3641
-3.3411 6.1288 2.3641
-3.5829 6.0544 2.3641
-3.8231 5.9701 2.3642
-4.0614 5.8760 2.3642
-4.2972 5.7720 2.3642
-4.5301 5.6581 2.3643
-4.7595 5.5344 2.3643
-4.9850 5.4007 2.3644
-5.2061 5.2574 2.3644
-5.4222 5.1043 2.3645
-5.6328 4.9417 2.3645
-5.8374 4.7697 2.3646
-6.0355 4.5886 2.3646
-6.2266 4.3985 2.3647
-6.4102 4.1997 2.3648
-6.5858 3.9925 2.3649
-6.7529 3.7772 2.3649
-6.9110 3.5542 2.3650
-7.0598 3.3239 2.3651
-7.1987 3.0866 2.3652
-7.3273 2.8429 2.3653
-7.4454 2.5932 2.3653
-7.5525 2.3380 2.3654
-7.6482 2.0778 2.3655
-7.7324 1.8132 2.3656
-7.8048 1.5448 2.3657
-7.8650 1.2731 2.3658
-7.9131 0.9987 2.3659
-7.9487 0.7223 2.3660
-7.9718 0.4444 2.3661
-7.9824 0.1658 2.3662
-7.9804 -0.1130 2.3663
-7.9658 -0.3913 2.3664
-7.9387 -0.6685 2.3665
-7.8992 -0.9440 2.3666
-7.8595 -1.2190 2.3703
-7.8195 -1.4942 2.3777
-7.7618 -1.7663 2.3835
-7.6875 -2.0343 2.3878
-7.5968 -2.2972 2.3907
-7.4912 -2.5543 2.3925
-7.3715 -2.8048 2.3933
-7.2393 -3.0484 2.3934
-7.0967 -3.2852 2.3934
-6.9446 -3.5149 2.3934
-6.7833 -3.7371 2.3934
-6.6133 -3.9514 2.3934
-6.4351 -4.1575 2.3934
-6.2491 -4.3551 2.3934
-6.0559 -4.5440 2.3934
-5.8560 -4.7239 2.3934
-5.6499 -4.8945 2.3934
-5.4380 -5.0559 2.3934
-5.2210 -5.2077 2.3934
-4.9992 -5.3499 2.3934
-4.7732 -5.4824 2.3934
-4.5436 -5.6052 2.3934
-4.3107 -5.7182 2.3934
-4.0750 -5.8215 2.3934
-3.8371 -5.9150 2.3934
-3.5973 -5.9987 2.3934
-3.3562 -6.0729 2.3934
-3.1141 -6.1375 2.3934
-2.8714 -6.1926 2.3934
-2.6286 -6.2384 2.3934
-2.3860 -6.2750 2.3934
-2.1440 -6.3025 2.3934
-1.9030 -6.3211 2.3934
-1.6632 -6.3310 2.3934
-1.4250 -6.3324 2.3934
-1.1888 -6.3254 2.3934
-0.9546 -6.3102 2.3934
-0.7229 -6.2870 2.3934
-0.4940 -6.2561 2.3934
-0.2679 -6.2176 2.3934
-0.0450 -6.1718 2.3934
0.1745 -6.1189 2.3934
0.3905 -6.0590 2.3934
0.6028 -5.9924 2.3934
0.8111 -5.9194 2.3934
1.0154 -5.8401 2.3934
1.2155 -5.7547 2.3934
1.4113 -5.6635 2.3934
1.6026 -5.5666 2.3934
1.7894 -5.4644 2.3934
1.9714 -5.3569 2.3934
2.1487 -5.2444 2.3934
2.3212 -5.1271 2.3934
2.4887 -5.0051 2.3934
2.6512 -4.8788 2.3934
2.8087 -4.7482 2.3934
2.9610 -4.6135 2.3934
3.1082 -4.4750 2.3934
3.2502 -4.3328 2.3934
3.3868 -4.1870 2.3934
3.5182 -4.0379 2.3934
3.6443 -3.8857 2.3934
3.7650 -3.7304 2.3934
3.8803 -3.5722 2.3934
3.9902 -3.4113 2.3934
4.0947 -3.2479 2.3934
4.1938 -3.0820 2.3934
4.2873 -2.9139 2.3934
4.3754 -2.7437 2.3934
4.4581 -2.5714 2.3934
4.5352 -2.3974 2.3934
4.6068 -2.2216 2.3934
4.6729 -2.0442 2.3934
4.7335 -1.8654 2.3934
4.7886 -1.6853 2.3934
4.8381 -1.5039 2.3934
4.8821 -1.3215 2.3934
4.9206 -1.1381 2.3934
4.9535 -0.9539 2.3934
4.9808 -0.7690 2.3934
5.0026 -0.5835 2.3934
5.0189 -0.3975 2.3934
5.0295 -0.2112 2.3934
5.0346 -0.0246 2.3934
5.0341 0.1621 2.3934
5.0281 0.3488 2.3934
5.0164 0.5353 2.3934
4.9992 0.7217 2.3934
4.9763 0.9077 2.3934
4.9479 1.0932 2.3934
4.9138 1.2781 2.3934
4.8741 1.4622 2.3934
4.8284 1.6454 2.3932
4.7764 1.8273 2.3926
4.7178 2.0076 2.3916
4.6526 2.1861 2.3900
4.5807 2.3623 2.3879
4.5022 2.5360 2.3851
4.4169 2.7069 2.3816
4.3248 2.8745 2.3773
4.2258 3.0385 2.3722
4.1207 3.1989 2.3664
4.0181 3.3625 2.3651
3.9120 3.5255 2.3651
3.8004 3.6859 2.3650
3.6833 3.8436 2.3650
3.5608 3.9985 2.3649
3.4327 4.1503 2.3648
3.2992 4.2989 2.3648
3.1603 4.4441 2.3647
3.0160 4.5858 2.3647
2.8664 4.7237 2.3646
2.7115 4.8576 2.3646
4.6268 -1.1745 2.3934
4.6612 -1.0007 2.3934
4.6902 -0.8260 2.3934
4.7140 -0.6508 2.3934
4.7324 -0.4750 2.3934
4.7456 -0.2988 2.3934
4.7534 -0.1223 2.3934
4.7558 0.0543 2.3934
4.7529 0.2310 2.3934
4.7447 0.4077 2.3934
4.7311 0.5842 2.3934
4.7122 0.7604 2.3934
4.6879 0.9361 2.3934
4.6583 1.1113 2.3934
4.6233 1.2859 2.3934
4.5828 1.4596 2.3933
4.5366 1.6323 2.3931
4.4841 1.8035 2.3923
4.4254 1.9730 2.3911
4.3606 2.1407 2.3894
4.2895 2.3062 2.3872
4.2123 2.4693 2.3844
4.1288 2.6295 2.3810
4.0390 2.7867 2.3769
3.9430 2.9403 2.3721
3.8411 3.0905 2.3667
3.7407 3.2430 2.3652
3.6373 3.3951 2.3651
3.5288 3.5445 2.3651
3.4151 3.6912 2.3650
3.2962 3.8351 2.3650
3.1722 3.9758 2.3649
3.0431 4.1134 2.3649
2.9090 4.2475 2.3648
2.7699 4.3781 2.3648
2.6258 4.5049 2.3647
2.4768 4.6278 2.3647
2.3231 4.7466 2.3646
2.1645 4.8611 2.3646
2.0013 4.9711 2.3645
0.7767 2.1504 1.0016
0.6995 2.1798 0.9956
0.6212 2.2064 0.9895
0.5421 2.2302 0.9834
0.4621 2.2510 0.9771
0.3815 2.2690 0.9709
0.3002 2.2841 0.9645
0.2185 2.2962 0.9582
0.1363 2.3053 0.9518
0.0539 2.3115 0.9454
-0.0287 2.3147 0.9390
-0.1113 2.3149 0.9326
-0.1939 2.3121 0.9262
-0.2764 2.3063 0.9198
-0.3586 2.2975 0.9135
-0.4404 2.2858 0.9072
-0.5218 2.2712 0.9009
-0.6025 2.2536 0.8946
-0.6826 2.2330 0.8884
-0.7619 2.2097 0.8823
-0.8404 2.1834 0.8763
-0.9178 2.1543 0.8703
-2.7188 5.8050 2.3642
-2.9440 5.7489 2.3643
-3.1682 5.6839 2.3643
-3.3911 5.6100 2.3643
-3.6124 5.5270 2.3643
-3.8314 5.4350 2.3644
-4.0479 5.3339 2.3644
-4.2614 5.2237 2.3644
-4.4715 5.1046 2.3645
-4.6776 4.9765 2.3645
-4.8794 4.8395 2.3646
-5.0763 4.6938 2.3646
-5.2680 4.5395 2.3647
-5.4540 4.3767 2.3647
-5.6337 4.2057 2.3648
-5.8068 4.0266 2.3648
-5.9729 3.8398 2.3649
-6.1314 3.6455 2.3650
-6.2820 3.4439 2.3651
-6.4243 3.2355 2.3651
-6.5578 3.0206 2.3652
-6.6823 2.7996 2.3653
-6.7973 2.5729 2.3654
-6.9025 2.3409 2.3654
-6.9977 2.1041 2.3655
-7.0825 1.8630 2.3656
-7.1567 1.6180 2.3657
-7.2201 1.3698 2.3658
-7.2725 1.1187 2.3659
-7.3138 0.8653 2.3660
-7.3438 0.6103 2.3660
-7.3624 0.3541 2.3661
-7.3697 0.0973 2.3662
-7.3655 -0.1595 2.3663
-7.3500 -0.4158 2.3664
-7.3231 -0.6710 2.3665
-7.2885 -0.9250 2.3677
-7.2612 -1.1800 2.3750
-7.2188 -1.4331 2.3810
-7.1608 -1.6831 2.3856
-7.0885 -1.9293 2.3890
-7.0025 -2.1709 2.3914
-6.9036 -2.4073 2.3928
-6.7922 -2.6378 2.3933
-6.6699 -2.8621 2.3934
-6.5383 -3.0803 2.3934
-6.3980 -3.2920 2.3934
-6.2493 -3.4969 2.3934
-6.0927 -3.6947 2.3934
-5.9285 -3.8851 2.3934
-5.7573 -4.0677 2.3934
-5.5794 -4.2424 2.3934
-5.3952 -4.4089 2.3934
-5.2054 -4.5671 2.3934
-5.0102 -4.7168 2.3934
-4.8101 -4.8578 2.3934
-4.6057 -4.9900 2.3934
-4.3972 -5.1134 2.3934
-4.1853 -5.2279 2.3934
-3.9703 -5.3335 2.3934
-3.7526 -5.4301 2.3934
-3.5327 -5.5177 2.3934
-3.3110 -5.5965 2.3934
-3.0879 -5.6663 2.3934
-2.8637 -5.7274 2.3934
-2.6389 -5.7798 2.3934
-2.4138 -5.8235 2.3934
-2.1887 -5.8587 2.3934
-1.9640 -5.8855 2.3934
-1.7401 -5.9040 2.3934
-1.5172 -5.9144 2.3934
-1.2956 -5.9168 2.3934
-1.0756 -5.9114 2.3934
-0.8575 -5.8984 2.3934
-0.6415 -5.8780 2.3934
-0.4279 -5.8502 2.3934
-0.2169 -5.8153 2.3934
-0.0087 -5.7735 2.3934
0.1965 -5.7250 2.3934
0.3986 -5.6700 2.3934
0.5972 -5.6086 2.3934
0.7924 -5.5411 2.3934
0.9838 -5.4677 2.3934
1.1714 -5.3884 2.3934
1.3551 -5.3037 2.3934
1.5346 -5.2135 2.3934
1.7100 -5.1182 2.3934
1.8810 -5.0178 2.3934
2.0477 -4.9127 2.3934
2.2099 -4.8030 2.3934
2.3674 -4.6888 2.3934
2.5204 -4.5704 2.3934
2.6686 -4.4478 2.3934
2.8120 -4.3214 2.3934
2.9506 -4.1912 2.3934
3.0844 -4.0575 2.3934
3.2131 -3.9203 2.3934
3.3369 -3.7799 2.3934
3.4557 -3.6365 2.3934
3.5695 -3.4900 2.3934
