ply
format ascii 1.0
element vertex 2178
property float32 x
property float32 y
property float32 z
end_header
4.8551 -1.2388 2.2445
4.8883 -1.0593 2.2436
4.9138 -0.8785 2.2419
4.9324 -0.6973 2.2398
4.9462 -0.5161 2.2382
4.9551 -0.3351 2.2372
4.9586 -0.1539 2.2364
4.9566 0.0270 2.2359
4.9492 0.2077 2.2357
4.9364 0.3879 2.2356
4.9181 0.5677 2.2358
4.8943 0.7467 2.2362
4.8652 0.9251 2.2369
4.8307 1.1025 2.2378
4.7909 1.2789 2.2390
4.7462 1.4545 2.2406
4.6969 1.6292 2.2428
4.6402 1.8017 2.2443
4.5764 1.9718 2.2451
4.5050 2.1391 2.2449
4.4280 2.3040 2.2448
4.3456 2.4665 2.2446
4.2576 2.6262 2.2445
4.1643 2.7831 2.2443
4.0657 2.9369 2.2441
3.9618 3.0875 2.2439
3.8529 3.2348 2.2436
3.7388 3.3786 2.2434
3.6199 3.5186 2.2431
3.4961 3.6548 2.2428
3.3676 3.7870 2.2426
3.2344 3.9150 2.2423
3.0967 4.0387 2.2420
2.9547 4.1579 2.2416
2.8084 4.2725 2.2413
2.6583 4.3827 2.2412
2.5043 4.4882 2.2412
2.3464 4.5887 2.2412
2.1993 4.7155 2.2561
2.1473 5.0757 2.3828
0.8161 2.1421 0.9881
0.7385 2.1715 0.9856
0.6599 2.1980 0.9831
0.5803 2.2218 0.9806
0.5000 2.2426 0.9779
0.4190 2.2605 0.9753
0.3373 2.2755 0.9725
0.2552 2.2875 0.9698
0.1726 2.2966 0.9670
0.0898 2.3026 0.9642
0.0069 2.3057 0.9613
-0.0762 2.3057 0.9584
-0.1592 2.3028 0.9555
-0.2420 2.2969 0.9526
-0.3245 2.2879 0.9496
-0.4067 2.2760 0.9466
-0.4884 2.2612 0.9437
-0.5695 2.2434 0.9407
-0.6499 2.2226 0.9377
-0.7295 2.1990 0.9348
-0.8082 2.1725 0.9318
-0.8859 2.1432 0.9289
-2.4880 5.4573 2.3936
-2.6913 5.3842 2.3936
-2.8924 5.3034 2.3936
-3.0910 5.2151 2.3936
-3.2868 5.1192 2.3936
-3.4795 5.0159 2.3936
-3.6687 4.9053 2.3936
-3.8543 4.7873 2.3936
-4.0358 4.6622 2.3936
-4.2131 4.5300 2.3936
-4.3857 4.3909 2.3936
-4.5534 4.2451 2.3936
-4.7158 4.0927 2.3936
-4.8728 3.9338 2.3936
-5.0240 3.7687 2.3936
-5.1692 3.5976 2.3936
-5.3081 3.4207 2.3936
-5.4403 3.2383 2.3936
-5.5657 3.0504 2.3936
-5.6841 2.8574 2.3936
-5.7952 2.6601 2.3936
-5.8987 2.4578 2.3936
-5.9945 2.2515 2.3936
-6.0823 2.0413 2.3936
-6.1621 1.8275 2.3936
-6.2336 1.6105 2.3936
-6.2966 1.3905 2.3936
-6.3511 1.1680 2.3936
-6.3969 0.9434 2.3936
-6.4338 0.7168 2.3936
-6.4619 0.4888 2.3936
-6.4811 0.2597 2.3936
-6.4912 0.0298 2.3936
-6.4923 -0.2004 2.3936
-6.4843 -0.4305 2.3936
-6.4672 -0.6602 2.3936
-6.4412 -0.8891 2.3936
-6.4061 -1.1169 2.3936
-6.3621 -1.3431 2.3936
-6.3092 -1.5674 2.3936
-6.2475 -1.7893 2.3936
-6.1771 -2.0086 2.3936
-6.0983 -2.2249 2.3936
-6.0110 -2.4377 2.3936
-5.9155 -2.6469 2.3936
-5.8119 -2.8519 2.3936
-5.7005 -3.0526 2.3936
-5.5814 -3.2486 2.3936
-5.4548 -3.4396 2.3936
-5.3211 -3.6252 2.3936
-5.1804 -3.8053 2.3936
-5.0330 -3.9795 2.3936
-4.8792 -4.1476 2.3936
-4.7193 -4.3094 2.3936
-4.5535 -4.4645 2.3936
-4.3821 -4.6130 2.3936
-4.2055 -4.7544 2.3936
-4.0239 -4.8887 2.3936
-3.8377 -5.0157 2.3936
-3.6471 -5.1352 2.3936
-3.4526 -5.2471 2.3936
-3.2545 -5.3513 2.3936
-3.0530 -5.4477 2.3936
-2.8485 -5.5362 2.3936
-2.6413 -5.6167 2.3936
-2.4318 -5.6892 2.3936
-2.2203 -5.7536 2.3936
-2.0071 -5.8100 2.3936
-1.7925 -5.8582 2.3936
-1.5770 -5.8983 2.3936
-1.3607 -5.9302 2.3936
-1.1440 -5.9543 2.3936
-0.9272 -5.9702 2.3936
-0.7106 -5.9781 2.3936
-0.4946 -5.9781 2.3936
-0.2793 -5.9703 2.3936
-0.0651 -5.9548 2.3936
0.1477 -5.9315 2.3936
0.3588 -5.9007 2.3936
0.5681 -5.8625 2.3936
0.7752 -5.8169 2.3936
0.9799 -5.7642 2.3936
1.1819 -5.7043 2.3936
1.3811 -5.6376 2.3936
1.5772 -5.5640 2.3936
1.7699 -5.4839 2.3936
1.9591 -5.3973 2.3936
2.1445 -5.3044 2.3936
2.3261 -5.2053 2.3936
2.5035 -5.1004 2.3936
2.6766 -4.9896 2.3936
2.8453 -4.8733 2.3936
2.9173 -4.6062 2.3203
2.9669 -4.3301 2.2412
3.1115 -4.2066 2.2412
3.2514 -4.0785 2.2412
3.3864 -3.9461 2.2412
3.5165 -3.8096 2.2412
3.6415 -3.6689 2.2413
3.7617 -3.5249 2.2415
3.8768 -3.3773 2.2418
3.9866 -3.2263 2.2421
4.0910 -3.0720 2.2424
4.1898 -2.9145 2.2427
4.2831 -2.7541 2.2430
4.3707 -2.5910 2.2433
4.4526 -2.4253 2.2435
4.5288 -2.2573 2.2438
4.5991 -2.0871 2.2440
4.6636 -1.9149 2.2442
4.7221 -1.7410 2.2444
4.7747 -1.5654 2.2446
4.8213 -1.3884 2.2447
4.8608 -1.2099 2.2444
4.8931 -1.0301 2.2434
4.9172 -0.8494 2.2415
4.9349 -0.6682 2.2395
4.9480 -0.4872 2.2381
4.9560 -0.3058 2.2371
4.9586 -0.1247 2.2364
4.9558 0.0562 2.2359
4.9475 0.2367 2.2357
4.9338 0.4168 2.2356
4.9146 0.5965 2.2359
4.8900 0.7755 2.2363
4.8600 0.9537 2.2370
4.8246 1.1309 2.2380
4.7840 1.3073 2.2392
4.7386 1.4827 2.2409
4.6884 1.6572 2.2432
4.6304 1.8291 2.2445
4.5652 1.9989 2.2451
4.4930 2.1658 2.2449
4.4151 2.3304 2.2448
4.3318 2.4924 2.2446
4.2430 2.6516 2.2444
4.1488 2.8080 2.2442
4.0493 2.9614 2.2440
3.9446 3.1115 2.2438
3.8348 3.2582 2.2436
3.7200 3.4014 2.2433
3.6003 3.5408 2.2431
3.4757 3.6764 2.2428
3.3464 3.8079 2.2425
3.2125 3.9353 2.2422
3.0742 4.0582 2.2419
2.9314 4.1767 2.2416
2.7845 4.2905 2.2413
2.6338 4.4000 2.2412
2.4791 4.5047 2.2412
2.3206 4.6044 2.2412
2.1912 4.7701 2.2752
0.8804 2.1153 0.9901
0.8037 2.1470 0.9877
0.7259 2.1759 0.9852
0.6471 2.2021 0.9827
0.5675 2.2253 0.9801
0.4870 2.2457 0.9775
0.4058 2.2631 0.9748
0.3241 2.2776 0.9721
0.2419 2.2892 0.9693
0.1593 2.2977 0.9665
0.0765 2.3033 0.9637
-0.0065 2.3059 0.9608
-0.0895 2.3055 0.9579
-0.1725 2.3021 0.9550
-0.2553 2.2956 0.9521
-0.3378 2.2862 0.9491
-0.4199 2.2738 0.9462
-0.5015 2.2585 0.9432
-0.5825 2.2402 0.9402
-0.6628 2.2190 0.9373
-0.7423 2.1949 0.9343
-0.8208 2.1680 0.9313
-0.8983 2.1382 0.9284
-2.5209 5.4460 2.3936
-2.7239 5.3717 2.3936
-2.9246 5.2897 2.3936
-3.1227 5.2002 2.3936
-3.3180 5.1031 2.3936
-3.5102 4.9986 2.3936
-3.6989 4.8868 2.3936
-3.8838 4.7676 2.3936
-4.0647 4.6414 2.3936
-4.2412 4.5081 2.3936
-4.4130 4.3679 2.3936
-4.5799 4.2210 2.3936
-4.7415 4.0675 2.3936
-4.8976 3.9076 2.3936
-5.0478 3.7416 2.3936
-5.1920 3.5695 2.3936
-5.3298 3.3917 2.3936
-5.4610 3.2084 2.3936
-5.5853 3.0197 2.3936
-5.7025 2.8261 2.3936
-5.8124 2.6278 2.3936
-5.9146 2.4249 2.3936
-6.0092 2.2179 2.3936
-6.0957 2.0071 2.3936
-6.1742 1.7928 2.3936
-6.2443 1.5752 2.3936
-6.3060 1.3549 2.3936
-6.3590 1.1320 2.3936
-6.4034 0.9070 2.3936
-6.4390 0.6802 2.3936
-6.4656 0.4520 2.3936
-6.4833 0.2227 2.3936
-6.4920 -0.0072 2.3936
-6.4916 -0.2374 2.3936
-6.4822 -0.4675 2.3936
-6.4637 -0.6972 2.3936
-6.4361 -0.9259 2.3936
-6.3996 -1.1535 2.3936
-6.3541 -1.3794 2.3936
-6.2998 -1.6033 2.3936
-6.2367 -1.8248 2.3936
-6.1650 -2.0437 2.3936
-6.0848 -2.2594 2.3936
-5.9961 -2.4717 2.3936
-5.8993 -2.6802 2.3936
-5.7945 -2.8846 2.3936
-5.6818 -3.0845 2.3936
-5.5615 -3.2797 2.3936
-5.4338 -3.4698 2.3936
-5.2989 -3.6546 2.3936
-5.1571 -3.8337 2.3936
-5.0087 -4.0070 2.3936
-4.8539 -4.1741 2.3936
-4.6930 -4.3348 2.3936
-4.5262 -4.4889 2.3936
-4.3540 -4.6362 2.3936
-4.1766 -4.7765 2.3936
-3.9942 -4.9097 2.3936
-3.8073 -5.0354 2.3936
-3.6161 -5.1537 2.3936
-3.4210 -5.2644 2.3936
-3.2222 -5.3674 2.3936
-3.0202 -5.4625 2.3936
-2.8153 -5.5497 2.3936
-2.6077 -5.6289 2.3936
-2.3979 -5.7001 2.3936
-2.1861 -5.7632 2.3936
-1.9726 -5.8183 2.3936
-1.7579 -5.8652 2.3936
-1.5422 -5.9040 2.3936
-1.3258 -5.9348 2.3936
-1.1091 -5.9574 2.3936
-0.8923 -5.9720 2.3936
-0.6758 -5.9786 2.3936
-0.4598 -5.9774 2.3936
-0.2447 -5.9683 2.3936
-0.0308 -5.9515 2.3936
0.1818 -5.9271 2.3936
0.3927 -5.8951 2.3936
0.6016 -5.8556 2.3936
0.8083 -5.8089 2.3936
1.0126 -5.7550 2.3936
1.2142 -5.6940 2.3936
1.4129 -5.6262 2.3936
1.6084 -5.5516 2.3936
1.8006 -5.4704 2.3936
1.9892 -5.3827 2.3936
2.1740 -5.2888 2.3936
2.3549 -5.1889 2.3936
2.5317 -5.0829 2.3936
2.7041 -4.9713 2.3936
2.8720 -4.8541 2.3936
2.9164 -4.5461 2.2998
2.9905 -4.3106 2.2412
3.1343 -4.1863 2.2412
3.2735 -4.0575 2.2412
3.4077 -3.9244 2.2412
3.5370 -3.7872 2.2413
3.6612 -3.6460 2.2413
3.7806 -3.5014 2.2415
3.8949 -3.3532 2.2419
4.0038 -3.2017 2.2422
4.1073 -3.0468 2.2425
4.2052 -2.8889 2.2428
4.2976 -2.7281 2.2430
4.3843 -2.5645 2.2433
4.4653 -2.3984 2.2436
4.5405 -2.2301 2.2438
4.6099 -2.0595 2.2440
4.6734 -1.8870 2.2442
4.7310 -1.7128 2.2444
4.7826 -1.5370 2.2446
4.8283 -1.3598 2.2448
4.8664 -1.1809 2.2442
4.8978 -1.0012 2.2433
4.9204 -0.8202 2.2412
4.9373 -0.6391 2.2392
4.9497 -0.4580 2.2379
4.9568 -0.2767 2.2369
4.9586 -0.0957 2.2363
4.9549 0.0852 2.2358
4.9457 0.2658 2.2356
4.9311 0.4458 2.2357
4.9110 0.6254 2.2359
4.8855 0.8042 2.2364
4.8546 0.9824 2.2372
4.8184 1.1595 2.2382
4.7769 1.3357 2.2394
4.7308 1.5109 2.2413
4.6799 1.6850 2.2436
4.6204 1.8567 2.2446
4.5540 2.0260 2.2450
4.4808 2.1925 2.2449
4.4021 2.3566 2.2447
4.3178 2.5182 2.2446
4.2282 2.6770 2.2444
4.1331 2.8329 2.2442
4.0328 2.9858 2.2440
3.9273 3.1353 2.2438
3.8167 3.2815 2.2435
3.7011 3.4241 2.2433
3.5805 3.5629 2.2430
3.4552 3.6979 2.2428
3.3252 3.8287 2.2425
3.1906 3.9554 2.2422
3.0515 4.0776 2.2419
2.9081 4.1953 2.2415
2.7605 4.3084 2.2412
2.6091 4.4172 2.2412
2.4539 4.5211 2.2412
2.2948 4.6200 2.2412
2.3785 4.2121 2.2412
2.2375 4.3217 2.2487
2.1869 4.6273 2.3586
0.8474 1.9754 0.9878
0.7758 2.0060 0.9856
0.7031 2.0340 0.9833
0.6294 2.0594 0.9809
0.5549 2.0821 0.9785
0.4796 2.1021 0.9760
0.4036 2.1193 0.9735
0.3270 2.1338 0.9710
0.2500 2.1455 0.9684
0.1725 2.1545 0.9658
0.0948 2.1606 0.9631
0.0170 2.1639 0.9605
-0.0610 2.1644 0.9578
-0.1389 2.1621 0.9550
-0.2167 2.1570 0.9523
-0.2942 2.1491 0.9495
-0.3714 2.1383 0.9467
-0.4482 2.1248 0.9439
-0.5245 2.1086 0.9411
-0.6001 2.0895 0.9384
-0.6749 2.0678 0.9356
-0.7489 2.0434 0.9328
-0.8220 2.0163 0.9300
-0.8941 1.9866 0.9273
-2.4984 5.0595 2.3936
-2.6868 4.9840 2.3936
-2.8729 4.9014 2.3936
-3.0563 4.8117 2.3936
-3.2368 4.7151 2.3936
-3.4140 4.6117 2.3936
-3.5878 4.5014 2.3936
-3.7578 4.3845 2.3936
-3.9237 4.2610 2.3936
-4.0854 4.1311 2.3936
-4.2424 3.9949 2.3936
-4.3946 3.8525 2.3936
-4.5416 3.7042 2.3936
-4.6832 3.5501 2.3936
-4.8192 3.3903 2.3936
-4.9493 3.2252 2.3936
-5.0733 3.0550 2.3936
-5.1909 2.8797 2.3936
-5.3019 2.6997 2.3936
-5.4062 2.5154 2.3936
-5.5034 2.3268 2.3936
-5.5935 2.1344 2.3936
-5.6761 1.9381 2.3936
-5.7513 1.7388 2.3936
-5.8188 1.5364 2.3936
-5.8784 1.3312 2.3936
-5.9301 1.1236 2.3936
-5.9737 0.9140 2.3936
-6.0091 0.7026 2.3936
-6.0364 0.4899 2.3936
-6.0553 0.2760 2.3936
-6.0658 0.0615 2.3936
-6.0679 -0.1534 2.3936
-6.0617 -0.3683 2.3936
-6.0470 -0.5829 2.3936
-6.0239 -0.7968 2.3936
-5.9925 -1.0096 2.3936
-5.9527 -1.2211 2.3936
-5.9047 -1.4308 2.3936
-5.8486 -1.6384 2.3936
-5.7843 -1.8436 2.3936
-5.7122 -2.0461 2.3936
-5.6321 -2.2455 2.3936
-5.5445 -2.4415 2.3936
-5.4493 -2.6338 2.3936
-5.3467 -2.8221 2.3936
-5.2370 -3.0063 2.3936
-5.1204 -3.1855 2.3936
-4.9970 -3.3599 2.3936
-4.8670 -3.5294 2.3936
-4.7308 -3.6934 2.3936
-4.5885 -3.8518 2.3936
-4.4405 -4.0044 2.3936
-4.2869 -4.1510 2.3936
-4.1280 -4.2913 2.3936
-3.9642 -4.4252 2.3936
-3.7957 -4.5524 2.3936
-3.6228 -4.6730 2.3936
-3.4457 -4.7866 2.3936
-3.2649 -4.8932 2.3936
-3.0805 -4.9926 2.3936
-2.8929 -5.0848 2.3936
-2.7024 -5.1697 2.3936
-2.5093 -5.2471 2.3936
-2.3139 -5.3171 2.3936
-2.1165 -5.3796 2.3936
-1.9174 -5.4346 2.3936
-1.7170 -5.4820 2.3936
-1.5154 -5.5218 2.3936
-1.3131 -5.5541 2.3936
-1.1103 -5.5788 2.3936
-0.9072 -5.5960 2.3936
-0.7043 -5.6057 2.3936
-0.5016 -5.6080 2.3936
-0.2997 -5.6029 2.3936
-0.0986 -5.5906 2.3936
0.1013 -5.5710 2.3936
0.2998 -5.5443 2.3936
0.4966 -5.5106 2.3936
0.6916 -5.4700 2.3936
0.8843 -5.4225 2.3936
1.0747 -5.3684 2.3936
1.2625 -5.3078 2.3936
1.4474 -5.2407 2.3936
1.6294 -5.1673 2.3936
1.8081 -5.0878 2.3936
1.9834 -5.0029 2.3936
2.1550 -4.9110 2.3936
2.3229 -4.8141 2.3936
2.4868 -4.7116 2.3936
2.6467 -4.6038 2.3936
2.8022 -4.4908 2.3936
2.8877 -4.2756 2.3403
2.9025 -3.9794 2.2412
3.0375 -3.8622 2.2427
3.1638 -3.7367 2.2412
3.2875 -3.6092 2.2412
3.4065 -3.4779 2.2412
3.5207 -3.3430 2.2413
3.6299 -3.2046 2.2413
3.7346 -3.0631 2.2415
3.8342 -2.9186 2.2418
3.9286 -2.7710 2.2421
4.0178 -2.6206 2.2424
4.1017 -2.4676 2.2426
4.1802 -2.3121 2.2429
4.2532 -2.1542 2.2431
4.3208 -1.9943 2.2433
4.3828 -1.8324 2.2435
4.4393 -1.6688 2.2437
4.4902 -1.5036 2.2439
4.5354 -1.3370 2.2440
4.5749 -1.1692 2.2442
4.6087 -1.0003 2.2443
4.6369 -0.8306 2.2444
4.6593 -0.6602 2.2445
4.6759 -0.4893 2.2446
4.6869 -0.3180 2.2447
4.6920 -0.1466 2.2448
4.6915 0.0248 2.2448
4.6852 0.1960 2.2448
4.6732 0.3668 2.2449
4.6555 0.5371 2.2449
4.6322 0.7067 2.2449
4.6032 0.8754 2.2448
4.5686 1.0430 2.2448
4.5283 1.2094 2.2447
4.4826 1.3744 2.2447
4.4313 1.5378 2.2446
4.3746 1.6995 2.2445
4.3125 1.8593 2.2444
4.2450 2.0170 2.2443
4.1722 2.1725 2.2441
4.0943 2.3256 2.2440
4.0111 2.4761 2.2438
3.9228 2.6239 2.2436
3.8296 2.7688 2.2434
3.7314 2.9107 2.2432
3.6284 3.0493 2.2430
3.5206 3.1846 2.2428
3.4081 3.3164 2.2425
3.2911 3.4445 2.2423
3.1696 3.5688 2.2420
3.0438 3.6891 2.2417
2.9138 3.8052 2.2414
2.7797 3.9173 2.2412
2.6419 4.0253 2.2412
2.5002 4.1288 2.2412
2.3548 4.2277 2.2412
2.2258 4.3611 2.2615
2.1790 4.6811 2.3784
0.8360 1.9805 0.9874
0.7642 2.0107 0.9852
0.6913 2.0383 0.9829
0.6175 2.0632 0.9805
0.5428 2.0855 0.9781
0.4674 2.1050 0.9756
0.3913 2.1218 0.9731
0.3146 2.1359 0.9706
0.2375 2.1472 0.9680
0.1600 2.1557 0.9654
0.0823 2.1613 0.9627
0.0044 2.1642 0.9600
-0.0735 2.1643 0.9573
-0.1514 2.1615 0.9546
-0.2292 2.1559 0.9518
-0.3067 2.1475 0.9491
-0.3838 2.1364 0.9463
-0.4605 2.1224 0.9435
-0.5367 2.1057 0.9407
-0.6122 2.0862 0.9379
-0.6869 2.0640 0.9351
-0.7608 2.0392 0.9323
-0.8337 2.0117 0.9296
-0.9056 1.9815 0.9268
-2.5289 5.0478 2.3936
-2.7170 4.9712 2.3936
-2.9026 4.8874 2.3936
-3.0856 4.7966 2.3936
-3.2655 4.6989 2.3936
-3.4423 4.5944 2.3936
-3.6154 4.4831 2.3936
-3.7848 4.3651 2.3936
-3.9501 4.2405 2.3936
-4.1110 4.1096 2.3936
-4.2672 3.9724 2.3936
-4.4186 3.8290 2.3936
-4.5648 3.6798 2.3936
-4.7055 3.5247 2.3936
-4.8406 3.3641 2.3936
-4.9697 3.1981 2.3936
-5.0927 3.0271 2.3936
-5.2092 2.8511 2.3936
-5.3192 2.6703 2.3936
-5.4223 2.4853 2.3936
-5.5184 2.2961 2.3936
-5.6073 2.1030 2.3936
-5.6888 1.9064 2.3936
-5.7627 1.7064 2.3936
-5.8289 1.5035 2.3936
-5.8873 1.2979 2.3936
-5.9376 1.0900 2.3936
-5.9800 0.8801 2.3936
-6.0141 0.6685 2.3936
-6.0400 0.4555 2.3936
-6.0575 0.2415 2.3936
-6.0667 0.0269 2.3936
-6.0675 -0.1880 2.3936
-6.0599 -0.4029 2.3936
-6.0438 -0.6174 2.3936
-6.0194 -0.8311 2.3936
-5.9866 -1.0438 2.3936
-5.9455 -1.2550 2.3936
-5.8962 -1.4644 2.3936
-5.8388 -1.6716 2.3936
-5.7732 -1.8764 2.3936
-5.6998 -2.0784 2.3936
-5.6185 -2.2773 2.3936
-5.5296 -2.4727 2.3936
-5.4332 -2.6644 2.3936
-5.3295 -2.8521 2.3936
-5.2187 -3.0354 2.3936
-5.1009 -3.2139 2.3936
-4.9765 -3.3877 2.3936
-4.8455 -3.5562 2.3936
-4.7083 -3.7193 2.3936
-4.5651 -3.8768 2.3936
-4.4161 -4.0284 2.3936
-4.2617 -4.1740 2.3936
-4.1020 -4.3133 2.3936
-3.9374 -4.4461 2.3936
-3.7681 -4.5723 2.3936
-3.5945 -4.6917 2.3936
-3.4169 -4.8042 2.3936
-3.2354 -4.9097 2.3936
-3.0505 -5.0080 2.3936
-2.8624 -5.0990 2.3936
-2.6715 -5.1827 2.3936
-2.4780 -5.2589 2.3936
-2.2823 -5.3277 2.3936
-2.0846 -5.3890 2.3936
-1.8853 -5.4427 2.3936
-1.6846 -5.4889 2.3936
-1.4829 -5.5275 2.3936
-1.2805 -5.5585 2.3936
-1.0776 -5.5821 2.3936
-0.8745 -5.5980 2.3936
-0.6716 -5.6066 2.3936
-0.4691 -5.6077 2.3936
-0.2672 -5.6014 2.3936
-0.0663 -5.5879 2.3936
0.1334 -5.5672 2.3936
0.3316 -5.5394 2.3936
0.5282 -5.5045 2.3936
0.7227 -5.4628 2.3936
0.9151 -5.4143 2.3936
1.1051 -5.3591 2.3936
1.2924 -5.2974 2.3936
1.4769 -5.2293 2.3936
1.6583 -5.1549 2.3936
1.8365 -5.0745 2.3936
2.0112 -4.9881 2.3936
2.1823 -4.8958 2.3936
2.3496 -4.7979 2.3936
2.5129 -4.6946 2.3936
2.6720 -4.5859 2.3936
2.8269 -4.4721 2.3936
2.8871 -4.2215 2.3210
2.9243 -3.9607 2.2412
3.0564 -3.8405 2.2412
3.1840 -3.7164 2.2412
3.3070 -3.5883 2.2412
3.4252 -3.4564 2.2412
3.5386 -3.3209 2.2413
3.6471 -3.1820 2.2413
3.7509 -3.0401 2.2416
3.8497 -2.8950 2.2419
3.9433 -2.7470 2.2422
4.0316 -2.5962 2.2424
4.1147 -2.4427 2.2427
4.1923 -2.2868 2.2429
4.2645 -2.1286 2.2431
4.3312 -1.9684 2.2433
4.3923 -1.8062 2.2435
4.4479 -1.6423 2.2437
4.4978 -1.4769 2.2439
4.5421 -1.3101 2.2441
4.5807 -1.1421 2.2442
4.6136 -0.9730 2.2443
4.6409 -0.8032 2.2444
4.6623 -0.6327 2.2446
4.6781 -0.4617 2.2446
4.6881 -0.2904 2.2447
4.6923 -0.1190 2.2448
4.6909 0.0524 2.2448
4.6837 0.2235 2.2448
4.6708 0.3943 2.2449
4.6522 0.5645 2.2449
4.6279 0.7339 2.2449
4.5980 0.9024 2.2448
4.5625 1.0699 2.2448
4.5214 1.2360 2.2447
4.4747 1.4008 2.2447
4.4226 1.5640 2.2446
4.3650 1.7254 2.2445
4.3020 1.8848 2.2444
4.2337 2.0422 2.2442
4.1600 2.1973 2.2441
4.0812 2.3500 2.2439
3.9972 2.5001 2.2438
3.9082 2.6474 2.2436
3.8141 2.7918 2.2434
3.7151 2.9332 2.2432
3.6113 3.0713 2.2430
3.5028 3.2061 2.2427
3.3896 3.3373 2.2425
3.2718 3.4648 2.2422
3.1497 3.5884 2.2420
3.0232 3.7081 2.2417
2.8925 3.8235 2.2414
2.7578 3.9350 2.2412
2.6194 4.0423 2.2412
2.4771 4.1450 2.2412
2.3310 4.2431 2.2412
2.2186 4.4103 2.2794
2.1663 4.7257 2.3936
0.8245 1.9855 0.9871
0.7525 2.0153 0.9848
0.6795 2.0425 0.9825
0.6055 2.0670 0.9801
0.5307 2.0888 0.9777
0.4552 2.1079 0.9752
0.3790 2.1243 0.9727
0.3022 2.1379 0.9702
0.2251 2.1487 0.9676
0.1475 2.1568 0.9649
0.0698 2.1620 0.9623
-0.0081 2.1644 0.9596
-0.0861 2.1640 0.9569
-0.1640 2.1608 0.9541
-0.2417 2.1548 0.9514
-0.3191 2.1459 0.9486
-0.3962 2.1343 0.9458
-0.4728 2.1199 0.9430
-0.5489 2.1027 0.9403
-0.6242 2.0828 0.9375
-0.6988 2.0602 0.9347
-0.7726 2.0349 0.9319
-0.8454 2.0070 0.9291
-0.9171 1.9764 0.9264
-2.5593 5.0360 2.3936
-2.7470 4.9581 2.3936
-2.9323 4.8733 2.3936
-3.1147 4.7814 2.3936
-3.2942 4.6826 2.3936
-3.4704 4.5769 2.3936
-3.6430 4.4645 2.3936
-3.8117 4.3454 2.3936
-3.9763 4.2199 2.3936
-4.1365 4.0879 2.3936
-4.2919 3.9497 2.3936
-4.4425 3.8054 2.3936
-4.5878 3.6552 2.3936
-4.7276 3.4992 2.3936
-4.8618 3.3378 2.3936
-4.9899 3.1710 2.3936
-5.1119 2.9990 2.3936
-5.2274 2.8223 2.3936
-5.3362 2.6409 2.3936
-5.4383 2.4553 2.3936
-5.5332 2.2650 2.3936
-5.6209 2.0716 2.3936
-5.7012 1.8744 2.3936
-5.7739 1.6739 2.3936
-5.8388 1.4706 2.3936
-5.8959 1.2646 2.3936
-5.9450 1.0563 2.3936
-5.9860 0.8461 2.3936
-6.0188 0.6342 2.3936
-6.0433 0.4211 2.3936
-6.0596 0.2070 2.3936
-6.0674 -0.0077 2.3936
-6.0668 -0.2226 2.3936
-6.0579 -0.4375 2.3936
-6.0405 -0.6519 2.3936
-6.0147 -0.8655 2.3936
-5.9806 -1.0779 2.3936
-5.9382 -1.2888 2.3936
-5.8875 -1.4979 2.3936
-5.8288 -1.7048 2.3936
-5.7620 -1.9092 2.3936
-5.6872 -2.1107 2.3936
-5.6047 -2.3090 2.3936
-5.5146 -2.5038 2.3936
-5.4170 -2.6949 2.3936
-5.3122 -2.8819 2.3936
-5.2002 -3.0642 2.3936
-5.0813 -3.2422 2.3936
-4.9558 -3.4151 2.3936
-4.8238 -3.5828 2.3936
-4.6856 -3.7450 2.3936
-4.5415 -3.9016 2.3936
-4.3916 -4.0523 2.3936
-4.2363 -4.1969 2.3936
-4.0758 -4.3351 2.3936
-3.9105 -4.4669 2.3936
-3.7405 -4.5920 2.3936
-3.5662 -4.7103 2.3936
-3.3879 -4.8217 2.3936
-3.2059 -4.9260 2.3936
-3.0204 -5.0231 2.3936
-2.8319 -5.1129 2.3936
-2.6405 -5.1954 2.3936
-2.4466 -5.2705 2.3936
-2.2506 -5.3381 2.3936
-2.0526 -5.3982 2.3936
-1.8530 -5.4507 2.3936
-1.6522 -5.4956 2.3936
-1.4503 -5.5330 2.3936
-1.2478 -5.5629 2.3936
-1.0449 -5.5851 2.3936
-0.8418 -5.5999 2.3936
-0.6390 -5.6072 2.3936
-0.4365 -5.6072 2.3936
-0.2348 -5.5997 2.3936
-0.0341 -5.5851 2.3936
0.1654 -5.5632 2.3936
0.3634 -5.5342 2.3936
0.5596 -5.4983 2.3936
0.7539 -5.4554 2.3936
0.9459 -5.4058 2.3936
1.1355 -5.3496 2.3936
1.3223 -5.2869 2.3936
1.5063 -5.2177 2.3936
1.6873 -5.1424 2.3936
1.8649 -5.0609 2.3936
2.0390 -4.9736 2.3936
2.2095 -4.8804 2.3936
2.3761 -4.7816 2.3936
2.5388 -4.6774 2.3936
2.6972 -4.5680 2.3936
2.8514 -4.4533 2.3936
2.8864 -4.1682 2.3021
2.9458 -3.9415 2.2412
3.0772 -3.8208 2.2412
3.2041 -3.6960 2.2412
3.3263 -3.5674 2.2412
3.4438 -3.4349 2.2412
3.5564 -3.2988 2.2413
3.6641 -3.1593 2.2413
3.7672 -3.0169 2.2416
3.8651 -2.8714 2.2419
3.9579 -2.7229 2.2422
4.0454 -2.5716 2.2425
4.1275 -2.4178 2.2427
4.2043 -2.2615 2.2429
4.2756 -2.1030 2.2432
4.3414 -1.9424 2.2434
4.4016 -1.7799 2.2436
4.4563 -1.6158 2.2438
4.5053 -1.4501 2.2439
4.5487 -1.2831 2.2441
4.5864 -1.1149 2.2442
4.6184 -0.9458 2.2444
4.6447 -0.7758 2.2445
4.6653 -0.6052 2.2446
4.6801 -0.4341 2.2447
4.6891 -0.2628 2.2447
4.6925 -0.0914 2.2448
4.6901 0.0799 2.2448
4.6820 0.2510 2.2449
4.6682 0.4217 2.2449
4.6486 0.5918 2.2449
4.6235 0.7611 2.2448
4.5926 0.9295 2.2448
4.5562 1.0967 2.2448
4.5142 1.2627 2.2447
4.4667 1.4272 2.2446
4.4137 1.5901 2.2446
4.3552 1.7512 2.2445
4.2913 1.9103 2.2443
4.2222 2.0673 2.2442
4.1477 2.2221 2.2441
4.0680 2.3743 2.2439
3.9832 2.5240 2.2437
3.8934 2.6709 2.2436
3.7985 2.8148 2.2434
3.6987 2.9557 2.2432
3.5942 3.0933 2.2429
3.4849 3.2274 2.2427
3.3709 3.3580 2.2425
3.2525 3.4849 2.2422
3.1296 3.6079 2.2419
3.0024 3.7269 2.2416
2.8710 3.8417 2.2413
2.7358 3.9526 2.2412
2.5967 4.0591 2.2412
2.4538 4.1611 2.2412
2.3072 4.2585 2.2412
2.2113 4.4605 2.2976
2.2558 4.0024 2.2554
2.2134 4.2832 2.3610
0.8621 1.8279 0.9871
0.7957 1.8591 0.9850
0.7283 1.8879 0.9829
0.6599 1.9142 0.9808
0.5905 1.9381 0.9785
0.5204 1.9595 0.9763
0.4495 1.9783 0.9740
0.3779 1.9945 0.9716
0.3059 2.0081 0.9692
0.2333 2.0192 0.9668
0.1604 2.0276 0.9643
0.0873 2.0333 0.9618
0.0140 2.0365 0.9593
-0.0594 2.0369 0.9567
-0.1327 2.0347 0.9542
-0.2059 2.0299 0.9516
-0.2789 2.0225 0.9490
-0.3516 2.0124 0.9464
-0.4238 1.9996 0.9437
-0.4956 1.9843 0.9411
-0.5667 1.9664 0.9385
-0.6372 1.9460 0.9359
-0.7069 1.9230 0.9332
-0.7757 1.8975 0.9306
-0.8435 1.8695 0.9280
-0.9103 1.8391 0.9255
-2.5310 4.6847 2.3936
-2.7055 4.6062 2.3936
-2.8774 4.5212 2.3936
-3.0465 4.4297 2.3936
-3.2125 4.3317 2.3936
-3.3753 4.2274 2.3936
-3.5344 4.1169 2.3936
-3.6896 4.0003 2.3936
-3.8408 3.8777 2.3936
-3.9876 3.7492 2.3936
-4.1299 3.6150 2.3936
-4.2672 3.4753 2.3936
-4.3995 3.3302 2.3936
-4.5265 3.1798 2.3936
-4.6480 3.0245 2.3936
-4.7636 2.8644 2.3936
-4.8733 2.6997 2.3936
-4.9769 2.5306 2.3936
-5.0740 2.3575 2.3936
-5.1646 2.1804 2.3936
-5.2485 1.9998 2.3936
-5.3255 1.8158 2.3936
-5.3954 1.6289 2.3936
-5.4582 1.4387 2.3936
-5.5136 1.2464 2.3936
-5.5616 1.0518 2.3936
-5.6021 0.8554 2.3936
-5.6350 0.6576 2.3936
-5.6602 0.4580 2.3936
-5.6776 0.2576 2.3936
-5.6872 0.0567 2.3936
-5.6891 -0.1446 2.3936
-5.6830 -0.3459 2.3936
-5.6692 -0.5469 2.3936
-5.6475 -0.7472 2.3936
-5.6180 -0.9466 2.3936
-5.5808 -1.1446 2.3936
-5.5359 -1.3411 2.3936
-5.4834 -1.5356 2.3936
-5.4234 -1.7278 2.3936
-5.3559 -1.9177 2.3936
-5.2812 -2.1044 2.3936
-5.1993 -2.2881 2.3936
-5.1104 -2.4685 2.3936
-5.0146 -2.6449 2.3936
-4.9121 -2.8174 2.3936
-4.8032 -2.9857 2.3936
-4.6879 -3.1495 2.3936
-4.5665 -3.3085 2.3936
-4.4393 -3.4626 2.3936
-4.3063 -3.6114 2.3936
-4.1680 -3.7549 2.3936
-4.0244 -3.8927 2.3936
-3.8759 -4.0247 2.3936
-3.7228 -4.1507 2.3936
-3.5652 -4.2706 2.3936
-3.4034 -4.3842 2.3936
-3.2378 -4.4914 2.3936
-3.0685 -4.5920 2.3936
-2.8959 -4.6860 2.3936
-2.7203 -4.7732 2.3936
-2.5419 -4.8536 2.3936
-2.3610 -4.9272 2.3936
-2.1779 -4.9936 2.3936
-1.9928 -5.0530 2.3936
-1.8061 -5.1055 2.3936
-1.6181 -5.1508 2.3936
-1.4290 -5.1891 2.3936
-1.2391 -5.2203 2.3936
-1.0486 -5.2444 2.3936
-0.8579 -5.2615 2.3936
-0.6672 -5.2715 2.3936
-0.4768 -5.2746 2.3936
-0.2869 -5.2708 2.3936
-0.0977 -5.2600 2.3936
0.0904 -5.2426 2.3936
0.2772 -5.2184 2.3936
0.4625 -5.1875 2.3936
0.6461 -5.1502 2.3936
0.8277 -5.1064 2.3936
1.0071 -5.0563 2.3936
1.1842 -5.0001 2.3936
1.3586 -4.9377 2.3936
1.5303 -4.8694 2.3936
1.6989 -4.7953 2.3936
1.8644 -4.7155 2.3936
2.0266 -4.6302 2.3936
2.1852 -4.5395 2.3936
2.3401 -4.4436 2.3936
2.4912 -4.3426 2.3936
2.6384 -4.2367 2.3936
2.7813 -4.1260 2.3936
2.8598 -3.9280 2.3442
2.8653 -3.6503 2.2454
2.9814 -3.5273 2.2412
3.0986 -3.4075 2.2412
3.2113 -3.2840 2.2412
3.3195 -3.1569 2.2412
3.4231 -3.0266 2.2412
3.5220 -2.8931 2.2413
3.6161 -2.7567 2.2413
3.7056 -2.6176 2.2416
3.7903 -2.4758 2.2419
3.8699 -2.3315 2.2421
3.9444 -2.1848 2.2423
4.0137 -2.0359 2.2425
4.0779 -1.8850 2.2427
4.1369 -1.7322 2.2429
4.1905 -1.5777 2.2431
4.2389 -1.4217 2.2433
4.2819 -1.2643 2.2434
4.3195 -1.1058 2.2436
4.3517 -0.9462 2.2437
4.3786 -0.7859 2.2438
4.3999 -0.6248 2.2439
4.4159 -0.4633 2.2440
4.4264 -0.3014 2.2441
4.4314 -0.1393 2.2441
4.4310 0.0227 2.2442
4.4252 0.1845 2.2442
4.4139 0.3460 2.2442
4.3972 0.5070 2.2442
4.3752 0.6674 2.2442
4.3478 0.8268 2.2442
4.3150 0.9853 2.2441
4.2770 1.1426 2.2441
4.2336 1.2986 2.2440
4.1851 1.4531 2.2439
4.1314 1.6059 2.2439
4.0725 1.7569 2.2438
4.0086 1.9060 2.2436
3.9397 2.0529 2.2435
3.8658 2.1975 2.2434
3.7870 2.3396 2.2432
3.7033 2.4792 2.2430
3.6150 2.6160 2.2429
3.5220 2.7499 2.2427
3.4244 2.8808 2.2425
3.3223 3.0084 2.2422
3.2158 3.1327 2.2420
3.1049 3.2534 2.2418
2.9899 3.3705 2.2415
2.8708 3.4839 2.2412
2.7480 3.5937 2.2412
2.6213 3.6995 2.2412
2.4909 3.8011 2.2412
2.3568 3.8984 2.2412
2.2488 4.0446 2.2711
2.2063 4.3312 2.3793
0.8515 1.8331 0.9867
0.7850 1.8639 0.9847
0.7174 1.8923 0.9826
0.6488 1.9183 0.9804
0.5793 1.9417 0.9782
0.5090 1.9627 0.9759
0.4380 1.9811 0.9736
0.3664 1.9969 0.9712
0.2942 2.0101 0.9688
0.2216 2.0207 0.9664
0.1487 2.0287 0.9639
0.0755 2.0340 0.9614
0.0022 2.0367 0.9589
-0.0712 2.0368 0.9563
-0.1445 2.0342 0.9538
-0.2177 2.0289 0.9512
-0.2906 2.0210 0.9486
-0.3632 2.0105 0.9459
-0.4354 1.9973 0.9433
-0.5071 1.9816 0.9407
-0.5781 1.9633 0.9381
-0.6485 1.9424 0.9354
-0.7180 1.9190 0.9328
-0.7867 1.8931 0.9302
-0.8543 1.8648 0.9276
-0.9209 1.8340 0.9251
-2.5593 4.6725 2.3936
-2.7333 4.5930 2.3936
-2.9048 4.5068 2.3936
-3.0735 4.4143 2.3936
-3.2390 4.3154 2.3936
-3.4011 4.2101 2.3936
-3.5596 4.0986 2.3936
-3.7143 3.9810 2.3936
-3.8648 3.8574 2.3936
-4.0109 3.7280 2.3936
-4.1523 3.5929 2.3936
-4.2889 3.4523 2.3936
-4.4203 3.3063 2.3936
-4.5464 3.1552 2.3936
-4.6670 2.9991 2.3936
-4.7817 2.8382 2.3936
-4.8904 2.6728 2.3936
-4.9929 2.5031 2.3936
-5.0891 2.3292 2.3936
-5.1786 2.1516 2.3936
-5.2614 1.9704 2.3936
-5.3372 1.7858 2.3936
-5.4060 1.5983 2.3936
-5.4676 1.4082 2.3936
-5.5218 1.2153 2.3936
-5.5687 1.0205 2.3936
-5.6079 0.8235 2.3936
-5.6396 0.6252 2.3936
-5.6635 0.4258 2.3936
-5.6797 0.2253 2.3936
-5.6881 0.0243 2.3936
-5.6886 -0.1771 2.3936
-5.6813 -0.3783 2.3936
-5.6662 -0.5792 2.3936
-5.6433 -0.7794 2.3936
-5.6126 -0.9786 2.3936
-5.5741 -1.1764 2.3936
-5.5280 -1.3725 2.3936
-5.4742 -1.5669 2.3936
-5.4130 -1.7586 2.3936
-5.3444 -1.9479 2.3936
-5.2685 -2.1343 2.3936
-5.1854 -2.3174 2.3936
-5.0954 -2.4970 2.3936
-4.9985 -2.6729 2.3936
-4.8950 -2.8449 2.3936
-4.7850 -3.0124 2.3936
-4.6688 -3.1754 2.3936
-4.5464 -3.3337 2.3936
-4.4182 -3.4869 2.3936
-4.2844 -3.6349 2.3936
-4.1452 -3.7774 2.3936
-4.0009 -3.9143 2.3936
-3.8516 -4.0454 2.3936
-3.6977 -4.1704 2.3936
-3.5394 -4.2893 2.3936
-3.3770 -4.4019 2.3936
-3.2108 -4.5080 2.3936
-3.0410 -4.6076 2.3936
-2.8679 -4.7005 2.3936
-2.6917 -4.7866 2.3936
-2.5129 -4.8659 2.3936
-2.3316 -4.9382 2.3936
-2.1482 -5.0036 2.3936
-1.9629 -5.0620 2.3936
-1.7759 -5.1133 2.3936
-1.5877 -5.1575 2.3936
-1.3984 -5.1946 2.3936
-1.2084 -5.2247 2.3936
-1.0179 -5.2476 2.3936
-0.8272 -5.2636 2.3936
-0.6365 -5.2725 2.3936
-0.4462 -5.2744 2.3936
-0.2564 -5.2695 2.3936
-0.0674 -5.2577 2.3936
0.1205 -5.2391 2.3936
0.3071 -5.2138 2.3936
0.4922 -5.1820 2.3936
0.6755 -5.1436 2.3936
0.8567 -5.0988 2.3936
1.0358 -5.0477 2.3936
1.2124 -4.9904 2.3936
1.3864 -4.9271 2.3936
1.5576 -4.8579 2.3936
1.7258 -4.7828 2.3936
1.8908 -4.7022 2.3936
2.0524 -4.6160 2.3936
2.2104 -4.5244 2.3936
2.3647 -4.4276 2.3936
2.5152 -4.3259 2.3936
2.6617 -4.2192 2.3936
2.8040 -4.1078 2.3936
2.8593 -3.8796 2.3263
2.8797 -3.6249 2.2412
3.0071 -3.5159 2.2460
3.1170 -3.3878 2.2412
3.2291 -3.2637 2.2412
3.3365 -3.1362 2.2412
3.4393 -3.0053 2.2412
3.5374 -2.8714 2.2413
3.6308 -2.7345 2.2414
3.7196 -2.5950 2.2416
3.8034 -2.4528 2.2419
3.8822 -2.3080 2.2421
3.9559 -2.1610 2.2424
4.0244 -2.0117 2.2426
4.0878 -1.8605 2.2428
4.1459 -1.7074 2.2430
4.1987 -1.5527 2.2431
4.2462 -1.3964 2.2433
4.2883 -1.2389 2.2434
4.3251 -1.0802 2.2436
4.3564 -0.9205 2.2437
4.3824 -0.7600 2.2438
4.4029 -0.5988 2.2439
4.4179 -0.4372 2.2440
4.4275 -0.2753 2.2441
4.4317 -0.1133 2.2441
4.4304 0.0488 2.2442
4.4237 0.2106 2.2442
4.4116 0.3720 2.2442
4.3941 0.5329 2.2442
4.3711 0.6931 2.2442
4.3429 0.8524 2.2442
4.3092 1.0107 2.2441
4.2703 1.1678 2.2441
4.2262 1.3236 2.2440
4.1768 1.4778 2.2439
4.1222 1.6304 2.2438
4.0626 1.7811 2.2437
3.9978 1.9298 2.2436
3.9281 2.0763 2.2435
3.8534 2.2205 2.2433
3.7738 2.3623 2.2432
3.6894 2.5014 2.2430
3.6003 2.6378 2.2428
3.5066 2.7712 2.2426
3.4082 2.9015 2.2424
3.3054 3.0286 2.2422
3.1982 3.1523 2.2420
3.0867 3.2725 2.2417
2.9710 3.3891 2.2415
2.8513 3.5018 2.2412
2.7279 3.6110 2.2412
2.6006 3.7161 2.2412
2.4695 3.8170 2.2412
2.3349 3.9136 2.2412
2.2423 4.0889 2.2876
2.1949 4.3718 2.3936
0.8408 1.8382 0.9864
0.7741 1.8686 0.9844
0.7064 1.8966 0.9822
0.6376 1.9222 0.9800
0.5680 1.9453 0.9778
0.4976 1.9658 0.9755
0.4265 1.9838 0.9732
0.3548 1.9992 0.9708
0.2825 2.0120 0.9684
0.2099 2.0222 0.9660
0.1369 2.0297 0.9635
0.0637 2.0346 0.9610
-0.0096 2.0369 0.9585
-0.0830 2.0365 0.9559
-0.1563 2.0335 0.9533
-0.2294 2.0278 0.9507
-0.3023 2.0195 0.9481
-0.3749 2.0085 0.9455
-0.4470 1.9950 0.9429
-0.5186 1.9788 0.9403
-0.5895 1.9601 0.9376
-0.6597 1.9388 0.9350
-0.7291 1.9150 0.9324
-0.7976 1.8887 0.9298
-0.8651 1.8600 0.9272
-0.9315 1.8288 0.9246
-2.5875 4.6601 2.3936
-2.7611 4.5796 2.3936
-2.9322 4.4924 2.3936
-3.1003 4.3988 2.3936
-3.2653 4.2988 2.3936
-3.4269 4.1925 2.3936
-3.5848 4.0800 2.3936
-3.7388 3.9615 2.3936
-3.8886 3.8369 2.3936
-4.0340 3.7066 2.3936
-4.1746 3.5706 2.3936
-4.3104 3.4291 2.3936
-4.4410 3.2823 2.3936
-4.5662 3.1304 2.3936
-4.6858 2.9735 2.3936
-4.7996 2.8119 2.3936
-4.9074 2.6457 2.3936
-5.0089 2.4753 2.3936
-5.1039 2.3009 2.3936
-5.1924 2.1226 2.3936
-5.2740 1.9409 2.3936
-5.3488 1.7559 2.3936
-5.4164 1.5678 2.3936
-5.4768 1.3772 2.3936
-5.5299 1.1840 2.3936
-5.5755 0.9887 2.3936
-5.6135 0.7918 2.3936
-5.6440 0.5934 2.3936
-5.6666 0.3935 2.3936
-5.6816 0.1930 2.3936
-5.6887 -0.0081 2.3936
-5.6880 -0.2095 2.3936
-5.6794 -0.4107 2.3936
-5.6631 -0.6115 2.3936
-5.6389 -0.8116 2.3936
-5.6069 -1.0105 2.3936
-5.5672 -1.2081 2.3936
-5.5198 -1.4039 2.3936
-5.4649 -1.5976 2.3936
-5.4025 -1.7892 2.3936
-5.3326 -1.9781 2.3936
-5.2556 -2.1640 2.3936
-5.1714 -2.3465 2.3936
-5.0803 -2.5256 2.3936
-4.9823 -2.7009 2.3936
-4.8777 -2.8721 2.3936
-4.7667 -3.0389 2.3936
-4.6495 -3.2012 2.3936
-4.5262 -3.3587 2.3936
-4.3971 -3.5111 2.3936
-4.2624 -3.6582 2.3936
-4.1223 -3.7999 2.3936
-3.9771 -3.9358 2.3936
-3.8271 -4.0659 2.3936
-3.6725 -4.1900 2.3936
-3.5135 -4.3079 2.3936
-3.3505 -4.4194 2.3936
-3.1837 -4.5245 2.3936
-3.0133 -4.6230 2.3936
-2.8397 -4.7148 2.3936
-2.6631 -4.7998 2.3936
-2.4839 -4.8780 2.3936
-2.3022 -4.9492 2.3936
-2.1185 -5.0135 2.3936
-1.9329 -5.0707 2.3936
-1.7457 -5.1209 2.3936
-1.5573 -5.1639 2.3936
-1.3679 -5.1999 2.3936
-1.1778 -5.2288 2.3936
-0.9872 -5.2507 2.3936
-0.7965 -5.2655 2.3936
-0.6058 -5.2733 2.3936
-0.4155 -5.2741 2.3936
-0.2259 -5.2680 2.3936
-0.0370 -5.2552 2.3936
0.1507 -5.2355 2.3936
0.3370 -5.2091 2.3936
0.5218 -5.1762 2.3936
0.7048 -5.1368 2.3936
0.8857 -5.0910 2.3936
1.0644 -5.0389 2.3936
1.2406 -4.9806 2.3936
1.4142 -4.9164 2.3936
1.5849 -4.8462 2.3936
1.7526 -4.7702 2.3936
1.9170 -4.6887 2.3936
2.0780 -4.6016 2.3936
2.2355 -4.5092 2.3936
2.3892 -4.4116 2.3936
2.5391 -4.3090 2.3936
2.6849 -4.2016 2.3936
2.8265 -4.0894 2.3936
2.8588 -3.8320 2.3088
2.8995 -3.6066 2.2412
3.0196 -3.4891 2.2412
3.1354 -3.3681 2.2412
3.2467 -3.2435 2.2412
3.3534 -3.1154 2.2412
3.4555 -2.9840 2.2412
3.5528 -2.8495 2.2413
3.6455 -2.7122 2.2414
3.7334 -2.5722 2.2417
3.8164 -2.4296 2.2419
3.8944 -2.2845 2.2422
3.9673 -2.1371 2.2424
4.0350 -1.9875 2.2426
4.0975 -1.8360 2.2428
4.1547 -1.6826 2.2430
4.2067 -1.5276 2.2432
4.2533 -1.3711 2.2433
4.2946 -1.2134 2.2435
4.3305 -1.0545 2.2436
4.3610 -0.8947 2.2437
4.3860 -0.7341 2.2438
4.4057 -0.5728 2.2439
4.4198 -0.4112 2.2440
4.4286 -0.2492 2.2441
4.4319 -0.0872 2.2441
4.4297 0.0748 2.2442
4.4221 0.2366 2.2442
4.4091 0.3980 2.2442
4.3907 0.5588 2.2442
4.3669 0.7188 2.2442
4.3378 0.8780 2.2442
4.3033 1.0361 2.2441
4.2636 1.1930 2.2441
4.2186 1.3485 2.2440
4.1684 1.5025 2.2439
4.1130 1.6547 2.2438
4.0525 1.8051 2.2437
3.9869 1.9535 2.2436
3.9164 2.0997 2.2435
3.8409 2.2435 2.2433
3.7606 2.3849 2.2432
3.6754 2.5236 2.2430
3.5855 2.6595 2.2428
3.4910 2.7924 2.2426
3.3920 2.9222 2.2424
3.2884 3.0488 2.2422
3.1805 3.1719 2.2419
3.0683 3.2916 2.2417
2.9520 3.4075 2.2414
2.8317 3.5197 2.2412
2.7076 3.6282 2.2412
2.5797 3.7326 2.2412
2.4481 3.8329 2.2412
2.3129 3.9288 2.2412
2.2356 4.1339 2.3045
2.1703 4.3864 2.3936
2.2363 3.9745 2.3678
0.8730 1.6925 0.9863
0.8115 1.7242 0.9844
0.7489 1.7536 0.9825
0.6852 1.7808 0.9805
0.6207 1.8056 0.9785
0.5552 1.8281 0.9764
0.4890 1.8483 0.9743
0.4222 1.8660 0.9721
0.3547 1.8813 0.9699
0.2867 1.8942 0.9676
0.2182 1.9046 0.9653
0.1495 1.9125 0.9630
0.0805 1.9179 0.9606
0.0113 1.9209 0.9582
-0.0579 1.9213 0.9558
-0.1271 1.9193 0.9534
-0.1961 1.9147 0.9510
-0.2650 1.9077 0.9485
-0.3335 1.8981 0.9460
-0.4017 1.8861 0.9436
-0.4694 1.8717 0.9411
-0.5365 1.8548 0.9386
-0.6030 1.8355 0.9361
-0.6687 1.8138 0.9337
-0.7337 1.7897 0.9312
-0.7976 1.7634 0.9288
-0.8606 1.7347 0.9263
-0.9226 1.7038 0.9239
-2.5541 4.3393 2.3936
-2.7157 4.2585 2.3936
-2.8746 4.1717 2.3936
-3.0305 4.0788 2.3936
-3.1833 3.9800 2.3936
-3.3326 3.8753 2.3936
-3.4783 3.7650 2.3936
-3.6202 3.6490 2.3936
-3.7578 3.5276 2.3936
-3.8912 3.4008 2.3936
-4.0199 3.2689 2.3936
-4.1438 3.1320 2.3936
-4.2628 2.9902 2.3936
-4.3765 2.8437 2.3936
-4.4847 2.6928 2.3936
-4.5874 2.5376 2.3936
-4.6842 2.3784 2.3936
-4.7751 2.2154 2.3936
-4.8598 2.0487 2.3936
-4.9382 1.8787 2.3936
-5.0101 1.7056 2.3936
-5.0754 1.5297 2.3936
-5.1340 1.3511 2.3936
-5.1857 1.1702 2.3936
-5.2304 0.9874 2.3936
-5.2682 0.8027 2.3936
-5.2988 0.6166 2.3936
-5.3222 0.4292 2.3936
-5.3383 0.2411 2.3936
-5.3472 0.0522 2.3936
-5.3487 -0.1368 2.3936
-5.3429 -0.3259 2.3936
-5.3298 -0.5147 2.3936
-5.3094 -0.7028 2.3936
-5.2817 -0.8899 2.3936
-5.2468 -1.0758 2.3936
-5.2046 -1.2603 2.3936
-5.1554 -1.4432 2.3936
-5.0991 -1.6238 2.3936
-5.0359 -1.8021 2.3936
-4.9659 -1.9776 2.3936
-4.8891 -2.1502 2.3936
-4.8058 -2.3197 2.3936
-4.7161 -2.4857 2.3936
-4.6201 -2.6479 2.3936
-4.5180 -2.8062 2.3936
-4.4100 -2.9603 2.3936
-4.2963 -3.1100 2.3936
-4.1771 -3.2550 2.3936
-4.0525 -3.3952 2.3936
-3.9228 -3.5303 2.3936
-3.7883 -3.6602 2.3936
-3.6490 -3.7847 2.3936
-3.5054 -3.9036 2.3936
-3.3576 -4.0168 2.3936
-3.2058 -4.1241 2.3936
-3.0504 -4.2254 2.3936
-2.8916 -4.3206 2.3936
-2.7296 -4.4096 2.3936
-2.5646 -4.4922 2.3936
-2.3971 -4.5685 2.3936
-2.2271 -4.6382 2.3936
-2.0551 -4.7015 2.3936
-1.8811 -4.7582 2.3936
-1.7056 -4.8083 2.3936
-1.5288 -4.8517 2.3936
-1.3509 -4.8884 2.3936
-1.1721 -4.9186 2.3936
-0.9929 -4.9421 2.3936
-0.8133 -4.9589 2.3936
-0.6337 -4.9692 2.3936
-0.4543 -4.9728 2.3936
-0.2753 -4.9700 2.3936
-0.0970 -4.9607 2.3936
0.0804 -4.9450 2.3936
0.2566 -4.9229 2.3936
0.4315 -4.8946 2.3936
0.6048 -4.8602 2.3936
0.7763 -4.8196 2.3936
0.9458 -4.7731 2.3936
1.1131 -4.7207 2.3936
1.2780 -4.6626 2.3936
1.4403 -4.5988 2.3936
1.5998 -4.5295 2.3936
1.7563 -4.4548 2.3936
1.9098 -4.3749 2.3936
2.0599 -4.2898 2.3936
2.2067 -4.1998 2.3936
2.3498 -4.1050 2.3936
2.4892 -4.0053 2.3936
2.6247 -3.9013 2.3936
2.7562 -3.7928 2.3936
2.8339 -3.6168 2.3523
2.8327 -3.3569 2.2551
2.9264 -3.2236 2.2412
3.0334 -3.1071 2.2412
3.1361 -2.9873 2.2412
3.2345 -2.8643 2.2412
3.3283 -2.7383 2.2412
3.4177 -2.6094 2.2412
3.5024 -2.4778 2.2413
3.5826 -2.3437 2.2414
3.6583 -2.2073 2.2416
3.7291 -2.0687 2.2418
3.7951 -1.9279 2.2420
3.8561 -1.7851 2.2422
3.9122 -1.6406 2.2424
3.9633 -1.4944 2.2426
4.0093 -1.3468 2.2427
4.0503 -1.1979 2.2429
4.0862 -1.0478 2.2430
4.1169 -0.8968 2.2431
4.1425 -0.7450 2.2432
4.1629 -0.5925 2.2433
4.1781 -0.4395 2.2434
4.1882 -0.2862 2.2435
4.1931 -0.1327 2.2435
4.1928 0.0207 2.2436
4.1874 0.1741 2.2436
4.1768 0.3271 2.2436
4.1610 0.4796 2.2436
4.1402 0.6314 2.2436
4.1142 0.7825 2.2436
4.0832 0.9326 2.2435
4.0471 1.0816 2.2435
4.0060 1.2293 2.2434
3.9600 1.3756 2.2434
3.9090 1.5204 2.2433
3.8531 1.6633 2.2432
3.7925 1.8045 2.2431
3.7270 1.9435 2.2429
3.6569 2.0804 2.2428
3.5821 2.2149 2.2427
3.5028 2.3470 2.2425
3.4189 2.4764 2.2423
3.3306 2.6031 2.2421
3.2380 2.7268 2.2419
3.1411 2.8474 2.2417
3.0401 2.9649 2.2415
2.9349 3.0790 2.2413
2.8261 3.1898 2.2412
2.7134 3.2972 2.2412
2.5969 3.4008 2.2412
2.4767 3.5006 2.2412
2.3530 3.5964 2.2412
2.2687 3.7591 2.2843
2.2298 4.0177 2.3848
0.8631 1.6978 0.9860
0.8015 1.7291 0.9841
0.7387 1.7582 0.9822
0.6749 1.7849 0.9802
0.6102 1.8094 0.9782
0.5446 1.8315 0.9761
0.4783 1.8513 0.9739
0.4113 1.8686 0.9717
0.3438 1.8836 0.9695
0.2757 1.8960 0.9672
0.2072 1.9060 0.9649
0.1384 1.9135 0.9626
0.0694 1.9186 0.9602
0.0002 1.9211 0.9578
-0.0690 1.9212 0.9554
-0.1382 1.9187 0.9530
-0.2072 1.9137 0.9506
-0.2760 1.9063 0.9481
-0.3446 1.8964 0.9456
-0.4127 1.8840 0.9432
-0.4803 1.8691 0.9407
-0.5473 1.8518 0.9382
-0.6137 1.8321 0.9357
-0.6793 1.8101 0.9333
-0.7440 1.7856 0.9308
-0.8079 1.7589 0.9284
-0.8707 1.7299 0.9259
-0.9324 1.6986 0.9235
-2.5803 4.3267 2.3936
-2.7414 4.2450 2.3936
-2.8999 4.1571 2.3936
-3.0553 4.0633 2.3936
-3.2076 3.9635 2.3936
-3.3564 3.8580 2.3936
-3.5014 3.7467 2.3936
-3.6426 3.6298 2.3936
-3.7796 3.5075 2.3936
-3.9122 3.3799 2.3936
-4.0402 3.2472 2.3936
-4.1633 3.1095 2.3936
-4.2814 2.9669 2.3936
-4.3943 2.8197 2.3936
-4.5017 2.6681 2.3936
-4.6034 2.5123 2.3936
-4.6993 2.3524 2.3936
-4.7891 2.1888 2.3936
-4.8728 2.0216 2.3936
-4.9502 1.8510 2.3936
-5.0210 1.6775 2.3936
-5.0853 1.5011 2.3936
-5.1428 1.3222 2.3936
-5.1934 1.1410 2.3936
-5.2370 0.9577 2.3936
-5.2736 0.7728 2.3936
-5.3030 0.5865 2.3936
-5.3253 0.3991 2.3936
-5.3402 0.2107 2.3936
-5.3479 0.0219 2.3936
-5.3483 -0.1672 2.3936
-5.3413 -0.3563 2.3936
-5.3270 -0.5447 2.3936
-5.3054 -0.7329 2.3936
-5.2765 -0.9201 2.3936
-5.2404 -1.1060 2.3936
-5.1972 -1.2901 2.3936
-5.1468 -1.4723 2.3936
-5.0894 -1.6527 2.3936
-5.0251 -1.8305 2.3936
-4.9540 -2.0056 2.3936
-4.8762 -2.1778 2.3936
-4.7918 -2.3466 2.3936
-4.7011 -2.5120 2.3936
-4.6041 -2.6737 2.3936
-4.5010 -2.8313 2.3936
-4.3921 -2.9847 2.3936
-4.2775 -3.1337 2.3936
-4.1574 -3.2779 2.3936
-4.0320 -3.4173 2.3936
-3.9015 -3.5516 2.3936
-3.7661 -3.6806 2.3936
-3.6262 -3.8042 2.3936
-3.4819 -3.9222 2.3936
-3.3334 -4.0345 2.3936
-3.1811 -4.1408 2.3936
-3.0251 -4.2411 2.3936
-2.8657 -4.3353 2.3936
-2.7032 -4.4233 2.3936
-2.5378 -4.5049 2.3936
-2.3699 -4.5801 2.3936
-2.1996 -4.6489 2.3936
-2.0272 -4.7111 2.3936
-1.8530 -4.7667 2.3936
-1.6772 -4.8157 2.3936
-1.5002 -4.8581 2.3936
-1.3221 -4.8938 2.3936
-1.1433 -4.9228 2.3936
-0.9640 -4.9452 2.3936
-0.7844 -4.9610 2.3936
-0.6048 -4.9702 2.3936
-0.4254 -4.9728 2.3936
-0.2465 -4.9689 2.3936
-0.0684 -4.9586 2.3936
0.1089 -4.9418 2.3936
0.2849 -4.9188 2.3936
0.4595 -4.8895 2.3936
0.6326 -4.8540 2.3936
0.8037 -4.8125 2.3936
0.9729 -4.7651 2.3936
1.1398 -4.7117 2.3936
1.3043 -4.6527 2.3936
1.4661 -4.5880 2.3936
1.6252 -4.5178 2.3936
1.7813 -4.4423 2.3936
1.9342 -4.3618 2.3936
2.0838 -4.2757 2.3936
2.2299 -4.1848 2.3936
2.3725 -4.0891 2.3936
2.5112 -3.9888 2.3936
2.6461 -3.8841 2.3936
2.7770 -3.7750 2.3936
2.8335 -3.5732 2.3358
2.8394 -3.3256 2.2459
2.9439 -3.2050 2.2412
3.0502 -3.0881 2.2412
3.1522 -2.9677 2.2412
3.2499 -2.8442 2.2412
3.3430 -2.7178 2.2412
3.4317 -2.5884 2.2412
3.5156 -2.4564 2.2413
3.5951 -2.3219 2.2414
3.6700 -2.1851 2.2416
3.7401 -2.0461 2.2418
3.8052 -1.9050 2.2420
3.8655 -1.7620 2.2422
3.9208 -1.6172 2.2424
3.9711 -1.4708 2.2426
4.0163 -1.3229 2.2427
4.0564 -1.1738 2.2429
4.0914 -1.0236 2.2430
4.1213 -0.8724 2.2431
4.1461 -0.7204 2.2432
4.1657 -0.5679 2.2433
4.1801 -0.4148 2.2434
4.1894 -0.2615 2.2435
4.1934 -0.1080 2.2435
4.1923 0.0455 2.2436
4.1860 0.1987 2.2436
4.1746 0.3516 2.2436
4.1580 0.5041 2.2436
4.1363 0.6558 2.2436
4.1095 0.8067 2.2436
4.0777 0.9567 2.2435
4.0408 1.1055 2.2435
3.9989 1.2530 2.2434
3.9521 1.3991 2.2434
3.9003 1.5435 2.2433
3.8437 1.6862 2.2432
3.7822 1.8270 2.2430
3.7161 1.9657 2.2429
3.6452 2.1022 2.2428
3.5696 2.2364 2.2426
3.4896 2.3680 2.2425
3.4050 2.4970 2.2423
3.3160 2.6232 2.2421
3.2227 2.7464 2.2419
3.1251 2.8666 2.2417
3.0234 2.9835 2.2415
2.9176 3.0970 2.2412
2.8082 3.2074 2.2412
2.6949 3.3141 2.2412
2.5778 3.4172 2.2412
2.4590 3.5192 2.2430
2.3328 3.6115 2.2412
2.2627 3.7993 2.2997
2.2152 4.0471 2.3936
0.8533 1.7030 0.9857
0.7914 1.7339 0.9838
0.7285 1.7626 0.9819
0.6645 1.7890 0.9799
0.5997 1.8131 0.9778
0.5340 1.8349 0.9757
0.4676 1.8543 0.9736
0.4005 1.8712 0.9714
0.3328 1.8857 0.9691
0.2647 1.8978 0.9669
0.1961 1.9074 0.9646
0.1273 1.9145 0.9622
0.0582 1.9192 0.9599
-0.0109 1.9213 0.9575
-0.0802 1.9209 0.9550
-0.1493 1.9181 0.9526
-0.2183 1.9127 0.9502
-0.2871 1.9049 0.9477
-0.3555 1.8945 0.9452
-0.4236 1.8817 0.9428
-0.4911 1.8665 0.9403
-0.5580 1.8488 0.9378
-0.6243 1.8288 0.9353
-0.6897 1.8063 0.9329
-0.7544 1.7815 0.9304
-0.8180 1.7544 0.9280
-0.8807 1.7250 0.9255
-0.9423 1.6933 0.9231
-2.6064 4.3140 2.3936
-2.7671 4.2312 2.3936
-2.9251 4.1424 2.3936
-3.0801 4.0476 2.3936
-3.2318 3.9469 2.3936
-3.3800 3.8404 2.3936
-3.5245 3.7282 2.3936
-3.6650 3.6105 2.3936
-3.8013 3.4874 2.3936
-3.9331 3.3589 2.3936
-4.0604 3.2253 2.3936
-4.1827 3.0868 2.3936
-4.3000 2.9435 2.3936
-4.4119 2.7956 2.3936
-4.5184 2.6433 2.3936
-4.6192 2.4868 2.3936
-4.7142 2.3263 2.3936
-4.8030 2.1621 2.3936
-4.8857 1.9943 2.3936
-4.9620 1.8233 2.3936
-5.0318 1.6492 2.3936
-5.0950 1.4724 2.3936
-5.1514 1.2931 2.3936
-5.2009 1.1116 2.3936
-5.2434 0.9281 2.3936
-5.2788 0.7429 2.3936
-5.3071 0.5564 2.3936
-5.3282 0.3688 2.3936
-5.3420 0.1804 2.3936
-5.3485 -0.0086 2.3936
-5.3476 -0.1978 2.3936
-5.3395 -0.3867 2.3936
-5.3240 -0.5752 2.3936
-5.3013 -0.7631 2.3936
-5.2712 -0.9503 2.3936
-5.2340 -1.1356 2.3936
-5.1895 -1.3196 2.3936
-5.1380 -1.5015 2.3936
-5.0795 -1.6814 2.3936
-5.0141 -1.8589 2.3936
-4.9419 -2.0335 2.3936
-4.8630 -2.2052 2.3936
-4.7776 -2.3735 2.3936
-4.6859 -2.5383 2.3936
-4.5879 -2.6993 2.3936
-4.4839 -2.8563 2.3936
-4.3740 -3.0090 2.3936
-4.2585 -3.1572 2.3936
-4.1375 -3.3007 2.3936
-4.0113 -3.4393 2.3936
-3.8800 -3.5727 2.3936
-3.7439 -3.7009 2.3936
-3.6033 -3.8236 2.3936
-3.4582 -3.9407 2.3936
-3.3091 -4.0520 2.3936
-3.1562 -4.1574 2.3936
-2.9996 -4.2567 2.3936
-2.8397 -4.3499 2.3936
-2.6768 -4.4369 2.3936
-2.5110 -4.5175 2.3936
-2.3426 -4.5916 2.3936
-2.1719 -4.6593 2.3936
-1.9992 -4.7205 2.3936
-1.8248 -4.7750 2.3936
-1.6488 -4.8230 2.3936
-1.4716 -4.8643 2.3936
-1.2934 -4.8989 2.3936
-1.1145 -4.9269 2.3936
-0.9351 -4.9482 2.3936
-0.7555 -4.9629 2.3936
-0.5759 -4.9711 2.3936
-0.3966 -4.9726 2.3936
-0.2178 -4.9677 2.3936
-0.0397 -4.9563 2.3936
0.1373 -4.9386 2.3936
0.3131 -4.9145 2.3936
0.4875 -4.8842 2.3936
0.6603 -4.8478 2.3936
0.8311 -4.8053 2.3936
0.9999 -4.7569 2.3936
1.1665 -4.7026 2.3936
1.3305 -4.6426 2.3936
1.4919 -4.5771 2.3936
1.6505 -4.5060 2.3936
1.8061 -4.4296 2.3936
1.9585 -4.3479 2.3936
2.1076 -4.2614 2.3936
2.2532 -4.1698 2.3936
2.3951 -4.0734 2.3936
2.5332 -3.9723 2.3936
2.6675 -3.8668 2.3936
2.7976 -3.7570 2.3936
2.8332 -3.5303 2.3195
2.8515 -3.3006 2.2412
2.9613 -3.1864 2.2412
3.0669 -3.0689 2.2412
3.1683 -2.9481 2.2412
3.2652 -2.8241 2.2412
3.3576 -2.6971 2.2412
3.4455 -2.5673 2.2413
3.5287 -2.4348 2.2413
3.6075 -2.3000 2.2414
3.6816 -2.1629 2.2417
3.7509 -2.0235 2.2419
3.8153 -1.8821 2.2421
3.8747 -1.7388 2.2423
3.9292 -1.5937 2.2424
3.9787 -1.4471 2.2426
4.0231 -1.2990 2.2428
4.0624 -1.1497 2.2429
4.0966 -0.9993 2.2430
4.1257 -0.8480 2.2431
4.1496 -0.6959 2.2433
4.1684 -0.5432 2.2433
4.1819 -0.3901 2.2434
4.1904 -0.2368 2.2435
4.1936 -0.0833 2.2435
4.1916 0.0702 2.2436
4.1845 0.2234 2.2436
4.1723 0.3762 2.2436
4.1549 0.5285 2.2436
4.1324 0.6802 2.2436
4.1048 0.8309 2.2436
4.0721 0.9807 2.2435
4.0344 1.1293 2.2435
3.9917 1.2766 2.2434
3.9441 1.4224 2.2433
3.8915 1.5666 2.2432
3.8341 1.7090 2.2431
3.7719 1.8495 2.2430
3.7050 1.9878 2.2429
3.6333 2.1240 2.2428
3.5571 2.2577 2.2426
3.4762 2.3890 2.2424
3.3909 2.5175 2.2423
3.3013 2.6432 2.2421
3.2073 2.7660 2.2419
3.1090 2.8856 2.2417
3.0066 3.0020 2.2414
2.9003 3.1150 2.2412
2.7902 3.2248 2.2412
2.6763 3.3310 2.2412
2.5586 3.4334 2.2412
2.4373 3.5319 2.2412
2.3125 3.6265 2.2412
2.2566 3.8400 2.3154
2.1924 4.0616 2.3936
0.8434 1.7081 0.9854
0.8805 1.5677 0.9855
0.8234 1.5997 0.9838
0.7653 1.6296 0.9820
0.7061 1.6575 0.9802
0.6460 1.6831 0.9783
0.5849 1.7066 0.9764
0.5231 1.7279 0.9744
0.4605 1.7469 0.9724
0.3973 1.7637 0.9704
0.3335 1.7781 0.9683
0.2692 1.7903 0.9661
0.2045 1.8001 0.9639
0.1395 1.8076 0.9617
0.0743 1.8127 0.9595
0.0089 1.8155 0.9573
-0.0565 1.8159 0.9550
-0.1219 1.8140 0.9527
-0.1872 1.8097 0.9504
-0.2523 1.8030 0.9481
-0.3171 1.7940 0.9457
-0.3816 1.7826 0.9434
-0.4456 1.7690 0.9411
-0.5090 1.7530 0.9387
-0.5718 1.7348 0.9364
-0.6340 1.7143 0.9340
-0.6953 1.6915 0.9317
-0.7558 1.6666 0.9294
-0.8154 1.6395 0.9271
-0.8739 1.6103 0.9248
-0.9314 1.5789 0.9226
-2.5686 4.0197 2.3936
-2.7182 3.9371 2.3936
-2.8651 3.8489 2.3936
-3.0089 3.7551 2.3936
-3.1494 3.6559 2.3936
-3.2865 3.5513 2.3936
-3.4198 3.4415 2.3936
-3.5493 3.3265 2.3936
-3.6746 3.2065 2.3936
-3.7956 3.0817 2.3936
-3.9120 2.9522 2.3936
-4.0237 2.8182 2.3936
-4.1304 2.6798 2.3936
-4.2320 2.5373 2.3936
-4.3283 2.3908 2.3936
-4.4192 2.2405 2.3936
-4.5044 2.0867 2.3936
-4.5838 1.9295 2.3936
-4.6572 1.7691 2.3936
-4.7246 1.6059 2.3936
-4.7858 1.4400 2.3936
-4.8406 1.2718 2.3936
-4.8890 1.1013 2.3936
-4.9309 0.9290 2.3936
-4.9661 0.7551 2.3936
-4.9947 0.5798 2.3936
-5.0165 0.4034 2.3936
-5.0315 0.2262 2.3936
-5.0397 0.0484 2.3936
-5.0410 -0.1296 2.3936
-5.0354 -0.3076 2.3936
-5.0230 -0.4854 2.3936
-5.0037 -0.6625 2.3936
-4.9776 -0.8388 2.3936
-4.9447 -1.0139 2.3936
-4.9051 -1.1876 2.3936
-4.8588 -1.3596 2.3936
-4.8059 -1.5297 2.3936
-4.7465 -1.6976 2.3936
-4.6807 -1.8629 2.3936
-4.6087 -2.0256 2.3936
-4.5304 -2.1852 2.3936
-4.4461 -2.3416 2.3936
-4.3560 -2.4946 2.3936
-4.2601 -2.6438 2.3936
-4.1586 -2.7891 2.3936
-4.0518 -2.9303 2.3936
-3.9398 -3.0671 2.3936
-3.8227 -3.1994 2.3936
-3.7009 -3.3270 2.3936
-3.5744 -3.4497 2.3936
-3.4435 -3.5673 2.3936
-3.3085 -3.6797 2.3936
-3.1695 -3.7868 2.3936
-3.0268 -3.8883 2.3936
-2.8806 -3.9843 2.3936
-2.7311 -4.0745 2.3936
-2.5787 -4.1589 2.3936
-2.4234 -4.2373 2.3936
-2.2657 -4.3097 2.3936
-2.1056 -4.3761 2.3936
-1.9436 -4.4363 2.3936
-1.7797 -4.4904 2.3936
-1.6143 -4.5383 2.3936
-1.4476 -4.5798 2.3936
-1.2799 -4.6151 2.3936
-1.1113 -4.6443 2.3936
-0.9422 -4.6671 2.3936
-0.7727 -4.6837 2.3936
-0.6032 -4.6940 2.3936
-0.4338 -4.6981 2.3936
-0.2647 -4.6961 2.3936
-0.0963 -4.6880 2.3936
0.0713 -4.6738 2.3936
0.2379 -4.6537 2.3936
0.4033 -4.6276 2.3936
0.5672 -4.5957 2.3936
0.7294 -4.5580 2.3936
0.8898 -4.5146 2.3936
1.0482 -4.4657 2.3936
1.2043 -4.4114 2.3936
1.3580 -4.3516 2.3936
1.5092 -4.2867 2.3936
1.6576 -4.2166 2.3936
1.8030 -4.1415 2.3936
1.9454 -4.0615 2.3936
2.0846 -3.9768 2.3936
2.2204 -3.8875 2.3936
2.3527 -3.7937 2.3936
2.4813 -3.6956 2.3936
2.6062 -3.5933 2.3936
2.7271 -3.4870 2.3936
2.8096 -3.3358 2.3645
2.8080 -3.0988 2.2730
2.8703 -2.9451 2.2412
2.9680 -2.8318 2.2412
3.0615 -2.7155 2.2412
3.1508 -2.5964 2.2412
3.2358 -2.4744 2.2412
3.3165 -2.3498 2.2412
3.3927 -2.2228 2.2412
3.4644 -2.0935 2.2413
3.5316 -1.9621 2.2413
3.5944 -1.8287 2.2415
3.6526 -1.6935 2.2417
3.7060 -1.5565 2.2419
3.7547 -1.4180 2.2421
3.7986 -1.2781 2.2422
3.8376 -1.1369 2.2423
3.8718 -0.9946 2.2425
3.9012 -0.8514 2.2426
3.9256 -0.7074 2.2427
3.9451 -0.5628 2.2428
3.9598 -0.4176 2.2429
3.9694 -0.2722 2.2429
3.9742 -0.1266 2.2430
3.9740 0.0190 2.2430
3.9689 0.1644 2.2430
3.9589 0.3096 2.2431
3.9440 0.4543 2.2431
3.9242 0.5984 2.2431
3.8996 0.7417 2.2430
3.8701 0.8842 2.2430
3.8359 1.0255 2.2430
3.7968 1.1657 2.2429
3.7531 1.3045 2.2428
3.7047 1.4418 2.2427
3.6516 1.5774 2.2427
3.5939 1.7112 2.2425
3.5317 1.8431 2.2424
3.4651 1.9729 2.2423
3.3940 2.1004 2.2422
3.3185 2.2256 2.2420
3.2388 2.3482 2.2418
3.1549 2.4682 2.2417
3.0669 2.5854 2.2415
2.9748 2.6997 2.2413
2.8790 2.8111 2.2412
2.7794 2.9194 2.2412
2.6760 3.0243 2.2412
2.5689 3.1259 2.2412
2.4582 3.2239 2.2412
2.3441 3.3183 2.2412
2.2860 3.4996 2.3009
2.2491 3.7331 2.3936
0.8714 1.5730 0.9853
0.8141 1.6047 0.9835
0.7558 1.6343 0.9818
0.6965 1.6617 0.9799
0.6362 1.6871 0.9780
0.5750 1.7102 0.9761
0.5130 1.7311 0.9741
0.4504 1.7498 0.9721
0.3870 1.7661 0.9700
0.3231 1.7802 0.9679
0.2588 1.7920 0.9658
0.1941 1.8015 0.9636
0.1290 1.8086 0.9614
0.0638 1.8133 0.9592
-0.0016 1.8157 0.9569
-0.0671 1.8158 0.9546
-0.1324 1.8134 0.9523
-0.1977 1.8087 0.9500
-0.2628 1.8017 0.9477
-0.3275 1.7923 0.9454
-0.3919 1.7806 0.9430
-0.4558 1.7666 0.9407
-0.5192 1.7502 0.9383
-0.5819 1.7316 0.9360
-0.6439 1.7108 0.9337
-0.7051 1.6877 0.9313
-0.7655 1.6624 0.9290
-0.8249 1.6349 0.9267
-0.8832 1.6054 0.9245
-0.9405 1.5737 0.9222
-2.5929 4.0068 2.3936
-2.7421 3.9233 2.3936
-2.8884 3.8342 2.3936
-3.0317 3.7395 2.3936
