ply
format ascii 1.0
element vertex 2170
property float32 x
property float32 y
property float32 z
end_header
4.6947 -6.9715 2.3812
4.9817 -6.8614 2.3812
5.2660 -6.7391 2.3812
5.5472 -6.6046 2.3812
5.8245 -6.4579 2.3812
6.0973 -6.2989 2.3812
6.3650 -6.1278 2.3812
6.6268 -5.9446 2.3812
6.8822 -5.7494 2.3812
7.1303 -5.5425 2.3812
7.3706 -5.3240 2.3812
7.6022 -5.0942 2.3812
7.8247 -4.8535 2.3812
8.0371 -4.6021 2.3812
8.2390 -4.3405 2.3812
8.4297 -4.0692 2.3812
8.6086 -3.7886 2.3812
8.7750 -3.4993 2.3812
8.9285 -3.2018 2.3812
9.0685 -2.8969 2.3812
9.1945 -2.5851 2.3812
9.3061 -2.2672 2.3812
9.4029 -1.9438 2.3812
9.4846 -1.6159 2.3812
9.5508 -1.2840 2.3812
9.6013 -0.9493 2.3812
9.6360 -0.6121 2.3812
9.6548 -0.2736 2.3812
9.6575 0.0653 2.3812
9.6441 0.4040 2.3812
9.6148 0.7414 2.3812
9.5696 1.0771 2.3812
9.5088 1.4097 2.3812
9.4325 1.7387 2.3812
9.3410 2.0633 2.3812
9.2347 2.3828 2.3812
9.1139 2.6963 2.3812
8.9791 3.0032 2.3812
8.8308 3.3027 2.3812
8.6694 3.5944 2.3812
8.4956 3.8775 2.3812
8.3099 4.1516 2.3812
8.1128 4.4162 2.3812
7.9052 4.6707 2.3812
7.6874 4.9148 2.3812
7.4604 5.1482 2.3812
7.2246 5.3704 2.3812
6.9809 5.5813 2.3812
6.7298 5.7806 2.3812
6.4721 5.9681 2.3812
6.2084 6.1437 2.3812
5.9394 6.3073 2.3812
5.6657 6.4588 2.3812
5.3881 6.5983 2.3812
5.1071 6.7256 2.3812
4.8233 6.8410 2.3812
4.5374 6.9443 2.3812
4.2499 7.0359 2.3812
3.9613 7.1157 2.3812
3.6723 7.1840 2.3812
3.3833 7.2409 2.3812
3.0948 7.2866 2.3812
2.8072 7.3213 2.3812
0.9315 2.7141 0.8799
0.8339 2.7435 0.8878
0.7352 2.7693 0.8957
0.6357 2.7916 0.9038
0.5354 2.8102 0.9118
0.4345 2.8252 0.9199
0.3331 2.8365 0.9281
0.2314 2.8442 0.9362
0.1294 2.8481 0.9444
0.0274 2.8484 0.9525
-0.0746 2.8449 0.9606
-0.1764 2.8378 0.9687
-0.2778 2.8270 0.9768
-0.3789 2.8125 0.9848
-0.4793 2.7943 0.9927
-0.5790 2.7725 1.0006
-0.6779 2.7471 1.0084
-0.7758 2.7182 1.0161
-2.0295 6.2471 2.3812
-2.2354 6.1186 2.3812
-2.4355 5.9848 2.3812
-2.6297 5.8460 2.3812
-2.8179 5.7022 2.3812
-3.0002 5.5539 2.3812
-3.1765 5.4011 2.3812
-3.3467 5.2441 2.3812
-3.5109 5.0832 2.3812
-3.6689 4.9184 2.3812
-3.8209 4.7501 2.3812
-3.9667 4.5783 2.3812
-4.1063 4.4034 2.3812
-4.2398 4.2254 2.3812
-4.3672 4.0445 2.3812
-4.4884 3.8610 2.3812
-4.6035 3.6749 2.3812
-4.7124 3.4864 2.3812
-4.8152 3.2957 2.3812
-4.9118 3.1030 2.3812
-5.0023 2.9083 2.3812
-5.0867 2.7118 2.3812
-5.1650 2.5136 2.3812
-5.2372 2.3140 2.3812
-5.3033 2.1129 2.3812
-5.3633 1.9106 2.3812
-5.4172 1.7071 2.3812
-5.4650 1.5027 2.3812
-5.5068 1.2973 2.3812
-5.5425 1.0912 2.3812
-5.5721 0.8844 2.3812
-5.5957 0.6771 2.3812
-5.6132 0.4693 2.3812
-5.6247 0.2612 2.3812
-5.6301 0.0530 2.3812
-5.6295 -0.1554 2.3812
-5.6228 -0.3637 2.3812
-5.6100 -0.5719 2.3812
-5.5911 -0.7798 2.3812
-5.5662 -0.9874 2.3812
-5.5352 -1.1945 2.3812
-5.4981 -1.4009 2.3812
-5.4549 -1.6066 2.3812
-5.4056 -1.8115 2.3812
-5.3501 -2.0154 2.3812
-5.2885 -2.2183 2.3812
-5.2208 -2.4199 2.3812
-5.1469 -2.6201 2.3812
-5.0668 -2.8188 2.3812
-4.9805 -3.0160 2.3812
-4.8881 -3.2114 2.3812
-4.7894 -3.4048 2.3812
-4.6845 -3.5962 2.3812
-4.5733 -3.7853 2.3812
-4.4559 -3.9721 2.3812
-4.3323 -4.1564 2.3812
-4.2024 -4.3380 2.3812
-4.0662 -4.5164 2.3812
-3.9238 -4.6919 2.3812
-3.7751 -4.8642 2.3812
-3.6202 -5.0330 2.3812
-3.4591 -5.1981 2.3812
-3.2917 -5.3594 2.3812
-3.1182 -5.5166 2.3812
-2.9385 -5.6696 2.3812
-2.7526 -5.8179 2.3812
-2.5607 -5.9616 2.3812
-2.3628 -6.1002 2.3812
-2.1588 -6.2337 2.3812
-1.9490 -6.3616 2.3812
-1.7334 -6.4838 2.3812
-1.5120 -6.6000 2.3812
-1.2850 -6.7099 2.3812
-1.0525 -6.8132 2.3812
-0.8146 -6.9098 2.3812
-0.5715 -6.9992 2.3812
-0.3233 -7.0812 2.3812
-0.0703 -7.1555 2.3812
0.1875 -7.2219 2.3812
0.4498 -7.2799 2.3812
0.7163 -7.3294 2.3812
0.9867 -7.3700 2.3812
1.2609 -7.4014 2.3812
1.5385 -7.4234 2.3812
1.8193 -7.4357 2.3812
2.1027 -7.4379 2.3812
2.3886 -7.4299 2.3812
2.6764 -7.4113 2.3812
2.9659 -7.3819 2.3812
3.2564 -7.3414 2.3812
3.5477 -7.2896 2.3812
3.8391 -7.2264 2.3812
4.1302 -7.1516 2.3812
-5.2598 0.6575 2.3812
-5.2771 0.4618 2.3812
-5.2885 0.2658 2.3812
-5.2943 0.0696 2.3812
-5.2942 -0.1268 2.3812
-5.2883 -0.3231 2.3812
-5.2766 -0.5193 2.3812
-5.2592 -0.7152 2.3812
-5.2359 -0.9107 2.3812
-5.2068 -1.1058 2.3812
-5.1719 -1.3002 2.3812
-5.1312 -1.4939 2.3812
-5.0847 -1.6868 2.3812
-5.0323 -1.8786 2.3812
-4.9741 -2.0695 2.3812
-4.9101 -2.2590 2.3812
-4.8402 -2.4472 2.3812
-4.7644 -2.6339 2.3812
-4.6828 -2.8190 2.3812
-4.5953 -3.0022 2.3812
-4.5020 -3.1836 2.3812
-4.4027 -3.3629 2.3812
-4.2976 -3.5400 2.3812
-4.1866 -3.7147 2.3812
-4.0698 -3.8869 2.3812
-3.9471 -4.0563 2.3812
-3.8185 -4.2229 2.3812
-3.6841 -4.3865 2.3812
-3.5439 -4.5468 2.3812
-3.3978 -4.7038 2.3812
-3.2460 -4.8571 2.3812
-3.0884 -5.0067 2.3812
-2.9251 -5.1522 2.3812
-2.7561 -5.2936 2.3812
-2.5815 -5.4306 2.3812
-2.4013 -5.5629 2.3812
-2.2156 -5.6904 2.3812
-2.0244 -5.8128 2.3812
-1.8279 -5.9300 2.3812
-1.6261 -6.0416 2.3812
-1.4192 -6.1474 2.3812
-1.2071 -6.2472 2.3812
-0.9902 -6.3407 2.3812
-0.7684 -6.4278 2.3812
-0.5421 -6.5080 2.3812
-0.3112 -6.5812 2.3812
-0.0760 -6.6472 2.3812
0.1632 -6.7056 2.3812
0.4064 -6.7562 2.3812
0.6532 -6.7987 2.3812
0.9034 -6.8329 2.3812
1.1568 -6.8586 2.3812
1.4131 -6.8754 2.3812
1.6719 -6.8832 2.3812
1.9329 -6.8817 2.3812
2.1958 -6.8707 2.3812
2.4602 -6.8499 2.3812
2.7258 -6.8192 2.3812
2.9921 -6.7783 2.3812
3.2588 -6.7271 2.3812
3.5253 -6.6655 2.3812
3.7911 -6.5931 2.3812
4.0559 -6.5101 2.3812
4.3191 -6.4162 2.3812
4.5802 -6.3113 2.3812
4.8386 -6.1955 2.3812
5.0938 -6.0686 2.3812
5.3453 -5.9307 2.3812
5.5924 -5.7819 2.3812
5.8346 -5.6222 2.3812
6.0713 -5.4517 2.3812
6.3018 -5.2704 2.3812
6.5257 -5.0788 2.3812
6.7422 -4.8769 2.3812
6.9508 -4.6649 2.3812
7.1509 -4.4433 2.3812
7.3420 -4.2122 2.3812
7.5235 -3.9721 2.3812
7.6948 -3.7235 2.3812
7.8554 -3.4666 2.3812
8.0048 -3.2022 2.3812
8.1425 -2.9305 2.3812
8.2681 -2.6523 2.3812
8.3813 -2.3680 2.3812
8.4815 -2.0784 2.3812
8.5685 -1.7840 2.3812
8.6421 -1.4855 2.3812
8.7018 -1.1836 2.3812
8.7477 -0.8790 2.3812
8.7794 -0.5725 2.3812
8.7969 -0.2647 2.3812
8.8001 0.0435 2.3812
8.7891 0.3516 2.3812
8.7639 0.6587 2.3812
8.7245 0.9640 2.3812
8.6711 1.2670 2.3812
8.6040 1.5668 2.3812
8.5233 1.8629 2.3812
8.4293 2.1544 2.3812
8.3223 2.4408 2.3812
8.2028 2.7214 2.3812
8.0711 2.9957 2.3812
7.9276 3.2631 2.3812
7.7727 3.5231 2.3812
7.6071 3.7751 2.3812
7.4312 4.0188 2.3812
7.2455 4.2537 2.3812
7.0507 4.4794 2.3812
6.8471 4.6956 2.3812
6.6356 4.9020 2.3812
6.4165 5.0983 2.3812
6.1905 5.2843 2.3812
5.9583 5.4599 2.3812
5.7203 5.6248 2.3812
5.4772 5.7790 2.3812
5.2295 5.9223 2.3812
4.9779 6.0548 2.3812
4.7229 6.1764 2.3812
4.4650 6.2871 2.3812
4.2048 6.3870 2.3812
3.9427 6.4761 2.3812
3.6793 6.5546 2.3812
3.4152 6.6225 2.3812
3.1505 6.6800 2.3812
2.8860 6.7272 2.3812
0.9650 2.4895 0.8764
0.8753 2.5202 0.8836
0.7847 2.5476 0.8910
0.6930 2.5718 0.8984
0.6006 2.5927 0.9058
0.5074 2.6101 0.9133
0.4137 2.6242 0.9208
0.3195 2.6349 0.9284
0.2250 2.6422 0.9360
0.1303 2.6460 0.9435
0.0355 2.6464 0.9511
-0.0592 2.6433 0.9587
-0.1538 2.6369 0.9662
-0.2481 2.6270 0.9737
-0.3420 2.6137 0.9811
-0.4353 2.5970 0.9885
-0.5280 2.5769 0.9958
-0.6199 2.5535 1.0031
-0.7109 2.5268 1.0102
-0.8009 2.4968 1.0173
-2.0684 5.7271 2.3812
-2.2568 5.6049 2.3812
-2.4400 5.4777 2.3812
-2.6177 5.3458 2.3812
-2.7899 5.2093 2.3812
-2.9566 5.0684 2.3812
-3.1177 4.9235 2.3812
-3.2732 4.7746 2.3812
-3.4230 4.6219 2.3812
-3.5671 4.4657 2.3812
-3.7056 4.3062 2.3812
-3.8383 4.1434 2.3812
-3.9652 3.9776 2.3812
-4.0864 3.8090 2.3812
-4.2018 3.6376 2.3812
-4.3115 3.4638 2.3812
-4.4153 3.2875 2.3812
-4.5134 3.1090 2.3812
-4.6056 2.9284 2.3812
-4.6921 2.7459 2.3812
-4.7727 2.5615 2.3812
-4.8476 2.3755 2.3812
-4.9167 2.1880 2.3812
-4.9799 1.9991 2.3812
-5.0374 1.8089 2.3812
-5.0891 1.6175 2.3812
-5.1350 1.4251 2.3812
-5.1751 1.2318 2.3812
-5.2095 1.0377 2.3812
-5.2380 0.8430 2.3812
-5.2608 0.6477 2.3812
-5.2778 0.4519 2.3812
-5.2890 0.2559 2.3812
-5.2944 0.0596 2.3812
-5.2940 -0.1367 2.3812
-5.2878 -0.3330 2.3812
-5.2759 -0.5291 2.3812
-5.2581 -0.7251 2.3812
-5.2346 -0.9206 2.3812
-5.2052 -1.1156 2.3812
-5.1700 -1.3100 2.3812
-5.1290 -1.5037 2.3812
-5.0822 -1.6965 2.3812
-5.0295 -1.8883 2.3812
-4.9710 -2.0791 2.3812
-4.9067 -2.2685 2.3812
-4.8365 -2.4567 2.3812
-4.7604 -2.6433 2.3812
-4.6785 -2.8282 2.3812
-4.5908 -3.0115 2.3812
-4.4971 -3.1927 2.3812
-4.3976 -3.3719 2.3812
-4.2922 -3.5490 2.3812
-4.1809 -3.7234 2.3812
-4.0637 -3.8955 2.3812
-3.9407 -4.0648 2.3812
-3.8119 -4.2313 2.3812
-3.6772 -4.3947 2.3812
-3.5366 -4.5549 2.3812
-3.3903 -4.7116 2.3812
-3.2382 -4.8648 2.3812
-3.0803 -5.0141 2.3812
-2.9167 -5.1595 2.3812
-2.7474 -5.3006 2.3812
-2.5725 -5.4374 2.3812
-2.3920 -5.5695 2.3812
-2.2060 -5.6967 2.3812
-2.0146 -5.8189 2.3812
-1.8178 -5.9357 2.3812
-1.6158 -6.0470 2.3812
-1.4086 -6.1526 2.3812
-1.1963 -6.2521 2.3812
-0.9791 -6.3453 2.3812
-0.7571 -6.4320 2.3812
-0.5305 -6.5119 2.3812
-0.2994 -6.5847 2.3812
-0.0640 -6.6503 2.3812
0.1754 -6.7083 2.3812
0.4188 -6.7585 2.3812
0.6658 -6.8006 2.3812
0.9162 -6.8344 2.3812
1.1697 -6.8597 2.3812
1.4261 -6.8761 2.3812
1.6850 -6.8834 2.3812
1.9461 -6.8814 2.3812
2.2091 -6.8699 2.3812
2.4736 -6.8486 2.3812
2.7393 -6.8174 2.3812
3.0056 -6.7760 2.3812
3.2722 -6.7243 2.3812
3.5387 -6.6621 2.3812
3.8045 -6.5892 2.3812
4.0693 -6.5056 2.3812
4.3324 -6.4111 2.3812
4.5933 -6.3057 2.3812
4.8516 -6.1893 2.3812
5.1066 -6.0619 2.3812
5.3579 -5.9235 2.3812
5.6048 -5.7741 2.3812
5.8467 -5.6138 2.3812
6.0831 -5.4427 2.3812
6.3133 -5.2610 2.3812
6.5368 -5.0688 2.3812
6.7529 -4.8664 2.3812
6.9611 -4.6540 2.3812
7.1608 -4.4318 2.3812
7.3514 -4.2003 2.3812
7.5324 -3.9598 2.3812
7.7031 -3.7107 2.3812
7.8632 -3.4535 2.3812
8.0120 -3.1886 2.3812
8.1491 -2.9166 2.3812
8.2742 -2.6380 2.3812
8.3866 -2.3535 2.3812
8.4862 -2.0636 2.3812
8.5726 -1.7690 2.3812
8.6454 -1.4703 2.3812
8.7045 -1.1683 2.3812
8.7496 -0.8636 2.3812
8.7806 -0.5570 2.3812
8.7974 -0.2492 2.3812
8.7999 0.0591 2.3812
8.7882 0.3671 2.3812
8.7622 0.6741 2.3812
8.7221 0.9794 2.3812
8.6681 1.2822 2.3812
8.6002 1.5819 2.3812
8.5188 1.8777 2.3812
8.4242 2.1690 2.3812
8.3166 2.4551 2.3812
8.1964 2.7354 2.3812
8.0641 3.0094 2.3812
7.9200 3.2764 2.3812
7.7646 3.5360 2.3812
7.5985 3.7877 2.3812
7.4221 4.0309 2.3812
7.2359 4.2653 2.3812
7.0406 4.4906 2.3812
6.8366 4.7063 2.3812
6.6247 4.9122 2.3812
6.4052 5.1080 2.3812
6.1789 5.2935 2.3812
5.9464 5.4685 2.3812
5.7081 5.6329 2.3812
5.4648 5.7865 2.3812
5.2169 5.9293 2.3812
4.9652 6.0612 2.3812
4.7100 6.1822 2.3812
4.4519 6.2924 2.3812
4.1915 6.3918 2.3812
3.9294 6.4804 2.3812
3.6660 6.5583 2.3812
3.4017 6.6256 2.3812
3.1372 6.6826 2.3812
2.8727 6.7293 2.3812
0.9605 2.4911 0.8767
0.8708 2.5216 0.8840
0.7801 2.5489 0.8913
0.6884 2.5729 0.8987
0.5959 2.5936 0.9062
0.5027 2.6109 0.9137
0.4090 2.6248 0.9212
0.3148 2.6353 0.9288
0.2203 2.6424 0.9364
0.1255 2.6461 0.9439
0.0307 2.6463 0.9515
-0.0640 2.6431 0.9590
-0.1586 2.6365 0.9666
-0.2529 2.6264 0.9740
-0.3467 2.6129 0.9815
-0.4400 2.5960 0.9889
-0.5327 2.5758 0.9962
-0.6245 2.5522 1.0034
-0.7155 2.5253 1.0106
-0.8054 2.4951 1.0177
-2.0780 5.7211 2.3812
-2.2662 5.5986 2.3812
-2.4491 5.4712 2.3812
-2.6265 5.3390 2.3812
-2.7984 5.2022 2.3812
-2.9649 5.0612 2.3812
-3.1257 4.9160 2.3812
-3.2809 4.7670 2.3812
-3.4304 4.6141 2.3812
-3.5743 4.4578 2.3812
-3.7124 4.2980 2.3812
-3.8448 4.1351 2.3812
-3.9715 3.9692 2.3812
-4.0924 3.8004 2.3812
-4.2075 3.6289 2.3812
-4.3168 3.4549 2.3812
-4.4204 3.2785 2.3812
-4.5182 3.0999 2.3812
-4.6101 2.9191 2.3812
-4.6963 2.7366 2.3812
-4.7767 2.5522 2.3812
-4.8512 2.3661 2.3812
-4.9200 2.1785 2.3812
-4.9830 1.9895 2.3812
-5.0402 1.7992 2.3812
-5.0916 1.6078 2.3812
-5.1372 1.4154 2.3812
-5.1770 1.2220 2.3812
-5.2111 1.0279 2.3812
-5.2393 0.8331 2.3812
-5.2618 0.6378 2.3812
-5.2785 0.4420 2.3812
-5.2894 0.2460 2.3812
-5.2945 0.0497 2.3812
-5.2938 -0.1466 2.3812
-5.2874 -0.3429 2.3812
-5.2751 -0.5390 2.3812
-5.2571 -0.7349 2.3812
-5.2332 -0.9304 2.3812
-5.2036 -1.1254 2.3812
-5.1681 -1.3198 2.3812
-5.1268 -1.5134 2.3812
-5.0797 -1.7062 2.3812
-5.0267 -1.8980 2.3812
-4.9679 -2.0887 2.3812
-4.9033 -2.2781 2.3812
-4.8328 -2.4661 2.3812
-4.7565 -2.6527 2.3812
-4.6742 -2.8375 2.3812
-4.5862 -3.0206 2.3812
-4.4922 -3.2018 2.3812
-4.3924 -3.3809 2.3812
-4.2867 -3.5578 2.3812
-4.1751 -3.7322 2.3812
-4.0577 -3.9041 2.3812
-3.9344 -4.0733 2.3812
-3.8052 -4.2396 2.3812
-3.6702 -4.4028 2.3812
-3.5294 -4.5629 2.3812
-3.3828 -4.7194 2.3812
-3.2303 -4.8724 2.3812
-3.0722 -5.0216 2.3812
-2.9083 -5.1667 2.3812
-2.7387 -5.3076 2.3812
-2.5635 -5.4441 2.3812
-2.3828 -5.5760 2.3812
-2.1965 -5.7030 2.3812
-2.0048 -5.8249 2.3812
-1.8078 -5.9415 2.3812
-1.6054 -6.0525 2.3812
-1.3980 -6.1577 2.3812
-1.1854 -6.2569 2.3812
-0.9680 -6.3498 2.3812
-0.7458 -6.4362 2.3812
-0.5190 -6.5157 2.3812
-0.2876 -6.5882 2.3812
-0.0521 -6.6534 2.3812
0.1876 -6.7110 2.3812
0.4312 -6.7608 2.3812
0.6783 -6.8026 2.3812
0.9289 -6.8359 2.3812
1.1826 -6.8607 2.3812
1.4391 -6.8766 2.3812
1.6981 -6.8835 2.3812
1.9594 -6.8810 2.3812
2.2225 -6.8690 2.3812
2.4870 -6.8473 2.3812
2.7527 -6.8155 2.3812
3.0191 -6.7736 2.3812
3.2857 -6.7214 2.3812
3.5521 -6.6586 2.3812
3.8179 -6.5852 2.3812
-4.9578 0.6209 2.3812
-4.9743 0.4361 2.3812
-4.9853 0.2509 2.3812
-4.9907 0.0655 2.3812
-4.9906 -0.1200 2.3812
-4.9849 -0.3054 2.3812
-4.9737 -0.4907 2.3812
-4.9570 -0.6757 2.3812
-4.9347 -0.8603 2.3812
-4.9068 -1.0445 2.3812
-4.8734 -1.2280 2.3812
-4.8345 -1.4108 2.3812
-4.7900 -1.5927 2.3812
-4.7400 -1.7737 2.3812
-4.6843 -1.9535 2.3812
-4.6232 -2.1321 2.3812
-4.5564 -2.3093 2.3812
-4.4841 -2.4850 2.3812
-4.4062 -2.6594 2.3812
-4.3228 -2.8313 2.3812
-4.2338 -3.0018 2.3812
-4.1392 -3.1701 2.3812
-4.0391 -3.3362 2.3812
-3.9335 -3.5000 2.3812
-3.8223 -3.6612 2.3812
-3.7057 -3.8198 2.3812
-3.5835 -3.9755 2.3812
-3.4558 -4.1282 2.3812
-3.3227 -4.2777 2.3812
-3.1842 -4.4239 2.3812
-3.0403 -4.5665 2.3812
-2.8911 -4.7054 2.3812
-2.7365 -4.8404 2.3812
-2.5767 -4.9713 2.3812
-2.4117 -5.0979 2.3812
-2.2415 -5.2201 2.3812
-2.0663 -5.3375 2.3812
-1.8861 -5.4500 2.3812
-1.7011 -5.5573 2.3812
-1.5112 -5.6593 2.3812
-1.3166 -5.7558 2.3812
-1.1175 -5.8465 2.3812
-0.9140 -5.9311 2.3812
-0.7061 -6.0095 2.3812
-0.4941 -6.0815 2.3812
-0.2782 -6.1468 2.3812
-0.0584 -6.2051 2.3812
0.1650 -6.2563 2.3812
0.3917 -6.3001 2.3812
0.6216 -6.3363 2.3812
0.8545 -6.3646 2.3812
1.0900 -6.3850 2.3812
1.3278 -6.3970 2.3812
1.5678 -6.4006 2.3812
1.8096 -6.3955 2.3812
2.0529 -6.3816 2.3812
2.2973 -6.3586 2.3812
2.5424 -6.3264 2.3812
2.7879 -6.2848 2.3812
3.0335 -6.2337 2.3812
3.2786 -6.1730 2.3812
3.5229 -6.1024 2.3812
3.7659 -6.0221 2.3812
4.0072 -5.9318 2.3812
4.2462 -5.8316 2.3812
4.4826 -5.7213 2.3812
4.7158 -5.6011 2.3812
4.9452 -5.4709 2.3812
5.1705 -5.3307 2.3812
5.3911 -5.1808 2.3812
5.6064 -5.0211 2.3812
5.8159 -4.8518 2.3812
6.0192 -4.6731 2.3812
6.2156 -4.4853 2.3812
6.4047 -4.2884 2.3812
6.5859 -4.0829 2.3812
6.7588 -3.8691 2.3812
6.9229 -3.6472 2.3812
7.0776 -3.4176 2.3812
7.2226 -3.1808 2.3812
7.3575 -2.9373 2.3812
7.4817 -2.6873 2.3812
7.5950 -2.4316 2.3812
7.6969 -2.1705 2.3812
7.7872 -1.9046 2.3812
7.8656 -1.6346 2.3812
7.9318 -1.3610 2.3812
7.9856 -1.0843 2.3812
8.0269 -0.8053 2.3812
8.0555 -0.5246 2.3812
8.0714 -0.2427 2.3812
8.0744 0.0396 2.3812
8.0646 0.3217 2.3812
8.0420 0.6029 2.3812
8.0067 0.8827 2.3812
7.9588 1.1603 2.3812
7.8985 1.4352 2.3812
7.8260 1.7067 2.3812
7.7415 1.9743 2.3812
7.6453 2.2373 2.3812
7.5377 2.4953 2.3812
7.4191 2.7476 2.3812
7.2897 2.9939 2.3812
7.1501 3.2336 2.3812
7.0006 3.4662 2.3812
6.8417 3.6914 2.3812
6.6738 3.9088 2.3812
6.4975 4.1180 2.3812
6.3131 4.3187 2.3812
6.1213 4.5107 2.3812
5.9225 4.6936 2.3812
5.7172 4.8673 2.3812
5.5060 5.0316 2.3812
5.2894 5.1863 2.3812
5.0678 5.3314 2.3812
4.8419 5.4666 2.3812
4.6121 5.5920 2.3812
4.3789 5.7076 2.3812
4.1428 5.8132 2.3812
3.9043 5.9090 2.3812
3.6639 5.9949 2.3812
3.4219 6.0711 2.3812
3.1790 6.1375 2.3812
2.9354 6.1944 2.3812
0.9877 2.2905 0.8738
0.9052 2.3222 0.8805
0.8216 2.3508 0.8873
0.7370 2.3764 0.8941
0.6515 2.3989 0.9010
0.5652 2.4184 0.9080
0.4783 2.4346 0.9150
0.3909 2.4478 0.9220
0.3031 2.4577 0.9291
0.2149 2.4645 0.9361
0.1266 2.4681 0.9432
0.0381 2.4684 0.9502
-0.0502 2.4656 0.9573
-0.1385 2.4595 0.9643
-0.2264 2.4503 0.9713
-0.3140 2.4379 0.9782
-0.4011 2.4223 0.9851
-0.4875 2.4036 0.9920
-0.5732 2.3818 0.9987
-0.6581 2.3568 1.0054
-0.7420 2.3288 1.0120
-0.8249 2.2978 1.0185
-2.1063 5.2598 2.3812
-2.2792 5.1425 2.3812
-2.4471 5.0206 2.3812
-2.6099 4.8942 2.3812
-2.7676 4.7637 2.3812
-2.9201 4.6290 2.3812
-3.0674 4.4906 2.3812
-3.2094 4.3484 2.3812
-3.3462 4.2028 2.3812
-3.4776 4.0539 2.3812
-3.6036 3.9018 2.3812
-3.7242 3.7467 2.3812
-3.8394 3.5888 2.3812
-3.9492 3.4282 2.3812
-4.0536 3.2651 2.3812
-4.1524 3.0996 2.3812
-4.2458 2.9319 2.3812
-4.3337 2.7621 2.3812
-4.4161 2.5904 2.3812
-4.4931 2.4169 2.3812
-4.5644 2.2414 2.3812
-4.6303 2.0651 2.3812
-4.6907 1.8870 2.3812
-4.7456 1.7077 2.3812
-4.7949 1.5271 2.3812
-4.8388 1.3456 2.3812
-4.8771 1.1631 2.3812
-4.9098 0.9799 2.3812
-4.9371 0.7961 2.3812
-4.9588 0.6116 2.3812
-4.9750 0.4267 2.3812
-4.9857 0.2415 2.3812
-4.9908 0.0561 2.3812
-4.9904 -0.1294 2.3812
-4.9845 -0.3148 2.3812
-4.9730 -0.5001 2.3812
-4.9560 -0.6850 2.3812
-4.9334 -0.8697 2.3812
-4.9053 -1.0538 2.3812
-4.8716 -1.2373 2.3812
-4.8324 -1.4200 2.3812
-4.7876 -1.6019 2.3812
-4.7373 -1.7828 2.3812
-4.6814 -1.9625 2.3812
-4.6199 -2.1411 2.3812
-4.5529 -2.3182 2.3812
-4.4803 -2.4939 2.3812
-4.4022 -2.6677 2.3812
-4.3184 -2.8401 2.3812
-4.2291 -3.0106 2.3812
-4.1343 -3.1786 2.3812
-4.0339 -3.3446 2.3812
-3.9280 -3.5082 2.3812
-3.8166 -3.6693 2.3812
-3.6996 -3.8277 2.3812
-3.5772 -3.9833 2.3812
-3.4492 -4.1358 2.3812
-3.3159 -4.2852 2.3812
-3.1771 -4.4312 2.3812
-3.0329 -4.5736 2.3812
-2.8834 -4.7123 2.3812
-2.7286 -4.8471 2.3812
-2.5685 -4.9778 2.3812
-2.4032 -5.1042 2.3812
-2.2328 -5.2261 2.3812
-2.0573 -5.3433 2.3812
-1.8769 -5.4555 2.3812
-1.6916 -5.5626 2.3812
-1.5015 -5.6643 2.3812
-1.3067 -5.7605 2.3812
-1.1074 -5.8509 2.3812
-0.9036 -5.9352 2.3812
-0.6955 -6.0133 2.3812
-0.4833 -6.0849 2.3812
-0.2672 -6.1499 2.3812
-0.0472 -6.2078 2.3812
0.1763 -6.2587 2.3812
0.4032 -6.3021 2.3812
0.6333 -6.3379 2.3812
0.8663 -6.3659 2.3812
1.1019 -6.3858 2.3812
1.3399 -6.3974 2.3812
1.5800 -6.4006 2.3812
1.8219 -6.3950 2.3812
2.0652 -6.3806 2.3812
2.3096 -6.3572 2.3812
2.5548 -6.3245 2.3812
2.8003 -6.2825 2.3812
3.0459 -6.2309 2.3812
3.2910 -6.1696 2.3812
3.5352 -6.0986 2.3812
3.7781 -6.0178 2.3812
4.0193 -5.9270 2.3812
4.2582 -5.8262 2.3812
4.4944 -5.7155 2.3812
4.7274 -5.5947 2.3812
4.9567 -5.4640 2.3812
5.1818 -5.3234 2.3812
5.4021 -5.1729 2.3812
5.6171 -5.0128 2.3812
5.8263 -4.8430 2.3812
6.0292 -4.6639 2.3812
6.2253 -4.4755 2.3812
6.4140 -4.2783 2.3812
6.5948 -4.0723 2.3812
6.7673 -3.8581 2.3812
6.9309 -3.6358 2.3812
7.0852 -3.4058 2.3812
7.2297 -3.1687 2.3812
7.3640 -2.9248 2.3812
7.4877 -2.6746 2.3812
7.6004 -2.4185 2.3812
7.7017 -2.1572 2.3812
7.7915 -1.8911 2.3812
7.8692 -1.6209 2.3812
7.9348 -1.3471 2.3812
7.9880 -1.0703 2.3812
8.0287 -0.7912 2.3812
8.0566 -0.5104 2.3812
8.0718 -0.2285 2.3812
8.0742 0.0538 2.3812
8.0637 0.3359 2.3812
8.0405 0.6171 2.3812
8.0046 0.8967 2.3812
7.9561 1.1742 2.3812
7.8952 1.4490 2.3812
7.8220 1.7203 2.3812
7.7369 1.9877 2.3812
7.6402 2.2505 2.3812
7.5320 2.5082 2.3812
7.4128 2.7602 2.3812
7.2829 3.0061 2.3812
7.1428 3.2455 2.3812
6.9928 3.4777 2.3812
6.8334 3.7026 2.3812
6.6651 3.9195 2.3812
6.4883 4.1283 2.3812
6.3036 4.3286 2.3812
6.1114 4.5201 2.3812
5.9123 4.7026 2.3812
5.7067 4.8759 2.3812
5.4952 5.0397 2.3812
5.2783 5.1939 2.3812
5.0565 5.3384 2.3812
4.8304 5.4732 2.3812
4.6004 5.5981 2.3812
4.3671 5.7131 2.3812
4.1309 5.8183 2.3812
3.8922 5.9135 2.3812
3.6517 5.9990 2.3812
3.4097 6.0746 2.3812
3.1667 6.1406 2.3812
2.9231 6.1970 2.3812
0.9835 2.2922 0.8741
0.9010 2.3237 0.8809
0.8173 2.3522 0.8876
0.7327 2.3776 0.8945
0.6471 2.4000 0.9014
0.5609 2.4193 0.9083
0.4739 2.4354 0.9153
0.3865 2.4483 0.9224
0.2986 2.4581 0.9294
0.2105 2.4647 0.9365
0.1221 2.4681 0.9435
0.0337 2.4683 0.9506
-0.0547 2.4653 0.9576
-0.1429 2.4591 0.9647
-0.2309 2.4498 0.9716
-0.3184 2.4372 0.9786
-0.4054 2.4214 0.9855
-0.4919 2.4026 0.9923
-0.5775 2.3806 0.9991
-0.6624 2.3555 1.0057
-0.7462 2.3273 1.0123
-0.8290 2.2962 1.0188
-2.1152 5.2540 2.3812
-2.2878 5.1365 2.3812
-2.4554 5.0143 2.3812
-2.6180 4.8877 2.3812
-2.7754 4.7570 2.3812
-2.9277 4.6221 2.3812
-3.0747 4.4835 2.3812
-3.2165 4.3412 2.3812
-3.3529 4.1954 2.3812
-3.4841 4.0463 2.3812
-3.6098 3.8940 2.3812
-3.7302 3.7388 2.3812
-3.8451 3.5807 2.3812
-3.9546 3.4200 2.3812
-4.0587 3.2568 2.3812
-4.1573 3.0912 2.3812
-4.2504 2.9234 2.3812
-4.3380 2.7535 2.3812
-4.4202 2.5817 2.3812
-4.4968 2.4081 2.3812
-4.5679 2.2331 2.3812
-4.6335 2.0561 2.3812
-4.6936 1.8780 2.3812
-4.7482 1.6986 2.3812
-4.7973 1.5180 2.3812
-4.8408 1.3364 2.3812
-4.8788 1.1539 2.3812
-4.9113 0.9706 2.3812
-4.9383 0.7867 2.3812
-4.9598 0.6023 2.3812
-4.9757 0.4174 2.3812
-4.9861 0.2322 2.3812
-4.9909 0.0468 2.3812
-4.9902 -0.1387 2.3812
-4.9840 -0.3241 2.3812
-4.9723 -0.5093 2.3812
-4.9550 -0.6944 2.3812
-4.9321 -0.8790 2.3812
-4.9037 -1.0631 2.3812
-4.8698 -1.2465 2.3812
-4.8303 -1.4292 2.3812
-4.7852 -1.6110 2.3812
-4.7346 -1.7919 2.3812
-4.6784 -1.9716 2.3812
-4.6167 -2.1500 2.3812
-4.5494 -2.3271 2.3812
-4.4765 -2.5027 2.3812
-4.3980 -2.6768 2.3812
-4.3141 -2.8486 2.3812
-4.2245 -3.0189 2.3812
-4.1294 -3.1870 2.3812
-4.0287 -3.3529 2.3812
-3.9225 -3.5164 2.3812
-3.8108 -3.6773 2.3812
-3.6936 -3.8356 2.3812
-3.5708 -3.9910 2.3812
-3.4426 -4.1434 2.3812
-3.3090 -4.2926 2.3812
-3.1699 -4.4384 2.3812
-3.0255 -4.5807 2.3812
-2.8757 -4.7192 2.3812
-2.7206 -4.8538 2.3812
-2.5603 -4.9843 2.3812
-2.3947 -5.1105 2.3812
-2.2241 -5.2321 2.3812
-2.0484 -5.3490 2.3812
-1.8677 -5.4610 2.3812
-1.6821 -5.5678 2.3812
-1.4918 -5.6693 2.3812
-1.2968 -5.7652 2.3812
-1.0972 -5.8553 2.3812
-0.8932 -5.9393 2.3812
-0.6849 -6.0171 2.3812
-0.4725 -6.0884 2.3812
-0.2561 -6.1530 2.3812
-0.0360 -6.2106 2.3812
0.1877 -6.2610 2.3812
0.4148 -6.3041 2.3812
0.6450 -6.3395 2.3812
0.8781 -6.3671 2.3812
1.1139 -6.3866 2.3812
1.3520 -6.3978 2.3812
1.5922 -6.4005 2.3812
1.8341 -6.3945 2.3812
2.0775 -6.3797 2.3812
2.3220 -6.3558 2.3812
2.5672 -6.3226 2.3812
2.8127 -6.2801 2.3812
3.0583 -6.2280 2.3812
3.3033 -6.1663 2.3812
3.5475 -6.0948 2.3812
-4.6832 0.5876 2.3812
-4.6989 0.4126 2.3812
-4.7093 0.2373 2.3812
-4.7145 0.0618 2.3812
-4.7143 -0.1138 2.3812
-4.7089 -0.2893 2.3812
-4.6981 -0.4647 2.3812
-4.6820 -0.6398 2.3812
-4.6607 -0.8145 2.3812
-4.6340 -0.9888 2.3812
-4.6020 -1.1624 2.3812
-4.5648 -1.3352 2.3812
-4.5222 -1.5072 2.3812
-4.4743 -1.6783 2.3812
-4.4211 -1.8483 2.3812
-4.3626 -2.0169 2.3812
-4.2988 -2.1839 2.3812
-4.2297 -2.3499 2.3812
-4.1553 -2.5141 2.3812
-4.0756 -2.6765 2.3812
-3.9907 -2.8370 2.3812
-3.9005 -2.9954 2.3812
-3.8050 -3.1517 2.3812
-3.7043 -3.3056 2.3812
-3.5984 -3.4571 2.3812
-3.4873 -3.6058 2.3812
-3.3711 -3.7518 2.3812
-3.2497 -3.8949 2.3812
-3.1231 -4.0348 2.3812
-2.9915 -4.1714 2.3812
-2.8549 -4.3045 2.3812
-2.7133 -4.4340 2.3812
-2.5667 -4.5597 2.3812
-2.4153 -4.6814 2.3812
-2.2590 -4.7989 2.3812
-2.0980 -4.9121 2.3812
-1.9324 -5.0207 2.3812
-1.7621 -5.1245 2.3812
-1.5874 -5.2234 2.3812
-1.4083 -5.3171 2.3812
-1.2250 -5.4055 2.3812
-1.0374 -5.4883 2.3812
-0.8459 -5.5653 2.3812
-0.6505 -5.6364 2.3812
-0.4514 -5.7014 2.3812
-0.2487 -5.7599 2.3812
-0.0427 -5.8119 2.3812
0.1665 -5.8570 2.3812
0.3787 -5.8952 2.3812
0.5936 -5.9262 2.3812
0.8111 -5.9498 2.3812
1.0308 -5.9658 2.3812
1.2525 -5.9741 2.3812
1.4760 -5.9745 2.3812
1.7009 -5.9667 2.3812
1.9269 -5.9506 2.3812
2.1538 -5.9262 2.3812
2.3811 -5.8931 2.3812
2.6086 -5.8514 2.3812
2.8359 -5.8008 2.3812
3.0625 -5.7414 2.3812
3.2881 -5.6729 2.3812
3.5123 -5.5954 2.3812
3.7347 -5.5088 2.3812
3.9548 -5.4130 2.3812
4.1723 -5.3081 2.3812
4.3866 -5.1940 2.3812
4.5973 -5.0709 2.3812
4.8039 -4.9387 2.3812
5.0060 -4.7976 2.3812
5.2032 -4.6477 2.3812
5.3949 -4.4891 2.3812
5.5807 -4.3219 2.3812
5.7601 -4.1466 2.3812
5.9327 -3.9631 2.3812
6.0980 -3.7718 2.3812
6.2556 -3.5730 2.3812
6.4050 -3.3669 2.3812
6.5459 -3.1541 2.3812
6.6778 -2.9347 2.3812
6.8004 -2.7093 2.3812
6.9133 -2.4781 2.3812
7.0162 -2.2418 2.3812
7.1088 -2.0007 2.3812
7.1908 -1.7554 2.3812
7.2619 -1.5063 2.3812
7.3220 -1.2541 2.3812
7.3709 -0.9991 2.3812
7.4084 -0.7420 2.3812
7.4344 -0.4834 2.3812
7.4488 -0.2238 2.3812
7.4516 0.0362 2.3812
7.4428 0.2960 2.3812
7.4224 0.5551 2.3812
7.3905 0.8128 2.3812
7.3472 1.0687 2.3812
7.2926 1.3221 2.3812
7.2269 1.5725 2.3812
7.1504 1.8195 2.3812
7.0631 2.0624 2.3812
6.9655 2.3007 2.3812
6.8578 2.5341 2.3812
6.7404 2.7620 2.3812
6.6135 2.9840 2.3812
6.4775 3.1997 2.3812
6.3329 3.4088 2.3812
6.1800 3.6108 2.3812
6.0192 3.8055 2.3812
5.8511 3.9926 2.3812
5.6760 4.1718 2.3812
5.4943 4.3428 2.3812
5.3066 4.5055 2.3812
5.1133 4.6597 2.3812
4.9148 4.8052 2.3812
4.7117 4.9419 2.3812
4.5043 5.0697 2.3812
4.2932 5.1885 2.3812
4.0787 5.2983 2.3812
3.8613 5.3991 2.3812
3.6416 5.4908 2.3812
3.4198 5.5735 2.3812
3.1964 5.6472 2.3812
2.9718 5.7119 2.3812
2.7463 5.7678 2.3812
0.9293 2.1439 0.8779
0.8520 2.1735 0.8842
0.7738 2.2003 0.8906
0.6946 2.2243 0.8970
0.6146 2.2454 0.9034
0.5338 2.2635 0.9099
0.4525 2.2788 0.9165
0.3707 2.2910 0.9231
0.2884 2.3003 0.9296
0.2059 2.3067 0.9363
0.1232 2.3100 0.9429
0.0405 2.3103 0.9495
-0.0423 2.3077 0.9561
-0.1248 2.3020 0.9626
-0.2072 2.2934 0.9692
-0.2891 2.2817 0.9757
-0.3706 2.2672 0.9821
-0.4515 2.2496 0.9885
-0.5318 2.2292 0.9948
-0.6112 2.2059 1.0011
-0.6898 2.1797 1.0073
-0.7673 2.1506 1.0134
-1.9711 4.9497 2.3812
-2.1346 4.8411 2.3812
-2.2935 4.7280 2.3812
-2.4478 4.6105 2.3812
-2.5972 4.4890 2.3812
-2.7419 4.3635 2.3812
-2.8817 4.2343 2.3812
-3.0166 4.1015 2.3812
-3.1465 3.9653 2.3812
-3.2714 3.8258 2.3812
-3.3913 3.6832 2.3812
-3.5061 3.5376 2.3812
-3.6158 3.3893 2.3812
-3.7204 3.2384 2.3812
-3.8198 3.0850 2.3812
-3.9141 2.9292 2.3812
-4.0032 2.7713 2.3812
-4.0870 2.6113 2.3812
-4.1657 2.4494 2.3812
-4.2391 2.2857 2.3812
-4.3073 2.1203 2.3812
-4.3702 1.9534 2.3812
-4.4279 1.7852 2.3812
-4.4803 1.6157 2.3812
-4.5275 1.4451 2.3812
-4.5694 1.2732 2.3812
-4.6060 1.1007 2.3812
-4.6373 0.9273 2.3812
-4.6633 0.7533 2.3812
-4.6841 0.5787 2.3812
-4.6995 0.4038 2.3812
-4.7097 0.2284 2.3812
-4.7146 0.0529 2.3812
-4.7142 -0.1226 2.3812
-4.7084 -0.2981 2.3812
-4.6974 -0.4735 2.3812
-4.6811 -0.6486 2.3812
-4.6595 -0.8233 2.3812
-4.6325 -0.9976 2.3812
-4.6003 -1.1711 2.3812
-4.5627 -1.3440 2.3812
-4.5199 -1.5159 2.3812
-4.4717 -1.6869 2.3812
-4.4182 -1.8570 2.3812
-4.3595 -2.0254 2.3812
-4.2954 -2.1923 2.3812
-4.2261 -2.3583 2.3812
-4.1514 -2.5224 2.3812
-4.0715 -2.6847 2.3812
-3.9863 -2.8450 2.3812
-3.8958 -3.0034 2.3812
-3.8001 -3.1595 2.3812
-3.6991 -3.3133 2.3812
-3.5930 -3.4646 2.3812
-3.4816 -3.6133 2.3812
-3.3651 -3.7591 2.3812
-3.2434 -3.9020 2.3812
-3.1166 -4.0417 2.3812
-2.9848 -4.1782 2.3812
-2.8479 -4.3111 2.3812
-2.7060 -4.4405 2.3812
-2.5592 -4.5660 2.3812
-2.4075 -4.6874 2.3812
-2.2510 -4.8048 2.3812
-2.0898 -4.9177 2.3812
-1.9239 -5.0260 2.3812
-1.7534 -5.1296 2.3812
-1.5785 -5.2282 2.3812
-1.3992 -5.3217 2.3812
-1.2156 -5.4098 2.3812
-1.0279 -5.4923 2.3812
-0.8361 -5.5691 2.3812
-0.6406 -5.6399 2.3812
-0.4413 -5.7045 2.3812
-0.2384 -5.7627 2.3812
-0.0322 -5.8143 2.3812
0.1771 -5.8591 2.3812
0.3895 -5.8969 2.3812
0.6045 -5.9276 2.3812
0.8221 -5.9508 2.3812
1.0419 -5.9665 2.3812
1.2638 -5.9743 2.3812
1.4873 -5.9743 2.3812
1.7123 -5.9661 2.3812
1.9384 -5.9496 2.3812
2.1653 -5.9247 2.3812
2.3926 -5.8912 2.3812
2.6201 -5.8491 2.3812
2.8473 -5.7981 2.3812
3.0739 -5.7381 2.3812
3.2995 -5.6692 2.3812
3.5236 -5.5912 2.3812
3.7459 -5.5041 2.3812
3.9659 -5.4079 2.3812
4.1832 -5.3025 2.3812
4.3973 -5.1880 2.3812
4.6078 -5.0644 2.3812
4.8142 -4.9318 2.3812
5.0161 -4.7902 2.3812
5.2130 -4.6399 2.3812
5.4044 -4.4808 2.3812
5.5899 -4.3133 2.3812
5.7690 -4.1375 2.3812
5.9412 -3.9536 2.3812
6.1061 -3.7619 2.3812
6.2633 -3.5627 2.3812
6.4123 -3.3564 2.3812
6.5527 -3.1432 2.3812
6.6842 -2.9235 2.3812
6.8063 -2.6977 2.3812
6.9187 -2.4663 2.3812
7.0211 -2.2298 2.3812
7.1132 -1.9884 2.3812
7.1946 -1.7429 2.3812
7.2652 -1.4937 2.3812
7.3248 -1.2413 2.3812
7.3731 -0.9862 2.3812
7.4100 -0.7290 2.3812
7.4354 -0.4703 2.3812
7.4492 -0.2107 2.3812
7.4514 0.0493 2.3812
7.4421 0.3091 2.3812
7.4211 0.5681 2.3812
7.3886 0.8258 2.3812
7.3447 1.0815 2.3812
7.2896 1.3348 2.3812
7.2233 1.5851 2.3812
7.1462 1.8318 2.3812
7.0585 2.0745 2.3812
6.9603 2.3126 2.3812
6.8521 2.5457 2.3812
6.7342 2.7733 2.3812
6.6068 2.9950 2.3812
6.4704 3.2104 2.3812
6.3254 3.4192 2.3812
6.1720 3.6208 2.3812
6.0109 3.8152 2.3812
5.8424 4.0019 2.3812
5.6669 4.1806 2.3812
5.4850 4.3513 2.3812
5.2970 4.5135 2.3812
5.1034 4.6673 2.3812
4.9047 4.8123 2.3812
4.7013 4.9486 2.3812
4.4937 5.0759 2.3812
4.2824 5.1943 2.3812
4.0678 5.3036 2.3812
3.8503 5.4039 2.3812
3.6304 5.4952 2.3812
3.4085 5.5774 2.3812
3.1850 5.6506 2.3812
2.9604 5.7150 2.3812
2.7350 5.7704 2.3812
0.9254 2.1455 0.8782
0.8481 2.1750 0.8845
0.7698 2.2016 0.8909
0.6905 2.2254 0.8973
0.6105 2.2463 0.9037
0.5297 2.2644 0.9103
0.4484 2.2794 0.9168
0.3665 2.2916 0.9234
0.2843 2.3007 0.9300
0.2018 2.3069 0.9366
0.1191 2.3101 0.9432
0.0363 2.3103 0.9498
-0.0464 2.3075 0.9564
-0.1290 2.3016 0.9630
-0.2113 2.2928 0.9695
-0.2933 2.2811 0.9760
-0.3747 2.2663 0.9824
-0.4556 2.2487 0.9888
-0.5358 2.2281 0.9952
-0.6152 2.2046 1.0014
-0.6937 2.1783 1.0076
-0.7712 2.1491 1.0137
-1.9795 4.9444 2.3812
-2.1428 4.8355 2.3812
-2.3014 4.7221 2.3812
-2.4554 4.6045 2.3812
-2.6047 4.4828 2.3812
-2.7491 4.3571 2.3812
-2.8886 4.2277 2.3812
-3.0233 4.0947 2.3812
-3.1529 3.9583 2.3812
-3.2776 3.8186 2.3812
-3.3972 3.6759 2.3812
-3.5118 3.5302 2.3812
-3.6212 3.3818 2.3812
-3.7256 3.2307 2.3812
-3.8247 3.0772 2.3812
-3.9187 2.9213 2.3812
-4.0075 2.7633 2.3812
-4.0911 2.6031 2.3812
-4.1695 2.4411 2.3812
-4.2427 2.2773 2.3812
-4.3106 2.1119 2.3812
-4.3733 1.9450 2.3812
-4.4307 1.7767 2.3812
-4.4828 1.6071 2.3812
-4.5297 1.4363 2.3812
-4.5713 1.2646 2.3812
-4.6077 1.0920 2.3812
-4.6387 0.9186 2.3812
-4.6645 0.7445 2.3812
-4.6850 0.5699 2.3812
-4.7002 0.3949 2.3812
-4.7101 0.2196 2.3812
-4.7147 0.0441 2.3812
-4.7140 -0.1315 2.3812
-4.7080 -0.3070 2.3812
-4.6967 -0.4824 2.3812
-4.6801 -0.6575 2.3812
-4.6582 -0.8322 2.3812
-4.6310 -1.0063 2.3812
-4.5985 -1.1799 2.3812
-4.5607 -1.3526 2.3812
-4.5176 -1.5246 2.3812
-4.4692 -1.6955 2.3812
-4.4154 -1.8654 2.3812
-4.3564 -2.0338 2.3812
-4.2921 -2.2008 2.3812
-4.2224 -2.3666 2.3812
-4.1475 -2.5306 2.3812
-4.0673 -2.6928 2.3812
-3.9818 -2.8531 2.3812
-3.8911 -3.0113 2.3812
-3.7951 -3.1673 2.3812
-3.6939 -3.3210 2.3812
-3.5875 -3.4722 2.3812
-3.4758 -3.6207 2.3812
-3.3590 -3.7664 2.3812
-3.2371 -3.9091 2.3812
-3.1101 -4.0487 2.3812
-2.9780 -4.1850 2.3812
-2.8408 -4.3178 2.3812
-2.6987 -4.4469 2.3812
-2.5516 -4.5722 2.3812
-2.3997 -4.6935 2.3812
-2.2430 -4.8106 2.3812
-2.0815 -4.9232 2.3812
-1.9154 -5.0314 2.3812
-1.7447 -5.1347 2.3812
-1.5695 -5.2331 2.3812
-1.3900 -5.3263 2.3812
-1.2062 -5.4141 2.3812
-1.0183 -5.4963 2.3812
-0.8264 -5.5728 2.3812
-0.6306 -5.6433 2.3812
-0.4311 -5.7076 2.3812
-0.2281 -5.7654 2.3812
-0.0217 -5.8167 2.3812
0.1878 -5.8612 2.3812
0.4003 -5.8987 2.3812
0.6155 -5.9289 2.3812
0.8331 -5.9518 2.3812
1.0531 -5.9670 2.3812
1.2750 -5.9745 2.3812
1.4986 -5.9740 2.3812
1.7237 -5.9654 2.3812
1.9498 -5.9486 2.3812
2.1767 -5.9232 2.3812
2.4041 -5.8893 2.3812
2.6316 -5.8467 2.3812
2.8588 -5.7952 2.3812
3.0853 -5.7349 2.3812
3.3108 -5.6655 2.3812
-4.4319 0.5571 2.3812
-4.4470 0.3911 2.3812
-4.4570 0.2250 2.3812
-4.4619 0.0585 2.3812
-4.4617 -0.1081 2.3812
-4.4564 -0.2745 2.3812
-4.4461 -0.4407 2.3812
-4.4307 -0.6070 2.3812
-4.4102 -0.7726 2.3812
-4.3846 -0.9380 2.3812
-4.3540 -1.1024 2.3812
-4.3182 -1.2662 2.3812
-4.2774 -1.4291 2.3812
-4.2316 -1.5911 2.3812
-4.1806 -1.7520 2.3812
-4.1247 -1.9116 2.3812
-4.0636 -2.0699 2.3812
-3.9975 -2.2266 2.3812
-3.9264 -2.3818 2.3812
-3.8502 -2.5352 2.3812
-3.7691 -2.6868 2.3812
-3.6829 -2.8363 2.3812
-3.5918 -2.9836 2.3812
-3.4957 -3.1287 2.3812
-3.3947 -3.2713 2.3812
-3.2888 -3.4113 2.3812
-3.1779 -3.5485 2.3812
-3.0623 -3.6828 2.3812
-2.9418 -3.8141 2.3812
-2.8166 -3.9422 2.3812
-2.6867 -4.0669 2.3812
-2.5521 -4.1880 2.3812
-2.4129 -4.3054 2.3812
-2.2691 -4.4189 2.3812
-2.1209 -4.5284 2.3812
-1.9683 -4.6336 2.3812
-1.8114 -4.7344 2.3812
-1.6502 -4.8307 2.3812
-1.4849 -4.9221 2.3812
-1.3156 -5.0086 2.3812
-1.1424 -5.0899 2.3812
-0.9654 -5.1659 2.3812
-0.7847 -5.2364 2.3812
-0.6006 -5.3012 2.3812
-0.4130 -5.3601 2.3812
-0.2224 -5.4129 2.3812
-0.0287 -5.4595 2.3812
0.1679 -5.4996 2.3812
0.3670 -5.5330 2.3812
0.5686 -5.5597 2.3812
0.7723 -5.5794 2.3812
0.9780 -5.5920 2.3812
1.1854 -5.5972 2.3812
1.3942 -5.5950 2.3812
1.6042 -5.5852 2.3812
1.8150 -5.5677 2.3812
2.0264 -5.5423 2.3812
2.2381 -5.5089 2.3812
2.4497 -5.4674 2.3812
2.6609 -5.4177 2.3812
2.8714 -5.3597 2.3812
3.0807 -5.2935 2.3812
3.2885 -5.2188 2.3812
3.4944 -5.1357 2.3812
3.6981 -5.0442 2.3812
3.8991 -4.9443 2.3812
4.0971 -4.8360 2.3812
4.2915 -4.7194 2.3812
4.4821 -4.5946 2.3812
4.6683 -4.4615 2.3812
4.8499 -4.3204 2.3812
5.0262 -4.1714 2.3812
5.1970 -4.0147 2.3812
5.3619 -3.8504 2.3812
5.5203 -3.6788 2.3812
5.6720 -3.5001 2.3812
5.8165 -3.3146 2.3812
5.9534 -3.1226 2.3812
6.0825 -2.9244 2.3812
6.2032 -2.7203 2.3812
6.3154 -2.5108 2.3812
6.4187 -2.2961 2.3812
6.5128 -2.0768 2.3812
6.5974 -1.8532 2.3812
6.6724 -1.6257 2.3812
6.7374 -1.3949 2.3812
6.7923 -1.1612 2.3812
6.8370 -0.9251 2.3812
6.8712 -0.6871 2.3812
6.8950 -0.4477 2.3812
6.9082 -0.2074 2.3812
6.9109 0.0332 2.3812
6.9029 0.2737 2.3812
6.8844 0.5135 2.3812
6.8553 0.7521 2.3812
6.8159 0.9891 2.3812
6.7661 1.2239 2.3812
6.7062 1.4559 2.3812
6.6363 1.6849 2.3812
6.5567 1.9102 2.3812
6.4676 2.1314 2.3812
6.3692 2.3481 2.3812
6.2618 2.5599 2.3812
6.1457 2.7665 2.3812
6.0213 2.9673 2.3812
5.8888 3.1622 2.3812
5.7487 3.3507 2.3812
5.6013 3.5325 2.3812
5.4470 3.7074 2.3812
5.2862 3.8752 2.3812
5.1193 4.0356 2.3812
4.9466 4.1884 2.3812
4.7687 4.3334 2.3812
4.5859 4.4705 2.3812
4.3986 4.5996 2.3812
4.2073 4.7205 2.3812
4.0123 4.8332 2.3812
3.8141 4.9377 2.3812
3.6130 5.0338 2.3812
3.4096 5.1216 2.3812
3.2040 5.2010 2.3812
2.9968 5.2722 2.3812
2.7883 5.3350 2.3812
0.9485 1.9823 0.8758
0.8770 2.0127 0.8816
0.8045 2.0405 0.8875
0.7310 2.0656 0.8935
0.6566 2.0881 0.8995
0.5815 2.1079 0.9056
0.5057 2.1249 0.9117
0.4294 2.1392 0.9178
0.3525 2.1507 0.9240
0.2753 2.1595 0.9302
0.1979 2.1654 0.9364
0.1202 2.1685 0.9426
0.0425 2.1688 0.9488
-0.0351 2.1663 0.9550
-0.1126 2.1610 0.9611
-0.1899 2.1529 0.9673
-0.2669 2.1420 0.9734
-0.3434 2.1283 0.9794
-0.4193 2.1118 0.9854
-0.4947 2.0927 0.9914
-0.5692 2.0708 0.9972
-0.6430 2.0462 1.0030
-0.7158 2.0189 1.0088
-0.7876 1.9891 1.0144
-2.0038 4.5683 2.3812
-2.1545 4.4630 2.3812
-2.3009 4.3535 2.3812
-2.4428 4.2400 2.3812
-2.5802 4.1226 2.3812
-2.7131 4.0017 2.3812
-2.8414 3.8772 2.3812
-2.9651 3.7494 2.3812
-3.0840 3.6183 2.3812
-3.1982 3.4843 2.3812
-3.3076 3.3474 2.3812
-3.4122 3.2078 2.3812
-3.5120 3.0655 2.3812
-3.6068 2.9209 2.3812
-3.6968 2.7739 2.3812
-3.7819 2.6248 2.3812
-3.8620 2.4736 2.3812
-3.9371 2.3206 2.3812
-4.0073 2.1658 2.3812
-4.0724 2.0094 2.3812
-4.1326 1.8515 2.3812
-4.1878 1.6922 2.3812
-4.2379 1.5316 2.3812
-4.2830 1.3699 2.3812
-4.3231 1.2072 2.3812
-4.3581 1.0436 2.3812
-4.3881 0.8793 2.3812
-4.4130 0.7143 2.3812
-4.4328 0.5487 2.3812
-4.4476 0.3826 2.3812
-4.4573 0.2164 2.3812
-4.4620 0.0500 2.3812
-4.4615 -0.1163 2.3812
-4.4560 -0.2831 2.3812
-4.4454 -0.4494 2.3812
-4.4298 -0.6154 2.3812
-4.4090 -0.7811 2.3812
-4.3832 -0.9462 2.3812
-4.3523 -1.1107 2.3812
-4.3163 -1.2744 2.3812
-4.2753 -1.4373 2.3812
-4.2291 -1.5992 2.3812
-4.1779 -1.7601 2.3812
-4.1217 -1.9196 2.3812
-4.0604 -2.0778 2.3812
-3.9940 -2.2345 2.3812
-3.9227 -2.3896 2.3812
-3.8463 -2.5429 2.3812
-3.7649 -2.6944 2.3812
-3.6784 -2.8438 2.3812
-3.5871 -2.9910 2.3812
-3.4907 -3.1359 2.3812
-3.3894 -3.2784 2.3812
-3.2833 -3.4183 2.3812
-3.1722 -3.5554 2.3812
-3.0563 -3.6895 2.3812
-2.9356 -3.8207 2.3812
-2.8102 -3.9486 2.3812
-2.6800 -4.0731 2.3812
-2.5452 -4.1940 2.3812
-2.4057 -4.3112 2.3812
-2.2618 -4.4246 2.3812
-2.1133 -4.5338 2.3812
-1.9605 -4.6388 2.3812
-1.8033 -4.7394 2.3812
-1.6419 -4.8354 2.3812
-1.4765 -4.9266 2.3812
-1.3069 -5.0128 2.3812
-1.1335 -5.0939 2.3812
-0.9563 -5.1696 2.3812
-0.7755 -5.2398 2.3812
-0.5912 -5.3043 2.3812
-0.4035 -5.3629 2.3812
-0.2126 -5.4154 2.3812
-0.0188 -5.4616 2.3812
0.1779 -5.5014 2.3812
0.3771 -5.5346 2.3812
0.5788 -5.5609 2.3812
0.7826 -5.5802 2.3812
0.9884 -5.5924 2.3812
1.1959 -5.5973 2.3812
1.4048 -5.5947 2.3812
1.6148 -5.5845 2.3812
1.8257 -5.5666 2.3812
2.0371 -5.5408 2.3812
2.2488 -5.5070 2.3812
2.4604 -5.4651 2.3812
2.6716 -5.4150 2.3812
2.8819 -5.3566 2.3812
3.0912 -5.2899 2.3812
3.2989 -5.2148 2.3812
3.5048 -5.1313 2.3812
3.7083 -5.0394 2.3812
3.9092 -4.9391 2.3812
4.1070 -4.8304 2.3812
4.3012 -4.7133 2.3812
4.4916 -4.5880 2.3812
4.6776 -4.4546 2.3812
4.8589 -4.3131 2.3812
5.0350 -4.1637 2.3812
5.2055 -4.0066 2.3812
5.3700 -3.8419 2.3812
5.5281 -3.6699 2.3812
5.6795 -3.4909 2.3812
5.8236 -3.3051 2.3812
5.9601 -3.1128 2.3812
6.0888 -2.9142 2.3812
6.2091 -2.7099 2.3812
6.3208 -2.5001 2.3812
6.4237 -2.2852 2.3812
6.5173 -2.0656 2.3812
6.6014 -1.8418 2.3812
6.6759 -1.6141 2.3812
6.7404 -1.3832 2.3812
6.7948 -1.1493 2.3812
6.8389 -0.9131 2.3812
6.8727 -0.6750 2.3812
6.8959 -0.4356 2.3812
6.9086 -0.1953 2.3812
6.9107 0.0454 2.3812
6.9022 0.2858 2.3812
6.8832 0.5256 2.3812
6.8536 0.7642 2.3812
6.8136 1.0010 2.3812
6.7633 1.2356 2.3812
6.7029 1.4676 2.3812
6.6326 1.6963 2.3812
6.5524 1.9214 2.3812
6.4628 2.1424 2.3812
6.3640 2.3589 2.3812
6.2561 2.5705 2.3812
6.1396 2.7768 2.3812
6.0148 2.9773 2.3812
5.8819 3.1718 2.3812
5.7414 3.3600 2.3812
5.5937 3.5415 2.3812
5.4390 3.7161 2.3812
5.2779 3.8835 2.3812
5.1107 4.0435 2.3812
4.9378 4.1959 2.3812
4.7596 4.3405 2.3812
4.5765 4.4772 2.3812
4.3891 4.6059 2.3812
4.1975 4.7264 2.3812
4.0024 4.8387 2.3812
3.8040 4.9427 2.3812
3.6028 5.0384 2.3812
3.3992 5.1258 2.3812
3.1936 5.2048 2.3812
2.9863 5.2755 2.3812
2.7777 5.3380 2.3812
0.9449 1.9839 0.8761
0.8734 2.0142 0.8819
0.8008 2.0418 0.8878
0.7272 2.0668 0.8938
0.6529 2.0892 0.8998
0.5777 2.1088 0.9059
0.5019 2.1257 0.9120
0.4255 2.1399 0.9181
0.3486 2.1512 0.9243
0.2714 2.1598 0.9305
0.1940 2.1656 0.9367
0.1163 2.1686 0.9429
0.0386 2.1688 0.9491
-0.0390 2.1661 0.9553
-0.1166 2.1607 0.9615
-0.1938 2.1524 0.9676
-0.2707 2.1414 0.9737
-0.3472 2.1275 0.9797
-0.4232 2.1109 0.9857
-0.4984 2.0916 0.9917
-0.5730 2.0696 0.9975
-0.6467 2.0449 1.0033
-0.7194 2.0175 1.0090
-0.7912 1.9875 1.0147
-2.0115 4.5631 2.3812
-2.1620 4.4575 2.3812
-2.3081 4.3478 2.3812
-2.4498 4.2341 2.3812
-2.5871 4.1166 2.3812
-2.7197 3.9955 2.3812
-2.8478 3.8708 2.3812
-2.9712 3.7428 2.3812
-3.0899 3.6117 2.3812
-3.2039 3.4775 2.3812
-3.3130 3.3404 2.3812
-3.4174 3.2006 2.3812
-3.5169 3.0583 2.3812
-3.6115 2.9135 2.3812
-3.7012 2.7664 2.3812
-3.7860 2.6172 2.3812
-3.8659 2.4660 2.3812
-3.9408 2.3128 2.3812
-4.0107 2.1579 2.3812
-4.0756 2.0015 2.3812
-4.1355 1.8434 2.3812
-4.1904 1.6841 2.3812
-4.2403 1.5235 2.3812
-4.2852 1.3617 2.3812
-4.3250 1.1990 2.3812
-4.3597 1.0353 2.3812
-4.3895 0.8710 2.3812
-4.4141 0.7059 2.3812
-4.4337 0.5404 2.3812
-4.4482 0.3744 2.3812
-4.4577 0.2082 2.3812
-4.4621 0.0418 2.3812
-4.4614 -0.1249 2.3812
-4.4556 -0.2913 2.3812
-4.4448 -0.4576 2.3812
-4.4288 -0.6239 2.3812
-4.4078 -0.7893 2.3812
-4.3817 -0.9545 2.3812
-4.3506 -1.1189 2.3812
-4.3144 -1.2827 2.3812
-4.2730 -1.4455 2.3812
-4.2267 -1.6074 2.3812
-4.1752 -1.7681 2.3812
-4.1187 -1.9276 2.3812
-4.0572 -2.0858 2.3812
-3.9906 -2.2424 2.3812
-3.9189 -2.3974 2.3812
-3.8423 -2.5506 2.3812
-3.7606 -2.7019 2.3812
-3.6739 -2.8513 2.3812
-3.5823 -2.9984 2.3812
-3.4857 -3.1432 2.3812
-3.3842 -3.2855 2.3812
-3.2778 -3.4252 2.3812
-3.1665 -3.5622 2.3812
-3.0503 -3.6962 2.3812
-2.9294 -3.8272 2.3812
-2.8037 -3.9549 2.3812
-2.6733 -4.0793 2.3812
-2.5383 -4.2000 2.3812
-2.3986 -4.3171 2.3812
-2.2544 -4.4302 2.3812
-2.1057 -4.5392 2.3812
-1.9526 -4.6440 2.3812
-1.7953 -4.7444 2.3812
-1.6337 -4.8401 2.3812
-1.4680 -4.9311 2.3812
-1.2983 -5.0171 2.3812
-1.1247 -5.0979 2.3812
-0.9473 -5.1733 2.3812
-0.7663 -5.2432 2.3812
-0.5818 -5.3074 2.3812
-0.3939 -5.3657 2.3812
-0.2029 -5.4179 2.3812
-0.0089 -5.4638 2.3812
0.1879 -5.5032 2.3812
0.3873 -5.5360 2.3812
0.5890 -5.5620 2.3812
0.7930 -5.5810 2.3812
0.9989 -5.5928 2.3812
1.2064 -5.5974 2.3812
1.4154 -5.5944 2.3812
1.6254 -5.5838 2.3812
1.8364 -5.5655 2.3812
2.0478 -5.5393 2.3812
2.2595 -5.5051 2.3812
2.4711 -5.4627 2.3812
2.6822 -5.4122 2.3812
2.8925 -5.3534 2.3812
3.1017 -5.2863 2.3812
-4.2011 0.5291 2.3812
-4.2155 0.3714 2.3812
-4.2250 0.2135 2.3812
-4.2297 0.0554 2.3812
-4.2295 -0.1029 2.3812
-4.2244 -0.2610 2.3812
-4.2145 -0.4190 2.3812
-4.1997 -0.5768 2.3812
-4.1800 -0.7342 2.3812
-4.1555 -0.8910 2.3812
-4.1261 -1.0473 2.3812
-4.0918 -1.2028 2.3812
-4.0527 -1.3574 2.3812
-4.0088 -1.5111 2.3812
-3.9600 -1.6637 2.3812
-3.9063 -1.8150 2.3812
-3.8479 -1.9650 2.3812
-3.7846 -2.1136 2.3812
-3.7165 -2.2605 2.3812
-3.6437 -2.4058 2.3812
-3.5660 -2.5491 2.3812
-3.4837 -2.6905 2.3812
-3.3966 -2.8297 2.3812
-3.3048 -2.9667 2.3812
-3.2083 -3.1013 2.3812
-3.1072 -3.2333 2.3812
-3.0014 -3.3627 2.3812
-2.8912 -3.4892 2.3812
-2.7763 -3.6127 2.3812
-2.6570 -3.7330 2.3812
-2.5333 -3.8501 2.3812
-2.4052 -3.9637 2.3812
-2.2728 -4.0737 2.3812
-2.1361 -4.1799 2.3812
-1.9953 -4.2822 2.3812
-1.8503 -4.3804 2.3812
-1.7014 -4.4743 2.3812
-1.5485 -4.5638 2.3812
-1.3919 -4.6487 2.3812
-1.2315 -4.7288 2.3812
-1.0675 -4.8040 2.3812
-0.9001 -4.8740 2.3812
-0.7293 -4.9388 2.3812
-0.5554 -4.9981 2.3812
-0.3784 -5.0518 2.3812
-0.1985 -5.0996 2.3812
-0.0160 -5.1416 2.3812
0.1691 -5.1773 2.3812
0.3565 -5.2069 2.3812
0.5460 -5.2299 2.3812
0.7375 -5.2464 2.3812
0.9306 -5.2561 2.3812
1.1251 -5.2589 2.3812
1.3208 -5.2547 2.3812
1.5175 -5.2434 2.3812
1.7148 -5.2248 2.3812
1.9125 -5.1989 2.3812
2.1103 -5.1654 2.3812
2.3078 -5.1244 2.3812
2.5048 -5.0758 2.3812
2.7010 -5.0195 2.3812
2.8959 -4.9554 2.3812
3.0893 -4.8836 2.3812
3.2808 -4.8040 2.3812
3.4700 -4.7166 2.3812
3.6566 -4.6214 2.3812
3.8402 -4.5185 2.3812
4.0205 -4.4080 2.3812
4.1970 -4.2897 2.3812
4.3695 -4.1641 2.3812
4.5374 -4.0310 2.3812
4.7004 -3.8906 2.3812
4.8582 -3.7433 2.3812
5.0104 -3.5890 2.3812
5.1566 -3.4281 2.3812
5.2965 -3.2607 2.3812
5.4297 -3.0870 2.3812
5.5558 -2.9075 2.3812
5.6746 -2.7223 2.3812
5.7858 -2.5318 2.3812
5.8890 -2.3363 2.3812
5.9840 -2.1362 2.3812
6.0705 -1.9317 2.3812
6.1483 -1.7235 2.3812
6.2172 -1.5118 2.3812
6.2769 -1.2971 2.3812
6.3274 -1.0797 2.3812
6.3684 -0.8602 2.3812
6.3999 -0.6389 2.3812
6.4218 -0.4164 2.3812
6.4340 -0.1931 2.3812
6.4365 0.0306 2.3812
6.4292 0.2541 2.3812
6.4123 0.4770 2.3812
6.3857 0.6989 2.3812
6.3495 0.9192 2.3812
6.3039 1.1376 2.3812
6.2489 1.3535 2.3812
6.1848 1.5666 2.3812
6.1117 1.7764 2.3812
6.0299 1.9826 2.3812
5.9394 2.1846 2.3812
5.8407 2.3822 2.3812
5.7340 2.5750 2.3812
5.6195 2.7627 2.3812
5.4975 2.9448 2.3812
5.3685 3.1212 2.3812
5.2326 3.2916 2.3812
5.0903 3.4557 2.3812
4.9419 3.6132 2.3812
4.7877 3.7640 2.3812
4.6282 3.9078 2.3812
4.4637 4.0445 2.3812
4.2945 4.1740 2.3812
4.1211 4.2961 2.3812
3.9437 4.4107 2.3812
3.7629 4.5177 2.3812
3.5789 4.6171 2.3812
3.3922 4.7088 2.3812
3.2030 4.7928 2.3812
3.0117 4.8691 2.3812
2.8188 4.9377 2.3812
0.9634 1.8348 0.8741
0.8972 1.8659 0.8795
0.8299 1.8944 0.8849
0.7616 1.9206 0.8905
0.6924 1.9443 0.8961
0.6224 1.9654 0.9018
0.5517 1.9840 0.9075
0.4804 2.0000 0.9132
0.4085 2.0135 0.9190
0.3362 2.0243 0.9248
0.2635 2.0325 0.9306
0.1906 2.0381 0.9365
0.1176 2.0410 0.9423
0.0444 2.0413 0.9482
-0.0287 2.0390 0.9540
-0.1016 2.0340 0.9598
-0.1744 2.0263 0.9656
-0.2468 2.0160 0.9713
-0.3188 2.0032 0.9770
-0.3903 1.9877 0.9827
-0.4612 1.9696 0.9883
-0.5314 1.9490 0.9938
-0.6008 1.9259 0.9992
-0.6694 1.9002 1.0046
-0.7369 1.8721 1.0099
-0.8034 1.8416 1.0151
-2.0279 4.2216 2.3812
-2.1670 4.1192 2.3812
-2.3020 4.0129 2.3812
-2.4328 3.9029 2.3812
-2.5593 3.7893 2.3812
-2.6815 3.6723 2.3812
-2.7993 3.5521 2.3812
-2.9127 3.4288 2.3812
-3.0216 3.3025 2.3812
-3.1260 3.1733 2.3812
-3.2258 3.0416 2.3812
-3.3211 2.9073 2.3812
-3.4117 2.7706 2.3812
-3.4977 2.6316 2.3812
-3.5790 2.4905 2.3812
-3.6556 2.3474 2.3812
-3.7274 2.2025 2.3812
-3.7946 2.0558 2.3812
-3.8569 1.9076 2.3812
-3.9145 1.7578 2.3812
-3.9673 1.6067 2.3812
-4.0153 1.4544 2.3812
-4.0585 1.3009 2.3812
-4.0969 1.1465 2.3812
-4.1304 0.9912 2.3812
-4.1591 0.8351 2.3812
-4.1830 0.6784 2.3812
-4.2020 0.5211 2.3812
-4.2161 0.3635 2.3812
-4.2254 0.2055 2.3812
-4.2298 0.0474 2.3812
-4.2294 -0.1109 2.3812
-4.2240 -0.2690 2.3812
-4.2139 -0.4270 2.3812
-4.1988 -0.5847 2.3812
-4.1789 -0.7421 2.3812
-4.1541 -0.8989 2.3812
-4.1245 -1.0551 2.3812
-4.0900 -1.2106 2.3812
-4.0506 -1.3652 2.3812
-4.0064 -1.5188 2.3812
-3.9574 -1.6713 2.3812
-3.9035 -1.8226 2.3812
-3.8448 -1.9726 2.3812
-3.7813 -2.1210 2.3812
-3.7130 -2.2679 2.3812
-3.6399 -2.4130 2.3812
-3.5620 -2.5563 2.3812
-3.4794 -2.6976 2.3812
-3.3920 -2.8367 2.3812
-3.3000 -2.9736 2.3812
-3.2033 -3.1080 2.3812
-3.1019 -3.2399 2.3812
-2.9960 -3.3691 2.3812
-2.8855 -3.4955 2.3812
-2.7704 -3.6188 2.3812
-2.6509 -3.7390 2.3812
-2.5269 -3.8559 2.3812
-2.3986 -3.9694 2.3812
-2.2660 -4.0792 2.3812
-2.1291 -4.1852 2.3812
-1.9880 -4.2873 2.3812
-1.8429 -4.3853 2.3812
-1.6938 -4.4790 2.3812
-1.5407 -4.5682 2.3812
-1.3839 -4.6529 2.3812
-1.2233 -4.7327 2.3812
-1.0592 -4.8077 2.3812
-0.8916 -4.8774 2.3812
-0.7206 -4.9419 2.3812
-0.5465 -5.0009 2.3812
-0.3694 -5.0543 2.3812
-0.1894 -5.1019 2.3812
-0.0067 -5.1435 2.3812
0.1785 -5.1790 2.3812
0.3660 -5.2082 2.3812
0.5556 -5.2309 2.3812
0.7472 -5.2470 2.3812
0.9404 -5.2564 2.3812
1.1350 -5.2589 2.3812
1.3307 -5.2543 2.3812
1.5274 -5.2426 2.3812
1.7248 -5.2237 2.3812
1.9225 -5.1973 2.3812
2.1203 -5.1635 2.3812
2.3178 -5.1222 2.3812
2.5147 -5.0731 2.3812
2.7108 -5.0164 2.3812
2.9057 -4.9520 2.3812
3.0990 -4.8798 2.3812
3.2904 -4.7998 2.3812
3.4795 -4.7119 2.3812
3.6660 -4.6164 2.3812
3.8494 -4.5131 2.3812
4.0295 -4.4022 2.3812
4.2059 -4.2836 2.3812
4.3780 -4.1575 2.3812
4.5457 -4.0241 2.3812
4.7085 -3.8836 2.3812
4.8660 -3.7357 2.3812
5.0180 -3.5810 2.3812
5.1638 -3.4198 2.3812
5.3034 -3.2520 2.3812
5.4362 -3.0781 2.3812
5.5620 -2.8983 2.3812
5.6804 -2.7128 2.3812
5.7912 -2.5220 2.3812
5.8940 -2.3263 2.3812
5.9886 -2.1259 2.3812
6.0747 -1.9213 2.3812
6.1520 -1.7129 2.3812
6.2204 -1.5010 2.3812
6.2797 -1.2861 2.3812
6.3297 -1.0687 2.3812
6.3703 -0.8490 2.3812
6.4013 -0.6277 2.3812
6.4227 -0.4051 2.3812
6.4344 -0.1818 2.3812
6.4363 0.0419 2.3812
6.4286 0.2654 2.3812
6.4112 0.4883 2.3812
6.3841 0.7101 2.3812
6.3474 0.9303 2.3812
6.3013 1.1486 2.3812
6.2459 1.3644 2.3812
6.1814 1.5773 2.3812
6.1078 1.7869 2.3812
6.0255 1.9929 2.3812
5.9347 2.1947 2.3812
5.8355 2.3921 2.3812
5.7284 2.5846 2.3812
5.6135 2.7720 2.3812
5.4912 2.9539 2.3812
5.3618 3.1300 2.3812
5.2256 3.3001 2.3812
5.0830 3.4638 2.3812
4.9342 3.6210 2.3812
4.7798 3.7714 2.3812
4.6200 3.9149 2.3812
4.4552 4.0512 2.3812
4.2858 4.1804 2.3812
4.1122 4.3021 2.3812
3.9347 4.4163 2.3812
3.7537 4.5229 2.3812
3.5696 4.6219 2.3812
3.3827 4.7133 2.3812
3.1934 4.7969 2.3812
3.0020 4.8728 2.3812
2.8090 4.9410 2.3812
0.9600 1.8365 0.8743
0.8938 1.8674 0.8797
0.8265 1.8958 0.8852
0.7581 1.9219 0.8908
0.6889 1.9454 0.8964
0.6189 1.9664 0.9020
0.5481 1.9849 0.9078
0.4768 2.0008 0.9135
0.4049 2.0141 0.9193
0.3325 2.0248 0.9251
0.2599 2.0329 0.9309
0.1869 2.0383 0.9368
0.1139 2.0411 0.9426
0.0407 2.0413 0.9485
-0.0324 2.0388 0.9543
-0.1053 2.0336 0.9601
-0.1781 2.0259 0.9659
-0.2505 2.0155 0.9716
-0.3224 2.0024 0.9773
-0.3939 1.9868 0.9829
-0.4648 1.9686 0.9885
-0.5349 1.9479 0.9941
-0.6043 1.9246 0.9995
-0.6728 1.8989 1.0049
-0.7403 1.8706 1.0102
-0.8068 1.8400 1.0154
-2.0350 4.2166 2.3812
-2.1739 4.1139 2.3812
-2.3087 4.0075 2.3812
-2.4393 3.8972 2.3812
-2.5656 3.7835 2.3812
-2.6875 3.6663 2.3812
-2.8051 3.5460 2.3812
-2.9183 3.4225 2.3812
-3.0270 3.2960 2.3812
-3.1312 3.1668 2.3812
-3.2308 3.0348 2.3812
-3.3258 2.9004 2.3812
-3.4162 2.7636 2.3812
-3.5019 2.6245 2.3812
-3.5830 2.4833 2.3812
-3.6593 2.3402 2.3812
-3.7309 2.1951 2.3812
-3.7978 2.0484 2.3812
-3.8600 1.9001 2.3812
-3.9173 1.7502 2.3812
-3.9699 1.5991 2.3812
-4.0176 1.4467 2.3812
-4.0606 1.2932 2.3812
-4.0987 1.1387 2.3812
-4.1320 0.9833 2.3812
