ply
format ascii 1.0
element vertex 2212
property float32 x
property float32 y
property float32 z
end_header
5.6203 1.9649 -0.4992
5.6326 2.1990 -0.5065
5.6453 2.4407 -0.5146
5.6584 2.6912 -0.5238
5.6720 2.9516 -0.5340
5.6863 3.2233 -0.5454
5.7012 3.5076 -0.5580
5.7168 3.8065 -0.5721
5.7334 4.1217 -0.5876
5.7509 4.4556 -0.6049
5.7695 4.8108 -0.6241
5.7894 5.1904 -0.6455
5.8108 5.5982 -0.6693
5.8338 6.0386 -0.6959
5.8589 6.5168 -0.7258
5.8863 7.0395 -0.7595
5.9164 7.6146 -0.7976
4.8619 -4.8197 -0.5914
4.9896 -4.6034 -0.5860
5.2215 -4.4815 -0.5935
8.7711 -1.5158 -0.7572
9.1305 -1.2425 -0.7831
9.3210 -0.9293 -0.7952
8.9852 -0.5713 -0.7636
9.5933 -0.2651 -0.8131
7.1362 0.3151 -0.6039
5.5406 0.4442 -0.4694
5.5512 0.6461 -0.4715
5.5619 0.8505 -0.4742
5.5728 1.0580 -0.4776
5.5839 1.2691 -0.4816
5.5952 1.4846 -0.4864
5.6067 1.7051 -0.4919
5.6186 1.9314 -0.4982
5.6308 2.1644 -0.5053
5.6434 2.4049 -0.5134
5.6565 2.6541 -0.5224
5.6700 2.9130 -0.5325
5.6842 3.1829 -0.5437
5.6990 3.4653 -0.5561
5.7145 3.7619 -0.5699
5.7309 4.0746 -0.5852
5.7483 4.4057 -0.6023
5.7667 4.7576 -0.6212
5.7864 5.1335 -0.6422
5.8075 5.5369 -0.6656
5.8303 5.9722 -0.6919
5.8551 6.4445 -0.7212
5.8821 6.9602 -0.7543
5.9118 7.5271 -0.7917
5.6471 2.4763 -0.3763
5.6603 2.7281 -0.3830
5.6741 2.9901 -0.3904
5.6884 3.2635 -0.3987
5.7034 3.5499 -0.4079
5.7192 3.8509 -0.4181
5.7358 4.1687 -0.4295
5.7535 4.5055 -0.4421
5.7723 4.8641 -0.4562
5.7924 5.2476 -0.4718
5.8140 5.6598 -0.4893
5.8373 6.1053 -0.5088
5.8627 6.5895 -0.5308
5.8905 7.1193 -0.5556
5.9210 7.7028 -0.5836
4.8289 -4.7375 -0.4311
5.0341 -4.5963 -0.4340
8.6696 -1.4521 -0.5487
9.1124 -1.1920 -0.5728
9.1793 -0.8673 -0.5739
8.8080 -0.5143 -0.5484
9.5138 -0.2136 -0.5906
6.7725 0.3341 -0.4197
5.5422 0.4732 -0.3438
5.5528 0.6754 -0.3452
5.5635 0.8802 -0.3471
5.5744 1.0882 -0.3495
5.5855 1.2999 -0.3524
5.5968 1.5161 -0.3559
5.6084 1.7374 -0.3598
5.6203 1.9646 -0.3644
5.6326 2.1986 -0.3696
5.6453 2.4403 -0.3754
5.6584 2.6908 -0.3819
5.6720 2.9512 -0.3893
5.6863 3.2229 -0.3974
5.7012 3.5073 -0.4065
5.7168 3.8061 -0.4166
5.7333 4.1213 -0.4278
5.7508 4.4552 -0.4402
5.7695 4.8104 -0.4540
5.7894 5.1900 -0.4694
5.8107 5.5977 -0.4866
5.8338 6.0381 -0.5058
5.8589 6.5163 -0.5274
5.8863 7.0389 -0.5518
5.9164 7.6140 -0.5793
4.8379 -4.7963 -0.4342
4.9892 -4.6034 -0.4322
5.2208 -4.4813 -0.4376
8.6083 -1.4881 -0.5454
9.0453 -1.2314 -0.5691
9.2363 -0.9214 -0.5778
8.8600 -0.5639 -0.5519
9.4937 -0.2629 -0.5896
7.1403 0.3148 -0.4424
5.5406 0.4439 -0.3436
5.5512 0.6458 -0.3450
5.5619 0.8502 -0.3468
5.5728 1.0577 -0.3491
5.5839 1.2688 -0.3520
5.5951 1.4843 -0.3553
5.6067 1.7048 -0.3592
5.6186 1.9311 -0.3637
5.6308 2.1641 -0.3688
5.6434 2.4046 -0.3745
5.6564 2.6537 -0.3809
5.6700 2.9126 -0.3881
5.6841 3.1825 -0.3962
5.6989 3.4650 -0.4051
5.7145 3.7615 -0.4150
5.7309 4.0742 -0.4261
5.7482 4.4052 -0.4383
5.7667 4.7571 -0.4519
5.7864 5.1330 -0.4671
5.8075 5.5364 -0.4840
5.8303 5.9717 -0.5029
5.8551 6.4440 -0.5241
5.8821 6.9597 -0.5480
5.9118 7.5265 -0.5750
5.6471 2.4759 -0.2371
5.6603 2.7278 -0.2411
5.6740 2.9897 -0.2456
5.6884 3.2631 -0.2506
5.7034 3.5495 -0.2562
5.7192 3.8506 -0.2625
5.7358 4.1683 -0.2694
5.7535 4.5051 -0.2771
5.7723 4.8637 -0.2857
5.7924 5.2471 -0.2954
5.8140 5.6593 -0.3061
5.8373 6.1048 -0.3181
5.8627 6.5890 -0.3317
5.8904 7.1187 -0.3469
5.9210 7.7022 -0.3643
4.8644 -4.7727 -0.2804
5.0340 -4.5966 -0.2800
8.9383 -1.1698 -0.3583
9.0487 -0.8554 -0.3605
9.4161 -0.2120 -0.3719
6.7762 0.3339 -0.2667
5.5421 0.4729 -0.2182
5.5527 0.6751 -0.2189
5.5635 0.8799 -0.2200
5.6916 1.1108 -0.2259
5.6856 1.3229 -0.2269
5.6764 1.5373 -0.2281
5.6640 1.7543 -0.2295
5.6482 1.9740 -0.2311
5.6326 2.1983 -0.2330
5.6452 2.4400 -0.2365
5.6584 2.6905 -0.2405
5.6720 2.9509 -0.2449
5.6862 3.2225 -0.2498
5.7011 3.5069 -0.2554
5.7168 3.8057 -0.2615
5.7333 4.1209 -0.2683
5.7508 4.4547 -0.2760
5.7694 4.8099 -0.2844
5.7893 5.1895 -0.2939
5.8107 5.5973 -0.3045
5.8338 6.0376 -0.3163
5.8588 6.5158 -0.3296
5.8862 7.0384 -0.3446
5.9164 7.6134 -0.3616
4.8619 -4.8205 -0.2817
4.9888 -4.6034 -0.2789
5.2201 -4.4811 -0.2822
8.8736 -1.2085 -0.3561
9.1040 -0.9087 -0.3630
9.3964 -0.2607 -0.3713
7.1443 0.3146 -0.2812
5.5406 0.4436 -0.2181
5.5512 0.6455 -0.2188
5.5619 0.8499 -0.2198
5.6923 1.0800 -0.2258
5.6867 1.2918 -0.2268
5.6779 1.5059 -0.2279
5.6660 1.7225 -0.2293
5.6507 1.9418 -0.2309
5.6321 2.1642 -0.2326
5.6434 2.4042 -0.2360
5.6564 2.6534 -0.2399
5.6700 2.9122 -0.2442
5.6841 3.1822 -0.2491
5.6989 3.4646 -0.2545
5.7145 3.7612 -0.2606
5.7309 4.0738 -0.2673
5.7482 4.4048 -0.2748
5.7666 4.7567 -0.2831
5.7863 5.1326 -0.2924
5.8075 5.5359 -0.3028
5.8303 5.9712 -0.3145
5.8550 6.4435 -0.3276
5.8821 6.9591 -0.3423
5.9118 7.5260 -0.3590
6.3320 2.7758 -0.1100
6.3468 3.0582 -0.1115
6.3622 3.3519 -0.1133
6.3783 3.6585 -0.1153
6.3951 3.9796 -0.1175
6.4128 4.3172 -0.1200
6.4315 4.6734 -0.1229
6.4513 5.0511 -0.1261
6.4724 5.4531 -0.1297
6.4949 5.8831 -0.1337
6.5191 6.3452 -0.1382
6.5453 6.8447 -0.1433
6.2029 6.9709 -0.1406
5.8904 7.1182 -0.1387
5.0339 -4.5969 -0.1264
8.7711 -1.1484 -0.1522
6.7799 0.3337 -0.1138
5.5421 0.4725 -0.0928
5.5527 0.6748 -0.0928
5.5635 0.8796 -0.0930
6.2505 1.2195 -0.1046
6.2629 1.4569 -0.1051
6.2756 1.6992 -0.1057
6.2886 1.9474 -0.1065
6.3020 2.2021 -0.1074
6.3157 2.4645 -0.1085
6.3299 2.7356 -0.1098
6.3446 3.0164 -0.1113
6.3600 3.3084 -0.1130
6.3759 3.6130 -0.1150
6.3926 3.9318 -0.1172
6.4102 4.2668 -0.1197
6.4287 4.6203 -0.1225
6.4483 4.9946 -0.1256
6.4692 5.3928 -0.1291
6.4915 5.8185 -0.1331
6.5155 6.2757 -0.1375
6.5413 6.7693 -0.1425
6.2656 6.9676 -0.1413
5.8862 7.0379 -0.1378
5.0266 -4.6386 -0.1269
5.2194 -4.4808 -0.1271
9.2188 -0.9207 -0.1587
7.1484 0.3144 -0.1201
5.5406 0.4432 -0.0928
5.5512 0.6452 -0.0928
5.5619 0.8496 -0.0930
6.2487 1.1852 -0.1045
6.2611 1.4220 -0.1050
6.2737 1.6636 -0.1056
6.2867 1.9108 -0.1063
6.3000 2.1646 -0.1072
6.3137 2.4258 -0.1083
6.3278 2.6955 -0.1096
6.3425 2.9748 -0.1111
6.3577 3.2651 -0.1128
6.3735 3.5677 -0.1147
6.3901 3.8844 -0.1168
6.4076 4.2169 -0.1193
6.4259 4.5675 -0.1220
6.4454 4.9386 -0.1251
6.4661 5.3332 -0.1286
6.4882 5.7546 -0.1324
6.5119 6.2069 -0.1368
6.5374 6.6949 -0.1417
6.3288 6.9643 -0.1420
5.9056 6.9865 -0.1375
5.9118 7.5254 -0.1433
6.3320 2.7755 0.0457
6.3468 3.0578 0.0471
6.3622 3.3515 0.0487
6.3783 3.6581 0.0503
6.3951 3.9792 0.0521
6.4128 4.3167 0.0541
6.4315 4.6730 0.0562
6.4513 5.0506 0.0585
6.4723 5.4526 0.0610
6.4949 5.8825 0.0637
6.5191 6.3447 0.0667
6.5453 6.8441 0.0700
6.2034 6.9709 0.0695
5.8904 7.1176 0.0694
5.0338 -4.5972 0.0272
9.2445 -0.8750 0.0501
6.7835 0.3335 0.0391
5.5421 0.4722 0.0325
5.5527 0.6745 0.0331
5.5634 0.8793 0.0339
6.2505 1.2191 0.0388
6.2629 1.4565 0.0398
6.2756 1.6989 0.0407
6.2886 1.9470 0.0418
6.3020 2.2018 0.0430
6.3157 2.4642 0.0442
6.3299 2.7352 0.0455
6.3446 3.0160 0.0469
6.3599 3.3080 0.0484
6.3759 3.6125 0.0501
6.3926 3.9314 0.0518
6.4102 4.2664 0.0538
6.4287 4.6198 0.0558
6.4483 4.9941 0.0581
6.4692 5.3924 0.0606
6.4915 5.8180 0.0633
6.5154 6.2751 0.0662
6.5413 6.7688 0.0695
6.2660 6.9676 0.0698
5.8862 7.0373 0.0688
5.0267 -4.6391 0.0272
5.2187 -4.4806 0.0278
9.2153 -0.9208 0.0499
7.1525 0.3142 0.0411
5.5406 0.4429 0.0324
5.5512 0.6449 0.0330
5.5619 0.8493 0.0337
6.2487 1.1849 0.0387
6.2611 1.4216 0.0396
6.2737 1.6632 0.0406
6.2867 1.9104 0.0417
6.3000 2.1642 0.0428
6.3137 2.4254 0.0440
6.3278 2.6951 0.0453
6.3424 2.9744 0.0467
6.3577 3.2647 0.0482
6.3735 3.5673 0.0498
6.3901 3.8839 0.0516
6.4075 4.2165 0.0535
6.4259 4.5670 0.0555
6.4454 4.9382 0.0578
6.4660 5.3327 0.0602
6.4881 5.7541 0.0629
6.5118 6.2064 0.0658
6.5374 6.6944 0.0690
6.3293 6.9643 0.0700
5.9060 6.9865 0.0686
5.9117 7.5249 0.0722
6.3320 2.7751 0.2014
6.3468 3.0574 0.2058
6.3622 3.3511 0.2107
6.3783 3.6577 0.2160
6.3951 3.9787 0.2218
6.4128 4.3163 0.2282
6.4314 4.6725 0.2353
6.4512 5.0501 0.2430
6.4723 5.4521 0.2516
6.4948 5.8820 0.2611
6.5191 6.3442 0.2716
6.5452 6.8436 0.2834
6.2038 6.9709 0.2798
5.8904 7.1171 0.2775
5.0337 -4.5974 0.1807
9.2336 -0.8744 0.2590
6.7872 0.3334 0.1922
5.5421 0.4719 0.1578
5.5527 0.6742 0.1591
5.5634 0.8790 0.1607
6.2504 1.2188 0.1823
6.2629 1.4562 0.1846
6.2756 1.6985 0.1872
6.2886 1.9466 0.1901
6.3019 2.2014 0.1933
6.3157 2.4638 0.1969
6.3299 2.7348 0.2008
6.3446 3.0156 0.2052
6.3599 3.3076 0.2099
6.3759 3.6121 0.2152
6.3926 3.9309 0.2209
6.4101 4.2660 0.2272
6.4287 4.6193 0.2342
6.4483 4.9937 0.2418
6.4691 5.3919 0.2503
6.4914 5.8175 0.2597
6.5154 6.2746 0.2700
6.5413 6.7682 0.2816
6.2665 6.9676 0.2809
5.8861 7.0368 0.2755
5.0268 -4.6396 0.1813
5.2180 -4.4804 0.1827
9.2045 -0.9203 0.2582
7.1566 0.3140 0.2025
5.5406 0.4426 0.1576
5.5511 0.6446 0.1589
5.5618 0.8490 0.1605
6.2486 1.1845 0.1820
6.2611 1.4213 0.1843
6.2737 1.6628 0.1868
6.2867 1.9101 0.1897
6.3000 2.1638 0.1929
6.3137 2.4250 0.1964
6.3278 2.6947 0.2002
6.3424 2.9740 0.2045
6.3576 3.2643 0.2092
6.3735 3.5669 0.2144
6.3901 3.8835 0.2200
6.4075 4.2160 0.2263
6.4259 4.5666 0.2331
6.4453 4.9377 0.2407
6.4660 5.3322 0.2490
6.4881 5.7536 0.2582
6.5118 6.2058 0.2684
6.5374 6.6938 0.2798
6.3297 6.9643 0.2820
5.9064 6.9865 0.2747
5.9117 7.5243 0.2878
6.3320 2.7747 0.3574
6.3468 3.0570 0.3647
6.3622 3.3507 0.3729
6.3782 3.6573 0.3818
6.3951 3.9783 0.3917
6.4128 4.3158 0.4026
6.4314 4.6721 0.4146
6.4512 5.0497 0.4278
6.4723 5.4516 0.4425
6.4948 5.8815 0.4588
6.5190 6.3436 0.4768
6.5452 6.8430 0.4970
6.2043 6.9709 0.4903
5.8903 7.1166 0.4859
5.0336 -4.5977 0.3345
9.2190 -0.8736 0.4675
6.7909 0.3332 0.3456
5.5421 0.4716 0.2832
5.5527 0.6739 0.2853
5.5634 0.8787 0.2878
6.2504 1.2184 0.3259
6.2629 1.4558 0.3296
6.2756 1.6981 0.3339
6.2886 1.9463 0.3386
6.3019 2.2010 0.3439
6.3157 2.4634 0.3498
6.3299 2.7344 0.3564
6.3446 3.0152 0.3636
6.3599 3.3072 0.3716
6.3758 3.6117 0.3805
6.3926 3.9305 0.3902
6.4101 4.2655 0.4009
6.4286 4.6189 0.4127
6.4482 4.9932 0.4258
6.4691 5.3914 0.4403
6.4914 5.8170 0.4563
6.5154 6.2741 0.4741
6.5412 6.7677 0.4939
6.2669 6.9676 0.4923
5.8861 7.0362 0.4824
5.0269 -4.6401 0.3356
5.2173 -4.4802 0.3378
9.1900 -0.9193 0.4661
7.1607 0.3138 0.3643
5.5405 0.4423 0.2830
5.5511 0.6442 0.2850
5.5618 0.8486 0.2874
6.2486 1.1842 0.3254
6.2610 1.4209 0.3291
6.2737 1.6625 0.3332
6.2866 1.9097 0.3379
6.2999 2.1634 0.3431
6.3136 2.4246 0.3489
6.3278 2.6943 0.3554
6.3424 2.9736 0.3625
6.3576 3.2639 0.3704
6.3735 3.5665 0.3791
6.3901 3.8831 0.3887
6.4075 4.2156 0.3993
6.4259 4.5661 0.4109
6.4453 4.9372 0.4238
6.4660 5.3317 0.4381
6.4881 5.7531 0.4538
6.5118 6.2053 0.4714
6.5373 6.6933 0.4909
6.3302 6.9643 0.4943
5.9069 6.9864 0.4811
5.9117 7.5237 0.5037
6.3320 2.7743 0.5137
6.3468 3.0566 0.5240
6.3621 3.3503 0.5354
6.3782 3.6568 0.5480
6.3950 3.9779 0.5620
6.4127 4.3154 0.5773
6.4314 4.6716 0.5943
6.4512 5.0492 0.6131
6.4723 5.4511 0.6338
6.4948 5.8810 0.6569
6.5190 6.3431 0.6825
6.5452 6.8425 0.7111
6.2047 6.9708 0.7014
5.8903 7.1160 0.6948
5.0335 -4.5980 0.4886
9.2043 -0.8727 0.6758
6.7946 0.3330 0.4996
5.5421 0.4713 0.4090
5.5527 0.6736 0.4118
5.5634 0.8784 0.4151
6.2504 1.2181 0.4699
6.2628 1.4554 0.4750
6.2755 1.6978 0.4808
6.2885 1.9459 0.4874
6.3019 2.2007 0.4948
6.3156 2.4630 0.5031
6.3298 2.7340 0.5123
6.3446 3.0148 0.5224
6.3599 3.3068 0.5337
6.3758 3.6113 0.5461
6.3925 3.9301 0.5599
6.4101 4.2651 0.5750
6.4286 4.6184 0.5917
6.4482 4.9927 0.6102
6.4691 5.3909 0.6307
6.4914 5.8165 0.6534
6.5154 6.2736 0.6786
6.5412 6.7671 0.7067
6.2674 6.9676 0.7042
5.8861 7.0357 0.6899
5.0270 -4.6405 0.4902
5.2166 -4.4800 0.4932
9.1754 -0.9184 0.6739
7.1648 0.3136 0.5266
5.5405 0.4420 0.4086
5.5511 0.6439 0.4113
5.5618 0.8483 0.4146
6.2486 1.1838 0.4692
6.2610 1.4205 0.4742
6.2737 1.6621 0.4799
6.2866 1.9093 0.4864
6.2999 2.1631 0.4937
6.3136 2.4243 0.5018
6.3277 2.6939 0.5109
6.3424 2.9732 0.5209
6.3576 3.2634 0.5320
6.3735 3.5660 0.5442
6.3900 3.8827 0.5578
6.4075 4.2152 0.5727
6.4258 4.5657 0.5892
6.4453 4.9368 0.6074
6.4660 5.3313 0.6275
6.4880 5.7526 0.6499
6.5117 6.2048 0.6747
6.5373 6.6927 0.7024
6.3306 6.9642 0.7072
5.9073 6.9864 0.6880
5.9116 7.5232 0.7200
6.3319 2.7739 0.6705
6.3467 3.0562 0.6838
6.3621 3.3499 0.6985
6.3782 3.6564 0.7148
6.3950 3.9774 0.7328
6.4127 4.3149 0.7527
6.4314 4.6712 0.7746
6.4512 5.0487 0.7989
6.4722 5.4506 0.8258
6.4948 5.8805 0.8556
6.5190 6.3426 0.8888
6.5451 6.8419 0.9259
6.2051 6.9708 0.9131
5.8903 7.1155 0.9043
5.0334 -4.5983 0.6432
9.1897 -0.8718 0.8841
6.7983 0.3328 0.6543
5.5420 0.4710 0.5351
5.5526 0.6732 0.5386
5.5634 0.8780 0.5429
6.2504 1.2177 0.6143
6.2628 1.4551 0.6209
6.2755 1.6974 0.6283
6.2885 1.9455 0.6368
6.3019 2.2003 0.6462
6.3156 2.4626 0.6569
6.3298 2.7336 0.6687
6.3445 3.0144 0.6818
6.3598 3.3063 0.6963
6.3758 3.6109 0.7124
6.3925 3.9297 0.7301
6.4101 4.2646 0.7497
6.4286 4.6180 0.7713
6.4482 4.9923 0.7952
6.4691 5.3904 0.8217
6.4914 5.8160 0.8511
6.5153 6.2730 0.8838
6.5412 6.7666 0.9202
6.2678 6.9675 0.9169
5.8861 7.0352 0.8980
5.0271 -4.6410 0.6454
5.2159 -4.4797 0.6491
9.1606 -0.9174 0.8816
7.1689 0.3133 0.6897
5.5405 0.4417 0.5347
5.5511 0.6436 0.5381
5.5618 0.8480 0.5422
6.2486 1.1835 0.6135
6.2610 1.4202 0.6199
6.2737 1.6618 0.6272
6.2866 1.9090 0.6355
6.2999 2.1627 0.6448
6.3136 2.4239 0.6552
6.3277 2.6935 0.6669
6.3424 2.9728 0.6798
6.3576 3.2630 0.6941
6.3734 3.5656 0.7099
6.3900 3.8822 0.7274
6.4075 4.2147 0.7467
6.4258 4.5652 0.7680
6.4453 4.9363 0.7916
6.4659 5.3308 0.8177
6.4880 5.7521 0.8466
6.5117 6.2043 0.8788
6.5373 6.6922 0.9146
6.3311 6.9642 0.9207
5.9077 6.9864 0.8956
5.9116 7.5226 0.9371
6.3319 2.7735 0.8280
6.3467 3.0558 0.8443
6.3621 3.3495 0.8624
6.3782 3.6560 0.8823
6.3950 3.9770 0.9044
6.4127 4.3145 0.9288
6.4313 4.6707 0.9557
6.4511 5.0483 0.9855
6.4722 5.4502 1.0186
6.4947 5.8800 1.0552
6.5189 6.3420 1.0960
6.5451 6.8414 1.1416
6.2056 6.9708 1.1259
5.8902 7.1149 1.1148
5.0333 -4.5986 0.7985
9.1750 -0.8709 1.0926
6.8021 0.3326 0.8098
5.5420 0.4707 0.6619
5.5526 0.6729 0.6661
5.5634 0.8777 0.6712
6.2504 1.2173 0.7594
6.2628 1.4547 0.7673
6.2755 1.6971 0.7764
6.2885 1.9452 0.7867
6.3019 2.1999 0.7983
6.3156 2.4622 0.8113
6.3298 2.7332 0.8258
6.3445 3.0140 0.8418
6.3598 3.3059 0.8596
6.3758 3.6105 0.8793
6.3925 3.9292 0.9010
6.4100 4.2642 0.9251
6.4286 4.6175 0.9516
6.4482 4.9918 0.9810
6.4690 5.3899 1.0135
6.4913 5.8155 1.0497
6.5153 6.2725 1.0898
6.5412 6.7660 1.1346
6.2683 6.9675 1.1305
5.8860 7.0346 1.1070
5.0272 -4.6415 0.8013
5.2152 -4.4795 0.8056
9.1451 -0.9164 1.0895
7.1731 0.3131 0.8537
5.5405 0.4414 0.6613
5.5511 0.6433 0.6654
5.5618 0.8477 0.6704
6.2486 1.1831 0.7584
6.2610 1.4198 0.7661
6.2736 1.6614 0.7750
6.2866 1.9086 0.7851
6.2999 2.1623 0.7965
6.3136 2.4235 0.8093
6.3277 2.6931 0.8236
6.3423 2.9724 0.8394
6.3576 3.2626 0.8569
6.3734 3.5652 0.8763
6.3900 3.8818 0.8977
6.4074 4.2143 0.9214
6.4258 4.5648 0.9476
6.4452 4.9358 0.9765
6.4659 5.3303 1.0086
6.4880 5.7516 1.0441
6.5117 6.2037 1.0837
6.5373 6.6916 1.1278
6.3315 6.9642 1.1353
5.9081 6.9864 1.1041
5.9116 7.5220 1.1550
6.3319 2.7731 0.9863
6.3467 3.0554 1.0057
6.3621 3.3491 1.0270
6.3781 3.6556 1.0507
6.3950 3.9766 1.0769
6.4127 4.3140 1.1058
6.4313 4.6703 1.1378
6.4511 5.0478 1.1732
6.4722 5.4497 1.2124
6.4947 5.8795 1.2559
6.5189 6.3415 1.3044
6.5451 6.8408 1.3585
6.2060 6.9708 1.3398
5.8902 7.1144 1.3264
5.0332 -4.5989 0.9546
9.7914 -1.2858 1.3961
9.1596 -0.8700 1.3015
9.7955 -0.5769 1.3889
6.8058 0.3324 0.9663
5.5420 0.4704 0.7892
5.5526 0.6726 0.7942
5.5633 0.8774 0.8002
6.2503 1.2170 0.9053
6.2628 1.4544 0.9146
6.2755 1.6967 0.9253
6.2885 1.9448 0.9375
6.3018 2.1995 0.9512
6.3156 2.4619 0.9666
6.3298 2.7328 0.9837
6.3445 3.0136 1.0027
6.3598 3.3055 1.0238
6.3758 3.6100 1.0471
6.3925 3.9288 1.0729
6.4100 4.2637 1.1014
6.4285 4.6171 1.1329
6.4482 4.9913 1.1678
6.4690 5.3894 1.2064
6.4913 5.8149 1.2493
6.5153 6.2720 1.2970
6.5411 6.7655 1.3502
6.2687 6.9675 1.3453
5.8860 7.0341 1.3171
5.0273 -4.6420 0.9580
5.2145 -4.4793 0.9629
9.7755 -1.3357 1.3946
9.1296 -0.9153 1.2978
9.7932 -0.6281 1.3889
7.1773 0.3129 1.0187
5.5405 0.4411 0.7886
5.5511 0.6430 0.7934
5.5618 0.8474 0.7992
6.2486 1.1828 0.9040
6.2610 1.4195 0.9132
6.2736 1.6610 0.9237
6.2866 1.9082 0.9356
6.2999 2.1619 0.9491
6.3136 2.4231 0.9642
6.3277 2.6927 0.9811
6.3423 2.9720 0.9998
6.3575 3.2622 1.0206
6.3734 3.5648 1.0436
6.3900 3.8814 1.0690
6.4074 4.2138 1.0971
6.4258 4.5643 1.1281
6.4452 4.9354 1.1625
6.4659 5.3298 1.2005
6.4880 5.7511 1.2428
6.5117 6.2032 1.2897
6.5372 6.6911 1.3421
6.3320 6.9642 1.3510
5.9085 6.9864 1.3138
5.9115 7.5214 1.3742
6.3319 2.7727 1.1457
6.3467 3.0550 1.1680
6.3621 3.3487 1.1928
6.3781 3.6551 1.2202
6.3949 3.9761 1.2505
6.4126 4.3136 1.2840
6.4313 4.6698 1.3210
6.4511 5.0473 1.3620
6.4721 5.4492 1.4075
6.4947 5.8790 1.4579
6.5189 6.3410 1.5141
6.5451 6.8403 1.5768
6.2065 6.9707 1.5550
5.8902 7.1138 1.5393
5.0331 -4.5992 1.1117
8.6909 -1.4605 1.4482
8.4606 -1.1115 1.4030
8.4703 -0.8050 1.3997
8.6185 -0.5080 1.4210
6.8096 0.3322 1.1240
5.5420 0.4701 0.9174
5.5526 0.6723 0.9231
5.5633 0.8771 0.9300
6.2503 1.2166 1.0521
6.2628 1.4540 1.0628
6.2755 1.6963 1.0752
6.2885 1.9444 1.0892
6.3018 2.1991 1.1051
6.3156 2.4615 1.1228
6.3298 2.7324 1.1426
6.3445 3.0132 1.1646
6.3598 3.3051 1.1890
6.3757 3.6096 1.2160
6.3924 3.9284 1.2459
6.4100 4.2633 1.2789
6.4285 4.6166 1.3154
6.4481 4.9908 1.3558
6.4690 5.3889 1.4005
6.4913 5.8144 1.4502
6.5152 6.2714 1.5055
6.5411 6.7649 1.5672
6.2692 6.9675 1.5615
5.8860 7.0335 1.5285
5.0274 -4.6424 1.1157
5.2138 -4.4791 1.1211
8.7848 -1.5236 1.4650
8.4705 -1.1579 1.4055
8.4562 -0.8483 1.3979
8.5555 -0.5492 1.4110
7.1815 0.3127 1.1850
5.5405 0.4408 0.9167
5.5510 0.6427 0.9222
5.5617 0.8471 0.9289
6.2485 1.1824 1.0506
6.2609 1.4191 1.0611
6.2736 1.6607 1.0733
6.2866 1.9079 1.0871
6.2998 2.1616 1.1026
6.3135 2.4227 1.1201
6.3277 2.6923 1.1396
6.3423 2.9716 1.1613
6.3575 3.2618 1.1853
6.3734 3.5644 1.2119
6.3900 3.8809 1.2414
6.4074 4.2134 1.2739
6.4257 4.5639 1.3098
6.4452 4.9349 1.3496
6.4659 5.3293 1.3937
6.4879 5.7506 1.4426
6.5116 6.2027 1.4971
6.5372 6.6905 1.5578
6.3324 6.9641 1.5681
5.9089 6.9863 1.5249
5.9115 7.5209 1.5948
6.3319 2.7723 1.3062
6.3467 3.0546 1.3316
6.3620 3.3483 1.3598
6.3781 3.6547 1.3909
6.3949 3.9757 1.4254
6.4126 4.3131 1.4635
6.4313 4.6693 1.5056
6.4511 5.0468 1.5523
6.4721 5.4487 1.6040
6.4946 5.8785 1.6614
6.5189 6.3404 1.7253
6.5450 6.8397 1.7967
6.2069 6.9707 1.7720
5.8902 7.1133 1.7539
5.0330 -4.5995 1.2699
8.8885 -1.4942 1.6904
8.6178 -1.1326 1.6309
8.6204 -0.8197 1.6255
8.8318 -0.5211 1.6616
6.8134 0.3320 1.2830
5.5420 0.4698 1.0466
5.5526 0.6720 1.0530
5.5633 0.8768 1.0608
6.2503 1.2163 1.1999
6.2627 1.4536 1.2121
6.2754 1.6959 1.2261
6.2884 1.9440 1.2421
6.3018 2.1987 1.2601
6.3155 2.4611 1.2802
6.3297 2.7320 1.3027
6.3445 3.0128 1.3278
6.3598 3.3047 1.3555
6.3757 3.6092 1.3862
6.3924 3.9279 1.4202
6.4100 4.2628 1.4577
6.4285 4.6161 1.4992
6.4481 4.9903 1.5452
6.4690 5.3884 1.5961
6.4913 5.8139 1.6526
6.5152 6.2709 1.7155
6.5411 6.7644 1.7857
6.2696 6.9674 1.7794
5.8859 7.0330 1.7416
5.0275 -4.6429 1.2746
5.2131 -4.4789 1.2805
8.6291 -1.1801 1.6341
8.6052 -0.8637 1.6234
8.7744 -0.5638 1.6512
7.1857 0.3125 1.3527
5.5404 0.4405 1.0458
5.5510 0.6424 1.0520
5.5617 0.8467 1.0596
6.2485 1.1820 1.1983
6.2609 1.4187 1.2102
6.2736 1.6603 1.2240
6.2865 1.9075 1.2396
6.2998 2.1612 1.2573
6.3135 2.4223 1.2772
6.3276 2.6920 1.2993
6.3423 2.9712 1.3239
6.3575 3.2614 1.3513
6.3733 3.5639 1.3815
6.3899 3.8805 1.4150
6.4074 4.2129 1.4520
6.4257 4.5634 1.4929
6.4452 4.9344 1.5382
6.4658 5.3288 1.5883
6.4879 5.7500 1.6440
6.5116 6.2021 1.7059
6.5372 6.6900 1.7750
6.3329 6.9641 1.7869
5.9093 6.9863 1.7376
5.9115 7.5203 1.8170
6.3318 2.7719 1.4681
6.3466 3.0542 1.4966
6.3620 3.3478 1.5282
6.3781 3.6543 1.5631
6.3949 3.9752 1.6018
6.4126 4.3127 1.6445
6.4313 4.6688 1.6918
6.4510 5.0463 1.7441
6.4721 5.4482 1.8022
6.4946 5.8779 1.8666
6.5188 6.3399 1.9383
6.5450 6.8391 2.0184
6.2074 6.9707 1.9908
5.8901 7.1127 1.9702
5.0330 -4.5998 1.4295
8.7730 -1.1535 1.8675
8.7675 -0.8342 1.8595
6.8173 0.3318 1.4436
5.5420 0.4694 1.1769
5.5526 0.6717 1.1840
5.5633 0.8764 1.1927
6.2503 1.2159 1.3491
6.2627 1.4532 1.3627
6.2754 1.6956 1.3784
6.2884 1.9436 1.3963
6.3018 2.1984 1.4164
6.3155 2.4607 1.4390
6.3297 2.7316 1.4642
6.3444 3.0124 1.4923
6.3597 3.3043 1.5234
6.3757 3.6087 1.5578
6.3924 3.9275 1.5959
6.4099 4.2624 1.6380
6.4285 4.6157 1.6846
6.4481 4.9899 1.7362
6.4689 5.3879 1.7933
6.4912 5.8134 1.8568
6.5152 6.2703 1.9274
6.5410 6.7638 2.0062
6.2701 6.9674 1.9991
5.8859 7.0324 1.9564
5.0276 -4.6434 1.4348
5.2124 -4.4786 1.4412
8.7859 -1.2020 1.8714
8.7512 -0.8789 1.8569
7.1900 0.3122 1.5221
5.5404 0.4401 1.1759
5.5510 0.6420 1.1828
5.5617 0.8464 1.1913
6.2485 1.1817 1.3472
6.2609 1.4184 1.3606
6.2736 1.6599 1.3760
6.2865 1.9071 1.3935
6.2998 2.1608 1.4133
6.3135 2.4219 1.4355
6.3276 2.6915 1.4604
6.3423 2.9708 1.4880
6.3575 3.2610 1.5186
6.3733 3.5635 1.5526
6.3899 3.8801 1.5901
6.4073 4.2125 1.6316
6.4257 4.5629 1.6775
6.4451 4.9339 1.7283
6.4658 5.3283 1.7846
6.4879 5.7495 1.8471
6.5116 6.2016 1.9166
6.5371 6.6894 1.9941
6.3334 6.9641 2.0075
5.9098 6.9863 1.9521
5.9115 7.5197 2.0411
6.3318 2.7715 1.6316
6.3466 3.0538 1.6632
6.3620 3.3474 1.6982
6.3781 3.6538 1.7370
6.3949 3.9748 1.7798
6.4126 4.3122 1.8273
6.4312 4.6684 1.8797
6.4510 5.0458 1.9378
6.4721 5.4476 2.0022
6.4946 5.8774 2.0738
6.5188 6.3393 2.1534
6.5413 6.8347 2.2410
6.2901 7.0631 2.2410
6.0311 7.2824 2.2410
5.7643 7.4920 2.2409
5.4892 7.6906 2.2404
5.2074 7.8790 2.2399
4.9191 8.0572 2.2394
4.6248 8.2249 2.2389
4.3248 8.3820 2.2383
4.0196 8.5282 2.2378
3.7094 8.6634 2.2372
3.3948 8.7874 2.2366
3.0760 8.9001 2.2361
2.7539 9.0022 2.2357
6.3440 -7.1937 2.2357
6.5965 -6.9602 2.2358
6.8404 -6.7179 2.2360
5.0329 -4.6001 1.5906
7.3011 -6.2079 2.2364
7.5173 -5.9408 2.2366
7.7237 -5.6662 2.2368
7.9205 -5.3846 2.2371
8.1069 -5.0962 2.2374
8.2828 -4.8013 2.2377
8.4479 -4.5003 2.2380
8.5999 -4.1926 2.2378
8.7385 -3.8787 2.2370
8.8749 -3.5641 2.2385
9.0000 -3.2446 2.2401
9.1109 -2.9199 2.2410
9.2063 -2.5903 2.2410
9.2897 -2.2576 2.2410
9.3611 -1.9223 2.2410
9.4203 -1.5847 2.2410
9.2811 -1.2209 2.1969
8.8689 -0.8444 2.0917
9.5249 -0.5631 2.2410
9.5352 -0.2210 2.2410
9.5333 0.1211 2.2410
6.8212 0.3316 1.6059
5.5419 0.4691 1.3084
5.5525 0.6713 1.3162
5.5633 0.8761 1.3259
6.2503 1.2155 1.4996
6.2627 1.4529 1.5147
6.2754 1.6952 1.5321
6.2884 1.9433 1.5519
6.3018 2.1980 1.5742
6.3155 2.4603 1.5993
6.3297 2.7312 1.6272
6.3444 3.0120 1.6583
6.3597 3.3038 1.6928
6.3757 3.6083 1.7311
6.3924 3.9270 1.7733
6.4099 4.2619 1.8201
6.4284 4.6152 1.8718
6.4480 4.9894 1.9290
6.4689 5.3874 1.9924
6.4912 5.8129 2.0628
6.5152 6.2698 2.1412
6.5772 6.8006 2.2410
6.3272 7.0304 2.2410
5.8859 7.0318 2.1733
5.8038 7.4623 2.2410
5.5298 7.6622 2.2405
5.2489 7.8522 2.2400
4.9615 8.0318 2.2395
4.6681 8.2011 2.2389
4.3689 8.3598 2.2384
4.0644 8.5076 2.2378
3.7549 8.6444 2.2373
3.4409 8.7700 2.2367
3.1227 8.8844 2.2361
2.8010 8.9878 2.2357
6.3065 -7.2270 2.2357
6.5602 -6.9948 2.2358
6.8054 -6.7538 2.2360
5.0278 -4.6439 1.5966
5.2116 -4.4784 1.6034
7.4864 -5.9802 2.2365
7.6943 -5.7066 2.2367
7.8924 -5.4261 2.2370
8.0804 -5.1386 2.2373
8.2578 -4.8446 2.2377
8.4245 -4.5445 2.2380
8.5790 -4.2380 2.2380
8.7185 -3.9245 2.2370
8.8557 -3.6102 2.2383
8.9825 -3.2914 2.2399
9.0958 -2.9676 2.2410
9.1931 -2.6386 2.2410
9.2783 -2.3063 2.2410
9.3514 -1.9713 2.2410
9.4125 -1.6341 2.2410
9.2558 -1.2668 2.1923
8.7975 -0.8840 2.0758
9.5224 -0.6129 2.2410
9.5345 -0.2709 2.2410
9.5343 0.0712 2.2410
7.1943 0.3120 1.6932
5.5404 0.4398 1.3074
5.5510 0.6417 1.3150
5.5617 0.8461 1.3243
6.2485 1.1813 1.4976
6.2609 1.4180 1.5124
6.2735 1.6595 1.5294
6.2865 1.9067 1.5488
6.2998 2.1604 1.5708
6.3135 2.4215 1.5955
6.3276 2.6911 1.6230
6.3422 2.9704 1.6536
6.3574 3.2605 1.6876
6.3733 3.5631 1.7252
6.3899 3.8796 1.7669
6.4073 4.2120 1.8130
6.4257 4.5625 1.8639
6.4451 4.9334 1.9203
6.4658 5.3278 1.9828
6.4879 5.7490 2.0521
6.5116 6.2011 2.1293
6.6129 6.7664 2.2410
6.3642 6.9974 2.2410
5.9102 6.9863 2.1687
5.8430 7.4321 2.2410
5.5701 7.6336 2.2406
5.2902 7.8251 2.2401
5.0038 8.0063 2.2396
4.7112 8.1771 2.2390
4.4128 8.3373 2.2385
4.1091 8.4867 2.2379
3.8003 8.6251 2.2374
3.4869 8.7524 2.2368
3.1694 8.8684 2.2362
2.8481 8.9731 2.2357
6.3318 2.7711 1.7968
6.3466 3.0534 1.8315
6.3620 3.3470 1.8700
6.3780 3.6534 1.9126
6.3949 3.9743 1.9598
6.4125 4.3118 2.0120
6.4312 4.6679 2.0697
6.4510 5.0453 2.1336
6.5795 5.5376 2.2410
6.3748 5.7685 2.2410
6.1621 5.9920 2.2410
5.9417 6.2077 2.2410
5.7135 6.4151 2.2410
5.4773 6.6131 2.2405
5.2342 6.8026 2.2401
4.9846 6.9831 2.2396
4.7289 7.1545 2.2391
4.4673 7.3166 2.2387
4.2002 7.4692 2.2382
3.9279 7.6122 2.2377
3.6508 7.7453 2.2372
3.3692 7.8683 2.2367
3.0835 7.9813 2.2361
2.7942 8.0837 2.2357
2.6726 8.7358 2.3881
2.3571 8.8252 2.3881
0.8170 3.5679 0.9570
0.6885 3.5954 0.9572
0.5591 3.6182 0.9573
0.4289 3.6363 0.9575
0.2982 3.6496 0.9576
0.1670 3.6583 0.9577
0.0356 3.6622 0.9578
-0.0959 3.6613 0.9578
-0.2272 3.6557 0.9579
-0.3583 3.6453 0.9579
-0.4889 3.6302 0.9579
-0.6189 3.6104 0.9578
-0.7481 3.5859 0.9578
-0.8763 3.5567 0.9577
-2.5021 8.7857 2.3881
-2.8161 8.6911 2.3881
-3.1266 8.5854 2.3881
-3.4331 8.4688 2.3881
-3.7353 8.3413 2.3881
-4.0329 8.2031 2.3881
-4.3254 8.0544 2.3881
-4.6125 7.8954 2.3881
-4.8937 7.7263 2.3881
-5.1688 7.5473 2.3881
-5.4375 7.3583 2.3881
-5.6993 7.1600 2.3881
-5.9539 6.9525 2.3881
-6.2010 6.7360 2.3881
-6.4403 6.5107 2.3881
-6.6715 6.2771 2.3881
-6.8943 6.0352 2.3881
-7.1083 5.7856 2.3881
-7.3134 5.5283 2.3881
-7.5092 5.2639 2.3881
-7.6955 4.9926 2.3881
-7.8721 4.7147 2.3881
-8.0387 4.4306 2.3881
-8.1951 4.1407 2.3881
-8.3410 3.8453 2.3881
-8.4764 3.5447 2.3881
-8.6010 3.2394 2.3881
-8.7146 2.9298 2.3881
-8.8171 2.6162 2.3881
-8.9084 2.2990 2.3881
-8.9883 1.9786 2.3881
-9.0567 1.6555 2.3881
-9.1135 1.3301 2.3881
-9.1586 1.0027 2.3881
-9.1919 0.6738 2.3881
-9.2135 0.3438 2.3881
-9.2232 0.0131 2.3881
-9.2211 -0.3178 2.3881
-9.2071 -0.6486 2.3881
-9.1812 -0.9787 2.3881
-9.1435 -1.3078 2.3881
-9.0939 -1.6355 2.3881
-9.0326 -1.9612 2.3881
-8.9596 -2.2847 2.3881
-8.8750 -2.6054 2.3881
-8.7789 -2.9230 2.3881
-8.6714 -3.2370 2.3881
-8.5526 -3.5471 2.3881
-8.4227 -3.8527 2.3881
-8.2819 -4.1536 2.3881
-8.1302 -4.4493 2.3881
-7.9680 -4.7395 2.3881
-7.7953 -5.0237 2.3881
-7.6125 -5.3015 2.3881
-7.4197 -5.5727 2.3881
-7.2172 -5.8368 2.3881
-7.0052 -6.0935 2.3881
-6.7841 -6.3424 2.3881
-6.5541 -6.5832 2.3881
-6.3154 -6.8157 2.3881
-6.0685 -7.0394 2.3881
-5.8136 -7.2541 2.3881
-5.5510 -7.4595 2.3881
-5.2812 -7.6554 2.3881
-5.0044 -7.8413 2.3881
-4.7210 -8.0172 2.3881
-4.4313 -8.1827 2.3881
-4.1358 -8.3377 2.3881
-3.8349 -8.4819 2.3881
-3.5289 -8.6152 2.3881
-3.2183 -8.7373 2.3881
-2.9033 -8.8481 2.3881
-2.5846 -8.9474 2.3881
-2.2624 -9.0352 2.3881
-1.9373 -9.1112 2.3881
-1.6096 -9.1755 2.3881
-1.2797 -9.2278 2.3881
-0.9482 -9.2681 2.3881
-0.6154 -9.2964 2.3881
-0.2818 -9.3127 2.3881
0.0522 -9.3168 2.3881
0.3861 -9.3089 2.3881
0.7195 -9.2889 2.3881
1.0520 -9.2568 2.3881
1.3831 -9.2127 2.3881
1.7123 -9.1566 2.3881
2.0392 -9.0887 2.3881
2.3635 -9.0090 2.3881
2.6847 -8.9176 2.3881
3.0022 -8.8147 2.3881
3.3159 -8.7003 2.3881
3.6251 -8.5747 2.3881
3.9296 -8.4380 2.3881
4.2288 -8.2904 2.3881
4.5225 -8.1321 2.3881
4.8103 -7.9633 2.3881
5.0916 -7.7842 2.3881
5.3663 -7.5952 2.3881
5.2744 -6.9243 2.2357
5.5180 -6.7293 2.2357
5.7543 -6.5256 2.2357
5.9831 -6.3135 2.2357
6.2040 -6.0935 2.2357
5.0328 -4.6004 1.7535
6.6243 -5.6329 2.2367
6.8206 -5.3907 2.2369
7.0080 -5.1416 2.2371
7.1863 -4.8860 2.2373
7.3556 -4.6244 2.2376
7.5153 -4.3569 2.2379
7.6615 -4.0819 2.2371
7.7990 -3.8026 2.2366
7.9327 -3.5215 2.2380
8.0562 -3.2358 2.2395
8.1695 -2.9457 2.2409
8.2676 -2.6501 2.2410
8.3545 -2.3512 2.2410
8.4305 -2.0493 2.2410
8.4955 -1.7451 2.2410
8.5496 -1.4388 2.2410
8.5926 -1.1308 2.2410
8.6246 -0.8216 2.2410
8.6454 -0.5116 2.2410
8.6550 -0.2011 2.2410
8.6536 0.1094 2.2410
6.8251 0.3314 1.7701
5.5419 0.4688 1.4413
5.5525 0.6710 1.4499
5.5633 0.8758 1.4605
6.2502 1.2151 1.6518
6.2627 1.4525 1.6683
6.2754 1.6948 1.6874
6.2884 1.9429 1.7092
6.3017 2.1976 1.7337
6.3155 2.4599 1.7613
6.3297 2.7308 1.7920
6.3444 3.0115 1.8262
6.3597 3.3034 1.8641
6.3756 3.6079 1.9062
6.3924 3.9266 1.9526
6.4099 4.2615 2.0040
6.4284 4.6147 2.0609
6.4480 4.9889 2.1239
6.6086 5.5033 2.2410
6.4052 5.7353 2.2410
6.1936 5.9599 2.2410
5.9743 6.1767 2.2410
5.7473 6.3855 2.2410
5.5121 6.5848 2.2406
5.2700 6.7755 2.2401
5.0214 6.9573 2.2397
4.7665 7.1301 2.2392
4.5058 7.2936 2.2387
4.2394 7.4476 2.2382
3.9679 7.5919 2.2378
3.6915 7.7265 2.2372
3.4105 7.8510 2.2367
3.1254 7.9654 2.2362
2.8365 8.0696 2.2357
2.6775 8.5908 2.3522
2.4033 8.8129 2.3881
0.8356 3.5635 0.9570
0.7073 3.5917 0.9572
0.5780 3.6151 0.9573
0.4479 3.6339 0.9575
0.3172 3.6480 0.9576
0.1861 3.6573 0.9577
0.0548 3.6619 0.9578
-0.0767 3.6617 0.9578
-0.2081 3.6568 0.9579
-0.3392 3.6471 0.9579
-0.4699 3.6327 0.9579
-0.6000 3.6136 0.9578
-0.7293 3.5898 0.9578
-0.8576 3.5613 0.9577
-2.4561 8.7985 2.3881
-2.7706 8.7056 2.3881
-3.0815 8.6015 2.3881
-3.3887 8.4865 2.3881
-3.6916 8.3606 2.3881
-3.9898 8.2239 2.3881
-4.2831 8.0768 2.3881
-4.5710 7.9192 2.3881
-4.8531 7.7515 2.3881
-5.1291 7.5739 2.3881
-5.3987 7.3864 2.3881
-5.6615 7.1895 2.3881
-5.9172 6.9833 2.3881
-6.1655 6.7681 2.3881
-6.4059 6.5441 2.3881
-6.6383 6.3116 2.3881
-6.8623 6.0710 2.3881
-7.0777 5.8224 2.3881
-7.2841 5.5663 2.3881
-7.4812 5.3029 2.3881
-7.6690 5.0326 2.3881
-7.8470 4.7556 2.3881
-8.0150 4.4724 2.3881
-8.1729 4.1833 2.3881
-8.3204 3.8887 2.3881
-8.4573 3.5888 2.3881
-8.5835 3.2842 2.3881
-8.6987 2.9752 2.3881
-8.8029 2.6621 2.3881
-8.8958 2.3454 2.3881
-8.9773 2.0255 2.3881
-9.0474 1.7028 2.3881
-9.1059 1.3777 2.3881
-9.1527 1.0505 2.3881
-9.1878 0.7218 2.3881
-9.2111 0.3920 2.3881
-9.2226 0.0613 2.3881
-9.2222 -0.2696 2.3881
-9.2099 -0.6003 2.3881
-9.1857 -0.9306 2.3881
-9.1497 -1.2599 2.3881
-9.1019 -1.5878 2.3881
-9.0423 -1.9139 2.3881
-8.9710 -2.2377 2.3881
-8.8881 -2.5589 2.3881
-8.7936 -2.8769 2.3881
-8.6878 -3.1915 2.3881
-8.5706 -3.5021 2.3881
-8.4424 -3.8085 2.3881
-8.3031 -4.1101 2.3881
-8.1530 -4.4066 2.3881
-7.9923 -4.6976 2.3881
-7.8211 -4.9826 2.3881
-7.6397 -5.2614 2.3881
-7.4484 -5.5336 2.3881
-7.2473 -5.7987 2.3881
-7.0367 -6.0565 2.3881
-6.8169 -6.3066 2.3881
-6.5881 -6.5487 2.3881
-6.3507 -6.7823 2.3881
-6.1050 -7.0074 2.3881
-5.8512 -7.2234 2.3881
-5.5898 -7.4302 2.3881
-5.3210 -7.6274 2.3881
-5.0451 -7.8148 2.3881
-4.7627 -7.9922 2.3881
-4.4739 -8.1593 2.3881
-4.1793 -8.3158 2.3881
-3.8791 -8.4616 2.3881
-3.5738 -8.5965 2.3881
-3.2638 -8.7202 2.3881
-2.9495 -8.8327 2.3881
-2.6313 -8.9337 2.3881
-2.3096 -9.0231 2.3881
-1.9848 -9.1009 2.3881
-1.6575 -9.1668 2.3881
-1.3279 -9.2209 2.3881
-0.9966 -9.2630 2.3881
-0.6639 -9.2930 2.3881
-0.3304 -9.3111 2.3881
0.0035 -9.3170 2.3881
0.3375 -9.3108 2.3881
0.6710 -9.2925 2.3881
1.0036 -9.2622 2.3881
1.3349 -9.2199 2.3881
1.6644 -9.1656 2.3881
1.9917 -9.0994 2.3881
2.3164 -9.0214 2.3881
2.6380 -8.9317 2.3881
2.9562 -8.8304 2.3881
3.2704 -8.7177 2.3881
3.5803 -8.5937 2.3881
3.8855 -8.4586 2.3881
4.1855 -8.3126 2.3881
4.4801 -8.1558 2.3881
4.7687 -7.9885 2.3881
5.0510 -7.8110 2.3881
5.3267 -7.6233 2.3881
5.2383 -6.9520 2.2357
5.4829 -6.7582 2.2357
5.7203 -6.5558 2.2357
5.9502 -6.3450 2.2357
6.1723 -6.1260 2.2357
5.0279 -4.6444 1.7601
5.2109 -4.4782 1.7673
6.7925 -5.4264 2.2369
6.9812 -5.1783 2.2371
7.1609 -4.9236 2.2373
7.3315 -4.6629 2.2375
7.4926 -4.3962 2.2378
7.6407 -4.1222 2.2371
7.7791 -3.8433 2.2366
7.9138 -3.5628 2.2378
8.0389 -3.2777 2.2392
8.1536 -2.9883 2.2407
8.2541 -2.6935 2.2410
8.3425 -2.3949 2.2410
8.4201 -2.0935 2.2410
8.4867 -1.7896 2.2410
8.5424 -1.4835 2.2410
8.5871 -1.1758 2.2410
8.6206 -0.8668 2.2410
8.6431 -0.5568 2.2410
8.6543 -0.2464 2.2410
8.6545 0.0641 2.2410
7.1987 0.3118 1.8664
5.5404 0.4395 1.4402
5.5510 0.6414 1.4485
5.5617 0.8458 1.4588
6.2485 1.1809 1.6496
6.2609 1.4176 1.6658
6.2735 1.6591 1.6845
6.2865 1.9063 1.7058
6.2998 2.1600 1.7300
6.3135 2.4211 1.7571
6.3276 2.6907 1.7873
6.3422 2.9700 1.8210
6.3574 3.2601 1.8584
6.3733 3.5626 1.8998
6.3899 3.8792 1.9456
6.4073 4.2116 1.9962
6.4257 4.5620 2.0523
6.4451 4.9329 2.1143
6.4658 5.3273 2.1830
6.4353 5.7020 2.2410
6.2250 5.9276 2.2410
6.0067 6.1456 2.2410
5.7809 6.3556 2.2410
5.5468 6.5563 2.2406
5.3057 6.7483 2.2402
5.0580 6.9314 2.2397
4.8041 7.1055 2.2393
4.5441 7.2703 2.2388
4.2786 7.4257 2.2383
4.0078 7.5715 2.2378
3.7320 7.7075 2.2373
3.4517 7.8335 2.2368
3.1672 7.9494 2.2363
2.8789 8.0550 2.2358
2.6772 8.4343 2.3131
2.4494 8.8004 2.3881
0.8542 3.5590 0.9569
0.7261 3.5878 0.9571
0.5969 3.6120 0.9573
0.4669 3.6315 0.9575
0.3363 3.6462 0.9576
0.2053 3.6562 0.9577
0.0739 3.6615 0.9578
-0.0575 3.6621 0.9578
-0.1889 3.6578 0.9579
-0.3201 3.6488 0.9579
-0.4509 3.6351 0.9579
-0.5811 3.6167 0.9579
-0.7105 3.5935 0.9578
-0.8390 3.5657 0.9577
-2.4100 8.8111 2.3881
-2.7249 8.7198 2.3881
-3.0364 8.6174 2.3881
-3.3442 8.5039 2.3881
-3.6477 8.3796 2.3881
-3.9467 8.2445 2.3881
-4.2407 8.0989 2.3881
-4.5294 7.9428 2.3881
-4.8124 7.7766 2.3881
-5.0893 7.6004 2.3881
-5.3599 7.4144 2.3881
-5.6237 7.2188 2.3881
-5.8804 7.0139 2.3881
-6.1298 6.8000 2.3881
-6.3714 6.5773 2.3881
-6.6050 6.3460 2.3881
-6.8302 6.1065 2.3881
-7.0468 5.8591 2.3881
-7.2545 5.6041 2.3881
-7.4531 5.3417 2.3881
-7.6422 5.0724 2.3881
-7.8216 4.7964 2.3881
-7.9912 4.5141 2.3881
-8.1506 4.2256 2.3881
-8.2996 3.9320 2.3881
-8.4381 3.6328 2.3881
-8.5658 3.3289 2.3881
-8.6826 3.0205 2.3881
-8.7884 2.7080 2.3881
-8.8830 2.3918 2.3881
-8.9662 2.0723 2.3881
6.3318 2.7707 1.9639
6.3466 3.0529 2.0018
6.3620 3.3465 2.0438
6.3780 3.6530 2.0904
6.3948 3.9739 2.1419
6.5355 4.3940 2.2410
6.3719 4.6244 2.2410
6.2003 4.8488 2.2410
6.0207 5.0668 2.2410
5.8336 5.2783 2.2410
5.6387 5.4827 2.2409
5.4362 5.6790 2.2405
5.2268 5.8682 2.2401
5.0109 6.0496 2.2397
4.7887 6.2230 2.2393
4.5605 6.3884 2.2389
4.3267 6.5455 2.2385
4.0875 6.6940 2.2380
3.8432 6.8339 2.2376
3.5941 6.9649 2.2371
3.3407 7.0869 2.2367
3.0831 7.1998 2.2362
2.8218 7.3033 2.2357
2.6399 7.6372 2.3077
2.4462 7.9954 2.3881
0.8632 3.2316 0.9554
0.7467 3.2608 0.9556
0.6293 3.2859 0.9558
0.5110 3.3067 0.9559
0.3920 3.3232 0.9561
0.2725 3.3354 0.9562
0.1526 3.3433 0.9563
0.0325 3.3468 0.9563
-0.0876 3.3460 0.9564
-0.2077 3.3409 0.9564
-0.3274 3.3314 0.9564
-0.4468 3.3176 0.9564
-0.5656 3.2995 0.9564
-0.6837 3.2771 0.9563
-0.8008 3.2504 0.9563
-2.2902 8.0411 2.3881
-2.5776 7.9545 2.3881
-2.8617 7.8577 2.3881
-3.1423 7.7508 2.3881
-3.4188 7.6341 2.3881
-3.6911 7.5075 2.3881
-3.9588 7.3713 2.3881
-4.2215 7.2257 2.3881
-4.4788 7.0707 2.3881
-4.7306 6.9067 2.3881
-4.9763 6.7338 2.3881
-5.2158 6.5524 2.3881
-5.4487 6.3623 2.3881
-5.6748 6.1639 2.3881
-5.8937 5.9576 2.3881
-6.1051 5.7437 2.3881
-6.3088 5.5223 2.3881
-6.5046 5.2937 2.3881
-6.6921 5.0582 2.3881
-6.8711 4.8161 2.3881
-7.0414 4.5677 2.3881
-7.2028 4.3134 2.3881
-7.3551 4.0533 2.3881
-7.4980 3.7880 2.3881
-7.6313 3.5176 2.3881
-7.7550 3.2425 2.3881
-7.8687 2.9631 2.3881
-7.9725 2.6798 2.3881
-8.0660 2.3928 2.3881
-8.1493 2.1026 2.3881
-8.2221 1.8095 2.3881
-8.2845 1.5139 2.3881
-8.3362 1.2161 2.3881
-8.3772 0.9167 2.3881
-8.4075 0.6158 2.3881
-8.4270 0.3139 2.3881
-8.4356 0.0115 2.3881
-8.4334 -0.2912 2.3881
-8.4204 -0.5936 2.3881
-8.3964 -0.8955 2.3881
-8.3617 -1.1965 2.3881
-8.3162 -1.4961 2.3881
-8.2599 -1.7939 2.3881
-8.1929 -2.0897 2.3881
-8.1153 -2.3829 2.3881
-8.0272 -2.6732 2.3881
-7.9287 -2.9603 2.3881
-7.8199 -3.2437 2.3881
-7.7009 -3.5231 2.3881
-7.5719 -3.7981 2.3881
-7.4331 -4.0683 2.3881
-7.2845 -4.3335 2.3881
-7.1265 -4.5931 2.3881
-6.9592 -4.8470 2.3881
-6.7828 -5.0948 2.3881
-6.5975 -5.3361 2.3881
-6.4036 -5.5706 2.3881
-6.2013 -5.7981 2.3881
-5.9909 -6.0181 2.3881
-5.7727 -6.2305 2.3881
-5.5469 -6.4348 2.3881
-5.3138 -6.6310 2.3881
-5.0737 -6.8186 2.3881
-4.8270 -6.9974 2.3881
-4.5739 -7.1673 2.3881
-4.3148 -7.3279 2.3881
-4.0500 -7.4791 2.3881
-3.7799 -7.6207 2.3881
-3.5048 -7.7524 2.3881
-3.2251 -7.8741 2.3881
-2.9412 -7.9856 2.3881
-2.6534 -8.0868 2.3881
-2.3620 -8.1775 2.3881
-2.0676 -8.2576 2.3881
-1.7704 -8.3271 2.3881
-1.4709 -8.3857 2.3881
-1.1695 -8.4335 2.3881
-0.8665 -8.4703 2.3881
-0.5624 -8.4962 2.3881
-0.2575 -8.5110 2.3881
0.0477 -8.5148 2.3881
0.3529 -8.5075 2.3881
0.6576 -8.4893 2.3881
0.9614 -8.4600 2.3881
1.2639 -8.4197 2.3881
1.5648 -8.3685 2.3881
1.8636 -8.3065 2.3881
2.1600 -8.2337 2.3881
2.4535 -8.1503 2.3881
2.7438 -8.0562 2.3881
3.0304 -7.9518 2.3881
3.3131 -7.8371 2.3881
3.5913 -7.7123 2.3881
3.8649 -7.5775 2.3881
4.1334 -7.4329 2.3881
4.3964 -7.2787 2.3881
4.6537 -7.1152 2.3881
4.5918 -6.4994 2.2357
4.8209 -6.3294 2.2357
5.0436 -6.1512 2.2357
5.2597 -5.9652 2.2357
5.4689 -5.7715 2.2357
5.6710 -5.5704 2.2357
5.0327 -4.6007 1.9182
6.0526 -5.1472 2.2357
6.2316 -4.9256 2.2357
6.4024 -4.6978 2.2357
6.5650 -4.4640 2.2357
6.7250 -4.2284 2.2377
6.8663 -3.9811 2.2364
7.0025 -3.7312 2.2364
7.1337 -3.4787 2.2376
7.2557 -3.2215 2.2389
7.3685 -2.9601 2.2402
7.4704 -2.6941 2.2410
7.5598 -2.4237 2.2410
7.6394 -2.1504 2.2410
7.7091 -1.8744 2.2410
7.7688 -1.5963 2.2410
7.8185 -1.3162 2.2410
7.8580 -1.0346 2.2410
7.8875 -0.7519 2.2410
7.9067 -0.4684 2.2410
7.9158 -0.1844 2.2410
7.9147 0.0996 2.2410
6.8291 0.3312 1.9364
5.5419 0.4685 1.5757
5.5525 0.6707 1.5851
5.5632 0.8754 1.5966
6.2502 1.2148 1.8057
6.2627 1.4521 1.8238
6.2754 1.6944 1.8446
6.2884 1.9425 1.8683
6.3017 2.1972 1.8951
6.3155 2.4595 1.9251
6.3297 2.7304 1.9587
6.3444 3.0111 1.9960
6.3597 3.3030 2.0374
6.3756 3.6074 2.0833
6.3923 3.9261 2.1340
6.4099 4.2610 2.1902
6.3963 4.5912 2.2410
6.2258 4.8165 2.2410
6.0474 5.0355 2.2410
5.8613 5.2479 2.2410
5.6677 5.4533 2.2410
5.4661 5.6509 2.2406
5.2577 5.8411 2.2402
5.0427 6.0236 2.2398
4.8214 6.1983 2.2394
4.5941 6.3648 2.2390
4.3611 6.5231 2.2385
4.1226 6.6729 2.2381
3.8791 6.8141 2.2377
3.6307 6.9464 2.2372
3.3779 7.0697 2.2367
3.1209 7.1839 2.2363
2.8601 7.2888 2.2358
2.6402 7.5104 2.2735
2.4881 7.9826 2.3881
0.8800 3.2269 0.9554
0.7638 3.2568 0.9556
0.6464 3.2825 0.9558
0.5283 3.3039 0.9559
0.4094 3.3211 0.9560
0.2899 3.3339 0.9562
0.1701 3.3424 0.9562
0.0500 3.3466 0.9563
-0.0701 3.3464 0.9564
-0.1902 3.3419 0.9564
-0.3100 3.3330 0.9564
-0.4294 3.3199 0.9564
-0.5483 3.3024 0.9564
-0.6665 3.2806 0.9563
-0.7838 3.2546 0.9563
-0.9001 3.2243 0.9562
-2.5359 7.9677 2.3881
-2.8205 7.8724 2.3881
-3.1016 7.7670 2.3881
-3.3788 7.6517 2.3881
-3.6517 7.5265 2.3881
-3.9201 7.3918 2.3881
-4.1835 7.2475 2.3881
-4.4417 7.0939 2.3881
-4.6942 6.9312 2.3881
-4.9409 6.7595 2.3881
-5.1813 6.5792 2.3881
-5.4152 6.3905 2.3881
-5.6423 6.1933 2.3881
-5.8622 5.9882 2.3881
-6.0748 5.7753 2.3881
-6.2796 5.5550 2.3881
-6.4765 5.3274 2.3881
-6.6653 5.0929 2.3881
-6.8455 4.8518 2.3881
-7.0172 4.6043 2.3881
-7.1798 4.3508 2.3881
-7.3334 4.0916 2.3881
-7.4777 3.8270 2.3881
-7.6125 3.5573 2.3881
-7.7375 3.2829 2.3881
-7.8528 3.0041 2.3881
-7.9580 2.7213 2.3881
-8.0530 2.4348 2.3881
-8.1378 2.1451 2.3881
-8.2122 1.8524 2.3881
-8.2760 1.5571 2.3881
-8.3293 1.2597 2.3881
-8.3719 0.9604 2.3881
-8.4037 0.6597 2.3881
-8.4248 0.3580 2.3881
-8.4350 0.0556 2.3881
-8.4344 -0.2470 2.3881
-8.4229 -0.5496 2.3881
-8.4006 -0.8516 2.3881
-8.3674 -1.1527 2.3881
-8.3235 -1.4525 2.3881
-8.2687 -1.7506 2.3881
-8.2033 -2.0467 2.3881
-8.1273 -2.3403 2.3881
-8.0407 -2.6311 2.3881
-7.9437 -2.9186 2.3881
-7.8364 -3.2026 2.3881
-7.7189 -3.4826 2.3881
-7.5913 -3.7583 2.3881
-7.4539 -4.0292 2.3881
-7.3068 -4.2951 2.3881
-7.1501 -4.5557 2.3881
-6.9841 -4.8104 2.3881
-6.8090 -5.0591 2.3881
-6.6250 -5.3014 2.3881
-6.4324 -5.5369 2.3881
-6.2313 -5.7654 2.3881
-6.0221 -5.9865 2.3881
-5.8050 -6.2000 2.3881
-5.5802 -6.4056 2.3881
-5.3482 -6.6029 2.3881
-5.1091 -6.7918 2.3881
-4.8633 -6.9719 2.3881
-4.6112 -7.1431 2.3881
-4.3529 -7.3051 2.3881
-4.0889 -7.4577 2.3881
-3.8196 -7.6007 2.3881
-3.5452 -7.7338 2.3881
-3.2662 -7.8570 2.3881
-2.9828 -7.9700 2.3881
-2.6955 -8.0727 2.3881
-2.4047 -8.1649 2.3881
-2.1107 -8.2466 2.3881
-1.8139 -8.3176 2.3881
-1.5147 -8.3778 2.3881
-1.2135 -8.4272 2.3881
-0.9107 -8.4656 2.3881
-0.6068 -8.4931 2.3881
-0.3020 -8.5095 2.3881
0.0032 -8.5149 2.3881
0.3084 -8.5093 2.3881
0.6132 -8.4926 2.3881
0.9172 -8.4649 2.3881
1.2199 -8.4263 2.3881
1.5211 -8.3767 2.3881
1.8202 -8.3162 2.3881
2.1170 -8.2450 2.3881
2.4109 -8.1631 2.3881
2.7017 -8.0706 2.3881
2.9889 -7.9677 2.3881
3.2721 -7.8545 2.3881
3.5511 -7.7311 2.3881
3.8253 -7.5977 2.3881
4.0946 -7.4545 2.3881
4.3584 -7.3018 2.3881
4.6165 -7.1396 2.3881
4.5579 -6.5235 2.2357
4.7879 -6.3547 2.2357
5.0115 -6.1777 2.2357
5.2287 -5.9928 2.2357
5.4389 -5.8002 2.2357
5.6420 -5.6002 2.2357
5.0280 -4.6449 1.9256
5.2102 -4.4779 1.9331
6.2060 -4.9583 2.2357
6.3781 -4.7314 2.2357
6.5418 -4.4984 2.2357
6.7030 -4.2636 2.2377
6.8458 -4.0172 2.2365
6.9826 -3.7676 2.2362
7.1151 -3.5158 2.2375
7.2385 -3.2593 2.2387
7.3527 -2.9984 2.2400
7.4564 -2.7332 2.2410
7.5473 -2.4633 2.2410
7.6284 -2.1904 2.2410
7.6995 -1.9148 2.2410
7.7607 -1.6369 2.2410
7.8119 -1.3571 2.2410
7.8529 -1.0757 2.2410
7.8838 -0.7932 2.2410
7.9046 -0.5097 2.2410
7.9151 -0.2258 2.2410
7.9155 0.0582 2.2410
7.2032 0.3116 2.0419
5.5404 0.4392 1.5745
5.5510 0.6411 1.5836
5.5617 0.8454 1.5948
6.2484 1.1805 1.8033
6.2608 1.4172 1.8210
6.2735 1.6587 1.8414
6.2865 1.9059 1.8647
6.2997 2.1596 1.8910
6.3134 2.4207 1.9205
6.3276 2.6903 1.9536
6.3422 2.9696 1.9903
6.3574 3.2597 2.0311
6.3733 3.5622 2.0763
6.3898 3.8787 2.1263
6.4073 4.2111 2.1816
6.4205 4.5579 2.2410
6.2511 4.7840 2.2410
6.0739 5.0039 2.2410
5.8889 5.2174 2.2410
5.6964 5.4239 2.2410
5.4959 5.6226 2.2406
5.2885 5.8139 2.2402
5.0745 5.9975 2.2399
4.8541 6.1733 2.2394
4.6276 6.3411 2.2390
4.3954 6.5006 2.2386
4.1577 6.6516 2.2382
3.9149 6.7941 2.2377
3.6672 6.9277 2.2373
3.4150 7.0523 2.2368
3.1586 7.1678 2.2363
2.8984 7.2741 2.2359
2.6454 7.4016 2.2446
2.5298 7.9696 2.3881
0.8969 3.2222 0.9554
0.7808 3.2527 0.9556
0.6636 3.2790 0.9557
0.5455 3.3011 0.9559
0.4267 3.3188 0.9560
0.3074 3.3323 0.9561
0.1876 3.3414 0.9562
0.0676 3.3462 0.9563
-0.0526 3.3467 0.9564
-0.1727 3.3428 0.9564
-0.2926 3.3346 0.9564
-0.4121 3.3220 0.9564
-0.5310 3.3052 0.9564
-0.6493 3.2840 0.9563
-0.7668 3.2586 0.9563
-0.8832 3.2290 0.9562
-2.4941 7.9808 2.3881
-2.7792 7.8869 2.3881
-3.0609 7.7830 2.3881
-3.3386 7.6691 2.3881
-3.6122 7.5454 2.3881
-3.8813 7.4120 2.3881
-4.1454 7.2691 2.3881
-4.4044 7.1168 2.3881
-4.6578 6.9554 2.3881
-4.9053 6.7851 2.3881
-5.1467 6.6060 2.3881
-5.3815 6.4185 2.3881
-5.6096 6.2225 2.3881
-5.8306 6.0186 2.3881
-6.0443 5.8068 2.3881
-6.2503 5.5876 2.3881
-6.4484 5.3610 2.3881
-6.6383 5.1275 2.3881
-6.8198 4.8873 2.3881
-6.9927 4.6408 2.3881
-7.1567 4.3881 2.3881
-7.3116 4.1297 2.3881
-7.4573 3.8659 2.3881
-7.5934 3.5969 2.3881
-7.7199 3.3232 2.3881
-7.8366 3.0450 2.3881
-7.9433 2.7628 2.3881
-8.0398 2.4768 2.3881
-8.1261 2.1875 2.3881
-8.2020 1.8952 2.3881
6.3317 2.7702 2.1332
6.3465 3.0525 2.1743
6.4225 3.3780 2.2410
6.2955 3.6053 2.2410
6.1604 3.8278 2.2410
6.0176 4.0453 2.2410
5.8670 4.2576 2.2410
5.7091 4.4642 2.2410
5.5433 4.6646 2.2408
5.3703 4.8587 2.2405
5.1905 5.0464 2.2401
5.0042 5.2274 2.2398
4.8116 5.4017 2.2394
4.6130 5.5688 2.2391
4.4086 5.7287 2.2387
4.1987 5.8811 2.2383
3.9835 6.0259 2.2379
3.7634 6.1628 2.2375
3.5386 6.2918 2.2371
3.3094 6.4126 2.2367
3.0761 6.5251 2.2363
2.8390 6.6292 2.2358
2.6121 6.7596 2.2472
2.5160 7.2784 2.3881
0.9001 2.9417 0.9541
0.7940 2.9724 0.9543
0.6869 2.9993 0.9544
0.5788 3.0224 0.9546
0.4700 3.0415 0.9547
0.3606 3.0566 0.9548
0.2507 3.0678 0.9549
0.1404 3.0751 0.9550
0.0299 3.0783 0.9551
-0.0806 3.0776 0.9551
-0.1910 3.0728 0.9552
-0.3012 3.0641 0.9552
-0.4110 3.0514 0.9552
-0.5203 3.0347 0.9551
-0.6288 3.0141 0.9551
-0.7366 2.9896 0.9550
-0.8434 2.9612 0.9549
-2.3739 7.3255 2.3881
-2.6356 7.2363 2.3881
-2.8939 7.1378 2.3881
-3.1486 7.0302 2.3881
-3.3994 6.9136 2.3881
-3.6458 6.7881 2.3881
-3.8877 6.6539 2.3881
-4.1247 6.5111 2.3881
-4.3564 6.3600 2.3881
-4.5827 6.2007 2.3881
-4.8032 6.0333 2.3881
-5.0176 5.8582 2.3881
-5.2257 5.6756 2.3881
-5.4271 5.4856 2.3881
-5.6217 5.2884 2.3881
-5.8092 5.0845 2.3881
-5.9893 4.8739 2.3881
-6.1619 4.6570 2.3881
-6.3266 4.4340 2.3881
-6.4833 4.2052 2.3881
-6.6317 3.9709 2.3881
-6.7718 3.7314 2.3881
-6.9032 3.4870 2.3881
-7.0258 3.2380 2.3881
-7.1395 2.9847 2.3881
-7.2441 2.7274 2.3881
-7.3394 2.4665 2.3881
-7.4254 2.2023 2.3881
-7.5018 1.9351 2.3881
-7.5687 1.6652 2.3881
-7.6259 1.3931 2.3881
-7.6733 1.1190 2.3881
-7.7109 0.8433 2.3881
-7.7386 0.5663 2.3881
-7.7563 0.2885 2.3881
-7.7641 0.0101 2.3881
-7.7619 -0.2684 2.3881
-7.7497 -0.5468 2.3881
-7.7275 -0.8247 2.3881
-7.6953 -1.1016 2.3881
-7.6532 -1.3773 2.3881
-7.6012 -1.6514 2.3881
-7.5394 -1.9235 2.3881
-7.4678 -2.1932 2.3881
-7.3866 -2.4603 2.3881
-7.2957 -2.7244 2.3881
-7.1954 -2.9851 2.3881
-7.0858 -3.2421 2.3881
-6.9670 -3.4951 2.3881
-6.8391 -3.7437 2.3881
-6.7023 -3.9875 2.3881
-6.5567 -4.2264 2.3881
-6.4027 -4.4599 2.3881
-6.2402 -4.6878 2.3881
-6.0697 -4.9097 2.3881
-5.8912 -5.1253 2.3881
-5.7049 -5.3345 2.3881
-5.5113 -5.5368 2.3881
-5.3104 -5.7320 2.3881
-5.1026 -5.9199 2.3881
-4.8881 -6.1003 2.3881
-4.6672 -6.2728 2.3881
-4.4402 -6.4372 2.3881
-4.2073 -6.5934 2.3881
-3.9689 -6.7410 2.3881
-3.7253 -6.8800 2.3881
-3.4768 -7.0101 2.3881
-3.2238 -7.1312 2.3881
-2.9665 -7.2431 2.3881
-2.7053 -7.3456 2.3881
-2.4405 -7.4386 2.3881
-2.1726 -7.5220 2.3881
-1.9017 -7.5956 2.3881
-1.6284 -7.6594 2.3881
-1.3529 -7.7133 2.3881
-1.0756 -7.7573 2.3881
-0.7970 -7.7911 2.3881
-0.5172 -7.8149 2.3881
-0.2368 -7.8285 2.3881
0.0439 -7.8320 2.3881
0.3246 -7.8253 2.3881
0.6048 -7.8085 2.3881
0.8842 -7.7816 2.3881
1.1625 -7.7446 2.3881
1.4393 -7.6976 2.3881
1.7141 -7.6405 2.3881
1.9867 -7.5736 2.3881
2.2567 -7.4969 2.3881
2.5237 -7.4105 2.3881
2.7874 -7.3145 2.3881
3.0474 -7.2091 2.3881
3.3034 -7.0943 2.3881
3.5551 -6.9704 2.3881
3.8020 -6.8375 2.3881
4.0440 -6.6958 2.3881
4.0075 -6.1277 2.2357
4.2239 -5.9791 2.2357
4.4347 -5.8228 2.2357
4.6396 -5.6590 2.2357
4.8385 -5.4879 2.2357
5.0311 -5.3098 2.2357
5.2170 -5.1249 2.2357
5.0326 -4.6011 2.0850
5.5682 -4.7358 2.2357
5.7330 -4.5320 2.2357
5.8904 -4.3225 2.2357
6.0400 -4.1075 2.2357
6.1822 -3.8875 2.2358
6.3169 -3.6630 2.2362
6.4457 -3.4350 2.2373
6.5663 -3.2024 2.2385
6.6785 -2.9656 2.2397
6.7822 -2.7249 2.2409
6.8741 -2.4795 2.2410
6.9565 -2.2307 2.2410
7.0299 -1.9793 2.2410
7.0942 -1.7254 2.2410
7.1494 -1.4694 2.2410
7.1952 -1.2117 2.2410
7.2318 -0.9526 2.2410
7.2591 -0.6924 2.2410
7.2770 -0.4315 2.2410
7.2855 -0.1702 2.2410
7.2847 0.0912 2.2410
6.8331 0.3309 2.1051
5.5419 0.4681 1.7119
5.5525 0.6703 1.7220
5.5632 0.8751 1.7345
6.2502 1.2144 1.9616
6.2626 1.4517 1.9812
6.2753 1.6940 2.0038
6.2883 1.9421 2.0295
6.3017 2.1968 2.0585
6.3154 2.4591 2.0911
6.3296 2.7300 2.1275
6.3443 3.0107 2.1680
6.4404 3.3445 2.2410
6.3145 3.5724 2.2410
6.1806 3.7957 2.2410
6.0389 4.0139 2.2410
5.8895 4.2270 2.2410
5.7326 4.4345 2.2410
5.5679 4.6358 2.2408
5.3959 4.8308 2.2405
5.2172 5.0194 2.2402
5.0318 5.2015 2.2398
4.8401 5.3767 2.2395
4.6423 5.5449 2.2391
4.4387 5.7059 2.2387
4.2296 5.8594 2.2384
4.0152 6.0053 2.2380
3.7957 6.1434 2.2376
3.5716 6.2735 2.2372
3.3430 6.3955 2.2367
3.1103 6.5092 2.2363
2.8738 6.6145 2.2359
2.6340 6.7122 2.2357
2.5541 7.2652 2.3881
0.9154 2.9369 0.9540
0.8095 2.9682 0.9542
0.7026 2.9957 0.9544
0.5946 3.0193 0.9546
0.4859 3.0389 0.9547
0.3766 3.0547 0.9548
0.2667 3.0665 0.9549
0.1565 3.0743 0.9550
0.0460 3.0781 0.9551
-0.0645 3.0779 0.9551
-0.1749 3.0737 0.9552
-0.2852 3.0656 0.9552
-0.3950 3.0535 0.9552
-0.5044 3.0374 0.9551
-0.6131 3.0173 0.9551
-0.7210 2.9934 0.9550
-0.8279 2.9656 0.9550
-2.3355 7.3377 2.3881
-2.5976 7.2499 2.3881
-2.8565 7.1528 2.3881
-3.1118 7.0465 2.3881
-3.3631 6.9312 2.3881
-3.6102 6.8070 2.3881
-3.8528 6.6740 2.3881
-4.0904 6.5325 2.3881
-4.3230 6.3825 2.3881
-4.5501 6.2244 2.3881
-4.7714 6.0582 2.3881
-4.9867 5.8842 2.3881
-5.1957 5.7027 2.3881
-5.3982 5.5137 2.3881
-5.5938 5.3177 2.3881
-5.7823 5.1146 2.3881
-5.9636 4.9050 2.3881
-6.1372 4.6890 2.3881
-6.3031 4.4669 2.3881
-6.4610 4.2389 2.3881
-6.6106 4.0054 2.3881
-6.7519 3.7666 2.3881
-6.8846 3.5229 2.3881
-7.0085 3.2746 2.3881
-7.1235 3.0219 2.3881
-7.2294 2.7652 2.3881
-7.3261 2.5048 2.3881
-7.4134 2.2410 2.3881
-7.4913 1.9742 2.3881
-7.5596 1.7047 2.3881
-7.6182 1.4329 2.3881
-7.6670 1.1590 2.3881
-7.7060 0.8836 2.3881
-7.7352 0.6068 2.3881
-7.7544 0.3290 2.3881
-7.7636 0.0507 2.3881
-7.7628 -0.2278 2.3881
-7.7521 -0.5063 2.3881
