ply
format ascii 1.0
element vertex 2174
property float32 x
property float32 y
property float32 z
end_header
-2.1071 -8.9862 2.3874
-1.7831 -9.0562 2.3874
-1.4567 -9.1146 2.3874
-1.1285 -9.1611 2.3874
-0.7987 -9.1958 2.3874
-0.4680 -9.2187 2.3874
-0.1366 -9.2296 2.3874
0.1950 -9.2286 2.3874
0.5263 -9.2157 2.3874
0.8569 -9.1909 2.3874
1.1864 -9.1542 2.3874
1.5144 -9.1057 2.3874
1.8405 -9.0455 2.3874
2.1641 -8.9735 2.3874
2.4850 -8.8900 2.3874
2.8027 -8.7950 2.3874
3.1167 -8.6886 2.3874
3.4267 -8.5710 2.3874
3.7323 -8.4423 2.3874
4.0330 -8.3027 2.3874
4.3285 -8.1525 2.3874
4.6185 -7.9916 2.3874
4.9024 -7.8205 2.3874
5.1800 -7.6393 2.3874
5.4510 -7.4482 2.3874
5.7148 -7.2475 2.3874
5.9713 -7.0374 2.3874
6.2201 -6.8183 2.3874
6.4608 -6.5904 2.3874
6.6932 -6.3540 2.3874
6.9169 -6.1093 2.3874
7.1317 -5.8568 2.3874
7.3372 -5.5968 2.3874
7.5333 -5.3295 2.3874
7.7196 -5.0554 2.3874
7.8959 -4.7747 2.3874
8.0621 -4.4879 2.3874
8.2178 -4.1954 2.3874
8.3629 -3.8974 2.3874
8.4972 -3.5944 2.3874
8.6205 -3.2868 2.3874
8.7327 -2.9750 2.3874
8.8336 -2.6594 2.3874
8.9231 -2.3403 2.3874
9.0011 -2.0182 2.3874
9.0674 -1.6936 2.3874
9.1221 -1.3668 2.3874
9.1649 -1.0383 2.3874
9.1960 -0.7084 2.3874
9.2151 -0.3777 2.3874
9.2224 -0.0465 2.3874
9.2177 0.2848 2.3874
9.2012 0.6157 2.3874
9.1728 0.9457 2.3874
9.1325 1.2745 2.3874
9.0805 1.6016 2.3874
9.0168 1.9266 2.3874
8.9414 2.2492 2.3874
8.8545 2.5687 2.3874
8.7562 2.8850 2.3874
8.6466 3.1975 2.3874
8.5259 3.5058 2.3874
8.3941 3.8097 2.3874
8.2516 4.1085 2.3874
8.0984 4.4021 2.3874
7.9347 4.6899 2.3874
7.7609 4.9717 2.3874
7.5770 5.2471 2.3874
7.3834 5.5156 2.3874
7.1803 5.7770 2.3874
6.9679 6.0310 2.3874
6.7466 6.2772 2.3874
6.5166 6.5152 2.3874
6.2782 6.7449 2.3874
6.0317 6.9658 2.3874
5.7774 7.1777 2.3874
5.5157 7.3804 2.3874
5.2469 7.5735 2.3874
4.9714 7.7569 2.3874
4.6894 7.9302 2.3874
4.4015 8.0933 2.3874
4.1078 8.2460 2.3874
3.8089 8.3880 2.3874
3.5051 8.5192 2.3874
3.1968 8.6395 2.3874
2.8843 8.7485 2.3874
2.5682 8.8463 2.3874
0.8943 3.5524 0.9494
0.7662 3.5827 0.9496
0.6371 3.6083 0.9497
0.5072 3.6293 0.9498
0.3765 3.6455 0.9499
0.2453 3.6570 0.9500
0.1138 3.6637 0.9501
-0.0178 3.6657 0.9502
-0.1495 3.6629 0.9502
-0.2810 3.6553 0.9503
-0.4121 3.6430 0.9503
-0.5427 3.6259 0.9503
-0.6726 3.6041 0.9503
-0.8016 3.5777 0.9503
-2.3353 8.9096 2.3874
-2.6538 8.8200 2.3874
-2.9689 8.7190 2.3874
-3.2802 8.6068 2.3874
-3.5873 8.4835 2.3874
-3.8897 8.3493 2.3874
-4.1871 8.2043 2.3874
-4.4792 8.0487 2.3874
-4.7654 7.8827 2.3874
-5.0456 7.7066 2.3874
-5.3192 7.5205 2.3874
-5.5860 7.3247 2.3874
-5.8456 7.1195 2.3874
-6.0977 6.9051 2.3874
-6.3419 6.6817 2.3874
-6.5779 6.4498 2.3874
-6.8055 6.2095 2.3874
-7.0243 5.9612 2.3874
-7.2341 5.7052 2.3874
-7.4345 5.4418 2.3874
-7.6254 5.1714 2.3874
-7.8065 4.8943 2.3874
-7.9774 4.6109 2.3874
-8.1381 4.3216 2.3874
-8.2884 4.0266 2.3874
-8.4279 3.7264 2.3874
-8.5566 3.4214 2.3874
-8.6743 3.1120 2.3874
-8.7808 2.7985 2.3874
-8.8759 2.4814 2.3874
-8.9596 2.1611 2.3874
-9.0318 1.8380 2.3874
-9.0923 1.5125 2.3874
-9.1411 1.1850 2.3874
-9.1781 0.8559 2.3874
-9.2033 0.5257 2.3874
-9.2166 0.1948 2.3874
-9.2180 -0.1363 2.3874
-9.2075 -0.4673 2.3874
-9.1852 -0.7978 2.3874
-9.1510 -1.1272 2.3874
-9.1049 -1.4552 2.3874
-9.0471 -1.7813 2.3874
-8.1809 2.0330 2.3874
-8.2489 1.7380 2.3874
-8.3063 1.4406 2.3874
-8.3530 1.1414 2.3874
-8.3889 0.8407 2.3874
-8.4140 0.5388 2.3874
-8.4282 0.2363 2.3874
-8.4315 -0.0666 2.3874
-8.4240 -0.3694 2.3874
-8.4056 -0.6717 2.3874
-8.3764 -0.9732 2.3874
-8.3363 -1.2735 2.3874
-8.2855 -1.5721 2.3874
-8.2240 -1.8688 2.3874
-8.1519 -2.1630 2.3874
-8.0692 -2.4545 2.3874
-7.9761 -2.7428 2.3874
-7.8728 -3.0276 2.3874
-7.7592 -3.3085 2.3874
-7.6357 -3.5852 2.3874
-7.5022 -3.8572 2.3874
-7.3591 -4.1243 2.3874
-7.2065 -4.3862 2.3874
-7.0446 -4.6423 2.3874
-6.8735 -4.8925 2.3874
-6.6936 -5.1363 2.3874
-6.5050 -5.3736 2.3874
-6.3080 -5.6039 2.3874
-6.1029 -5.8270 2.3874
-5.8898 -6.0426 2.3874
-5.6692 -6.2505 2.3874
-5.4412 -6.4502 2.3874
-5.2062 -6.6417 2.3874
-4.9644 -6.8245 2.3874
-4.7163 -6.9986 2.3874
-4.4620 -7.1637 2.3874
-4.2019 -7.3194 2.3874
-3.9364 -7.4658 2.3874
-3.6659 -7.6025 2.3874
-3.3905 -7.7294 2.3874
-3.1108 -7.8464 2.3874
-2.8271 -7.9532 2.3874
-2.5397 -8.0497 2.3874
-2.2490 -8.1359 2.3874
-1.9554 -8.2115 2.3874
-1.6592 -8.2766 2.3874
-1.3609 -8.3309 2.3874
-1.0609 -8.3745 2.3874
-0.7594 -8.4073 2.3874
-0.4570 -8.4292 2.3874
-0.1540 -8.4403 2.3874
0.1492 -8.4404 2.3874
0.4522 -8.4296 2.3874
0.7547 -8.4080 2.3874
1.0562 -8.3755 2.3874
1.3563 -8.3322 2.3874
1.6546 -8.2781 2.3874
1.9509 -8.2133 2.3874
2.2446 -8.1379 2.3874
2.5354 -8.0520 2.3874
2.8229 -7.9558 2.3874
3.1068 -7.8492 2.3874
3.3866 -7.7325 2.3874
3.6621 -7.6058 2.3874
3.9328 -7.4693 2.3874
4.1985 -7.3232 2.3874
4.4587 -7.1676 2.3874
4.7132 -7.0027 2.3874
4.9616 -6.8288 2.3874
5.2035 -6.6461 2.3874
5.4388 -6.4548 2.3874
5.6670 -6.2554 2.3874
5.8879 -6.0476 2.3874
6.1011 -5.8321 2.3874
6.3065 -5.6091 2.3874
6.5037 -5.3789 2.3874
6.6925 -5.1417 2.3874
6.8727 -4.8979 2.3874
7.0440 -4.6478 2.3874
7.2062 -4.3917 2.3874
7.3590 -4.1299 2.3874
7.5024 -3.8628 2.3874
7.6360 -3.5908 2.3874
7.7599 -3.3142 2.3874
7.8736 -3.0332 2.3874
7.9772 -2.7484 2.3874
8.0705 -2.4601 2.3874
8.1534 -2.1686 2.3874
8.2258 -1.8743 2.3874
8.2875 -1.5776 2.3874
8.3385 -1.2788 2.3874
8.3788 -0.9785 2.3874
8.4082 -0.6769 2.3874
8.4268 -0.3745 2.3874
8.4345 -0.0716 2.3874
8.4314 0.2314 2.3874
8.4173 0.5340 2.3874
8.3924 0.8360 2.3874
8.3566 1.1368 2.3874
8.3101 1.4361 2.3874
8.2529 1.7336 2.3874
8.1850 2.0288 2.3874
8.1065 2.3214 2.3874
8.0177 2.6110 2.3874
7.9184 2.8972 2.3874
7.8090 3.1796 2.3874
7.6895 3.4579 2.3874
7.5600 3.7317 2.3874
7.4209 4.0007 2.3874
7.2721 4.2645 2.3874
7.1140 4.5228 2.3874
6.9468 4.7752 2.3874
6.7706 5.0214 2.3874
6.5856 5.2612 2.3874
6.3922 5.4942 2.3874
6.1905 5.7201 2.3874
5.9809 5.9385 2.3874
5.7636 6.1493 2.3874
5.5388 6.3522 2.3874
5.3070 6.5469 2.3874
5.0683 6.7330 2.3874
4.8230 6.9106 2.3874
4.5716 7.0792 2.3874
4.3143 7.2386 2.3874
4.0514 7.3887 2.3874
3.7833 7.5293 2.3874
3.5104 7.6602 2.3874
3.2329 7.7812 2.3874
2.9513 7.8921 2.3874
2.6658 7.9929 2.3874
2.3770 8.0833 2.3874
0.8286 3.2440 0.9487
0.7116 3.2720 0.9488
0.5937 3.2958 0.9489
0.4750 3.3154 0.9491
0.3556 3.3306 0.9492
0.2358 3.3415 0.9492
0.1156 3.3480 0.9493
-0.0047 3.3502 0.9494
-0.1251 3.3481 0.9494
-0.2453 3.3416 0.9495
-0.3651 3.3307 0.9495
-0.4845 3.3155 0.9495
-0.6033 3.2960 0.9495
-0.7213 3.2722 0.9495
-0.8384 3.2441 0.9495
-2.3996 8.0758 2.3874
-2.6881 7.9844 2.3874
-2.9732 7.8828 2.3874
-3.2544 7.7709 2.3874
-3.5315 7.6491 2.3874
-3.8040 7.5174 2.3874
-4.0716 7.3760 2.3874
-4.3339 7.2251 2.3874
-4.5907 7.0648 2.3874
-4.8416 6.8955 2.3874
-5.0862 6.7173 2.3874
-5.3243 6.5303 2.3874
-5.5555 6.3350 2.3874
-5.7796 6.1315 2.3874
-5.9962 5.9201 2.3874
-6.2051 5.7010 2.3874
-6.4060 5.4746 2.3874
-6.5987 5.2411 2.3874
-6.7829 5.0008 2.3874
-6.9583 4.7541 2.3874
-7.1247 4.5012 2.3874
-7.2820 4.2425 2.3874
-7.4299 3.9783 2.3874
-7.5682 3.7090 2.3874
-7.6968 3.4349 2.3874
-7.8154 3.1563 2.3874
-7.9240 2.8737 2.3874
-8.0223 2.5873 2.3874
-8.1104 2.2975 2.3874
-8.1879 2.0048 2.3874
-8.2549 1.7095 2.3874
-8.3113 1.4120 2.3874
-8.3569 1.1126 2.3874
-8.3918 0.8117 2.3874
-8.4158 0.5098 2.3874
-8.4290 0.2072 2.3874
-8.4313 -0.0956 2.3874
-8.4227 -0.3984 2.3874
-8.4033 -0.7007 2.3874
-8.3730 -1.0021 2.3874
-8.3319 -1.3022 2.3874
-8.2801 -1.6007 2.3874
-8.2175 -1.8971 2.3874
-8.1444 -2.1911 2.3874
-8.0607 -2.4823 2.3874
-7.9667 -2.7703 2.3874
-7.8623 -3.0547 2.3874
-7.7478 -3.3353 2.3874
-7.6233 -3.6115 2.3874
-7.4889 -3.8831 2.3874
-7.3449 -4.1497 2.3874
-7.1913 -4.4110 2.3874
-7.0285 -4.6666 2.3874
-6.8566 -4.9162 2.3874
-6.6759 -5.1594 2.3874
-6.4865 -5.3960 2.3874
-6.2887 -5.6257 2.3874
-6.0828 -5.8481 2.3874
-5.8690 -6.0629 2.3874
-5.6476 -6.2700 2.3874
-5.4190 -6.4689 2.3874
-5.1833 -6.6596 2.3874
-4.9409 -6.8416 2.3874
-4.6921 -7.0148 2.3874
-4.4373 -7.1790 2.3874
-4.1767 -7.3339 2.3874
-3.9107 -7.4794 2.3874
-3.6396 -7.6151 2.3874
-3.3639 -7.7411 2.3874
-3.0837 -7.8571 2.3874
-2.7996 -7.9629 2.3874
-2.5119 -8.0584 2.3874
-2.2209 -8.1436 2.3874
-1.9270 -8.2182 2.3874
-1.6307 -8.2822 2.3874
-1.3322 -8.3356 2.3874
-1.0320 -8.3781 2.3874
-0.7305 -8.4099 2.3874
-0.4280 -8.4308 2.3874
-0.1249 -8.4407 2.3874
0.1783 -8.4398 2.3874
0.4813 -8.4280 2.3874
0.7837 -8.4053 2.3874
1.0850 -8.3718 2.3874
1.3850 -8.3274 2.3874
1.6832 -8.2723 2.3874
1.9792 -8.2065 2.3874
2.2726 -8.1301 2.3874
2.5631 -8.0432 2.3874
2.8503 -7.9460 2.3874
3.1338 -7.8384 2.3874
3.4133 -7.7208 2.3874
3.6883 -7.5931 2.3874
3.9586 -7.4557 2.3874
4.2237 -7.3086 2.3874
4.4834 -7.1521 2.3874
4.7373 -6.9864 2.3874
4.9851 -6.8117 2.3874
5.2264 -6.6281 2.3874
5.4610 -6.4360 2.3874
5.6885 -6.2357 2.3874
5.9087 -6.0272 2.3874
6.1212 -5.8110 2.3874
6.3258 -5.5873 2.3874
6.5222 -5.3564 2.3874
6.7102 -5.1185 2.3874
6.8895 -4.8741 2.3874
7.0599 -4.6234 2.3874
7.2212 -4.3668 2.3874
7.3732 -4.1046 2.3874
7.5156 -3.8369 2.3874
7.6484 -3.5645 2.3874
7.7712 -3.2874 2.3874
7.8840 -3.0061 2.3874
7.9866 -2.7209 2.3874
8.0790 -2.4322 2.3874
8.1608 -2.1404 2.3874
8.2321 -1.8459 2.3874
8.2929 -1.5490 2.3874
8.3429 -1.2501 2.3874
8.3821 -0.9496 2.3874
8.4105 -0.6479 2.3874
8.4280 -0.3454 2.3874
8.4347 -0.0425 2.3874
8.4305 0.2604 2.3874
8.4154 0.5630 2.3874
8.3894 0.8649 2.3874
8.3527 1.1656 2.3874
8.3051 1.4648 2.3874
8.2468 1.7621 2.3874
8.1779 2.0570 2.3874
8.0985 2.3494 2.3874
8.0086 2.6386 2.3874
7.9084 2.9245 2.3874
7.7979 3.2065 2.3874
7.6775 3.4843 2.3874
7.5471 3.7577 2.3874
7.4070 4.0262 2.3874
7.2574 4.2895 2.3874
7.0984 4.5472 2.3874
6.9303 4.7991 2.3874
6.7532 5.0448 2.3874
6.5674 5.2839 2.3874
6.3732 5.5162 2.3874
6.1708 5.7414 2.3874
5.9604 5.9591 2.3874
5.7423 6.1691 2.3874
5.5169 6.3712 2.3874
5.2843 6.5651 2.3874
5.0450 6.7505 2.3874
4.7992 6.9271 2.3874
4.5471 7.0949 2.3874
4.2893 7.2534 2.3874
4.0259 7.4026 2.3874
3.7573 7.5423 2.3874
3.4839 7.6722 2.3874
3.2060 7.7923 2.3874
2.9240 7.9022 2.3874
2.6382 8.0020 2.3874
0.9334 3.2150 0.9486
0.8174 3.2468 0.9487
0.7003 3.2745 0.9488
0.5823 3.2979 0.9490
0.4635 3.3170 0.9491
0.3441 3.3318 0.9492
0.2242 3.3423 0.9492
0.1041 3.3484 0.9493
-0.0163 3.3502 0.9494
-0.1366 3.3476 0.9494
-0.2568 3.3407 0.9495
-0.3766 3.3294 0.9495
-0.4960 3.3138 0.9495
-0.6147 3.2939 0.9495
-0.7326 3.2697 0.9495
-0.8496 3.2412 0.9495
-2.4274 8.0675 2.3874
-2.7156 7.9751 2.3874
-3.0004 7.8725 2.3874
-3.2812 7.7597 2.3874
-3.5578 7.6369 2.3874
-3.8299 7.5042 2.3874
-4.0970 7.3619 2.3874
-4.3588 7.2101 2.3874
-4.6151 7.0490 2.3874
-4.8654 6.8788 2.3874
-5.1094 6.6997 2.3874
-5.3468 6.5119 2.3874
-5.5774 6.3158 2.3874
-5.8007 6.1115 2.3874
-6.0166 5.8994 2.3874
-6.2248 5.6796 2.3874
-6.4249 5.4525 2.3874
-6.6167 5.2183 2.3874
-6.8001 4.9774 2.3874
-6.9746 4.7300 2.3874
-7.1402 4.4766 2.3874
-7.2966 4.2174 2.3874
-7.4436 3.9527 2.3874
-7.5810 3.6829 2.3874
-7.7086 3.4083 2.3874
-7.8263 3.1294 2.3874
-7.9339 2.8463 2.3874
-8.0312 2.5596 2.3874
-8.1183 2.2696 2.3874
-8.1948 1.9766 2.3874
-8.2608 1.6810 2.3874
-8.3161 1.3833 2.3874
-8.3607 1.0838 2.3874
-8.3945 0.7828 2.3874
-8.4175 0.4808 2.3874
-8.4297 0.1782 2.3874
-8.4309 -0.1247 2.3874
-8.4213 -0.4275 2.3874
-8.4008 -0.7297 2.3874
-8.3695 -1.0310 2.3874
-8.3274 -1.3309 2.3874
-8.2745 -1.6292 2.3874
-7.5299 1.8712 2.3874
-7.5925 1.5996 2.3874
-7.6453 1.3259 2.3874
-7.6882 1.0505 2.3874
-7.7212 0.7737 2.3874
-7.7443 0.4959 2.3874
-7.7574 0.2174 2.3874
-7.7604 -0.0613 2.3874
-7.7535 -0.3400 2.3874
-7.7365 -0.6183 2.3874
-7.7096 -0.8958 2.3874
-7.6727 -1.1721 2.3874
-7.6259 -1.4470 2.3874
-7.5693 -1.7200 2.3874
-7.5029 -1.9908 2.3874
-7.4268 -2.2591 2.3874
-7.3411 -2.5245 2.3874
-7.2459 -2.7866 2.3874
-7.1414 -3.0451 2.3874
-7.0277 -3.2998 2.3874
-6.9048 -3.5502 2.3874
-6.7731 -3.7960 2.3874
-6.6326 -4.0369 2.3874
-6.4836 -4.2727 2.3874
-6.3261 -4.5029 2.3874
-6.1605 -4.7273 2.3874
-5.9869 -4.9457 2.3874
-5.8056 -5.1577 2.3874
-5.6168 -5.3630 2.3874
-5.4207 -5.5614 2.3874
-5.2176 -5.7527 2.3874
-5.0078 -5.9365 2.3874
-4.7915 -6.1127 2.3874
-4.5690 -6.2810 2.3874
-4.3406 -6.4412 2.3874
-4.1065 -6.5931 2.3874
-3.8672 -6.7364 2.3874
-3.6228 -6.8711 2.3874
-3.3738 -6.9969 2.3874
-3.1204 -7.1137 2.3874
-2.8630 -7.2213 2.3874
-2.6018 -7.3196 2.3874
-2.3373 -7.4085 2.3874
-2.0698 -7.4877 2.3874
-1.7996 -7.5574 2.3874
-1.5270 -7.6172 2.3874
-1.2525 -7.6672 2.3874
-0.9763 -7.7073 2.3874
-0.6989 -7.7375 2.3874
-0.4206 -7.7577 2.3874
-0.1417 -7.7678 2.3874
0.1373 -7.7680 2.3874
0.4162 -7.7581 2.3874
0.6946 -7.7381 2.3874
0.9720 -7.7082 2.3874
1.2482 -7.6683 2.3874
1.5228 -7.6186 2.3874
1.7954 -7.5590 2.3874
2.0657 -7.4896 2.3874
2.3334 -7.4105 2.3874
2.5980 -7.3219 2.3874
2.8592 -7.2238 2.3874
3.1168 -7.1165 2.3874
3.3703 -6.9999 2.3874
3.6195 -6.8743 2.3874
3.8640 -6.7398 2.3874
4.1035 -6.5966 2.3874
4.3377 -6.4449 2.3874
4.5663 -6.2848 2.3874
4.7890 -6.1167 2.3874
5.0055 -5.9406 2.3874
5.2155 -5.7570 2.3874
5.4188 -5.5658 2.3874
5.6151 -5.3675 2.3874
5.8041 -5.1623 2.3874
5.9856 -4.9504 2.3874
6.1594 -4.7322 2.3874
6.3252 -4.5078 2.3874
6.4829 -4.2776 2.3874
6.6322 -4.0419 2.3874
6.7729 -3.8010 2.3874
6.9048 -3.5552 2.3874
7.0279 -3.3049 2.3874
7.1418 -3.0503 2.3874
7.2466 -2.7917 2.3874
7.3419 -2.5295 2.3874
7.4278 -2.2642 2.3874
7.5041 -1.9959 2.3874
7.5707 -1.7250 2.3874
7.6276 -1.4520 2.3874
7.6745 -1.1771 2.3874
7.7116 -0.9006 2.3874
7.7387 -0.6231 2.3874
7.7559 -0.3447 2.3874
7.7630 -0.0660 2.3874
7.7601 0.2129 2.3874
7.7472 0.4914 2.3874
7.7243 0.7694 2.3874
7.6914 1.0462 2.3874
7.6486 1.3218 2.3874
7.5959 1.5956 2.3874
7.5335 1.8673 2.3874
7.4613 2.1366 2.3874
7.3795 2.4030 2.3874
7.2881 2.6665 2.3874
7.1874 2.9264 2.3874
7.0775 3.1826 2.3874
6.9584 3.4346 2.3874
6.8303 3.6822 2.3874
6.6934 3.9250 2.3874
6.5479 4.1628 2.3874
6.3940 4.3951 2.3874
6.2318 4.6218 2.3874
6.0616 4.8425 2.3874
5.8836 5.0569 2.3874
5.6980 5.2648 2.3874
5.5051 5.4660 2.3874
5.3050 5.6600 2.3874
5.0982 5.8467 2.3874
4.8847 6.0259 2.3874
4.6650 6.1973 2.3874
4.4393 6.3607 2.3874
4.2079 6.5159 2.3874
3.9710 6.6627 2.3874
3.7291 6.8009 2.3874
3.4823 6.9303 2.3874
3.2311 7.0508 2.3874
2.9757 7.1621 2.3874
2.7165 7.2643 2.3874
2.4538 7.3570 2.3874
0.8688 2.9544 0.9480
0.7622 2.9840 0.9481
0.6546 3.0098 0.9482
0.5461 3.0317 0.9483
0.4369 3.0496 0.9484
0.3271 3.0636 0.9485
0.2169 3.0736 0.9486
0.1063 3.0796 0.9487
-0.0044 3.0816 0.9487
-0.1150 3.0796 0.9488
-0.2256 3.0736 0.9488
-0.3359 3.0636 0.9488
-0.4457 3.0496 0.9489
-0.5549 3.0317 0.9489
-0.6635 3.0098 0.9489
-0.7712 2.9840 0.9489
-0.8778 2.9543 0.9488
-2.4743 7.3493 2.3874
-2.7367 7.2557 2.3874
-2.9956 7.1528 2.3874
-3.2506 7.0406 2.3874
-3.5014 6.9194 2.3874
-3.7477 6.7892 2.3874
-3.9892 6.6503 2.3874
-4.2255 6.5028 2.3874
-4.4565 6.3469 2.3874
-4.6816 6.1829 2.3874
-4.9008 6.0108 2.3874
-5.1136 5.8310 2.3874
-5.3198 5.6437 2.3874
-5.5192 5.4491 2.3874
-5.7115 5.2474 2.3874
-5.8964 5.0390 2.3874
-6.0737 4.8240 2.3874
-6.2432 4.6029 2.3874
-6.4047 4.3758 2.3874
-6.5579 4.1430 2.3874
-6.7026 3.9049 2.3874
-6.8387 3.6617 2.3874
-6.9660 3.4138 2.3874
-7.0843 3.1615 2.3874
-7.1935 2.9051 2.3874
-7.2934 2.6449 2.3874
-7.3839 2.3813 2.3874
-7.4649 2.1147 2.3874
-7.5363 1.8452 2.3874
-7.5980 1.5734 2.3874
-7.6498 1.2995 2.3874
-7.6918 1.0240 2.3874
-7.7239 0.7471 2.3874
-7.7460 0.4692 2.3874
-7.7581 0.1907 2.3874
-7.7602 -0.0881 2.3874
-7.7523 -0.3668 2.3874
-7.7344 -0.6450 2.3874
-7.7065 -0.9224 2.3874
-7.6686 -1.1986 2.3874
-7.6209 -1.4733 2.3874
-7.5633 -1.7461 2.3874
-7.4960 -2.0167 2.3874
-7.4190 -2.2847 2.3874
-7.3324 -2.5498 2.3874
-7.2363 -2.8116 2.3874
-7.1309 -3.0698 2.3874
-7.0163 -3.3240 2.3874
-6.8926 -3.5739 2.3874
-6.7600 -3.8193 2.3874
-6.6187 -4.0598 2.3874
-6.4688 -4.2950 2.3874
-6.3106 -4.5247 2.3874
-6.1442 -4.7486 2.3874
-5.9699 -4.9663 2.3874
-5.7878 -5.1777 2.3874
-5.5983 -5.3823 2.3874
-5.4015 -5.5801 2.3874
-5.1978 -5.7706 2.3874
-4.9873 -5.9537 2.3874
-4.7704 -6.1292 2.3874
-4.5473 -6.2967 2.3874
-4.3183 -6.4561 2.3874
-4.0838 -6.6072 2.3874
-3.8440 -6.7497 2.3874
-3.5991 -6.8836 2.3874
-3.3497 -7.0085 2.3874
-3.0959 -7.1244 2.3874
-2.8381 -7.2312 2.3874
-2.5766 -7.3286 2.3874
-2.3118 -7.4165 2.3874
-2.0440 -7.4948 2.3874
-1.7735 -7.5635 2.3874
-1.5007 -7.6224 2.3874
-1.2260 -7.6715 2.3874
-0.9498 -7.7107 2.3874
-0.6722 -7.7399 2.3874
-0.3938 -7.7591 2.3874
-0.1149 -7.7683 2.3874
0.1641 -7.7674 2.3874
0.4430 -7.7566 2.3874
0.7212 -7.7357 2.3874
0.9986 -7.7048 2.3874
1.2746 -7.6640 2.3874
1.5491 -7.6133 2.3874
1.8215 -7.5527 2.3874
2.0915 -7.4824 2.3874
2.3589 -7.4024 2.3874
2.6232 -7.3129 2.3874
2.8841 -7.2139 2.3874
3.1413 -7.1057 2.3874
3.3944 -6.9882 2.3874
3.6432 -6.8617 2.3874
3.8872 -6.7264 2.3874
4.1262 -6.5824 2.3874
4.3599 -6.4299 2.3874
4.5879 -6.2690 2.3874
4.8100 -6.1001 2.3874
5.0259 -5.9233 2.3874
5.2353 -5.7389 2.3874
5.4380 -5.5471 2.3874
5.6335 -5.3481 2.3874
5.8219 -5.1422 2.3874
6.0027 -4.9297 2.3874
6.1757 -4.7109 2.3874
6.3407 -4.4859 2.3874
6.4976 -4.2552 2.3874
6.6461 -4.0190 2.3874
6.7859 -3.7776 2.3874
6.9170 -3.5314 2.3874
7.0392 -3.2806 2.3874
7.1523 -3.0256 2.3874
7.2561 -2.7667 2.3874
7.3506 -2.5042 2.3874
7.4356 -2.2386 2.3874
7.5109 -1.9700 2.3874
7.5766 -1.6989 2.3874
7.6325 -1.4256 2.3874
7.6785 -1.1506 2.3874
7.7147 -0.8741 2.3874
7.7408 -0.5964 2.3874
7.7570 -0.3180 2.3874
7.7631 -0.0392 2.3874
7.7593 0.2396 2.3874
7.7454 0.5182 2.3874
7.7215 0.7959 2.3874
7.6877 1.0727 2.3874
7.6439 1.3481 2.3874
7.5903 1.6217 2.3874
7.5269 1.8933 2.3874
7.4538 2.1623 2.3874
7.3711 2.4285 2.3874
7.2789 2.6916 2.3874
7.1773 2.9512 2.3874
7.0664 3.2070 2.3874
6.9465 3.4586 2.3874
6.8175 3.7057 2.3874
6.6798 3.9481 2.3874
6.5335 4.1853 2.3874
6.3788 4.4171 2.3874
6.2158 4.6433 2.3874
6.0448 4.8634 2.3874
5.8661 5.0772 2.3874
5.6798 5.2845 2.3874
5.4862 5.4849 2.3874
5.2855 5.6782 2.3874
5.0780 5.8643 2.3874
4.8639 6.0427 2.3874
4.6436 6.2134 2.3874
4.4174 6.3760 2.3874
4.1854 6.5304 2.3874
3.9480 6.6763 2.3874
3.7056 6.8137 2.3874
3.4584 6.9423 2.3874
3.2068 7.0619 2.3874
2.9510 7.1723 2.3874
2.6914 7.2736 2.3874
2.4284 7.3654 2.3874
0.8586 2.9574 0.9480
0.7519 2.9867 0.9481
0.6442 3.0121 0.9482
0.5356 3.0336 0.9483
0.4264 3.0511 0.9484
0.3165 3.0647 0.9485
0.2063 3.0743 0.9486
0.0957 3.0800 0.9487
-0.0150 3.0816 0.9487
-0.1257 3.0792 0.9488
-0.2362 3.0728 0.9488
-0.3464 3.0624 0.9488
-0.4562 3.0481 0.9489
-0.5654 3.0297 0.9489
-0.6739 3.0075 0.9489
-0.7814 2.9813 0.9489
-0.8880 2.9513 0.9488
-2.4996 7.3407 2.3874
-2.7617 7.2462 2.3874
-3.0202 7.1424 2.3874
-3.2748 7.0294 2.3874
-3.5252 6.9073 2.3874
-3.7711 6.7763 2.3874
-4.0121 6.6365 2.3874
-4.2480 6.4882 2.3874
-4.4783 6.3315 2.3874
-4.7029 6.1667 2.3874
-4.9215 5.9939 2.3874
-5.1337 5.8134 2.3874
-5.3393 5.6253 2.3874
-5.5380 5.4300 2.3874
-5.7295 5.2277 2.3874
-5.9137 5.0186 2.3874
-6.0903 4.8031 2.3874
-6.2591 4.5813 2.3874
-6.4197 4.3537 2.3874
-6.5721 4.1204 2.3874
-6.7161 3.8818 2.3874
-6.8513 3.6381 2.3874
-6.9778 3.3898 2.3874
-7.0952 3.1371 2.3874
-7.2035 2.8803 2.3874
-7.3025 2.6198 2.3874
-7.3921 2.3559 2.3874
-7.4722 2.0889 2.3874
-7.5426 1.8192 2.3874
-7.6034 1.5472 2.3874
-7.6543 1.2732 2.3874
-7.6953 0.9975 2.3874
-7.7264 0.7204 2.3874
-7.7476 0.4425 2.3874
-7.7587 0.1639 2.3874
-7.7599 -0.1148 2.3874
-7.7510 -0.3935 2.3874
-7.7321 -0.6716 2.3874
-7.7033 -0.9490 2.3874
-7.6645 -1.2250 2.3874
-7.6158 -1.4996 2.3874
-6.9677 1.7314 2.3874
-7.0256 1.4801 2.3874
-7.0744 1.2268 2.3874
-7.1141 0.9720 2.3874
-7.1446 0.7159 2.3874
-7.1660 0.4588 2.3874
-7.1781 0.2012 2.3874
-7.1809 -0.0568 2.3874
-7.1744 -0.3147 2.3874
-7.1587 -0.5722 2.3874
-7.1338 -0.8289 2.3874
-7.0996 -1.0847 2.3874
-7.0563 -1.3390 2.3874
-7.0039 -1.5916 2.3874
-6.9424 -1.8422 2.3874
-6.8720 -2.0904 2.3874
-6.7927 -2.3360 2.3874
-6.7046 -2.5785 2.3874
-6.6079 -2.8177 2.3874
-6.5027 -3.0533 2.3874
-6.3890 -3.2850 2.3874
-6.2671 -3.5124 2.3874
-6.1371 -3.7354 2.3874
-5.9991 -3.9535 2.3874
-5.8535 -4.1665 2.3874
-5.7002 -4.3742 2.3874
-5.5396 -4.5762 2.3874
-5.3718 -4.7723 2.3874
-5.1971 -4.9623 2.3874
-5.0157 -5.1459 2.3874
-4.8277 -5.3228 2.3874
-4.6336 -5.4929 2.3874
-4.4334 -5.6559 2.3874
-4.2275 -5.8116 2.3874
-4.0162 -5.9599 2.3874
-3.7996 -6.1004 2.3874
-3.5782 -6.2330 2.3874
-3.3521 -6.3576 2.3874
-3.1216 -6.4741 2.3874
-2.8872 -6.5821 2.3874
-2.6490 -6.6817 2.3874
-2.4074 -6.7726 2.3874
-2.1626 -6.8548 2.3874
-1.9151 -6.9281 2.3874
-1.6650 -6.9925 2.3874
-1.4129 -7.0479 2.3874
-1.1589 -7.0942 2.3874
-0.9033 -7.1313 2.3874
-0.6467 -7.1592 2.3874
-0.3892 -7.1779 2.3874
-0.1311 -7.1872 2.3874
0.1271 -7.1874 2.3874
0.3851 -7.1782 2.3874
0.6427 -7.1598 2.3874
0.8994 -7.1321 2.3874
1.1549 -7.0952 2.3874
1.4090 -7.0491 2.3874
1.6612 -6.9940 2.3874
1.9113 -6.9298 2.3874
2.1589 -6.8567 2.3874
2.4038 -6.7747 2.3874
2.6455 -6.6839 2.3874
2.8839 -6.5846 2.3874
3.1184 -6.4767 2.3874
3.3490 -6.3605 2.3874
3.5752 -6.2360 2.3874
3.7968 -6.1036 2.3874
4.0135 -5.9632 2.3874
4.2250 -5.8151 2.3874
4.4311 -5.6596 2.3874
4.6314 -5.4967 2.3874
4.8257 -5.3267 2.3874
5.0138 -5.1499 2.3874
5.1954 -4.9664 2.3874
5.3704 -4.7765 2.3874
5.5383 -4.5805 2.3874
5.6991 -4.3785 2.3874
5.8526 -4.1710 2.3874
5.9984 -3.9580 2.3874
6.1366 -3.7399 2.3874
6.2668 -3.5170 2.3874
6.3889 -3.2896 2.3874
6.5027 -3.0580 2.3874
6.6082 -2.8224 2.3874
6.7051 -2.5832 2.3874
6.7934 -2.3406 2.3874
6.8729 -2.0951 2.3874
6.9435 -1.8468 2.3874
7.0051 -1.5962 2.3874
7.0577 -1.3436 2.3874
7.1012 -1.0892 2.3874
7.1355 -0.8334 2.3874
7.1606 -0.5766 2.3874
7.1765 -0.3190 2.3874
7.1831 -0.0611 2.3874
7.1804 0.1969 2.3874
7.1685 0.4547 2.3874
7.1473 0.7118 2.3874
7.1169 0.9680 2.3874
7.0773 1.2230 2.3874
7.0286 1.4763 2.3874
6.9708 1.7278 2.3874
6.9040 1.9769 2.3874
6.8284 2.2236 2.3874
6.7439 2.4673 2.3874
6.6507 2.7079 2.3874
6.5490 2.9449 2.3874
6.4388 3.1781 2.3874
6.3203 3.4072 2.3874
6.1936 3.6319 2.3874
6.0590 3.8519 2.3874
5.9166 4.0669 2.3874
5.7665 4.2767 2.3874
5.6090 4.4809 2.3874
5.4443 4.6794 2.3874
5.2726 4.8718 2.3874
5.0941 5.0579 2.3874
4.9090 5.2374 2.3874
4.7176 5.4102 2.3874
4.5201 5.5760 2.3874
4.3168 5.7347 2.3874
4.1079 5.8859 2.3874
3.8938 6.0295 2.3874
3.6746 6.1653 2.3874
3.4508 6.2932 2.3874
3.2224 6.4130 2.3874
2.9899 6.5245 2.3874
2.7536 6.6275 2.3874
2.5138 6.7220 2.3874
0.9010 2.7014 0.9473
0.8035 2.7324 0.9475
0.7049 2.7598 0.9476
0.6054 2.7836 0.9477
0.5051 2.8038 0.9478
0.4041 2.8204 0.9479
0.3025 2.8333 0.9480
0.2006 2.8425 0.9480
0.0983 2.8481 0.9481
-0.0040 2.8499 0.9482
-0.1064 2.8480 0.9482
-0.2086 2.8425 0.9482
-0.3106 2.8332 0.9483
-0.4122 2.8203 0.9483
-0.5132 2.8037 0.9483
-0.6136 2.7835 0.9483
-0.7132 2.7596 0.9483
-0.8118 2.7322 0.9483
-2.2896 6.8008 2.3874
-2.5324 6.7142 2.3874
-2.7720 6.6189 2.3874
-3.0080 6.5151 2.3874
-3.2401 6.4030 2.3874
-3.4680 6.2825 2.3874
-3.6915 6.1539 2.3874
-3.9102 6.0175 2.3874
-4.1238 5.8732 2.3874
-4.3322 5.7214 2.3874
-4.5350 5.5621 2.3874
-4.7319 5.3957 2.3874
-4.9227 5.2224 2.3874
-5.1072 5.0423 2.3874
-5.2852 4.8557 2.3874
-5.4563 4.6628 2.3874
-5.6203 4.4639 2.3874
-5.7772 4.2593 2.3874
-5.9265 4.0491 2.3874
-6.0683 3.8337 2.3874
-6.2022 3.6134 2.3874
-6.3282 3.3883 2.3874
-6.4460 3.1589 2.3874
-6.5554 2.9255 2.3874
-6.6565 2.6882 2.3874
-6.7489 2.4474 2.3874
-6.8326 2.2035 2.3874
-6.9076 1.9567 2.3874
-6.9736 1.7074 2.3874
-7.0306 1.4559 2.3874
-7.0786 1.2025 2.3874
-7.1174 0.9475 2.3874
-7.1471 0.6912 2.3874
-7.1675 0.4341 2.3874
-7.1787 0.1764 2.3874
-7.1806 -0.0816 2.3874
-7.1733 -0.3394 2.3874
-7.1567 -0.5968 2.3874
-7.1309 -0.8535 2.3874
-7.0959 -1.1091 2.3874
-7.0517 -1.3633 2.3874
-6.9984 -1.6158 2.3874
-6.9361 -1.8661 2.3874
-6.8648 -2.1141 2.3874
-6.7846 -2.3594 2.3874
-6.6957 -2.6016 2.3874
-6.5982 -2.8405 2.3874
-6.4921 -3.0757 2.3874
-6.3777 -3.3070 2.3874
-6.2550 -3.5340 2.3874
-6.1242 -3.7565 2.3874
-5.9855 -3.9742 2.3874
-5.8391 -4.1867 2.3874
-5.6851 -4.3938 2.3874
-5.5238 -4.5953 2.3874
-5.3553 -4.7908 2.3874
-5.1800 -4.9802 2.3874
-4.9979 -5.1632 2.3874
-4.8094 -5.3395 2.3874
-4.6146 -5.5089 2.3874
-4.4139 -5.6712 2.3874
-4.2075 -5.8262 2.3874
-3.9956 -5.9737 2.3874
-3.7786 -6.1135 2.3874
-3.5567 -6.2453 2.3874
-3.3302 -6.3692 2.3874
-3.0993 -6.4848 2.3874
-2.8645 -6.5920 2.3874
-2.6259 -6.6908 2.3874
-2.3840 -6.7809 2.3874
-2.1390 -6.8622 2.3874
-1.8912 -6.9347 2.3874
-1.6409 -6.9982 2.3874
-1.3886 -7.0527 2.3874
-1.1344 -7.0981 2.3874
-0.8787 -7.1344 2.3874
-0.6220 -7.1614 2.3874
-0.3644 -7.1792 2.3874
-0.1063 -7.1877 2.3874
0.1519 -7.1869 2.3874
0.4099 -7.1768 2.3874
0.6673 -7.1575 2.3874
0.9240 -7.1289 2.3874
1.1794 -7.0912 2.3874
1.4333 -7.0442 2.3874
1.6853 -6.9882 2.3874
1.9352 -6.9232 2.3874
2.1826 -6.8492 2.3874
2.4271 -6.7663 2.3874
2.6685 -6.6748 2.3874
2.9065 -6.5746 2.3874
3.1407 -6.4659 2.3874
3.3709 -6.3489 2.3874
3.5967 -6.2237 2.3874
3.8178 -6.0904 2.3874
4.0340 -5.9493 2.3874
4.2450 -5.8005 2.3874
4.4505 -5.6442 2.3874
4.6503 -5.4807 2.3874
4.8441 -5.3101 2.3874
5.0315 -5.1326 2.3874
5.2125 -4.9485 2.3874
5.3868 -4.7580 2.3874
5.5541 -4.5614 2.3874
5.7142 -4.3589 2.3874
5.8669 -4.1507 2.3874
6.0120 -3.9373 2.3874
6.1494 -3.7187 2.3874
6.2788 -3.4954 2.3874
6.4002 -3.2676 2.3874
6.5132 -3.0355 2.3874
6.6179 -2.7996 2.3874
6.7140 -2.5600 2.3874
6.8014 -2.3172 2.3874
6.8800 -2.0713 2.3874
6.9498 -1.8229 2.3874
7.0105 -1.5721 2.3874
7.0623 -1.3192 2.3874
7.1049 -1.0647 2.3874
7.1383 -0.8088 2.3874
7.1625 -0.5519 2.3874
7.1775 -0.2943 2.3874
7.1832 -0.0363 2.3874
7.1797 0.2217 2.3874
7.1669 0.4794 2.3874
7.1448 0.7365 2.3874
7.1135 0.9927 2.3874
7.0730 1.2474 2.3874
7.0234 1.5006 2.3874
6.9648 1.7518 2.3874
6.8972 2.0007 2.3874
6.8206 2.2471 2.3874
6.7353 2.4905 2.3874
6.6413 2.7308 2.3874
6.5387 2.9674 2.3874
6.4278 3.2003 2.3874
6.3085 3.4290 2.3874
6.1811 3.6532 2.3874
6.0457 3.8728 2.3874
5.9025 4.0873 2.3874
5.7517 4.2965 2.3874
5.5935 4.5002 2.3874
5.4281 4.6981 2.3874
5.2557 4.8899 2.3874
5.0766 5.0754 2.3874
4.8909 5.2543 2.3874
4.6989 5.4264 2.3874
4.5008 5.5916 2.3874
4.2970 5.7495 2.3874
4.0876 5.9000 2.3874
3.8730 6.0429 2.3874
3.6533 6.1779 2.3874
3.4290 6.3051 2.3874
3.2003 6.4240 2.3874
2.9674 6.5347 2.3874
2.7307 6.6370 2.3874
2.4905 6.7307 2.3874
0.8917 2.7046 0.9474
0.7941 2.7352 0.9475
0.6954 2.7622 0.9476
0.5958 2.7857 0.9477
0.4954 2.8056 0.9478
0.3943 2.8218 0.9479
0.2927 2.8343 0.9480
0.1908 2.8432 0.9480
0.0885 2.8484 0.9481
-0.0138 2.8499 0.9482
-0.1162 2.8477 0.9482
-0.2184 2.8418 0.9482
-0.3204 2.8321 0.9483
-0.4219 2.8189 0.9483
-0.5229 2.8019 0.9483
-0.6232 2.7813 0.9483
-0.7227 2.7571 0.9483
-0.8212 2.7293 0.9483
-2.3131 6.7928 2.3874
-2.5556 6.7054 2.3874
-2.7948 6.6093 2.3874
-3.0304 6.5047 2.3874
-3.2621 6.3917 2.3874
-3.4896 6.2705 2.3874
-3.7127 6.1412 2.3874
-3.9309 6.0039 2.3874
-4.1441 5.8589 2.3874
-4.3519 5.7064 2.3874
-4.5541 5.5465 2.3874
-4.7505 5.3794 2.3874
-4.9407 5.2054 2.3874
-5.1246 5.0247 2.3874
-5.3019 4.8374 2.3874
-5.4723 4.6440 2.3874
-5.6357 4.4445 2.3874
-5.7918 4.2393 2.3874
-5.9405 4.0286 2.3874
-6.0815 3.8128 2.3874
-6.2147 3.5919 2.3874
-6.3398 3.3665 2.3874
-6.4568 3.1367 2.3874
-6.5655 2.9028 2.3874
-6.6657 2.6652 2.3874
-6.7573 2.4242 2.3874
-6.8402 2.1799 2.3874
-6.9143 1.9329 2.3874
-6.9795 1.6834 2.3874
-7.0356 1.4316 2.3874
-7.0827 1.1780 2.3874
-7.1207 0.9229 2.3874
-7.1495 0.6666 2.3874
-7.1690 0.4094 2.3874
-7.1793 0.1516 2.3874
-7.1804 -0.1063 2.3874
-7.1721 -0.3641 2.3874
-7.1546 -0.6215 2.3874
-7.1279 -0.8781 2.3874
-7.0920 -1.1336 2.3874
-7.0470 -1.3876 2.3874
-6.4768 1.6094 2.3874
-6.5306 1.3758 2.3874
-6.5760 1.1404 2.3874
-6.6129 0.9035 2.3874
-6.6412 0.6654 2.3874
-6.6610 0.4265 2.3874
-6.6723 0.1869 2.3874
-6.6749 -0.0528 2.3874
-6.6689 -0.2925 2.3874
-6.6542 -0.5319 2.3874
-6.6311 -0.7706 2.3874
-6.5993 -1.0083 2.3874
-6.5590 -1.2447 2.3874
-6.5103 -1.4795 2.3874
-6.4532 -1.7124 2.3874
-6.3877 -1.9431 2.3874
-6.3139 -2.1714 2.3874
-6.2321 -2.3968 2.3874
-6.1422 -2.6191 2.3874
-6.0443 -2.8381 2.3874
-5.9386 -3.0535 2.3874
-5.8253 -3.2649 2.3874
-5.7044 -3.4721 2.3874
-5.5762 -3.6748 2.3874
-5.4408 -3.8728 2.3874
-5.2984 -4.0658 2.3874
-5.1490 -4.2536 2.3874
-4.9931 -4.4359 2.3874
-4.8307 -4.6125 2.3874
-4.6620 -4.7831 2.3874
-4.4873 -4.9476 2.3874
-4.3069 -5.1057 2.3874
-4.1208 -5.2572 2.3874
-3.9295 -5.4019 2.3874
-3.7330 -5.5397 2.3874
-3.5317 -5.6703 2.3874
-3.3259 -5.7936 2.3874
-3.1157 -5.9094 2.3874
-2.9015 -6.0176 2.3874
-2.6836 -6.1180 2.3874
-2.4622 -6.2105 2.3874
-2.2376 -6.2950 2.3874
-2.0101 -6.3714 2.3874
-1.7800 -6.4396 2.3874
-1.5476 -6.4995 2.3874
-1.3132 -6.5509 2.3874
-1.0771 -6.5939 2.3874
-0.8396 -6.6284 2.3874
-0.6011 -6.6544 2.3874
-0.3617 -6.6717 2.3874
-0.1219 -6.6804 2.3874
0.1181 -6.6805 2.3874
0.3580 -6.6720 2.3874
0.5973 -6.6549 2.3874
0.8360 -6.6291 2.3874
1.0735 -6.5948 2.3874
1.3096 -6.5520 2.3874
1.5441 -6.5008 2.3874
1.7765 -6.4411 2.3874
2.0067 -6.3731 2.3874
2.2343 -6.2969 2.3874
2.4590 -6.2126 2.3874
2.6805 -6.1202 2.3874
2.8985 -6.0200 2.3874
3.1128 -5.9120 2.3874
3.3231 -5.7963 2.3874
3.5291 -5.6732 2.3874
3.7305 -5.5427 2.3874
3.9271 -5.4051 2.3874
4.1186 -5.2605 2.3874
4.3048 -5.1091 2.3874
4.4854 -4.9511 2.3874
4.6603 -4.7868 2.3874
4.8291 -4.6163 2.3874
4.9917 -4.4398 2.3874
5.1478 -4.2576 2.3874
5.2973 -4.0699 2.3874
5.4399 -3.8769 2.3874
5.5755 -3.6789 2.3874
5.7039 -3.4763 2.3874
5.8249 -3.2691 2.3874
5.9384 -3.0577 2.3874
6.0443 -2.8424 2.3874
6.1423 -2.6234 2.3874
6.2324 -2.4011 2.3874
6.3144 -2.1757 2.3874
6.3883 -1.9474 2.3874
6.4540 -1.7167 2.3874
6.5113 -1.4837 2.3874
6.5602 -1.2489 2.3874
6.6006 -1.0125 2.3874
6.6326 -0.7747 2.3874
6.6559 -0.5360 2.3874
6.6707 -0.2966 2.3874
6.6768 -0.0568 2.3874
6.6743 0.1830 2.3874
6.6633 0.4226 2.3874
6.6436 0.6616 2.3874
6.6153 0.8998 2.3874
6.5786 1.1367 2.3874
6.5333 1.3723 2.3874
6.4796 1.6060 2.3874
6.4175 1.8376 2.3874
6.3472 2.0668 2.3874
6.2687 2.2934 2.3874
6.1821 2.5170 2.3874
6.0875 2.7373 2.3874
5.9851 2.9541 2.3874
5.8750 3.1671 2.3874
5.7573 3.3760 2.3874
5.6321 3.5805 2.3874
5.4998 3.7804 2.3874
5.3603 3.9753 2.3874
5.2139 4.1652 2.3874
5.0608 4.3497 2.3874
4.9012 4.5285 2.3874
4.7352 4.7015 2.3874
4.5632 4.8684 2.3874
4.3853 5.0291 2.3874
4.2017 5.1832 2.3874
4.0127 5.3307 2.3874
3.8186 5.4713 2.3874
3.6196 5.6048 2.3874
3.4158 5.7310 2.3874
3.2077 5.8499 2.3874
2.9955 5.9612 2.3874
2.7794 6.0649 2.3874
2.5597 6.1607 2.3874
0.9267 2.4780 0.9468
0.8372 2.5100 0.9469
0.7466 2.5387 0.9470
0.6550 2.5642 0.9471
0.5625 2.5863 0.9472
0.4693 2.6050 0.9473
0.3754 2.6204 0.9474
0.2811 2.6324 0.9475
0.1864 2.6410 0.9475
0.0914 2.6461 0.9476
-0.0037 2.6478 0.9477
-0.0988 2.6461 0.9477
-0.1938 2.6409 0.9477
-0.2886 2.6323 0.9478
-0.3829 2.6203 0.9478
-0.4768 2.6049 0.9478
-0.5701 2.5860 0.9478
-0.6626 2.5639 0.9478
-0.7542 2.5384 0.9478
-0.8449 2.5096 0.9477
-2.3541 6.2413 2.3874
-2.5768 6.1528 2.3874
-2.7961 6.0563 2.3874
-3.0119 5.9520 2.3874
-3.2238 5.8400 2.3874
-3.4315 5.7205 2.3874
-3.6348 5.5936 2.3874
-3.8334 5.4595 2.3874
-4.0271 5.3184 2.3874
-4.2156 5.1704 2.3874
-4.3987 5.0157 2.3874
-4.5760 4.8545 2.3874
-4.7475 4.6871 2.3874
-4.9129 4.5137 2.3874
-5.0719 4.3344 2.3874
-5.2245 4.1495 2.3874
-5.3703 3.9592 2.3874
-5.5091 3.7638 2.3874
-5.6409 3.5636 2.3874
-5.7654 3.3588 2.3874
-5.8824 3.1496 2.3874
-5.9919 2.9364 2.3874
-6.0936 2.7193 2.3874
-6.1875 2.4988 2.3874
-6.2735 2.2750 2.3874
-6.3513 2.0482 2.3874
-6.4209 1.8188 2.3874
-6.4823 1.5871 2.3874
-6.5353 1.3533 2.3874
-6.5799 1.1177 2.3874
-6.6160 0.8807 2.3874
-6.6435 0.6425 2.3874
-6.6625 0.4035 2.3874
-6.6729 0.1639 2.3874
-6.6747 -0.0758 2.3874
-6.6678 -0.3155 2.3874
-6.6524 -0.5548 2.3874
-6.6284 -0.7934 2.3874
-6.5958 -1.0310 2.3874
-6.5547 -1.2673 2.3874
-6.5052 -1.5019 2.3874
-6.4472 -1.7346 2.3874
-6.3810 -1.9651 2.3874
-6.3064 -2.1931 2.3874
-6.2238 -2.4183 2.3874
-6.1331 -2.6403 2.3874
-6.0345 -2.8590 2.3874
-5.9281 -3.0739 2.3874
-5.8140 -3.2850 2.3874
-5.6925 -3.4918 2.3874
-5.5635 -3.6940 2.3874
-5.4274 -3.8916 2.3874
-5.2843 -4.0841 2.3874
-5.1344 -4.2714 2.3874
-4.9778 -4.4531 2.3874
-4.8148 -4.6291 2.3874
-4.6455 -4.7992 2.3874
-4.4703 -4.9630 2.3874
-4.2893 -5.1205 2.3874
-4.1027 -5.2714 2.3874
-3.9108 -5.4154 2.3874
-3.7139 -5.5525 2.3874
-3.5121 -5.6824 2.3874
-3.3059 -5.8050 2.3874
-3.0953 -5.9201 2.3874
-2.8808 -6.0275 2.3874
-2.6625 -6.1272 2.3874
-2.4408 -6.2190 2.3874
-2.2159 -6.3027 2.3874
-1.9881 -6.3783 2.3874
-1.7578 -6.4457 2.3874
-1.5252 -6.5048 2.3874
-1.2906 -6.5554 2.3874
-1.0544 -6.5976 2.3874
-0.8168 -6.6313 2.3874
-0.5781 -6.6564 2.3874
-0.3387 -6.6729 2.3874
-0.0988 -6.6808 2.3874
0.1412 -6.6801 2.3874
0.3810 -6.6707 2.3874
0.6203 -6.6528 2.3874
0.8588 -6.6262 2.3874
1.0962 -6.5911 2.3874
1.3322 -6.5475 2.3874
1.5665 -6.4954 2.3874
1.7987 -6.4349 2.3874
2.0287 -6.3662 2.3874
2.2560 -6.2892 2.3874
2.4804 -6.2041 2.3874
2.7016 -6.1110 2.3874
2.9193 -6.0099 2.3874
3.1332 -5.9012 2.3874
3.3430 -5.7848 2.3874
3.5486 -5.6610 2.3874
3.7495 -5.5298 2.3874
3.9457 -5.3915 2.3874
4.1367 -5.2463 2.3874
4.3224 -5.0942 2.3874
4.5025 -4.9356 2.3874
4.6767 -4.7707 2.3874
4.8450 -4.5996 2.3874
5.0069 -4.4225 2.3874
5.1624 -4.2398 2.3874
5.3113 -4.0516 2.3874
5.4532 -3.8581 2.3874
5.5881 -3.6597 2.3874
5.7158 -3.4566 2.3874
5.8362 -3.2490 2.3874
5.9489 -3.0372 2.3874
6.0540 -2.8215 2.3874
6.1513 -2.6022 2.3874
6.2406 -2.3796 2.3874
6.3219 -2.1539 2.3874
6.3950 -1.9254 2.3874
6.4598 -1.6944 2.3874
6.5164 -1.4613 2.3874
6.5645 -1.2263 2.3874
6.6041 -0.9897 2.3874
6.6352 -0.7518 2.3874
6.6577 -0.5130 2.3874
6.6716 -0.2736 2.3874
6.6770 -0.0338 2.3874
6.6737 0.2060 2.3874
6.6618 0.4456 2.3874
6.6413 0.6845 2.3874
6.6122 0.9226 2.3874
6.5746 1.1594 2.3874
6.5285 1.3948 2.3874
6.4740 1.6283 2.3874
6.4112 1.8597 2.3874
6.3400 2.0887 2.3874
6.2607 2.3150 2.3874
6.1734 2.5383 2.3874
6.0780 2.7583 2.3874
5.9749 2.9747 2.3874
5.8640 3.1873 2.3874
5.7456 3.3958 2.3874
5.6197 3.5999 2.3874
5.4867 3.7993 2.3874
5.3465 3.9938 2.3874
5.1995 4.1831 2.3874
5.0458 4.3671 2.3874
4.8855 4.5454 2.3874
4.7190 4.7178 2.3874
4.5464 4.8841 2.3874
4.3679 5.0442 2.3874
4.1838 5.1977 2.3874
3.9943 5.3445 2.3874
3.7997 5.4844 2.3874
3.6002 5.6172 2.3874
3.3960 5.7428 2.3874
3.1875 5.8609 2.3874
2.9749 5.9715 2.3874
2.7584 6.0744 2.3874
2.5384 6.1695 2.3874
0.9181 2.4812 0.9468
0.8285 2.5129 0.9469
0.7378 2.5413 0.9470
0.6461 2.5664 0.9471
0.5536 2.5882 0.9472
0.4603 2.6067 0.9473
0.3664 2.6217 0.9474
0.2720 2.6334 0.9475
0.1772 2.6416 0.9476
0.0822 2.6464 0.9476
-0.0129 2.6478 0.9477
-0.1080 2.6457 0.9477
-0.2029 2.6402 0.9477
-0.2976 2.6313 0.9478
-0.3920 2.6189 0.9478
-0.4858 2.6032 0.9478
-0.5790 2.5841 0.9478
-0.6714 2.5616 0.9478
-0.7630 2.5358 0.9478
-0.8536 2.5067 0.9477
-2.3756 6.2332 2.3874
-2.5980 6.1438 2.3874
-2.8170 6.0466 2.3874
-3.0324 5.9416 2.3874
-3.2439 5.8289 2.3874
-3.4512 5.7086 2.3874
-3.6541 5.5811 2.3874
-3.8522 5.4463 2.3874
-4.0454 5.3045 2.3874
-4.2334 5.1558 2.3874
-4.4159 5.0005 2.3874
-4.5928 4.8387 2.3874
-4.7637 4.6707 2.3874
-4.9284 4.4967 2.3874
-5.0869 4.3168 2.3874
-5.2388 4.1314 2.3874
-5.3839 3.9407 2.3874
-5.5221 3.7448 2.3874
-5.6531 3.5441 2.3874
-5.7769 3.3389 2.3874
-5.8933 3.1293 2.3874
-6.0020 2.9157 2.3874
-6.1030 2.6983 2.3874
-6.1961 2.4774 2.3874
-6.2813 2.2533 2.3874
-6.3583 2.0263 2.3874
-6.4272 1.7967 2.3874
-6.4877 1.5647 2.3874
-6.5400 1.3307 2.3874
-6.5837 1.0950 2.3874
-6.6190 0.8579 2.3874
-6.6457 0.6196 2.3874
-6.6639 0.3805 2.3874
-6.6734 0.1409 2.3874
-6.6744 -0.0989 2.3874
-6.6667 -0.3385 2.3874
-6.6505 -0.5778 2.3874
-6.6256 -0.8163 2.3874
-6.5922 -1.0538 2.3874
-6.5503 -1.2899 2.3874
-6.0440 1.5018 2.3874
-6.0942 1.2838 2.3874
-6.1366 1.0641 2.3874
-6.1710 0.8431 2.3874
-6.1975 0.6209 2.3874
-6.2160 0.3979 2.3874
-6.2264 0.1744 2.3874
-6.2288 -0.0493 2.3874
-6.2232 -0.2730 2.3874
-6.2096 -0.4964 2.3874
-6.1879 -0.7191 2.3874
-6.1583 -0.9409 2.3874
-6.1207 -1.1615 2.3874
-6.0752 -1.3806 2.3874
-6.0218 -1.5980 2.3874
-5.9607 -1.8133 2.3874
-5.8919 -2.0263 2.3874
-5.8155 -2.2366 2.3874
-5.7316 -2.4441 2.3874
-5.6403 -2.6485 2.3874
-5.5417 -2.8494 2.3874
-5.4359 -3.0467 2.3874
-5.3231 -3.2400 2.3874
-5.2035 -3.4292 2.3874
-5.0771 -3.6140 2.3874
-4.9441 -3.7941 2.3874
-4.8048 -3.9693 2.3874
-4.6593 -4.1394 2.3874
-4.5077 -4.3042 2.3874
-4.3503 -4.4634 2.3874
-4.1873 -4.6168 2.3874
-4.0189 -4.7644 2.3874
-3.8453 -4.9057 2.3874
-3.6667 -5.0408 2.3874
-3.4834 -5.1693 2.3874
-3.2955 -5.2912 2.3874
-3.1035 -5.4062 2.3874
-2.9074 -5.5143 2.3874
-2.7075 -5.6152 2.3874
-2.5041 -5.7089 2.3874
-2.2975 -5.7953 2.3874
-2.0879 -5.8741 2.3874
-1.8757 -5.9454 2.3874
-1.6610 -6.0090 2.3874
-1.4441 -6.0649 2.3874
-1.2254 -6.1129 2.3874
-1.0051 -6.1530 2.3874
-0.7835 -6.1852 2.3874
-0.5609 -6.2094 2.3874
-0.3375 -6.2256 2.3874
-0.1137 -6.2337 2.3874
0.1102 -6.2338 2.3874
0.3340 -6.2258 2.3874
0.5574 -6.2099 2.3874
0.7801 -6.1858 2.3874
1.0017 -6.1538 2.3874
1.2220 -6.1139 2.3874
1.4408 -6.0661 2.3874
1.6577 -6.0104 2.3874
1.8725 -5.9470 2.3874
2.0849 -5.8759 2.3874
2.2945 -5.7972 2.3874
2.5012 -5.7110 2.3874
2.7047 -5.6174 2.3874
2.9046 -5.5166 2.3874
3.1009 -5.4087 2.3874
3.2931 -5.2938 2.3874
3.4810 -5.1721 2.3874
3.6645 -5.0437 2.3874
3.8432 -4.9088 2.3874
4.0169 -4.7675 2.3874
4.1855 -4.6201 2.3874
4.3486 -4.4667 2.3874
4.5062 -4.3076 2.3874
4.6579 -4.1429 2.3874
4.8036 -3.9729 2.3874
4.9431 -3.7978 2.3874
5.0762 -3.6177 2.3874
5.2027 -3.4330 2.3874
5.3225 -3.2439 2.3874
5.4355 -3.0506 2.3874
5.5414 -2.8533 2.3874
5.6402 -2.6524 2.3874
5.7317 -2.4481 2.3874
5.8157 -2.2406 2.3874
5.8923 -2.0302 2.3874
5.9613 -1.8173 2.3874
6.0225 -1.6020 2.3874
6.0760 -1.3846 2.3874
6.1217 -1.1655 2.3874
6.1594 -0.9448 2.3874
6.1892 -0.7230 2.3874
6.2110 -0.5002 2.3874
6.2248 -0.2768 2.3874
6.2305 -0.0531 2.3874
6.2283 0.1707 2.3874
6.2179 0.3943 2.3874
6.1996 0.6174 2.3874
6.1732 0.8396 2.3874
6.1389 1.0607 2.3874
6.0967 1.2805 2.3874
6.0466 1.4986 2.3874
5.9887 1.7147 2.3874
5.9231 1.9287 2.3874
5.8498 2.1401 2.3874
5.7690 2.3488 2.3874
5.6808 2.5544 2.3874
5.5852 2.7567 2.3874
5.4825 2.9554 2.3874
5.3726 3.1504 2.3874
5.2558 3.3412 2.3874
5.1323 3.5277 2.3874
5.0022 3.7097 2.3874
4.8656 3.8869 2.3874
4.7227 4.0590 2.3874
4.5738 4.2259 2.3874
4.4189 4.3874 2.3874
4.2584 4.5432 2.3874
4.0923 4.6931 2.3874
3.9210 4.8369 2.3874
3.7447 4.9746 2.3874
3.5635 5.1057 2.3874
3.3778 5.2303 2.3874
3.1877 5.3482 2.3874
2.9935 5.4591 2.3874
2.7954 5.5630 2.3874
2.5937 5.6598 2.3874
2.3887 5.7492 2.3874
0.8645 2.3116 0.9464
0.7809 2.3414 0.9465
0.6964 2.3682 0.9466
0.6110 2.3919 0.9467
0.5247 2.4125 0.9468
0.4377 2.4300 0.9469
0.3502 2.4443 0.9470
0.2622 2.4555 0.9471
0.1738 2.4635 0.9471
0.0852 2.4682 0.9472
-0.0035 2.4698 0.9472
-0.0922 2.4682 0.9473
-0.1808 2.4634 0.9473
-0.2692 2.4553 0.9473
-0.3572 2.4441 0.9473
-0.4448 2.4297 0.9473
-0.5317 2.4122 0.9473
-0.6180 2.3915 0.9473
-0.7035 2.3677 0.9473
-0.7881 2.3409 0.9473
-0.8717 2.3110 0.9473
-2.4047 5.7418 2.3874
-2.6094 5.6518 2.3874
-2.8107 5.5544 2.3874
-3.0085 5.4499 2.3874
-3.2023 5.3384 2.3874
-3.3920 5.2200 2.3874
-3.5774 5.0948 2.3874
-3.7581 4.9631 2.3874
-3.9340 4.8250 2.3874
-4.1048 4.6806 2.3874
-4.2704 4.5303 2.3874
-4.4304 4.3740 2.3874
-4.5847 4.2121 2.3874
-4.7332 4.0448 2.3874
-4.8755 3.8722 2.3874
-5.0115 3.6947 2.3874
-5.1411 3.5124 2.3874
-5.2641 3.3255 2.3874
-5.3802 3.1344 2.3874
-5.4894 2.9392 2.3874
-5.5916 2.7402 2.3874
-5.6865 2.5376 2.3874
-5.7742 2.3318 2.3874
-5.8543 2.1229 2.3874
-5.9270 1.9113 2.3874
-5.9919 1.6973 2.3874
-6.0492 1.4810 2.3874
-6.0986 1.2628 2.3874
-6.1402 1.0430 2.3874
-6.1739 0.8218 2.3874
-6.1996 0.5995 2.3874
-6.2173 0.3765 2.3874
-6.2270 0.1529 2.3874
-6.2286 -0.0708 2.3874
-6.2222 -0.2945 2.3874
-6.2078 -0.5178 2.3874
-6.1854 -0.7404 2.3874
-6.1550 -0.9622 2.3874
-6.1166 -1.1826 2.3874
-6.0704 -1.4016 2.3874
-6.0163 -1.6187 2.3874
-5.9545 -1.8338 2.3874
-5.8849 -2.0466 2.3874
-5.8078 -2.2567 2.3874
-5.7231 -2.4639 2.3874
-5.6311 -2.6679 2.3874
-5.5318 -2.8685 2.3874
-5.4254 -3.0654 2.3874
-5.3119 -3.2584 2.3874
-5.1916 -3.4471 2.3874
-5.0646 -3.6315 2.3874
-4.9310 -3.8111 2.3874
-4.7911 -3.9859 2.3874
-4.6450 -4.1554 2.3874
-4.4929 -4.3197 2.3874
-4.3349 -4.4784 2.3874
-4.1714 -4.6313 2.3874
-4.0025 -4.7782 2.3874
-3.8284 -4.9190 2.3874
-3.6493 -5.0534 2.3874
-3.4655 -5.1813 2.3874
-3.2773 -5.3025 2.3874
-3.0848 -5.4169 2.3874
-2.8883 -5.5243 2.3874
-2.6881 -5.6245 2.3874
-2.4844 -5.7175 2.3874
-2.2775 -5.8032 2.3874
-2.0677 -5.8813 2.3874
-1.8552 -5.9518 2.3874
-1.6402 -6.0147 2.3874
-1.4232 -6.0698 2.3874
-1.2043 -6.1171 2.3874
-0.9839 -6.1564 2.3874
-0.7621 -6.1878 2.3874
-0.5394 -6.2113 2.3874
-0.3160 -6.2267 2.3874
-0.0922 -6.2341 2.3874
0.1317 -6.2334 2.3874
0.3555 -6.2247 2.3874
0.5788 -6.2079 2.3874
0.8014 -6.1831 2.3874
1.0229 -6.1503 2.3874
1.2431 -6.1096 2.3874
1.4617 -6.0610 2.3874
1.6784 -6.0046 2.3874
1.8930 -5.9405 2.3874
2.1051 -5.8686 2.3874
2.3145 -5.7892 2.3874
2.5209 -5.7023 2.3874
2.7240 -5.6081 2.3874
2.9236 -5.5066 2.3874
3.1195 -5.3980 2.3874
3.3113 -5.2824 2.3874
3.4988 -5.1600 2.3874
3.6818 -5.0310 2.3874
3.8601 -4.8955 2.3874
4.0333 -4.7536 2.3874
4.2014 -4.6056 2.3874
4.3640 -4.4517 2.3874
4.5210 -4.2920 2.3874
4.6721 -4.1268 2.3874
4.8172 -3.9563 2.3874
4.9561 -3.7807 2.3874
5.0886 -3.6002 2.3874
5.2145 -3.4150 2.3874
5.3337 -3.2255 2.3874
5.4460 -3.0318 2.3874
5.5512 -2.8342 2.3874
5.6493 -2.6329 2.3874
5.7400 -2.4283 2.3874
5.8234 -2.2205 2.3874
5.8993 -2.0099 2.3874
5.9675 -1.7967 2.3874
6.0280 -1.5812 2.3874
6.0807 -1.3636 2.3874
6.1256 -1.1443 2.3874
6.1626 -0.9236 2.3874
6.1917 -0.7016 2.3874
6.2127 -0.4788 2.3874
6.2257 -0.2553 2.3874
6.2307 -0.0316 2.3874
6.2276 0.1922 2.3874
6.2165 0.4157 2.3874
6.1974 0.6387 2.3874
6.1703 0.8609 2.3874
6.1352 1.0819 2.3874
6.0922 1.3015 2.3874
6.0414 1.5194 2.3874
5.9827 1.7354 2.3874
5.9164 1.9491 2.3874
5.8424 2.1603 2.3874
5.7609 2.3687 2.3874
5.6719 2.5740 2.3874
5.5756 2.7759 2.3874
5.4722 2.9743 2.3874
5.3617 3.1689 2.3874
5.2443 3.3593 2.3874
5.1201 3.5454 2.3874
4.9893 3.7269 2.3874
4.8521 3.9036 2.3874
4.7087 4.0753 2.3874
4.5591 4.2417 2.3874
4.4037 4.4026 2.3874
4.2427 4.5578 2.3874
4.0761 4.7072 2.3874
3.9043 4.8504 2.3874
3.7275 4.9874 2.3874
3.5459 5.1180 2.3874
3.3597 5.2420 2.3874
3.1692 5.3591 2.3874
2.9746 5.4694 2.3874
2.7762 5.5726 2.3874
2.5742 5.6687 2.3874
2.3689 5.7574 2.3874
0.8565 2.3146 0.9464
0.7729 2.3441 0.9465
0.6882 2.3706 0.9466
0.6027 2.3940 0.9467
0.5164 2.4143 0.9468
0.4294 2.4315 0.9469
0.3418 2.4455 0.9470
0.2537 2.4564 0.9471
0.1653 2.4641 0.9471
0.0767 2.4685 0.9472
-0.0120 2.4698 0.9472
-0.1007 2.4679 0.9473
-0.1893 2.4627 0.9473
-0.2776 2.4544 0.9473
-0.3656 2.4429 0.9473
-0.4531 2.4282 0.9473
-0.5401 2.4103 0.9473
-0.6263 2.3894 0.9473
-0.7117 2.3653 0.9473
-0.7962 2.3382 0.9473
-0.8796 2.3080 0.9473
-2.4244 5.7335 2.3874
-2.6288 5.6427 2.3874
-2.8299 5.5447 2.3874
-3.0272 5.4395 2.3874
-3.2207 5.3273 2.3874
-3.4100 5.2083 2.3874
-3.5949 5.0825 2.3874
-3.7752 4.9501 2.3874
-3.9506 4.8114 2.3874
-4.1210 4.6665 2.3874
-4.2860 4.5155 2.3874
-4.4455 4.3587 2.3874
-4.5993 4.1963 2.3874
-4.7471 4.0285 2.3874
-4.8888 3.8554 2.3874
-5.0243 3.6774 2.3874
-5.1532 3.4946 2.3874
-5.2755 3.3074 2.3874
-5.3910 3.1158 2.3874
-5.4996 2.9202 2.3874
-5.6010 2.7209 2.3874
-5.6953 2.5180 2.3874
-5.7822 2.3119 2.3874
-5.8616 2.1027 2.3874
-5.9335 1.8909 2.3874
-5.9977 1.6766 2.3874
-6.0543 1.4601 2.3874
-6.1030 1.2418 2.3874
-6.1438 1.0218 2.3874
-6.1767 0.8005 2.3874
-6.2016 0.5781 2.3874
-6.2186 0.3550 2.3874
-6.2275 0.1315 2.3874
-6.2284 -0.0923 2.3874
-6.2212 -0.3160 2.3874
-6.2060 -0.5392 2.3874
-6.1828 -0.7618 2.3874
-6.1517 -0.9834 2.3874
-6.1126 -1.2037 2.3874
-5.6593 1.4062 2.3874
-5.7063 1.2021 2.3874
-5.7460 0.9964 2.3874
-5.7782 0.7894 2.3874
-5.8030 0.5813 2.3874
-5.8203 0.3725 2.3874
-5.8300 0.1633 2.3874
-5.8323 -0.0462 2.3874
-5.8270 -0.2557 2.3874
-5.8142 -0.4648 2.3874
-5.7940 -0.6734 2.3874
-5.7662 -0.8811 2.3874
-5.7310 -1.0876 2.3874
-5.6884 -1.2928 2.3874
-5.6384 -1.4963 2.3874
-5.5812 -1.6979 2.3874
-5.5168 -1.8973 2.3874
-5.4452 -2.0943 2.3874
-5.3666 -2.2885 2.3874
-5.2811 -2.4799 2.3874
-5.1888 -2.6680 2.3874
-5.0897 -2.8527 2.3874
-4.9841 -3.0337 2.3874
-4.8721 -3.2109 2.3874
-4.7537 -3.3839 2.3874
-4.6293 -3.5525 2.3874
-4.4988 -3.7165 2.3874
-4.3625 -3.8758 2.3874
-4.2206 -4.0301 2.3874
-4.0732 -4.1791 2.3874
-3.9206 -4.3228 2.3874
-3.7629 -4.4609 2.3874
-3.6004 -4.5933 2.3874
-3.4331 -4.7197 2.3874
-3.2615 -4.8401 2.3874
-3.0856 -4.9542 2.3874
-2.9058 -5.0619 2.3874
-2.7222 -5.1631 2.3874
-2.5350 -5.2576 2.3874
-2.3446 -5.3453 2.3874
-2.1512 -5.4261 2.3874
-1.9549 -5.5000 2.3874
-1.7562 -5.5667 2.3874
-1.5552 -5.6262 2.3874
-1.3521 -5.6785 2.3874
-1.1473 -5.7235 2.3874
-0.9411 -5.7611 2.3874
-0.7336 -5.7912 2.3874
-0.5251 -5.8138 2.3874
-0.3160 -5.8290 2.3874
-0.1065 -5.8366 2.3874
0.1032 -5.8367 2.3874
0.3128 -5.8292 2.3874
0.5219 -5.8143 2.3874
0.7304 -5.7918 2.3874
0.9379 -5.7618 2.3874
1.1442 -5.7244 2.3874
1.3490 -5.6796 2.3874
1.5521 -5.6275 2.3874
1.7532 -5.5681 2.3874
1.9520 -5.5016 2.3874
2.1484 -5.4279 2.3874
2.3419 -5.3472 2.3874
2.5324 -5.2596 2.3874
2.7196 -5.1652 2.3874
2.9033 -5.0642 2.3874
3.0833 -4.9566 2.3874
3.2593 -4.8426 2.3874
3.4310 -4.7224 2.3874
3.5984 -4.5961 2.3874
3.7611 -4.4638 2.3874
3.9189 -4.3258 2.3874
4.0717 -4.1822 2.3874
4.2191 -4.0332 2.3874
4.3612 -3.8791 2.3874
4.4976 -3.7199 2.3874
4.6282 -3.5559 2.3874
4.7528 -3.3873 2.3874
4.8713 -3.2144 2.3874
4.9835 -3.0373 2.3874
5.0893 -2.8563 2.3874
5.1885 -2.6716 2.3874
5.2810 -2.4835 2.3874
5.3666 -2.2922 2.3874
5.4454 -2.0979 2.3874
5.5171 -1.9010 2.3874
5.5816 -1.7016 2.3874
5.6390 -1.5000 2.3874
5.6891 -1.2965 2.3874
5.7318 -1.0913 2.3874
5.7672 -0.8847 2.3874
5.7951 -0.6770 2.3874
5.8155 -0.4684 2.3874
5.8284 -0.2592 2.3874
5.8338 -0.0497 2.3874
5.8317 0.1598 2.3874
5.8220 0.3692 2.3874
5.8049 0.5780 2.3874
5.7802 0.7861 2.3874
5.7481 0.9932 2.3874
5.7086 1.1989 2.3874
5.6616 1.4032 2.3874
5.6074 1.6055 2.3874
5.5460 1.8059 2.3874
5.4774 2.0038 2.3874
5.4018 2.1992 2.3874
5.3192 2.3917 2.3874
5.2297 2.5812 2.3874
5.1335 2.7673 2.3874
5.0306 2.9498 2.3874
4.9213 3.1285 2.3874
4.8057 3.3032 2.3874
4.6838 3.4736 2.3874
4.5559 3.6395 2.3874
4.4221 3.8007 2.3874
4.2827 3.9569 2.3874
4.1377 4.1081 2.3874
3.9874 4.2540 2.3874
3.8319 4.3944 2.3874
3.6715 4.5291 2.3874
3.5064 4.6579 2.3874
3.3368 4.7808 2.3874
3.1628 4.8975 2.3874
2.9848 5.0078 2.3874
2.8030 5.1117 2.3874
2.6175 5.2090 2.3874
2.4287 5.2996 2.3874
0.8863 2.1330 0.9460
0.8092 2.1637 0.9461
0.7310 2.1916 0.9462
0.6519 2.2167 0.9463
0.5719 2.2388 0.9464
0.4911 2.2581 0.9465
0.4097 2.2745 0.9465
0.3278 2.2879 0.9466
0.2454 2.2983 0.9467
0.1627 2.3058 0.9467
0.0798 2.3102 0.9468
-0.0033 2.3117 0.9468
-0.0863 2.3102 0.9469
-0.1692 2.3057 0.9469
-0.2519 2.2982 0.9469
-0.3343 2.2876 0.9469
-0.4163 2.2742 0.9470
-0.4977 2.2578 0.9470
-0.5785 2.2384 0.9469
-0.6585 2.2162 0.9469
-0.7377 2.1910 0.9469
-0.8159 2.1631 0.9469
-0.8930 2.1323 0.9468
-2.4433 5.2921 2.3874
-2.6319 5.2010 2.3874
-2.8170 5.1031 2.3874
-2.9985 4.9987 2.3874
-3.1762 4.8878 2.3874
-3.3497 4.7706 2.3874
-3.5190 4.6473 2.3874
-3.6837 4.5179 2.3874
-3.8437 4.3828 2.3874
-3.9986 4.2420 2.3874
-4.1485 4.0956 2.3874
-4.2930 3.9441 2.3874
-4.4320 3.7874 2.3874
-4.5652 3.6258 2.3874
-4.6926 3.4595 2.3874
-4.8139 3.2888 2.3874
-4.9290 3.1139 2.3874
-5.0378 2.9349 2.3874
-5.1401 2.7521 2.3874
-5.2357 2.5657 2.3874
-5.3246 2.3761 2.3874
-5.4067 2.1833 2.3874
-5.4817 1.9878 2.3874
-5.5497 1.7897 2.3874
-5.6106 1.5892 2.3874
-5.6641 1.3867 2.3874
-5.7104 1.1824 2.3874
-5.7494 0.9765 2.3874
-5.7809 0.7694 2.3874
-5.8050 0.5613 2.3874
-5.8215 0.3525 2.3874
-5.8306 0.1432 2.3874
-5.8321 -0.0664 2.3874
-5.8261 -0.2758 2.3874
-5.8126 -0.4849 2.3874
-5.7916 -0.6933 2.3874
-5.7631 -0.9009 2.3874
-5.7272 -1.1074 2.3874
-5.6839 -1.3124 2.3874
-5.6333 -1.5157 2.3874
-5.5753 -1.7171 2.3874
-5.5102 -1.9163 2.3874
-5.4380 -2.1130 2.3874
-5.3587 -2.3070 2.3874
-5.2725 -2.4981 2.3874
-5.1796 -2.6859 2.3874
-5.0799 -2.8703 2.3874
-4.9736 -3.0509 2.3874
-4.8610 -3.2277 2.3874
-4.7421 -3.4002 2.3874
-4.6170 -3.5684 2.3874
-4.4860 -3.7320 2.3874
-4.3491 -3.8908 2.3874
-4.2067 -4.0446 2.3874
-4.0588 -4.1932 2.3874
-3.9057 -4.3363 2.3874
-3.7475 -4.4739 2.3874
-3.5845 -4.6057 2.3874
-3.4168 -4.7315 2.3874
-3.2448 -4.8513 2.3874
-3.0685 -4.9648 2.3874
-2.8883 -5.0719 2.3874
-2.7043 -5.1724 2.3874
-2.5169 -5.2663 2.3874
-2.3262 -5.3534 2.3874
