ply
format ascii 1.0
element vertex 2177
property float32 x
property float32 y
property float32 z
end_header
4.8025 -6.9418 2.3874
5.0483 -6.7649 2.3874
5.2877 -6.5792 2.3874
5.5203 -6.3852 2.3874
5.7458 -6.1829 2.3874
5.9638 -5.9726 2.3874
6.1741 -5.7546 2.3874
6.3765 -5.5293 2.3874
6.5706 -5.2968 2.3874
6.7563 -5.0575 2.3874
6.9332 -4.8117 2.3874
7.1012 -4.5597 2.3874
7.2601 -4.3018 2.3874
7.4095 -4.0384 2.3874
7.5494 -3.7698 2.3874
7.6796 -3.4964 2.3874
7.7999 -3.2185 2.3874
7.9101 -2.9365 2.3874
8.0102 -2.6507 2.3874
8.0999 -2.3614 2.3874
8.1791 -2.0692 2.3874
8.2478 -1.7743 2.3874
8.3059 -1.4772 2.3874
8.3532 -1.1781 2.3874
8.3899 -0.8776 2.3874
8.4157 -0.5760 2.3874
8.4306 -0.2736 2.3874
8.4347 0.0291 2.3874
8.4279 0.3317 2.3874
8.4103 0.6339 2.3874
8.3818 0.9352 2.3874
8.3425 1.2354 2.3874
8.2925 1.5339 2.3874
8.2319 1.8304 2.3874
8.1606 2.1245 2.3874
8.0788 2.4159 2.3874
7.9866 2.7042 2.3874
7.8841 2.9889 2.3874
7.7715 3.2697 2.3874
7.6489 3.5464 2.3874
7.5165 3.8184 2.3874
7.3743 4.0856 2.3874
7.2227 4.3474 2.3874
7.0619 4.6036 2.3874
6.8919 4.8539 2.3874
6.7130 5.0980 2.3874
6.5256 5.3354 2.3874
6.3297 5.5660 2.3874
6.1257 5.7893 2.3874
5.9138 6.0052 2.3874
5.6943 6.2134 2.3874
5.4675 6.4136 2.3874
5.2337 6.6055 2.3874
4.9932 6.7888 2.3874
4.7462 6.9635 2.3874
4.4931 7.1291 2.3874
4.2343 7.2856 2.3874
3.9701 7.4327 2.3874
3.7007 7.5702 2.3874
3.4266 7.6980 2.3874
3.1481 7.8158 2.3874
2.8655 7.9236 2.3874
2.5793 8.0212 2.3874
0.9111 3.2265 0.9500
0.7949 3.2576 0.9502
0.6775 3.2845 0.9503
0.5593 3.3071 0.9504
0.4403 3.3254 0.9505
0.3207 3.3394 0.9506
0.2007 3.3490 0.9507
0.0804 3.3543 0.9508
-0.0400 3.3552 0.9509
-0.1604 3.3518 0.9509
-0.2806 3.3439 0.9509
-0.4004 3.3318 0.9510
-0.5198 3.3153 0.9510
-0.6384 3.2945 0.9510
-0.7562 3.2694 0.9509
-0.8730 3.2400 0.9509
-2.4823 8.0507 2.3874
-2.7697 7.9565 2.3874
-3.0534 7.8520 2.3874
-3.3333 7.7375 2.3874
-3.6088 7.6129 2.3874
-3.8797 7.4786 2.3874
-4.1457 7.3346 2.3874
-4.4063 7.1812 2.3874
-4.6612 7.0186 2.3874
-4.9101 6.8469 2.3874
-5.1528 6.6664 2.3874
-5.3888 6.4773 2.3874
-5.6179 6.2798 2.3874
-5.8397 6.0743 2.3874
-6.0540 5.8610 2.3874
-6.2606 5.6401 2.3874
-6.4591 5.4119 2.3874
-6.6493 5.1767 2.3874
-6.8310 4.9349 2.3874
-7.0039 4.6867 2.3874
-7.1677 4.4325 2.3874
-7.3224 4.1725 2.3874
-7.4676 3.9072 2.3874
-7.6032 3.6368 2.3874
-7.7291 3.3617 2.3874
-7.8450 3.0823 2.3874
-7.9508 2.7989 2.3874
-8.0464 2.5118 2.3874
-8.1316 2.2215 2.3874
-8.2063 1.9284 2.3874
-8.2705 1.6327 2.3874
-8.3241 1.3349 2.3874
-8.3669 1.0354 2.3874
-8.3989 0.7345 2.3874
-8.4202 0.4326 2.3874
-8.4306 0.1302 2.3874
-8.4301 -0.1724 2.3874
-8.4188 -0.4748 2.3874
-8.3967 -0.7767 2.3874
-8.3637 -1.0775 2.3874
-8.3200 -1.3770 2.3874
-8.2655 -1.6747 2.3874
-8.2004 -1.9703 2.3874
-8.1247 -2.2634 2.3874
-8.0385 -2.5535 2.3874
-7.9420 -2.8405 2.3874
-7.8352 -3.1237 2.3874
-7.7184 -3.4030 2.3874
-7.5916 -3.6779 2.3874
-7.4550 -3.9480 2.3874
-7.3088 -4.2132 2.3874
-7.1531 -4.4729 2.3874
-6.9882 -4.7268 2.3874
-6.8143 -4.9747 2.3874
-6.6317 -5.2162 2.3874
-6.4404 -5.4509 2.3874
-6.2409 -5.6787 2.3874
-6.0333 -5.8991 2.3874
-5.8179 -6.1120 2.3874
-5.5950 -6.3171 2.3874
-5.3649 -6.5139 2.3874
-5.1279 -6.7024 2.3874
-4.8842 -6.8823 2.3874
-4.6342 -7.0533 2.3874
-4.3783 -7.2152 2.3874
-4.1166 -7.3678 2.3874
-3.8497 -7.5110 2.3874
-3.5778 -7.6444 2.3874
-3.3013 -7.7680 2.3874
-3.0205 -7.8817 2.3874
-2.7358 -7.9851 2.3874
-2.4475 -8.0783 2.3874
-2.1561 -8.1610 2.3874
-1.8620 -8.2332 2.3874
-1.5653 -8.2949 2.3874
-1.2667 -8.3458 2.3874
-0.9665 -8.3860 2.3874
-0.6650 -8.4153 2.3874
-0.3626 -8.4338 2.3874
-0.0597 -8.4415 2.3874
0.2432 -8.4382 2.3874
0.5458 -8.4241 2.3874
0.8478 -8.3991 2.3874
1.1486 -8.3633 2.3874
1.4479 -8.3167 2.3874
1.7454 -8.2594 2.3874
2.0406 -8.1915 2.3874
2.3332 -8.1129 2.3874
2.6228 -8.0240 2.3874
2.9090 -7.9246 2.3874
3.1915 -7.8151 2.3874
3.4698 -7.6955 2.3874
3.7436 -7.5660 2.3874
4.0127 -7.4267 2.3874
4.2765 -7.2779 2.3874
4.5348 -7.1196 2.3874
-0.2998 -7.7633 2.3874
-0.0211 -7.7691 2.3874
0.2577 -7.7649 2.3874
0.5362 -7.7507 2.3874
0.8139 -7.7265 2.3874
1.0906 -7.6923 2.3874
1.3659 -7.6483 2.3874
1.6395 -7.5943 2.3874
1.9109 -7.5306 2.3874
2.1799 -7.4571 2.3874
2.4460 -7.3741 2.3874
2.7090 -7.2815 2.3874
2.9686 -7.1796 2.3874
3.2242 -7.0684 2.3874
3.4757 -6.9481 2.3874
3.7227 -6.8189 2.3874
3.9650 -6.6808 2.3874
4.2021 -6.5342 2.3874
4.4338 -6.3791 2.3874
4.6597 -6.2158 2.3874
4.8797 -6.0445 2.3874
5.0933 -5.8654 2.3874
5.3004 -5.6788 2.3874
5.5007 -5.4848 2.3874
5.6938 -5.2838 2.3874
5.8796 -5.0761 2.3874
6.0578 -4.8617 2.3874
6.2282 -4.6411 2.3874
6.3906 -4.4145 2.3874
6.5447 -4.1823 2.3874
6.6904 -3.9446 2.3874
6.8274 -3.7019 2.3874
6.9557 -3.4545 2.3874
7.0750 -3.2026 2.3874
7.1851 -2.9466 2.3874
7.2860 -2.6867 2.3874
7.3775 -2.4235 2.3874
7.4595 -2.1572 2.3874
7.5319 -1.8880 2.3874
7.5945 -1.6165 2.3874
7.6474 -1.3429 2.3874
7.6904 -1.0676 2.3874
7.7235 -0.7909 2.3874
7.7467 -0.5133 2.3874
7.7599 -0.2349 2.3874
7.7630 0.0436 2.3874
7.7562 0.3222 2.3874
7.7394 0.6003 2.3874
7.7126 0.8776 2.3874
7.6759 1.1537 2.3874
7.6293 1.4284 2.3874
7.5729 1.7011 2.3874
7.5067 1.9717 2.3874
7.4308 2.2397 2.3874
7.3454 2.5049 2.3874
7.2506 2.7667 2.3874
7.1464 3.0251 2.3874
7.0330 3.2794 2.3874
6.9106 3.5296 2.3874
6.7792 3.7752 2.3874
6.6392 4.0159 2.3874
6.4906 4.2514 2.3874
6.3337 4.4814 2.3874
6.1686 4.7057 2.3874
5.9956 4.9239 2.3874
5.8148 5.1357 2.3874
5.6266 5.3409 2.3874
5.4312 5.5392 2.3874
5.2288 5.7304 2.3874
5.0196 5.9142 2.3874
4.8040 6.0904 2.3874
4.5823 6.2587 2.3874
4.3546 6.4189 2.3874
4.1214 6.5709 2.3874
3.8828 6.7144 2.3874
3.6393 6.8493 2.3874
3.3911 6.9753 2.3874
3.1385 7.0924 2.3874
2.8819 7.2003 2.3874
2.6216 7.2990 2.3874
2.3580 7.3882 2.3874
0.8315 2.9693 0.9492
0.7245 2.9976 0.9494
0.6165 3.0221 0.9495
0.5078 3.0426 0.9496
0.3983 3.0592 0.9497
0.2883 3.0717 0.9498
0.1779 3.0803 0.9499
0.0672 3.0849 0.9500
-0.0436 3.0855 0.9500
-0.1543 3.0821 0.9501
-0.2648 3.0747 0.9501
-0.3750 3.0632 0.9501
-0.4846 3.0478 0.9501
-0.5937 3.0284 0.9501
-0.7020 3.0051 0.9501
-0.8093 2.9779 0.9501
-2.3010 7.4053 2.3874
-2.5653 7.3180 2.3874
-2.8263 7.2213 2.3874
-3.0837 7.1153 2.3874
-3.3370 7.0001 2.3874
-3.5861 6.8759 2.3874
-3.8306 6.7428 2.3874
-4.0702 6.6011 2.3874
-4.3045 6.4509 2.3874
-4.5333 6.2923 2.3874
-4.7563 6.1257 2.3874
-4.9731 5.9512 2.3874
-5.1836 5.7689 2.3874
-5.3873 5.5793 2.3874
-5.5842 5.3825 2.3874
-5.7739 5.1787 2.3874
-5.9561 4.9683 2.3874
-6.1307 4.7515 2.3874
-6.2974 4.5285 2.3874
-6.4560 4.2997 2.3874
-6.6064 4.0654 2.3874
-6.7482 3.8258 2.3874
-6.8813 3.5812 2.3874
-7.0055 3.3321 2.3874
-7.1208 3.0786 2.3874
-7.2269 2.8212 2.3874
-7.3237 2.5601 2.3874
-7.4111 2.2957 2.3874
-7.4889 2.0284 2.3874
-7.5571 1.7584 2.3874
-7.6156 1.4861 2.3874
-7.6643 1.2119 2.3874
-7.7031 0.9361 2.3874
-7.7320 0.6591 2.3874
-7.7509 0.3812 2.3874
-7.7598 0.1029 2.3874
-7.7588 -0.1757 2.3874
-7.7478 -0.4540 2.3874
-7.7267 -0.7317 2.3874
-7.6957 -1.0086 2.3874
-7.6549 -1.2841 2.3874
-7.6041 -1.5580 2.3874
-7.5436 -1.8299 2.3874
-7.4733 -2.0995 2.3874
-7.3934 -2.3664 2.3874
-7.3040 -2.6303 2.3874
-7.2051 -2.8908 2.3874
-7.0970 -3.1476 2.3874
-6.9797 -3.4003 2.3874
-6.8534 -3.6487 2.3874
-6.7183 -3.8924 2.3874
-6.5745 -4.1311 2.3874
-6.4222 -4.3645 2.3874
-6.2617 -4.5922 2.3874
-6.0930 -4.8141 2.3874
-5.9166 -5.0298 2.3874
-5.7325 -5.2390 2.3874
-5.5409 -5.4415 2.3874
-5.3423 -5.6370 2.3874
-5.1367 -5.8252 2.3874
-4.9245 -6.0059 2.3874
-4.7059 -6.1789 2.3874
-4.4813 -6.3439 2.3874
-4.2509 -6.5008 2.3874
-4.0150 -6.6493 2.3874
-3.7739 -6.7892 2.3874
-3.5279 -6.9204 2.3874
-3.2774 -7.0427 2.3874
-3.0227 -7.1559 2.3874
-2.7640 -7.2599 2.3874
-2.5018 -7.3545 2.3874
-2.2363 -7.4396 2.3874
-1.9680 -7.5152 2.3874
-1.6971 -7.5811 2.3874
-1.4240 -7.6372 2.3874
-1.1490 -7.6834 2.3874
-0.8726 -7.7198 2.3874
-0.5951 -7.7462 2.3874
-0.3167 -7.7626 2.3874
-0.0380 -7.7691 2.3874
0.2408 -7.7655 2.3874
0.5193 -7.7519 2.3874
0.7971 -7.7283 2.3874
1.0738 -7.6947 2.3874
1.3492 -7.6512 2.3874
1.6229 -7.5979 2.3874
1.8945 -7.5347 2.3874
2.1636 -7.4619 2.3874
2.4300 -7.3794 2.3874
2.6931 -7.2874 2.3874
2.9529 -7.1861 2.3874
3.2088 -7.0754 2.3874
3.4605 -6.9557 2.3874
3.7079 -6.8270 2.3874
3.9504 -6.6895 2.3874
4.1878 -6.5433 2.3874
4.4198 -6.3887 2.3874
4.6462 -6.2260 2.3874
4.8665 -6.0552 2.3874
5.0805 -5.8765 2.3874
5.2880 -5.6903 2.3874
5.4887 -5.4968 2.3874
5.6823 -5.2963 2.3874
5.8685 -5.0888 2.3874
6.0472 -4.8749 2.3874
6.2181 -4.6547 2.3874
6.3810 -4.4284 2.3874
6.5356 -4.1965 2.3874
6.6818 -3.9592 2.3874
6.8194 -3.7168 2.3874
6.9482 -3.4696 2.3874
7.0680 -3.2180 2.3874
7.1787 -2.9622 2.3874
7.2802 -2.7026 2.3874
7.3722 -2.4396 2.3874
7.4548 -2.1734 2.3874
7.5278 -1.9045 2.3874
7.5910 -1.6331 2.3874
7.6445 -1.3596 2.3874
7.6881 -1.0844 2.3874
7.7218 -0.8078 2.3874
7.7456 -0.5302 2.3874
7.7593 -0.2519 2.3874
7.7631 0.0267 2.3874
7.7569 0.3052 2.3874
7.7407 0.5834 2.3874
7.7145 0.8608 2.3874
7.6784 1.1370 2.3874
7.6324 1.4117 2.3874
7.5766 1.6846 2.3874
7.5110 1.9553 2.3874
7.4357 2.2235 2.3874
7.3509 2.4888 2.3874
7.2566 2.7509 2.3874
7.1530 3.0095 2.3874
7.0402 3.2641 2.3874
6.9183 3.5145 2.3874
6.7875 3.7604 2.3874
6.6480 4.0014 2.3874
6.4999 4.2372 2.3874
6.3434 4.4676 2.3874
6.1788 4.6922 2.3874
6.0063 4.9108 2.3874
5.8260 5.1230 2.3874
5.6383 5.3286 2.3874
5.4433 5.5274 2.3874
5.2413 5.7190 2.3874
5.0325 5.9032 2.3874
4.8173 6.0799 2.3874
4.5959 6.2487 2.3874
4.3686 6.4094 2.3874
4.1357 6.5619 2.3874
3.8975 6.7059 2.3874
3.6542 6.8414 2.3874
3.4063 6.9679 2.3874
3.1540 7.0855 2.3874
2.8976 7.1940 2.3874
2.6375 7.2933 2.3874
2.3741 7.3831 2.3874
0.8380 2.9675 0.9492
0.7310 2.9960 0.9494
0.6231 3.0207 0.9495
0.5144 3.0415 0.9496
0.4049 3.0583 0.9497
0.2950 3.0711 0.9498
0.1846 3.0799 0.9499
0.0739 3.0848 0.9500
-0.0368 3.0856 0.9500
-0.1475 3.0824 0.9501
-0.2581 3.0752 0.9501
-0.3683 3.0640 0.9501
-0.4780 3.0489 0.9501
-0.5871 3.0297 0.9501
-0.6954 3.0066 0.9501
-0.8028 2.9797 0.9501
-2.2849 7.4103 2.3874
-2.5494 7.3236 2.3874
-2.8106 7.2274 2.3874
-3.0681 7.1220 2.3874
-3.3218 7.0073 2.3874
-3.5711 6.8837 2.3874
-3.8159 6.7512 2.3874
-4.0558 6.6100 2.3874
-4.2904 6.4602 2.3874
-4.5196 6.3022 2.3874
-4.7429 6.1360 2.3874
-4.9601 5.9620 2.3874
-5.1710 5.7802 2.3874
-5.3752 5.5911 2.3874
-5.5724 5.3947 2.3874
-5.7626 5.1913 2.3874
-5.9453 4.9813 2.3874
-6.1203 4.7648 2.3874
-6.2875 4.5422 2.3874
-6.4466 4.3138 2.3874
-6.5975 4.0798 2.3874
-6.7398 3.8405 2.3874
-6.8734 3.5962 2.3874
-6.9983 3.3473 2.3874
-7.1141 3.0941 2.3874
-7.2207 2.8370 2.3874
-7.3181 2.5761 2.3874
-7.4061 2.3119 2.3874
-7.4845 2.0447 2.3874
-7.5532 1.7749 2.3874
-7.6123 1.5027 2.3874
-7.6616 1.2286 2.3874
-7.7010 0.9529 2.3874
-7.7305 0.6760 2.3874
-7.7500 0.3982 2.3874
-7.7596 0.1198 2.3874
-7.7591 -0.1587 2.3874
-7.7487 -0.4371 2.3874
-7.7283 -0.7149 2.3874
-7.6979 -0.9918 2.3874
-7.6576 -1.2674 2.3874
-7.6075 -1.5414 2.3874
-7.5475 -1.8135 2.3874
-7.4778 -2.0832 2.3874
-7.3985 -2.3503 2.3874
-7.3097 -2.6143 2.3874
-7.2114 -2.8751 2.3874
-7.1038 -3.1321 2.3874
-6.9871 -3.3851 2.3874
-6.8613 -3.6337 2.3874
-6.7267 -3.8777 2.3874
-6.5835 -4.1167 2.3874
-6.4317 -4.3504 2.3874
-6.2717 -4.5786 2.3874
-6.1035 -4.8008 2.3874
-5.9275 -5.0169 2.3874
-5.7439 -5.2265 2.3874
-5.5528 -5.4294 2.3874
-5.3545 -5.6253 2.3874
-5.1494 -5.8140 2.3874
-4.9376 -5.9951 2.3874
-4.7194 -6.1686 2.3874
-4.4951 -6.3341 2.3874
-4.2651 -6.4915 2.3874
-4.0295 -6.6405 2.3874
-3.7887 -6.7810 2.3874
-3.5430 -6.9127 2.3874
-3.2928 -7.0355 2.3874
-3.0383 -7.1493 2.3874
-2.7798 -7.2538 2.3874
-2.5178 -7.3490 2.3874
-2.2525 -7.4347 2.3874
-1.9844 -7.5109 2.3874
-1.7136 -7.5773 2.3874
-1.4406 -7.6340 2.3874
-1.1658 -7.6809 2.3874
-0.8894 -7.7179 2.3874
-0.6120 -7.7449 2.3874
-0.3337 -7.7619 2.3874
-0.0550 -7.7689 2.3874
0.2238 -7.7660 2.3874
0.5023 -7.7530 2.3874
0.7802 -7.7300 2.3874
1.0571 -7.6970 2.3874
1.3326 -7.6541 2.3874
1.6063 -7.6014 2.3874
1.8780 -7.5388 2.3874
2.1473 -7.4666 2.3874
2.4138 -7.3847 2.3874
2.6772 -7.2933 2.3874
2.9372 -7.1925 2.3874
3.1933 -7.0824 2.3874
3.4454 -6.9632 2.3874
3.6929 -6.8350 2.3874
3.9358 -6.6981 2.3874
4.1735 -6.5524 2.3874
-0.2774 -7.1831 2.3874
-0.0195 -7.1884 2.3874
0.2385 -7.1845 2.3874
0.4961 -7.1714 2.3874
0.7531 -7.1490 2.3874
1.0091 -7.1174 2.3874
1.2638 -7.0766 2.3874
1.5169 -7.0267 2.3874
1.7681 -6.9677 2.3874
2.0169 -6.8998 2.3874
2.2632 -6.8229 2.3874
2.5066 -6.7373 2.3874
2.7467 -6.6430 2.3874
2.9832 -6.5401 2.3874
3.2159 -6.4288 2.3874
3.4445 -6.3092 2.3874
3.6686 -6.1815 2.3874
3.8880 -6.0458 2.3874
4.1024 -5.9023 2.3874
4.3115 -5.7513 2.3874
4.5150 -5.5928 2.3874
4.7127 -5.4271 2.3874
4.9043 -5.2544 2.3874
5.0896 -5.0750 2.3874
5.2683 -4.8890 2.3874
5.4402 -4.6967 2.3874
5.6051 -4.4984 2.3874
5.7628 -4.2943 2.3874
5.9130 -4.0847 2.3874
6.0556 -3.8698 2.3874
6.1904 -3.6500 2.3874
6.3173 -3.4253 2.3874
6.4360 -3.1964 2.3874
6.5463 -2.9633 2.3874
6.6483 -2.7264 2.3874
6.7416 -2.4861 2.3874
6.8263 -2.2425 2.3874
6.9022 -1.9960 2.3874
6.9692 -1.7470 2.3874
7.0271 -1.4958 2.3874
7.0761 -1.2426 2.3874
7.1159 -0.9879 2.3874
7.1466 -0.7319 2.3874
7.1680 -0.4750 2.3874
7.1802 -0.2175 2.3874
7.1831 0.0403 2.3874
7.1768 0.2981 2.3874
7.1613 0.5554 2.3874
7.1365 0.8119 2.3874
7.1026 1.0675 2.3874
7.0595 1.3216 2.3874
7.0073 1.5740 2.3874
6.9461 1.8244 2.3874
6.8759 2.0724 2.3874
6.7969 2.3178 2.3874
6.7091 2.5601 2.3874
6.6127 2.7991 2.3874
6.5078 3.0345 2.3874
6.3946 3.2660 2.3874
6.2730 3.4932 2.3874
6.1435 3.7160 2.3874
6.0060 3.9339 2.3874
5.8608 4.1468 2.3874
5.7080 4.3543 2.3874
5.5479 4.5562 2.3874
5.3807 4.7522 2.3874
5.2066 4.9421 2.3874
5.0257 5.1257 2.3874
4.8384 5.3026 2.3874
4.6449 5.4726 2.3874
4.4454 5.6357 2.3874
4.2402 5.7914 2.3874
4.0296 5.9397 2.3874
3.8137 6.0804 2.3874
3.5930 6.2132 2.3874
3.3677 6.3380 2.3874
3.1380 6.4547 2.3874
2.9043 6.5630 2.3874
2.6668 6.6629 2.3874
2.4260 6.7542 2.3874
0.8668 2.7160 0.9484
0.7689 2.7458 0.9486
0.6700 2.7719 0.9487
0.5701 2.7945 0.9488
0.4695 2.8134 0.9489
0.3683 2.8287 0.9490
0.2666 2.8404 0.9491
0.1645 2.8483 0.9492
0.0621 2.8525 0.9492
-0.0403 2.8531 0.9493
-0.1426 2.8499 0.9493
-0.2448 2.8430 0.9494
-0.3467 2.8324 0.9494
-0.4481 2.8182 0.9494
-0.5490 2.8002 0.9494
-0.6491 2.7787 0.9494
-0.7484 2.7535 0.9493
-0.8467 2.7248 0.9493
-2.3739 6.7718 2.3874
-2.6154 6.6823 2.3874
-2.8535 6.5842 2.3874
-3.0880 6.4776 2.3874
-3.3185 6.3627 2.3874
-3.5447 6.2396 2.3874
-3.7664 6.1084 2.3874
-3.9832 5.9694 2.3874
-4.1950 5.8227 2.3874
-4.4013 5.6684 2.3874
-4.6019 5.5069 2.3874
-4.7967 5.3383 2.3874
-4.9852 5.1628 2.3874
-5.1674 4.9807 2.3874
-5.3429 4.7921 2.3874
-5.5115 4.5974 2.3874
-5.6731 4.3968 2.3874
-5.8274 4.1904 2.3874
-5.9741 3.9787 2.3874
-6.1132 3.7618 2.3874
-6.2444 3.5401 2.3874
-6.3676 3.3139 2.3874
-6.4826 3.0833 2.3874
-6.5892 2.8488 2.3874
-6.6874 2.6105 2.3874
-6.7769 2.3689 2.3874
-6.8578 2.1243 2.3874
-6.9298 1.8769 2.3874
-6.9929 1.6270 2.3874
-7.0470 1.3751 2.3874
-7.0920 1.1214 2.3874
-7.1279 0.8662 2.3874
-7.1546 0.6098 2.3874
-7.1721 0.3527 2.3874
-7.1803 0.0951 2.3874
-7.1793 -0.1626 2.3874
-7.1691 -0.4201 2.3874
-7.1496 -0.6771 2.3874
-7.1210 -0.9333 2.3874
-7.0831 -1.1882 2.3874
-7.0361 -1.4417 2.3874
-6.9801 -1.6933 2.3874
-6.9151 -1.9428 2.3874
-6.8411 -2.1897 2.3874
-6.7583 -2.4338 2.3874
-6.6669 -2.6749 2.3874
-6.5668 -2.9125 2.3874
-6.4583 -3.1463 2.3874
-6.3414 -3.3762 2.3874
-6.2164 -3.6016 2.3874
-6.0833 -3.8225 2.3874
-5.9424 -4.0384 2.3874
-5.7938 -4.2492 2.3874
-5.6378 -4.4545 2.3874
-5.4745 -4.6540 2.3874
-5.3041 -4.8476 2.3874
-5.1269 -5.0349 2.3874
-4.9430 -5.2158 2.3874
-4.7528 -5.3899 2.3874
-4.5565 -5.5571 2.3874
-4.3542 -5.7172 2.3874
-4.1464 -5.8699 2.3874
-3.9332 -6.0150 2.3874
-3.7149 -6.1524 2.3874
-3.4918 -6.2819 2.3874
-3.2643 -6.4032 2.3874
-3.0325 -6.5164 2.3874
-2.7967 -6.6211 2.3874
-2.5574 -6.7173 2.3874
-2.3148 -6.8048 2.3874
-2.0692 -6.8836 2.3874
-1.8208 -6.9535 2.3874
-1.5702 -7.0145 2.3874
-1.3175 -7.0664 2.3874
-1.0631 -7.1092 2.3874
-0.8074 -7.1428 2.3874
-0.5506 -7.1673 2.3874
-0.2931 -7.1824 2.3874
-0.0352 -7.1884 2.3874
0.2228 -7.1850 2.3874
0.4805 -7.1725 2.3874
0.7375 -7.1506 2.3874
0.9936 -7.1196 2.3874
1.2484 -7.0793 2.3874
1.5016 -7.0300 2.3874
1.7529 -6.9716 2.3874
2.0019 -6.9042 2.3874
2.2483 -6.8279 2.3874
2.4919 -6.7428 2.3874
2.7322 -6.6490 2.3874
2.9689 -6.5466 2.3874
3.2019 -6.4358 2.3874
3.4307 -6.3167 2.3874
3.6551 -6.1895 2.3874
3.8748 -6.0543 2.3874
4.0895 -5.9113 2.3874
4.2989 -5.7607 2.3874
4.5028 -5.6026 2.3874
4.7008 -5.4374 2.3874
4.8928 -5.2651 2.3874
5.0785 -5.0861 2.3874
5.2576 -4.9005 2.3874
5.4300 -4.7086 2.3874
5.5953 -4.5106 2.3874
5.7534 -4.3069 2.3874
5.9041 -4.0975 2.3874
6.0472 -3.8830 2.3874
6.1825 -3.6635 2.3874
6.3098 -3.4391 2.3874
6.4290 -3.2104 2.3874
6.5399 -2.9776 2.3874
6.6423 -2.7409 2.3874
6.7362 -2.5008 2.3874
6.8214 -2.2574 2.3874
6.8978 -2.0111 2.3874
6.9653 -1.7622 2.3874
7.0239 -1.5111 2.3874
7.0734 -1.2581 2.3874
7.1137 -1.0034 2.3874
7.1450 -0.7475 2.3874
7.1670 -0.4906 2.3874
7.1797 -0.2331 2.3874
7.1832 0.0247 2.3874
7.1775 0.2824 2.3874
7.1625 0.5397 2.3874
7.1383 0.7964 2.3874
7.1049 1.0520 2.3874
7.0624 1.3062 2.3874
7.0107 1.5587 2.3874
6.9500 1.8093 2.3874
6.8804 2.0574 2.3874
6.8019 2.3029 2.3874
6.7147 2.5454 2.3874
6.6188 2.7847 2.3874
6.5145 3.0203 2.3874
6.4017 3.2520 2.3874
6.2807 3.4795 2.3874
6.1516 3.7026 2.3874
6.0146 3.9208 2.3874
5.8698 4.1340 2.3874
5.7175 4.3419 2.3874
5.5579 4.5441 2.3874
5.3911 4.7405 2.3874
5.2173 4.9308 2.3874
5.0369 5.1147 2.3874
4.8500 5.2920 2.3874
4.6569 5.4625 2.3874
4.4577 5.6260 2.3874
4.2528 5.7822 2.3874
4.0425 5.9309 2.3874
3.8270 6.0721 2.3874
3.6066 6.2054 2.3874
3.3815 6.3307 2.3874
3.1521 6.4478 2.3874
2.9186 6.5566 2.3874
2.6814 6.6570 2.3874
2.4407 6.7489 2.3874
0.8728 2.7141 0.9484
0.7749 2.7440 0.9486
0.6760 2.7704 0.9487
0.5762 2.7932 0.9488
0.4756 2.8124 0.9489
0.3744 2.8279 0.9490
0.2727 2.8397 0.9491
0.1707 2.8479 0.9492
0.0684 2.8524 0.9492
-0.0340 2.8531 0.9493
-0.1364 2.8502 0.9493
-0.2386 2.8435 0.9494
-0.3405 2.8332 0.9494
-0.4420 2.8191 0.9494
-0.5429 2.8014 0.9494
-0.6430 2.7801 0.9494
-0.7424 2.7552 0.9493
-0.8407 2.7266 0.9493
-2.3591 6.7770 2.3874
-2.6008 6.6880 2.3874
-2.8391 6.5904 2.3874
-3.0739 6.4843 2.3874
-3.3046 6.3699 2.3874
-3.5311 6.2473 2.3874
-3.7531 6.1166 2.3874
-3.9702 5.9780 2.3874
-4.1822 5.8318 2.3874
-4.3889 5.6780 2.3874
-4.5899 5.5170 2.3874
-4.7850 5.3488 2.3874
-4.9739 5.1737 2.3874
-5.1565 4.9920 2.3874
-5.3324 4.8038 2.3874
-5.5015 4.6094 2.3874
-5.6635 4.4091 2.3874
-5.8182 4.2031 2.3874
-5.9654 3.9917 2.3874
-6.1049 3.7752 2.3874
-6.2366 3.5537 2.3874
-6.3603 3.3277 2.3874
-6.4758 3.0974 2.3874
-6.5830 2.8631 2.3874
-6.6817 2.6251 2.3874
-6.7717 2.3837 2.3874
-6.8531 2.1392 2.3874
-6.9256 1.8920 2.3874
-6.9893 1.6423 2.3874
-7.0439 1.3904 2.3874
-7.0895 1.1368 2.3874
-7.1259 0.8817 2.3874
-7.1532 0.6255 2.3874
-7.1713 0.3684 2.3874
-7.1801 0.1108 2.3874
-7.1797 -0.1469 2.3874
-7.1700 -0.4045 2.3874
-7.1511 -0.6615 2.3874
-7.1230 -0.9177 2.3874
-7.0857 -1.1728 2.3874
-7.0393 -1.4263 2.3874
-6.9838 -1.6781 2.3874
-6.9193 -1.9277 2.3874
-6.8459 -2.1748 2.3874
-6.7636 -2.4191 2.3874
-6.6727 -2.6603 2.3874
-6.5731 -2.8981 2.3874
-6.4651 -3.1322 2.3874
-6.3487 -3.3623 2.3874
-6.2242 -3.5881 2.3874
-6.0916 -3.8092 2.3874
-5.9512 -4.0254 2.3874
-5.8031 -4.2365 2.3874
-5.6475 -4.4422 2.3874
-5.4846 -4.6421 2.3874
-5.3147 -4.8360 2.3874
-5.1378 -5.0237 2.3874
-4.9544 -5.2050 2.3874
-4.7646 -5.3795 2.3874
-4.5686 -5.5472 2.3874
-4.3667 -5.7077 2.3874
-4.1592 -5.8608 2.3874
-3.9463 -6.0064 2.3874
-3.7283 -6.1443 2.3874
-3.5055 -6.2742 2.3874
-3.2782 -6.3961 2.3874
-3.0467 -6.5097 2.3874
-2.8112 -6.6150 2.3874
-2.5720 -6.7117 2.3874
-2.3296 -6.7998 2.3874
-2.0842 -6.8791 2.3874
-1.8360 -6.9495 2.3874
-1.5855 -7.0110 2.3874
-1.3329 -7.0635 2.3874
-1.0786 -7.1068 2.3874
-0.8230 -7.1410 2.3874
-0.5662 -7.1660 2.3874
-0.3087 -7.1818 2.3874
-0.0509 -7.1883 2.3874
0.2071 -7.1855 2.3874
0.4648 -7.1735 2.3874
0.7219 -7.1522 2.3874
0.9781 -7.1217 2.3874
1.2330 -7.0820 2.3874
1.4863 -7.0332 2.3874
1.7377 -6.9754 2.3874
1.9868 -6.9085 2.3874
2.2334 -6.8328 2.3874
2.4771 -6.7482 2.3874
2.7177 -6.6549 2.3874
2.9547 -6.5531 2.3874
3.1879 -6.4428 2.3874
3.4169 -6.3242 2.3874
3.6416 -6.1975 2.3874
3.8616 -6.0627 2.3874
-0.2578 -6.6765 2.3874
-0.0181 -6.6815 2.3874
0.2216 -6.6779 2.3874
0.4611 -6.6657 2.3874
0.7000 -6.6449 2.3874
0.9380 -6.6155 2.3874
1.1747 -6.5776 2.3874
1.4100 -6.5312 2.3874
1.6434 -6.4764 2.3874
1.8747 -6.4132 2.3874
2.1036 -6.3418 2.3874
2.3298 -6.2622 2.3874
2.5530 -6.1745 2.3874
2.7728 -6.0789 2.3874
2.9891 -5.9755 2.3874
3.2016 -5.8643 2.3874
3.4099 -5.7456 2.3874
3.6138 -5.6195 2.3874
3.8131 -5.4862 2.3874
4.0074 -5.3457 2.3874
4.1966 -5.1984 2.3874
4.3804 -5.0444 2.3874
4.5585 -4.8839 2.3874
4.7307 -4.7172 2.3874
4.8968 -4.5443 2.3874
5.0566 -4.3656 2.3874
5.2099 -4.1813 2.3874
5.3565 -3.9915 2.3874
5.4961 -3.7967 2.3874
5.6287 -3.5970 2.3874
5.7540 -3.3926 2.3874
5.8719 -3.1839 2.3874
5.9822 -2.9711 2.3874
6.0848 -2.7544 2.3874
6.1796 -2.5343 2.3874
6.2663 -2.3108 2.3874
6.3451 -2.0844 2.3874
6.4156 -1.8554 2.3874
6.4779 -1.6239 2.3874
6.5318 -1.3904 2.3874
6.5773 -1.1551 2.3874
6.6143 -0.9183 2.3874
6.6428 -0.6804 2.3874
6.6628 -0.4416 2.3874
6.6741 -0.2022 2.3874
6.6769 0.0374 2.3874
6.6710 0.2770 2.3874
6.6566 0.5162 2.3874
6.6336 0.7547 2.3874
6.6020 0.9922 2.3874
6.5620 1.2284 2.3874
6.5135 1.4631 2.3874
6.4566 1.6958 2.3874
6.3914 1.9264 2.3874
6.3180 2.1544 2.3874
6.2364 2.3797 2.3874
6.1468 2.6018 2.3874
6.0493 2.8206 2.3874
5.9440 3.0358 2.3874
5.8311 3.2471 2.3874
5.7106 3.4541 2.3874
5.5829 3.6567 2.3874
5.4479 3.8546 2.3874
5.3059 4.0475 2.3874
5.1571 4.2352 2.3874
5.0017 4.4174 2.3874
4.8398 4.5939 2.3874
4.6717 4.7645 2.3874
4.4976 4.9290 2.3874
4.3177 5.0871 2.3874
4.1323 5.2387 2.3874
3.9416 5.3835 2.3874
3.7458 5.5213 2.3874
3.5451 5.6521 2.3874
3.3399 5.7755 2.3874
3.1305 5.8916 2.3874
2.9170 6.0000 2.3874
2.6997 6.1007 2.3874
2.4790 6.1936 2.3874
0.8952 2.4924 0.9477
0.8053 2.5232 0.9479
0.7143 2.5508 0.9480
0.6224 2.5751 0.9481
0.5296 2.5960 0.9482
0.4362 2.6136 0.9483
0.3421 2.6278 0.9484
0.2476 2.6386 0.9485
0.1528 2.6459 0.9486
0.0577 2.6499 0.9486
-0.0374 2.6504 0.9487
-0.1325 2.6474 0.9487
-0.2274 2.6410 0.9487
-0.3221 2.6312 0.9487
-0.4163 2.6179 0.9487
-0.5100 2.6013 0.9487
-0.6030 2.5813 0.9487
-0.6952 2.5579 0.9487
-0.7865 2.5312 0.9487
-0.8768 2.5012 0.9486
-2.4312 6.2117 2.3874
-2.6526 6.1205 2.3874
-2.8705 6.0214 2.3874
-3.0848 5.9146 2.3874
-3.2951 5.8001 2.3874
-3.5012 5.6782 2.3874
-3.7027 5.5489 2.3874
-3.8995 5.4125 2.3874
-4.0913 5.2692 2.3874
-4.2778 5.1190 2.3874
-4.4588 4.9623 2.3874
-4.6341 4.7992 2.3874
-4.8034 4.6299 2.3874
-4.9666 4.4546 2.3874
-5.1233 4.2736 2.3874
-5.2735 4.0870 2.3874
-5.4169 3.8952 2.3874
-5.5533 3.6984 2.3874
-5.6826 3.4968 2.3874
-5.8045 3.2907 2.3874
-5.9190 3.0804 2.3874
-6.0259 2.8661 2.3874
-6.1250 2.6480 2.3874
-6.2163 2.4266 2.3874
-6.2995 2.2020 2.3874
-6.3746 1.9746 2.3874
-6.4416 1.7446 2.3874
-6.5002 1.5124 2.3874
-6.5505 1.2782 2.3874
-6.5923 1.0423 2.3874
-6.6256 0.8051 2.3874
-6.6505 0.5668 2.3874
-6.6667 0.3278 2.3874
-6.6744 0.0884 2.3874
-6.6734 -0.1512 2.3874
-6.6639 -0.3906 2.3874
-6.6458 -0.6295 2.3874
-6.6191 -0.8676 2.3874
-6.5840 -1.1045 2.3874
-6.5403 -1.3401 2.3874
-6.4882 -1.5740 2.3874
-6.4277 -1.8059 2.3874
-6.3589 -2.0354 2.3874
-6.2820 -2.2624 2.3874
-6.1969 -2.4864 2.3874
-6.1039 -2.7072 2.3874
-6.0030 -2.9246 2.3874
-5.8944 -3.1382 2.3874
-5.7782 -3.3478 2.3874
-5.6545 -3.5531 2.3874
-5.5235 -3.7538 2.3874
-5.3854 -3.9497 2.3874
-5.2403 -4.1405 2.3874
-5.0885 -4.3260 2.3874
-4.9301 -4.5059 2.3874
-4.7654 -4.6800 2.3874
-4.5945 -4.8481 2.3874
-4.4177 -5.0099 2.3874
-4.2352 -5.1654 2.3874
-4.0472 -5.3141 2.3874
-3.8540 -5.4560 2.3874
-3.6559 -5.5909 2.3874
-3.4530 -5.7186 2.3874
-3.2456 -5.8390 2.3874
-3.0341 -5.9518 2.3874
-2.8186 -6.0569 2.3874
-2.5995 -6.1542 2.3874
-2.3771 -6.2436 2.3874
-2.1515 -6.3250 2.3874
-1.9232 -6.3982 2.3874
-1.6924 -6.4632 2.3874
-1.4595 -6.5198 2.3874
-1.2246 -6.5681 2.3874
-0.9882 -6.6079 2.3874
-0.7504 -6.6391 2.3874
-0.5117 -6.6618 2.3874
-0.2724 -6.6760 2.3874
-0.0327 -6.6815 2.3874
0.2071 -6.6784 2.3874
0.4466 -6.6667 2.3874
0.6855 -6.6464 2.3874
0.9235 -6.6175 2.3874
1.1604 -6.5801 2.3874
1.3957 -6.5342 2.3874
1.6293 -6.4799 2.3874
1.8607 -6.4173 2.3874
2.0898 -6.3464 2.3874
2.3161 -6.2673 2.3874
2.5395 -6.1801 2.3874
2.7596 -6.0850 2.3874
2.9761 -5.9820 2.3874
3.1888 -5.8713 2.3874
3.3974 -5.7530 2.3874
3.6016 -5.6274 2.3874
3.8011 -5.4945 2.3874
3.9957 -5.3545 2.3874
4.1853 -5.2076 2.3874
4.3693 -5.0540 2.3874
4.5478 -4.8939 2.3874
4.7204 -4.7275 2.3874
4.8869 -4.5550 2.3874
5.0471 -4.3766 2.3874
5.2008 -4.1926 2.3874
5.3477 -4.0032 2.3874
5.4878 -3.8087 2.3874
5.6208 -3.6092 2.3874
5.7466 -3.4051 2.3874
5.8649 -3.1967 2.3874
5.9757 -2.9841 2.3874
6.0788 -2.7677 2.3874
6.1740 -2.5477 2.3874
6.2613 -2.3245 2.3874
6.3405 -2.0983 2.3874
6.4116 -1.8694 2.3874
6.4743 -1.6381 2.3874
6.5288 -1.4047 2.3874
6.5748 -1.1694 2.3874
6.6123 -0.9327 2.3874
6.6413 -0.6949 2.3874
6.6618 -0.4561 2.3874
6.6737 -0.2167 2.3874
6.6769 0.0229 2.3874
6.6716 0.2624 2.3874
6.6577 0.5017 2.3874
6.6352 0.7402 2.3874
6.6042 0.9778 2.3874
6.5647 1.2141 2.3874
6.5167 1.4489 2.3874
6.4603 1.6817 2.3874
6.3956 1.9124 2.3874
6.3226 2.1406 2.3874
6.2416 2.3660 2.3874
6.1525 2.5884 2.3874
6.0554 2.8074 2.3874
5.9506 3.0228 2.3874
5.8382 3.2343 2.3874
5.7182 3.4417 2.3874
5.5908 3.6445 2.3874
5.4563 3.8427 2.3874
5.3147 4.0359 2.3874
5.1663 4.2239 2.3874
5.0113 4.4065 2.3874
4.8498 4.5834 2.3874
4.6821 4.7544 2.3874
4.5084 4.9192 2.3874
4.3288 5.0777 2.3874
4.1437 5.2296 2.3874
3.9533 5.3749 2.3874
3.7578 5.5132 2.3874
3.5574 5.6443 2.3874
3.3525 5.7682 2.3874
3.1433 5.8847 2.3874
2.9301 5.9936 2.3874
2.7130 6.0948 2.3874
2.4925 6.1882 2.3874
0.9006 2.4904 0.9477
0.8108 2.5214 0.9479
0.7199 2.5492 0.9480
0.6280 2.5737 0.9481
0.5353 2.5949 0.9482
0.4419 2.6126 0.9483
0.3479 2.6270 0.9484
0.2534 2.6380 0.9485
0.1585 2.6456 0.9486
0.0635 2.6497 0.9486
-0.0316 2.6504 0.9487
-0.1267 2.6477 0.9487
-0.2217 2.6415 0.9487
-0.3163 2.6319 0.9487
-0.4106 2.6188 0.9487
-0.5043 2.6024 0.9487
-0.5973 2.5826 0.9487
-0.6896 2.5594 0.9487
-0.7810 2.5329 0.9487
-0.8713 2.5031 0.9486
-2.4176 6.2170 2.3874
-2.6392 6.1263 2.3874
-2.8574 6.0276 2.3874
-3.0719 5.9213 2.3874
-3.2824 5.8073 2.3874
-3.4887 5.6858 2.3874
-3.6906 5.5570 2.3874
-3.8877 5.4210 2.3874
-4.0798 5.2781 2.3874
-4.2666 5.1284 2.3874
-4.4480 4.9720 2.3874
-4.6236 4.8093 2.3874
-4.7933 4.6403 2.3874
-4.9568 4.4654 2.3874
-5.1140 4.2847 2.3874
-5.2646 4.0985 2.3874
-5.4084 3.9070 2.3874
-5.5452 3.7105 2.3874
-5.6749 3.5092 2.3874
-5.7973 3.3034 2.3874
-5.9123 3.0933 2.3874
-6.0196 2.8792 2.3874
-6.1192 2.6614 2.3874
-6.2109 2.4401 2.3874
-6.2947 2.2157 2.3874
-6.3703 1.9885 2.3874
-6.4377 1.7586 2.3874
-6.4969 1.5265 2.3874
-6.5476 1.2924 2.3874
-6.5900 1.0567 2.3874
-6.6238 0.8195 2.3874
-6.6492 0.5813 2.3874
-6.6660 0.3424 2.3874
-6.6742 0.1030 2.3874
-6.6737 -0.1366 2.3874
-6.6647 -0.3760 2.3874
-6.6472 -0.6150 2.3874
-6.6210 -0.8531 2.3874
-6.5863 -1.0902 2.3874
-6.5432 -1.3259 2.3874
-6.4916 -1.5598 2.3874
-6.4316 -1.7918 2.3874
-6.3634 -2.0215 2.3874
-6.2869 -2.2486 2.3874
-6.2023 -2.4729 2.3874
-6.1098 -2.6939 2.3874
-6.0094 -2.9115 2.3874
-5.9012 -3.1253 2.3874
-5.7854 -3.3352 2.3874
-5.6622 -3.5407 2.3874
-5.5316 -3.7417 2.3874
-5.3940 -3.9379 2.3874
-5.2493 -4.1290 2.3874
-5.0979 -4.3148 2.3874
-4.9400 -4.4951 2.3874
-4.7756 -4.6696 2.3874
-4.6051 -4.8380 2.3874
-4.4286 -5.0003 2.3874
-4.2465 -5.1561 2.3874
-4.0588 -5.3053 2.3874
-3.8659 -5.4476 2.3874
-3.6680 -5.5829 2.3874
-3.4654 -5.7111 2.3874
-3.2583 -5.8319 2.3874
-3.0470 -5.9451 2.3874
-2.8318 -6.0507 2.3874
-2.6129 -6.1485 2.3874
-2.3907 -6.2384 2.3874
-2.1653 -6.3203 2.3874
-1.9372 -6.3940 2.3874
-1.7065 -6.4595 2.3874
-1.4737 -6.5166 2.3874
-1.2389 -6.5654 2.3874
-1.0026 -6.6057 2.3874
-0.7649 -6.6375 2.3874
-0.5263 -6.6607 2.3874
-0.2870 -6.6753 2.3874
-0.0473 -6.6814 2.3874
0.1925 -6.6788 2.3874
0.4320 -6.6676 2.3874
0.6710 -6.6478 2.3874
0.9091 -6.6195 2.3874
1.1460 -6.5826 2.3874
1.3815 -6.5373 2.3874
1.6151 -6.4835 2.3874
1.8467 -6.4213 2.3874
2.0759 -6.3509 2.3874
2.3024 -6.2723 2.3874
2.5260 -6.1856 2.3874
2.7463 -6.0910 2.3874
2.9631 -5.9885 2.3874
3.1760 -5.8782 2.3874
3.3848 -5.7604 2.3874
3.5893 -5.6352 2.3874
-0.2406 -6.2301 2.3874
-0.0169 -6.2347 2.3874
0.2068 -6.2313 2.3874
0.4303 -6.2199 2.3874
0.6532 -6.2005 2.3874
0.8752 -6.1731 2.3874
1.0962 -6.1377 2.3874
1.3157 -6.0944 2.3874
1.5335 -6.0433 2.3874
1.7493 -5.9844 2.3874
1.9629 -5.9177 2.3874
2.1740 -5.8435 2.3874
2.3822 -5.7617 2.3874
2.5874 -5.6724 2.3874
2.7893 -5.5759 2.3874
2.9875 -5.4722 2.3874
3.1819 -5.3614 2.3874
3.3722 -5.2438 2.3874
3.5581 -5.1193 2.3874
3.7394 -4.9883 2.3874
3.9160 -4.8508 2.3874
4.0874 -4.7071 2.3874
4.2537 -4.5574 2.3874
4.4144 -4.4018 2.3874
4.5694 -4.2405 2.3874
4.7185 -4.0737 2.3874
4.8615 -3.9017 2.3874
4.9983 -3.7247 2.3874
5.1286 -3.5429 2.3874
5.2523 -3.3565 2.3874
5.3693 -3.1658 2.3874
5.4793 -2.9710 2.3874
5.5822 -2.7725 2.3874
5.6780 -2.5703 2.3874
5.7664 -2.3649 2.3874
5.8474 -2.1564 2.3874
5.9209 -1.9451 2.3874
5.9867 -1.7314 2.3874
6.0448 -1.5154 2.3874
6.0952 -1.2975 2.3874
6.1376 -1.0779 2.3874
6.1722 -0.8570 2.3874
6.1988 -0.6349 2.3874
6.2174 -0.4121 2.3874
6.2280 -0.1887 2.3874
6.2306 0.0349 2.3874
6.2252 0.2584 2.3874
6.2117 0.4816 2.3874
6.1903 0.7042 2.3874
6.1608 0.9258 2.3874
6.1234 1.1463 2.3874
6.0782 1.3652 2.3874
6.0251 1.5824 2.3874
5.9643 1.7976 2.3874
5.8958 2.0104 2.3874
5.8197 2.2206 2.3874
5.7361 2.4279 2.3874
5.6451 2.6321 2.3874
5.5469 2.8329 2.3874
5.4415 3.0301 2.3874
5.3291 3.2233 2.3874
5.2099 3.4124 2.3874
5.0839 3.5970 2.3874
4.9514 3.7771 2.3874
4.8126 3.9522 2.3874
4.6675 4.1223 2.3874
4.5165 4.2870 2.3874
4.3597 4.4462 2.3874
4.1972 4.5997 2.3874
4.0293 4.7472 2.3874
3.8563 4.8887 2.3874
3.6783 5.0238 2.3874
3.4956 5.1525 2.3874
3.3083 5.2745 2.3874
3.1169 5.3897 2.3874
2.9214 5.4980 2.3874
2.7221 5.5992 2.3874
2.5194 5.6932 2.3874
0.9178 2.2929 0.9471
0.8350 2.3247 0.9472
0.7511 2.3534 0.9474
0.6663 2.3791 0.9475
0.5805 2.4018 0.9476
0.4940 2.4213 0.9477
0.4068 2.4377 0.9478
0.3191 2.4509 0.9479
0.2310 2.4609 0.9479
0.1425 2.4678 0.9480
0.0539 2.4714 0.9481
-0.0349 2.4719 0.9481
-0.1236 2.4691 0.9481
-0.2121 2.4632 0.9482
-0.3004 2.4540 0.9482
-0.3883 2.4416 0.9482
-0.4756 2.4261 0.9482
-0.5624 2.4074 0.9482
-0.6484 2.3856 0.9481
-0.7336 2.3608 0.9481
-0.8178 2.3328 0.9481
-0.9009 2.3018 0.9480
-2.4754 5.7117 2.3874
-2.6788 5.6192 2.3874
-2.8788 5.5195 2.3874
-3.0750 5.4127 2.3874
-3.2673 5.2989 2.3874
-3.4554 5.1783 2.3874
-3.6391 5.0510 2.3874
-3.8180 4.9172 2.3874
-3.9921 4.7771 2.3874
-4.1610 4.6308 2.3874
-4.3246 4.4786 2.3874
-4.4826 4.3206 2.3874
-4.6348 4.1570 2.3874
-4.7811 3.9881 2.3874
-4.9212 3.8140 2.3874
-5.0551 3.6350 2.3874
-5.1823 3.4513 2.3874
-5.3030 3.2632 2.3874
-5.4168 3.0709 2.3874
-5.5236 2.8746 2.3874
-5.6233 2.6745 2.3874
-5.7158 2.4711 2.3874
-5.8010 2.2644 2.3874
-5.8786 2.0549 2.3874
-5.9487 1.8426 2.3874
-6.0112 1.6280 2.3874
-6.0659 1.4113 2.3874
-6.1128 1.1927 2.3874
-6.1518 0.9726 2.3874
-6.1829 0.7513 2.3874
-6.2061 0.5289 2.3874
-6.2212 0.3059 2.3874
-6.2284 0.0824 2.3874
-6.2275 -0.1411 2.3874
-6.2186 -0.3645 2.3874
-6.2017 -0.5874 2.3874
-6.1768 -0.8096 2.3874
-6.1439 -1.0308 2.3874
-6.1032 -1.2506 2.3874
-6.0545 -1.4689 2.3874
-5.9981 -1.6852 2.3874
-5.9339 -1.8994 2.3874
-5.8621 -2.1112 2.3874
-5.7827 -2.3202 2.3874
-5.6959 -2.5263 2.3874
-5.6018 -2.7291 2.3874
-5.5004 -2.9285 2.3874
-5.3919 -3.1241 2.3874
-5.2765 -3.3156 2.3874
-5.1542 -3.5029 2.3874
-5.0254 -3.6857 2.3874
-4.8900 -3.8637 2.3874
-4.7483 -4.0368 2.3874
-4.6005 -4.2047 2.3874
-4.4468 -4.3672 2.3874
-4.2873 -4.5240 2.3874
-4.1223 -4.6750 2.3874
-3.9520 -4.8200 2.3874
-3.7766 -4.9588 2.3874
-3.5963 -5.0913 2.3874
-3.4114 -5.2171 2.3874
-3.2221 -5.3363 2.3874
-3.0286 -5.4485 2.3874
-2.8312 -5.5538 2.3874
-2.6301 -5.6519 2.3874
-2.4257 -5.7427 2.3874
-2.2181 -5.8262 2.3874
-2.0076 -5.9021 2.3874
-1.7946 -5.9704 2.3874
-1.5792 -6.0310 2.3874
-1.3619 -6.0839 2.3874
-1.1427 -6.1289 2.3874
-0.9221 -6.1660 2.3874
-0.7002 -6.1952 2.3874
-0.4775 -6.2164 2.3874
-0.2542 -6.2295 2.3874
-0.0305 -6.2347 2.3874
0.1933 -6.2318 2.3874
0.4167 -6.2209 2.3874
0.6397 -6.2019 2.3874
0.8618 -6.1750 2.3874
1.0828 -6.1401 2.3874
1.3024 -6.0973 2.3874
1.5203 -6.0466 2.3874
1.7363 -5.9882 2.3874
1.9500 -5.9220 2.3874
2.1612 -5.8482 2.3874
2.3697 -5.7668 2.3874
2.5750 -5.6781 2.3874
2.7771 -5.5820 2.3874
2.9755 -5.4787 2.3874
3.1702 -5.3683 2.3874
3.3607 -5.2511 2.3874
3.5469 -5.1271 2.3874
3.7286 -4.9964 2.3874
3.9054 -4.8594 2.3874
4.0772 -4.7161 2.3874
4.2437 -4.5667 2.3874
4.4047 -4.4114 2.3874
4.5601 -4.2504 2.3874
4.7096 -4.0840 2.3874
4.8530 -3.9123 2.3874
4.9902 -3.7356 2.3874
5.1209 -3.5541 2.3874
5.2450 -3.3679 2.3874
5.3624 -3.1775 2.3874
5.4728 -2.9830 2.3874
5.5762 -2.7846 2.3874
5.6724 -2.5827 2.3874
5.7613 -2.3775 2.3874
5.8427 -2.1692 2.3874
5.9166 -1.9580 2.3874
5.9829 -1.7444 2.3874
6.0415 -1.5286 2.3874
6.0923 -1.3108 2.3874
6.1353 -1.0913 2.3874
6.1703 -0.8704 2.3874
6.1974 -0.6485 2.3874
6.2165 -0.4256 2.3874
6.2276 -0.2023 2.3874
6.2307 0.0213 2.3874
6.2257 0.2449 2.3874
6.2128 0.4681 2.3874
6.1918 0.6907 2.3874
6.1628 0.9124 2.3874
6.1259 1.1329 2.3874
6.0812 1.3520 2.3874
6.0286 1.5693 2.3874
5.9682 1.7846 2.3874
5.9002 1.9975 2.3874
5.8245 2.2079 2.3874
5.7414 2.4154 2.3874
5.6508 2.6198 2.3874
5.5530 2.8208 2.3874
5.4481 3.0182 2.3874
5.3361 3.2117 2.3874
5.2173 3.4010 2.3874
5.0918 3.5859 2.3874
4.9597 3.7662 2.3874
4.8212 3.9417 2.3874
4.6765 4.1121 2.3874
4.5258 4.2771 2.3874
4.3693 4.4367 2.3874
4.2072 4.5905 2.3874
4.0397 4.7384 2.3874
3.8669 4.8803 2.3874
3.6892 5.0158 2.3874
3.5068 5.1448 2.3874
3.3198 5.2673 2.3874
3.1286 5.3829 2.3874
2.9334 5.4916 2.3874
2.7344 5.5932 2.3874
2.5318 5.6877 2.3874
0.9228 2.2909 0.9471
0.8401 2.3228 0.9472
0.7563 2.3518 0.9474
0.6714 2.3777 0.9475
0.5857 2.4005 0.9476
0.4993 2.4202 0.9477
0.4121 2.4368 0.9478
0.3244 2.4502 0.9479
0.2363 2.4604 0.9479
0.1479 2.4675 0.9480
0.0592 2.4713 0.9481
-0.0295 2.4720 0.9481
-0.1182 2.4694 0.9481
-0.2067 2.4636 0.9482
-0.2950 2.4546 0.9482
-0.3829 2.4425 0.9482
-0.4703 2.4271 0.9482
-0.5571 2.4087 0.9482
-0.6432 2.3871 0.9481
-0.7284 2.3624 0.9481
-0.8127 2.3346 0.9481
-0.8959 2.3038 0.9480
-2.4629 5.7171 2.3874
-2.6665 5.6250 2.3874
-2.8667 5.5258 2.3874
-3.0632 5.4194 2.3874
-3.2557 5.3060 2.3874
-3.4441 5.1858 2.3874
-3.6280 5.0589 2.3874
-3.8073 4.9255 2.3874
-3.9816 4.7858 2.3874
-4.1509 4.6399 2.3874
-4.3148 4.4880 2.3874
-4.4731 4.3304 2.3874
-4.6257 4.1671 2.3874
-4.7724 3.9985 2.3874
-4.9129 3.8247 2.3874
-5.0471 3.6460 2.3874
-5.1748 3.4626 2.3874
-5.2958 3.2748 2.3874
-5.4101 3.0827 2.3874
-5.5173 2.8866 2.3874
-5.6175 2.6868 2.3874
-5.7104 2.4835 2.3874
-5.7960 2.2771 2.3874
-5.8741 2.0677 2.3874
-5.9447 1.8556 2.3874
-6.0076 1.6411 2.3874
-6.0628 1.4245 2.3874
-6.1102 1.2061 2.3874
-6.1497 0.9861 2.3874
-6.1813 0.7647 2.3874
-6.2049 0.5425 2.3874
-6.2205 0.3195 2.3874
-6.2282 0.0960 2.3874
-6.2278 -0.1275 2.3874
-6.2194 -0.3509 2.3874
-6.2029 -0.5739 2.3874
-6.1785 -0.7961 2.3874
-6.1461 -1.0174 2.3874
-6.1059 -1.2373 2.3874
-6.0577 -1.4556 2.3874
-6.0017 -1.6721 2.3874
-5.9380 -1.8865 2.3874
-5.8667 -2.0984 2.3874
-5.7878 -2.3076 2.3874
-5.7014 -2.5139 2.3874
-5.6077 -2.7169 2.3874
-5.5067 -2.9165 2.3874
-5.3987 -3.1123 2.3874
-5.2837 -3.3041 2.3874
-5.1618 -3.4916 2.3874
-5.0334 -3.6747 2.3874
-4.8984 -3.8530 2.3874
-4.7571 -4.0264 2.3874
-4.6097 -4.1946 2.3874
-4.4563 -4.3574 2.3874
-4.2972 -4.5146 2.3874
-4.1325 -4.6660 2.3874
-3.9625 -4.8114 2.3874
-3.7874 -4.9506 2.3874
-3.6074 -5.0834 2.3874
-3.4228 -5.2097 2.3874
-3.2337 -5.3292 2.3874
-3.0404 -5.4419 2.3874
-2.8433 -5.5476 2.3874
-2.6424 -5.6462 2.3874
-2.4382 -5.7374 2.3874
-2.2308 -5.8213 2.3874
-2.0205 -5.8977 2.3874
-1.8076 -5.9665 2.3874
-1.5924 -6.0276 2.3874
-1.3751 -6.0809 2.3874
-1.1561 -6.1264 2.3874
-0.9355 -6.1640 2.3874
-0.7138 -6.1936 2.3874
-0.4911 -6.2153 2.3874
-0.2678 -6.2290 2.3874
-0.0441 -6.2346 2.3874
0.1797 -6.2322 2.3874
0.4031 -6.2218 2.3874
0.6261 -6.2033 2.3874
0.8483 -6.1768 2.3874
1.0694 -6.1424 2.3874
1.2891 -6.1001 2.3874
1.5071 -6.0499 2.3874
1.7232 -5.9919 2.3874
1.9371 -5.9262 2.3874
2.1485 -5.8529 2.3874
2.3571 -5.7720 2.3874
2.5626 -5.6837 2.3874
2.7649 -5.5880 2.3874
2.9636 -5.4852 2.3874
3.1584 -5.3753 2.3874
3.3493 -5.2584 2.3874
-0.2252 -5.8332 2.3874
-0.0158 -5.8376 2.3874
0.1937 -5.8344 2.3874
0.4029 -5.8237 2.3874
0.6116 -5.8055 2.3874
0.8195 -5.7799 2.3874
1.0263 -5.7467 2.3874
1.2319 -5.7062 2.3874
1.4358 -5.6583 2.3874
1.6379 -5.6032 2.3874
1.8379 -5.5408 2.3874
2.0355 -5.4712 2.3874
2.2305 -5.3946 2.3874
2.4226 -5.3111 2.3874
2.6116 -5.2207 2.3874
2.7972 -5.1236 2.3874
2.9792 -5.0199 2.3874
3.1574 -4.9097 2.3874
3.3314 -4.7932 2.3874
3.5012 -4.6706 2.3874
3.6665 -4.5419 2.3874
3.8271 -4.4073 2.3874
3.9827 -4.2671 2.3874
4.1332 -4.1214 2.3874
4.2783 -3.9704 2.3874
4.4179 -3.8143 2.3874
4.5519 -3.6532 2.3874
4.6799 -3.4875 2.3874
4.8020 -3.3172 2.3874
4.9178 -3.1428 2.3874
5.0273 -2.9642 2.3874
5.1303 -2.7819 2.3874
5.2267 -2.5959 2.3874
5.3164 -2.4067 2.3874
5.3992 -2.2143 2.3874
5.4750 -2.0191 2.3874
5.5438 -1.8213 2.3874
5.6055 -1.6212 2.3874
5.6599 -1.4189 2.3874
5.7070 -1.2149 2.3874
5.7468 -1.0093 2.3874
5.7792 -0.8024 2.3874
5.8041 -0.5945 2.3874
5.8215 -0.3859 2.3874
5.8314 -0.1767 2.3874
5.8339 0.0326 2.3874
5.8288 0.2419 2.3874
5.8162 0.4509 2.3874
5.7961 0.6593 2.3874
5.7686 0.8669 2.3874
5.7336 1.0733 2.3874
5.6912 1.2783 2.3874
5.6416 1.4817 2.3874
5.5846 1.6831 2.3874
5.5205 1.8824 2.3874
5.4492 2.0792 2.3874
5.3709 2.2733 2.3874
5.2858 2.4645 2.3874
5.1938 2.6526 2.3874
5.0951 2.8372 2.3874
4.9899 3.0181 2.3874
4.8783 3.1951 2.3874
4.7603 3.3681 2.3874
4.6363 3.5366 2.3874
4.5063 3.7006 2.3874
4.3705 3.8599 2.3874
4.2291 4.0141 2.3874
4.0822 4.1632 2.3874
3.9301 4.3069 2.3874
3.7729 4.4451 2.3874
3.6109 4.5775 2.3874
3.4442 4.7041 2.3874
3.2731 4.8245 2.3874
3.0978 4.9388 2.3874
2.9185 5.0467 2.3874
2.7355 5.1481 2.3874
2.5489 5.2429 2.3874
2.3591 5.3309 2.3874
0.8590 2.1460 0.9467
0.7815 2.1757 0.9468
0.7030 2.2026 0.9469
0.6236 2.2267 0.9470
0.5433 2.2478 0.9471
0.4623 2.2661 0.9472
0.3807 2.2814 0.9473
0.2986 2.2938 0.9474
0.2162 2.3032 0.9475
0.1334 2.3096 0.9475
0.0504 2.3130 0.9476
-0.0326 2.3134 0.9476
-0.1157 2.3108 0.9477
-0.1985 2.3052 0.9477
-0.2811 2.2966 0.9477
-0.3634 2.2851 0.9477
-0.4451 2.2705 0.9477
-0.5263 2.2531 0.9477
-0.6068 2.2327 0.9476
-0.6865 2.2094 0.9476
-0.7653 2.1832 0.9476
-0.8432 2.1543 0.9475
-2.3179 5.3482 2.3874
-2.5083 5.2616 2.3874
-2.6956 5.1683 2.3874
-2.8793 5.0683 2.3874
-3.0594 4.9617 2.3874
-3.2355 4.8488 2.3874
-3.4075 4.7296 2.3874
-3.5751 4.6043 2.3874
-3.7381 4.4731 2.3874
-3.8962 4.3361 2.3874
-4.0494 4.1936 2.3874
-4.1973 4.0456 2.3874
-4.3399 3.8924 2.3874
-4.4769 3.7342 2.3874
-4.6081 3.5712 2.3874
-4.7334 3.4036 2.3874
-4.8525 3.2317 2.3874
-4.9655 3.0555 2.3874
-5.0720 2.8754 2.3874
-5.1721 2.6916 2.3874
-5.2654 2.5043 2.3874
-5.3520 2.3138 2.3874
-5.4318 2.1203 2.3874
-5.5045 1.9240 2.3874
-5.5701 1.7253 2.3874
-5.6286 1.5243 2.3874
-5.6798 1.3214 2.3874
-5.7237 1.1168 2.3874
-5.7602 0.9107 2.3874
-5.7894 0.7034 2.3874
-5.8110 0.4952 2.3874
-5.8252 0.2864 2.3874
-5.8319 0.0771 2.3874
-5.8310 -0.1322 2.3874
-5.8227 -0.3413 2.3874
-5.8069 -0.5501 2.3874
-5.7835 -0.7581 2.3874
-5.7528 -0.9652 2.3874
-5.7146 -1.1710 2.3874
-5.6690 -1.3754 2.3874
-5.6162 -1.5780 2.3874
-5.5561 -1.7785 2.3874
-5.4889 -1.9768 2.3874
-5.4145 -2.1725 2.3874
-5.3332 -2.3655 2.3874
-5.2450 -2.5554 2.3874
-5.1501 -2.7420 2.3874
-5.0485 -2.9251 2.3874
-4.9404 -3.1045 2.3874
-4.8260 -3.2799 2.3874
-4.7053 -3.4510 2.3874
-4.5785 -3.6177 2.3874
-4.4459 -3.7797 2.3874
-4.3075 -3.9369 2.3874
-4.1636 -4.0890 2.3874
-4.0142 -4.2359 2.3874
-3.8598 -4.3773 2.3874
-3.7003 -4.5131 2.3874
-3.5361 -4.6430 2.3874
-3.3672 -4.7670 2.3874
-3.1941 -4.8849 2.3874
-3.0168 -4.9964 2.3874
-2.8357 -5.1015 2.3874
-2.6508 -5.2001 2.3874
-2.4626 -5.2919 2.3874
-2.2712 -5.3770 2.3874
-2.0768 -5.4551 2.3874
-1.8797 -5.5262 2.3874
-1.6803 -5.5901 2.3874
-1.4786 -5.6469 2.3874
-1.2751 -5.6963 2.3874
-1.0699 -5.7385 2.3874
-0.8633 -5.7732 2.3874
-0.6556 -5.8005 2.3874
-0.4471 -5.8204 2.3874
-0.2380 -5.8327 2.3874
-0.0285 -5.8375 2.3874
0.1810 -5.8348 2.3874
0.3902 -5.8246 2.3874
0.5989 -5.8068 2.3874
0.8069 -5.7816 2.3874
1.0138 -5.7490 2.3874
1.2194 -5.7089 2.3874
1.4235 -5.6614 2.3874
1.6257 -5.6067 2.3874
1.8258 -5.5448 2.3874
2.0235 -5.4757 2.3874
2.2187 -5.3995 2.3874
2.4110 -5.3164 2.3874
2.6002 -5.2264 2.3874
2.7860 -5.1297 2.3874
2.9682 -5.0264 2.3874
3.1467 -4.9166 2.3874
3.3210 -4.8005 2.3874
3.4910 -4.6782 2.3874
3.6566 -4.5499 2.3874
3.8175 -4.4157 2.3874
3.9734 -4.2758 2.3874
4.1242 -4.1304 2.3874
4.2696 -3.9797 2.3874
4.4096 -3.8239 2.3874
4.5439 -3.6631 2.3874
4.6723 -3.4977 2.3874
4.7947 -3.3277 2.3874
4.9109 -3.1535 2.3874
5.0208 -2.9752 2.3874
5.1242 -2.7930 2.3874
5.2210 -2.6073 2.3874
5.3111 -2.4182 2.3874
5.3943 -2.2261 2.3874
5.4706 -2.0310 2.3874
5.5398 -1.8334 2.3874
5.6019 -1.6334 2.3874
5.6568 -1.4313 2.3874
5.7044 -1.2274 2.3874
5.7446 -1.0219 2.3874
5.7774 -0.8150 2.3874
5.8028 -0.6072 2.3874
5.8207 -0.3986 2.3874
5.8311 -0.1894 2.3874
5.8340 0.0199 2.3874
5.8293 0.2292 2.3874
5.8172 0.4382 2.3874
5.7976 0.6467 2.3874
5.7705 0.8543 2.3874
5.7359 1.0608 2.3874
5.6940 1.2659 2.3874
5.6448 1.4693 2.3874
5.5883 1.6709 2.3874
5.5246 1.8703 2.3874
5.4537 2.0673 2.3874
5.3759 2.2616 2.3874
5.2911 2.4530 2.3874
5.1996 2.6412 2.3874
5.1013 2.8260 2.3874
4.9965 3.0072 2.3874
4.8852 3.1845 2.3874
4.7677 3.3577 2.3874
4.6440 3.5265 2.3874
4.5144 3.6908 2.3874
4.3789 3.8503 2.3874
4.2378 4.0049 2.3874
4.0913 4.1543 2.3874
3.9395 4.2983 2.3874
3.7826 4.4369 2.3874
3.6209 4.5696 2.3874
3.4545 4.6966 2.3874
3.2836 4.8174 2.3874
3.1086 4.9320 2.3874
2.9295 5.0403 2.3874
2.7467 5.1421 2.3874
2.5604 5.2373 2.3874
2.3707 5.3257 2.3874
0.8637 2.1441 0.9467
0.7862 2.1740 0.9468
0.7078 2.2011 0.9469
0.6284 2.2253 0.9470
0.5482 2.2466 0.9471
0.4673 2.2651 0.9472
0.3857 2.2806 0.9473
0.3036 2.2931 0.9474
0.2212 2.3027 0.9475
0.1384 2.3093 0.9475
0.0554 2.3129 0.9476
-0.0276 2.3135 0.9476
-0.1106 2.3110 0.9476
-0.1935 2.3056 0.9477
-0.2761 2.2972 0.9477
-0.3584 2.2859 0.9477
-0.4402 2.2715 0.9477
-0.5214 2.2542 0.9477
-0.6019 2.2340 0.9476
-0.6817 2.2109 0.9476
-0.7606 2.1849 0.9476
-0.8385 2.1561 0.9475
-2.3062 5.3533 2.3874
-2.4969 5.2671 2.3874
-2.6843 5.1741 2.3874
-2.8683 5.0745 2.3874
-3.0486 4.9684 2.3874
-3.2250 4.8558 2.3874
-3.3972 4.7370 2.3874
-3.5650 4.6121 2.3874
-3.7283 4.4812 2.3874
-3.8868 4.3446 2.3874
-4.0402 4.2024 2.3874
-4.1885 4.0548 2.3874
-4.3314 3.9019 2.3874
-4.4687 3.7440 2.3874
-4.6003 3.5813 2.3874
-4.7259 3.4140 2.3874
-4.8455 3.2422 2.3874
-4.9588 3.0663 2.3874
-5.0658 2.8864 2.3874
-5.1662 2.7029 2.3874
-5.2600 2.5158 2.3874
-5.3470 2.3254 2.3874
-5.4271 2.1321 2.3874
-5.5003 1.9360 2.3874
-5.5663 1.7374 2.3874
-5.6252 1.5366 2.3874
-5.6769 1.3338 2.3874
-5.7212 1.1292 2.3874
-5.7582 0.9232 2.3874
-5.7878 0.7160 2.3874
-5.8099 0.5079 2.3874
-5.8245 0.2991 2.3874
-5.8317 0.0899 2.3874
-5.8313 -0.1194 2.3874
-5.8234 -0.3286 2.3874
-5.8080 -0.5374 2.3874
-5.7852 -0.7455 2.3874
-5.7548 -0.9526 2.3874
-5.7171 -1.1586 2.3874
-5.6720 -1.3630 2.3874
-5.6196 -1.5657 2.3874
-5.5600 -1.7664 2.3874
-5.4931 -1.9648 2.3874
-5.4192 -2.1607 2.3874
-5.3384 -2.3538 2.3874
-5.2506 -2.5440 2.3874
-5.1561 -2.7308 2.3874
-5.0549 -2.9141 2.3874
-4.9472 -3.0937 2.3874
-4.8331 -3.2693 2.3874
-4.7128 -3.4407 2.3874
-4.5864 -3.6077 2.3874
-4.4541 -3.7700 2.3874
-4.3161 -3.9275 2.3874
-4.1725 -4.0799 2.3874
-4.0235 -4.2271 2.3874
-3.8693 -4.3689 2.3874
-3.7101 -4.5050 2.3874
-3.5462 -4.6353 2.3874
-3.3776 -4.7597 2.3874
-3.2047 -4.8779 2.3874
-3.0277 -4.9898 2.3874
-2.8468 -5.0953 2.3874
-2.6622 -5.1943 2.3874
-2.4741 -5.2865 2.3874
-2.2829 -5.3720 2.3874
-2.0887 -5.4505 2.3874
-1.8918 -5.5220 2.3874
-1.6925 -5.5864 2.3874
-1.4910 -5.6436 2.3874
-1.2875 -5.6935 2.3874
-1.0824 -5.7361 2.3874
-0.8759 -5.7713 2.3874
-0.6683 -5.7991 2.3874
-0.4598 -5.8194 2.3874
-0.2507 -5.8322 2.3874
-0.0413 -5.8374 2.3874
0.1682 -5.8352 2.3874
0.3775 -5.8254 2.3874
0.5862 -5.8081 2.3874
0.7943 -5.7834 2.3874
1.0013 -5.7511 2.3874
1.2070 -5.7115 2.3874
1.4111 -5.6645 2.3874
1.6134 -5.6103 2.3874
1.8137 -5.5487 2.3874
2.0116 -5.4801 2.3874
2.2069 -5.4043 2.3874
2.3994 -5.3216 2.3874
2.5888 -5.2321 2.3874
2.7748 -5.1358 2.3874
2.9573 -5.0329 2.3874
3.1359 -4.9235 2.3874
-0.2115 -5.4778 2.3874
-0.0148 -5.4819 2.3874
0.1819 -5.4789 2.3874
0.3783 -5.4689 2.3874
0.5743 -5.4518 2.3874
0.7696 -5.4277 2.3874
0.9638 -5.3966 2.3874
1.1568 -5.3585 2.3874
1.3483 -5.3136 2.3874
1.5381 -5.2617 2.3874
1.7259 -5.2031 2.3874
1.9115 -5.1379 2.3874
2.0946 -5.0659 2.3874
2.2750 -4.9875 2.3874
2.4524 -4.9026 2.3874
2.6267 -4.8114 2.3874
2.7977 -4.7141 2.3874
2.9650 -4.6106 2.3874
3.1285 -4.5012 2.3874
3.2879 -4.3860 2.3874
3.4431 -4.2652 2.3874
3.5939 -4.1388 2.3874
3.7400 -4.0071 2.3874
3.8813 -3.8703 2.3874
4.0176 -3.7285 2.3874
4.1488 -3.5819 2.3874
4.2745 -3.4307 2.3874
4.3948 -3.2750 2.3874
4.5094 -3.1152 2.3874
4.6182 -2.9513 2.3874
4.7210 -2.7837 2.3874
4.8178 -2.6124 2.3874
4.9083 -2.4378 2.3874
4.9925 -2.2601 2.3874
5.0703 -2.0794 2.3874
5.1415 -1.8961 2.3874
5.2061 -1.7104 2.3874
5.2640 -1.5224 2.3874
5.3151 -1.3325 2.3874
5.3594 -1.1409 2.3874
5.3967 -0.9479 2.3874
5.4271 -0.7536 2.3874
5.4505 -0.5584 2.3874
5.4669 -0.3624 2.3874
5.4763 -0.1660 2.3874
5.4786 0.0306 2.3874
5.4738 0.2272 2.3874
5.4620 0.4234 2.3874
5.4431 0.6191 2.3874
5.4173 0.8140 2.3874
5.3844 1.0079 2.3874
5.3447 1.2004 2.3874
5.2980 1.3914 2.3874
5.2445 1.5806 2.3874
5.1843 1.7677 2.3874
5.1174 1.9525 2.3874
5.0439 2.1349 2.3874
4.9639 2.3144 2.3874
4.8775 2.4910 2.3874
4.7849 2.6644 2.3874
4.6861 2.8343 2.3874
4.5812 3.0006 2.3874
4.4705 3.1629 2.3874
4.3540 3.3213 2.3874
4.2319 3.4753 2.3874
4.1044 3.6248 2.3874
3.9716 3.7697 2.3874
3.8337 3.9097 2.3874
3.6908 4.0447 2.3874
3.5432 4.1744 2.3874
3.3911 4.2988 2.3874
3.2345 4.4177 2.3874
3.0739 4.5308 2.3874
2.9092 4.6381 2.3874
2.7409 4.7395 2.3874
2.5690 4.8347 2.3874
2.3938 4.9237 2.3874
0.8780 1.9841 0.9462
0.8064 2.0146 0.9463
0.7336 2.0424 0.9464
0.6599 2.0677 0.9465
0.5854 2.0902 0.9466
0.5100 2.1101 0.9467
0.4340 2.1272 0.9468
0.3574 2.1416 0.9469
0.2803 2.1532 0.9470
0.2029 2.1620 0.9470
0.1252 2.1680 0.9471
0.0473 2.1712 0.9471
-0.0306 2.1716 0.9472
-0.1086 2.1691 0.9472
-0.1863 2.1639 0.9472
-0.2639 2.1558 0.9472
-0.3411 2.1450 0.9472
-0.4178 2.1313 0.9472
-0.4940 2.1149 0.9472
-0.5696 2.0958 0.9472
-0.6444 2.0739 0.9472
-0.7184 2.0494 0.9471
-0.7915 2.0222 0.9471
-0.8635 1.9924 0.9470
-2.3557 4.9413 2.3874
-2.5315 4.8537 2.3874
-2.7041 4.7597 2.3874
-2.8732 4.6597 2.3874
-3.0386 4.5536 2.3874
-3.2001 4.4417 2.3874
-3.3575 4.3240 2.3874
-3.5105 4.2008 2.3874
-3.6591 4.0721 2.3874
-3.8029 3.9383 2.3874
-3.9418 3.7993 2.3874
-4.0757 3.6555 2.3874
-4.2044 3.5069 2.3874
-4.3276 3.3538 2.3874
-4.4452 3.1964 2.3874
-4.5571 3.0349 2.3874
-4.6632 2.8694 2.3874
-4.7633 2.7003 2.3874
-4.8572 2.5277 2.3874
-4.9449 2.3518 2.3874
-5.0262 2.1729 2.3874
-5.1011 1.9911 2.3874
-5.1693 1.8068 2.3874
-5.2310 1.6202 2.3874
-5.2859 1.4315 2.3874
-5.3340 1.2409 2.3874
-5.3752 1.0487 2.3874
-5.4095 0.8552 2.3874
-5.4368 0.6605 2.3874
-5.4572 0.4650 2.3874
-5.4705 0.2689 2.3874
-5.4767 0.0724 2.3874
-5.4760 -0.1242 2.3874
-5.4681 -0.3206 2.3874
-5.4532 -0.5166 2.3874
-5.4313 -0.7120 2.3874
-5.4024 -0.9064 2.3874
-5.3665 -1.0998 2.3874
-5.3238 -1.2916 2.3874
-5.2741 -1.4819 2.3874
-5.2177 -1.6702 2.3874
-5.1545 -1.8564 2.3874
-5.0847 -2.0403 2.3874
-5.0084 -2.2214 2.3874
-4.9256 -2.3998 2.3874
-4.8364 -2.5751 2.3874
-4.7410 -2.7470 2.3874
-4.6395 -2.9154 2.3874
-4.5320 -3.0801 2.3874
-4.4187 -3.2408 2.3874
-4.2996 -3.3973 2.3874
-4.1751 -3.5495 2.3874
-4.0451 -3.6971 2.3874
-3.9099 -3.8400 2.3874
-3.7697 -3.9779 2.3874
-3.6246 -4.1107 2.3874
-3.4749 -4.2382 2.3874
-3.3206 -4.3602 2.3874
-3.1621 -4.4766 2.3874
-2.9995 -4.5873 2.3874
-2.8330 -4.6920 2.3874
