ply
format ascii 1.0
element vertex 2176
property float32 x
property float32 y
property float32 z
end_header
-5.3741 -6.7246 2.3928
-5.1127 -6.8870 2.3928
-4.8460 -7.0386 2.3928
-4.5744 -7.1793 2.3928
-4.2986 -7.3091 2.3928
-4.0189 -7.4277 2.3928
-3.7359 -7.5351 2.3928
-3.4500 -7.6313 2.3928
-3.1618 -7.7163 2.3928
-2.8716 -7.7901 2.3928
-2.5800 -7.8527 2.3928
-2.2874 -7.9041 2.3928
-1.9943 -7.9443 2.3928
-1.7011 -7.9736 2.3928
-1.4083 -7.9920 2.3928
-1.1161 -7.9995 2.3928
-0.8252 -7.9964 2.3928
-0.5358 -7.9827 2.3928
-0.2483 -7.9586 2.3928
0.0369 -7.9243 2.3928
0.3194 -7.8800 2.3928
0.5989 -7.8259 2.3928
0.8750 -7.7621 2.3928
1.1476 -7.6888 2.3928
1.4162 -7.6064 2.3928
1.6805 -7.5150 2.3928
1.9403 -7.4147 2.3928
2.1953 -7.3060 2.3928
2.4454 -7.1890 2.3928
2.6901 -7.0639 2.3928
2.9293 -6.9311 2.3928
3.1629 -6.7907 2.3928
3.3905 -6.6430 2.3928
3.6120 -6.4883 2.3928
3.8273 -6.3268 2.3928
4.0361 -6.1588 2.3928
4.2383 -5.9845 2.3928
4.4338 -5.8043 2.3928
4.6223 -5.6182 2.3928
4.8039 -5.4267 2.3928
4.9783 -5.2300 2.3928
5.1455 -5.0283 2.3928
5.3054 -4.8219 2.3928
5.4578 -4.6111 2.3928
5.6027 -4.3960 2.3928
5.7400 -4.1769 2.3928
5.8696 -3.9542 2.3928
5.9915 -3.7280 2.3928
6.1056 -3.4985 2.3928
6.2119 -3.2661 2.3928
6.3103 -3.0310 2.3928
6.4008 -2.7933 2.3928
6.4833 -2.5534 2.3928
6.1402 -2.1643 2.2404
6.2029 -1.9362 2.2405
6.2581 -1.7066 2.2406
6.3057 -1.4758 2.2408
6.3459 -1.2439 2.2409
6.3785 -1.0111 2.2411
6.4035 -0.7777 2.2412
6.4210 -0.5439 2.2413
6.4310 -0.3098 2.2415
6.4335 -0.0758 2.2416
6.4284 0.1581 2.2417
4.4957 0.2744 1.5709
4.5780 0.4470 1.6048
6.3633 0.8560 2.2404
6.3281 1.0868 2.2404
6.2365 1.3062 2.2229
6.2355 1.5446 2.2404
6.1781 1.7712 2.2404
6.1136 1.9959 2.2404
6.0417 2.2187 2.2403
5.9627 2.4391 2.2403
5.8766 2.6572 2.2403
5.7834 2.8726 2.2403
5.6832 3.0852 2.2403
5.5760 3.2948 2.2403
5.4619 3.5011 2.2403
5.3411 3.7040 2.2403
5.2135 3.9033 2.2403
5.0792 4.0987 2.2403
4.9383 4.2901 2.2403
4.7910 4.4772 2.2403
4.6373 4.6599 2.2403
4.4773 4.8380 2.2403
4.3111 5.0112 2.2403
4.1388 5.1794 2.2403
3.9606 5.3423 2.2403
3.7766 5.4997 2.2403
3.5869 5.6515 2.2403
3.3916 5.7974 2.2403
3.1910 5.9372 2.2403
2.9850 6.0708 2.2403
2.7740 6.1979 2.2403
2.7192 6.7160 2.3814
2.4965 6.8694 2.3927
2.2559 6.9831 2.3927
0.8362 2.9482 0.9951
0.7297 2.9780 0.9914
0.6222 3.0039 0.9877
0.5138 3.0260 0.9839
0.4046 3.0440 0.9801
0.2949 3.0581 0.9762
0.1847 3.0683 0.9723
0.0743 3.0744 0.9683
-0.0364 3.0766 0.9643
-0.1470 3.0747 0.9602
-0.2575 3.0688 0.9561
-0.3677 3.0589 0.9520
-0.4775 3.0451 0.9479
-0.5868 3.0273 0.9438
-0.6953 3.0055 0.9397
-0.8029 2.9798 0.9355
-0.9096 2.9503 0.9314
-2.6192 7.5264 2.3927
-2.9009 7.4633 2.3927
-3.1813 7.3897 2.3927
-3.4601 7.3056 2.3927
-3.7368 7.2109 2.3927
-4.0109 7.1057 2.3927
-4.2821 6.9900 2.3927
-4.5499 6.8637 2.3927
-4.8139 6.7270 2.3927
-5.0736 6.5799 2.3927
-5.3285 6.4226 2.3927
-5.5782 6.2551 2.3927
-5.8223 6.0776 2.3927
-6.0603 5.8902 2.3927
-6.2918 5.6932 2.3927
-6.5163 5.4867 2.3927
-6.7333 5.2710 2.3927
-6.9425 5.0463 2.3927
-7.1433 4.8129 2.3927
-7.3355 4.5711 2.3927
-7.5185 4.3213 2.3927
-7.6920 4.0638 2.3927
-7.8557 3.7989 2.3927
-8.0090 3.5271 2.3927
-8.1518 3.2487 2.3927
-8.2836 2.9643 2.3927
-8.4041 2.6742 2.3927
-8.5131 2.3789 2.3927
-8.6103 2.0790 2.3927
-8.6954 1.7749 2.3927
-8.7683 1.4671 2.3927
-8.8287 1.1562 2.3927
-8.8765 0.8428 2.3927
-8.9115 0.5274 2.3928
-8.9337 0.2105 2.3928
-8.9429 -0.1073 2.3928
-8.9392 -0.4253 2.3928
-8.9224 -0.7431 2.3928
-8.8926 -1.0600 2.3928
-8.8499 -1.3755 2.3928
-8.7944 -1.6889 2.3928
-8.7260 -1.9998 2.3928
-8.6451 -2.3075 2.3928
-8.5516 -2.6115 2.3928
-8.4459 -2.9112 2.3928
-8.3282 -3.2062 2.3928
-8.1986 -3.4959 2.3928
-8.0576 -3.7797 2.3928
-7.9053 -4.0572 2.3928
-7.7421 -4.3279 2.3928
-7.5684 -4.5915 2.3928
-7.3844 -4.8474 2.3928
-7.1907 -5.0952 2.3928
-6.9876 -5.3346 2.3928
-6.7755 -5.5652 2.3928
-6.5549 -5.7866 2.3928
-6.3262 -5.9987 2.3928
-6.0898 -6.2009 2.3928
-5.8463 -6.3932 2.3928
-5.5960 -6.5752 2.3928
-5.3396 -6.7468 2.3928
-5.0775 -6.9078 2.3928
-4.8101 -7.0580 2.3928
-4.5379 -7.1973 2.3928
-4.2615 -7.3255 2.3928
-3.9814 -7.4426 2.3928
-3.6979 -7.5485 2.3928
-3.4117 -7.6433 2.3928
-3.1232 -7.7268 2.3928
-2.8328 -7.7991 2.3928
-2.5411 -7.8601 2.3928
-2.2484 -7.9101 2.3928
-1.9553 -7.9489 2.3928
-1.6621 -7.9767 2.3928
-1.3693 -7.9936 2.3928
-1.0773 -7.9997 2.3928
-0.7865 -7.9952 2.3928
-0.4974 -7.9801 2.3928
-0.2102 -7.9546 2.3928
0.0746 -7.9190 2.3928
0.3568 -7.8734 2.3928
0.6358 -7.8179 2.3928
0.9116 -7.7529 2.3928
1.1836 -7.6784 2.3928
1.4516 -7.5947 2.3928
1.7154 -7.5021 2.3928
1.9745 -7.4008 2.3928
2.2289 -7.2909 2.3928
2.4783 -7.1728 2.3928
2.7223 -7.0467 2.3928
2.9608 -6.9128 2.3928
3.1936 -6.7714 2.3928
3.4204 -6.6228 2.3928
3.6410 -6.4676 2.3928
3.8555 -6.3049 2.3928
4.0634 -6.1359 2.3928
4.2647 -5.9608 2.3928
4.4593 -5.7798 2.3928
4.6469 -5.5930 2.3928
4.8275 -5.4008 2.3928
5.0010 -5.2034 2.3928
5.1672 -5.0011 2.3928
5.3261 -4.7941 2.3928
5.4775 -4.5826 2.3928
5.6214 -4.3670 2.3928
5.7577 -4.1475 2.3928
5.8863 -3.9242 2.3928
6.0072 -3.6976 2.3928
6.1202 -3.4678 2.3928
6.2255 -3.2350 2.3928
6.3228 -2.9995 2.3928
6.4122 -2.7615 2.3928
6.4937 -2.5213 2.3928
6.1490 -2.1340 2.2404
6.2107 -1.9057 2.2405
6.2649 -1.6760 2.2407
6.3115 -1.4450 2.2408
6.3506 -1.2130 2.2409
6.3822 -0.9801 2.2411
6.4063 -0.7466 2.2412
6.4228 -0.5127 2.2414
6.4318 -0.2787 2.2415
6.4332 -0.0446 2.2416
6.4272 0.1892 2.2418
4.4927 0.2961 1.5704
6.3879 0.6550 2.2404
6.3591 0.8867 2.2404
6.3228 1.1175 2.2404
6.2409 1.3387 2.2267
6.2282 1.5749 2.2404
6.1700 1.8013 2.2404
6.1044 2.0257 2.2404
6.0316 2.2482 2.2403
5.9517 2.4683 2.2403
5.8646 2.6860 2.2403
5.7705 2.9011 2.2403
5.6693 3.1133 2.2403
5.5612 3.3224 2.2403
5.4462 3.5283 2.2403
5.3245 3.7308 2.2403
5.1959 3.9295 2.2403
5.0608 4.1244 2.2403
4.9191 4.3153 2.2403
4.7709 4.5018 2.2403
4.6163 4.6839 2.2403
4.4555 4.8614 2.2403
4.2885 5.0339 2.2403
4.1154 5.2014 2.2403
3.9364 5.3636 2.2403
3.7517 5.5202 2.2403
3.5612 5.6712 2.2403
3.3652 5.8164 2.2403
3.1638 5.9554 2.2403
2.9572 6.0881 2.2403
2.7456 6.2143 2.2403
2.7010 6.7647 2.3927
2.4647 6.8850 2.3927
2.2235 6.9977 2.3927
0.8221 2.9524 0.9946
0.7155 2.9817 0.9910
0.6078 3.0071 0.9872
0.4993 3.0286 0.9834
0.3901 3.0461 0.9796
0.2803 3.0597 0.9757
0.1700 3.0693 0.9717
0.0595 3.0749 0.9677
-0.0511 3.0765 0.9637
-0.1617 3.0741 0.9597
-0.2722 3.0677 0.9556
-0.3824 3.0573 0.9515
-0.4921 3.0429 0.9474
-0.6013 3.0246 0.9432
-0.7097 3.0023 0.9391
-0.8172 2.9761 0.9350
-0.9237 2.9460 0.9309
-2.6567 7.5186 2.3927
-2.9383 7.4541 2.3927
-3.2186 7.3791 2.3927
-3.4971 7.2936 2.3927
-3.7735 7.1975 2.3927
-4.0472 7.0909 2.3927
-4.3180 6.9737 2.3927
-4.5853 6.8461 2.3927
-4.8487 6.7080 2.3927
-5.1078 6.5596 2.3927
-5.3621 6.4009 2.3927
-5.6111 6.2320 2.3927
-5.8544 6.0532 2.3927
-6.0916 5.8645 2.3927
-6.3221 5.6662 2.3927
-6.5456 5.4585 2.3927
-6.7616 5.2416 2.3927
-6.9697 5.0157 2.3927
-7.1694 4.7812 2.3927
-7.3604 4.5383 2.3927
-7.5422 4.2874 2.3927
-7.7144 4.0289 2.3927
-7.5891 2.7526 2.3927
-7.6996 2.4868 2.3927
-7.7996 2.2162 2.3927
-7.8889 1.9415 2.3927
-7.9672 1.6629 2.3927
-8.0345 1.3811 2.3927
-8.0904 1.0964 2.3927
-8.1348 0.8094 2.3927
-8.1677 0.5206 2.3928
-8.1889 0.2304 2.3928
-8.1984 -0.0606 2.3928
-8.1961 -0.3519 2.3928
-8.1820 -0.6430 2.3928
-8.1562 -0.9334 2.3928
-8.1186 -1.2225 2.3928
-8.0693 -1.5099 2.3928
-8.0085 -1.7950 2.3928
-7.9361 -2.0773 2.3928
-7.8525 -2.3563 2.3928
-7.7577 -2.6316 2.3928
-7.6519 -2.9026 2.3928
-7.5354 -3.1689 2.3928
-7.4083 -3.4301 2.3928
-7.2710 -3.6856 2.3928
-7.1238 -3.9352 2.3928
-6.9668 -4.1782 2.3928
-6.8006 -4.4145 2.3928
-6.6253 -4.6435 2.3928
-6.4414 -4.8650 2.3928
-6.2492 -5.0786 2.3928
-6.0491 -5.2840 2.3928
-5.8414 -5.4809 2.3928
-5.6267 -5.6691 2.3928
-5.4053 -5.8482 2.3928
-5.1777 -6.0182 2.3928
-4.9441 -6.1787 2.3928
-4.7052 -6.3296 2.3928
-4.4614 -6.4707 2.3928
-4.2130 -6.6019 2.3928
-3.9605 -6.7232 2.3928
-3.7043 -6.8343 2.3928
-3.4450 -6.9352 2.3928
-3.1829 -7.0260 2.3928
-2.9184 -7.1064 2.3928
-2.6520 -7.1766 2.3928
-2.3842 -7.2366 2.3928
-2.1153 -7.2864 2.3928
-1.8457 -7.3259 2.3928
-1.5759 -7.3554 2.3928
-1.3062 -7.3747 2.3928
-1.0370 -7.3842 2.3928
-0.7686 -7.3837 2.3928
-0.5016 -7.3735 2.3928
-0.2361 -7.3538 2.3928
0.0274 -7.3245 2.3928
0.2886 -7.2860 2.3928
0.5472 -7.2383 2.3928
0.8029 -7.1817 2.3928
1.0554 -7.1163 2.3928
1.3044 -7.0422 2.3928
1.5496 -6.9598 2.3928
1.7908 -6.8692 2.3928
2.0277 -6.7706 2.3928
2.2601 -6.6642 2.3928
2.4877 -6.5503 2.3928
2.7103 -6.4290 2.3928
2.9278 -6.3007 2.3928
3.1399 -6.1654 2.3928
3.3465 -6.0235 2.3928
3.5473 -5.8753 2.3928
3.7422 -5.7208 2.3928
3.9310 -5.5604 2.3928
4.1137 -5.3944 2.3928
4.2900 -5.2228 2.3928
4.4599 -5.0461 2.3928
4.6231 -4.8643 2.3928
4.7797 -4.6778 2.3928
4.9295 -4.4868 2.3928
5.0724 -4.2916 2.3928
5.2083 -4.0923 2.3928
5.3372 -3.8892 2.3928
5.4589 -3.6825 2.3928
5.5734 -3.4725 2.3928
5.6807 -3.2594 2.3928
5.7806 -3.0434 2.3928
5.8732 -2.8248 2.3928
5.9584 -2.6038 2.3928
5.6517 -2.2290 2.2404
5.7175 -2.0181 2.2404
5.7763 -1.8056 2.2404
5.8280 -1.5917 2.2404
5.8727 -1.3766 2.2404
5.9103 -1.1604 2.2404
5.9408 -0.9435 2.2404
5.9642 -0.7259 2.2404
5.9806 -0.5079 2.2404
5.9899 -0.2897 2.2404
5.9921 -0.0715 2.2404
5.9872 0.1466 2.2404
4.4957 0.2740 1.6856
4.5777 0.4468 1.7218
5.9305 0.7976 2.2404
5.8976 1.0130 2.2404
5.8578 1.2272 2.2404
5.8110 1.4400 2.2404
5.7574 1.6513 2.2404
5.6969 1.8609 2.2404
5.6297 2.0685 2.2403
5.5557 2.2741 2.2403
5.4750 2.4773 2.2403
5.3876 2.6780 2.2403
5.2937 2.8760 2.2403
5.1933 3.0711 2.2403
5.0864 3.2631 2.2403
4.9731 3.4519 2.2403
4.8536 3.6372 2.2403
4.7278 3.8189 2.2403
4.5959 3.9967 2.2403
4.4579 4.1704 2.2403
4.3140 4.3400 2.2403
4.1643 4.5051 2.2403
4.0088 4.6656 2.2403
3.8477 4.8213 2.2403
3.6810 4.9720 2.2403
3.5090 5.1176 2.2403
3.3318 5.2577 2.2403
3.1494 5.3923 2.2403
2.9620 5.5212 2.2403
2.7699 5.6441 2.2403
2.6218 5.8700 2.2828
2.5330 6.2708 2.3927
2.3134 6.3819 2.3927
0.8682 2.6953 0.9943
0.7708 2.7263 0.9910
0.6723 2.7539 0.9876
0.5728 2.7778 0.9842
0.4726 2.7981 0.9807
0.3716 2.8148 0.9771
0.2701 2.8279 0.9735
0.1682 2.8372 0.9699
0.0661 2.8429 0.9662
-0.0362 2.8449 0.9625
-0.1386 2.8431 0.9587
-0.2408 2.8377 0.9550
-0.3427 2.8286 0.9512
-0.4442 2.8157 0.9474
-0.5452 2.7993 0.9435
-0.6456 2.7791 0.9397
-0.7452 2.7554 0.9359
-0.8438 2.7280 0.9321
-0.9413 2.6972 0.9283
-2.6857 6.8914 2.3927
-2.9438 6.8212 2.3927
-3.2001 6.7413 2.3927
-3.4543 6.6517 2.3927
-3.7061 6.5524 2.3927
-3.9549 6.4435 2.3927
-4.2004 6.3251 2.3927
-4.4423 6.1970 2.3927
-4.6801 6.0596 2.3927
-4.9134 5.9127 2.3927
-5.1417 5.7567 2.3927
-5.3648 5.5915 2.3927
-5.5821 5.4175 2.3927
-5.7933 5.2346 2.3927
-5.9980 5.0433 2.3927
-6.1958 4.8436 2.3927
-6.3863 4.6357 2.3927
-6.5692 4.4201 2.3927
-6.7440 4.1969 2.3927
-6.9103 3.9665 2.3927
-7.0679 3.7291 2.3927
-7.2165 3.4852 2.3927
-7.3556 3.2350 2.3927
-7.4850 2.9790 2.3927
-7.6044 2.7175 2.3927
-7.7135 2.4510 2.3927
-7.8121 2.1799 2.3927
-7.9000 1.9046 2.3927
-7.9768 1.6256 2.3927
-8.0426 1.3433 2.3927
-8.0969 1.0583 2.3927
-8.1399 0.7711 2.3927
-8.1712 0.4820 2.3928
-8.1909 0.1917 2.3928
-8.1988 -0.0994 2.3928
-8.1949 -0.3907 2.3928
-8.1793 -0.6817 2.3928
-8.1519 -0.9720 2.3928
-8.1127 -1.2609 2.3928
-8.0619 -1.5480 2.3928
-7.9995 -1.8327 2.3928
-7.9256 -2.1146 2.3928
-7.8405 -2.3932 2.3928
-7.7442 -2.6679 2.3928
-7.6370 -2.9384 2.3928
-7.5190 -3.2040 2.3928
-7.3906 -3.4645 2.3928
-7.2520 -3.7192 2.3928
-7.1034 -3.9679 2.3928
-6.9452 -4.2101 2.3928
-6.7777 -4.4454 2.3928
-6.6013 -4.6734 2.3928
-6.4162 -4.8939 2.3928
-6.2230 -5.1064 2.3928
-6.0218 -5.3107 2.3928
-5.8132 -5.5065 2.3928
-5.5976 -5.6934 2.3928
-5.3754 -5.8714 2.3928
-5.1469 -6.0401 2.3928
-4.9126 -6.1993 2.3928
-4.6730 -6.3489 2.3928
-4.4285 -6.4888 2.3928
-4.1796 -6.6187 2.3928
-3.9266 -6.7386 2.3928
-3.6700 -6.8483 2.3928
-3.4102 -6.9479 2.3928
-3.1478 -7.0373 2.3928
-2.8831 -7.1164 2.3928
-2.6165 -7.1853 2.3928
-2.3485 -7.2439 2.3928
-2.0794 -7.2922 2.3928
-1.8098 -7.3304 2.3928
-1.5399 -7.3585 2.3928
-1.2703 -7.3766 2.3928
-1.0012 -7.3847 2.3928
-0.7330 -7.3829 2.3928
-0.4661 -7.3714 2.3928
-0.2009 -7.3504 2.3928
0.0623 -7.3200 2.3928
0.3232 -7.2802 2.3928
0.5814 -7.2313 2.3928
0.8367 -7.1735 2.3928
1.0887 -7.1069 2.3928
1.3372 -7.0317 2.3928
1.5819 -6.9482 2.3928
1.8226 -6.8565 2.3928
2.0589 -6.7569 2.3928
2.2907 -6.6495 2.3928
2.5176 -6.5346 2.3928
2.7396 -6.4123 2.3928
2.9564 -6.2830 2.3928
3.1677 -6.1469 2.3928
3.3735 -6.0041 2.3928
3.5736 -5.8551 2.3928
3.7677 -5.6998 2.3928
3.9557 -5.5387 2.3928
4.1375 -5.3718 2.3928
4.3130 -5.1996 2.3928
4.4820 -5.0221 2.3928
4.6444 -4.8397 2.3928
4.8001 -4.6526 2.3928
4.9489 -4.4611 2.3928
5.0909 -4.2653 2.3928
5.2259 -4.0654 2.3928
5.3538 -3.8618 2.3928
5.4746 -3.6547 2.3928
5.5881 -3.4443 2.3928
5.6944 -3.2308 2.3928
5.7934 -3.0145 2.3928
5.8850 -2.7955 2.3928
5.9692 -2.5742 2.3928
5.6609 -2.2010 2.2404
5.7257 -1.9899 2.2404
5.7835 -1.7772 2.2404
5.8343 -1.5631 2.2404
5.8781 -1.3478 2.2404
5.9147 -1.1316 2.2404
5.9443 -0.9145 2.2404
5.9668 -0.6969 2.2404
5.9822 -0.4789 2.2404
5.9906 -0.2606 2.2404
5.9918 -0.0424 2.2404
5.9861 0.1756 2.2404
4.4927 0.2957 1.6851
5.9534 0.6102 2.2404
5.9265 0.8264 2.2404
5.8927 1.0416 2.2404
5.8520 1.2556 2.2404
5.8043 1.4683 2.2404
5.7497 1.6794 2.2404
5.6884 1.8887 2.2403
5.6202 2.0960 2.2403
5.5453 2.3013 2.2403
5.4637 2.5042 2.2403
5.3755 2.7045 2.2403
5.2807 2.9021 2.2403
5.1794 3.0969 2.2403
5.0717 3.2885 2.2403
4.9576 3.4768 2.2403
4.8372 3.6616 2.2403
4.7106 3.8428 2.2403
4.5779 4.0200 2.2403
4.4391 4.1933 2.2403
4.2944 4.3622 2.2403
4.1439 4.5267 2.2403
3.9877 4.6866 2.2403
3.8258 4.8417 2.2403
3.6584 4.9917 2.2403
3.4857 5.1365 2.2403
3.3078 5.2760 2.2403
3.1247 5.4098 2.2403
2.9367 5.5379 2.2403
2.7439 5.6600 2.2403
2.6289 5.9629 2.3128
2.5041 6.2860 2.3927
2.2838 6.3962 2.3927
0.8553 2.6996 0.9939
0.7577 2.7302 0.9906
0.6591 2.7573 0.9872
0.5595 2.7807 0.9837
0.4592 2.8006 0.9802
0.3581 2.8168 0.9766
0.2566 2.8293 0.9730
0.1546 2.8382 0.9694
0.0524 2.8434 0.9657
-0.0499 2.8448 0.9620
-0.1522 2.8426 0.9582
-0.2544 2.8367 0.9545
-0.3563 2.8271 0.9507
-0.4577 2.8137 0.9469
-0.5587 2.7968 0.9430
-0.6589 2.7762 0.9392
-0.7583 2.7519 0.9354
-0.8568 2.7241 0.9316
-2.4610 6.9445 2.3927
-2.7202 6.8826 2.3927
-2.9780 6.8111 2.3927
-3.2341 6.7299 2.3927
-3.4880 6.6390 2.3927
-3.7394 6.5385 2.3927
-3.9878 6.4283 2.3927
-4.2329 6.3085 2.3927
-4.4742 6.1793 2.3927
-4.7114 6.0405 2.3927
-4.9441 5.8925 2.3927
-5.1718 5.7352 2.3927
-5.3941 5.5689 2.3927
-5.6106 5.3936 2.3927
-5.8210 5.2097 2.3927
-6.0248 5.0171 2.3927
-6.2216 4.8163 2.3927
-6.4111 4.6075 2.3927
-6.5929 4.3908 2.3927
-6.7666 4.1667 2.3927
-6.9318 3.9353 2.3927
-7.0883 3.6970 2.3927
-7.0072 2.5381 2.3927
-7.1080 2.2925 2.3927
-7.1992 2.0427 2.3927
-7.2805 1.7890 2.3927
-7.3518 1.5320 2.3927
-7.4129 1.2720 2.3927
-7.4636 1.0095 2.3927
-7.5039 0.7449 2.3927
-7.5336 0.4787 2.3928
-7.5527 0.2113 2.3928
-7.5610 -0.0569 2.3928
-7.5585 -0.3253 2.3928
-7.5453 -0.5935 2.3928
-7.5214 -0.8610 2.3928
-7.4867 -1.1273 2.3928
-7.4413 -1.3921 2.3928
-7.3854 -1.6548 2.3928
-7.3190 -1.9150 2.3928
-7.2423 -2.1722 2.3928
-7.1553 -2.4259 2.3928
-7.0583 -2.6759 2.3928
-6.9515 -2.9215 2.3928
-6.8351 -3.1625 2.3928
-6.7092 -3.3984 2.3928
-6.5742 -3.6288 2.3928
-6.4304 -3.8534 2.3928
-6.2780 -4.0718 2.3928
-6.1173 -4.2837 2.3928
-5.9486 -4.4886 2.3928
-5.7723 -4.6865 2.3928
-5.5887 -4.8769 2.3928
-5.3981 -5.0595 2.3928
-5.2009 -5.2343 2.3928
-4.9976 -5.4008 2.3928
-4.7884 -5.5589 2.3928
-4.5738 -5.7084 2.3928
-4.3541 -5.8492 2.3928
-4.1297 -5.9810 2.3928
-3.9011 -6.1038 2.3928
-3.6686 -6.2174 2.3928
-3.4327 -6.3218 2.3928
-3.1936 -6.4169 2.3928
-2.9519 -6.5025 2.3928
-2.7079 -6.5788 2.3928
-2.4620 -6.6456 2.3928
-2.2146 -6.7030 2.3928
-1.9661 -6.7510 2.3928
-1.7168 -6.7896 2.3928
-1.4672 -6.8188 2.3928
-1.2175 -6.8387 2.3928
-0.9681 -6.8495 2.3928
-0.7195 -6.8510 2.3928
-0.4718 -6.8436 2.3928
-0.2255 -6.8272 2.3928
0.0191 -6.8021 2.3928
0.2617 -6.7683 2.3928
0.5021 -6.7259 2.3928
0.7399 -6.6752 2.3928
0.9749 -6.6162 2.3928
1.2067 -6.5493 2.3928
1.4351 -6.4745 2.3928
1.6600 -6.3919 2.3928
1.8809 -6.3019 2.3928
2.0978 -6.2046 2.3928
2.3103 -6.1002 2.3928
2.5183 -5.9888 2.3928
2.7216 -5.8708 2.3928
2.9199 -5.7462 2.3928
3.1132 -5.6154 2.3928
3.3012 -5.4785 2.3928
3.4838 -5.3358 2.3928
3.6608 -5.1874 2.3928
3.8320 -5.0337 2.3928
3.9974 -4.8747 2.3928
4.1568 -4.7107 2.3928
4.3102 -4.5420 2.3928
4.4572 -4.3688 2.3928
4.5980 -4.1913 2.3928
4.7324 -4.0097 2.3928
4.8602 -3.8242 2.3928
4.9815 -3.6351 2.3928
5.0961 -3.4425 2.3928
5.2040 -3.2468 2.3928
5.3051 -3.0481 2.3928
5.3993 -2.8466 2.3928
5.4866 -2.6425 2.3928
5.5670 -2.4361 2.3928
5.2812 -2.0857 2.2404
5.3433 -1.8887 2.2404
5.3989 -1.6901 2.2404
5.4478 -1.4902 2.2404
5.4901 -1.2890 2.2404
5.5258 -1.0868 2.2404
5.5548 -0.8838 2.2404
5.5771 -0.6802 2.2404
5.5927 -0.4762 2.2404
5.6017 -0.2720 2.2404
5.6040 -0.0677 2.2404
5.5996 0.1364 2.2404
4.4958 0.2737 1.8022
4.5773 0.4465 1.8408
5.5468 0.7460 2.2404
5.5160 0.9476 2.2404
5.4787 1.1481 2.2404
5.4348 1.3473 2.2404
5.3845 1.5451 2.2404
5.3277 1.7412 2.2403
5.2645 1.9355 2.2403
5.1949 2.1278 2.2403
5.1191 2.3179 2.2403
5.0370 2.5055 2.2403
4.9487 2.6907 2.2403
4.8543 2.8730 2.2403
4.7539 3.0524 2.2403
4.6474 3.2287 2.2403
4.5351 3.4017 2.2403
4.4169 3.5713 2.2403
4.2930 3.7371 2.2403
4.1634 3.8991 2.2403
4.0283 4.0571 2.2403
3.8877 4.2109 2.2403
3.7417 4.3602 2.2403
3.5905 4.5051 2.2403
3.4342 4.6451 2.2403
3.2729 4.7803 2.2403
3.1067 4.9103 2.2403
2.9358 5.0351 2.2403
2.7602 5.1544 2.2403
2.5803 5.2681 2.2403
2.5590 5.7418 2.3927
2.3578 5.8507 2.3927
0.8937 2.4718 0.9935
0.8043 2.5039 0.9905
0.7137 2.5328 0.9874
0.6222 2.5583 0.9843
0.5298 2.5806 0.9811
0.4366 2.5994 0.9778
0.3428 2.6149 0.9745
0.2485 2.6270 0.9712
0.1538 2.6357 0.9678
0.0589 2.6410 0.9644
-0.0361 2.6428 0.9609
-0.1312 2.6412 0.9574
-0.2262 2.6361 0.9539
-0.3209 2.6276 0.9504
-0.4152 2.6157 0.9469
-0.5090 2.6004 0.9433
-0.6023 2.5817 0.9398
-0.6948 2.5596 0.9362
-0.7864 2.5342 0.9327
-0.8771 2.5055 0.9292
-2.4986 6.3940 2.3927
-2.7373 6.3269 2.3927
-2.9742 6.2510 2.3927
-3.2091 6.1661 2.3927
-3.4415 6.0723 2.3927
-3.6711 5.9697 2.3927
-3.8976 5.8582 2.3927
-4.1205 5.7380 2.3927
-4.3395 5.6091 2.3927
-4.5542 5.4717 2.3927
-4.7643 5.3258 2.3927
-4.9694 5.1716 2.3927
-5.1691 5.0092 2.3927
-5.3631 4.8389 2.3927
-5.5510 4.6607 2.3927
-5.7324 4.4750 2.3927
-5.9071 4.2820 2.3927
-6.0746 4.0818 2.3927
-6.2346 3.8748 2.3927
-6.3870 3.6612 2.3927
-6.5311 3.4413 2.3927
-6.6669 3.2155 2.3927
-6.7941 2.9840 2.3927
-6.9122 2.7473 2.3927
-7.0212 2.5056 2.3927
-7.1207 2.2594 2.3927
-7.2106 2.0091 2.3927
-7.2906 1.7550 2.3927
-7.3605 1.4975 2.3927
-7.4203 1.2372 2.3927
-7.4696 0.9744 2.3927
-7.5085 0.7096 2.3928
-7.5368 0.4431 2.3928
-7.5544 0.1756 2.3928
-7.5613 -0.0926 2.3928
-7.5574 -0.3610 2.3928
-7.5428 -0.6291 2.3928
-7.5174 -0.8965 2.3928
-7.4813 -1.1627 2.3928
-7.4345 -1.4272 2.3928
-7.3772 -1.6896 2.3928
-7.3094 -1.9494 2.3928
-7.2313 -2.2062 2.3928
-7.1430 -2.4595 2.3928
-7.0447 -2.7088 2.3928
-6.9365 -2.9539 2.3928
-6.8188 -3.1942 2.3928
-6.6918 -3.4294 2.3928
-6.5556 -3.6591 2.3928
-6.4106 -3.8829 2.3928
-6.2570 -4.1004 2.3928
-6.0952 -4.3114 2.3928
-5.9255 -4.5154 2.3928
-5.7482 -4.7123 2.3928
-5.5637 -4.9017 2.3928
-5.3722 -5.0833 2.3928
-5.1742 -5.2569 2.3928
-4.9701 -5.4223 2.3928
-4.7601 -5.5793 2.3928
-4.5448 -5.7277 2.3928
-4.3245 -5.8672 2.3928
-4.0995 -5.9979 2.3928
-3.8704 -6.1195 2.3928
-3.6374 -6.2319 2.3928
-3.4010 -6.3350 2.3928
-3.1616 -6.4288 2.3928
-2.9195 -6.5132 2.3928
-2.6753 -6.5883 2.3928
-2.4291 -6.6538 2.3928
-2.1816 -6.7100 2.3928
-1.9329 -6.7567 2.3928
-1.6836 -6.7940 2.3928
-1.4339 -6.8220 2.3928
-1.1843 -6.8407 2.3928
-0.9350 -6.8502 2.3928
-0.6864 -6.8506 2.3928
-0.4389 -6.8419 2.3928
-0.1929 -6.8244 2.3928
0.0515 -6.7981 2.3928
0.2939 -6.7631 2.3928
0.5339 -6.7196 2.3928
0.7714 -6.6678 2.3928
1.0059 -6.6078 2.3928
1.2373 -6.5398 2.3928
1.4653 -6.4639 2.3928
1.6896 -6.3804 2.3928
1.9100 -6.2894 2.3928
2.1263 -6.1911 2.3928
2.3383 -6.0857 2.3928
2.5457 -5.9735 2.3928
2.7483 -5.8546 2.3928
2.9460 -5.7292 2.3928
3.1386 -5.5975 2.3928
3.3258 -5.4599 2.3928
3.5077 -5.3164 2.3928
3.6839 -5.1673 2.3928
3.8544 -5.0128 2.3928
4.0190 -4.8532 2.3928
4.1776 -4.6885 2.3928
4.3301 -4.5192 2.3928
4.4764 -4.3454 2.3928
4.6163 -4.1674 2.3928
4.7498 -3.9852 2.3928
4.8768 -3.7992 2.3928
4.9971 -3.6096 2.3928
5.1109 -3.4166 2.3928
5.2178 -3.2205 2.3928
5.3180 -3.0214 2.3928
5.4113 -2.8195 2.3928
5.4977 -2.6152 2.3928
5.5772 -2.4085 2.3928
5.2898 -2.0596 2.2404
5.3511 -1.8624 2.2404
5.4058 -1.6636 2.2404
5.4539 -1.4634 2.2404
5.4953 -1.2621 2.2404
5.5300 -1.0598 2.2404
5.5581 -0.8567 2.2404
5.5795 -0.6531 2.2404
5.5943 -0.4490 2.2404
5.6024 -0.2448 2.2404
5.6038 -0.0405 2.2404
5.5985 0.1636 2.2404
4.4928 0.2954 1.8017
5.5682 0.5704 2.2404
5.5431 0.7729 2.2404
5.5114 0.9743 2.2404
5.4732 1.1747 2.2404
5.4285 1.3738 2.2404
5.3773 1.5713 2.2404
5.3196 1.7672 2.2403
5.2556 1.9612 2.2403
5.1852 2.1532 2.2403
5.1085 2.3430 2.2403
5.0256 2.5303 2.2403
4.9365 2.7151 2.2403
4.8413 2.8971 2.2403
4.7400 3.0761 2.2403
4.6328 3.2520 2.2403
4.5197 3.4245 2.2403
4.4007 3.5936 2.2403
4.2760 3.7589 2.2403
4.1457 3.9204 2.2403
4.0099 4.0778 2.2403
3.8685 4.2310 2.2403
3.7219 4.3798 2.2403
3.5700 4.5240 2.2403
3.4130 4.6634 2.2403
3.2510 4.7979 2.2403
3.0842 4.9273 2.2403
2.9127 5.0513 2.2403
2.7365 5.1699 2.2403
2.5596 5.2904 2.2436
2.5324 5.7566 2.3927
2.3307 5.8647 2.3927
0.8819 2.4763 0.9931
0.7923 2.5080 0.9901
0.7016 2.5364 0.9870
0.6099 2.5615 0.9839
0.5174 2.5833 0.9807
0.4241 2.6017 0.9774
0.3303 2.6167 0.9741
0.2359 2.6284 0.9707
0.1412 2.6366 0.9673
0.0463 2.6414 0.9639
-0.0488 2.6428 0.9605
-0.1439 2.6407 0.9570
-0.2388 2.6352 0.9535
-0.3335 2.6262 0.9499
-0.4277 2.6138 0.9464
-0.5215 2.5981 0.9429
-0.6146 2.5789 0.9393
-0.7070 2.5564 0.9358
-0.7985 2.5306 0.9322
-0.8891 2.5015 0.9287
-2.5305 6.3856 2.3927
-2.7690 6.3173 2.3927
-3.0057 6.2402 2.3927
-3.2402 6.1541 2.3927
-3.4723 6.0592 2.3927
-3.7015 5.9553 2.3927
-3.9275 5.8427 2.3927
-4.1499 5.7213 2.3927
-4.3684 5.5913 2.3927
-4.5825 5.4527 2.3927
-4.7919 5.3057 2.3927
-4.9963 5.1504 2.3927
-5.1953 4.9870 2.3927
-5.3885 4.8156 2.3927
-5.5755 4.6365 2.3927
-5.7561 4.4498 2.3927
-5.9298 4.2558 2.3927
-6.0964 4.0546 2.3927
-6.2554 3.8467 2.3927
-6.4066 3.6322 2.3927
-6.5497 3.4116 2.3927
-6.5017 2.3516 2.3927
-6.5942 2.1237 2.3927
-6.6778 1.8919 2.3927
-6.7523 1.6567 2.3927
-6.8176 1.4184 2.3927
-6.8735 1.1774 2.3927
-6.9199 0.9341 2.3927
-6.9567 0.6890 2.3928
-6.9837 0.4424 2.3928
-7.0009 0.1947 2.3928
-7.0083 -0.0536 2.3928
-7.0057 -0.3022 2.3928
-6.9933 -0.5505 2.3928
-6.9710 -0.7982 2.3928
-6.9389 -1.0449 2.3928
-6.8969 -1.2900 2.3928
-6.8452 -1.5333 2.3928
-6.7839 -1.7742 2.3928
-6.7131 -2.0125 2.3928
-6.6329 -2.2476 2.3928
-6.5435 -2.4792 2.3928
-6.4450 -2.7069 2.3928
-6.3377 -2.9303 2.3928
-6.2217 -3.1491 2.3928
-6.0973 -3.3629 2.3928
-5.9647 -3.5714 2.3928
-5.8242 -3.7742 2.3928
-5.6760 -3.9711 2.3928
-5.5204 -4.1616 2.3928
-5.3578 -4.3457 2.3928
-5.1883 -4.5229 2.3928
-5.0125 -4.6931 2.3928
-4.8305 -4.8559 2.3928
-4.6427 -5.0113 2.3928
-4.4495 -5.1589 2.3928
-4.2511 -5.2987 2.3928
-4.0480 -5.4305 2.3928
-3.8406 -5.5540 2.3928
-3.6291 -5.6692 2.3928
-3.4139 -5.7760 2.3928
-3.1954 -5.8743 2.3928
-2.9740 -5.9640 2.3928
-2.7500 -6.0450 2.3928
-2.5238 -6.1174 2.3928
-2.2957 -6.1810 2.3928
-2.0661 -6.2359 2.3928
-1.8353 -6.2820 2.3928
-1.6039 -6.3196 2.3928
-1.3719 -6.3483 2.3928
-1.1397 -6.3685 2.3928
-0.9077 -6.3801 2.3928
-0.6763 -6.3832 2.3928
-0.4457 -6.3779 2.3928
-0.2162 -6.3643 2.3928
0.0118 -6.3424 2.3928
0.2381 -6.3125 2.3928
0.4624 -6.2746 2.3928
0.6844 -6.2289 2.3928
0.9039 -6.1754 2.3928
1.1205 -6.1145 2.3928
1.3341 -6.0461 2.3928
1.5445 -5.9705 2.3928
1.7513 -5.8878 2.3928
1.9543 -5.7983 2.3928
2.1534 -5.7021 2.3928
2.3484 -5.5993 2.3928
2.5390 -5.4902 2.3928
2.7251 -5.3750 2.3928
2.9065 -5.2538 2.3928
3.0831 -5.1268 2.3928
3.2546 -4.9943 2.3928
3.4210 -4.8565 2.3928
3.5820 -4.7134 2.3928
3.7376 -4.5655 2.3928
3.8876 -4.4128 2.3928
4.0320 -4.2557 2.3928
4.1705 -4.0941 2.3928
4.3032 -3.9285 2.3928
4.4298 -3.7589 2.3928
4.5504 -3.5856 2.3928
4.6648 -3.4089 2.3928
4.7730 -3.2288 2.3928
4.8749 -3.0457 2.3928
4.9703 -2.8597 2.3928
5.0594 -2.6711 2.3928
5.1420 -2.4800 2.3928
5.2180 -2.2866 2.3928
4.9507 -1.9580 2.2404
5.0095 -1.7733 2.2404
5.0622 -1.5871 2.2404
5.1086 -1.3995 2.2404
5.1487 -1.2107 2.2404
5.1825 -1.0210 2.2404
5.2101 -0.8305 2.2404
5.2313 -0.6394 2.2404
5.2463 -0.4479 2.2404
5.2549 -0.2561 2.2404
5.2573 -0.0643 2.2404
5.2534 0.1274 2.2404
4.4958 0.2733 1.9210
4.5770 0.4462 1.9619
5.2040 0.6998 2.2404
5.1751 0.8891 2.2404
5.1399 1.0774 2.2404
5.0987 1.2645 2.2404
5.0513 1.4502 2.2404
4.9978 1.6343 2.2403
4.9383 1.8167 2.2403
4.8727 1.9971 2.2403
4.8013 2.1755 2.2403
4.7239 2.3516 2.2403
4.6407 2.5252 2.2403
4.5518 2.6962 2.2403
4.4571 2.8644 2.2403
4.3568 3.0296 2.2403
4.2509 3.1917 2.2403
4.1396 3.3504 2.2403
4.0229 3.5056 2.2403
3.9008 3.6572 2.2403
3.7735 3.8050 2.2403
3.6412 3.9487 2.2403
3.5038 4.0882 2.2403
3.3615 4.2234 2.2403
3.2145 4.3541 2.2403
3.0627 4.4801 2.2403
2.9065 4.6013 2.2403
2.7458 4.7174 2.2403
2.5808 4.8284 2.2403
2.5123 5.1396 2.3337
2.3910 5.3766 2.3927
2.2021 5.4776 2.3927
0.8313 2.3055 0.9900
0.7479 2.3354 0.9872
0.6634 2.3623 0.9843
0.5780 2.3861 0.9813
0.4918 2.4068 0.9784
0.4049 2.4244 0.9753
0.3174 2.4389 0.9722
0.2295 2.4501 0.9691
0.1412 2.4582 0.9660
0.0526 2.4631 0.9628
-0.0360 2.4648 0.9595
-0.1247 2.4633 0.9563
-0.2133 2.4586 0.9530
-0.3016 2.4506 0.9497
-0.3896 2.4395 0.9464
-0.4772 2.4252 0.9431
-0.5641 2.4078 0.9398
-0.6504 2.3872 0.9365
-0.7359 2.3635 0.9332
-0.8204 2.3367 0.9299
-0.9040 2.3070 0.9267
-2.5559 5.8929 2.3927
-2.7760 5.8206 2.3927
-2.9940 5.7401 2.3927
-3.2096 5.6514 2.3927
-3.4225 5.5544 2.3927
-3.6323 5.4493 2.3927
-3.8388 5.3362 2.3927
-4.0415 5.2150 2.3927
-4.2402 5.0859 2.3927
-4.4345 4.9491 2.3927
-4.6240 4.8047 2.3927
-4.8085 4.6528 2.3927
-4.9876 4.4935 2.3927
-5.1610 4.3271 2.3927
-5.3284 4.1537 2.3927
-5.4894 3.9737 2.3927
-5.6438 3.7871 2.3927
-5.7912 3.5942 2.3927
-5.9314 3.3954 2.3927
-6.0641 3.1909 2.3927
-6.1890 2.9809 2.3927
-6.3058 2.7658 2.3927
-6.4144 2.5459 2.3927
-6.5145 2.3215 2.3927
-6.6058 2.0930 2.3927
-6.6883 1.8608 2.3927
-6.7616 1.6251 2.3927
-6.8256 1.3864 2.3927
-6.8803 1.1451 2.3927
-6.9254 0.9016 2.3927
-6.9608 0.6562 2.3928
-6.9865 0.4094 2.3928
-7.0024 0.1616 2.3928
-7.0085 -0.0867 2.3928
-7.0046 -0.3353 2.3928
-6.9909 -0.5835 2.3928
-6.9673 -0.8311 2.3928
-6.9338 -1.0776 2.3928
-6.8906 -1.3225 2.3928
-6.8376 -1.5655 2.3928
-6.7751 -1.8061 2.3928
-6.7030 -2.0440 2.3928
-6.6215 -2.2786 2.3928
-6.5309 -2.5098 2.3928
-6.4312 -2.7369 2.3928
-6.3227 -2.9598 2.3928
-6.2056 -3.1779 2.3928
-6.0801 -3.3910 2.3928
-5.9464 -3.5987 2.3928
-5.8048 -3.8008 2.3928
-5.6557 -3.9968 2.3928
-5.4991 -4.1865 2.3928
-5.3356 -4.3697 2.3928
-5.1653 -4.5460 2.3928
-4.9886 -4.7152 2.3928
-4.8058 -4.8771 2.3928
-4.6173 -5.0314 2.3928
-4.4233 -5.1780 2.3928
-4.2243 -5.3167 2.3928
-4.0207 -5.4474 2.3928
-3.8126 -5.5698 2.3928
-3.6006 -5.6839 2.3928
-3.3850 -5.7896 2.3928
-3.1661 -5.8867 2.3928
-2.9443 -5.9753 2.3928
-2.7200 -6.0552 2.3928
-2.4935 -6.1264 2.3928
-2.2652 -6.1888 2.3928
-2.0355 -6.2426 2.3928
-1.8047 -6.2876 2.3928
-1.5730 -6.3239 2.3928
-1.3409 -6.3515 2.3928
-1.1088 -6.3705 2.3928
-0.8769 -6.3810 2.3928
-0.6455 -6.3830 2.3928
-0.4151 -6.3766 2.3928
-0.1858 -6.3618 2.3928
0.0420 -6.3389 2.3928
0.2681 -6.3079 2.3928
0.4921 -6.2690 2.3928
0.7138 -6.2222 2.3928
0.9329 -6.1678 2.3928
1.1492 -6.1058 2.3928
1.3623 -6.0365 2.3928
1.5722 -5.9599 2.3928
1.7785 -5.8763 2.3928
1.9811 -5.7859 2.3928
2.1796 -5.6888 2.3928
2.3740 -5.5851 2.3928
2.5641 -5.4752 2.3928
2.7496 -5.3592 2.3928
2.9303 -5.2372 2.3928
3.1062 -5.1095 2.3928
3.2771 -4.9763 2.3928
3.4427 -4.8377 2.3928
3.6030 -4.6940 2.3928
3.7579 -4.5455 2.3928
3.9072 -4.3922 2.3928
4.0508 -4.2344 2.3928
4.1885 -4.0723 2.3928
4.3204 -3.9061 2.3928
4.4463 -3.7360 2.3928
4.5660 -3.5623 2.3928
4.6796 -3.3851 2.3928
4.7869 -3.2046 2.3928
4.8879 -3.0211 2.3928
4.9826 -2.8347 2.3928
5.0708 -2.6458 2.3928
5.1525 -2.4543 2.3928
5.2276 -2.2607 2.3928
4.9589 -1.9335 2.2404
5.0169 -1.7486 2.2404
5.0687 -1.5622 2.2404
5.1143 -1.3744 2.2404
5.1535 -1.1855 2.2404
5.1866 -0.9957 2.2404
5.2133 -0.8051 2.2404
5.2337 -0.6139 2.2404
5.2478 -0.4224 2.2404
5.2556 -0.2306 2.2404
5.2571 -0.0388 2.2404
5.2524 0.1529 2.2404
4.4928 0.2950 1.9204
5.2240 0.5350 2.2404
5.2005 0.7250 2.2404
5.1707 0.9143 2.2404
5.1348 1.1024 2.2404
5.0927 1.2893 2.2404
5.0445 1.4748 2.2404
4.9902 1.6587 2.2403
4.9299 1.8408 2.2403
4.8636 2.0210 2.2403
4.7913 2.1991 2.2403
4.7132 2.3748 2.2403
4.6292 2.5481 2.2403
4.5395 2.7187 2.2403
4.4441 2.8865 2.2403
4.3430 3.0514 2.2403
4.2364 3.2130 2.2403
4.1244 3.3713 2.2403
4.0069 3.5260 2.2403
3.8842 3.6771 2.2403
3.7562 3.8243 2.2403
3.6232 3.9675 2.2403
3.4851 4.1065 2.2403
3.3422 4.2411 2.2403
3.1945 4.3712 2.2403
3.0422 4.4965 2.2403
2.8853 4.6170 2.2403
2.7241 4.7325 2.2403
2.5586 4.8428 2.2403
2.5173 5.2136 2.3607
2.3661 5.3905 2.3927
2.1767 5.4906 2.3927
0.8203 2.3096 0.9896
0.7367 2.3392 0.9868
0.6521 2.3656 0.9839
0.5666 2.3890 0.9810
0.4803 2.4093 0.9780
0.3933 2.4265 0.9749
0.3058 2.4405 0.9718
0.2177 2.4514 0.9687
0.1294 2.4591 0.9655
0.0408 2.4635 0.9623
-0.0479 2.4648 0.9591
-0.1365 2.4628 0.9559
-0.2251 2.4577 0.9526
-0.3134 2.4493 0.9493
-0.4013 2.4378 0.9460
-0.4888 2.4231 0.9427
-0.5757 2.4052 0.9394
-0.6618 2.3842 0.9361
-0.7472 2.3601 0.9328
-0.8316 2.3330 0.9295
-0.9150 2.3028 0.9262
-2.5854 5.8837 2.3927
-2.8051 5.8104 2.3927
-3.0228 5.7288 2.3927
-3.2381 5.6389 2.3927
-3.4506 5.5409 2.3927
-3.6600 5.4347 2.3927
-3.8660 5.3205 2.3927
-4.0682 5.1983 2.3927
-4.2663 5.0682 2.3927
-4.4600 4.9303 2.3927
-4.6489 4.7849 2.3927
-4.8327 4.6320 2.3927
-5.0111 4.4717 2.3927
-5.1837 4.3044 2.3927
-5.3502 4.1302 2.3927
-5.5104 3.9492 2.3927
-5.6639 3.7618 2.3927
-5.8103 3.5681 2.3927
-5.9495 3.3685 2.3927
-6.0812 3.1632 2.3927
-6.0579 2.1880 2.3927
-6.1432 1.9756 2.3927
-6.2203 1.7596 2.3927
-6.2890 1.5406 2.3927
-6.3492 1.3187 2.3927
-6.4006 1.0944 2.3927
-6.4433 0.8680 2.3927
-6.4770 0.6399 2.3928
-6.5017 0.4105 2.3928
-6.5174 0.1801 2.3928
-6.5240 -0.0508 2.3928
-6.5214 -0.2820 2.3928
-6.5097 -0.5129 2.3928
-6.4889 -0.7432 2.3928
-6.4589 -0.9726 2.3928
-6.4199 -1.2006 2.3928
-6.3720 -1.4268 2.3928
-6.3151 -1.6509 2.3928
-6.2495 -1.8726 2.3928
-6.1752 -2.0913 2.3928
-6.0923 -2.3068 2.3928
-6.0011 -2.5188 2.3928
-5.9017 -2.7268 2.3928
-5.7942 -2.9306 2.3928
-5.6790 -3.1298 2.3928
-5.5562 -3.3240 2.3928
-5.4260 -3.5131 2.3928
-5.2887 -3.6967 2.3928
-5.1445 -3.8746 2.3928
-4.9938 -4.0464 2.3928
-4.8367 -4.2120 2.3928
-4.6737 -4.3711 2.3928
-4.5049 -4.5234 2.3928
-4.3307 -4.6689 2.3928
-4.1513 -4.8072 2.3928
-3.9672 -4.9383 2.3928
-3.7787 -5.0619 2.3928
-3.5860 -5.1780 2.3928
-3.3894 -5.2864 2.3928
-3.1894 -5.3870 2.3928
-2.9863 -5.4798 2.3928
-2.7803 -5.5645 2.3928
-2.5719 -5.6413 2.3928
-2.3613 -5.7100 2.3928
-2.1489 -5.7706 2.3928
-1.9350 -5.8231 2.3928
-1.7199 -5.8675 2.3928
-1.5039 -5.9038 2.3928
-1.2875 -5.9320 2.3928
-1.0708 -5.9522 2.3928
-0.8542 -5.9644 2.3928
-0.6380 -5.9686 2.3928
-0.4225 -5.9650 2.3928
-0.2080 -5.9536 2.3928
0.0054 -5.9345 2.3928
0.2171 -5.9079 2.3928
0.4271 -5.8737 2.3928
0.6351 -5.8323 2.3928
0.8408 -5.7835 2.3928
1.0439 -5.7277 2.3928
1.2442 -5.6649 2.3928
1.4416 -5.5953 2.3928
1.6358 -5.5190 2.3928
1.8265 -5.4363 2.3928
2.0136 -5.3472 2.3928
2.1968 -5.2519 2.3928
2.3761 -5.1506 2.3928
2.5512 -5.0435 2.3928
2.7220 -4.9308 2.3928
2.8882 -4.8126 2.3928
3.0498 -4.6891 2.3928
3.2065 -4.5605 2.3928
3.3584 -4.4271 2.3928
3.5051 -4.2889 2.3928
3.6467 -4.1462 2.3928
3.7829 -3.9992 2.3928
3.9137 -3.8480 2.3928
4.0390 -3.6929 2.3928
4.1587 -3.5341 2.3928
4.2727 -3.3717 2.3928
4.3808 -3.2060 2.3928
4.4831 -3.0371 2.3928
4.5795 -2.8653 2.3928
4.6699 -2.6907 2.3928
4.7542 -2.5135 2.3928
4.8324 -2.3340 2.3928
4.9045 -2.1523 2.3928
4.6538 -1.8432 2.2404
4.7096 -1.6696 2.2404
4.7595 -1.4944 2.2404
4.8036 -1.3180 2.2404
4.8417 -1.1404 2.2404
4.8739 -0.9619 2.2404
4.9001 -0.7826 2.2404
4.9204 -0.6027 2.2404
4.9347 -0.4224 2.2404
4.9430 -0.2419 2.2404
4.9454 -0.0613 2.2404
4.9419 0.1192 2.2404
4.4959 0.2729 2.0421
4.5767 0.4460 2.0853
4.8955 0.6582 2.2404
4.8683 0.8365 2.2404
4.8352 1.0138 2.2404
4.7963 1.1900 2.2404
4.7515 1.3648 2.2404
4.7010 1.5381 2.2403
4.6448 1.7098 2.2403
4.5830 1.8796 2.2403
4.5155 2.0474 2.2403
4.4424 2.2131 2.2403
4.3638 2.3764 2.2403
4.2798 2.5372 2.2403
4.1903 2.6953 2.2403
4.0956 2.8506 2.2403
3.9956 3.0029 2.2403
3.8905 3.1520 2.2403
3.7802 3.2977 2.2403
3.6650 3.4400 2.2403
3.5449 3.5786 2.2403
3.4199 3.7134 2.2403
3.2903 3.8441 2.2403
3.1561 3.9708 2.2403
3.0174 4.0931 2.2403
2.8743 4.2110 2.2403
2.7270 4.3243 2.2403
2.5756 4.4328 2.2403
2.4496 4.5916 2.2676
2.4147 4.9502 2.3927
2.2407 5.0498 2.3927
0.8530 2.1269 0.9894
0.7759 2.1577 0.9868
0.6978 2.1857 0.9842
0.6188 2.2108 0.9815
0.5388 2.2331 0.9787
0.4581 2.2525 0.9759
0.3768 2.2690 0.9731
0.2949 2.2825 0.9702
0.2126 2.2930 0.9673
0.1299 2.3006 0.9643
0.0470 2.3051 0.9613
-0.0360 2.3067 0.9583
-0.1190 2.3053 0.9553
-0.2019 2.3008 0.9522
-0.2845 2.2934 0.9492
-0.3669 2.2830 0.9461
-0.4488 2.2696 0.9430
-0.5302 2.2533 0.9399
-0.6110 2.2340 0.9368
-0.6910 2.2119 0.9337
-0.7701 2.1868 0.9306
-0.8483 2.1589 0.9275
-0.9255 2.1283 0.9245
-2.6004 5.4395 2.3927
-2.8035 5.3631 2.3927
-3.0044 5.2789 2.3927
-3.2026 5.1872 2.3927
-3.3978 5.0879 2.3927
-3.5899 4.9811 2.3927
-3.7784 4.8669 2.3927
-3.9630 4.7455 2.3927
-4.1434 4.6168 2.3927
-4.3194 4.4811 2.3927
-4.4907 4.3385 2.3927
-4.6568 4.1891 2.3927
-4.8176 4.0332 2.3927
-4.9727 3.8709 2.3927
-5.1218 3.7023 2.3927
-5.2648 3.5278 2.3927
-5.4012 3.3475 2.3927
-5.5309 3.1618 2.3927
-5.6536 2.9708 2.3927
-5.7691 2.7748 2.3927
-5.8770 2.5741 2.3927
-5.9773 2.3691 2.3927
-6.0697 2.1599 2.3927
-6.1540 1.9470 2.3927
-6.2300 1.7306 2.3927
-6.2975 1.5112 2.3927
-6.3565 1.2890 2.3927
-6.4068 1.0644 2.3927
-6.4483 0.8377 2.3927
-6.4808 0.6094 2.3928
-6.5043 0.3799 2.3928
-6.5188 0.1494 2.3928
-6.5241 -0.0816 2.3928
-6.5204 -0.3127 2.3928
-6.5074 -0.5436 2.3928
-6.4854 -0.7738 2.3928
-6.4543 -1.0030 2.3928
-6.4141 -1.2308 2.3928
-6.3649 -1.4568 2.3928
-6.3069 -1.6806 2.3928
-6.2401 -1.9019 2.3928
-6.1646 -2.1202 2.3928
-6.0807 -2.3353 2.3928
-5.9883 -2.5467 2.3928
-5.8878 -2.7542 2.3928
-5.7793 -2.9574 2.3928
-5.6631 -3.1559 2.3928
-5.5393 -3.3495 2.3928
-5.4081 -3.5379 2.3928
-5.2699 -3.7208 2.3928
-5.1248 -3.8978 2.3928
-4.9732 -4.0688 2.3928
-4.8154 -4.2335 2.3928
-4.6515 -4.3917 2.3928
-4.4820 -4.5432 2.3928
-4.3071 -4.6877 2.3928
-4.1271 -4.8251 2.3928
-3.9424 -4.9552 2.3928
-3.7532 -5.0778 2.3928
-3.5600 -5.1929 2.3928
-3.3630 -5.3003 2.3928
-3.1626 -5.3998 2.3928
-2.9590 -5.4915 2.3928
-2.7527 -5.5752 2.3928
-2.5440 -5.6509 2.3928
-2.3331 -5.7185 2.3928
-2.1205 -5.7781 2.3928
-1.9064 -5.8295 2.3928
-1.6912 -5.8728 2.3928
-1.4751 -5.9080 2.3928
-1.2587 -5.9352 2.3928
-1.0420 -5.9543 2.3928
-0.8254 -5.9654 2.3928
-0.6093 -5.9686 2.3928
-0.3939 -5.9639 2.3928
-0.1795 -5.9515 2.3928
0.0336 -5.9314 2.3928
0.2452 -5.9038 2.3928
0.4550 -5.8686 2.3928
0.6626 -5.8262 2.3928
0.8680 -5.7765 2.3928
1.0707 -5.7197 2.3928
1.2707 -5.6560 2.3928
1.4676 -5.5855 2.3928
1.6614 -5.5084 2.3928
1.8516 -5.4248 2.3928
2.0382 -5.3348 2.3928
2.2209 -5.2388 2.3928
2.3997 -5.1367 2.3928
2.5742 -5.0288 2.3928
2.7444 -4.9154 2.3928
2.9100 -4.7964 2.3928
3.0709 -4.6723 2.3928
3.2270 -4.5430 2.3928
3.3782 -4.4089 2.3928
3.5243 -4.2701 2.3928
3.6651 -4.1269 2.3928
3.8006 -3.9793 2.3928
3.9307 -3.8278 2.3928
4.0553 -3.6720 2.3928
4.1742 -3.5127 2.3928
4.2874 -3.3498 2.3928
4.3948 -3.1837 2.3928
4.4963 -3.0144 2.3928
4.5919 -2.8422 2.3928
4.6815 -2.6672 2.3928
4.7650 -2.4897 2.3928
4.8424 -2.3099 2.3928
4.9136 -2.1279 2.3928
4.6615 -1.8202 2.2404
4.7166 -1.6463 2.2404
4.7657 -1.4710 2.2404
4.8090 -1.2944 2.2404
4.8463 -1.1167 2.2404
4.8777 -0.9381 2.2404
4.9032 -0.7587 2.2404
4.9226 -0.5787 2.2404
4.9362 -0.3984 2.2404
4.9437 -0.2178 2.2404
4.9453 -0.0373 2.2404
4.9409 0.1432 2.2404
4.4929 0.2946 2.0415
4.9144 0.5030 2.2404
4.8922 0.6820 2.2404
4.8642 0.8602 2.2404
4.8303 1.0373 2.2404
4.7906 1.2133 2.2404
4.7451 1.3880 2.2404
4.6939 1.5611 2.2403
4.6369 1.7325 2.2403
4.5743 1.9021 2.2403
4.5060 2.0696 2.2403
4.4322 2.2350 2.2403
4.3529 2.3980 2.2403
4.2682 2.5584 2.2403
4.1780 2.7162 2.2403
4.0826 2.8711 2.2403
3.9819 3.0229 2.2403
3.8761 3.1716 2.2403
3.7652 3.3169 2.2403
3.6493 3.4587 2.2403
3.5285 3.5967 2.2403
3.4030 3.7310 2.2403
3.2727 3.8612 2.2403
3.1379 3.9873 2.2403
2.9986 4.1091 2.2403
2.8549 4.2264 2.2403
2.7071 4.3390 2.2403
2.5551 4.4469 2.2403
2.4536 4.6530 2.2912
2.3918 4.9638 2.3927
2.2172 5.0627 2.3927
0.8428 2.1312 0.9890
0.7656 2.1616 0.9865
0.6874 2.1892 0.9838
0.6082 2.2140 0.9811
0.5281 2.2359 0.9784
0.4473 2.2549 0.9756
0.3659 2.2709 0.9727
0.2840 2.2840 0.9698
0.2016 2.2942 0.9669
0.1189 2.3013 0.9639
0.0360 2.3055 0.9609
-0.0470 2.3067 0.9579
-0.1300 2.3049 0.9549
-0.2129 2.3000 0.9518
-0.2955 2.2922 0.9487
-0.3778 2.2814 0.9457
-0.4597 2.2676 0.9426
-0.5410 2.2509 0.9395
-0.6217 2.2313 0.9364
-0.7016 2.2087 0.9333
-0.7806 2.1833 0.9302
-0.8587 2.1550 0.9271
-0.9357 2.1240 0.9241
-2.6276 5.4298 2.3927
-2.8304 5.3523 2.3927
-3.0309 5.2671 2.3927
-3.2287 5.1744 2.3927
-3.4236 5.0741 2.3927
-3.6152 4.9663 2.3927
-3.8032 4.8512 2.3927
-3.9872 4.7288 2.3927
-4.1671 4.5992 2.3927
-4.3425 4.4625 2.3927
-4.5131 4.3190 2.3927
-4.6785 4.1688 2.3927
-4.8386 4.0119 2.3927
-4.9929 3.8488 2.3927
-5.1412 3.6794 2.3927
-5.2833 3.5041 2.3927
-5.4189 3.3231 2.3927
-5.5477 3.1366 2.3927
-5.6694 2.9450 2.3927
-5.6648 2.0430 2.3927
-5.7439 1.8444 2.3927
-5.8154 1.6425 2.3927
-5.8790 1.4378 2.3927
-5.9346 1.2305 2.3927
-5.9822 1.0210 2.3927
-6.0216 0.8095 2.3927
-6.0527 0.5966 2.3928
-6.0754 0.3823 2.3928
-6.0898 0.1673 2.3928
-6.0957 -0.0483 2.3928
-6.0931 -0.2641 2.3928
-6.0821 -0.4796 2.3928
-6.0625 -0.6946 2.3928
-6.0346 -0.9087 2.3928
-5.9982 -1.1215 2.3928
-5.9535 -1.3327 2.3928
-5.9006 -1.5419 2.3928
-5.8395 -1.7488 2.3928
-5.7703 -1.9531 2.3928
-5.6933 -2.1544 2.3928
-5.6084 -2.3524 2.3928
-5.5159 -2.5468 2.3928
-5.4160 -2.7372 2.3928
-5.3088 -2.9234 2.3928
-5.1946 -3.1051 2.3928
-5.0735 -3.2820 2.3928
-4.9457 -3.4538 2.3928
-4.8116 -3.6203 2.3928
-4.6713 -3.7813 2.3928
-4.5251 -3.9365 2.3928
-4.3733 -4.0856 2.3928
-4.2162 -4.2286 2.3928
-4.0539 -4.3651 2.3928
-3.8869 -4.4951 2.3928
-3.7153 -4.6184 2.3928
-3.5395 -4.7347 2.3928
-3.3598 -4.8441 2.3928
-3.1765 -4.9463 2.3928
-2.9899 -5.0413 2.3928
-2.8003 -5.1290 2.3928
-2.6080 -5.2093 2.3928
-2.4134 -5.2821 2.3928
-2.2166 -5.3474 2.3928
-2.0181 -5.4052 2.3928
-1.8181 -5.4554 2.3928
-1.6169 -5.4981 2.3928
-1.4149 -5.5332 2.3928
-1.2123 -5.5607 2.3928
-1.0094 -5.5807 2.3928
-0.8065 -5.5932 2.3928
-0.6039 -5.5984 2.3928
-0.4018 -5.5961 2.3928
-0.2006 -5.5866 2.3928
-0.0004 -5.5698 2.3928
0.1984 -5.5459 2.3928
0.3956 -5.5150 2.3928
0.5909 -5.4771 2.3928
0.7842 -5.4324 2.3928
0.9752 -5.3811 2.3928
1.1637 -5.3231 2.3928
1.3494 -5.2588 2.3928
1.5321 -5.1881 2.3928
1.7117 -5.1113 2.3928
1.8880 -5.0285 2.3928
2.0607 -4.9398 2.3928
2.2297 -4.8454 2.3928
2.3948 -4.7456 2.3928
2.5559 -4.6403 2.3928
2.7128 -4.5299 2.3928
2.8654 -4.4144 2.3928
3.0135 -4.2941 2.3928
3.1569 -4.1691 2.3928
3.2956 -4.0397 2.3928
3.4295 -3.9059 2.3928
3.5583 -3.7680 2.3928
3.6821 -3.6261 2.3928
3.8007 -3.4805 2.3928
3.9140 -3.3313 2.3928
4.0219 -3.1786 2.3928
4.1244 -3.0228 2.3928
4.2214 -2.8639 2.3928
4.3128 -2.7023 2.3928
4.3985 -2.5379 2.3928
4.4785 -2.3711 2.3928
4.5527 -2.2020 2.3928
4.6211 -2.0309 2.3928
4.4167 -1.7519 2.2564
4.4383 -1.5758 2.2404
4.4858 -1.4107 2.2404
4.5277 -1.2443 2.2404
4.5639 -1.0768 2.2404
4.5946 -0.9084 2.2404
4.6196 -0.7393 2.2404
4.6390 -0.5695 2.2404
4.6527 -0.3994 2.2404
4.6607 -0.2290 2.2404
4.6631 -0.0585 2.2404
4.6598 0.1118 2.2404
4.4959 0.2725 2.1657
4.5763 0.4457 2.2113
4.6163 0.6206 2.2404
4.5906 0.7889 2.2404
4.5593 0.9562 2.2404
4.5225 1.1225 2.2404
4.4802 1.2875 2.2404
4.4324 1.4511 2.2403
4.3792 1.6130 2.2403
4.3207 1.7733 2.2403
4.2568 1.9316 2.2403
4.1876 2.0878 2.2403
4.1132 2.2418 2.2403
4.0337 2.3934 2.2403
3.9490 2.5424 2.2403
3.8593 2.6887 2.2403
3.7647 2.8322 2.2403
3.6652 2.9726 2.2403
3.5609 3.1098 2.2403
3.4519 3.2437 2.2403
3.3382 3.3740 2.2403
3.2201 3.5008 2.2403
3.0975 3.6237 2.2403
2.9706 3.7426 2.2403
2.8395 3.8575 2.2403
2.7042 3.9681 2.2403
2.5651 4.0743 2.2403
2.4220 4.1760 2.2403
2.4218 4.5482 2.3846
2.2695 4.6621 2.3927
0.8699 1.9650 0.9887
0.7987 1.9965 0.9864
0.7264 2.0254 0.9840
0.6530 2.0517 0.9815
0.5788 2.0753 0.9790
0.5037 2.0962 0.9764
0.4280 2.1143 0.9738
0.3516 2.1298 0.9711
0.2747 2.1425 0.9684
0.1974 2.1524 0.9657
0.1198 2.1594 0.9629
0.0420 2.1637 0.9601
-0.0359 2.1652 0.9572
-0.1138 2.1638 0.9544
-0.1916 2.1597 0.9515
-0.2693 2.1527 0.9486
-0.3466 2.1429 0.9457
-0.4235 2.1304 0.9428
-0.4999 2.1151 0.9399
-0.5757 2.0970 0.9370
-0.6508 2.0762 0.9341
-0.7251 2.0527 0.9312
-0.7985 2.0265 0.9283
-0.8710 1.9977 0.9255
-0.9423 1.9663 0.9226
-2.6336 5.0266 2.3927
-2.8213 4.9467 2.3927
-3.0065 4.8598 2.3927
-3.1889 4.7658 2.3927
-3.3681 4.6649 2.3927
-3.5440 4.5570 2.3927
-3.7162 4.4424 2.3927
-3.8845 4.3212 2.3927
-4.0485 4.1934 2.3927
-4.2080 4.0592 2.3927
-4.3628 3.9187 2.3927
-4.5124 3.7721 2.3927
-4.6568 3.6196 2.3927
-4.7955 3.4614 2.3927
-4.9284 3.2977 2.3927
-5.0553 3.1287 2.3927
-5.1757 2.9546 2.3927
-5.2897 2.7757 2.3927
-5.3969 2.5921 2.3927
-5.4971 2.4043 2.3927
-5.5901 2.2124 2.3927
-5.6758 2.0168 2.3927
-5.7539 1.8177 2.3927
-5.8243 1.6154 2.3927
-5.8868 1.4103 2.3927
-5.9414 1.2027 2.3927
-5.9879 0.9929 2.3927
-6.0262 0.7813 2.3927
-6.0562 0.5681 2.3928
-6.0778 0.3537 2.3928
-6.0911 0.1386 2.3928
-6.0958 -0.0771 2.3928
-6.0921 -0.2928 2.3928
-6.0800 -0.5083 2.3928
-6.0593 -0.7232 2.3928
-6.0302 -0.9371 2.3928
-5.9928 -1.1497 2.3928
-5.9470 -1.3607 2.3928
-5.8929 -1.5696 2.3928
-5.8308 -1.7762 2.3928
-5.7605 -1.9801 2.3928
-5.6824 -2.1810 2.3928
-5.5965 -2.3785 2.3928
-5.5031 -2.5724 2.3928
-5.4022 -2.7623 2.3928
-5.2940 -2.9479 2.3928
-5.1789 -3.1289 2.3928
-5.0568 -3.3052 2.3928
-4.9282 -3.4763 2.3928
-4.7933 -3.6421 2.3928
-4.6522 -3.8023 2.3928
-4.5052 -3.9567 2.3928
-4.3527 -4.1050 2.3928
-4.1948 -4.2472 2.3928
-4.0319 -4.3828 2.3928
-3.8643 -4.5119 2.3928
-3.6921 -4.6343 2.3928
-3.5158 -4.7497 2.3928
-3.3356 -4.8581 2.3928
-3.1519 -4.9594 2.3928
-2.9649 -5.0534 2.3928
-2.7749 -5.1401 2.3928
-2.5822 -5.2194 2.3928
-2.3873 -5.2912 2.3928
-2.1903 -5.3555 2.3928
-1.9915 -5.4123 2.3928
-1.7914 -5.4615 2.3928
-1.5901 -5.5032 2.3928
-1.3879 -5.5373 2.3928
-1.1853 -5.5638 2.3928
-0.9823 -5.5828 2.3928
-0.7795 -5.5944 2.3928
-0.5769 -5.5985 2.3928
-0.3750 -5.5953 2.3928
-0.1738 -5.5847 2.3928
0.0261 -5.5670 2.3928
0.2247 -5.5422 2.3928
0.4217 -5.5103 2.3928
0.6168 -5.4715 2.3928
0.8098 -5.4260 2.3928
1.0005 -5.3737 2.3928
1.1886 -5.3149 2.3928
1.3739 -5.2497 2.3928
1.5562 -5.1782 2.3928
1.7354 -5.1006 2.3928
1.9112 -5.0170 2.3928
2.0834 -4.9275 2.3928
2.2519 -4.8324 2.3928
2.4165 -4.7318 2.3928
2.5771 -4.6259 2.3928
2.7334 -4.5148 2.3928
2.8854 -4.3987 2.3928
3.0328 -4.2777 2.3928
3.1757 -4.1521 2.3928
3.3137 -4.0221 2.3928
3.4469 -3.8878 2.3928
3.5751 -3.7493 2.3928
3.6982 -3.6069 2.3928
3.8161 -3.4608 2.3928
3.9287 -3.3111 2.3928
4.0359 -3.1581 2.3928
4.1377 -3.0018 2.3928
4.2339 -2.8426 2.3928
4.3245 -2.6805 2.3928
4.4095 -2.5159 2.3928
4.4887 -2.3487 2.3928
4.5621 -2.1794 2.3928
4.6297 -2.0079 2.3928
4.3927 -1.7178 2.2404
4.4450 -1.5539 2.2404
4.4917 -1.3886 2.2404
4.5328 -1.2220 2.2404
4.5683 -1.0544 2.2404
4.5982 -0.8859 2.2404
4.6225 -0.7167 2.2404
4.6411 -0.5469 2.2404
4.6540 -0.3767 2.2404
4.6613 -0.2063 2.2404
4.6630 -0.0359 2.2404
4.6590 0.1345 2.2404
4.4929 0.2943 2.1650
4.6340 0.4741 2.2404
4.6132 0.6431 2.2404
4.5867 0.8112 2.2404
4.5547 0.9785 2.2404
4.5172 1.1445 2.2404
4.4741 1.3094 2.2404
4.4256 1.4727 2.2403
4.3717 1.6345 2.2403
4.3125 1.7944 2.2403
4.2479 1.9525 2.2403
4.1780 2.1084 2.2403
4.1029 2.2621 2.2403
4.0227 2.4134 2.2403
3.9374 2.5621 2.2403
3.8470 2.7080 2.2403
3.7517 2.8510 2.2403
3.6516 2.9910 2.2403
3.5466 3.1278 2.2403
3.4370 3.2612 2.2403
3.3228 3.3911 2.2403
3.2040 3.5174 2.2403
3.0808 3.6397 2.2403
2.9534 3.7582 2.2403
2.8217 3.8725 2.2403
2.6859 3.9825 2.2403
2.5498 4.0938 2.2435
2.4082 4.1989 2.2455
2.4089 4.5771 2.3927
2.2478 4.6749 2.3927
0.8605 1.9694 0.9884
0.7891 2.0005 0.9861
0.7166 2.0290 0.9836
0.6432 2.0550 0.9812
0.5688 2.0782 0.9786
0.4937 2.0987 0.9761
0.4178 2.1166 0.9734
0.3414 2.1316 0.9707
0.2645 2.1439 0.9680
0.1871 2.1535 0.9653
0.1095 2.1602 0.9625
0.0317 2.1641 0.9597
-0.0463 2.1652 0.9569
-0.1242 2.1635 0.9540
-0.2020 2.1589 0.9511
-0.2796 2.1516 0.9482
-0.3568 2.1414 0.9453
-0.4337 2.1285 0.9424
-0.5100 2.1128 0.9395
-0.5858 2.0944 0.9366
-0.6608 2.0732 0.9337
-0.7350 2.0493 0.9308
-0.8082 2.0228 0.9280
-0.8805 1.9936 0.9251
-2.4691 5.0900 2.3927
-2.6588 5.0164 2.3927
-2.8461 4.9356 2.3927
-3.0310 4.8477 2.3927
-3.2129 4.7528 2.3927
-3.3918 4.6509 2.3927
-3.5672 4.5422 2.3927
-3.7389 4.4267 2.3927
-3.9066 4.3045 2.3927
-4.0700 4.1759 2.3927
-4.2289 4.0408 2.3927
-4.3830 3.8995 2.3927
-4.5320 3.7522 2.3927
-4.6756 3.5989 2.3927
-4.8136 3.4399 2.3927
-4.9457 3.2755 2.3927
-5.0717 3.1058 2.3927
-5.1913 2.9310 2.3927
-5.3044 2.7515 2.3927
-5.3139 1.9137 2.3927
-5.3875 1.7273 2.3927
-5.4540 1.5381 2.3927
-5.5131 1.3461 2.3927
-5.5648 1.1518 2.3927
-5.6090 0.9555 2.3927
-5.6455 0.7574 2.3928
-5.6743 0.5579 2.3928
-5.6954 0.3572 2.3928
-5.7086 0.1558 2.3928
-5.7139 -0.0461 2.3928
-5.7114 -0.2481 2.3928
-5.7009 -0.4499 2.3928
-5.6826 -0.6513 2.3928
-5.6564 -0.8517 2.3928
-5.6223 -1.0510 2.3928
-5.5805 -1.2488 2.3928
-5.5311 -1.4447 2.3928
-5.4740 -1.6385 2.3928
-5.4094 -1.8299 2.3928
-5.3375 -2.0185 2.3928
-5.2583 -2.2040 2.3928
-5.1720 -2.3862 2.3928
-5.0787 -2.5647 2.3928
-4.9786 -2.7393 2.3928
-4.8720 -2.9097 2.3928
-4.7589 -3.0757 2.3928
-4.6397 -3.2370 2.3928
-4.5144 -3.3934 2.3928
-4.3834 -3.5446 2.3928
-4.2469 -3.6904 2.3928
-4.1050 -3.8306 2.3928
-3.9582 -3.9651 2.3928
-3.8065 -4.0937 2.3928
-3.6504 -4.2161 2.3928
-3.4900 -4.3323 2.3928
-3.3256 -4.4420 2.3928
-3.1575 -4.5453 2.3928
-2.9860 -4.6419 2.3928
-2.8113 -4.7317 2.3928
-2.6338 -4.8148 2.3928
-2.4537 -4.8909 2.3928
-2.2713 -4.9601 2.3928
-2.0869 -5.0223 2.3928
-1.9008 -5.0774 2.3928
-1.7132 -5.1254 2.3928
-1.5245 -5.1664 2.3928
-1.3349 -5.2003 2.3928
-1.1447 -5.2271 2.3928
-0.9542 -5.2469 2.3928
-0.7635 -5.2596 2.3928
-0.5731 -5.2654 2.3928
-0.3831 -5.2642 2.3928
-0.1939 -5.2562 2.3928
-0.0056 -5.2414 2.3928
0.1815 -5.2198 2.3928
0.3671 -5.1916 2.3928
0.5511 -5.1569 2.3928
0.7333 -5.1158 2.3928
0.9133 -5.0683 2.3928
1.0909 -5.0147 2.3928
1.2661 -4.9549 2.3928
1.4385 -4.8892 2.3928
1.6080 -4.8176 2.3928
1.7745 -4.7404 2.3928
1.9376 -4.6576 2.3928
2.0973 -4.5694 2.3928
2.2534 -4.4760 2.3928
2.4057 -4.3774 2.3928
2.5541 -4.2739 2.3928
2.6984 -4.1656 2.3928
2.8386 -4.0527 2.3928
2.9744 -3.9354 2.3928
3.1058 -3.8137 2.3928
3.2325 -3.6880 2.3928
3.3547 -3.5582 2.3928
3.4720 -3.4248 2.3928
3.5844 -3.2877 2.3928
3.6919 -3.1471 2.3928
3.7943 -3.0033 2.3928
3.8916 -2.8565 2.3928
3.9836 -2.7067 2.3928
4.0704 -2.5542 2.3928
4.1518 -2.3991 2.3928
4.2278 -2.2417 2.3928
4.2983 -2.0821 2.3928
4.3634 -1.9205 2.3928
4.3388 -1.7236 2.3473
4.1916 -1.4905 2.2404
4.2368 -1.3345 2.2404
4.2766 -1.1772 2.2404
4.3112 -1.0189 2.2404
4.3404 -0.8597 2.2404
4.3643 -0.6998 2.2404
4.3828 -0.5393 2.2404
4.3959 -0.3784 2.2404
4.4037 -0.2173 2.2404
4.4060 -0.0561 2.2404
4.4031 0.1051 2.2404
4.3947 0.2660 2.2404
4.3811 0.4265 2.2404
4.3620 0.5864 2.2404
4.3377 0.7455 2.2404
4.3081 0.9038 2.2404
4.2732 1.0611 2.2404
4.2331 1.2171 2.2404
4.1878 1.3718 2.2403
4.1374 1.5250 2.2403
4.0819 1.6764 2.2403
4.0213 1.8261 2.2403
3.9557 1.9737 2.2403
3.8852 2.1193 2.2403
3.8097 2.2625 2.2403
3.7294 2.4033 2.2403
3.6444 2.5414 2.2403
3.5547 2.6769 2.2403
3.4603 2.8094 2.2403
3.3615 2.9389 2.2403
3.2581 3.0652 2.2403
3.1504 3.1881 2.2403
3.0384 3.3076 2.2403
2.9223 3.4234 2.2403
2.8021 3.5354 2.2403
2.6779 3.6435 2.2403
2.5498 3.7476 2.2403
2.4181 3.8475 2.2403
2.3706 4.0948 2.3266
2.2896 4.3085 2.3927
0.8828 1.8173 0.9881
