ply
format ascii 1.0
element vertex 2172
property float32 x
property float32 y
property float32 z
end_header
4.2489 -3.9545 2.3790
4.3923 -3.8033 2.3790
4.5303 -3.6469 2.3790
4.6627 -3.4856 2.3790
4.7894 -3.3194 2.3790
4.9101 -3.1487 2.3790
5.0247 -2.9735 2.3790
5.1330 -2.7943 2.3790
-3.8955 -3.6230 2.3790
-3.7622 -3.7606 2.3790
-3.6241 -3.8934 2.3790
-3.4814 -4.0213 2.3790
-3.3343 -4.1441 2.3790
-3.1830 -4.2616 2.3790
-3.0277 -4.3738 2.3790
-2.8685 -4.4805 2.3790
-2.7057 -4.5815 2.3790
-2.5393 -4.6767 2.3790
-2.3697 -4.7661 2.3790
-2.1971 -4.8495 2.3790
-2.0216 -4.9268 2.3790
-1.8434 -4.9979 2.3790
-1.6628 -5.0627 2.3790
-1.4800 -5.1211 2.3790
-1.2952 -5.1731 2.3790
-1.1086 -5.2185 2.3790
-0.9205 -5.2574 2.3790
-0.7310 -5.2897 2.3790
-0.5404 -5.3152 2.3790
-0.3490 -5.3341 2.3790
-0.1569 -5.3462 2.3790
0.0356 -5.3515 2.3790
0.2282 -5.3501 2.3790
0.4208 -5.3418 2.3790
0.6131 -5.3268 2.3790
0.8048 -5.3049 2.3790
0.9957 -5.2763 2.3790
1.1856 -5.2409 2.3790
1.3743 -5.1988 2.3790
1.5615 -5.1500 2.3790
1.7470 -5.0945 2.3790
1.9305 -5.0325 2.3790
2.1118 -4.9640 2.3790
2.2907 -4.8890 2.3790
2.4670 -4.8076 2.3790
2.6403 -4.7200 2.3790
2.8106 -4.6262 2.3790
2.9776 -4.5263 2.3790
3.1410 -4.4205 2.3790
3.3006 -4.3088 2.3790
3.4563 -4.1914 2.3790
3.6078 -4.0684 2.3790
3.7550 -3.9400 2.3790
3.8975 -3.8063 2.3790
4.0353 -3.6675 2.3790
4.1682 -3.5237 2.3790
4.2959 -3.3752 2.3790
4.4183 -3.2220 2.3790
4.5352 -3.0644 2.3790
4.6465 -2.9026 2.3790
4.7519 -2.7367 2.3790
4.8514 -2.5671 2.3790
4.9448 -2.3938 2.3790
5.0319 -2.2172 2.3790
5.1127 -2.0373 2.3790
5.1870 -1.8546 2.3790
5.2547 -1.6691 2.3790
5.3157 -1.4812 2.3790
5.3699 -1.2911 2.3790
5.4172 -1.0989 2.3790
5.4576 -0.9051 2.3790
5.4909 -0.7098 2.3790
5.5171 -0.5133 2.3790
5.5362 -0.3158 2.3790
5.5481 -0.1177 2.3790
5.5528 0.0809 2.3790
5.5503 0.2796 2.3790
5.5405 0.4782 2.3790
5.5235 0.6765 2.3790
5.4993 0.8741 2.3790
5.4679 1.0708 2.3790
5.4293 1.2663 2.3790
5.3836 1.4604 2.3790
5.3308 1.6527 2.3790
5.2709 1.8431 2.3790
5.2041 2.0312 2.3790
5.1305 2.2168 2.3790
5.0501 2.3997 2.3790
4.9630 2.5796 2.3790
4.8694 2.7562 2.3790
4.7694 2.9293 2.3790
4.6630 3.0987 2.3790
4.5505 3.2641 2.3790
4.4319 3.4253 2.3790
4.3076 3.5821 2.3790
4.1775 3.7342 2.3790
4.0419 3.8815 2.3790
3.9011 4.0237 2.3790
3.7550 4.1607 2.3790
3.6041 4.2922 2.3790
3.4484 4.4182 2.3790
3.2883 4.5383 2.3790
3.1238 4.6524 2.3790
2.9553 4.7604 2.3790
2.7830 4.8622 2.3790
2.6070 4.9576 2.3790
2.4277 5.0464 2.3790
0.8732 1.9945 0.9252
0.8014 2.0245 0.9255
0.7286 2.0520 0.9258
0.6549 2.0768 0.9262
0.5803 2.0989 0.9266
0.5049 2.1183 0.9270
0.4289 2.1350 0.9274
0.3524 2.1490 0.9278
0.2753 2.1602 0.9283
0.1979 2.1686 0.9287
0.1203 2.1742 0.9292
0.0425 2.1770 0.9297
-0.0353 2.1770 0.9302
-0.1131 2.1742 0.9308
-0.1908 2.1686 0.9313
-0.2682 2.1602 0.9319
-0.3452 2.1490 0.9324
-0.4218 2.1350 0.9330
-0.4979 2.1183 0.9336
-0.5733 2.0989 0.9342
-0.6479 2.0767 0.9348
-0.7217 2.0519 0.9354
-0.7946 2.0245 0.9360
-0.8664 1.9944 0.9367
-2.3783 4.9791 2.3790
-2.5528 4.8865 2.3790
-2.7237 4.7877 2.3790
-2.8909 4.6829 2.3790
-3.0540 4.5723 2.3790
-3.2129 4.4559 2.3790
-3.3674 4.3339 2.3790
-3.5173 4.2066 2.3790
-3.6624 4.0740 2.3790
-3.8025 3.9365 2.3790
-3.9375 3.7941 2.3790
-4.0672 3.6470 2.3790
-4.1914 3.4956 2.3790
-4.3100 3.3399 2.3790
-4.4229 3.1801 2.3790
-4.5299 3.0166 2.3790
-4.6309 2.8495 2.3790
-4.7258 2.6790 2.3790
-4.8145 2.5053 2.3790
-4.8969 2.3288 2.3790
-4.9729 2.1495 2.3790
-5.0424 1.9678 2.3790
-5.1053 1.7839 2.3790
-5.1616 1.5980 2.3790
-5.2113 1.4103 2.3790
-5.2542 1.2212 2.3790
-5.2903 1.0308 2.3790
-5.3196 0.8393 2.3790
-5.3422 0.6470 2.3790
-5.3579 0.4542 2.3790
-5.3667 0.2611 2.3790
-5.3687 0.0679 2.3790
-5.3639 -0.1251 2.3790
-5.3523 -0.3177 2.3790
-5.3338 -0.5097 2.3790
-5.3087 -0.7008 2.3790
-5.2768 -0.8907 2.3790
-5.2383 -1.0794 2.3790
-5.1931 -1.2665 2.3790
-5.1414 -1.4518 2.3790
-5.0833 -1.6350 2.3790
-5.0187 -1.8161 2.3790
-4.9479 -1.9946 2.3790
-4.8709 -2.1706 2.3790
-4.7877 -2.3436 2.3790
-4.6985 -2.5135 2.3790
-4.6035 -2.6802 2.3790
-4.5027 -2.8434 2.3790
-4.3962 -3.0029 2.3790
-4.2842 -3.1585 2.3790
-4.1669 -3.3101 2.3790
-4.0443 -3.4574 2.3790
-3.9166 -3.6003 2.3790
-3.7840 -3.7387 2.3790
-3.6467 -3.8723 2.3790
-3.5047 -4.0010 2.3790
-3.3584 -4.1246 2.3790
-3.2077 -4.2430 2.3790
-3.0530 -4.3560 2.3790
-2.8945 -4.4636 2.3790
-2.7322 -4.5656 2.3790
-2.5664 -4.6617 2.3790
-2.3974 -4.7521 2.3790
-2.2252 -4.8364 2.3790
-2.0501 -4.9147 2.3790
-1.8724 -4.9868 2.3790
-1.6922 -5.0526 2.3790
-1.5097 -5.1121 2.3790
-1.3252 -5.1651 2.3790
-1.1389 -5.2116 2.3790
-0.9510 -5.2516 2.3790
-0.7617 -5.2849 2.3790
-0.5713 -5.3116 2.3790
-0.3800 -5.3315 2.3790
-0.1880 -5.3447 2.3790
0.0045 -5.3511 2.3790
0.1971 -5.3508 2.3790
0.3897 -5.3436 2.3790
0.5820 -5.3296 2.3790
0.7739 -5.3089 2.3790
0.9649 -5.2813 2.3790
1.1551 -5.2470 2.3790
1.3439 -5.2060 2.3790
1.5314 -5.1583 2.3790
1.7172 -5.1039 2.3790
1.9010 -5.0430 2.3790
2.0827 -4.9755 2.3790
2.2620 -4.9015 2.3790
2.4387 -4.8212 2.3790
2.6125 -4.7346 2.3790
2.7833 -4.6418 2.3790
2.9508 -4.5429 2.3790
3.1148 -4.4380 2.3790
3.2751 -4.3272 2.3790
3.4314 -4.2108 2.3790
3.5837 -4.0887 2.3790
3.7315 -3.9611 2.3790
3.8748 -3.8283 2.3790
4.0134 -3.6903 2.3790
4.1471 -3.5473 2.3790
4.2756 -3.3995 2.3790
4.3989 -3.2470 2.3790
4.5167 -3.0901 2.3790
4.6289 -2.9290 2.3790
4.7353 -2.7638 2.3790
4.8357 -2.5947 2.3790
4.9301 -2.4220 2.3790
5.0183 -2.2459 2.3790
5.1001 -2.0666 2.3790
5.1755 -1.8843 2.3790
5.2442 -1.6993 2.3790
5.3063 -1.5117 2.3790
5.3616 -1.3219 2.3790
5.4101 -1.1301 2.3790
5.4515 -0.9365 2.3790
5.4860 -0.7415 2.3790
5.5134 -0.5451 2.3790
5.5336 -0.3478 2.3790
5.5467 -0.1497 2.3790
5.5526 0.0488 2.3790
5.5512 0.2475 2.3790
5.5426 0.4462 2.3790
5.5268 0.6445 2.3790
5.5037 0.8422 2.3790
5.4735 1.0391 2.3790
5.4360 1.2348 2.3790
5.3914 1.4291 2.3790
5.3398 1.6217 2.3790
5.2811 1.8125 2.3790
5.2154 2.0010 2.3790
5.1429 2.1870 2.3790
5.0635 2.3704 2.3790
4.9775 2.5507 2.3790
4.8850 2.7279 2.3790
4.7859 2.9016 2.3790
4.6806 3.0716 2.3790
4.5691 3.2377 2.3790
4.4515 3.3996 2.3790
4.3280 3.5571 2.3790
4.1989 3.7100 2.3790
4.0642 3.8581 2.3790
3.9242 4.0011 2.3790
3.7790 4.1390 2.3790
3.6288 4.2714 2.3790
3.4739 4.3982 2.3790
3.3144 4.5193 2.3790
3.1507 4.6344 2.3790
2.9828 4.7434 2.3790
2.8110 4.8462 2.3790
2.6357 4.9426 2.3790
2.4569 5.0325 2.3790
0.8847 1.9894 0.9251
0.8131 2.0198 0.9254
0.7405 2.0477 0.9258
0.6669 2.0729 0.9261
0.5924 2.0955 0.9265
0.5172 2.1154 0.9269
0.4412 2.1325 0.9273
0.3648 2.1469 0.9277
0.2878 2.1585 0.9282
0.2105 2.1674 0.9287
0.1329 2.1735 0.9291
0.0551 2.1767 0.9296
-0.0228 2.1772 0.9302
-0.1006 2.1748 0.9307
-0.1783 2.1697 0.9312
-0.2557 2.1617 0.9318
-0.3328 2.1510 0.9323
-0.4095 2.1375 0.9329
-0.4856 2.1212 0.9335
-0.5612 2.1022 0.9341
-0.6359 2.0805 0.9347
-0.7098 2.0561 0.9353
-0.7829 2.0291 0.9359
-0.8548 1.9994 0.9366
-2.3498 4.9934 2.3790
-2.5248 4.9019 2.3790
-2.6964 4.8041 2.3790
-2.8642 4.7003 2.3790
-3.0279 4.5905 2.3790
-3.1875 4.4751 2.3790
-3.3427 4.3540 2.3790
-3.4934 4.2275 2.3790
-3.6393 4.0958 2.3790
-3.7802 3.9590 2.3790
-3.9160 3.8174 2.3790
-4.0466 3.6711 2.3790
-4.1717 3.5203 2.3790
-4.2912 3.3653 2.3790
-4.4051 3.2062 2.3790
-4.5130 3.0433 2.3790
-4.6150 2.8767 2.3790
-4.7109 2.7067 2.3790
-4.8006 2.5336 2.3790
-4.8840 2.3575 2.3790
-4.9611 2.1787 2.3790
-5.0316 1.9973 2.3790
-5.0956 1.8138 2.3790
-5.1530 1.6282 2.3790
-5.2037 1.4408 2.3790
-5.2477 1.2518 2.3790
-5.2849 1.0616 2.3790
-5.3154 0.8703 2.3790
-5.3390 0.6781 2.3790
-5.3558 0.4854 2.3790
-5.3657 0.2923 2.3790
-5.3689 0.0991 2.3790
-5.3651 -0.0939 2.3790
-5.3546 -0.2866 2.3790
-5.3373 -0.4787 2.3790
-5.3132 -0.6700 2.3790
-5.2824 -0.8601 2.3790
-5.2449 -1.0490 2.3790
-5.2009 -1.2364 2.3790
-5.1502 -1.4219 2.3790
-5.0931 -1.6056 2.3790
-5.0296 -1.7870 2.3790
-4.9598 -1.9660 2.3790
-4.8837 -2.1423 2.3790
-4.8015 -2.3158 2.3790
-4.7134 -2.4863 2.3790
-4.6192 -2.6535 2.3790
-4.5193 -2.8173 2.3790
-4.4138 -2.9774 2.3790
-4.3027 -3.1336 2.3790
-4.1862 -3.2859 2.3790
-4.0644 -3.4339 2.3790
-3.9376 -3.5776 2.3790
-3.8058 -3.7166 2.3790
-3.6692 -3.8510 2.3790
-3.5280 -3.9805 2.3790
-3.3823 -4.1050 2.3790
-3.2324 -4.2242 2.3790
-3.0783 -4.3382 2.3790
-2.9204 -4.4466 2.3790
-2.7587 -4.5495 2.3790
-2.5934 -4.6466 2.3790
-2.4249 -4.7379 2.3790
-2.2532 -4.8232 2.3790
-2.0786 -4.9025 2.3790
-1.9013 -4.9756 2.3790
-1.7214 -5.0424 2.3790
-1.5393 -5.1029 2.3790
-1.3551 -5.1570 2.3790
-1.1691 -5.2046 2.3790
-0.9814 -5.2456 2.3790
-0.7923 -5.2800 2.3790
-0.6021 -5.3077 2.3790
-0.4109 -5.3287 2.3790
-0.2190 -5.3430 2.3790
-0.0267 -5.3506 2.3790
0.1660 -5.3513 2.3790
0.3586 -5.3452 2.3790
0.5510 -5.3324 2.3790
0.7429 -5.3127 2.3790
0.9341 -5.2863 2.3790
1.1244 -5.2530 2.3790
1.3135 -5.2131 2.3790
1.5012 -5.1665 2.3790
1.6873 -5.1132 2.3790
1.8714 -5.0533 2.3790
2.0535 -4.9868 2.3790
2.2332 -4.9139 2.3790
2.4103 -4.8346 2.3790
2.5847 -4.7490 2.3790
2.7560 -4.6572 2.3790
2.9240 -4.5593 2.3790
3.0886 -4.4553 2.3790
3.2495 -4.3455 2.3790
3.4065 -4.2300 2.3790
3.5593 -4.1088 2.3790
3.7079 -3.9821 2.3790
3.8520 -3.8501 2.3790
3.9914 -3.7129 2.3790
4.1258 -3.5707 2.3790
4.2552 -3.4237 2.3790
4.3793 -3.2720 2.3790
4.4980 -3.1158 2.3790
4.6112 -2.9553 2.3790
4.7185 -2.7907 2.3790
4.8199 -2.6223 2.3790
-3.6715 -3.4144 2.3790
-3.5458 -3.5441 2.3790
-3.4156 -3.6693 2.3790
-3.2811 -3.7899 2.3790
-3.1425 -3.9057 2.3790
-2.9998 -4.0165 2.3790
-2.8534 -4.1222 2.3790
-2.7033 -4.2227 2.3790
-2.5498 -4.3179 2.3790
-2.3930 -4.4077 2.3790
-2.2331 -4.4919 2.3790
-2.0703 -4.5705 2.3790
-1.9048 -4.6432 2.3790
-1.7369 -4.7102 2.3790
-1.5666 -4.7712 2.3790
-1.3942 -4.8262 2.3790
-1.2200 -4.8751 2.3790
-1.0441 -4.9178 2.3790
-0.8667 -4.9544 2.3790
-0.6881 -4.9847 2.3790
-0.5085 -5.0087 2.3790
-0.3281 -5.0263 2.3790
-0.1470 -5.0376 2.3790
0.0344 -5.0425 2.3790
0.2159 -5.0409 2.3790
0.3974 -5.0330 2.3790
0.5786 -5.0186 2.3790
0.7592 -4.9979 2.3790
0.9391 -4.9707 2.3790
1.1180 -4.9372 2.3790
1.2958 -4.8973 2.3790
1.4721 -4.8512 2.3790
1.6468 -4.7988 2.3790
1.8196 -4.7401 2.3790
1.9903 -4.6754 2.3790
2.1588 -4.6046 2.3790
2.3247 -4.5277 2.3790
2.4879 -4.4450 2.3790
2.6482 -4.3565 2.3790
2.8053 -4.2622 2.3790
2.9591 -4.1623 2.3790
3.1094 -4.0570 2.3790
3.2558 -3.9462 2.3790
3.3984 -3.8302 2.3790
3.5368 -3.7091 2.3790
3.6709 -3.5831 2.3790
3.8004 -3.4522 2.3790
3.9253 -3.3167 2.3790
4.0454 -3.1766 2.3790
4.1604 -3.0323 2.3790
4.2703 -2.8838 2.3790
4.3748 -2.7313 2.3790
4.4739 -2.5751 2.3790
4.5673 -2.4153 2.3790
4.6550 -2.2521 2.3790
4.7369 -2.0857 2.3790
4.8127 -1.9164 2.3790
4.8824 -1.7443 2.3790
4.9459 -1.5697 2.3790
5.0031 -1.3928 2.3790
5.0539 -1.2138 2.3790
5.0982 -1.0330 2.3790
5.1359 -0.8506 2.3790
5.1671 -0.6668 2.3790
5.1915 -0.4819 2.3790
5.2093 -0.2961 2.3790
5.2203 -0.1097 2.3790
5.2245 0.0771 2.3790
5.2220 0.2641 2.3790
5.2126 0.4509 2.3790
5.1965 0.6374 2.3790
5.1735 0.8232 2.3790
5.1438 1.0082 2.3790
5.1073 1.1920 2.3790
5.0642 1.3745 2.3790
5.0144 1.5554 2.3790
4.9580 1.7344 2.3790
4.8951 1.9113 2.3790
4.8257 2.0858 2.3790
4.7500 2.2577 2.3790
4.6680 2.4268 2.3790
4.5799 2.5929 2.3790
4.4857 2.7556 2.3790
4.3857 2.9149 2.3790
4.2798 3.0704 2.3790
4.1683 3.2219 2.3790
4.0513 3.3693 2.3790
3.9290 3.5124 2.3790
3.8015 3.6508 2.3790
3.6690 3.7845 2.3790
3.5317 3.9133 2.3790
3.3898 4.0370 2.3790
3.2434 4.1554 2.3790
3.0928 4.2683 2.3790
2.9382 4.3757 2.3790
2.7797 4.4773 2.3790
2.6177 4.5730 2.3790
2.4523 4.6627 2.3790
0.8888 1.8471 0.9258
0.8223 1.8778 0.9261
0.7547 1.9061 0.9264
0.6862 1.9319 0.9267
0.6168 1.9552 0.9271
0.5466 1.9760 0.9274
0.4756 1.9943 0.9278
0.4041 2.0100 0.9282
0.3320 2.0231 0.9286
0.2595 2.0337 0.9290
0.1867 2.0416 0.9295
0.1136 2.0468 0.9299
0.0403 2.0495 0.9304
-0.0329 2.0495 0.9309
-0.1062 2.0468 0.9314
-0.1792 2.0416 0.9319
-0.2521 2.0337 0.9324
-0.3246 2.0231 0.9329
-0.3967 2.0100 0.9335
-0.4683 1.9943 0.9340
-0.5393 1.9760 0.9346
-0.6095 1.9551 0.9352
-0.6790 1.9318 0.9358
-0.7475 1.9059 0.9363
-0.8151 1.8776 0.9369
-0.8817 1.8469 0.9375
-2.4015 4.5995 2.3790
-2.5625 4.5068 2.3790
-2.7199 4.4084 2.3790
-2.8735 4.3044 2.3790
-3.0232 4.1950 2.3790
-3.1688 4.0804 2.3790
-3.3100 3.9608 2.3790
-3.4467 3.8362 2.3790
-3.5788 3.7068 2.3790
-3.7061 3.5729 2.3790
-3.8283 3.4347 2.3790
-3.9455 3.2922 2.3790
-4.0574 3.1458 2.3790
-4.1638 2.9955 2.3790
-4.2648 2.8416 2.3790
-4.3601 2.6844 2.3790
-4.4497 2.5239 2.3790
-4.5334 2.3605 2.3790
-4.6112 2.1943 2.3790
-4.6830 2.0256 2.3790
-4.7487 1.8545 2.3790
-4.8081 1.6814 2.3790
-4.8614 1.5063 2.3790
-4.9083 1.3296 2.3790
-4.9490 1.1514 2.3790
-4.9832 0.9721 2.3790
-5.0110 0.7917 2.3790
-5.0325 0.6106 2.3790
-5.0474 0.4290 2.3790
-5.0559 0.2471 2.3790
-5.0580 0.0650 2.3790
-5.0536 -0.1169 2.3790
-5.0428 -0.2984 2.3790
-5.0257 -0.4793 2.3790
-5.0021 -0.6594 2.3790
-4.9722 -0.8385 2.3790
-4.9360 -1.0163 2.3790
-4.8936 -1.1926 2.3790
-4.8450 -1.3673 2.3790
-4.7903 -1.5401 2.3790
-4.7296 -1.7107 2.3790
-4.6629 -1.8791 2.3790
-4.5904 -2.0450 2.3790
-4.5121 -2.2081 2.3790
-4.4281 -2.3683 2.3790
-4.3386 -2.5255 2.3790
-4.2436 -2.6793 2.3790
-4.1433 -2.8297 2.3790
-4.0378 -2.9765 2.3790
-3.9272 -3.1194 2.3790
-3.8117 -3.2583 2.3790
-3.6914 -3.3930 2.3790
-3.5664 -3.5235 2.3790
-3.4369 -3.6494 2.3790
-3.3031 -3.7707 2.3790
-3.1651 -3.8873 2.3790
-3.0231 -3.9989 2.3790
-2.8773 -4.1055 2.3790
-2.7278 -4.2068 2.3790
-2.5748 -4.3029 2.3790
-2.4185 -4.3936 2.3790
-2.2591 -4.4787 2.3790
-2.0968 -4.5582 2.3790
-1.9317 -4.6319 2.3790
-1.7642 -4.6998 2.3790
-1.5943 -4.7617 2.3790
-1.4222 -4.8177 2.3790
-1.2483 -4.8676 2.3790
-1.0726 -4.9113 2.3790
-0.8955 -4.9489 2.3790
-0.7171 -4.9802 2.3790
-0.5376 -5.0052 2.3790
-0.3573 -5.0239 2.3790
-0.1763 -5.0362 2.3790
0.0050 -5.0421 2.3790
0.1866 -5.0416 2.3790
0.3681 -5.0347 2.3790
0.5493 -5.0214 2.3790
0.7301 -5.0017 2.3790
0.9101 -4.9755 2.3790
1.0892 -4.9430 2.3790
1.2671 -4.9042 2.3790
1.4437 -4.8591 2.3790
1.6187 -4.8077 2.3790
1.7918 -4.7500 2.3790
1.9629 -4.6863 2.3790
2.1317 -4.6164 2.3790
2.2981 -4.5406 2.3790
2.4618 -4.4588 2.3790
2.6225 -4.3712 2.3790
2.7802 -4.2778 2.3790
2.9345 -4.1788 2.3790
3.0853 -4.0744 2.3790
3.2324 -3.9645 2.3790
3.3756 -3.8493 2.3790
3.5147 -3.7290 2.3790
3.6495 -3.6038 2.3790
3.7798 -3.4737 2.3790
3.9055 -3.3389 2.3790
4.0263 -3.1996 2.3790
4.1422 -3.0559 2.3790
4.2529 -2.9080 2.3790
4.3583 -2.7562 2.3790
4.4583 -2.6006 2.3790
4.5526 -2.4413 2.3790
4.6413 -2.2787 2.3790
4.7241 -2.1128 2.3790
4.8008 -1.9439 2.3790
4.8715 -1.7723 2.3790
4.9361 -1.5981 2.3790
4.9943 -1.4215 2.3790
5.0461 -1.2429 2.3790
5.0915 -1.0623 2.3790
5.1303 -0.8802 2.3790
5.1625 -0.6966 2.3790
5.1880 -0.5118 2.3790
5.2069 -0.3262 2.3790
5.2190 -0.1398 2.3790
5.2243 0.0469 2.3790
5.2229 0.2339 2.3790
5.2146 0.4207 2.3790
5.1995 0.6073 2.3790
5.1777 0.7932 2.3790
5.1491 0.9784 2.3790
5.1137 1.1624 2.3790
5.0716 1.3451 2.3790
5.0229 1.5263 2.3790
4.9675 1.7056 2.3790
4.9057 1.8828 2.3790
4.8374 2.0578 2.3790
4.7627 2.2301 2.3790
4.6817 2.3997 2.3790
4.5945 2.5663 2.3790
4.5014 2.7296 2.3790
4.4022 2.8894 2.3790
4.2973 3.0455 2.3790
4.1867 3.1977 2.3790
4.0706 3.3458 2.3790
3.9491 3.4896 2.3790
3.8224 3.6288 2.3790
3.6907 3.7633 2.3790
3.5542 3.8929 2.3790
3.4130 4.0174 2.3790
3.2673 4.1366 2.3790
3.1174 4.2505 2.3790
2.9634 4.3587 2.3790
2.8056 4.4613 2.3790
2.6441 4.5580 2.3790
2.4792 4.6487 2.3790
0.8994 1.8419 0.9258
0.8331 1.8730 0.9261
0.7657 1.9016 0.9264
0.6973 1.9279 0.9267
0.6280 1.9516 0.9270
0.5580 1.9728 0.9274
0.4871 1.9915 0.9277
0.4157 2.0077 0.9281
0.3437 2.0212 0.9285
0.2712 2.0321 0.9290
0.1984 2.0405 0.9294
0.1254 2.0462 0.9298
0.0522 2.0492 0.9303
-0.0211 2.0497 0.9308
-0.0943 2.0474 0.9313
-0.1675 2.0426 0.9318
-0.2403 2.0351 0.9323
-0.3129 2.0250 0.9329
-0.3851 2.0123 0.9334
-0.4568 1.9970 0.9340
-0.5278 1.9791 0.9345
-0.5982 1.9587 0.9351
-0.6678 1.9357 0.9357
-0.7365 1.9103 0.9363
-0.8043 1.8824 0.9368
-0.8710 1.8520 0.9374
-2.3752 4.6140 2.3790
-2.5367 4.5222 2.3790
-2.6947 4.4246 2.3790
-2.8490 4.3216 2.3790
-2.9993 4.2131 2.3790
-3.1456 4.0993 2.3790
-3.2875 3.9804 2.3790
-3.4250 3.8566 2.3790
-3.5578 3.7280 2.3790
-3.6858 3.5949 2.3790
-3.8089 3.4573 2.3790
-3.9269 3.3155 2.3790
-4.0397 3.1697 2.3790
-4.1470 3.0200 2.3790
-4.2489 2.8667 2.3790
-4.3451 2.7100 2.3790
-4.4356 2.5501 2.3790
-4.5203 2.3871 2.3790
-4.5991 2.2214 2.3790
-4.6718 2.0530 2.3790
-4.7385 1.8823 2.3790
-4.7989 1.7095 2.3790
-4.8532 1.5347 2.3790
-4.9012 1.3582 2.3790
-4.9428 1.1803 2.3790
-4.9781 1.0011 2.3790
-5.0070 0.8209 2.3790
-5.0294 0.6399 2.3790
-5.0454 0.4584 2.3790
-5.0550 0.2765 2.3790
-5.0581 0.0944 2.3790
-5.0548 -0.0875 2.3790
-5.0450 -0.2691 2.3790
-5.0289 -0.4501 2.3790
-5.0063 -0.6304 2.3790
-4.9775 -0.8096 2.3790
-4.9423 -0.9876 2.3790
-4.9009 -1.1642 2.3790
-4.8533 -1.3392 2.3790
-4.7996 -1.5123 2.3790
-4.7398 -1.6833 2.3790
-4.6741 -1.8521 2.3790
-4.6025 -2.0183 2.3790
-4.5251 -2.1819 2.3790
-4.4421 -2.3426 2.3790
-4.3534 -2.5003 2.3790
-4.2593 -2.6547 2.3790
-4.1599 -2.8057 2.3790
-4.0552 -2.9530 2.3790
-3.9454 -3.0965 2.3790
-3.8307 -3.2361 2.3790
-3.7111 -3.3716 2.3790
-3.5869 -3.5027 2.3790
-3.4581 -3.6294 2.3790
-3.3250 -3.7515 2.3790
-3.1877 -3.8688 2.3790
-3.0463 -3.9812 2.3790
-2.9011 -4.0886 2.3790
-2.7522 -4.1908 2.3790
-2.5997 -4.2878 2.3790
-2.4440 -4.3793 2.3790
-2.2851 -4.4653 2.3790
-2.1232 -4.5457 2.3790
-1.9586 -4.6204 2.3790
-1.7914 -4.6892 2.3790
-1.6218 -4.7521 2.3790
-1.4501 -4.8091 2.3790
-1.2765 -4.8600 2.3790
-1.1011 -4.9047 2.3790
-0.9242 -4.9433 2.3790
-0.7460 -4.9756 2.3790
-0.5667 -5.0016 2.3790
-0.3864 -5.0213 2.3790
-0.2056 -5.0346 2.3790
-0.0243 -5.0416 2.3790
0.1573 -5.0421 2.3790
0.3388 -5.0363 2.3790
0.5201 -5.0240 2.3790
0.7009 -5.0053 2.3790
0.8811 -4.9802 2.3790
1.0603 -4.9487 2.3790
1.2385 -4.9109 2.3790
1.4153 -4.8668 2.3790
1.5905 -4.8164 2.3790
1.7640 -4.7598 2.3790
1.9354 -4.6970 2.3790
2.1046 -4.6281 2.3790
2.2714 -4.5532 2.3790
2.4355 -4.4724 2.3790
2.5968 -4.3857 2.3790
2.7549 -4.2933 2.3790
2.9098 -4.1952 2.3790
3.0612 -4.0916 2.3790
3.2089 -3.9826 2.3790
3.3528 -3.8683 2.3790
3.4925 -3.7488 2.3790
3.6280 -3.6243 2.3790
3.7591 -3.4950 2.3790
3.8855 -3.3610 2.3790
4.0071 -3.2224 2.3790
4.1238 -3.0794 2.3790
4.2354 -2.9322 2.3790
4.3417 -2.7810 2.3790
4.4425 -2.6260 2.3790
4.5378 -2.4673 2.3790
-3.4677 -3.2247 2.3790
-3.3490 -3.3473 2.3790
-3.2260 -3.4656 2.3790
-3.0990 -3.5795 2.3790
-2.9680 -3.6888 2.3790
-2.8332 -3.7935 2.3790
-2.6949 -3.8934 2.3790
-2.5531 -3.9884 2.3790
-2.4080 -4.0783 2.3790
-2.2598 -4.1630 2.3790
-2.1088 -4.2426 2.3790
-1.9550 -4.3167 2.3790
-1.7986 -4.3854 2.3790
-1.6399 -4.4486 2.3790
-1.4791 -4.5062 2.3790
-1.3163 -4.5581 2.3790
-1.1516 -4.6042 2.3790
-0.9855 -4.6445 2.3790
-0.8179 -4.6789 2.3790
-0.6492 -4.7074 2.3790
-0.4795 -4.7300 2.3790
-0.3091 -4.7465 2.3790
-0.1381 -4.7571 2.3790
0.0333 -4.7615 2.3790
0.2047 -4.7600 2.3790
0.3761 -4.7523 2.3790
0.5472 -4.7386 2.3790
0.7178 -4.7189 2.3790
0.8876 -4.6931 2.3790
1.0566 -4.6613 2.3790
1.2244 -4.6235 2.3790
1.3908 -4.5798 2.3790
1.5557 -4.5301 2.3790
1.7189 -4.4746 2.3790
1.8800 -4.4133 2.3790
2.0390 -4.3463 2.3790
2.1955 -4.2736 2.3790
2.3495 -4.1953 2.3790
2.5007 -4.1116 2.3790
2.6490 -4.0224 2.3790
2.7940 -3.9280 2.3790
2.9357 -3.8284 2.3790
3.0739 -3.7237 2.3790
3.2083 -3.6141 2.3790
3.3388 -3.4996 2.3790
3.4652 -3.3805 2.3790
3.5873 -3.2569 2.3790
3.7050 -3.1288 2.3790
3.8181 -2.9966 2.3790
3.9265 -2.8602 2.3790
4.0300 -2.7200 2.3790
4.1285 -2.5760 2.3790
4.2218 -2.4285 2.3790
4.3098 -2.2777 2.3790
4.3923 -2.1236 2.3790
4.4693 -1.9666 2.3790
4.5407 -1.8068 2.3790
4.6063 -1.6444 2.3790
4.6660 -1.4796 2.3790
4.7197 -1.3127 2.3790
4.7675 -1.1439 2.3790
4.8091 -0.9733 2.3790
4.8445 -0.8012 2.3790
4.8737 -0.6278 2.3790
4.8966 -0.4535 2.3790
4.9132 -0.2782 2.3790
4.9234 -0.1024 2.3790
4.9272 0.0737 2.3790
4.9246 0.2500 2.3790
4.9157 0.4261 2.3790
4.9003 0.6019 2.3790
4.8785 0.7771 2.3790
4.8503 0.9515 2.3790
4.8158 1.1248 2.3790
4.7750 1.2968 2.3790
4.7280 1.4673 2.3790
4.6747 1.6360 2.3790
4.6153 1.8027 2.3790
4.5498 1.9672 2.3790
4.4784 2.1292 2.3790
4.4010 2.2886 2.3790
4.3179 2.4451 2.3790
4.2290 2.5984 2.3790
4.1347 2.7485 2.3790
4.0348 2.8950 2.3790
3.9297 3.0379 2.3790
3.8194 3.1768 2.3790
3.7041 3.3115 2.3790
3.5839 3.4420 2.3790
3.4590 3.5681 2.3790
3.3296 3.6894 2.3790
3.1958 3.8060 2.3790
3.0579 3.9176 2.3790
2.9159 4.0240 2.3790
2.7702 4.1252 2.3790
2.6209 4.2210 2.3790
2.4682 4.3113 2.3790
0.9005 1.7119 0.9264
0.8388 1.7430 0.9267
0.7761 1.7720 0.9270
0.7124 1.7986 0.9272
0.6477 1.8230 0.9275
0.5822 1.8450 0.9279
0.5160 1.8646 0.9282
0.4490 1.8819 0.9286
0.3815 1.8967 0.9289
0.3136 1.9091 0.9293
0.2451 1.9190 0.9297
0.1764 1.9264 0.9301
0.1075 1.9314 0.9306
0.0384 1.9339 0.9310
-0.0307 1.9339 0.9315
-0.0998 1.9314 0.9319
-0.1688 1.9264 0.9324
-0.2375 1.9189 0.9329
-0.3059 1.9090 0.9334
-0.3739 1.8966 0.9339
-0.4415 1.8818 0.9344
-0.5084 1.8645 0.9350
-0.5747 1.8449 0.9355
-0.6402 1.8228 0.9361
-0.7049 1.7984 0.9366
-0.7687 1.7717 0.9372
-0.8314 1.7428 0.9377
-0.8931 1.7116 0.9383
-2.4163 4.2521 2.3790
-2.5649 4.1595 2.3790
-2.7099 4.0615 2.3790
-2.8512 3.9585 2.3790
-2.9887 3.8506 2.3790
-3.1221 3.7378 2.3790
-3.2512 3.6204 2.3790
-3.3760 3.4986 2.3790
-3.4962 3.3724 2.3790
-3.6117 3.2420 2.3790
-3.7224 3.1077 2.3790
-3.8281 2.9696 2.3790
-3.9288 2.8280 2.3790
-4.0242 2.6829 2.3790
-4.1144 2.5346 2.3790
-4.1991 2.3832 2.3790
-4.2783 2.2291 2.3790
-4.3519 2.0723 2.3790
-4.4198 1.9131 2.3790
-4.4820 1.7517 2.3790
-4.5383 1.5883 2.3790
-4.5887 1.4231 2.3790
-4.6332 1.2563 2.3790
-4.6718 1.0881 2.3790
-4.7043 0.9188 2.3790
-4.7307 0.7485 2.3790
-4.7511 0.5776 2.3790
-4.7654 0.4061 2.3790
-4.7736 0.2343 2.3790
-4.7757 0.0624 2.3790
-4.7717 -0.1094 2.3790
-4.7617 -0.2808 2.3790
-4.7456 -0.4517 2.3790
-4.7234 -0.6218 2.3790
-4.6953 -0.7909 2.3790
-4.6613 -0.9589 2.3790
-4.6213 -1.1255 2.3790
-4.5756 -1.2905 2.3790
-4.5240 -1.4537 2.3790
-4.4667 -1.6150 2.3790
-4.4038 -1.7740 2.3790
-4.3354 -1.9308 2.3790
-4.2615 -2.0849 2.3790
-4.1823 -2.2363 2.3790
-4.0977 -2.3848 2.3790
-4.0081 -2.5302 2.3790
-3.9133 -2.6723 2.3790
-3.8137 -2.8109 2.3790
-3.7093 -2.9459 2.3790
-3.6002 -3.0772 2.3790
-3.4865 -3.2045 2.3790
-3.3685 -3.3278 2.3790
-3.2462 -3.4468 2.3790
-3.1197 -3.5614 2.3790
-2.9894 -3.6715 2.3790
-2.8552 -3.7769 2.3790
-2.7175 -3.8776 2.3790
-2.5762 -3.9734 2.3790
-2.4316 -4.0641 2.3790
-2.2840 -4.1497 2.3790
-2.1334 -4.2301 2.3790
-1.9800 -4.3051 2.3790
-1.8241 -4.3747 2.3790
-1.6657 -4.4388 2.3790
-1.5052 -4.4973 2.3790
-1.3427 -4.5501 2.3790
-1.1783 -4.5971 2.3790
-1.0124 -4.6384 2.3790
-0.8451 -4.6737 2.3790
-0.6765 -4.7032 2.3790
-0.5070 -4.7267 2.3790
-0.3366 -4.7443 2.3790
-0.1657 -4.7558 2.3790
0.0056 -4.7612 2.3790
0.1770 -4.7606 2.3790
0.3484 -4.7540 2.3790
0.5196 -4.7413 2.3790
0.6903 -4.7225 2.3790
0.8603 -4.6977 2.3790
1.0294 -4.6668 2.3790
1.1974 -4.6300 2.3790
1.3641 -4.5872 2.3790
1.5292 -4.5385 2.3790
1.6926 -4.4840 2.3790
1.8541 -4.4236 2.3790
2.0134 -4.3575 2.3790
2.1704 -4.2857 2.3790
2.3248 -4.2083 2.3790
2.4765 -4.1255 2.3790
2.6253 -4.0372 2.3790
2.7708 -3.9436 2.3790
2.9131 -3.8448 2.3790
3.0518 -3.7409 2.3790
3.1868 -3.6321 2.3790
3.3179 -3.5184 2.3790
3.4450 -3.4001 2.3790
3.5678 -3.2771 2.3790
3.6863 -3.1498 2.3790
3.8002 -3.0182 2.3790
3.9094 -2.8825 2.3790
4.0137 -2.7429 2.3790
4.1129 -2.5995 2.3790
4.2071 -2.4526 2.3790
4.2959 -2.3022 2.3790
4.3794 -2.1487 2.3790
4.4573 -1.9921 2.3790
4.5295 -1.8328 2.3790
4.5961 -1.6708 2.3790
4.6567 -1.5064 2.3790
4.7115 -1.3398 2.3790
4.7601 -1.1713 2.3790
4.8027 -1.0009 2.3790
4.8392 -0.8291 2.3790
4.8694 -0.6559 2.3790
4.8933 -0.4817 2.3790
4.9109 -0.3066 2.3790
4.9222 -0.1309 2.3790
4.9270 0.0452 2.3790
4.9255 0.2215 2.3790
4.9175 0.3977 2.3790
4.9032 0.5736 2.3790
4.8824 0.7489 2.3790
4.8553 0.9234 2.3790
4.8218 1.0969 2.3790
4.7821 1.2691 2.3790
4.7360 1.4398 2.3790
4.6837 1.6089 2.3790
4.6253 1.7759 2.3790
4.5608 1.9408 2.3790
4.4903 2.1032 2.3790
4.4139 2.2630 2.3790
4.3317 2.4200 2.3790
4.2438 2.5739 2.3790
4.1503 2.7245 2.3790
4.0513 2.8716 2.3790
3.9470 3.0150 2.3790
3.8376 3.1546 2.3790
3.7230 3.2901 2.3790
3.6036 3.4213 2.3790
3.4795 3.5480 2.3790
3.3508 3.6701 2.3790
3.2177 3.7875 2.3790
3.0804 3.8999 2.3790
2.9391 4.0072 2.3790
2.7940 4.1093 2.3790
2.6452 4.2059 2.3790
2.4931 4.2971 2.3790
0.9103 1.7066 0.9264
0.8489 1.7382 0.9266
0.7863 1.7675 0.9269
0.7227 1.7945 0.9272
0.6582 1.8192 0.9275
0.5929 1.8416 0.9278
0.5267 1.8616 0.9281
0.4599 1.8792 0.9285
0.3925 1.8945 0.9289
0.3246 1.9072 0.9292
0.2562 1.9175 0.9296
0.1875 1.9254 0.9301
0.1186 1.9308 0.9305
0.0496 1.9337 0.9309
-0.0196 1.9340 0.9314
-0.0887 1.9320 0.9319
-0.1576 1.9274 0.9323
-0.2264 1.9203 0.9328
-0.2949 1.9108 0.9333
-0.3630 1.8988 0.9338
-0.4306 1.8843 0.9344
-0.4976 1.8675 0.9349
-0.5640 1.8482 0.9354
-0.6297 1.8265 0.9360
-0.6945 1.8025 0.9365
-0.7584 1.7762 0.9371
-0.8214 1.7476 0.9377
-0.8832 1.7168 0.9382
-2.3919 4.2666 2.3790
-2.5411 4.1748 2.3790
-2.6867 4.0777 2.3790
-2.8287 3.9755 2.3790
-2.9668 3.8684 2.3790
-3.1008 3.7564 2.3790
-3.2306 3.6397 2.3790
-3.3561 3.5185 2.3790
-3.4770 3.3930 2.3790
-3.5933 3.2634 2.3790
-3.7048 3.1297 2.3790
-3.8114 2.9922 2.3790
-3.9129 2.8511 2.3790
-4.0092 2.7065 2.3790
-4.1002 2.5587 2.3790
-4.1858 2.4079 2.3790
-4.2659 2.2541 2.3790
-4.3404 2.0978 2.3790
-4.4092 1.9390 2.3790
-4.4723 1.7779 2.3790
-4.5296 1.6148 2.3790
-4.5810 1.4499 2.3790
-4.6265 1.2833 2.3790
-4.6659 1.1154 2.3790
-4.6994 0.9462 2.3790
-4.7268 0.7761 2.3790
-4.7482 0.6052 2.3790
-4.7635 0.4338 2.3790
-4.7727 0.2620 2.3790
-4.7758 0.0901 2.3790
-4.7728 -0.0817 2.3790
-4.7637 -0.2532 2.3790
-4.7486 -0.4241 2.3790
-4.7274 -0.5944 2.3790
-4.7003 -0.7637 2.3790
-4.6672 -0.9319 2.3790
-4.6282 -1.0987 2.3790
-4.5833 -1.2640 2.3790
-4.5327 -1.4275 2.3790
-4.4764 -1.5891 2.3790
-4.4144 -1.7485 2.3790
-4.3468 -1.9056 2.3790
-4.2738 -2.0602 2.3790
-4.1954 -2.2120 2.3790
-4.1117 -2.3610 2.3790
-4.0229 -2.5069 2.3790
-3.9290 -2.6495 2.3790
-3.8302 -2.7888 2.3790
-3.7265 -2.9244 2.3790
-3.6181 -3.0563 2.3790
-3.5052 -3.1842 2.3790
-3.3878 -3.3081 2.3790
-3.2662 -3.4278 2.3790
-3.1405 -3.5432 2.3790
-3.0107 -3.6540 2.3790
-2.8772 -3.7602 2.3790
-2.7400 -3.8617 2.3790
-2.5992 -3.9582 2.3790
-2.4552 -4.0498 2.3790
-2.3080 -4.1362 2.3790
-2.1579 -4.2175 2.3790
-2.0050 -4.2933 2.3790
-1.8494 -4.3638 2.3790
-1.6915 -4.4288 2.3790
-1.5313 -4.4882 2.3790
-1.3691 -4.5419 2.3790
-1.2050 -4.5899 2.3790
-1.0393 -4.6321 2.3790
-0.8722 -4.6684 2.3790
-0.7038 -4.6989 2.3790
-0.5344 -4.7233 2.3790
-0.3642 -4.7418 2.3790
-0.1934 -4.7543 2.3790
-0.0221 -4.7608 2.3790
0.1493 -4.7611 2.3790
0.3208 -4.7555 2.3790
0.4920 -4.7437 2.3790
0.6627 -4.7259 2.3790
0.8329 -4.7021 2.3790
1.0021 -4.6722 2.3790
1.1703 -4.6364 2.3790
1.3372 -4.5945 2.3790
1.5026 -4.5468 2.3790
1.6664 -4.4932 2.3790
1.8282 -4.4337 2.3790
1.9879 -4.3686 2.3790
2.1452 -4.2977 2.3790
2.3001 -4.2212 2.3790
2.4522 -4.1392 2.3790
2.6014 -4.0518 2.3790
2.7475 -3.9591 2.3790
2.8903 -3.8611 2.3790
3.0296 -3.7581 2.3790
3.1653 -3.6500 2.3790
3.2970 -3.5371 2.3790
3.4248 -3.4195 2.3790
3.5483 -3.2973 2.3790
3.6675 -3.1707 2.3790
3.7821 -3.0398 2.3790
3.8920 -2.9047 2.3790
3.9972 -2.7657 2.3790
4.0973 -2.6229 2.3790
4.1922 -2.4766 2.3790
4.2819 -2.3268 2.3790
-3.2815 -3.0513 2.3790
-3.1691 -3.1673 2.3790
-3.0527 -3.2793 2.3790
-2.9324 -3.3871 2.3790
-2.8085 -3.4906 2.3790
-2.6809 -3.5897 2.3790
-2.5499 -3.6842 2.3790
-2.4157 -3.7741 2.3790
-2.2784 -3.8592 2.3790
-2.1382 -3.9394 2.3790
-1.9952 -4.0146 2.3790
-1.8496 -4.0848 2.3790
-1.7016 -4.1498 2.3790
-1.5514 -4.2095 2.3790
-1.3991 -4.2639 2.3790
-1.2450 -4.3130 2.3790
-1.0892 -4.3566 2.3790
-0.9319 -4.3946 2.3790
-0.7733 -4.4271 2.3790
-0.6136 -4.4540 2.3790
-0.4530 -4.4753 2.3790
-0.2917 -4.4909 2.3790
-0.1299 -4.5007 2.3790
0.0323 -4.5049 2.3790
0.1945 -4.5033 2.3790
0.3567 -4.4959 2.3790
0.5186 -4.4829 2.3790
0.6800 -4.4640 2.3790
0.8407 -4.4395 2.3790
1.0005 -4.4093 2.3790
1.1592 -4.3734 2.3790
1.3166 -4.3319 2.3790
1.4726 -4.2848 2.3790
1.6269 -4.2321 2.3790
1.7793 -4.1740 2.3790
1.9296 -4.1104 2.3790
2.0776 -4.0415 2.3790
2.2232 -3.9674 2.3790
2.3661 -3.8880 2.3790
2.5063 -3.8036 2.3790
2.6434 -3.7141 2.3790
2.7773 -3.6198 2.3790
2.9078 -3.5206 2.3790
3.0348 -3.4168 2.3790
3.1581 -3.3085 2.3790
3.2775 -3.1957 2.3790
3.3929 -3.0787 2.3790
3.5040 -2.9575 2.3790
3.6109 -2.8323 2.3790
3.7132 -2.7033 2.3790
3.8109 -2.5706 2.3790
3.9039 -2.4344 2.3790
3.9919 -2.2949 2.3790
4.0749 -2.1522 2.3790
4.1528 -2.0065 2.3790
4.2255 -1.8580 2.3790
4.2927 -1.7068 2.3790
4.3546 -1.5533 2.3790
4.4108 -1.3975 2.3790
4.4615 -1.2397 2.3790
4.5064 -1.0801 2.3790
4.5456 -0.9188 2.3790
4.5789 -0.7562 2.3790
4.6064 -0.5923 2.3790
4.6279 -0.4275 2.3790
4.6434 -0.2620 2.3790
4.6529 -0.0958 2.3790
4.6564 0.0706 2.3790
4.6538 0.2372 2.3790
4.6452 0.4036 2.3790
4.6305 0.5696 2.3790
4.6098 0.7352 2.3790
4.5831 0.8999 2.3790
4.5504 1.0636 2.3790
4.5118 1.2260 2.3790
4.4672 1.3871 2.3790
4.4168 1.5464 2.3790
4.3606 1.7039 2.3790
4.2987 1.8592 2.3790
4.2311 2.0122 2.3790
4.1580 2.1627 2.3790
4.0794 2.3105 2.3790
3.9954 2.4554 2.3790
3.9062 2.5971 2.3790
3.8119 2.7355 2.3790
3.7125 2.8703 2.3790
3.6083 3.0015 2.3790
3.4994 3.1288 2.3790
3.3859 3.2520 2.3790
3.2679 3.3710 2.3790
3.1456 3.4857 2.3790
3.0193 3.5958 2.3790
2.8890 3.7012 2.3790
2.7549 3.8017 2.3790
2.6173 3.8973 2.3790
2.4763 3.9878 2.3790
0.9087 1.5872 0.9270
0.8516 1.6187 0.9272
0.7933 1.6482 0.9275
0.7340 1.6755 0.9277
0.6737 1.7007 0.9280
0.6126 1.7237 0.9283
0.5507 1.7445 0.9286
0.4881 1.7631 0.9289
0.4248 1.7793 0.9292
0.3610 1.7933 0.9296
0.2967 1.8050 0.9300
0.2321 1.8144 0.9303
0.1671 1.8214 0.9307
0.1019 1.8261 0.9311
0.0366 1.8285 0.9316
-0.0287 1.8285 0.9320
-0.0940 1.8261 0.9324
-0.1592 1.8214 0.9329
-0.2242 1.8143 0.9334
-0.2889 1.8050 0.9338
-0.3532 1.7932 0.9343
-0.4170 1.7792 0.9348
-0.4803 1.7629 0.9353
-0.5429 1.7443 0.9358
-0.6049 1.7235 0.9363
-0.6660 1.7004 0.9369
-0.7263 1.6752 0.9374
-0.7856 1.6478 0.9379
-0.8439 1.6183 0.9385
-0.9011 1.5867 0.9390
-2.4236 3.9326 2.3790
-2.5608 3.8402 2.3790
-2.6944 3.7429 2.3790
-2.8245 3.6410 2.3790
-2.9507 3.5346 2.3790
-3.0729 3.4237 2.3790
-3.1909 3.3086 2.3790
-3.3047 3.1894 2.3790
-3.4141 3.0663 2.3790
-3.5189 2.9394 2.3790
-3.6190 2.8090 2.3790
-3.7143 2.6751 2.3790
-3.8047 2.5380 2.3790
-3.8901 2.3978 2.3790
-3.9704 2.2548 2.3790
-4.0454 2.1091 2.3790
-4.1152 1.9609 2.3790
-4.1796 1.8104 2.3790
-4.2385 1.6578 2.3790
-4.2919 1.5033 2.3790
-4.3398 1.3471 2.3790
-4.3821 1.1893 2.3790
-4.4186 1.0303 2.3790
-4.4495 0.8702 2.3790
-4.4747 0.7091 2.3790
-4.4941 0.5474 2.3790
-4.5078 0.3851 2.3790
-4.5157 0.2226 2.3790
-4.5178 0.0600 2.3790
-4.5142 -0.1026 2.3790
-4.5048 -0.2648 2.3790
-4.4897 -0.4265 2.3790
-4.4688 -0.5875 2.3790
-4.4424 -0.7475 2.3790
-4.4102 -0.9065 2.3790
-4.3725 -1.0642 2.3790
-4.3293 -1.2203 2.3790
-4.2806 -1.3748 2.3790
-4.2265 -1.5275 2.3790
-4.1671 -1.6780 2.3790
-4.1024 -1.8264 2.3790
-4.0325 -1.9723 2.3790
-3.9575 -2.1156 2.3790
-3.8776 -2.2562 2.3790
-3.7928 -2.3938 2.3790
-3.7032 -2.5283 2.3790
-3.6089 -2.6596 2.3790
-3.5101 -2.7874 2.3790
-3.4068 -2.9117 2.3790
-3.2993 -3.0322 2.3790
-3.1875 -3.1489 2.3790
-3.0718 -3.2615 2.3790
-2.9521 -3.3700 2.3790
-2.8287 -3.4742 2.3790
-2.7017 -3.5740 2.3790
-2.5713 -3.6693 2.3790
-2.4376 -3.7599 2.3790
-2.3008 -3.8458 2.3790
-2.1610 -3.9268 2.3790
-2.0184 -4.0028 2.3790
-1.8733 -4.0738 2.3790
-1.7256 -4.1396 2.3790
-1.5758 -4.2002 2.3790
-1.4238 -4.2555 2.3790
-1.2700 -4.3054 2.3790
-1.1144 -4.3499 2.3790
-0.9574 -4.3889 2.3790
-0.7990 -4.4223 2.3790
-0.6395 -4.4501 2.3790
-0.4790 -4.4722 2.3790
-0.3178 -4.4887 2.3790
-0.1560 -4.4995 2.3790
0.0061 -4.5046 2.3790
0.1683 -4.5039 2.3790
0.3305 -4.4975 2.3790
0.4925 -4.4854 2.3790
0.6539 -4.4675 2.3790
0.8148 -4.4439 2.3790
0.9747 -4.4146 2.3790
1.1336 -4.3796 2.3790
1.2913 -4.3390 2.3790
1.4475 -4.2928 2.3790
1.6021 -4.2410 2.3790
1.7548 -4.1837 2.3790
1.9054 -4.1211 2.3790
2.0539 -4.0530 2.3790
2.1999 -3.9797 2.3790
2.3432 -3.9012 2.3790
2.4838 -3.8175 2.3790
2.6214 -3.7289 2.3790
2.7559 -3.6353 2.3790
2.8870 -3.5370 2.3790
3.0145 -3.4339 2.3790
3.1384 -3.3263 2.3790
3.2585 -3.2142 2.3790
3.3745 -3.0979 2.3790
3.4864 -2.9773 2.3790
3.5939 -2.8528 2.3790
3.6970 -2.7244 2.3790
3.7955 -2.5923 2.3790
3.8892 -2.4567 2.3790
3.9780 -2.3176 2.3790
4.0619 -2.1754 2.3790
4.1406 -2.0302 2.3790
4.2141 -1.8821 2.3790
4.2822 -1.7314 2.3790
4.3449 -1.5782 2.3790
4.4021 -1.4228 2.3790
4.4537 -1.2653 2.3790
4.4996 -1.1060 2.3790
4.5397 -0.9450 2.3790
4.5739 -0.7825 2.3790
4.6023 -0.6189 2.3790
4.6248 -0.4542 2.3790
4.6413 -0.2887 2.3790
4.6518 -0.1227 2.3790
4.6562 0.0437 2.3790
4.6546 0.2103 2.3790
4.6470 0.3767 2.3790
4.6333 0.5429 2.3790
4.6136 0.7085 2.3790
4.5878 0.8733 2.3790
4.5561 1.0372 2.3790
4.5184 1.1999 2.3790
4.4748 1.3612 2.3790
4.4253 1.5208 2.3790
4.3701 1.6786 2.3790
4.3090 1.8343 2.3790
4.2424 1.9877 2.3790
4.1701 2.1386 2.3790
4.0924 2.2868 2.3790
4.0093 2.4322 2.3790
3.9210 2.5744 2.3790
3.8275 2.7133 2.3790
3.7289 2.8488 2.3790
3.6255 2.9806 2.3790
3.5173 3.1085 2.3790
3.4045 3.2324 2.3790
3.2872 3.3521 2.3790
3.1657 3.4675 2.3790
3.0400 3.5783 2.3790
2.9103 3.6845 2.3790
2.7768 3.7858 2.3790
2.6398 3.8822 2.3790
2.4993 3.9736 2.3790
0.9179 1.5819 0.9270
0.8609 1.6138 0.9272
0.8028 1.6435 0.9274
0.7436 1.6712 0.9277
0.6835 1.6968 0.9280
0.6226 1.7201 0.9282
0.5608 1.7413 0.9285
0.4982 1.7602 0.9289
0.4351 1.7769 0.9292
0.3713 1.7912 0.9295
0.3071 1.8033 0.9299
0.2425 1.8131 0.9303
0.1776 1.8205 0.9307
0.1125 1.8255 0.9311
0.0472 1.8283 0.9315
-0.0182 1.8286 0.9319
-0.0835 1.8267 0.9324
-0.1487 1.8223 0.9328
-0.2137 1.8156 0.9333
-0.2784 1.8066 0.9338
-0.3428 1.7953 0.9342
-0.4067 1.7816 0.9347
-0.4701 1.7657 0.9352
-0.5328 1.7475 0.9357
-0.5949 1.7270 0.9363
-0.6562 1.7043 0.9368
-0.7166 1.6794 0.9373
-0.7761 1.6524 0.9378
-0.8346 1.6232 0.9384
-0.8920 1.5920 0.9389
-2.4011 3.9470 2.3790
-2.5388 3.8554 2.3790
-2.6731 3.7590 2.3790
-2.8037 3.6578 2.3790
-2.9305 3.5521 2.3790
-3.0534 3.4419 2.3790
-3.1721 3.3275 2.3790
-3.2866 3.2089 2.3790
-3.3967 3.0865 2.3790
-3.5022 2.9602 2.3790
-3.6031 2.8303 2.3790
-3.6992 2.6970 2.3790
-3.7904 2.5604 2.3790
-3.8766 2.4207 2.3790
-3.9577 2.2781 2.3790
-4.0336 2.1328 2.3790
-4.1043 1.9850 2.3790
-4.1695 1.8349 2.3790
-4.2294 1.6826 2.3790
-4.2837 1.5284 2.3790
-4.3324 1.3724 2.3790
-4.3756 1.2149 2.3790
-4.4131 1.0561 2.3790
-4.4449 0.8961 2.3790
-4.4710 0.7352 2.3790
-4.4914 0.5735 2.3790
-4.5060 0.4114 2.3790
-4.5148 0.2489 2.3790
-4.5179 0.0862 2.3790
-4.5152 -0.0763 2.3790
-4.5067 -0.2386 2.3790
-4.4925 -0.4004 2.3790
-4.4726 -0.5615 2.3790
-4.4470 -0.7217 2.3790
-4.4158 -0.8809 2.3790
-4.3790 -1.0388 2.3790
-4.3367 -1.1952 2.3790
-4.2888 -1.3500 2.3790
-4.2356 -1.5029 2.3790
-4.1770 -1.6539 2.3790
-4.1132 -1.8026 2.3790
-4.0441 -1.9489 2.3790
-3.9700 -2.0926 2.3790
-3.8908 -2.2337 2.3790
-3.8068 -2.3718 2.3790
-3.7180 -2.5068 2.3790
-3.6244 -2.6386 2.3790
-3.5263 -2.7670 2.3790
-3.4238 -2.8919 2.3790
-3.3169 -3.0130 2.3790
-3.2059 -3.1303 2.3790
-3.0907 -3.2436 2.3790
-2.9717 -3.3528 2.3790
-2.8489 -3.4577 2.3790
-2.7225 -3.5582 2.3790
-2.5926 -3.6542 2.3790
-2.4594 -3.7456 2.3790
-2.3231 -3.8322 2.3790
-2.1838 -3.9140 2.3790
-2.0417 -3.9909 2.3790
-1.8969 -4.0627 2.3790
-1.7497 -4.1293 2.3790
-1.6001 -4.1908 2.3790
-1.4485 -4.2469 2.3790
-1.2950 -4.2977 2.3790
-1.1397 -4.3431 2.3790
-0.9828 -4.3829 2.3790
-0.8247 -4.4172 2.3790
-0.6653 -4.4460 2.3790
-0.5050 -4.4690 2.3790
-0.3439 -4.4865 2.3790
-0.1822 -4.4982 2.3790
-0.0201 -4.5042 2.3790
0.1421 -4.5044 2.3790
0.3043 -4.4989 2.3790
0.4663 -4.4877 2.3790
0.6279 -4.4707 2.3790
0.7888 -4.4481 2.3790
0.9489 -4.4197 2.3790
1.1081 -4.3856 2.3790
1.2659 -4.3459 2.3790
1.4224 -4.3006 2.3790
1.5772 -4.2497 2.3790
1.7302 -4.1934 2.3790
1.8812 -4.1316 2.3790
2.0300 -4.0644 2.3790
2.1764 -3.9919 2.3790
2.3203 -3.9142 2.3790
2.4613 -3.8314 2.3790
2.5994 -3.7436 2.3790
2.7344 -3.6508 2.3790
2.8660 -3.5532 2.3790
2.9942 -3.4509 2.3790
3.1187 -3.3440 2.3790
3.2393 -3.2326 2.3790
3.3560 -3.1170 2.3790
3.4686 -2.9971 2.3790
3.5769 -2.8732 2.3790
3.6807 -2.7454 2.3790
3.7799 -2.6139 2.3790
3.8744 -2.4788 2.3790
3.9640 -2.3403 2.3790
4.0487 -2.1986 2.3790
-3.1104 -2.8920 2.3790
-3.0038 -3.0020 2.3790
-2.8935 -3.1082 2.3790
-2.7795 -3.2104 2.3790
-2.6619 -3.3086 2.3790
-2.5410 -3.4025 2.3790
-2.4168 -3.4921 2.3790
-2.2896 -3.5773 2.3790
-2.1594 -3.6579 2.3790
-2.0264 -3.7340 2.3790
-1.8908 -3.8053 2.3790
-1.7528 -3.8717 2.3790
-1.6124 -3.9333 2.3790
-1.4700 -3.9899 2.3790
-1.3256 -4.0415 2.3790
-1.1795 -4.0879 2.3790
-1.0318 -4.1292 2.3790
-0.8826 -4.1652 2.3790
-0.7323 -4.1959 2.3790
-0.5809 -4.2214 2.3790
-0.4286 -4.2414 2.3790
-0.2757 -4.2561 2.3790
-0.1223 -4.2654 2.3790
0.0314 -4.2692 2.3790
0.1852 -4.2676 2.3790
0.3388 -4.2605 2.3790
0.4923 -4.2480 2.3790
0.6452 -4.2301 2.3790
0.7975 -4.2067 2.3790
0.9490 -4.1780 2.3790
1.0994 -4.1438 2.3790
1.2485 -4.1044 2.3790
1.3963 -4.0596 2.3790
1.5424 -4.0096 2.3790
1.6868 -3.9544 2.3790
1.8292 -3.8940 2.3790
1.9694 -3.8286 2.3790
2.1073 -3.7582 2.3790
2.2427 -3.6829 2.3790
2.3753 -3.6028 2.3790
2.5052 -3.5179 2.3790
2.6319 -3.4284 2.3790
2.7555 -3.3344 2.3790
2.8757 -3.2359 2.3790
2.9924 -3.1332 2.3790
3.1054 -3.0263 2.3790
3.2146 -2.9153 2.3790
3.3198 -2.8004 2.3790
3.4209 -2.6817 2.3790
3.5177 -2.5595 2.3790
3.6101 -2.4337 2.3790
3.6980 -2.3046 2.3790
3.7812 -2.1724 2.3790
3.8597 -2.0372 2.3790
3.9334 -1.8991 2.3790
4.0020 -1.7584 2.3790
4.0656 -1.6153 2.3790
4.1240 -1.4698 2.3790
4.1771 -1.3223 2.3790
4.2250 -1.1728 2.3790
4.2674 -1.0217 2.3790
4.3043 -0.8690 2.3790
4.3357 -0.7150 2.3790
4.3616 -0.5598 2.3790
4.3818 -0.4038 2.3790
4.3964 -0.2470 2.3790
4.4052 -0.0898 2.3790
4.4084 0.0678 2.3790
4.4059 0.2254 2.3790
4.3976 0.3829 2.3790
4.3836 0.5401 2.3790
4.3639 0.6967 2.3790
4.3385 0.8526 2.3790
4.3075 1.0075 2.3790
4.2708 1.1613 2.3790
4.2286 1.3137 2.3790
4.1808 1.4644 2.3790
4.1275 1.6134 2.3790
4.0688 1.7604 2.3790
4.0048 1.9052 2.3790
3.9356 2.0476 2.3790
3.8611 2.1874 2.3790
3.7816 2.3244 2.3790
3.6972 2.4585 2.3790
3.6079 2.5894 2.3790
3.5139 2.7170 2.3790
3.4152 2.8411 2.3790
3.3121 2.9616 2.3790
3.2047 3.0782 2.3790
3.0930 3.1908 2.3790
2.9774 3.2992 2.3790
2.8578 3.4034 2.3790
2.7345 3.5032 2.3790
2.6076 3.5983 2.3790
2.4774 3.6888 2.3790
0.9139 1.4717 0.9276
0.8609 1.5035 0.9278
0.8068 1.5333 0.9280
0.7516 1.5612 0.9282
0.6954 1.5871 0.9284
0.6384 1.6109 0.9287
0.5805 1.6327 0.9290
0.5218 1.6524 0.9293
0.4625 1.6700 0.9296
0.4026 1.6854 0.9299
0.3422 1.6986 0.9302
0.2813 1.7097 0.9305
0.2201 1.7186 0.9309
0.1585 1.7252 0.9313
0.0968 1.7297 0.9317
0.0350 1.7319 0.9321
-0.0269 1.7319 0.9325
-0.0887 1.7297 0.9329
-0.1505 1.7252 0.9333
-0.2120 1.7185 0.9338
-0.2732 1.7096 0.9342
-0.3341 1.6985 0.9347
-0.3946 1.6852 0.9351
-0.4545 1.6698 0.9356
-0.5138 1.6522 0.9361
-0.5725 1.6325 0.9366
-0.6304 1.6106 0.9371
-0.6875 1.5868 0.9376
-0.7437 1.5608 0.9381
-0.7989 1.5329 0.9386
-0.8531 1.5030 0.9391
-0.9061 1.4712 0.9396
-2.4241 3.6373 2.3790
-2.5508 3.5454 2.3790
-2.6740 3.4490 2.3790
-2.7936 3.3483 2.3790
-2.9094 3.2434 2.3790
-3.0214 3.1345 2.3790
-3.1292 3.0217 2.3790
-3.2329 2.9052 2.3790
-3.3323 2.7852 2.3790
-3.4272 2.6617 2.3790
-3.5177 2.5350 2.3790
-3.6034 2.4052 2.3790
-3.6844 2.2725 2.3790
-3.7606 2.1370 2.3790
-3.8318 1.9991 2.3790
-3.8980 1.8587 2.3790
-3.9592 1.7162 2.3790
-4.0152 1.5717 2.3790
-4.0659 1.4253 2.3790
-4.1114 1.2773 2.3790
-4.1516 1.1279 2.3790
-4.1864 0.9772 2.3790
-4.2158 0.8255 2.3790
-4.2398 0.6729 2.3790
-4.2583 0.5196 2.3790
-4.2714 0.3659 2.3790
-4.2790 0.2119 2.3790
-4.2811 0.0577 2.3790
-4.2778 -0.0963 2.3790
-4.2690 -0.2500 2.3790
-4.2547 -0.4033 2.3790
-4.2351 -0.5559 2.3790
-4.2101 -0.7077 2.3790
-4.1797 -0.8584 2.3790
-4.1441 -1.0078 2.3790
-4.1032 -1.1559 2.3790
-4.0571 -1.3024 2.3790
-4.0059 -1.4471 2.3790
-3.9496 -1.5899 2.3790
-3.8883 -1.7305 2.3790
-3.8221 -1.8689 2.3790
-3.7511 -2.0048 2.3790
-3.6754 -2.1381 2.3790
-3.5950 -2.2686 2.3790
-3.5101 -2.3961 2.3790
-3.4207 -2.5206 2.3790
-3.3271 -2.6418 2.3790
-3.2292 -2.7596 2.3790
-3.1272 -2.8739 2.3790
-3.0213 -2.9845 2.3790
-2.9116 -3.0913 2.3790
-2.7981 -3.1942 2.3790
-2.6812 -3.2930 2.3790
-2.5608 -3.3876 2.3790
-2.4371 -3.4779 2.3790
-2.3103 -3.5638 2.3790
-2.1806 -3.6452 2.3790
-2.0480 -3.7220 2.3790
-1.9129 -3.7941 2.3790
-1.7752 -3.8613 2.3790
-1.6353 -3.9237 2.3790
-1.4931 -3.9811 2.3790
-1.3491 -4.0335 2.3790
-1.2032 -4.0807 2.3790
-1.0557 -4.1228 2.3790
-0.9068 -4.1597 2.3790
-0.7566 -4.1913 2.3790
-0.6054 -4.2176 2.3790
-0.4533 -4.2385 2.3790
-0.3005 -4.2541 2.3790
-0.1471 -4.2642 2.3790
0.0065 -4.2689 2.3790
0.1603 -4.2682 2.3790
0.3140 -4.2620 2.3790
0.4675 -4.2504 2.3790
0.6205 -4.2334 2.3790
0.7730 -4.2109 2.3790
0.9246 -4.1830 2.3790
1.0751 -4.1497 2.3790
1.2245 -4.1111 2.3790
1.3725 -4.0672 2.3790
1.5190 -4.0180 2.3790
1.6636 -3.9637 2.3790
1.8063 -3.9041 2.3790
1.9469 -3.8395 2.3790
2.0852 -3.7699 2.3790
2.2210 -3.6954 2.3790
2.3541 -3.6161 2.3790
2.4844 -3.5319 2.3790
2.6117 -3.4432 2.3790
2.7358 -3.3499 2.3790
2.8565 -3.2521 2.3790
2.9738 -3.1501 2.3790
3.0874 -3.0438 2.3790
3.1972 -2.9335 2.3790
3.3031 -2.8192 2.3790
3.4048 -2.7012 2.3790
3.5023 -2.5795 2.3790
3.5955 -2.4542 2.3790
3.6841 -2.3257 2.3790
3.7681 -2.1940 2.3790
3.8474 -2.0592 2.3790
3.9218 -1.9216 2.3790
3.9913 -1.7813 2.3790
4.0557 -1.6386 2.3790
4.1149 -1.4935 2.3790
4.1689 -1.3463 2.3790
4.2176 -1.1971 2.3790
4.2609 -1.0462 2.3790
4.2987 -0.8937 2.3790
4.3310 -0.7399 2.3790
4.3578 -0.5850 2.3790
4.3789 -0.4291 2.3790
4.3944 -0.2724 2.3790
4.4042 -0.1152 2.3790
4.4083 0.0423 2.3790
4.4067 0.2000 2.3790
4.3993 0.3575 2.3790
4.3863 0.5147 2.3790
4.3675 0.6715 2.3790
4.3430 0.8275 2.3790
4.3129 0.9826 2.3790
4.2771 1.1365 2.3790
4.2358 1.2891 2.3790
4.1889 1.4402 2.3790
4.1365 1.5895 2.3790
4.0787 1.7368 2.3790
4.0155 1.8820 2.3790
3.9471 2.0247 2.3790
3.8735 2.1650 2.3790
3.7948 2.3025 2.3790
3.7112 2.4371 2.3790
3.6226 2.5685 2.3790
3.5294 2.6967 2.3790
3.4315 2.8213 2.3790
3.3291 2.9424 2.3790
3.2223 3.0596 2.3790
3.1113 3.1729 2.3790
2.9963 3.2820 2.3790
2.8774 3.3869 2.3790
2.7546 3.4874 2.3790
2.6284 3.5833 2.3790
2.4987 3.6745 2.3790
0.9224 1.4664 0.9276
0.8696 1.4985 0.9277
0.8156 1.5286 0.9279
0.7606 1.5568 0.9282
0.7045 1.5831 0.9284
0.6476 1.6072 0.9287
0.5899 1.6293 0.9289
0.5313 1.6494 0.9292
0.4721 1.6673 0.9295
0.4123 1.6831 0.9298
0.3520 1.6967 0.9301
0.2912 1.7081 0.9305
0.2300 1.7173 0.9308
0.1685 1.7243 0.9312
0.1068 1.7291 0.9316
0.0450 1.7317 0.9320
-0.0169 1.7320 0.9324
-0.0788 1.7302 0.9328
-0.1405 1.7261 0.9333
-0.2021 1.7197 0.9337
-0.2634 1.7112 0.9341
-0.3243 1.7005 0.9346
-0.3848 1.6875 0.9351
-0.4449 1.6724 0.9355
-0.5043 1.6552 0.9360
-0.5631 1.6358 0.9365
-0.6211 1.6143 0.9370
-0.6783 1.5908 0.9375
-0.7347 1.5652 0.9380
-0.7900 1.5375 0.9385
-0.8444 1.5080 0.9390
-0.8976 1.4764 0.9396
-2.4033 3.6517 2.3790
-2.5306 3.5605 2.3790
-2.6543 3.4648 2.3790
-2.7745 3.3648 2.3790
-2.8910 3.2606 2.3790
-3.0035 3.1524 2.3790
-3.1121 3.0402 2.3790
-3.2165 2.9243 2.3790
-3.3165 2.8048 2.3790
-3.4122 2.6818 2.3790
-3.5034 2.5556 2.3790
-3.5899 2.4263 2.3790
-3.6717 2.2941 2.3790
-3.7486 2.1591 2.3790
-3.8207 2.0215 2.3790
-3.8877 1.8815 2.3790
-3.9497 1.7394 2.3790
-4.0065 1.5951 2.3790
-4.0581 1.4491 2.3790
-4.1044 1.3013 2.3790
-4.1455 1.1521 2.3790
-4.1811 1.0016 2.3790
-4.2114 0.8501 2.3790
-4.2363 0.6976 2.3790
-4.2557 0.5444 2.3790
-4.2696 0.3908 2.3790
-4.2781 0.2368 2.3790
-4.2811 0.0826 2.3790
-4.2787 -0.0714 2.3790
-4.2708 -0.2252 2.3790
-4.2574 -0.3786 2.3790
-4.2386 -0.5313 2.3790
-4.2145 -0.6832 2.3790
-4.1850 -0.8341 2.3790
-4.1502 -0.9838 2.3790
-4.1101 -1.1321 2.3790
-4.0649 -1.2788 2.3790
-4.0145 -1.4239 2.3790
-3.9590 -1.5669 2.3790
-3.8985 -1.7079 2.3790
-3.8331 -1.8467 2.3790
-3.7629 -1.9830 2.3790
-3.6879 -2.1167 2.3790
-3.6083 -2.2477 2.3790
-3.5241 -2.3757 2.3790
-3.4355 -2.5007 2.3790
-3.3425 -2.6224 2.3790
-3.2453 -2.7408 2.3790
-3.1440 -2.8557 2.3790
-3.0387 -2.9669 2.3790
-2.9296 -3.0743 2.3790
-2.8167 -3.1778 2.3790
-2.7003 -3.2773 2.3790
-2.5804 -3.3726 2.3790
-2.4573 -3.4636 2.3790
-2.3310 -3.5503 2.3790
-2.2017 -3.6324 2.3790
-2.0696 -3.7099 2.3790
-1.9349 -3.7827 2.3790
-1.7976 -3.8508 2.3790
-1.6580 -3.9140 2.3790
-1.5162 -3.9722 2.3790
-1.3725 -4.0254 2.3790
-1.2269 -4.0735 2.3790
-1.0797 -4.1164 2.3790
-0.9310 -4.1541 2.3790
-0.7810 -4.1866 2.3790
-0.6299 -4.2137 2.3790
-0.4779 -4.2355 2.3790
-0.3252 -4.2519 2.3790
-0.1719 -4.2630 2.3790
-0.0183 -4.2685 2.3790
0.1355 -4.2687 2.3790
0.2892 -4.2634 2.3790
0.4428 -4.2527 2.3790
0.5959 -4.2365 2.3790
0.7484 -4.2149 2.3790
0.9001 -4.1879 2.3790
1.0509 -4.1555 2.3790
1.2005 -4.1177 2.3790
1.3487 -4.0747 2.3790
1.4954 -4.0263 2.3790
1.6404 -3.9728 2.3790
1.7834 -3.9141 2.3790
1.9244 -3.8503 2.3790
2.0630 -3.7815 2.3790
2.1992 -3.7078 2.3790
2.3328 -3.6292 2.3790
2.4635 -3.5459 2.3790
2.5913 -3.4578 2.3790
2.7159 -3.3653 2.3790
2.8373 -3.2682 2.3790
2.9551 -3.1668 2.3790
3.0693 -3.0613 2.3790
3.1797 -2.9516 2.3790
3.2862 -2.8379 2.3790
3.3887 -2.7205 2.3790
3.4869 -2.5994 2.3790
3.5807 -2.4747 2.3790
3.6701 -2.3467 2.3790
3.7549 -2.2155 2.3790
3.8349 -2.0812 2.3790
-2.9525 -2.7450 2.3790
-2.8514 -2.8495 2.3790
-2.7466 -2.9503 2.3790
-2.6383 -3.0474 2.3790
-2.5267 -3.1406 2.3790
-2.4119 -3.2297 2.3790
-2.2940 -3.3148 2.3790
-2.1732 -3.3957 2.3790
-2.0495 -3.4723 2.3790
-1.9233 -3.5444 2.3790
-1.7945 -3.6121 2.3790
-1.6634 -3.6752 2.3790
-1.5302 -3.7336 2.3790
-1.3949 -3.7873 2.3790
-1.2579 -3.8362 2.3790
-1.1191 -3.8802 2.3790
-0.9788 -3.9194 2.3790
-0.8372 -3.9535 2.3790
-0.6945 -3.9826 2.3790
-0.5507 -4.0067 2.3790
-0.4062 -4.0257 2.3790
-0.2610 -4.0395 2.3790
-0.1154 -4.0483 2.3790
0.0305 -4.0518 2.3790
0.1765 -4.0502 2.3790
0.3224 -4.0434 2.3790
0.4680 -4.0315 2.3790
0.6132 -4.0143 2.3790
0.7577 -3.9921 2.3790
0.9015 -3.9647 2.3790
1.0442 -3.9322 2.3790
1.1858 -3.8946 2.3790
1.3259 -3.8520 2.3790
1.4646 -3.8045 2.3790
1.6016 -3.7520 2.3790
1.7367 -3.6946 2.3790
1.8697 -3.6324 2.3790
2.0005 -3.5655 2.3790
2.1289 -3.4939 2.3790
2.2547 -3.4178 2.3790
2.3778 -3.3371 2.3790
2.4980 -3.2521 2.3790
2.6152 -3.1628 2.3790
2.7292 -3.0693 2.3790
2.8398 -2.9717 2.3790
2.9469 -2.8702 2.3790
3.0504 -2.7648 2.3790
3.1501 -2.6557 2.3790
3.2459 -2.5431 2.3790
3.3376 -2.4270 2.3790
3.4252 -2.3076 2.3790
3.5084 -2.1851 2.3790
3.5873 -2.0596 2.3790
3.6616 -1.9313 2.3790
3.7313 -1.8003 2.3790
3.7963 -1.6668 2.3790
3.8565 -1.5310 2.3790
3.9118 -1.3930 2.3790
3.9620 -1.2531 2.3790
4.0073 -1.1113 2.3790
4.0474 -0.9679 2.3790
4.0823 -0.8231 2.3790
4.1120 -0.6770 2.3790
4.1364 -0.5299 2.3790
4.1554 -0.3820 2.3790
4.1691 -0.2333 2.3790
4.1774 -0.0842 2.3790
4.1803 0.0652 2.3790
4.1778 0.2146 2.3790
4.1699 0.3639 2.3790
4.1565 0.5129 2.3790
4.1378 0.6614 2.3790
4.1136 0.8092 2.3790
4.0841 0.9560 2.3790
4.0492 1.1017 2.3790
4.0091 1.2462 2.3790
3.9637 1.3890 2.3790
3.9132 1.5302 2.3790
3.8575 1.6695 2.3790
3.7968 1.8068 2.3790
3.7311 1.9417 2.3790
3.6605 2.0742 2.3790
3.5851 2.2041 2.3790
3.5050 2.3311 2.3790
3.4204 2.4552 2.3790
3.3312 2.5761 2.3790
3.2377 2.6937 2.3790
3.1400 2.8079 2.3790
3.0381 2.9184 2.3790
2.9323 3.0251 2.3790
2.8227 3.1279 2.3790
2.7093 3.2266 2.3790
2.5925 3.3211 2.3790
2.4723 3.4114 2.3790
0.9164 1.3643 0.9281
0.8672 1.3963 0.9283
0.8169 1.4264 0.9285
0.7655 1.4547 0.9287
0.7132 1.4811 0.9289
0.6599 1.5057 0.9291
0.6058 1.5283 0.9293
0.5509 1.5490 0.9296
0.4952 1.5676 0.9299
0.4390 1.5843 0.9302
0.3822 1.5989 0.9305
0.3248 1.6115 0.9308
0.2671 1.6220 0.9311
0.2090 1.6304 0.9314
0.1507 1.6367 0.9318
0.0921 1.6409 0.9322
0.0335 1.6430 0.9325
-0.0252 1.6430 0.9329
-0.0839 1.6409 0.9333
-0.1424 1.6366 0.9337
-0.2008 1.6303 0.9341
-0.2589 1.6218 0.9346
-0.3166 1.6113 0.9350
-0.3739 1.5987 0.9355
-0.4308 1.5841 0.9359
-0.4870 1.5674 0.9364
-0.5427 1.5487 0.9368
-0.5976 1.5280 0.9373
-0.6517 1.5053 0.9378
-0.7050 1.4807 0.9383
-0.7574 1.4542 0.9387
-0.8088 1.4259 0.9392
-0.8591 1.3957 0.9397
-0.9083 1.3637 0.9402
-2.4185 3.3635 2.3790
-2.5355 3.2722 2.3790
-2.6490 3.1767 2.3790
-2.7590 3.0774 2.3790
-2.8652 2.9742 2.3790
-2.9676 2.8673 2.3790
-3.0661 2.7569 2.3790
-3.1605 2.6431 2.3790
-3.2506 2.5260 2.3790
-3.3365 2.4058 2.3790
-3.4180 2.2828 2.3790
-3.4950 2.1570 2.3790
-3.5673 2.0285 2.3790
-3.6350 1.8977 2.3790
-3.6980 1.7646 2.3790
-3.7561 1.6294 2.3790
