ply
format ascii 1.0
element vertex 2179
property float32 x
property float32 y
property float32 z
end_header
5.1188 -6.8912 2.3914
5.3409 -6.6729 2.3914
5.5548 -6.4483 2.3914
5.7603 -6.2177 2.3914
5.9573 -5.9815 2.3914
6.1458 -5.7400 2.3914
6.3256 -5.4934 2.3914
6.4966 -5.2421 2.3914
6.6588 -4.9862 2.3914
6.8121 -4.7262 2.3914
6.9564 -4.4622 2.3914
7.0918 -4.1946 2.3914
7.2180 -3.9236 2.3914
7.3352 -3.6495 2.3914
7.4433 -3.3725 2.3914
7.5423 -3.0930 2.3914
7.6320 -2.8111 2.3914
7.7125 -2.5272 2.3914
7.7838 -2.2414 2.3914
7.8459 -1.9541 2.3914
7.8988 -1.6655 2.3914
7.9424 -1.3758 2.3914
7.9768 -1.0853 2.3914
8.0020 -0.7942 2.3914
8.0180 -0.5029 2.3914
8.0247 -0.2113 2.3914
8.0223 0.0801 2.3914
8.0106 0.3711 2.3914
7.9899 0.6614 2.3914
7.9599 0.9510 2.3914
7.9209 1.2394 2.3914
7.8728 1.5265 2.3914
7.8156 1.8121 2.3914
7.7495 2.0959 2.3914
7.6743 2.3777 2.3914
7.5902 2.6572 2.3914
7.4973 2.9342 2.3914
7.3955 3.2085 2.3914
7.2849 3.4798 2.3914
7.1656 3.7479 2.3914
7.0376 4.0126 2.3914
6.9011 4.2735 2.3914
6.7560 4.5306 2.3914
6.6024 4.7835 2.3914
6.4405 5.0319 2.3914
6.2702 5.2757 2.3914
6.0918 5.5146 2.3914
5.9052 5.7483 2.3914
5.7107 5.9766 2.3914
5.5082 6.1993 2.3914
5.2980 6.4160 2.3914
5.0801 6.6265 2.3914
4.8547 6.8307 2.3914
4.6219 7.0281 2.3914
4.3818 7.2185 2.3914
4.1347 7.4018 2.3914
3.8806 7.5775 2.3914
3.6198 7.7455 2.3914
3.3524 7.9055 2.3914
3.0787 8.0573 2.3914
2.7988 8.2005 2.3914
2.5129 8.3349 2.3914
2.2214 8.4602 2.3914
0.7995 3.5632 0.9936
0.6710 3.5913 0.9891
0.5415 3.6148 0.9846
0.4112 3.6336 0.9801
0.2803 3.6476 0.9755
0.1489 3.6569 0.9708
0.0174 3.6614 0.9661
-0.1143 3.6611 0.9614
-0.2459 3.6561 0.9567
-0.3772 3.6463 0.9519
-0.5081 3.6317 0.9471
-0.6384 3.6124 0.9423
-0.7678 3.5884 0.9375
-0.8964 3.5597 0.9327
-2.6384 9.0882 2.3914
-2.9787 9.0369 2.3914
-3.3187 8.9730 2.3914
-3.6578 8.8964 2.3914
-3.9956 8.8070 2.3914
-2.0933 -9.4814 2.3914
-1.7431 -9.4992 2.3914
-1.3942 -9.5041 2.3914
-1.0471 -9.4963 2.3914
-0.7022 -9.4760 2.3914
-0.3600 -9.4435 2.3914
-0.0210 -9.3989 2.3914
0.3145 -9.3425 2.3914
0.6460 -9.2745 2.3914
0.9733 -9.1953 2.3914
1.2958 -9.1051 2.3914
1.6134 -9.0041 2.3914
1.9256 -8.8927 2.3914
2.2322 -8.7711 2.3914
2.5329 -8.6398 2.3914
2.8273 -8.4988 2.3914
3.1154 -8.3486 2.3914
3.3967 -8.1895 2.3914
3.6710 -8.0217 2.3914
3.9382 -7.8456 2.3914
4.1981 -7.6616 2.3914
4.4504 -7.4698 2.3914
4.6951 -7.2706 2.3914
4.9319 -7.0643 2.3914
5.1606 -6.8512 2.3914
5.3812 -6.6317 2.3914
5.5936 -6.4059 2.3914
5.7975 -6.1743 2.3914
5.9929 -5.9371 2.3914
6.1798 -5.6946 2.3914
6.3580 -5.4471 2.3914
6.5273 -5.1949 2.3914
6.6879 -4.9383 2.3914
6.8395 -4.6775 2.3914
6.9822 -4.4128 2.3914
7.1159 -4.1445 2.3914
7.2404 -3.8728 2.3914
7.3560 -3.5983 2.3914
7.4622 -3.3204 2.3914
7.5596 -3.0409 2.3914
7.6476 -2.7586 2.3914
7.7264 -2.4743 2.3914
7.7961 -2.1882 2.3914
7.8564 -1.9007 2.3914
7.9076 -1.6118 2.3914
7.9495 -1.3220 2.3914
7.9822 -1.0313 2.3914
8.0057 -0.7402 2.3914
8.0200 -0.4489 2.3914
8.0250 -0.1572 2.3914
8.0208 0.1341 2.3914
8.0075 0.4250 2.3914
7.9850 0.7152 2.3914
7.9534 1.0046 2.3914
7.9127 1.2928 2.3914
7.8629 1.5797 2.3914
7.8040 1.8649 2.3914
7.7362 2.1484 2.3914
7.6594 2.4297 2.3914
7.5737 2.7088 2.3914
7.4791 2.9853 2.3914
7.3756 3.2591 2.3914
7.2634 3.5298 2.3914
7.1425 3.7973 2.3914
7.0129 4.0613 2.3914
6.8748 4.3216 2.3914
6.7281 4.5779 2.3914
6.5730 4.8299 2.3914
6.4095 5.0775 2.3914
6.2377 5.3204 2.3914
6.0578 5.5584 2.3914
5.8697 5.7911 2.3914
5.6737 6.0184 2.3914
5.4698 6.2400 2.3914
5.2581 6.4556 2.3914
5.0388 6.6649 2.3914
4.8120 6.8678 2.3914
4.5778 7.0640 2.3914
4.3365 7.2531 2.3914
4.0880 7.4350 2.3914
3.8327 7.6093 2.3914
3.5706 7.7758 2.3914
3.3021 7.9343 2.3914
3.0272 8.0845 2.3914
2.7462 8.2261 2.3914
2.4593 8.3588 2.3914
0.9034 3.5368 0.9971
0.7757 3.5687 0.9927
0.6470 3.5960 0.9883
0.5173 3.6186 0.9838
0.3869 3.6365 0.9792
0.2559 3.6497 0.9746
0.1245 3.6581 0.9700
-0.0071 3.6617 0.9653
-0.1387 3.6606 0.9605
-0.2703 3.6546 0.9558
-0.4015 3.6440 0.9510
-0.5323 3.6285 0.9462
-0.6625 3.6083 0.9414
-0.7918 3.5835 0.9366
-0.9201 3.5539 0.9318
-2.7016 9.0796 2.3914
-3.0419 9.0260 2.3914
-3.3817 8.9597 2.3914
-3.7206 8.8808 2.3914
-4.0581 8.7890 2.3914
-3.2852 8.1238 2.3914
-3.5919 8.0409 2.3914
-3.8966 7.9463 2.3914
-4.1990 7.8401 2.3914
-4.4986 7.7222 2.3914
-4.7948 7.5927 2.3914
-5.0872 7.4516 2.3914
-5.3754 7.2990 2.3914
-5.6587 7.1349 2.3914
-5.9367 6.9595 2.3914
-6.2088 6.7729 2.3914
-6.4746 6.5752 2.3914
-6.7336 6.3667 2.3914
-6.9852 6.1476 2.3914
-7.2289 5.9180 2.3914
-7.4643 5.6784 2.3914
-7.6908 5.4288 2.3914
-7.9080 5.1698 2.3914
-8.1154 4.9015 2.3914
-8.3126 4.6245 2.3914
-8.4991 4.3391 2.3914
-8.6744 4.0456 2.3914
-8.8383 3.7447 2.3914
-8.9902 3.4367 2.3914
-9.1299 3.1221 2.3914
-9.2570 2.8016 2.3914
-9.3711 2.4755 2.3914
-8.5568 -4.5577 2.3914
-8.3711 -4.8491 2.3914
-8.1741 -5.1322 2.3914
-7.9662 -5.4066 2.3914
-7.7478 -5.6718 2.3914
-7.5194 -5.9274 2.3914
-7.2816 -6.1730 2.3914
-7.0347 -6.4083 2.3914
-6.7793 -6.6330 2.3914
-6.5160 -6.8468 2.3914
-6.2452 -7.0494 2.3914
-5.9675 -7.2406 2.3914
-5.6834 -7.4202 2.3914
-5.3935 -7.5879 2.3914
-5.0984 -7.7438 2.3914
-4.7985 -7.8876 2.3914
-4.4943 -8.0193 2.3914
-4.1866 -8.1386 2.3914
-3.8757 -8.2459 2.3914
-3.5622 -8.3408 2.3914
-3.2467 -8.4235 2.3914
-2.9296 -8.4939 2.3914
-2.6114 -8.5523 2.3914
-2.2926 -8.5984 2.3914
-1.9737 -8.6326 2.3914
-1.6553 -8.6549 2.3914
-1.3376 -8.6654 2.3914
-1.0213 -8.6644 2.3914
-0.7066 -8.6518 2.3914
-0.3940 -8.6281 2.3914
-0.0839 -8.5932 2.3914
0.2232 -8.5475 2.3914
0.5271 -8.4911 2.3914
0.8274 -8.4242 2.3914
1.1237 -8.3471 2.3914
1.4158 -8.2601 2.3914
1.7033 -8.1633 2.3914
1.9858 -8.0571 2.3914
2.2632 -7.9415 2.3914
2.5352 -7.8172 2.3914
2.8016 -7.6842 2.3914
3.0619 -7.5426 2.3914
3.3162 -7.3930 2.3914
3.5640 -7.2355 2.3914
3.8054 -7.0704 2.3914
4.0399 -6.8980 2.3914
4.2676 -6.7185 2.3914
4.4882 -6.5323 2.3914
4.7015 -6.3396 2.3914
4.9074 -6.1408 2.3914
5.1058 -5.9359 2.3914
5.2966 -5.7255 2.3914
5.4797 -5.5096 2.3914
5.6548 -5.2887 2.3914
5.8221 -5.0629 2.3914
5.9812 -4.8325 2.3914
6.1323 -4.5979 2.3914
6.2752 -4.3592 2.3914
6.4098 -4.1167 2.3914
6.5360 -3.8707 2.3914
6.6540 -3.6214 2.3914
6.7635 -3.3691 2.3914
6.8645 -3.1141 2.3914
6.9570 -2.8565 2.3914
7.0410 -2.5967 2.3914
7.1165 -2.3348 2.3914
7.1833 -2.0712 2.3914
7.2416 -1.8060 2.3914
7.2913 -1.5396 2.3914
7.3324 -1.2721 2.3914
7.3648 -1.0037 2.3914
7.3887 -0.7348 2.3914
7.4039 -0.4655 2.3914
7.4106 -0.1961 2.3914
7.4086 0.0732 2.3914
7.3981 0.3422 2.3914
7.3790 0.6106 2.3914
7.3514 0.8783 2.3914
7.3153 1.1449 2.3914
7.2706 1.4103 2.3914
7.2176 1.6742 2.3914
7.1561 1.9364 2.3914
7.0863 2.1968 2.3914
7.0081 2.4549 2.3914
6.9216 2.7107 2.3914
6.8269 2.9639 2.3914
6.7241 3.2143 2.3914
6.6131 3.4616 2.3914
6.4940 3.7056 2.3914
6.3670 3.9461 2.3914
6.2320 4.1829 2.3914
6.0892 4.4157 2.3914
5.9386 4.6443 2.3914
5.7804 4.8684 2.3914
5.6146 5.0879 2.3914
5.4413 5.3025 2.3914
5.2607 5.5119 2.3914
5.0727 5.7159 2.3914
4.8776 5.9144 2.3914
4.6756 6.1069 2.3914
4.4666 6.2934 2.3914
4.2509 6.4735 2.3914
4.0286 6.6471 2.3914
3.7998 6.8139 2.3914
3.5648 6.9735 2.3914
3.3237 7.1259 2.3914
3.0766 7.2708 2.3914
2.8239 7.4079 2.3914
2.5656 7.5370 2.3914
2.3020 7.6578 2.3914
0.8443 3.2264 0.9930
0.7278 3.2563 0.9890
0.6103 3.2820 0.9850
0.4919 3.3035 0.9808
0.3728 3.3206 0.9767
0.2532 3.3334 0.9725
0.1332 3.3419 0.9682
0.0129 3.3460 0.9639
-0.1074 3.3457 0.9596
-0.2277 3.3411 0.9553
-0.3477 3.3321 0.9509
-0.4673 3.3188 0.9465
-0.5863 3.3012 0.9422
-0.7047 3.2792 0.9378
-0.8222 3.2530 0.9334
-2.4161 8.2954 2.3914
-2.7256 8.2448 2.3914
-3.0344 8.1828 2.3914
-3.3423 8.1093 2.3914
-3.6486 8.0242 2.3914
-3.9529 7.9275 2.3914
-4.2548 7.8191 2.3914
-4.5538 7.6990 2.3914
-4.8494 7.5674 2.3914
-5.1411 7.4241 2.3914
-5.4283 7.2694 2.3914
-5.7107 7.1032 2.3914
-5.9876 6.9257 2.3914
-6.2586 6.7370 2.3914
-6.5232 6.5374 2.3914
-6.7808 6.3269 2.3914
-7.0310 6.1058 2.3914
-7.2732 5.8743 2.3914
-7.5070 5.6328 2.3914
-7.7318 5.3815 2.3914
-7.9473 5.1207 2.3914
-8.1528 4.8508 2.3914
-8.3480 4.5720 2.3914
-8.5325 4.2852 2.3914
-8.7057 3.9903 2.3914
-8.8674 3.6880 2.3914
-9.0171 3.3788 2.3914
-9.1545 3.0631 2.3914
-9.2792 2.7414 2.3914
-9.3909 2.4144 2.3914
-8.5232 -4.6124 2.3914
-8.3354 -4.9023 2.3914
-8.1363 -5.1838 2.3914
-7.9264 -5.4565 2.3914
-7.7061 -5.7200 2.3914
-7.4760 -5.9737 2.3914
-7.2364 -6.2175 2.3914
-6.9879 -6.4509 2.3914
-6.7310 -6.6735 2.3914
-6.4663 -6.8853 2.3914
-6.1942 -7.0858 2.3914
-5.9152 -7.2748 2.3914
-5.6300 -7.4522 2.3914
-5.3391 -7.6178 2.3914
-5.0430 -7.7714 2.3914
-4.7423 -7.9129 2.3914
-4.4375 -8.0423 2.3914
-4.1291 -8.1595 2.3914
-3.8177 -8.2644 2.3914
-3.5038 -8.3571 2.3914
-3.1879 -8.4375 2.3914
-2.8705 -8.5058 2.3914
-2.5522 -8.5617 2.3914
-2.2334 -8.6056 2.3914
-1.9146 -8.6376 2.3914
-1.5962 -8.6577 2.3914
-1.2788 -8.6661 2.3914
-0.9627 -8.6629 2.3914
-0.6484 -8.6483 2.3914
-0.3363 -8.6224 2.3914
-0.0267 -8.5855 2.3914
0.2799 -8.5378 2.3914
0.5831 -8.4794 2.3914
0.8827 -8.4107 2.3914
1.1783 -8.3317 2.3914
1.4695 -8.2429 2.3914
1.7561 -8.1443 2.3914
2.0377 -8.0363 2.3914
2.3142 -7.9192 2.3914
2.5851 -7.7932 2.3914
2.8503 -7.6585 2.3914
3.1096 -7.5155 2.3914
3.3627 -7.3644 2.3914
3.6093 -7.2054 2.3914
3.8494 -7.0389 2.3914
4.0827 -6.8652 2.3914
4.3091 -6.6845 2.3914
4.5283 -6.4970 2.3914
4.7402 -6.3032 2.3914
4.9448 -6.1032 2.3914
5.1418 -5.8973 2.3914
5.3312 -5.6858 2.3914
5.5128 -5.4690 2.3914
5.6865 -5.2471 2.3914
5.8522 -5.0205 2.3914
6.0099 -4.7893 2.3914
6.1594 -4.5539 2.3914
6.3008 -4.3144 2.3914
6.4338 -4.0713 2.3914
6.5586 -3.8246 2.3914
6.6749 -3.5748 2.3914
6.7828 -3.3220 2.3914
6.8823 -3.0664 2.3914
6.9732 -2.8084 2.3914
7.0557 -2.5482 2.3914
7.1295 -2.2860 2.3914
7.1948 -2.0221 2.3914
7.2515 -1.7567 2.3914
7.2996 -1.4900 2.3914
7.3390 -1.2223 2.3914
7.3699 -0.9539 2.3914
7.3922 -0.6848 2.3914
7.4058 -0.4155 2.3914
7.4109 -0.1461 2.3914
7.4073 0.1232 2.3914
7.3952 0.3921 2.3914
7.3745 0.6604 2.3914
7.3453 0.9279 2.3914
7.3076 1.1943 2.3914
7.2614 1.4594 2.3914
7.2068 1.7230 2.3914
7.1438 1.9849 2.3914
7.0724 2.2448 2.3914
6.9927 2.5026 2.3914
6.9047 2.7579 2.3914
6.8084 3.0106 2.3914
6.7041 3.2604 2.3914
6.5916 3.5071 2.3914
6.4710 3.7505 2.3914
6.3425 3.9904 2.3914
6.2061 4.2264 2.3914
6.0618 4.4584 2.3914
5.9099 4.6862 2.3914
5.7502 4.9095 2.3914
5.5830 5.1281 2.3914
5.4083 5.3417 2.3914
5.2263 5.5502 2.3914
5.0371 5.7532 2.3914
4.8407 5.9506 2.3914
4.6373 6.1420 2.3914
4.4271 6.3273 2.3914
4.2101 6.5063 2.3914
3.9866 6.6786 2.3914
3.7567 6.8440 2.3914
3.5205 7.0024 2.3914
3.2783 7.1534 2.3914
3.0301 7.2968 2.3914
2.7763 7.4325 2.3914
2.5171 7.5600 2.3914
2.2525 7.6793 2.3914
0.8228 3.2323 0.9923
0.7061 3.2614 0.9883
0.5884 3.2863 0.9842
0.4699 3.3070 0.9801
0.3507 3.3233 0.9759
0.2310 3.3353 0.9717
0.1109 3.3429 0.9674
-0.0094 3.3462 0.9631
-0.1297 3.3452 0.9588
-0.2500 3.3398 0.9545
-0.3699 3.3300 0.9501
-0.4894 3.3159 0.9457
-0.6084 3.2974 0.9413
-0.7266 3.2747 0.9370
-0.8438 3.2477 0.9326
-2.4736 8.2868 2.3914
-2.7830 8.2342 2.3914
-3.0916 8.1701 2.3914
-3.3992 8.0944 2.3914
-3.7052 8.0071 2.3914
-4.0091 7.9082 2.3914
-4.3105 7.7977 2.3914
-4.6089 7.6755 2.3914
-4.9038 7.5417 2.3914
-5.1947 7.3963 2.3914
-5.4811 7.2394 2.3914
-5.7625 7.0711 2.3914
-6.0384 6.8915 2.3914
-6.3082 6.7008 2.3914
-6.5715 6.4991 2.3914
-6.8278 6.2866 2.3914
-7.0766 6.0636 2.3914
-7.3172 5.8302 2.3914
-7.5494 5.5869 2.3914
-7.7725 5.3338 2.3914
-7.9862 5.0713 2.3914
-8.1898 4.7997 2.3914
-8.3831 4.5195 2.3914
-8.5655 4.2310 2.3914
-8.7366 3.9348 2.3914
-8.8961 3.6312 2.3914
-9.0435 3.3207 2.3914
-9.1785 3.0038 2.3914
-9.3009 2.6811 2.3914
-9.4102 2.3532 2.3914
-3.0227 7.4561 2.3914
-3.3029 7.3772 2.3914
-3.5812 7.2876 2.3914
-3.8572 7.1875 2.3914
-4.1303 7.0767 2.3914
-4.4002 6.9554 2.3914
-4.6664 6.8236 2.3914
-4.9285 6.6813 2.3914
-5.1860 6.5288 2.3914
-5.4385 6.3660 2.3914
-5.6855 6.1931 2.3914
-5.9265 6.0102 2.3914
-6.1612 5.8176 2.3914
-6.3890 5.6155 2.3914
-6.6096 5.4040 2.3914
-6.8224 5.1835 2.3914
-7.0271 4.9541 2.3914
-7.2233 4.7163 2.3914
-7.4104 4.4702 2.3914
-7.5882 4.2163 2.3914
-7.7563 3.9550 2.3914
-7.9142 3.6866 2.3914
-8.0616 3.4114 2.3914
-8.1983 3.1301 2.3914
-8.3238 2.8429 2.3914
-8.4379 2.5504 2.3914
-8.5403 2.2530 2.3914
-8.6308 1.9513 2.3914
-8.7091 1.6458 2.3914
-8.7751 1.3369 2.3914
-8.8286 1.0253 2.3914
-8.8694 0.7114 2.3914
-8.8974 0.3959 2.3914
-8.9126 0.0793 2.3914
-8.9148 -0.2378 2.3914
-8.9042 -0.5548 2.3914
-8.8806 -0.8713 2.3914
-8.8441 -1.1865 2.3914
-8.7947 -1.5000 2.3914
-8.7327 -1.8111 2.3914
-8.6580 -2.1193 2.3914
-8.5709 -2.4241 2.3914
-8.4714 -2.7249 2.3914
-8.3600 -3.0211 2.3914
-8.2367 -3.3124 2.3914
-8.1019 -3.5980 2.3914
-7.9558 -3.8776 2.3914
-7.7987 -4.1507 2.3914
-7.6310 -4.4168 2.3914
-7.4530 -4.6755 2.3914
-7.2651 -4.9265 2.3914
-7.0677 -5.1692 2.3914
-6.8612 -5.4034 2.3914
-6.6461 -5.6287 2.3914
-6.4227 -5.8447 2.3914
-6.1915 -6.0513 2.3914
-5.9529 -6.2481 2.3914
-5.7075 -6.4348 2.3914
-5.4557 -6.6113 2.3914
-5.1980 -6.7774 2.3914
-4.9348 -6.9329 2.3914
-4.6666 -7.0776 2.3914
-4.3940 -7.2114 2.3914
-4.1174 -7.3343 2.3914
-3.8373 -7.4462 2.3914
-3.5541 -7.5469 2.3914
-3.2684 -7.6366 2.3914
-2.9806 -7.7151 2.3914
-2.6911 -7.7826 2.3914
-2.4005 -7.8388 2.3914
-2.1092 -7.8841 2.3914
-1.8175 -7.9184 2.3914
-1.5259 -7.9419 2.3914
-1.2349 -7.9546 2.3914
-0.9448 -7.9566 2.3914
-0.6561 -7.9482 2.3914
-0.3691 -7.9294 2.3914
-0.0842 -7.9003 2.3914
0.1983 -7.8612 2.3914
0.4780 -7.8123 2.3914
0.7545 -7.7536 2.3914
1.0277 -7.6855 2.3914
1.2971 -7.6082 2.3914
1.5624 -7.5218 2.3914
1.8234 -7.4266 2.3914
2.0799 -7.3227 2.3914
2.3315 -7.2105 2.3914
2.5780 -7.0902 2.3914
2.8192 -6.9620 2.3914
3.0549 -6.8261 2.3914
3.2848 -6.6828 2.3914
3.5088 -6.5324 2.3914
3.7267 -6.3751 2.3914
3.9382 -6.2112 2.3914
4.1434 -6.0408 2.3914
4.3419 -5.8643 2.3914
4.5336 -5.6820 2.3914
4.7185 -5.4940 2.3914
4.8964 -5.3006 2.3914
5.0671 -5.1021 2.3914
5.2306 -4.8987 2.3914
5.3868 -4.6907 2.3914
5.5355 -4.4783 2.3914
5.6767 -4.2618 2.3914
5.8103 -4.0414 2.3914
5.9363 -3.8174 2.3914
6.0545 -3.5900 2.3914
6.1650 -3.3594 2.3914
6.2676 -3.1260 2.3914
6.3624 -2.8899 2.3914
6.4492 -2.6513 2.3914
6.5281 -2.4105 2.3914
6.5989 -2.1678 2.3914
6.6618 -1.9234 2.3914
6.7167 -1.6774 2.3914
6.7635 -1.4302 2.3914
6.8022 -1.1819 2.3914
6.8329 -0.9328 2.3914
6.8555 -0.6831 2.3914
6.8701 -0.4331 2.3914
6.8766 -0.1829 2.3914
6.8750 0.0673 2.3914
6.8654 0.3171 2.3914
6.8478 0.5665 2.3914
6.8222 0.8151 2.3914
6.7886 1.0627 2.3914
6.7470 1.3092 2.3914
6.6976 1.5543 2.3914
6.6402 1.7978 2.3914
6.5750 2.0395 2.3914
6.5020 2.2791 2.3914
6.4213 2.5165 2.3914
6.3328 2.7514 2.3914
6.2368 2.9836 2.3914
6.1331 3.2129 2.3914
6.0219 3.4390 2.3914
5.9033 3.6619 2.3914
5.7772 3.8811 2.3914
5.6439 4.0966 2.3914
5.5033 4.3080 2.3914
5.3557 4.5153 2.3914
5.2010 4.7180 2.3914
5.0393 4.9162 2.3914
4.8709 5.1094 2.3914
4.6957 5.2975 2.3914
4.5139 5.4803 2.3914
4.3257 5.6575 2.3914
4.1311 5.8289 2.3914
3.9303 5.9944 2.3914
3.7235 6.1536 2.3914
3.5108 6.3064 2.3914
3.2924 6.4525 2.3914
3.0684 6.5917 2.3914
2.8390 6.7239 2.3914
2.6045 6.8487 2.3914
2.3649 6.9660 2.3914
0.8800 2.9362 0.9924
0.7739 2.9676 0.9888
0.6668 2.9951 0.9851
0.5587 3.0187 0.9814
0.4498 3.0384 0.9776
0.3402 3.0541 0.9738
0.2302 3.0659 0.9699
0.1198 3.0736 0.9660
0.0091 3.0774 0.9621
-0.1015 3.0771 0.9581
-0.2122 3.0729 0.9541
-0.3225 3.0646 0.9501
-0.4326 3.0524 0.9461
-0.5421 3.0361 0.9420
-0.6509 3.0159 0.9380
-0.7590 2.9918 0.9340
-0.8661 2.9638 0.9299
-2.5106 7.5724 2.3914
-2.7933 7.5126 2.3914
-3.0748 7.4423 2.3914
-3.3547 7.3614 2.3914
-3.6326 7.2698 2.3914
-3.9081 7.1677 2.3914
-4.1806 7.0550 2.3914
-4.4499 6.9317 2.3914
-4.7154 6.7980 2.3914
-4.9766 6.6538 2.3914
-5.2333 6.4993 2.3914
-5.4848 6.3346 2.3914
-5.7307 6.1599 2.3914
-5.9706 5.9752 2.3914
-6.2040 5.7808 2.3914
-6.4305 5.5769 2.3914
-6.6497 5.3637 2.3914
-6.8611 5.1416 2.3914
-7.0642 4.9106 2.3914
-7.2587 4.6712 2.3914
-7.4441 4.4237 2.3914
-7.6202 4.1684 2.3914
-7.7863 3.9057 2.3914
-7.9423 3.6360 2.3914
-8.0878 3.3597 2.3914
-8.2224 3.0772 2.3914
-8.3458 2.7890 2.3914
-8.4578 2.4956 2.3914
-8.5580 2.1973 2.3914
-8.6462 1.8949 2.3914
-8.7223 1.5887 2.3914
-8.7860 1.2793 2.3914
-8.8371 0.9672 2.3914
-8.8755 0.6530 2.3914
-8.9012 0.3372 2.3914
-8.9140 0.0205 2.3914
-8.9138 -0.2966 2.3914
-8.9008 -0.6136 2.3914
-8.8748 -0.9299 2.3914
-8.8359 -1.2449 2.3914
-8.7842 -1.5579 2.3914
-8.7197 -1.8686 2.3914
-8.6428 -2.1762 2.3914
-8.5533 -2.4803 2.3914
-8.4517 -2.7802 2.3914
-8.3380 -3.0756 2.3914
-8.2125 -3.3658 2.3914
-8.0756 -3.6504 2.3914
-7.9274 -3.9288 2.3914
-7.7683 -4.2006 2.3914
-7.5987 -4.4654 2.3914
-7.4188 -4.7227 2.3914
-7.2292 -4.9722 2.3914
-7.0301 -5.2133 2.3914
-6.8219 -5.4459 2.3914
-6.6052 -5.6695 2.3914
-6.3803 -5.8838 2.3914
-6.1477 -6.0886 2.3914
-5.9079 -6.2835 2.3914
-5.6612 -6.4684 2.3914
-5.4083 -6.6429 2.3914
-5.1495 -6.8071 2.3914
-4.8854 -6.9606 2.3914
-4.6163 -7.1034 2.3914
-4.3430 -7.2351 2.3914
-4.0657 -7.3559 2.3914
-3.7850 -7.4657 2.3914
-3.5013 -7.5644 2.3914
-3.2152 -7.6520 2.3914
-2.9270 -7.7284 2.3914
-2.6373 -7.7938 2.3914
-2.3465 -7.8480 2.3914
-2.0550 -7.8913 2.3914
-1.7633 -7.9236 2.3914
-1.4719 -7.9451 2.3914
-1.1810 -7.9558 2.3914
-0.8911 -7.9559 2.3914
-0.6027 -7.9455 2.3914
-0.3160 -7.9247 2.3914
-0.0316 -7.8938 2.3914
0.2504 -7.8529 2.3914
0.5296 -7.8021 2.3914
0.8055 -7.7417 2.3914
1.0780 -7.6719 2.3914
1.3466 -7.5928 2.3914
1.6112 -7.5048 2.3914
1.8714 -7.4079 2.3914
2.1269 -7.3025 2.3914
2.3776 -7.1888 2.3914
2.6232 -7.0670 2.3914
2.8634 -6.9373 2.3914
3.0980 -6.8001 2.3914
3.3268 -6.6555 2.3914
3.5497 -6.5037 2.3914
3.7664 -6.3452 2.3914
3.9768 -6.1800 2.3914
4.1807 -6.0085 2.3914
4.3780 -5.8309 2.3914
4.5685 -5.6475 2.3914
4.7521 -5.4585 2.3914
4.9286 -5.2641 2.3914
5.0980 -5.0647 2.3914
5.2601 -4.8604 2.3914
5.4149 -4.6516 2.3914
5.5623 -4.4384 2.3914
5.7021 -4.2212 2.3914
5.8343 -4.0001 2.3914
5.9588 -3.7755 2.3914
6.0756 -3.5474 2.3914
6.1846 -3.3163 2.3914
6.2858 -3.0824 2.3914
6.3791 -2.8458 2.3914
6.4644 -2.6068 2.3914
6.5418 -2.3656 2.3914
6.6111 -2.1223 2.3914
6.6726 -1.8778 2.3914
6.7260 -1.6316 2.3914
6.7713 -1.3842 2.3914
6.8085 -1.1357 2.3914
6.8377 -0.8865 2.3914
6.8588 -0.6367 2.3914
6.8719 -0.3866 2.3914
6.8769 -0.1364 2.3914
6.8738 0.1137 2.3914
6.8627 0.3635 2.3914
6.8436 0.6127 2.3914
6.8165 0.8611 2.3914
6.7814 1.1086 2.3914
6.7384 1.3548 2.3914
6.6875 1.5996 2.3914
6.6287 1.8428 2.3914
6.5621 2.0841 2.3914
6.4876 2.3233 2.3914
6.4055 2.5603 2.3914
6.3156 2.7947 2.3914
6.2181 3.0264 2.3914
6.1130 3.2551 2.3914
6.0004 3.4806 2.3914
5.8804 3.7028 2.3914
5.7530 3.9214 2.3914
5.6184 4.1361 2.3914
5.4765 4.3468 2.3914
5.3275 4.5532 2.3914
5.1715 4.7552 2.3914
5.0086 4.9524 2.3914
4.8388 5.1447 2.3914
4.6624 5.3318 2.3914
4.4795 5.5136 2.3914
4.2900 5.6898 2.3914
4.0943 5.8601 2.3914
3.8924 6.0244 2.3914
3.6845 6.1825 2.3914
3.4707 6.3340 2.3914
3.2512 6.4789 2.3914
3.0262 6.6168 2.3914
2.7959 6.7476 2.3914
2.5604 6.8711 2.3914
2.3199 6.9870 2.3914
0.8604 2.9423 0.9917
0.7541 2.9730 0.9881
0.6468 2.9997 0.9844
0.5385 3.0226 0.9807
0.4295 3.0416 0.9769
0.3198 3.0566 0.9731
0.2097 3.0676 0.9692
0.0993 3.0746 0.9653
-0.0114 3.0776 0.9613
-0.1221 3.0766 0.9574
-0.2327 3.0716 0.9534
-0.3430 3.0626 0.9493
-0.4529 3.0496 0.9453
-0.5623 3.0327 0.9413
-0.6710 3.0118 0.9372
-0.7789 2.9869 0.9332
-0.8858 2.9582 0.9292
-2.5632 7.5621 2.3914
-2.8457 7.5004 2.3914
-3.1269 7.4281 2.3914
-3.4065 7.3452 2.3914
-3.6839 7.2517 2.3914
-3.9589 7.1476 2.3914
-4.2309 7.0329 2.3914
-4.4995 6.9077 2.3914
-4.7642 6.7720 2.3914
-5.0246 6.6259 2.3914
-5.2803 6.4695 2.3914
-5.5308 6.3030 2.3914
-5.7757 6.1263 2.3914
-6.0144 5.9399 2.3914
-6.2466 5.7437 2.3914
-6.4718 5.5381 2.3914
-6.6895 5.3232 2.3914
-6.8994 5.0993 2.3914
-7.1010 4.8668 2.3914
-7.2938 4.6259 2.3914
-7.4775 4.3769 2.3914
-7.6517 4.1202 2.3914
-7.8161 3.8562 2.3914
-7.9701 3.5852 2.3914
-8.1136 3.3077 2.3914
-8.2462 3.0241 2.3914
-8.3675 2.7349 2.3914
-8.4773 2.4406 2.3914
-8.5753 2.1415 2.3914
-8.6613 1.8383 2.3914
-8.7351 1.5315 2.3914
-8.7964 1.2215 2.3914
-8.8452 0.9090 2.3914
-8.8813 0.5945 2.3914
-8.9045 0.2785 2.3914
-2.7971 6.8824 2.3914
-3.0548 6.8073 2.3914
-3.3106 6.7225 2.3914
-3.5640 6.6279 2.3914
-3.8148 6.5237 2.3914
-4.0623 6.4098 2.3914
-4.3063 6.2863 2.3914
-4.5464 6.1533 2.3914
-4.7821 6.0109 2.3914
-5.0131 5.8592 2.3914
-5.2389 5.6983 2.3914
-5.4592 5.5284 2.3914
-5.6734 5.3496 2.3914
-5.8813 5.1623 2.3914
-6.0825 4.9664 2.3914
-6.2764 4.7624 2.3914
-6.4629 4.5505 2.3914
-6.6414 4.3309 2.3914
-6.8117 4.1039 2.3914
-6.9733 3.8699 2.3914
-7.1260 3.6292 2.3914
-7.2694 3.3821 2.3914
-7.4033 3.1290 2.3914
-7.5272 2.8703 2.3914
-7.6410 2.6064 2.3914
-7.7443 2.3377 2.3914
-7.8370 2.0648 2.3914
-7.9189 1.7879 2.3914
-7.9897 1.5076 2.3914
-8.0492 1.2244 2.3914
-8.0974 0.9387 2.3914
-8.1341 0.6510 2.3914
-8.1592 0.3619 2.3914
-8.1727 0.0718 2.3914
-8.1744 -0.2187 2.3914
-8.1643 -0.5092 2.3914
-8.1426 -0.7990 2.3914
-8.1091 -1.0878 2.3914
-8.0641 -1.3750 2.3914
-8.0074 -1.6601 2.3914
-7.9394 -1.9425 2.3914
-7.8600 -2.2219 2.3914
-7.7695 -2.4976 2.3914
-7.6680 -2.7693 2.3914
-7.5557 -3.0364 2.3914
-7.4330 -3.2986 2.3914
-7.3000 -3.5553 2.3914
-7.1570 -3.8062 2.3914
-7.0043 -4.0508 2.3914
-6.8422 -4.2887 2.3914
-6.6711 -4.5196 2.3914
-6.4912 -4.7432 2.3914
-6.3031 -4.9590 2.3914
-6.1069 -5.1669 2.3914
-5.9032 -5.3664 2.3914
-5.6922 -5.5572 2.3914
-5.4745 -5.7393 2.3914
-5.2504 -5.9123 2.3914
-5.0203 -6.0761 2.3914
-4.7847 -6.2303 2.3914
-4.5441 -6.3750 2.3914
-4.2987 -6.5099 2.3914
-4.0492 -6.6349 2.3914
-3.7958 -6.7499 2.3914
-3.5391 -6.8549 2.3914
-3.2794 -6.9498 2.3914
-3.0173 -7.0345 2.3914
-2.7530 -7.1090 2.3914
-2.4871 -7.1734 2.3914
-2.2199 -7.2276 2.3914
-1.9519 -7.2717 2.3914
-1.6834 -7.3057 2.3914
-1.4149 -7.3298 2.3914
-1.1467 -7.3439 2.3914
-0.8791 -7.3482 2.3914
-0.6127 -7.3428 2.3914
-0.3477 -7.3278 2.3914
-0.0844 -7.3033 2.3914
0.1768 -7.2695 2.3914
0.4356 -7.2266 2.3914
0.6916 -7.1747 2.3914
0.9447 -7.1140 2.3914
1.1944 -7.0446 2.3914
1.4405 -6.9668 2.3914
1.6828 -6.8807 2.3914
1.9210 -6.7865 2.3914
2.1548 -6.6846 2.3914
2.3841 -6.5750 2.3914
2.6085 -6.4580 2.3914
2.8279 -6.3338 2.3914
3.0421 -6.2026 2.3914
3.2509 -6.0647 2.3914
3.4541 -5.9202 2.3914
3.6516 -5.7695 2.3914
3.8431 -5.6127 2.3914
4.0285 -5.4501 2.3914
4.2078 -5.2819 2.3914
4.3807 -5.1084 2.3914
4.5471 -4.9297 2.3914
4.7069 -4.7462 2.3914
4.8600 -4.5580 2.3914
5.0063 -4.3654 2.3914
5.1458 -4.1686 2.3914
5.2782 -3.9678 2.3914
5.4036 -3.7634 2.3914
5.5219 -3.5554 2.3914
5.6329 -3.3442 2.3914
5.7367 -3.1300 2.3914
5.8332 -2.9130 2.3914
5.9223 -2.6934 2.3914
6.0040 -2.4714 2.3914
6.0782 -2.2473 2.3914
6.1450 -2.0213 2.3914
6.2042 -1.7937 2.3914
6.2560 -1.5645 2.3914
6.3002 -1.3342 2.3914
6.3368 -1.1028 2.3914
6.3658 -0.8705 2.3914
6.3873 -0.6378 2.3914
6.4012 -0.4046 2.3914
6.4075 -0.1712 2.3914
6.4063 0.0621 2.3914
6.3975 0.2951 2.3914
6.3811 0.5277 2.3914
6.3573 0.7595 2.3914
6.3259 0.9905 2.3914
6.2871 1.2204 2.3914
6.2408 1.4490 2.3914
6.1871 1.6760 2.3914
6.1260 1.9013 2.3914
6.0577 2.1247 2.3914
5.9820 2.3459 2.3914
5.8991 2.5648 2.3914
5.8091 2.7811 2.3914
5.7119 2.9946 2.3914
5.6077 3.2051 2.3914
5.4965 3.4125 2.3914
5.3784 3.6164 2.3914
5.2535 3.8168 2.3914
5.1218 4.0133 2.3914
4.9835 4.2058 2.3914
4.8386 4.3941 2.3914
4.6873 4.5779 2.3914
4.5297 4.7570 2.3914
4.3658 4.9314 2.3914
4.1958 5.1006 2.3914
4.0197 5.2646 2.3914
3.8379 5.4230 2.3914
3.6503 5.5758 2.3914
3.4572 5.7227 2.3914
3.2585 5.8635 2.3914
3.0547 5.9980 2.3914
2.8458 6.1260 2.3914
2.6319 6.2473 2.3914
2.4134 6.3617 2.3914
2.1903 6.4690 2.3914
0.8113 2.7153 0.9885
0.7132 2.7443 0.9852
0.6141 2.7697 0.9818
0.5141 2.7915 0.9783
0.4134 2.8097 0.9748
0.3121 2.8242 0.9713
0.2103 2.8351 0.9677
0.1082 2.8422 0.9641
0.0059 2.8457 0.9604
-0.0965 2.8455 0.9568
-0.1988 2.8415 0.9531
-0.3009 2.8339 0.9494
-0.4026 2.8225 0.9456
-0.5039 2.8075 0.9419
-0.6045 2.7889 0.9382
-0.7045 2.7666 0.9345
-0.8035 2.7407 0.9307
-0.9016 2.7112 0.9270
-2.5860 6.9364 2.3914
-2.8451 6.8692 2.3914
-3.1025 6.7923 2.3914
-3.3578 6.7057 2.3914
-3.6108 6.6093 2.3914
-3.8609 6.5032 2.3914
-4.1079 6.3876 2.3914
-4.3512 6.2623 2.3914
-4.5905 6.1276 2.3914
-4.8254 5.9834 2.3914
-5.0554 5.8300 2.3914
-5.2802 5.6674 2.3914
-5.4994 5.4959 2.3914
-5.7125 5.3155 2.3914
-5.9192 5.1266 2.3914
-6.1190 4.9292 2.3914
-6.3116 4.7237 2.3914
-6.4966 4.5103 2.3914
-6.6737 4.2893 2.3914
-6.8424 4.0610 2.3914
-7.0024 3.8257 2.3914
-7.1534 3.5838 2.3914
-7.2950 3.3355 2.3914
-7.4270 3.0814 2.3914
-7.5491 2.8217 2.3914
-7.6610 2.5569 2.3914
-7.7624 2.2874 2.3914
-7.8531 2.0136 2.3914
-7.9329 1.7361 2.3914
-8.0016 1.4552 2.3914
-8.0591 1.1715 2.3914
-8.1051 0.8854 2.3914
-8.1397 0.5975 2.3914
-8.1626 0.3081 2.3914
-8.1739 0.0179 2.3914
-8.1734 -0.2726 2.3914
-8.1612 -0.5630 2.3914
-8.1373 -0.8527 2.3914
-8.1016 -1.1413 2.3914
-8.0544 -1.4281 2.3914
-7.9957 -1.7127 2.3914
-7.9255 -1.9946 2.3914
-7.8440 -2.2733 2.3914
-7.7514 -2.5484 2.3914
-7.6480 -2.8192 2.3914
-7.5338 -3.0855 2.3914
-7.4091 -3.3467 2.3914
-7.2742 -3.6023 2.3914
-7.1294 -3.8521 2.3914
-6.9749 -4.0954 2.3914
-6.8111 -4.3321 2.3914
-6.6384 -4.5617 2.3914
-6.4569 -4.7838 2.3914
-6.2672 -4.9982 2.3914
-6.0697 -5.2045 2.3914
-5.8645 -5.4024 2.3914
-5.6523 -5.5917 2.3914
-5.4334 -5.7721 2.3914
-5.2081 -5.9434 2.3914
-4.9770 -6.1056 2.3914
-4.7405 -6.2579 2.3914
-4.4989 -6.4008 2.3914
-4.2528 -6.5338 2.3914
-4.0024 -6.6570 2.3914
-3.7484 -6.7702 2.3914
-3.4911 -6.8733 2.3914
-3.2309 -6.9662 2.3914
-2.9683 -7.0491 2.3914
-2.7037 -7.1217 2.3914
-2.4376 -7.1842 2.3914
-2.1702 -7.2366 2.3914
-1.9021 -7.2788 2.3914
-1.6335 -7.3110 2.3914
-1.3650 -7.3332 2.3914
-1.0969 -7.3454 2.3914
-0.8296 -7.3479 2.3914
-0.5634 -7.3407 2.3914
-0.2987 -7.3240 2.3914
-0.0357 -7.2977 2.3914
0.2250 -7.2623 2.3914
0.4833 -7.2177 2.3914
0.7388 -7.1641 2.3914
0.9913 -7.1017 2.3914
1.2404 -7.0308 2.3914
1.4858 -6.9514 2.3914
1.7273 -6.8638 2.3914
1.9647 -6.7682 2.3914
2.1977 -6.6648 2.3914
2.4261 -6.5538 2.3914
2.6496 -6.4355 2.3914
2.8681 -6.3099 2.3914
3.0813 -6.1775 2.3914
3.2890 -6.0383 2.3914
3.4912 -5.8927 2.3914
3.6876 -5.7409 2.3914
3.8780 -5.5830 2.3914
4.0623 -5.4193 2.3914
4.2403 -5.2501 2.3914
4.4120 -5.0756 2.3914
4.5772 -4.8960 2.3914
4.7358 -4.7116 2.3914
4.8877 -4.5226 2.3914
5.0327 -4.3292 2.3914
5.1709 -4.1316 2.3914
5.3020 -3.9302 2.3914
5.4261 -3.7250 2.3914
5.5430 -3.5165 2.3914
5.6527 -3.3047 2.3914
5.7551 -3.0899 2.3914
5.8502 -2.8724 2.3914
5.9380 -2.6523 2.3914
6.0183 -2.4300 2.3914
6.0912 -2.2055 2.3914
6.1566 -1.9793 2.3914
6.2144 -1.7512 2.3914
6.2648 -1.5219 2.3914
6.3075 -1.2913 2.3914
6.3428 -1.0597 2.3914
6.3704 -0.8274 2.3914
6.3905 -0.5945 2.3914
6.4030 -0.3613 2.3914
6.4079 -0.1279 2.3914
6.4052 0.1053 2.3914
6.3950 0.3383 2.3914
6.3773 0.5708 2.3914
6.3520 0.8025 2.3914
6.3193 1.0333 2.3914
6.2790 1.2629 2.3914
6.2314 1.4912 2.3914
6.1763 1.7180 2.3914
6.1139 1.9429 2.3914
6.0442 2.1659 2.3914
5.9672 2.3867 2.3914
5.8829 2.6051 2.3914
5.7916 2.8209 2.3914
5.6931 3.0339 2.3914
5.5876 3.2439 2.3914
5.4751 3.4506 2.3914
5.3557 3.6539 2.3914
5.2295 3.8535 2.3914
5.0966 4.0493 2.3914
4.9571 4.2411 2.3914
4.8111 4.4285 2.3914
4.6585 4.6115 2.3914
4.4997 4.7898 2.3914
4.3347 4.9632 2.3914
4.1635 5.1314 2.3914
3.9864 5.2944 2.3914
3.8035 5.4518 2.3914
3.6149 5.6035 2.3914
3.4207 5.7493 2.3914
3.2211 5.8890 2.3914
3.0163 6.0223 2.3914
2.8065 6.1490 2.3914
2.5917 6.2691 2.3914
2.3723 6.3822 2.3914
0.8904 2.6891 0.9912
0.7932 2.7210 0.9879
0.6949 2.7493 0.9845
0.5956 2.7740 0.9811
0.4955 2.7952 0.9777
0.3946 2.8127 0.9742
0.2932 2.8265 0.9706
0.1914 2.8367 0.9670
0.0892 2.8432 0.9634
-0.0131 2.8459 0.9598
-0.1155 2.8450 0.9561
-0.2177 2.8404 0.9524
-0.3198 2.8321 0.9487
-0.4214 2.8200 0.9450
-0.5226 2.8043 0.9412
-0.6231 2.7850 0.9375
-0.7229 2.7620 0.9338
-0.8218 2.7355 0.9300
-0.9196 2.7053 0.9263
-2.6342 6.9247 2.3914
-2.8930 6.8557 2.3914
-3.1500 6.7770 2.3914
-3.4050 6.6885 2.3914
-3.6574 6.5903 2.3914
-3.9070 6.4825 2.3914
-4.1533 6.3650 2.3914
-4.3959 6.2380 2.3914
-4.6344 6.1015 2.3914
-4.8685 5.9556 2.3914
-5.0976 5.8005 2.3914
-5.3213 5.6363 2.3914
-5.5394 5.4631 2.3914
-5.7514 5.2811 2.3914
-5.9568 5.0906 2.3914
-6.1553 4.8917 2.3914
-6.3466 4.6847 2.3914
-6.5301 4.4699 2.3914
-6.7056 4.2475 2.3914
-6.8727 4.0179 2.3914
-7.0311 3.7813 2.3914
-7.1804 3.5382 2.3914
-7.3202 3.2888 2.3914
-7.4504 3.0336 2.3914
-7.5706 2.7729 2.3914
-7.6805 2.5072 2.3914
-7.7800 2.2369 2.3914
-7.8687 1.9624 2.3914
-7.9465 1.6842 2.3914
-8.0131 1.4028 2.3914
-8.0685 1.1186 2.3914
-8.1124 0.8321 2.3914
-8.1448 0.5438 2.3914
-8.1656 0.2543 2.3914
-2.6010 6.3837 2.3914
-2.8393 6.3122 2.3914
-3.0757 6.2318 2.3914
-3.3097 6.1424 2.3914
-3.5411 6.0441 2.3914
-3.7695 5.9369 2.3914
-3.9945 5.8209 2.3914
-4.2157 5.6962 2.3914
-4.4328 5.5628 2.3914
-4.6453 5.4210 2.3914
-4.8530 5.2707 2.3914
-5.0555 5.1122 2.3914
-5.2524 4.9457 2.3914
-5.4433 4.7712 2.3914
-5.6279 4.5891 2.3914
-5.8059 4.3996 2.3914
-5.9768 4.2028 2.3914
-6.1404 3.9991 2.3914
-6.2964 3.7887 2.3914
-6.4443 3.5718 2.3914
-6.5841 3.3489 2.3914
-6.7152 3.1203 2.3914
-6.8375 2.8862 2.3914
-6.9508 2.6471 2.3914
-7.0547 2.4033 2.3914
-7.1490 2.1552 2.3914
-7.2335 1.9032 2.3914
-7.3081 1.6477 2.3914
-7.3726 1.3891 2.3914
-7.4268 1.1278 2.3914
-7.4706 0.8644 2.3914
-7.5038 0.5992 2.3914
-7.5265 0.3327 2.3914
-7.5385 0.0654 2.3914
-7.5398 -0.2023 2.3914
-7.5304 -0.4700 2.3914
-7.5102 -0.7371 2.3914
-7.4794 -1.0032 2.3914
-7.4379 -1.2679 2.3914
-7.3859 -1.5306 2.3914
-7.3235 -1.7910 2.3914
-7.2507 -2.0485 2.3914
-7.1677 -2.3028 2.3914
-7.0747 -2.5534 2.3914
-6.9718 -2.7998 2.3914
-6.8593 -3.0418 2.3914
-6.7374 -3.2788 2.3914
-6.6063 -3.5105 2.3914
-6.4664 -3.7366 2.3914
-6.3178 -3.9566 2.3914
-6.1609 -4.1702 2.3914
-5.9959 -4.3771 2.3914
-5.8233 -4.5771 2.3914
-5.6433 -4.7697 2.3914
-5.4562 -4.9548 2.3914
-5.2625 -5.1322 2.3914
-5.0626 -5.3013 2.3914
-4.8566 -5.4622 2.3914
-4.6451 -5.6147 2.3914
-4.4285 -5.7586 2.3914
-4.2070 -5.8937 2.3914
-3.9812 -6.0198 2.3914
-3.7514 -6.1369 2.3914
-3.5179 -6.2449 2.3914
-3.2812 -6.3437 2.3914
-3.0417 -6.4332 2.3914
-2.7998 -6.5133 2.3914
-2.5558 -6.5841 2.3914
-2.3102 -6.6456 2.3914
-2.0633 -6.6976 2.3914
-1.8154 -6.7404 2.3914
-1.5670 -6.7738 2.3914
-1.3184 -6.7980 2.3914
-1.0699 -6.8131 2.3914
-0.8220 -6.8190 2.3914
-0.5749 -6.8159 2.3914
-0.3290 -6.8039 2.3914
-0.0846 -6.7831 2.3914
0.1581 -6.7537 2.3914
0.3986 -6.7157 2.3914
0.6367 -6.6693 2.3914
0.8722 -6.6147 2.3914
1.1047 -6.5520 2.3914
1.3340 -6.4814 2.3914
1.5598 -6.4030 2.3914
1.7819 -6.3171 2.3914
2.0001 -6.2239 2.3914
2.2141 -6.1234 2.3914
2.4237 -6.0160 2.3914
2.6288 -5.9018 2.3914
2.8291 -5.7810 2.3914
3.0244 -5.6538 2.3914
3.2146 -5.5205 2.3914
3.3995 -5.3812 2.3914
3.5789 -5.2362 2.3914
3.7528 -5.0856 2.3914
3.9208 -4.9297 2.3914
4.0830 -4.7688 2.3914
4.2392 -4.6029 2.3914
4.3893 -4.4324 2.3914
4.5332 -4.2575 2.3914
4.6707 -4.0784 2.3914
4.8018 -3.8952 2.3914
4.9264 -3.7083 2.3914
5.0443 -3.5178 2.3914
5.1557 -3.3240 2.3914
5.2602 -3.1270 2.3914
5.3580 -2.9271 2.3914
5.4490 -2.7246 2.3914
5.5330 -2.5195 2.3914
5.6100 -2.3122 2.3914
5.6801 -2.1028 2.3914
5.7432 -1.8916 2.3914
5.7991 -1.6788 2.3914
5.8481 -1.4646 2.3914
5.8899 -1.2491 2.3914
5.9245 -1.0326 2.3914
5.9521 -0.8154 2.3914
5.9725 -0.5974 2.3914
5.9858 -0.3793 2.3914
5.9919 -0.1609 2.3914
5.9909 0.0574 2.3914
5.9828 0.2756 2.3914
5.9676 0.4933 2.3914
5.9453 0.7103 2.3914
5.9159 0.9265 2.3914
5.8795 1.1417 2.3914
5.8360 1.3556 2.3914
5.7856 1.5681 2.3914
5.7282 1.7789 2.3914
5.6640 1.9879 2.3914
5.5928 2.1948 2.3914
5.5149 2.3995 2.3914
5.4303 2.6017 2.3914
5.3389 2.8013 2.3914
5.2410 2.9981 2.3914
5.1364 3.1918 2.3914
5.0254 3.3822 2.3914
4.9080 3.5692 2.3914
4.7843 3.7526 2.3914
4.6544 3.9321 2.3914
4.5183 4.1076 2.3914
4.3762 4.2789 2.3914
4.2282 4.4458 2.3914
4.0744 4.6080 2.3914
3.9148 4.7653 2.3914
3.7497 4.9177 2.3914
3.5792 5.0649 2.3914
3.4033 5.2067 2.3914
3.2223 5.3428 2.3914
3.0363 5.4732 2.3914
2.8454 5.5977 2.3914
2.6498 5.7160 2.3914
2.4497 5.8279 2.3914
2.2453 5.9333 2.3914
0.8416 2.4924 0.9881
0.7514 2.5226 0.9851
0.6602 2.5495 0.9820
0.5681 2.5731 0.9789
0.4752 2.5934 0.9757
0.3817 2.6102 0.9724
0.2875 2.6237 0.9691
0.1930 2.6338 0.9658
0.0981 2.6404 0.9624
0.0031 2.6436 0.9590
-0.0921 2.6434 0.9556
-0.1871 2.6397 0.9522
-0.2819 2.6326 0.9487
-0.3765 2.6221 0.9453
-0.4706 2.6082 0.9418
-0.5641 2.5908 0.9384
-0.6569 2.5701 0.9349
-0.7490 2.5460 0.9314
-0.8401 2.5186 0.9280
-0.9301 2.4880 0.9246
-2.6454 6.3712 2.3914
-2.8833 6.2980 2.3914
-3.1193 6.2159 2.3914
-3.3529 6.1248 2.3914
-3.5837 6.0248 2.3914
-3.8115 5.9160 2.3914
-4.0358 5.7984 2.3914
-4.2563 5.6721 2.3914
-4.4726 5.5371 2.3914
-4.6843 5.3937 2.3914
-4.8910 5.2419 2.3914
-5.0925 5.0819 2.3914
-5.2883 4.9139 2.3914
-5.4781 4.7380 2.3914
-5.6615 4.5545 2.3914
-5.8381 4.3636 2.3914
-6.0077 4.1655 2.3914
-6.1699 3.9605 2.3914
-6.3244 3.7489 2.3914
-6.4709 3.5309 2.3914
-6.6090 3.3069 2.3914
-6.7386 3.0773 2.3914
-6.8592 2.8422 2.3914
-6.9708 2.6022 2.3914
-7.0729 2.3576 2.3914
-7.1654 2.1087 2.3914
-7.2482 1.8560 2.3914
-7.3209 1.5999 2.3914
-7.3834 1.3408 2.3914
-7.4357 1.0791 2.3914
-7.4775 0.8153 2.3914
-7.5088 0.5498 2.3914
-7.5295 0.2832 2.3914
-7.5395 0.0157 2.3914
-7.5389 -0.2520 2.3914
-7.5274 -0.5196 2.3914
-7.5053 -0.7866 2.3914
-7.4725 -1.0525 2.3914
-7.4291 -1.3168 2.3914
-7.3751 -1.5791 2.3914
-7.3107 -1.8390 2.3914
-7.2360 -2.0960 2.3914
-7.1512 -2.3496 2.3914
-7.0563 -2.5994 2.3914
-6.9516 -2.8451 2.3914
-6.8374 -3.0862 2.3914
-6.7138 -3.3222 2.3914
-6.5810 -3.5529 2.3914
-6.4395 -3.7779 2.3914
-6.2893 -3.9967 2.3914
-6.1309 -4.2091 2.3914
-5.9645 -4.4148 2.3914
-5.7904 -4.6134 2.3914
-5.6091 -4.8047 2.3914
-5.4208 -4.9883 2.3914
-5.2259 -5.1642 2.3914
-5.0248 -5.3318 2.3914
-4.8178 -5.4912 2.3914
-4.6053 -5.6421 2.3914
-4.3877 -5.7843 2.3914
-4.1654 -5.9178 2.3914
-3.9388 -6.0423 2.3914
-3.7083 -6.1577 2.3914
-3.4742 -6.2640 2.3914
-3.2370 -6.3610 2.3914
-2.9970 -6.4488 2.3914
-2.7547 -6.5272 2.3914
-2.5104 -6.5962 2.3914
-2.2644 -6.6559 2.3914
-2.0173 -6.7063 2.3914
-1.7693 -6.7473 2.3914
-1.5209 -6.7790 2.3914
-1.2723 -6.8015 2.3914
-1.0239 -6.8149 2.3914
-0.7761 -6.8191 2.3914
-0.5292 -6.8144 2.3914
-0.2835 -6.8007 2.3914
-0.0394 -6.7783 2.3914
0.2029 -6.7473 2.3914
0.4430 -6.7077 2.3914
0.6806 -6.6598 2.3914
0.9156 -6.6037 2.3914
1.1475 -6.5395 2.3914
1.3761 -6.4674 2.3914
1.6013 -6.3877 2.3914
1.8227 -6.3004 2.3914
2.0401 -6.2058 2.3914
2.2534 -6.1040 2.3914
2.4622 -5.9953 2.3914
2.6663 -5.8799 2.3914
2.8657 -5.7579 2.3914
3.0601 -5.6295 2.3914
3.2493 -5.4951 2.3914
3.4332 -5.3547 2.3914
3.6116 -5.2086 2.3914
3.7844 -5.0571 2.3914
3.9514 -4.9002 2.3914
4.1125 -4.7384 2.3914
4.2676 -4.5716 2.3914
4.4165 -4.4003 2.3914
4.5592 -4.2246 2.3914
4.6955 -4.0447 2.3914
4.8254 -3.8608 2.3914
4.9488 -3.6732 2.3914
5.0655 -3.4821 2.3914
5.1756 -3.2877 2.3914
5.2789 -3.0901 2.3914
5.3754 -2.8897 2.3914
5.4651 -2.6867 2.3914
5.5478 -2.4812 2.3914
5.6236 -2.2735 2.3914
5.6923 -2.0638 2.3914
5.7541 -1.8523 2.3914
5.8088 -1.6392 2.3914
5.8563 -1.4247 2.3914
5.8968 -1.2090 2.3914
5.9302 -0.9924 2.3914
5.9564 -0.7750 2.3914
5.9755 -0.5571 2.3914
5.9873 -0.3385 2.3914
5.9923 -0.1204 2.3914
5.9900 0.0979 2.3914
5.9805 0.3160 2.3914
5.9640 0.5336 2.3914
5.9404 0.7505 2.3914
5.9096 0.9665 2.3914
5.8719 1.1815 2.3914
5.8272 1.3952 2.3914
5.7755 1.6074 2.3914
5.7168 1.8178 2.3914
5.6513 2.0265 2.3914
5.5789 2.2330 2.3914
5.4997 2.4372 2.3914
5.4138 2.6390 2.3914
5.3212 2.8381 2.3914
5.2220 3.0343 2.3914
5.1163 3.2274 2.3914
5.0041 3.4172 2.3914
4.8856 3.6036 2.3914
4.7607 3.7862 2.3914
4.6296 3.9650 2.3914
4.4924 4.1398 2.3914
4.3492 4.3102 2.3914
4.2001 4.4762 2.3914
4.0452 4.6375 2.3914
3.8846 4.7940 2.3914
3.7185 4.9454 2.3914
3.5469 5.0916 2.3914
3.3701 5.2324 2.3914
3.1882 5.3675 2.3914
3.0012 5.4968 2.3914
2.8094 5.6201 2.3914
2.6130 5.7372 2.3914
2.4121 5.8480 2.3914
2.2069 5.9522 2.3914
0.8249 2.4983 0.9876
0.7346 2.5279 0.9845
0.6432 2.5541 0.9814
0.5510 2.5771 0.9783
0.4579 2.5968 0.9751
0.3642 2.6130 0.9718
0.2700 2.6259 0.9685
0.1754 2.6353 0.9652
0.0805 2.6413 0.9618
-0.0146 2.6439 0.9584
-0.1097 2.6430 0.9550
-0.2047 2.6387 0.9516
-0.2995 2.6309 0.9481
-0.3940 2.6198 0.9446
-0.4880 2.6052 0.9412
-0.5814 2.5872 0.9377
-0.6741 2.5659 0.9342
-0.7659 2.5412 0.9308
-0.8568 2.5132 0.9274
-2.4503 6.4241 2.3914
-2.6897 6.3582 2.3914
-2.9273 6.2834 2.3914
-3.1628 6.1997 2.3914
-3.3959 6.1069 2.3914
-3.6263 6.0053 2.3914
-3.8534 5.8949 2.3914
-4.0770 5.7756 2.3914
-4.2968 5.6477 2.3914
-4.5122 5.5111 2.3914
-4.7230 5.3662 2.3914
-4.9288 5.2128 2.3914
-5.1293 5.0513 2.3914
-5.3240 4.8818 2.3914
-5.5126 4.7045 2.3914
-5.6948 4.5196 2.3914
-5.8701 4.3274 2.3914
-6.0384 4.1280 2.3914
-6.1992 3.9217 2.3914
-6.3522 3.7089 2.3914
-6.4972 3.4898 2.3914
-6.6337 3.2647 2.3914
-6.7617 3.0340 2.3914
-6.8806 2.7980 2.3914
-6.9904 2.5571 2.3914
-7.0908 2.3117 2.3914
-7.1815 2.0621 2.3914
-7.2624 1.8087 2.3914
-7.3333 1.5520 2.3914
-7.3939 1.2924 2.3914
-7.4443 1.0303 2.3914
-7.4842 0.7662 2.3914
-7.5135 0.5004 2.3914
-7.5322 0.2336 2.3914
-0.9375 2.2950 0.9230
-2.6502 5.8777 2.3914
-2.8696 5.8014 2.3914
-3.0867 5.7167 2.3914
-3.3013 5.6238 2.3914
-3.5130 5.5227 2.3914
-3.7215 5.4135 2.3914
-3.9263 5.2962 2.3914
-4.1272 5.1710 2.3914
-4.3239 5.0379 2.3914
-4.5159 4.8972 2.3914
-4.7030 4.7488 2.3914
-4.8849 4.5931 2.3914
-5.0612 4.4301 2.3914
-5.2315 4.2601 2.3914
-5.3957 4.0833 2.3914
-5.5533 3.8999 2.3914
-5.7041 3.7101 2.3914
-5.8477 3.5142 2.3914
-5.9840 3.3125 2.3914
-6.1126 3.1052 2.3914
-6.2332 2.8927 2.3914
-6.3457 2.6752 2.3914
-6.4498 2.4532 2.3914
-6.5452 2.2268 2.3914
-6.6319 1.9966 2.3914
-6.7095 1.7629 2.3914
-6.7779 1.5259 2.3914
-6.8370 1.2862 2.3914
-6.8866 1.0441 2.3914
-6.9266 0.8000 2.3914
-6.9570 0.5543 2.3914
-6.9776 0.3073 2.3914
-6.9884 0.0598 2.3914
-6.9894 -0.1882 2.3914
-6.9805 -0.4360 2.3914
-6.9618 -0.6834 2.3914
-6.9332 -0.9299 2.3914
-6.8949 -1.1750 2.3914
-6.8469 -1.4183 2.3914
-6.7892 -1.6595 2.3914
-6.7221 -1.8981 2.3914
-6.6456 -2.1337 2.3914
-6.5598 -2.3660 2.3914
-6.4650 -2.5945 2.3914
-6.3613 -2.8189 2.3914
-6.2490 -3.0388 2.3914
-6.1282 -3.2538 2.3914
-5.9992 -3.4637 2.3914
-5.8622 -3.6680 2.3914
-5.7175 -3.8665 2.3914
-5.5653 -4.0589 2.3914
-5.4061 -4.2449 2.3914
-5.2400 -4.4243 2.3914
-5.0674 -4.5967 2.3914
-4.8885 -4.7619 2.3914
-4.7038 -4.9198 2.3914
-4.5136 -5.0701 2.3914
-4.3181 -5.2126 2.3914
-4.1178 -5.3473 2.3914
-3.9130 -5.4738 2.3914
-3.7041 -5.5922 2.3914
-3.4913 -5.7022 2.3914
-3.2751 -5.8038 2.3914
-3.0559 -5.8969 2.3914
-2.8339 -5.9814 2.3914
-2.6096 -6.0574 2.3914
-2.3833 -6.1247 2.3914
-2.1553 -6.1833 2.3914
-1.9260 -6.2333 2.3914
-1.6958 -6.2746 2.3914
-1.4649 -6.3073 2.3914
-1.2337 -6.3314 2.3914
-1.0026 -6.3470 2.3914
-0.7718 -6.3541 2.3914
-0.5417 -6.3528 2.3914
-0.3126 -6.3432 2.3914
-0.0847 -6.3254 2.3914
0.1416 -6.2995 2.3914
0.3660 -6.2656 2.3914
0.5883 -6.2239 2.3914
0.8083 -6.1744 2.3914
1.0255 -6.1174 2.3914
1.2399 -6.0529 2.3914
1.4511 -5.9812 2.3914
1.6590 -5.9023 2.3914
1.8633 -5.8166 2.3914
2.0638 -5.7240 2.3914
2.2602 -5.6249 2.3914
2.4525 -5.5193 2.3914
2.6404 -5.4075 2.3914
2.8237 -5.2897 2.3914
3.0022 -5.1661 2.3914
3.1759 -5.0368 2.3914
3.3445 -4.9020 2.3914
3.5080 -4.7620 2.3914
3.6660 -4.6170 2.3914
3.8186 -4.4670 2.3914
3.9657 -4.3125 2.3914
4.1070 -4.1535 2.3914
4.2425 -3.9903 2.3914
4.3721 -3.8230 2.3914
4.4956 -3.6519 2.3914
4.6131 -3.4772 2.3914
4.7244 -3.2991 2.3914
4.8295 -3.1178 2.3914
4.9282 -2.9335 2.3914
5.0205 -2.7464 2.3914
5.1064 -2.5566 2.3914
5.1858 -2.3645 2.3914
5.2587 -2.1703 2.3914
5.3250 -1.9740 2.3914
5.3846 -1.7760 2.3914
5.4376 -1.5763 2.3914
5.4840 -1.3753 2.3914
5.5236 -1.1732 2.3914
5.5565 -0.9700 2.3914
5.5827 -0.7661 2.3914
5.6021 -0.5616 2.3914
5.6148 -0.3568 2.3914
5.6207 -0.1517 2.3914
5.6200 0.0533 2.3914
5.6124 0.2581 2.3914
5.5982 0.4625 2.3914
5.5773 0.6664 2.3914
5.5497 0.8694 2.3914
5.5154 1.0714 2.3914
5.4745 1.2722 2.3914
5.4270 1.4717 2.3914
5.3730 1.6696 2.3914
5.3124 1.8657 2.3914
5.2454 2.0599 2.3914
5.1719 2.2520 2.3914
5.0921 2.4416 2.3914
5.0060 2.6288 2.3914
4.9137 2.8133 2.3914
4.8152 2.9948 2.3914
4.7106 3.1733 2.3914
4.6000 3.3485 2.3914
4.4834 3.5202 2.3914
4.3610 3.6882 2.3914
4.2329 3.8524 2.3914
4.0991 4.0125 2.3914
3.9597 4.1685 2.3914
3.8149 4.3200 2.3914
3.6648 4.4669 2.3914
3.5094 4.6091 2.3914
3.3490 4.7463 2.3914
3.1837 4.8784 2.3914
3.0135 5.0051 2.3914
2.8387 5.1264 2.3914
2.6594 5.2420 2.3914
2.4758 5.3518 2.3914
2.2880 5.4556 2.3914
0.8658 2.2936 0.9877
0.7827 2.3248 0.9849
0.6987 2.3529 0.9821
0.6136 2.3780 0.9792
0.5277 2.4000 0.9763
0.4410 2.4188 0.9733
0.3537 2.4346 0.9703
0.2659 2.4471 0.9672
0.1777 2.4565 0.9641
0.0892 2.4627 0.9610
0.0006 2.4657 0.9578
-0.0882 2.4655 0.9546
-0.1768 2.4620 0.9514
-0.2653 2.4554 0.9482
-0.3535 2.4456 0.9450
-0.4412 2.4326 0.9417
-0.5285 2.4164 0.9385
-0.6151 2.3970 0.9353
-0.7009 2.3746 0.9320
-0.7859 2.3491 0.9288
-0.8699 2.3205 0.9256
-2.4700 5.9338 2.3914
-2.6910 5.8642 2.3914
-2.9101 5.7863 2.3914
-3.1268 5.7001 2.3914
-3.3409 5.6057 2.3914
-3.5520 5.5031 2.3914
-3.7598 5.3923 2.3914
-3.9639 5.2736 2.3914
-4.1640 5.1469 2.3914
-4.3599 5.0124 2.3914
-4.5510 4.8702 2.3914
-4.7372 4.7205 2.3914
-4.9180 4.5634 2.3914
-5.0933 4.3991 2.3914
-5.2625 4.2278 2.3914
-5.4254 4.0498 2.3914
-5.5818 3.8651 2.3914
-5.7313 3.6742 2.3914
-5.8736 3.4772 2.3914
-6.0085 3.2744 2.3914
-6.1356 3.0661 2.3914
-6.2547 2.8527 2.3914
-6.3657 2.6343 2.3914
-6.4682 2.4115 2.3914
-6.5620 2.1844 2.3914
-6.6469 1.9535 2.3914
-6.7229 1.7191 2.3914
-6.7896 1.4816 2.3914
-6.8469 1.2414 2.3914
-6.8948 0.9989 2.3914
-6.9330 0.7545 2.3914
-6.9616 0.5086 2.3914
-6.9803 0.2614 2.3914
-6.9894 0.0138 2.3914
-6.9885 -0.2342 2.3914
-6.9778 -0.4820 2.3914
-6.9572 -0.7292 2.3914
-6.9269 -0.9755 2.3914
-6.8867 -1.2203 2.3914
-6.8369 -1.4633 2.3914
-6.7775 -1.7040 2.3914
-6.7086 -1.9421 2.3914
-6.6304 -2.1771 2.3914
-6.5429 -2.4087 2.3914
-6.4464 -2.6365 2.3914
-6.3411 -2.8600 2.3914
-6.2272 -3.0790 2.3914
-6.1048 -3.2932 2.3914
-5.9743 -3.5020 2.3914
-5.8359 -3.7053 2.3914
-5.6898 -3.9027 2.3914
-5.5363 -4.0939 2.3914
-5.3758 -4.2787 2.3914
-5.2084 -4.4568 2.3914
-5.0346 -4.6279 2.3914
-4.8547 -4.7918 2.3914
-4.6689 -4.9483 2.3914
-4.4777 -5.0972 2.3914
-4.2813 -5.2382 2.3914
-4.0801 -5.3714 2.3914
-3.8745 -5.4964 2.3914
-3.6649 -5.6132 2.3914
-3.4515 -5.7214 2.3914
-3.2347 -5.8217 2.3914
-3.0149 -5.9132 2.3914
-2.7925 -5.9962 2.3914
-2.5677 -6.0705 2.3914
-2.3411 -6.1362 2.3914
-2.1128 -6.1932 2.3914
-1.8833 -6.2416 2.3914
-1.6529 -6.2813 2.3914
-1.4220 -6.3124 2.3914
-1.1908 -6.3349 2.3914
-0.9597 -6.3489 2.3914
-0.7290 -6.3545 2.3914
-0.4991 -6.3516 2.3914
-0.2702 -6.3405 2.3914
-0.0426 -6.3212 2.3914
0.1834 -6.2938 2.3914
0.4074 -6.2585 2.3914
0.6293 -6.2153 2.3914
0.8488 -6.1644 2.3914
1.0656 -6.1062 2.3914
1.2793 -6.0402 2.3914
1.4900 -5.9671 2.3914
1.6972 -5.8869 2.3914
1.9008 -5.7999 2.3914
2.1005 -5.7061 2.3914
2.2962 -5.6058 2.3914
2.4877 -5.4990 2.3914
2.6748 -5.3861 2.3914
2.8572 -5.2672 2.3914
3.0349 -5.1425 2.3914
3.2076 -5.0122 2.3914
3.3753 -4.8764 2.3914
3.5377 -4.7355 2.3914
3.6948 -4.5895 2.3914
3.8464 -4.4387 2.3914
3.9923 -4.2833 2.3914
4.1326 -4.1235 2.3914
4.2670 -3.9595 2.3914
4.3955 -3.7915 2.3914
4.5179 -3.6198 2.3914
4.6342 -3.4444 2.3914
4.7444 -3.2657 2.3914
4.8483 -3.0838 2.3914
4.9458 -2.8989 2.3914
5.0370 -2.7113 2.3914
5.1217 -2.5212 2.3914
5.1999 -2.3286 2.3914
5.2715 -2.1340 2.3914
5.3365 -1.9374 2.3914
5.3950 -1.7390 2.3914
5.4467 -1.5391 2.3914
5.4918 -1.3379 2.3914
5.5302 -1.1355 2.3914
5.5618 -0.9322 2.3914
5.5868 -0.7282 2.3914
5.6050 -0.5236 2.3914
5.6164 -0.3187 2.3914
5.6211 -0.1137 2.3914
5.6191 0.0913 2.3914
5.6103 0.2961 2.3914
5.5948 0.5004 2.3914
5.5726 0.7041 2.3914
5.5438 0.9069 2.3914
5.5083 1.1088 2.3914
5.4662 1.3094 2.3914
5.4175 1.5085 2.3914
5.3622 1.7061 2.3914
5.3004 1.9019 2.3914
5.2322 2.0957 2.3914
5.1576 2.2873 2.3914
5.0766 2.4766 2.3914
4.9894 2.6633 2.3914
4.8959 2.8472 2.3914
4.7962 3.0282 2.3914
4.6905 3.2060 2.3914
4.5788 3.3806 2.3914
4.4611 3.5516 2.3914
4.3377 3.7190 2.3914
4.2085 3.8824 2.3914
4.0736 4.0418 2.3914
3.9329 4.1975 2.3914
3.7874 4.3476 2.3914
3.6363 4.4937 2.3914
3.4800 4.6349 2.3914
3.3187 4.7712 2.3914
3.1525 4.9023 2.3914
2.9814 5.0281 2.3914
2.8058 5.1483 2.3914
2.6257 5.2629 2.3914
2.4412 5.3715 2.3914
2.2527 5.4742 2.3914
0.8504 2.2996 0.9872
0.7672 2.3302 0.9844
0.6829 2.3578 0.9816
0.5977 2.3823 0.9787
0.5117 2.4037 0.9757
0.4249 2.4220 0.9727
0.3375 2.4371 0.9697
0.2496 2.4491 0.9666
0.1613 2.4579 0.9635
0.0728 2.4635 0.9604
-0.0159 2.4659 0.9572
-0.1046 2.4651 0.9540
-0.1933 2.4610 0.9508
-0.2817 2.4538 0.9476
-0.3698 2.4434 0.9444
-0.4575 2.4298 0.9411
-0.5446 2.4130 0.9379
-0.6311 2.3931 0.9347
-0.7168 2.3701 0.9314
-0.8015 2.3440 0.9282
-0.8853 2.3148 0.9250
-2.5112 5.9215 2.3914
-2.7318 5.8504 2.3914
-2.9505 5.7709 2.3914
-3.1667 5.6832 2.3914
-3.3803 5.5872 2.3914
-3.5908 5.4831 2.3914
-3.7979 5.3709 2.3914
-4.0014 5.2507 2.3914
-4.2007 5.1225 2.3914
-4.3957 4.9866 2.3914
-4.5860 4.8430 2.3914
-4.7712 4.6919 2.3914
-4.9510 4.5334 2.3914
-5.1251 4.3678 2.3914
-5.2932 4.1953 2.3914
-5.4550 4.0160 2.3914
-5.6101 3.8302 2.3914
-5.7582 3.6381 2.3914
-5.8992 3.4400 2.3914
-6.0326 3.2362 2.3914
-6.1583 3.0269 2.3914
-6.2759 2.8125 2.3914
-6.3853 2.5933 2.3914
-6.4862 2.3696 2.3914
-6.5784 2.1418 2.3914
-6.6617 1.9102 2.3914
-6.7359 1.6753 2.3914
-6.8009 1.4372 2.3914
-6.8565 1.1966 2.3914
-6.9026 0.9537 2.3914
-6.9390 0.7089 2.3914
-6.9658 0.4628 2.3914
-6.9827 0.2153 2.3914
-0.8797 2.1478 0.9242
-2.4826 5.4930 2.3914
-2.6871 5.4204 2.3914
-2.8895 5.3401 2.3914
-3.0893 5.2522 2.3914
-3.2863 5.1566 2.3914
-3.4803 5.0535 2.3914
-3.6707 4.9430 2.3914
-3.8575 4.8251 2.3914
-4.0402 4.7000 2.3914
-4.2186 4.5677 2.3914
-4.3923 4.4285 2.3914
-4.5610 4.2824 2.3914
-4.7246 4.1296 2.3914
-4.8825 3.9704 2.3914
-5.0346 3.8049 2.3914
-5.1807 3.6333 2.3914
-5.3203 3.4559 2.3914
-5.4533 3.2729 2.3914
-5.5794 3.0845 2.3914
-5.6983 2.8910 2.3914
-5.8099 2.6927 2.3914
-5.9138 2.4899 2.3914
-6.0100 2.2829 2.3914
-6.0981 2.0720 2.3914
-6.1780 1.8575 2.3914
-6.2497 1.6398 2.3914
-6.3128 1.4191 2.3914
-6.3672 1.1960 2.3914
-6.4129 0.9706 2.3914
-6.4497 0.7435 2.3914
-6.4776 0.5149 2.3914
-6.4965 0.2852 2.3914
-6.5063 0.0549 2.3914
-6.5070 -0.1757 2.3914
-6.4986 -0.4063 2.3914
-6.4811 -0.6363 2.3914
-6.4546 -0.8656 2.3914
-6.4190 -1.0936 2.3914
-6.3745 -1.3199 2.3914
-6.3210 -1.5443 2.3914
-6.2588 -1.7663 2.3914
-6.1879 -1.9856 2.3914
-6.1085 -2.2017 2.3914
-6.0207 -2.4144 2.3914
-5.9246 -2.6234 2.3914
-5.8206 -2.8282 2.3914
-5.7087 -3.0286 2.3914
-5.5892 -3.2242 2.3914
-5.4623 -3.4147 2.3914
-5.3282 -3.5999 2.3914
-5.1872 -3.7795 2.3914
-5.0396 -3.9532 2.3914
-4.8856 -4.1207 2.3914
-4.7255 -4.2819 2.3914
-4.5597 -4.4365 2.3914
-4.3883 -4.5843 2.3914
-4.2117 -4.7251 2.3914
-4.0303 -4.8587 2.3914
-3.8442 -4.9851 2.3914
-3.6540 -5.1041 2.3914
-3.4598 -5.2153 2.3914
-3.2621 -5.3189 2.3914
-3.0610 -5.4147 2.3914
-2.8571 -5.5027 2.3914
-2.6505 -5.5827 2.3914
-2.4416 -5.6547 2.3914
-2.2308 -5.7188 2.3914
-2.0184 -5.7747 2.3914
-1.8046 -5.8226 2.3914
-1.5899 -5.8625 2.3914
-1.3745 -5.8943 2.3914
-1.1587 -5.9181 2.3914
-0.9429 -5.9340 2.3914
-0.7273 -5.9420 2.3914
-0.5122 -5.9421 2.3914
-0.2980 -5.9344 2.3914
-0.0848 -5.9191 2.3914
0.1269 -5.8962 2.3914
0.3371 -5.8657 2.3914
0.5453 -5.8279 2.3914
0.7513 -5.7828 2.3914
0.9551 -5.7307 2.3914
1.1562 -5.6716 2.3914
1.3544 -5.6055 2.3914
1.5495 -5.5328 2.3914
1.7414 -5.4535 2.3914
1.9297 -5.3679 2.3914
2.1144 -5.2760 2.3914
2.2952 -5.1780 2.3914
2.4719 -5.0741 2.3914
2.6444 -4.9645 2.3914
2.8125 -4.8494 2.3914
2.9761 -4.7289 2.3914
3.1349 -4.6032 2.3914
3.2890 -4.4726 2.3914
3.4380 -4.3371 2.3914
3.5820 -4.1970 2.3914
3.7207 -4.0524 2.3914
3.8541 -3.9036 2.3914
3.9820 -3.7508 2.3914
4.1044 -3.5941 2.3914
4.2212 -3.4338 2.3914
4.3322 -3.2700 2.3914
4.4374 -3.1029 2.3914
4.5368 -2.9328 2.3914
4.6302 -2.7598 2.3914
4.7176 -2.5840 2.3914
4.7989 -2.4058 2.3914
4.8741 -2.2253 2.3914
4.9431 -2.0427 2.3914
5.0059 -1.8582 2.3914
5.0625 -1.6720 2.3914
5.1127 -1.4842 2.3914
5.1567 -1.2951 2.3914
5.1943 -1.1049 2.3914
5.2256 -0.9138 2.3914
5.2505 -0.7218 2.3914
5.2690 -0.5294 2.3914
5.2811 -0.3365 2.3914
5.2869 -0.1434 2.3914
5.2863 0.0496 2.3914
