ply
format ascii 1.0
element vertex 2173
property float32 x
property float32 y
property float32 z
end_header
6.4211 4.4744 1.6656
6.4402 4.8405 1.7152
6.4606 5.2293 1.7702
6.4824 5.6441 1.8311
6.5057 6.0887 1.8989
6.5308 6.5679 1.9745
6.4390 6.9586 2.0216
6.0090 6.9811 1.9647
5.9041 7.3797 2.0164
6.4739 -7.0807 2.2368
6.7228 -6.8426 2.2370
6.9627 -6.5956 2.2372
5.1034 -4.4980 1.5873
7.4148 -6.0765 2.2375
7.6264 -5.8051 2.2377
7.8283 -5.5265 2.2380
8.0201 -5.2409 2.2383
8.2015 -4.9487 2.2386
8.3722 -4.6502 2.2389
8.5320 -4.3458 2.2393
8.6754 -4.0333 2.2382
8.8140 -3.7191 2.2389
8.9449 -3.4014 2.2404
9.0640 -3.0790 2.2420
9.1660 -2.7508 2.2421
9.2553 -2.4190 2.2421
9.3327 -2.0843 2.2421
9.3979 -1.7472 2.2421
9.4509 -1.4081 2.2421
8.7726 -0.9866 2.0722
9.2780 -0.7072 2.1851
9.5364 -0.3832 2.2421
9.5403 -0.0406 2.2421
8.1953 0.2596 1.9277
5.7380 0.3884 1.3526
5.5476 0.5762 1.3123
5.5582 0.7800 1.3211
5.5691 0.9866 1.3318
6.2569 1.3418 1.5074
6.2695 1.5820 1.5237
6.2823 1.8276 1.5424
6.2955 2.0794 1.5635
6.3091 2.3384 1.5873
6.3231 2.6056 1.6140
6.3376 2.8820 1.6436
6.3526 3.1689 1.6766
6.3683 3.4678 1.7131
6.3847 3.7802 1.7535
6.4018 4.1079 1.7982
6.4199 4.4529 1.8476
6.4391 4.8177 1.9023
6.4594 5.2051 1.9630
6.4810 5.6182 2.0302
6.5042 6.0610 2.1050
6.5292 6.5380 2.1883
6.4431 6.9329 2.2421
6.0342 6.9798 2.1863
5.9257 7.3739 2.2421
5.6548 7.5792 2.2418
5.3765 7.7739 2.2413
5.0914 7.9585 2.2408
4.8001 8.1327 2.2403
4.5029 8.2963 2.2397
4.2002 8.4491 2.2392
3.8923 8.5910 2.2386
3.5797 8.7217 2.2380
3.2627 8.8412 2.2375
2.9418 8.9493 2.2369
6.2326 -7.2971 2.2368
6.4888 -7.0668 2.2368
6.7372 -6.8282 2.2370
6.9766 -6.5807 2.2372
5.1159 -4.4898 1.5883
7.4275 -6.0606 2.2376
7.6386 -5.7888 2.2377
7.8399 -5.5098 2.2380
8.0311 -5.2238 2.2383
8.2119 -4.9312 2.2386
8.3820 -4.6323 2.2390
8.5411 -4.3276 2.2393
8.6838 -4.0148 2.2382
8.8221 -3.7004 2.2390
8.9523 -3.3824 2.2405
9.0704 -3.0597 2.2420
9.1716 -2.7312 2.2421
9.2603 -2.3993 2.2421
9.3369 -2.0645 2.2421
9.4014 -1.7272 2.2421
9.3540 -1.3734 2.2185
8.7669 -0.9671 2.0705
9.2847 -0.6879 2.1863
9.5370 -0.3630 2.2421
9.5401 -0.0203 2.2421
7.9930 0.2702 1.8803
5.6377 0.3936 1.3292
5.5482 0.5882 1.3128
5.5589 0.7921 1.3217
5.5697 0.9989 1.3325
6.2576 1.3559 1.5083
6.2702 1.5964 1.5247
6.2831 1.8423 1.5436
6.2963 2.0946 1.5649
6.3099 2.3540 1.5888
6.3240 2.6217 1.6156
6.3385 2.8987 1.6455
6.3535 3.1863 1.6786
6.3693 3.4859 1.7154
6.3857 3.7991 1.7560
6.4029 4.1278 1.8010
6.4210 4.4739 1.8507
6.4402 4.8400 1.9058
6.4606 5.2288 1.9667
6.4823 5.6435 2.0344
6.5056 6.0882 2.1096
6.6754 6.7128 2.2421
6.4282 6.9464 2.2421
6.0094 6.9811 2.1827
5.9099 7.3863 2.2421
5.6386 7.5910 2.2418
5.3598 7.7851 2.2413
5.0744 7.9691 2.2408
4.7827 8.1427 2.2402
4.4851 8.3056 2.2397
4.1821 8.4578 2.2391
3.8739 8.5990 2.2386
3.5610 8.7291 2.2380
3.2438 8.8479 2.2374
2.9227 8.9553 2.2369
-3.8534 8.2933 2.3892
-4.1495 8.1507 2.3892
-4.4404 7.9977 2.3892
-4.7257 7.8344 2.3892
-5.0051 7.6610 2.3892
-5.2781 7.4778 2.3892
-5.5445 7.2848 2.3892
-5.8040 7.0825 2.3892
-6.0561 6.8710 2.3892
-6.3005 6.6506 2.3892
-6.5370 6.4216 2.3892
-6.7652 6.1842 2.3892
-6.9849 5.9388 2.3892
-7.1957 5.6856 2.3892
-7.3974 5.4250 2.3892
-7.5897 5.1572 2.3892
-7.7723 4.8827 2.3892
-7.9451 4.6018 2.3892
-8.1079 4.3147 2.3892
-8.2602 4.0221 2.3892
-8.4021 3.7239 2.3892
-8.5332 3.4210 2.3892
-8.6535 3.1133 2.3892
-8.7626 2.8014 2.3892
-8.8606 2.4858 2.3892
-8.9473 2.1667 2.3892
-9.0225 1.8446 2.3892
-9.0861 1.5200 2.3892
-9.1381 1.1931 2.3892
-9.1783 0.8645 2.3892
-9.2067 0.5345 2.3892
-9.2233 0.2036 2.3892
-9.2279 -0.1277 2.3892
-9.2207 -0.4592 2.3892
-9.2015 -0.7902 2.3892
-9.1705 -1.1205 2.3892
-9.1276 -1.4496 2.3892
-9.0729 -1.7770 2.3892
-9.0064 -2.1023 2.3892
-8.9282 -2.4252 2.3892
-8.8384 -2.7451 2.3892
-8.7371 -3.0617 2.3892
-8.6245 -3.3745 2.3892
-8.5006 -3.6832 2.3892
-8.3657 -3.9873 2.3892
-8.2198 -4.2864 2.3892
-8.0632 -4.5801 2.3892
-7.8960 -4.8681 2.3892
-7.7185 -5.1500 2.3892
-7.5309 -5.4253 2.3892
-7.3334 -5.6938 2.3892
-7.1263 -5.9550 2.3892
-6.9098 -6.2087 2.3892
-6.6843 -6.4544 2.3892
-6.4500 -6.6918 2.3892
-6.2072 -6.9207 2.3892
-5.9562 -7.1407 2.3892
-5.6973 -7.3516 2.3892
-5.4310 -7.5530 2.3892
-5.1575 -7.7446 2.3892
-4.8772 -7.9262 2.3892
-4.5904 -8.0977 2.3892
-4.2976 -8.2586 2.3892
-3.9990 -8.4089 2.3892
-3.6952 -8.5483 2.3892
-3.3866 -8.6766 2.3892
-3.0734 -8.7936 2.3892
-2.7561 -8.8992 2.3892
-2.4352 -8.9933 2.3892
-2.1111 -9.0757 2.3892
-1.7842 -9.1463 2.3892
-1.4549 -9.2050 2.3892
-1.1237 -9.2518 2.3892
-0.7910 -9.2865 2.3892
-0.4572 -9.3091 2.3892
-0.1229 -9.3196 2.3892
0.2116 -9.3180 2.3892
0.5459 -9.3043 2.3892
0.8794 -9.2785 2.3892
1.2118 -9.2406 2.3892
1.5425 -9.1906 2.3892
1.8712 -9.1287 2.3892
2.1974 -9.0550 2.3892
2.5207 -8.9695 2.3892
2.8407 -8.8723 2.3892
3.1569 -8.7636 2.3892
3.4689 -8.6436 2.3892
3.7764 -8.5123 2.3892
4.0788 -8.3700 2.3892
4.3758 -8.2169 2.3892
4.6671 -8.0532 2.3892
4.9522 -7.8790 2.3892
5.2307 -7.6947 2.3892
5.1514 -7.0220 2.2368
5.3989 -6.8311 2.2368
5.6393 -6.6314 2.2368
5.8723 -6.4232 2.2368
6.0975 -6.2067 2.2368
6.3148 -5.9824 2.2368
5.1032 -4.4982 1.7497
6.7275 -5.5138 2.2379
6.9196 -5.2676 2.2381
7.1028 -5.0148 2.2383
7.2768 -4.7557 2.2385
7.4415 -4.4906 2.2388
7.5965 -4.2198 2.2391
7.7360 -3.9408 2.2377
7.8724 -3.6605 2.2384
8.0011 -3.3766 2.2398
8.1196 -3.0881 2.2413
8.2256 -2.7947 2.2421
8.3178 -2.4967 2.2421
8.3992 -2.1957 2.2421
8.4696 -1.8921 2.2421
8.5291 -1.5862 2.2421
8.5775 -1.2785 2.2421
8.6148 -0.9694 2.2421
8.6410 -0.6592 2.2421
8.6560 -0.3484 2.2421
8.6598 -0.0373 2.2421
8.2009 0.2593 2.1251
5.7407 0.3882 1.4908
5.5475 0.5759 1.4456
5.5582 0.7797 1.4552
5.5690 0.9863 1.4669
6.2569 1.3415 1.6603
6.2695 1.5816 1.6782
6.2823 1.8272 1.6987
6.2955 2.0791 1.7220
6.3091 2.3380 1.7481
6.3231 2.6052 1.7774
6.3376 2.8816 1.8100
6.3526 3.1685 1.8462
6.3683 3.4674 1.8864
6.3847 3.7797 1.9308
6.4018 4.1074 1.9800
6.4199 4.4524 2.0344
6.4390 4.8172 2.0946
6.4593 5.2046 2.1612
6.5010 5.6350 2.2421
6.2927 5.8634 2.2421
6.0765 6.0841 2.2421
5.8525 6.2969 2.2421
5.6205 6.5008 2.2419
5.3811 6.6957 2.2414
5.1349 6.8818 2.2410
4.8823 7.0589 2.2405
4.6237 7.2268 2.2400
4.3593 7.3853 2.2395
4.0895 7.5341 2.2390
3.8147 7.6732 2.2385
3.5352 7.8024 2.2380
3.2514 7.9214 2.2375
2.9636 8.0302 2.2370
2.6825 8.1601 2.2451
2.5406 8.7797 2.3892
0.8907 3.5512 0.9571
0.7626 3.5814 0.9573
0.6335 3.6069 0.9575
0.5035 3.6277 0.9577
0.3729 3.6438 0.9578
0.2418 3.6552 0.9579
0.1103 3.6618 0.9580
-0.0214 3.6636 0.9581
-0.1530 3.6607 0.9581
-0.2844 3.6530 0.9581
-0.4155 3.6406 0.9581
-0.5461 3.6234 0.9581
-0.6759 3.6015 0.9581
-0.8049 3.5749 0.9580
-2.3266 8.8382 2.3892
-2.6429 8.7498 2.3892
-2.9559 8.6501 2.3892
-3.2652 8.5393 2.3892
-3.5703 8.4176 2.3892
-3.8710 8.2851 2.3892
-4.1669 8.1420 2.3892
-4.4574 7.9883 2.3892
-4.7424 7.8244 2.3892
-5.0214 7.6504 2.3892
-5.2941 7.4666 2.3892
-5.5601 7.2731 2.3892
-5.8191 7.0702 2.3892
-6.0707 6.8582 2.3892
-6.3147 6.6373 2.3892
-6.5507 6.4078 2.3892
-6.7784 6.1699 2.3892
-6.9976 5.9240 2.3892
-7.2079 5.6704 2.3892
-7.4090 5.4093 2.3892
-7.6007 5.1412 2.3892
-7.7828 4.8663 2.3892
-7.9551 4.5850 2.3892
-8.1171 4.2977 2.3892
-8.2689 4.0046 2.3892
-8.4101 3.7062 2.3892
-8.5406 3.4029 2.3892
-8.6602 3.0950 2.3892
-8.7688 2.7828 2.3892
-8.8661 2.4670 2.3892
-8.9521 2.1477 2.3892
-9.0266 1.8255 2.3892
-9.0895 1.5007 2.3892
-9.1408 1.1737 2.3892
-9.1803 0.8450 2.3892
-9.2080 0.5149 2.3892
-9.2239 0.1841 2.3892
-9.2278 -0.1473 2.3892
-9.2199 -0.4788 2.3892
-9.2000 -0.8098 2.3892
-9.1683 -1.1400 2.3892
-9.1247 -1.4690 2.3892
-9.0693 -1.7963 2.3892
-9.0021 -2.1215 2.3892
-8.9232 -2.4442 2.3892
-8.8328 -2.7639 2.3892
-8.7308 -3.0803 2.3892
-8.6175 -3.3929 2.3892
-8.4929 -3.7013 2.3892
-8.3573 -4.0051 2.3892
-8.2108 -4.3039 2.3892
-8.0536 -4.5973 2.3892
-7.8858 -4.8850 2.3892
-7.7077 -5.1665 2.3892
-7.5195 -5.4414 2.3892
-7.3214 -5.7095 2.3892
-7.1137 -5.9702 2.3892
-6.8967 -6.2234 2.3892
-6.6707 -6.4687 2.3892
-6.4358 -6.7056 2.3892
-6.1925 -6.9340 2.3892
-5.9411 -7.1535 2.3892
-5.6818 -7.3638 2.3892
-5.4150 -7.5646 2.3892
-5.1411 -7.7556 2.3892
-4.8604 -7.9367 2.3892
-4.5732 -8.1075 2.3892
-4.2800 -8.2678 2.3892
-3.9812 -8.4174 2.3892
-3.6771 -8.5562 2.3892
-3.3681 -8.6838 2.3892
-3.0547 -8.8002 2.3892
-2.7373 -8.9051 2.3892
-2.4162 -8.9985 2.3892
-2.0919 -9.0802 2.3892
-1.7648 -9.1501 2.3892
-1.4354 -9.2081 2.3892
-1.1040 -9.2542 2.3892
-0.7713 -9.2882 2.3892
-0.4375 -9.3101 2.3892
-0.1031 -9.3199 2.3892
0.2314 -9.3176 2.3892
0.5656 -9.3031 2.3892
0.8991 -9.2765 2.3892
1.2314 -9.2379 2.3892
1.5620 -9.1873 2.3892
1.8906 -9.1247 2.3892
2.2167 -9.0503 2.3892
2.5398 -8.9641 2.3892
2.8595 -8.8662 2.3892
3.1755 -8.7569 2.3892
3.4873 -8.6361 2.3892
3.7944 -8.5042 2.3892
4.0965 -8.3613 2.3892
4.3932 -8.2076 2.3892
4.6842 -8.0432 2.3892
4.9689 -7.8684 2.3892
5.2470 -7.6835 2.3892
5.1662 -7.0110 2.2368
5.4134 -6.8195 2.2368
5.6533 -6.6193 2.2368
5.8859 -6.4106 2.2368
6.1106 -6.1937 2.2368
6.3274 -5.9688 2.2368
5.1156 -4.4899 1.7507
6.7391 -5.4994 2.2379
6.9307 -5.2529 2.2381
7.1133 -4.9996 2.2383
7.2868 -4.7402 2.2385
7.4510 -4.4748 2.2388
7.6047 -4.2032 2.2389
7.7443 -3.9243 2.2377
7.8803 -3.6438 2.2385
8.0084 -3.3596 2.2399
8.1263 -3.0709 2.2413
8.2314 -2.7772 2.2421
8.3229 -2.4790 2.2421
8.4036 -2.1778 2.2421
8.4735 -1.8741 2.2421
8.5323 -1.5681 2.2421
8.5800 -1.2603 2.2421
8.6167 -0.9510 2.2421
8.6422 -0.6408 2.2421
8.6565 -0.3300 2.2421
8.6597 -0.0189 2.2421
7.9984 0.2699 2.0728
5.6404 0.3935 1.4650
5.5482 0.5879 1.4461
5.5589 0.7918 1.4559
5.5697 0.9986 1.4677
6.2576 1.3555 1.6613
6.2702 1.5960 1.6794
6.2831 1.8420 1.7000
6.2963 2.0942 1.7235
6.3099 2.3536 1.7498
6.3239 2.6213 1.7792
6.3385 2.8983 1.8121
6.3535 3.1858 1.8485
6.3692 3.4855 1.8889
6.3856 3.7987 1.9336
6.4029 4.1273 1.9831
6.4210 4.4735 2.0378
6.4402 4.8395 2.0983
6.4606 5.2283 2.1654
6.4889 5.6488 2.2421
6.2801 5.8767 2.2421
6.0634 6.0969 2.2421
5.8390 6.3093 2.2421
5.6065 6.5125 2.2418
5.3667 6.7069 2.2414
5.1201 6.8925 2.2409
4.8672 7.0691 2.2405
4.6082 7.2364 2.2400
4.3435 7.3943 2.2395
4.0734 7.5427 2.2390
3.7983 7.6812 2.2385
3.5185 7.8097 2.2380
3.2345 7.9282 2.2375
2.9465 8.0363 2.2370
2.6770 8.2019 2.2551
2.5219 8.7850 2.3892
0.8831 3.5532 0.9572
0.7550 3.5830 0.9573
0.6258 3.6083 0.9575
0.4958 3.6288 0.9577
0.3652 3.6446 0.9578
0.2340 3.6557 0.9579
0.1025 3.6620 0.9580
-0.0292 3.6636 0.9581
-0.1608 3.6604 0.9581
-0.2922 3.6524 0.9581
-0.4233 3.6397 0.9581
-0.5538 3.6222 0.9581
-0.6836 3.6000 0.9581
-0.8125 3.5731 0.9580
-2.3454 8.8333 2.3892
-2.6615 8.7442 2.3892
-2.9743 8.6438 2.3892
-3.2833 8.5324 2.3892
-3.5883 8.4101 2.3892
-3.8887 8.2769 2.3892
-4.1842 8.1332 2.3892
-4.4745 7.9789 2.3892
-4.7591 7.8144 2.3892
-5.0377 7.6398 2.3892
-5.3100 7.4555 2.3892
-5.5756 7.2614 2.3892
-5.8342 7.0579 2.3892
-6.0854 6.8454 2.3892
-6.3289 6.6239 2.3892
-6.5644 6.3939 2.3892
-6.7917 6.1555 2.3892
-7.0103 5.9092 2.3892
-7.2200 5.6551 2.3892
-7.4206 5.3936 2.3892
-7.6118 5.1251 2.3892
-7.7933 4.8498 2.3892
-7.9649 4.5681 2.3892
-8.1264 4.2804 2.3892
-8.2776 3.9871 2.3892
-8.4182 3.6884 2.3892
-8.5480 3.3848 2.3892
-8.6670 3.0766 2.3892
-8.7748 2.7643 2.3892
-8.8715 2.4482 2.3892
-8.9568 2.1287 2.3892
-9.0306 1.8063 2.3892
-9.0929 1.4814 2.3892
-9.1434 1.1543 2.3892
-9.1823 0.8255 2.3892
-9.2093 0.4954 2.3892
-9.2244 0.1644 2.3892
-9.2277 -0.1670 2.3892
-9.2190 -0.4984 2.3892
-9.1985 -0.8294 2.3892
-9.1661 -1.1595 2.3892
-9.1218 -1.4884 2.3892
-9.0656 -1.8156 2.3892
-8.9977 -2.1407 2.3892
-8.9182 -2.4632 2.3892
-8.8270 -2.7827 2.3892
-8.7244 -3.0989 2.3892
-8.6104 -3.4113 2.3892
-8.4852 -3.7194 2.3892
-8.3490 -4.0229 2.3892
-8.2018 -4.3214 2.3892
-8.0439 -4.6145 2.3892
-7.8755 -4.9018 2.3892
-7.6968 -5.1829 2.3892
-7.5080 -5.4575 2.3892
-7.3094 -5.7251 2.3892
-7.1012 -5.9854 2.3892
-6.8836 -6.2382 2.3892
-6.6570 -6.4829 2.3892
-6.4217 -6.7194 2.3892
-6.1779 -6.9473 2.3892
-5.9259 -7.1662 2.3892
-5.6662 -7.3759 2.3892
-5.3990 -7.5761 2.3892
-5.1246 -7.7666 2.3892
-4.8435 -7.9471 2.3892
-4.5560 -8.1173 2.3892
-4.2625 -8.2770 2.3892
-3.9634 -8.4259 2.3892
-3.6590 -8.5640 2.3892
-3.3497 -8.6910 2.3892
-3.0360 -8.8067 2.3892
-2.7183 -8.9110 2.3892
-2.3970 -9.0037 2.3892
-3.5268 7.5900 2.3892
-3.7978 7.4595 2.3892
-4.0640 7.3193 2.3892
-4.3251 7.1698 2.3892
-4.5807 7.0110 2.3892
-4.8305 6.8431 2.3892
-5.0743 6.6665 2.3892
-5.3116 6.4812 2.3892
-5.5422 6.2875 2.3892
-5.7658 6.0857 2.3892
-5.9821 5.8760 2.3892
-6.1908 5.6586 2.3892
-6.3917 5.4339 2.3892
-6.5844 5.2021 2.3892
-6.7688 4.9635 2.3892
-6.9446 4.7184 2.3892
-7.1116 4.4672 2.3892
-7.2695 4.2100 2.3892
-7.4182 3.9473 2.3892
-7.5574 3.6794 2.3892
-7.6870 3.4066 2.3892
-7.8068 3.1292 2.3892
-7.9166 2.8477 2.3892
-8.0163 2.5624 2.3892
-8.1057 2.2735 2.3892
-8.1848 1.9816 2.3892
-8.2533 1.6869 2.3892
-8.3113 1.3898 2.3892
-8.3586 1.0908 2.3892
-8.3951 0.7902 2.3892
-8.4209 0.4884 2.3892
-8.4358 0.1858 2.3892
-8.4398 -0.1173 2.3892
-8.4329 -0.4204 2.3892
-8.4152 -0.7232 2.3892
-8.3866 -1.0252 2.3892
-8.3471 -1.3261 2.3892
-8.2968 -1.6255 2.3892
-8.2358 -1.9229 2.3892
-8.1641 -2.2181 2.3892
-8.0818 -2.5106 2.3892
-7.9889 -2.8000 2.3892
-7.8857 -3.0859 2.3892
-7.7722 -3.3681 2.3892
-7.6486 -3.6460 2.3892
-7.5151 -3.9194 2.3892
-7.3717 -4.1878 2.3892
-7.2187 -4.4510 2.3892
-7.0562 -4.7086 2.3892
-6.8845 -4.9602 2.3892
-6.7039 -5.2055 2.3892
-6.5144 -5.4442 2.3892
-6.3164 -5.6759 2.3892
-6.1101 -5.9004 2.3892
-5.8958 -6.1173 2.3892
-5.6737 -6.3264 2.3892
-5.4442 -6.5274 2.3892
-5.2075 -6.7200 2.3892
-4.9640 -6.9039 2.3892
-4.7139 -7.0790 2.3892
-4.4576 -7.2449 2.3892
-4.1954 -7.4015 2.3892
-3.9278 -7.5485 2.3892
-3.6549 -7.6857 2.3892
-3.3772 -7.8130 2.3892
-3.0950 -7.9302 2.3892
-2.8088 -8.0370 2.3892
-2.5188 -8.1335 2.3892
-2.2256 -8.2194 2.3892
-1.9293 -8.2947 2.3892
-1.6305 -8.3591 2.3892
-1.3296 -8.4128 2.3892
-1.0269 -8.4555 2.3892
-0.7229 -8.4871 2.3892
-0.4179 -8.5078 2.3892
-0.1123 -8.5174 2.3892
0.1934 -8.5159 2.3892
0.4989 -8.5034 2.3892
0.8037 -8.4798 2.3892
1.1074 -8.4452 2.3892
1.4097 -8.3996 2.3892
1.7101 -8.3431 2.3892
2.0082 -8.2758 2.3892
2.3037 -8.1977 2.3892
2.5961 -8.1089 2.3892
2.8851 -8.0096 2.3892
3.1703 -7.9001 2.3892
3.4513 -7.7802 2.3892
3.7278 -7.6502 2.3892
3.9993 -7.5104 2.3892
4.2656 -7.3608 2.3892
4.5262 -7.2018 2.3892
4.4759 -6.5848 2.2368
4.7084 -6.4187 2.2368
4.9348 -6.2443 2.2368
5.1546 -6.0619 2.2368
5.3677 -5.8717 2.2368
5.5736 -5.6739 2.2368
5.7723 -5.4689 2.2368
5.1030 -4.4984 1.9140
6.1467 -5.0382 2.2368
6.3219 -4.8131 2.2368
6.4889 -4.5818 2.2368
6.6531 -4.3485 2.2387
6.8006 -4.1043 2.2379
6.9397 -3.8554 2.2373
7.0740 -3.6040 2.2381
7.2007 -3.3487 2.2394
7.3183 -3.0888 2.2407
7.4264 -2.8249 2.2420
7.5212 -2.5558 2.2421
7.6057 -2.2835 2.2421
7.6804 -2.0083 2.2421
7.7450 -1.7307 2.2421
7.7996 -1.4510 2.2421
7.8441 -1.1697 2.2421
7.8785 -0.8870 2.2421
7.9026 -0.6033 2.2421
7.9166 -0.3191 2.2421
7.9203 -0.0346 2.2421
7.9138 0.2498 2.2421
5.7436 0.3881 1.6307
5.5475 0.5756 1.5804
5.5582 0.7793 1.5909
5.5690 0.9859 1.6037
6.2568 1.3411 1.8150
6.2694 1.5813 1.8346
6.2823 1.8268 1.8569
6.2955 2.0787 1.8823
6.3091 2.3376 1.9108
6.3231 2.6048 1.9428
6.3376 2.8812 1.9784
6.3526 3.1681 2.0179
6.3683 3.4669 2.0617
6.3846 3.7793 2.1103
6.4018 4.1069 2.1639
6.4742 4.4896 2.2421
6.3070 4.7180 2.2421
6.1319 4.9403 2.2421
5.9489 5.1560 2.2421
5.7584 5.3651 2.2421
5.5600 5.5665 2.2418
5.3542 5.7604 2.2414
5.1418 5.9466 2.2411
4.9229 6.1251 2.2406
4.6978 6.2956 2.2402
4.4669 6.4579 2.2398
4.2304 6.6117 2.2394
3.9887 6.7569 2.2389
3.7419 6.8934 2.2385
3.4906 7.0209 2.2380
3.2350 7.1393 2.2376
2.9753 7.2484 2.2371
2.7123 7.3488 2.2368
2.6129 7.9476 2.3892
0.9301 3.2139 0.9556
0.8141 3.2456 0.9558
0.6970 3.2732 0.9559
0.5790 3.2964 0.9561
0.4602 3.3154 0.9562
0.3408 3.3301 0.9564
0.2210 3.3405 0.9565
0.1008 3.3465 0.9566
-0.0195 3.3481 0.9566
-0.1398 3.3455 0.9567
-0.2600 3.3384 0.9567
-0.3798 3.3270 0.9567
-0.4991 3.3113 0.9567
-0.6178 3.2913 0.9566
-0.7356 3.2670 0.9566
-0.8525 3.2384 0.9565
-2.4190 8.0081 2.3892
-2.7055 7.9168 2.3892
-2.9885 7.8154 2.3892
-3.2678 7.7039 2.3892
-3.5430 7.5825 2.3892
-3.8137 7.4514 2.3892
-4.0796 7.3107 2.3892
-4.3404 7.1606 2.3892
-4.5957 7.0013 2.3892
-4.8451 6.8329 2.3892
-5.0885 6.6557 2.3892
-5.3254 6.4699 2.3892
-5.5556 6.2758 2.3892
-5.7788 6.0735 2.3892
-5.9946 5.8633 2.3892
-6.2029 5.6455 2.3892
-6.4033 5.4204 2.3892
-6.5956 5.1882 2.3892
-6.7795 4.9492 2.3892
-6.9548 4.7037 2.3892
-7.1212 4.4521 2.3892
-7.2786 4.1946 2.3892
-7.4267 3.9316 2.3892
-7.5654 3.6634 2.3892
-7.6944 3.3903 2.3892
-7.8136 3.1127 2.3892
-7.9228 2.8309 2.3892
-8.0219 2.5453 2.3892
-8.1107 2.2563 2.3892
-8.1891 1.9642 2.3892
-8.2571 1.6694 2.3892
-8.3144 1.3722 2.3892
-8.3610 1.0731 2.3892
-8.3969 0.7724 2.3892
-8.4221 0.4705 2.3892
-8.4363 0.1678 2.3892
-8.4397 -0.1352 2.3892
-8.4322 -0.4384 2.3892
-8.4138 -0.7411 2.3892
-8.3845 -1.0431 2.3892
-8.3444 -1.3439 2.3892
-8.2935 -1.6431 2.3892
-8.2318 -1.9405 2.3892
-8.1595 -2.2355 2.3892
-8.0766 -2.5278 2.3892
-7.9831 -2.8170 2.3892
-7.8793 -3.1027 2.3892
-7.7652 -3.3846 2.3892
-7.6410 -3.6623 2.3892
-7.5068 -3.9354 2.3892
-7.3629 -4.2036 2.3892
-7.2093 -4.4664 2.3892
-7.0463 -4.7237 2.3892
-6.8741 -4.9749 2.3892
-6.6929 -5.2198 2.3892
-6.5029 -5.4581 2.3892
-6.3044 -5.6894 2.3892
-6.0976 -5.9134 2.3892
-5.8828 -6.1299 2.3892
-5.6603 -6.3386 2.3892
-5.4304 -6.5391 2.3892
-5.1933 -6.7311 2.3892
-4.9493 -6.9145 2.3892
-4.6989 -7.0891 2.3892
-4.4422 -7.2544 2.3892
-4.1798 -7.4104 2.3892
-3.9117 -7.5569 2.3892
-3.6386 -7.6935 2.3892
-3.3606 -7.8202 2.3892
-3.0782 -7.9368 2.3892
-2.7917 -8.0430 2.3892
-2.5016 -8.1389 2.3892
-2.2081 -8.2242 2.3892
-1.9117 -8.2988 2.3892
-1.6128 -8.3626 2.3892
-1.3117 -8.4156 2.3892
-1.0089 -8.4576 2.3892
-0.7048 -8.4887 2.3892
-0.3998 -8.5087 2.3892
-0.0942 -8.5176 2.3892
0.2115 -8.5155 2.3892
0.5169 -8.5023 2.3892
0.8217 -8.4781 2.3892
1.1253 -8.4428 2.3892
1.4275 -8.3966 2.3892
1.7278 -8.3394 2.3892
2.0258 -8.2714 2.3892
2.3211 -8.1927 2.3892
2.6133 -8.1033 2.3892
2.9021 -8.0035 2.3892
3.1871 -7.8932 2.3892
3.4678 -7.7728 2.3892
3.7440 -7.6422 2.3892
4.0152 -7.5018 2.3892
4.2812 -7.3517 2.3892
4.5414 -7.1921 2.3892
4.4898 -6.5752 2.2368
4.7220 -6.4086 2.2368
4.9480 -6.2337 2.2368
5.1674 -6.0508 2.2368
5.3800 -5.8602 2.2368
5.5856 -5.6620 2.2368
5.7839 -5.4566 2.2368
5.1152 -4.4899 1.9151
6.1573 -5.0251 2.2368
6.3320 -4.7996 2.2368
6.4985 -4.5680 2.2368
6.6622 -4.3343 2.2387
6.8086 -4.0894 2.2377
6.9478 -3.8407 2.2374
7.0817 -3.5890 2.2382
7.2079 -3.3334 2.2394
7.3249 -3.0733 2.2407
7.4325 -2.8091 2.2420
7.5265 -2.5398 2.2421
7.6104 -2.2672 2.2421
7.6845 -1.9919 2.2421
7.7485 -1.7142 2.2421
7.8025 -1.4344 2.2421
7.8464 -1.1530 2.2421
7.8802 -0.8702 2.2421
7.9037 -0.5865 2.2421
7.9171 -0.3022 2.2421
7.9202 -0.0177 2.2421
7.9131 0.2666 2.2421
5.6431 0.3934 1.6024
5.5481 0.5876 1.5810
5.5588 0.7915 1.5916
5.5697 0.9983 1.6045
6.2576 1.3552 1.8161
6.2702 1.5956 1.8358
6.2831 1.8416 1.8583
6.2963 2.0938 1.8839
6.3099 2.3532 1.9126
6.3239 2.6208 1.9448
6.3384 2.8978 1.9806
6.3535 3.1854 2.0204
6.3692 3.4850 2.0645
6.3856 3.7982 2.1133
6.4028 4.1269 2.1673
6.4645 4.5033 2.2421
6.2969 4.7313 2.2421
6.1212 4.9532 2.2421
5.9379 5.1686 2.2421
5.7469 5.3773 2.2421
5.5480 5.5782 2.2418
5.3418 5.7717 2.2414
5.1290 5.9574 2.2410
4.9098 6.1354 2.2406
4.6843 6.3054 2.2402
4.4531 6.4672 2.2398
4.2162 6.6205 2.2394
3.9742 6.7652 2.2389
3.7272 6.9012 2.2385
3.4756 7.0281 2.2380
3.2197 7.1460 2.2375
2.9599 7.2546 2.2371
2.6966 7.3544 2.2368
2.5959 7.9531 2.3892
0.9232 3.2159 0.9556
0.8072 3.2474 0.9558
0.6900 3.2746 0.9560
0.5720 3.2977 0.9561
0.4532 3.3164 0.9563
0.3337 3.3308 0.9564
0.2138 3.3409 0.9565
0.0937 3.3467 0.9566
-0.0267 3.3481 0.9566
-0.1470 3.3452 0.9567
-0.2671 3.3379 0.9567
-0.3868 3.3262 0.9567
-0.5061 3.3102 0.9567
-0.6248 3.2900 0.9566
-0.7426 3.2654 0.9566
-0.8594 3.2366 0.9565
-2.4361 8.0030 2.3892
-2.7223 7.9111 2.3892
-3.0052 7.8091 2.3892
-3.2842 7.6970 2.3892
-3.5592 7.5750 2.3892
-3.8296 7.4434 2.3892
-4.0952 7.3021 2.3892
-4.3556 7.1514 2.3892
-4.6106 6.9916 2.3892
-4.8597 6.8227 2.3892
-5.1027 6.6450 2.3892
-5.3392 6.4585 2.3892
-5.5690 6.2640 2.3892
-5.7918 6.0613 2.3892
-6.0072 5.8506 2.3892
-6.2150 5.6324 2.3892
-6.4149 5.4068 2.3892
-6.6067 5.1742 2.3892
-6.7901 4.9348 2.3892
-6.9649 4.6890 2.3892
-7.1308 4.4370 2.3892
-7.2876 4.1792 2.3892
-7.4352 3.9159 2.3892
-7.5733 3.6473 2.3892
-7.7017 3.3740 2.3892
-7.8203 3.0961 2.3892
-7.9289 2.8141 2.3892
-8.0274 2.5283 2.3892
-8.1156 2.2391 2.3892
-8.1934 1.9468 2.3892
-8.2607 1.6518 2.3892
-8.3174 1.3545 2.3892
-8.3635 1.0553 2.3892
-8.3987 0.7546 2.3892
-8.4232 0.4526 2.3892
-8.4368 0.1499 2.3892
-8.4396 -0.1532 2.3892
-8.4314 -0.4563 2.3892
-8.4124 -0.7590 2.3892
-8.3825 -1.0609 2.3892
-8.3417 -1.3616 2.3892
-8.2902 -1.6608 2.3892
-8.2278 -1.9580 2.3892
-8.1549 -2.2529 2.3892
-8.0713 -2.5450 2.3892
-7.9773 -2.8340 2.3892
-7.8728 -3.1195 2.3892
-7.7581 -3.4012 2.3892
-7.6333 -3.6786 2.3892
-7.4986 -3.9514 2.3892
-7.3541 -4.2193 2.3892
-7.1999 -4.4818 2.3892
-7.0364 -4.7387 2.3892
-6.8636 -4.9896 2.3892
-6.6819 -5.2341 2.3892
-6.4914 -5.4720 2.3892
-6.2924 -5.7029 2.3892
-6.0851 -5.9265 2.3892
-5.8699 -6.1425 2.3892
-5.6469 -6.3507 2.3892
-5.4165 -6.5507 2.3892
-5.1790 -6.7422 2.3892
-4.9347 -6.9251 2.3892
-4.6839 -7.0991 2.3892
-4.4269 -7.2639 2.3892
-4.1641 -7.4194 2.3892
-3.8957 -7.5652 2.3892
-3.6223 -7.7013 2.3892
-3.3440 -7.8274 2.3892
-3.0614 -7.9433 2.3892
-2.7746 -8.0490 2.3892
-2.4843 -8.1442 2.3892
-2.1906 -8.2289 2.3892
-3.2481 6.9896 2.3892
-3.4976 6.8693 2.3892
-3.7427 6.7402 2.3892
-3.9831 6.6024 2.3892
-4.2184 6.4560 2.3892
-4.4484 6.3014 2.3892
-4.6728 6.1386 2.3892
-4.8913 5.9679 2.3892
-5.1036 5.7895 2.3892
-5.3094 5.6035 2.3892
-5.5085 5.4103 2.3892
-5.7006 5.2101 2.3892
-5.8854 5.0031 2.3892
-6.0628 4.7895 2.3892
-6.2325 4.5698 2.3892
-6.3942 4.3440 2.3892
-6.5478 4.1126 2.3892
-6.6931 3.8757 2.3892
-6.8299 3.6338 2.3892
-6.9579 3.3870 2.3892
-7.0770 3.1358 2.3892
-7.1872 2.8804 2.3892
-7.2881 2.6212 2.3892
-7.3797 2.3584 2.3892
-7.4618 2.0924 2.3892
-7.5344 1.8236 2.3892
-7.5973 1.5523 2.3892
-7.6505 1.2789 2.3892
-7.6939 1.0036 2.3892
-7.7273 0.7269 2.3892
-7.7508 0.4491 2.3892
-7.7643 0.1705 2.3892
-7.7679 -0.1084 2.3892
-7.7614 -0.3874 2.3892
-7.7448 -0.6660 2.3892
-7.7183 -0.9440 2.3892
-7.6818 -1.2209 2.3892
-7.6353 -1.4963 2.3892
-7.5790 -1.7700 2.3892
-7.5128 -2.0416 2.3892
-7.4369 -2.3107 2.3892
-7.3513 -2.5769 2.3892
-7.2562 -2.8400 2.3892
-7.1516 -3.0996 2.3892
-7.0377 -3.3552 2.3892
-6.9146 -3.6067 2.3892
-6.7826 -3.8536 2.3892
-6.6416 -4.0957 2.3892
-6.4920 -4.3326 2.3892
-6.3340 -4.5640 2.3892
-6.1676 -4.7896 2.3892
-5.9932 -5.0091 2.3892
-5.8109 -5.2221 2.3892
-5.6210 -5.4286 2.3892
-5.4237 -5.6280 2.3892
-5.2194 -5.8203 2.3892
-5.0081 -6.0051 2.3892
-4.7904 -6.1822 2.3892
-4.5663 -6.3513 2.3892
-4.3362 -6.5122 2.3892
-4.1004 -6.6647 2.3892
-3.8592 -6.8087 2.3892
-3.6129 -6.9438 2.3892
-3.3618 -7.0699 2.3892
-3.1064 -7.1870 2.3892
-2.8468 -7.2947 2.3892
-2.5835 -7.3929 2.3892
-2.3168 -7.4816 2.3892
-2.0470 -7.5606 2.3892
-1.7745 -7.6297 2.3892
-1.4997 -7.6890 2.3892
-1.2229 -7.7383 2.3892
-0.9445 -7.7775 2.3892
-0.6649 -7.8066 2.3892
-0.3843 -7.8256 2.3892
-0.1033 -7.8345 2.3892
0.1779 -7.8331 2.3892
0.4588 -7.8216 2.3892
0.7392 -7.7999 2.3892
1.0185 -7.7681 2.3892
1.2966 -7.7262 2.3892
1.5729 -7.6742 2.3892
1.8471 -7.6123 2.3892
2.1189 -7.5405 2.3892
2.3879 -7.4590 2.3892
2.6537 -7.3678 2.3892
2.9161 -7.2670 2.3892
3.1746 -7.1568 2.3892
3.4289 -7.0373 2.3892
3.6787 -6.9088 2.3892
3.9237 -6.7713 2.3892
3.8979 -6.2025 2.2368
4.1173 -6.0576 2.2368
4.3312 -5.9048 2.2368
4.5395 -5.7445 2.2368
4.7418 -5.5768 2.2368
4.9378 -5.4019 2.2368
5.1274 -5.2201 2.2368
5.3103 -5.0316 2.2368
5.1028 -4.4986 2.0804
5.6549 -4.6356 2.2368
5.8162 -4.4285 2.2368
5.9699 -4.2159 2.2368
6.1160 -3.9979 2.2368
6.2544 -3.7751 2.2370
6.3866 -3.5486 2.2378
6.5114 -3.3179 2.2390
6.6280 -3.0827 2.2402
6.7360 -2.8435 2.2414
6.8341 -2.6000 2.2421
6.9210 -2.3523 2.2421
6.9989 -2.1017 2.2421
7.0677 -1.8485 2.2421
7.1274 -1.5931 2.2421
7.1778 -1.3358 2.2421
7.2189 -1.0769 2.2421
7.2507 -0.8167 2.2421
7.2731 -0.5557 2.2421
7.2861 -0.2941 2.2421
7.2897 -0.0323 2.2421
7.2839 0.2294 2.2421
5.7464 0.3879 1.7725
5.5475 0.5752 1.7170
5.5582 0.7790 1.7284
5.5690 0.9856 1.7421
6.2568 1.3407 1.9717
6.2694 1.5809 1.9929
6.2823 1.8264 2.0171
6.2955 2.0783 2.0447
6.3091 2.3372 2.0756
6.3231 2.6043 2.1103
6.3375 2.8807 2.1489
6.4985 3.2404 2.2421
6.3762 3.4708 2.2421
6.2457 3.6966 2.2421
6.1073 3.9176 2.2421
5.9611 4.1334 2.2421
5.8073 4.3438 2.2421
5.6460 4.5484 2.2421
5.4769 4.7465 2.2417
5.3008 4.9383 2.2414
5.1181 5.1237 2.2411
4.9289 5.3023 2.2407
4.7334 5.4739 2.2404
4.5321 5.6384 2.2400
4.3250 5.7955 2.2396
4.1125 5.9451 2.2392
3.8949 6.0869 2.2388
3.6724 6.2208 2.2384
3.4454 6.3466 2.2380
3.2140 6.4641 2.2376
2.9787 6.5733 2.2372
2.7398 6.6746 2.2368
2.6076 7.0645 2.3349
2.4064 7.3192 2.3892
0.8555 2.9562 0.9544
0.7488 2.9854 0.9546
0.6411 3.0107 0.9548
0.5326 3.0320 0.9549
0.4233 3.0495 0.9550
0.3135 3.0630 0.9552
0.2032 3.0725 0.9552
0.0927 3.0780 0.9553
-0.0180 3.0795 0.9554
-0.1286 3.0770 0.9554
-0.2391 3.0705 0.9554
-0.3493 3.0601 0.9554
-0.4591 3.0456 0.9554
-0.5682 3.0272 0.9554
-0.6766 3.0048 0.9553
-0.7842 2.9786 0.9553
-0.8907 2.9484 0.9552
-2.4917 7.2908 2.3892
-2.7524 7.1973 2.3892
-3.0096 7.0946 2.3892
-3.2630 6.9827 2.3892
-3.5122 6.8619 2.3892
-3.7571 6.7323 2.3892
-3.9972 6.5939 2.3892
-4.2322 6.4471 2.3892
-4.4619 6.2920 2.3892
-4.6859 6.1287 2.3892
-4.9040 5.9575 2.3892
-5.1159 5.7786 2.3892
-5.3214 5.5922 2.3892
-5.5200 5.3986 2.3892
-5.7117 5.1980 2.3892
-5.8961 4.9906 2.3892
-6.0731 4.7767 2.3892
-6.2423 4.5566 2.3892
-6.4035 4.3305 2.3892
-6.5567 4.0987 2.3892
-6.7015 3.8616 2.3892
-6.8377 3.6193 2.3892
-6.9652 3.3723 2.3892
-7.0838 3.1208 2.3892
-7.1934 2.8652 2.3892
-7.2938 2.6057 2.3892
-7.3848 2.3427 2.3892
-7.4664 2.0766 2.3892
-7.5384 1.8077 2.3892
-7.6008 1.5362 2.3892
-7.6533 1.2626 2.3892
-7.6961 0.9873 2.3892
-7.7290 0.7105 2.3892
-7.7519 0.4326 2.3892
-7.7648 0.1540 2.3892
-7.7678 -0.1249 2.3892
-7.7607 -0.4039 2.3892
-7.7436 -0.6825 2.3892
-7.7164 -0.9604 2.3892
-7.6793 -1.2372 2.3892
-7.6323 -1.5126 2.3892
-7.5753 -1.7862 2.3892
-7.5086 -2.0576 2.3892
-7.4321 -2.3265 2.3892
-7.3459 -2.5926 2.3892
-7.2502 -2.8555 2.3892
-7.1451 -3.1148 2.3892
-7.0307 -3.3702 2.3892
-6.9071 -3.6214 2.3892
-6.7745 -3.8681 2.3892
-6.6330 -4.1099 2.3892
-6.4829 -4.3464 2.3892
-6.3243 -4.5775 2.3892
-6.1575 -4.8027 2.3892
-5.9826 -5.0218 2.3892
-5.7999 -5.2345 2.3892
-5.6095 -5.4406 2.3892
-5.4118 -5.6396 2.3892
-5.2070 -5.8315 2.3892
-4.9954 -6.0158 2.3892
-4.7773 -6.1924 2.3892
-4.5528 -6.3610 2.3892
-4.3224 -6.5215 2.3892
-4.0862 -6.6735 2.3892
-3.8447 -6.8169 2.3892
-3.5982 -6.9515 2.3892
-3.3468 -7.0771 2.3892
-3.0911 -7.1936 2.3892
-2.8313 -7.3007 2.3892
-2.5678 -7.3984 2.3892
-2.3009 -7.4865 2.3892
-2.0310 -7.5649 2.3892
-1.7584 -7.6335 2.3892
-1.4834 -7.6922 2.3892
-1.2065 -7.7409 2.3892
-0.9280 -7.7795 2.3892
-0.6483 -7.8080 2.3892
-0.3677 -7.8264 2.3892
-0.0866 -7.8346 2.3892
0.1945 -7.8327 2.3892
0.4755 -7.8206 2.3892
0.7557 -7.7983 2.3892
1.0350 -7.7659 2.3892
1.3130 -7.7234 2.3892
1.5892 -7.6708 2.3892
1.8633 -7.6084 2.3892
2.1349 -7.5360 2.3892
2.4037 -7.4539 2.3892
2.6694 -7.3621 2.3892
2.9315 -7.2607 2.3892
3.1898 -7.1500 2.3892
3.4438 -7.0300 2.3892
3.6934 -6.9009 2.3892
3.9380 -6.7629 2.3892
3.9110 -6.1941 2.2368
4.1301 -6.0487 2.2368
4.3437 -5.8956 2.2368
4.5516 -5.7348 2.2368
4.7536 -5.5667 2.2368
4.9493 -5.3914 2.2368
5.1384 -5.2092 2.2368
5.3209 -5.0203 2.2368
5.1149 -4.4900 2.0815
5.6647 -4.6235 2.2368
5.8256 -4.4161 2.2368
5.9788 -4.2031 2.2368
6.1244 -3.9849 2.2368
6.2624 -3.7618 2.2370
6.3942 -3.5351 2.2379
6.5186 -3.3041 2.2391
6.6346 -3.0687 2.2402
6.7421 -2.8292 2.2414
6.8395 -2.5854 2.2421
6.9258 -2.3375 2.2421
7.0032 -2.0868 2.2421
7.0715 -1.8335 2.2421
7.1306 -1.5779 2.2421
7.1805 -1.3205 2.2421
7.2211 -1.0615 2.2421
7.2523 -0.8013 2.2421
7.2742 -0.5402 2.2421
7.2866 -0.2786 2.2421
7.2897 -0.0168 2.2421
7.2833 0.2449 2.2421
5.6459 0.3932 1.7418
5.5481 0.5872 1.7176
5.5588 0.7911 1.7291
5.5697 0.9979 1.7430
6.2576 1.3548 1.9729
6.2702 1.5953 1.9942
6.2831 1.8412 2.0187
6.2963 2.0934 2.0464
6.3099 2.3528 2.0776
6.3239 2.6204 2.1124
6.3384 2.8974 2.1513
6.4915 3.2542 2.2421
6.3687 3.4843 2.2421
6.2377 3.7098 2.2421
6.0989 3.9305 2.2421
5.9522 4.1460 2.2421
5.7980 4.3560 2.2421
5.6362 4.5603 2.2420
5.4667 4.7580 2.2417
5.2902 4.9495 2.2414
5.1071 5.1344 2.2411
4.9175 5.3126 2.2407
4.7217 5.4839 2.2403
4.5200 5.6479 2.2400
4.3126 5.8046 2.2396
4.0998 5.9537 2.2392
3.8819 6.0950 2.2388
3.6591 6.2284 2.2384
3.4318 6.3538 2.2380
3.2002 6.4709 2.2376
2.9647 6.5795 2.2371
2.7256 6.6799 2.2368
2.6073 7.1104 2.3483
2.3908 7.3242 2.3892
0.8493 2.9580 0.9544
0.7425 2.9870 0.9546
0.6347 3.0120 0.9548
0.5261 3.0332 0.9549
0.4168 3.0504 0.9550
0.3070 3.0637 0.9552
0.1967 3.0729 0.9553
0.0862 3.0782 0.9553
-0.0245 3.0795 0.9554
-0.1352 3.0768 0.9554
-0.2457 3.0700 0.9554
-0.3558 3.0593 0.9554
-0.4655 3.0446 0.9554
-0.5747 3.0260 0.9554
-0.6830 3.0034 0.9553
-0.7905 2.9769 0.9553
-0.8970 2.9465 0.9552
-2.5072 7.2855 2.3892
-2.7677 7.1915 2.3892
-3.0247 7.0882 2.3892
-3.2778 6.9758 2.3892
-3.5268 6.8545 2.3892
-3.7714 6.7243 2.3892
-4.0112 6.5855 2.3892
-4.2459 6.4382 2.3892
-4.4753 6.2825 2.3892
-4.6990 6.1188 2.3892
-4.9168 5.9472 2.3892
-5.1283 5.7678 2.3892
-5.3333 5.5810 2.3892
-5.5316 5.3870 2.3892
-5.7228 5.1859 2.3892
-5.9068 4.9781 2.3892
-6.0833 4.7638 2.3892
-6.2520 4.5434 2.3892
-6.4128 4.3169 2.3892
-6.5655 4.0848 2.3892
-6.7098 3.8474 2.3892
-6.8455 3.6048 2.3892
-6.9725 3.3575 2.3892
-7.0906 3.1058 2.3892
-7.1996 2.8499 2.3892
-7.2994 2.5902 2.3892
-7.3899 2.3271 2.3892
-7.4709 2.0608 2.3892
-7.5424 1.7917 2.3892
-7.6041 1.5201 2.3892
-7.6562 1.2464 2.3892
-7.6983 0.9709 2.3892
-7.7306 0.6941 2.3892
-7.7529 0.4161 2.3892
-7.7653 0.1375 2.3892
-7.7676 -0.1415 2.3892
-7.7599 -0.4204 2.3892
-7.7422 -0.6990 2.3892
-7.7145 -0.9768 2.3892
-7.6768 -1.2536 2.3892
-7.6292 -1.5288 2.3892
-7.5717 -1.8023 2.3892
-7.5043 -2.0736 2.3892
-7.4273 -2.3424 2.3892
-7.3405 -2.6083 2.3892
-7.2443 -2.8709 2.3892
-7.1386 -3.1300 2.3892
-7.0236 -3.3852 2.3892
-6.8995 -3.6362 2.3892
-6.7663 -3.8825 2.3892
-6.6244 -4.1240 2.3892
-6.4738 -4.3603 2.3892
-6.3147 -4.5910 2.3892
-6.1474 -4.8159 2.3892
-5.9720 -5.0346 2.3892
-5.7889 -5.2469 2.3892
-5.5980 -5.4525 2.3892
-5.4000 -5.6512 2.3892
-5.1947 -5.8426 2.3892
-4.9827 -6.0265 2.3892
-4.7641 -6.2026 2.3892
-4.5393 -6.3707 2.3892
-4.3085 -6.5307 2.3892
-4.0721 -6.6822 2.3892
-3.8303 -6.8251 2.3892
-3.5834 -6.9592 2.3892
-3.3318 -7.0843 2.3892
-3.0759 -7.2002 2.3892
-2.8159 -7.3068 2.3892
-2.5521 -7.4039 2.3892
-2.2850 -7.4914 2.3892
-2.0149 -7.5693 2.3892
-3.0071 6.4706 2.3892
-3.2380 6.3591 2.3892
-3.4649 6.2395 2.3892
-3.6874 6.1118 2.3892
-3.9053 5.9763 2.3892
-4.1182 5.8331 2.3892
-4.3258 5.6823 2.3892
-4.5280 5.5242 2.3892
-4.7245 5.3590 2.3892
-4.9149 5.1868 2.3892
-5.0991 5.0078 2.3892
-5.2769 4.8224 2.3892
-5.4479 4.6307 2.3892
-5.6120 4.4330 2.3892
-5.7690 4.2295 2.3892
-5.9186 4.0205 2.3892
-6.0607 3.8062 2.3892
-6.1950 3.5869 2.3892
-6.3215 3.3629 2.3892
-6.4399 3.1344 2.3892
-6.5500 2.9019 2.3892
-6.6518 2.6654 2.3892
-6.7451 2.4254 2.3892
-6.8297 2.1822 2.3892
-6.9056 1.9360 2.3892
-6.9726 1.6872 2.3892
-7.0307 1.4361 2.3892
-7.0798 1.1831 2.3892
-7.1198 0.9283 2.3892
-7.1506 0.6722 2.3892
-7.1722 0.4151 2.3892
-7.1845 0.1574 2.3892
-7.1876 -0.1008 2.3892
-7.1815 -0.3589 2.3892
-7.1660 -0.6167 2.3892
-7.1413 -0.8739 2.3892
-7.1074 -1.1300 2.3892
-7.0643 -1.3849 2.3892
-7.0120 -1.6381 2.3892
-6.9506 -1.8893 2.3892
-6.8802 -2.1382 2.3892
-6.8009 -2.3844 2.3892
-6.7128 -2.6278 2.3892
-6.6159 -2.8678 2.3892
-6.5104 -3.1043 2.3892
-6.3965 -3.3368 2.3892
-6.2742 -3.5652 2.3892
-6.1437 -3.7891 2.3892
-6.0052 -4.0081 2.3892
-5.8589 -4.2221 2.3892
-5.7049 -4.4307 2.3892
-5.5434 -4.6336 2.3892
-5.3748 -4.8306 2.3892
-5.1990 -5.0215 2.3892
-5.0165 -5.2059 2.3892
-4.8274 -5.3837 2.3892
-4.6320 -5.5545 2.3892
-4.4305 -5.7182 2.3892
-4.2232 -5.8745 2.3892
-4.0103 -6.0233 2.3892
-3.7922 -6.1643 2.3892
-3.5691 -6.2973 2.3892
-3.3413 -6.4222 2.3892
-3.1091 -6.5388 2.3892
-2.8728 -6.6470 2.3892
-2.6327 -6.7465 2.3892
-2.3892 -6.8374 2.3892
-2.1425 -6.9193 2.3892
-1.8931 -6.9923 2.3892
-1.6411 -7.0562 2.3892
-1.3869 -7.1110 2.3892
-1.1309 -7.1565 2.3892
-0.8735 -7.1928 2.3892
-0.6148 -7.2197 2.3892
-0.3554 -7.2373 2.3892
-0.0955 -7.2454 2.3892
0.1645 -7.2442 2.3892
0.4243 -7.2335 2.3892
0.6836 -7.2135 2.3892
0.9419 -7.1841 2.3892
1.1990 -7.1454 2.3892
1.4546 -7.0974 2.3892
1.7082 -7.0401 2.3892
1.9595 -6.9738 2.3892
2.2083 -6.8984 2.3892
2.4542 -6.8141 2.3892
2.6968 -6.7210 2.3892
2.9359 -6.6192 2.3892
3.1711 -6.5087 2.3892
3.4022 -6.3899 2.3892
3.6288 -6.2628 2.3892
3.6050 -5.7367 2.2368
3.8079 -5.6028 2.2368
4.0058 -5.4616 2.2368
4.1985 -5.3134 2.2368
4.3856 -5.1584 2.2368
4.5671 -4.9967 2.2368
4.7425 -4.8286 2.2368
4.9117 -4.6543 2.2368
5.0745 -4.4741 2.2368
5.2306 -4.2881 2.2368
5.3799 -4.0967 2.2368
5.5222 -3.9001 2.2368
5.6572 -3.6985 2.2368
5.7872 -3.4935 2.2376
5.9102 -3.2843 2.2387
6.0256 -3.0707 2.2398
6.1333 -2.8531 2.2409
6.2331 -2.6316 2.2420
6.3223 -2.4057 2.2421
6.4029 -2.1766 2.2421
6.4751 -1.9448 2.2421
6.5389 -1.7106 2.2421
6.5942 -1.4743 2.2421
6.6410 -1.2363 2.2421
6.6792 -0.9968 2.2421
6.7087 -0.7561 2.2421
6.7296 -0.5146 2.2421
6.7418 -0.2725 2.2421
6.7453 -0.0303 2.2421
6.7401 0.2119 2.2421
5.7493 0.3878 1.9165
5.5475 0.5749 1.8554
5.5582 0.7787 1.8677
5.5690 0.9852 1.8826
6.2568 1.3403 2.1306
6.2694 1.5805 2.1534
6.2823 1.8261 2.1796
6.3890 2.1087 2.2421
6.3074 2.3362 2.2421
6.2178 2.5606 2.2421
6.1202 2.7815 2.2421
6.0147 2.9988 2.2421
5.9016 3.2121 2.2421
5.7810 3.4212 2.2421
5.6529 3.6257 2.2421
5.5172 3.8252 2.2419
5.3743 4.0195 2.2416
5.2246 4.2085 2.2413
5.0682 4.3919 2.2411
4.9054 4.5695 2.2407
4.7364 4.7412 2.2404
4.5614 4.9066 2.2401
4.3807 5.0656 2.2398
4.1944 5.2180 2.2394
4.0029 5.3635 2.2391
3.8063 5.5020 2.2387
3.6050 5.6334 2.2383
3.3992 5.7575 2.2380
3.1891 5.8741 2.2376
2.9750 5.9830 2.2372
2.7573 6.0843 2.2368
2.5811 6.2870 2.2761
2.4702 6.6920 2.3892
0.8889 2.7034 0.9532
0.7913 2.7339 0.9534
0.6926 2.7609 0.9536
0.5930 2.7842 0.9537
0.4926 2.8040 0.9539
0.3915 2.8201 0.9540
0.2899 2.8326 0.9541
0.1880 2.8413 0.9542
0.0857 2.8464 0.9543
-0.0166 2.8478 0.9543
-0.1190 2.8455 0.9543
-0.2211 2.8395 0.9544
-0.3231 2.8298 0.9544
-0.4245 2.8164 0.9543
-0.5255 2.7994 0.9543
-0.6258 2.7787 0.9543
-0.7252 2.7544 0.9542
-0.8237 2.7265 0.9541
-2.3069 6.7496 2.3892
-2.5482 6.6630 2.3892
-2.7863 6.5678 2.3892
-3.0208 6.4642 2.3892
-3.2516 6.3523 2.3892
-3.4782 6.2322 2.3892
-3.7005 6.1041 2.3892
-3.9180 5.9681 2.3892
-4.1306 5.8244 2.3892
-4.3380 5.6732 2.3892
-4.5398 5.5146 2.3892
-4.7359 5.3490 2.3892
-4.9260 5.1764 2.3892
-5.1098 4.9970 2.3892
-5.2872 4.8112 2.3892
-5.4578 4.6192 2.3892
-5.6215 4.4211 2.3892
-5.7780 4.2173 2.3892
-5.9272 4.0079 2.3892
-6.0689 3.7933 2.3892
-6.2027 3.5737 2.3892
-6.3287 3.3495 2.3892
-6.4466 3.1208 2.3892
-6.5563 2.8880 2.3892
-6.6576 2.6513 2.3892
-6.7503 2.4111 2.3892
-6.8345 2.1677 2.3892
-6.9098 1.9214 2.3892
-6.9763 1.6724 2.3892
-7.0339 1.4212 2.3892
-7.0824 1.1680 2.3892
-7.1218 0.9132 2.3892
-7.1521 0.6570 2.3892
-7.1732 0.3999 2.3892
-7.1850 0.1421 2.3892
-7.1875 -0.1160 2.3892
-7.1808 -0.3742 2.3892
-7.1648 -0.6319 2.3892
-7.1396 -0.8890 2.3892
-7.1051 -1.1451 2.3892
-7.0614 -1.3999 2.3892
-7.0086 -1.6530 2.3892
-6.9467 -1.9041 2.3892
-6.8758 -2.1528 2.3892
-6.7959 -2.3989 2.3892
-6.7073 -2.6421 2.3892
-6.6099 -2.8819 2.3892
-6.5039 -3.1182 2.3892
-6.3895 -3.3505 2.3892
-6.2667 -3.5786 2.3892
-6.1357 -3.8021 2.3892
-5.9967 -4.0209 2.3892
-5.8500 -4.2346 2.3892
-5.6955 -4.4428 2.3892
-5.5337 -4.6454 2.3892
-5.3646 -4.8421 2.3892
-5.1884 -5.0326 2.3892
-5.0055 -5.2166 2.3892
-4.8160 -5.3940 2.3892
-4.6202 -5.5644 2.3892
-4.4184 -5.7276 2.3892
-4.2108 -5.8835 2.3892
-3.9976 -6.0318 2.3892
-3.7791 -6.1724 2.3892
-3.5557 -6.3049 2.3892
-3.3277 -6.4294 2.3892
-3.0952 -6.5455 2.3892
-2.8587 -6.6531 2.3892
-2.6184 -6.7522 2.3892
-2.3747 -6.8425 2.3892
-2.1279 -6.9239 2.3892
-1.8782 -6.9963 2.3892
-1.6261 -7.0597 2.3892
-1.3718 -7.1139 2.3892
-1.1157 -7.1589 2.3892
-0.8582 -7.1947 2.3892
-0.5995 -7.2210 2.3892
-0.3400 -7.2380 2.3892
-0.0801 -7.2456 2.3892
0.1799 -7.2438 2.3892
0.4397 -7.2326 2.3892
0.6989 -7.2120 2.3892
0.9572 -7.1821 2.3892
1.2142 -7.1428 2.3892
1.4696 -7.0942 2.3892
1.7231 -7.0365 2.3892
1.9743 -6.9696 2.3892
2.2229 -6.8937 2.3892
2.4686 -6.8088 2.3892
2.7111 -6.7152 2.3892
2.9499 -6.6128 2.3892
3.1849 -6.5019 2.3892
3.4157 -6.3826 2.3892
3.6420 -6.2550 2.3892
3.6171 -5.7290 2.2368
3.8197 -5.5946 2.2368
4.0174 -5.4530 2.2368
4.2097 -5.3044 2.2368
4.3965 -5.1490 2.2368
4.5776 -4.9869 2.2368
4.7527 -4.8185 2.2368
4.9215 -4.6438 2.2368
5.0839 -4.4632 2.2368
5.2396 -4.2770 2.2368
5.3885 -4.0852 2.2368
5.5304 -3.8883 2.2368
5.6650 -3.6864 2.2368
5.7947 -3.4813 2.2377
5.9172 -3.2717 2.2388
6.0322 -3.0579 2.2398
6.1394 -2.8401 2.2409
6.2388 -2.6184 2.2420
6.3273 -2.3922 2.2421
6.4074 -2.1630 2.2421
6.4791 -1.9310 2.2421
6.5424 -1.6967 2.2421
6.5972 -1.4603 2.2421
6.6435 -1.2221 2.2421
6.6812 -0.9825 2.2421
6.7102 -0.7418 2.2421
6.7306 -0.5003 2.2421
6.7422 -0.2582 2.2421
6.7452 -0.0159 2.2421
6.7395 0.2262 2.2421
5.6487 0.3931 1.8832
5.5481 0.5869 1.8561
5.5588 0.7908 1.8685
5.5696 0.9976 1.8835
6.2575 1.3544 2.1319
6.2701 1.5949 2.1549
6.2830 1.8408 2.1813
6.3844 2.1223 2.2421
6.3024 2.3496 2.2421
6.2122 2.5738 2.2421
6.1141 2.7945 2.2421
6.0082 3.0115 2.2421
5.8947 3.2246 2.2421
5.7736 3.4334 2.2421
5.6451 3.6377 2.2421
5.5089 3.8368 2.2419
5.3656 4.0308 2.2416
5.2155 4.2195 2.2413
5.0587 4.4026 2.2410
4.8956 4.5799 2.2407
4.7262 4.7511 2.2404
4.5509 4.9162 2.2401
4.3698 5.0748 2.2398
4.1832 5.2268 2.2394
3.9914 5.3719 2.2391
3.7946 5.5100 2.2387
3.5929 5.6410 2.2383
3.3868 5.7646 2.2380
3.1765 5.8807 2.2376
2.9622 5.9893 2.2372
2.7443 6.0900 2.2368
2.5808 6.3246 2.2877
2.4559 6.6972 2.3892
0.8832 2.7053 0.9533
0.7854 2.7356 0.9534
0.6867 2.7624 0.9536
0.5870 2.7855 0.9538
0.4866 2.8051 0.9539
0.3855 2.8210 0.9540
0.2839 2.8332 0.9541
0.1819 2.8417 0.9542
0.0797 2.8466 0.9543
-0.0227 2.8478 0.9543
-0.1250 2.8453 0.9543
-0.2272 2.8390 0.9544
-0.3291 2.8291 0.9544
-0.4305 2.8155 0.9543
-0.5314 2.7983 0.9543
-0.6317 2.7774 0.9543
-0.7311 2.7529 0.9542
-0.8295 2.7248 0.9541
-2.3212 6.7447 2.3892
-2.5624 6.6576 2.3892
-2.8003 6.5619 2.3892
-3.0346 6.4578 2.3892
-3.2651 6.3454 2.3892
-3.4915 6.2248 2.3892
-3.7135 6.0962 2.3892
-3.9307 5.9598 2.3892
-4.1430 5.8156 2.3892
-4.3501 5.6640 2.3892
-4.5516 5.5050 2.3892
-4.7473 5.3389 2.3892
-4.9371 5.1659 2.3892
-5.1205 4.9862 2.3892
-5.2975 4.8000 2.3892
-5.4677 4.6076 2.3892
-5.6310 4.4092 2.3892
-5.7871 4.2050 2.3892
-5.9358 3.9954 2.3892
-6.0770 3.7805 2.3892
-6.2104 3.5606 2.3892
-6.3359 3.3361 2.3892
-6.4533 3.1071 2.3892
-6.5625 2.8741 2.3892
-6.6633 2.6372 2.3892
-6.7556 2.3968 2.3892
-6.8392 2.1532 2.3892
-6.9140 1.9067 2.3892
-6.9800 1.6576 2.3892
-7.0370 1.4063 2.3892
-7.0850 1.1530 2.3892
-7.1239 0.8981 2.3892
-7.1536 0.6418 2.3892
-7.1741 0.3846 2.3892
-7.1854 0.1268 2.3892
-7.1874 -0.1313 2.3892
-7.1801 -0.3894 2.3892
-7.1636 -0.6472 2.3892
-7.1378 -0.9042 2.3892
-7.1028 -1.1603 2.3892
-7.0586 -1.4149 2.3892
-7.0052 -1.6679 2.3892
-6.9428 -1.9189 2.3892
-6.8713 -2.1675 2.3892
-6.7909 -2.4134 2.3892
-6.7018 -2.6564 2.3892
-6.6038 -2.8960 2.3892
-6.4973 -3.1320 2.3892
-6.3824 -3.3641 2.3892
-6.2591 -3.5920 2.3892
-6.1277 -3.8152 2.3892
-5.9883 -4.0337 2.3892
-5.8410 -4.2470 2.3892
-5.6862 -4.4550 2.3892
-5.5239 -4.6572 2.3892
-5.3543 -4.8536 2.3892
-5.1778 -5.0437 2.3892
-4.9945 -5.2273 2.3892
-4.8046 -5.4042 2.3892
-4.6084 -5.5742 2.3892
-4.4062 -5.7371 2.3892
-4.1983 -5.8925 2.3892
-3.9848 -6.0404 2.3892
-3.7660 -6.1804 2.3892
-3.5424 -6.3125 2.3892
-3.3140 -6.4365 2.3892
-3.0813 -6.5521 2.3892
-2.8446 -6.6592 2.3892
-2.6041 -6.7577 2.3892
-2.3602 -6.8475 2.3892
-2.1131 -6.9284 2.3892
-1.8633 -7.0003 2.3892
-2.7964 6.0169 2.3892
-3.0112 5.9133 2.3892
-3.2222 5.8020 2.3892
-3.4291 5.6832 2.3892
-3.6316 5.5571 2.3892
-3.8295 5.4239 2.3892
-4.0226 5.2836 2.3892
-4.2106 5.1365 2.3892
-4.3932 4.9828 2.3892
-4.5702 4.8226 2.3892
-4.7415 4.6562 2.3892
-4.9067 4.4837 2.3892
-5.0657 4.3054 2.3892
-5.2182 4.1215 2.3892
-5.3640 3.9322 2.3892
-5.5031 3.7378 2.3892
-5.6351 3.5386 2.3892
-5.7599 3.3345 2.3892
-5.8774 3.1262 2.3892
-5.9874 2.9138 2.3892
-6.0897 2.6975 2.3892
-6.1842 2.4777 2.3892
-6.2708 2.2545 2.3892
-6.3494 2.0283 2.3892
-6.4198 1.7994 2.3892
-6.4820 1.5681 2.3892
-6.5359 1.3347 2.3892
-6.5814 1.0994 2.3892
-6.6184 0.8625 2.3892
-6.6470 0.6245 2.3892
-6.6669 0.3855 2.3892
-6.6783 0.1459 2.3892
-6.6811 -0.0941 2.3892
-6.6752 -0.3340 2.3892
-6.6607 -0.5736 2.3892
-6.6376 -0.8126 2.3892
-6.6060 -1.0507 2.3892
-6.5658 -1.2875 2.3892
-6.5171 -1.5229 2.3892
-6.4599 -1.7563 2.3892
-6.3944 -1.9876 2.3892
-6.3206 -2.2164 2.3892
-6.2385 -2.4425 2.3892
-6.1484 -2.6656 2.3892
-6.0503 -2.8853 2.3892
-5.9443 -3.1014 2.3892
-5.8305 -3.3135 2.3892
-5.7092 -3.5215 2.3892
-5.5804 -3.7250 2.3892
-5.4443 -3.9238 2.3892
-5.3012 -4.1175 2.3892
-5.1511 -4.3061 2.3892
-4.9943 -4.4891 2.3892
-4.8309 -4.6664 2.3892
-4.6613 -4.8377 2.3892
-4.4855 -5.0027 2.3892
-4.3039 -5.1614 2.3892
-4.1166 -5.3134 2.3892
-3.9239 -5.4586 2.3892
-3.7261 -5.5968 2.3892
-3.5233 -5.7277 2.3892
-3.3160 -5.8513 2.3892
-3.1044 -5.9673 2.3892
-2.8886 -6.0756 2.3892
-2.6691 -6.1760 2.3892
-2.4460 -6.2685 2.3892
-2.2198 -6.3528 2.3892
-1.9906 -6.4289 2.3892
-1.7588 -6.4967 2.3892
-1.5246 -6.5561 2.3892
-1.2885 -6.6069 2.3892
-1.0507 -6.6492 2.3892
-0.8115 -6.6829 2.3892
-0.5712 -6.7079 2.3892
-0.3302 -6.7242 2.3892
-0.0887 -6.7318 2.3892
0.1528 -6.7306 2.3892
0.3942 -6.7207 2.3892
0.6351 -6.7021 2.3892
0.8751 -6.6748 2.3892
1.1140 -6.6388 2.3892
1.3514 -6.5943 2.3892
1.5870 -6.5411 2.3892
1.8205 -6.4795 2.3892
2.0517 -6.4095 2.3892
2.2801 -6.3312 2.3892
2.5056 -6.2447 2.3892
2.7277 -6.1502 2.3892
2.9463 -6.0476 2.3892
3.1610 -5.9373 2.3892
3.1565 -5.4480 2.2368
3.3494 -5.3305 2.2368
3.5380 -5.2061 2.2368
3.7220 -5.0750 2.2368
3.9010 -4.9374 2.2368
4.0750 -4.7933 2.2368
4.2436 -4.6432 2.2368
4.4066 -4.4871 2.2368
4.5639 -4.3252 2.2368
4.7153 -4.1578 2.2368
4.8604 -3.9850 2.2368
4.9992 -3.8072 2.2368
5.1315 -3.6245 2.2368
5.2571 -3.4372 2.2368
5.3758 -3.2456 2.2368
5.4936 -3.0532 2.2392
5.6013 -2.8549 2.2405
5.7014 -2.6525 2.2415
5.7931 -2.4463 2.2421
5.8757 -2.2362 2.2421
5.9506 -2.0233 2.2421
6.0179 -1.8079 2.2421
6.0773 -1.5902 2.2421
6.1288 -1.3707 2.2421
6.1724 -1.1494 2.2421
6.2080 -0.9268 2.2421
6.2356 -0.7031 2.2421
6.2551 -0.4787 2.2421
6.2666 -0.2537 2.2421
6.2699 -0.0285 2.2421
6.2652 0.1966 2.2421
5.7523 0.3876 2.0628
5.5475 0.5746 1.9960
5.5581 0.7783 2.0092
5.5690 0.9849 2.0251
6.1209 1.3108 2.2421
6.0683 1.5294 2.2421
6.0079 1.7459 2.2421
5.9397 1.9601 2.2421
5.8640 2.1716 2.2421
5.7807 2.3802 2.2421
5.6901 2.5857 2.2421
5.5921 2.7877 2.2421
5.4866 2.9858 2.2419
5.3740 3.1799 2.2417
5.2545 3.3698 2.2415
5.1283 3.5552 2.2412
4.9956 3.7359 2.2410
4.8566 3.9117 2.2407
4.7113 4.0823 2.2404
4.5601 4.2475 2.2402
4.4031 4.4072 2.2399
4.2405 4.5610 2.2396
4.0726 4.7090 2.2393
3.8995 4.8507 2.2389
3.7215 4.9861 2.2386
3.5389 5.1151 2.2383
3.3518 5.2373 2.2379
3.1605 5.3528 2.2376
2.9652 5.4613 2.2372
2.7662 5.5627 2.2369
2.5678 5.6662 2.2400
2.5196 6.1370 2.3892
0.9155 2.4801 0.9522
0.8259 2.5117 0.9524
0.7352 2.5400 0.9526
0.6435 2.5650 0.9527
0.5509 2.5867 0.9529
0.4577 2.6051 0.9530
0.3638 2.6200 0.9531
0.2694 2.6316 0.9532
0.1746 2.6397 0.9533
0.0797 2.6444 0.9533
-0.0154 2.6457 0.9534
-0.1105 2.6436 0.9534
-0.2055 2.6380 0.9534
-0.3001 2.6290 0.9534
-0.3944 2.6165 0.9534
-0.4882 2.6007 0.9534
-0.5814 2.5815 0.9533
-0.6738 2.5589 0.9533
-0.7653 2.5330 0.9532
-0.8558 2.5039 0.9531
-2.3697 6.1960 2.3892
-2.5911 6.1074 2.3892
-2.8093 6.0110 2.3892
-3.0238 5.9069 2.3892
-3.2345 5.7952 2.3892
-3.4412 5.6760 2.3892
-3.6435 5.5494 2.3892
-3.8411 5.4158 2.3892
-4.0339 5.2751 2.3892
-4.2215 5.1276 2.3892
-4.4038 4.9735 2.3892
-4.5805 4.8129 2.3892
-4.7514 4.6461 2.3892
-4.9163 4.4733 2.3892
-5.0749 4.2947 2.3892
-5.2270 4.1104 2.3892
-5.3725 3.9208 2.3892
-5.5111 3.7261 2.3892
-5.6427 3.5266 2.3892
-5.7671 3.3223 2.3892
-5.8841 3.1138 2.3892
-5.9936 2.9011 2.3892
-6.0955 2.6846 2.3892
-6.1896 2.4645 2.3892
-6.2757 2.2412 2.3892
-6.3538 2.0148 2.3892
-6.4237 1.7858 2.3892
-6.4855 1.5544 2.3892
-6.5388 1.3208 2.3892
-6.5838 1.0854 2.3892
-6.6204 0.8485 2.3892
-6.6484 0.6103 2.3892
-6.6678 0.3713 2.3892
-6.6787 0.1317 2.3892
-6.6809 -0.1083 2.3892
-6.6746 -0.3482 2.3892
-6.6596 -0.5878 2.3892
-6.6360 -0.8267 2.3892
-6.6038 -1.0648 2.3892
-6.5631 -1.3015 2.3892
-6.5139 -1.5367 2.3892
-6.4563 -1.7701 2.3892
-6.3902 -2.0012 2.3892
-6.3159 -2.2299 2.3892
-6.2334 -2.4558 2.3892
-6.1428 -2.6787 2.3892
-6.0442 -2.8982 2.3892
-5.9377 -3.1140 2.3892
-5.8236 -3.3259 2.3892
-5.7018 -3.5337 2.3892
-5.5725 -3.7369 2.3892
-5.4361 -3.9354 2.3892
-5.2925 -4.1288 2.3892
-5.1420 -4.3170 2.3892
-4.9848 -4.4997 2.3892
-4.8211 -4.6767 2.3892
-4.6510 -4.8476 2.3892
-4.4749 -5.0123 2.3892
-4.2929 -5.1706 2.3892
-4.1053 -5.3222 2.3892
-3.9124 -5.4670 2.3892
-3.7142 -5.6048 2.3892
-3.5112 -5.7353 2.3892
-3.3036 -5.8584 2.3892
-3.0917 -5.9739 2.3892
-2.8757 -6.0818 2.3892
-2.6560 -6.1817 2.3892
-2.4327 -6.2737 2.3892
-2.2063 -6.3575 2.3892
-1.9769 -6.4332 2.3892
-1.7450 -6.5005 2.3892
-1.5107 -6.5593 2.3892
-1.2745 -6.6097 2.3892
-1.0366 -6.6515 2.3892
-0.7973 -6.6846 2.3892
-0.5570 -6.7091 2.3892
-0.3159 -6.7249 2.3892
-0.0744 -6.7319 2.3892
0.1671 -6.7303 2.3892
0.4085 -6.7199 2.3892
0.6493 -6.7007 2.3892
0.8893 -6.6729 2.3892
1.1280 -6.6364 2.3892
1.3654 -6.5913 2.3892
1.6009 -6.5377 2.3892
1.8343 -6.4756 2.3892
2.0653 -6.4051 2.3892
2.2935 -6.3263 2.3892
2.5188 -6.2394 2.3892
2.7407 -6.1443 2.3892
2.9591 -6.0413 2.3892
3.1736 -5.9305 2.3892
3.1680 -5.4413 2.2368
3.3607 -5.3233 2.2368
3.5490 -5.1985 2.2368
3.7327 -5.0670 2.2368
3.9115 -4.9290 2.2368
4.0851 -4.7846 2.2368
4.2534 -4.6341 2.2368
4.4161 -4.4776 2.2368
4.5731 -4.3154 2.2368
4.7240 -4.1477 2.2368
4.8688 -3.9746 2.2368
5.0072 -3.7965 2.2368
5.1391 -3.6136 2.2368
5.2643 -3.4260 2.2368
5.3826 -3.2341 2.2368
5.5003 -3.0416 2.2393
5.6075 -2.8430 2.2405
5.7070 -2.6404 2.2415
5.7982 -2.4339 2.2421
5.8803 -2.2236 2.2421
5.9548 -2.0106 2.2421
6.0216 -1.7950 2.2421
6.0806 -1.5773 2.2421
6.1316 -1.3576 2.2421
6.1747 -1.1363 2.2421
6.2099 -0.9136 2.2421
6.2370 -0.6899 2.2421
6.2560 -0.4654 2.2421
6.2670 -0.2404 2.2421
6.2698 -0.0152 2.2421
6.2646 0.2099 2.2421
5.6515 0.3929 2.0270
5.5481 0.5866 1.9967
5.5588 0.7904 2.0100
5.5696 0.9972 2.0261
6.1181 1.3238 2.2421
6.0649 1.5423 2.2421
6.0041 1.7587 2.2421
5.9355 1.9727 2.2421
5.8593 2.1840 2.2421
5.7756 2.3925 2.2421
5.6845 2.5977 2.2421
5.5861 2.7995 2.2421
5.4801 2.9974 2.2419
5.3671 3.1913 2.2417
5.2472 3.3809 2.2415
5.1207 3.5660 2.2412
4.9876 3.7464 2.2410
4.8481 3.9219 2.2407
4.7025 4.0922 2.2404
4.5510 4.2571 2.2401
4.3936 4.4164 2.2399
4.2307 4.5700 2.2396
4.0625 4.7175 2.2392
3.8891 4.8589 2.2389
3.7109 4.9939 2.2386
3.5279 5.1225 2.2383
3.3406 5.2444 2.2379
3.1490 5.3594 2.2376
2.9535 5.4675 2.2372
2.7543 5.5685 2.2368
2.5627 5.6866 2.2461
2.5065 6.1423 2.3892
0.9103 2.4821 0.9522
0.8206 2.5135 0.9524
0.7298 2.5416 0.9526
0.6380 2.5664 0.9527
0.5454 2.5879 0.9529
0.4521 2.6061 0.9530
0.3582 2.6208 0.9531
0.2638 2.6322 0.9532
0.1690 2.6401 0.9533
0.0740 2.6446 0.9533
-0.0211 2.6457 0.9534
-0.1161 2.6433 0.9534
-0.2111 2.6375 0.9534
-0.3057 2.6283 0.9534
-0.4000 2.6157 0.9534
-0.4938 2.5997 0.9534
-0.5869 2.5802 0.9533
-0.6792 2.5575 0.9533
-0.7707 2.5314 0.9532
-0.8612 2.5020 0.9531
-2.3829 6.1909 2.3892
-2.6041 6.1019 2.3892
-2.8221 6.0051 2.3892
-3.0364 5.9005 2.3892
-3.2469 5.7883 2.3892
-3.4533 5.6687 2.3892
-3.6553 5.5417 2.3892
-3.8527 5.4076 2.3892
-4.0451 5.2666 2.3892
-4.2325 5.1187 2.3892
-4.4145 4.9642 2.3892
-4.5908 4.8032 2.3892
-4.7614 4.6361 2.3892
-4.9258 4.4629 2.3892
-5.0841 4.2839 2.3892
-5.2358 4.0994 2.3892
-5.3809 3.9094 2.3892
-5.5191 3.7145 2.3892
-5.6503 3.5146 2.3892
-5.7742 3.3101 2.3892
-5.8908 3.1013 2.3892
