ply
format ascii 1.0
element vertex 2181
property float32 x
property float32 y
property float32 z
end_header
5.2647 4.3235 2.4187
5.0853 4.4883 2.4187
4.9004 4.6457 2.4187
4.7105 4.7955 2.4187
4.5159 4.9376 2.4187
4.3168 5.0717 2.4187
4.1138 5.1979 2.4187
3.9071 5.3160 2.4187
3.6970 5.4260 2.4187
3.4839 5.5278 2.4187
3.2682 5.6213 2.4187
3.0501 5.7066 2.4187
2.8301 5.7837 2.4187
2.6083 5.8525 2.4187
0.9245 2.2918 0.9375
0.8413 2.3223 0.9416
0.7571 2.3498 0.9457
0.6719 2.3742 0.9499
0.5859 2.3955 0.9540
0.4992 2.4137 0.9581
0.4118 2.4287 0.9621
0.3240 2.4406 0.9662
0.2357 2.4492 0.9702
0.1473 2.4547 0.9742
0.0586 2.4570 0.9781
-0.0300 2.4561 0.9820
-0.1186 2.4520 0.9858
-0.2070 2.4447 0.9896
-0.2950 2.4341 0.9933
-0.3826 2.4204 0.9970
-0.4697 2.4036 1.0005
-0.5561 2.3836 1.0040
-0.6418 2.3605 1.0074
-0.7265 2.3343 1.0107
-0.8102 2.3051 1.0140
-2.1233 5.4050 2.4187
-2.3100 5.3054 2.4187
-2.4928 5.2002 2.4187
-2.6714 5.0892 2.4187
-2.8453 4.9722 2.4184
-3.0139 4.8483 2.4172
-3.1761 4.7170 2.4149
-3.3319 4.5790 2.4116
-3.4861 4.4411 2.4107
-3.6353 4.2986 2.4098
-3.7793 4.1517 2.4089
-3.9181 4.0006 2.4079
-4.0516 3.8454 2.4070
-4.1796 3.6863 2.4060
-4.3022 3.5235 2.4051
-4.4192 3.3571 2.4041
-4.5305 3.1874 2.4031
-4.6340 3.0130 2.4010
-4.7244 2.8315 2.3953
-4.8158 2.6519 2.3932
-4.9054 2.4718 2.3931
-4.9890 2.2890 2.3930
-5.0667 2.1038 2.3929
-5.1384 1.9162 2.3928
-5.2040 1.7265 2.3927
-5.2634 1.5348 2.3926
-5.3166 1.3413 2.3925
-5.3636 1.1461 2.3924
-5.4043 0.9495 2.3923
-5.4387 0.7515 2.3921
-5.4667 0.5525 2.3920
-5.4883 0.3524 2.3919
-5.5034 0.1516 2.3918
-5.5121 -0.0498 2.3917
-5.5143 -0.2516 2.3916
-5.5100 -0.4537 2.3915
-5.4991 -0.6558 2.3914
-5.4817 -0.8578 2.3913
-5.4576 -1.0595 2.3912
-5.4270 -1.2607 2.3910
-5.3898 -1.4613 2.3909
-5.3460 -1.6609 2.3908
-5.2956 -1.8595 2.3907
-5.2386 -2.0568 2.3906
-5.1750 -2.2527 2.3905
-5.1048 -2.4469 2.3904
-5.0281 -2.6393 2.3903
-4.9448 -2.8295 2.3902
-4.8551 -3.0175 2.3901
-4.7588 -3.2031 2.3900
-4.6562 -3.3859 2.3899
-4.5471 -3.5658 2.3898
-4.4318 -3.7427 2.3897
-4.3101 -3.9161 2.3897
-4.1822 -4.0861 2.3896
-4.0482 -4.2522 2.3895
-3.9082 -4.4144 2.3894
-3.7622 -4.5724 2.3893
-3.6103 -4.7259 2.3893
-3.4526 -4.8748 2.3892
-3.2893 -5.0188 2.3891
-3.1205 -5.1576 2.3890
-2.9462 -5.2912 2.3890
-2.7672 -5.4202 2.3894
-2.5822 -5.5415 2.3889
-2.3910 -5.6540 2.3873
-2.1969 -5.7641 2.3873
-1.9981 -5.8677 2.3873
-1.7950 -5.9647 2.3872
-1.5876 -6.0548 2.3872
-1.3762 -6.1378 2.3872
-1.1611 -6.2136 2.3872
-0.9425 -6.2819 2.3871
-0.7207 -6.3425 2.3871
-0.4958 -6.3954 2.3871
-0.2682 -6.4402 2.3870
-0.0381 -6.4768 2.3870
0.1941 -6.5051 2.3870
0.4281 -6.5249 2.3869
0.6636 -6.5362 2.3869
0.9004 -6.5386 2.3868
1.1379 -6.5322 2.3868
1.3760 -6.5169 2.3867
1.6143 -6.4925 2.3867
1.8523 -6.4591 2.3866
2.0897 -6.4165 2.3865
2.3261 -6.3646 2.3865
2.5612 -6.3036 2.3864
2.7946 -6.2333 2.3863
3.0257 -6.1539 2.3863
3.2544 -6.0653 2.3862
3.4801 -5.9675 2.3861
3.7024 -5.8607 2.3860
3.9210 -5.7450 2.3860
4.1354 -5.6205 2.3859
4.3452 -5.4872 2.3858
4.5501 -5.3454 2.3857
4.7497 -5.1953 2.3856
4.9435 -5.0369 2.3855
5.1312 -4.8706 2.3855
5.3081 -4.6929 2.3834
5.4756 -4.5060 2.3804
5.6369 -4.3136 2.3780
5.7913 -4.1153 2.3759
5.9386 -3.9115 2.3743
6.0783 -3.7022 2.3729
6.2101 -3.4876 2.3717
6.3339 -3.2681 2.3709
6.4492 -3.0439 2.3702
6.5557 -2.8153 2.3697
6.6532 -2.5827 2.3693
6.7416 -2.3463 2.3691
6.8207 -2.1067 2.3690
6.8927 -1.8648 2.3699
6.9585 -1.6210 2.3720
6.9588 -1.3637 2.3553
6.8109 -1.0863 2.2924
6.6932 -0.8261 2.2435
6.7021 -0.5875 2.2405
6.7256 -0.3506 2.2456
6.7399 -0.1126 2.2508
6.7420 0.1259 2.2552
6.7337 0.3643 2.2594
6.7121 0.6018 2.2624
6.6794 0.8380 2.2648
6.6337 1.0720 2.2660
6.5761 1.3031 2.2663
6.5086 1.5310 2.2663
6.4322 1.7556 2.2663
6.3472 1.9765 2.2663
6.2559 2.1941 2.2671
6.3036 2.4650 2.3221
6.3791 2.7592 2.3926
6.3233 3.0056 2.4187
6.1901 3.2163 2.4187
6.0491 3.4210 2.4187
5.9009 3.6195 2.4187
5.7455 3.8115 2.4187
5.5835 3.9968 2.4187
5.4151 4.1751 2.4187
5.2406 4.3463 2.4187
5.0604 4.5102 2.4187
4.8749 4.6666 2.4187
4.6843 4.8153 2.4187
4.4890 4.9563 2.4187
4.2894 5.0894 2.4187
4.0859 5.2144 2.4187
3.8787 5.3314 2.4187
3.6682 5.4403 2.4187
3.4547 5.5410 2.4187
3.2386 5.6334 2.4187
3.0203 5.7176 2.4187
2.8000 5.7935 2.4187
2.5781 5.8612 2.4187
0.9132 2.2962 0.9380
0.8299 2.3262 0.9422
0.7455 2.3533 0.9463
0.6602 2.3773 0.9504
0.5741 2.3981 0.9545
0.4873 2.4159 0.9586
0.3999 2.4305 0.9627
0.3120 2.4419 0.9667
0.2237 2.4502 0.9708
0.1352 2.4552 0.9747
0.0466 2.4571 0.9787
-0.0421 2.4557 0.9825
-0.1306 2.4512 0.9864
-0.2190 2.4434 0.9901
-0.3070 2.4325 0.9938
-0.3945 2.4183 0.9974
-0.4815 2.4011 1.0010
-0.5678 2.3806 1.0045
-0.6534 2.3571 1.0079
-0.7380 2.3305 1.0112
-0.8216 2.3009 1.0144
-2.1490 5.3918 2.4187
-2.3352 5.2915 2.4187
-2.5173 5.1854 2.4187
-2.6954 5.0737 2.4187
-2.8686 4.9557 2.4183
-3.0363 4.8308 2.4170
-3.1976 4.6984 2.4145
-3.3532 4.5605 2.4115
-3.5067 4.4220 2.4106
-3.6552 4.2789 2.4097
-3.7985 4.1314 2.4087
-3.9366 3.9797 2.4078
-4.0693 3.8240 2.4069
-4.1966 3.6643 2.4059
-4.3185 3.5010 2.4050
-4.4347 3.3342 2.4040
-4.5452 3.1640 2.4030
-4.6467 2.9885 2.4003
-4.7361 2.8066 2.3945
-4.8284 2.6275 2.3932
-4.9171 2.4471 2.3931
-5.0000 2.2640 2.3930
-5.0768 2.0784 2.3929
-5.1477 1.8905 2.3928
-5.2124 1.7005 2.3927
-5.2710 1.5086 2.3926
-5.3234 1.3148 2.3925
-5.3695 1.1194 2.3924
-5.4094 0.9226 2.3922
-5.4429 0.7245 2.3921
-5.4700 0.5253 2.3920
-5.4907 0.3251 2.3919
-5.5050 0.1243 2.3918
-5.5128 -0.0772 2.3917
-5.5141 -0.2791 2.3916
-5.5089 -0.4812 2.3915
-5.4971 -0.6833 2.3914
-5.4788 -0.8853 2.3912
-5.4539 -1.0869 2.3911
-5.4224 -1.2881 2.3910
-5.3842 -1.4885 2.3909
-5.3395 -1.6880 2.3908
-5.2882 -1.8864 2.3907
-5.2303 -2.0836 2.3906
-5.1658 -2.2792 2.3905
-5.0948 -2.4732 2.3904
-5.0172 -2.6653 2.3903
-4.9330 -2.8553 2.3902
-4.8424 -3.0430 2.3901
-4.7452 -3.2281 2.3900
-4.6417 -3.4106 2.3899
-4.5318 -3.5901 2.3898
-4.4156 -3.7665 2.3897
-4.2931 -3.9395 2.3896
-4.1644 -4.1089 2.3896
-4.0295 -4.2746 2.3895
-3.8886 -4.4362 2.3894
-3.7418 -4.5935 2.3893
-3.5891 -4.7464 2.3892
-3.4307 -4.8947 2.3892
-3.2666 -5.0380 2.3891
-3.0971 -5.1761 2.3890
-2.9221 -5.3089 2.3890
-2.7430 -5.4385 2.3900
-2.5573 -5.5591 2.3895
-2.3649 -5.6694 2.3873
-2.1701 -5.7786 2.3873
-1.9707 -5.8813 2.3873
-1.7670 -5.9773 2.3872
-1.5591 -6.0665 2.3872
-1.3472 -6.1486 2.3872
-1.1316 -6.2233 2.3872
-0.9125 -6.2906 2.3871
-0.6902 -6.3502 2.3871
-0.4650 -6.4019 2.3871
-0.2370 -6.4456 2.3870
-0.0067 -6.4812 2.3870
0.2258 -6.5083 2.3870
0.4601 -6.5270 2.3869
0.6958 -6.5370 2.3869
0.9326 -6.5383 2.3868
1.1703 -6.5307 2.3868
1.4084 -6.5141 2.3867
1.6467 -6.4885 2.3867
1.8846 -6.4538 2.3866
2.1219 -6.4099 2.3865
2.3582 -6.3569 2.3865
2.5931 -6.2946 2.3864
2.8262 -6.2231 2.3863
3.0570 -6.1424 2.3863
3.2853 -6.0525 2.3862
3.5105 -5.9535 2.3861
3.7324 -5.8455 2.3860
3.9504 -5.7286 2.3859
4.1642 -5.6028 2.3859
4.3734 -5.4684 2.3858
4.5776 -5.3255 2.3857
4.7764 -5.1742 2.3856
4.9694 -5.0148 2.3855
5.1562 -4.8474 2.3854
5.3313 -4.6678 2.3830
5.4979 -4.4803 2.3800
5.6584 -4.2870 2.3777
5.8117 -4.0879 2.3757
5.9581 -3.8833 2.3741
6.0967 -3.6733 2.3727
6.2274 -3.4581 2.3716
6.3501 -3.2379 2.3708
6.4642 -3.0131 2.3702
6.5695 -2.7839 2.3697
6.6658 -2.5507 2.3693
6.7529 -2.3139 2.3691
6.8307 -2.0738 2.3690
6.9021 -1.8317 2.3701
6.9669 -1.5876 2.3724
6.9372 -1.3248 2.3460
6.7929 -1.0499 2.2848
6.6820 -0.7921 2.2387
6.7058 -0.5554 2.2412
6.7280 -0.3182 2.2463
6.7408 -0.0802 2.2515
6.7413 0.1583 2.2558
6.7315 0.3967 2.2599
6.7083 0.6341 2.2627
6.6738 0.8700 2.2650
6.6264 1.1036 2.2661
6.5674 1.3343 2.2663
6.4987 1.5618 2.2663
6.4211 1.7859 2.2663
6.3349 2.0063 2.2663
6.2572 2.2285 2.2724
6.3126 2.5038 2.3309
6.3905 2.8008 2.4030
6.3056 3.0346 2.4187
6.1713 3.2445 2.4187
6.0294 3.4484 2.4187
5.8801 3.6460 2.4187
5.7239 3.8371 2.4187
5.5609 4.0215 2.4187
5.3917 4.1988 2.4187
5.2164 4.3691 2.4187
5.0355 4.5319 2.4187
4.8492 4.6873 2.4187
3.0079 -5.6602 2.3861
3.2177 -5.5691 2.3861
3.4244 -5.4697 2.3860
3.6275 -5.3621 2.3859
3.8268 -5.2462 2.3858
4.0218 -5.1224 2.3858
4.2123 -4.9907 2.3857
4.3977 -4.8513 2.3856
4.5779 -4.7044 2.3855
4.7524 -4.5501 2.3854
4.9210 -4.3887 2.3854
5.0832 -4.2205 2.3853
5.2388 -4.0457 2.3852
5.3875 -3.8645 2.3851
5.5290 -3.6773 2.3850
5.6606 -3.4829 2.3840
5.7830 -3.2825 2.3823
5.8978 -3.0776 2.3809
6.0049 -2.8684 2.3797
6.1043 -2.6554 2.3789
6.1958 -2.4388 2.3784
6.2789 -2.2189 2.3780
6.3537 -1.9960 2.3779
6.4199 -1.7703 2.3780
6.4775 -1.5424 2.3782
6.5312 -1.3134 2.3805
6.5800 -1.0830 2.3843
6.6203 -0.8508 2.3884
6.5544 -0.6080 2.3577
6.4565 -0.3695 2.3190
6.3753 -0.1393 2.2897
6.3106 0.0851 2.2695
6.2670 0.3062 2.2601
6.2477 0.5271 2.2626
6.2179 0.7467 2.2645
6.1775 0.9645 2.2657
6.1483 1.1840 2.2742
6.1421 1.4098 2.2946
6.1490 1.6424 2.3235
6.1692 1.8841 2.3615
6.2061 2.1383 2.4101
6.1296 2.3579 2.4187
6.0230 2.5653 2.4187
5.9087 2.7679 2.4187
5.7869 2.9654 2.4187
5.6580 3.1575 2.4187
5.5221 3.3439 2.4187
5.3796 3.5244 2.4187
5.2308 3.6988 2.4187
5.0759 3.8669 2.4187
4.9153 4.0284 2.4187
4.7492 4.1832 2.4187
4.5780 4.3312 2.4187
4.4020 4.4721 2.4187
4.2215 4.6059 2.4187
4.0369 4.7324 2.4187
3.8484 4.8515 2.4187
3.6563 4.9632 2.4187
3.4610 5.0674 2.4187
3.2628 5.1639 2.4187
3.0621 5.2528 2.4187
2.8590 5.3341 2.4187
2.6539 5.4077 2.4187
0.9448 2.1131 0.9338
0.8680 2.1444 0.9376
0.7901 2.1730 0.9415
0.7113 2.1986 0.9454
0.6315 2.2215 0.9492
0.5510 2.2414 0.9531
0.4698 2.2584 0.9569
0.3881 2.2725 0.9607
0.3059 2.2836 0.9645
0.2233 2.2917 0.9683
0.1405 2.2968 0.9720
0.0575 2.2989 0.9757
-0.0255 2.2981 0.9793
-0.1084 2.2942 0.9829
-0.1911 2.2874 0.9864
-0.2735 2.2775 0.9899
-0.3555 2.2647 0.9933
-0.4370 2.2489 0.9967
-0.5179 2.2302 0.9999
-0.5981 2.2086 1.0031
-0.6774 2.1841 1.0062
-0.7558 2.1567 1.0092
-0.8331 2.1266 1.0122
-2.1668 4.9889 2.4187
-2.3388 4.8900 2.4183
-2.5062 4.7843 2.4172
-2.6682 4.6716 2.4151
-2.8250 4.5524 2.4122
-2.9797 4.4325 2.4114
-3.1299 4.3079 2.4106
-3.2755 4.1787 2.4098
-3.4164 4.0452 2.4089
-3.5526 3.9074 2.4081
-3.6838 3.7656 2.4072
-3.8099 3.6199 2.4063
-3.9310 3.4705 2.4054
-4.0469 3.3175 2.4045
-4.1576 3.1611 2.4036
-4.2629 3.0015 2.4027
-4.3574 2.8353 2.3988
-4.4431 2.6647 2.3933
-4.5333 2.4977 2.3932
-4.6179 2.3281 2.3931
-4.6969 2.1559 2.3930
-4.7703 1.9813 2.3929
-4.8379 1.8045 2.3928
-4.8998 1.6257 2.3927
-4.9558 1.4450 2.3926
-5.0060 1.2626 2.3925
-5.0502 1.0786 2.3924
-5.0885 0.8932 2.3922
-5.1207 0.7066 2.3921
-5.1469 0.5189 2.3920
-5.1671 0.3303 2.3919
-5.1811 0.1411 2.3918
-5.1890 -0.0488 2.3917
-5.1907 -0.2390 2.3916
-5.1862 -0.4294 2.3915
-5.1755 -0.6198 2.3914
-5.1586 -0.8101 2.3913
-5.1354 -1.0000 2.3912
-5.1060 -1.1895 2.3911
-5.0704 -1.3782 2.3910
-5.0285 -1.5661 2.3909
-4.9804 -1.7529 2.3908
-4.9261 -1.9384 2.3907
-4.8655 -2.1225 2.3906
-4.7987 -2.3050 2.3905
-4.7257 -2.4857 2.3904
-4.6466 -2.6643 2.3903
-4.5613 -2.8407 2.3902
-4.4700 -3.0147 2.3901
-4.3726 -3.1861 2.3901
-4.2692 -3.3547 2.3900
-4.1599 -3.5203 2.3899
-4.0447 -3.6827 2.3898
-3.9237 -3.8416 2.3897
-3.7970 -3.9969 2.3896
-3.6646 -4.1483 2.3896
-3.5266 -4.2958 2.3895
-3.3832 -4.4389 2.3894
-3.2344 -4.5776 2.3894
-3.0803 -4.7117 2.3893
-2.9211 -4.8408 2.3892
-2.7570 -4.9649 2.3892
-2.5879 -5.0837 2.3891
-2.4142 -5.1970 2.3891
-2.2355 -5.3037 2.3886
-2.0520 -5.4034 2.3877
-1.8649 -5.4977 2.3871
-1.6741 -5.5871 2.3871
-1.4795 -5.6699 2.3871
-1.2813 -5.7461 2.3871
-1.0797 -5.8154 2.3870
-0.8749 -5.8777 2.3870
-0.6671 -5.9328 2.3870
-0.4567 -5.9805 2.3870
-0.2438 -6.0207 2.3869
-0.0288 -6.0533 2.3869
0.1881 -6.0780 2.3868
0.4066 -6.0949 2.3868
0.6264 -6.1037 2.3868
0.8472 -6.1043 2.3867
1.0686 -6.0967 2.3867
1.2905 -6.0808 2.3866
1.5123 -6.0565 2.3866
1.7338 -6.0237 2.3865
1.9547 -5.9824 2.3864
2.1745 -5.9326 2.3864
2.3930 -5.8743 2.3863
2.6098 -5.8075 2.3863
2.8244 -5.7321 2.3862
3.0367 -5.6483 2.3861
3.2460 -5.5561 2.3860
3.4522 -5.4556 2.3860
3.6549 -5.3468 2.3859
3.8536 -5.2298 2.3858
4.0480 -5.1049 2.3858
4.2378 -4.9722 2.3857
4.4226 -4.8317 2.3856
4.6020 -4.6838 2.3855
4.7757 -4.5286 2.3854
4.9434 -4.3662 2.3854
5.1048 -4.1971 2.3853
5.2595 -4.0214 2.3852
5.4072 -3.8394 2.3851
5.5477 -3.6514 2.3850
5.6777 -3.4559 2.3837
5.7991 -3.2549 2.3821
5.9129 -3.0493 2.3808
6.0188 -2.8396 2.3796
6.1172 -2.6262 2.3788
6.2076 -2.4091 2.3783
6.2896 -2.1887 2.3780
6.3632 -1.9654 2.3779
6.4283 -1.7394 2.3780
6.4847 -1.5112 2.3783
6.5383 -1.2821 2.3809
6.5860 -1.0515 2.3848
6.6251 -0.8191 2.3890
6.5398 -0.5749 2.3518
6.4441 -0.3377 2.3143
6.3649 -0.1084 2.2862
6.3038 0.1154 2.2677
6.2651 0.3364 2.2605
6.2444 0.5571 2.2629
6.2131 0.7765 2.2647
6.1712 0.9940 2.2658
6.1455 1.2142 2.2760
6.1424 1.4410 2.2981
6.1517 1.6749 2.3285
6.1720 1.9175 2.3670
6.2117 2.1737 2.4173
6.1155 2.3864 2.4187
6.0079 2.5932 2.4187
5.8925 2.7951 2.4187
5.7698 2.9918 2.4187
5.6399 3.1832 2.4187
5.5031 3.3688 2.4187
5.3597 3.5485 2.4187
5.2100 3.7221 2.4187
5.0544 3.8893 2.4187
4.8930 4.0499 2.4187
4.7262 4.2038 2.4187
4.5543 4.3508 2.4187
4.3777 4.4908 2.4187
4.1966 4.6235 2.4187
4.0114 4.7491 2.4187
3.8224 4.8672 2.4187
3.6299 4.9778 2.4187
3.4342 5.0809 2.4187
3.2357 5.1765 2.4187
3.0345 5.2643 2.4187
2.8312 5.3446 2.4187
2.6259 5.4171 2.4187
0.9344 2.1176 0.9343
0.8575 2.1485 0.9382
0.7795 2.1766 0.9420
0.7005 2.2019 0.9459
0.6206 2.2244 0.9498
0.5400 2.2439 0.9536
0.4587 2.2605 0.9574
0.3769 2.2742 0.9613
0.2946 2.2848 0.9650
0.2120 2.2926 0.9688
0.1292 2.2973 0.9725
0.0462 2.2990 0.9762
-0.0368 2.2977 0.9798
-0.1197 2.2935 0.9834
-0.2023 2.2862 0.9869
-0.2847 2.2759 0.9904
-0.3667 2.2627 0.9938
-0.4481 2.2465 0.9971
-0.5289 2.2274 1.0004
-0.6089 2.2054 1.0035
-0.6881 2.1805 1.0066
-0.7664 2.1528 1.0096
-0.8435 2.1222 1.0126
-2.1905 4.9758 2.4186
-2.3619 4.8761 2.4182
-2.5285 4.7694 2.4170
-2.6898 4.6556 2.4147
-2.8463 4.5364 2.4121
-3.0004 4.4158 2.4113
-3.1500 4.2905 2.4105
-3.2950 4.1608 2.4096
-3.4353 4.0267 2.4088
-3.5707 3.8884 2.4079
-3.7012 3.7460 2.4071
-3.8267 3.5998 2.4062
-3.9471 3.4499 2.4053
-4.0623 3.2964 2.4044
-4.1722 3.1396 2.4035
-4.2768 2.9795 2.4025
-4.3695 2.8123 2.3981
-4.4557 2.6422 2.3932
-4.5451 2.4748 2.3931
-4.6290 2.3048 2.3930
-4.7072 2.1323 2.3929
-4.7798 1.9574 2.3928
-4.8467 1.7803 2.3927
-4.9078 1.6012 2.3926
-4.9630 1.4203 2.3925
-5.0123 1.2376 2.3924
-5.0558 1.0534 2.3923
-5.0932 0.8679 2.3922
-5.1247 0.6811 2.3921
-5.1500 0.4933 2.3920
-5.1693 0.3046 2.3919
-5.1825 0.1153 2.3918
-5.1895 -0.0746 2.3917
-5.1904 -0.2649 2.3916
-5.1851 -0.4553 2.3915
-5.1736 -0.6457 2.3914
-5.1558 -0.8359 2.3913
-5.1318 -1.0258 2.3912
-5.1016 -1.2152 2.3911
-5.0651 -1.4038 2.3910
-5.0223 -1.5915 2.3909
-4.9734 -1.7782 2.3908
-4.9182 -1.9636 2.3907
-4.8567 -2.1475 2.3906
-4.7891 -2.3297 2.3905
-4.7153 -2.5101 2.3904
-4.6354 -2.6884 2.3903
-4.5493 -2.8646 2.3902
-4.4571 -3.0382 2.3901
-4.3589 -3.2093 2.3900
-4.2547 -3.3774 2.3900
-4.1446 -3.5426 2.3899
-4.0286 -3.7045 2.3898
-3.9068 -3.8629 2.3897
-3.7793 -4.0177 2.3896
-3.6461 -4.1686 2.3896
-3.5074 -4.3155 2.3895
-3.3632 -4.4581 2.3894
-3.2137 -4.5961 2.3894
-3.0589 -4.7295 2.3893
-2.8991 -4.8580 2.3892
-2.7342 -4.9814 2.3892
-2.5645 -5.0994 2.3891
-2.3902 -5.2120 2.3891
-2.2105 -5.3169 2.3881
-2.0264 -5.4155 2.3871
-1.8391 -5.5103 2.3871
-1.6478 -5.5987 2.3871
-1.4527 -5.6806 2.3871
-1.2540 -5.7559 2.3871
-1.0520 -5.8243 2.3870
-0.8468 -5.8856 2.3870
-0.6386 -5.9397 2.3870
-0.4279 -5.9864 2.3870
-0.2147 -6.0256 2.3869
0.0006 -6.0571 2.3869
0.2177 -6.0808 2.3868
0.4364 -6.0965 2.3868
0.6564 -6.1042 2.3868
0.8773 -6.1038 2.3867
1.0988 -6.0950 2.3867
1.3207 -6.0780 2.3866
1.5425 -6.0525 2.3866
1.7639 -6.0186 2.3865
1.9847 -5.9762 2.3864
2.2044 -5.9252 2.3864
2.4226 -5.8657 2.3863
2.6391 -5.7977 2.3862
2.8535 -5.7212 2.3862
3.0653 -5.6363 2.3861
3.2743 -5.5429 2.3860
3.4800 -5.4412 2.3860
3.6822 -5.3313 2.3859
3.8803 -5.2133 2.3858
4.0741 -5.0873 2.3857
4.2632 -4.9535 2.3857
4.4473 -4.8120 2.3856
4.6260 -4.6631 2.3855
4.7989 -4.5069 2.3854
4.9658 -4.3436 2.3853
5.1262 -4.1736 2.3853
5.2800 -3.9970 2.3852
5.4267 -3.8142 2.3851
5.5662 -3.6254 2.3850
5.6946 -3.4288 2.3835
5.8150 -3.2272 2.3819
5.9277 -3.0210 2.3806
6.0327 -2.8107 2.3795
6.1300 -2.5968 2.3788
6.2192 -2.3793 2.3783
6.3001 -2.1585 2.3780
6.3726 -1.9348 2.3779
6.4365 -1.7085 2.3780
6.4917 -1.4800 2.3783
6.5452 -1.2508 2.3814
6.5918 -1.0200 2.3854
6.6297 -0.7873 2.3896
6.5253 -0.5421 2.3459
6.4317 -0.3061 2.3097
6.3551 -0.0777 2.2830
6.2975 0.1456 2.2662
6.2629 0.3665 2.2609
6.2408 0.5871 2.2632
6.2081 0.8062 2.2649
6.1648 1.0234 2.2659
6.1427 1.2444 2.2779
6.1428 1.4724 2.3017
6.1545 1.7075 2.3335
6.1768 1.9516 2.3733
6.2022 2.2040 2.4187
6.1013 2.4148 2.4187
5.9926 2.6209 2.4187
5.8763 2.8222 2.4187
5.7525 3.0182 2.4187
5.6216 3.2088 2.4187
5.4840 3.3936 2.4187
5.3397 3.5725 2.4187
5.1892 3.7452 2.4187
5.0327 3.9115 2.4187
4.8706 4.0712 2.4187
4.7031 4.2242 2.4187
4.5306 4.3703 2.4187
2.8170 -5.2902 2.3861
3.0124 -5.2041 2.3860
3.2049 -5.1103 2.3859
3.3940 -5.0088 2.3859
3.5794 -4.8998 2.3858
3.7609 -4.7834 2.3857
3.9380 -4.6597 2.3856
4.1105 -4.5289 2.3856
4.2780 -4.3911 2.3855
4.4402 -4.2467 2.3854
4.5969 -4.0956 2.3854
4.7476 -3.9383 2.3853
4.8922 -3.7748 2.3852
5.0304 -3.6055 2.3851
5.1618 -3.4307 2.3850
5.2863 -3.2505 2.3850
5.4036 -3.0654 2.3849
5.5135 -2.8755 2.3848
5.6158 -2.6813 2.3847
5.7102 -2.4831 2.3847
5.7966 -2.2811 2.3846
5.8749 -2.0758 2.3845
5.9449 -1.8675 2.3844
6.0065 -1.6566 2.3844
6.0595 -1.4433 2.3843
6.1089 -1.2292 2.3861
6.1544 -1.0140 2.3899
6.1919 -0.7970 2.3938
6.2212 -0.5786 2.3980
6.2415 -0.3590 2.4020
6.2526 -0.1386 2.4059
6.2538 0.0821 2.4095
6.2267 0.3017 2.4054
6.1841 0.5190 2.3987
6.1516 0.7358 2.3993
6.1287 0.9536 2.4069
6.1072 1.1726 2.4186
6.0480 1.3844 2.4187
5.9804 1.5933 2.4187
5.9047 1.7990 2.4187
5.8212 2.0011 2.4187
5.7302 2.1994 2.4187
5.6317 2.3935 2.4187
5.5260 2.5832 2.4187
5.4133 2.7682 2.4187
5.2939 2.9483 2.4187
5.1680 3.1232 2.4187
5.0359 3.2926 2.4187
4.8978 3.4564 2.4187
4.7540 3.6144 2.4187
4.6048 3.7663 2.4187
4.4505 3.9121 2.4187
4.2913 4.0515 2.4187
4.1276 4.1844 2.4187
3.9596 4.3107 2.4187
3.7876 4.4302 2.4187
3.6119 4.5429 2.4187
3.4328 4.6487 2.4187
3.2506 4.7475 2.4187
3.0655 4.8392 2.4187
2.8780 4.9238 2.4187
2.6882 5.0012 2.4187
0.9605 1.9512 0.9305
0.8895 1.9831 0.9342
0.8174 2.0125 0.9378
0.7443 2.0393 0.9414
0.6703 2.0634 0.9451
0.5954 2.0848 0.9487
0.5198 2.1035 0.9523
0.4436 2.1194 0.9559
0.3668 2.1326 0.9595
0.2896 2.1430 0.9630
0.2121 2.1507 0.9666
0.1344 2.1555 0.9701
0.0565 2.1575 0.9735
-0.0214 2.1566 0.9769
-0.0993 2.1530 0.9803
-0.1769 2.1466 0.9836
-0.2543 2.1373 0.9869
-0.3313 2.1253 0.9901
-0.4078 2.1105 0.9932
-0.4837 2.0929 0.9963
-0.5589 2.0726 0.9993
-0.6334 2.0496 1.0022
-0.7070 2.0239 1.0050
-0.7796 1.9956 1.0078
-0.8512 1.9647 1.0104
-2.1967 4.6036 2.4147
-2.3538 4.5029 2.4127
-2.5082 4.3999 2.4120
-2.6586 4.2921 2.4112
-2.8050 4.1796 2.4105
-2.9471 4.0626 2.4097
-3.0850 3.9413 2.4089
-3.2184 3.8158 2.4081
-3.3473 3.6863 2.4073
-3.4715 3.5529 2.4065
-3.5911 3.4157 2.4057
-3.7058 3.2750 2.4048
-3.8156 3.1308 2.4040
-3.9205 2.9834 2.4031
-4.0193 2.8322 2.4016
-4.1069 2.6743 2.3967
-4.1916 2.5156 2.3932
-4.2770 2.3579 2.3931
-4.3571 2.1977 2.3930
-4.4319 2.0351 2.3929
-4.5013 1.8702 2.3928
-4.5653 1.7032 2.3927
-4.6238 1.5343 2.3926
-4.6768 1.3635 2.3925
-4.7241 1.1912 2.3924
-4.7659 1.0173 2.3923
-4.8019 0.8421 2.3922
-4.8323 0.6658 2.3921
-4.8569 0.4885 2.3920
-4.8757 0.3103 2.3919
-4.8887 0.1315 2.3918
-4.8959 -0.0478 2.3917
-4.8972 -0.2275 2.3916
-4.8926 -0.4073 2.3915
-4.8821 -0.5871 2.3914
-4.8658 -0.7668 2.3914
-4.8435 -0.9461 2.3913
-4.8153 -1.1249 2.3912
-4.7811 -1.3029 2.3911
-4.7410 -1.4801 2.3910
-4.6951 -1.6563 2.3909
-4.6432 -1.8312 2.3908
-4.5854 -2.0047 2.3907
-4.5218 -2.1766 2.3906
-4.4523 -2.3468 2.3905
-4.3770 -2.5149 2.3904
-4.2959 -2.6809 2.3903
-4.2091 -2.8446 2.3903
-4.1165 -3.0057 2.3902
-4.0184 -3.1641 2.3901
-3.9146 -3.3196 2.3900
-3.8053 -3.4720 2.3899
-3.6906 -3.6211 2.3899
-3.5705 -3.7667 2.3898
-3.4451 -3.9086 2.3897
-3.3144 -4.0466 2.3896
-3.1787 -4.1806 2.3896
-3.0380 -4.3102 2.3895
-2.8923 -4.4354 2.3895
-2.7419 -4.5560 2.3894
-2.5869 -4.6717 2.3893
-2.4273 -4.7823 2.3893
-2.2634 -4.8877 2.3892
-2.0952 -4.9877 2.3892
-1.9236 -5.0836 2.3899
-1.7470 -5.1708 2.3892
-1.5658 -5.2488 2.3870
-1.3827 -5.3253 2.3870
-1.1963 -5.3955 2.3870
-1.0068 -5.4592 2.3869
-0.8144 -5.5163 2.3869
-0.6193 -5.5667 2.3869
-0.4218 -5.6100 2.3868
-0.2221 -5.6464 2.3868
-0.0205 -5.6755 2.3868
0.1828 -5.6973 2.3867
0.3875 -5.7117 2.3867
0.5932 -5.7185 2.3867
0.7999 -5.7178 2.3866
1.0070 -5.7093 2.3866
1.2144 -5.6930 2.3865
1.4217 -5.6689 2.3865
1.6286 -5.6370 2.3864
1.8348 -5.5971 2.3864
2.0400 -5.5493 2.3863
2.2438 -5.4935 2.3862
2.4459 -5.4299 2.3862
2.6460 -5.3584 2.3861
2.8438 -5.2790 2.3861
3.0388 -5.1918 2.3860
3.2308 -5.0969 2.3859
3.4194 -4.9944 2.3859
3.6044 -4.8844 2.3858
3.7852 -4.7670 2.3857
3.9618 -4.6423 2.3856
4.1336 -4.5105 2.3856
4.3004 -4.3719 2.3855
4.4619 -4.2265 2.3854
4.6177 -4.0746 2.3853
4.7677 -3.9164 2.3853
4.9114 -3.7521 2.3852
5.0487 -3.5820 2.3851
5.1792 -3.4064 2.3850
5.3027 -3.2256 2.3850
5.4190 -3.0398 2.3849
5.5279 -2.8494 2.3848
5.6291 -2.6546 2.3847
5.7224 -2.4558 2.3847
5.8078 -2.2534 2.3846
5.8849 -2.0476 2.3845
5.9538 -1.8389 2.3844
6.0142 -1.6277 2.3844
6.0661 -1.4142 2.3843
6.1156 -1.2000 2.3866
6.1600 -0.9846 2.3904
6.1964 -0.7674 2.3944
6.2246 -0.5488 2.3986
6.2434 -0.3290 2.4025
6.2533 -0.1086 2.4064
6.2533 0.1121 2.4099
6.2197 0.3314 2.4039
6.1786 0.5484 2.3982
6.1474 0.7652 2.3997
6.1259 0.9834 2.4083
6.0997 1.2016 2.4186
6.0393 1.4130 2.4187
5.9705 1.6215 2.4187
5.8938 1.8267 2.4187
5.8093 2.0283 2.4187
5.7172 2.2260 2.4187
5.6177 2.4196 2.4187
5.5110 2.6087 2.4187
5.3974 2.7930 2.4187
5.2771 2.9724 2.4187
5.1504 3.1466 2.4187
5.0174 3.3153 2.4187
4.8786 3.4783 2.4187
4.7340 3.6354 2.4187
4.5841 3.7865 2.4187
4.4291 3.9314 2.4187
4.2693 4.0700 2.4187
4.1050 4.2020 2.4187
3.9364 4.3273 2.4187
3.7639 4.4460 2.4187
3.5877 4.5577 2.4187
3.4081 4.6626 2.4187
3.2255 4.7604 2.4187
3.0401 4.8511 2.4187
2.8523 4.9347 2.4187
2.6622 5.0112 2.4187
0.9509 1.9557 0.9310
0.8797 1.9873 0.9347
0.8075 2.0163 0.9383
0.7343 2.0427 0.9419
0.6601 2.0664 0.9456
0.5852 2.0875 0.9492
0.5095 2.1058 0.9528
0.4332 2.1214 0.9564
0.3563 2.1342 0.9600
0.2791 2.1442 0.9635
0.2015 2.1515 0.9671
0.1238 2.1559 0.9705
0.0459 2.1575 0.9740
-0.0320 2.1563 0.9774
-0.1098 2.1523 0.9808
-0.1875 2.1455 0.9841
-0.2648 2.1358 0.9873
-0.3417 2.1234 0.9905
-0.4181 2.1082 0.9936
-0.4940 2.0903 0.9967
-0.5691 2.0696 0.9997
-0.6435 2.0463 1.0026
-0.7169 2.0202 1.0054
-0.7894 1.9916 1.0081
-0.8608 1.9603 1.0108
-2.2182 4.5899 2.4143
-2.3750 4.4892 2.4126
-2.5289 4.3855 2.4119
-2.6788 4.2770 2.4111
-2.8246 4.1639 2.4104
-2.9662 4.0464 2.4096
-3.1034 3.9245 2.4088
-3.2362 3.7984 2.4080
-3.3645 3.6683 2.4072
-3.4881 3.5344 2.4064
-3.6070 3.3968 2.4055
-3.7210 3.2556 2.4047
-3.8302 3.1110 2.4038
-3.9344 2.9631 2.4030
-4.0315 2.8109 2.4010
-4.1183 2.6525 2.3959
-4.2036 2.4943 2.3932
-4.2882 2.3363 2.3931
-4.3676 2.1757 2.3930
-4.4417 2.0128 2.3929
-4.5104 1.8476 2.3928
-4.5736 1.6803 2.3927
-4.6313 1.5111 2.3926
-4.6835 1.3402 2.3925
-4.7302 1.1676 2.3924
-4.7711 0.9935 2.3923
-4.8064 0.8182 2.3922
-4.8360 0.6417 2.3921
-4.8598 0.4643 2.3920
-4.8778 0.2860 2.3919
-4.8900 0.1071 2.3918
-4.8964 -0.0723 2.3917
-4.8969 -0.2520 2.3916
-4.8915 -0.4318 2.3915
-4.8803 -0.6116 2.3914
-4.8631 -0.7912 2.3913
-4.8400 -0.9705 2.3912
-4.8110 -1.1491 2.3911
-4.7760 -1.3271 2.3910
-4.7351 -1.5042 2.3910
-4.6884 -1.6802 2.3909
-4.6357 -1.8549 2.3908
-4.5771 -2.0282 2.3907
-4.5126 -2.1999 2.3906
-4.4424 -2.3698 2.3905
-4.3663 -2.5376 2.3904
-4.2844 -2.7033 2.3903
-4.1968 -2.8667 2.3902
-4.1035 -3.0274 2.3902
-4.0046 -3.1855 2.3901
-3.9001 -3.3405 2.3900
-3.7900 -3.4925 2.3899
-3.6746 -3.6411 2.3898
-3.5537 -3.7862 2.3898
-3.4276 -3.9276 2.3897
-3.2963 -4.0651 2.3896
-3.1598 -4.1985 2.3896
-3.0184 -4.3275 2.3895
-2.8721 -4.4521 2.3895
-2.7211 -4.5720 2.3894
-2.5654 -4.6870 2.3893
-2.4053 -4.7970 2.3893
-2.2407 -4.9017 2.3892
-2.0720 -5.0009 2.3892
-1.8995 -5.0951 2.3894
-1.7224 -5.1815 2.3887
-1.5411 -5.2596 2.3870
-1.3576 -5.3353 2.3870
-1.1707 -5.4046 2.3869
-0.9808 -5.4674 2.3869
-0.7880 -5.5236 2.3869
-0.5926 -5.5730 2.3869
-0.3947 -5.6154 2.3868
-0.1948 -5.6508 2.3868
0.0071 -5.6789 2.3868
0.2106 -5.6997 2.3867
0.4154 -5.7131 2.3867
0.6213 -5.7189 2.3867
0.8280 -5.7171 2.3866
1.0352 -5.7075 2.3866
1.2426 -5.6902 2.3865
1.4499 -5.6650 2.3865
1.6567 -5.6320 2.3864
1.8628 -5.5910 2.3864
2.0678 -5.5422 2.3863
2.2714 -5.4853 2.3862
2.4733 -5.4206 2.3862
2.6731 -5.3480 2.3861
2.8705 -5.2676 2.3860
3.0651 -5.1793 2.3860
3.2567 -5.0834 2.3859
3.4448 -4.9799 2.3858
3.6292 -4.8688 2.3858
3.8095 -4.7504 2.3857
3.9854 -4.6248 2.3856
4.1566 -4.4921 2.3856
4.3227 -4.3525 2.3855
4.4834 -4.2062 2.3854
4.6385 -4.0534 2.3853
4.7876 -3.8944 2.3853
4.9305 -3.7293 2.3852
5.0668 -3.5585 2.3851
5.1964 -3.3821 2.3850
5.3190 -3.2006 2.3849
5.4343 -3.0141 2.3849
5.5421 -2.8231 2.3848
5.6423 -2.6278 2.3847
5.7345 -2.4285 2.3846
5.8188 -2.2256 2.3846
5.8948 -2.0194 2.3845
5.9625 -1.8103 2.3844
6.0218 -1.5987 2.3843
6.0725 -1.3850 2.3843
6.1221 -1.1708 2.3871
6.1654 -0.9551 2.3909
6.2007 -0.7377 2.3949
6.2277 -0.5189 2.3991
6.2452 -0.2991 2.4030
6.2537 -0.0786 2.4069
6.2525 0.1421 2.4104
6.2136 0.3610 2.4027
6.1736 0.5779 2.3979
6.1434 0.7947 2.4002
6.1231 1.0131 2.4098
6.0921 1.2305 2.4187
6.0304 1.4416 2.4187
5.9605 1.6496 2.4187
5.8828 1.8544 2.4187
5.7972 2.0555 2.4187
5.7041 2.2526 2.4187
5.6036 2.4456 2.4187
5.4960 2.6341 2.4187
5.3815 2.8178 2.4187
5.2603 2.9964 2.4187
5.1326 3.1698 2.4187
4.9989 3.3378 2.4187
4.8592 3.5000 2.4187
4.7139 3.6564 2.4187
4.5633 3.8066 2.4187
4.4076 3.9507 2.4187
4.2472 4.0883 2.4187
2.6465 -4.9599 2.3860
2.8292 -4.8783 2.3859
3.0090 -4.7896 2.3859
3.1857 -4.6937 2.3858
3.3589 -4.5909 2.3858
3.5283 -4.4812 2.3857
3.6936 -4.3647 2.3856
3.8546 -4.2417 2.3855
4.0109 -4.1122 2.3855
4.1622 -3.9765 2.3854
4.3084 -3.8347 2.3853
4.4490 -3.6870 2.3853
4.5838 -3.5338 2.3852
4.7127 -3.3751 2.3851
4.8353 -3.2112 2.3851
4.9514 -3.0425 2.3850
5.0608 -2.8692 2.3849
5.1633 -2.6915 2.3848
5.2587 -2.5097 2.3848
5.3469 -2.3242 2.3847
5.4276 -2.1353 2.3846
5.5007 -1.9433 2.3846
5.5662 -1.7485 2.3845
5.6246 -1.5515 2.3848
5.6823 -1.3540 2.3881
5.7320 -1.1541 2.3913
5.7673 -0.9512 2.3919
5.7933 -0.7469 2.3920
5.8263 -0.5433 2.3983
5.8449 -0.3379 2.4021
5.8586 -0.1318 2.4072
5.8605 0.0747 2.4108
5.8514 0.2811 2.4133
5.8331 0.4869 2.4153
5.8054 0.6914 2.4169
5.7686 0.8944 2.4179
5.7228 1.0954 2.4185
5.6683 1.2939 2.4187
5.6058 1.4896 2.4187
5.5357 1.6824 2.4187
5.4584 1.8720 2.4187
5.3739 2.0580 2.4187
5.2825 2.2402 2.4187
5.1844 2.4184 2.4187
5.0797 2.5922 2.4187
4.9687 2.7615 2.4187
4.8516 2.9259 2.4187
4.7286 3.0854 2.4187
4.6000 3.2397 2.4187
4.4661 3.3885 2.4187
4.3270 3.5318 2.4187
4.1833 3.6692 2.4187
4.0345 3.8009 2.4187
3.8816 3.9265 2.4187
3.7246 4.0460 2.4187
3.5639 4.1591 2.4187
3.3996 4.2659 2.4187
3.2320 4.3663 2.4187
3.0615 4.4601 2.4187
2.8882 4.5473 2.4187
2.7125 4.6279 2.4187
2.5345 4.7018 2.4187
0.9065 1.8359 0.9311
0.8397 1.8660 0.9345
0.7718 1.8936 0.9379
0.7030 1.9188 0.9414
0.6333 1.9415 0.9448
0.5628 1.9616 0.9482
0.4917 1.9792 0.9516
0.4199 1.9942 0.9550
0.3477 2.0066 0.9584
0.2750 2.0164 0.9617
0.2021 2.0236 0.9650
0.1289 2.0281 0.9683
0.0556 2.0300 0.9716
-0.0178 2.0292 0.9748
-0.0910 2.0258 0.9779
-0.1641 2.0197 0.9811
-0.2369 2.0110 0.9841
-0.3094 1.9997 0.9871
-0.3814 1.9857 0.9901
-0.4529 1.9692 0.9930
-0.5237 1.9501 0.9958
-0.5938 1.9284 0.9985
-0.6631 1.9043 1.0012
-0.7314 1.8776 1.0038
-0.7987 1.8485 1.0063
-0.8650 1.8170 1.0087
-2.2185 4.2534 2.4117
-2.3648 4.1567 2.4110
-2.5074 4.0553 2.4103
-2.6461 3.9496 2.4096
-2.7809 3.8395 2.4089
-2.9116 3.7253 2.4082
-3.0381 3.6070 2.4074
-3.1604 3.4849 2.4066
-3.2783 3.3591 2.4059
-3.3917 3.2297 2.4051
-3.5006 3.0969 2.4043
-3.6049 2.9608 2.4035
-3.7044 2.8215 2.4027
-3.7954 2.6767 2.3995
-3.8787 2.5275 2.3946
-3.9623 2.3795 2.3931
-4.0433 2.2304 2.3930
-4.1192 2.0788 2.3930
-4.1902 1.9249 2.3929
-4.2560 1.7689 2.3928
-4.3166 1.6108 2.3927
-4.3721 1.4509 2.3926
-4.4222 1.2892 2.3925
-4.4670 1.1260 2.3924
-4.5065 0.9614 2.3923
-4.5406 0.7955 2.3922
-4.5692 0.6286 2.3921
-4.5923 0.4607 2.3920
-4.6100 0.2920 2.3919
-4.6221 0.1227 2.3919
-4.6286 -0.0470 2.3918
-4.6296 -0.2171 2.3917
-4.6250 -0.3872 2.3916
-4.6148 -0.5574 2.3915
-4.5989 -0.7273 2.3914
-4.5774 -0.8970 2.3913
-4.5503 -1.0660 2.3912
-4.5176 -1.2344 2.3911
-4.4792 -1.4019 2.3910
-4.4353 -1.5684 2.3909
-4.3857 -1.7336 2.3908
-4.3305 -1.8975 2.3908
-4.2698 -2.0598 2.3907
-4.2036 -2.2204 2.3906
-4.1318 -2.3791 2.3905
-4.0546 -2.5357 2.3904
-3.9719 -2.6900 2.3904
-3.8839 -2.8418 2.3903
-3.7905 -2.9910 2.3902
-3.6919 -3.1374 2.3901
-3.5881 -3.2808 2.3900
-3.4791 -3.4211 2.3900
-3.3651 -3.5579 2.3899
-3.2461 -3.6913 2.3898
-3.1222 -3.8209 2.3898
-2.9935 -3.9465 2.3897
-2.8601 -4.0681 2.3897
-2.7222 -4.1854 2.3896
-2.5798 -4.2983 2.3896
-2.4331 -4.4065 2.3895
-2.2821 -4.5099 2.3895
-2.1271 -4.6083 2.3894
-1.9682 -4.7016 2.3894
-1.8056 -4.7895 2.3893
-1.6398 -4.8736 2.3901
-1.4691 -4.9466 2.3882
-1.2960 -5.0163 2.3876
-1.1198 -5.0797 2.3868
-0.9412 -5.1386 2.3868
-0.7599 -5.1911 2.3868
-0.5763 -5.2373 2.3868
-0.3904 -5.2769 2.3867
-0.2026 -5.3099 2.3867
-0.0130 -5.3361 2.3867
0.1780 -5.3554 2.3866
0.3703 -5.3677 2.3866
0.5635 -5.3730 2.3866
0.7574 -5.3711 2.3865
0.9518 -5.3620 2.3865
1.1462 -5.3456 2.3864
1.3406 -5.3219 2.3864
1.5344 -5.2908 2.3863
1.7276 -5.2523 2.3863
1.9197 -5.2064 2.3862
2.1104 -5.1531 2.3862
2.2995 -5.0925 2.3861
2.4867 -5.0245 2.3861
2.6716 -4.9492 2.3860
2.8539 -4.8667 2.3859
3.0333 -4.7769 2.3859
3.2095 -4.6801 2.3858
3.3821 -4.5764 2.3857
3.5510 -4.4657 2.3857
3.7158 -4.3484 2.3856
3.8761 -4.2244 2.3855
4.0318 -4.0941 2.3855
4.1824 -3.9575 2.3854
4.3278 -3.8149 2.3853
4.4677 -3.6665 2.3853
4.6017 -3.5125 2.3852
4.7297 -3.3531 2.3851
4.8515 -3.1886 2.3850
4.9667 -3.0192 2.3850
5.0752 -2.8452 2.3849
5.1767 -2.6670 2.3848
5.2712 -2.4847 2.3848
5.3583 -2.2987 2.3847
5.4380 -2.1094 2.3846
5.5101 -1.9170 2.3845
5.5745 -1.7218 2.3845
5.6329 -1.5247 2.3852
5.6891 -1.3268 2.3883
5.7382 -1.1268 2.3918
5.7713 -0.9235 2.3919
5.7989 -0.7194 2.3931
5.8299 -0.5155 2.3991
5.8459 -0.3098 2.4022
5.8598 -0.1038 2.4079
5.8598 0.1028 2.4112
5.8494 0.3092 2.4136
5.8299 0.5148 2.4156
5.8010 0.7192 2.4171
5.7629 0.9219 2.4180
5.7159 1.1225 2.4185
5.6603 1.3207 2.4187
5.5967 1.5161 2.4187
5.5256 1.7084 2.4187
5.4473 1.8975 2.4187
5.3619 2.0831 2.4187
5.2696 2.2647 2.4187
5.1705 2.4423 2.4187
5.0650 2.6155 2.4187
4.9531 2.7841 2.4187
4.8352 2.9479 2.4187
4.7114 3.1067 2.4187
4.5821 3.2602 2.4187
4.4474 3.4083 2.4187
4.3077 3.5508 2.4187
4.1631 3.6875 2.4187
4.0139 3.8184 2.4187
3.8605 3.9431 2.4187
3.7030 4.0617 2.4187
3.5417 4.1740 2.4187
3.3770 4.2800 2.4187
3.2090 4.3794 2.4187
3.0380 4.4724 2.4187
2.8644 4.5587 2.4187
2.6884 4.6383 2.4187
0.9633 1.8080 0.9282
0.8974 1.8401 0.9316
0.8305 1.8699 0.9350
0.7625 1.8972 0.9384
0.6936 1.9220 0.9418
0.6238 1.9443 0.9452
0.5532 1.9641 0.9487
0.4820 1.9814 0.9521
0.4101 1.9960 0.9554
0.3378 2.0081 0.9588
0.2651 2.0175 0.9622
0.1921 2.0243 0.9655
0.1189 2.0285 0.9688
0.0456 2.0300 0.9720
-0.0277 2.0289 0.9752
-0.1010 2.0251 0.9784
-0.1740 2.0187 0.9815
-0.2468 2.0096 0.9845
-0.3192 1.9979 0.9875
-0.3912 1.9836 0.9905
-0.4626 1.9667 0.9934
-0.5333 1.9473 0.9962
-0.6033 1.9253 0.9989
-0.6724 1.9008 1.0016
-0.7406 1.8738 1.0041
-0.8078 1.8444 1.0066
-0.8739 1.8125 1.0090
-2.2387 4.2405 2.4116
-2.3844 4.1431 2.4109
-2.5265 4.0412 2.4102
-2.6647 3.9348 2.4095
-2.7989 3.8242 2.4088
-2.9291 3.7094 2.4081
-3.0550 3.5906 2.4073
-3.1767 3.4680 2.4065
-3.2940 3.3417 2.4058
-3.4068 3.2118 2.4050
-3.5151 3.0785 2.4042
-3.6187 2.9420 2.4034
-3.7176 2.8023 2.4025
-3.8071 2.6566 2.3989
-3.8895 2.5070 2.3939
-3.9736 2.3594 2.3931
-4.0539 2.2099 2.3930
-4.1292 2.0580 2.3929
-4.1994 1.9038 2.3929
-4.2645 1.7475 2.3928
-4.3245 1.5891 2.3927
-4.3792 1.4290 2.3926
-4.4286 1.2671 2.3925
-4.4727 1.1037 2.3924
-4.5115 0.9389 2.3923
-4.5448 0.7729 2.3922
-4.5727 0.6058 2.3921
-4.5951 0.4378 2.3920
-4.6119 0.2690 2.3919
-4.6233 0.0996 2.3918
-4.6291 -0.0701 2.3917
-4.6293 -0.2402 2.3917
-4.6239 -0.4104 2.3916
-4.6129 -0.5805 2.3915
-4.5963 -0.7505 2.3914
-4.5741 -0.9200 2.3913
-4.5462 -1.0890 2.3912
-4.5127 -1.2572 2.3911
-4.4736 -1.4246 2.3910
-4.4288 -1.5909 2.3909
-4.3785 -1.7560 2.3908
-4.3226 -1.9197 2.3908
-4.2611 -2.0818 2.3907
-4.1941 -2.2421 2.3906
-4.1216 -2.4005 2.3905
-4.0436 -2.5568 2.3904
-3.9602 -2.7108 2.3903
-3.8715 -2.8623 2.3903
-3.7774 -3.0111 2.3902
-3.6781 -3.1571 2.3901
-3.5735 -3.3001 2.3900
-3.4639 -3.4399 2.3900
-3.3492 -3.5763 2.3899
-3.2295 -3.7091 2.3898
-3.1049 -3.8382 2.3898
-2.9756 -3.9633 2.3897
-2.8416 -4.0843 2.3897
-2.7031 -4.2010 2.3896
-2.5601 -4.3133 2.3895
-2.4128 -4.4208 2.3895
-2.2613 -4.5236 2.3894
-2.1057 -4.6213 2.3894
-1.9463 -4.7139 2.3894
-1.7832 -4.8011 2.3893
-1.6173 -4.8854 2.3906
-1.4460 -4.9575 2.3886
-1.2719 -5.0246 2.3872
-1.0956 -5.0881 2.3868
-0.9166 -5.1461 2.3868
-0.7351 -5.1978 2.3868
-0.5511 -5.2431 2.3868
-0.3649 -5.2818 2.3867
-0.1769 -5.3139 2.3867
0.0129 -5.3391 2.3867
0.2041 -5.3575 2.3866
0.3965 -5.3689 2.3866
0.5899 -5.3732 2.3866
0.7838 -5.3703 2.3865
0.9782 -5.3602 2.3865
1.1727 -5.3428 2.3864
1.3670 -5.3181 2.3864
1.5608 -5.2860 2.3863
1.7538 -5.2465 2.3863
1.9457 -5.1996 2.3862
2.1363 -5.1453 2.3862
2.3251 -5.0837 2.3861
2.5120 -5.0147 2.3861
2.6965 -4.9384 2.3860
2.8784 -4.8549 2.3859
3.0574 -4.7642 2.3859
3.2332 -4.6664 2.3858
3.4054 -4.5617 2.3857
3.5737 -4.4501 2.3857
3.7379 -4.3319 2.3856
3.8976 -4.2071 2.3855
4.0526 -4.0759 2.3855
4.2025 -3.9385 2.3854
4.3472 -3.7951 2.3853
4.4863 -3.6459 2.3852
4.6195 -3.4911 2.3852
4.7467 -3.3310 2.3851
4.8675 -3.1658 2.3850
4.9819 -2.9958 2.3850
5.0894 -2.8212 2.3849
5.1900 -2.6424 2.3848
5.2835 -2.4596 2.3847
5.3696 -2.2732 2.3847
5.4483 -2.0834 2.3846
5.5193 -1.8905 2.3845
5.5826 -1.6950 2.3845
5.6411 -1.4980 2.3857
5.6962 -1.2997 2.3888
5.7432 -1.0992 2.3918
5.7752 -0.8957 2.3919
5.8037 -0.6918 2.3940
5.8334 -0.4876 2.3998
5.8467 -0.2818 2.4024
5.8609 -0.0757 2.4086
5.8589 0.1309 2.4115
5.8472 0.3372 2.4139
5.8265 0.5427 2.4158
5.7965 0.7469 2.4173
5.7571 0.9494 2.4181
5.7088 1.1497 2.4186
5.6521 1.3474 2.4187
5.5874 1.5424 2.4187
5.5154 1.7344 2.4187
5.4361 1.9230 2.4187
5.3497 2.1080 2.4187
5.2565 2.2892 2.4187
5.1565 2.4661 2.4187
5.0501 2.6388 2.4187
4.9374 2.8067 2.4187
4.8187 2.9699 2.4187
4.6942 3.1279 2.4187
4.5641 3.2807 2.4187
4.4287 3.4280 2.4187
4.2883 3.5698 2.4187
4.1430 3.7057 2.4187
3.9933 3.8357 2.4187
2.4933 -4.6628 2.3860
2.6645 -4.5854 2.3859
2.8330 -4.5013 2.3858
2.9985 -4.4107 2.3858
3.1608 -4.3135 2.3857
3.3194 -4.2099 2.3857
3.4743 -4.1000 2.3856
3.6249 -3.9840 2.3855
3.7713 -3.8620 2.3855
3.9129 -3.7342 2.3854
4.0496 -3.6007 2.3853
4.1812 -3.4618 2.3853
4.3074 -3.3177 2.3852
4.4280 -3.1686 2.3851
4.5427 -3.0146 2.3851
4.6513 -2.8562 2.3850
4.7537 -2.6934 2.3849
4.8496 -2.5266 2.3849
4.9390 -2.3560 2.3848
5.0215 -2.1820 2.3847
5.0971 -2.0048 2.3847
5.1656 -1.8246 2.3846
5.2323 -1.6436 2.3870
5.2925 -1.4601 2.3896
5.3440 -1.2738 2.3917
5.3837 -1.0847 2.3918
5.4159 -0.8942 2.3919
5.4405 -0.7026 2.3920
5.4664 -0.5112 2.3960
5.4876 -0.3189 2.4013
5.4921 -0.1255 2.4026
5.4881 0.0679 2.4035
5.4812 0.2610 2.4065
5.4703 0.4540 2.4111
5.4479 0.6461 2.4139
5.4159 0.8367 2.4158
5.3749 1.0256 2.4170
5.3258 1.2122 2.4178
5.2689 1.3964 2.4184
5.2042 1.5778 2.4186
5.1326 1.7561 2.4187
5.0539 1.9310 2.4187
4.9688 2.1025 2.4187
4.8773 2.2702 2.4187
4.7797 2.4339 2.4187
4.6762 2.5934 2.4187
4.5669 2.7485 2.4187
4.4520 2.8989 2.4187
4.3319 3.0444 2.4187
4.2067 3.1850 2.4187
4.0766 3.3203 2.4187
3.9419 3.4504 2.4187
3.8028 3.5749 2.4187
3.6596 3.6938 2.4187
3.5126 3.8070 2.4187
3.3619 3.9143 2.4187
3.2078 4.0157 2.4187
3.0506 4.1110 2.4187
2.8905 4.2003 2.4187
2.7278 4.2833 2.4187
2.5627 4.3601 2.4187
0.9195 1.7007 0.9284
0.8575 1.7313 0.9316
0.7945 1.7597 0.9348
0.7305 1.7858 0.9381
0.6655 1.8095 0.9413
0.5998 1.8309 0.9445
0.5333 1.8499 0.9477
0.4662 1.8665 0.9509
0.3985 1.8806 0.9541
0.3303 1.8923 0.9573
0.2618 1.9016 0.9605
0.1929 1.9083 0.9636
0.1239 1.9126 0.9667
0.0547 1.9144 0.9698
-0.0144 1.9136 0.9728
-0.0835 1.9104 0.9758
-0.1525 1.9047 0.9788
-0.2212 1.8964 0.9816
-0.2896 1.8858 0.9845
-0.3575 1.8726 0.9873
-0.4249 1.8570 0.9900
-0.4917 1.8390 0.9926
-0.5579 1.8186 0.9952
-0.6232 1.7958 0.9977
-0.6877 1.7706 1.0002
-0.7512 1.7432 1.0026
-0.8137 1.7135 1.0048
-0.8751 1.6815 1.0070
-2.2338 3.9344 2.4102
-2.3691 3.8389 2.4095
-2.5008 3.7392 2.4088
-2.6288 3.6354 2.4082
-2.7530 3.5276 2.4075
-2.8732 3.4160 2.4067
-2.9894 3.3007 2.4060
-3.1014 3.1817 2.4053
-3.2092 3.0594 2.4045
-3.3127 2.9338 2.4038
-3.4118 2.8050 2.4030
-3.5059 2.6728 2.4019
-3.5907 2.5344 2.3976
-3.6704 2.3937 2.3932
-3.7521 2.2548 2.3931
-3.8290 2.1135 2.3930
-3.9012 1.9698 2.3929
-3.9686 1.8239 2.3928
-4.0311 1.6760 2.3927
-4.0886 1.5261 2.3927
-4.1412 1.3744 2.3926
-4.1888 1.2211 2.3925
-4.2313 1.0663 2.3924
-4.2687 0.9101 2.3923
-4.3009 0.7528 2.3922
-4.3280 0.5945 2.3921
-4.3498 0.4352 2.3920
-4.3664 0.2753 2.3920
-4.3777 0.1147 2.3919
-4.3837 -0.0463 2.3918
-4.3844 -0.2075 2.3917
-4.3798 -0.3688 2.3916
-4.3698 -0.5301 2.3915
-4.3545 -0.6912 2.3914
-4.3338 -0.8519 2.3913
-4.3077 -1.0121 2.3912
-4.2763 -1.1716 2.3912
-4.2396 -1.3303 2.3911
-4.1975 -1.4879 2.3910
-4.1501 -1.6444 2.3909
-4.0974 -1.7994 2.3908
-4.0394 -1.9530 2.3908
-3.9761 -2.1049 2.3907
-3.9077 -2.2549 2.3906
-3.8340 -2.4029 2.3905
-3.7552 -2.5487 2.3904
-3.6714 -2.6921 2.3904
-3.5825 -2.8330 2.3903
-3.4886 -2.9711 2.3902
-3.3898 -3.1064 2.3902
-3.2861 -3.2386 2.3901
-3.1777 -3.3676 2.3900
-3.0646 -3.4931 2.3900
-2.9470 -3.6151 2.3899
-2.8248 -3.7333 2.3898
-2.6982 -3.8476 2.3898
-2.5673 -3.9578 2.3897
-2.4323 -4.0638 2.3897
-2.2931 -4.1653 2.3896
-2.1501 -4.2622 2.3896
-2.0033 -4.3543 2.3896
-1.8528 -4.4416 2.3895
-1.6989 -4.5238 2.3895
-1.5416 -4.6007 2.3894
-1.3812 -4.6723 2.3894
-1.2179 -4.7389 2.3896
-1.0516 -4.7987 2.3893
-0.8817 -4.8480 2.3867
-0.7106 -4.8966 2.3867
-0.5373 -4.9391 2.3867
-0.3620 -4.9755 2.3867
-0.1849 -5.0056 2.3866
-0.0063 -5.0292 2.3866
0.1737 -5.0464 2.3866
0.3548 -5.0571 2.3865
0.5367 -5.0610 2.3865
0.7191 -5.0582 2.3864
0.9019 -5.0487 2.3864
1.0848 -5.0323 2.3864
1.2674 -5.0090 2.3863
1.4496 -4.9788 2.3863
1.6310 -4.9417 2.3862
1.8113 -4.8977 2.3862
1.9904 -4.8467 2.3861
2.1678 -4.7889 2.3861
2.3433 -4.7242 2.3860
2.5167 -4.6527 2.3860
2.6876 -4.5744 2.3859
2.8557 -4.4894 2.3858
3.0208 -4.3978 2.3858
3.1826 -4.2997 2.3857
3.3407 -4.1953 2.3856
3.4950 -4.0846 2.3856
3.6451 -3.9677 2.3855
3.7908 -3.8449 2.3855
3.9318 -3.7163 2.3854
4.0679 -3.5821 2.3853
4.1987 -3.4425 2.3853
4.3241 -3.2977 2.3852
4.4439 -3.1479 2.3851
4.5578 -2.9933 2.3850
4.6656 -2.8343 2.3850
4.7671 -2.6709 2.3849
4.8622 -2.5036 2.3848
4.9506 -2.3326 2.3848
5.0322 -2.1581 2.3847
5.1068 -1.9804 2.3846
5.1744 -1.7999 2.3846
5.2410 -1.6188 2.3874
5.3002 -1.4349 2.3900
5.3498 -1.2482 2.3917
5.3885 -1.0588 2.3918
5.4197 -0.8682 2.3919
5.4433 -0.6765 2.3920
5.4698 -0.4851 2.3968
5.4894 -0.2926 2.4018
5.4920 -0.0991 2.4027
5.4869 0.0942 2.4036
5.4807 0.2873 2.4073
5.4677 0.4802 2.4115
5.4440 0.6721 2.4141
5.4108 0.8626 2.4160
5.3688 1.0511 2.4172
5.3185 1.2374 2.4179
5.2605 1.4213 2.4184
5.1949 1.6022 2.4186
5.1222 1.7801 2.4187
5.0427 1.9546 2.4187
4.9567 2.1256 2.4187
4.8644 2.2927 2.4187
4.7660 2.4559 2.4187
4.6616 2.6148 2.4187
4.5516 2.7692 2.4187
4.4360 2.9190 2.4187
4.3151 3.0639 2.4187
4.1892 3.2037 2.4187
4.0585 3.3384 2.4187
3.9232 3.4676 2.4187
3.7836 3.5914 2.4187
3.6399 3.7096 2.4187
3.4923 3.8219 2.4187
3.3411 3.9285 2.4187
3.1866 4.0290 2.4187
3.0290 4.1235 2.4187
2.8685 4.2119 2.4187
2.7054 4.2941 2.4187
2.5400 4.3701 2.4187
0.9111 1.7050 0.9289
0.8490 1.7353 0.9321
0.7858 1.7634 0.9353
0.7217 1.7891 0.9385
0.6566 1.8126 0.9417
0.5908 1.8336 0.9450
0.5242 1.8523 0.9482
0.4570 1.8686 0.9514
0.3892 1.8824 0.9546
0.3210 1.8937 0.9578
0.2524 1.9026 0.9609
0.1836 1.9091 0.9640
0.1145 1.9130 0.9671
0.0453 1.9144 0.9702
-0.0238 1.9133 0.9732
-0.0929 1.9098 0.9762
-0.1619 1.9037 0.9792
-0.2305 1.8951 0.9820
-0.2988 1.8841 0.9849
-0.3667 1.8706 0.9876
-0.4341 1.8547 0.9904
-0.5008 1.8363 0.9930
-0.5668 1.8156 0.9956
-0.6320 1.7925 0.9981
-0.6964 1.7670 1.0005
-0.7598 1.7393 1.0029
-0.8221 1.7092 1.0051
-2.1141 4.0133 2.4107
-2.2524 3.9217 2.4101
-2.3873 3.8256 2.4094
-2.5185 3.7254 2.4088
-2.6459 3.6210 2.4081
-2.7696 3.5127 2.4074
-2.8892 3.4005 2.4066
-3.0049 3.2847 2.4059
-3.1163 3.1653 2.4052
-3.2236 3.0425 2.4044
-3.3265 2.9164 2.4037
-3.4250 2.7872 2.4029
-3.5177 2.6541 2.4013
-3.6018 2.5154 2.3969
-3.6818 2.3749 2.3931
-3.7628 2.2358 2.3931
-3.8391 2.0941 2.3930
-3.9106 1.9501 2.3929
-3.9773 1.8039 2.3928
-4.0392 1.6557 2.3927
-4.0961 1.5055 2.3926
-4.1480 1.3536 2.3926
-4.1949 1.2001 2.3925
-4.2367 1.0451 2.3924
-4.2734 0.8888 2.3923
-4.3049 0.7313 2.3922
-4.3313 0.5729 2.3921
-4.3524 0.4135 2.3920
-4.3682 0.2534 2.3919
-4.3788 0.0928 2.3919
-4.3841 -0.0682 2.3918
-4.3841 -0.2294 2.3917
-4.3787 -0.3908 2.3916
-4.3680 -0.5521 2.3915
-4.3520 -0.7131 2.3914
-4.3305 -0.8738 2.3913
-4.3038 -1.0339 2.3912
-4.2716 -1.1933 2.3912
-4.2342 -1.3518 2.3911
-4.1913 -1.5093 2.3910
-4.1432 -1.6655 2.3909
-4.0898 -1.8204 2.3908
-4.0311 -1.9738 2.3907
-3.9671 -2.1254 2.3907
-3.8980 -2.2752 2.3906
-3.8236 -2.4229 2.3905
-3.7441 -2.5684 2.3904
-3.6596 -2.7114 2.3904
-3.5700 -2.8519 2.3903
-3.4754 -2.9897 2.3902
-3.3760 -3.1246 2.3901
-3.2717 -3.2563 2.3901
-3.1626 -3.3849 2.3900
-3.0489 -3.5099 2.3900
-2.9306 -3.6314 2.3899
-2.8078 -3.7491 2.3898
-2.6806 -3.8628 2.3898
-2.5492 -3.9725 2.3897
-2.4136 -4.0778 2.3897
-2.2739 -4.1787 2.3896
-2.1304 -4.2750 2.3896
-1.9830 -4.3665 2.3896
-1.8321 -4.4531 2.3895
-1.6777 -4.5346 2.3895
-1.5200 -4.6108 2.3894
-1.3591 -4.6816 2.3894
-1.1952 -4.7466 2.3893
-1.0285 -4.8057 2.3890
-0.8585 -4.8550 2.3867
-0.6871 -4.9027 2.3867
-0.5136 -4.9445 2.3867
-0.3380 -4.9800 2.3867
-0.1607 -5.0092 2.3866
0.0182 -5.0320 2.3866
0.1983 -5.0483 2.3866
0.3795 -5.0580 2.3865
0.5615 -5.0610 2.3865
0.7440 -5.0573 2.3864
0.9268 -5.0468 2.3864
1.1096 -5.0295 2.3864
1.2922 -5.0053 2.3863
1.4743 -4.9742 2.3863
1.6556 -4.9361 2.3862
1.8358 -4.8912 2.3862
2.0146 -4.8393 2.3861
2.1918 -4.7805 2.3861
2.3671 -4.7149 2.3860
2.5401 -4.6424 2.3859
2.7106 -4.5632 2.3859
2.8784 -4.4773 2.3858
3.0430 -4.3848 2.3858
3.2043 -4.2859 2.3857
3.3620 -4.1806 2.3856
3.5157 -4.0690 2.3856
3.6652 -3.9513 2.3855
3.8103 -3.8278 2.3854
3.9506 -3.6984 2.3854
4.0860 -3.5634 2.3853
4.2161 -3.4231 2.3852
4.3408 -3.2776 2.3852
4.4598 -3.1271 2.3851
4.5728 -2.9719 2.3850
4.6798 -2.8123 2.3850
4.7805 -2.6484 2.3849
4.8746 -2.4805 2.3848
4.9621 -2.3090 2.3848
5.0428 -2.1341 2.3847
5.1164 -1.9560 2.3846
5.1837 -1.7754 2.3849
5.2496 -1.5940 2.3878
5.3078 -1.4098 2.3905
5.3555 -1.2225 2.3917
5.3932 -1.0329 2.3918
5.4233 -0.8421 2.3919
5.4459 -0.6503 2.3920
5.4730 -0.4589 2.3975
5.4902 -0.2663 2.4019
5.4918 -0.0728 2.4028
5.4857 0.1205 2.4037
5.4797 0.3136 2.4080
5.4650 0.5064 2.4119
5.4399 0.6981 2.4144
5.4055 0.8883 2.4162
5.3625 1.0766 2.4173
5.3111 1.2626 2.4180
5.2520 1.4461 2.4184
5.1854 1.6266 2.4186
5.1118 1.8040 2.4187
5.0314 1.9781 2.4187
4.9445 2.1485 2.4187
4.8514 2.3152 2.4187
4.7521 2.4778 2.4187
4.6470 2.6361 2.4187
4.5361 2.7899 2.4187
4.4198 2.9390 2.4187
4.2983 3.0832 2.4187
4.1717 3.2223 2.4187
4.0404 3.3563 2.4187
3.9045 3.4848 2.4187
3.7643 3.6078 2.4187
2.3545 -4.3940 2.3859
2.5155 -4.3205 2.3859
2.6738 -4.2407 2.3858
2.8293 -4.1547 2.3857
2.9817 -4.0627 2.3857
3.1307 -3.9647 2.3856
3.2761 -3.8608 2.3856
3.4175 -3.7512 2.3855
3.5549 -3.6360 2.3854
3.6878 -3.5154 2.3854
3.8161 -3.3895 2.3853
3.9396 -3.2586 2.3853
4.0580 -3.1227 2.3852
4.1711 -2.9822 2.3851
4.2787 -2.8373 2.3851
4.3806 -2.6881 2.3850
4.4767 -2.5349 2.3849
4.5667 -2.3779 2.3849
4.6506 -2.2174 2.3848
4.7281 -2.0537 2.3848
4.8028 -1.8885 2.3866
4.8717 -1.7206 2.3887
4.9352 -1.5503 2.3914
4.9868 -1.3759 2.3916
5.0312 -1.1997 2.3917
5.0686 -1.0219 2.3918
5.0990 -0.8428 2.3919
5.1223 -0.6626 2.3920
5.1420 -0.4822 2.3937
5.1620 -0.3015 2.3989
5.1706 -0.1199 2.4021
5.1671 0.0619 2.4030
5.1564 0.2433 2.4038
5.1386 0.4241 2.4046
5.1137 0.6038 2.4055
5.0878 0.7832 2.4091
5.0540 0.9612 2.4123
5.0113 1.1373 2.4145
4.9603 1.3111 2.4160
4.9018 1.4823 2.4170
4.8362 1.6506 2.4178
4.7637 1.8159 2.4182
4.6847 1.9778 2.4185
4.5994 2.1361 2.4186
4.5083 2.2907 2.4187
4.4114 2.4413 2.4187
4.3091 2.5878 2.4187
4.2015 2.7299 2.4187
4.0889 2.8676 2.4187
3.9715 3.0005 2.4187
3.8495 3.1287 2.4187
3.7232 3.2518 2.4187
3.5926 3.3698 2.4187
3.4582 3.4826 2.4187
3.3200 3.5900 2.4187
3.1784 3.6919 2.4187
3.0335 3.7883 2.4187
2.8856 3.8790 2.4187
2.7350 3.9639 2.4187
2.5818 4.0431 2.4187
0.9290 1.5761 0.9260
0.8715 1.6071 0.9291
0.8129 1.6360 0.9321
0.7533 1.6628 0.9351
0.6928 1.6875 0.9382
0.6314 1.7099 0.9412
0.5692 1.7301 0.9443
0.5064 1.7481 0.9473
0.4429 1.7637 0.9504
0.3789 1.7771 0.9534
0.3145 1.7882 0.9564
0.2497 1.7969 0.9594
0.1846 1.8033 0.9623
0.1194 1.8073 0.9653
0.0540 1.8089 0.9682
-0.0114 1.8083 0.9710
-0.0767 1.8052 0.9739
-0.1419 1.7998 0.9766
-0.2069 1.7920 0.9794
-0.2715 1.7819 0.9821
-0.3357 1.7695 0.9847
-0.3994 1.7547 0.9873
-0.4626 1.7377 0.9898
-0.5251 1.7184 0.9922
-0.5869 1.6968 0.9946
-0.6478 1.6731 0.9969
-0.7079 1.6471 0.9991
-0.7670 1.6190 1.0013
-0.8250 1.5888 1.0034
-2.1135 3.7303 2.4094
-2.2421 3.6402 2.4088
-2.3674 3.5460 2.4081
-2.4891 3.4479 2.4075
-2.6072 3.3460 2.4068
-2.7215 3.2404 2.4061
-2.8321 3.1312 2.4054
-2.9387 3.0186 2.4048
-3.0413 2.9027 2.4040
-3.1398 2.7837 2.4033
-3.2342 2.6617 2.4026
-3.3215 2.5346 2.3999
-3.4021 2.4034 2.3956
-3.4808 2.2718 2.3931
-3.5585 2.1400 2.3930
-3.6317 2.0059 2.3929
-3.7004 1.8694 2.3929
-3.7644 1.7309 2.3928
-3.8239 1.5904 2.3927
-3.8786 1.4480 2.3926
-3.9286 1.3039 2.3925
-3.9738 1.1583 2.3925
-4.0142 1.0113 2.3924
-4.0497 0.8629 2.3923
-4.0802 0.7135 2.3922
-4.1058 0.5631 2.3921
-4.1265 0.4118 2.3920
-4.1421 0.2598 2.3920
-4.1527 0.1073 2.3919
-4.1582 -0.0455 2.3918
-4.1587 -0.1987 2.3917
-4.1540 -0.3519 2.3916
-4.1443 -0.5050 2.3915
-4.1295 -0.6580 2.3915
-4.1096 -0.8105 2.3914
-4.0845 -0.9626 2.3913
-4.0544 -1.1139 2.3912
-4.0192 -1.2644 2.3911
-3.9788 -1.4139 2.3910
-3.9335 -1.5623 2.3910
-3.8830 -1.7093 2.3909
-3.8276 -1.8548 2.3908
-3.7672 -1.9988 2.3907
-3.7018 -2.1409 2.3907
-3.6315 -2.2810 2.3906
-3.5563 -2.4190 2.3905
-3.4763 -2.5547 2.3905
-3.3916 -2.6879 2.3904
-3.3021 -2.8186 2.3903
-3.2080 -2.9464 2.3903
-3.1093 -3.0713 2.3902
-3.0060 -3.1931 2.3901
-2.8984 -3.3116 2.3901
-2.7865 -3.4266 2.3900
-2.6703 -3.5381 2.3900
-2.5499 -3.6458 2.3899
-2.4256 -3.7495 2.3899
-2.2973 -3.8492 2.3898
-2.1652 -3.9447 2.3898
-2.0294 -4.0358 2.3897
-1.8901 -4.1223 2.3897
-1.7474 -4.2041 2.3897
-1.6015 -4.2811 2.3896
-1.4524 -4.3531 2.3896
-1.3004 -4.4200 2.3896
-1.1457 -4.4817 2.3895
-0.9885 -4.5393 2.3902
-0.8283 -4.5873 2.3888
-0.6662 -4.6323 2.3887
-0.5018 -4.6677 2.3866
-0.3361 -4.7012 2.3866
-0.1688 -4.7287 2.3865
-0.0001 -4.7502 2.3865
0.1698 -4.7656 2.3865
0.3407 -4.7747 2.3864
0.5123 -4.7776 2.3864
0.6843 -4.7741 2.3864
0.8567 -4.7643 2.3863
1.0290 -4.7480 2.3863
1.2011 -4.7252 2.3863
1.3726 -4.6960 2.3862
1.5434 -4.6602 2.3862
1.7132 -4.6180 2.3861
1.8816 -4.5692 2.3861
2.0485 -4.5140 2.3860
2.2136 -4.4524 2.3860
2.3766 -4.3843 2.3859
2.5372 -4.3100 2.3859
2.6952 -4.2294 2.3858
2.8503 -4.1426 2.3857
3.0022 -4.0497 2.3857
3.1507 -3.9509 2.3856
3.2956 -3.8462 2.3856
3.4365 -3.7358 2.3855
3.5732 -3.6199 2.3854
3.7055 -3.4986 2.3854
3.8332 -3.3720 2.3853
3.9560 -3.2404 2.3852
4.0737 -3.1039 2.3852
4.1861 -2.9628 2.3851
4.2929 -2.8172 2.3851
4.3941 -2.6675 2.3850
4.4893 -2.5137 2.3849
4.5785 -2.3563 2.3849
4.6615 -2.1953 2.3848
4.7381 -2.0312 2.3847
4.8127 -1.8659 2.3869
4.8807 -1.6975 2.3890
4.9432 -1.5268 2.3917
4.9932 -1.3521 2.3916
5.0367 -1.1756 2.3917
5.0732 -0.9976 2.3918
5.1026 -0.8183 2.3919
5.1250 -0.6381 2.3920
5.1452 -0.4577 2.3945
5.1641 -0.2769 2.3996
5.1706 -0.0951 2.4022
5.1660 0.0866 2.4031
5.1544 0.2680 2.4039
5.1356 0.4486 2.4048
5.1098 0.6282 2.4056
5.0837 0.8075 2.4096
5.0487 0.9853 2.4126
5.0048 1.1611 2.4147
4.9529 1.3345 2.4162
4.8932 1.5053 2.4171
4.8267 1.6733 2.4178
