ply
format ascii 1.0
element vertex 2176
property float32 x
property float32 y
property float32 z
end_header
-2.6479 8.8218 2.3874
-2.9632 8.7210 2.3874
-3.2746 8.6090 2.3874
-3.5819 8.4858 2.3874
-3.8845 8.3517 2.3874
-4.1821 8.2069 2.3874
-4.4743 8.0514 2.3874
-4.7608 7.8855 2.3874
-5.0411 7.7095 2.3874
-5.3149 7.5235 2.3874
-5.5819 7.3278 2.3874
-5.8417 7.1227 2.3874
-6.0940 6.9083 2.3874
-6.3384 6.6850 2.3874
-6.5746 6.4531 2.3874
-6.8024 6.2129 2.3874
-7.0214 5.9646 2.3874
-7.2314 5.7086 2.3874
-7.4320 5.4453 2.3874
-7.6230 5.1749 2.3874
-7.8043 4.8978 2.3874
-7.9754 4.6144 2.3874
-8.1363 4.3250 2.3874
-8.2867 4.0300 2.3874
-8.4264 3.7298 2.3874
-8.5553 3.4247 2.3874
-8.6731 3.1152 2.3874
-8.7797 2.8017 2.3874
-8.8750 2.4845 2.3874
-8.9589 2.1642 2.3874
-9.0312 1.8409 2.3874
-9.0919 1.5153 2.3874
-9.1408 1.1878 2.3874
-9.1779 0.8586 2.3874
-9.2031 0.5283 2.3874
-9.2166 0.1973 2.3874
-9.2180 -0.1339 2.3874
-9.2076 -0.4650 2.3874
-9.1854 -0.7956 2.3874
-9.1512 -1.1251 2.3874
-9.1052 -1.4532 2.3874
-9.0475 -1.7795 2.3874
-8.9781 -2.1035 2.3874
-8.8970 -2.4247 2.3874
-8.8045 -2.7429 2.3874
-8.7006 -3.0576 2.3874
-8.5855 -3.3684 2.3874
-8.4593 -3.6748 2.3874
-8.3221 -3.9765 2.3874
-8.1742 -4.2731 2.3874
-8.0157 -4.5641 2.3874
-7.8469 -4.8493 2.3874
-7.6678 -5.1283 2.3874
-7.4789 -5.4007 2.3874
-7.2803 -5.6661 2.3874
-7.0723 -5.9242 2.3874
-6.8551 -6.1746 2.3874
-6.6291 -6.4171 2.3874
-6.3945 -6.6514 2.3874
-6.1516 -6.8770 2.3874
-5.9007 -7.0938 2.3874
-5.6423 -7.3014 2.3874
-5.3765 -7.4996 2.3874
-5.1037 -7.6882 2.3874
-4.8243 -7.8668 2.3874
-4.5387 -8.0352 2.3874
-4.2472 -8.1933 2.3874
-3.9502 -8.3408 2.3874
-3.6481 -8.4775 2.3874
-3.3413 -8.6033 2.3874
-3.0301 -8.7179 2.3874
-2.7150 -8.8213 2.3874
-2.3964 -8.9133 2.3874
-2.0747 -8.9938 2.3874
-1.7503 -9.0626 2.3874
-1.4236 -9.1198 2.3874
-1.0950 -9.1652 2.3874
-0.7651 -9.1987 2.3874
-0.4341 -9.2203 2.3874
-0.1026 -9.2300 2.3874
0.2291 -9.2278 2.3874
0.5604 -9.2137 2.3874
0.8910 -9.1877 2.3874
1.2205 -9.1497 2.3874
1.5485 -9.1000 2.3874
1.8744 -9.0385 2.3874
2.1979 -8.9653 2.3874
2.5185 -8.8805 2.3874
2.8359 -8.7843 2.3874
3.1496 -8.6767 2.3874
3.4593 -8.5579 2.3874
3.7645 -8.4280 2.3874
4.0648 -8.2872 2.3874
4.3598 -8.1358 2.3874
4.6492 -7.9738 2.3874
4.9326 -7.8015 2.3874
5.2096 -7.6191 2.3874
5.4799 -7.4269 2.3874
5.7430 -7.2251 2.3874
5.9988 -7.0140 2.3874
6.2468 -6.7939 2.3874
6.4867 -6.5649 2.3874
6.7182 -6.3275 2.3874
6.9410 -6.0819 2.3874
7.1548 -5.8284 2.3874
7.3594 -5.5675 2.3874
7.5545 -5.2994 2.3874
7.7397 -5.0244 2.3874
7.9150 -4.7430 2.3874
8.0800 -4.4555 2.3874
8.2346 -4.1622 2.3874
8.3786 -3.8635 2.3874
8.5117 -3.5599 2.3874
8.6338 -3.2517 2.3874
8.7447 -2.9393 2.3874
8.8444 -2.6232 2.3874
8.9326 -2.3036 2.3874
9.0093 -1.9812 2.3874
9.0743 -1.6562 2.3874
9.1276 -1.3290 2.3874
9.1691 -1.0002 2.3874
9.1988 -0.6701 2.3874
9.2166 -0.3392 2.3874
9.2225 -0.0079 2.3874
9.2164 0.3235 2.3874
9.1985 0.6544 2.3874
9.1687 0.9844 2.3874
9.1270 1.3131 2.3874
9.0736 1.6401 2.3874
9.0085 1.9649 2.3874
8.9317 2.2872 2.3874
8.8434 2.6065 2.3874
8.7437 2.9225 2.3874
8.6327 3.2346 2.3874
8.5106 3.5425 2.3874
8.3775 3.8459 2.3874
8.2336 4.1442 2.3874
8.0791 4.4372 2.3874
7.9142 4.7244 2.3874
7.7391 5.0055 2.3874
7.5540 5.2802 2.3874
7.3591 5.5479 2.3874
7.1548 5.8086 2.3874
6.9412 6.0617 2.3874
6.7187 6.3069 2.3874
6.4876 6.5440 2.3874
6.2481 6.7727 2.3874
6.0005 6.9926 2.3874
5.7452 7.2035 2.3874
5.4826 7.4050 2.3874
5.2128 7.5970 2.3874
4.9364 7.7792 2.3874
4.6536 7.9513 2.3874
4.3648 8.1132 2.3874
4.0704 8.2645 2.3874
3.7707 8.4053 2.3874
3.4662 8.5351 2.3874
3.1572 8.6540 2.3874
2.8442 8.7617 2.3874
2.5275 8.8580 2.3874
0.8794 3.5626 0.9511
0.7510 3.5924 0.9512
0.6215 3.6176 0.9514
0.4912 3.6380 0.9515
0.3602 3.6537 0.9516
0.2287 3.6646 0.9517
0.0969 3.6707 0.9518
-0.0351 3.6721 0.9518
-0.1670 3.6686 0.9519
-0.2987 3.6604 0.9519
-0.4300 3.6474 0.9520
-0.5608 3.6296 0.9520
-0.6909 3.6071 0.9520
-0.8200 3.5798 0.9519
-2.3778 8.8984 2.3874
-2.6959 8.8072 2.3874
-3.0107 8.7047 2.3874
-3.3215 8.5910 2.3874
-3.6281 8.4662 2.3874
-3.9299 8.3304 2.3874
-4.2268 8.1839 2.3874
-4.5182 8.0269 2.3874
-4.8037 7.8595 2.3874
-5.0831 7.6819 2.3874
-5.3559 7.4945 2.3874
-5.6218 7.2973 2.3874
-5.8805 7.0907 2.3874
-6.1315 6.8750 2.3874
-6.3747 6.6504 2.3874
-6.6097 6.4172 2.3874
-6.8362 6.1757 2.3874
-7.0538 5.9263 2.3874
-7.2624 5.6692 2.3874
-7.4616 5.4047 2.3874
-7.6512 5.1333 2.3874
-7.8309 4.8552 2.3874
-8.0005 4.5709 2.3874
-8.1598 4.2806 2.3874
-8.3086 3.9848 2.3874
-8.4467 3.6838 2.3874
-8.5739 3.3781 2.3874
-8.6900 3.0679 2.3874
-8.7949 2.7538 2.3874
-8.8885 2.4362 2.3874
-8.9706 2.1153 2.3874
-9.0412 1.7917 2.3874
-9.1000 1.4658 2.3874
-9.1472 1.1379 2.3874
-9.1825 0.8086 2.3874
-9.2059 0.4782 2.3874
-9.2175 0.1471 2.3874
-9.2172 -0.1841 2.3874
-9.2050 -0.5152 2.3874
-9.1809 -0.8456 2.3874
-9.1450 -1.1750 2.3874
-9.0972 -1.5028 2.3874
-9.0377 -1.8288 2.3874
-8.9665 -2.1524 2.3874
-8.8838 -2.4732 2.3874
-8.7895 -2.7909 2.3874
-8.6839 -3.1050 2.3874
-8.5671 -3.4151 2.3874
-8.4392 -3.7208 2.3874
-8.3004 -4.0218 2.3874
-8.1508 -4.3176 2.3874
-7.9908 -4.6078 2.3874
-7.8203 -4.8921 2.3874
-7.6398 -5.1700 2.3874
-7.4494 -5.4414 2.3874
-7.2494 -5.7057 2.3874
-7.0400 -5.9627 2.3874
-6.8214 -6.2119 2.3874
-6.5941 -6.4532 2.3874
-6.3582 -6.6862 2.3874
-6.1141 -6.9105 2.3874
-5.8620 -7.1259 2.3874
-5.6024 -7.3321 2.3874
-5.3355 -7.5289 2.3874
-5.0618 -7.7159 2.3874
-4.7814 -7.8930 2.3874
-4.4949 -8.0598 2.3874
-4.2025 -8.2163 2.3874
-3.9048 -8.3622 2.3874
-3.6019 -8.4973 2.3874
-3.2944 -8.6214 2.3874
-2.9826 -8.7343 2.3874
-2.6669 -8.8360 2.3874
-2.3478 -8.9263 2.3874
-2.0256 -9.0050 2.3874
-1.7008 -9.0721 2.3874
-1.3739 -9.1274 2.3874
-1.0451 -9.1710 2.3874
-0.7149 -9.2027 2.3874
-0.3839 -9.2226 2.3874
-0.0523 -9.2305 2.3874
0.2793 -9.2265 2.3874
0.6106 -9.2105 2.3874
0.9411 -9.1827 2.3874
1.2704 -9.1430 2.3874
1.5980 -9.0914 2.3874
1.9236 -9.0281 2.3874
2.2467 -8.9532 2.3874
2.5669 -8.8667 2.3874
2.8837 -8.7687 2.3874
3.1969 -8.6594 2.3874
3.5059 -8.5389 2.3874
3.8103 -8.4073 2.3874
4.1099 -8.2649 2.3874
4.4041 -8.1119 2.3874
4.6926 -7.9483 2.3874
4.9750 -7.7745 2.3874
5.2510 -7.5906 2.3874
5.5202 -7.3969 2.3874
5.7823 -7.1937 2.3874
6.0369 -6.9812 2.3874
6.2837 -6.7597 2.3874
6.5223 -6.5294 2.3874
6.7525 -6.2908 2.3874
6.9740 -6.0440 2.3874
7.1864 -5.7893 2.3874
7.3896 -5.5273 2.3874
7.5832 -5.2581 2.3874
7.7670 -4.9821 2.3874
7.9407 -4.6998 2.3874
8.1042 -4.4113 2.3874
8.2572 -4.1172 2.3874
8.3995 -3.8178 2.3874
8.5309 -3.5134 2.3874
8.6514 -3.2046 2.3874
8.7606 -2.8916 2.3874
8.8585 -2.5749 2.3874
8.9450 -2.2549 2.3874
9.0199 -1.9320 2.3874
9.0831 -1.6067 2.3874
9.1347 -1.2793 2.3874
9.1744 -0.9502 2.3874
9.2022 -0.6200 2.3874
9.2182 -0.2890 2.3874
9.2223 0.0424 2.3874
9.2145 0.3737 2.3874
9.1947 0.7045 2.3874
9.1631 1.0343 2.3874
9.1197 1.3628 2.3874
9.0645 1.6895 2.3874
8.9976 2.0140 2.3874
8.9191 2.3359 2.3874
5.6790 -6.2443 2.3874
5.8995 -6.0362 2.3874
6.1124 -5.8202 2.3874
6.3174 -5.5967 2.3874
6.5143 -5.3660 2.3874
6.7027 -5.1284 2.3874
6.8824 -4.8842 2.3874
7.0532 -4.6337 2.3874
7.2150 -4.3772 2.3874
7.3674 -4.1150 2.3874
7.5102 -3.8476 2.3874
7.6434 -3.5752 2.3874
7.7666 -3.2982 2.3874
7.8799 -3.0169 2.3874
7.9829 -2.7318 2.3874
8.0757 -2.4431 2.3874
8.1579 -2.1514 2.3874
8.2297 -1.8569 2.3874
8.2908 -1.5599 2.3874
8.3412 -1.2611 2.3874
8.3808 -0.9605 2.3874
8.4097 -0.6587 2.3874
8.4276 -0.3562 2.3874
8.4347 -0.0532 2.3874
8.4308 0.2498 2.3874
8.4161 0.5526 2.3874
8.3905 0.8546 2.3874
8.3541 1.1554 2.3874
8.3069 1.4547 2.3874
8.2489 1.7522 2.3874
8.1804 2.0473 2.3874
8.1012 2.3398 2.3874
8.0116 2.6293 2.3874
7.9117 2.9154 2.3874
7.8016 3.1976 2.3874
7.6814 3.4757 2.3874
7.5513 3.7493 2.3874
7.4115 4.0180 2.3874
7.2621 4.2816 2.3874
7.1033 4.5396 2.3874
6.9354 4.7917 2.3874
6.7585 5.0376 2.3874
6.5730 5.2770 2.3874
6.3789 5.5096 2.3874
6.1767 5.7350 2.3874
5.9664 5.9530 2.3874
5.7485 6.1634 2.3874
5.5232 6.3658 2.3874
5.2908 6.5599 2.3874
5.0515 6.7456 2.3874
4.8058 6.9225 2.3874
4.5539 7.0906 2.3874
4.2961 7.2494 2.3874
4.0327 7.3989 2.3874
3.7642 7.5389 2.3874
3.4908 7.6691 2.3874
3.2129 7.7894 2.3874
2.9309 7.8997 2.3874
2.6452 7.9997 2.3874
2.3560 8.0895 2.3874
0.8213 3.2510 0.9501
0.7041 3.2788 0.9503
0.5859 3.3024 0.9504
0.4669 3.3217 0.9505
0.3473 3.3366 0.9506
0.2272 3.3473 0.9507
0.1068 3.3535 0.9508
-0.0138 3.3554 0.9508
-0.1343 3.3529 0.9509
-0.2547 3.3460 0.9509
-0.3748 3.3348 0.9510
-0.4943 3.3192 0.9510
-0.6133 3.2992 0.9510
-0.7314 3.2750 0.9509
-0.8486 3.2465 0.9509
-2.4220 8.0691 2.3874
-2.7104 7.9769 2.3874
-2.9952 7.8744 2.3874
-3.2763 7.7618 2.3874
-3.5531 7.6391 2.3874
-3.8253 7.5066 2.3874
-4.0926 7.3644 2.3874
-4.3546 7.2127 2.3874
-4.6110 7.0516 2.3874
-4.8614 6.8815 2.3874
-5.1056 6.7025 2.3874
-5.3432 6.5149 2.3874
-5.5740 6.3188 2.3874
-5.7975 6.1146 2.3874
-6.0136 5.9024 2.3874
-6.2219 5.6827 2.3874
-6.4222 5.4556 2.3874
-6.6142 5.2214 2.3874
-6.7978 4.9805 2.3874
-6.9725 4.7332 2.3874
-7.1382 4.4798 2.3874
-7.2948 4.2205 2.3874
-7.4419 3.9558 2.3874
-7.5795 3.6860 2.3874
-7.7072 3.4114 2.3874
-7.8251 3.1324 2.3874
-7.9328 2.8493 2.3874
-8.0303 2.5625 2.3874
-8.1174 2.2724 2.3874
-8.1941 1.9794 2.3874
-8.2602 1.6837 2.3874
-8.3157 1.3859 2.3874
-8.3604 1.0863 2.3874
-8.3943 0.7853 2.3874
-8.4174 0.4832 2.3874
-8.4296 0.1804 2.3874
-8.4310 -0.1225 2.3874
-8.4214 -0.4254 2.3874
-8.4010 -0.7277 2.3874
-8.3698 -1.0291 2.3874
-8.3277 -1.3292 2.3874
-8.2749 -1.6276 2.3874
-8.2113 -1.9239 2.3874
-8.1372 -2.2177 2.3874
-8.0526 -2.5087 2.3874
-7.9575 -2.7965 2.3874
-7.8522 -3.0807 2.3874
-7.7367 -3.3609 2.3874
-7.6113 -3.6369 2.3874
-7.4759 -3.9081 2.3874
-7.3310 -4.1743 2.3874
-7.1765 -4.4351 2.3874
-7.0128 -4.6903 2.3874
-6.8400 -4.9393 2.3874
-6.6583 -5.1821 2.3874
-6.4681 -5.4181 2.3874
-6.2694 -5.6471 2.3874
-6.0627 -5.8689 2.3874
-5.8481 -6.0831 2.3874
-5.6260 -6.2895 2.3874
-5.3965 -6.4877 2.3874
-5.1601 -6.6776 2.3874
-4.9170 -6.8588 2.3874
-4.6676 -7.0312 2.3874
-4.4121 -7.1945 2.3874
-4.1508 -7.3486 2.3874
-3.8843 -7.4931 2.3874
-3.6126 -7.6280 2.3874
-3.3363 -7.7530 2.3874
-3.0557 -7.8680 2.3874
-2.7711 -7.9729 2.3874
-2.4830 -8.0674 2.3874
-2.1916 -8.1515 2.3874
-1.8973 -8.2251 2.3874
-1.6006 -8.2881 2.3874
-1.3019 -8.3404 2.3874
-1.0014 -8.3818 2.3874
-0.6997 -8.4125 2.3874
-0.3970 -8.4323 2.3874
-0.0938 -8.4412 2.3874
0.2095 -8.4391 2.3874
0.5125 -8.4262 2.3874
0.8149 -8.4024 2.3874
1.1162 -8.3677 2.3874
1.4161 -8.3222 2.3874
1.7142 -8.2660 2.3874
2.0100 -8.1990 2.3874
2.3032 -8.1215 2.3874
2.5935 -8.0335 2.3874
2.8804 -7.9351 2.3874
3.1636 -7.8264 2.3874
3.4427 -7.7077 2.3874
3.7173 -7.5789 2.3874
3.9872 -7.4404 2.3874
4.2518 -7.2923 2.3874
4.5110 -7.1347 2.3874
4.7643 -6.9680 2.3874
5.0115 -6.7922 2.3874
5.2522 -6.6077 2.3874
5.4861 -6.4146 2.3874
5.7129 -6.2132 2.3874
5.9323 -6.0039 2.3874
6.1440 -5.7868 2.3874
6.3478 -5.5622 2.3874
6.5434 -5.3304 2.3874
6.7305 -5.0918 2.3874
6.9089 -4.8466 2.3874
7.0784 -4.5951 2.3874
7.2387 -4.3378 2.3874
7.3896 -4.0748 2.3874
7.5310 -3.8066 2.3874
7.6627 -3.5335 2.3874
7.7845 -3.2558 2.3874
7.8962 -2.9739 2.3874
7.9977 -2.6882 2.3874
8.0888 -2.3991 2.3874
8.1695 -2.1069 2.3874
8.2397 -1.8120 2.3874
8.2991 -1.5147 2.3874
8.3479 -1.2155 2.3874
8.3859 -0.9148 2.3874
8.4131 -0.6129 2.3874
8.4293 -0.3103 2.3874
8.4348 -0.0072 2.3874
8.4293 0.2958 2.3874
8.4129 0.5984 2.3874
8.3857 0.9003 2.3874
8.3476 1.2009 2.3874
8.2988 1.5000 2.3874
8.2392 1.7971 2.3874
8.1690 2.0919 2.3874
8.0883 2.3839 2.3874
7.9972 2.6729 2.3874
7.8957 2.9584 2.3874
7.7840 3.2400 2.3874
7.6623 3.5175 2.3874
7.5307 3.7903 2.3874
7.3894 4.0583 2.3874
7.2386 4.3210 2.3874
7.0784 4.5782 2.3874
6.9091 4.8294 2.3874
6.7309 5.0743 2.3874
6.5441 5.3127 2.3874
6.3488 5.5442 2.3874
6.1453 5.7686 2.3874
5.9339 5.9855 2.3874
5.7148 6.1946 2.3874
5.4884 6.3958 2.3874
5.2549 6.5886 2.3874
5.0147 6.7730 2.3874
4.7680 6.9486 2.3874
4.5151 7.1153 2.3874
4.2565 7.2727 2.3874
3.9923 7.4208 2.3874
3.7230 7.5593 2.3874
3.4490 7.6880 2.3874
3.1704 7.8068 2.3874
2.8878 7.9155 2.3874
2.6015 8.0140 2.3874
0.9199 3.2240 0.9500
0.8036 3.2555 0.9501
0.6862 3.2827 0.9503
0.5679 3.3056 0.9504
0.4488 3.3242 0.9505
0.3291 3.3385 0.9506
0.2090 3.3485 0.9507
0.0885 3.3541 0.9508
-0.0320 3.3553 0.9509
-0.1526 3.3521 0.9509
-0.2729 3.3446 0.9509
-0.3929 3.3327 0.9510
-0.5124 3.3164 0.9510
-0.6313 3.2959 0.9510
-0.7493 3.2710 0.9509
-0.8663 3.2418 0.9509
-2.4659 8.0558 2.3874
-2.7538 7.9620 2.3874
-3.0381 7.8580 2.3874
-3.3185 7.7438 2.3874
-3.5946 7.6196 2.3874
-3.8661 7.4856 2.3874
-4.1326 7.3420 2.3874
-4.3938 7.1888 2.3874
-4.6494 7.0264 2.3874
-4.8989 6.8549 2.3874
-5.1421 6.6746 2.3874
-5.3787 6.4857 2.3874
-5.6083 6.2883 2.3874
-5.8308 6.0829 2.3874
-6.0457 5.8696 2.3874
-6.2528 5.6487 2.3874
-6.4519 5.4205 2.3874
-6.6426 5.1853 2.3874
-6.8248 4.9434 2.3874
-6.9982 4.6952 2.3874
-7.1626 4.4408 2.3874
-7.3177 4.1807 2.3874
-7.4634 3.9152 2.3874
-7.5995 3.6446 2.3874
-7.7257 3.3693 2.3874
-7.8421 3.0897 2.3874
-7.9482 2.8060 2.3874
-8.0442 2.5187 2.3874
-8.1298 2.2281 2.3874
-8.2048 1.9347 2.3874
-8.2693 1.6387 2.3874
-8.3232 1.3406 2.3874
-8.3662 1.0407 2.3874
-8.3985 0.7395 2.3874
-8.4200 0.4373 2.3874
-8.4305 0.1345 2.3874
-8.4302 -0.1685 2.3874
-8.4190 -0.4713 2.3874
-8.3970 -0.7735 2.3874
-8.3641 -1.0747 2.3874
-8.3204 -1.3745 2.3874
-8.2659 -1.6726 2.3874
-8.2008 -1.9686 2.3874
-8.1250 -2.2620 2.3874
-8.0388 -2.5526 2.3874
-7.9422 -2.8398 2.3874
-7.8353 -3.1235 2.3874
-7.7183 -3.4031 2.3874
-7.5914 -3.6783 2.3874
-7.4546 -3.9488 2.3874
-7.3082 -4.2142 2.3874
-7.1523 -4.4742 2.3874
-6.9872 -4.7284 2.3874
-6.8130 -4.9766 2.3874
-6.6300 -5.2183 2.3874
-6.4385 -5.4533 2.3874
-6.2386 -5.6812 2.3874
-6.0306 -5.9019 2.3874
-5.8149 -6.1149 2.3874
-5.5916 -6.3201 2.3874
-5.3611 -6.5170 2.3874
-5.1237 -6.7056 2.3874
-4.8796 -6.8856 2.3874
-4.6292 -7.0566 2.3874
-4.3728 -7.2185 2.3874
-4.1107 -7.3711 2.3874
-3.8434 -7.5142 2.3874
-3.5710 -7.6476 2.3874
-3.2940 -7.7711 2.3874
-3.0128 -7.8846 2.3874
-2.7277 -7.9879 2.3874
-2.4390 -8.0808 2.3874
-2.1471 -8.1634 2.3874
-1.8525 -8.2354 2.3874
-1.5555 -8.2967 2.3874
-1.2564 -8.3473 2.3874
-0.9557 -8.3872 2.3874
-0.6538 -8.4162 2.3874
-0.3511 -8.4343 2.3874
-0.0478 -8.4416 2.3874
0.2555 -8.4379 2.3874
0.5584 -8.4233 2.3874
0.8607 -8.3978 2.3874
1.1618 -8.3615 2.3874
1.4614 -8.3144 2.3874
1.7592 -8.2565 2.3874
2.0547 -8.1880 2.3874
2.3475 -8.1088 2.3874
2.6373 -8.0192 2.3874
2.9236 -7.9193 2.3874
3.2062 -7.8091 2.3874
3.4847 -7.6888 2.3874
3.7586 -7.5586 2.3874
4.0276 -7.4186 2.3874
4.2915 -7.2690 2.3874
4.5498 -7.1100 2.3874
4.8022 -6.9419 2.3874
5.0484 -6.7648 2.3874
5.2881 -6.5789 2.3874
5.5210 -6.3846 2.3874
5.7466 -6.1820 2.3874
5.9649 -5.9715 2.3874
6.1754 -5.7532 2.3874
6.3780 -5.5275 2.3874
6.5723 -5.2947 2.3874
6.7581 -5.0550 2.3874
6.9352 -4.8089 2.3874
7.1033 -4.5565 2.3874
7.2622 -4.2982 2.3874
7.4117 -4.0344 2.3874
7.5516 -3.7655 2.3874
7.6818 -3.4916 2.3874
7.8021 -3.2133 2.3874
7.9122 -2.9308 2.3874
8.0121 -2.6446 2.3874
8.1017 -2.3550 2.3874
8.1808 -2.0623 2.3874
8.2494 -1.7670 2.3874
8.3072 -1.4695 2.3874
8.3544 -1.1700 2.3874
8.3907 -0.8691 2.3874
8.4162 -0.5671 2.3874
8.4309 -0.2643 2.3874
8.4346 0.0387 2.3874
8.4275 0.3417 2.3874
8.4095 0.6443 2.3874
8.3806 0.9460 2.3874
8.3409 1.2464 2.3874
8.2904 1.5452 2.3874
8.2293 1.8419 2.3874
8.1575 2.1364 2.3874
5.2266 -5.7469 2.3874
5.4295 -5.5554 2.3874
5.6255 -5.3566 2.3874
5.8142 -5.1510 2.3874
5.9953 -4.9386 2.3874
6.1688 -4.7200 2.3874
6.3342 -4.4952 2.3874
6.4914 -4.2646 2.3874
6.6403 -4.0286 2.3874
6.7805 -3.7873 2.3874
6.9120 -3.5412 2.3874
7.0346 -3.2905 2.3874
7.1481 -3.0356 2.3874
7.2523 -2.7766 2.3874
7.3472 -2.5143 2.3874
7.4325 -2.2486 2.3874
7.5083 -1.9801 2.3874
7.5744 -1.7090 2.3874
7.6306 -1.4358 2.3874
7.6770 -1.1606 2.3874
7.7135 -0.8841 2.3874
7.7400 -0.6064 2.3874
7.7566 -0.3279 2.3874
7.7631 -0.0490 2.3874
7.7596 0.2299 2.3874
7.7460 0.5085 2.3874
7.7225 0.7865 2.3874
7.6890 1.0633 2.3874
7.6456 1.3389 2.3874
7.5923 1.6126 2.3874
7.5292 1.8843 2.3874
7.4564 2.1535 2.3874
7.3739 2.4200 2.3874
7.2820 2.6832 2.3874
7.1806 2.9430 2.3874
7.0700 3.1990 2.3874
6.9503 3.4508 2.3874
6.8216 3.6982 2.3874
6.6841 3.9408 2.3874
6.5380 4.1782 2.3874
6.3835 4.4103 2.3874
6.2207 4.6367 2.3874
6.0499 4.8570 2.3874
5.8713 5.0711 2.3874
5.6852 5.2786 2.3874
5.4917 5.4793 2.3874
5.2912 5.6729 2.3874
5.0838 5.8592 2.3874
4.8698 6.0380 2.3874
4.6496 6.2089 2.3874
4.4235 6.3718 2.3874
4.1916 6.5264 2.3874
3.9543 6.6727 2.3874
3.7119 6.8103 2.3874
3.4647 6.9391 2.3874
3.2131 7.0590 2.3874
2.9574 7.1697 2.3874
2.6978 7.2712 2.3874
2.4348 7.3633 2.3874
0.8622 2.9604 0.9492
0.7554 2.9899 0.9493
0.6476 3.0155 0.9495
0.5388 3.0371 0.9496
0.4294 3.0549 0.9497
0.3194 3.0686 0.9498
0.2090 3.0783 0.9499
0.0982 3.0841 0.9499
-0.0126 3.0858 0.9500
-0.1235 3.0834 0.9501
-0.2342 3.0771 0.9501
-0.3446 3.0668 0.9501
-0.4546 3.0524 0.9501
-0.5640 3.0341 0.9501
-0.6726 3.0118 0.9501
-0.7804 2.9856 0.9501
-0.8871 2.9555 0.9500
-2.4948 7.3424 2.3874
-2.7570 7.2480 2.3874
-3.0157 7.1443 2.3874
-3.2704 7.0314 2.3874
-3.5210 6.9095 2.3874
-3.7670 6.7785 2.3874
-4.0082 6.6389 2.3874
-4.2442 6.4907 2.3874
-4.4747 6.3341 2.3874
-4.6995 6.1693 2.3874
-4.9182 5.9966 2.3874
-5.1306 5.8161 2.3874
-5.3363 5.6281 2.3874
-5.5352 5.4328 2.3874
-5.7269 5.2306 2.3874
-5.9113 5.0215 2.3874
-6.0880 4.8060 2.3874
-6.2569 4.5843 2.3874
-6.4178 4.3566 2.3874
-6.5703 4.1233 2.3874
-6.7144 3.8847 2.3874
-6.8498 3.6410 2.3874
-6.9764 3.3927 2.3874
-7.0940 3.1399 2.3874
-7.2024 2.8831 2.3874
-7.3016 2.6225 2.3874
-7.3913 2.3586 2.3874
-7.4715 2.0915 2.3874
-7.5420 1.8218 2.3874
-7.6028 1.5497 2.3874
-7.6539 1.2756 2.3874
-7.6950 0.9998 2.3874
-7.7262 0.7227 2.3874
-7.7474 0.4447 2.3874
-7.7587 0.1660 2.3874
-7.7599 -0.1128 2.3874
-7.7511 -0.3916 2.3874
-7.7323 -0.6698 2.3874
-7.7035 -0.9472 2.3874
-7.6647 -1.2234 2.3874
-7.6161 -1.4980 2.3874
-7.5576 -1.7708 2.3874
-7.4894 -2.0412 2.3874
-7.4114 -2.3090 2.3874
-7.3240 -2.5739 2.3874
-7.2270 -2.8355 2.3874
-7.1207 -3.0934 2.3874
-7.0052 -3.3473 2.3874
-6.8806 -3.5970 2.3874
-6.7472 -3.8419 2.3874
-6.6050 -4.0820 2.3874
-6.4543 -4.3168 2.3874
-6.2952 -4.5460 2.3874
-6.1281 -4.7694 2.3874
-5.9529 -4.9866 2.3874
-5.7701 -5.1974 2.3874
-5.5798 -5.4015 2.3874
-5.3823 -5.5986 2.3874
-5.1779 -5.7886 2.3874
-4.9667 -5.9710 2.3874
-4.7491 -6.1457 2.3874
-4.5253 -6.3125 2.3874
-4.2957 -6.4712 2.3874
-4.0606 -6.6215 2.3874
-3.8202 -6.7632 2.3874
-3.5748 -6.8963 2.3874
-3.3248 -7.0204 2.3874
-3.0705 -7.1354 2.3874
-2.8123 -7.2413 2.3874
-2.5504 -7.3377 2.3874
-2.2851 -7.4248 2.3874
-2.0170 -7.5022 2.3874
-1.7462 -7.5699 2.3874
-1.4731 -7.6278 2.3874
-1.1982 -7.6759 2.3874
-0.9216 -7.7141 2.3874
-0.6439 -7.7423 2.3874
-0.3654 -7.7605 2.3874
-0.0864 -7.7687 2.3874
0.1928 -7.7668 2.3874
0.4717 -7.7549 2.3874
0.7500 -7.7330 2.3874
1.0273 -7.7010 2.3874
1.3033 -7.6592 2.3874
1.5776 -7.6074 2.3874
1.8499 -7.5458 2.3874
2.1198 -7.4745 2.3874
2.3869 -7.3935 2.3874
2.6509 -7.3029 2.3874
2.9116 -7.2029 2.3874
3.1684 -7.0936 2.3874
3.4212 -6.9752 2.3874
3.6695 -6.8477 2.3874
3.9131 -6.7114 2.3874
4.1516 -6.5664 2.3874
4.3848 -6.4129 2.3874
4.6123 -6.2511 2.3874
4.8338 -6.0813 2.3874
5.0490 -5.9036 2.3874
5.2578 -5.7183 2.3874
5.4597 -5.5257 2.3874
5.6546 -5.3259 2.3874
5.8421 -5.1192 2.3874
6.0221 -4.9059 2.3874
6.1944 -4.6863 2.3874
6.3586 -4.4606 2.3874
6.5145 -4.2292 2.3874
6.6621 -3.9923 2.3874
6.8011 -3.7503 2.3874
6.9312 -3.5034 2.3874
7.0524 -3.2521 2.3874
7.1645 -2.9965 2.3874
7.2673 -2.7371 2.3874
7.3607 -2.4742 2.3874
7.4446 -2.2081 2.3874
7.5189 -1.9392 2.3874
7.5835 -1.6677 2.3874
7.6383 -1.3941 2.3874
7.6832 -1.1187 2.3874
7.7182 -0.8420 2.3874
7.7432 -0.5642 2.3874
7.7582 -0.2856 2.3874
7.7632 -0.0067 2.3874
7.7582 0.2722 2.3874
7.7431 0.5508 2.3874
7.7181 0.8286 2.3874
7.6831 1.1053 2.3874
7.6381 1.3805 2.3874
7.5833 1.6540 2.3874
7.5188 1.9253 2.3874
7.4445 2.1941 2.3874
7.3606 2.4601 2.3874
7.2672 2.7228 2.3874
7.1645 2.9821 2.3874
7.0525 3.2375 2.3874
6.9314 3.4886 2.3874
6.8013 3.7353 2.3874
6.6625 3.9771 2.3874
6.5151 4.2138 2.3874
6.3593 4.4450 2.3874
6.1953 4.6705 2.3874
6.0233 4.8899 2.3874
5.8436 5.1030 2.3874
5.6563 5.3095 2.3874
5.4617 5.5092 2.3874
5.2601 5.7017 2.3874
5.0518 5.8868 2.3874
4.8368 6.0644 2.3874
4.6157 6.2341 2.3874
4.3886 6.3957 2.3874
4.1559 6.5491 2.3874
3.9179 6.6941 2.3874
3.6747 6.8304 2.3874
3.4269 6.9579 2.3874
3.1746 7.0764 2.3874
2.9182 7.1857 2.3874
2.6581 7.2858 2.3874
2.3946 7.3765 2.3874
0.8461 2.9651 0.9492
0.7391 2.9940 0.9494
0.6311 3.0190 0.9495
0.5223 3.0401 0.9496
0.4128 3.0572 0.9497
0.3027 3.0703 0.9498
0.1922 3.0794 0.9499
0.0814 3.0846 0.9500
-0.0295 3.0857 0.9500
-0.1403 3.0827 0.9501
-0.2510 3.0758 0.9501
-0.3614 3.0649 0.9501
-0.4713 3.0499 0.9501
-0.5805 3.0310 0.9501
-0.6890 3.0081 0.9501
-0.7966 2.9813 0.9501
-0.9032 2.9506 0.9500
-2.5348 7.3287 2.3874
-2.7965 7.2329 2.3874
-3.0546 7.1278 2.3874
-3.3087 7.0135 2.3874
-3.5586 6.8902 2.3874
-3.8039 6.7579 2.3874
-4.0443 6.6170 2.3874
-4.2795 6.4675 2.3874
-4.5092 6.3096 2.3874
-4.7330 6.1436 2.3874
-4.9508 5.9697 2.3874
-5.1622 5.7881 2.3874
-5.3669 5.5989 2.3874
-5.5647 5.4026 2.3874
-5.7554 5.1993 2.3874
-5.9386 4.9892 2.3874
-6.1142 4.7728 2.3874
-6.2818 4.5501 2.3874
-6.4414 4.3216 2.3874
-6.5927 4.0874 2.3874
-6.7355 3.8480 2.3874
-6.8696 3.6037 2.3874
-6.9948 3.3546 2.3874
-7.1110 3.1012 2.3874
-7.2180 2.8438 2.3874
-7.3158 2.5827 2.3874
-7.4041 2.3182 2.3874
-7.4828 2.0508 2.3874
-7.5519 1.7806 2.3874
-7.6112 1.5082 2.3874
-7.6608 1.2339 2.3874
-7.7004 0.9579 2.3874
-7.7301 0.6806 2.3874
-7.7498 0.4024 2.3874
-7.7595 0.1237 2.3874
-7.7592 -0.1551 2.3874
-7.7489 -0.4338 2.3874
-7.7286 -0.7119 2.3874
-7.6983 -0.9892 2.3874
-7.6580 -1.2652 2.3874
-7.6079 -1.5395 2.3874
-7.5479 -1.8119 2.3874
-7.4782 -2.0820 2.3874
-7.3988 -2.3494 2.3874
-7.3098 -2.6138 2.3874
-7.2115 -2.8748 2.3874
-7.1038 -3.1322 2.3874
-6.9869 -3.3855 2.3874
-6.8610 -3.6344 2.3874
-6.7262 -3.8787 2.3874
-6.5827 -4.1180 2.3874
-6.4307 -4.3519 2.3874
-6.2704 -4.5803 2.3874
-6.1020 -4.8028 2.3874
-5.9257 -5.0190 2.3874
-5.7417 -5.2288 2.3874
-5.5503 -5.4319 2.3874
-5.3518 -5.6279 2.3874
-5.1463 -5.8167 2.3874
-4.9341 -5.9980 2.3874
-4.7155 -6.1715 2.3874
-4.4909 -6.3371 2.3874
-4.2604 -6.4945 2.3874
-4.0245 -6.6435 2.3874
-3.7833 -6.7840 2.3874
-3.5372 -6.9157 2.3874
-3.2865 -7.0384 2.3874
-3.0316 -7.1521 2.3874
-2.7728 -7.2565 2.3874
-2.5103 -7.3516 2.3874
-2.2446 -7.4371 2.3874
-1.9760 -7.5131 2.3874
-1.7049 -7.5793 2.3874
-1.4315 -7.6358 2.3874
-1.1563 -7.6823 2.3874
-0.8796 -7.7190 2.3874
-0.6017 -7.7457 2.3874
-0.3231 -7.7624 2.3874
-0.0440 -7.7690 2.3874
0.2351 -7.7656 2.3874
0.5139 -7.7522 2.3874
0.7921 -7.7288 2.3874
1.0693 -7.6953 2.3874
1.3450 -7.6520 2.3874
1.6190 -7.5987 2.3874
1.8910 -7.5356 2.3874
2.1604 -7.4628 2.3874
2.4271 -7.3803 2.3874
2.6907 -7.2883 2.3874
2.9508 -7.1869 2.3874
3.2070 -7.0762 2.3874
3.4591 -6.9564 2.3874
3.7068 -6.8276 2.3874
3.9496 -6.6899 2.3874
4.1873 -6.5436 2.3874
4.4197 -6.3889 2.3874
4.6463 -6.2259 2.3874
4.8668 -6.0549 2.3874
5.0811 -5.8760 2.3874
5.2889 -5.6896 2.3874
5.4897 -5.4958 2.3874
5.6835 -5.2949 2.3874
5.8699 -5.0872 2.3874
6.0488 -4.8730 2.3874
6.2198 -4.6524 2.3874
6.3828 -4.4259 2.3874
6.5375 -4.1936 2.3874
6.6837 -3.9559 2.3874
6.8214 -3.7132 2.3874
6.9502 -3.4656 2.3874
7.0700 -3.2136 2.3874
7.1807 -2.9574 2.3874
7.2821 -2.6975 2.3874
7.3741 -2.4340 2.3874
7.4565 -2.1674 2.3874
7.5293 -1.8981 2.3874
7.5924 -1.6264 2.3874
7.6457 -1.3525 2.3874
7.6891 -1.0769 2.3874
7.7226 -0.7999 2.3874
7.7461 -0.5220 2.3874
7.7596 -0.2433 2.3874
7.7631 0.0356 2.3874
7.7565 0.3145 2.3874
7.7400 0.5930 2.3874
7.7134 0.8706 2.3874
7.6769 1.1471 2.3874
7.6305 1.4222 2.3874
7.5742 1.6952 2.3874
7.5081 1.9662 2.3874
4.8359 -5.3175 2.3874
5.0238 -5.1402 2.3874
5.2051 -4.9563 2.3874
5.3797 -4.7660 2.3874
5.5473 -4.5696 2.3874
5.7077 -4.3673 2.3874
5.8608 -4.1593 2.3874
6.0063 -3.9460 2.3874
6.1441 -3.7276 2.3874
6.2739 -3.5044 2.3874
6.3955 -3.2766 2.3874
6.5089 -3.0447 2.3874
6.6140 -2.8088 2.3874
6.7104 -2.5693 2.3874
6.7982 -2.3265 2.3874
6.8772 -2.0807 2.3874
6.9473 -1.8322 2.3874
7.0085 -1.5814 2.3874
7.0605 -1.3285 2.3874
7.1035 -1.0740 2.3874
7.1373 -0.8181 2.3874
7.1618 -0.5611 2.3874
7.1771 -0.3034 2.3874
7.1832 -0.0454 2.3874
7.1800 0.2127 2.3874
7.1674 0.4705 2.3874
7.1457 0.7277 2.3874
7.1147 0.9838 2.3874
7.0745 1.2388 2.3874
7.0253 1.4921 2.3874
6.9669 1.7435 2.3874
6.8995 1.9926 2.3874
6.8233 2.2392 2.3874
6.7382 2.4828 2.3874
6.6444 2.7232 2.3874
6.5421 2.9601 2.3874
6.4313 3.1931 2.3874
6.3123 3.4220 2.3874
6.1851 3.6465 2.3874
6.0499 3.8662 2.3874
5.9069 4.0810 2.3874
5.7563 4.2904 2.3874
5.5982 4.4943 2.3874
5.4330 4.6925 2.3874
5.2608 4.8845 2.3874
5.0817 5.0702 2.3874
4.8962 5.2494 2.3874
4.7043 5.4218 2.3874
4.5063 5.5872 2.3874
4.3026 5.7453 2.3874
4.0933 5.8961 2.3874
3.8787 6.0392 2.3874
3.6591 6.1745 2.3874
3.4348 6.3019 2.3874
3.2061 6.4211 2.3874
2.9733 6.5320 2.3874
2.7366 6.6345 2.3874
2.4965 6.7285 2.3874
0.8950 2.7068 0.9484
0.7973 2.7375 0.9485
0.6985 2.7648 0.9487
0.5988 2.7884 0.9488
0.4983 2.8084 0.9489
0.3971 2.8248 0.9490
0.2953 2.8374 0.9491
0.1932 2.8464 0.9492
0.0908 2.8517 0.9492
-0.0117 2.8533 0.9493
-0.1142 2.8511 0.9493
-0.2166 2.8453 0.9494
-0.3187 2.8357 0.9494
-0.4204 2.8224 0.9494
-0.5215 2.8055 0.9494
-0.6220 2.7849 0.9494
-0.7216 2.7607 0.9493
-0.8203 2.7329 0.9493
-2.3086 6.7944 2.3874
-2.5512 6.7071 2.3874
-2.7906 6.6111 2.3874
-3.0263 6.5066 2.3874
-3.2582 6.3937 2.3874
-3.4859 6.2726 2.3874
-3.7090 6.1434 2.3874
-3.9274 6.0062 2.3874
-4.1407 5.8613 2.3874
-4.3487 5.7088 2.3874
-4.5511 5.5490 2.3874
-4.7476 5.3819 2.3874
-4.9380 5.2080 2.3874
-5.1220 5.0273 2.3874
-5.2995 4.8401 2.3874
-5.4700 4.6467 2.3874
-5.6336 4.4472 2.3874
-5.7899 4.2420 2.3874
-5.9387 4.0313 2.3874
-6.0798 3.8154 2.3874
-6.2131 3.5946 2.3874
-6.3384 3.3692 2.3874
-6.4555 3.1393 2.3874
-6.5643 2.9054 2.3874
-6.6647 2.6678 2.3874
-6.7564 2.4267 2.3874
-6.8394 2.1824 2.3874
-6.9136 1.9353 2.3874
-6.9789 1.6857 2.3874
-7.0352 1.4339 2.3874
-7.0824 1.1803 2.3874
-7.1204 0.9251 2.3874
-7.1493 0.6687 2.3874
-7.1689 0.4114 2.3874
-7.1793 0.1536 2.3874
-7.1804 -0.1044 2.3874
-7.1722 -0.3624 2.3874
-7.1548 -0.6198 2.3874
-7.1281 -0.8765 2.3874
-7.0923 -1.1321 2.3874
-7.0472 -1.3862 2.3874
-6.9931 -1.6386 2.3874
-6.9300 -1.8888 2.3874
-6.8578 -2.1366 2.3874
-6.7769 -2.3817 2.3874
-6.6871 -2.6237 2.3874
-6.5887 -2.8624 2.3874
-6.4819 -3.0973 2.3874
-6.3666 -3.3283 2.3874
-6.2431 -3.5550 2.3874
-6.1115 -3.7771 2.3874
-5.9721 -3.9943 2.3874
-5.8249 -4.2064 2.3874
-5.6702 -4.4131 2.3874
-5.5081 -4.6141 2.3874
-5.3389 -4.8091 2.3874
-5.1629 -4.9980 2.3874
-4.9801 -5.1803 2.3874
-4.7909 -5.3560 2.3874
-4.5955 -5.5248 2.3874
-4.3942 -5.6865 2.3874
-4.1872 -5.8408 2.3874
-3.9747 -5.9876 2.3874
-3.7571 -6.1267 2.3874
-3.5347 -6.2578 2.3874
-3.3076 -6.3809 2.3874
-3.0763 -6.4957 2.3874
-2.8410 -6.6022 2.3874
-2.6021 -6.7001 2.3874
-2.3597 -6.7894 2.3874
-2.1143 -6.8699 2.3874
-1.8662 -6.9415 2.3874
-1.6156 -7.0041 2.3874
-1.3630 -7.0577 2.3874
-1.1086 -7.1022 2.3874
-0.8527 -7.1375 2.3874
-0.5958 -7.1636 2.3874
-0.3380 -7.1805 2.3874
-0.0799 -7.1880 2.3874
0.1784 -7.1863 2.3874
0.4364 -7.1753 2.3874
0.6939 -7.1550 2.3874
0.9505 -7.1255 2.3874
1.2059 -7.0867 2.3874
1.4597 -7.0388 2.3874
1.7116 -6.9818 2.3874
1.9613 -6.9158 2.3874
2.2085 -6.8409 2.3874
2.4528 -6.7571 2.3874
2.6939 -6.6646 2.3874
2.9316 -6.5634 2.3874
3.1655 -6.4538 2.3874
3.3952 -6.3359 2.3874
3.6206 -6.2098 2.3874
3.8413 -6.0756 2.3874
4.0571 -5.9336 2.3874
4.2675 -5.7840 2.3874
4.4725 -5.6268 2.3874
4.6717 -5.4624 2.3874
4.8648 -5.2910 2.3874
5.0517 -5.1127 2.3874
5.2320 -4.9279 2.3874
5.4055 -4.7366 2.3874
5.5721 -4.5393 2.3874
5.7314 -4.3361 2.3874
5.8834 -4.1273 2.3874
6.0277 -3.9132 2.3874
6.1643 -3.6940 2.3874
6.2928 -3.4701 2.3874
6.4133 -3.2417 2.3874
6.5254 -3.0091 2.3874
6.6291 -2.7727 2.3874
6.7243 -2.5327 2.3874
6.8108 -2.2894 2.3874
6.8884 -2.0432 2.3874
6.9572 -1.7943 2.3874
7.0169 -1.5432 2.3874
7.0676 -1.2901 2.3874
7.1092 -1.0353 2.3874
7.1416 -0.7792 2.3874
7.1648 -0.5221 2.3874
7.1787 -0.2643 2.3874
7.1833 -0.0063 2.3874
7.1787 0.2518 2.3874
7.1647 0.5095 2.3874
7.1416 0.7668 2.3874
7.1092 1.0225 2.3874
7.0677 1.2774 2.3874
7.0170 1.5304 2.3874
6.9572 1.7815 2.3874
6.8885 2.0302 2.3874
6.8109 2.2763 2.3874
6.7245 2.5195 2.3874
6.6295 2.7593 2.3874
6.5258 2.9957 2.3874
6.4138 3.2281 2.3874
6.2935 3.4563 2.3874
6.1651 3.6801 2.3874
6.0287 3.8991 2.3874
5.8845 4.1131 2.3874
5.7328 4.3217 2.3874
5.5737 4.5248 2.3874
5.4073 4.7220 2.3874
5.2340 4.9131 2.3874
5.0540 5.0978 2.3874
4.8675 5.2760 2.3874
4.6746 5.4473 2.3874
4.4758 5.6116 2.3874
4.2712 5.7687 2.3874
4.0610 5.9183 2.3874
3.8457 6.0602 2.3874
3.6254 6.1944 2.3874
3.4004 6.3205 2.3874
3.1711 6.4385 2.3874
2.9376 6.5481 2.3874
2.7004 6.6493 2.3874
2.4597 6.7420 2.3874
0.8803 2.7116 0.9484
0.7824 2.7419 0.9486
0.6835 2.7686 0.9487
0.5836 2.7917 0.9488
0.4830 2.8111 0.9489
0.3817 2.8269 0.9490
0.2799 2.8390 0.9491
0.1777 2.8475 0.9492
0.0753 2.8522 0.9492
-0.0272 2.8532 0.9493
-0.1297 2.8505 0.9493
-0.2321 2.8441 0.9494
-0.3341 2.8339 0.9494
-0.4357 2.8201 0.9494
-0.5368 2.8026 0.9494
-0.6371 2.7815 0.9494
-0.7366 2.7567 0.9493
-0.8352 2.7283 0.9493
-2.3456 6.7817 2.3874
-2.5878 6.6931 2.3874
-2.8266 6.5958 2.3874
-3.0618 6.4900 2.3874
-3.2930 6.3759 2.3874
-3.5200 6.2535 2.3874
-3.7425 6.1231 2.3874
-3.9601 5.9847 2.3874
-4.1726 5.8387 2.3874
-4.3798 5.6850 2.3874
-4.5813 5.5241 2.3874
-4.7769 5.3560 2.3874
-4.9663 5.1810 2.3874
-5.1494 4.9993 2.3874
-5.3258 4.8112 2.3874
-5.4953 4.6168 2.3874
-5.6578 4.4164 2.3874
-5.8129 4.2104 2.3874
-5.9606 3.9989 2.3874
-6.1006 3.7823 2.3874
-6.2327 3.5607 2.3874
-6.3567 3.3346 2.3874
-6.4726 3.1041 2.3874
-6.5801 2.8696 2.3874
-6.6792 2.6314 2.3874
-6.7696 2.3898 2.3874
-6.8513 2.1451 2.3874
-6.9241 1.8976 2.3874
-6.9880 1.6477 2.3874
-7.0429 1.3956 2.3874
-7.0887 1.1417 2.3874
-7.1254 0.8863 2.3874
-7.1528 0.6297 2.3874
-7.1711 0.3723 2.3874
-7.1800 0.1145 2.3874
-7.1797 -0.1436 2.3874
-7.1702 -0.4014 2.3874
-7.1513 -0.6588 2.3874
-7.1233 -0.9154 2.3874
-7.0860 -1.1707 2.3874
-7.0396 -1.4246 2.3874
-6.9841 -1.6766 2.3874
-6.9196 -1.9265 2.3874
-6.8461 -2.1740 2.3874
-6.7638 -2.4186 2.3874
-6.6728 -2.6601 2.3874
-6.5731 -2.8982 2.3874
-6.4649 -3.1326 2.3874
-6.3484 -3.3629 2.3874
-6.2237 -3.5889 2.3874
-6.0909 -3.8103 2.3874
-5.9502 -4.0268 2.3874
-5.8019 -4.2381 2.3874
-5.6461 -4.4439 2.3874
-5.4829 -4.6440 2.3874
-5.3127 -4.8382 2.3874
-5.1356 -5.0260 2.3874
-4.9518 -5.2074 2.3874
-4.7617 -5.3821 2.3874
-4.5654 -5.5498 2.3874
-4.3631 -5.7104 2.3874
-4.1553 -5.8636 2.3874
-3.9420 -6.0092 2.3874
-3.7237 -6.1471 2.3874
-3.5005 -6.2770 2.3874
-3.2728 -6.3989 2.3874
-3.0409 -6.5124 2.3874
-2.8050 -6.6176 2.3874
-2.5655 -6.7142 2.3874
-2.3227 -6.8021 2.3874
-2.0769 -6.8813 2.3874
-1.8283 -6.9516 2.3874
-1.5774 -7.0128 2.3874
-1.3245 -7.0651 2.3874
-1.0699 -7.1082 2.3874
-0.8138 -7.1421 2.3874
-0.5567 -7.1668 2.3874
-0.2989 -7.1822 2.3874
-0.0407 -7.1883 2.3874
0.2176 -7.1852 2.3874
0.4755 -7.1728 2.3874
0.7329 -7.1511 2.3874
0.9893 -7.1202 2.3874
1.2445 -7.0800 2.3874
1.4980 -7.0308 2.3874
1.7496 -6.9724 2.3874
1.9990 -6.9050 2.3874
2.2457 -6.8287 2.3874
2.4896 -6.7436 2.3874
2.7302 -6.6498 2.3874
2.9673 -6.5474 2.3874
3.2006 -6.4365 2.3874
3.4297 -6.3173 2.3874
3.6544 -6.1899 2.3874
3.8744 -6.0546 2.3874
4.0893 -5.9114 2.3874
4.2990 -5.7606 2.3874
4.5031 -5.6024 2.3874
4.7014 -5.4369 2.3874
4.8936 -5.2644 2.3874
5.0795 -5.0851 2.3874
5.2587 -4.8993 2.3874
5.4313 -4.7071 2.3874
5.5967 -4.5088 2.3874
5.7550 -4.3048 2.3874
5.9058 -4.0952 2.3874
6.0489 -3.8803 2.3874
6.1843 -3.6604 2.3874
6.3116 -3.4357 2.3874
6.4308 -3.2067 2.3874
6.5417 -2.9735 2.3874
6.6441 -2.7365 2.3874
6.7380 -2.4960 2.3874
6.8231 -2.2522 2.3874
6.8994 -2.0056 2.3874
6.9668 -1.7564 2.3874
7.0252 -1.5049 2.3874
7.0745 -1.2515 2.3874
7.1147 -0.9965 2.3874
7.1457 -0.7402 2.3874
7.1675 -0.4830 2.3874
7.1800 -0.2252 2.3874
7.1832 0.0329 2.3874
7.1771 0.2909 2.3874
7.1618 0.5486 2.3874
7.1373 0.8055 2.3874
7.1035 1.0615 2.3874
7.0606 1.3159 2.3874
7.0085 1.5686 2.3874
6.9474 1.8193 2.3874
4.4949 -4.9425 2.3874
4.6695 -4.7778 2.3874
4.8380 -4.6069 2.3874
5.0003 -4.4300 2.3874
5.1561 -4.2474 2.3874
5.3053 -4.0594 2.3874
5.4476 -3.8661 2.3874
5.5828 -3.6678 2.3874
5.7109 -3.4648 2.3874
5.8315 -3.2573 2.3874
5.9446 -3.0456 2.3874
6.0501 -2.8301 2.3874
6.1477 -2.6108 2.3874
6.2374 -2.3882 2.3874
6.3190 -2.1625 2.3874
6.3924 -1.9341 2.3874
6.4576 -1.7031 2.3874
6.5144 -1.4700 2.3874
6.5628 -1.2350 2.3874
6.6028 -0.9984 2.3874
6.6342 -0.7605 2.3874
6.6570 -0.5216 2.3874
6.6713 -0.2821 2.3874
6.6769 -0.0423 2.3874
6.6739 0.1977 2.3874
6.6623 0.4373 2.3874
6.6421 0.6763 2.3874
6.6133 0.9145 2.3874
6.5760 1.1515 2.3874
6.5302 1.3869 2.3874
6.4759 1.6206 2.3874
6.4133 1.8522 2.3874
6.3425 2.0813 2.3874
6.2634 2.3078 2.3874
6.1763 2.5313 2.3874
6.0812 2.7515 2.3874
5.9782 2.9681 2.3874
5.8675 3.1809 2.3874
5.7493 3.3895 2.3874
5.6236 3.5938 2.3874
5.4907 3.7934 2.3874
5.3508 3.9881 2.3874
5.2039 4.1777 2.3874
5.0503 4.3618 2.3874
4.8902 4.5404 2.3874
4.7238 4.7130 2.3874
4.5513 4.8796 2.3874
4.3729 5.0398 2.3874
4.1889 5.1936 2.3874
3.9995 5.3406 2.3874
3.8050 5.4807 2.3874
3.6055 5.6138 2.3874
3.4014 5.7396 2.3874
3.1929 5.8580 2.3874
2.9803 5.9688 2.3874
2.7639 6.0719 2.3874
2.5439 6.1672 2.3874
0.9212 2.4828 0.9477
0.8315 2.5146 0.9478
0.7407 2.5432 0.9480
0.6489 2.5684 0.9481
0.5563 2.5904 0.9482
0.4629 2.6090 0.9483
0.3689 2.6241 0.9484
0.2744 2.6359 0.9485
0.1795 2.6442 0.9485
0.0844 2.6491 0.9486
-0.0109 2.6506 0.9487
-0.1061 2.6486 0.9487
-0.2012 2.6431 0.9487
-0.2960 2.6342 0.9487
-0.3905 2.6219 0.9487
-0.4844 2.6062 0.9487
-0.5778 2.5870 0.9487
-0.6703 2.5645 0.9487
-0.7620 2.5387 0.9487
-0.8527 2.5096 0.9486
-2.3716 6.2347 2.3874
-2.5941 6.1455 2.3874
-2.8132 6.0484 2.3874
-3.0287 5.9434 2.3874
-3.2404 5.8308 2.3874
-3.4478 5.7107 2.3874
-3.6508 5.5832 2.3874
-3.8491 5.4485 2.3874
-4.0424 5.3067 2.3874
-4.2306 5.1581 2.3874
-4.4132 5.0029 2.3874
-4.5902 4.8411 2.3874
-4.7613 4.6732 2.3874
-4.9262 4.4992 2.3874
-5.0848 4.3193 2.3874
-5.2368 4.1339 2.3874
-5.3820 3.9432 2.3874
-5.5204 3.7473 2.3874
-5.6516 3.5467 2.3874
-5.7755 3.3414 2.3874
-5.8919 3.1318 2.3874
-6.0008 2.9181 2.3874
-6.1019 2.7007 2.3874
-6.1952 2.4798 2.3874
-6.2804 2.2557 2.3874
-6.3576 2.0286 2.3874
-6.4265 1.7989 2.3874
-6.4872 1.5669 2.3874
-6.5395 1.3329 2.3874
-6.5834 1.0971 2.3874
-6.6187 0.8599 2.3874
-6.6455 0.6215 2.3874
-6.6638 0.3824 2.3874
-6.6734 0.1427 2.3874
-6.6744 -0.0971 2.3874
-6.6668 -0.3369 2.3874
-6.6506 -0.5762 2.3874
-6.6258 -0.8148 2.3874
-6.5924 -1.0524 2.3874
-6.5506 -1.2886 2.3874
-6.5003 -1.5231 2.3874
-6.4415 -1.7557 2.3874
-6.3745 -1.9861 2.3874
-6.2992 -2.2139 2.3874
-6.2158 -2.4388 2.3874
-6.1243 -2.6606 2.3874
-6.0250 -2.8790 2.3874
-5.9178 -3.0937 2.3874
-5.8030 -3.3044 2.3874
-5.6807 -3.5109 2.3874
-5.5511 -3.7128 2.3874
-5.4143 -3.9099 2.3874
-5.2704 -4.1020 2.3874
-5.1198 -4.2888 2.3874
-4.9625 -4.4701 2.3874
-4.7989 -4.6456 2.3874
-4.6290 -4.8152 2.3874
-4.4531 -4.9785 2.3874
-4.2715 -5.1353 2.3874
-4.0843 -5.2856 2.3874
-3.8919 -5.4290 2.3874
-3.6944 -5.5655 2.3874
-3.4922 -5.6947 2.3874
-3.2854 -5.8166 2.3874
-3.0744 -5.9310 2.3874
-2.8594 -6.0377 2.3874
-2.6407 -6.1367 2.3874
-2.4186 -6.2277 2.3874
-2.1933 -6.3106 2.3874
-1.9652 -6.3854 2.3874
-1.7346 -6.4520 2.3874
-1.5017 -6.5102 2.3874
-1.2669 -6.5600 2.3874
-1.0304 -6.6014 2.3874
-0.7926 -6.6342 2.3874
-0.5538 -6.6585 2.3874
-0.3142 -6.6741 2.3874
-0.0742 -6.6811 2.3874
0.1658 -6.6795 2.3874
0.4057 -6.6693 2.3874
0.6450 -6.6504 2.3874
0.8835 -6.6230 2.3874
1.1209 -6.5870 2.3874
1.3567 -6.5424 2.3874
1.5909 -6.4895 2.3874
1.8230 -6.4281 2.3874
2.0527 -6.3585 2.3874
2.2798 -6.2806 2.3874
2.5040 -6.1946 2.3874
2.7249 -6.1006 2.3874
2.9422 -5.9987 2.3874
3.1558 -5.8891 2.3874
3.3653 -5.7719 2.3874
3.5704 -5.6472 2.3874
3.7710 -5.5152 2.3874
3.9666 -5.3761 2.3874
4.1571 -5.2301 2.3874
4.3423 -5.0773 2.3874
4.5218 -4.9179 2.3874
4.6955 -4.7522 2.3874
4.8631 -4.5804 2.3874
5.0244 -4.4027 2.3874
5.1792 -4.2192 2.3874
5.3273 -4.0304 2.3874
5.4686 -3.8363 2.3874
5.6027 -3.6373 2.3874
5.7297 -3.4336 2.3874
5.8492 -3.2255 2.3874
5.9611 -3.0132 2.3874
6.0654 -2.7970 2.3874
6.1618 -2.5773 2.3874
6.2502 -2.3542 2.3874
6.3306 -2.1280 2.3874
6.4028 -1.8992 2.3874
6.4667 -1.6679 2.3874
6.5223 -1.4344 2.3874
6.5694 -1.1992 2.3874
6.6081 -0.9624 2.3874
6.6382 -0.7243 2.3874
6.6598 -0.4853 2.3874
6.6727 -0.2457 2.3874
6.6770 -0.0059 2.3874
6.6727 0.2340 2.3874
6.6598 0.4736 2.3874
6.6383 0.7125 2.3874
6.6082 0.9505 2.3874
6.5696 1.1873 2.3874
6.5225 1.4225 2.3874
6.4670 1.6559 2.3874
6.4031 1.8871 2.3874
6.3310 2.1159 2.3874
6.2507 2.3419 2.3874
6.1623 2.5649 2.3874
6.0660 2.7845 2.3874
5.9619 3.0006 2.3874
5.8501 3.2128 2.3874
5.7307 3.4208 2.3874
5.6039 3.6244 2.3874
5.4700 3.8233 2.3874
5.3289 4.0172 2.3874
5.1810 4.2060 2.3874
5.0264 4.3893 2.3874
4.8653 4.5669 2.3874
4.6980 4.7387 2.3874
4.5246 4.9043 2.3874
4.3454 5.0636 2.3874
4.1605 5.2163 2.3874
3.9703 5.3623 2.3874
3.7750 5.5014 2.3874
3.5748 5.6333 2.3874
3.3701 5.7580 2.3874
3.1609 5.8753 2.3874
2.9477 5.9850 2.3874
2.7308 6.0869 2.3874
2.5103 6.1810 2.3874
0.9077 2.4878 0.9477
0.8178 2.5192 0.9478
0.7268 2.5472 0.9480
0.6349 2.5720 0.9481
0.5422 2.5934 0.9482
0.4487 2.6115 0.9483
0.3546 2.6261 0.9484
0.2600 2.6374 0.9485
0.1651 2.6452 0.9486
0.0699 2.6496 0.9486
-0.0253 2.6505 0.9487
-0.1205 2.6480 0.9487
-0.2156 2.6420 0.9487
-0.3104 2.6326 0.9487
-0.4048 2.6197 0.9487
-0.4986 2.6035 0.9487
-0.5919 2.5838 0.9487
-0.6843 2.5608 0.9487
-0.7758 2.5345 0.9487
-0.8664 2.5049 0.9486
-2.4055 6.2217 2.3874
-2.6275 6.1313 2.3874
-2.8462 6.0330 2.3874
-3.0611 5.9268 2.3874
-3.2721 5.8131 2.3874
-3.4789 5.6918 2.3874
-3.6812 5.5632 2.3874
-3.8788 5.4274 2.3874
-4.0713 5.2846 2.3874
-4.2587 5.1350 2.3874
-4.4405 4.9787 2.3874
-4.6166 4.8161 2.3874
-4.7867 4.6472 2.3874
-4.9507 4.4723 2.3874
-5.1083 4.2916 2.3874
-5.2593 4.1053 2.3874
-5.4035 3.9138 2.3874
-5.5407 3.7172 2.3874
-5.6708 3.5158 2.3874
-5.7936 3.3099 2.3874
-5.9089 3.0996 2.3874
-6.0166 2.8854 2.3874
-6.1166 2.6674 2.3874
-6.2086 2.4460 2.3874
-6.2927 2.2214 2.3874
-6.3686 1.9939 2.3874
-6.4363 1.7639 2.3874
-6.4957 1.5315 2.3874
-6.5467 1.2972 2.3874
-6.5893 1.0612 2.3874
-6.6233 0.8238 2.3874
-6.6488 0.5853 2.3874
-6.6658 0.3461 2.3874
-6.6741 0.1063 2.3874
-6.6738 -0.1335 2.3874
-6.6649 -0.3732 2.3874
-6.6474 -0.6124 2.3874
-6.6213 -0.8509 2.3874
-6.5867 -1.0883 2.3874
-6.5435 -1.3242 2.3874
-6.4919 -1.5585 2.3874
-6.4319 -1.7908 2.3874
-6.3636 -2.0208 2.3874
-6.2871 -2.2482 2.3874
-6.2024 -2.4727 2.3874
-6.1098 -2.6940 2.3874
-6.0092 -2.9118 2.3874
-5.9009 -3.1259 2.3874
-5.7849 -3.3360 2.3874
-5.6615 -3.5418 2.3874
-5.5308 -3.7430 2.3874
-5.3929 -3.9394 2.3874
-5.2480 -4.1307 2.3874
-5.0964 -4.3167 2.3874
-4.9381 -4.4971 2.3874
-4.7735 -4.6717 2.3874
-4.6027 -4.8403 2.3874
-4.4259 -5.0027 2.3874
-4.2435 -5.1586 2.3874
-4.0555 -5.3078 2.3874
-3.8623 -5.4502 2.3874
-3.6641 -5.5855 2.3874
-3.4611 -5.7137 2.3874
-3.2537 -5.8345 2.3874
-3.0420 -5.9477 2.3874
-2.8265 -6.0532 2.3874
-2.6072 -6.1510 2.3874
-2.3846 -6.2408 2.3874
-2.1589 -6.3225 2.3874
-1.9304 -6.3961 2.3874
-1.6994 -6.4614 2.3874
-1.4662 -6.5183 2.3874
-1.2311 -6.5669 2.3874
-0.9944 -6.6069 2.3874
-0.7564 -6.6384 2.3874
-0.5175 -6.6614 2.3874
-0.2778 -6.6757 2.3874
-0.0378 -6.6814 2.3874
0.2022 -6.6785 2.3874
0.4420 -6.6670 2.3874
0.6812 -6.6468 2.3874
0.9196 -6.6181 2.3874
1.1567 -6.5807 2.3874
1.3924 -6.5350 2.3874
1.6262 -6.4807 2.3874
1.8580 -6.4181 2.3874
2.0874 -6.3472 2.3874
2.3140 -6.2681 2.3874
2.5377 -6.1808 2.3874
2.7581 -6.0856 2.3874
2.9749 -5.9826 2.3874
3.1878 -5.8718 2.3874
3.3967 -5.7534 2.3874
3.6011 -5.6276 2.3874
3.8009 -5.4946 2.3874
3.9958 -5.3544 2.3874
4.1855 -5.2073 2.3874
4.3698 -5.0535 2.3874
4.5485 -4.8932 2.3874
4.7213 -4.7266 2.3874
4.8879 -4.5538 2.3874
5.0483 -4.3752 2.3874
5.2021 -4.1910 2.3874
5.3492 -4.0013 2.3874
5.4894 -3.8065 2.3874
5.6224 -3.6067 2.3874
5.7483 -3.4023 2.3874
5.8666 -3.1935 2.3874
5.9774 -2.9807 2.3874
6.0805 -2.7639 2.3874
6.1757 -2.5436 2.3874
6.2630 -2.3200 2.3874
6.3421 -2.0935 2.3874
6.4131 -1.8643 2.3874
6.4757 -1.6326 2.3874
6.5300 -1.3989 2.3874
6.5759 -1.1633 2.3874
6.6132 -0.9263 2.3874
6.6420 -0.6881 2.3874
6.6623 -0.4490 2.3874
6.6739 -0.2094 2.3874
6.6769 0.0305 2.3874
6.6713 0.2704 2.3874
6.6571 0.5099 2.3874
6.6343 0.7487 2.3874
6.6029 0.9865 2.3874
6.5630 1.2231 2.3874
6.5146 1.4580 2.3874
6.4578 1.6911 2.3874
4.1944 -4.6121 2.3874
4.3573 -4.4583 2.3874
4.5145 -4.2989 2.3874
4.6660 -4.1338 2.3874
4.8114 -3.9635 2.3874
4.9506 -3.7880 2.3874
5.0833 -3.6076 2.3874
5.2096 -3.4226 2.3874
5.3290 -3.2332 2.3874
5.4416 -3.0396 2.3874
5.5472 -2.8421 2.3874
5.6456 -2.6409 2.3874
5.7367 -2.4363 2.3874
5.8204 -2.2286 2.3874
5.8965 -2.0180 2.3874
5.9651 -1.8048 2.3874
6.0259 -1.5893 2.3874
6.0789 -1.3718 2.3874
6.1241 -1.1524 2.3874
6.1614 -0.9317 2.3874
6.1907 -0.7097 2.3874
6.2121 -0.4868 2.3874
6.2254 -0.2633 2.3874
6.2306 -0.0395 2.3874
6.2279 0.1844 2.3874
6.2170 0.4080 2.3874
6.1982 0.6311 2.3874
6.1713 0.8533 2.3874
6.1365 1.0745 2.3874
6.0938 1.2942 2.3874
6.0432 1.5123 2.3874
5.9848 1.7284 2.3874
5.9186 1.9422 2.3874
5.8449 2.1535 2.3874
5.7636 2.3621 2.3874
5.6748 2.5676 2.3874
5.5787 2.7697 2.3874
5.4755 2.9683 2.3874
5.3652 3.1630 2.3874
5.2479 3.3536 2.3874
5.1239 3.5399 2.3874
4.9933 3.7216 2.3874
4.8562 3.8985 2.3874
4.7129 4.0704 2.3874
4.5635 4.2370 2.3874
4.4082 4.3981 2.3874
4.2472 4.5536 2.3874
4.0808 4.7031 2.3874
3.9091 4.8466 2.3874
3.7324 4.9838 2.3874
3.5508 5.1146 2.3874
3.3647 5.2388 2.3874
3.1742 5.3562 2.3874
2.9797 5.4667 2.3874
2.7813 5.5701 2.3874
2.5793 5.6663 2.3874
2.3740 5.7553 2.3874
0.8592 2.3157 0.9472
0.7756 2.3454 0.9473
0.6909 2.3720 0.9475
0.6053 2.3956 0.9476
0.5188 2.4160 0.9477
0.4317 2.4333 0.9478
0.3441 2.4475 0.9479
0.2559 2.4584 0.9479
0.1674 2.4662 0.9480
0.0787 2.4707 0.9481
-0.0101 2.4721 0.9481
-0.0989 2.4702 0.9481
-0.1876 2.4651 0.9482
-0.2761 2.4568 0.9482
-0.3642 2.4453 0.9482
-0.4518 2.4307 0.9482
-0.5389 2.4128 0.9482
-0.6252 2.3918 0.9481
-0.7107 2.3678 0.9481
-0.7953 2.3406 0.9481
-0.8788 2.3104 0.9480
-2.4208 5.7350 2.3874
-2.6253 5.6444 2.3874
-2.8265 5.5464 2.3874
-3.0239 5.4414 2.3874
-3.2175 5.3292 2.3874
-3.4070 5.2102 2.3874
-3.5920 5.0845 2.3874
-3.7725 4.9522 2.3874
-3.9480 4.8136 2.3874
-4.1185 4.6687 2.3874
-4.2836 4.5177 2.3874
-4.4433 4.3610 2.3874
-4.5972 4.1986 2.3874
-4.7451 4.0308 2.3874
-4.8870 3.8577 2.3874
-5.0225 3.6797 2.3874
-5.1516 3.4970 2.3874
-5.2740 3.3097 2.3874
-5.3897 3.1181 2.3874
-5.4983 2.9225 2.3874
-5.5999 2.7232 2.3874
-5.6943 2.5203 2.3874
-5.7813 2.3141 2.3874
-5.8608 2.1049 2.3874
-5.9328 1.8930 2.3874
-5.9972 1.6787 2.3874
-6.0538 1.4622 2.3874
-6.1026 1.2438 2.3874
-6.1435 1.0237 2.3874
-6.1765 0.8024 2.3874
-6.2015 0.5800 2.3874
-6.2185 0.3568 2.3874
-6.2274 0.1331 2.3874
-6.2284 -0.0907 2.3874
-6.2213 -0.3144 2.3874
-6.2062 -0.5377 2.3874
-6.1830 -0.7604 2.3874
-6.1519 -0.9821 2.3874
-6.1128 -1.2025 2.3874
-6.0658 -1.4214 2.3874
-6.0110 -1.6384 2.3874
-5.9484 -1.8534 2.3874
-5.8782 -2.0659 2.3874
-5.8003 -2.2759 2.3874
-5.7150 -2.4828 2.3874
-5.6222 -2.6866 2.3874
-5.5222 -2.8870 2.3874
-5.4151 -3.0836 2.3874
-5.3010 -3.2762 2.3874
-5.1800 -3.4646 2.3874
-5.0523 -3.6486 2.3874
-4.9181 -3.8278 2.3874
-4.7775 -4.0022 2.3874
-4.6308 -4.1713 2.3874
-4.4780 -4.3351 2.3874
-4.3195 -4.4933 2.3874
-4.1554 -4.6456 2.3874
-3.9859 -4.7920 2.3874
-3.8112 -4.9322 2.3874
-3.6317 -5.0661 2.3874
-3.4474 -5.1934 2.3874
-3.2587 -5.3140 2.3874
-3.0657 -5.4277 2.3874
-2.8688 -5.5345 2.3874
-2.6682 -5.6340 2.3874
-2.4641 -5.7263 2.3874
-2.2568 -5.8113 2.3874
-2.0466 -5.8887 2.3874
-1.8338 -5.9585 2.3874
-1.6186 -6.0206 2.3874
-1.4013 -6.0749 2.3874
-1.1821 -6.1214 2.3874
-0.9615 -6.1600 2.3874
-0.7396 -6.1906 2.3874
-0.5167 -6.2132 2.3874
-0.2932 -6.2278 2.3874
-0.0693 -6.2344 2.3874
0.1548 -6.2328 2.3874
0.3786 -6.2233 2.3874
0.6019 -6.2057 2.3874
0.8244 -6.1801 2.3874
1.0459 -6.1465 2.3874
1.2660 -6.1049 2.3874
1.4845 -6.0555 2.3874
1.7011 -5.9983 2.3874
1.9155 -5.9333 2.3874
2.1274 -5.8606 2.3874
2.3365 -5.7804 2.3874
2.5426 -5.6926 2.3874
2.7455 -5.5976 2.3874
2.9448 -5.4953 2.3874
3.1403 -5.3859 2.3874
3.3317 -5.2696 2.3874
3.5188 -5.1464 2.3874
3.7013 -5.0166 2.3874
3.8791 -4.8804 2.3874
4.0519 -4.7378 2.3874
4.2194 -4.5891 2.3874
4.3815 -4.4345 2.3874
4.5379 -4.2742 2.3874
4.6884 -4.1083 2.3874
4.8329 -3.9372 2.3874
4.9711 -3.7609 2.3874
5.1029 -3.5799 2.3874
5.2281 -3.3941 2.3874
5.3466 -3.2041 2.3874
5.4581 -3.0099 2.3874
5.5626 -2.8118 2.3874
5.6599 -2.6101 2.3874
5.7498 -2.4050 2.3874
5.8324 -2.1968 2.3874
5.9074 -1.9858 2.3874
5.9748 -1.7723 2.3874
6.0344 -1.5564 2.3874
6.0863 -1.3386 2.3874
6.1303 -1.1190 2.3874
6.1664 -0.8981 2.3874
6.1945 -0.6759 2.3874
6.2146 -0.4529 2.3874
6.2267 -0.2294 2.3874
6.2307 -0.0055 2.3874
6.2267 0.2183 2.3874
6.2147 0.4419 2.3874
6.1946 0.6649 2.3874
6.1666 0.8870 2.3874
6.1305 1.1079 2.3874
6.0866 1.3274 2.3874
6.0348 1.5452 2.3874
5.9752 1.7610 2.3874
5.9079 1.9744 2.3874
5.8330 2.1854 2.3874
5.7506 2.3934 2.3874
5.6607 2.5984 2.3874
5.5636 2.8001 2.3874
5.4592 2.9981 2.3874
5.3478 3.1922 2.3874
5.2295 3.3822 2.3874
5.1045 3.5678 2.3874
4.9729 3.7488 2.3874
4.8349 3.9249 2.3874
4.6906 4.0960 2.3874
4.5403 4.2618 2.3874
4.3842 4.4221 2.3874
4.2224 4.5766 2.3874
4.0551 4.7253 2.3874
3.8826 4.8678 2.3874
3.7051 5.0041 2.3874
3.5229 5.1339 2.3874
3.3361 5.2570 2.3874
3.1450 5.3734 2.3874
2.9498 5.4828 2.3874
2.7509 5.5852 2.3874
2.5484 5.6803 2.3874
2.3426 5.7681 2.3874
0.8466 2.3204 0.9472
0.7628 2.3496 0.9473
0.6779 2.3758 0.9475
0.5922 2.3989 0.9476
0.5057 2.4188 0.9477
0.4185 2.4357 0.9478
0.3307 2.4493 0.9479
0.2425 2.4598 0.9479
0.1540 2.4671 0.9480
0.0652 2.4712 0.9481
-0.0236 2.4720 0.9481
-0.1124 2.4696 0.9481
-0.2011 2.4641 0.9482
-0.2895 2.4553 0.9482
-0.3775 2.4433 0.9482
-0.4651 2.4282 0.9482
-0.5520 2.4098 0.9482
-0.6382 2.3884 0.9481
-0.7236 2.3638 0.9481
-0.8080 2.3362 0.9481
-0.8914 2.3055 0.9480
-2.4520 5.7218 2.3874
-2.6560 5.6300 2.3874
-2.8567 5.5310 2.3874
-3.0536 5.4248 2.3874
-3.2465 5.3116 2.3874
-3.4353 5.1916 2.3874
-3.6197 5.0649 2.3874
-3.7994 4.9316 2.3874
-3.9742 4.7920 2.3874
-4.1439 4.6462 2.3874
-4.3082 4.4943 2.3874
-4.4670 4.3367 2.3874
-4.6200 4.1735 2.3874
-4.7670 4.0049 2.3874
-4.9079 3.8311 2.3874
-5.0425 3.6523 2.3874
-5.1706 3.4689 2.3874
-5.2920 3.2809 2.3874
-5.4066 3.0887 2.3874
-5.5142 2.8925 2.3874
-5.6147 2.6926 2.3874
-5.7080 2.4892 2.3874
-5.7938 2.2826 2.3874
-5.8723 2.0730 2.3874
-5.9431 1.8607 2.3874
-6.0063 1.6460 2.3874
-6.0617 1.4292 2.3874
-6.1093 1.2105 2.3874
-6.1490 0.9902 2.3874
-6.1808 0.7687 2.3874
-6.2046 0.5462 2.3874
-6.2203 0.3229 2.3874
-6.2281 0.0992 2.3874
-6.2278 -0.1246 2.3874
-6.2195 -0.3483 2.3874
-6.2032 -0.5715 2.3874
-6.1788 -0.7941 2.3874
-6.1464 -1.0156 2.3874
-6.1062 -1.2358 2.3874
-6.0580 -1.4544 2.3874
-6.0020 -1.6711 2.3874
-5.9383 -1.8858 2.3874
-5.8669 -2.0980 2.3874
-5.7878 -2.3074 2.3874
-5.7014 -2.5140 2.3874
-5.6075 -2.7172 2.3874
-5.5064 -2.9170 2.3874
-5.3982 -3.1131 2.3874
-5.2830 -3.3051 2.3874
-5.1610 -3.4928 2.3874
-5.0324 -3.6761 2.3874
-4.8972 -3.8546 2.3874
-4.7556 -4.0281 2.3874
-4.6080 -4.1965 2.3874
-4.4543 -4.3594 2.3874
-4.2950 -4.5167 2.3874
-4.1300 -4.6682 2.3874
-3.9597 -4.8137 2.3874
-3.7843 -4.9530 2.3874
-3.6040 -5.0858 2.3874
-3.4191 -5.2121 2.3874
-3.2297 -5.3317 2.3874
-3.0361 -5.4444 2.3874
-2.8386 -5.5500 2.3874
-2.6375 -5.6485 2.3874
-2.4329 -5.7397 2.3874
-2.2251 -5.8235 2.3874
-2.0145 -5.8998 2.3874
-1.8013 -5.9684 2.3874
-1.5857 -6.0293 2.3874
-1.3681 -6.0825 2.3874
-1.1488 -6.1278 2.3874
-0.9279 -6.1651 2.3874
-0.7058 -6.1945 2.3874
-0.4828 -6.2159 2.3874
-0.2592 -6.2293 2.3874
-0.0353 -6.2346 2.3874
0.1887 -6.2319 2.3874
0.4124 -6.2211 2.3874
0.6357 -6.2023 2.3874
0.8581 -6.1755 2.3874
1.0794 -6.1407 2.3874
1.2993 -6.0979 2.3874
1.5175 -6.0473 2.3874
1.7337 -5.9889 2.3874
1.9478 -5.9227 2.3874
2.1593 -5.8489 2.3874
2.3680 -5.7675 2.3874
2.5736 -5.6787 2.3874
2.7759 -5.5826 2.3874
2.9747 -5.4792 2.3874
3.1696 -5.3687 2.3874
3.3603 -5.2513 2.3874
