ply
format ascii 1.0
element vertex 2186
property float32 x
property float32 y
property float32 z
end_header
5.0137 7.4282 2.3938
4.7446 7.6053 2.3938
4.4694 7.7730 2.3938
4.1884 7.9311 2.3938
3.9021 8.0793 2.3938
3.6106 8.2175 2.3938
3.3144 8.3455 2.3938
3.0138 8.4631 2.3938
2.7090 8.5702 2.3938
2.4006 8.6667 2.3938
0.8490 3.5573 0.9730
0.7208 3.5861 0.9725
0.5916 3.6103 0.9721
0.4615 3.6297 0.9715
0.3309 3.6445 0.9710
0.1998 3.6545 0.9704
0.0684 3.6598 0.9698
-0.0631 3.6603 0.9691
-0.1946 3.6561 0.9684
-0.3258 3.6471 0.9677
-0.4566 3.6333 0.9669
-0.5868 3.6149 0.9661
-0.7163 3.5917 0.9653
-0.8449 3.5639 0.9644
-2.4157 8.7737 2.3938
-2.7318 8.6900 2.3938
-3.0451 8.5950 2.3938
8.0257 1.8964 2.3938
7.9481 2.1825 2.3938
7.8606 2.4655 2.3938
7.7633 2.7451 2.3938
7.6563 3.0210 2.3938
7.5397 3.2929 2.3938
7.4138 3.5605 2.3938
7.2786 3.8234 2.3938
7.1344 4.0814 2.3938
6.9813 4.3341 2.3938
6.8195 4.5812 2.3938
6.6492 4.8225 2.3938
6.4706 5.0577 2.3938
6.2839 5.2864 2.3938
6.0893 5.5085 2.3938
5.8872 5.7237 2.3938
5.6776 5.9316 2.3938
5.4609 6.1321 2.3938
5.2374 6.3250 2.3938
5.0072 6.5099 2.3938
4.7707 6.6867 2.3938
4.5281 6.8551 2.3938
4.2797 7.0151 2.3938
4.0258 7.1663 2.3938
3.7668 7.3085 2.3938
3.5028 7.4417 2.3938
3.2343 7.5656 2.3938
2.9614 7.6800 2.3938
2.6847 7.7849 2.3938
2.4043 7.8801 2.3938
0.8597 3.2292 0.9705
0.7432 3.2586 0.9701
0.6258 3.2837 0.9697
0.5074 3.3046 0.9693
0.3884 3.3212 0.9688
0.2689 3.3334 0.9683
0.1490 3.3414 0.9677
0.0288 3.3450 0.9672
-0.0914 3.3442 0.9665
-0.2114 3.3391 0.9659
-0.3313 3.3297 0.9652
-0.4507 3.3159 0.9645
-0.5695 3.2979 0.9638
-0.6877 3.2755 0.9630
-0.8049 3.2489 0.9622
-2.2935 8.0131 2.3938
-2.5821 7.9330 2.3938
-2.8680 7.8426 2.3938
-3.1508 7.7421 2.3938
-3.4300 7.6315 2.3938
-3.7054 7.5109 2.3938
-3.9766 7.3805 2.3938
-4.2432 7.2405 2.3938
-4.5050 7.0908 2.3938
-4.7615 6.9318 2.3938
-5.0124 6.7636 2.3938
-5.2574 6.5864 2.3938
-5.4961 6.4003 2.3938
-5.7283 6.2057 2.3938
-5.9535 6.0026 2.3938
-6.1716 5.7914 2.3938
-6.3821 5.5723 2.3938
-6.5848 5.3456 2.3938
-6.7795 5.1115 2.3938
-6.9658 4.8702 2.3938
-7.1434 4.6222 2.3938
-7.3122 4.3678 2.3938
-7.4718 4.1071 2.3938
-7.6221 3.8406 2.3938
-7.7627 3.5686 2.3938
-7.8936 3.2914 2.3938
-8.0144 3.0094 2.3938
-8.1250 2.7229 2.3938
-8.2252 2.4324 2.3938
-8.3149 2.1381 2.3938
-8.3939 1.8406 2.3938
-8.4621 1.5401 2.3938
-8.5194 1.2371 2.3938
-8.5656 0.9319 2.3938
-8.6006 0.6250 2.3938
-8.6245 0.3169 2.3938
-8.6371 0.0078 2.3938
-8.6383 -0.3017 2.3938
-8.6283 -0.6113 2.3938
-8.6069 -0.9205 2.3938
-8.5742 -1.2289 2.3938
-8.5301 -1.5361 2.3938
-8.4748 -1.8417 2.3938
-8.4083 -2.1451 2.3938
-8.3306 -2.4461 2.3938
-8.2419 -2.7442 2.3938
-8.1422 -3.0389 2.3938
-8.0317 -3.3298 2.3938
-7.9106 -3.6167 2.3938
-7.7789 -3.8989 2.3938
-7.6369 -4.1762 2.3938
-7.4847 -4.4482 2.3938
-7.3225 -4.7144 2.3938
-7.1506 -4.9745 2.3938
-6.9692 -5.2282 2.3938
-6.7786 -5.4750 2.3938
-6.5789 -5.7147 2.3938
-6.3705 -5.9468 2.3938
-6.1538 -6.1711 2.3938
-5.9288 -6.3873 2.3938
-5.6961 -6.5950 2.3938
-5.4559 -6.7940 2.3938
-5.2085 -6.9840 2.3938
-4.9543 -7.1646 2.3938
-4.6937 -7.3358 2.3938
-4.4270 -7.4972 2.3938
-4.1546 -7.6486 2.3938
-3.8769 -7.7899 2.3938
-3.5943 -7.9208 2.3938
-3.3072 -8.0411 2.3938
-3.0159 -8.1508 2.3938
-2.7209 -8.2496 2.3938
-2.4226 -8.3375 2.3938
-2.1214 -8.4143 2.3938
-1.8177 -8.4800 2.3938
-1.5121 -8.5344 2.3938
-1.2047 -8.5776 2.3938
-0.8962 -8.6095 2.3938
-0.5870 -8.6300 2.3938
-0.2774 -8.6392 2.3938
0.0322 -8.6370 2.3938
0.3413 -8.6237 2.3938
0.6493 -8.5988 2.3938
0.9561 -8.5629 2.3938
1.2611 -8.5158 2.3938
1.5640 -8.4577 2.3938
1.8643 -8.3887 2.3938
2.1616 -8.3089 2.3938
2.4556 -8.2183 2.3938
2.7459 -8.1173 2.3938
3.0320 -8.0058 2.3938
3.3137 -7.8842 2.3938
3.5905 -7.7526 2.3938
3.8621 -7.6112 2.3938
4.1282 -7.4602 2.3938
4.3884 -7.2998 2.3938
4.6424 -7.1304 2.3938
4.8899 -6.9520 2.3938
5.1306 -6.7650 2.3938
5.3641 -6.5697 2.3938
5.5903 -6.3663 2.3938
5.8088 -6.1552 2.3938
6.0194 -5.9365 2.3938
6.2218 -5.7107 2.3938
6.4158 -5.4780 2.3938
6.6012 -5.2388 2.3938
6.7777 -4.9933 2.3938
6.9453 -4.7419 2.3938
7.1035 -4.4850 2.3938
7.2524 -4.2228 2.3938
7.3917 -3.9557 2.3938
7.5214 -3.6842 2.3938
7.6412 -3.4086 2.3938
7.7509 -3.1289 2.3938
7.8507 -2.8459 2.3938
7.9402 -2.5597 2.3938
8.0196 -2.2709 2.3938
8.0885 -1.9796 2.3938
8.1471 -1.6864 2.3938
8.1953 -1.3915 2.3938
8.2330 -1.0954 2.3938
8.2602 -0.7983 2.3938
8.2769 -0.5007 2.3938
8.2832 -0.2029 2.3938
8.2789 0.0947 2.3938
8.2642 0.3918 2.3938
8.2391 0.6880 2.3938
8.2036 0.9829 2.3938
8.1578 1.2763 2.3938
8.1018 1.5676 2.3938
8.0356 1.8567 2.3938
7.9594 2.1431 2.3938
7.8733 2.4265 2.3938
7.7773 2.7066 2.3938
7.6716 2.9831 2.3938
7.5564 3.2556 2.3938
7.4317 3.5238 2.3938
7.2978 3.7874 2.3938
7.1548 4.0460 2.3938
7.0030 4.2995 2.3938
6.8423 4.5474 2.3938
6.6732 4.7895 2.3938
6.4957 5.0255 2.3938
6.3101 5.2552 2.3938
6.1167 5.4782 2.3938
5.9155 5.6943 2.3938
5.7070 5.9033 2.3938
5.4913 6.1049 2.3938
5.2687 6.2988 2.3938
5.0394 6.4848 2.3938
4.8037 6.6627 2.3938
4.5619 6.8324 2.3938
4.3144 6.9935 2.3938
4.0612 7.1459 2.3938
3.8029 7.2894 2.3938
3.5396 7.4238 2.3938
3.2716 7.5490 2.3938
2.9994 7.6648 2.3938
2.7231 7.7710 2.3938
2.4433 7.8675 2.3938
0.8757 3.2249 0.9705
0.7594 3.2548 0.9702
0.6420 3.2805 0.9698
0.5238 3.3019 0.9693
0.4049 3.3191 0.9689
0.2854 3.3320 0.9684
0.1656 3.3405 0.9678
0.0454 3.3447 0.9672
-0.0747 3.3446 0.9666
-0.1949 3.3401 0.9660
-0.3147 3.3312 0.9653
-0.4342 3.3181 0.9646
-0.5532 3.3006 0.9639
-0.6714 3.2789 0.9631
-0.7887 3.2528 0.9623
-0.9051 3.2226 0.9615
-2.5424 7.9447 2.3938
-2.8287 7.8557 2.3938
-3.1119 7.7566 2.3938
-3.3916 7.6474 2.3938
-3.6676 7.5282 2.3938
-3.9394 7.3991 2.3938
-4.2067 7.2604 2.3938
-4.4691 7.1121 2.3938
-4.7264 6.9544 2.3938
-4.9781 6.7874 2.3938
-5.2239 6.6114 2.3938
-5.4635 6.4266 2.3938
-5.6966 6.2331 2.3938
-5.9228 6.0312 2.3938
-6.1419 5.8211 2.3938
-6.3535 5.6031 2.3938
-6.5573 5.3773 2.3938
-6.7531 5.1442 2.3938
-6.9406 4.9040 2.3938
-7.1194 4.6569 2.3938
-7.2894 4.4033 2.3938
-7.4503 4.1435 2.3938
-7.6019 3.8778 2.3938
-7.7439 3.6065 2.3938
-7.8761 3.3300 2.3938
-7.9983 3.0486 2.3938
-8.1103 2.7628 2.3938
-8.2120 2.4728 2.3938
-8.3032 2.1790 2.3938
-8.3837 1.8819 2.3938
-8.4534 1.5818 2.3938
-8.5121 1.2791 2.3938
-8.5598 0.9742 2.3938
-8.5964 0.6675 2.3938
-8.6219 0.3595 2.3938
-8.6360 0.0505 2.3938
-8.6388 -0.2590 2.3938
-8.6304 -0.5686 2.3938
-8.6105 -0.8779 2.3938
-8.5794 -1.1864 2.3938
-8.5369 -1.4938 2.3938
-8.4831 -1.7996 2.3938
-8.4181 -2.1033 2.3938
-8.3420 -2.4047 2.3938
-8.2548 -2.7032 2.3938
-8.1566 -2.9983 2.3938
-8.0477 -3.2899 2.3938
-7.9280 -3.5773 2.3938
-7.7977 -3.8602 2.3938
-7.6571 -4.1382 2.3938
-7.5063 -4.4109 2.3938
-7.3455 -4.6780 2.3938
-7.1749 -4.9390 2.3938
-6.9949 -5.1935 2.3938
-6.8055 -5.4413 2.3938
-6.6070 -5.6820 2.3938
-6.3999 -5.9152 2.3938
-6.1842 -6.1406 2.3938
-5.9604 -6.3579 2.3938
-5.7287 -6.5668 2.3938
-5.4895 -6.7670 2.3938
-5.2431 -6.9583 2.3938
-4.9898 -7.1402 2.3938
-4.7301 -7.3127 2.3938
-4.4642 -7.4755 2.3938
-4.1926 -7.6283 2.3938
-3.9156 -7.7710 2.3938
-3.6337 -7.9033 2.3938
-3.3471 -8.0251 2.3938
-3.0563 -8.1363 2.3938
-2.7618 -8.2366 2.3938
-2.4640 -8.3260 2.3938
-2.1632 -8.4044 2.3938
-1.8598 -8.4716 2.3938
-1.5544 -8.5276 2.3938
-1.2473 -8.5723 2.3938
-0.9389 -8.6057 2.3938
-0.6297 -8.6278 2.3938
-0.3202 -8.6386 2.3938
-0.0106 -8.6379 2.3938
0.2985 -8.6261 2.3938
0.6068 -8.6029 2.3938
0.9138 -8.5685 2.3938
1.2191 -8.5230 2.3938
1.5222 -8.4664 2.3938
1.8229 -8.3989 2.3938
2.1207 -8.3205 2.3938
2.4152 -8.2315 2.3938
2.7060 -8.1319 2.3938
2.9927 -8.0219 2.3938
3.2750 -7.9016 2.3938
3.5525 -7.7714 2.3938
3.8249 -7.6313 2.3938
4.0918 -7.4816 2.3938
4.3528 -7.3226 2.3938
4.6077 -7.1543 2.3938
4.8561 -6.9772 2.3938
5.0977 -6.7914 2.3938
5.3323 -6.5972 2.3938
5.5595 -6.3949 2.3938
5.7791 -6.1848 2.3938
5.9908 -5.9672 2.3938
6.1943 -5.7423 2.3938
6.3895 -5.5106 2.3938
6.5761 -5.2722 2.3938
6.7539 -5.0275 2.3938
6.9226 -4.7770 2.3938
7.0822 -4.5208 2.3938
7.2324 -4.2593 2.3938
7.3731 -3.9929 2.3938
7.5040 -3.7220 2.3938
7.6252 -3.4469 2.3938
7.7364 -3.1677 2.3938
7.8375 -2.8851 2.3938
7.9285 -2.5994 2.3938
8.0092 -2.3109 2.3938
8.0796 -2.0200 2.3938
8.1397 -1.7270 2.3938
8.1893 -1.4323 2.3938
8.2284 -1.1364 2.3938
8.2571 -0.8394 2.3938
8.2753 -0.5418 2.3938
8.2829 -0.2440 2.3938
8.2801 0.0536 2.3938
8.2668 0.3508 2.3938
8.2432 0.6471 2.3938
8.2091 0.9423 2.3938
8.1647 1.2358 2.3938
8.1101 1.5275 2.3938
8.0454 1.8169 2.3938
7.9706 2.1037 2.3938
7.8858 2.3876 2.3938
7.7912 2.6681 2.3938
7.6868 2.9451 2.3938
7.5729 3.2182 2.3938
7.4495 3.4870 2.3938
7.3169 3.7513 2.3938
7.1752 4.0106 2.3938
7.0245 4.2648 2.3938
6.8651 4.5135 2.3938
6.6971 4.7564 2.3938
6.5207 4.9933 2.3938
6.3363 5.2239 2.3938
6.1439 5.4478 2.3938
5.9438 5.6649 2.3938
5.7362 5.8749 2.3938
5.5215 6.0775 2.3938
5.2998 6.2724 2.3938
5.0714 6.4596 2.3938
4.8367 6.6386 2.3938
4.5957 6.8094 2.3938
4.3489 6.9717 2.3938
4.0965 7.1254 2.3938
3.8389 7.2701 2.3938
3.5762 7.4058 2.3938
3.3089 7.5322 2.3938
3.0373 7.6493 2.3938
2.7615 7.7569 2.3938
2.4821 7.8548 2.3938
0.8917 3.2204 0.9706
0.7755 3.2509 0.9702
0.6583 3.2772 0.9698
0.5402 3.2992 0.9694
0.4214 3.3170 0.9689
0.3020 3.3305 0.9684
0.1821 3.3396 0.9679
0.0620 3.3444 0.9673
-0.0581 3.3448 0.9667
-0.1783 3.3410 0.9661
-0.2982 3.3327 0.9654
-0.4177 3.3202 0.9647
-0.5368 3.3033 0.9640
-0.6551 3.2821 0.9632
-0.7726 3.2567 0.9624
-0.8891 3.2270 0.9616
-2.5026 7.9562 2.3938
-2.7893 7.8686 2.3938
7.3993 1.7476 2.3938
7.3280 2.0114 2.3938
7.2476 2.2725 2.3938
7.1581 2.5304 2.3938
7.0596 2.7850 2.3938
6.9523 3.0358 2.3938
6.8364 3.2827 2.3938
6.7119 3.5252 2.3938
6.5790 3.7632 2.3938
6.4379 3.9963 2.3938
6.2888 4.2244 2.3938
6.1318 4.4470 2.3938
5.9671 4.6639 2.3938
5.7949 4.8749 2.3938
5.6155 5.0798 2.3938
5.4291 5.2783 2.3938
5.2358 5.4701 2.3938
5.0359 5.6550 2.3938
4.8297 5.8328 2.3938
4.6173 6.0033 2.3938
4.3991 6.1664 2.3938
4.1753 6.3216 2.3938
3.9462 6.4690 2.3938
3.7120 6.6084 2.3938
3.4729 6.7394 2.3938
3.2294 6.8621 2.3938
2.9817 6.9761 2.3938
2.7300 7.0815 2.3938
2.4747 7.1780 2.3938
0.8965 2.9393 0.9684
0.7904 2.9701 0.9681
0.6833 2.9970 0.9678
0.5752 3.0201 0.9674
0.4664 3.0393 0.9670
0.3569 3.0545 0.9666
0.2469 3.0658 0.9661
0.1366 3.0731 0.9656
0.0261 3.0764 0.9651
-0.0844 3.0757 0.9645
-0.1949 3.0710 0.9639
-0.3051 3.0623 0.9633
-0.4150 3.0496 0.9626
-0.5243 3.0330 0.9620
-0.6329 3.0124 0.9612
-0.7408 2.9880 0.9605
-0.8476 2.9596 0.9597
-2.3800 7.3077 2.3938
-2.6432 7.2239 2.3938
-2.9034 7.1308 2.3938
-3.1604 7.0284 2.3938
-3.4139 6.9168 2.3938
-3.6634 6.7963 2.3938
-3.9087 6.6667 2.3938
-4.1494 6.5285 2.3938
-4.3853 6.3816 2.3938
-4.6159 6.2262 2.3938
-4.8411 6.0625 2.3938
-5.0605 5.8908 2.3938
-5.2738 5.7112 2.3938
-5.4807 5.5238 2.3938
-5.6810 5.3290 2.3938
-5.8743 5.1269 2.3938
-6.0604 4.9179 2.3938
-6.2390 4.7021 2.3938
-6.4099 4.4798 2.3938
-6.5728 4.2513 2.3938
-6.7276 4.0169 2.3938
-6.8739 3.7768 2.3938
-7.0116 3.5314 2.3938
-7.1404 3.2809 2.3938
-7.2602 3.0258 2.3938
-7.3707 2.7662 2.3938
-7.4719 2.5026 2.3938
-7.5635 2.2353 2.3938
-7.6455 1.9647 2.3938
-7.7176 1.6910 2.3938
-7.7797 1.4146 2.3938
-7.8318 1.1360 2.3938
-7.8738 0.8555 2.3938
-7.9055 0.5734 2.3938
-7.9270 0.2901 2.3938
-7.9380 0.0061 2.3938
-7.9388 -0.2783 2.3938
-7.9291 -0.5628 2.3938
-7.9090 -0.8469 2.3938
-7.8786 -1.1302 2.3938
-7.8377 -1.4123 2.3938
-7.7865 -1.6929 2.3938
-7.7251 -1.9716 2.3938
-7.6534 -2.2480 2.3938
-7.5716 -2.5217 2.3938
-7.4798 -2.7923 2.3938
-7.3781 -3.0595 2.3938
-7.2666 -3.3228 2.3938
-7.1455 -3.5820 2.3938
-7.0148 -3.8365 2.3938
-6.8749 -4.0862 2.3938
-6.7259 -4.3306 2.3938
-6.5679 -4.5695 2.3938
-6.4012 -4.8022 2.3938
-6.2261 -5.0289 2.3938
-6.0427 -5.2490 2.3938
-5.8513 -5.4622 2.3938
-5.6522 -5.6682 2.3938
-5.4456 -5.8667 2.3938
-5.2319 -6.0575 2.3938
-5.0114 -6.2402 2.3938
-4.7843 -6.4147 2.3938
-4.5509 -6.5808 2.3938
-4.3116 -6.7380 2.3938
-4.0668 -6.8864 2.3938
-3.8167 -7.0256 2.3938
-3.5618 -7.1555 2.3938
-3.3023 -7.2759 2.3938
-3.0386 -7.3867 2.3938
-2.7712 -7.4877 2.3938
-2.5003 -7.5787 2.3938
-2.2264 -7.6597 2.3938
-1.9498 -7.7306 2.3938
-1.6709 -7.7913 2.3938
-1.3902 -7.8417 2.3938
-1.1079 -7.8817 2.3938
-0.8245 -7.9114 2.3938
-0.5404 -7.9307 2.3938
-0.2559 -7.9395 2.3938
0.0285 -7.9380 2.3938
0.3125 -7.9261 2.3938
0.5957 -7.9039 2.3938
0.8777 -7.8713 2.3938
1.1581 -7.8286 2.3938
1.4366 -7.7757 2.3938
1.7127 -7.7128 2.3938
1.9862 -7.6399 2.3938
2.2567 -7.5572 2.3938
2.5237 -7.4648 2.3938
2.7870 -7.3629 2.3938
3.0462 -7.2516 2.3938
3.3011 -7.1311 2.3938
3.5511 -7.0016 2.3938
3.7962 -6.8632 2.3938
4.0358 -6.7162 2.3938
4.2698 -6.5608 2.3938
4.4979 -6.3972 2.3938
4.7197 -6.2257 2.3938
4.9350 -6.0465 2.3938
5.1435 -5.8597 2.3938
5.3450 -5.6659 2.3938
5.5393 -5.4651 2.3938
5.7260 -5.2577 2.3938
5.9050 -5.0437 2.3938
6.0762 -4.8240 2.3938
6.2392 -4.5983 2.3938
6.3939 -4.3672 2.3938
6.5402 -4.1310 2.3938
6.6778 -3.8898 2.3938
6.8066 -3.6442 2.3938
6.9265 -3.3943 2.3938
7.0373 -3.1406 2.3938
7.1390 -2.8833 2.3938
7.2313 -2.6228 2.3938
7.3143 -2.3593 2.3938
7.3879 -2.0933 2.3938
7.4520 -1.8251 2.3938
7.5065 -1.5550 2.3938
7.5513 -1.2834 2.3938
7.5865 -1.0105 2.3938
7.6121 -0.7368 2.3938
7.6279 -0.4625 2.3938
7.6341 -0.1880 2.3938
7.6306 0.0863 2.3938
7.6174 0.3602 2.3938
7.5946 0.6333 2.3938
7.5623 0.9052 2.3938
7.5204 1.1757 2.3938
7.4691 1.4444 2.3938
7.4084 1.7110 2.3938
7.3384 1.9751 2.3938
7.2592 2.2366 2.3938
7.1710 2.4950 2.3938
7.0737 2.7500 2.3938
6.9677 3.0014 2.3938
6.8529 3.2488 2.3938
6.7296 3.4920 2.3938
6.5979 3.7306 2.3938
6.4579 3.9644 2.3938
6.3098 4.1932 2.3938
6.1539 4.4165 2.3938
5.9903 4.6343 2.3938
5.8192 4.8461 2.3938
5.6407 5.0519 2.3938
5.4553 5.2512 2.3938
5.2629 5.4440 2.3938
5.0639 5.6298 2.3938
4.8586 5.8087 2.3938
4.6471 5.9802 2.3938
4.4296 6.1443 2.3938
4.2066 6.3007 2.3938
3.9782 6.4492 2.3938
3.7446 6.5896 2.3938
3.5063 6.7218 2.3938
3.2633 6.8456 2.3938
3.0162 6.9609 2.3938
2.7650 7.0674 2.3938
2.5102 7.1652 2.3938
0.9111 2.9347 0.9685
0.8051 2.9661 0.9682
0.6981 2.9936 0.9678
0.5902 3.0172 0.9675
0.4814 3.0369 0.9671
0.3720 3.0526 0.9666
0.2621 3.0645 0.9662
0.1519 3.0723 0.9657
0.0414 3.0761 0.9652
-0.0692 3.0760 0.9646
-0.1797 3.0718 0.9640
-0.2899 3.0637 0.9634
-0.3998 3.0516 0.9627
-0.5092 3.0355 0.9620
-0.6180 3.0155 0.9613
-0.7259 2.9916 0.9606
-0.8329 2.9638 0.9599
-2.3434 7.3185 2.3938
-2.6070 7.2360 2.3938
-2.8676 7.1442 2.3938
-3.1251 7.0431 2.3938
-3.3791 6.9328 2.3938
-3.6292 6.8135 2.3938
-3.8750 6.6852 2.3938
-4.1164 6.5481 2.3938
-4.3530 6.4024 2.3938
-4.5844 6.2482 2.3938
-4.8103 6.0856 2.3938
-5.0305 5.9150 2.3938
-5.2447 5.7364 2.3938
-5.4525 5.5501 2.3938
-5.6537 5.3564 2.3938
-5.8480 5.1553 2.3938
-6.0351 4.9472 2.3938
-6.2148 4.7323 2.3938
-6.3868 4.5109 2.3938
-6.5508 4.2832 2.3938
-6.7067 4.0496 2.3938
-6.8542 3.8103 2.3938
-6.9930 3.5656 2.3938
-7.1231 3.3158 2.3938
-7.2442 3.0613 2.3938
-7.3560 2.8023 2.3938
-7.4585 2.5393 2.3938
-7.5514 2.2725 2.3938
-7.6347 2.0022 2.3938
-7.7082 1.7289 2.3938
-7.7717 1.4529 2.3938
-7.8252 1.1746 2.3938
-7.8686 0.8943 2.3938
-7.9017 0.6124 2.3938
-7.9246 0.3293 2.3938
-7.9371 0.0454 2.3938
-7.9393 -0.2390 2.3938
-7.9311 -0.5235 2.3938
-7.9124 -0.8076 2.3938
-7.8834 -1.0911 2.3938
-7.8440 -1.3734 2.3938
-7.7942 -1.6543 2.3938
-7.7342 -1.9332 2.3938
-7.6639 -2.2100 2.3938
-7.5835 -2.4841 2.3938
-7.4931 -2.7551 2.3938
-7.3927 -3.0228 2.3938
-7.2826 -3.2867 2.3938
-7.1627 -3.5464 2.3938
-7.0334 -3.8016 2.3938
-6.8948 -4.0520 2.3938
-6.7470 -4.2972 2.3938
-6.5902 -4.5368 2.3938
-6.4248 -4.7705 2.3938
-6.2508 -4.9980 2.3938
-6.0685 -5.2190 2.3938
-5.8782 -5.4331 2.3938
-5.6801 -5.6401 2.3938
-5.4746 -5.8397 2.3938
-5.2619 -6.0316 2.3938
-5.0423 -6.2155 2.3938
-4.8160 -6.3911 2.3938
-4.5835 -6.5584 2.3938
-4.3450 -6.7168 2.3938
-4.1010 -6.8665 2.3938
-3.8516 -7.0069 2.3938
-3.5973 -7.1381 2.3938
-3.3384 -7.2599 2.3938
-3.0753 -7.3720 2.3938
-2.8084 -7.4743 2.3938
-2.5379 -7.5667 2.3938
-2.2644 -7.6491 2.3938
-1.9882 -7.7214 2.3938
-1.7096 -7.7835 2.3938
-1.4291 -7.8353 2.3938
-1.1470 -7.8768 2.3938
-0.8637 -7.9079 2.3938
-0.5797 -7.9286 2.3938
-0.2953 -7.9389 2.3938
-0.0107 -7.9390 2.3938
0.2733 -7.9284 2.3938
0.5566 -7.9075 2.3938
0.8388 -7.8764 2.3938
1.1195 -7.8351 2.3938
1.3982 -7.7836 2.3938
1.6747 -7.7220 2.3938
1.9486 -7.6505 2.3938
2.2195 -7.5692 2.3938
2.4870 -7.4781 2.3938
2.7509 -7.3775 2.3938
3.0107 -7.2675 2.3938
3.2661 -7.1483 2.3938
3.5169 -7.0200 2.3938
3.7626 -6.8828 2.3938
4.0030 -6.7370 2.3938
4.2378 -6.5828 2.3938
4.4667 -6.4203 2.3938
4.6894 -6.2499 2.3938
4.9056 -6.0717 2.3938
5.1151 -5.8860 2.3938
5.3176 -5.6931 2.3938
5.5129 -5.4932 2.3938
5.7007 -5.2867 2.3938
5.8808 -5.0738 2.3938
6.0530 -4.8547 2.3938
6.2172 -4.6299 2.3938
6.3730 -4.3995 2.3938
6.5204 -4.1639 2.3938
6.6593 -3.9234 2.3938
6.7893 -3.6784 2.3938
6.9104 -3.4291 2.3938
7.0225 -3.1759 2.3938
7.1254 -2.9191 2.3938
7.2191 -2.6589 2.3938
7.3034 -2.3959 2.3938
7.3783 -2.1303 2.3938
7.4437 -1.8623 2.3938
7.4995 -1.5925 2.3938
7.5457 -1.3210 2.3938
7.5822 -1.0483 2.3938
7.6091 -0.7747 2.3938
7.6263 -0.5005 2.3938
7.6338 -0.2260 2.3938
7.6316 0.0484 2.3938
7.6198 0.3224 2.3938
7.5984 0.5956 2.3938
7.5673 0.8677 2.3938
7.5268 1.1384 2.3938
7.4767 1.4074 2.3938
7.4173 1.6743 2.3938
7.3486 1.9388 2.3938
7.2707 2.2006 2.3938
7.1837 2.4594 2.3938
7.0877 2.7150 2.3938
6.9829 2.9669 2.3938
6.8693 3.2149 2.3938
6.7471 3.4586 2.3938
6.6165 3.6979 2.3938
6.4777 3.9324 2.3938
6.3308 4.1619 2.3938
6.1759 4.3860 2.3938
6.0134 4.6045 2.3938
5.8432 4.8172 2.3938
5.6658 5.0238 2.3938
5.4813 5.2241 2.3938
5.2899 5.4177 2.3938
5.0918 5.6046 2.3938
4.8873 5.7844 2.3938
4.6766 5.9570 2.3938
4.4600 6.1221 2.3938
4.2377 6.2795 2.3938
4.0100 6.4291 2.3938
3.7772 6.5707 2.3938
3.5395 6.7040 2.3938
3.2972 6.8290 2.3938
3.0506 6.9455 2.3938
2.7999 7.0532 2.3938
2.5456 7.1522 2.3938
0.9256 2.9301 0.9685
0.8198 2.9620 0.9682
0.7130 2.9900 0.9679
0.6051 3.0141 0.9675
0.4965 3.0344 0.9671
0.3872 3.0507 0.9667
0.2773 3.0631 0.9662
0.1671 3.0714 0.9658
0.0567 3.0758 0.9652
-0.0539 3.0762 0.9647
-0.1644 3.0727 0.9641
-0.2747 3.0651 0.9635
-0.3847 3.0535 0.9628
-0.4941 3.0380 0.9621
-0.6030 3.0185 0.9614
-0.7111 2.9951 0.9607
-0.8182 2.9678 0.9600
-2.3068 7.3291 2.3938
-2.5707 7.2480 2.3938
6.8565 1.6184 2.3938
6.7907 1.8633 2.3938
6.7163 2.1052 2.3938
6.6336 2.3444 2.3938
6.5425 2.5804 2.3938
6.4432 2.8130 2.3938
6.3359 3.0418 2.3938
6.2206 3.2667 2.3938
6.0975 3.4874 2.3938
5.9668 3.7036 2.3938
5.8287 3.9150 2.3938
5.6832 4.1214 2.3938
5.5306 4.3225 2.3938
5.3711 4.5182 2.3938
5.2048 4.7081 2.3938
5.0319 4.8921 2.3938
4.8528 5.0699 2.3938
4.6675 5.2413 2.3938
4.4763 5.4062 2.3938
4.2794 5.5642 2.3938
4.0770 5.7153 2.3938
3.8695 5.8591 2.3938
3.6571 5.9957 2.3938
3.4399 6.1247 2.3938
3.2183 6.2461 2.3938
2.9925 6.3597 2.3938
2.7628 6.4652 2.3938
2.5294 6.5628 2.3938
0.9258 2.6861 0.9666
0.8288 2.7181 0.9664
0.7306 2.7465 0.9661
0.6315 2.7714 0.9658
0.5316 2.7928 0.9654
0.4309 2.8105 0.9651
0.3297 2.8245 0.9647
0.2280 2.8349 0.9642
0.1260 2.8416 0.9638
0.0238 2.8447 0.9633
-0.0785 2.8440 0.9628
-0.1806 2.8397 0.9622
-0.2826 2.8316 0.9616
-0.3842 2.8199 0.9610
-0.4853 2.8046 0.9604
-0.5857 2.7855 0.9597
-0.6855 2.7629 0.9591
-0.7843 2.7367 0.9584
-0.8821 2.7069 0.9576
-2.4487 6.6887 2.3938
-2.6895 6.6021 2.3938
-2.9273 6.5068 2.3938
-3.1618 6.4032 2.3938
-3.3926 6.2911 2.3938
-3.6195 6.1708 2.3938
-3.8421 6.0424 2.3938
-4.0601 5.9060 2.3938
-4.2734 5.7618 2.3938
-4.4815 5.6100 2.3938
-4.6842 5.4506 2.3938
-4.8813 5.2840 2.3938
-5.0724 5.1103 2.3938
-5.2574 4.9297 2.3938
-5.4358 4.7424 2.3938
-5.6076 4.5487 2.3938
-5.7725 4.3488 2.3938
-5.9302 4.1429 2.3938
-6.0805 3.9312 2.3938
-6.2232 3.7141 2.3938
-6.3581 3.4919 2.3938
-6.4850 3.2647 2.3938
-6.6037 3.0329 2.3938
-6.7140 2.7968 2.3938
-6.8159 2.5566 2.3938
-6.9090 2.3128 2.3938
-6.9932 2.0655 2.3938
-7.0686 1.8151 2.3938
-7.1348 1.5620 2.3938
-7.1918 1.3065 2.3938
-7.2396 1.0490 2.3938
-7.2779 0.7896 2.3938
-7.3069 0.5289 2.3938
-7.3263 0.2671 2.3938
-7.3362 0.0046 2.3938
-7.3365 -0.2582 2.3938
-7.3272 -0.5210 2.3938
-7.3083 -0.7834 2.3938
-7.2799 -1.0451 2.3938
-7.2418 -1.3058 2.3938
-7.1943 -1.5650 2.3938
-7.1373 -1.8224 2.3938
-7.0708 -2.0776 2.3938
-6.9950 -2.3303 2.3938
-6.9100 -2.5802 2.3938
-6.8158 -2.8269 2.3938
-6.7127 -3.0701 2.3938
-6.6006 -3.3094 2.3938
-6.4798 -3.5444 2.3938
-6.3505 -3.7749 2.3938
-6.2127 -4.0006 2.3938
-6.0667 -4.2211 2.3938
-5.9127 -4.4361 2.3938
-5.7509 -4.6454 2.3938
-5.5815 -4.8486 2.3938
-5.4048 -5.0454 2.3938
-5.2209 -5.2356 2.3938
-5.0302 -5.4190 2.3938
-4.8328 -5.5952 2.3938
-4.6291 -5.7640 2.3938
-4.4194 -5.9252 2.3938
-4.2040 -6.0786 2.3938
-3.9831 -6.2240 2.3938
-3.7570 -6.3611 2.3938
-3.5261 -6.4898 2.3938
-3.2907 -6.6099 2.3938
-3.0511 -6.7213 2.3938
-2.8077 -6.8238 2.3938
-2.5607 -6.9172 2.3938
-2.3106 -7.0016 2.3938
-2.0576 -7.0766 2.3938
-1.8022 -7.1423 2.3938
-1.5446 -7.1987 2.3938
-1.2853 -7.2455 2.3938
-1.0246 -7.2828 2.3938
-0.7628 -7.3105 2.3938
-0.5003 -7.3287 2.3938
-0.2374 -7.3373 2.3938
0.0253 -7.3362 2.3938
0.2878 -7.3255 2.3938
0.5495 -7.3054 2.3938
0.8101 -7.2757 2.3938
1.0694 -7.2366 2.3938
1.3268 -7.1881 2.3938
1.5822 -7.1303 2.3938
1.8351 -7.0634 2.3938
2.0852 -6.9874 2.3938
2.3323 -6.9024 2.3938
2.5758 -6.8086 2.3938
2.8157 -6.7061 2.3938
3.0515 -6.5951 2.3938
3.2830 -6.4758 2.3938
3.5098 -6.3482 2.3938
3.7317 -6.2127 2.3938
3.9484 -6.0694 2.3938
4.1596 -5.9185 2.3938
4.3650 -5.7602 2.3938
4.5645 -5.5948 2.3938
4.7578 -5.4224 2.3938
4.9445 -5.2434 2.3938
5.1246 -5.0580 2.3938
5.2978 -4.8664 2.3938
5.4639 -4.6688 2.3938
5.6226 -4.4656 2.3938
5.7739 -4.2571 2.3938
5.9175 -4.0434 2.3938
6.0531 -3.8248 2.3938
6.1810 -3.6020 2.3938
6.3007 -3.3749 2.3938
6.4121 -3.1437 2.3938
6.5151 -2.9090 2.3938
6.6096 -2.6709 2.3938
6.6956 -2.4298 2.3938
6.7729 -2.1860 2.3938
6.8414 -1.9397 2.3938
6.9011 -1.6914 2.3938
6.9520 -1.4413 2.3938
6.9939 -1.1898 2.3938
7.0269 -0.9371 2.3938
7.0509 -0.6835 2.3938
7.0660 -0.4295 2.3938
7.0720 -0.1752 2.3938
7.0691 0.0790 2.3938
7.0572 0.3328 2.3938
7.0364 0.5858 2.3938
7.0067 0.8378 2.3938
6.9682 1.0885 2.3938
6.9209 1.3376 2.3938
6.8649 1.5847 2.3938
6.8003 1.8296 2.3938
6.7271 2.0720 2.3938
6.6455 2.3115 2.3938
6.5556 2.5480 2.3938
6.4574 2.7810 2.3938
6.3512 3.0104 2.3938
6.2370 3.2359 2.3938
6.1150 3.4572 2.3938
5.9853 3.6740 2.3938
5.8482 3.8861 2.3938
5.7037 4.0932 2.3938
5.5521 4.2951 2.3938
5.3935 4.4915 2.3938
5.2281 4.6822 2.3938
5.0562 4.8670 2.3938
4.8779 5.0457 2.3938
4.6934 5.2180 2.3938
4.5030 5.3838 2.3938
4.3069 5.5428 2.3938
4.1053 5.6948 2.3938
3.8985 5.8397 2.3938
3.6867 5.9773 2.3938
3.4702 6.1074 2.3938
3.2492 6.2298 2.3938
3.0239 6.3444 2.3938
2.7947 6.4511 2.3938
2.5619 6.5498 2.3938
2.3256 6.6402 2.3938
0.8422 2.7138 0.9664
0.7443 2.7428 0.9661
0.6453 2.7682 0.9658
0.5454 2.7900 0.9655
0.4449 2.8082 0.9651
0.3437 2.8228 0.9647
0.2420 2.8337 0.9643
0.1401 2.8409 0.9638
0.0379 2.8445 0.9633
-0.0644 2.8443 0.9628
-0.1665 2.8405 0.9623
-0.2685 2.8330 0.9617
-0.3702 2.8218 0.9611
-0.4713 2.8069 0.9605
-0.5719 2.7884 0.9598
-0.6717 2.7663 0.9591
-0.7707 2.7405 0.9585
-0.8687 2.7113 0.9577
-2.4152 6.7000 2.3938
-2.6564 6.6145 2.3938
-2.8947 6.5205 2.3938
-3.1296 6.4180 2.3938
-3.3610 6.3071 2.3938
-3.5884 6.1879 2.3938
-3.8116 6.0606 2.3938
-4.0303 5.9253 2.3938
-4.2442 5.7822 2.3938
-4.4530 5.6314 2.3938
-4.6565 5.4731 2.3938
-4.8544 5.3075 2.3938
-5.0464 5.1347 2.3938
-5.2322 4.9551 2.3938
-5.4116 4.7687 2.3938
-5.5843 4.5759 2.3938
-5.7501 4.3768 2.3938
-5.9089 4.1717 2.3938
-6.0602 3.9608 2.3938
-6.2040 3.7445 2.3938
-6.3400 3.5229 2.3938
-6.4680 3.2964 2.3938
-6.5878 3.0652 2.3938
-6.6993 2.8296 2.3938
-6.8023 2.5900 2.3938
-6.8966 2.3467 2.3938
-6.9821 2.0998 2.3938
-7.0587 1.8499 2.3938
-7.1262 1.5972 2.3938
-7.1845 1.3420 2.3938
-7.2335 1.0847 2.3938
-7.2732 0.8255 2.3938
-7.3034 0.5650 2.3938
-7.3242 0.3033 2.3938
-7.3354 0.0409 2.3938
-7.3370 -0.2219 2.3938
-7.3291 -0.4847 2.3938
-7.3115 -0.7472 2.3938
-7.2844 -1.0090 2.3938
-7.2477 -1.2698 2.3938
-7.2014 -1.5293 2.3938
-7.1457 -1.7869 2.3938
-7.0805 -2.0425 2.3938
-7.0060 -2.2956 2.3938
-6.9223 -2.5459 2.3938
-6.8294 -2.7930 2.3938
-6.7274 -3.0367 2.3938
-6.6166 -3.2765 2.3938
-6.4970 -3.5122 2.3938
-6.3688 -3.7434 2.3938
-6.2322 -3.9697 2.3938
-6.0874 -4.1910 2.3938
-5.9345 -4.4068 2.3938
-5.7737 -4.6168 2.3938
-5.6054 -4.8209 2.3938
-5.4296 -5.0186 2.3938
-5.2467 -5.2098 2.3938
-5.0569 -5.3941 2.3938
-4.8605 -5.5713 2.3938
-4.6576 -5.7411 2.3938
-4.4488 -5.9034 2.3938
-4.2341 -6.0579 2.3938
-4.0139 -6.2044 2.3938
-3.7885 -6.3426 2.3938
-3.5583 -6.4725 2.3938
-3.3235 -6.5938 2.3938
-3.0844 -6.7064 2.3938
-2.8415 -6.8102 2.3938
-2.5950 -6.9049 2.3938
-2.3453 -6.9904 2.3938
-2.0927 -7.0668 2.3938
-1.8376 -7.1338 2.3938
-1.5804 -7.1914 2.3938
-1.3213 -7.2396 2.3938
-1.0607 -7.2782 2.3938
-0.7990 -7.3073 2.3938
-0.5366 -7.3267 2.3938
-0.2738 -7.3366 2.3938
-0.0110 -7.3369 2.3938
0.2515 -7.3275 2.3938
0.5134 -7.3087 2.3938
0.7742 -7.2803 2.3938
1.0336 -7.2426 2.3938
1.2914 -7.1954 2.3938
1.5470 -7.1389 2.3938
1.8003 -7.0732 2.3938
2.0508 -6.9984 2.3938
2.2983 -6.9147 2.3938
2.5424 -6.8221 2.3938
2.7828 -6.7208 2.3938
3.0192 -6.6110 2.3938
3.2513 -6.4928 2.3938
3.4787 -6.3663 2.3938
3.7013 -6.2319 2.3938
3.9188 -6.0897 2.3938
4.1307 -5.9398 2.3938
4.3370 -5.7825 2.3938
4.5373 -5.6181 2.3938
4.7315 -5.4467 2.3938
4.9191 -5.2685 2.3938
5.1001 -5.0840 2.3938
5.2743 -4.8932 2.3938
5.4413 -4.6965 2.3938
5.6011 -4.4940 2.3938
5.7534 -4.2862 2.3938
5.8981 -4.0733 2.3938
6.0349 -3.8555 2.3938
6.1638 -3.6331 2.3938
6.2846 -3.4065 2.3938
6.3971 -3.1759 2.3938
6.5014 -2.9416 2.3938
6.5971 -2.7040 2.3938
6.6842 -2.4633 2.3938
6.7627 -2.2198 2.3938
6.8324 -1.9739 2.3938
6.8934 -1.7259 2.3938
6.9455 -1.4760 2.3938
6.9887 -1.2246 2.3938
7.0229 -0.9721 2.3938
7.0481 -0.7186 2.3938
7.0644 -0.4646 2.3938
7.0717 -0.2103 2.3938
7.0700 0.0438 2.3938
7.0594 0.2976 2.3938
7.0399 0.5507 2.3938
7.0114 0.8031 2.3938
6.9741 1.0540 2.3938
6.9280 1.3033 2.3938
6.8732 1.5507 2.3938
6.8097 1.7959 2.3938
6.7377 2.0386 2.3938
6.6573 2.2786 2.3938
6.5685 2.5155 2.3938
6.4715 2.7490 2.3938
6.3663 2.9790 2.3938
6.2533 3.2050 2.3938
6.1323 3.4269 2.3938
6.0037 3.6443 2.3938
5.8676 3.8570 2.3938
5.7241 4.0649 2.3938
5.5735 4.2675 2.3938
5.4158 4.4647 2.3938
5.2514 4.6562 2.3938
5.0803 4.8419 2.3938
4.9029 5.0214 2.3938
4.7193 5.1946 2.3938
4.5297 5.3613 2.3938
4.3343 5.5212 2.3938
4.1335 5.6742 2.3938
3.9274 5.8201 2.3938
3.7163 5.9587 2.3938
3.5004 6.0898 2.3938
3.2799 6.2134 2.3938
3.0553 6.3291 2.3938
2.8266 6.4369 2.3938
2.5943 6.5366 2.3938
2.3585 6.6282 2.3938
0.8557 2.7096 0.9664
0.7579 2.7390 0.9662
0.6590 2.7649 0.9659
0.5593 2.7872 0.9655
0.4588 2.8059 0.9652
0.3577 2.8210 0.9648
0.2561 2.8324 0.9644
0.1542 2.8402 0.9639
0.0520 2.8442 0.9634
-0.0502 2.8446 0.9629
-0.1524 2.8412 0.9624
-0.2544 2.8342 0.9618
-0.3561 2.8235 0.9612
-0.4574 2.8092 0.9606
-0.5580 2.7912 0.9599
-0.6580 2.7695 0.9592
-0.7571 2.7443 0.9585
-0.8552 2.7155 0.9578
-2.3816 6.7111 2.3938
6.3812 1.5058 2.3938
6.3201 1.7335 2.3938
6.2511 1.9588 2.3938
6.1742 2.1814 2.3938
6.0896 2.4012 2.3938
5.9973 2.6177 2.3938
5.8975 2.8309 2.3938
5.7903 3.0403 2.3938
5.6758 3.2458 2.3938
5.5542 3.4471 2.3938
5.4256 3.6440 2.3938
5.2902 3.8362 2.3938
5.1482 4.0235 2.3938
4.9997 4.2056 2.3938
4.8449 4.3825 2.3938
4.6840 4.5538 2.3938
4.5172 4.7193 2.3938
4.3446 4.8789 2.3938
4.1666 5.0324 2.3938
3.9833 5.1795 2.3938
3.7949 5.3201 2.3938
3.6016 5.4540 2.3938
3.4038 5.5810 2.3938
3.2016 5.7011 2.3938
2.9952 5.8140 2.3938
2.7849 5.9196 2.3938
2.5710 6.0178 2.3938
2.3538 6.1084 2.3938
0.8598 2.4954 0.9648
0.7697 2.5251 0.9646
0.6785 2.5515 0.9643
0.5864 2.5746 0.9640
0.4935 2.5944 0.9637
0.4000 2.6109 0.9634
0.3059 2.6239 0.9630
0.2114 2.6336 0.9626
0.1167 2.6398 0.9622
0.0217 2.6426 0.9617
-0.0733 2.6420 0.9612
-0.1682 2.6379 0.9607
-0.2629 2.6305 0.9602
-0.3573 2.6196 0.9596
-0.4512 2.6053 0.9590
-0.5446 2.5876 0.9584
-0.6372 2.5666 0.9578
-0.7290 2.5423 0.9571
-0.8199 2.5146 0.9565
-0.9098 2.4837 0.9558
-2.5025 6.1398 2.3938
-2.7236 6.0509 2.3938
-2.9415 5.9542 2.3938
-3.1559 5.8496 2.3938
-3.3667 5.7374 2.3938
-3.5735 5.6177 2.3938
-3.7761 5.4906 2.3938
-3.9741 5.3562 2.3938
-4.1674 5.2147 2.3938
-4.3556 5.0663 2.3938
-4.5385 4.9111 2.3938
-4.7159 4.7493 2.3938
-4.8876 4.5812 2.3938
-5.0532 4.4068 2.3938
-5.2125 4.2265 2.3938
-5.3654 4.0405 2.3938
-5.5117 3.8489 2.3938
-5.6510 3.6520 2.3938
-5.7833 3.4501 2.3938
-5.9083 3.2434 2.3938
-6.0258 3.0321 2.3938
-6.1358 2.8166 2.3938
-6.2379 2.5971 2.3938
-6.3321 2.3739 2.3938
-6.4183 2.1472 2.3938
-6.4962 1.9175 2.3938
-6.5658 1.6848 2.3938
-6.6270 1.4497 2.3938
-6.6796 1.2124 2.3938
-6.7236 0.9731 2.3938
-6.7589 0.7322 2.3938
-6.7855 0.4901 2.3938
-6.8032 0.2470 2.3938
-6.8121 0.0033 2.3938
-6.8121 -0.2407 2.3938
-6.8032 -0.4846 2.3938
-6.7854 -0.7282 2.3938
-6.7587 -0.9711 2.3938
-6.7231 -1.2130 2.3938
-6.6787 -1.4535 2.3938
-6.6256 -1.6924 2.3938
-6.5637 -1.9292 2.3938
-6.4932 -2.1638 2.3938
-6.4141 -2.3957 2.3938
-6.3266 -2.6245 2.3938
-6.2307 -2.8501 2.3938
-6.1266 -3.0721 2.3938
-6.0144 -3.2902 2.3938
-5.8942 -3.5041 2.3938
-5.7663 -3.7135 2.3938
-5.6308 -3.9181 2.3938
-5.4878 -4.1176 2.3938
-5.3376 -4.3117 2.3938
-5.1804 -4.5002 2.3938
-5.0163 -4.6829 2.3938
-4.8457 -4.8594 2.3938
-4.6687 -5.0295 2.3938
-4.4856 -5.1934 2.3938
-4.2966 -5.3497 2.3938
-4.1021 -5.4994 2.3938
-3.9021 -5.6418 2.3938
-3.6972 -5.7768 2.3938
-3.4875 -5.9041 2.3938
-3.2732 -6.0236 2.3938
-3.0548 -6.1352 2.3938
-2.8325 -6.2387 2.3938
-2.6067 -6.3340 2.3938
-2.3775 -6.4208 2.3938
-2.1455 -6.4993 2.3938
-1.9107 -6.5691 2.3938
-1.6737 -6.6303 2.3938
-1.4347 -6.6829 2.3938
-1.1940 -6.7265 2.3938
-0.9521 -6.7614 2.3938
-0.7091 -6.7874 2.3938
-0.4654 -6.8045 2.3938
-0.2214 -6.8127 2.3938
0.0226 -6.8120 2.3938
0.2662 -6.8025 2.3938
0.5093 -6.7840 2.3938
0.7513 -6.7568 2.3938
0.9921 -6.7208 2.3938
1.2312 -6.6761 2.3938
1.4684 -6.6228 2.3938
1.7034 -6.5610 2.3938
1.9358 -6.4907 2.3938
2.1654 -6.4122 2.3938
2.3917 -6.3254 2.3938
2.6147 -6.2305 2.3938
2.8339 -6.1278 2.3938
3.0491 -6.0172 2.3938
3.2600 -5.8991 2.3938
3.4664 -5.7735 2.3938
3.6679 -5.6407 2.3938
3.8644 -5.5008 2.3938
4.0556 -5.3540 2.3938
4.2412 -5.2006 2.3938
4.4211 -5.0407 2.3938
4.5949 -4.8746 2.3938
4.7626 -4.7025 2.3938
4.9239 -4.5247 2.3938
5.0785 -4.3413 2.3938
5.2264 -4.1527 2.3938
5.3674 -3.9590 2.3938
5.5012 -3.7606 2.3938
5.6278 -3.5577 2.3938
5.7469 -3.3505 2.3938
5.8585 -3.1394 2.3938
5.9624 -2.9246 2.3938
6.0586 -2.7065 2.3938
6.1469 -2.4852 2.3938
6.2271 -2.2610 2.3938
6.2994 -2.0344 2.3938
6.3634 -1.8054 2.3938
6.4193 -1.5745 2.3938
6.4669 -1.3419 2.3938
6.5063 -1.1079 2.3938
6.5373 -0.8728 2.3938
6.5599 -0.6370 2.3938
6.5742 -0.4006 2.3938
6.5801 -0.1639 2.3938
6.5777 0.0726 2.3938
6.5669 0.3088 2.3938
6.5478 0.5443 2.3938
6.5204 0.7789 2.3938
6.4847 1.0122 2.3938
6.4409 1.2441 2.3938
6.3890 1.4741 2.3938
6.3290 1.7021 2.3938
6.2611 1.9278 2.3938
6.1853 2.1508 2.3938
6.1017 2.3710 2.3938
6.0105 2.5880 2.3938
5.9117 2.8016 2.3938
5.8055 3.0116 2.3938
5.6920 3.2176 2.3938
5.5714 3.4195 2.3938
5.4438 3.6170 2.3938
5.3093 3.8099 2.3938
5.1682 3.9979 2.3938
5.0206 4.1808 2.3938
4.8666 4.3584 2.3938
4.7066 4.5305 2.3938
4.5406 4.6968 2.3938
4.3688 4.8572 2.3938
4.1915 5.0115 2.3938
4.0089 5.1595 2.3938
3.8212 5.3010 2.3938
3.6286 5.4359 2.3938
3.4314 5.5639 2.3938
3.2297 5.6849 2.3938
3.0240 5.7988 2.3938
2.8142 5.9054 2.3938
2.6008 6.0046 2.3938
2.3840 6.0963 2.3938
0.8722 2.4910 0.9648
0.7822 2.5212 0.9646
0.6911 2.5481 0.9644
0.5992 2.5716 0.9641
0.5064 2.5919 0.9638
0.4129 2.6088 0.9634
0.3189 2.6223 0.9631
0.2245 2.6324 0.9627
0.1298 2.6391 0.9622
0.0348 2.6424 0.9618
-0.0602 2.6423 0.9613
-0.1551 2.6387 0.9608
-0.2498 2.6317 0.9602
-0.3443 2.6213 0.9597
-0.4383 2.6075 0.9591
-0.5317 2.5903 0.9585
-0.6245 2.5697 0.9579
-0.7164 2.5458 0.9572
-0.8074 2.5186 0.9566
-0.8974 2.4882 0.9559
-2.4718 6.1515 2.3938
-2.6932 6.0637 2.3938
-2.9116 5.9680 2.3938
-3.1265 5.8645 2.3938
-3.3378 5.7534 2.3938
-3.5452 5.6347 2.3938
-3.7484 5.5086 2.3938
-3.9470 5.3752 2.3938
-4.1410 5.2347 2.3938
-4.3299 5.0872 2.3938
-4.5136 4.9329 2.3938
-4.6918 4.7721 2.3938
-4.8642 4.6048 2.3938
-5.0306 4.4313 2.3938
-5.1909 4.2518 2.3938
-5.3447 4.0665 2.3938
-5.4919 3.8757 2.3938
-5.6322 3.6795 2.3938
-5.7654 3.4783 2.3938
-5.8914 3.2722 2.3938
-6.0100 3.0616 2.3938
-6.1210 2.8466 2.3938
-6.2243 2.6276 2.3938
-6.3196 2.4049 2.3938
-6.4068 2.1787 2.3938
-6.4859 1.9494 2.3938
-6.5567 1.7172 2.3938
-6.6190 1.4824 2.3938
-6.6728 1.2453 2.3938
-6.7180 1.0063 2.3938
-6.7545 0.7656 2.3938
-6.7823 0.5236 2.3938
-6.8013 0.2807 2.3938
-6.8114 0.0370 2.3938
-6.8126 -0.2069 2.3938
-6.8049 -0.4510 2.3938
-6.7883 -0.6946 2.3938
-6.7629 -0.9376 2.3938
-6.7286 -1.1797 2.3938
-6.6854 -1.4204 2.3938
-6.6335 -1.6595 2.3938
-6.5728 -1.8967 2.3938
-6.5034 -2.1315 2.3938
-6.4255 -2.3638 2.3938
-6.3392 -2.5931 2.3938
-6.2444 -2.8192 2.3938
-6.1414 -3.0417 2.3938
-6.0303 -3.2603 2.3938
-5.9113 -3.4748 2.3938
-5.7844 -3.6848 2.3938
-5.6499 -3.8901 2.3938
-5.5080 -4.0903 2.3938
-5.3588 -4.2852 2.3938
-5.2025 -4.4745 2.3938
-5.0394 -4.6580 2.3938
-4.8697 -4.8354 2.3938
-4.6935 -5.0067 2.3938
-4.5113 -5.1709 2.3938
-4.3231 -5.3285 2.3938
-4.1293 -5.4791 2.3938
-3.9301 -5.6226 2.3938
-3.7258 -5.7586 2.3938
-3.5167 -5.8869 2.3938
-3.3031 -6.0076 2.3938
-3.0852 -6.1203 2.3938
-2.8635 -6.2249 2.3938
-2.6381 -6.3213 2.3938
-2.4094 -6.4093 2.3938
-2.1777 -6.4889 2.3938
-1.9433 -6.5600 2.3938
-1.7066 -6.6224 2.3938
-1.4678 -6.6761 2.3938
-1.2274 -6.7210 2.3938
-0.9856 -6.7571 2.3938
-0.7427 -6.7843 2.3938
-0.4991 -6.8027 2.3938
-0.2551 -6.8121 2.3938
-0.0111 -6.8126 2.3938
0.2326 -6.8043 2.3938
0.4757 -6.7871 2.3938
0.7180 -6.7611 2.3938
0.9589 -6.7263 2.3938
1.1983 -6.6828 2.3938
1.4358 -6.6307 2.3938
1.6711 -6.5701 2.3938
1.9038 -6.5010 2.3938
2.1338 -6.4235 2.3938
2.3607 -6.3379 2.3938
2.5841 -6.2441 2.3938
2.8038 -6.1424 2.3938
3.0196 -6.0330 2.3938
3.2311 -5.9159 2.3938
3.4381 -5.7913 2.3938
3.6404 -5.6595 2.3938
3.8376 -5.5205 2.3938
4.0295 -5.3747 2.3938
4.2159 -5.2222 2.3938
4.3966 -5.0632 2.3938
4.5713 -4.8979 2.3938
4.7398 -4.7266 2.3938
4.9020 -4.5496 2.3938
5.0576 -4.3670 2.3938
5.2064 -4.1790 2.3938
5.3483 -3.9860 2.3938
5.4831 -3.7883 2.3938
5.6107 -3.5860 2.3938
5.7309 -3.3794 2.3938
5.8435 -3.1686 2.3938
5.9485 -2.9545 2.3938
6.0458 -2.7368 2.3938
6.1351 -2.5159 2.3938
6.2165 -2.2922 2.3938
6.2899 -2.0658 2.3938
6.3551 -1.8372 2.3938
6.4121 -1.6065 2.3938
6.4608 -1.3741 2.3938
6.5013 -1.1403 2.3938
6.5335 -0.9054 2.3938
6.5573 -0.6696 2.3938
6.5727 -0.4332 2.3938
6.5798 -0.1966 2.3938
6.5785 0.0399 2.3938
6.5689 0.2762 2.3938
6.5509 0.5118 2.3938
6.5246 0.7465 2.3938
6.4901 0.9801 2.3938
6.4475 1.2121 2.3938
6.3966 1.4425 2.3938
6.3378 1.6708 2.3938
6.2709 1.8968 2.3938
6.1962 2.1202 2.3938
6.1137 2.3408 2.3938
6.0235 2.5582 2.3938
5.9258 2.7723 2.3938
5.8206 2.9828 2.3938
5.7081 3.1894 2.3938
5.5885 3.3919 2.3938
5.4618 3.5900 2.3938
5.3283 3.7835 2.3938
5.1881 3.9722 2.3938
5.0414 4.1558 2.3938
4.8883 4.3342 2.3938
4.7291 4.5070 2.3938
4.5638 4.6742 2.3938
4.3929 4.8354 2.3938
4.2163 4.9906 2.3938
4.0345 5.1395 2.3938
3.8474 5.2819 2.3938
3.6555 5.4176 2.3938
3.4589 5.5466 2.3938
3.2579 5.6686 2.3938
3.0526 5.7835 2.3938
2.8434 5.8911 2.3938
2.6305 5.9914 2.3938
2.4141 6.0841 2.3938
0.8846 2.4866 0.9649
0.7947 2.5172 0.9647
0.7038 2.5445 0.9644
0.6119 2.5686 0.9641
0.5193 2.5893 0.9638
0.4259 2.6067 0.9635
0.3320 2.6207 0.9631
0.2376 2.6312 0.9627
0.1429 2.6384 0.9623
0.0480 2.6422 0.9618
-0.0470 2.6425 0.9614
-0.1420 2.6394 0.9609
-0.2368 2.6329 0.9603
-0.3312 2.6229 0.9598
-0.4253 2.6096 0.9592
-0.5188 2.5929 0.9586
-0.6117 2.5728 0.9580
-0.7038 2.5493 0.9573
-0.7949 2.5226 0.9566
-0.8850 2.4926 0.9560
5.9611 1.4060 2.3938
5.9042 1.6188 2.3938
5.8399 1.8293 2.3938
5.7681 2.0374 2.3938
5.6892 2.2428 2.3938
5.6031 2.4452 2.3938
5.5099 2.6444 2.3938
5.4098 2.8401 2.3938
5.3029 3.0322 2.3938
5.1893 3.2203 2.3938
5.0692 3.4043 2.3938
4.9428 3.5840 2.3938
4.8101 3.7590 2.3938
4.6713 3.9293 2.3938
4.5267 4.0946 2.3938
4.3763 4.2547 2.3938
4.2204 4.4094 2.3938
4.0592 4.5585 2.3938
3.8928 4.7019 2.3938
3.7215 4.8393 2.3938
3.5454 4.9707 2.3938
3.3648 5.0957 2.3938
3.1799 5.2144 2.3938
2.9908 5.3265 2.3938
2.7980 5.4320 2.3938
2.6014 5.5306 2.3938
2.4015 5.6222 2.3938
0.8848 2.2967 0.9634
0.8017 2.3274 0.9632
0.7176 2.3551 0.9630
0.6326 2.3798 0.9628
0.5466 2.4013 0.9625
0.4600 2.4198 0.9622
0.3728 2.4351 0.9619
0.2850 2.4472 0.9615
0.1969 2.4562 0.9612
0.1085 2.4620 0.9608
0.0199 2.4646 0.9603
-0.0687 2.4641 0.9599
-0.1572 2.4603 0.9594
-0.2456 2.4533 0.9589
-0.3336 2.4431 0.9584
-0.4212 2.4298 0.9578
-0.5083 2.4133 0.9573
-0.5947 2.3937 0.9567
-0.6804 2.3710 0.9561
-0.7652 2.3452 0.9554
-0.8490 2.3164 0.9548
-2.3375 5.7318 2.3938
-2.5438 5.6486 2.3938
-2.7471 5.5580 2.3938
-2.9472 5.4601 2.3938
-3.1438 5.3551 2.3938
-3.3367 5.2431 2.3938
-3.5255 5.1241 2.3938
-3.7102 4.9984 2.3938
-3.8904 4.8661 2.3938
-4.0659 4.7273 2.3938
-4.2364 4.5823 2.3938
-4.4017 4.4311 2.3938
-4.5616 4.2739 2.3938
-4.7159 4.1110 2.3938
-4.8643 3.9426 2.3938
-5.0067 3.7688 2.3938
-5.1429 3.5899 2.3938
-5.2726 3.4060 2.3938
-5.3957 3.2175 2.3938
-5.5121 3.0245 2.3938
-5.6214 2.8273 2.3938
-5.7237 2.6261 2.3938
-5.8187 2.4213 2.3938
-5.9062 2.2130 2.3938
-5.9863 2.0015 2.3938
-6.0587 1.7872 2.3938
-6.1233 1.5702 2.3938
-6.1801 1.3509 2.3938
-6.2289 1.1295 2.3938
-6.2696 0.9064 2.3938
-6.3023 0.6818 2.3938
-6.3268 0.4560 2.3938
-6.3430 0.2294 2.3938
-6.3511 0.0022 2.3938
-6.3508 -0.2252 2.3938
-6.3423 -0.4526 2.3938
-6.3255 -0.6797 2.3938
-6.3004 -0.9061 2.3938
-6.2671 -1.1315 2.3938
-6.2255 -1.3556 2.3938
-6.1758 -1.5782 2.3938
-6.1180 -1.7989 2.3938
-6.0521 -2.0174 2.3938
-5.9782 -2.2334 2.3938
-5.8965 -2.4467 2.3938
-5.8071 -2.6569 2.3938
-5.7099 -2.8637 2.3938
-5.6053 -3.0669 2.3938
-5.4933 -3.2661 2.3938
-5.3740 -3.4612 2.3938
-5.2477 -3.6518 2.3938
-5.1144 -3.8376 2.3938
-4.9744 -4.0185 2.3938
-4.8279 -4.1941 2.3938
-4.6750 -4.3643 2.3938
-4.5160 -4.5288 2.3938
-4.3511 -4.6873 2.3938
-4.1805 -4.8397 2.3938
-4.0044 -4.9857 2.3938
-3.8232 -5.1252 2.3938
-3.6369 -5.2579 2.3938
-3.4460 -5.3837 2.3938
-3.2506 -5.5025 2.3938
-3.0510 -5.6139 2.3938
-2.8476 -5.7180 2.3938
-2.6405 -5.8145 2.3938
-2.4300 -5.9034 2.3938
-2.2165 -5.9845 2.3938
-2.0003 -6.0578 2.3938
-1.7816 -6.1230 2.3938
-1.5608 -6.1802 2.3938
-1.3381 -6.2293 2.3938
-1.1138 -6.2703 2.3938
-0.8883 -6.3029 2.3938
-0.6618 -6.3274 2.3938
-0.4347 -6.3436 2.3938
-0.2073 -6.3514 2.3938
0.0201 -6.3510 2.3938
0.2473 -6.3424 2.3938
0.4739 -6.3255 2.3938
0.6996 -6.3003 2.3938
0.9241 -6.2670 2.3938
1.1471 -6.2256 2.3938
1.3683 -6.1762 2.3938
1.5875 -6.1189 2.3938
1.8043 -6.0536 2.3938
2.0184 -5.9806 2.3938
2.2297 -5.9000 2.3938
2.4377 -5.8118 2.3938
2.6423 -5.7162 2.3938
2.8432 -5.6134 2.3938
3.0400 -5.5035 2.3938
3.2327 -5.3866 2.3938
3.4209 -5.2630 2.3938
3.6044 -5.1328 2.3938
3.7829 -4.9961 2.3938
3.9563 -4.8532 2.3938
4.1243 -4.7043 2.3938
4.2868 -4.5495 2.3938
4.4435 -4.3892 2.3938
4.5942 -4.2234 2.3938
4.7388 -4.0525 2.3938
4.8771 -3.8767 2.3938
5.0089 -3.6961 2.3938
5.1340 -3.5111 2.3938
5.2524 -3.3218 2.3938
5.3639 -3.1286 2.3938
5.4684 -2.9317 2.3938
5.5656 -2.7312 2.3938
5.6557 -2.5278 2.3938
5.7384 -2.3213 2.3938
5.8137 -2.1121 2.3938
5.8814 -1.9005 2.3938
5.9415 -1.6868 2.3938
5.9939 -1.4712 2.3938
6.0387 -1.2541 2.3938
6.0756 -1.0356 2.3938
6.1048 -0.8161 2.3938
6.1262 -0.5958 2.3938
6.1398 -0.3750 2.3938
6.1456 -0.1540 2.3938
6.1435 0.0669 2.3938
6.1336 0.2876 2.3938
6.1160 0.5076 2.3938
6.0906 0.7268 2.3938
6.0575 0.9448 2.3938
6.0167 1.1614 2.3938
5.9684 1.3764 2.3938
5.9125 1.5895 2.3938
5.8492 1.8004 2.3938
5.7785 2.0088 2.3938
5.7005 2.2146 2.3938
5.6154 2.4174 2.3938
5.5232 2.6171 2.3938
5.4240 2.8133 2.3938
5.3181 3.0059 2.3938
5.2054 3.1946 2.3938
5.0862 3.3792 2.3938
4.9606 3.5594 2.3938
4.8288 3.7351 2.3938
4.6909 3.9061 2.3938
4.5470 4.0721 2.3938
4.3974 4.2329 2.3938
4.2423 4.3883 2.3938
4.0818 4.5382 2.3938
3.9161 4.6824 2.3938
3.7454 4.8207 2.3938
3.5700 4.9529 2.3938
3.3900 5.0788 2.3938
3.2057 5.1984 2.3938
3.0172 5.3115 2.3938
2.8248 5.4178 2.3938
2.6288 5.5173 2.3938
2.4294 5.6099 2.3938
0.8962 2.2922 0.9634
0.8133 2.3234 0.9633
0.7293 2.3515 0.9630
0.6444 2.3765 0.9628
0.5586 2.3985 0.9625
0.4720 2.4174 0.9623
0.3849 2.4332 0.9619
0.2972 2.4457 0.9616
0.2091 2.4552 0.9612
0.1207 2.4614 0.9608
0.0321 2.4645 0.9604
-0.0565 2.4643 0.9599
-0.1450 2.4610 0.9595
-0.2334 2.4545 0.9590
-0.3215 2.4447 0.9584
-0.4092 2.4318 0.9579
-0.4963 2.4158 0.9573
-0.5828 2.3966 0.9568
-0.6686 2.3743 0.9561
-0.7535 2.3490 0.9555
-0.8374 2.3206 0.9549
-2.3088 5.7428 2.3938
-2.5154 5.6605 2.3938
-2.7192 5.5709 2.3938
-2.9197 5.4741 2.3938
-3.1168 5.3700 2.3938
-3.3102 5.2589 2.3938
-3.4997 5.1410 2.3938
-3.6850 5.0162 2.3938
-3.8658 4.8848 2.3938
-4.0419 4.7469 2.3938
-4.2131 4.6027 2.3938
-4.3792 4.4523 2.3938
-4.5398 4.2960 2.3938
-4.6949 4.1339 2.3938
-4.8442 3.9662 2.3938
-4.9874 3.7937 2.3938
-5.1245 3.6149 2.3938
-5.2551 3.4317 2.3938
-5.3791 3.2438 2.3938
-5.4964 3.0514 2.3938
-5.6067 2.8548 2.3938
-5.7100 2.6542 2.3938
-5.8060 2.4498 2.3938
-5.8946 2.2420 2.3938
-5.9757 2.0309 2.3938
-6.0491 1.8169 2.3938
-6.1148 1.6003 2.3938
-6.1727 1.3813 2.3938
-6.2226 1.1602 2.3938
-6.2645 0.9373 2.3938
-6.2982 0.7129 2.3938
-6.3239 0.4873 2.3938
-6.3413 0.2608 2.3938
-6.3505 0.0336 2.3938
-6.3514 -0.1938 2.3938
-6.3440 -0.4212 2.3938
-6.3283 -0.6483 2.3938
-6.3044 -0.8748 2.3938
-6.2722 -1.1004 2.3938
-6.2318 -1.3247 2.3938
-6.1832 -1.5476 2.3938
-6.1265 -1.7685 2.3938
-6.0617 -1.9874 2.3938
-5.9889 -2.2037 2.3938
-5.9083 -2.4174 2.3938
-5.8199 -2.6280 2.3938
-5.7238 -2.8353 2.3938
-5.6202 -3.0390 2.3938
-5.5092 -3.2388 2.3938
-5.3909 -3.4345 2.3938
-5.2655 -3.6257 2.3938
-5.1332 -3.8122 2.3938
-4.9941 -3.9938 2.3938
-4.8485 -4.1702 2.3938
-4.6965 -4.3411 2.3938
-4.5383 -4.5064 2.3938
-4.3742 -4.6658 2.3938
-4.2044 -4.8190 2.3938
-4.0291 -4.9659 2.3938
-3.8485 -5.1063 2.3938
-3.6629 -5.2400 2.3938
-3.4726 -5.3668 2.3938
-3.2778 -5.4865 2.3938
-3.0788 -5.5990 2.3938
-2.8759 -5.7041 2.3938
-2.6693 -5.8017 2.3938
-2.4593 -5.8916 2.3938
-2.2462 -5.9738 2.3938
-2.0304 -6.0481 2.3938
-1.8120 -6.1145 2.3938
-1.5914 -6.1728 2.3938
-1.3689 -6.2230 2.3938
-1.1449 -6.2651 2.3938
-0.9195 -6.2989 2.3938
-0.6932 -6.3245 2.3938
-0.4661 -6.3418 2.3938
-0.2387 -6.3508 2.3938
-0.0113 -6.3516 2.3938
0.2160 -6.3441 2.3938
0.4426 -6.3283 2.3938
0.6685 -6.3043 2.3938
0.8931 -6.2721 2.3938
1.1164 -6.2318 2.3938
1.3378 -6.1835 2.3938
1.5573 -6.1273 2.3938
1.7745 -6.0631 2.3938
1.9890 -5.9912 2.3938
2.2006 -5.9116 2.3938
2.4091 -5.8244 2.3938
2.6142 -5.7299 2.3938
2.8156 -5.6281 2.3938
3.0131 -5.5191 2.3938
3.2063 -5.4032 2.3938
3.3951 -5.2805 2.3938
3.5793 -5.1511 2.3938
3.7585 -5.0153 2.3938
3.9327 -4.8733 2.3938
4.1015 -4.7252 2.3938
4.2647 -4.5713 2.3938
4.4222 -4.4117 2.3938
4.5737 -4.2466 2.3938
4.7192 -4.0764 2.3938
4.8584 -3.9012 2.3938
4.9911 -3.7213 2.3938
5.1172 -3.5369 2.3938
5.2365 -3.3482 2.3938
5.3489 -3.1556 2.3938
5.4544 -2.9591 2.3938
5.5527 -2.7592 2.3938
5.6436 -2.5557 2.3938
5.7274 -2.3500 2.3938
5.8037 -2.1412 2.3938
5.8725 -1.9299 2.3938
5.9336 -1.7165 2.3938
5.9871 -1.5011 2.3938
6.0329 -1.2842 2.3938
6.0710 -1.0659 2.3938
6.1013 -0.8465 2.3938
6.1238 -0.6263 2.3938
6.1384 -0.4055 2.3938
6.1452 -0.1846 2.3938
6.1443 0.0364 2.3938
6.1355 0.2571 2.3938
6.1189 0.4772 2.3938
6.0946 0.6965 2.3938
6.0625 0.9148 2.3938
6.0228 1.1316 2.3938
5.9755 1.3468 2.3938
5.9207 1.5602 2.3938
5.8584 1.7714 2.3938
5.7887 1.9802 2.3938
5.7117 2.1863 2.3938
5.6276 2.3896 2.3938
5.5363 2.5897 2.3938
5.4381 2.7864 2.3938
5.3331 2.9795 2.3938
5.2214 3.1687 2.3938
5.1031 3.3539 2.3938
4.9784 3.5348 2.3938
4.8474 3.7111 2.3938
4.7103 3.8827 2.3938
4.5672 4.0494 2.3938
4.4184 4.2110 2.3938
4.2641 4.3672 2.3938
4.1043 4.5178 2.3938
3.9393 4.6628 2.3938
3.7693 4.8019 2.3938
3.5945 4.9350 2.3938
3.4153 5.0613 2.3938
3.2314 5.1823 2.3938
3.0435 5.2962 2.3938
2.8516 5.4035 2.3938
2.6561 5.5040 2.3938
2.4571 5.5976 2.3938
0.9075 2.2877 0.9635
0.8248 2.3192 0.9633
0.7410 2.3478 0.9631
0.6562 2.3733 0.9628
0.5705 2.3957 0.9626
0.4840 2.4150 0.9623
0.3969 2.4312 0.9620
0.3093 2.4442 0.9616
0.2213 2.4541 0.9613
0.1329 2.4607 0.9609
0.0444 2.4642 0.9604
-0.0442 2.4645 0.9600
-0.1328 2.4616 0.9595
-0.2212 2.4555 0.9590
-0.3093 2.4463 0.9585
-0.3971 2.4338 0.9580
-0.4843 2.4182 0.9574
-0.5709 2.3995 0.9568
-0.6568 2.3776 0.9562
-0.7418 2.3527 0.9556
-0.8259 2.3247 0.9550
5.5868 1.3171 2.3938
5.5336 1.5166 2.3938
5.4734 1.7140 2.3938
5.4063 1.9091 2.3938
5.3324 2.1016 2.3938
5.2517 2.2914 2.3938
5.1645 2.4782 2.3938
5.0707 2.6617 2.3938
4.9706 2.8418 2.3938
4.8642 3.0182 2.3938
4.7516 3.1907 2.3938
4.6331 3.3592 2.3938
4.5087 3.5233 2.3938
4.3786 3.6830 2.3938
4.2431 3.8379 2.3938
4.1021 3.9880 2.3938
3.9559 4.1331 2.3938
3.8048 4.2729 2.3938
3.6487 4.4073 2.3938
3.4881 4.5361 2.3938
3.3230 4.6592 2.3938
3.1537 4.7764 2.3938
2.9803 4.8877 2.3938
2.8030 4.9927 2.3938
2.6222 5.0915 2.3938
2.4379 5.1838 2.3938
0.9045 2.1180 0.9621
0.8279 2.1495 0.9620
0.7501 2.1782 0.9618
0.6714 2.2041 0.9616
0.5918 2.2272 0.9614
0.5113 2.2473 0.9611
0.4303 2.2646 0.9609
0.3486 2.2789 0.9606
0.2664 2.2903 0.9602
0.1839 2.2987 0.9599
0.1012 2.3041 0.9595
0.0183 2.3066 0.9591
-0.0646 2.3060 0.9587
-0.1475 2.3025 0.9582
-0.2302 2.2959 0.9578
-0.3126 2.2864 0.9573
-0.3946 2.2739 0.9568
-0.4761 2.2585 0.9562
-0.5570 2.2402 0.9557
-0.6372 2.2189 0.9551
-0.7165 2.1948 0.9545
-0.7949 2.1678 0.9539
-0.8724 2.1380 0.9533
-2.3837 5.2906 2.3938
-2.5741 5.2055 2.3938
-2.7614 5.1136 2.3938
-2.9454 5.0150 2.3938
-3.1260 4.9098 2.3938
-3.3027 4.7982 2.3938
-3.4755 4.6803 2.3938
-3.6441 4.5562 2.3938
-3.8082 4.4260 2.3938
-3.9677 4.2899 2.3938
-4.1223 4.1482 2.3938
-4.2719 4.0008 2.3938
-4.4161 3.8482 2.3938
-4.5549 3.6903 2.3938
-4.6880 3.5274 2.3938
-4.8153 3.3598 2.3938
-4.9365 3.1875 2.3938
-5.0515 3.0108 2.3938
-5.1601 2.8301 2.3938
-5.2623 2.6454 2.3938
-5.3577 2.4570 2.3938
-5.4464 2.2652 2.3938
-5.5281 2.0701 2.3938
-5.6028 1.8722 2.3938
-5.6703 1.6715 2.3938
-5.7305 1.4684 2.3938
-5.7834 1.2631 2.3938
-5.8288 1.0560 2.3938
-5.8667 0.8472 2.3938
-5.8970 0.6370 2.3938
-5.9197 0.4258 2.3938
-5.9348 0.2138 2.3938
-5.9421 0.0012 2.3938
-5.9416 -0.2115 2.3938
-5.9335 -0.4242 2.3938
-5.9176 -0.6366 2.3938
-5.8939 -0.8483 2.3938
-5.8626 -1.0592 2.3938
-5.8236 -1.2688 2.3938
-5.7769 -1.4769 2.3938
-5.7227 -1.6833 2.3938
-5.6610 -1.8876 2.3938
-5.5918 -2.0896 2.3938
-5.5153 -2.2890 2.3938
-5.4315 -2.4855 2.3938
-5.3406 -2.6789 2.3938
-5.2426 -2.8688 2.3938
-5.1378 -3.0551 2.3938
-5.0262 -3.2375 2.3938
-4.9080 -3.4157 2.3938
-4.7834 -3.5895 2.3938
-4.6524 -3.7586 2.3938
-4.5154 -3.9228 2.3938
-4.3725 -4.0819 2.3938
-4.2238 -4.2357 2.3938
-4.0696 -4.3839 2.3938
-3.9100 -4.5265 2.3938
-3.7454 -4.6630 2.3938
-3.5759 -4.7935 2.3938
-3.4018 -4.9176 2.3938
-3.2233 -5.0353 2.3938
-3.0406 -5.1464 2.3938
-2.8540 -5.2507 2.3938
-2.6638 -5.3481 2.3938
-2.4701 -5.4385 2.3938
-2.2734 -5.5217 2.3938
-2.0738 -5.5977 2.3938
-1.8716 -5.6663 2.3938
-1.6671 -5.7274 2.3938
-1.4606 -5.7811 2.3938
-1.2523 -5.8271 2.3938
-1.0426 -5.8656 2.3938
-0.8317 -5.8963 2.3938
-0.6199 -5.9193 2.3938
-0.4075 -5.9348 2.3938
-0.1948 -5.9422 2.3938
0.0180 -5.9420 2.3938
0.2305 -5.9341 2.3938
0.4425 -5.9185 2.3938
0.6536 -5.8952 2.3938
0.8637 -5.8643 2.3938
1.0724 -5.8258 2.3938
1.2794 -5.7798 2.3938
1.4846 -5.7264 2.3938
1.6875 -5.6655 2.3938
1.8880 -5.5975 2.3938
2.0857 -5.5222 2.3938
2.2805 -5.4400 2.3938
2.4721 -5.3508 2.3938
2.6602 -5.2548 2.3938
2.8446 -5.1521 2.3938
3.0251 -5.0430 2.3938
3.2014 -4.9274 2.3938
3.3733 -4.8058 2.3938
3.5406 -4.6780 2.3938
3.7031 -4.5445 2.3938
3.8606 -4.4052 2.3938
4.0129 -4.2606 2.3938
4.1598 -4.1106 2.3938
4.3011 -3.9556 2.3938
4.4367 -3.7957 2.3938
4.5664 -3.6312 2.3938
4.6901 -3.4623 2.3938
4.8075 -3.2892 2.3938
4.9186 -3.1121 2.3938
5.0233 -2.9313 2.3938
5.1213 -2.7469 2.3938
5.2127 -2.5594 2.3938
5.2973 -2.3690 2.3938
5.3750 -2.1754 2.3938
5.4457 -1.9796 2.3938
5.5093 -1.7814 2.3938
5.5659 -1.5812 2.3938
5.6152 -1.3793 2.3938
5.6573 -1.1759 2.3938
5.6922 -0.9712 2.3938
5.7198 -0.7656 2.3938
5.7401 -0.5592 2.3938
5.7530 -0.3523 2.3938
5.7586 -0.1452 2.3938
