ply
format ascii 1.0
element vertex 2189
property float32 x
property float32 y
property float32 z
end_header
4.9098 -1.9049 0.2873
4.9124 -1.8937 0.4065
4.9094 -1.9070 0.4064
4.9119 -1.8958 0.5260
4.9089 -1.9091 0.5260
4.9114 -1.8979 0.6461
4.9084 -1.9112 0.6461
9.2423 -1.0624 1.3893
4.9110 -1.9000 0.7668
9.2413 -1.0863 1.3893
4.9079 -1.9133 0.7669
5.1235 -1.7876 0.7934
4.9105 -1.9021 0.8884
4.9074 -1.9154 0.8885
5.1048 -1.7834 0.9154
9.2799 -1.0714 1.8284
5.1143 -6.5801 1.4885
5.0996 -6.0957 1.4279
4.9100 -1.9043 1.0109
9.0659 -1.0702 1.7865
5.1153 -6.6163 1.4931
4.9069 -1.9176 1.0110
5.0861 -1.7791 1.0375
5.1169 -5.7463 1.3893
5.1145 -6.5896 1.6844
5.1137 -6.1207 1.6191
4.9095 -1.9065 1.1344
6.2167 -1.4298 1.3893
5.1075 -6.1451 1.6215
5.0817 -5.2889 1.5037
4.9064 -1.9198 1.1346
5.0674 -1.7748 1.1598
5.0825 -5.3169 1.5074
9.1176 -1.7317 2.2463
9.1544 -1.3983 2.2458
9.1806 -1.0646 2.2452
9.1965 -0.7309 2.2448
9.2021 -0.3975 2.2443
9.1973 -0.0646 2.2439
9.1820 0.2674 2.2434
9.1568 0.5984 2.2431
9.1214 0.9282 2.2427
9.0996 1.2597 2.2483
5.1148 -6.5992 1.8825
7.2383 -6.4964 2.2435
7.4369 -6.2059 2.2437
7.6253 -5.9104 2.2439
7.8033 -5.6102 2.2442
5.0165 -3.3391 1.4125
5.0308 -3.0929 1.3893
8.2747 -4.6847 2.2449
8.4108 -4.3689 2.2452
8.5363 -4.0501 2.2454
8.6513 -3.7284 2.2457
4.9090 -1.9086 1.2592
8.8495 -3.0779 2.2463
5.6277 -1.7323 1.4153
9.0054 -2.4198 2.2468
9.0664 -2.0883 2.2469
9.1146 -1.7554 2.2463
9.1521 -1.4220 2.2458
9.1791 -1.0883 2.2453
9.1957 -0.7546 2.2448
9.2021 -0.4212 2.2443
9.1980 -0.0883 2.2439
9.1834 0.2439 2.2434
9.1589 0.5750 2.2431
9.1243 0.9048 2.2427
9.0799 1.2332 2.2425
7.2237 -6.5168 2.2435
7.4232 -6.2267 2.2437
7.6123 -5.9316 2.2439
7.7910 -5.6317 2.2442
5.0171 -3.3581 1.4147
5.0241 -3.1065 1.3893
8.2646 -4.7070 2.2449
8.4014 -4.3915 2.2451
8.5277 -4.0728 2.2454
8.6435 -3.7514 2.2457
4.9059 -1.9220 1.2594
5.0562 -1.7731 1.2843
5.6093 -1.7424 1.4116
9.0006 -2.4433 2.2468
9.0626 -2.1119 2.2469
9.1115 -1.7791 2.2464
9.1498 -1.4457 2.2459
9.1775 -1.1120 2.2453
9.1949 -0.7783 2.2448
9.2020 -0.4448 2.2444
9.1986 -0.1119 2.2439
9.1848 0.2203 2.2435
9.1610 0.5515 2.2431
9.1271 0.8814 2.2428
9.0833 1.2099 2.2425
8.2936 -1.5779 2.2458
8.3286 -1.2745 2.2453
8.3540 -0.9708 2.2448
8.3698 -0.6671 2.2444
8.3761 -0.3635 2.2440
8.3731 -0.0603 2.2437
8.3604 0.2422 2.2434
8.3383 0.5439 2.2431
8.3066 0.8445 2.2428
8.2657 1.1437 2.2425
8.7747 1.5394 2.3949
8.7119 1.8555 2.3949
8.6391 2.1694 2.3949
8.5565 2.4809 2.3949
8.4640 2.7897 2.3949
8.3618 3.0955 2.3949
8.2498 3.3982 2.3949
8.1283 3.6974 2.3949
7.9972 3.9928 2.3949
7.8566 4.2843 2.3949
7.7067 4.5716 2.3949
7.5475 4.8544 2.3949
7.3791 5.1324 2.3949
7.2016 5.4054 2.3949
7.0152 5.6731 2.3949
6.8199 5.9353 2.3949
6.6159 6.1917 2.3949
6.4032 6.4420 2.3949
6.1821 6.6861 2.3949
5.9526 6.9235 2.3949
5.7149 7.1542 2.3949
5.4692 7.3776 2.3949
5.2156 7.5937 2.3949
4.9542 7.8022 2.3949
4.6854 8.0027 2.3949
4.4091 8.1951 2.3949
4.1257 8.3790 2.3949
3.8353 8.5542 2.3949
3.5382 8.7204 2.3949
3.2345 8.8774 2.3949
2.9246 9.0248 2.3949
2.6087 9.1625 2.3949
2.2869 9.2901 2.3949
1.9597 9.4075 2.3949
1.6272 9.5143 2.3949
1.2898 9.6103 2.3949
2.5064 -9.2956 2.2759
2.7826 -9.0189 2.2426
3.0896 -8.8706 2.2431
3.3902 -8.7133 2.2439
3.6839 -8.5464 2.2447
3.9703 -8.3702 2.2454
4.2492 -8.1851 2.2462
4.5204 -7.9914 2.2469
4.7737 -7.7730 2.2429
5.0276 -7.5627 2.2433
5.2727 -7.3440 2.2434
5.1151 -6.6089 2.0830
5.7371 -6.8856 2.2437
5.9561 -6.6465 2.2439
6.1662 -6.4014 2.2440
6.3672 -6.1505 2.2442
6.5591 -5.8942 2.2444
6.7418 -5.6328 2.2446
6.9152 -5.3665 2.2447
7.0791 -5.0957 2.2450
7.2337 -4.8207 2.2452
7.3787 -4.5417 2.2454
7.5141 -4.2592 2.2456
7.6400 -3.9733 2.2458
7.7562 -3.6844 2.2461
4.9806 -2.1491 1.4229
4.9085 -1.9109 1.3854
8.0469 -2.8024 2.2468
8.1243 -2.5042 2.2471
8.1900 -2.2038 2.2468
6.2174 -1.4343 1.6939
8.2907 -1.5994 2.2458
8.3265 -1.2961 2.2454
8.3525 -0.9924 2.2449
8.3690 -0.6887 2.2444
8.3760 -0.3851 2.2440
8.3736 -0.0818 2.2437
8.3616 0.2208 2.2434
8.3402 0.5225 2.2431
8.3091 0.8232 2.2428
8.2689 1.1225 2.2425
8.7787 1.5169 2.3949
8.7167 1.8331 2.3949
8.6446 2.1472 2.3949
8.5627 2.4588 2.3949
8.4709 2.7678 2.3949
8.3693 3.0739 2.3949
8.2581 3.3768 2.3949
8.1372 3.6762 2.3949
8.0068 3.9720 2.3949
7.8669 4.2638 2.3949
7.7176 4.5513 2.3949
7.5591 4.8344 2.3949
7.3914 5.1128 2.3949
7.2145 5.3862 2.3949
7.0287 5.6543 2.3949
6.8341 5.9169 2.3949
6.6307 6.1738 2.3949
6.4186 6.4245 2.3949
6.1981 6.6690 2.3949
5.9692 6.9069 2.3949
5.7321 7.1380 2.3949
5.4869 7.3620 2.3949
5.2339 7.5786 2.3949
4.9731 7.7876 2.3949
4.7047 7.9887 2.3949
4.4290 8.1817 2.3949
4.1461 8.3662 2.3949
3.8562 8.5420 2.3949
3.5595 8.7089 2.3949
3.2563 8.8665 2.3949
2.9468 9.0147 2.3949
2.6313 9.1530 2.3949
2.3099 9.2814 2.3949
1.9831 9.3995 2.3949
1.6510 9.5071 2.3949
1.3139 9.6038 2.3949
2.5050 -9.3855 2.2955
2.7606 -9.0292 2.2426
3.0680 -8.8814 2.2431
3.3691 -8.7248 2.2439
3.6632 -8.5586 2.2446
3.9502 -8.3831 2.2454
4.2296 -8.1986 2.2461
4.5014 -8.0054 2.2468
4.7556 -7.7882 2.2430
5.0099 -7.5779 2.2432
5.2556 -7.3597 2.2434
5.4927 -7.1344 2.2435
5.7212 -6.9023 2.2437
5.9408 -6.6637 2.2438
6.1516 -6.4190 2.2440
6.3532 -6.1686 2.2442
6.5458 -5.9126 2.2444
6.7291 -5.6515 2.2445
6.9032 -5.3855 2.2447
7.0678 -5.1150 2.2449
7.2230 -4.8403 2.2451
7.3687 -4.5617 2.2454
7.5048 -4.2794 2.2456
7.6314 -3.9937 2.2458
7.7483 -3.7050 2.2461
4.9811 -2.1645 1.4243
4.9054 -1.9242 1.3857
5.0527 -1.7742 1.4118
8.1191 -2.5254 2.2471
8.1857 -2.2252 2.2468
8.2416 -1.9235 2.2463
8.2878 -1.6209 2.2459
8.3243 -1.3176 2.2454
8.3510 -1.0140 2.2449
8.3682 -0.7102 2.2445
8.3758 -0.4066 2.2441
8.3741 -0.1034 2.2437
8.3628 0.1993 2.2434
8.3420 0.5011 2.2431
8.3117 0.8019 2.2428
8.2720 1.1012 2.2425
8.7828 1.4943 2.3949
8.7214 1.8107 2.3949
8.6501 2.1249 2.3949
8.5688 2.4368 2.3949
8.4777 2.7460 2.3949
8.3769 3.0523 2.3949
8.2663 3.3554 2.3949
8.1461 3.6551 2.3949
8.0164 3.9511 2.3949
7.8772 4.2432 2.3949
7.7286 4.5311 2.3949
7.5707 4.8145 2.3949
7.4036 5.0932 2.3949
7.2274 5.3671 2.3949
7.0422 5.6353 2.3949
6.8482 5.8984 2.3949
6.6454 6.1557 2.3949
6.4340 6.4069 2.3949
6.2140 6.6518 2.3949
5.9857 6.8902 2.3949
5.7492 7.1219 2.3949
5.5046 7.3464 2.3949
5.2521 7.5635 2.3949
4.9918 7.7730 2.3949
4.7240 7.9748 2.3949
4.4488 8.1683 2.3949
4.1664 8.3534 2.3949
3.8770 8.5298 2.3949
3.5808 8.6973 2.3949
3.2781 8.8556 2.3949
2.9690 9.0044 2.3949
2.6539 9.1435 2.3949
2.3330 9.2726 2.3949
2.0065 9.3914 2.3949
1.6747 9.4998 2.3949
1.3380 9.5973 2.3949
2.7385 -9.0394 2.2426
3.0464 -8.8921 2.2430
3.3479 -8.7362 2.2438
3.6426 -8.5707 2.2446
3.9300 -8.3958 2.2453
4.2100 -8.2120 2.2461
4.4823 -8.0194 2.2468
4.7377 -7.8038 2.2432
4.9921 -7.5932 2.2432
5.2384 -7.3755 2.2434
5.4762 -7.1507 2.2435
5.7052 -6.9190 2.2437
5.9255 -6.6809 2.2438
6.1369 -6.4366 2.2440
6.3392 -6.1865 2.2442
7.5985 -1.4481 2.2454
7.6319 -1.1701 2.2449
7.6563 -0.8918 2.2445
7.6722 -0.6133 2.2442
7.6791 -0.3348 2.2440
7.6771 -0.0567 2.2437
7.6662 0.2210 2.2434
7.6464 0.4978 2.2431
7.6178 0.7737 2.2428
7.5804 1.0483 2.2425
8.0473 1.4115 2.3949
7.9898 1.7016 2.3949
7.9230 1.9897 2.3949
7.8471 2.2756 2.3949
7.7620 2.5589 2.3949
7.6679 2.8395 2.3949
7.5648 3.1171 2.3949
7.4527 3.3915 2.3949
7.3319 3.6623 2.3949
7.2022 3.9294 2.3949
7.0640 4.1925 2.3949
6.9171 4.4515 2.3949
6.7618 4.7059 2.3949
6.5981 4.9556 2.3949
6.4262 5.2003 2.3949
6.2461 5.4398 2.3949
6.0579 5.6739 2.3949
5.8619 5.9023 2.3949
5.6581 6.1247 2.3949
5.4467 6.3409 2.3949
5.2278 6.5507 2.3949
5.0015 6.7538 2.3949
4.7681 6.9500 2.3949
4.5277 7.1389 2.3949
4.2805 7.3205 2.3949
4.0266 7.4944 2.3949
3.7662 7.6601 2.3949
3.4996 7.8182 2.3949
3.2270 7.9677 2.3949
2.9485 8.1085 2.3949
2.6645 8.2405 2.3949
2.3751 8.3633 2.3949
0.8699 3.5442 1.0013
0.7420 3.5747 0.9977
0.6132 3.6005 0.9940
0.4834 3.6217 0.9902
0.3530 3.6382 0.9864
0.2220 3.6499 0.9825
0.0907 3.6569 0.9785
-0.0407 3.6591 0.9745
-0.1722 3.6566 0.9705
-0.3035 3.6493 0.9664
-0.4345 3.6372 0.9623
-0.5649 3.6205 0.9582
-0.6947 3.5990 0.9540
-0.8236 3.5728 0.9498
-2.4097 8.9709 2.3949
-2.7427 8.9208 2.3949
-3.0752 8.8586 2.3949
-3.4067 8.7843 2.3949
-3.7367 8.6977 2.3949
-4.0649 8.5988 2.3949
-4.3907 8.4876 2.3949
-4.7137 8.3641 2.3949
-5.0332 8.2282 2.3949
-5.3489 8.0801 2.3949
-1.2702 -9.6056 2.3949
-0.9215 -9.6005 2.3949
-0.5747 -9.5826 2.3949
-0.2303 -9.5522 2.3949
0.1112 -9.5095 2.3949
0.4495 -9.4547 2.3949
0.7842 -9.3880 2.3949
1.1147 -9.3097 2.3949
1.4408 -9.2200 2.3949
1.7621 -9.1192 2.3949
2.0781 -9.0076 2.3949
2.3886 -8.8855 2.3949
2.5219 -8.1961 2.2425
2.8014 -8.0629 2.2426
3.0758 -7.9230 2.2432
3.3442 -7.7743 2.2439
3.6061 -7.6170 2.2446
3.8613 -7.4515 2.2453
4.1098 -7.2779 2.2459
4.3511 -7.0965 2.2466
4.5852 -6.9078 2.2472
4.8041 -6.7012 2.2442
5.0217 -6.4975 2.2443
5.2315 -6.2875 2.2445
5.0957 -5.6940 2.1051
5.0815 -5.2823 2.0271
5.8127 -5.6221 2.2449
5.9900 -5.3896 2.2451
6.1589 -5.1521 2.2452
6.3193 -4.9100 2.2454
6.4711 -4.6636 2.2456
6.6143 -4.4132 2.2458
6.7488 -4.1590 2.2460
6.8745 -3.9013 2.2462
6.9914 -3.6404 2.2464
7.0995 -3.3766 2.2466
7.1986 -3.1101 2.2469
4.9080 -1.9131 1.5131
5.1319 -1.7896 1.5648
7.4397 -2.2963 2.2467
7.5008 -2.0212 2.2463
7.5528 -1.7450 2.2458
7.5958 -1.4678 2.2454
7.6298 -1.1899 2.2450
7.6548 -0.9115 2.2445
7.6714 -0.6331 2.2443
7.6789 -0.3546 2.2440
7.6775 -0.0764 2.2437
7.6673 0.2013 2.2434
7.6481 0.4782 2.2431
7.6201 0.7541 2.2428
7.5834 1.0289 2.2426
8.0511 1.3908 2.3949
7.9942 1.6810 2.3949
7.9281 1.9693 2.3949
7.8528 2.2553 2.3949
7.7684 2.5389 2.3949
7.6749 2.8197 2.3949
7.5724 3.0975 2.3949
7.4610 3.3721 2.3949
7.3407 3.6432 2.3949
7.2117 3.9106 2.3949
7.0741 4.1739 2.3949
6.9278 4.4332 2.3949
6.7731 4.6880 2.3949
6.6100 4.9381 2.3949
6.4386 5.1831 2.3949
6.2591 5.4231 2.3949
6.0716 5.6575 2.3949
5.8761 5.8863 2.3949
5.6728 6.1091 2.3949
5.4620 6.3258 2.3949
5.2436 6.5360 2.3949
5.0178 6.7396 2.3949
4.7849 6.9363 2.3949
4.5450 7.1257 2.3949
4.2982 7.3079 2.3949
4.0448 7.4823 2.3949
3.7849 7.6488 2.3949
3.5188 7.8073 2.3949
3.2465 7.9573 2.3949
2.9685 8.0988 2.3949
2.6848 8.2314 2.3949
2.3958 8.3549 2.3949
0.8789 3.5418 1.0016
0.7512 3.5727 0.9980
0.6224 3.5988 0.9943
0.4927 3.6203 0.9905
0.3623 3.6371 0.9867
0.2313 3.6492 0.9828
0.1001 3.6565 0.9788
-0.0314 3.6591 0.9748
-0.1629 3.6569 0.9708
-0.2942 3.6500 0.9667
-0.4252 3.6383 0.9626
-0.5557 3.6218 0.9584
-0.6855 3.6007 0.9543
-0.8145 3.5748 0.9501
-2.3861 8.9740 2.3949
-2.7190 8.9247 2.3949
-3.0516 8.8634 2.3949
-3.3831 8.7899 2.3949
-3.7133 8.7042 2.3949
-4.0417 8.6062 2.3949
-4.3677 8.4959 2.3949
-4.6908 8.3732 2.3949
-5.0107 8.2383 2.3949
-5.3267 8.0910 2.3949
-1.2950 -9.6054 2.3949
-0.9462 -9.6012 2.3949
-0.5993 -9.5843 2.3949
-0.2547 -9.5548 2.3949
0.0871 -9.5130 2.3949
0.4256 -9.4590 2.3949
0.7605 -9.3931 2.3949
1.0914 -9.3156 2.3949
1.4178 -9.2268 2.3949
1.7394 -9.1268 2.3949
2.0558 -9.0159 2.3949
2.3667 -8.8945 2.3949
2.5018 -8.2053 2.2425
2.7818 -8.0727 2.2426
3.0566 -7.9332 2.2432
3.3253 -7.7852 2.2439
3.5877 -7.6285 2.2446
3.8434 -7.4635 2.2452
4.0923 -7.2905 2.2459
4.3342 -7.1097 2.2465
4.5688 -6.9214 2.2471
4.7883 -6.7154 2.2442
5.0065 -6.5122 2.2443
5.2169 -6.3026 2.2445
5.0952 -5.7229 2.1104
5.6137 -5.8654 2.2448
5.7998 -5.6385 2.2449
5.9777 -5.4062 2.2451
6.1472 -5.1691 2.2452
6.3082 -4.9274 2.2454
6.4606 -4.6813 2.2456
6.6044 -4.4311 2.2458
6.7395 -4.1772 2.2460
6.8659 -3.9197 2.2462
6.9834 -3.6591 2.2464
7.0921 -3.3954 2.2466
7.1919 -3.1291 2.2468
4.9049 -1.9264 1.5134
5.0492 -1.7753 1.5407
7.4350 -2.3158 2.2467
7.4967 -2.0408 2.2463
7.5494 -1.7646 2.2459
7.5931 -1.4875 2.2454
7.6277 -1.2096 2.2450
7.6533 -0.9313 2.2446
7.6705 -0.6528 2.2443
7.6787 -0.3744 2.2440
7.6779 -0.0962 2.2437
7.6683 0.1816 2.2434
7.6498 0.4586 2.2431
7.6224 0.7346 2.2429
7.5863 1.0094 2.2426
8.0548 1.3701 2.3949
7.9986 1.6605 2.3949
7.9331 1.9489 2.3949
7.8584 2.2351 2.3949
7.7746 2.5188 2.3949
7.6818 2.7998 2.3949
7.5799 3.0779 2.3949
7.4692 3.3527 2.3949
7.3496 3.6241 2.3949
7.2212 3.8917 2.3949
7.0841 4.1554 2.3949
6.9385 4.4150 2.3949
6.7844 4.6700 2.3949
6.6219 4.9204 2.3949
6.4511 5.1659 2.3949
6.2721 5.4062 2.3949
6.0851 5.6410 2.3949
5.8902 5.8702 2.3949
5.6875 6.0935 2.3949
5.4772 6.3106 2.3949
5.2593 6.5213 2.3949
5.0341 6.7253 2.3949
4.8017 6.9226 2.3949
4.5623 7.1125 2.3949
4.3160 7.2952 2.3949
4.0630 7.4702 2.3949
3.8036 7.6372 2.3949
3.5379 7.7963 2.3949
3.2661 7.9470 2.3949
2.9884 8.0890 2.3949
2.7052 8.2223 2.3949
2.4165 8.3464 2.3949
0.8880 3.5395 1.0018
0.7603 3.5706 0.9982
0.6315 3.5971 0.9945
0.5019 3.6190 0.9908
0.3716 3.6361 0.9869
0.2407 3.6485 0.9831
0.1094 3.6562 0.9791
-0.0221 3.6591 0.9751
-0.1536 3.6572 0.9711
-0.2849 3.6506 0.9670
-0.4159 3.6392 0.9629
-0.5464 3.6231 0.9587
-0.6763 3.6023 0.9546
-0.8053 3.5768 0.9504
-2.3624 8.9770 2.3949
-2.6954 8.9286 2.3949
-3.0280 8.8682 2.3949
-3.3596 8.7956 2.3949
-3.6899 8.7107 2.3949
-4.0184 8.6136 2.3949
-4.3446 8.5041 2.3949
-4.6680 8.3824 2.3949
-4.9880 8.2482 2.3949
-5.3043 8.1019 2.3949
-1.3198 -9.6052 2.3949
-0.9709 -9.6020 2.3949
-0.6239 -9.5859 2.3949
-0.2791 -9.5573 2.3949
0.0629 -9.5163 2.3949
0.4017 -9.4632 2.3949
0.7369 -9.3982 2.3949
1.0680 -9.3215 2.3949
1.3948 -9.2334 2.3949
1.7167 -9.1342 2.3949
2.0335 -9.0241 2.3949
2.3448 -8.9035 2.3949
2.4907 -8.2440 2.2507
2.7621 -8.0824 2.2426
3.0372 -7.9434 2.2431
3.3064 -7.7960 2.2438
3.5692 -7.6399 2.2445
3.8255 -7.4755 2.2452
4.0749 -7.3030 2.2458
4.3172 -7.1228 2.2465
4.5524 -6.9351 2.2471
4.7725 -6.7296 2.2442
4.9912 -6.5269 2.2443
5.2022 -6.3177 2.2445
5.0961 -5.7535 2.1162
5.6001 -5.8814 2.2447
5.7869 -5.6547 2.2449
7.0038 -1.3370 2.2450
7.0355 -1.0807 2.2446
7.0591 -0.8241 2.2443
7.0745 -0.5672 2.2440
7.0816 -0.3102 2.2438
7.0804 -0.0535 2.2435
7.0709 0.2027 2.2433
7.0532 0.4583 2.2431
7.0273 0.7130 2.2428
6.9932 0.9666 2.2426
7.4238 1.3018 2.3949
7.3708 1.5696 2.3949
7.3091 1.8356 2.3949
7.2389 2.0996 2.3949
7.1602 2.3610 2.3949
7.0731 2.6201 2.3949
6.9776 2.8762 2.3949
6.8738 3.1293 2.3949
6.7618 3.3791 2.3949
6.6416 3.6254 2.3949
6.5134 3.8679 2.3949
6.3773 4.1064 2.3949
6.2333 4.3407 2.3949
6.0815 4.5706 2.3949
5.9221 4.7957 2.3949
5.7551 5.0160 2.3949
5.5808 5.2311 2.3949
5.3991 5.4408 2.3949
5.2103 5.6449 2.3949
5.0145 5.8432 2.3949
4.8118 6.0354 2.3949
4.6024 6.2213 2.3949
4.3864 6.4007 2.3949
4.1640 6.5734 2.3949
3.9354 6.7390 2.3949
3.7007 6.8975 2.3949
3.4602 7.0486 2.3949
3.2140 7.1920 2.3949
2.9623 7.3275 2.3949
2.7054 7.4550 2.3949
2.4435 7.5742 2.3949
2.1768 7.6850 2.3949
0.7926 3.2388 0.9961
0.6757 3.2666 0.9928
0.5579 3.2902 0.9894
0.4393 3.3095 0.9860
0.3201 3.3245 0.9825
0.2004 3.3352 0.9789
0.0804 3.3416 0.9753
-0.0398 3.3436 0.9716
-0.1599 3.3413 0.9679
-0.2799 3.3346 0.9642
-0.3996 3.3236 0.9604
-0.5188 3.3083 0.9566
-0.6374 3.2886 0.9528
-0.7552 3.2647 0.9490
-0.8721 3.2365 0.9452
-2.5132 8.1520 2.3949
-2.8160 8.0921 2.3949
-3.1177 8.0210 2.3949
-3.4178 7.9389 2.3949
-3.7160 7.8456 2.3949
-4.0118 7.7411 2.3949
-4.3048 7.6254 2.3949
-4.5945 7.4987 2.3949
-4.8804 7.3608 2.3949
-5.1621 7.2119 2.3949
-5.4392 7.0521 2.3949
-5.7111 6.8815 2.3949
-5.9775 6.7002 2.3949
-6.2378 6.5084 2.3949
-6.4915 6.3062 2.3949
-6.7383 6.0938 2.3949
-6.9777 5.8715 2.3949
-7.2091 5.6394 2.3949
-7.4322 5.3979 2.3949
-7.6466 5.1473 2.3949
-7.8517 4.8879 2.3949
-8.0472 4.6199 2.3949
-8.2327 4.3438 2.3949
-8.4077 4.0599 2.3949
-8.5719 3.7687 2.3949
-8.7249 3.4705 2.3949
-8.8664 3.1659 2.3949
-8.9961 2.8553 2.3949
-9.1136 2.5391 2.3949
-9.2187 2.2179 2.3949
-9.3110 1.8922 2.3949
-9.3905 1.5625 2.3949
-9.4568 1.2294 2.3949
-9.5098 0.8935 2.3949
-9.5493 0.5552 2.3949
-9.5753 0.2153 2.3949
-9.5875 -0.1257 2.3949
-9.5860 -0.4672 2.3949
-9.5707 -0.8087 2.3949
-9.5416 -1.1494 2.3949
-9.4988 -1.4888 2.3949
-9.4423 -1.8263 2.3949
-9.3721 -2.1613 2.3949
-9.2884 -2.4931 2.3949
-9.1914 -2.8213 2.3949
-9.0813 -3.1452 2.3949
-8.9582 -3.4642 2.3949
-8.8224 -3.7778 2.3949
-8.6742 -4.0855 2.3949
-8.5138 -4.3867 2.3949
-8.3416 -4.6809 2.3949
-8.1579 -4.9676 2.3949
-7.9631 -5.2464 2.3949
-7.7576 -5.5168 2.3949
-7.5418 -5.7783 2.3949
-7.3161 -6.0307 2.3949
-7.0810 -6.2734 2.3949
-6.8368 -6.5061 2.3949
-6.5842 -6.7286 2.3949
-6.3236 -6.9405 2.3949
-6.0555 -7.1415 2.3949
-5.7803 -7.3314 2.3949
-5.4986 -7.5099 2.3949
-5.2110 -7.6769 2.3949
-4.9179 -7.8321 2.3949
-4.6199 -7.9755 2.3949
-4.3175 -8.1069 2.3949
-4.0112 -8.2262 2.3949
-3.7014 -8.3335 2.3949
-3.3889 -8.4286 2.3949
-3.0741 -8.5114 2.3949
-2.7574 -8.5820 2.3949
-2.4394 -8.6405 2.3949
-2.1206 -8.6868 2.3949
-1.8014 -8.7211 2.3949
-1.4824 -8.7434 2.3949
-1.1639 -8.7539 2.3949
-0.8465 -8.7526 2.3949
-0.5306 -8.7397 2.3949
-0.2167 -8.7154 2.3949
0.0950 -8.6798 2.3949
0.4039 -8.6331 2.3949
0.7097 -8.5755 2.3949
1.0120 -8.5072 2.3949
1.3105 -8.4285 2.3949
1.6047 -8.3396 2.3949
1.8945 -8.2406 2.3949
2.1793 -8.1319 2.3949
2.4530 -7.9941 2.3891
2.5594 -7.3845 2.2425
2.8110 -7.2573 2.2427
3.0578 -7.1235 2.2433
3.2988 -6.9817 2.2439
3.5339 -6.8321 2.2446
3.7629 -6.6751 2.2452
3.9854 -6.5109 2.2457
4.2015 -6.3397 2.2463
4.4107 -6.1618 2.2469
4.6120 -5.9760 2.2469
4.8023 -5.7798 2.2451
4.9894 -5.5828 2.2453
5.1690 -5.3804 2.2454
5.3412 -5.1727 2.2455
5.5057 -4.9601 2.2457
5.6626 -4.7429 2.2458
5.8117 -4.5212 2.2460
5.9529 -4.2954 2.2462
6.0861 -4.0658 2.2463
6.2114 -3.8325 2.2465
6.3285 -3.5959 2.2467
6.4376 -3.3561 2.2469
6.5384 -3.1136 2.2471
6.6310 -2.8685 2.2473
4.9074 -1.9154 1.6424
5.1120 -1.7850 1.6919
6.8540 -2.1184 2.2462
6.9114 -1.8651 2.2458
6.9605 -1.6106 2.2454
7.0012 -1.3552 2.2450
7.0335 -1.0990 2.2446
7.0577 -0.8423 2.2443
7.0737 -0.5854 2.2441
7.0814 -0.3285 2.2438
7.0808 -0.0718 2.2436
7.0719 0.1845 2.2433
7.0548 0.4402 2.2431
7.0294 0.6950 2.2428
6.9959 0.9487 2.2426
7.4273 1.2827 2.3949
7.3748 1.5507 2.3949
7.3138 1.8168 2.3949
7.2442 2.0809 2.3949
7.1661 2.3425 2.3949
7.0795 2.6017 2.3949
6.9846 2.8581 2.3949
6.8814 3.1114 2.3949
6.7700 3.3614 2.3949
6.6504 3.6080 2.3949
6.5228 3.8508 2.3949
6.3872 4.0897 2.3949
6.2437 4.3242 2.3949
6.0925 4.5544 2.3949
5.9337 4.7799 2.3949
5.7672 5.0005 2.3949
5.5934 5.2161 2.3949
5.4123 5.4261 2.3949
5.2240 5.6307 2.3949
5.0286 5.8293 2.3949
4.8264 6.0221 2.3949
4.6175 6.2084 2.3949
4.4019 6.3882 2.3949
4.1800 6.5613 2.3949
3.9518 6.7275 2.3949
3.7176 6.8865 2.3949
3.4774 7.0381 2.3949
3.2316 7.1820 2.3949
2.9804 7.3182 2.3949
2.7238 7.4462 2.3949
2.4623 7.5660 2.3949
2.1959 7.6774 2.3949
0.8008 3.2366 0.9963
0.6840 3.2648 0.9930
0.5663 3.2887 0.9897
0.4478 3.3083 0.9862
0.3286 3.3236 0.9827
0.2089 3.3346 0.9792
0.0889 3.3413 0.9755
-0.0312 3.3436 0.9719
-0.1514 3.3416 0.9682
-0.2714 3.3352 0.9645
-0.3911 3.3245 0.9607
-0.5104 3.3095 0.9569
-0.6290 3.2902 0.9531
-0.7469 3.2665 0.9493
-0.8638 3.2387 0.9454
-2.4916 8.1558 2.3949
-2.7945 8.0967 2.3949
-3.0963 8.0265 2.3949
-3.3966 7.9451 2.3949
-3.6949 7.8526 2.3949
-3.9909 7.7488 2.3949
-4.2841 7.6340 2.3949
-4.5740 7.5080 2.3949
-4.8602 7.3710 2.3949
-5.1423 7.2229 2.3949
-5.4197 7.0638 2.3949
-5.6920 6.8940 2.3949
-5.9587 6.7134 2.3949
-6.2195 6.5223 2.3949
-6.4737 6.3209 2.3949
-6.7210 6.1092 2.3949
-6.9609 5.8876 2.3949
-7.1929 5.6562 2.3949
-7.4167 5.4154 2.3949
-7.6316 5.1654 2.3949
-7.8374 4.9066 2.3949
-8.0336 4.6392 2.3949
-8.2198 4.3636 2.3949
-8.3956 4.0803 2.3949
-8.5606 3.7896 2.3949
-8.7144 3.4919 2.3949
-8.8568 3.1878 2.3949
-8.9873 2.8775 2.3949
-9.1056 2.5617 2.3949
-9.2116 2.2408 2.3949
-9.3049 1.9154 2.3949
-9.3853 1.5860 2.3949
-9.4525 1.2532 2.3949
-9.5065 0.9174 2.3949
-9.5470 0.5793 2.3949
-9.5739 0.2395 2.3949
-9.5871 -0.1015 2.3949
-9.5866 -0.4430 2.3949
-9.5723 -0.7844 2.3949
-9.5442 -1.1252 2.3949
-9.5023 -1.4647 2.3949
-9.4467 -1.8024 2.3949
-9.3775 -2.1376 2.3949
-9.2948 -2.4697 2.3949
-9.1988 -2.7981 2.3949
-9.0895 -3.1223 2.3949
-8.9674 -3.4417 2.3949
-8.8325 -3.7557 2.3949
-8.6851 -4.0638 2.3949
-8.5256 -4.3655 2.3949
-8.3542 -4.6602 2.3949
-8.1713 -4.9475 2.3949
-7.9773 -5.2269 2.3949
-7.7726 -5.4979 2.3949
-7.5575 -5.7601 2.3949
-7.3324 -6.0131 2.3949
-7.0980 -6.2565 2.3949
-6.8545 -6.4900 2.3949
-6.6024 -6.7132 2.3949
-6.3424 -6.9258 2.3949
-6.0747 -7.1276 2.3949
-5.8001 -7.3182 2.3949
-5.5189 -7.4976 2.3949
-5.2316 -7.6654 2.3949
-4.9389 -7.8215 2.3949
-4.6412 -7.9657 2.3949
-4.3391 -8.0980 2.3949
-4.0330 -8.2182 2.3949
-3.7235 -8.3263 2.3949
-3.4112 -8.4222 2.3949
-3.0965 -8.5059 2.3949
-2.7799 -8.5774 2.3949
-2.4620 -8.6367 2.3949
-2.1432 -8.6839 2.3949
-1.8241 -8.7191 2.3949
-1.5050 -8.7422 2.3949
-1.1865 -8.7535 2.3949
-0.8690 -8.7531 2.3949
-0.5530 -8.7410 2.3949
-0.2389 -8.7175 2.3949
0.0730 -8.6827 2.3949
0.3821 -8.6368 2.3949
0.6881 -8.5799 2.3949
0.9907 -8.5124 2.3949
1.2894 -8.4344 2.3949
1.5840 -8.3462 2.3949
1.8740 -8.2480 2.3949
2.1593 -8.1400 2.3949
2.4394 -8.0225 2.3949
2.5413 -7.3933 2.2425
2.7933 -7.2665 2.2426
3.0404 -7.1332 2.2433
3.2819 -6.9920 2.2439
3.5174 -6.8430 2.2445
3.7468 -6.6865 2.2451
3.9698 -6.5228 2.2457
4.1863 -6.3520 2.2463
4.3961 -6.1746 2.2468
4.5988 -5.9905 2.2473
4.7888 -5.7936 2.2451
4.9763 -5.5970 2.2452
5.1565 -5.3950 2.2454
5.3292 -5.1876 2.2455
5.4943 -4.9754 2.2457
5.6517 -4.7584 2.2458
5.8013 -4.5371 2.2460
5.9431 -4.3116 2.2461
6.0769 -4.0822 2.2463
6.2027 -3.8492 2.2465
6.3205 -3.6128 2.2467
6.4301 -3.3733 2.2469
6.5315 -3.1309 2.2471
6.6247 -2.8859 2.2473
4.9044 -1.9287 1.6428
5.0456 -1.7764 1.6712
6.8496 -2.1364 2.2463
6.9076 -1.8832 2.2459
6.9573 -1.6287 2.2455
6.9986 -1.3733 2.2451
7.0315 -1.1172 2.2447
7.0562 -0.8606 2.2443
7.0728 -0.6037 2.2441
7.0811 -0.3467 2.2438
7.0811 -0.0900 2.2436
7.0728 0.1664 2.2433
7.0563 0.4221 2.2431
7.0315 0.6769 2.2429
6.9985 0.9307 2.2426
6.9578 1.1832 2.2425
7.3788 1.5317 2.3949
7.3184 1.7980 2.3949
7.2494 2.0622 2.3949
7.1719 2.3240 2.3949
7.0860 2.5834 2.3949
6.9916 2.8400 2.3949
6.8890 3.0935 2.3949
6.7782 3.3438 2.3949
6.6592 3.5906 2.3949
6.5321 3.8338 2.3949
6.3971 4.0728 2.3949
6.2542 4.3077 2.3949
6.1035 4.5382 2.3949
5.9452 4.7640 2.3949
5.7793 4.9850 2.3949
5.6060 5.2009 2.3949
5.4254 5.4114 2.3949
5.2376 5.6163 2.3949
5.0428 5.8154 2.3949
4.8410 6.0085 2.3949
4.6325 6.1953 2.3949
4.4175 6.3756 2.3949
4.1960 6.5493 2.3949
3.9682 6.7160 2.3949
3.7344 6.8754 2.3949
3.4947 7.0276 2.3949
3.2493 7.1721 2.3949
2.9984 7.3088 2.3949
2.7422 7.4374 2.3949
2.4810 7.5578 2.3949
2.2150 7.6697 2.3949
0.8091 3.2345 0.9966
0.6924 3.2629 0.9933
0.5747 3.2871 0.9899
0.4562 3.3070 0.9865
0.3371 3.3227 0.9830
0.2174 3.3340 0.9794
0.0975 3.3410 0.9758
-0.0227 3.3436 0.9722
-0.1429 3.3419 0.9685
-0.2629 3.3358 0.9647
-0.3826 3.3254 0.9610
-0.5019 3.3107 0.9572
-0.6206 3.2917 0.9534
-0.7385 3.2684 0.9496
-0.8555 3.2408 0.9457
-2.4701 8.1596 2.3949
-2.7730 8.1013 2.3949
-3.0749 8.0318 2.3949
-3.3753 7.9512 2.3949
-3.6738 7.8595 2.3949
-3.9700 7.7566 2.3949
-4.2633 7.6425 2.3949
-4.5535 7.5173 2.3949
-4.8400 7.3811 2.3949
-5.1224 7.2337 2.3949
-5.4001 7.0755 2.3949
-5.6728 6.9064 2.3949
-5.9400 6.7266 2.3949
-6.2012 6.5363 2.3949
-6.4559 6.3355 2.3949
-6.7037 6.1246 2.3949
-6.9441 5.9036 2.3949
-7.1767 5.6730 2.3949
-7.4011 5.4328 2.3949
-7.6167 5.1835 2.3949
-7.8231 4.9252 2.3949
-8.0200 4.6585 2.3949
-8.2069 4.3835 2.3949
-8.3835 4.1007 2.3949
-8.5492 3.8105 2.3949
-8.7039 3.5133 2.3949
-8.8470 3.2096 2.3949
-8.9784 2.8997 2.3949
-9.0976 2.5843 2.3949
-9.2045 2.2638 2.3949
-9.2987 1.9387 2.3949
-9.3800 1.6095 2.3949
-9.4482 1.2769 2.3949
-9.5031 0.9413 2.3949
-9.5445 0.6034 2.3949
-9.5724 0.2637 2.3949
-9.5866 -0.0772 2.3949
-9.5871 -0.4187 2.3949
-9.5737 -0.7602 2.3949
-9.5466 -1.1010 2.3949
-9.5057 -1.4407 2.3949
-9.4511 -1.7785 2.3949
-9.3829 -2.1138 2.3949
-9.3011 -2.4462 2.3949
-9.2060 -2.7749 2.3949
-9.0977 -3.0994 2.3949
-8.9765 -3.4192 2.3949
-8.8425 -3.7336 2.3949
-8.6960 -4.0421 2.3949
-8.5373 -4.3443 2.3949
-8.3668 -4.6395 2.3949
-8.1847 -4.9274 2.3949
-7.9915 -5.2073 2.3949
-7.7874 -5.4789 2.3949
-7.5731 -5.7417 2.3949
-7.3488 -5.9954 2.3949
-7.1149 -6.2395 2.3949
-6.8721 -6.4737 2.3949
-6.6206 -6.6976 2.3949
-6.3611 -6.9110 2.3949
-6.0940 -7.1136 2.3949
-5.8198 -7.3051 2.3949
-5.5390 -7.4852 2.3949
-5.2522 -7.6538 2.3949
-4.9599 -7.8108 2.3949
-4.6625 -7.9559 2.3949
-4.3607 -8.0890 2.3949
-4.0549 -8.2101 2.3949
-3.7456 -8.3190 2.3949
-3.4334 -8.4159 2.3949
-3.1189 -8.5004 2.3949
-2.8025 -8.5727 2.3949
-2.4846 -8.6329 2.3949
-2.1659 -8.6810 2.3949
-1.8468 -8.7170 2.3949
-1.5277 -8.7410 2.3949
-1.2091 -8.7531 2.3949
-0.8916 -8.7535 2.3949
-0.5754 -8.7422 2.3949
-0.2611 -8.7195 2.3949
0.0509 -8.6855 2.3949
0.3602 -8.6404 2.3949
0.6665 -8.5843 2.3949
0.9693 -8.5176 2.3949
1.2683 -8.4403 2.3949
1.5632 -8.3528 2.3949
1.8536 -8.2553 2.3949
2.1392 -8.1480 2.3949
2.4196 -8.0311 2.3949
2.5232 -7.4020 2.2425
2.7755 -7.2756 2.2426
3.0231 -7.1430 2.2432
3.2649 -7.0023 2.2439
3.5009 -6.8538 2.2445
3.7307 -6.6979 2.2451
3.9542 -6.5346 2.2457
4.1712 -6.3644 2.2462
4.3814 -6.1874 2.2468
4.5848 -6.0040 2.2473
4.7752 -5.8073 2.2451
4.9633 -5.6112 2.2452
5.1440 -5.4095 2.2454
5.3172 -5.2025 2.2455
6.4874 -1.2405 2.2443
6.5135 -1.0025 2.2425
6.5369 -0.7649 2.2425
6.5525 -0.5269 2.2425
6.5603 -0.2888 2.2425
6.5604 -0.0508 2.2425
6.5527 0.1869 2.2425
6.5372 0.4240 2.2425
6.5141 0.6603 2.2425
6.4833 0.8957 2.2425
6.4449 1.1298 2.2425
6.8337 1.4552 2.3949
6.7765 1.7020 2.3949
6.7113 1.9468 2.3949
6.6381 2.1895 2.3949
6.5571 2.4297 2.3949
6.4682 2.6672 2.3949
6.3716 2.9018 2.3949
6.2673 3.1334 2.3949
6.1555 3.3617 2.3949
6.0361 3.5864 2.3949
5.9093 3.8073 2.3949
5.7752 4.0243 2.3949
5.6339 4.2370 2.3949
5.4854 4.4453 2.3949
5.3300 4.6489 2.3949
5.1677 4.8477 2.3949
4.9986 5.0414 2.3949
4.8229 5.2298 2.3949
4.6407 5.4127 2.3949
4.4521 5.5898 2.3949
4.2574 5.7611 2.3949
4.0566 5.9262 2.3949
3.8499 6.0849 2.3949
3.6375 6.2370 2.3949
3.4195 6.3824 2.3949
3.1962 6.5208 2.3949
2.9677 6.6521 2.3949
2.7343 6.7759 2.3949
2.4960 6.8922 2.3949
2.2533 7.0008 2.3949
0.8332 2.9493 0.9947
0.7267 2.9787 0.9917
0.6192 3.0043 0.9886
0.5109 3.0260 0.9855
0.4018 3.0437 0.9823
0.2921 3.0575 0.9791
0.1820 3.0673 0.9758
0.0716 3.0732 0.9725
-0.0389 3.0750 0.9692
-0.1494 3.0728 0.9658
-0.2598 3.0667 0.9623
-0.3699 3.0566 0.9589
-0.4796 3.0424 0.9554
-0.5886 3.0244 0.9519
-0.6970 3.0024 0.9483
-0.8045 2.9765 0.9448
-0.9109 2.9467 0.9413
-2.5955 7.4398 2.3949
-2.8720 7.3721 2.3949
-3.1469 7.2941 2.3949
-3.4198 7.2060 2.3949
-3.6903 7.1076 2.3949
-3.9581 6.9992 2.3949
-4.2227 6.8805 2.3949
-4.4837 6.7518 2.3949
-4.7406 6.6131 2.3949
-4.9931 6.4644 2.3949
-5.2408 6.3060 2.3949
-5.4832 6.1378 2.3949
-5.7200 5.9602 2.3949
-5.9506 5.7732 2.3949
-6.1748 5.5770 2.3949
-6.3920 5.3719 2.3949
-6.6019 5.1580 2.3949
-6.8041 4.9357 2.3949
-6.9982 4.7051 2.3949
-7.1839 4.4667 2.3949
-7.3607 4.2206 2.3949
-7.5282 3.9673 2.3949
-7.6863 3.7070 2.3949
-7.8344 3.4401 2.3949
-7.9724 3.1671 2.3949
-8.0999 2.8884 2.3949
-8.2165 2.6043 2.3949
-8.3222 2.3153 2.3949
-8.4165 2.0218 2.3949
-8.4993 1.7244 2.3949
-8.5705 1.4235 2.3949
-8.6297 1.1195 2.3949
-8.6769 0.8131 2.3949
-8.7119 0.5046 2.3949
-8.7346 0.1947 2.3949
-8.7450 -0.1161 2.3949
-8.7429 -0.4273 2.3949
-8.7284 -0.7385 2.3949
-8.7015 -1.0489 2.3949
-8.6622 -1.3581 2.3949
-8.6104 -1.6656 2.3949
-8.5464 -1.9709 2.3949
-8.4703 -2.2733 2.3949
-8.3821 -2.5723 2.3949
-8.2820 -2.8676 2.3949
-8.1703 -3.1584 2.3949
-8.0470 -3.4445 2.3949
-7.9125 -3.7252 2.3949
-7.7671 -4.0001 2.3949
-7.6109 -4.2687 2.3949
-7.4444 -4.5306 2.3949
-7.2677 -4.7854 2.3949
-7.0813 -5.0327 2.3949
-6.8856 -5.2721 2.3949
-6.6809 -5.5032 2.3949
-6.4675 -5.7257 2.3949
-6.2460 -5.9392 2.3949
-6.0167 -6.1435 2.3949
-5.7800 -6.3382 2.3949
-5.5364 -6.5232 2.3949
-5.2864 -6.6982 2.3949
-5.0303 -6.8630 2.3949
-4.7687 -7.0173 2.3949
-4.5020 -7.1611 2.3949
-4.2307 -7.2942 2.3949
-3.9553 -7.4164 2.3949
-3.6761 -7.5277 2.3949
-3.3937 -7.6280 2.3949
-3.1086 -7.7173 2.3949
-2.8212 -7.7955 2.3949
-2.5320 -7.8626 2.3949
-2.2414 -7.9186 2.3949
-1.9499 -7.9636 2.3949
-1.6578 -7.9975 2.3949
-1.3657 -8.0206 2.3949
-1.0740 -8.0328 2.3949
-0.7830 -8.0342 2.3949
-0.4933 -8.0250 2.3949
-0.2050 -8.0053 2.3949
0.0812 -7.9752 2.3949
0.3652 -7.9349 2.3949
0.6464 -7.8846 2.3949
0.9247 -7.8244 2.3949
1.1995 -7.7545 2.3949
1.4707 -7.6752 2.3949
1.7379 -7.5866 2.3949
2.0008 -7.4889 2.3949
2.2590 -7.3824 2.3949
2.4413 -7.0614 2.3271
2.5851 -6.6893 2.2425
2.8129 -6.5669 2.2428
3.0359 -6.4380 2.2434
3.2536 -6.3018 2.2439
3.4657 -6.1587 2.2445
3.6720 -6.0088 2.2450
3.8723 -5.8523 2.2456
4.0665 -5.6896 2.2461
4.2544 -5.5209 2.2466
4.4359 -5.3463 2.2470
4.6077 -5.1629 2.2461
4.7744 -4.9763 2.2459
4.9348 -4.7855 2.2461
5.0882 -4.5899 2.2462
5.2345 -4.3899 2.2463
5.3736 -4.1857 2.2465
5.5054 -3.9775 2.2466
5.0235 -3.3600 2.0048
5.7470 -3.5504 2.2470
5.8566 -3.3318 2.2471
5.9586 -3.1103 2.2473
6.0523 -2.8858 2.2472
6.1377 -2.6584 2.2469
4.9069 -1.9177 1.7736
5.0920 -1.7804 1.8198
5.6458 -1.7475 1.9977
6.4012 -1.7300 2.2455
6.4476 -1.4943 2.2451
6.4852 -1.2574 2.2444
6.5131 -1.0196 2.2431
6.5355 -0.7818 2.2425
6.5517 -0.5438 2.2425
6.5600 -0.3057 2.2425
6.5606 -0.0677 2.2425
6.5535 0.1700 2.2425
6.5386 0.4072 2.2425
6.5160 0.6436 2.2425
6.4857 0.8790 2.2425
6.4478 1.1133 2.2425
6.8375 1.4376 2.3949
6.7808 1.6845 2.3949
6.7162 1.9295 2.3949
6.6436 2.1723 2.3949
6.5631 2.4127 2.3949
6.4748 2.6504 2.3949
6.3787 2.8853 2.3949
6.2750 3.1171 2.3949
6.1637 3.3456 2.3949
6.0448 3.5706 2.3949
5.9185 3.7918 2.3949
5.7850 4.0090 2.3949
5.6441 4.2221 2.3949
5.4962 4.4307 2.3949
5.3413 4.6346 2.3949
5.1794 4.8338 2.3949
5.0108 5.0278 2.3949
4.8356 5.2167 2.3949
4.6538 5.3999 2.3949
4.4657 5.5775 2.3949
4.2714 5.7492 2.3949
4.0710 5.9147 2.3949
3.8647 6.0738 2.3949
3.6527 6.2265 2.3949
3.4352 6.3723 2.3949
3.2122 6.5112 2.3949
2.9841 6.6430 2.3949
2.7510 6.7674 2.3949
2.5131 6.8842 2.3949
2.2707 6.9933 2.3949
0.8407 2.9470 0.9949
0.7343 2.9768 0.9919
0.6269 3.0026 0.9888
0.5186 3.0246 0.9857
0.4095 3.0426 0.9826
0.2999 3.0567 0.9793
0.1898 3.0668 0.9761
0.0795 3.0729 0.9728
-0.0311 3.0750 0.9694
-0.1416 3.0731 0.9660
-0.2520 3.0673 0.9626
-0.3621 3.0574 0.9591
-0.4718 3.0436 0.9556
-0.5809 3.0258 0.9521
-0.6893 3.0041 0.9486
-0.7969 2.9784 0.9451
-0.9034 2.9489 0.9415
-2.5758 7.4442 2.3949
-2.8524 7.3772 2.3949
-3.1274 7.3000 2.3949
-3.4005 7.2126 2.3949
-3.6712 7.1149 2.3949
-3.9392 7.0072 2.3949
-4.2040 6.8893 2.3949
-4.4653 6.7613 2.3949
-4.7225 6.6232 2.3949
-4.9754 6.4753 2.3949
-5.2234 6.3175 2.3949
-5.4662 6.1501 2.3949
-5.7034 5.9731 2.3949
-5.9344 5.7868 2.3949
-6.1591 5.5912 2.3949
-6.3768 5.3867 2.3949
-6.5872 5.1735 2.3949
-6.7900 4.9517 2.3949
-6.9847 4.7218 2.3949
-7.1710 4.4839 2.3949
-7.3484 4.2383 2.3949
-7.5166 3.9855 2.3949
-7.6754 3.7257 2.3949
-7.8242 3.4593 2.3949
-7.9629 3.1867 2.3949
-8.0912 2.9084 2.3949
-8.2086 2.6246 2.3949
-8.3150 2.3360 2.3949
-8.4102 2.0428 2.3949
-8.4938 1.7456 2.3949
-8.5658 1.4449 2.3949
-8.6259 1.1412 2.3949
-8.6739 0.8349 2.3949
-8.7098 0.5266 2.3949
-8.7334 0.2168 2.3949
-8.7446 -0.0940 2.3949
-8.7435 -0.4052 2.3949
-8.7299 -0.7164 2.3949
-8.7038 -1.0269 2.3949
-8.6653 -1.3362 2.3949
-8.6145 -1.6439 2.3949
-8.5514 -1.9493 2.3949
-8.4761 -2.2519 2.3949
-8.3887 -2.5512 2.3949
-8.2895 -2.8467 2.3949
-8.1786 -3.1379 2.3949
-8.0561 -3.4243 2.3949
-7.9228 -3.7054 2.3949
-7.7778 -3.9807 2.3949
-7.6224 -4.2498 2.3949
-7.4565 -4.5122 2.3949
-7.2806 -4.7676 2.3949
-7.0949 -5.0154 2.3949
-6.8998 -5.2554 2.3949
-6.6957 -5.4870 2.3949
-6.4830 -5.7102 2.3949
-6.2620 -5.9243 2.3949
-6.0332 -6.1293 2.3949
-5.7971 -6.3247 2.3949
-5.5539 -6.5104 2.3949
-5.3043 -6.6861 2.3949
-5.0487 -6.8516 2.3949
-4.7875 -7.0067 2.3949
-4.5211 -7.1512 2.3949
-4.2501 -7.2851 2.3949
-3.9750 -7.4081 2.3949
-3.6960 -7.5202 2.3949
-3.4139 -7.6212 2.3949
-3.1290 -7.7113 2.3949
-2.8417 -7.7903 2.3949
-2.5526 -7.8582 2.3949
-2.2621 -7.9150 2.3949
-1.9706 -7.9607 2.3949
-1.6786 -7.9955 2.3949
-1.3865 -8.0193 2.3949
-1.0947 -8.0322 2.3949
-0.8037 -8.0344 2.3949
-0.5138 -8.0260 2.3949
-0.2254 -8.0070 2.3949
0.0610 -7.9777 2.3949
0.3451 -7.9381 2.3949
0.6266 -7.8885 2.3949
0.9050 -7.8290 2.3949
1.1801 -7.7598 2.3949
1.4516 -7.6811 2.3949
1.7190 -7.5932 2.3949
1.9822 -7.4961 2.3949
2.2409 -7.3903 2.3949
2.4398 -7.1159 2.3423
2.5688 -6.6978 2.2425
2.7968 -6.5757 2.2427
3.0203 -6.4474 2.2433
3.2383 -6.3117 2.2439
3.4508 -6.1691 2.2444
3.6575 -6.0196 2.2450
3.8583 -5.8637 2.2455
4.0530 -5.7014 2.2460
4.2413 -5.5331 2.2465
4.4232 -5.3589 2.2470
4.5966 -5.1771 2.2465
4.7628 -4.9897 2.2459
4.9236 -4.7992 2.2461
5.0775 -4.6039 2.2462
5.2243 -4.4042 2.2463
5.3640 -4.2003 2.2465
5.4963 -3.9924 2.2466
5.0241 -3.3791 2.0081
5.7389 -3.5658 2.2470
5.8491 -3.3475 2.2471
5.9516 -3.1262 2.2473
6.0460 -2.9018 2.2472
6.1318 -2.6746 2.2469
4.9038 -1.9310 1.7740
5.0420 -1.7775 1.8033
6.3429 -1.9811 2.2458
6.3977 -1.7467 2.2455
6.4446 -1.5111 2.2451
6.4829 -1.2743 2.2445
6.5117 -1.0366 2.2433
6.5341 -0.7987 2.2425
6.5508 -0.5607 2.2425
6.5597 -0.3226 2.2425
6.5608 -0.0846 2.2425
6.5542 0.1531 2.2425
6.5399 0.3903 2.2425
6.5179 0.6268 2.2425
6.4881 0.8623 2.2425
6.4508 1.0967 2.2425
6.8412 1.4200 2.3949
6.7851 1.6670 2.3949
6.7210 1.9122 2.3949
6.6490 2.1552 2.3949
6.5691 2.3957 2.3949
6.4813 2.6336 2.3949
6.3858 2.8687 2.3949
6.2826 3.1007 2.3949
6.1718 3.3295 2.3949
6.0535 3.5547 2.3949
5.9278 3.7762 2.3949
5.7947 3.9937 2.3949
5.6544 4.2070 2.3949
5.5069 4.4160 2.3949
5.3525 4.6203 2.3949
5.1911 4.8198 2.3949
5.0230 5.0142 2.3949
4.8482 5.2034 2.3949
4.6670 5.3871 2.3949
4.4793 5.5650 2.3949
4.2854 5.7372 2.3949
4.0854 5.9031 2.3949
3.8796 6.0628 2.3949
3.6680 6.2159 2.3949
3.4508 6.3622 2.3949
3.2282 6.5016 2.3949
3.0005 6.6339 2.3949
2.7677 6.7588 2.3949
2.5302 6.8762 2.3949
2.2881 6.9858 2.3949
0.8483 2.9448 0.9951
0.7419 2.9748 0.9921
0.6345 3.0009 0.9891
0.5263 3.0231 0.9860
0.4173 3.0414 0.9828
0.3077 3.0558 0.9796
0.1977 3.0662 0.9763
0.0873 3.0726 0.9730
-0.0232 3.0750 0.9696
-0.1337 3.0734 0.9662
-0.2441 3.0678 0.9628
-0.3543 3.0582 0.9593
-0.4640 3.0447 0.9559
-0.5732 3.0272 0.9524
-0.6816 3.0057 0.9488
-0.7893 2.9804 0.9453
-0.8959 2.9512 0.9418
-2.5561 7.4486 2.3949
-2.8328 7.3823 2.3949
-3.1079 7.3058 2.3949
-3.3812 7.2191 2.3949
-3.6521 7.1222 2.3949
-3.9203 7.0152 2.3949
-4.1853 6.8980 2.3949
-4.4468 6.7707 2.3949
-4.7044 6.6334 2.3949
-4.9576 6.4861 2.3949
-5.2060 6.3291 2.3949
-5.4491 6.1623 2.3949
-5.6867 5.9860 2.3949
-5.9182 5.8003 2.3949
-6.1433 5.6054 2.3949
-6.3616 5.4016 2.3949
-6.5725 5.1889 2.3949
-6.7759 4.9678 2.3949
-6.9711 4.7384 2.3949
-7.1580 4.5010 2.3949
-7.3361 4.2560 2.3949
-7.5050 4.0037 2.3949
-7.6644 3.7444 2.3949
-7.8140 3.4784 2.3949
-7.9534 3.2063 2.3949
-8.0824 2.9283 2.3949
-8.2006 2.6450 2.3949
-8.3078 2.3566 2.3949
-8.4038 2.0638 2.3949
-8.4883 1.7669 2.3949
-8.5611 1.4664 2.3949
-8.6220 1.1629 2.3949
-8.6709 0.8567 2.3949
-8.7077 0.5486 2.3949
-8.7321 0.2388 2.3949
-8.7443 -0.0719 2.3949
-8.7440 -0.3831 2.3949
-8.7313 -0.6943 2.3949
-8.7061 -1.0048 2.3949
-8.6685 -1.3143 2.3949
-8.6185 -1.6221 2.3949
-8.5563 -1.9276 2.3949
-8.4818 -2.2305 2.3949
-8.3953 -2.5301 2.3949
-8.2970 -2.8259 2.3949
-8.1868 -3.1174 2.3949
-8.0652 -3.4041 2.3949
-7.9323 -3.6856 2.3949
-7.7884 -3.9614 2.3949
-7.6337 -4.2309 2.3949
-7.4686 -4.4938 2.3949
-7.2934 -4.7497 2.3949
-7.1084 -4.9981 2.3949
-6.9140 -5.2386 2.3949
-6.7105 -5.4709 2.3949
-6.4984 -5.6946 2.3949
-6.2780 -5.9094 2.3949
-6.0497 -6.1150 2.3949
-5.8141 -6.3112 2.3949
-5.5714 -6.4976 2.3949
-5.3223 -6.6739 2.3949
-5.0670 -6.8402 2.3949
-4.8062 -6.9960 2.3949
-4.5402 -7.1413 2.3949
-4.2695 -7.2759 2.3949
-3.9946 -7.3997 2.3949
-3.7160 -7.5126 2.3949
-3.4340 -7.6145 2.3949
-3.1493 -7.7053 2.3949
-2.8622 -7.7850 2.3949
-2.5732 -7.8537 2.3949
-2.2828 -7.9113 2.3949
-1.9913 -7.9578 2.3949
-1.6993 -7.9934 2.3949
-1.4072 -8.0180 2.3949
-1.1154 -8.0317 2.3949
-0.8243 -8.0346 2.3949
-0.5343 -8.0269 2.3949
-0.2459 -8.0087 2.3949
0.0407 -7.9801 2.3949
0.3250 -7.9412 2.3949
0.6066 -7.8923 2.3949
0.8853 -7.8335 2.3949
1.1607 -7.7650 2.3949
1.4324 -7.6870 2.3949
1.7002 -7.5997 2.3949
1.9637 -7.5033 2.3949
2.2226 -7.3981 2.3949
2.4383 -7.1711 2.3577
2.5524 -6.7062 2.2425
2.7808 -6.5846 2.2427
3.0046 -6.4567 2.2433
3.2230 -6.3216 2.2439
3.4359 -6.1794 2.2444
3.6430 -6.0305 2.2450
3.8443 -5.8750 2.2455
4.0393 -5.7131 2.2460
4.2281 -5.5452 2.2465
4.4105 -5.3715 2.2470
4.5858 -5.1915 2.2472
4.7511 -5.0031 2.2459
4.9125 -4.8129 2.2460
6.0325 -1.1556 2.2425
6.0621 -0.9348 2.2425
6.0844 -0.7136 2.2425
6.0993 -0.4919 2.2425
6.1070 -0.2701 2.2425
6.1074 -0.0484 2.2425
6.1005 0.1730 2.2425
6.0864 0.3940 2.2425
6.0651 0.6142 2.2425
6.0365 0.8335 2.2425
6.0008 1.0517 2.2425
6.3628 1.3548 2.3949
6.3095 1.5848 2.3949
6.2487 1.8129 2.3949
6.1804 2.0390 2.3949
6.1048 2.2628 2.3949
6.0218 2.4840 2.3949
5.9315 2.7026 2.3949
5.8340 2.9182 2.3949
5.7295 3.1306 2.3949
5.6179 3.3398 2.3949
5.4994 3.5454 2.3949
5.3740 3.7471 2.3949
5.2419 3.9449 2.3949
5.1031 4.1384 2.3949
4.9579 4.3276 2.3949
4.8062 4.5123 2.3949
4.6482 4.6920 2.3949
4.4840 4.8668 2.3949
4.3138 5.0363 2.3949
4.1377 5.2004 2.3949
3.9559 5.3589 2.3949
3.7685 5.5117 2.3949
3.5756 5.6584 2.3949
3.3774 5.7989 2.3949
3.1741 5.9330 2.3949
2.9659 6.0606 2.3949
2.7530 6.1814 2.3949
2.5355 6.2952 2.3949
2.3137 6.4020 2.3949
0.8659 2.6965 0.9933
0.7684 2.7272 0.9906
0.6699 2.7544 0.9878
0.5705 2.7780 0.9850
0.4703 2.7980 0.9821
0.3694 2.8144 0.9792
0.2680 2.8272 0.9762
0.1661 2.8362 0.9732
0.0640 2.8416 0.9701
-0.0382 2.8433 0.9670
-0.1404 2.8413 0.9639
-0.2425 2.8356 0.9607
-0.3443 2.8262 0.9575
-0.4457 2.8132 0.9543
-0.5466 2.7965 0.9510
-0.6468 2.7761 0.9478
-0.7462 2.7522 0.9445
-0.8446 2.7246 0.9412
-2.4053 6.8775 2.3949
-2.6603 6.8129 2.3949
-2.9136 6.7390 2.3949
-3.1649 6.6557 2.3949
-3.4139 6.5630 2.3949
-3.6602 6.4609 2.3949
-3.9034 6.3496 2.3949
-4.1431 6.2290 2.3949
-4.3790 6.0993 2.3949
-4.6107 5.9605 2.3949
-4.8378 5.8128 2.3949
-5.0600 5.6562 2.3949
-5.2768 5.4910 2.3949
-5.4879 5.3173 2.3949
-5.6930 5.1352 2.3949
-5.8916 4.9450 2.3949
-6.0834 4.7469 2.3949
-6.2680 4.5411 2.3949
-6.4451 4.3279 2.3949
-6.6144 4.1075 2.3949
-6.7756 3.8803 2.3949
-6.9282 3.6465 2.3949
-7.0720 3.4065 2.3949
-7.2068 3.1605 2.3949
-7.3322 2.9090 2.3949
-7.4480 2.6524 2.3949
-7.5539 2.3909 2.3949
-7.6497 2.1251 2.3949
-7.7351 1.8553 2.3949
-7.8101 1.5819 2.3949
-7.8743 1.3054 2.3949
-7.9277 1.0263 2.3949
-7.9702 0.7449 2.3949
-8.0015 0.4617 2.3949
-8.0216 0.1773 2.3949
-8.0305 -0.1079 2.3949
-8.0281 -0.3935 2.3949
-8.0144 -0.6789 2.3949
-7.9893 -0.9637 2.3949
-7.9530 -1.2474 2.3949
-7.9054 -1.5295 2.3949
-7.8466 -1.8095 2.3949
-7.7768 -2.0869 2.3949
-7.6960 -2.3613 2.3949
-7.6044 -2.6323 2.3949
-7.5022 -2.8992 2.3949
-7.3896 -3.1619 2.3949
-7.2667 -3.4196 2.3949
-7.1338 -3.6722 2.3949
-6.9911 -3.9190 2.3949
-6.8389 -4.1598 2.3949
-6.6775 -4.3942 2.3949
-6.5072 -4.6218 2.3949
-6.3284 -4.8422 2.3949
-6.1413 -5.0551 2.3949
-5.9463 -5.2602 2.3949
-5.7437 -5.4573 2.3949
-5.5340 -5.6459 2.3949
-5.3176 -5.8259 2.3949
-5.0947 -5.9971 2.3949
-4.8658 -6.1591 2.3949
-4.6314 -6.3118 2.3949
-4.3918 -6.4552 2.3949
-4.1474 -6.5889 2.3949
-3.8987 -6.7129 2.3949
-3.6461 -6.8270 2.3949
-3.3900 -6.9311 2.3949
-3.1308 -7.0252 2.3949
-2.8690 -7.1092 2.3949
-2.6050 -7.1831 2.3949
-2.3391 -7.2468 2.3949
-2.0718 -7.3004 2.3949
-1.8036 -7.3438 2.3949
-1.5347 -7.3771 2.3949
-1.2657 -7.4004 2.3949
-0.9968 -7.4137 2.3949
-0.7285 -7.4171 2.3949
-0.4611 -7.4107 2.3949
-0.1950 -7.3946 2.3949
0.0694 -7.3689 2.3949
0.3318 -7.3337 2.3949
0.5919 -7.2893 2.3949
0.8493 -7.2357 2.3949
1.1038 -7.1731 2.3949
1.3550 -7.1017 2.3949
1.6026 -7.0217 2.3949
1.8464 -6.9332 2.3949
2.0861 -6.8365 2.3949
2.3214 -6.7318 2.3949
2.4309 -6.3050 2.2812
2.6011 -6.0856 2.2425
2.8082 -5.9670 2.2429
3.0106 -5.8422 2.2434
3.2080 -5.7109 2.2439
3.4001 -5.5732 2.2444
3.5867 -5.4294 2.2449
3.7677 -5.2796 2.2454
3.9429 -5.1242 2.2458
4.1121 -4.9633 2.2463
4.2753 -4.7971 2.2467
4.4322 -4.6260 2.2471
4.5807 -4.4480 2.2465
4.7242 -4.2671 2.2466
4.8611 -4.0820 2.2468
4.9914 -3.8929 2.2469
5.1149 -3.7000 2.2471
5.2316 -3.5036 2.2472
5.0162 -3.1027 2.1105
5.4439 -3.1009 2.2474
5.5385 -2.8947 2.2471
5.6260 -2.6859 2.2468
5.7063 -2.4748 2.2464
4.9064 -1.9200 1.9069
5.0719 -1.7758 1.9487
5.9023 -1.8294 2.2450
5.9517 -1.6109 2.2440
5.9944 -1.3915 2.2432
6.0301 -1.1712 2.2425
6.0602 -0.9505 2.2425
6.0830 -0.7293 2.2425
6.0985 -0.5077 2.2425
6.1067 -0.2859 2.2425
6.1076 -0.0642 2.2425
6.1013 0.1573 2.2425
6.0877 0.3783 2.2425
6.0668 0.5986 2.2425
6.0388 0.8180 2.2425
6.0036 1.0363 2.2425
6.3663 1.3384 2.3949
6.3136 1.5685 2.3949
6.2533 1.7968 2.3949
6.1855 2.0230 2.3949
6.1104 2.2470 2.3949
6.0279 2.4684 2.3949
5.9382 2.6872 2.3949
5.8412 2.9030 2.3949
5.7371 3.1157 2.3949
5.6261 3.3251 2.3949
5.5080 3.5308 2.3949
5.3831 3.7329 2.3949
5.2515 3.9310 2.3949
5.1132 4.1248 2.3949
4.9684 4.3144 2.3949
4.8171 4.4993 2.3949
4.6596 4.6794 2.3949
4.4959 4.8545 2.3949
4.3261 5.0244 2.3949
4.1504 5.1890 2.3949
3.9690 5.3479 2.3949
3.7820 5.5011 2.3949
3.5895 5.6482 2.3949
3.3917 5.7891 2.3949
3.1888 5.9237 2.3949
2.9809 6.0518 2.3949
2.7683 6.1730 2.3949
2.5511 6.2874 2.3949
2.3296 6.3946 2.3949
0.8727 2.6941 0.9935
0.7754 2.7251 0.9908
0.6769 2.7526 0.9880
0.5776 2.7765 0.9852
0.4774 2.7967 0.9823
0.3766 2.8134 0.9794
0.2752 2.8264 0.9764
0.1734 2.8357 0.9734
0.0713 2.8414 0.9703
-0.0309 2.8433 0.9672
-0.1331 2.8416 0.9641
-0.2352 2.8361 0.9609
-0.3371 2.8270 0.9577
-0.4385 2.8142 0.9545
-0.5394 2.7978 0.9513
-0.6397 2.7777 0.9480
-0.7391 2.7540 0.9447
-0.8377 2.7267 0.9415
-0.9352 2.6959 0.9382
-2.6422 6.8178 2.3949
-2.8956 6.7445 2.3949
-3.1471 6.6619 2.3949
-3.3963 6.5698 2.3949
-3.6428 6.4685 2.3949
-3.8862 6.3578 2.3949
-4.1262 6.2379 2.3949
-4.3624 6.1088 2.3949
-4.5944 5.9707 2.3949
-4.8219 5.8236 2.3949
-5.0444 5.6676 2.3949
-5.2616 5.5030 2.3949
-5.4731 5.3299 2.3949
-5.6786 5.1484 2.3949
-5.8777 4.9588 2.3949
-6.0700 4.7612 2.3949
-6.2551 4.5560 2.3949
-6.4328 4.3433 2.3949
-6.6027 4.1234 2.3949
-6.7644 3.8967 2.3949
-6.9176 3.6633 2.3949
-7.0621 3.4237 2.3949
-7.1975 3.1782 2.3949
-7.3236 2.9271 2.3949
-7.4401 2.6708 2.3949
-7.5467 2.4097 2.3949
-7.6432 2.1441 2.3949
-7.7294 1.8746 2.3949
-7.8051 1.6014 2.3949
-7.8701 1.3252 2.3949
-7.9243 1.0462 2.3949
-7.9675 0.7649 2.3949
-7.9996 0.4819 2.3949
-8.0206 0.1975 2.3949
-8.0302 -0.0877 2.3949
-8.0286 -0.3732 2.3949
-8.0157 -0.6587 2.3949
-7.9915 -0.9435 2.3949
-7.9559 -1.2273 2.3949
-7.9091 -1.5095 2.3949
-7.8512 -1.7897 2.3949
-7.7821 -2.0673 2.3949
-7.7021 -2.3419 2.3949
-7.6113 -2.6131 2.3949
-7.5099 -2.8804 2.3949
-7.3979 -3.1433 2.3949
-7.2757 -3.4015 2.3949
-7.1435 -3.6544 2.3949
-7.0015 -3.9017 2.3949
-6.8500 -4.1429 2.3949
-6.6893 -4.3778 2.3949
-6.5196 -4.6058 2.3949
-6.3414 -4.8268 2.3949
-6.1548 -5.0402 2.3949
-5.9604 -5.2459 2.3949
-5.7584 -5.4435 2.3949
-5.5492 -5.6328 2.3949
-5.3332 -5.8134 2.3949
-5.1107 -5.9852 2.3949
-4.8823 -6.1479 2.3949
-4.6482 -6.3014 2.3949
-4.4090 -6.4453 2.3949
-4.1649 -6.5798 2.3949
-3.9165 -6.7044 2.3949
-3.6642 -6.8192 2.3949
-3.4083 -6.9240 2.3949
-3.1493 -7.0189 2.3949
-2.8877 -7.1036 2.3949
-2.6238 -7.1782 2.3949
-2.3580 -7.2426 2.3949
-2.0909 -7.2969 2.3949
-1.8227 -7.3411 2.3949
-1.5538 -7.3751 2.3949
-1.2848 -7.3991 2.3949
-1.0159 -7.4131 2.3949
-0.7475 -7.4172 2.3949
-0.4801 -7.4115 2.3949
-0.2139 -7.3961 2.3949
0.0507 -7.3710 2.3949
0.3132 -7.3366 2.3949
0.5735 -7.2928 2.3949
0.8311 -7.2398 2.3949
1.0858 -7.1778 2.3949
1.3373 -7.1071 2.3949
1.5852 -7.0277 2.3949
1.8292 -6.9398 2.3949
2.0692 -6.8437 2.3949
2.3048 -6.7395 2.3949
2.4295 -6.3497 2.2946
2.5926 -6.1087 2.2480
2.7936 -5.9756 2.2428
2.9964 -5.8513 2.2434
3.1941 -5.7204 2.2439
3.3866 -5.5832 2.2444
3.5736 -5.4398 2.2449
3.7550 -5.2904 2.2453
3.9306 -5.1354 2.2458
4.1003 -4.9749 2.2463
4.2639 -4.8091 2.2467
4.4213 -4.6383 2.2471
4.5711 -4.4616 2.2469
4.7142 -4.2801 2.2466
4.8516 -4.0953 2.2468
4.9824 -3.9065 2.2469
5.1064 -3.7138 2.2470
5.2235 -3.5177 2.2472
5.0167 -3.1209 2.1137
5.4369 -3.1155 2.2474
5.5320 -2.9094 2.2471
5.6200 -2.7008 2.2468
5.7008 -2.4899 2.2465
4.9033 -1.9333 1.9073
5.0383 -1.7786 1.9373
5.8985 -1.8449 2.2450
5.9485 -1.6265 2.2440
5.9916 -1.4071 2.2432
6.0278 -1.1869 2.2426
6.0583 -0.9662 2.2425
6.0816 -0.7450 2.2425
6.0977 -0.5234 2.2425
6.1064 -0.3016 2.2425
6.1078 -0.0799 2.2425
6.1020 0.1416 2.2425
6.0889 0.3626 2.2425
6.0685 0.5830 2.2425
6.0410 0.8024 2.2425
6.0063 1.0208 2.2425
6.3698 1.3220 2.3949
6.3176 1.5522 2.3949
6.2578 1.7806 2.3949
6.1906 2.0070 2.3949
6.1160 2.2311 2.3949
6.0340 2.4528 2.3949
5.9448 2.6717 2.3949
5.8483 2.8878 2.3949
5.7448 3.1007 2.3949
5.6342 3.3103 2.3949
5.5166 3.5163 2.3949
5.3922 3.7187 2.3949
5.2611 3.9170 2.3949
5.1233 4.1112 2.3949
4.9789 4.3011 2.3949
4.8281 4.4864 2.3949
4.6710 4.6668 2.3949
4.5077 4.8423 2.3949
4.3384 5.0125 2.3949
4.1631 5.1774 2.3949
3.9821 5.3367 2.3949
3.7954 5.4900 2.3949
3.6033 5.6379 2.3949
3.4059 5.7793 2.3949
3.2033 5.9144 2.3949
2.9958 6.0429 2.3949
2.7835 6.1646 2.3949
2.5667 6.2795 2.3949
2.3454 6.3873 2.3949
0.8796 2.6918 0.9937
0.7823 2.7230 0.9910
0.6840 2.7507 0.9882
0.5847 2.7749 0.9854
0.4845 2.7954 0.9826
0.3837 2.8123 0.9796
0.2824 2.8256 0.9767
0.1806 2.8352 0.9736
0.0786 2.8411 0.9706
-0.0237 2.8433 0.9675
-0.1259 2.8418 0.9643
-0.2280 2.8366 0.9611
-0.3298 2.8278 0.9579
-0.4313 2.8153 0.9547
-0.5323 2.7991 0.9515
-0.6326 2.7792 0.9482
-0.7321 2.7558 0.9450
-0.8307 2.7288 0.9417
-0.9283 2.6982 0.9384
-2.6241 6.8227 2.3949
-2.8777 6.7500 2.3949
-3.1293 6.6681 2.3949
-3.3787 6.5767 2.3949
-3.6254 6.4760 2.3949
-3.8690 6.3660 2.3949
-4.1093 6.2467 2.3949
-4.3458 6.1183 2.3949
-4.5781 5.9808 2.3949
-4.8059 5.8343 2.3949
-5.0288 5.6790 2.3949
-5.2464 5.5150 2.3949
-5.4583 5.3425 2.3949
-5.6642 5.1616 2.3949
-5.8638 4.9725 2.3949
-6.0566 4.7755 2.3949
-6.2422 4.5708 2.3949
-6.4204 4.3586 2.3949
-6.5909 4.1393 2.3949
-6.7532 3.9130 2.3949
-6.9070 3.6801 2.3949
-7.0522 3.4409 2.3949
-7.1882 3.1958 2.3949
-7.3150 2.9451 2.3949
-7.4321 2.6891 2.3949
-7.5395 2.4284 2.3949
-7.6367 2.1631 2.3949
-7.7236 1.8938 2.3949
-7.8001 1.6210 2.3949
-7.8659 1.3449 2.3949
-7.9208 1.0661 2.3949
-7.9648 0.7850 2.3949
-7.9977 0.5020 2.3949
-8.0194 0.2178 2.3949
-8.0299 -0.0674 2.3949
-8.0291 -0.3529 2.3949
-8.0170 -0.6384 2.3949
-7.9936 -0.9233 2.3949
-7.9588 -1.2072 2.3949
-7.9128 -1.4895 2.3949
-7.8557 -1.7698 2.3949
-7.7874 -2.0477 2.3949
-7.7082 -2.3225 2.3949
-7.6181 -2.5940 2.3949
-7.5174 -2.8616 2.3949
-7.4062 -3.1248 2.3949
-7.2848 -3.3833 2.3949
-7.1532 -3.6366 2.3949
-7.0119 -3.8843 2.3949
-6.8611 -4.1260 2.3949
-6.7010 -4.3613 2.3949
-6.5320 -4.5899 2.3949
-6.3543 -4.8113 2.3949
-6.1684 -5.0253 2.3949
-5.9744 -5.2316 2.3949
-5.7730 -5.4298 2.3949
-5.5643 -5.6196 2.3949
-5.3487 -5.8009 2.3949
-5.1267 -5.9733 2.3949
-4.8987 -6.1367 2.3949
-4.6650 -6.2908 2.3949
-4.4261 -6.4354 2.3949
-4.1824 -6.5705 2.3949
-3.9343 -6.6959 2.3949
-3.6822 -6.8114 2.3949
-3.4266 -6.9169 2.3949
-3.1678 -7.0124 2.3949
-2.9064 -7.0979 2.3949
-2.6426 -7.1732 2.3949
-2.3770 -7.2384 2.3949
-2.1099 -7.2934 2.3949
-1.8418 -7.3382 2.3949
-1.5730 -7.3730 2.3949
-1.3039 -7.3977 2.3949
-1.0350 -7.4124 2.3949
-0.7666 -7.4172 2.3949
-0.4990 -7.4122 2.3949
-0.2327 -7.3975 2.3949
0.0319 -7.3731 2.3949
0.2947 -7.3393 2.3949
0.5551 -7.2962 2.3949
0.8129 -7.2439 2.3949
1.0678 -7.1825 2.3949
1.3195 -7.1124 2.3949
1.5677 -7.0336 2.3949
1.8120 -6.9463 2.3949
2.0523 -6.8507 2.3949
2.2883 -6.7472 2.3949
2.4282 -6.3949 2.3081
2.5714 -6.1020 2.2425
2.7790 -5.9842 2.2428
2.9822 -5.8603 2.2433
3.1803 -5.7299 2.2438
3.3731 -5.5931 2.2443
3.5605 -5.4502 2.2448
3.7423 -5.3012 2.2453
3.9183 -5.1466 2.2458
4.0884 -4.9865 2.2462
4.2525 -4.8210 2.2467
4.4103 -4.6506 2.2471
4.5616 -4.4751 2.2474
5.6349 -1.0813 2.2425
5.6630 -0.8751 2.2425
5.6843 -0.6682 2.2425
5.6987 -0.4610 2.2425
5.7062 -0.2536 2.2425
5.7068 -0.0463 2.2425
5.7006 0.1608 2.2425
5.6876 0.3674 2.2425
5.6678 0.5734 2.2425
5.6412 0.7785 2.2425
5.6136 0.9836 2.2448
5.9463 1.2660 2.3949
5.8964 1.4811 2.3949
5.8395 1.6945 2.3949
5.7756 1.9060 2.3949
5.7047 2.1151 2.3949
5.6269 2.3220 2.3949
5.5422 2.5263 2.3949
5.4509 2.7278 2.3949
5.3528 2.9264 2.3949
5.2481 3.1217 2.3949
5.1370 3.3137 2.3949
5.0194 3.5021 2.3949
4.8955 3.6868 2.3949
4.7654 3.8673 2.3949
4.6291 4.0438 2.3949
4.4869 4.2159 2.3949
4.3387 4.3835 2.3949
4.1849 4.5462 2.3949
4.0253 4.7041 2.3949
3.8603 4.8568 2.3949
3.6900 5.0042 2.3949
3.5144 5.1461 2.3949
3.3338 5.2824 2.3949
3.1482 5.4128 2.3949
2.9580 5.5371 2.3949
2.7632 5.6552 2.3949
2.5640 5.7670 2.3949
2.3606 5.8722 2.3949
0.8919 2.4731 0.9920
0.8024 2.5049 0.9896
