ply
format ascii 1.0
element vertex 2176
property float32 x
property float32 y
property float32 z
end_header
-5.9645 -1.3482 2.3919
-5.9142 -1.5607 2.3919
-5.8559 -1.7712 2.3919
-5.7898 -1.9794 2.3919
-5.7099 -2.1827 2.3893
-5.6034 -2.3745 2.3787
-5.4972 -2.5647 2.3710
-5.3911 -2.7536 2.3664
-5.2848 -2.9418 2.3647
-5.1780 -3.1295 2.3659
-5.0707 -3.3174 2.3701
-4.9623 -3.5057 2.3773
-4.8528 -3.6951 2.3875
-4.7245 -3.8713 2.3919
-4.5809 -4.0355 2.3919
-4.4314 -4.1941 2.3919
-4.2762 -4.3470 2.3919
-4.1155 -4.4940 2.3919
-3.9495 -4.6347 2.3919
-3.7784 -4.7693 2.3919
-3.6027 -4.8970 2.3919
-3.4225 -5.0182 2.3919
-3.2380 -5.1325 2.3919
-3.0495 -5.2398 2.3919
-2.8574 -5.3400 2.3919
-2.6618 -5.4329 2.3919
-2.4631 -5.5184 2.3919
-2.2616 -5.5965 2.3919
-2.0575 -5.6671 2.3919
-1.8513 -5.7299 2.3919
-1.6430 -5.7850 2.3919
-1.4331 -5.8325 2.3919
-1.2218 -5.8721 2.3919
-1.0095 -5.9039 2.3919
-0.7964 -5.9279 2.3919
-0.5828 -5.9441 2.3919
-0.3690 -5.9524 2.3919
-0.1553 -5.9530 2.3919
0.0580 -5.9457 2.3919
0.2706 -5.9307 2.3919
0.4822 -5.9080 2.3919
0.6926 -5.8777 2.3919
0.9015 -5.8399 2.3919
1.1086 -5.7945 2.3919
1.3136 -5.7418 2.3919
1.5164 -5.6818 2.3919
1.7165 -5.6146 2.3919
1.9138 -5.5403 2.3919
2.1081 -5.4591 2.3919
2.2991 -5.3712 2.3919
2.4865 -5.2765 2.3919
2.6701 -5.1754 2.3919
2.8498 -5.0679 2.3919
3.0253 -4.9542 2.3919
3.1963 -4.8345 2.3919
3.3628 -4.7089 2.3919
3.5245 -4.5777 2.3919
3.6812 -4.4410 2.3919
3.8327 -4.2991 2.3919
3.9790 -4.1520 2.3919
4.1198 -4.0001 2.3919
4.2549 -3.8435 2.3919
4.3842 -3.6824 2.3919
4.5077 -3.5171 2.3919
4.6251 -3.3477 2.3919
4.7363 -3.1745 2.3919
4.8413 -2.9977 2.3919
4.9399 -2.8176 2.3919
5.0320 -2.6343 2.3919
5.1175 -2.4481 2.3919
5.1964 -2.2592 2.3919
5.2686 -2.0678 2.3919
5.3339 -1.8743 2.3919
5.3924 -1.6787 2.3919
5.4441 -1.4815 2.3919
5.4888 -1.2827 2.3919
5.5264 -1.0826 2.3919
5.5571 -0.8815 2.3919
5.5808 -0.6797 2.3919
5.5974 -0.4772 2.3919
5.6070 -0.2745 2.3919
5.6096 -0.0716 2.3919
5.6051 0.1311 2.3919
5.5935 0.3334 2.3919
5.5750 0.5351 2.3919
5.5496 0.7360 2.3919
5.5171 0.9358 2.3919
5.4779 1.1343 2.3919
5.4317 1.3312 2.3919
5.3788 1.5264 2.3919
5.3192 1.7196 2.3919
5.2530 1.9106 2.3919
5.1802 2.0992 2.3919
5.1009 2.2852 2.3919
5.0152 2.4683 2.3919
4.9232 2.6484 2.3919
4.8251 2.8251 2.3919
4.7209 2.9984 2.3919
4.6107 3.1681 2.3919
4.4947 3.3338 2.3919
4.3730 3.4956 2.3919
4.2457 3.6530 2.3919
4.1129 3.8060 2.3919
3.9749 3.9544 2.3919
3.8317 4.0980 2.3919
3.6836 4.2366 2.3919
3.5306 4.3701 2.3919
3.3730 4.4983 2.3919
4.0245 3.4001 2.3919
3.9007 3.5451 2.3919
3.7720 3.6858 2.3919
3.6384 3.8220 2.3919
3.5000 3.9535 2.3919
3.3571 4.0802 2.3919
3.2097 4.2019 2.3919
3.0582 4.3185 2.3919
2.9025 4.4298 2.3919
2.7429 4.5357 2.3919
2.5797 4.6361 2.3919
2.4128 4.7308 2.3919
0.9101 1.9558 0.9706
0.8391 1.9879 0.9699
0.7670 2.0175 0.9691
0.6939 2.0444 0.9683
0.6198 2.0687 0.9674
0.5450 2.0903 0.9666
0.4693 2.1092 0.9657
0.3931 2.1254 0.9647
0.3163 2.1388 0.9637
0.2391 2.1494 0.9627
0.1615 2.1572 0.9617
0.0837 2.1622 0.9606
0.0057 2.1644 0.9595
-0.0722 2.1638 0.9584
-0.1501 2.1604 0.9573
-0.2279 2.1542 0.9561
-0.3053 2.1451 0.9550
-0.3824 2.1333 0.9538
-0.4590 2.1187 0.9526
-0.5350 2.1013 0.9514
-0.6103 2.0812 0.9501
-0.6849 2.0584 0.9489
-0.7586 2.0329 0.9476
-0.8313 2.0048 0.9463
-0.9030 1.9741 0.9451
-2.4505 4.8854 2.3758
-2.6281 4.8012 2.3755
-2.8029 4.7108 2.3754
-2.9747 4.6144 2.3754
-3.1434 4.5120 2.3756
-3.3087 4.4037 2.3759
-3.4704 4.2896 2.3764
-3.6284 4.1698 2.3770
-3.7823 4.0444 2.3778
-3.9322 3.9136 2.3787
-4.0775 3.7774 2.3798
-4.2180 3.6357 2.3808
-4.3537 3.4889 2.3820
-4.4844 3.3372 2.3833
-4.6094 3.1804 2.3844
-4.7289 3.0189 2.3856
-4.8425 2.8529 2.3868
-4.9499 2.6824 2.3879
-5.0511 2.5079 2.3890
-5.1455 2.3292 2.3898
-5.2333 2.1470 2.3906
-5.3138 1.9612 2.3912
-5.3873 1.7722 2.3916
-5.4532 1.5803 2.3918
-5.5118 1.3859 2.3919
-5.5630 1.1892 2.3919
-5.6070 0.9907 2.3919
-5.6435 0.7904 2.3919
-5.6727 0.5889 2.3919
-5.6944 0.3862 2.3919
-5.7085 0.1828 2.3919
-5.7151 -0.0211 2.3919
-5.7141 -0.2252 2.3919
-5.7055 -0.4293 2.3919
-5.6893 -0.6329 2.3919
-5.6655 -0.8359 2.3919
-5.6342 -1.0380 2.3919
-5.5954 -1.2388 2.3919
-5.5491 -1.4380 2.3919
-5.4954 -1.6354 2.3919
-5.4344 -1.8308 2.3919
-5.3661 -2.0237 2.3919
-5.2907 -2.2139 2.3919
-5.2082 -2.4012 2.3919
-5.1188 -2.5853 2.3919
-5.0226 -2.7660 2.3919
-4.9198 -2.9429 2.3919
-4.8104 -3.1158 2.3919
-4.6948 -3.2844 2.3919
-4.5729 -3.4486 2.3919
-4.4451 -3.6081 2.3919
-4.3114 -3.7627 2.3919
-4.1722 -3.9121 2.3919
-4.0276 -4.0562 2.3919
-3.8777 -4.1948 2.3919
-3.7230 -4.3276 2.3919
-3.5635 -4.4545 2.3919
-3.3995 -4.5753 2.3919
-3.2312 -4.6899 2.3919
-3.0589 -4.7980 2.3919
-2.8829 -4.8997 2.3919
-2.7034 -4.9947 2.3919
-2.5206 -5.0830 2.3919
-2.3349 -5.1643 2.3919
-2.1464 -5.2387 2.3919
-1.9556 -5.3061 2.3919
-1.7625 -5.3663 2.3919
-1.5676 -5.4193 2.3919
-1.3710 -5.4651 2.3919
-1.1731 -5.5036 2.3919
-0.9742 -5.5347 2.3919
-0.7744 -5.5586 2.3919
-0.5741 -5.5751 2.3919
-0.3736 -5.5843 2.3919
-0.1732 -5.5861 2.3919
0.0270 -5.5807 2.3919
0.2266 -5.5680 2.3919
0.4253 -5.5481 2.3919
0.6230 -5.5210 2.3919
0.8193 -5.4868 2.3919
1.0140 -5.4456 2.3919
1.2068 -5.3974 2.3919
1.3975 -5.3424 2.3919
1.5859 -5.2806 2.3919
1.7716 -5.2122 2.3919
1.9546 -5.1372 2.3919
2.1345 -5.0558 2.3919
2.3111 -4.9681 2.3919
2.4843 -4.8743 2.3919
2.6537 -4.7745 2.3919
2.8193 -4.6688 2.3919
2.9808 -4.5574 2.3919
3.1380 -4.4405 2.3919
3.2908 -4.3182 2.3919
3.4389 -4.1908 2.3919
3.5822 -4.0583 2.3919
3.7206 -3.9210 2.3919
3.8538 -3.7791 2.3919
3.9818 -3.6327 2.3919
4.1044 -3.4820 2.3919
4.2215 -3.3273 2.3919
4.3329 -3.1688 2.3919
4.4385 -3.0066 2.3919
4.5383 -2.8410 2.3919
4.6321 -2.6721 2.3919
4.7198 -2.5003 2.3919
4.8013 -2.3256 2.3919
4.8766 -2.1484 2.3919
4.9455 -1.9688 2.3919
5.0081 -1.7871 2.3919
5.0643 -1.6035 2.3919
5.1139 -1.4182 2.3919
5.1570 -1.2314 2.3919
5.1936 -1.0433 2.3919
5.2235 -0.8543 2.3919
5.2468 -0.6644 2.3919
5.2635 -0.4740 2.3919
5.2736 -0.2833 2.3919
5.2770 -0.0924 2.3919
5.2737 0.0984 2.3919
5.2639 0.2889 2.3919
5.2474 0.4788 2.3919
5.2244 0.6680 2.3919
5.1948 0.8562 2.3919
5.1587 1.0432 2.3919
5.1162 1.2288 2.3919
5.0673 1.4127 2.3919
5.0120 1.5948 2.3919
4.9505 1.7749 2.3919
4.8827 1.9527 2.3919
4.8089 2.1281 2.3919
4.7290 2.3008 2.3919
4.6431 2.4706 2.3919
4.5514 2.6374 2.3919
4.4540 2.8009 2.3919
4.3509 2.9610 2.3919
4.2424 3.1174 2.3919
4.1284 3.2700 2.3919
4.0091 3.4187 2.3919
3.8848 3.5631 2.3919
3.7554 3.7032 2.3919
3.6211 3.8388 2.3919
3.4822 3.9697 2.3919
3.3387 4.0958 2.3919
3.1908 4.2169 2.3919
3.0387 4.3329 2.3919
2.8826 4.4435 2.3919
2.7225 4.5487 2.3919
2.5588 4.6484 2.3919
2.3915 4.7423 2.3919
0.9012 1.9600 0.9705
0.8301 1.9918 0.9698
0.7578 2.0210 0.9690
0.6846 2.0477 0.9682
0.6104 2.0716 0.9673
0.5354 2.0929 0.9665
0.4597 2.1114 0.9655
0.3834 2.1272 0.9646
0.3066 2.1403 0.9636
0.2293 2.1505 0.9626
0.1517 2.1580 0.9616
0.0738 2.1627 0.9605
-0.0041 2.1645 0.9594
-0.0821 2.1635 0.9583
-0.1600 2.1598 0.9572
-0.2377 2.1532 0.9560
-0.3151 2.1438 0.9548
-0.3921 2.1316 0.9536
-0.4686 2.1166 0.9524
-0.5446 2.0989 0.9512
-0.6198 2.0785 0.9500
-0.6943 2.0553 0.9487
-0.7678 2.0295 0.9475
-0.8404 2.0011 0.9462
-0.9120 1.9700 0.9449
-2.4731 4.8751 2.3758
-2.6503 4.7901 2.3755
-2.8248 4.6990 2.3754
-2.9962 4.6018 2.3754
-3.1645 4.4986 2.3756
-3.3293 4.3896 2.3759
-3.4906 4.2747 2.3764
-3.6480 4.1542 2.3771
-3.8015 4.0282 2.3779
-3.9508 3.8967 2.3789
-4.0956 3.7598 2.3799
-4.2354 3.6174 2.3810
-4.3705 3.4700 2.3821
-4.5006 3.3177 2.3834
-4.6248 3.1602 2.3846
-4.7436 2.9982 2.3858
-4.8564 2.8316 2.3869
-4.9631 2.6606 2.3880
-5.0634 2.4855 2.3891
-5.1570 2.3064 2.3899
-5.2438 2.1237 2.3907
-5.3235 1.9375 2.3912
-5.3960 1.7481 2.3916
-5.4611 1.5559 2.3918
-5.5187 1.3612 2.3919
-5.5690 1.1643 2.3919
-5.6120 0.9655 2.3919
-5.6476 0.7651 2.3919
-5.6758 0.5633 2.3919
-5.6966 0.3606 2.3919
-5.7098 0.1571 2.3919
-5.7154 -0.0469 2.3919
-5.7134 -0.2510 2.3919
-5.7039 -0.4550 2.3919
-5.6867 -0.6586 2.3919
-5.6620 -0.8615 2.3919
-5.6297 -1.0634 2.3919
-5.5900 -1.2640 2.3919
-5.5427 -1.4631 2.3919
-5.4881 -1.6602 2.3919
-5.4261 -1.8553 2.3919
-5.3570 -2.0479 2.3919
-5.2806 -2.2378 2.3919
-5.1973 -2.4247 2.3919
-5.1070 -2.6084 2.3919
-5.0100 -2.7885 2.3919
-4.9063 -2.9649 2.3919
-4.7962 -3.1373 2.3919
-4.6797 -3.3054 2.3919
-4.5571 -3.4690 2.3919
-4.4285 -3.6279 2.3919
-4.2942 -3.7818 2.3919
-4.1542 -3.9306 2.3919
-4.0089 -4.0740 2.3919
-3.8585 -4.2119 2.3919
-3.7031 -4.3439 2.3919
-3.5430 -4.4701 2.3919
-3.3784 -4.5901 2.3919
-3.2096 -4.7039 2.3919
-3.0369 -4.8113 2.3919
-2.8604 -4.9121 2.3919
-2.6805 -5.0062 2.3919
-2.4975 -5.0934 2.3919
-2.3112 -5.1741 2.3919
-2.1225 -5.2476 2.3919
-1.9313 -5.3141 2.3919
-1.7380 -5.3734 2.3919
-1.5428 -5.4255 2.3919
-1.3461 -5.4703 2.3919
-1.1480 -5.5079 2.3919
-0.9490 -5.5382 2.3919
-0.7491 -5.5611 2.3919
-0.5488 -5.5767 2.3919
-0.3483 -5.5849 2.3919
-0.1479 -5.5859 2.3919
0.0522 -5.5795 2.3919
0.2517 -5.5659 2.3919
0.4504 -5.5451 2.3919
0.6479 -5.5171 2.3919
0.8440 -5.4820 2.3919
1.0384 -5.4399 2.3919
1.2310 -5.3908 2.3919
1.4214 -5.3350 2.3919
1.6095 -5.2723 2.3919
1.7949 -5.2031 2.3919
1.9775 -5.1273 2.3919
2.1570 -5.0451 2.3919
2.3332 -4.9566 2.3919
2.5059 -4.8620 2.3919
2.6749 -4.7614 2.3919
2.8399 -4.6550 2.3919
3.0009 -4.5430 2.3919
3.1575 -4.4254 2.3919
3.3097 -4.3024 2.3919
3.4573 -4.1743 2.3919
3.6000 -4.0412 2.3919
3.7377 -3.9033 2.3919
3.8703 -3.7608 2.3919
3.9976 -3.6139 2.3919
4.1195 -3.4627 2.3919
4.2359 -3.3075 2.3919
4.3466 -3.1485 2.3919
4.4515 -2.9859 2.3919
4.5505 -2.8198 2.3919
4.6435 -2.6506 2.3919
4.7304 -2.4784 2.3919
4.8111 -2.3034 2.3919
4.8856 -2.1259 2.3919
4.9538 -1.9460 2.3919
5.0156 -1.7640 2.3919
5.0709 -1.5802 2.3919
5.1197 -1.3946 2.3919
5.1620 -1.2077 2.3919
5.1977 -1.0195 2.3919
5.2268 -0.8303 2.3919
5.2493 -0.6404 2.3919
5.2651 -0.4499 2.3919
5.2743 -0.2591 2.3919
5.2769 -0.0683 2.3919
5.2728 0.1225 2.3919
5.2621 0.3129 2.3919
5.2449 0.5028 2.3919
5.2210 0.6918 2.3919
5.1906 0.8799 2.3919
5.1537 1.0667 2.3919
5.1104 1.2521 2.3919
5.0606 1.4358 2.3919
5.0046 1.6177 2.3919
4.9422 1.7975 2.3919
4.8737 1.9750 2.3919
4.7991 2.1500 2.3919
4.7185 2.3224 2.3919
4.6319 2.4918 2.3919
4.5395 2.6582 2.3919
4.4413 2.8213 2.3919
4.3375 2.9809 2.3919
4.2283 3.1369 2.3919
4.1136 3.2890 2.3919
3.9937 3.4371 2.3919
3.8687 3.5811 2.3919
3.7387 3.7206 2.3919
3.6038 3.8556 2.3919
3.4643 3.9859 2.3919
3.3203 4.1114 2.3919
3.1718 4.2318 2.3919
3.7946 3.2068 2.3919
3.6778 3.3435 2.3919
3.5563 3.4761 2.3919
3.4301 3.6045 2.3919
3.2995 3.7284 2.3919
3.1646 3.8478 2.3919
3.0255 3.9625 2.3919
2.8824 4.0723 2.3919
2.7355 4.1771 2.3919
2.5849 4.2769 2.3919
2.4308 4.3713 2.3919
2.2734 4.4604 2.3919
0.8558 1.8406 0.9689
0.7890 1.8709 0.9682
0.7212 1.8987 0.9675
0.6523 1.9240 0.9667
0.5826 1.9469 0.9659
0.5121 1.9672 0.9651
0.4410 1.9850 0.9642
0.3692 2.0002 0.9633
0.2969 2.0128 0.9624
0.2242 2.0228 0.9615
0.1512 2.0301 0.9605
0.0780 2.0349 0.9595
0.0046 2.0369 0.9585
-0.0688 2.0363 0.9574
-0.1421 2.0331 0.9563
-0.2153 2.0272 0.9553
-0.2882 2.0187 0.9542
-0.3607 2.0076 0.9530
-0.4328 1.9938 0.9519
-0.5044 1.9775 0.9508
-0.5753 1.9586 0.9496
-0.6455 1.9371 0.9484
-0.7148 1.9131 0.9472
-0.7833 1.8867 0.9460
-0.8507 1.8577 0.9448
-0.9171 1.8264 0.9436
-2.4827 4.5310 2.3820
-2.6475 4.4454 2.3819
-2.8095 4.3541 2.3819
-2.9684 4.2570 2.3820
-3.1241 4.1544 2.3823
-3.2763 4.0462 2.3827
-3.4249 3.9327 2.3832
-3.5695 3.8137 2.3837
-3.7100 3.6895 2.3843
-3.8462 3.5603 2.3850
-3.9780 3.4260 2.3858
-4.1050 3.2870 2.3866
-4.2269 3.1431 2.3873
-4.3437 2.9947 2.3881
-4.4552 2.8420 2.3889
-4.5609 2.6849 2.3896
-4.6611 2.5238 2.3903
-4.7549 2.3589 2.3908
-4.8426 2.1903 2.3913
-4.9239 2.0183 2.3916
-4.9986 1.8432 2.3918
-5.0666 1.6652 2.3919
-5.1279 1.4846 2.3919
-5.1825 1.3017 2.3919
-5.2304 1.1168 2.3919
-5.2715 0.9301 2.3919
-5.3057 0.7419 2.3919
-5.3328 0.5525 2.3919
-5.3530 0.3620 2.3919
-5.3661 0.1709 2.3919
-5.3721 -0.0207 2.3919
-5.3710 -0.2125 2.3919
-5.3628 -0.4042 2.3919
-5.3474 -0.5956 2.3919
-5.3250 -0.7863 2.3919
-5.2955 -0.9761 2.3919
-5.2589 -1.1647 2.3919
-5.2153 -1.3519 2.3919
-5.1648 -1.5373 2.3919
-5.1074 -1.7208 2.3919
-5.0433 -1.9020 2.3919
-4.9724 -2.0808 2.3919
-4.8949 -2.2567 2.3919
-4.8110 -2.4297 2.3919
-4.7206 -2.5994 2.3919
-4.6241 -2.7656 2.3919
-4.5214 -2.9281 2.3919
-4.4128 -3.0866 2.3919
-4.2984 -3.2409 2.3919
-4.1784 -3.3908 2.3919
-4.0529 -3.5362 2.3919
-3.9222 -3.6767 2.3919
-3.7864 -3.8121 2.3919
-3.6458 -3.9424 2.3919
-3.5005 -4.0674 2.3919
-3.3507 -4.1868 2.3919
-3.1967 -4.3005 2.3919
-3.0387 -4.4083 2.3919
-2.8768 -4.5104 2.3919
-2.7117 -4.6060 2.3919
-2.5431 -4.6955 2.3919
-2.3714 -4.7787 2.3919
-2.1969 -4.8555 2.3919
-2.0199 -4.9257 2.3919
-1.8406 -4.9892 2.3919
-1.6592 -5.0461 2.3919
-1.4760 -5.0963 2.3919
-1.2912 -5.1397 2.3919
-1.1052 -5.1762 2.3919
-0.9182 -5.2059 2.3919
-0.7304 -5.2286 2.3919
-0.5421 -5.2445 2.3919
-0.3535 -5.2535 2.3919
-0.1650 -5.2557 2.3919
0.0233 -5.2509 2.3919
0.2111 -5.2394 2.3919
0.3981 -5.2210 2.3919
0.5841 -5.1959 2.3919
0.7689 -5.1641 2.3919
0.9522 -5.1257 2.3919
1.1337 -5.0808 2.3919
1.3133 -5.0294 2.3919
1.4907 -4.9716 2.3919
1.6657 -4.9075 2.3919
1.8381 -4.8373 2.3919
2.0076 -4.7611 2.3919
2.1741 -4.6789 2.3919
2.3373 -4.5909 2.3919
2.4971 -4.4972 2.3919
2.6532 -4.3980 2.3919
2.8055 -4.2934 2.3919
2.9538 -4.1836 2.3919
3.0980 -4.0688 2.3919
3.2377 -3.9490 2.3919
3.3730 -3.8244 2.3919
3.5036 -3.6953 2.3919
3.6294 -3.5618 2.3919
3.7503 -3.4241 2.3919
3.8661 -3.2824 2.3919
3.9767 -3.1368 2.3919
4.0819 -2.9876 2.3919
4.1818 -2.8349 2.3919
4.2761 -2.6789 2.3919
4.3647 -2.5199 2.3919
4.4477 -2.3580 2.3919
4.5248 -2.1935 2.3919
4.5960 -2.0265 2.3919
4.6613 -1.8573 2.3919
4.7205 -1.6860 2.3919
4.7737 -1.5130 2.3919
4.8207 -1.3383 2.3919
4.8616 -1.1622 2.3919
4.8962 -0.9849 2.3919
4.9247 -0.8066 2.3919
4.9469 -0.6276 2.3919
4.9628 -0.4480 2.3919
4.9724 -0.2680 2.3919
4.9758 -0.0880 2.3919
4.9729 0.0920 2.3919
4.9637 0.2717 2.3919
4.9483 0.4509 2.3919
4.9267 0.6294 2.3919
4.8989 0.8069 2.3919
4.8649 0.9833 2.3919
4.8248 1.1584 2.3919
4.7787 1.3320 2.3919
4.7266 1.5038 2.3919
4.6686 1.6737 2.3919
4.6047 1.8415 2.3919
4.5350 2.0069 2.3919
4.4596 2.1698 2.3919
4.3786 2.3301 2.3919
4.2921 2.4874 2.3919
4.2001 2.6416 2.3919
4.1028 2.7926 2.3919
4.0003 2.9402 2.3919
3.8927 3.0841 2.3919
3.7801 3.2243 2.3919
3.6627 3.3605 2.3919
3.5406 3.4925 2.3919
3.4139 3.6204 2.3919
3.2827 3.7437 2.3919
3.1472 3.8625 2.3919
3.0076 3.9766 2.3919
2.8641 4.0858 2.3919
2.7167 4.1900 2.3919
2.5656 4.2891 2.3919
2.4111 4.3829 2.3919
2.2532 4.4712 2.3919
0.8475 1.8446 0.9688
0.7805 1.8745 0.9681
0.7125 1.9020 0.9674
0.6436 1.9271 0.9666
0.5738 1.9496 0.9658
0.5032 1.9696 0.9650
0.4319 1.9871 0.9641
0.3601 2.0019 0.9632
0.2877 2.0142 0.9623
0.2150 2.0239 0.9613
0.1420 2.0309 0.9604
0.0687 2.0353 0.9594
-0.0047 2.0370 0.9583
-0.0781 2.0361 0.9573
-0.1514 2.0325 0.9562
-0.2245 2.0263 0.9551
-0.2974 2.0175 0.9540
-0.3699 2.0060 0.9529
-0.4419 1.9919 0.9518
-0.5134 1.9752 0.9506
-0.5842 1.9560 0.9494
-0.6543 1.9342 0.9483
-0.7235 1.9099 0.9471
-0.7919 1.8831 0.9459
-0.8592 1.8539 0.9447
-0.9254 1.8223 0.9435
-2.5037 4.5205 2.3820
-2.6682 4.4342 2.3819
-2.8298 4.3421 2.3819
-2.9883 4.2444 2.3821
-3.1435 4.1410 2.3823
-3.2953 4.0322 2.3827
-3.4434 3.9180 2.3833
-3.5875 3.7983 2.3838
-3.7274 3.6735 2.3844
-3.8631 3.5436 2.3851
-3.9942 3.4088 2.3859
-4.1206 3.2691 2.3867
-4.2419 3.1246 2.3874
-4.3581 2.9757 2.3882
-4.4689 2.8224 2.3890
-4.5739 2.6647 2.3897
-4.6732 2.5032 2.3904
-4.7663 2.3378 2.3909
-4.8533 2.1688 2.3914
-4.9337 1.9964 2.3916
-5.0075 1.8208 2.3918
-5.0747 1.6425 2.3919
-5.1352 1.4616 2.3919
-5.1890 1.2785 2.3919
-5.2360 1.0933 2.3919
-5.2762 0.9064 2.3919
-5.3095 0.7181 2.3919
-5.3358 0.5285 2.3919
-5.3550 0.3379 2.3919
-5.3672 0.1467 2.3919
-5.3723 -0.0449 2.3919
-5.3703 -0.2367 2.3919
-5.3612 -0.4284 2.3919
-5.3450 -0.6197 2.3919
-5.3216 -0.8103 2.3919
-5.2912 -1.0000 2.3919
-5.2538 -1.1884 2.3919
-5.2093 -1.3754 2.3919
-5.1579 -1.5606 2.3919
-5.0997 -1.7438 2.3919
-5.0347 -1.9248 2.3919
-4.9630 -2.1032 2.3919
-4.8847 -2.2788 2.3919
-4.7999 -2.4513 2.3919
-4.7088 -2.6206 2.3919
-4.6114 -2.7863 2.3919
-4.5080 -2.9483 2.3919
-4.3987 -3.1063 2.3919
-4.2836 -3.2601 2.3919
-4.1629 -3.4095 2.3919
-4.0367 -3.5542 2.3919
-3.9054 -3.6940 2.3919
-3.7689 -3.8289 2.3919
-3.6277 -3.9586 2.3919
-3.4818 -4.0828 2.3919
-3.3315 -4.2015 2.3919
-3.1770 -4.3144 2.3919
-3.0185 -4.4215 2.3919
-2.8563 -4.5227 2.3919
-2.6905 -4.6176 2.3919
-2.5215 -4.7064 2.3919
-2.3495 -4.7888 2.3919
-2.1747 -4.8647 2.3919
-1.9974 -4.9340 2.3919
-1.8178 -4.9968 2.3919
-1.6361 -5.0529 2.3919
-1.4527 -5.1022 2.3919
-1.2678 -5.1447 2.3919
-1.0817 -5.1803 2.3919
-0.8945 -5.2091 2.3919
-0.7066 -5.2310 2.3919
-0.5183 -5.2461 2.3919
-0.3297 -5.2542 2.3919
-0.1412 -5.2554 2.3919
0.0471 -5.2498 2.3919
0.2348 -5.2374 2.3919
0.4217 -5.2182 2.3919
0.6075 -5.1923 2.3919
0.7921 -5.1596 2.3919
0.9752 -5.1204 2.3919
1.1565 -5.0746 2.3919
1.3359 -5.0224 2.3919
1.5130 -4.9638 2.3919
1.6877 -4.8990 2.3919
1.8597 -4.8280 2.3919
2.0288 -4.7510 2.3919
2.1949 -4.6681 2.3919
2.3577 -4.5794 2.3919
2.5170 -4.4850 2.3919
2.6727 -4.3851 2.3919
2.8245 -4.2799 2.3919
2.9723 -4.1694 2.3919
3.1159 -4.0539 2.3919
3.2551 -3.9335 2.3919
3.3898 -3.8084 2.3919
3.5198 -3.6787 2.3919
3.6450 -3.5447 2.3919
3.7652 -3.4065 2.3919
3.8804 -3.2642 2.3919
3.9903 -3.1182 2.3919
4.0949 -2.9685 2.3919
4.1940 -2.8154 2.3919
4.2876 -2.6590 2.3919
4.3755 -2.4996 2.3919
4.4577 -2.3374 2.3919
4.5341 -2.1725 2.3919
4.6046 -2.0053 2.3919
4.6691 -1.8358 2.3919
4.7276 -1.6643 2.3919
4.7800 -1.4910 2.3919
4.8262 -1.3161 2.3919
4.8663 -1.1398 2.3919
4.9002 -0.9624 2.3919
4.9278 -0.7840 2.3919
4.9492 -0.6049 2.3919
4.9643 -0.4253 2.3919
4.9732 -0.2453 2.3919
4.9758 -0.0652 2.3919
4.9721 0.1147 2.3919
4.9621 0.2944 2.3919
4.9459 0.4735 2.3919
4.9235 0.6518 2.3919
4.8949 0.8293 2.3919
4.8602 1.0055 2.3919
4.8193 1.1804 2.3919
4.7725 1.3538 2.3919
4.7196 1.5254 2.3919
4.6608 1.6950 2.3919
4.5962 1.8625 2.3919
4.5258 2.0276 2.3919
4.4497 2.1902 2.3919
4.3680 2.3501 2.3919
4.2808 2.5070 2.3919
4.1881 2.6609 2.3919
4.0902 2.8114 2.3919
3.9870 2.9585 2.3919
3.8788 3.1020 2.3919
3.7656 3.2417 2.3919
3.6476 3.3774 2.3919
3.5248 3.5089 2.3919
3.3975 3.6362 2.3919
3.2658 3.7590 2.3919
3.1298 3.8772 2.3919
2.9897 3.9907 2.3919
3.5853 3.0307 2.3919
3.4748 3.1599 2.3919
3.3598 3.2852 2.3919
3.2405 3.4064 2.3919
3.1170 3.5235 2.3919
2.9893 3.6362 2.3919
2.8578 3.7445 2.3919
2.7225 3.8482 2.3919
2.5835 3.9472 2.3919
2.4411 4.0412 2.3919
2.2953 4.1304 2.3919
0.8686 1.7054 0.9679
0.8067 1.7362 0.9673
0.7436 1.7647 0.9666
0.6796 1.7910 0.9660
0.6147 1.8149 0.9652
0.5489 1.8364 0.9645
0.4824 1.8556 0.9637
0.4152 1.8724 0.9629
0.3475 1.8867 0.9621
0.2793 1.8986 0.9612
0.2107 1.9080 0.9603
0.1419 1.9149 0.9594
0.0728 1.9194 0.9584
0.0036 1.9213 0.9575
-0.0657 1.9208 0.9565
-0.1349 1.9177 0.9555
-0.2039 1.9122 0.9545
-0.2726 1.9041 0.9534
-0.3411 1.8936 0.9524
-0.4091 1.8807 0.9513
-0.4766 1.8652 0.9502
-0.5435 1.8474 0.9491
-0.6097 1.8271 0.9480
-0.6752 1.8045 0.9469
-0.7397 1.7795 0.9458
-0.8034 1.7523 0.9446
-0.8660 1.7227 0.9435
-0.9275 1.6909 0.9424
-2.5044 4.2009 2.3864
-2.6574 4.1143 2.3864
-2.8073 4.0222 2.3865
-2.9541 3.9248 2.3866
-3.0975 3.8221 2.3868
-3.2373 3.7142 2.3871
-3.3735 3.6013 2.3875
-3.5057 3.4835 2.3879
-3.6338 3.3610 2.3884
-3.7575 3.2337 2.3889
-3.8766 3.1017 2.3894
-3.9910 2.9654 2.3898
-4.1005 2.8249 2.3904
-4.2048 2.6801 2.3908
-4.3037 2.5314 2.3911
-4.3973 2.3791 2.3915
-4.4848 2.2230 2.3917
-4.5667 2.0637 2.3918
-4.6426 1.9013 2.3919
-4.7123 1.7360 2.3919
-4.7761 1.5682 2.3919
-4.8336 1.3979 2.3919
-4.8849 1.2256 2.3919
-4.9298 1.0513 2.3919
-4.9682 0.8754 2.3919
-5.0002 0.6981 2.3919
-5.0256 0.5196 2.3919
-5.0445 0.3402 2.3919
-5.0566 0.1601 2.3919
-5.0621 -0.0204 2.3919
-5.0610 -0.2010 2.3919
-5.0531 -0.3816 2.3919
-5.0385 -0.5618 2.3919
-5.0173 -0.7414 2.3919
-4.9894 -0.9201 2.3919
-4.9549 -1.0978 2.3919
-4.9138 -1.2740 2.3919
-4.8662 -1.4487 2.3919
-4.8121 -1.6215 2.3919
-4.7516 -1.7922 2.3919
-4.6849 -1.9605 2.3919
-4.6119 -2.1262 2.3919
-4.5329 -2.2891 2.3919
-4.4478 -2.4489 2.3919
-4.3569 -2.6055 2.3919
-4.2603 -2.7585 2.3919
-4.1581 -2.9079 2.3919
-4.0504 -3.0533 2.3919
-3.9374 -3.1945 2.3919
-3.8194 -3.3315 2.3919
-3.6963 -3.4639 2.3919
-3.5685 -3.5916 2.3919
-3.4361 -3.7145 2.3919
-3.2992 -3.8325 2.3919
-3.1584 -3.9448 2.3919
-3.0135 -4.0521 2.3919
-2.8647 -4.1539 2.3919
-2.7125 -4.2500 2.3919
-2.5568 -4.3404 2.3919
-2.3981 -4.4250 2.3919
-2.2364 -4.5036 2.3919
-2.0721 -4.5761 2.3919
-1.9054 -4.6425 2.3919
-1.7365 -4.7026 2.3919
-1.5657 -4.7565 2.3919
-1.3931 -4.8041 2.3919
-1.2191 -4.8452 2.3919
-1.0438 -4.8799 2.3919
-0.8675 -4.9082 2.3919
-0.6906 -4.9299 2.3919
-0.5131 -4.9452 2.3919
-0.3353 -4.9540 2.3919
-0.1576 -4.9564 2.3919
0.0200 -4.9522 2.3919
0.1971 -4.9416 2.3919
0.3735 -4.9247 2.3919
0.5489 -4.9013 2.3919
0.7233 -4.8717 2.3919
0.8962 -4.8358 2.3919
1.0675 -4.7937 2.3919
1.2370 -4.7455 2.3919
1.4045 -4.6914 2.3919
1.5697 -4.6313 2.3919
1.7325 -4.5653 2.3919
1.8926 -4.4937 2.3919
2.0498 -4.4164 2.3919
2.2040 -4.3337 2.3919
2.3550 -4.2456 2.3919
2.5025 -4.1522 2.3919
2.6464 -4.0538 2.3919
2.7866 -3.9504 2.3919
2.9229 -3.8422 2.3919
3.0550 -3.7294 2.3919
3.1830 -3.6120 2.3919
3.3065 -3.4903 2.3919
3.4255 -3.3645 2.3919
3.5399 -3.2346 2.3919
3.6495 -3.1010 2.3919
3.7541 -2.9636 2.3919
3.8538 -2.8228 2.3919
3.9483 -2.6788 2.3919
4.0376 -2.5316 2.3919
4.1216 -2.3815 2.3919
4.2002 -2.2287 2.3919
4.2732 -2.0733 2.3919
4.3408 -1.9156 2.3919
4.4026 -1.7558 2.3919
4.4588 -1.5941 2.3919
4.5093 -1.4306 2.3919
4.5539 -1.2655 2.3919
4.5927 -1.0992 2.3919
4.6257 -0.9316 2.3919
4.6527 -0.7632 2.3919
4.6738 -0.5940 2.3919
4.6890 -0.4242 2.3919
4.6983 -0.2542 2.3919
4.7016 -0.0840 2.3919
4.6989 0.0862 2.3919
4.6904 0.2560 2.3919
4.6759 0.4254 2.3919
4.6556 0.5941 2.3919
4.6293 0.7620 2.3919
4.5973 0.9288 2.3919
4.5595 1.0944 2.3919
4.5159 1.2585 2.3919
4.4667 1.4209 2.3919
4.4119 1.5816 2.3919
4.3515 1.7402 2.3919
4.2856 1.8966 2.3919
4.2143 2.0506 2.3919
4.1377 2.2021 2.3919
4.0559 2.3508 2.3919
3.9689 2.4966 2.3919
3.8769 2.6393 2.3919
3.7799 2.7787 2.3919
3.6781 2.9148 2.3919
3.5716 3.0472 2.3919
3.4606 3.1759 2.3919
3.3450 3.3007 2.3919
3.2251 3.4214 2.3919
3.1011 3.5380 2.3919
2.9729 3.6502 2.3919
2.8409 3.7579 2.3919
2.7051 3.8610 2.3919
2.5657 3.9593 2.3919
2.4228 4.0528 2.3919
2.2767 4.1412 2.3919
0.8609 1.7094 0.9678
0.7988 1.7399 0.9672
0.7356 1.7682 0.9666
0.6714 1.7941 0.9659
0.6064 1.8177 0.9651
0.5405 1.8390 0.9644
0.4739 1.8579 0.9636
0.4067 1.8743 0.9628
0.3389 1.8883 0.9620
0.2707 1.8999 0.9611
0.2021 1.9090 0.9602
0.1331 1.9156 0.9593
0.0640 1.9198 0.9583
-0.0052 1.9214 0.9574
-0.0744 1.9205 0.9564
-0.1436 1.9171 0.9554
-0.2126 1.9113 0.9543
-0.2813 1.9029 0.9533
-0.3497 1.8921 0.9522
-0.4177 1.8788 0.9512
-0.4851 1.8631 0.9501
-0.5519 1.8450 0.9490
-0.6180 1.8244 0.9479
-0.6834 1.8015 0.9467
-0.7478 1.7762 0.9456
-0.8113 1.7487 0.9445
-0.8738 1.7188 0.9433
-2.3686 4.2721 2.3864
-2.5239 4.1903 2.3864
-2.6764 4.1030 2.3864
-2.8260 4.0102 2.3865
-2.9724 3.9121 2.3867
-3.1153 3.8087 2.3869
-3.2547 3.7002 2.3872
-3.3904 3.5867 2.3875
-3.5221 3.4683 2.3880
-3.6497 3.3452 2.3885
-3.7728 3.2173 2.3890
-3.8913 3.0847 2.3894
-4.0051 2.9479 2.3899
-4.1141 2.8068 2.3905
-4.2176 2.6615 2.3908
-4.3158 2.5124 2.3912
-4.4087 2.3596 2.3916
-4.4955 2.2031 2.3917
-4.5767 2.0434 2.3918
-4.6517 1.8806 2.3919
-4.7207 1.7150 2.3919
-4.7837 1.5468 2.3919
-4.8404 1.3763 2.3919
-4.8909 1.2037 2.3919
-4.9350 1.0292 2.3919
-4.9726 0.8531 2.3919
-5.0038 0.6756 2.3919
-5.0284 0.4970 2.3919
-5.0464 0.3175 2.3919
-5.0577 0.1373 2.3919
-5.0624 -0.0432 2.3919
-5.0603 -0.2238 2.3919
-5.0516 -0.4044 2.3919
-5.0362 -0.5845 2.3919
-5.0141 -0.7640 2.3919
-4.9854 -0.9426 2.3919
-4.9500 -1.1201 2.3919
-4.9081 -1.2962 2.3919
-4.8597 -1.4706 2.3919
-4.8048 -1.6432 2.3919
-4.7436 -1.8135 2.3919
-4.6760 -1.9815 2.3919
-4.6023 -2.1469 2.3919
-4.5225 -2.3095 2.3919
-4.4367 -2.4689 2.3919
-4.3451 -2.6250 2.3919
-4.2477 -2.7776 2.3919
-4.1448 -2.9264 2.3919
-4.0364 -3.0713 2.3919
-3.9228 -3.2121 2.3919
-3.8041 -3.3484 2.3919
-3.6805 -3.4803 2.3919
-3.5521 -3.6074 2.3919
-3.4190 -3.7297 2.3919
-3.2818 -3.8467 2.3919
-3.1403 -3.9587 2.3919
-2.9949 -4.0652 2.3919
-2.8457 -4.1663 2.3919
-2.6930 -4.2617 2.3919
-2.5369 -4.3514 2.3919
-2.3778 -4.4352 2.3919
-2.2158 -4.5131 2.3919
-2.0512 -4.5848 2.3919
-1.8842 -4.6504 2.3919
-1.7151 -4.7098 2.3919
-1.5440 -4.7629 2.3919
-1.3712 -4.8096 2.3919
-1.1970 -4.8499 2.3919
-1.0216 -4.8839 2.3919
-0.8452 -4.9113 2.3919
-0.6682 -4.9322 2.3919
-0.4906 -4.9467 2.3919
-0.3129 -4.9547 2.3919
-0.1351 -4.9562 2.3919
0.0424 -4.9512 2.3919
0.2194 -4.9398 2.3919
0.3957 -4.9221 2.3919
0.5710 -4.8979 2.3919
0.7452 -4.8675 2.3919
0.9179 -4.8308 2.3919
1.0890 -4.7880 2.3919
1.2583 -4.7390 2.3919
1.4255 -4.6841 2.3919
1.5904 -4.6233 2.3919
1.7528 -4.5566 2.3919
1.9126 -4.4842 2.3919
2.0694 -4.4063 2.3919
2.2232 -4.3228 2.3919
2.3738 -4.2341 2.3919
2.5209 -4.1401 2.3919
2.6644 -4.0410 2.3919
2.8041 -3.9370 2.3919
2.9398 -3.8282 2.3919
3.0714 -3.7148 2.3919
3.1988 -3.5969 2.3919
3.3218 -3.4747 2.3919
3.4402 -3.3483 2.3919
3.5540 -3.2180 2.3919
3.6630 -3.0838 2.3919
3.7670 -2.9460 2.3919
3.8660 -2.8048 2.3919
3.9599 -2.6603 2.3919
4.0485 -2.5128 2.3919
4.1318 -2.3623 2.3919
4.2097 -2.2092 2.3919
4.2821 -2.0535 2.3919
4.3489 -1.8956 2.3919
4.4100 -1.7355 2.3919
4.4655 -1.5735 2.3919
4.5152 -1.4098 2.3919
4.5591 -1.2446 2.3919
4.5972 -1.0781 2.3919
4.6294 -0.9104 2.3919
4.6557 -0.7418 2.3919
4.6761 -0.5726 2.3919
4.6905 -0.4028 2.3919
4.6990 -0.2327 2.3919
4.7016 -0.0625 2.3919
4.6982 0.1076 2.3919
4.6889 0.2775 2.3919
4.6737 0.4468 2.3919
4.6526 0.6154 2.3919
4.6256 0.7831 2.3919
4.5928 0.9498 2.3919
4.5543 1.1152 2.3919
4.5100 1.2791 2.3919
4.4601 1.4413 2.3919
4.4045 1.6017 2.3919
4.3435 1.7600 2.3919
4.2769 1.9162 2.3919
4.2049 2.0699 2.3919
4.1276 2.2210 2.3919
4.0452 2.3694 2.3919
3.9575 2.5148 2.3919
3.8649 2.6571 2.3919
3.7673 2.7961 2.3919
3.6649 2.9317 2.3919
3.5579 3.0637 2.3919
3.4462 3.1919 2.3919
3.3301 3.3162 2.3919
3.2097 3.4364 2.3919
3.0851 3.5524 2.3919
2.9565 3.6640 2.3919
2.8240 3.7711 2.3919
3.3938 2.8695 2.3919
3.2890 2.9918 2.3919
3.1801 3.1104 2.3919
3.0670 3.2252 2.3919
2.9499 3.3360 2.3919
2.8290 3.4426 2.3919
2.7043 3.5451 2.3919
2.5761 3.6431 2.3919
2.4444 3.7367 2.3919
2.3095 3.8257 2.3919
0.8779 1.5807 0.9670
0.8204 1.6119 0.9665
0.7618 1.6410 0.9659
0.7022 1.6680 0.9653
0.6417 1.6927 0.9646
0.5803 1.7153 0.9639
0.5181 1.7357 0.9632
0.4553 1.7538 0.9625
0.3918 1.7697 0.9617
0.3278 1.7832 0.9609
0.2633 1.7944 0.9601
0.1985 1.8033 0.9592
0.1333 1.8099 0.9584
0.0680 1.8141 0.9575
0.0026 1.8159 0.9566
-0.0628 1.8154 0.9556
-0.1282 1.8125 0.9547
-0.1935 1.8072 0.9537
-0.2585 1.7997 0.9527
-0.3232 1.7897 0.9517
-0.3875 1.7775 0.9507
-0.4513 1.7629 0.9497
-0.5145 1.7460 0.9487
-0.5771 1.7269 0.9476
-0.6390 1.7055 0.9466
-0.7000 1.6819 0.9455
-0.7602 1.6561 0.9444
-0.8194 1.6282 0.9434
-0.8775 1.5981 0.9423
-2.3721 3.9750 2.3891
-2.5167 3.8928 2.3891
-2.6584 3.8053 2.3892
-2.7970 3.7128 2.3893
-2.9325 3.6153 2.3894
-3.0645 3.5129 2.3896
-3.1929 3.4057 2.3899
-3.3176 3.2939 2.3902
-3.4383 3.1776 2.3905
-3.5547 3.0566 2.3907
-3.6668 2.9315 2.3910
-3.7744 2.8022 2.3912
-3.8773 2.6689 2.3915
-3.9751 2.5317 2.3916
-4.0680 2.3908 2.3918
-4.1557 2.2465 2.3919
-4.2379 2.0989 2.3919
-4.3148 1.9482 2.3919
-4.3861 1.7946 2.3919
-4.4518 1.6385 2.3919
-4.5118 1.4799 2.3919
-4.5659 1.3191 2.3919
-4.6141 1.1563 2.3919
-4.6563 0.9917 2.3919
-4.6925 0.8256 2.3919
-4.7225 0.6582 2.3919
-4.7463 0.4897 2.3919
-4.7640 0.3203 2.3919
-4.7753 0.1503 2.3919
-4.7804 -0.0201 2.3919
-4.7791 -0.1906 2.3919
-4.7716 -0.3610 2.3919
-4.7578 -0.5311 2.3919
-4.7376 -0.7006 2.3919
-4.7112 -0.8693 2.3919
-4.6786 -1.0370 2.3919
-4.6398 -1.2033 2.3919
-4.5948 -1.3681 2.3919
-4.5437 -1.5312 2.3919
-4.4866 -1.6923 2.3919
-4.4236 -1.8512 2.3919
-4.3548 -2.0076 2.3919
-4.2802 -2.1613 2.3919
-4.1999 -2.3122 2.3919
-4.1142 -2.4600 2.3919
-4.0230 -2.6045 2.3919
-3.9266 -2.7454 2.3919
-3.8250 -2.8827 2.3919
-3.7185 -3.0161 2.3919
-3.6071 -3.1454 2.3919
-3.4910 -3.2705 2.3919
-3.3705 -3.3911 2.3919
-3.2456 -3.5072 2.3919
-3.1166 -3.6184 2.3919
-2.9836 -3.7249 2.3919
-2.8468 -3.8262 2.3919
-2.7065 -3.9225 2.3919
-2.5629 -4.0134 2.3919
-2.4160 -4.0989 2.3919
-2.2662 -4.1789 2.3919
-2.1137 -4.2533 2.3919
-1.9586 -4.3220 2.3919
-1.8013 -4.3848 2.3919
-1.6419 -4.4419 2.3919
-1.4806 -4.4930 2.3919
-1.3177 -4.5381 2.3919
-1.1534 -4.5772 2.3919
-0.9879 -4.6102 2.3919
-0.8214 -4.6372 2.3919
-0.6543 -4.6580 2.3919
-0.4866 -4.6727 2.3919
-0.3187 -4.6813 2.3919
-0.1508 -4.6838 2.3919
0.0170 -4.6801 2.3919
0.1843 -4.6704 2.3919
0.3510 -4.6546 2.3919
0.5169 -4.6329 2.3919
0.6816 -4.6051 2.3919
0.8451 -4.5715 2.3919
1.0071 -4.5320 2.3919
1.1674 -4.4868 2.3919
1.3258 -4.4358 2.3919
1.4821 -4.3793 2.3919
1.6361 -4.3173 2.3919
1.7876 -4.2498 2.3919
1.9364 -4.1770 2.3919
2.0823 -4.0990 2.3919
2.2252 -4.0159 2.3919
2.3649 -3.9279 2.3919
2.5012 -3.8350 2.3919
2.6340 -3.7375 2.3919
2.7630 -3.6354 2.3919
2.8882 -3.5288 2.3919
3.0094 -3.4180 2.3919
3.1265 -3.3031 2.3919
3.2393 -3.1842 2.3919
3.3477 -3.0615 2.3919
3.4516 -2.9352 2.3919
3.5508 -2.8054 2.3919
3.6453 -2.6723 2.3919
3.7350 -2.5361 2.3919
3.8197 -2.3969 2.3919
3.8993 -2.2549 2.3919
3.9739 -2.1104 2.3919
4.0432 -1.9634 2.3919
4.1073 -1.8143 2.3919
4.1661 -1.6630 2.3919
4.2195 -1.5100 2.3919
4.2674 -1.3552 2.3919
4.3098 -1.1990 2.3919
4.3467 -1.0415 2.3919
4.3781 -0.8829 2.3919
4.4038 -0.7234 2.3919
4.4240 -0.5632 2.3919
4.4385 -0.4025 2.3919
4.4474 -0.2415 2.3919
4.4506 -0.0803 2.3919
4.4482 0.0808 2.3919
4.4402 0.2417 2.3919
4.4266 0.4021 2.3919
4.4074 0.5619 2.3919
4.3826 0.7209 2.3919
4.3523 0.8789 2.3919
4.3166 1.0357 2.3919
4.2754 1.1912 2.3919
4.2288 1.3450 2.3919
4.1768 1.4972 2.3919
4.1197 1.6474 2.3919
4.0573 1.7956 2.3919
3.9897 1.9414 2.3919
3.9171 2.0849 2.3919
3.8396 2.2257 2.3919
3.7572 2.3638 2.3919
3.6700 2.4990 2.3919
3.5781 2.6310 2.3919
3.4817 2.7598 2.3919
3.3808 2.8852 2.3919
3.2755 3.0070 2.3919
3.1660 3.1251 2.3919
3.0524 3.2394 2.3919
2.9349 3.3497 2.3919
2.8134 3.4558 2.3919
2.6883 3.5577 2.3919
2.5596 3.6552 2.3919
2.4276 3.7482 2.3919
2.2922 3.8366 2.3919
0.8707 1.5848 0.9669
0.8131 1.6157 0.9664
0.7543 1.6445 0.9658
0.6946 1.6712 0.9652
0.6340 1.6957 0.9645
0.5725 1.7180 0.9638
0.5102 1.7381 0.9631
0.4473 1.7560 0.9624
0.3837 1.7715 0.9616
0.3196 1.7848 0.9608
0.2551 1.7957 0.9600
0.1902 1.8043 0.9591
0.1251 1.8105 0.9583
0.0598 1.8144 0.9574
-0.0057 1.8160 0.9565
-0.0711 1.8151 0.9555
-0.1365 1.8120 0.9546
-0.2017 1.8064 0.9536
-0.2667 1.7985 0.9526
-0.3313 1.7883 0.9516
-0.3956 1.7757 0.9506
-0.4593 1.7609 0.9496
-0.5225 1.7437 0.9485
-0.5850 1.7243 0.9475
-0.6467 1.7026 0.9464
-0.7077 1.6788 0.9454
-0.7677 1.6527 0.9443
-0.8268 1.6245 0.9432
-0.8848 1.5942 0.9421
-2.3905 3.9649 2.3891
-2.5347 3.8820 2.3891
-2.6761 3.7939 2.3892
-2.8143 3.7008 2.3893
-2.9493 3.6026 2.3895
-3.0809 3.4996 2.3897
-3.2089 3.3919 2.3899
-3.3331 3.2795 2.3902
-3.4533 3.1626 2.3905
-3.5691 3.0411 2.3907
-3.6806 2.9154 2.3910
-3.7876 2.7856 2.3913
-3.8899 2.6518 2.3915
-3.9871 2.5141 2.3917
-4.0793 2.3728 2.3918
-4.1664 2.2280 2.3919
-4.2479 2.0800 2.3919
-4.3241 1.9289 2.3919
-4.3947 1.7751 2.3919
-4.4597 1.6186 2.3919
-4.5189 1.4597 2.3919
-4.5723 1.2987 2.3919
-4.6198 1.1356 2.3919
-4.6612 0.9709 2.3919
-4.6966 0.8046 2.3919
-4.7259 0.6370 2.3919
-4.7489 0.4683 2.3919
-4.7657 0.2989 2.3919
-4.7763 0.1288 2.3919
-4.7806 -0.0416 2.3919
-4.7785 -0.2121 2.3919
-4.7702 -0.3825 2.3919
-4.7556 -0.5526 2.3919
-4.7346 -0.7220 2.3919
-4.7075 -0.8906 2.3919
-4.6740 -1.0580 2.3919
-4.6344 -1.2242 2.3919
-4.5887 -1.3888 2.3919
-4.5368 -1.5517 2.3919
-4.4790 -1.7125 2.3919
-4.4153 -1.8710 2.3919
-4.3457 -2.0271 2.3919
-4.2704 -2.1805 2.3919
-4.1894 -2.3310 2.3919
-4.1030 -2.4784 2.3919
-4.0111 -2.6225 2.3919
-3.9140 -2.7630 2.3919
-3.8118 -2.8998 2.3919
-3.7047 -3.0326 2.3919
-3.5927 -3.1614 2.3919
-3.4760 -3.2859 2.3919
-3.3549 -3.4060 2.3919
-3.2295 -3.5215 2.3919
-3.1000 -3.6322 2.3919
-2.9665 -3.7380 2.3919
-2.8293 -3.8387 2.3919
-2.6886 -3.9342 2.3919
-2.5445 -4.0245 2.3919
-2.3973 -4.1093 2.3919
-2.2471 -4.1886 2.3919
-2.0943 -4.2623 2.3919
-1.9389 -4.3302 2.3919
-1.7813 -4.3924 2.3919
-1.6216 -4.4487 2.3919
-1.4601 -4.4990 2.3919
-1.2970 -4.5434 2.3919
-1.1325 -4.5817 2.3919
-0.9669 -4.6140 2.3919
-0.8004 -4.6402 2.3919
-0.6331 -4.6602 2.3919
-0.4654 -4.6741 2.3919
-0.2975 -4.6819 2.3919
-0.1296 -4.6836 2.3919
0.0381 -4.6792 2.3919
0.2054 -4.6688 2.3919
0.3720 -4.6522 2.3919
0.5377 -4.6297 2.3919
0.7024 -4.6012 2.3919
0.8657 -4.5668 2.3919
1.0275 -4.5266 2.3919
1.1876 -4.4807 2.3919
1.3457 -4.4290 2.3919
1.5017 -4.3718 2.3919
1.6554 -4.3090 2.3919
1.8065 -4.2409 2.3919
1.9550 -4.1674 2.3919
2.1005 -4.0888 2.3919
2.2431 -4.0051 2.3919
2.3823 -3.9164 2.3919
2.5182 -3.8230 2.3919
2.6505 -3.7248 2.3919
2.7790 -3.6221 2.3919
2.9037 -3.5150 2.3919
3.0244 -3.4037 2.3919
3.1410 -3.2883 2.3919
3.2532 -3.1689 2.3919
3.3611 -3.0457 2.3919
3.4643 -2.9190 2.3919
3.5630 -2.7887 2.3919
3.6569 -2.6552 2.3919
3.7459 -2.5186 2.3919
3.8300 -2.3791 2.3919
3.9090 -2.2368 2.3919
3.9829 -2.0920 2.3919
4.0516 -1.9447 2.3919
4.1151 -1.7953 2.3919
4.1731 -1.6438 2.3919
4.2258 -1.4905 2.3919
4.2731 -1.3356 2.3919
4.3148 -1.1792 2.3919
4.3510 -1.0215 2.3919
4.3816 -0.8628 2.3919
4.4067 -0.7032 2.3919
4.4261 -0.5430 2.3919
4.4399 -0.3822 2.3919
4.4481 -0.2211 2.3919
4.4506 -0.0600 2.3919
4.4475 0.1012 2.3919
4.4388 0.2620 2.3919
4.4245 0.4223 2.3919
4.4046 0.5821 2.3919
4.3791 0.7409 2.3919
4.3481 0.8988 2.3919
4.3117 1.0554 2.3919
4.2698 1.2107 2.3919
4.2225 1.3643 2.3919
4.1699 1.5163 2.3919
4.1121 1.6662 2.3919
4.0490 1.8141 2.3919
3.9808 1.9597 2.3919
3.9076 2.1028 2.3919
3.8295 2.2433 2.3919
3.7465 2.3810 2.3919
3.6587 2.5158 2.3919
3.5662 2.6474 2.3919
3.4692 2.7758 2.3919
3.3677 2.9008 2.3919
3.2619 3.0221 2.3919
3.1519 3.1398 2.3919
3.0378 3.2535 2.3919
2.9197 3.3633 2.3919
2.7978 3.4689 2.3919
2.6723 3.5703 2.3919
3.2176 2.7213 2.3919
3.1182 2.8373 2.3919
3.0148 2.9497 2.3919
2.9074 3.0585 2.3919
2.7963 3.1635 2.3919
2.6815 3.2646 2.3919
2.5632 3.3617 2.3919
2.4415 3.4546 2.3919
2.3166 3.5433 2.3919
0.8840 1.4652 0.9661
0.8306 1.4967 0.9656
0.7762 1.5262 0.9651
0.7207 1.5537 0.9646
0.6643 1.5793 0.9640
0.6070 1.6027 0.9634
0.5488 1.6241 0.9627
0.4899 1.6434 0.9620
0.4304 1.6606 0.9613
0.3703 1.6756 0.9606
0.3097 1.6884 0.9599
0.2486 1.6990 0.9591
0.1872 1.7074 0.9583
0.1255 1.7136 0.9575
0.0637 1.7176 0.9566
0.0017 1.7193 0.9558
-0.0602 1.7188 0.9549
-0.1222 1.7161 0.9540
-0.1839 1.7111 0.9531
-0.2455 1.7039 0.9521
-0.3068 1.6945 0.9512
-0.3677 1.6829 0.9502
-0.4281 1.6691 0.9492
-0.4880 1.6531 0.9483
-0.5473 1.6350 0.9473
-0.6058 1.6147 0.9463
-0.6636 1.5924 0.9453
-0.7206 1.5680 0.9443
-0.7767 1.5415 0.9432
-0.8317 1.5131 0.9422
-0.8857 1.4826 0.9412
-2.3867 3.6880 2.3908
-2.5208 3.6049 2.3908
-2.6519 3.5170 2.3909
-2.7800 3.4243 2.3910
-2.9048 3.3270 2.3911
-3.0262 3.2251 2.3912
-3.1440 3.1189 2.3914
-3.2579 3.0083 2.3915
-3.3677 2.8934 2.3916
-3.4734 2.7746 2.3917
-3.5748 2.6518 2.3918
-3.6718 2.5253 2.3919
-3.7640 2.3952 2.3919
-3.8515 2.2617 2.3919
-3.9341 2.1249 2.3919
-4.0118 1.9851 2.3919
-4.0843 1.8424 2.3919
-4.1516 1.6971 2.3919
-4.2135 1.5493 2.3919
-4.2701 1.3992 2.3919
-4.3211 1.2470 2.3919
-4.3666 1.0930 2.3919
-4.4064 0.9373 2.3919
-4.4404 0.7801 2.3919
-4.4687 0.6218 2.3919
-4.4911 0.4623 2.3919
-4.5076 0.3021 2.3919
-4.5182 0.1413 2.3919
-4.5229 -0.0198 2.3919
-4.5216 -0.1810 2.3919
-4.5144 -0.3422 2.3919
-4.5012 -0.5031 2.3919
-4.4821 -0.6634 2.3919
-4.4571 -0.8229 2.3919
-4.4262 -0.9814 2.3919
-4.3894 -1.1387 2.3919
-4.3468 -1.2946 2.3919
-4.2985 -1.4488 2.3919
-4.2445 -1.6011 2.3919
-4.1849 -1.7513 2.3919
-4.1198 -1.8992 2.3919
-4.0493 -2.0446 2.3919
-3.9735 -2.1873 2.3919
-3.8924 -2.3270 2.3919
-3.8062 -2.4637 2.3919
-3.7151 -2.5970 2.3919
-3.6191 -2.7269 2.3919
-3.5184 -2.8531 2.3919
-3.4131 -2.9754 2.3919
-3.3034 -3.0937 2.3919
-3.1895 -3.2079 2.3919
-3.0714 -3.3177 2.3919
-2.9495 -3.4231 2.3919
-2.8238 -3.5238 2.3919
-2.6946 -3.6198 2.3919
-2.5619 -3.7109 2.3919
-2.4261 -3.7971 2.3919
-2.2873 -3.8781 2.3919
-2.1457 -3.9539 2.3919
-2.0015 -4.0244 2.3919
-1.8549 -4.0896 2.3919
-1.7061 -4.1492 2.3919
-1.5553 -4.2034 2.3919
-1.4028 -4.2519 2.3919
-1.2487 -4.2948 2.3919
-1.0933 -4.3320 2.3919
-0.9367 -4.3635 2.3919
-0.7792 -4.3892 2.3919
-0.6211 -4.4091 2.3919
-0.4625 -4.4233 2.3919
-0.3036 -4.4316 2.3919
-0.1446 -4.4342 2.3919
0.0142 -4.4310 2.3919
0.1726 -4.4221 2.3919
0.3304 -4.4074 2.3919
0.4875 -4.3870 2.3919
0.6435 -4.3610 2.3919
0.7984 -4.3294 2.3919
0.9518 -4.2923 2.3919
1.1037 -4.2497 2.3919
1.2538 -4.2017 2.3919
1.4018 -4.1484 2.3919
1.5478 -4.0898 2.3919
1.6913 -4.0262 2.3919
1.8324 -3.9574 2.3919
1.9708 -3.8838 2.3919
2.1063 -3.8053 2.3919
2.2387 -3.7221 2.3919
2.3680 -3.6344 2.3919
2.4939 -3.5421 2.3919
2.6163 -3.4456 2.3919
2.7351 -3.3448 2.3919
2.8501 -3.2399 2.3919
2.9612 -3.1312 2.3919
3.0683 -3.0187 2.3919
3.1712 -2.9025 2.3919
3.2698 -2.7830 2.3919
3.3641 -2.6601 2.3919
3.4538 -2.5340 2.3919
3.5390 -2.4050 2.3919
3.6194 -2.2732 2.3919
3.6952 -2.1387 2.3919
3.7660 -2.0017 2.3919
3.8319 -1.8625 2.3919
3.8929 -1.7211 2.3919
3.9487 -1.5778 2.3919
3.9995 -1.4327 2.3919
4.0451 -1.2860 2.3919
4.0855 -1.1379 2.3919
4.1206 -0.9885 2.3919
4.1505 -0.8382 2.3919
4.1750 -0.6869 2.3919
4.1943 -0.5350 2.3919
4.2081 -0.3826 2.3919
4.2167 -0.2298 2.3919
4.2198 -0.0769 2.3919
4.2177 0.0759 2.3919
4.2102 0.2285 2.3919
4.1973 0.3807 2.3919
4.1792 0.5323 2.3919
4.1557 0.6831 2.3919
4.1271 0.8330 2.3919
4.0932 0.9818 2.3919
4.0541 1.1292 2.3919
4.0099 1.2752 2.3919
3.9607 1.4196 2.3919
3.9064 1.5621 2.3919
3.8472 1.7026 2.3919
3.7832 1.8410 2.3919
3.7143 1.9771 2.3919
3.6407 2.1107 2.3919
3.5625 2.2417 2.3919
3.4798 2.3699 2.3919
3.3926 2.4951 2.3919
3.3010 2.6172 2.3919
3.2052 2.7361 2.3919
3.1053 2.8517 2.3919
3.0014 2.9636 2.3919
2.8936 3.0720 2.3919
2.7820 3.1765 2.3919
2.6668 3.2771 2.3919
2.5480 3.3737 2.3919
2.4259 3.4661 2.3919
2.3006 3.5542 2.3919
0.8773 1.4693 0.9661
0.8238 1.5005 0.9656
0.7693 1.5298 0.9650
0.7137 1.5571 0.9645
0.6571 1.5823 0.9639
0.5997 1.6056 0.9633
0.5414 1.6267 0.9626
0.4825 1.6457 0.9620
0.4228 1.6626 0.9612
0.3627 1.6773 0.9605
0.3020 1.6898 0.9598
0.2409 1.7002 0.9590
0.1794 1.7083 0.9582
0.1177 1.7142 0.9574
0.0559 1.7179 0.9565
-0.0061 1.7194 0.9556
-0.0681 1.7186 0.9548
-0.1300 1.7156 0.9539
-0.1917 1.7103 0.9529
-0.2533 1.7029 0.9520
-0.3145 1.6932 0.9511
-0.3753 1.6813 0.9501
-0.4357 1.6672 0.9491
-0.4955 1.6510 0.9481
-0.5547 1.6326 0.9471
-0.6132 1.6120 0.9461
-0.6709 1.5894 0.9451
-0.7277 1.5648 0.9441
-0.7837 1.5380 0.9431
-0.8386 1.5093 0.9421
-0.8924 1.4787 0.9411
-2.4037 3.6778 2.3908
-2.5375 3.5941 2.3908
-2.6683 3.5055 2.3909
-2.7960 3.4122 2.3910
-2.9204 3.3143 2.3911
-3.0413 3.2119 2.3912
-3.1586 3.1051 2.3914
-3.2720 2.9940 2.3916
-3.3813 2.8786 2.3916
-3.4864 2.7593 2.3917
-3.5873 2.6360 2.3918
-3.6837 2.5091 2.3919
-3.7753 2.3785 2.3919
-3.8622 2.2446 2.3919
-3.9442 2.1074 2.3919
-4.0212 1.9672 2.3919
-4.0931 1.8242 2.3919
-4.1597 1.6786 2.3919
-4.2210 1.5305 2.3919
-4.2769 1.3801 2.3919
-4.3272 1.2277 2.3919
-4.3719 1.0734 2.3919
-4.4110 0.9175 2.3919
-4.4443 0.7602 2.3919
-4.4718 0.6017 2.3919
-4.4935 0.4421 2.3919
-4.5093 0.2819 2.3919
-4.5191 0.1210 2.3919
-4.5231 -0.0402 2.3919
-4.5211 -0.2014 2.3919
-4.5131 -0.3626 2.3919
-4.4991 -0.5233 2.3919
-4.4793 -0.6836 2.3919
-4.4535 -0.8430 2.3919
-4.4218 -1.0013 2.3919
-4.3843 -1.1585 2.3919
-4.3410 -1.3141 2.3919
-4.2920 -1.4681 2.3919
-4.2373 -1.6202 2.3919
-4.1770 -1.7701 2.3919
-4.1112 -1.9177 2.3919
-4.0400 -2.0628 2.3919
-3.9635 -2.2051 2.3919
-3.8818 -2.3445 2.3919
-3.7950 -2.4807 2.3919
-3.7032 -2.6136 2.3919
-3.6066 -2.7430 2.3919
-3.5053 -2.8687 2.3919
-3.3995 -2.9906 2.3919
-3.2892 -3.1084 2.3919
-3.1748 -3.2220 2.3919
-3.0563 -3.3313 2.3919
-2.9338 -3.4361 2.3919
-2.8077 -3.5362 2.3919
-2.6780 -3.6316 2.3919
-2.5449 -3.7221 2.3919
-2.4087 -3.8076 2.3919
-2.2695 -3.8880 2.3919
-2.1276 -3.9631 2.3919
-1.9831 -4.0330 2.3919
-1.8362 -4.0974 2.3919
-1.6871 -4.1564 2.3919
-1.5361 -4.2098 2.3919
-1.3834 -4.2576 2.3919
-1.2291 -4.2998 2.3919
-1.0735 -4.3363 2.3919
-0.9169 -4.3671 2.3919
-0.7593 -4.3920 2.3919
-0.6011 -4.4112 2.3919
-0.4424 -4.4247 2.3919
-0.2835 -4.4323 2.3919
-0.1245 -4.4341 2.3919
0.0342 -4.4302 2.3919
0.1926 -4.4205 2.3919
0.3503 -4.4051 2.3919
0.5072 -4.3840 2.3919
0.6632 -4.3573 2.3919
0.8178 -4.3250 2.3919
0.9711 -4.2872 2.3919
1.1227 -4.2439 2.3919
1.2726 -4.1952 2.3919
1.4204 -4.1413 2.3919
1.5660 -4.0821 2.3919
1.7093 -4.0178 2.3919
1.8500 -3.9484 2.3919
1.9880 -3.8742 2.3919
2.1232 -3.7951 2.3919
2.2552 -3.7113 2.3919
2.3841 -3.6230 2.3919
2.5096 -3.5302 2.3919
2.6315 -3.4330 2.3919
2.7499 -3.3318 2.3919
2.8644 -3.2264 2.3919
2.9750 -3.1172 2.3919
3.0815 -3.0042 2.3919
3.1839 -2.8876 2.3919
3.2820 -2.7676 2.3919
3.3757 -2.6443 2.3919
3.4648 -2.5179 2.3919
3.5494 -2.3885 2.3919
3.6293 -2.2563 2.3919
3.7044 -2.1215 2.3919
3.7746 -1.9843 2.3919
3.8399 -1.8447 2.3919
3.9002 -1.7031 2.3919
3.9554 -1.5595 2.3919
4.0056 -1.4142 2.3919
4.0505 -1.2673 2.3919
4.0902 -1.1191 2.3919
4.1247 -0.9696 2.3919
4.1539 -0.8191 2.3919
4.1778 -0.6678 2.3919
4.1963 -0.5158 2.3919
4.2095 -0.3633 2.3919
4.2174 -0.2105 2.3919
4.2199 -0.0576 2.3919
4.2170 0.0952 2.3919
4.2088 0.2477 2.3919
4.1953 0.3999 2.3919
4.1765 0.5514 2.3919
4.1524 0.7021 2.3919
4.1231 0.8519 2.3919
4.0885 1.0005 2.3919
4.0488 1.1478 2.3919
4.0040 1.2936 2.3919
3.9541 1.4377 2.3919
3.8992 1.5800 2.3919
3.8394 1.7203 2.3919
3.7747 1.8584 2.3919
3.7053 1.9941 2.3919
3.6311 2.1274 2.3919
3.5523 2.2580 2.3919
3.4690 2.3858 2.3919
3.3812 2.5107 2.3919
3.2892 2.6324 2.3919
3.1929 2.7509 2.3919
3.0924 2.8660 2.3919
2.9880 2.9775 2.3919
2.8797 3.0854 2.3919
2.7677 3.1894 2.3919
2.6520 3.2895 2.3919
2.5328 3.3856 2.3919
3.0548 2.5844 2.3919
2.9604 2.6945 2.3919
2.8621 2.8013 2.3919
2.7601 2.9046 2.3919
2.6545 3.0043 2.3919
2.5454 3.1002 2.3919
2.4329 3.1924 2.3919
2.3173 3.2806 2.3919
0.8872 1.3579 0.9653
0.8378 1.3895 0.9648
0.7872 1.4193 0.9644
0.7355 1.4473 0.9639
0.6829 1.4734 0.9633
0.6294 1.4976 0.9628
0.5750 1.5199 0.9622
0.5198 1.5402 0.9616
0.4640 1.5584 0.9610
0.4075 1.5747 0.9603
0.3505 1.5889 0.9596
0.2930 1.6011 0.9589
0.2351 1.6111 0.9582
0.1769 1.6191 0.9574
0.1184 1.6250 0.9566
0.0597 1.6288 0.9558
0.0009 1.6304 0.9550
-0.0578 1.6299 0.9542
-0.1166 1.6273 0.9533
-0.1752 1.6226 0.9524
-0.2336 1.6158 0.9516
-0.2917 1.6069 0.9507
-0.3494 1.5958 0.9497
-0.4067 1.5828 0.9488
-0.4635 1.5676 0.9479
-0.5198 1.5504 0.9470
-0.5753 1.5312 0.9460
-0.6301 1.5100 0.9450
-0.6842 1.4869 0.9441
-0.7373 1.4618 0.9431
-0.7895 1.4348 0.9422
-0.8408 1.4059 0.9412
-0.8909 1.3753 0.9402
-2.3932 3.4192 2.3916
-2.5175 3.3355 2.3917
-2.6388 3.2473 2.3917
-2.7570 3.1547 2.3917
-2.8718 3.0579 2.3918
-2.9832 2.9568 2.3918
-3.0909 2.8517 2.3919
-3.1948 2.7426 2.3919
-3.2948 2.6297 2.3919
-3.3906 2.5131 2.3919
-3.4822 2.3930 2.3919
-3.5695 2.2695 2.3919
-3.6523 2.1428 2.3919
-3.7304 2.0131 2.3919
-3.8038 1.8805 2.3919
-3.8724 1.7453 2.3919
-3.9360 1.6075 2.3919
-3.9946 1.4674 2.3919
-4.0480 1.3251 2.3919
-4.0963 1.1808 2.3919
-4.1392 1.0349 2.3919
-4.1767 0.8873 2.3919
-4.2089 0.7384 2.3919
-4.2355 0.5883 2.3919
-4.2566 0.4372 2.3919
-4.2722 0.2855 2.3919
-4.2821 0.1331 2.3919
-4.2865 -0.0195 2.3919
-4.2852 -0.1723 2.3919
-4.2782 -0.3250 2.3919
-4.2657 -0.4773 2.3919
-4.2475 -0.6291 2.3919
-4.2237 -0.7802 2.3919
-4.1944 -0.9304 2.3919
-4.1595 -1.0794 2.3919
-4.1192 -1.2270 2.3919
-4.0734 -1.3730 2.3919
-4.0223 -1.5173 2.3919
-3.9658 -1.6596 2.3919
-3.9042 -1.7997 2.3919
-3.8374 -1.9374 2.3919
-3.7655 -2.0726 2.3919
-3.6888 -2.2050 2.3919
-3.6072 -2.3344 2.3919
-3.5209 -2.4608 2.3919
-3.4300 -2.5838 2.3919
-3.3346 -2.7034 2.3919
-3.2350 -2.8193 2.3919
-3.1311 -2.9314 2.3919
-3.0233 -3.0396 2.3919
-2.9115 -3.1438 2.3919
-2.7961 -3.2436 2.3919
-2.6771 -3.3392 2.3919
-2.5547 -3.4302 2.3919
-2.4291 -3.5166 2.3919
-2.3005 -3.5984 2.3919
-2.1690 -3.6752 2.3919
-2.0349 -3.7472 2.3919
-1.8983 -3.8142 2.3919
-1.7595 -3.8760 2.3919
-1.6186 -3.9327 2.3919
-1.4757 -3.9842 2.3919
-1.3312 -4.0304 2.3919
-1.1853 -4.0712 2.3919
-1.0380 -4.1066 2.3919
-0.8897 -4.1366 2.3919
-0.7405 -4.1612 2.3919
-0.5906 -4.1803 2.3919
-0.4402 -4.1939 2.3919
-0.2896 -4.2020 2.3919
-0.1389 -4.2047 2.3919
0.0116 -4.2018 2.3919
0.1618 -4.1936 2.3919
0.3115 -4.1799 2.3919
0.4604 -4.1608 2.3919
0.6085 -4.1363 2.3919
0.7553 -4.1066 2.3919
0.9009 -4.0716 2.3919
1.0450 -4.0314 2.3919
1.1874 -3.9861 2.3919
1.3279 -3.9357 2.3919
1.4664 -3.8804 2.3919
1.6027 -3.8202 2.3919
1.7366 -3.7552 2.3919
1.8680 -3.6855 2.3919
1.9966 -3.6113 2.3919
2.1224 -3.5325 2.3919
2.2452 -3.4494 2.3919
2.3648 -3.3621 2.3919
2.4811 -3.2706 2.3919
2.5940 -3.1751 2.3919
2.7033 -3.0758 2.3919
2.8089 -2.9727 2.3919
2.9106 -2.8661 2.3919
3.0085 -2.7560 2.3919
3.1022 -2.6426 2.3919
3.1918 -2.5260 2.3919
3.2772 -2.4065 2.3919
3.3582 -2.2841 2.3919
3.4347 -2.1590 2.3919
3.5068 -2.0314 2.3919
3.5742 -1.9015 2.3919
3.6369 -1.7693 2.3919
3.6949 -1.6351 2.3919
3.7481 -1.4990 2.3919
3.7965 -1.3613 2.3919
3.8399 -1.2220 2.3919
3.8784 -1.0814 2.3919
3.9119 -0.9396 2.3919
3.9404 -0.7968 2.3919
3.9638 -0.6532 2.3919
3.9821 -0.5089 2.3919
3.9954 -0.3641 2.3919
4.0036 -0.2190 2.3919
4.0067 -0.0738 2.3919
4.0047 0.0714 2.3919
3.9977 0.2163 2.3919
3.9855 0.3609 2.3919
3.9684 0.5049 2.3919
3.9461 0.6482 2.3919
3.9189 0.7906 2.3919
3.8868 0.9320 2.3919
3.8497 1.0721 2.3919
3.8078 1.2108 2.3919
3.7610 1.3479 2.3919
3.7095 1.4833 2.3919
3.6532 1.6168 2.3919
3.5923 1.7483 2.3919
3.5269 1.8776 2.3919
3.4570 2.0045 2.3919
3.3827 2.1289 2.3919
3.3040 2.2506 2.3919
3.2212 2.3696 2.3919
3.1342 2.4856 2.3919
3.0431 2.5985 2.3919
2.9482 2.7082 2.3919
2.8494 2.8145 2.3919
2.7469 2.9174 2.3919
2.6409 3.0166 2.3919
2.5313 3.1121 2.3919
2.4185 3.2037 2.3919
2.3024 3.2914 2.3919
0.8811 1.3619 0.9652
0.8314 1.3934 0.9648
0.7807 1.4229 0.9643
0.7289 1.4507 0.9638
0.6762 1.4766 0.9633
0.6225 1.5005 0.9627
0.5681 1.5225 0.9621
0.5128 1.5426 0.9615
0.4569 1.5606 0.9609
0.4003 1.5766 0.9602
0.3433 1.5906 0.9595
0.2857 1.6025 0.9588
0.2277 1.6123 0.9581
0.1695 1.6200 0.9573
0.1110 1.6256 0.9565
0.0523 1.6291 0.9557
-0.0065 1.6305 0.9549
-0.0653 1.6297 0.9541
-0.1240 1.6268 0.9532
-0.1826 1.6219 0.9523
-0.2409 1.6148 0.9514
-0.2990 1.6056 0.9505
-0.3567 1.5943 0.9496
-0.4139 1.5810 0.9487
-0.4707 1.5655 0.9478
-0.5268 1.5481 0.9468
-0.5823 1.5287 0.9459
-0.6370 1.5072 0.9449
-0.6909 1.4838 0.9440
-0.7440 1.4585 0.9430
-0.7961 1.4312 0.9420
-0.8471 1.4022 0.9411
-0.8971 1.3713 0.9401
-2.4091 3.4088 2.3916
-2.5330 3.3246 2.3917
-2.6539 3.2359 2.3917
-2.7717 3.1427 2.3917
-2.8861 3.0453 2.3918
-2.9970 2.9438 2.3918
-3.1043 2.8381 2.3919
-3.2077 2.7285 2.3919
-3.3071 2.6151 2.3919
-3.4024 2.4981 2.3919
-3.4935 2.3776 2.3919
-3.5802 2.2537 2.3919
-3.6624 2.1266 2.3919
-3.7399 1.9965 2.3919
-3.8128 1.8636 2.3919
-3.8807 1.7280 2.3919
-3.9437 1.5899 2.3919
-4.0016 1.4495 2.3919
-4.0544 1.3070 2.3919
-4.1020 1.1625 2.3919
-4.1442 1.0163 2.3919
-4.1811 0.8686 2.3919
-4.2125 0.7195 2.3919
-4.2385 0.5693 2.3919
-4.2589 0.4181 2.3919
-4.2737 0.2662 2.3919
-4.2830 0.1139 2.3919
-4.2866 -0.0388 2.3919
-4.2846 -0.1916 2.3919
-4.2770 -0.3442 2.3919
-4.2637 -0.4965 2.3919
-4.2448 -0.6483 2.3919
-4.2204 -0.7993 2.3919
-4.1903 -0.9493 2.3919
-4.1548 -1.0981 2.3919
-4.1137 -1.2455 2.3919
-4.0672 -1.3914 2.3919
-4.0154 -1.5354 2.3919
-3.9583 -1.6774 2.3919
-3.8960 -1.8172 2.3919
-3.8286 -1.9546 2.3919
-3.7561 -2.0895 2.3919
-3.6787 -2.2215 2.3919
-3.5965 -2.3506 2.3919
-3.5096 -2.4765 2.3919
-3.4182 -2.5991 2.3919
-3.3223 -2.7182 2.3919
-3.2221 -2.8337 2.3919
-3.1177 -2.9453 2.3919
-3.0094 -3.0530 2.3919
-2.8971 -3.1566 2.3919
-2.7812 -3.2559 2.3919
-2.6618 -3.3509 2.3919
-2.5390 -3.4414 2.3919
-2.4130 -3.5272 2.3919
-2.2840 -3.6083 2.3919
-2.1522 -3.6846 2.3919
-2.0178 -3.7559 2.3919
-1.8809 -3.8223 2.3919
-1.7418 -3.8835 2.3919
-1.6006 -3.9395 2.3919
-1.4576 -3.9903 2.3919
-1.3129 -4.0358 2.3919
-1.1667 -4.0759 2.3919
-1.0193 -4.1107 2.3919
-0.8709 -4.1400 2.3919
-0.7216 -4.1639 2.3919
