ply
format ascii 1.0
element vertex 2179
property float32 x
property float32 y
property float32 z
end_header
8.4317 -3.9029 2.2300
8.5551 -3.5924 2.2303
8.6674 -3.2782 2.2306
8.7685 -2.9606 2.2309
8.8584 -2.6401 2.2312
8.9369 -2.3170 2.2315
9.0041 -1.9918 2.2318
9.0598 -1.6647 2.2321
9.1040 -1.3363 2.2324
9.1368 -1.0069 2.2328
9.1581 -0.6769 2.2331
9.1679 -0.3466 2.2334
9.1663 -0.0165 2.2337
9.1532 0.3131 2.2341
9.1287 0.6418 2.2344
9.0930 0.9692 2.2348
9.0459 1.2949 2.2351
8.9877 1.6186 2.2354
8.9184 1.9399 2.2358
8.8380 2.2585 2.2361
8.7468 2.5739 2.2365
8.6448 2.8859 2.2368
8.5321 3.1940 2.2372
8.4090 3.4980 2.2375
8.2754 3.7974 2.2378
8.1317 4.0921 2.2382
7.9779 4.3815 2.2385
7.8142 4.6655 2.2389
7.6409 4.9436 2.2392
5.2576 3.6768 1.5787
7.2661 5.4812 2.2398
7.0650 5.7400 2.2402
6.8550 5.9918 2.2405
6.6365 6.2362 2.2408
6.4096 6.4731 2.2411
6.1746 6.7020 2.2414
5.3945 6.2958 2.0386
5.6812 7.1351 2.2419
5.4234 7.3388 2.2422
5.1586 7.5331 2.2424
4.8966 7.7341 2.2470
4.6162 7.9073 2.2463
4.3298 8.0707 2.2456
4.0379 8.2241 2.2448
3.7407 8.3674 2.2441
3.4386 8.5003 2.2433
3.1320 8.6229 2.2426
2.8385 8.7881 2.2556
2.3344 -9.4469 2.2426
2.6677 -9.3427 2.2427
2.9971 -9.2283 2.2432
3.3222 -9.1034 2.2440
3.6420 -8.9669 2.2448
3.9563 -8.8189 2.2456
4.2459 -8.6216 2.2365
4.5244 -8.4113 2.2263
4.8138 -8.2268 2.2256
4.6870 -7.3882 2.0464
5.3761 -7.8375 2.2266
5.6450 -7.6271 2.2268
5.9057 -7.4075 2.2270
6.1580 -7.1791 2.2272
4.7996 -5.2049 1.6699
6.6364 -6.6972 2.2276
6.8619 -6.4444 2.2278
4.8434 -4.2317 1.5246
7.2845 -5.9167 2.2282
7.4810 -5.6426 2.2285
7.6675 -5.3620 2.2287
7.8437 -5.0756 2.2290
8.0094 -4.7834 2.2292
8.1646 -4.4861 2.2295
8.3090 -4.1838 2.2298
8.4425 -3.8771 2.2301
8.5649 -3.5663 2.2303
8.6763 -3.2518 2.2306
8.7765 -2.9340 2.2309
8.8654 -2.6132 2.2312
8.9430 -2.2900 2.2315
9.0091 -1.9646 2.2318
9.0639 -1.6374 2.2321
9.1072 -1.3089 2.2325
9.1390 -0.9794 2.2328
9.1593 -0.6493 2.2331
9.1682 -0.3190 2.2334
9.1656 0.0110 2.2338
9.1516 0.3405 2.2341
9.1262 0.6691 2.2344
9.0895 0.9964 2.2348
9.0415 1.3220 2.2351
8.9823 1.6455 2.2355
8.9121 1.9666 2.2358
8.8308 2.2849 2.2362
8.7387 2.6000 2.2365
8.6358 2.9117 2.2368
8.5223 3.2195 2.2372
8.3982 3.5231 2.2375
8.2638 3.8222 2.2379
8.1192 4.1164 2.2382
7.9646 4.4054 2.2385
7.8002 4.6889 2.2389
7.6261 4.9665 2.2392
5.2589 3.7012 1.5825
7.2497 5.5030 2.2399
7.0478 5.7613 2.2402
6.8371 6.0125 2.2405
6.6179 6.2563 2.2408
6.3903 6.4925 2.2411
6.1546 6.7207 2.2414
5.3879 6.3265 2.0433
5.6600 7.1524 2.2419
5.4016 7.3553 2.2422
5.1361 7.5490 2.2424
4.8735 7.7489 2.2470
6.2767 5.4203 2.2400
6.0788 5.6440 2.2403
5.8731 5.8608 2.2406
5.6600 6.0704 2.2408
5.4397 6.2725 2.2411
5.2124 6.4670 2.2413
4.9819 6.6581 2.2431
4.7485 6.8470 2.2467
4.4996 7.0148 2.2461
4.2451 7.1739 2.2454
3.9851 7.3240 2.2448
3.7200 7.4650 2.2441
3.4500 7.5968 2.2434
3.1756 7.7192 2.2427
2.8976 7.8339 2.2425
2.7933 8.4780 2.3947
2.4887 8.5814 2.3949
0.8912 3.5451 0.9789
0.7631 3.5756 0.9782
0.6341 3.6014 0.9774
0.5042 3.6226 0.9766
0.3736 3.6390 0.9757
0.2424 3.6507 0.9748
0.1109 3.6576 0.9739
-0.0207 3.6597 0.9729
-0.1524 3.6571 0.9718
-0.2838 3.6497 0.9707
-0.4150 3.6376 0.9696
-0.5456 3.6207 0.9684
-0.6755 3.5991 0.9672
-0.8045 3.5728 0.9660
-2.3150 8.7924 2.3949
-2.6333 8.7158 2.3949
-2.9491 8.6278 2.3949
-3.2620 8.5286 2.3949
-3.5717 8.4183 2.3949
-3.8776 8.2968 2.3949
-4.1795 8.1644 2.3949
-4.4769 8.0211 2.3949
-4.7695 7.8670 2.3949
-5.0567 7.7024 2.3949
-5.3384 7.5274 2.3949
-5.6139 7.3422 2.3949
-5.8831 7.1469 2.3949
-6.1454 6.9418 2.3949
-6.4006 6.7271 2.3949
-6.6483 6.5030 2.3949
-6.8881 6.2698 2.3949
-7.1196 6.0278 2.3949
-7.3425 5.7772 2.3949
-7.5566 5.5183 2.3949
-7.7614 5.2515 2.3949
-7.9566 4.9770 2.3949
-8.1420 4.6952 2.3949
-8.3173 4.4065 2.3949
-8.4821 4.1112 2.3949
-8.6362 3.8097 2.3949
-8.7794 3.5023 2.3949
-8.9115 3.1895 2.3949
-9.0321 2.8717 2.3949
-9.1411 2.5494 2.3949
-9.2383 2.2227 2.3949
-9.3235 1.8925 2.3949
-9.3966 1.5589 2.3949
-9.4574 1.2224 2.3949
-9.5058 0.8836 2.3949
-9.5416 0.5430 2.3949
-9.5649 0.2008 2.3949
-9.5755 -0.1422 2.3949
-9.5733 -0.4857 2.3949
-9.5584 -0.8293 2.3949
-9.5307 -1.1722 2.3949
-9.4903 -1.5142 2.3949
-9.4371 -1.8546 2.3949
-9.3712 -2.1931 2.3949
-9.2928 -2.5291 2.3949
-9.2018 -2.8621 2.3949
-9.0983 -3.1917 2.3949
-8.9826 -3.5173 2.3949
-8.8548 -3.8385 2.3949
-8.7150 -4.1548 2.3949
-8.5634 -4.4658 2.3949
-8.4002 -4.7710 2.3949
-8.2257 -5.0699 2.3949
-8.0401 -5.3622 2.3949
-7.8437 -5.6473 2.3949
-7.6368 -5.9249 2.3949
-7.4195 -6.1945 2.3949
-7.1924 -6.4559 2.3949
-6.9557 -6.7085 2.3949
-6.7097 -6.9520 2.3949
-6.4548 -7.1862 2.3949
-6.1914 -7.4105 2.3949
-5.9198 -7.6250 2.3949
-5.6406 -7.8288 2.3949
-5.3540 -8.0221 2.3949
-5.0606 -8.2044 2.3949
-4.7607 -8.3756 2.3949
-4.4547 -8.5355 2.3949
-4.1433 -8.6837 2.3949
-3.8267 -8.8201 2.3949
-3.5055 -8.9445 2.3949
-3.1801 -9.0569 2.3949
-2.8510 -9.1570 2.3949
-2.5187 -9.2447 2.3949
-2.1837 -9.3200 2.3949
-1.8464 -9.3827 2.3949
-1.5073 -9.4329 2.3949
-1.1670 -9.4704 2.3949
-0.8258 -9.4954 2.3949
-0.4843 -9.5077 2.3949
-0.1430 -9.5074 2.3949
0.1977 -9.4946 2.3949
0.5374 -9.4693 2.3949
0.8754 -9.4315 2.3949
1.2115 -9.3815 2.3949
1.5450 -9.3193 2.3949
1.8167 -8.9544 2.3197
2.0628 -8.5760 2.2426
2.3657 -8.4845 2.2426
2.6648 -8.3821 2.2427
2.9599 -8.2703 2.2431
3.2510 -8.1492 2.2438
3.5371 -8.0177 2.2445
3.8180 -7.8761 2.2452
4.0922 -7.7227 2.2454
4.3401 -7.5249 2.2351
4.5839 -7.3262 2.2271
4.8357 -7.1446 2.2267
5.0833 -6.9585 2.2276
5.3220 -6.7615 2.2278
5.5532 -6.5563 2.2279
5.7766 -6.3433 2.2281
4.8143 -4.9194 1.7903
6.1991 -5.8951 2.2285
6.3977 -5.6605 2.2287
6.5876 -5.4193 2.2289
6.7687 -5.1718 2.2291
6.9406 -4.9185 2.2293
7.1032 -4.6595 2.2296
7.2564 -4.3953 2.2298
7.4000 -4.1262 2.2300
7.5339 -3.8525 2.2303
7.6579 -3.5747 2.2306
4.9534 -2.0987 1.4218
4.9639 -1.8957 1.4062
4.9741 -1.6972 1.3927
5.0134 -1.5117 1.3893
8.1262 -2.1346 2.2319
8.1890 -1.8389 2.2322
8.2413 -1.5415 2.2325
8.2832 -1.2428 2.2328
8.3146 -0.9430 2.2331
8.3356 -0.6426 2.2334
8.3460 -0.3420 2.2337
8.3460 -0.0414 2.2340
8.3356 0.2589 2.2343
8.3148 0.5583 2.2346
8.2836 0.8566 2.2349
5.1230 0.7170 1.3893
5.1082 0.9035 1.3943
5.1182 1.0966 1.4078
5.1284 1.2935 1.4234
7.9744 2.3198 2.2364
7.8826 2.6044 2.2368
7.7810 2.8855 2.2371
7.6697 3.1629 2.2374
7.5490 3.4361 2.2377
7.4189 3.7050 2.2380
7.2796 3.9692 2.2383
7.1313 4.2284 2.2386
6.9742 4.4823 2.2389
6.8083 4.7306 2.2392
5.2842 3.9612 1.7839
6.4513 5.2093 2.2398
6.2605 5.4392 2.2401
6.0619 5.6623 2.2403
5.8556 5.8785 2.2406
5.6419 6.0875 2.2409
5.4210 6.2890 2.2411
5.1932 6.4829 2.2413
4.9638 6.6757 2.2439
4.7279 6.8613 2.2467
4.4786 7.0284 2.2460
4.2236 7.1867 2.2454
3.9632 7.3361 2.2447
3.6977 7.4764 2.2440
3.4273 7.6074 2.2433
3.1525 7.7290 2.2426
2.8743 7.8431 2.2425
2.7684 8.4880 2.3949
2.4632 8.5895 2.3949
0.8805 3.5479 0.9789
0.7524 3.5780 0.9781
0.6233 3.6034 0.9774
0.4933 3.6241 0.9765
0.3626 3.6401 0.9757
0.2315 3.6514 0.9747
0.1000 3.6579 0.9738
-0.0317 3.6597 0.9728
-0.1633 3.6567 0.9717
-0.2948 3.6489 0.9706
-0.4259 3.6364 0.9695
-0.5564 3.6191 0.9683
-0.6863 3.5971 0.9671
-0.8152 3.5704 0.9659
-2.3416 8.7864 2.3949
-2.6597 8.7089 2.3949
-2.9753 8.6200 2.3949
-3.2879 8.5199 2.3949
-3.5973 8.4086 2.3949
-3.9030 8.2862 2.3949
-4.2045 8.1528 2.3949
-4.5015 8.0086 2.3949
-4.7936 7.8537 2.3949
-5.0804 7.6883 2.3949
-5.3616 7.5124 2.3949
-5.6366 7.3263 2.3949
-5.9052 7.1302 2.3949
-6.1670 6.9243 2.3949
-6.4216 6.7088 2.3949
-6.6686 6.4839 2.3949
-6.9077 6.2500 2.3949
-7.1385 6.0072 2.3949
-7.3607 5.7559 2.3949
-7.5740 5.4964 2.3949
-7.7780 5.2289 2.3949
-7.9725 4.9538 2.3949
-8.1570 4.6714 2.3949
-8.3314 4.3821 2.3949
-8.4954 4.0863 2.3949
-8.6486 3.7843 2.3949
-8.7909 3.4764 2.3949
-8.9220 3.1632 2.3949
-9.0416 2.8450 2.3949
-9.1497 2.5223 2.3949
-9.2459 2.1953 2.3949
-9.3301 1.8648 2.3949
-9.4022 1.5309 2.3949
-9.4619 1.1942 2.3949
-9.5093 0.8553 2.3949
-9.5441 0.5145 2.3949
-9.5663 0.1723 2.3949
-9.5758 -0.1709 2.3949
-9.5726 -0.5144 2.3949
-9.5566 -0.8579 2.3949
-9.5278 -1.2007 2.3949
-9.4863 -1.5426 2.3949
-9.4321 -1.8829 2.3949
-9.3652 -2.2212 2.3949
-9.2856 -2.5570 2.3949
-9.1936 -2.8897 2.3949
-9.0892 -3.2190 2.3949
-8.9724 -3.5442 2.3949
-8.8436 -3.8651 2.3949
-8.7028 -4.1810 2.3949
-8.5502 -4.4915 2.3949
-8.3861 -4.7962 2.3949
-8.2107 -5.0946 2.3949
-8.0242 -5.3862 2.3949
-7.8269 -5.6707 2.3949
-7.6190 -5.9477 2.3949
-7.4010 -6.2166 2.3949
-7.1730 -6.4773 2.3949
-6.9355 -6.7291 2.3949
-6.6887 -6.9719 2.3949
-6.4331 -7.2052 2.3949
-6.1690 -7.4288 2.3949
-5.8968 -7.6422 2.3949
-5.6170 -7.8453 2.3949
-5.3298 -8.0377 2.3949
-5.0358 -8.2191 2.3949
-4.7354 -8.3894 2.3949
-4.4290 -8.5483 2.3949
-4.1171 -8.6955 2.3949
-3.8001 -8.8309 2.3949
-3.4785 -8.9544 2.3949
-3.1528 -9.0657 2.3949
-2.8234 -9.1647 2.3949
-2.4909 -9.2516 2.3949
-2.1556 -9.3257 2.3949
-1.8182 -9.3874 2.3949
-1.4790 -9.4365 2.3949
-1.1385 -9.4730 2.3949
-0.7973 -9.4969 2.3949
-0.4558 -9.5082 2.3949
-0.1145 -9.5068 2.3949
0.2261 -9.4930 2.3949
0.5656 -9.4666 2.3949
0.9035 -9.4278 2.3949
1.2394 -9.3768 2.3949
1.5727 -9.3135 2.3949
1.8259 -8.8636 2.2978
2.0882 -8.5688 2.2426
2.3908 -8.4763 2.2426
2.6895 -8.3731 2.2427
2.9844 -8.2606 2.2431
3.2750 -8.1386 2.2438
3.5607 -8.0063 2.2446
3.8411 -7.8638 2.2452
4.1140 -7.7081 2.2449
4.3604 -7.5078 2.2342
4.6047 -7.3107 2.2268
4.8568 -7.1297 2.2269
5.1034 -6.9424 2.2276
5.3415 -6.7447 2.2278
5.5721 -6.5388 2.2279
5.7949 -6.3252 2.2281
4.8168 -4.8926 1.7860
6.2160 -5.8758 2.2285
4.8420 -4.2582 1.6825
6.6031 -5.3989 2.2289
6.7834 -5.1509 2.2291
6.9545 -4.8971 2.2293
7.1163 -4.6377 2.2296
7.2687 -4.3730 2.2298
4.9211 -2.7247 1.4807
7.5446 -3.8295 2.2303
7.6677 -3.5513 2.2306
4.9543 -2.0816 1.4204
4.9647 -1.8790 1.4050
4.9750 -1.6809 1.3916
8.0595 -2.4038 2.2317
8.1318 -2.1100 2.2319
8.1937 -1.8142 2.2322
8.2452 -1.5167 2.2325
8.2862 -1.2178 2.2328
8.3168 -0.9180 2.2331
8.3369 -0.6176 2.2334
8.3464 -0.3169 2.2337
8.3456 -0.0163 2.2340
8.3343 0.2839 2.2343
8.3126 0.5832 2.2346
8.2805 0.8815 2.2349
5.1205 0.7323 1.3893
5.1091 0.9195 1.3953
5.1190 1.1129 1.4091
5.1292 1.3102 1.4248
7.9671 2.3436 2.2365
7.8745 2.6279 2.2368
7.7721 2.9088 2.2371
7.6600 3.1858 2.2374
7.5385 3.4587 2.2377
7.4077 3.7273 2.2380
7.2676 3.9910 2.2383
7.1186 4.2498 2.2386
6.9607 4.5033 2.2389
6.7941 4.7511 2.2392
5.2732 3.9778 1.7842
6.4357 5.2288 2.2398
6.2443 5.4581 2.2401
6.0450 5.6806 2.2404
5.8381 5.8962 2.2406
5.6237 6.1046 2.2409
5.3940 6.2959 2.2377
5.1739 6.4987 2.2414
4.9458 6.6933 2.2448
4.7074 6.8756 2.2466
4.4576 7.0419 2.2460
4.2021 7.1995 2.2453
3.9412 7.3482 2.2446
3.6753 7.4877 2.2440
3.4046 7.6179 2.2433
3.1294 7.7387 2.2426
2.8509 7.8522 2.2425
2.7431 8.4969 2.3949
2.4375 8.5975 2.3949
0.8699 3.5506 0.9788
0.7417 3.5802 0.9781
0.6125 3.6053 0.9773
0.4824 3.6256 0.9765
0.3517 3.6413 0.9756
0.2205 3.6521 0.9747
0.0890 3.6583 0.9737
-0.0427 3.6596 0.9727
-0.1743 3.6562 0.9716
-0.3057 3.6480 0.9705
-0.4368 3.6351 0.9694
-0.5673 3.6174 0.9682
-0.6971 3.5950 0.9670
-0.8260 3.5680 0.9658
-2.3682 8.7804 2.3949
-2.6861 8.7019 2.3949
-3.0015 8.6121 2.3949
-3.3139 8.5110 2.3949
-3.6229 8.3988 2.3949
-3.9283 8.2755 2.3949
-4.2294 8.1412 2.3949
-4.5261 7.9961 2.3949
-4.8178 7.8403 2.3949
-5.1041 7.6740 2.3949
-5.3847 7.4973 2.3949
-5.6593 7.3103 2.3949
-5.9273 7.1134 2.3949
-6.1885 6.9067 2.3949
-6.4425 6.6904 2.3949
-6.6888 6.4648 2.3949
-6.9273 6.2301 2.3949
-7.1574 5.9866 2.3949
-7.3789 5.7346 2.3949
-7.5914 5.4744 2.3949
-7.7946 5.2062 2.3949
-7.9882 4.9305 2.3949
-8.1720 4.6476 2.3949
-8.3455 4.3577 2.3949
-8.5086 4.0613 2.3949
-8.6609 3.7588 2.3949
-8.8022 3.4505 2.3949
-8.9324 3.1369 2.3949
-9.0511 2.8183 2.3949
-9.1581 2.4951 2.3949
-9.2534 2.1679 2.3949
-9.3366 1.8371 2.3949
-9.4076 1.5029 2.3949
-9.4663 1.1661 2.3949
-9.5126 0.8270 2.3949
-9.5464 0.4860 2.3949
-9.5675 0.1437 2.3949
-9.5760 -0.1995 2.3949
-9.5717 -0.5430 2.3949
-9.5547 -0.8865 2.3949
-9.5249 -1.2292 2.3949
-9.4823 -1.5711 2.3949
-9.4270 -1.9112 2.3949
-9.3590 -2.2493 2.3949
-9.2785 -2.5848 2.3949
-9.1854 -2.9173 2.3949
-9.0799 -3.2462 2.3949
-8.9621 -3.5712 2.3949
-8.8323 -3.8916 2.3949
-8.6905 -4.2071 2.3949
-8.5370 -4.5171 2.3949
-8.3719 -4.8213 2.3949
-8.1955 -5.1191 2.3949
-8.0081 -5.4102 2.3949
-7.8099 -5.6941 2.3949
-7.6012 -5.9704 2.3949
-7.3823 -6.2387 2.3949
-7.1536 -6.4986 2.3949
-6.9153 -6.7497 2.3949
-6.6678 -6.9917 2.3949
-6.4114 -7.2243 2.3949
-6.1466 -7.4470 2.3949
-5.8738 -7.6596 2.3949
-5.5933 -7.8618 2.3949
-5.3056 -8.0532 2.3949
-5.0110 -8.2338 2.3949
-4.7100 -8.4031 2.3949
-4.4032 -8.5610 2.3949
-4.0908 -8.7072 2.3949
-3.7734 -8.8417 2.3949
-3.4515 -8.9641 2.3949
-3.1255 -9.0744 2.3949
-2.7958 -9.1724 2.3949
-2.4630 -9.2581 2.3949
-2.1276 -9.3312 2.3949
-1.7900 -9.3919 2.3949
-1.4506 -9.4400 2.3949
-1.1101 -9.4755 2.3949
-0.7689 -9.4983 2.3949
-0.4273 -9.5085 2.3949
-0.0861 -9.5062 2.3949
0.2545 -9.4912 2.3949
0.5939 -9.4638 2.3949
0.9316 -9.4241 2.3949
1.2673 -9.3720 2.3949
1.6004 -9.3077 2.3949
1.8349 -8.7745 2.2764
2.1135 -8.5615 2.2426
2.4159 -8.4681 2.2426
2.7142 -8.3640 2.2427
3.0088 -8.2508 2.2432
3.2990 -8.1280 2.2439
3.5843 -7.9948 2.2446
3.8643 -7.8515 2.2453
4.1358 -7.6931 2.2445
4.3807 -7.4910 2.2334
4.6254 -7.2952 2.2266
4.8779 -7.1148 2.2271
5.1236 -6.9262 2.2276
5.3610 -6.7278 2.2278
5.5910 -6.5214 2.2280
5.8131 -6.3071 2.2281
6.0271 -6.0854 2.2283
6.2328 -5.8565 2.2285
4.8433 -4.2337 1.6787
6.6185 -5.3784 2.2289
6.7980 -5.1300 2.2291
6.9684 -4.8756 2.2294
7.1294 -4.6158 2.2296
7.2810 -4.3507 2.2298
4.9221 -2.7059 1.4787
7.5552 -3.8065 2.2303
7.6776 -3.5279 2.2306
4.9552 -2.0645 1.4191
4.9656 -1.8623 1.4038
4.9758 -1.6646 1.3906
8.0660 -2.3794 2.2317
8.1374 -2.0854 2.2320
8.1984 -1.7894 2.2322
8.2490 -1.4918 2.2325
8.2892 -1.1929 2.2328
8.3188 -0.8930 2.2331
8.3380 -0.5925 2.2334
8.3468 -0.2918 2.2337
8.3450 0.0087 2.2340
8.3329 0.3088 2.2343
8.3103 0.6081 2.2346
8.2773 0.9063 2.2349
5.1179 0.7477 1.3893
5.1099 0.9355 1.3964
5.1199 1.1292 1.4103
5.1301 1.3268 1.4262
7.9598 2.3675 2.2365
7.8663 2.6515 2.2368
7.7631 2.9320 2.2371
7.6503 3.2087 2.2374
7.5280 3.4813 2.2377
7.3963 3.7494 2.2381
7.2555 4.0128 2.2384
7.1057 4.2711 2.2387
6.9471 4.5241 2.2390
6.7798 4.7715 2.2393
5.2745 4.0037 1.7887
6.4200 5.2481 2.2398
6.2279 5.4769 2.2401
6.0280 5.6989 2.2404
5.8205 5.9139 2.2406
5.6056 6.1216 2.2409
5.3835 6.3219 2.2411
5.1545 6.5144 2.2414
4.9284 6.7119 2.2459
4.6868 6.8898 2.2465
4.4365 7.0554 2.2459
5.7574 4.9719 2.2397
5.5756 5.1771 2.2399
5.3868 5.3758 2.2402
5.1912 5.5680 2.2404
4.9892 5.7536 2.2407
4.7931 5.9474 2.2469
4.5762 6.1167 2.2463
4.3534 6.2784 2.2457
4.1252 6.4322 2.2452
3.8917 6.5780 2.2446
3.6532 6.7155 2.2440
3.4100 6.8447 2.2433
3.1623 6.9654 2.2427
2.9112 7.0789 2.2425
2.7477 7.4316 2.3198
2.5606 7.7754 2.3949
2.2808 7.8687 2.3949
0.8139 3.2397 0.9757
0.6968 3.2675 0.9750
0.5789 3.2911 0.9743
0.4601 3.3104 0.9736
0.3407 3.3253 0.9728
0.2209 3.3360 0.9719
0.1007 3.3423 0.9710
-0.0196 3.3442 0.9701
-0.1399 3.3418 0.9692
-0.2601 3.3351 0.9682
-0.3799 3.3240 0.9672
-0.4993 3.3085 0.9661
-0.6180 3.2888 0.9650
-0.7359 3.2647 0.9639
-0.8529 3.2365 0.9627
-2.4131 7.9802 2.3949
-2.7020 7.8988 2.3949
-2.9882 7.8071 2.3949
-3.2713 7.7051 2.3949
-3.5510 7.5930 2.3949
-3.8269 7.4709 2.3949
-4.0986 7.3389 2.3949
-4.3657 7.1970 2.3949
-4.6280 7.0456 2.3949
-4.8851 6.8846 2.3949
-5.1366 6.7143 2.3949
-5.3821 6.5349 2.3949
-5.6213 6.3465 2.3949
-5.8539 6.1494 2.3949
-6.0796 5.9438 2.3949
-6.2980 5.7299 2.3949
-6.5089 5.5080 2.3949
-6.7118 5.2783 2.3949
-6.9066 5.0411 2.3949
-7.0929 4.7967 2.3949
-7.2704 4.5454 2.3949
-7.4389 4.2874 2.3949
-7.5980 4.0232 2.3949
-7.7477 3.7531 2.3949
-7.8876 3.4773 2.3949
-8.0174 3.1963 2.3949
-8.1371 2.9104 2.3949
-8.2463 2.6199 2.3949
-8.3449 2.3254 2.3949
-8.4327 2.0272 2.3949
-8.5097 1.7255 2.3949
-8.5755 1.4210 2.3949
-8.6302 1.1139 2.3949
-8.6735 0.8047 2.3949
-8.7054 0.4939 2.3949
-8.7259 0.1818 2.3949
-8.7348 -0.1311 2.3949
-8.7322 -0.4443 2.3949
-8.7179 -0.7575 2.3949
-8.6921 -1.0702 2.3949
-8.6546 -1.3819 2.3949
-8.6056 -1.6922 2.3949
-8.5450 -2.0007 2.3949
-8.4730 -2.3069 2.3949
-8.3896 -2.6103 2.3949
-8.2950 -2.9106 2.3949
-8.1892 -3.2073 2.3949
-8.0724 -3.4999 2.3949
-7.9447 -3.7881 2.3949
-7.8063 -4.0715 2.3949
-7.6574 -4.3495 2.3949
-7.4982 -4.6218 2.3949
-7.3290 -4.8881 2.3949
-7.1500 -5.1479 2.3949
-6.9613 -5.4009 2.3949
-6.7634 -5.6466 2.3949
-6.5564 -5.8848 2.3949
-6.3407 -6.1151 2.3949
-6.1166 -6.3372 2.3949
-5.8844 -6.5506 2.3949
-5.6445 -6.7553 2.3949
-5.3972 -6.9508 2.3949
-5.1429 -7.1370 2.3949
-4.8819 -7.3134 2.3949
-4.6146 -7.4800 2.3949
-4.3414 -7.6364 2.3949
-4.0628 -7.7825 2.3949
-3.7790 -7.9180 2.3949
-3.4906 -8.0429 2.3949
-3.1980 -8.1569 2.3949
-2.9015 -8.2599 2.3949
-2.6016 -8.3518 2.3949
-2.2988 -8.4324 2.3949
-1.9934 -8.5017 2.3949
-1.6859 -8.5597 2.3949
-1.3767 -8.6062 2.3949
-1.0663 -8.6412 2.3949
-0.7552 -8.6648 2.3949
-0.4436 -8.6769 2.3949
-0.1322 -8.6775 2.3949
0.1788 -8.6667 2.3949
0.4888 -8.6445 2.3949
0.7974 -8.6110 2.3949
1.1043 -8.5662 2.3949
1.4090 -8.5104 2.3949
1.7111 -8.4435 2.3949
1.8925 -7.8760 2.2548
2.1592 -7.7506 2.2426
2.4326 -7.6579 2.2426
2.7021 -7.5556 2.2427
2.9678 -7.4447 2.2430
3.2295 -7.3253 2.2437
3.4864 -7.1966 2.2443
3.7382 -7.0588 2.2449
3.9845 -6.9121 2.2456
4.2211 -6.7501 2.2440
4.4335 -6.5542 2.2335
4.6471 -6.3646 2.2276
4.8661 -6.1853 2.2278
5.0795 -6.0002 2.2286
5.2846 -5.8060 2.2287
5.4823 -5.6049 2.2289
5.6725 -5.3971 2.2291
5.8550 -5.1829 2.2293
6.0295 -4.9627 2.2295
6.1959 -4.7366 2.2297
6.3540 -4.5051 2.2299
6.5036 -4.2684 2.2301
6.6446 -4.0269 2.2303
6.7768 -3.7808 2.2305
6.9001 -3.5305 2.2308
7.0144 -3.2762 2.2310
7.1196 -3.0184 2.2312
7.2155 -2.7573 2.2315
7.3021 -2.4933 2.2317
7.3792 -2.2267 2.2320
7.4469 -1.9578 2.2323
7.5051 -1.6869 2.2325
7.5538 -1.4144 2.2328
7.5928 -1.1406 2.2331
7.6222 -0.8659 2.2333
7.6419 -0.5905 2.2336
7.6520 -0.3148 2.2339
7.6525 -0.0391 2.2342
7.6434 0.2362 2.2344
7.6247 0.5109 2.2347
7.5965 0.7845 2.2350
7.5588 1.0569 2.2353
7.5117 1.3277 2.2356
7.4552 1.5965 2.2359
7.3894 1.8630 2.2362
7.3145 2.1271 2.2364
7.2304 2.3882 2.2367
7.1374 2.6462 2.2370
7.0355 2.9007 2.2373
6.9248 3.1515 2.2376
6.8056 3.3983 2.2379
6.6778 3.6407 2.2381
6.5418 3.8785 2.2384
6.3975 4.1115 2.2387
6.2453 4.3393 2.2389
6.0853 4.5617 2.2392
5.9176 4.7784 2.2395
5.7425 4.9893 2.2397
5.5602 5.1939 2.2400
5.3708 5.3921 2.2402
5.1746 5.5837 2.2404
4.9731 5.7700 2.2412
4.7752 5.9619 2.2468
4.5578 6.1305 2.2463
4.3346 6.2915 2.2457
4.1059 6.4447 2.2451
3.8720 6.5898 2.2445
3.6331 6.7266 2.2439
3.3895 6.8551 2.2433
3.1415 6.9751 2.2427
2.8901 7.0880 2.2425
2.7482 7.5020 2.3390
2.5374 7.7835 2.3949
0.9202 3.2105 0.9763
0.8041 3.2422 0.9756
0.6870 3.2697 0.9750
0.5690 3.2929 0.9742
0.4502 3.3118 0.9735
0.3308 3.3264 0.9727
0.2109 3.3367 0.9718
0.0907 3.3426 0.9710
-0.0296 3.3442 0.9700
-0.1499 3.3414 0.9691
-0.2701 3.3343 0.9681
-0.3899 3.3228 0.9671
-0.5092 3.3070 0.9660
-0.6279 3.2869 0.9649
-0.7457 3.2625 0.9638
-0.8626 3.2339 0.9626
-2.4373 7.9738 2.3949
-2.7260 7.8915 2.3949
-3.0119 7.7990 2.3949
-3.2948 7.6962 2.3949
-3.5741 7.5832 2.3949
-3.8497 7.4603 2.3949
-4.1210 7.3274 2.3949
-4.3878 7.1848 2.3949
-4.6497 7.0325 2.3949
-4.9063 6.8708 2.3949
-5.1573 6.6997 2.3949
-5.4023 6.5195 2.3949
-5.6410 6.3304 2.3949
-5.8730 6.1326 2.3949
-6.0981 5.9263 2.3949
-6.3159 5.7117 2.3949
-6.5261 5.4891 2.3949
-6.7284 5.2588 2.3949
-6.9224 5.0210 2.3949
-7.1080 4.7760 2.3949
-7.2848 4.5241 2.3949
-7.4525 4.2656 2.3949
-7.6109 4.0009 2.3949
-7.7597 3.7303 2.3949
-7.8988 3.4541 2.3949
-8.0278 3.1726 2.3949
-8.1466 2.8864 2.3949
-8.2549 2.5956 2.3949
-8.3526 2.3007 2.3949
-8.4396 2.0021 2.3949
-8.5156 1.7003 2.3949
-8.5805 1.3955 2.3949
-8.6342 1.0882 2.3949
-8.6766 0.7789 2.3949
-8.7076 0.4679 2.3949
-8.7271 0.1558 2.3949
-8.7351 -0.1572 2.3949
-8.7314 -0.4705 2.3949
-8.7162 -0.7836 2.3949
-8.6894 -1.0962 2.3949
-8.6510 -1.4079 2.3949
-8.6010 -1.7180 2.3949
-8.5395 -2.0263 2.3949
-8.4665 -2.3323 2.3949
-8.3822 -2.6355 2.3949
-8.2866 -2.9355 2.3949
-8.1799 -3.2318 2.3949
-8.0621 -3.5241 2.3949
-7.9335 -3.8120 2.3949
-7.7943 -4.0948 2.3949
-7.6445 -4.3724 2.3949
-7.4845 -4.6443 2.3949
-7.3145 -4.9100 2.3949
-7.1346 -5.1693 2.3949
-6.9452 -5.4216 2.3949
-6.7464 -5.6668 2.3949
-6.5387 -5.9043 2.3949
-6.3223 -6.1339 2.3949
-6.0976 -6.3554 2.3949
-5.8647 -6.5681 2.3949
-5.6242 -6.7720 2.3949
-5.3763 -6.9667 2.3949
-5.1214 -7.1520 2.3949
-4.8598 -7.3277 2.3949
-4.5920 -7.4934 2.3949
-4.3184 -7.6490 2.3949
-4.0393 -7.7942 2.3949
-3.7552 -7.9289 2.3949
-3.4664 -8.0528 2.3949
-3.1734 -8.1659 2.3949
-2.8766 -8.2680 2.3949
-2.5765 -8.3589 2.3949
-2.2734 -8.4386 2.3949
-1.9678 -8.5070 2.3949
-1.6602 -8.5640 2.3949
-1.3509 -8.6096 2.3949
-1.0404 -8.6437 2.3949
-0.7292 -8.6663 2.3949
-0.4177 -8.6774 2.3949
-0.1062 -8.6770 2.3949
0.2046 -8.6653 2.3949
0.5146 -8.6421 2.3949
0.8231 -8.6077 2.3949
1.1298 -8.5620 2.3949
1.4343 -8.5052 2.3949
1.7361 -8.4374 2.3949
1.9063 -7.8303 2.2435
2.1821 -7.7432 2.2426
2.4552 -7.6498 2.2426
2.7244 -7.5466 2.2427
2.9898 -7.4351 2.2431
3.2511 -7.3149 2.2437
3.5076 -7.1855 2.2444
3.7589 -7.0469 2.2450
4.0048 -6.8995 2.2456
4.2391 -6.7341 2.2431
4.4512 -6.5378 2.2328
4.6651 -6.3495 2.2274
4.8843 -6.1704 2.2280
5.0969 -5.9843 2.2286
5.3013 -5.7895 2.2288
5.4984 -5.5878 2.2289
5.6880 -5.3794 2.2291
4.8419 -4.2603 1.8389
6.0437 -4.9440 2.2295
6.2094 -4.7175 2.2297
6.3668 -4.4856 2.2299
6.5157 -4.2485 2.2301
6.6560 -4.0065 2.2303
4.9210 -2.7261 1.6172
6.9100 -3.5094 2.2308
7.0236 -3.2549 2.2310
7.1279 -2.9968 2.2313
7.2231 -2.7354 2.2315
7.3089 -2.4712 2.2318
7.3853 -2.2043 2.2320
7.4522 -1.9353 2.2323
7.5096 -1.6642 2.2325
7.5574 -1.3916 2.2328
7.5956 -1.1177 2.2331
7.6242 -0.8429 2.2334
7.6432 -0.5675 2.2336
7.6525 -0.2918 2.2339
7.6521 -0.0162 2.2342
7.6422 0.2591 2.2345
7.6227 0.5337 2.2347
7.5937 0.8073 2.2350
7.5552 1.0796 2.2353
7.5073 1.3502 2.2356
7.4500 1.6188 2.2359
7.3835 1.8852 2.2362
7.3078 2.1489 2.2365
7.2230 2.4098 2.2368
7.1292 2.6676 2.2370
7.0266 2.9218 2.2373
6.9152 3.1723 2.2376
6.7952 3.4187 2.2379
6.6668 3.6607 2.2382
6.5300 3.8982 2.2384
6.3851 4.1307 2.2387
6.2323 4.3581 2.2390
6.0716 4.5800 2.2392
5.9033 4.7963 2.2395
5.7276 5.0066 2.2397
5.5446 5.2107 2.2400
5.3547 5.4084 2.2402
5.1579 5.5994 2.2404
4.9574 5.7869 2.2420
4.7574 5.9762 2.2468
4.5394 6.1442 2.2462
4.3157 6.3046 2.2456
4.0866 6.4571 2.2451
3.8522 6.6015 2.2445
3.6129 6.7377 2.2439
3.3690 6.8655 2.2432
3.1206 6.9847 2.2426
2.8689 7.0971 2.2425
2.7486 7.5735 2.3586
2.5142 7.7916 2.3949
0.9105 3.2133 0.9762
0.7944 3.2447 0.9756
0.6772 3.2718 0.9749
0.5591 3.2946 0.9742
0.4403 3.3132 0.9734
0.3208 3.3274 0.9726
0.2009 3.3373 0.9718
0.0807 3.3429 0.9709
-0.0397 3.3441 0.9700
-0.1600 3.3410 0.9690
-0.2801 3.3335 0.9680
-0.3999 3.3217 0.9670
-0.5191 3.3055 0.9659
-0.6377 3.2851 0.9648
-0.7555 3.2603 0.9637
-0.8723 3.2313 0.9625
-2.4614 7.9674 2.3949
-2.7499 7.8842 2.3949
-3.0356 7.7908 2.3949
-3.3182 7.6871 2.3949
-3.5973 7.5733 2.3949
-3.8725 7.4496 2.3949
-4.1434 7.3159 2.3949
-4.4098 7.1724 2.3949
-4.6713 7.0194 2.3949
-4.9274 6.8569 2.3949
-5.1779 6.6850 2.3949
-5.4224 6.5041 2.3949
-5.6606 6.3143 2.3949
-5.8921 6.1157 2.3949
-6.1166 5.9087 2.3949
-6.3337 5.6935 2.3949
-6.5433 5.4702 2.3949
-6.7449 5.2392 2.3949
-6.9382 5.0008 2.3949
-7.1231 4.7552 2.3949
-7.2991 4.5028 2.3949
-7.4661 4.2438 2.3949
-7.6237 3.9786 2.3949
-7.7717 3.7075 2.3949
-7.9099 3.4308 2.3949
-8.0381 3.1489 2.3949
-8.1560 2.8623 2.3949
-8.2635 2.5712 2.3949
-8.3603 2.2759 2.3949
-8.4463 1.9771 2.3949
-8.5214 1.6749 2.3949
-8.5854 1.3699 2.3949
-8.6382 1.0625 2.3949
-8.6796 0.7530 2.3949
-8.7096 0.4419 2.3949
-8.7282 0.1297 2.3949
-8.7352 -0.1833 2.3949
-8.7306 -0.4966 2.3949
-8.7144 -0.8097 2.3949
-8.6866 -1.1223 2.3949
-8.6472 -1.4338 2.3949
-8.5963 -1.7438 2.3949
-8.5338 -2.0519 2.3949
-8.4599 -2.3577 2.3949
-8.3746 -2.6606 2.3949
-8.2781 -2.9603 2.3949
-8.1705 -3.2564 2.3949
-8.0518 -3.5483 2.3949
-7.9223 -3.8357 2.3949
-7.7822 -4.1182 2.3949
-7.6316 -4.3953 2.3949
-7.4707 -4.6667 2.3949
-7.2998 -4.9319 2.3949
-7.1191 -5.1906 2.3949
-6.9289 -5.4424 2.3949
-6.7295 -5.6869 2.3949
-6.5210 -5.9238 2.3949
-6.3039 -6.1527 2.3949
-6.0785 -6.3734 2.3949
-5.8450 -6.5855 2.3949
-5.6038 -6.7886 2.3949
-5.3553 -6.9825 2.3949
-5.0998 -7.1671 2.3949
-4.8377 -7.3419 2.3949
-4.5695 -7.5068 2.3949
-4.2953 -7.6615 2.3949
-4.0158 -7.8058 2.3949
-3.7313 -7.9396 2.3949
-3.4421 -8.0627 2.3949
-3.1488 -8.1748 2.3949
-2.8517 -8.2760 2.3949
-2.5513 -8.3660 2.3949
-2.2480 -8.4448 2.3949
-1.9422 -8.5122 2.3949
-1.6344 -8.5682 2.3949
-1.3250 -8.6128 2.3949
-1.0145 -8.6460 2.3949
-0.7032 -8.6676 2.3949
-0.3917 -8.6778 2.3949
-0.0803 -8.6765 2.3949
0.2305 -8.6638 2.3949
0.5403 -8.6397 2.3949
0.8487 -8.6043 2.3949
1.1553 -8.5577 2.3949
1.4595 -8.5000 2.3949
1.7612 -8.4313 2.3949
1.9286 -7.8202 2.2425
2.2050 -7.7358 2.2426
2.4778 -7.6415 2.2426
2.7467 -7.5376 2.2427
3.0118 -7.4254 2.2431
3.2727 -7.3045 2.2438
3.5287 -7.1743 2.2444
3.7797 -7.0350 2.2450
4.0251 -6.8868 2.2457
4.2568 -6.7174 2.2420
4.4688 -6.5218 2.2321
4.6831 -6.3342 2.2272
4.9025 -6.1557 2.2281
5.1142 -5.9683 2.2286
5.3180 -5.7729 2.2288
5.5145 -5.5707 2.2289
5.7035 -5.3618 2.2291
4.8432 -4.2357 1.8348
6.0578 -4.9253 2.2295
6.2229 -4.6983 2.2297
6.3796 -4.4660 2.2299
6.5277 -4.2285 2.2301
6.6673 -3.9861 2.2303
4.9220 -2.7074 1.6150
6.9198 -3.4883 2.2308
7.0326 -3.2335 2.2310
7.1362 -2.9751 2.2313
7.2306 -2.7135 2.2315
7.3156 -2.4490 2.2318
5.0006 -1.4763 1.5101
7.4573 -1.9127 2.2323
7.5139 -1.6416 2.2326
7.5609 -1.3689 2.2328
7.5984 -1.0949 2.2331
7.6261 -0.8200 2.2334
7.6443 -0.5445 2.2337
7.6528 -0.2688 2.2339
7.6517 0.0068 2.2342
7.6410 0.2821 2.2345
7.6207 0.5566 2.2348
7.5909 0.8301 2.2351
7.5516 1.1022 2.2353
7.5029 1.3726 2.2356
7.4449 1.6411 2.2359
7.3776 1.9073 2.2362
7.3011 2.1708 2.2365
7.2155 2.4315 2.2368
7.1210 2.6889 2.2371
7.0176 2.9428 2.2374
6.9055 3.1930 2.2376
6.7849 3.4390 2.2379
6.6557 3.6807 2.2382
6.5183 3.9177 2.2385
6.3727 4.1498 2.2387
5.2763 3.7132 1.8995
6.0579 4.5983 2.2392
5.8889 4.8140 2.2395
5.7126 5.0238 2.2397
5.5291 5.2274 2.2400
5.3385 5.4245 2.2402
5.1412 5.6150 2.2405
4.9417 5.8037 2.2427
4.7394 5.9905 2.2467
4.5210 6.1579 2.2462
4.2969 6.3176 2.2456
4.0673 6.4694 2.2450
5.3120 4.5874 2.2394
5.1442 4.7767 2.2396
4.9699 4.9600 2.2398
4.8038 5.1528 2.2469
4.6152 5.3228 2.2465
4.4206 5.4858 2.2460
4.2204 5.6420 2.2454
4.0149 5.7911 2.2449
3.8043 5.9329 2.2444
3.5888 6.0673 2.2438
3.3687 6.1941 2.2433
3.1443 6.3132 2.2427
2.9164 6.4257 2.2426
2.7104 6.5932 2.2641
2.6158 7.0777 2.3949
2.3609 7.1723 2.3949
0.8547 2.9502 0.9735
0.7480 2.9796 0.9729
0.6404 3.0052 0.9723
0.5319 3.0268 0.9716
0.4226 3.0445 0.9710
0.3128 3.0583 0.9702
0.2026 3.0681 0.9694
0.0920 3.0738 0.9686
-0.0186 3.0756 0.9678
-0.1293 3.0734 0.9669
-0.2398 3.0672 0.9660
-0.3501 3.0569 0.9651
-0.4599 3.0427 0.9641
-0.5691 3.0246 0.9631
-0.6776 3.0025 0.9621
-0.7852 2.9764 0.9610
-0.8918 2.9466 0.9599
-2.4909 7.2759 2.3949
-2.7543 7.1907 2.3949
-3.0148 7.0960 2.3949
-3.2721 6.9921 2.3949
-3.5258 6.8789 2.3949
-3.7757 6.7566 2.3949
-4.0213 6.6253 2.3949
-4.2623 6.4852 2.3949
-4.4985 6.3364 2.3949
-4.7295 6.1789 2.3949
-4.9549 6.0132 2.3949
-5.1746 5.8392 2.3949
-5.3881 5.6573 2.3949
-5.5952 5.4674 2.3949
-5.7955 5.2700 2.3949
-5.9888 5.0653 2.3949
-6.1749 4.8535 2.3949
-6.3534 4.6349 2.3949
-6.5240 4.4097 2.3949
-6.6865 4.1781 2.3949
-6.8408 3.9406 2.3949
-6.9864 3.6973 2.3949
-7.1233 3.4486 2.3949
-7.2511 3.1948 2.3949
-7.3698 2.9362 2.3949
-7.4790 2.6732 2.3949
-7.5787 2.4061 2.3949
-7.6686 2.1353 2.3949
-7.7487 1.8611 2.3949
-7.8187 1.5838 2.3949
-7.8785 1.3041 2.3949
-7.9281 1.0218 2.3949
-7.9672 0.7378 2.3949
-7.9960 0.4523 2.3949
-8.0142 0.1657 2.3949
-8.0218 -0.1216 2.3949
-8.0188 -0.4093 2.3949
-8.0053 -0.6967 2.3949
-7.9810 -0.9837 2.3949
-7.9462 -1.2699 2.3949
-7.9008 -1.5546 2.3949
-7.8448 -1.8376 2.3949
-7.7783 -2.1186 2.3949
-7.7015 -2.3970 2.3949
-7.6143 -2.6726 2.3949
-7.5170 -2.9446 2.3949
-7.4095 -3.2131 2.3949
-7.2921 -3.4776 2.3949
-7.1650 -3.7373 2.3949
-7.0282 -3.9925 2.3949
-6.8821 -4.2423 2.3949
-6.7267 -4.4866 2.3949
-6.5624 -4.7250 2.3949
-6.3892 -4.9571 2.3949
-6.2076 -5.1826 2.3949
-6.0177 -5.4012 2.3949
-5.8199 -5.6125 2.3949
-5.6143 -5.8163 2.3949
-5.4014 -6.0124 2.3949
-5.1813 -6.2003 2.3949
-4.9545 -6.3799 2.3949
-4.7212 -6.5509 2.3949
-4.4819 -6.7130 2.3949
-4.2367 -6.8661 2.3949
-3.9862 -7.0100 2.3949
-3.7306 -7.1444 2.3949
-3.4703 -7.2691 2.3949
-3.2058 -7.3841 2.3949
-2.9373 -7.4892 2.3949
-2.6653 -7.5841 2.3949
-2.3901 -7.6689 2.3949
-2.1122 -7.7435 2.3949
-1.8319 -7.8077 2.3949
-1.5497 -7.8615 2.3949
-1.2659 -7.9048 2.3949
-0.9810 -7.9376 2.3949
-0.6952 -7.9598 2.3949
-0.4091 -7.9716 2.3949
-0.1230 -7.9728 2.3949
0.1626 -7.9636 2.3949
0.4475 -7.9439 2.3949
0.7311 -7.9138 2.3949
1.0132 -7.8734 2.3949
1.2934 -7.8228 2.3949
1.5711 -7.7621 2.3949
1.8462 -7.6914 2.3949
1.9835 -7.1265 2.2425
2.2350 -7.0420 2.2426
2.4831 -6.9486 2.2426
2.7273 -6.8463 2.2427
2.9678 -6.7363 2.2430
3.2043 -6.6185 2.2436
3.4361 -6.4923 2.2442
3.6629 -6.3580 2.2447
3.8846 -6.2156 2.2453
4.1007 -6.0655 2.2458
4.3027 -5.8964 2.2420
4.4882 -5.7085 2.2333
4.6740 -5.5241 2.2285
4.8631 -5.3453 2.2286
4.8144 -4.9246 2.1266
5.2229 -4.9718 2.2296
5.3915 -4.7750 2.2298
5.5528 -4.5726 2.2300
5.7066 -4.3648 2.2301
5.8528 -4.1519 2.2303
5.9912 -3.9342 2.2305
6.1216 -3.7119 2.2307
6.2440 -3.4855 2.2309
6.3582 -3.2551 2.2311
6.4641 -3.0210 2.2314
4.9595 -2.1039 1.6867
6.6505 -2.5431 2.2318
6.7308 -2.2999 2.2320
6.8025 -2.0542 2.2323
6.8654 -1.8064 2.2325
6.9196 -1.5567 2.2328
6.9649 -1.3056 2.2330
7.0013 -1.0531 2.2333
7.0289 -0.7998 2.2335
7.0475 -0.5458 2.2338
7.0573 -0.2915 2.2340
7.0581 -0.0372 2.2343
7.0501 0.2168 2.2346
7.0332 0.4702 2.2348
7.0075 0.7227 2.2351
6.9730 0.9741 2.2353
6.9298 1.2239 2.2356
6.8779 1.4720 2.2359
6.8174 1.7181 2.2361
6.7484 1.9617 2.2364
6.6711 2.2028 2.2367
6.5853 2.4409 2.2369
6.4914 2.6759 2.2372
6.3894 2.9074 2.2374
6.2794 3.1351 2.2377
6.1615 3.3589 2.2380
6.0360 3.5784 2.2382
5.9029 3.7934 2.2385
5.7624 4.0036 2.2387
5.2791 3.9573 2.1051
5.4599 4.4089 2.2392
5.2983 4.6034 2.2394
5.1299 4.7922 2.2396
4.9555 4.9755 2.2401
4.7884 5.1674 2.2469
4.5992 5.3366 2.2464
4.4041 5.4991 2.2459
4.2035 5.6547 2.2454
3.9975 5.8032 2.2449
3.7865 5.9444 2.2443
3.5706 6.0782 2.2438
3.3502 6.2044 2.2432
3.1254 6.3228 2.2427
2.8972 6.4347 2.2426
2.7106 6.6503 2.2807
2.5947 7.0859 2.3949
2.3395 7.1798 2.3949
0.8458 2.9528 0.9734
0.7391 2.9819 0.9729
0.6314 3.0071 0.9722
0.5228 3.0285 0.9716
0.4135 3.0458 0.9709
0.3036 3.0593 0.9702
0.1934 3.0687 0.9694
0.0828 3.0741 0.9686
-0.0279 3.0756 0.9677
-0.1385 3.0730 0.9668
-0.2490 3.0665 0.9659
-0.3592 3.0559 0.9650
-0.4690 3.0414 0.9640
-0.5781 3.0229 0.9630
-0.6866 3.0004 0.9620
-0.7941 2.9741 0.9609
-0.9006 2.9439 0.9598
-2.5129 7.2691 2.3949
-2.7761 7.1832 2.3949
-3.0364 7.0877 2.3949
-3.2934 6.9830 2.3949
-3.5468 6.8691 2.3949
-3.7963 6.7460 2.3949
-4.0415 6.6140 2.3949
-4.2822 6.4731 2.3949
-4.5180 6.3236 2.3949
-4.7485 6.1654 2.3949
-4.9735 5.9990 2.3949
-5.1926 5.8243 2.3949
-5.4056 5.6417 2.3949
-5.6121 5.4512 2.3949
-5.8119 5.2533 2.3949
-6.0046 5.0479 2.3949
-6.1901 4.8356 2.3949
-6.3679 4.6164 2.3949
-6.5379 4.3906 2.3949
-6.6997 4.1585 2.3949
-6.8532 3.9205 2.3949
-6.9982 3.6767 2.3949
-7.1343 3.4276 2.3949
-7.2614 3.1734 2.3949
-7.3793 2.9145 2.3949
-7.4877 2.6511 2.3949
-7.5866 2.3837 2.3949
-7.6757 2.1126 2.3949
-7.7549 1.8381 2.3949
-7.8240 1.5606 2.3949
-7.8830 1.2805 2.3949
-7.9317 0.9982 2.3949
-7.9700 0.7140 2.3949
-7.9979 0.4284 2.3949
-8.0152 0.1417 2.3949
-8.0220 -0.1456 2.3949
-8.0181 -0.4331 2.3949
-8.0037 -0.7206 2.3949
-7.9785 -1.0076 2.3949
-7.9428 -1.2936 2.3949
-7.8965 -1.5782 2.3949
-7.8396 -1.8612 2.3949
-7.7723 -2.1420 2.3949
-7.6946 -2.4201 2.3949
-7.6066 -2.6953 2.3949
-7.5084 -2.9672 2.3949
-7.4001 -3.2353 2.3949
-7.2819 -3.4993 2.3949
-7.1540 -3.7587 2.3949
-7.0164 -4.0135 2.3949
-6.8695 -4.2629 2.3949
-6.7133 -4.5067 2.3949
-6.5483 -4.7446 2.3949
-6.3744 -4.9761 2.3949
-6.1921 -5.2011 2.3949
-6.0015 -5.4190 2.3949
-5.8030 -5.6298 2.3949
-5.5968 -5.8330 2.3949
-5.3833 -6.0283 2.3949
-5.1627 -6.2156 2.3949
-4.9353 -6.3945 2.3949
-4.7015 -6.5647 2.3949
-4.4616 -6.7261 2.3949
-4.2160 -6.8785 2.3949
-3.9651 -7.0215 2.3949
-3.7091 -7.1551 2.3949
-3.4484 -7.2791 2.3949
-3.1835 -7.3933 2.3949
-2.9148 -7.4975 2.3949
-2.6425 -7.5916 2.3949
-2.3671 -7.6755 2.3949
-2.0889 -7.7492 2.3949
-1.8085 -7.8126 2.3949
-1.5261 -7.8655 2.3949
-1.2422 -7.9079 2.3949
-0.9571 -7.9398 2.3949
-0.6714 -7.9612 2.3949
-0.3852 -7.9721 2.3949
-0.0992 -7.9724 2.3949
0.1864 -7.9623 2.3949
0.4712 -7.9418 2.3949
0.7547 -7.9108 2.3949
1.0367 -7.8696 2.3949
1.3166 -7.8182 2.3949
1.5942 -7.7566 2.3949
1.8690 -7.6850 2.3949
2.0046 -7.1198 2.2425
2.2559 -7.0345 2.2426
2.5036 -6.9404 2.2426
2.7475 -6.8374 2.2427
2.9877 -6.7268 2.2430
3.2238 -6.6083 2.2436
3.4552 -6.4814 2.2442
3.6816 -6.3464 2.2448
3.9028 -6.2034 2.2453
4.1185 -6.0526 2.2458
4.3182 -5.8802 2.2411
4.5036 -5.6925 2.2327
4.6897 -5.5088 2.2283
4.8788 -5.3307 2.2287
4.8159 -4.8966 2.1210
5.2372 -4.9556 2.2296
4.8418 -4.2624 1.9974
5.5659 -4.5555 2.2300
5.7191 -4.3472 2.2302
5.8646 -4.1339 2.2303
6.0024 -3.9158 2.2305
6.1322 -3.6932 2.2307
4.9210 -2.7276 1.7555
6.3674 -3.2357 2.2312
6.4725 -3.0013 2.2314
4.9695 -2.0906 1.6882
6.6575 -2.5229 2.2318
6.7371 -2.2795 2.2321
6.8081 -2.0336 2.2323
6.8703 -1.7857 2.2325
6.9237 -1.5359 2.2328
6.9683 -1.2846 2.2330
7.0040 -1.0320 2.2333
7.0308 -0.7786 2.2335
7.0487 -0.5246 2.2338
7.0577 -0.2703 2.2341
7.0578 -0.0160 2.2343
7.0490 0.2379 2.2346
7.0314 0.4913 2.2348
7.0049 0.7437 2.2351
6.9697 0.9950 2.2354
6.9258 1.2447 2.2356
6.8732 1.4926 2.2359
6.8120 1.7385 2.2362
6.7423 1.9819 2.2364
6.6642 2.2228 2.2367
6.5778 2.4607 2.2370
6.4832 2.6953 2.2372
6.3805 2.9265 2.2375
6.2699 3.1539 2.2377
6.1514 3.3774 2.2380
6.0252 3.5965 2.2382
5.8915 3.8111 2.2385
5.7504 4.0210 2.2387
5.2736 3.9780 2.1077
5.4467 4.4253 2.2392
5.2845 4.6193 2.2394
5.1156 4.8080 2.2396
4.9419 4.9917 2.2406
4.7729 5.1818 2.2469
4.5831 5.3505 2.2464
4.3876 5.5124 2.2459
4.1865 5.6674 2.2454
3.9801 5.8153 2.2448
3.7687 5.9559 2.2443
3.5524 6.0890 2.2437
3.3316 6.2146 2.2432
3.1065 6.3323 2.2426
2.8780 6.4437 2.2426
2.7107 6.7082 2.2977
2.5735 7.0941 2.3949
2.3180 7.1872 2.3949
0.8370 2.9554 0.9734
0.7301 2.9842 0.9728
0.6223 3.0091 0.9722
0.5137 3.0301 0.9715
0.4044 3.0471 0.9708
0.2945 3.0602 0.9701
0.1842 3.0693 0.9693
0.0736 3.0744 0.9685
-0.0371 3.0755 0.9677
-0.1478 3.0726 0.9668
-0.2583 3.0657 0.9659
-0.3684 3.0548 0.9649
-0.4781 3.0400 0.9639
-0.5872 3.0212 0.9629
-0.6956 2.9984 0.9619
-0.8030 2.9717 0.9608
-0.9094 2.9412 0.9597
-2.5350 7.2623 2.3949
-2.7979 7.1755 2.3949
-3.0579 7.0793 2.3949
-3.3147 6.9738 2.3949
-3.5678 6.8592 2.3949
-3.8169 6.7354 2.3949
-4.0618 6.6026 2.3949
-4.3020 6.4610 2.3949
-4.5374 6.3107 2.3949
-4.7675 6.1519 2.3949
-4.9920 5.9847 2.3949
-5.2106 5.8094 2.3949
-5.4231 5.6261 2.3949
-5.6291 5.4350 2.3949
-5.8283 5.2364 2.3949
-6.0204 5.0305 2.3949
-6.2052 4.8175 2.3949
-6.3824 4.5978 2.3949
-6.5517 4.3715 2.3949
-6.7129 4.1389 2.3949
-6.8657 3.9004 2.3949
-7.0099 3.6562 2.3949
-7.1453 3.4066 2.3949
-7.2716 3.1520 2.3949
-7.3887 2.8927 2.3949
-7.4963 2.6290 2.3949
-7.5944 2.3612 2.3949
-7.6827 2.0900 2.3949
-7.7610 1.8150 2.3949
-7.8294 1.5373 2.3949
-7.8875 1.2572 2.3949
-7.9353 0.9746 2.3949
-7.9728 0.6902 2.3949
-7.9997 0.4045 2.3949
-8.0162 0.1178 2.3949
-8.0221 -0.1696 2.3949
-8.0173 -0.4571 2.3949
-8.0020 -0.7446 2.3949
-7.9760 -1.0316 2.3949
-7.9394 -1.3174 2.3949
-7.8922 -1.6019 2.3949
-7.8345 -1.8846 2.3949
-7.7662 -2.1652 2.3949
-7.6877 -2.4432 2.3949
-7.5988 -2.7182 2.3949
-7.4997 -2.9897 2.3949
-7.3906 -3.2575 2.3949
-7.2716 -3.5209 2.3949
-7.1427 -3.7818 2.3949
-7.0045 -4.0345 2.3949
-6.8568 -4.2835 2.3949
-6.6999 -4.5268 2.3949
-6.5341 -4.7641 2.3949
-6.3595 -4.9951 2.3949
-6.1765 -5.2195 2.3949
-5.9853 -5.4369 2.3949
-5.7861 -5.6470 2.3949
-5.5793 -5.8496 2.3949
-5.3652 -6.0443 2.3949
-5.1440 -6.2308 2.3949
-4.9160 -6.4090 2.3949
-4.6817 -6.5785 2.3949
-4.4414 -6.7392 2.3949
-4.1953 -6.8908 2.3949
-3.9439 -7.0330 2.3949
-3.6875 -7.1658 2.3949
-3.4265 -7.2890 2.3949
-3.1613 -7.4023 2.3949
-2.8922 -7.5057 2.3949
-2.6196 -7.5990 2.3949
-2.3440 -7.6821 2.3949
-2.0656 -7.7549 2.3949
-1.7850 -7.8174 2.3949
-1.5025 -7.8694 2.3949
-1.2185 -7.9110 2.3949
-0.9333 -7.9420 2.3949
-0.6475 -7.9625 2.3949
-0.3614 -7.9725 2.3949
-0.0754 -7.9720 2.3949
0.2102 -7.9610 2.3949
0.4949 -7.9396 2.3949
0.7783 -7.9078 2.3949
1.0601 -7.8657 2.3949
1.3398 -7.8134 2.3949
1.6172 -7.7510 2.3949
1.8805 -7.6327 2.3806
2.0257 -7.1130 2.2425
2.2767 -7.0270 2.2426
2.5241 -6.9321 2.2426
2.7677 -6.8285 2.2427
3.0075 -6.7172 2.2431
3.2433 -6.5980 2.2437
3.4743 -6.4705 2.2442
3.7003 -6.3348 2.2448
3.9210 -6.1911 2.2454
4.1362 -6.0397 2.2459
4.3335 -5.8647 2.2401
4.5189 -5.6766 2.2321
4.7052 -5.4938 2.2281
4.8945 -5.3160 2.2288
4.8173 -4.8688 2.1154
5.2515 -4.9394 2.2296
4.8431 -4.2378 1.9929
5.5789 -4.5383 2.2300
5.7315 -4.3296 2.2302
5.8764 -4.1159 2.2304
6.0135 -3.8974 2.2306
6.1426 -3.6745 2.2308
4.9219 -2.7089 1.7531
6.3765 -3.2163 2.2312
6.4809 -2.9816 2.2314
6.5770 -2.7437 2.2316
6.6645 -2.5027 2.2319
6.7434 -2.2591 2.2321
6.8136 -2.0130 2.2323
6.8751 -1.7649 2.2326
6.9277 -1.5150 2.2328
6.9716 -1.2635 2.2331
7.0065 -1.0109 2.2333
7.0326 -0.7574 2.2336
7.0498 -0.5034 2.2338
7.0580 -0.2491 2.2341
7.0574 0.0052 2.2343
7.0479 0.2591 2.2346
7.0295 0.5124 2.2349
7.0023 0.7647 2.2351
6.9664 1.0159 2.2354
6.9217 1.2654 2.2357
6.8684 1.5132 2.2359
6.8065 1.7589 2.2362
6.7361 2.0021 2.2364
6.6573 2.2427 2.2367
6.5702 2.4803 2.2370
6.4750 2.7147 2.2372
6.3716 2.9456 2.2375
6.2603 3.1727 2.2377
6.1411 3.3958 2.2380
6.0143 3.6146 2.2382
5.8800 3.8288 2.2385
5.7383 4.0382 2.2387
5.2749 4.0039 2.1130
5.4334 4.4417 2.2392
5.2706 4.6353 2.2394
5.1011 4.8231 2.2396
4.9283 5.0080 2.2413
4.7573 5.1961 2.2468
4.5670 5.3642 2.2463
4.3710 5.5256 2.2458
4.1695 5.6800 2.2453
3.9627 5.8273 2.2448
3.7508 5.9672 2.2442
4.9262 4.2544 2.2395
4.7848 4.4431 2.2464
4.6223 4.6135 2.2465
4.4529 4.7769 2.2461
4.2779 4.9343 2.2456
4.0975 5.0855 2.2452
3.9119 5.2303 2.2447
3.7213 5.3684 2.2442
3.5260 5.4999 2.2437
3.3261 5.6245 2.2432
3.1220 5.7420 2.2427
2.9144 5.8534 2.2426
2.7031 5.9576 2.2425
2.6573 6.4662 2.3949
2.4241 6.5618 2.3949
0.8874 2.6974 0.9715
0.7899 2.7281 0.9711
0.6912 2.7553 0.9705
0.5917 2.7789 0.9700
0.4913 2.7989 0.9694
0.3903 2.8152 0.9687
0.2887 2.8279 0.9680
0.1868 2.8370 0.9673
0.0845 2.8423 0.9666
-0.0178 2.8439 0.9658
-0.1202 2.8419 0.9650
-0.2224 2.8361 0.9641
-0.3243 2.8266 0.9633
-0.4259 2.8135 0.9624
-0.5269 2.7967 0.9614
-0.6272 2.7762 0.9605
-0.7267 2.7522 0.9595
-0.8253 2.7245 0.9585
-2.3082 6.7370 2.3949
-2.5519 6.6575 2.3949
-2.7930 6.5693 2.3949
-3.0309 6.4725 2.3949
-3.2656 6.3672 2.3949
-3.4965 6.2534 2.3949
-3.7236 6.1313 2.3949
-3.9463 6.0011 2.3949
-4.1646 5.8628 2.3949
-4.3779 5.7166 2.3949
-4.5861 5.5627 2.3949
-4.7889 5.4012 2.3949
-4.9860 5.2323 2.3949
-5.1771 5.0562 2.3949
-5.3620 4.8733 2.3949
-5.5403 4.6835 2.3949
-5.7118 4.4872 2.3949
-5.8763 4.2846 2.3949
-6.0336 4.0760 2.3949
-6.1833 3.8616 2.3949
-6.3254 3.6416 2.3949
-6.4595 3.4164 2.3949
-6.5854 3.1863 2.3949
-6.7030 2.9514 2.3949
-6.8121 2.7123 2.3949
-6.9125 2.4690 2.3949
-7.0041 2.2220 2.3949
-7.0866 1.9716 2.3949
-7.1600 1.7181 2.3949
-7.2241 1.4619 2.3949
-7.2789 1.2033 2.3949
-7.3241 0.9426 2.3949
-7.3598 0.6802 2.3949
-7.3859 0.4165 2.3949
-7.4022 0.1518 2.3949
-7.4089 -0.1135 2.3949
-7.4057 -0.3791 2.3949
-7.3927 -0.6445 2.3949
-7.3700 -0.9094 2.3949
-7.3374 -1.1749 2.3949
-7.2952 -1.4363 2.3949
-7.2432 -1.6976 2.3949
-7.1816 -1.9568 2.3949
-7.1104 -2.2137 2.3949
-7.0297 -2.4679 2.3949
-6.9396 -2.7191 2.3949
-6.8403 -2.9668 2.3949
-6.7318 -3.2107 2.3949
-6.6143 -3.4505 2.3949
-6.4880 -3.6859 2.3949
-6.3530 -3.9164 2.3949
-6.2095 -4.1418 2.3949
-6.0578 -4.3618 2.3949
-5.8980 -4.5759 2.3949
-5.7304 -4.7842 2.3949
-5.5552 -4.9858 2.3949
-5.3726 -5.1809 2.3949
-5.1830 -5.3691 2.3949
-4.9865 -5.5501 2.3949
-4.7835 -5.7237 2.3949
-4.5743 -5.8895 2.3949
-4.3591 -6.0475 2.3949
-4.1383 -6.1973 2.3949
-3.9122 -6.3389 2.3949
-3.6810 -6.4719 2.3949
-3.4452 -6.5962 2.3949
-3.2051 -6.7116 2.3949
-2.9610 -6.8181 2.3949
-2.7133 -6.9154 2.3949
-2.4623 -7.0033 2.3949
-2.2083 -7.0836 2.3949
-1.9519 -7.1513 2.3949
-1.6932 -7.2110 2.3949
-1.4326 -7.2611 2.3949
-1.1706 -7.3016 2.3949
-0.9075 -7.3323 2.3949
-0.6437 -7.3534 2.3949
-0.3794 -7.3648 2.3949
-0.1152 -7.3664 2.3949
0.1488 -7.3584 2.3949
0.4120 -7.3408 2.3949
0.6741 -7.3136 2.3949
0.9348 -7.2769 2.3949
1.1938 -7.2307 2.3949
1.4506 -7.1752 2.3949
1.7050 -7.1104 2.3949
1.9253 -6.9237 2.3565
2.0648 -6.5111 2.2425
2.2943 -6.4253 2.2426
2.5204 -6.3314 2.2426
2.7426 -6.2293 2.2427
2.9611 -6.1202 2.2429
3.1756 -6.0039 2.2435
3.3856 -5.8801 2.2440
3.5909 -5.7489 2.2445
3.7910 -5.6105 2.2450
3.9859 -5.4651 2.2455
4.1752 -5.3129 2.2459
4.3494 -5.1429 2.2416
4.5106 -4.9610 2.2342
4.6706 -4.7798 2.2296
4.8321 -4.6024 2.2291
4.9906 -4.4223 2.2302
5.1404 -4.2352 2.2304
5.2833 -4.0431 2.2305
5.4191 -3.8463 2.2307
5.5477 -3.6449 2.2309
5.6690 -3.4394 2.2311
5.7828 -3.2298 2.2313
5.8890 -3.0166 2.2315
5.9876 -2.8000 2.2317
4.9594 -2.1053 1.8211
4.9699 -1.9017 1.8005
6.2360 -2.1323 2.2323
6.3028 -1.9048 2.2325
6.3615 -1.6752 2.2328
6.4121 -1.4439 2.2330
6.4545 -1.2112 2.2332
6.4886 -0.9773 2.2334
6.5145 -0.7425 2.2337
6.5321 -0.5071 2.2339
6.5415 -0.2713 2.2342
6.5426 -0.0356 2.2344
6.5354 0.1999 2.2346
6.5200 0.4349 2.2349
6.4965 0.6691 2.2351
6.4647 0.9022 2.2354
6.4248 1.1339 2.2356
5.1245 1.0962 1.7968
6.3210 1.5923 2.2361
6.2572 1.8183 2.2364
6.1856 2.0419 2.2366
6.1062 2.2628 2.2368
6.0192 2.4807 2.2371
5.9247 2.6955 2.2373
5.8227 2.9067 2.2376
5.7135 3.1143 2.2378
5.5970 3.3179 2.2380
5.4736 3.5173 2.2383
5.3433 3.7123 2.2385
5.2063 3.9027 2.2387
5.0621 4.0876 2.2386
4.9146 4.2702 2.2400
4.7720 4.4580 2.2467
4.6084 4.6273 2.2465
4.4385 4.7903 2.2460
4.2631 4.9471 2.2456
4.0822 5.0978 2.2451
3.8962 5.2420 2.2447
3.7052 5.3797 2.2442
3.5095 5.5106 2.2437
3.3093 5.6345 2.2432
3.1048 5.7514 2.2426
2.8970 5.8623 2.2426
2.6888 5.9738 2.2454
2.6380 6.4745 2.3949
2.4045 6.5694 2.3949
0.8794 2.7001 0.9715
0.7817 2.7305 0.9710
0.6830 2.7574 0.9705
0.5833 2.7807 0.9699
0.4829 2.8004 0.9693
0.3818 2.8164 0.9687
0.2802 2.8288 0.9680
0.1782 2.8376 0.9673
0.0760 2.8426 0.9665
-0.0264 2.8439 0.9657
-0.1287 2.8415 0.9649
-0.2309 2.8354 0.9641
-0.3328 2.8257 0.9632
-0.4343 2.8122 0.9623
-0.5353 2.7951 0.9614
-0.6355 2.7744 0.9604
-0.7350 2.7500 0.9594
-0.8335 2.7221 0.9584
-2.3286 6.7307 2.3949
-2.5721 6.6505 2.3949
-2.8129 6.5616 2.3949
-3.0506 6.4641 2.3949
-3.2850 6.3580 2.3949
-3.5156 6.2435 2.3949
-3.7423 6.1208 2.3949
-3.9647 5.9898 2.3949
-4.1825 5.8509 2.3949
-4.3955 5.7040 2.3949
-4.6033 5.5495 2.3949
-4.8056 5.3874 2.3949
-5.0022 5.2179 2.3949
-5.1928 5.0412 2.3949
-5.3771 4.8577 2.3949
-5.5548 4.6676 2.3949
-5.7258 4.4706 2.3949
-5.8897 4.2675 2.3949
-6.0463 4.0583 2.3949
-6.1955 3.8434 2.3949
-6.3368 3.6230 2.3949
-6.4703 3.3974 2.3949
-6.5955 3.1669 2.3949
-6.7124 2.9317 2.3949
-6.8208 2.6921 2.3949
-6.9205 2.4486 2.3949
-7.0113 2.2013 2.3949
-7.0931 1.9506 2.3949
-7.1657 1.6969 2.3949
-7.2291 1.4405 2.3949
-7.2830 1.1816 2.3949
-7.3275 0.9208 2.3949
-7.3624 0.6583 2.3949
-7.3876 0.3945 2.3949
-7.4032 0.1297 2.3949
-7.4090 -0.1356 2.3949
-7.4050 -0.4012 2.3949
-7.3912 -0.6666 2.3949
-7.3677 -0.9315 2.3949
-7.3343 -1.1951 2.3949
-7.2912 -1.4582 2.3949
-7.2384 -1.7193 2.3949
-7.1760 -1.9783 2.3949
-7.1040 -2.2350 2.3949
-7.0225 -2.4890 2.3949
-6.9317 -2.7399 2.3949
-6.8316 -2.9873 2.3949
-6.7223 -3.2309 2.3949
-6.6041 -3.4703 2.3949
-6.4770 -3.7053 2.3949
-6.3413 -3.9354 2.3949
-6.1972 -4.1604 2.3949
-6.0448 -4.3799 2.3949
-5.8844 -4.5936 2.3949
-5.7161 -4.8012 2.3949
-5.5403 -5.0024 2.3949
-5.3571 -5.1969 2.3949
-5.1669 -5.3845 2.3949
-4.9699 -5.5649 2.3949
-4.7663 -5.7378 2.3949
-4.5566 -5.9030 2.3949
-4.3409 -6.0603 2.3949
-4.1196 -6.2095 2.3949
-3.8931 -6.3503 2.3949
-3.6615 -6.4826 2.3949
-3.4254 -6.6061 2.3949
-3.1849 -6.7208 2.3949
-2.9405 -6.8265 2.3949
-2.6925 -6.9231 2.3949
-2.4412 -7.0103 2.3949
-2.1871 -7.0882 2.3949
-1.9304 -7.1567 2.3949
-1.6715 -7.2156 2.3949
-1.4108 -7.2648 2.3949
-1.1487 -7.3045 2.3949
-0.8855 -7.3345 2.3949
-0.6216 -7.3547 2.3949
-0.3574 -7.3653 2.3949
-0.0931 -7.3661 2.3949
0.1707 -7.3573 2.3949
0.4339 -7.3389 2.3949
0.6959 -7.3109 2.3949
0.9565 -7.2734 2.3949
1.2153 -7.2264 2.3949
1.4719 -7.1701 2.3949
1.7261 -7.1046 2.3949
1.9316 -6.8670 2.3394
2.0841 -6.5043 2.2425
2.3133 -6.4178 2.2426
2.5390 -6.3231 2.2426
2.7610 -6.2205 2.2427
2.9791 -6.1108 2.2430
3.1933 -5.9939 2.2435
3.4029 -5.8695 2.2440
3.6078 -5.7377 2.2445
3.8075 -5.5987 2.2450
4.0019 -5.4527 2.2455
4.1907 -5.2999 2.2460
4.3628 -5.1275 2.2408
4.5240 -4.9457 2.2337
4.6840 -4.7652 2.2295
4.8454 -4.5871 2.2291
4.8417 -4.2645 2.1581
5.1526 -4.2194 2.2304
5.2949 -4.0269 2.2306
5.4301 -3.8297 2.2307
5.5581 -3.6280 2.2309
5.6788 -3.4221 2.2311
4.9209 -2.7291 1.8957
5.8975 -2.9987 2.2315
5.9954 -2.7818 2.2317
4.9603 -2.0881 1.8192
4.9708 -1.8850 1.7990
6.2419 -2.1134 2.2323
6.3080 -1.8857 2.2326
6.3661 -1.6560 2.2328
6.4159 -1.4246 2.2330
6.4576 -1.1917 2.2332
6.4911 -0.9577 2.2335
6.5163 -0.7229 2.2337
6.5332 -0.4874 2.2339
6.5419 -0.2517 2.2342
6.5423 -0.0159 2.2344
6.5345 0.2196 2.2347
6.5184 0.4545 2.2349
6.4941 0.6886 2.2352
6.4617 0.9216 2.2354
6.4212 1.1532 2.2356
5.1254 1.1124 1.7983
6.3160 1.6112 2.2361
6.2516 1.8370 2.2364
6.1793 2.0604 2.2366
6.0993 2.2811 2.2369
6.0116 2.4988 2.2371
5.9164 2.7132 2.2373
5.8139 2.9242 2.2376
5.7040 3.1314 2.2378
5.5870 3.3347 2.2380
5.4630 3.5338 2.2383
5.3321 3.7284 2.2385
5.1946 3.9183 2.2387
5.0496 4.1028 2.2386
4.9029 4.2859 2.2405
4.7591 4.4728 2.2469
4.5945 4.6411 2.2464
4.4241 4.8036 2.2460
4.2482 4.9599 2.2456
4.0669 5.1101 2.2451
3.8804 5.2538 2.2446
3.6890 5.3908 2.2441
3.4930 5.5212 2.2436
3.2924 5.6446 2.2431
3.0876 5.7609 2.2426
2.8795 5.8712 2.2426
2.6816 6.0060 2.2544
2.6186 6.4827 2.3949
2.3849 6.5770 2.3949
0.8713 2.7027 0.9715
0.7735 2.7329 0.9710
0.6747 2.7595 0.9704
0.5750 2.7825 0.9699
0.4745 2.8019 0.9692
0.3734 2.8176 0.9686
0.2717 2.8297 0.9679
0.1697 2.8381 0.9672
0.0675 2.8428 0.9664
-0.0349 2.8438 0.9657
-0.1372 2.8412 0.9648
-0.2394 2.8348 0.9640
-0.3413 2.8247 0.9631
-0.4428 2.8109 0.9622
-0.5436 2.7935 0.9613
-0.6438 2.7725 0.9603
-0.7432 2.7478 0.9593
-0.8416 2.7196 0.9583
-2.3491 6.7243 2.3949
-2.5923 6.6434 2.3949
-2.8329 6.5538 2.3949
-3.0703 6.4555 2.3949
-3.3043 6.3488 2.3949
-3.5347 6.2336 2.3949
-3.7610 6.1102 2.3949
-3.9831 5.9786 2.3949
-4.2005 5.8389 2.3949
-4.4130 5.6914 2.3949
-4.6204 5.5362 2.3949
-4.8222 5.3735 2.3949
-5.0183 5.2035 2.3949
-5.2084 5.0262 2.3949
-5.3921 4.8421 2.3949
-5.5693 4.6512 2.3949
-5.7397 4.4539 2.3949
-5.9031 4.2503 2.3949
-6.0591 4.0406 2.3949
-6.2076 3.8253 2.3949
-6.3483 3.6044 2.3949
-6.4810 3.3784 2.3949
-6.6056 3.1474 2.3949
-6.7218 2.9118 2.3949
-6.8295 2.6720 2.3949
-6.9284 2.4281 2.3949
-7.0184 2.1805 2.3949
-7.0995 1.9295 2.3949
-7.1713 1.6756 2.3949
-7.2339 1.4190 2.3949
-7.2871 1.1599 2.3949
-7.3308 0.8990 2.3949
-7.3648 0.6363 2.3949
-7.3893 0.3724 2.3949
-7.4040 0.1076 2.3949
-7.4090 -0.1578 2.3949
-7.4042 -0.4233 2.3949
-7.3896 -0.6887 2.3949
-7.3653 -0.9535 2.3949
-7.3310 -1.2189 2.3949
-7.2872 -1.4800 2.3949
-7.2336 -1.7410 2.3949
-7.1704 -1.9998 2.3949
-7.0976 -2.2563 2.3949
-7.0153 -2.5101 2.3949
-6.9237 -2.7607 2.3949
-6.8228 -3.0078 2.3949
-6.7128 -3.2510 2.3949
-6.5938 -3.4901 2.3949
-6.4660 -3.7247 2.3949
-6.3296 -3.9544 2.3949
-6.1848 -4.1789 2.3949
-6.0317 -4.3979 2.3949
-5.8706 -4.6111 2.3949
-5.7017 -4.8182 2.3949
-5.5253 -5.0189 2.3949
-5.3415 -5.2128 2.3949
-5.1507 -5.3998 2.3949
-4.9531 -5.5796 2.3949
-4.7491 -5.7519 2.3949
-4.5388 -5.9164 2.3949
-4.3227 -6.0731 2.3949
-4.1009 -6.2215 2.3949
-3.8739 -6.3616 2.3949
-3.6420 -6.4932 2.3949
-3.4055 -6.6160 2.3949
-3.1647 -6.7300 2.3949
-2.9200 -6.8349 2.3949
-2.6717 -6.9307 2.3949
-2.4201 -7.0172 2.3949
-2.1658 -7.0941 2.3949
-1.9089 -7.1619 2.3949
-1.6499 -7.2200 2.3949
-1.3891 -7.2685 2.3949
-1.1268 -7.3074 2.3949
-0.8635 -7.3365 2.3949
-0.5996 -7.3560 2.3949
-0.3353 -7.3657 2.3949
-0.0711 -7.3658 2.3949
0.1927 -7.3562 2.3949
