ply
format ascii 1.0
element vertex 2174
property float32 x
property float32 y
property float32 z
end_header
-3.6712 8.3745 2.3893
-3.9703 8.2387 2.3893
-4.2644 8.0923 2.3893
-4.5532 7.9355 2.3893
-4.8363 7.7684 2.3893
-5.1134 7.5914 2.3893
-5.3839 7.4046 2.3893
-5.6478 7.2082 2.3893
-5.9045 7.0025 2.3893
-6.1538 6.7877 2.3893
-6.3953 6.5641 2.3893
-6.6287 6.3320 2.3893
-6.8538 6.0916 2.3893
-7.0703 5.8433 2.3893
-7.2777 5.5873 2.3893
-7.4760 5.3241 2.3893
-7.6648 5.0538 2.3893
-7.8439 4.7769 2.3893
-8.0130 4.4936 2.3893
-8.1720 4.2044 2.3893
-8.3205 3.9097 2.3893
-8.4585 3.6097 2.3893
-8.5856 3.3048 2.3893
-8.7019 2.9955 2.3893
-8.8070 2.6821 2.3893
-8.9008 2.3651 2.3893
-8.9833 2.0448 2.3893
-9.0542 1.7216 2.3893
-9.1136 1.3960 2.3893
-9.1612 1.0683 2.3893
-9.1970 0.7390 2.3893
-9.2211 0.4086 2.3893
-9.2332 0.0773 2.3893
-9.2335 -0.2542 2.3893
-9.2218 -0.5857 2.3893
-9.1983 -0.9166 2.3893
-9.1628 -1.2467 2.3893
-9.1155 -1.5753 2.3893
-9.0563 -1.9021 2.3893
-8.9854 -2.2267 2.3893
-8.9029 -2.5487 2.3893
-8.8087 -2.8675 2.3893
-8.7031 -3.1829 2.3893
-8.5862 -3.4943 2.3893
-8.4581 -3.8015 2.3893
-8.3190 -4.1038 2.3893
-8.1690 -4.4012 2.3893
-8.0083 -4.6929 2.3893
-7.8371 -4.9788 2.3893
-7.6557 -5.2584 2.3893
-7.4642 -5.5313 2.3893
-7.2630 -5.7971 2.3893
-7.0522 -6.0557 2.3893
-6.8322 -6.3064 2.3893
-6.6032 -6.5492 2.3893
-6.3655 -6.7835 2.3893
-6.1195 -7.0091 2.3893
-5.8654 -7.2258 2.3893
-5.6035 -7.4331 2.3893
-5.3343 -7.6308 2.3893
-5.0581 -7.8188 2.3893
-4.7752 -7.9966 2.3893
-4.4859 -8.1642 2.3893
-4.1908 -8.3211 2.3893
-3.8901 -8.4673 2.3893
-3.5843 -8.6025 2.3893
-3.2738 -8.7265 2.3893
-2.9589 -8.8392 2.3893
-2.6401 -8.9405 2.3893
-2.3179 -9.0301 2.3893
-1.9926 -9.1080 2.3893
-1.6646 -9.1741 2.3893
-1.3345 -9.2282 2.3893
-1.0027 -9.2703 2.3893
-0.6695 -9.3004 2.3893
-0.3354 -9.3184 2.3893
-0.0007 -8.5214 2.3893
0.3049 -8.5157 2.3893
0.6102 -8.4989 2.3893
0.9146 -8.4711 2.3893
1.2178 -8.4323 2.3893
1.5194 -8.3825 2.3893
1.8189 -8.3219 2.3893
2.1160 -8.2504 2.3893
2.4104 -8.1682 2.3893
2.6930 -8.0500 2.3817
2.7984 -7.4638 2.2369
3.0639 -7.3576 2.2369
3.3259 -7.2430 2.2373
3.5840 -7.1199 2.2379
3.8376 -6.9875 2.2386
4.0862 -6.8460 2.2392
4.3295 -6.6955 2.2399
4.5672 -6.5362 2.2405
4.7989 -6.3684 2.2411
5.0117 -6.1767 2.2360
5.2264 -5.9887 2.2349
5.4369 -5.7962 2.2351
5.4336 -5.3913 2.1533
5.8363 -5.3893 2.2354
6.0248 -5.1754 2.2355
6.2053 -4.9549 2.2357
6.3778 -4.7281 2.2359
6.5419 -4.4952 2.2361
6.6975 -4.2566 2.2362
6.8444 -4.0126 2.2364
6.9824 -3.7636 2.2366
7.1114 -3.5098 2.2368
5.3883 -2.4229 1.6669
7.3415 -2.9893 2.2373
7.4424 -2.7233 2.2375
7.5336 -2.4539 2.2377
7.6151 -2.1814 2.2380
7.6867 -1.9063 2.2382
7.7484 -1.6288 2.2385
5.3804 -0.9307 1.5442
7.8417 -1.0682 2.2390
7.8732 -0.7859 2.2393
7.8946 -0.5026 2.2395
7.9058 -0.2189 2.2398
7.9069 0.0650 2.2401
7.8977 0.3488 2.2404
7.8784 0.6319 2.2407
5.3722 0.6257 1.5338
7.8095 1.1951 2.2412
7.7600 1.4744 2.2415
7.6981 1.7512 2.2411
7.6262 2.0254 2.2407
7.5446 2.2967 2.2402
7.4533 2.5647 2.2397
5.3848 2.0720 1.6400
5.2915 2.2575 1.6357
7.1185 3.3439 2.2369
6.9918 3.5963 2.2369
6.8561 3.8440 2.2369
6.7118 4.0865 2.2369
6.5589 4.3237 2.2369
6.3976 4.5553 2.2369
6.2283 4.7808 2.2369
6.0659 5.0124 2.2423
6.2658 5.5682 2.3893
6.0603 5.7882 2.3893
5.8472 6.0008 2.3893
5.6267 6.2056 2.3893
5.3991 6.4023 2.3893
5.1646 6.5908 2.3893
4.9236 6.7708 2.3893
4.6765 6.9420 2.3893
4.4234 7.1044 2.3893
4.1647 7.2576 2.3893
3.9007 7.4014 2.3893
3.6319 7.5358 2.3893
3.3584 7.6604 2.3893
3.0808 7.7753 2.3893
2.7992 7.8801 2.3893
2.5141 7.9749 2.3893
0.8907 3.2250 0.9561
0.7744 3.2553 0.9562
0.6570 3.2814 0.9564
0.5388 3.3032 0.9565
0.4198 3.3208 0.9567
0.3003 3.3340 0.9567
0.1803 3.3429 0.9568
0.0601 3.3474 0.9569
-0.0602 3.3476 0.9569
-0.1804 3.3435 0.9569
-0.3004 3.3350 0.9569
-0.4200 3.3221 0.9569
-0.5391 3.3050 0.9568
-0.6575 3.2835 0.9568
-0.7750 3.2578 0.9567
-0.8915 3.2278 0.9566
-2.5152 7.9780 2.3893
-2.8005 7.8835 2.3893
-3.0823 7.7789 2.3893
-3.3602 7.6644 2.3893
-3.6339 7.5400 2.3893
-3.9031 7.4059 2.3893
-4.1674 7.2622 2.3893
-4.4264 7.1093 2.3893
-4.6798 6.9471 2.3893
-4.9274 6.7760 2.3893
-5.1687 6.5962 2.3893
-5.4035 6.4078 2.3893
-5.6315 6.2111 2.3893
-5.8524 6.0063 2.3893
-6.0660 5.7938 2.3893
-6.2718 5.5737 2.3893
-6.4697 5.3463 2.3893
-6.6594 5.1120 2.3893
-6.8406 4.8710 2.3893
-7.0132 4.6236 2.3893
-7.1769 4.3701 2.3893
-7.3314 4.1108 2.3893
-7.4767 3.8461 2.3893
-7.6123 3.5763 2.3893
-7.7383 3.3017 2.3893
-7.8544 3.0228 2.3893
-7.9605 2.7397 2.3893
-8.0564 2.4530 2.3893
-8.1421 2.1629 2.3893
-8.2172 1.8698 2.3893
-8.2819 1.5742 2.3893
-8.3359 1.2763 2.3893
-8.3792 0.9765 2.3893
-8.4118 0.6754 2.3893
-8.4335 0.3731 2.3893
-8.4444 0.0702 2.3893
-8.4444 -0.2331 2.3893
-8.4334 -0.5362 2.3893
-8.4116 -0.8388 2.3893
-8.3789 -1.1406 2.3893
-8.3354 -1.4410 2.3893
-8.2811 -1.7399 2.3893
-8.2160 -2.0366 2.3893
-8.1403 -2.3309 2.3893
-8.0540 -2.6224 2.3893
-7.9573 -2.9107 2.3893
-7.8501 -3.1953 2.3893
-7.7328 -3.4760 2.3893
-7.6054 -3.7524 2.3893
-7.4680 -4.0241 2.3893
-7.3210 -4.2907 2.3893
-7.1643 -4.5519 2.3893
-6.9983 -4.8074 2.3893
-6.8231 -5.0567 2.3893
-6.6390 -5.2997 2.3893
-6.4462 -5.5358 2.3893
-6.2450 -5.7649 2.3893
-6.0355 -5.9867 2.3893
-5.8182 -6.2008 2.3893
-5.5932 -6.4069 2.3893
-5.3608 -6.6048 2.3893
-5.1214 -6.7942 2.3893
-4.8753 -6.9748 2.3893
-4.6227 -7.1464 2.3893
-4.3641 -7.3089 2.3893
-4.0997 -7.4619 2.3893
-3.8299 -7.6052 2.3893
-3.5551 -7.7387 2.3893
-3.2756 -7.8622 2.3893
-2.9918 -7.9754 2.3893
-2.7040 -8.0784 2.3893
-2.4127 -8.1708 2.3893
-2.1182 -8.2527 2.3893
-1.8209 -8.3238 2.3893
-1.5212 -8.3842 2.3893
-1.2195 -8.4337 2.3893
-0.9162 -8.4721 2.3893
-0.6117 -8.4996 2.3893
-0.3065 -8.5160 2.3893
-0.0008 -8.5214 2.3893
0.3049 -8.5157 2.3893
0.6101 -8.4989 2.3893
0.9145 -8.4711 2.3893
1.2177 -8.4323 2.3893
1.5193 -8.3825 2.3893
1.8189 -8.3218 2.3893
2.1160 -8.2504 2.3893
2.4103 -8.1682 2.3893
2.6930 -8.0501 2.3818
2.7983 -7.4638 2.2369
3.0639 -7.3576 2.2369
3.3259 -7.2430 2.2373
3.5840 -7.1199 2.2379
3.8375 -6.9875 2.2386
4.0861 -6.8460 2.2392
4.3294 -6.6955 2.2399
4.5671 -6.5363 2.2405
4.7989 -6.3685 2.2411
5.0117 -6.1767 2.2360
5.2264 -5.9887 2.2349
5.4369 -5.7963 2.2351
5.4335 -5.3913 2.1533
5.8363 -5.3894 2.2354
6.0247 -5.1755 2.2355
6.2053 -4.9549 2.2357
6.3777 -4.7281 2.2359
6.5419 -4.4952 2.2361
6.6975 -4.2566 2.2362
6.8444 -4.0127 2.2364
6.9824 -3.7636 2.2366
7.1114 -3.5099 2.2368
5.3883 -2.4230 1.6669
7.3415 -2.9894 2.2373
7.4423 -2.7233 2.2375
7.5336 -2.4539 2.2377
7.6150 -2.1815 2.2380
7.6867 -1.9063 2.2382
7.7484 -1.6288 2.2385
5.3804 -0.9308 1.5442
7.8417 -1.0683 2.2390
7.8732 -0.7859 2.2393
7.8946 -0.5027 2.2395
7.9058 -0.2189 2.2398
7.9069 0.0650 2.2401
7.8977 0.3487 2.2404
7.8784 0.6319 2.2407
5.3722 0.6257 1.5338
7.8095 1.1951 2.2412
7.7600 1.4744 2.2415
7.6981 1.7511 2.2411
7.6262 2.0253 2.2407
7.5446 2.2966 2.2402
7.4533 2.5647 2.2397
5.3849 2.0720 1.6400
5.2915 2.2574 1.6357
7.1185 3.3439 2.2369
6.9918 3.5963 2.2369
6.8561 3.8439 2.2369
6.7118 4.0865 2.2369
6.5589 4.3237 2.2369
6.3977 4.5552 2.2369
6.2283 4.7808 2.2369
6.0660 5.0124 2.2424
6.2658 5.5681 2.3893
6.0604 5.7882 2.3893
5.8473 6.0008 2.3893
5.6267 6.2055 2.3893
5.3991 6.4023 2.3893
5.1647 6.5908 2.3893
4.9237 6.7708 2.3893
4.6765 6.9421 2.3893
4.4234 7.1044 2.3893
4.1647 7.2575 2.3893
3.9008 7.4014 2.3893
3.6319 7.5357 2.3893
3.3585 7.6604 2.3893
3.0808 7.7752 2.3893
2.7993 7.8801 2.3893
2.5142 7.9749 2.3893
0.8907 3.2250 0.9561
0.7744 3.2553 0.9562
0.6570 3.2814 0.9564
0.5388 3.3032 0.9565
0.4198 3.3208 0.9567
0.3003 3.3340 0.9567
0.1803 3.3429 0.9568
0.0601 3.3474 0.9569
-0.0601 3.3476 0.9569
-0.1804 3.3435 0.9569
-0.3004 3.3350 0.9569
-0.4200 3.3221 0.9569
-0.5391 3.3050 0.9568
-0.6574 3.2835 0.9568
-0.7750 3.2578 0.9567
-0.8915 3.2279 0.9566
-2.5151 7.9780 2.3893
-2.8004 7.8835 2.3893
-3.0822 7.7790 2.3893
-3.3602 7.6644 2.3893
-3.6339 7.5400 2.3893
-3.9030 7.4059 2.3893
-4.1673 7.2623 2.3893
-4.4263 7.1093 2.3893
-4.6798 6.9472 2.3893
-4.9273 6.7760 2.3893
-5.1687 6.5962 2.3893
-5.4035 6.4078 2.3893
-5.6315 6.2111 2.3893
-5.8524 6.0064 2.3893
-6.0659 5.7938 2.3893
-6.2717 5.5737 2.3893
-6.4696 5.3464 2.3893
-6.6593 5.1120 2.3893
-6.8406 4.8710 2.3893
-7.0132 4.6236 2.3893
-7.1768 4.3701 2.3893
-7.3314 4.1108 2.3893
-7.4766 3.8461 2.3893
-7.6123 3.5764 2.3893
-7.7383 3.3018 2.3893
-7.8544 3.0228 2.3893
-7.9605 2.7398 2.3893
-8.0564 2.4530 2.3893
-8.1421 2.1630 2.3893
-8.2172 1.8699 2.3893
-8.2819 1.5742 2.3893
-8.3359 1.2763 2.3893
-8.3792 0.9766 2.3893
-8.4118 0.6754 2.3893
-8.4335 0.3731 2.3893
-8.4444 0.0702 2.3893
-8.4444 -0.2330 2.3893
-8.4334 -0.5361 2.3893
-8.4116 -0.8388 2.3893
-8.3790 -1.1405 2.3893
-8.3354 -1.4410 2.3893
-8.2811 -1.7398 2.3893
-8.2160 -2.0366 2.3893
-8.1403 -2.3309 2.3893
-8.0540 -2.6223 2.3893
-7.9573 -2.9106 2.3893
-7.8502 -3.1953 2.3893
-7.7328 -3.4760 2.3893
-7.6054 -3.7524 2.3893
-7.4681 -4.0240 2.3893
-7.3210 -4.2907 2.3893
-7.1643 -4.5519 2.3893
-6.9983 -4.8073 2.3893
-6.8232 -5.0567 2.3893
-6.6391 -5.2996 2.3893
-6.4463 -5.5358 2.3893
-6.2450 -5.7649 2.3893
-6.0356 -5.9866 2.3893
-5.8182 -6.2007 2.3893
-5.5932 -6.4068 2.3893
-5.3609 -6.6047 2.3893
-5.1215 -6.7941 2.3893
-4.8753 -6.9748 2.3893
-4.6228 -7.1464 2.3893
-4.3642 -7.3088 2.3893
-4.0998 -7.4618 2.3893
-3.8300 -7.6052 2.3893
-3.5552 -7.7387 2.3893
-3.2757 -7.8621 2.3893
-2.9918 -7.9754 2.3893
-2.7041 -8.0784 2.3893
-2.4127 -8.1708 2.3893
-2.1182 -8.2527 2.3893
-1.8209 -8.3238 2.3893
-1.5213 -8.3842 2.3893
-1.2196 -8.4336 2.3893
-0.9163 -8.4721 2.3893
-0.6118 -8.4996 2.3893
-0.3065 -8.5160 2.3893
-0.0007 -7.8379 2.3893
0.2804 -7.8327 2.3893
0.5612 -7.8173 2.3893
0.8412 -7.7917 2.3893
1.1200 -7.7561 2.3893
1.3974 -7.7103 2.3893
1.6729 -7.6546 2.3893
1.9462 -7.5889 2.3893
2.2170 -7.5134 2.3893
2.4848 -7.4282 2.3893
2.6995 -7.2007 2.3461
2.8181 -6.7679 2.2369
3.0587 -6.6616 2.2369
3.2957 -6.5476 2.2373
3.5288 -6.4257 2.2379
3.7573 -6.2955 2.2384
3.9810 -6.1571 2.2390
4.1996 -6.0107 2.2396
4.4127 -5.8564 2.2401
4.6200 -5.6944 2.2407
4.8214 -5.5250 2.2412
5.0045 -5.3357 2.2363
5.1902 -5.1502 2.2358
5.3706 -4.9598 2.2359
5.5441 -4.7630 2.2361
5.4050 -4.3163 2.1167
5.4030 -4.0058 2.0588
6.0203 -4.1373 2.2366
6.1637 -3.9178 2.2368
6.2990 -3.6933 2.2369
6.4261 -3.4642 2.2371
6.5449 -3.2307 2.2373
5.3883 -2.4233 1.8116
6.7569 -2.7517 2.2377
6.8498 -2.5069 2.2379
6.9339 -2.2590 2.2381
7.0090 -2.0083 2.2384
7.0750 -1.7550 2.2386
7.1319 -1.4996 2.2388
5.3804 -0.9311 1.6779
7.2181 -0.9837 2.2393
7.2472 -0.7238 2.2395
7.2670 -0.4631 2.2398
7.2774 -0.2019 2.2401
7.2785 0.0594 2.2403
7.2702 0.3206 2.2406
7.2525 0.5813 2.2408
5.3722 0.6254 1.6663
7.1893 1.0998 2.2414
7.1438 1.3569 2.2416
5.3754 1.2225 1.6999
5.3743 1.4270 1.7152
6.9461 2.1140 2.2403
6.8624 2.3609 2.2399
5.3857 2.0720 1.7816
5.2916 2.2572 1.7767
6.5540 3.0783 2.2369
6.4375 3.3108 2.2369
6.3127 3.5389 2.2369
6.1799 3.7623 2.2369
6.0393 3.9808 2.2369
5.8909 4.1941 2.2369
5.7351 4.4019 2.2369
5.5720 4.6039 2.2369
5.4018 4.8000 2.2369
5.5808 5.3297 2.3893
5.3846 5.5258 2.3893
5.1816 5.7143 2.3893
4.9721 5.8956 2.3893
4.7562 6.0692 2.3893
4.5344 6.2351 2.3893
4.3068 6.3928 2.3893
4.0737 6.5424 2.3893
3.8355 6.6836 2.3893
3.5925 6.8161 2.3893
3.3449 6.9399 2.3893
3.0931 7.0548 2.3893
2.8374 7.1606 2.3893
2.5781 7.2572 2.3893
0.9252 2.9348 0.9547
0.8193 2.9664 0.9549
0.7123 2.9943 0.9550
0.6043 3.0183 0.9552
0.4956 3.0383 0.9553
0.3861 3.0544 0.9554
0.2762 3.0666 0.9555
0.1658 3.0747 0.9556
0.0553 3.0789 0.9556
-0.0554 3.0790 0.9557
-0.1659 3.0752 0.9557
-0.2763 3.0674 0.9557
-0.3863 3.0556 0.9556
-0.4959 3.0398 0.9556
-0.6048 3.0200 0.9555
-0.7129 2.9964 0.9554
-0.8200 2.9688 0.9553
-2.3165 7.3472 2.3893
-2.5792 7.2601 2.3893
-2.8387 7.1637 2.3893
-3.0947 7.0582 2.3893
-3.3467 6.9435 2.3893
-3.5946 6.8199 2.3893
-3.8379 6.6875 2.3893
-4.0764 6.5466 2.3893
-4.3097 6.3972 2.3893
-4.5376 6.2395 2.3893
-4.7598 6.0738 2.3893
-4.9759 5.9002 2.3893
-5.1858 5.7189 2.3893
-5.3891 5.5303 2.3893
-5.5856 5.3345 2.3893
-5.7750 5.1317 2.3893
-5.9571 4.9223 2.3893
-6.1317 4.7064 2.3893
-6.2984 4.4844 2.3893
-6.4572 4.2565 2.3893
-6.6077 4.0230 2.3893
-6.7499 3.7842 2.3893
-6.8834 3.5404 2.3893
-7.0082 3.2920 2.3893
-7.1240 3.0391 2.3893
-7.2307 2.7822 2.3893
-7.3282 2.5216 2.3893
-7.4163 2.2576 2.3893
-7.4949 1.9905 2.3893
-7.5640 1.7207 2.3893
-7.6233 1.4485 2.3893
-7.6728 1.1743 2.3893
-7.7125 0.8984 2.3893
-7.7423 0.6211 2.3893
-7.7621 0.3429 2.3893
-7.7719 0.0641 2.3893
-7.7716 -0.2150 2.3893
-7.7614 -0.4939 2.3893
-7.7411 -0.7724 2.3893
-7.7109 -1.0501 2.3893
-7.6706 -1.3266 2.3893
-7.6204 -1.6015 2.3893
-7.5604 -1.8746 2.3893
-7.4905 -2.1453 2.3893
-7.4109 -2.4135 2.3893
-7.3217 -2.6787 2.3893
-7.2230 -2.9405 2.3893
-7.1149 -3.1987 2.3893
-6.9975 -3.4529 2.3893
-6.8710 -3.7028 2.3893
-6.7355 -3.9480 2.3893
-6.5912 -4.1883 2.3893
-6.4384 -4.4232 2.3893
-6.2771 -4.6525 2.3893
-6.1076 -4.8759 2.3893
-5.9301 -5.0931 2.3893
-5.7449 -5.3038 2.3893
-5.5521 -5.5076 2.3893
-5.3521 -5.7045 2.3893
-5.1450 -5.8940 2.3893
-4.9312 -6.0759 2.3893
-4.7109 -6.2500 2.3893
-4.4845 -6.4161 2.3893
-4.2521 -6.5739 2.3893
-4.0142 -6.7232 2.3893
-3.7709 -6.8639 2.3893
-3.5228 -6.9957 2.3893
-3.2700 -7.1184 2.3893
-3.0128 -7.2319 2.3893
-2.7518 -7.3360 2.3893
-2.4871 -7.4306 2.3893
-2.2191 -7.5156 2.3893
-1.9482 -7.5909 2.3893
-1.6748 -7.6563 2.3893
-1.3992 -7.7118 2.3893
-1.1217 -7.7572 2.3893
-0.8427 -7.7926 2.3893
-0.5627 -7.8179 2.3893
-0.2819 -7.8330 2.3893
-0.0008 -7.8379 2.3893
0.2804 -7.8327 2.3893
0.5611 -7.8173 2.3893
0.8411 -7.7917 2.3893
1.1200 -7.7561 2.3893
1.3974 -7.7103 2.3893
1.6729 -7.6546 2.3893
1.9462 -7.5890 2.3893
2.2169 -7.5135 2.3893
2.4847 -7.4282 2.3893
2.6995 -7.2008 2.3461
2.8181 -6.7679 2.2369
3.0586 -6.6616 2.2369
3.2956 -6.5476 2.2373
3.5287 -6.4258 2.2379
3.7573 -6.2956 2.2384
3.9810 -6.1571 2.2390
4.1995 -6.0107 2.2396
4.4126 -5.8564 2.2401
4.6200 -5.6944 2.2407
4.8214 -5.5251 2.2412
5.0044 -5.3357 2.2363
5.1901 -5.1502 2.2358
5.3706 -4.9598 2.2359
5.5441 -4.7630 2.2361
5.4050 -4.3164 2.1167
5.4030 -4.0059 2.0588
6.0203 -4.1373 2.2366
6.1636 -3.9178 2.2368
6.2989 -3.6934 2.2369
6.4261 -3.4642 2.2371
6.5449 -3.2307 2.2373
5.3883 -2.4233 1.8116
6.7568 -2.7518 2.2377
6.8498 -2.5070 2.2379
6.9339 -2.2590 2.2381
7.0090 -2.0083 2.2384
7.0750 -1.7551 2.2386
7.1319 -1.4997 2.2388
5.3804 -0.9311 1.6779
7.2181 -0.9838 2.2393
7.2472 -0.7239 2.2395
7.2670 -0.4632 2.2398
7.2774 -0.2020 2.2401
7.2785 0.0594 2.2403
7.2702 0.3206 2.2406
7.2525 0.5812 2.2408
5.3722 0.6253 1.6663
7.1893 1.0997 2.2414
7.1438 1.3569 2.2416
5.3754 1.2224 1.6999
5.3743 1.4269 1.7152
6.9461 2.1140 2.2403
6.8624 2.3609 2.2399
5.3859 2.0720 1.7816
5.2916 2.2571 1.7767
6.5541 3.0783 2.2369
6.4375 3.3108 2.2369
6.3127 3.5388 2.2369
6.1800 3.7623 2.2369
6.0393 3.9808 2.2369
5.8910 4.1940 2.2369
5.7351 4.4018 2.2369
5.5720 4.6039 2.2369
5.4019 4.7999 2.2369
5.5808 5.3297 2.3893
5.3846 5.5255 2.3893
5.1816 5.7143 2.3893
4.9721 5.8955 2.3893
4.7563 6.0692 2.3893
4.5344 6.2350 2.3893
4.3068 6.3928 2.3893
4.0738 6.5424 2.3893
3.8356 6.6835 2.3893
3.5925 6.8161 2.3893
3.3449 6.9399 2.3893
3.0931 7.0548 2.3893
2.8374 7.1606 2.3893
2.5781 7.2572 2.3893
0.9253 2.9347 0.9547
0.8193 2.9664 0.9549
0.7123 2.9943 0.9550
0.6044 3.0182 0.9552
0.4956 3.0383 0.9553
0.3861 3.0544 0.9554
0.2762 3.0666 0.9555
0.1659 3.0747 0.9556
0.0553 3.0789 0.9556
-0.0553 3.0790 0.9557
-0.1659 3.0752 0.9557
-0.2763 3.0674 0.9557
-0.3863 3.0556 0.9556
-0.4958 3.0398 0.9556
-0.6047 3.0200 0.9555
-0.7128 2.9964 0.9554
-0.8200 2.9688 0.9553
-2.3164 7.3472 2.3893
-2.5792 7.2601 2.3893
-2.8387 7.1638 2.3893
-3.0946 7.0582 2.3893
-3.3467 6.9435 2.3893
-3.5945 6.8199 2.3893
-3.8378 6.6876 2.3893
-4.0763 6.5466 2.3893
-4.3096 6.3972 2.3893
-4.5376 6.2395 2.3893
-4.7597 6.0738 2.3893
-4.9759 5.9002 2.3893
-5.1858 5.7190 2.3893
-5.3891 5.5303 2.3893
-5.5856 5.3345 2.3893
-5.7750 5.1318 2.3893
-5.9571 4.9223 2.3893
-6.1316 4.7064 2.3893
-6.2984 4.4844 2.3893
-6.4571 4.2565 2.3893
-6.6077 4.0230 2.3893
-6.7498 3.7843 2.3893
-6.8834 3.5405 2.3893
-7.0081 3.2920 2.3893
-7.1240 3.0392 2.3893
-7.2307 2.7823 2.3893
-7.3282 2.5217 2.3893
-7.4163 2.2576 2.3893
-7.4949 1.9906 2.3893
-7.5639 1.7207 2.3893
-7.6233 1.4485 2.3893
-7.6728 1.1743 2.3893
-7.7125 0.8984 2.3893
-7.7422 0.6212 2.3893
-7.7620 0.3430 2.3893
-7.7719 0.0641 2.3893
-7.7716 -0.2149 2.3893
-7.7614 -0.4939 2.3893
-7.7411 -0.7724 2.3893
-7.7109 -1.0501 2.3893
-7.6706 -1.3265 2.3893
-7.6204 -1.6015 2.3893
-7.5604 -1.8745 2.3893
-7.4905 -2.1453 2.3893
-7.4109 -2.4134 2.3893
-7.3217 -2.6786 2.3893
-7.2230 -2.9405 2.3893
-7.1149 -3.1987 2.3893
-6.9975 -3.4529 2.3893
-6.8710 -3.7028 2.3893
-6.7355 -3.9480 2.3893
-6.5913 -4.1882 2.3893
-6.4384 -4.4232 2.3893
-6.2771 -4.6525 2.3893
-6.1076 -4.8759 2.3893
-5.9302 -5.0930 2.3893
-5.7449 -5.3037 2.3893
-5.5522 -5.5076 2.3893
-5.3521 -5.7044 2.3893
-5.1451 -5.8939 2.3893
-4.9313 -6.0759 2.3893
-4.7110 -6.2500 2.3893
-4.4845 -6.4160 2.3893
-4.2522 -6.5739 2.3893
-4.0142 -6.7232 2.3893
-3.7710 -6.8639 2.3893
-3.5228 -6.9956 2.3893
-3.2700 -7.1183 2.3893
-3.0129 -7.2318 2.3893
-2.7518 -7.3360 2.3893
-2.4871 -7.4306 2.3893
-2.2192 -7.5156 2.3893
-1.9483 -7.5909 2.3893
-1.6748 -7.6563 2.3893
-1.3992 -7.7117 2.3893
-1.1217 -7.7572 2.3893
-0.8428 -7.7926 2.3893
-0.5627 -7.8179 2.3893
-0.2820 -7.8330 2.3893
-0.0007 -7.2485 2.3893
0.2593 -7.2437 2.3893
0.5189 -7.2295 2.3893
0.7778 -7.2059 2.3893
1.0357 -7.1729 2.3893
1.2922 -7.1307 2.3893
1.5470 -7.0792 2.3893
1.7998 -7.0185 2.3893
2.0502 -6.9487 2.3893
2.2978 -6.8699 2.3893
2.5425 -6.7823 2.3893
2.7041 -6.4947 2.3210
2.8286 -6.1610 2.2369
3.0474 -6.0548 2.2369
3.2626 -5.9415 2.2372
3.4739 -5.8211 2.2378
3.6807 -5.6930 2.2383
3.8827 -5.5576 2.2388
4.0797 -5.4149 2.2393
4.2714 -5.2652 2.2398
4.4576 -5.1086 2.2403
4.6379 -4.9453 2.2408
4.8123 -4.7756 2.2412
4.9717 -4.5918 2.2378
5.1292 -4.4070 2.2366
5.2830 -4.2193 2.2367
5.4300 -4.0264 2.2369
5.5700 -3.8282 2.2370
5.7027 -3.6252 2.2372
5.8280 -3.4176 2.2374
5.9457 -3.2057 2.2376
6.0557 -2.9896 2.2377
5.3883 -2.4237 1.9582
6.2520 -2.5466 2.2381
5.3922 -1.9739 1.9043
6.4160 -2.0907 2.2385
6.4856 -1.8587 2.2387
6.5468 -1.6244 2.2389
6.5995 -1.3881 2.2391
5.3804 -0.9314 1.8135
6.6794 -0.9107 2.2396
6.7065 -0.6703 2.2398
6.7249 -0.4290 2.2400
6.7346 -0.1873 2.2403
6.7357 0.0546 2.2405
6.7281 0.2963 2.2407
6.7119 0.5375 2.2410
5.3722 0.6250 1.8006
6.6535 1.0174 2.2415
6.6113 1.2553 2.2416
6.5589 1.4912 2.2412
6.4981 1.7249 2.2409
5.3732 1.6350 1.8725
6.3517 2.1849 2.2401
5.3867 2.0720 1.9253
5.2917 2.2569 1.9196
6.0663 2.8489 2.2369
5.9585 3.0641 2.2369
5.8432 3.2752 2.2369
5.7203 3.4821 2.2369
5.5902 3.6844 2.2369
5.4530 3.8819 2.2369
5.3089 4.0743 2.2369
5.1580 4.2614 2.2369
5.0005 4.4430 2.2369
5.1662 4.9334 2.3893
4.9847 5.1148 2.3893
4.7969 5.2896 2.3893
4.6029 5.4574 2.3893
4.4032 5.6184 2.3893
4.1978 5.7719 2.3893
3.9872 5.9180 2.3893
3.7714 6.0566 2.3893
3.5510 6.1873 2.3893
3.3260 6.3101 2.3893
3.0968 6.4247 2.3893
2.8637 6.5311 2.3893
2.6269 6.6292 2.3893
2.3869 6.7187 2.3893
0.8557 2.7141 0.9537
0.7577 2.7434 0.9539
0.6588 2.7691 0.9540
0.5589 2.7912 0.9541
0.4583 2.8098 0.9542
0.3571 2.8246 0.9543
0.2554 2.8359 0.9544
0.1534 2.8434 0.9545
0.0511 2.8472 0.9545
-0.0512 2.8474 0.9546
-0.1535 2.8438 0.9546
-0.2556 2.8366 0.9546
-0.3573 2.8256 0.9545
-0.4586 2.8110 0.9545
-0.5593 2.7928 0.9544
-0.6593 2.7709 0.9544
-0.7584 2.7454 0.9543
-0.8565 2.7164 0.9542
-2.3880 6.7212 2.3893
-2.6282 6.6319 2.3893
-2.8651 6.5341 2.3893
-3.0984 6.4278 2.3893
-3.3278 6.3134 2.3893
-3.5531 6.1907 2.3893
-3.7738 6.0602 2.3893
-3.9897 5.9218 2.3893
-4.2007 5.7757 2.3893
-4.4063 5.6222 2.3893
-4.6063 5.4614 2.3893
-4.8005 5.2936 2.3893
-4.9887 5.1189 2.3893
-5.1705 4.9375 2.3893
-5.3457 4.7498 2.3893
-5.5142 4.5558 2.3893
-5.6756 4.3559 2.3893
-5.8299 4.1503 2.3893
-5.9767 3.9393 2.3893
-6.1159 3.7231 2.3893
-6.2474 3.5021 2.3893
-6.3708 3.2764 2.3893
-6.4862 3.0463 2.3893
-6.5933 2.8123 2.3893
-6.6919 2.5745 2.3893
-6.7820 2.3332 2.3893
-6.8634 2.0888 2.3893
-6.9360 1.8416 2.3893
-6.9997 1.5919 2.3893
-7.0544 1.3400 2.3893
-7.1001 1.0862 2.3893
-7.1367 0.8308 2.3893
-7.1641 0.5743 2.3893
-7.1822 0.3168 2.3893
-7.1912 0.0589 2.3893
-7.1908 -0.1994 2.3893
-7.1812 -0.4575 2.3893
-7.1623 -0.7151 2.3893
-7.1341 -0.9720 2.3893
-7.0967 -1.2278 2.3893
-7.0501 -1.4821 2.3893
-6.9944 -1.7347 2.3893
-6.9296 -1.9851 2.3893
-6.8559 -2.2332 2.3893
-6.7732 -2.4784 2.3893
-6.6817 -2.7206 2.3893
-6.5816 -2.9594 2.3893
-6.4729 -3.1945 2.3893
-6.3557 -3.4256 2.3893
-6.2303 -3.6524 2.3893
-6.0968 -3.8745 2.3893
-5.9553 -4.0917 2.3893
-5.8060 -4.3038 2.3893
-5.6491 -4.5103 2.3893
-5.4849 -4.7111 2.3893
-5.3135 -4.9058 2.3893
-5.1351 -5.0944 2.3893
-4.9500 -5.2763 2.3893
-4.7585 -5.4516 2.3893
-4.5607 -5.6197 2.3893
-4.3569 -5.7807 2.3893
-4.1474 -5.9342 2.3893
-3.9324 -6.0801 2.3893
-3.7124 -6.2181 2.3893
-3.4874 -6.3481 2.3893
-3.2578 -6.4699 2.3893
-3.0240 -6.5834 2.3893
-2.7862 -6.6883 2.3893
-2.5448 -6.7845 2.3893
-2.3000 -6.8720 2.3893
-2.0522 -6.9506 2.3893
-1.8017 -7.0201 2.3893
-1.5488 -7.0806 2.3893
-1.2939 -7.1319 2.3893
-1.0373 -7.1739 2.3893
-0.7793 -7.2066 2.3893
-0.5204 -7.2300 2.3893
-0.2607 -7.2439 2.3893
-0.0007 -7.2485 2.3893
0.2592 -7.2437 2.3893
0.5189 -7.2295 2.3893
0.7778 -7.2059 2.3893
1.0357 -7.1729 2.3893
1.2922 -7.1307 2.3893
1.5470 -7.0792 2.3893
1.7998 -7.0185 2.3893
2.0501 -6.9487 2.3893
2.2978 -6.8699 2.3893
2.5424 -6.7823 2.3893
2.7041 -6.4948 2.3210
2.8286 -6.1610 2.2369
3.0473 -6.0548 2.2369
3.2625 -5.9415 2.2372
3.4738 -5.8211 2.2378
3.6806 -5.6931 2.2383
3.8827 -5.5576 2.2388
4.0797 -5.4150 2.2393
4.2714 -5.2652 2.2398
4.4575 -5.1086 2.2403
4.6379 -4.9454 2.2408
4.8122 -4.7757 2.2412
4.9716 -4.5918 2.2378
5.1291 -4.4070 2.2366
5.2830 -4.2194 2.2367
5.4300 -4.0264 2.2369
5.5700 -3.8283 2.2370
5.7027 -3.6253 2.2372
5.8280 -3.4177 2.2374
5.9457 -3.2057 2.2376
6.0557 -2.9897 2.2377
5.3883 -2.4237 1.9582
6.2520 -2.5466 2.2381
5.3922 -1.9739 1.9043
6.4160 -2.0908 2.2385
6.4856 -1.8588 2.2387
6.5468 -1.6245 2.2389
6.5995 -1.3882 2.2391
5.3804 -0.9315 1.8135
6.6794 -0.9108 2.2396
6.7065 -0.6703 2.2398
6.7249 -0.4291 2.2400
6.7346 -0.1873 2.2403
6.7357 0.0545 2.2405
6.7281 0.2962 2.2407
6.7119 0.5375 2.2410
5.3722 0.6250 1.8006
6.6535 1.0174 2.2415
6.6113 1.2553 2.2416
6.5589 1.4912 2.2412
6.4981 1.7249 2.2409
5.3732 1.6350 1.8725
6.3517 2.1848 2.2401
5.3868 2.0720 1.9253
5.2917 2.2568 1.9196
6.0663 2.8488 2.2369
5.9585 3.0640 2.2369
5.8432 3.2752 2.2369
5.7204 3.4821 2.2369
5.5903 3.6844 2.2369
5.4531 3.8819 2.2369
5.3089 4.0743 2.2369
5.1580 4.2614 2.2369
5.0005 4.4429 2.2369
5.1663 4.9334 2.3893
4.9847 5.1148 2.3893
4.7969 5.2895 2.3893
4.6030 5.4574 2.3893
4.4032 5.6183 2.3893
4.1979 5.7719 2.3893
3.9872 5.9180 2.3893
3.7715 6.0565 2.3893
3.5510 6.1873 2.3893
3.3260 6.3101 2.3893
3.0968 6.4247 2.3893
2.8637 6.5311 2.3893
2.6270 6.6291 2.3893
2.3869 6.7187 2.3893
0.8557 2.7141 0.9537
0.7578 2.7434 0.9539
0.6588 2.7691 0.9540
0.5589 2.7912 0.9541
0.4583 2.8098 0.9542
0.3571 2.8246 0.9543
0.2554 2.8359 0.9544
0.1534 2.8434 0.9545
0.0511 2.8472 0.9545
-0.0512 2.8474 0.9546
-0.1535 2.8438 0.9546
-0.2555 2.8366 0.9546
-0.3573 2.8256 0.9545
-0.4586 2.8110 0.9545
-0.5593 2.7928 0.9544
-0.6593 2.7709 0.9544
-0.7584 2.7454 0.9543
-0.8565 2.7164 0.9542
-2.3879 6.7212 2.3893
-2.6281 6.6319 2.3893
-2.8651 6.5341 2.3893
-3.0984 6.4279 2.3893
-3.3278 6.3134 2.3893
-3.5530 6.1908 2.3893
-3.7737 6.0602 2.3893
-3.9897 5.9218 2.3893
-4.2006 5.7757 2.3893
-4.4062 5.6222 2.3893
-4.6063 5.4615 2.3893
-4.8005 5.2936 2.3893
-4.9886 5.1189 2.3893
-5.1704 4.9376 2.3893
-5.3457 4.7498 2.3893
-5.5141 4.5558 2.3893
-5.6756 4.3559 2.3893
-5.8299 4.1504 2.3893
-5.9767 3.9394 2.3893
-6.1159 3.7232 2.3893
-6.2474 3.5021 2.3893
-6.3708 3.2764 2.3893
-6.4862 3.0464 2.3893
-6.5932 2.8123 2.3893
-6.6919 2.5745 2.3893
-6.7820 2.3332 2.3893
-6.8634 2.0889 2.3893
-6.9360 1.8417 2.3893
-6.9997 1.5919 2.3893
-7.0544 1.3400 2.3893
-7.1001 1.0862 2.3893
-7.1367 0.8309 2.3893
-7.1641 0.5743 2.3893
-7.1822 0.3169 2.3893
-7.1912 0.0589 2.3893
-7.1908 -0.1993 2.3893
-7.1812 -0.4574 2.3893
-7.1623 -0.7151 2.3893
-7.1341 -0.9720 2.3893
-7.0967 -1.2277 2.3893
-7.0501 -1.4821 2.3893
-6.9944 -1.7346 2.3893
-6.9297 -1.9851 2.3893
-6.8559 -2.2331 2.3893
-6.7732 -2.4784 2.3893
-6.6818 -2.7206 2.3893
-6.5816 -2.9594 2.3893
-6.4729 -3.1945 2.3893
-6.3558 -3.4255 2.3893
-6.2303 -3.6523 2.3893
-6.0968 -3.8745 2.3893
-5.9553 -4.0917 2.3893
-5.8060 -4.3037 2.3893
-5.6492 -4.5103 2.3893
-5.4849 -4.7111 2.3893
-5.3135 -4.9061 2.3893
-5.1351 -5.0943 2.3893
-4.9501 -5.2763 2.3893
-4.7585 -5.4515 2.3893
-4.5607 -5.6197 2.3893
-4.3569 -5.7807 2.3893
-4.1474 -5.9342 2.3893
-3.9325 -6.0801 2.3893
-3.7124 -6.2181 2.3893
-3.4874 -6.3481 2.3893
-3.2579 -6.4699 2.3893
-3.0241 -6.5833 2.3893
-2.7863 -6.6883 2.3893
-2.5448 -6.7845 2.3893
-2.3000 -6.8720 2.3893
-2.0522 -6.9506 2.3893
-1.8017 -7.0201 2.3893
-1.5488 -7.0806 2.3893
-1.2939 -7.1319 2.3893
-1.0373 -7.1739 2.3893
-0.7794 -7.2066 2.3893
-0.5204 -7.2300 2.3893
-0.2608 -7.2439 2.3893
-0.0007 -6.7345 2.3893
0.2409 -6.7300 2.3893
0.4821 -6.7168 2.3893
0.7226 -6.6949 2.3893
0.9622 -6.6643 2.3893
1.2005 -6.6251 2.3893
1.4372 -6.5773 2.3893
1.6721 -6.5210 2.3893
1.9047 -6.4562 2.3893
2.1348 -6.3831 2.3893
2.3621 -6.3017 2.3893
2.5863 -6.2121 2.3893
2.7072 -5.8970 2.3043
2.8313 -5.6258 2.2369
3.0308 -5.5198 2.2369
3.2268 -5.4074 2.2372
3.4188 -5.2885 2.2377
3.6065 -5.1627 2.2382
3.7895 -5.0301 2.2386
3.9675 -4.8910 2.2391
4.1404 -4.7455 2.2395
4.3079 -4.5939 2.2400
4.4699 -4.4363 2.2404
4.6260 -4.2729 2.2408
4.7760 -4.1040 2.2412
4.9175 -3.9277 2.2405
5.0462 -3.7423 2.2370
5.1769 -3.5585 2.2374
5.3003 -3.3698 2.2376
5.4168 -3.1769 2.2377
5.5263 -2.9799 2.2379
5.6287 -2.7792 2.2381
5.3883 -2.4241 2.1071
5.8113 -2.3675 2.2384
5.8914 -2.1570 2.2386
5.9639 -1.9438 2.2388
6.0286 -1.7282 2.2390
6.0856 -1.5104 2.2392
6.1347 -1.2908 2.2394
5.3804 -0.9318 1.9511
6.2091 -0.8470 2.2398
6.2343 -0.6235 2.2400
6.2515 -0.3992 2.2402
6.2606 -0.1745 2.2404
6.2617 0.0503 2.2407
6.2547 0.2750 2.2409
6.2397 0.4993 2.2411
5.3722 0.6247 1.9369
6.1856 0.9454 2.2416
6.1462 1.1666 2.2417
6.0977 1.3860 2.2413
6.0413 1.6033 2.2409
5.9773 1.8184 2.2406
5.9035 2.0303 2.2394
5.3845 2.0708 2.0699
5.2918 2.2565 2.0647
5.6402 2.6484 2.2369
5.5401 2.8485 2.2369
5.4329 3.0449 2.2369
5.3188 3.2373 2.2369
5.1979 3.4255 2.2369
5.0704 3.6092 2.2369
4.9365 3.7881 2.2369
4.7962 3.9621 2.2369
4.6499 4.1310 2.2369
4.4976 4.2946 2.2369
4.6353 4.7559 2.3893
4.4606 4.9184 2.3893
4.2804 5.0745 2.3893
4.0946 5.2242 2.3893
3.9037 5.3671 2.3893
3.7078 5.5031 2.3893
3.5073 5.6320 2.3893
3.3023 5.7536 2.3893
3.0931 5.8678 2.3893
2.8799 5.9745 2.3893
2.6632 6.0735 2.3893
2.4430 6.1647 2.3893
0.8851 2.4912 0.9526
0.7951 2.5216 0.9528
0.7040 2.5488 0.9530
0.6121 2.5727 0.9531
0.5193 2.5932 0.9532
0.4258 2.6104 0.9533
0.3318 2.6242 0.9534
0.2373 2.6346 0.9535
0.1425 2.6416 0.9535
0.0475 2.6452 0.9536
-0.0476 2.6453 0.9536
-0.1426 2.6420 0.9536
-0.2374 2.6353 0.9536
-0.3320 2.6251 0.9536
-0.4261 2.6115 0.9536
-0.5196 2.5946 0.9535
-0.6125 2.5742 0.9534
-0.7046 2.5506 0.9534
-0.7958 2.5236 0.9533
-0.8859 2.4933 0.9531
-2.4442 6.1670 2.3893
-2.6645 6.0760 2.3893
-2.8814 5.9772 2.3893
-3.0947 5.8707 2.3893
-3.3041 5.7566 2.3893
-3.5094 5.6351 2.3893
-3.7102 5.5063 2.3893
-3.9063 5.3704 2.3893
-4.0974 5.2276 2.3893
-4.2834 5.0781 2.3893
-4.4639 4.9219 2.3893
-4.6388 4.7594 2.3893
-4.8077 4.5907 2.3893
-4.9704 4.4160 2.3893
-5.1272 4.2356 2.3893
-5.2772 4.0497 2.3893
-5.4206 3.8585 2.3893
-5.5570 3.6622 2.3893
-5.6864 3.4612 2.3893
-5.8084 3.2556 2.3893
-5.9232 3.0457 2.3893
-6.0303 2.8318 2.3893
-6.1297 2.6141 2.3893
-6.2213 2.3930 2.3893
-6.3049 2.1687 2.3893
-6.3805 1.9414 2.3893
-6.4478 1.7116 2.3893
-6.5070 1.4794 2.3893
-6.5577 1.2452 2.3893
-6.6001 1.0092 2.3893
-6.6339 0.7719 2.3893
-6.6593 0.5334 2.3893
-6.6760 0.2941 2.3893
-6.6842 0.0543 2.3893
-6.6837 -0.1857 2.3893
-6.6746 -0.4256 2.3893
-6.6569 -0.6651 2.3893
-6.6306 -0.9038 2.3893
-6.5958 -1.1415 2.3893
-6.5524 -1.3779 2.3893
-6.5005 -1.6126 2.3893
-6.4401 -1.8453 2.3893
-6.3715 -2.0758 2.3893
-6.2945 -2.3037 2.3893
-6.2094 -2.5287 2.3893
-6.1163 -2.7506 2.3893
-6.0151 -2.9690 2.3893
-5.9062 -3.1837 2.3893
-5.7895 -3.3944 2.3893
-5.6653 -3.6007 2.3893
-5.5338 -3.8025 2.3893
-5.3950 -3.9995 2.3893
-5.2491 -4.1914 2.3893
-5.0965 -4.3779 2.3893
-4.9371 -4.5588 2.3893
-4.7713 -4.7339 2.3893
-4.5993 -4.9029 2.3893
-4.4213 -5.0656 2.3893
-4.2374 -5.2218 2.3893
-4.0480 -5.3713 2.3893
-3.8534 -5.5139 2.3893
-3.6536 -5.6494 2.3893
-3.4491 -5.7776 2.3893
-3.2401 -5.8983 2.3893
-3.0268 -6.0114 2.3893
-2.8095 -6.1168 2.3893
-2.5886 -6.2142 2.3893
-2.3643 -6.3036 2.3893
-2.1368 -6.3848 2.3893
-1.9066 -6.4578 2.3893
-1.6738 -6.5224 2.3893
-1.4389 -6.5785 2.3893
-1.2021 -6.6261 2.3893
-0.9637 -6.6652 2.3893
-0.7241 -6.6956 2.3893
-0.4835 -6.7173 2.3893
-0.2422 -6.7303 2.3893
-0.0007 -6.7345 2.3893
0.2408 -6.7300 2.3893
0.4820 -6.7168 2.3893
0.7226 -6.6949 2.3893
0.9622 -6.6643 2.3893
1.2005 -6.6251 2.3893
1.4372 -6.5773 2.3893
1.6720 -6.5210 2.3893
1.9047 -6.4562 2.3893
2.1348 -6.3831 2.3893
2.3621 -6.3017 2.3893
2.5863 -6.2121 2.3893
2.7072 -5.8971 2.3043
2.8312 -5.6258 2.2369
3.0308 -5.5199 2.2369
3.2267 -5.4075 2.2372
3.4188 -5.2885 2.2377
3.6065 -5.1627 2.2382
3.7894 -5.0301 2.2386
3.9675 -4.8910 2.2391
4.1404 -4.7456 2.2395
4.3079 -4.5939 2.2400
4.4698 -4.4363 2.2404
4.6259 -4.2729 2.2408
4.7760 -4.1040 2.2412
4.9174 -3.9278 2.2405
5.0462 -3.7423 2.2370
5.1769 -3.5585 2.2374
5.3003 -3.3699 2.2376
5.4168 -3.1769 2.2377
5.5263 -2.9800 2.2379
5.6286 -2.7793 2.2381
5.3883 -2.4241 2.1071
5.8113 -2.3675 2.2384
5.8914 -2.1570 2.2386
5.9638 -1.9438 2.2388
6.0286 -1.7282 2.2390
6.0856 -1.5104 2.2392
6.1347 -1.2908 2.2394
5.3804 -0.9318 1.9511
6.2091 -0.8470 2.2398
6.2343 -0.6235 2.2400
6.2515 -0.3992 2.2402
6.2606 -0.1746 2.2404
6.2617 0.0503 2.2407
6.2547 0.2750 2.2409
6.2397 0.4993 2.2411
5.3722 0.6247 1.9369
6.1856 0.9454 2.2416
6.1462 1.1666 2.2417
6.0977 1.3859 2.2413
6.0414 1.6033 2.2409
5.9773 1.8184 2.2406
5.9035 2.0302 2.2394
5.3844 2.0708 2.0699
5.2918 2.2565 2.0647
5.6403 2.6484 2.2369
5.5401 2.8485 2.2369
5.4330 3.0449 2.2369
5.3188 3.2373 2.2369
5.1980 3.4254 2.2369
5.0704 3.6091 2.2369
4.9365 3.7881 2.2369
4.7962 3.9621 2.2369
4.6499 4.1310 2.2369
4.4976 4.2945 2.2369
4.6353 4.7558 2.3893
4.4607 4.9184 2.3893
4.2804 5.0745 2.3893
4.0947 5.2242 2.3893
3.9037 5.3671 2.3893
3.7079 5.5031 2.3893
3.5073 5.6319 2.3893
3.3023 5.7536 2.3893
3.0931 5.8678 2.3893
2.8800 5.9745 2.3893
2.6632 6.0735 2.3893
2.4431 6.1647 2.3893
0.8851 2.4911 0.9526
0.7951 2.5216 0.9528
0.7040 2.5488 0.9530
0.6121 2.5727 0.9531
0.5193 2.5932 0.9532
0.4258 2.6104 0.9533
0.3318 2.6242 0.9534
0.2373 2.6346 0.9535
0.1425 2.6416 0.9535
0.0475 2.6452 0.9536
-0.0476 2.6453 0.9536
-0.1426 2.6420 0.9536
-0.2374 2.6353 0.9536
-0.3320 2.6251 0.9536
-0.4261 2.6115 0.9536
-0.5196 2.5946 0.9535
-0.6125 2.5742 0.9534
-0.7046 2.5506 0.9534
-0.7958 2.5236 0.9533
-0.8859 2.4933 0.9531
-2.4441 6.1670 2.3893
-2.6645 6.0760 2.3893
-2.8814 5.9772 2.3893
-3.0947 5.8707 2.3893
-3.3041 5.7566 2.3893
-3.5093 5.6351 2.3893
-3.7101 5.5063 2.3893
-3.9062 5.3705 2.3893
-4.0974 5.2277 2.3893
-4.2833 5.0781 2.3893
-4.4639 4.9219 2.3893
-4.6387 4.7594 2.3893
-4.8077 4.5907 2.3893
-4.9688 4.4161 2.3893
-5.1272 4.2357 2.3893
-5.2772 4.0497 2.3893
-5.4206 3.8585 2.3893
-5.5570 3.6623 2.3893
-5.6863 3.4612 2.3893
-5.8084 3.2556 2.3893
-5.9231 3.0457 2.3893
-6.0303 2.8318 2.3893
-6.1297 2.6142 2.3893
-6.2213 2.3930 2.3893
-6.3049 2.1687 2.3893
-6.3805 1.9415 2.3893
-6.4479 1.7116 2.3893
-6.5070 1.4794 2.3893
-6.5577 1.2452 2.3893
-6.6001 1.0093 2.3893
-6.6339 0.7719 2.3893
-6.6593 0.5334 2.3893
-6.6760 0.2941 2.3893
-6.6842 0.0543 2.3893
-6.6837 -0.1857 2.3893
-6.6746 -0.4256 2.3893
-6.6569 -0.6650 2.3893
-6.6306 -0.9038 2.3893
-6.5958 -1.1415 2.3893
-6.5524 -1.3778 2.3893
-6.5005 -1.6125 2.3893
-6.4402 -1.8453 2.3893
-6.3715 -2.0757 2.3893
-6.2946 -2.3036 2.3893
-6.2095 -2.5287 2.3893
-6.1163 -2.7505 2.3893
-6.0152 -2.9690 2.3893
-5.9062 -3.1837 2.3893
-5.7896 -3.3943 2.3893
-5.6654 -3.6007 2.3893
-5.5338 -3.8025 2.3893
-5.3950 -3.9995 2.3893
-5.2492 -4.1913 2.3893
-5.0965 -4.3778 2.3893
-4.9372 -4.5588 2.3893
-4.7714 -4.7339 2.3893
-4.5993 -4.9029 2.3893
-4.4213 -5.0656 2.3893
-4.2375 -5.2218 2.3893
-4.0481 -5.3713 2.3893
-3.8534 -5.5139 2.3893
-3.6537 -5.6494 2.3893
-3.4492 -5.7776 2.3893
-3.2401 -5.8983 2.3893
-3.0268 -6.0114 2.3893
-2.8096 -6.1167 2.3893
-2.5886 -6.2142 2.3893
-2.3643 -6.3036 2.3893
-2.1368 -6.3848 2.3893
-1.9066 -6.4578 2.3893
-1.6739 -6.5224 2.3893
-1.4389 -6.5785 2.3893
-1.2021 -6.6261 2.3893
-0.9637 -6.6652 2.3893
-0.7241 -6.6956 2.3893
-0.4835 -6.7173 2.3893
-0.2423 -6.7302 2.3893
-0.0007 -6.2819 2.3893
0.2246 -6.2777 2.3893
0.4496 -6.2654 2.3893
0.6740 -6.2450 2.3893
0.8975 -6.2165 2.3893
1.1197 -6.1799 2.3893
1.3406 -6.1353 2.3893
1.5596 -6.0828 2.3893
1.7766 -6.0224 2.3893
1.9912 -5.9543 2.3893
2.2033 -5.8784 2.3893
2.4124 -5.7949 2.3893
2.6184 -5.7039 2.3893
2.7090 -5.3833 2.2945
2.8271 -5.1492 2.2369
3.0095 -5.0438 2.2369
3.1883 -4.9324 2.2371
3.3633 -4.8150 2.2376
3.5339 -4.6914 2.2380
3.7000 -4.5616 2.2385
3.8612 -4.4260 2.2389
4.0175 -4.2845 2.2393
4.1685 -4.1375 2.2397
4.3140 -3.9852 2.2400
4.4540 -3.8277 2.2404
4.5882 -3.6652 2.2408
4.7164 -3.4979 2.2411
4.8384 -3.3262 2.2414
4.9479 -3.1461 2.2389
5.0544 -2.9647 2.2380
5.1566 -2.7810 2.2382
5.2522 -2.5937 2.2384
5.3409 -2.4032 2.2385
5.4228 -2.2096 2.2387
5.4976 -2.0132 2.2389
5.5653 -1.8143 2.2391
5.6258 -1.6131 2.2392
5.3893 -1.3380 2.1252
5.3882 -1.1340 2.1079
5.3804 -0.9321 2.0910
5.7945 -0.7908 2.2400
5.8180 -0.5822 2.2402
5.8341 -0.3729 2.2404
5.8427 -0.1632 2.2406
5.8438 0.0466 2.2408
5.8373 0.2563 2.2410
5.8233 0.4656 2.2412
5.3722 0.6243 2.0754
5.7730 0.8820 2.2417
5.3769 1.0203 2.1013
5.3758 1.2215 2.1172
5.6386 1.4961 2.2410
5.5772 1.6963 2.2399
5.5093 1.8943 2.2391
5.3886 2.0721 2.2194
5.2919 2.2562 2.2121
5.2645 2.4716 2.2369
5.1711 2.6584 2.2369
5.0711 2.8418 2.2369
4.9647 3.0214 2.2369
4.8519 3.1971 2.2369
4.7330 3.3686 2.2369
4.6080 3.5357 2.2369
4.4771 3.6982 2.2369
4.3405 3.8559 2.2369
4.1984 4.0086 2.2369
4.3270 4.4392 2.3893
4.1640 4.5910 2.3893
3.9958 4.7368 2.3893
3.8224 4.8766 2.3893
3.6442 5.0100 2.3893
3.4614 5.1370 2.3893
3.2742 5.2573 2.3893
3.0828 5.3709 2.3893
2.8875 5.4776 2.3893
2.6886 5.5772 2.3893
2.4862 5.6697 2.3893
0.9085 2.2923 0.9517
0.8256 2.3237 0.9519
0.7417 2.3521 0.9520
0.6567 2.3774 0.9522
0.5709 2.3997 0.9523
0.4844 2.4188 0.9524
0.3972 2.4349 0.9525
0.3095 2.4477 0.9526
0.2213 2.4574 0.9527
0.1329 2.4639 0.9527
0.0443 2.4672 0.9528
-0.0444 2.4673 0.9528
-0.1330 2.4642 0.9528
-0.2215 2.4580 0.9528
-0.3097 2.4485 0.9528
-0.3975 2.4358 0.9527
-0.4847 2.4200 0.9527
-0.5714 2.4010 0.9526
-0.6573 2.3790 0.9525
-0.7423 2.3538 0.9524
-0.8264 2.3256 0.9523
-0.9094 2.2943 0.9522
-2.4875 5.6719 2.3893
-2.6900 5.5796 2.3893
-2.8891 5.4801 2.3893
-3.0846 5.3735 2.3893
-3.2761 5.2601 2.3893
-3.4635 5.1398 2.3893
-3.6465 5.0129 2.3893
-3.8249 4.8796 2.3893
-3.9985 4.7399 2.3893
-4.1669 4.5941 2.3893
-4.3302 4.4423 2.3893
-4.4878 4.2848 2.3893
-4.6398 4.1217 2.3893
-4.7859 3.9532 2.3893
-4.9259 3.7796 2.3893
-5.0596 3.6011 2.3893
-5.1868 3.4179 2.3893
-5.3075 3.2302 2.3893
-5.4214 3.0382 2.3893
-5.5283 2.8423 2.3893
-5.6283 2.6426 2.3893
-5.7210 2.4394 2.3893
-5.8064 2.2330 2.3893
-5.8843 2.0236 2.3893
-5.9547 1.8115 2.3893
-6.0175 1.5969 2.3893
-6.0726 1.3802 2.3893
-6.1199 1.1616 2.3893
-6.1593 0.9414 2.3893
-6.1908 0.7199 2.3893
-6.2143 0.4974 2.3893
-6.2298 0.2740 2.3893
-6.2373 0.0503 2.3893
-6.2368 -0.1737 2.3893
-6.2282 -0.3975 2.3893
-6.2116 -0.6210 2.3893
-6.1870 -0.8437 2.3893
-6.1543 -1.0655 2.3893
-6.1137 -1.2860 2.3893
-6.0652 -1.5050 2.3893
-6.0088 -1.7221 2.3893
-5.9447 -1.9371 2.3893
-5.8728 -2.1497 2.3893
-5.7933 -2.3596 2.3893
-5.7063 -2.5666 2.3893
-5.6118 -2.7703 2.3893
-5.5101 -2.9706 2.3893
-5.4012 -3.1671 2.3893
-5.2853 -3.3596 2.3893
-5.1625 -3.5478 2.3893
-5.0329 -3.7315 2.3893
-4.8968 -3.9104 2.3893
-4.7543 -4.0844 2.3893
-4.6056 -4.2531 2.3893
-4.4509 -4.4164 2.3893
-4.2904 -4.5740 2.3893
-4.1243 -4.7257 2.3893
-3.9527 -4.8714 2.3893
-3.7760 -5.0108 2.3893
-3.5944 -5.1437 2.3893
-3.4081 -5.2701 2.3893
-3.2173 -5.3896 2.3893
-3.0223 -5.5022 2.3893
-2.8233 -5.6076 2.3893
-2.6206 -5.7059 2.3893
-2.4145 -5.7967 2.3893
-2.2053 -5.8801 2.3893
-1.9931 -5.9558 2.3893
-1.7784 -6.0238 2.3893
-1.5613 -6.0841 2.3893
-1.3421 -6.1364 2.3893
-1.1213 -6.1808 2.3893
-0.8989 -6.2172 2.3893
-0.6754 -6.2455 2.3893
-0.4510 -6.2658 2.3893
-0.2260 -6.2779 2.3893
-0.0007 -6.2819 2.3893
0.2246 -6.2777 2.3893
0.4496 -6.2654 2.3893
0.6739 -6.2450 2.3893
0.8974 -6.2165 2.3893
1.1197 -6.1799 2.3893
1.3405 -6.1354 2.3893
1.5596 -6.0828 2.3893
1.7766 -6.0225 2.3893
1.9912 -5.9543 2.3893
2.2032 -5.8784 2.3893
2.4124 -5.7949 2.3893
2.6183 -5.7040 2.3893
2.7090 -5.3834 2.2945
2.8270 -5.1492 2.2369
3.0095 -5.0438 2.2369
3.1883 -4.9324 2.2371
3.3633 -4.8150 2.2376
3.5339 -4.6914 2.2380
3.7000 -4.5616 2.2385
3.8612 -4.4260 2.2389
4.0174 -4.2846 2.2393
4.1684 -4.1376 2.2397
4.3140 -3.9852 2.2400
4.4540 -3.8277 2.2404
4.5881 -3.6652 2.2408
4.7163 -3.4980 2.2411
4.8384 -3.3262 2.2414
4.9479 -3.1462 2.2389
5.0544 -2.9648 2.2380
5.1566 -2.7810 2.2382
5.2522 -2.5937 2.2384
5.3409 -2.4032 2.2385
5.4228 -2.2096 2.2387
5.4976 -2.0132 2.2389
5.5653 -1.8143 2.2391
5.6258 -1.6131 2.2392
5.3893 -1.3380 2.1252
5.3882 -1.1341 2.1079
5.3804 -0.9322 2.0910
5.7944 -0.7909 2.2400
5.8180 -0.5823 2.2402
5.8341 -0.3730 2.2404
5.8427 -0.1633 2.2406
5.8438 0.0466 2.2408
5.8373 0.2563 2.2410
5.8234 0.4656 2.2412
5.3722 0.6243 2.0754
5.7730 0.8820 2.2417
5.3769 1.0202 2.1013
5.3758 1.2215 2.1172
5.6386 1.4960 2.2410
5.5772 1.6963 2.2399
5.5093 1.8943 2.2391
5.3887 2.0721 2.2195
5.2919 2.2562 2.2121
5.2645 2.4716 2.2369
5.1711 2.6584 2.2369
5.0712 2.8418 2.2369
4.9647 3.0214 2.2369
4.8519 3.1971 2.2369
4.7330 3.3685 2.2369
4.6080 3.5356 2.2369
4.4771 3.6981 2.2369
4.3406 3.8558 2.2369
4.1985 4.0085 2.2369
4.3270 4.4392 2.3893
4.1641 4.5910 2.3893
3.9958 4.7368 2.3893
3.8225 4.8766 2.3893
3.6443 5.0100 2.3893
3.4615 5.1370 2.3893
3.2742 5.2573 2.3893
3.0829 5.3709 2.3893
2.8876 5.4776 2.3893
2.6886 5.5772 2.3893
2.4863 5.6697 2.3893
0.9085 2.2923 0.9517
0.8256 2.3237 0.9519
0.7417 2.3521 0.9520
0.6567 2.3774 0.9522
0.5709 2.3997 0.9523
0.4844 2.4188 0.9524
0.3972 2.4349 0.9525
0.3095 2.4477 0.9526
0.2213 2.4574 0.9527
0.1329 2.4639 0.9527
0.0443 2.4672 0.9528
-0.0444 2.4673 0.9528
-0.1330 2.4642 0.9528
-0.2215 2.4580 0.9528
-0.3097 2.4485 0.9528
-0.3974 2.4358 0.9527
-0.4847 2.4200 0.9527
-0.5713 2.4010 0.9526
-0.6572 2.3790 0.9525
-0.7423 2.3538 0.9524
-0.8264 2.3256 0.9523
-0.9094 2.2943 0.9522
-2.4874 5.6719 2.3893
-2.6899 5.5796 2.3893
-2.8891 5.4801 2.3893
-3.0845 5.3736 2.3893
-3.2761 5.2601 2.3893
-3.4635 5.1398 2.3893
-3.6465 5.0130 2.3893
-3.8249 4.8796 2.3893
-3.9984 4.7399 2.3893
-4.1669 4.5941 2.3893
-4.3299 4.4423 2.3893
-4.4878 4.2848 2.3893
-4.6398 4.1217 2.3893
-4.7859 3.9533 2.3893
-4.9258 3.7797 2.3893
-5.0596 3.6011 2.3893
-5.1868 3.4179 2.3893
-5.3075 3.2302 2.3893
-5.4214 3.0382 2.3893
-5.5283 2.8423 2.3893
-5.6283 2.6426 2.3893
-5.7209 2.4394 2.3893
-5.8063 2.2330 2.3893
-5.8843 2.0236 2.3893
-5.9547 1.8115 2.3893
-6.0175 1.5970 2.3893
-6.0726 1.3803 2.3893
-6.1199 1.1617 2.3893
-6.1593 0.9415 2.3893
-6.1908 0.7200 2.3893
-6.2143 0.4974 2.3893
-6.2298 0.2741 2.3893
-6.2373 0.0503 2.3893
-6.2368 -0.1737 2.3893
-6.2282 -0.3975 2.3893
-6.2116 -0.6209 2.3893
-6.1870 -0.8437 2.3893
-6.1543 -1.0655 2.3893
-6.1137 -1.2860 2.3893
-6.0652 -1.5050 2.3893
-6.0088 -1.7221 2.3893
-5.9447 -1.9371 2.3893
-5.8728 -2.1497 2.3893
-5.7933 -2.3596 2.3893
-5.7063 -2.5666 2.3893
-5.6119 -2.7703 2.3893
-5.5101 -2.9705 2.3893
-5.4012 -3.1670 2.3893
-5.2853 -3.3595 2.3893
-5.1625 -3.5477 2.3893
-5.0329 -3.7314 2.3893
-4.8968 -3.9104 2.3893
-4.7543 -4.0843 2.3893
-4.6056 -4.2530 2.3893
-4.4509 -4.4163 2.3893
-4.2904 -4.5739 2.3893
-4.1243 -4.7257 2.3893
-3.9528 -4.8714 2.3893
-3.7761 -5.0108 2.3893
-3.5944 -5.1437 2.3893
-3.4081 -5.2700 2.3893
-3.2173 -5.3896 2.3893
-3.0223 -5.5021 2.3893
-2.8233 -5.6076 2.3893
-2.6207 -5.7058 2.3893
-2.4146 -5.7967 2.3893
-2.2053 -5.8800 2.3893
-1.9932 -5.9558 2.3893
-1.7784 -6.0238 2.3893
-1.5613 -6.0841 2.3893
-1.3422 -6.1364 2.3893
-1.1213 -6.1808 2.3893
-0.8989 -6.2172 2.3893
-0.6754 -6.2455 2.3893
-0.4510 -6.2658 2.3893
-0.2260 -6.2779 2.3893
-0.0006 -5.8799 2.3893
0.2102 -5.8760 2.3893
0.4208 -5.8645 2.3893
0.6308 -5.8454 2.3893
0.8399 -5.8187 2.3893
1.0480 -5.7845 2.3893
1.2547 -5.7428 2.3893
1.4597 -5.6937 2.3893
1.6628 -5.6372 2.3893
1.8637 -5.5734 2.3893
2.0622 -5.5024 2.3893
2.2579 -5.4243 2.3893
2.4507 -5.3392 2.3893
2.6403 -5.2472 2.3893
2.7097 -4.9359 2.2906
2.8169 -4.7214 2.2369
2.9840 -4.6166 2.2369
3.1474 -4.5063 2.2371
3.3071 -4.3906 2.2375
3.4625 -4.2692 2.2379
3.6133 -4.1422 2.2383
3.7595 -4.0098 2.2387
3.9008 -3.8723 2.2390
4.0371 -3.7297 2.2394
4.1681 -3.5823 2.2397
4.2936 -3.4303 2.2400
4.4136 -3.2738 2.2404
4.5278 -3.1131 2.2407
4.6362 -2.9483 2.2409
4.7384 -2.7798 2.2412
4.8346 -2.6077 2.2415
4.9209 -2.4306 2.2401
5.0005 -2.2503 2.2387
5.0774 -2.0692 2.2389
5.1475 -1.8853 2.2391
5.2109 -1.6991 2.2393
5.2676 -1.5107 2.2394
5.3175 -1.3205 2.2396
5.3606 -1.1286 2.2398
5.3804 -0.9325 2.2332
5.4258 -0.7409 2.2402
5.4479 -0.5455 2.2404
5.4631 -0.3496 2.2405
5.4712 -0.1532 2.2407
5.4722 0.0433 2.2409
5.4662 0.2397 2.2411
5.4532 0.4357 2.2413
5.3722 0.6240 2.2164
5.4061 0.8256 2.2417
5.3715 1.0189 2.2417
5.3294 1.2106 2.2414
5.2792 1.4004 2.2405
5.2216 1.5878 2.2394
5.1552 1.7723 2.2373
5.0860 1.9554 2.2369
5.0114 2.1363 2.2369
4.9303 2.3143 2.2369
4.8429 2.4894 2.2369
4.7493 2.6611 2.2369
4.6497 2.8294 2.2369
4.5441 2.9939 2.2369
4.4328 3.1546 2.2369
4.3158 3.3111 2.2369
4.1932 3.4634 2.2369
4.0654 3.6111 2.2369
3.9323 3.7542 2.2369
4.0528 4.1575 2.3893
3.9002 4.2997 2.3893
3.7426 4.4364 2.3893
3.5803 4.5673 2.3893
3.4134 4.6923 2.3893
3.2422 4.8113 2.3893
3.0668 4.9241 2.3893
2.8876 5.0305 2.3893
2.7047 5.1304 2.3893
2.5184 5.2238 2.3893
2.3288 5.3104 2.3893
0.8504 2.1455 0.9510
0.7728 2.1749 0.9512
0.6942 2.2015 0.9513
0.6147 2.2252 0.9515
0.5344 2.2460 0.9516
0.4534 2.2639 0.9517
0.3718 2.2789 0.9518
0.2896 2.2909 0.9519
0.2072 2.3000 0.9519
0.1244 2.3061 0.9520
0.0414 2.3092 0.9520
-0.0416 2.3093 0.9520
-0.1245 2.3064 0.9520
-0.2073 2.3005 0.9520
-0.2899 2.2916 0.9520
-0.3720 2.2797 0.9520
-0.4537 2.2649 0.9519
-0.5348 2.2472 0.9519
-0.6152 2.2265 0.9518
-0.6948 2.2030 0.9517
-0.7735 2.1766 0.9516
-0.8512 2.1473 0.9515
-2.3300 5.3124 2.3893
-2.5197 5.2259 2.3893
-2.7061 5.1326 2.3893
-2.8892 5.0328 2.3893
-3.0686 4.9265 2.3893
-3.2441 4.8138 2.3893
-3.4155 4.6949 2.3893
-3.5825 4.5699 2.3893
-3.7451 4.4391 2.3893
-3.9028 4.3025 2.3893
-4.0556 4.1603 2.3893
-4.2032 4.0127 2.3893
-4.3455 3.8599 2.3893
-4.4823 3.7021 2.3893
-4.6133 3.5394 2.3893
-4.7385 3.3722 2.3893
-4.8576 3.2006 2.3893
-4.9706 3.0247 2.3893
-5.0772 2.8449 2.3893
-5.1773 2.6614 2.3893
-5.2708 2.4743 2.3893
-5.3575 2.2840 2.3893
-5.4374 2.0907 2.3893
-5.5103 1.8946 2.3893
-5.5762 1.6959 2.3893
-5.6349 1.4950 2.3893
-5.6864 1.2921 2.3893
-5.7305 1.0874 2.3893
-5.7674 0.8811 2.3893
-5.7968 0.6737 2.3893
-5.8187 0.4653 2.3893
-5.8332 0.2562 2.3893
-5.8401 0.0467 2.3893
-5.8395 -0.1630 2.3893
-5.8314 -0.3726 2.3893
-5.8158 -0.5818 2.3893
-5.7926 -0.7903 2.3893
-5.7619 -0.9980 2.3893
-5.7238 -1.2044 2.3893
-5.6783 -1.4094 2.3893
-5.6255 -1.6126 2.3893
-5.5653 -1.8139 2.3893
-5.4980 -2.0129 2.3893
-5.4235 -2.2094 2.3893
-5.3419 -2.4031 2.3893
-5.2535 -2.5938 2.3893
-5.1582 -2.7812 2.3893
-5.0562 -2.9652 2.3893
-4.9476 -3.1453 2.3893
-4.8326 -3.3214 2.3893
-4.7112 -3.4933 2.3893
-4.5838 -3.6608 2.3893
-4.4503 -3.8236 2.3893
-4.3111 -3.9815 2.3893
-4.1663 -4.1343 2.3893
-4.0160 -4.2817 2.3893
-3.8604 -4.4237 2.3893
-3.6998 -4.5601 2.3893
-3.5344 -4.6905 2.3893
-3.3644 -4.8149 2.3893
-3.1899 -4.9332 2.3893
-3.0113 -5.0449 2.3893
-2.8288 -5.1503 2.3893
-2.6425 -5.2490 2.3893
-2.4528 -5.3409 2.3893
-2.2599 -5.4259 2.3893
-2.0641 -5.5039 2.3893
-1.8655 -5.5747 2.3893
-1.6645 -5.6384 2.3893
-1.4613 -5.6947 2.3893
-1.2562 -5.7437 2.3893
-1.0495 -5.7853 2.3893
-0.8413 -5.8193 2.3893
-0.6321 -5.8458 2.3893
-0.4221 -5.8648 2.3893
-0.2115 -5.8761 2.3893
-0.0007 -5.8799 2.3893
0.2102 -5.8760 2.3893
0.4207 -5.8645 2.3893
0.6307 -5.8454 2.3893
0.8399 -5.8187 2.3893
1.0480 -5.7845 2.3893
1.2546 -5.7428 2.3893
1.4597 -5.6937 2.3893
1.6628 -5.6372 2.3893
1.8637 -5.5734 2.3893
2.0621 -5.5024 2.3893
2.2579 -5.4243 2.3893
2.4507 -5.3392 2.3893
2.6403 -5.2472 2.3893
2.7097 -4.9359 2.2906
2.8169 -4.7214 2.2369
2.9840 -4.6167 2.2369
3.1474 -4.5063 2.2371
3.3070 -4.3906 2.2375
3.4624 -4.2692 2.2379
3.6133 -4.1422 2.2383
3.7595 -4.0099 2.2387
3.9008 -3.8723 2.2390
4.0371 -3.7298 2.2394
4.1680 -3.5823 2.2397
4.2936 -3.4303 2.2400
4.4136 -3.2738 2.2404
4.5278 -3.1131 2.2407
4.6361 -2.9484 2.2409
4.7384 -2.7798 2.2412
4.8345 -2.6077 2.2415
4.9209 -2.4305 2.2401
5.0005 -2.2503 2.2387
5.0773 -2.0692 2.2389
5.1474 -1.8854 2.2391
5.2109 -1.6991 2.2393
5.2676 -1.5108 2.2394
5.3175 -1.3205 2.2396
5.3606 -1.1286 2.2398
5.3804 -0.9325 2.2332
5.4258 -0.7409 2.2402
5.4479 -0.5456 2.2404
5.4631 -0.3496 2.2405
5.4712 -0.1533 2.2407
5.4722 0.0433 2.2409
5.4662 0.2396 2.2411
5.4532 0.4356 2.2413
5.3722 0.6240 2.2164
5.4061 0.8256 2.2417
5.3715 1.0189 2.2417
5.3294 1.2106 2.2414
5.2792 1.4003 2.2405
5.2216 1.5878 2.2394
5.1552 1.7722 2.2373
5.0860 1.9553 2.2369
5.0114 2.1362 2.2369
4.9303 2.3143 2.2369
4.8429 2.4893 2.2369
4.7494 2.6611 2.2369
4.6497 2.8294 2.2369
4.5442 2.9939 2.2369
4.4328 3.1546 2.2369
4.3158 3.3111 2.2369
4.1933 3.4633 2.2369
4.0654 3.6111 2.2369
3.9324 3.7541 2.2369
4.0528 4.1575 2.3893
3.9002 4.2997 2.3893
3.7426 4.4364 2.3893
3.5803 4.5673 2.3893
3.4134 4.6923 2.3893
3.2422 4.8113 2.3893
3.0669 4.9240 2.3893
2.8877 5.0305 2.3893
2.7047 5.1304 2.3893
2.5184 5.2238 2.3893
2.3289 5.3104 2.3893
0.8504 2.1455 0.9510
0.7728 2.1749 0.9512
0.6942 2.2014 0.9513
0.6147 2.2252 0.9515
0.5344 2.2460 0.9516
0.4534 2.2639 0.9517
0.3718 2.2789 0.9518
0.2897 2.2909 0.9519
0.2072 2.3000 0.9519
0.1244 2.3061 0.9520
0.0415 2.3092 0.9520
-0.0416 2.3093 0.9520
-0.1245 2.3064 0.9520
-0.2073 2.3005 0.9520
-0.2898 2.2916 0.9520
-0.3720 2.2797 0.9520
-0.4537 2.2649 0.9519
-0.5348 2.2472 0.9519
-0.6152 2.2265 0.9518
-0.6948 2.2030 0.9517
-0.7735 2.1766 0.9516
-0.8512 2.1473 0.9515
-2.3300 5.3124 2.3893
-2.5196 5.2259 2.3893
-2.7061 5.1327 2.3893
-2.8892 5.0328 2.3893
-3.0686 4.9265 2.3893
-3.2441 4.8138 2.3893
-3.4155 4.6949 2.3893
-3.5825 4.5700 2.3893
-3.7451 4.4391 2.3893
-3.9028 4.3025 2.3893
-4.0556 4.1603 2.3893
-4.2032 4.0127 2.3893
-4.3455 3.8599 2.3893
-4.4823 3.7021 2.3893
-4.6133 3.5395 2.3893
-4.7385 3.3722 2.3893
-4.8576 3.2006 2.3893
-4.9706 3.0247 2.3893
-5.0772 2.8449 2.3893
-5.1773 2.6614 2.3893
-5.2707 2.4744 2.3893
-5.3575 2.2840 2.3893
-5.4374 2.0907 2.3893
-5.5103 1.8946 2.3893
-5.5761 1.6959 2.3893
-5.6349 1.4950 2.3893
-5.6864 1.2921 2.3893
-5.7305 1.0874 2.3893
-5.7674 0.8812 2.3893
-5.7968 0.6738 2.3893
-5.8187 0.4654 2.3893
-5.8332 0.2562 2.3893
-5.8401 0.0467 2.3893
-5.8395 -0.1630 2.3893
-5.8314 -0.3726 2.3893
-5.8158 -0.5818 2.3893
-5.7926 -0.7903 2.3893
-5.7620 -0.9979 2.3893
-5.7239 -1.2044 2.3893
-5.6784 -1.4093 2.3893
-5.6255 -1.6126 2.3893
-5.5653 -1.8139 2.3893
-5.4980 -2.0129 2.3893
-5.4235 -2.2093 2.3893
-5.3420 -2.4031 2.3893
-5.2535 -2.5938 2.3893
-5.1582 -2.7812 2.3893
-5.0562 -2.9651 2.3893
-4.9476 -3.1452 2.3893
-4.8326 -3.3214 2.3893
-4.7113 -3.4933 2.3893
-4.5838 -3.6608 2.3893
-4.4504 -3.8235 2.3893
-4.3111 -3.9814 2.3893
-4.1663 -4.1342 2.3893
-4.0160 -4.2817 2.3893
-3.8604 -4.4237 2.3893
-3.6998 -4.5601 2.3893
-3.5344 -4.6905 2.3893
-3.3644 -4.8149 2.3893
-3.1900 -4.9331 2.3893
-3.0114 -5.0449 2.3893
-2.8288 -5.1503 2.3893
-2.6426 -5.2489 2.3893
-2.4529 -5.3409 2.3893
-2.2600 -5.4259 2.3893
-2.0641 -5.5038 2.3893
-1.8655 -5.5747 2.3893
-1.6645 -5.6384 2.3893
-1.4613 -5.6947 2.3893
-1.2562 -5.7437 2.3893
-1.0495 -5.7853 2.3893
-0.8414 -5.8193 2.3893
-0.6322 -5.8458 2.3893
