ply
format ascii 1.0
element vertex 2161
property float32 x
property float32 y
property float32 z
end_header
-6.4212 3.7090 2.2227
-6.5128 3.4501 2.2227
-6.5973 3.1908 2.2227
-6.6747 2.9312 2.2227
-6.7452 2.6714 2.2227
-6.8087 2.4113 2.2227
-6.8655 2.1510 2.2227
-6.9156 1.8906 2.2227
-6.9590 1.6300 2.2227
-6.9958 1.3694 2.2227
-7.0260 1.1087 2.2227
-7.0497 0.8479 2.2227
-7.0668 0.5871 2.2227
-7.0775 0.3263 2.2227
-7.0817 0.0655 2.2227
-7.0794 -0.1952 2.2227
-7.0706 -0.4559 2.2227
-7.0554 -0.7165 2.2227
-7.0337 -0.9770 2.2227
-7.0055 -1.2373 2.2227
-6.9707 -1.4976 2.2227
-6.9294 -1.7576 2.2227
-6.8952 -2.0215 2.2272
-6.9437 -2.3160 2.2608
-7.0032 -2.6255 2.3008
-7.0650 -2.9488 2.3448
-7.0763 -3.2634 2.3751
-6.9887 -3.5394 2.3751
-6.8935 -3.8151 2.3751
-6.7908 -4.0900 2.3751
-6.6803 -4.3645 2.3751
-6.5620 -4.6383 2.3751
-6.4356 -4.9114 2.3751
-6.3012 -5.1837 2.3751
-6.1585 -5.4551 2.3751
-6.0073 -5.7255 2.3751
-5.8477 -5.9948 2.3751
-5.6792 -6.2628 2.3751
-5.5019 -6.5297 2.3751
-5.3155 -6.7950 2.3751
-5.1198 -7.0587 2.3751
-4.9147 -7.3206 2.3751
-4.6998 -7.5805 2.3751
-4.4751 -7.8382 2.3751
-4.2404 -8.0936 2.3751
-3.9952 -8.3463 2.3751
-3.7396 -8.5961 2.3751
-3.4732 -8.8429 2.3751
-3.1958 -9.0861 2.3751
-3.3621 9.0139 2.3751
-3.6347 8.7660 2.3751
-3.8962 8.5149 2.3751
-4.1470 8.2608 2.3751
-4.3872 8.0040 2.3751
-4.6171 7.7448 2.3751
-4.8089 7.4402 2.3614
-4.9091 7.0231 2.3103
-5.0028 6.6311 2.2646
-5.0977 6.2698 2.2266
-5.2585 6.0077 2.2227
-5.4198 5.7553 2.2227
-5.5727 5.5019 2.2227
-5.7175 5.2474 2.2227
-5.8543 4.9921 2.2227
-5.9831 4.7359 2.2227
-6.1043 4.4791 2.2227
-6.2178 4.2216 2.2227
-6.3239 3.9636 2.2227
-6.4226 3.7052 2.2227
-6.5141 3.4463 2.2227
-6.5985 3.1870 2.2227
-6.6758 2.9274 2.2227
-6.7461 2.6676 2.2227
-6.8096 2.4075 2.2227
-6.8663 2.1472 2.2227
-6.9163 1.8868 2.2227
-6.9596 1.6262 2.2227
-6.9963 1.3656 2.2227
-7.0264 1.1048 2.2227
-7.0500 0.8441 2.2227
-7.0670 0.5833 2.2227
-7.0776 0.3225 2.2227
-7.0817 0.0617 2.2227
-7.0793 -0.1991 2.2227
-7.0705 -0.4597 2.2227
-7.0551 -0.7203 2.2227
-7.0333 -0.9808 2.2227
-7.0050 -1.2412 2.2227
-6.9702 -1.5014 2.2227
-6.9287 -1.7614 2.2227
-6.8957 -2.0256 2.2276
-6.9446 -2.3205 2.2613
-7.0041 -2.6301 2.3015
-7.0659 -2.9536 2.3455
-7.0750 -3.2675 2.3751
-6.9873 -3.5435 2.3751
-6.8921 -3.8190 2.3751
-6.7892 -4.0941 2.3751
-6.6786 -4.3685 2.3751
-6.5601 -4.6423 2.3751
-6.4337 -4.9154 2.3751
-6.2991 -5.1877 2.3751
-6.1563 -5.4591 2.3751
-6.0051 -5.7295 2.3751
-5.8453 -5.9988 2.3751
-5.6767 -6.2668 2.3751
-5.4993 -6.5336 2.3751
-5.3127 -6.7989 2.3751
-5.1169 -7.0626 2.3751
-4.9116 -7.3244 2.3751
-4.6966 -7.5843 2.3751
-4.4718 -7.8420 2.3751
-4.2368 -8.0973 2.3751
-3.9916 -8.3500 2.3751
-3.7358 -8.5998 2.3751
-3.4692 -8.8464 2.3751
-3.1917 -9.0897 2.3751
-0.9906 9.6049 2.3733
-1.3154 9.4294 2.3746
-1.6295 9.2442 2.3751
-1.9328 9.0512 2.3751
-2.2258 8.8526 2.3751
-2.5085 8.6488 2.3751
-2.7810 8.4402 2.3751
-3.0436 8.2272 2.3751
-3.2964 8.0101 2.3751
-3.5395 7.7891 2.3751
-3.7731 7.5647 2.3751
-3.9973 7.3370 2.3751
-4.2123 7.1063 2.3751
-4.4182 6.8729 2.3751
-4.6153 6.6369 2.3751
-4.8035 6.3986 2.3751
-4.9831 6.1581 2.3751
-5.1413 5.9009 2.3691
-5.2205 5.5684 2.3319
-5.2956 5.2509 2.2986
-5.3672 4.9468 2.2689
-5.4356 4.6543 2.2425
-5.5111 4.3801 2.2232
-5.6252 4.1442 2.2227
-5.7333 3.9082 2.2227
-5.8344 3.6714 2.2227
-5.9286 3.4337 2.2227
-6.0160 3.1954 2.2227
-6.0967 2.9564 2.2227
-6.1706 2.7169 2.2227
-6.2380 2.4768 2.2227
-6.2989 2.2363 2.2227
-6.3533 1.9955 2.2227
-6.4013 1.7543 2.2227
-6.4429 1.5129 2.2227
-6.4782 1.2712 2.2227
-6.5072 1.0293 2.2227
-6.5299 0.7873 2.2227
-6.5464 0.5452 2.2227
-6.5567 0.3031 2.2227
-6.5608 0.0610 2.2227
-6.5586 -0.1812 2.2227
-6.5522 -0.4224 2.2234
-6.5907 -0.6709 2.2414
-6.6410 -0.9245 2.2657
-6.6923 -1.1847 2.2927
-6.7447 -1.4523 2.3225
-6.7984 -1.7284 2.3554
-6.8061 -2.0000 2.3751
-6.7503 -2.2569 2.3751
-6.6877 -2.5133 2.3751
-6.6181 -2.7692 2.3751
-6.5416 -3.0244 2.3751
-6.4580 -3.2791 2.3751
-6.3674 -3.5330 2.3751
-6.2695 -3.7861 2.3751
-6.1643 -4.0384 2.3751
-6.0518 -4.2897 2.3751
-5.9318 -4.5399 2.3751
-5.8042 -4.7890 2.3751
-5.6689 -5.0368 2.3751
-5.5258 -5.2833 2.3751
-5.3748 -5.5282 2.3751
-5.2158 -5.7714 2.3751
-5.0485 -6.0129 2.3751
-4.8730 -6.2525 2.3751
-4.6890 -6.4899 2.3751
-4.4964 -6.7251 2.3751
-4.2951 -6.9577 2.3751
-4.0849 -7.1877 2.3751
-3.8657 -7.4148 2.3751
-3.6372 -7.6387 2.3751
-3.3995 -7.8591 2.3751
-3.1523 -8.0760 2.3751
-2.8954 -8.2888 2.3751
-2.6288 -8.4973 2.3751
-2.3523 -8.7013 2.3751
-2.0657 -8.9002 2.3751
-1.7690 -9.0939 2.3751
-1.4619 -9.2817 2.3751
-1.1445 -9.4634 2.3751
-0.8166 -9.6385 2.3751
-0.9954 9.6024 2.3734
-1.3201 9.4267 2.3746
-1.6340 9.2414 2.3751
-1.9372 9.0484 2.3751
-2.2300 8.8496 2.3751
-2.5125 8.6458 2.3751
-2.7850 8.4371 2.3751
-3.0474 8.2240 2.3751
-3.3001 8.0069 2.3751
-3.5430 7.7859 2.3751
-3.7765 7.5614 2.3751
-4.0005 7.3336 2.3751
-4.2154 7.1029 2.3751
-4.4212 6.8695 2.3751
-4.6181 6.6334 2.3751
-4.8062 6.3951 2.3751
-4.9857 6.1546 2.3751
-5.1425 5.8958 2.3685
-5.2216 5.5636 2.3314
-5.2967 5.2464 2.2982
-5.3682 4.9424 2.2685
-5.4366 4.6501 2.2422
-5.5124 4.3754 2.2229
-5.6268 4.1408 2.2227
-5.7348 3.9048 2.2227
-5.8359 3.6679 2.2227
-5.9300 3.4302 2.2227
-6.0172 3.1919 2.2227
-6.0978 2.9529 2.2227
-6.1717 2.7133 2.2227
-6.2390 2.4733 2.2227
-6.2997 2.2328 2.2227
-6.3540 1.9920 2.2227
-6.4019 1.7508 2.2227
-6.4434 1.5093 2.2227
-6.4786 1.2676 2.2227
-6.5075 1.0258 2.2227
-6.5302 0.7838 2.2227
-6.5466 0.5417 2.2227
-6.5568 0.2995 2.2227
-6.5608 0.0574 2.2227
-6.5586 -0.1847 2.2227
-6.5530 -0.4270 2.2237
-6.5914 -0.6746 2.2417
-6.6418 -0.9283 2.2661
-6.6931 -1.1886 2.2931
-6.7455 -1.4563 2.3230
-6.7991 -1.7325 2.3559
-6.8054 -2.0038 2.3751
-6.7495 -2.2606 2.3751
-6.6867 -2.5170 2.3751
-6.6171 -2.7730 2.3751
-6.5404 -3.0282 2.3751
-6.4568 -3.2828 2.3751
-6.3660 -3.5367 2.3751
-6.2680 -3.7898 2.3751
-6.1627 -4.0421 2.3751
-6.0501 -4.2933 2.3751
-5.9299 -4.5436 2.3751
-5.8023 -4.7926 2.3751
-5.6669 -5.0404 2.3751
-5.5236 -5.2866 2.3751
-5.3725 -5.5317 2.3751
-5.2134 -5.7750 2.3751
-5.0460 -6.0165 2.3751
-4.8703 -6.2560 2.3751
-4.6862 -6.4934 2.3751
-4.4935 -6.7285 2.3751
-4.2921 -6.9611 2.3751
-4.0817 -7.1911 2.3751
-3.8624 -7.4181 2.3751
-3.6338 -7.6419 2.3751
-3.3959 -7.8624 2.3751
-3.1486 -8.0791 2.3751
-2.8916 -8.2919 2.3751
-2.6248 -8.5004 2.3751
-2.3481 -8.7042 2.3751
-2.0614 -8.9031 2.3751
-1.7645 -9.0966 2.3751
-1.4574 -9.2844 2.3751
-1.1398 -9.4660 2.3751
-0.8117 -9.6410 2.3751
0.9340 3.5650 0.8605
0.8062 3.5936 0.8729
0.6774 3.6175 0.8853
0.5478 3.6367 0.8979
0.4177 3.6512 0.9105
0.2870 3.6610 0.9231
0.1561 3.6660 0.9357
0.0251 3.6662 0.9484
-0.1059 3.6617 0.9610
-0.2366 3.6524 0.9736
-0.3669 3.6383 0.9862
-0.4966 3.6196 0.9987
-0.6255 3.5961 1.0111
-0.7535 3.5679 1.0234
-2.0191 8.1073 2.3751
-2.2807 7.9291 2.3751
-2.5334 7.7458 2.3751
-2.7774 7.5578 2.3751
-3.0126 7.3653 2.3751
-3.2394 7.1687 2.3751
-3.4576 6.9683 2.3751
-3.6674 6.7643 2.3751
-3.8690 6.5570 2.3751
-4.0623 6.3466 2.3751
-4.2476 6.1333 2.3751
-4.4249 5.9173 2.3751
-4.5943 5.6988 2.3751
-4.7560 5.4781 2.3751
-4.9099 5.2552 2.3751
-5.0563 5.0303 2.3751
-5.1953 4.8037 2.3751
-5.3268 4.5754 2.3751
-5.4511 4.3455 2.3751
-5.5355 4.0901 2.3612
-5.5966 3.8260 2.3410
-5.6556 3.5688 2.3236
-5.7129 3.3179 2.3088
-5.7685 3.0722 2.2964
-5.8227 2.8310 2.2865
-5.8756 2.5937 2.2788
-5.9274 2.3596 2.2733
-5.9783 2.1279 2.2700
-6.0283 1.8982 2.2688
-6.0777 1.6698 2.2698
-6.1265 1.4422 2.2727
-6.1748 1.2147 2.2778
-6.2229 0.9868 2.2850
-6.2708 0.7580 2.2943
-6.3185 0.5276 2.3058
-6.3664 0.2951 2.3194
-6.4144 0.0598 2.3354
-6.4626 -0.1787 2.3538
-6.5113 -0.4214 2.3746
-6.4980 -0.6628 2.3751
-6.4768 -0.9036 2.3751
-6.4492 -1.1443 2.3751
-6.4152 -1.3846 2.3751
-6.3748 -1.6245 2.3751
-6.3280 -1.8640 2.3751
-6.2747 -2.1029 2.3751
-6.2148 -2.3413 2.3751
-6.1484 -2.5790 2.3751
-6.0753 -2.8160 2.3751
-5.9956 -3.0521 2.3751
-5.9091 -3.2874 2.3751
-5.8158 -3.5217 2.3751
-5.7157 -3.7548 2.3751
-5.6086 -3.9868 2.3751
-5.4945 -4.2175 2.3751
-5.3733 -4.4467 2.3751
-5.2449 -4.6745 2.3751
-5.1093 -4.9006 2.3751
-4.9663 -5.1249 2.3751
-4.8158 -5.3473 2.3751
-4.6578 -5.5676 2.3751
-4.4922 -5.7856 2.3751
-4.3188 -6.0012 2.3751
-4.1376 -6.2142 2.3751
-3.9484 -6.4243 2.3751
-3.7512 -6.6315 2.3751
-3.5458 -6.8354 2.3751
-3.3322 -7.0358 2.3751
-3.1103 -7.2324 2.3751
-2.8799 -7.4251 2.3751
-2.6410 -7.6135 2.3751
-2.3935 -7.7974 2.3751
-2.1373 -7.9763 2.3751
-1.8724 -8.1500 2.3751
-1.5986 -8.3181 2.3751
-1.3160 -8.4803 2.3751
-1.0245 -8.6362 2.3751
-0.7241 -8.7853 2.3751
-0.4148 -8.9272 2.3751
-0.0965 -9.0615 2.3751
0.2306 -9.1878 2.3751
0.5665 -9.3054 2.3751
0.9111 -9.4140 2.3751
1.2643 -9.5130 2.3751
0.9321 3.5655 0.8607
0.8043 3.5940 0.8731
0.6755 3.6178 0.8855
0.5459 3.6370 0.8981
0.4157 3.6514 0.9107
0.2851 3.6611 0.9233
0.1542 3.6660 0.9359
0.0232 3.6662 0.9486
-0.1078 3.6616 0.9612
-0.2385 3.6522 0.9738
-0.3688 3.6381 0.9864
-0.4984 3.6192 0.9989
-0.6274 3.5957 1.0113
-0.7554 3.5675 1.0236
-2.0230 8.1047 2.3751
-2.2844 7.9264 2.3751
-2.5370 7.7431 2.3751
-2.7809 7.5550 2.3751
-3.0160 7.3625 2.3751
-3.2426 7.1658 2.3751
-3.4607 6.9654 2.3751
-3.6704 6.7613 2.3751
-3.8719 6.5540 2.3751
-4.0651 6.3435 2.3751
-4.2503 6.1301 2.3751
-4.4274 5.9141 2.3751
-4.5968 5.6956 2.3751
-4.7583 5.4748 2.3751
-4.9121 5.2519 2.3751
-5.0584 5.0270 2.3751
-5.1973 4.8003 2.3751
-5.3287 4.5720 2.3751
-5.4529 4.3421 2.3751
-5.5364 4.0862 2.3609
-5.5975 3.8221 2.3407
-5.6565 3.5651 2.3233
-5.7137 3.3142 2.3086
-5.7693 3.0686 2.2963
-5.8235 2.8275 2.2863
-5.8764 2.5903 2.2787
-5.9282 2.3562 2.2733
-5.9790 2.1246 2.2700
-6.0290 1.8949 2.2688
-6.0784 1.6665 2.2698
-6.1272 1.4388 2.2728
-6.1755 1.2113 2.2779
-6.2236 0.9835 2.2851
-6.2715 0.7546 2.2945
-6.3192 0.5242 2.3060
-6.3671 0.2917 2.3197
-6.4151 0.0564 2.3357
-6.4633 -0.1823 2.3541
-6.5121 -0.4252 2.3749
-6.4977 -0.6663 2.3751
-6.4764 -0.9072 2.3751
-6.4487 -1.1478 2.3751
-6.4147 -1.3881 2.3751
-6.3742 -1.6281 2.3751
-6.3273 -1.8675 2.3751
-6.2738 -2.1064 2.3751
-6.2139 -2.3448 2.3751
-6.1473 -2.5825 2.3751
-6.0742 -2.8195 2.3751
-5.9943 -3.0556 2.3751
-5.9078 -3.2908 2.3751
-5.8144 -3.5251 2.3751
-5.7141 -3.7582 2.3751
-5.6070 -3.9902 2.3751
-5.4928 -4.2209 2.3751
-5.3715 -4.4502 2.3751
-5.2430 -4.6779 2.3751
-5.1072 -4.9039 2.3751
-4.9641 -5.1282 2.3751
-4.8135 -5.3505 2.3751
-4.6554 -5.5708 2.3751
-4.4897 -5.7888 2.3751
-4.3162 -6.0043 2.3751
-4.1348 -6.2173 2.3751
-3.9456 -6.4274 2.3751
-3.7482 -6.6345 2.3751
-3.5427 -6.8383 2.3751
-3.3290 -7.0387 2.3751
-3.1070 -7.2353 2.3751
-2.8765 -7.4279 2.3751
-2.6374 -7.6163 2.3751
-2.3898 -7.8000 2.3751
-2.1335 -7.9789 2.3751
-1.8684 -8.1525 2.3751
-1.5946 -8.3206 2.3751
-1.3118 -8.4826 2.3751
-1.0202 -8.6384 2.3751
-0.7196 -8.7874 2.3751
-0.4102 -8.9292 2.3751
-0.0918 -9.0634 2.3751
0.2354 -9.1896 2.3751
0.5715 -9.3071 2.3751
0.9162 -9.4155 2.3751
1.2696 -9.5143 2.3751
3.4258 8.9690 2.3701
3.0646 8.9641 2.3710
0.9772 3.2281 0.8558
0.8614 3.2585 0.8671
0.7446 3.2845 0.8784
0.6269 3.3064 0.8898
0.5085 3.3239 0.9012
0.3895 3.3371 0.9127
0.2701 3.3460 0.9243
0.1504 3.3506 0.9358
0.0307 3.3507 0.9474
-0.0890 3.3466 0.9590
-0.2085 3.3381 0.9705
-0.3275 3.3252 0.9820
-0.4461 3.3081 0.9934
-0.5639 3.2866 1.0047
-0.6809 3.2609 1.0160
-0.7969 3.2309 1.0271
-2.0858 7.3134 2.3751
-2.3211 7.1506 2.3751
-2.5487 6.9829 2.3751
-2.7685 6.8107 2.3751
-2.9807 6.6342 2.3751
-3.1853 6.4536 2.3751
-3.3823 6.2693 2.3751
-3.5717 6.0814 2.3751
-3.7537 5.8903 2.3751
-3.9284 5.6960 2.3751
-4.0957 5.4988 2.3751
-4.2558 5.2990 2.3751
-4.4088 5.0966 2.3751
-4.5546 4.8919 2.3751
-4.6934 4.6850 2.3751
-4.8253 4.4761 2.3751
-4.9503 4.2654 2.3751
-5.0685 4.0529 2.3751
-5.1799 3.8388 2.3751
-5.2847 3.6232 2.3751
-5.3828 3.4063 2.3751
-5.4743 3.1882 2.3751
-5.5594 2.9689 2.3751
-5.6380 2.7486 2.3751
-5.7102 2.5274 2.3751
-5.7761 2.3053 2.3751
-5.8356 2.0825 2.3751
-5.8889 1.8591 2.3751
-5.9359 1.6350 2.3751
-5.9768 1.4105 2.3751
-6.0115 1.1855 2.3751
-6.0400 0.9602 2.3751
-6.0624 0.7347 2.3751
-6.0786 0.5089 2.3751
-6.0888 0.2830 2.3751
-6.0929 0.0571 2.3751
-6.0909 -0.1688 2.3751
-6.0829 -0.3947 2.3751
-6.0687 -0.6203 2.3751
-6.0484 -0.8458 2.3751
-6.0221 -1.0710 2.3751
-5.9896 -1.2957 2.3751
-5.9509 -1.5201 2.3751
-5.9061 -1.7439 2.3751
-5.8551 -1.9672 2.3751
-5.7979 -2.1897 2.3751
-5.7344 -2.4115 2.3751
-5.6646 -2.6324 2.3751
-5.5885 -2.8524 2.3751
-5.5060 -3.0714 2.3751
-5.4170 -3.2892 2.3751
-5.3216 -3.5057 2.3751
-5.2196 -3.7208 2.3751
-5.1110 -3.9348 2.3751
-4.9957 -4.1470 2.3751
-4.8738 -4.3574 2.3751
-4.7450 -4.5661 2.3751
-4.6094 -4.7727 2.3751
-4.4668 -4.9772 2.3751
-4.3173 -5.1794 2.3751
-4.1607 -5.3792 2.3751
-3.9969 -5.5763 2.3751
-3.8260 -5.7706 2.3751
-3.6478 -5.9619 2.3751
-3.4623 -6.1499 2.3751
-3.2694 -6.3346 2.3751
-3.0690 -6.5155 2.3751
-2.8611 -6.6925 2.3751
-2.6456 -6.8654 2.3751
-2.4226 -7.0338 2.3751
-2.1918 -7.1975 2.3751
-1.9534 -7.3562 2.3751
-1.7073 -7.5095 2.3751
-1.4535 -7.6573 2.3751
-1.1920 -7.7990 2.3751
-0.9227 -7.9344 2.3751
-0.6458 -8.0631 2.3751
-0.3613 -8.1847 2.3751
-0.0692 -8.2988 2.3751
0.2304 -8.4050 2.3751
0.5373 -8.5029 2.3751
0.8515 -8.5921 2.3751
1.1728 -8.6719 2.3751
1.5010 -8.7420 2.3751
1.8357 -8.8022 2.3751
2.1770 -8.8516 2.3751
2.5244 -8.8898 2.3751
2.8775 -8.9164 2.3751
3.2362 -8.9308 2.3751
3.5998 -8.9326 2.3751
3.4205 8.9690 2.3701
3.0593 8.9639 2.3710
0.9755 3.2286 0.8560
0.8597 3.2589 0.8672
0.7429 3.2849 0.8785
0.6251 3.3066 0.8899
0.5067 3.3241 0.9014
0.3877 3.3373 0.9129
0.2683 3.3461 0.9245
0.1487 3.3506 0.9360
0.0289 3.3507 0.9476
-0.0908 3.3465 0.9591
-0.2102 3.3379 0.9706
-0.3293 3.3250 0.9821
-0.4478 3.3078 0.9935
-0.5656 3.2863 1.0049
-0.6826 3.2605 1.0162
-0.7986 3.2304 1.0273
-2.0893 7.3110 2.3751
-2.3245 7.1482 2.3751
-2.5520 6.9804 2.3751
-2.7717 6.8081 2.3751
-2.9838 6.6316 2.3751
-3.1882 6.4510 2.3751
-3.3851 6.2666 2.3751
-3.5744 6.0787 2.3751
-3.7564 5.8874 2.3751
-3.9309 5.6931 2.3751
-4.0981 5.4959 2.3751
-4.2581 5.2960 2.3751
-4.4110 5.0936 2.3751
-4.5567 4.8889 2.3751
-4.6954 4.6820 2.3751
-4.8272 4.4730 2.3751
-4.9521 4.2623 2.3751
-5.0702 4.0497 2.3751
-5.1815 3.8356 2.3751
-5.2861 3.6201 2.3751
-5.3842 3.4031 2.3751
-5.4756 3.1850 2.3751
-5.5606 2.9657 2.3751
-5.6391 2.7454 2.3751
-5.7112 2.5241 2.3751
-5.7770 2.3021 2.3751
-5.8365 2.0793 2.3751
-5.8896 1.8558 2.3751
-5.9366 1.6317 2.3751
-5.9773 1.4072 2.3751
-6.0119 1.1822 2.3751
-6.0404 0.9569 2.3751
-6.0627 0.7314 2.3751
-6.0788 0.5056 2.3751
-6.0889 0.2797 2.3751
-6.0929 0.0538 2.3751
-6.0909 -0.1721 2.3751
-6.0827 -0.3981 2.3751
-6.0684 -0.6236 2.3751
-6.0481 -0.8491 2.3751
-6.0216 -1.0743 2.3751
-5.9890 -1.2990 2.3751
-5.9503 -1.5234 2.3751
-5.9054 -1.7472 2.3751
-5.8543 -1.9704 2.3751
-5.7970 -2.1930 2.3751
-5.7334 -2.4147 2.3751
-5.6636 -2.6356 2.3751
-5.5873 -2.8556 2.3751
-5.5047 -3.0746 2.3751
-5.4157 -3.2924 2.3751
-5.3202 -3.5091 2.3751
-5.2180 -3.7239 2.3751
-5.1094 -3.9379 2.3751
-4.9940 -4.1501 2.3751
-4.8719 -4.3605 2.3751
-4.7431 -4.5691 2.3751
-4.6073 -4.7757 2.3751
-4.4647 -4.9802 2.3751
-4.3150 -5.1824 2.3751
-4.1583 -5.3821 2.3751
-3.9945 -5.5792 2.3751
-3.8235 -5.7734 2.3751
-3.6452 -5.9647 2.3751
-3.4595 -6.1527 2.3751
-3.2665 -6.3372 2.3751
-3.0660 -6.5181 2.3751
-2.8580 -6.6951 2.3751
-2.6424 -6.8679 2.3751
-2.4192 -7.0362 2.3751
-2.1884 -7.1999 2.3751
-1.9499 -7.3585 2.3751
-1.7037 -7.5118 2.3751
-1.4497 -7.6594 2.3751
-1.1881 -7.8010 2.3751
-0.9187 -7.9363 2.3751
-0.6417 -8.0649 2.3751
-0.3571 -8.1864 2.3751
-0.0649 -8.3004 2.3751
0.2348 -8.4065 2.3751
0.5419 -8.5043 2.3751
0.8562 -8.5933 2.3751
1.1775 -8.6730 2.3751
1.5058 -8.7431 2.3751
1.8407 -8.8030 2.3751
2.1820 -8.8522 2.3751
2.5295 -8.8903 2.3751
2.8828 -8.9167 2.3751
3.2415 -8.9309 2.3751
3.6052 -8.9325 2.3751
4.9742 -7.9090 2.3751
5.3143 -7.8233 2.3751
5.6543 -7.7233 2.3751
5.9934 -7.6089 2.3751
5.8534 7.7080 2.3749
5.5124 7.8161 2.3748
5.1710 7.9098 2.3748
4.8295 7.9894 2.3748
4.4890 8.0551 2.3748
4.1501 8.1074 2.3749
3.8131 8.1465 2.3749
3.4787 8.1729 2.3750
3.1474 8.1870 2.3751
1.0116 2.9379 0.8521
0.9061 2.9696 0.8623
0.7996 2.9974 0.8727
0.6921 3.0214 0.8831
0.5839 3.0414 0.8935
0.4749 3.0575 0.9041
0.3655 3.0697 0.9147
0.2556 3.0778 0.9253
0.1456 3.0820 0.9359
0.0354 3.0821 0.9466
-0.0746 3.0783 0.9572
-0.1845 3.0705 0.9678
-0.2940 3.0587 0.9783
-0.4031 3.0429 0.9888
-0.5115 3.0231 0.9993
-0.6191 2.9995 1.0096
-0.7258 2.9719 1.0199
-1.9170 6.7801 2.3751
-2.1370 6.6343 2.3751
-2.3500 6.4835 2.3751
-2.5561 6.3281 2.3751
-2.7553 6.1683 2.3751
-2.9476 6.0044 2.3751
-3.1330 5.8367 2.3751
-3.3116 5.6653 2.3751
-3.4834 5.4904 2.3751
-3.6484 5.3124 2.3751
-3.8066 5.1313 2.3751
-3.9582 4.9474 2.3751
-4.1032 4.7608 2.3751
-4.2416 4.5718 2.3751
-4.3734 4.3805 2.3751
-4.4987 4.1870 2.3751
-4.6176 3.9914 2.3751
-4.7302 3.7941 2.3751
-4.8363 3.5950 2.3751
-4.9362 3.3943 2.3751
-5.0298 3.1922 2.3751
-5.1173 2.9887 2.3751
-5.1985 2.7839 2.3751
-5.2737 2.5780 2.3751
-5.3427 2.3711 2.3751
-5.4057 2.1633 2.3751
-5.4628 1.9546 2.3751
-5.5138 1.7452 2.3751
-5.5589 1.5351 2.3751
-5.5980 1.3245 2.3751
-5.6313 1.1134 2.3751
-5.6586 0.9019 2.3751
-5.6801 0.6901 2.3751
-5.6958 0.4781 2.3751
-5.7056 0.2660 2.3751
-5.7095 0.0537 2.3751
-5.7076 -0.1585 2.3751
-5.6999 -0.3706 2.3751
-5.6864 -0.5826 2.3751
-5.6670 -0.7943 2.3751
-5.6418 -1.0057 2.3751
-5.6107 -1.2167 2.3751
-5.5737 -1.4272 2.3751
-5.5308 -1.6371 2.3751
-5.4820 -1.8464 2.3751
-5.4273 -2.0549 2.3751
-5.3666 -2.2626 2.3751
-5.2999 -2.4693 2.3751
-5.2271 -2.6749 2.3751
-5.1483 -2.8794 2.3751
-5.0634 -3.0830 2.3751
-4.9724 -3.2850 2.3751
-4.8751 -3.4856 2.3751
-4.7717 -3.6846 2.3751
-4.6619 -3.8818 2.3751
-4.5459 -4.0773 2.3751
-4.4235 -4.2707 2.3751
-4.2946 -4.4621 2.3751
-4.1594 -4.6512 2.3751
-4.0176 -4.8378 2.3751
-3.8692 -5.0219 2.3751
-3.7143 -5.2032 2.3751
-3.5527 -5.3815 2.3751
-3.3845 -5.5567 2.3751
-3.2095 -5.7286 2.3751
-3.0278 -5.8969 2.3751
-2.8393 -6.0615 2.3751
-2.6440 -6.2220 2.3751
-2.4418 -6.3783 2.3751
-2.2328 -6.5301 2.3751
-2.0169 -6.6772 2.3751
-1.7942 -6.8192 2.3751
-1.5647 -6.9559 2.3751
-1.3283 -7.0870 2.3751
-1.0851 -7.2121 2.3751
-0.8352 -7.3310 2.3751
-0.5787 -7.4434 2.3751
-0.3155 -7.5488 2.3751
-0.0458 -7.6469 2.3751
0.2302 -7.7374 2.3751
0.5125 -7.8198 2.3751
0.8009 -7.8939 2.3751
1.0951 -7.9592 2.3751
1.3951 -8.0153 2.3751
1.7005 -8.0617 2.3751
2.0112 -8.0982 2.3751
2.3267 -8.1242 2.3751
2.6467 -8.1394 2.3751
2.9710 -8.1433 2.3751
3.2990 -8.1356 2.3751
3.6304 -8.1158 2.3751
3.9647 -8.0834 2.3751
4.3013 -8.0383 2.3751
4.6397 -7.9799 2.3751
4.9792 -7.9079 2.3751
5.3193 -7.8219 2.3751
5.6592 -7.7218 2.3751
5.9983 -7.6071 2.3751
5.8485 7.7097 2.3749
5.5074 7.8176 2.3748
5.1658 7.9111 2.3748
4.8246 7.9905 2.3748
4.4842 8.0560 2.3748
4.1451 8.1081 2.3749
3.8082 8.1470 2.3749
3.4738 8.1732 2.3750
3.1425 8.1871 2.3751
1.0100 2.9384 0.8522
0.9046 2.9700 0.8625
0.7980 2.9978 0.8728
0.6905 3.0217 0.8832
0.5823 3.0417 0.8937
0.4733 3.0577 0.9042
0.3639 3.0698 0.9148
0.2540 3.0779 0.9254
0.1440 3.0820 0.9361
0.0338 3.0821 0.9467
-0.0763 3.0782 0.9573
-0.1861 3.0703 0.9679
-0.2956 3.0585 0.9785
-0.4047 3.0426 0.9890
-0.5131 3.0228 0.9994
-0.6207 2.9991 1.0098
-0.7273 2.9715 1.0201
-1.9203 6.7780 2.3751
-2.1402 6.6321 2.3751
-2.3531 6.4812 2.3751
-2.5591 6.3258 2.3751
-2.7582 6.1660 2.3751
-2.9504 6.0020 2.3751
-3.1357 5.8342 2.3751
-3.3142 5.6627 2.3751
-3.4858 5.4879 2.3751
-3.6507 5.3098 2.3751
-3.8089 5.1286 2.3751
-3.9604 4.9447 2.3751
-4.1053 4.7581 2.3751
-4.2435 4.5690 2.3751
-4.3753 4.3776 2.3751
-4.5005 4.1841 2.3751
-4.6193 3.9886 2.3751
-4.7318 3.7912 2.3751
-4.8378 3.5921 2.3751
-4.9376 3.3914 2.3751
-5.0312 3.1892 2.3751
-5.1185 2.9856 2.3751
-5.1997 2.7809 2.3751
-5.2747 2.5750 2.3751
-5.3437 2.3681 2.3751
-5.4066 2.1602 2.3751
-5.4635 1.9515 2.3751
-5.5145 1.7421 2.3751
-5.5595 1.5320 2.3751
-5.5985 1.3214 2.3751
-5.6317 1.1103 2.3751
-5.6590 0.8988 2.3751
-5.6804 0.6870 2.3751
-5.6959 0.4750 2.3751
-5.7057 0.2629 2.3751
-5.7095 0.0506 2.3751
-5.7076 -0.1616 2.3751
-5.6998 -0.3737 2.3751
-5.6861 -0.5857 2.3751
-5.6667 -0.7974 2.3751
-5.6413 -1.0088 2.3751
-5.6102 -1.2198 2.3751
-5.5731 -1.4303 2.3751
-5.5301 -1.6402 2.3751
-5.4812 -1.8494 2.3751
-5.4264 -2.0579 2.3751
-5.3656 -2.2656 2.3751
-5.2988 -2.4724 2.3751
-5.2260 -2.6781 2.3751
-5.1471 -2.8827 2.3751
-5.0621 -3.0860 2.3751
-4.9710 -3.2880 2.3751
-4.8737 -3.4885 2.3751
-4.7701 -3.6875 2.3751
-4.6603 -3.8847 2.3751
-4.5441 -4.0801 2.3751
-4.4216 -4.2736 2.3751
-4.2927 -4.4649 2.3751
-4.1573 -4.6539 2.3751
-4.0155 -4.8405 2.3751
-3.8670 -5.0246 2.3751
-3.7120 -5.2058 2.3751
-3.5503 -5.3841 2.3751
-3.3820 -5.5593 2.3751
-3.2069 -5.7311 2.3751
-3.0251 -5.8994 2.3751
-2.8365 -6.0639 2.3751
-2.6410 -6.2243 2.3751
-2.4388 -6.3806 2.3751
-2.2297 -6.5323 2.3751
-2.0137 -6.6793 2.3751
-1.7909 -6.8212 2.3751
-1.5612 -6.9579 2.3751
-1.3248 -7.0888 2.3751
-1.0815 -7.2139 2.3751
-0.8315 -7.3327 2.3751
-0.5749 -7.4450 2.3751
-0.3116 -7.5503 2.3751
-0.0418 -7.6483 2.3751
0.2343 -7.7386 2.3751
0.5167 -7.8210 2.3751
0.8051 -7.8949 2.3751
1.0995 -7.9601 2.3751
1.3996 -8.0160 2.3751
1.7051 -8.0623 2.3751
2.0158 -8.0986 2.3751
2.3313 -8.1245 2.3751
2.6515 -8.1395 2.3751
2.9758 -8.1433 2.3751
3.3039 -8.1354 2.3751
3.6353 -8.1154 2.3751
3.9696 -8.0829 2.3751
4.3062 -8.0375 2.3751
4.6446 -7.9789 2.3751
4.9842 -7.9067 2.3751
5.3243 -7.8206 2.3751
5.6642 -7.7202 2.3751
6.0033 -7.6053 2.3751
4.5590 -7.2169 2.3751
4.8647 -7.1315 2.3751
5.1696 -7.0333 2.3751
5.4732 -6.9221 2.3751
5.7746 -6.7978 2.3751
6.0733 -6.6602 2.3751
6.3684 -6.5092 2.3751
6.6593 -6.3448 2.3751
6.9451 -6.1669 2.3751
7.2250 -5.9756 2.3751
7.4982 -5.7710 2.3751
7.7638 -5.5533 2.3751
8.0211 -5.3226 2.3751
8.2691 -5.0792 2.3751
9.1473 -3.2440 2.2828
9.2230 -2.9120 2.2635
9.2975 -2.5817 2.2480
9.3722 -2.2526 2.2366
9.4501 -1.9246 2.2299
9.5251 -1.5954 2.2265
9.5972 -1.2644 2.2262
9.6665 -0.9311 2.2291
8.1745 5.2224 2.3751
7.9221 5.4612 2.3751
7.6608 5.6871 2.3751
7.3913 5.8998 2.3751
7.1145 6.0993 2.3751
6.8313 6.2854 2.3751
6.5425 6.4580 2.3751
6.2488 6.6171 2.3751
5.9512 6.7627 2.3751
5.6501 6.8949 2.3751
5.3466 7.0137 2.3751
5.0413 7.1194 2.3751
4.7348 7.2120 2.3751
4.4278 7.2919 2.3751
4.1210 7.3593 2.3751
3.8148 7.4143 2.3751
3.5098 7.4574 2.3751
3.2066 7.4887 2.3751
2.9056 7.5087 2.3751
0.9423 2.7172 0.8585
0.8448 2.7465 0.8679
0.7463 2.7722 0.8775
0.6469 2.7944 0.8871
0.5467 2.8129 0.8968
0.4460 2.8278 0.9066
0.3448 2.8390 0.9163
0.2432 2.8465 0.9262
0.1414 2.8503 0.9360
0.0395 2.8505 0.9458
-0.0623 2.8469 0.9557
-0.1639 2.8397 0.9655
-0.2652 2.8287 0.9752
-0.3660 2.8141 0.9849
-0.4662 2.7959 0.9946
-0.5658 2.7740 1.0042
-0.6644 2.7485 1.0137
-0.7621 2.7194 1.0231
-1.9756 6.1817 2.3751
-2.1757 6.0451 2.3751
-2.3694 5.9039 2.3751
-2.5570 5.7584 2.3751
-2.7382 5.6087 2.3751
-2.9132 5.4550 2.3751
-3.0819 5.2977 2.3751
-3.2443 5.1369 2.3751
-3.4005 4.9728 2.3751
-3.5505 4.8057 2.3751
-3.6943 4.6356 2.3751
-3.8319 4.4628 2.3751
-3.9634 4.2874 2.3751
-4.0887 4.1096 2.3751
-4.2080 3.9296 2.3751
-4.3212 3.7478 2.3751
-4.4285 3.5634 2.3751
-4.5298 3.3776 2.3751
-4.6251 3.1900 2.3751
-4.7146 3.0009 2.3751
-4.7981 2.8103 2.3751
-4.8758 2.6185 2.3751
-4.9477 2.4254 2.3751
-5.0138 2.2312 2.3751
-5.0742 2.0360 2.3751
-5.1287 1.8400 2.3751
-5.1776 1.6431 2.3751
-5.2209 1.4456 2.3751
-5.2584 1.2474 2.3751
-5.2903 1.0487 2.3751
-5.3166 0.8497 2.3751
-5.3372 0.6501 2.3751
-5.3522 0.4505 2.3751
-5.3617 0.2507 2.3751
-5.3655 0.0507 2.3751
-5.3637 -0.1492 2.3751
-5.3563 -0.3490 2.3751
-5.3434 -0.5487 2.3751
-5.3248 -0.7481 2.3751
-5.3007 -0.9471 2.3751
-5.2709 -1.1458 2.3751
-5.2355 -1.3439 2.3751
-5.1944 -1.5414 2.3751
-5.1477 -1.7382 2.3751
-5.0953 -1.9340 2.3751
-5.0372 -2.1293 2.3751
-4.9734 -2.3234 2.3751
-4.9038 -2.5164 2.3751
-4.8285 -2.7083 2.3751
-4.7474 -2.8988 2.3751
-4.6604 -3.0879 2.3751
-4.5676 -3.2755 2.3751
-4.4690 -3.4614 2.3751
-4.3644 -3.6455 2.3751
-4.2538 -3.8277 2.3751
-4.1373 -4.0079 2.3751
-4.0147 -4.1858 2.3751
-3.8862 -4.3614 2.3751
-3.7515 -4.5346 2.3751
-3.6108 -4.7050 2.3751
-3.4639 -4.8726 2.3751
-3.3109 -5.0371 2.3751
-3.1517 -5.1985 2.3751
-2.9863 -5.3565 2.3751
-2.8147 -5.5109 2.3751
-2.6369 -5.6614 2.3751
-2.4529 -5.8080 2.3751
-2.2627 -5.9503 2.3751
-2.0662 -6.0881 2.3751
-1.8636 -6.2211 2.3751
-1.6549 -6.3492 2.3751
-1.4400 -6.4721 2.3751
-1.2190 -6.5893 2.3751
-0.9920 -6.7008 2.3751
-0.7591 -6.8062 2.3751
-0.5203 -6.9052 2.3751
-0.2758 -6.9975 2.3751
-0.0256 -7.0827 2.3751
0.2301 -7.1606 2.3751
0.4911 -7.2308 2.3751
0.7573 -7.2930 2.3751
1.0285 -7.3469 2.3751
1.3044 -7.3920 2.3751
1.5849 -7.4281 2.3751
1.8696 -7.4548 2.3751
2.1582 -7.4717 2.3751
2.4504 -7.4786 2.3751
2.7459 -7.4750 2.3751
3.0443 -7.4606 2.3751
3.3452 -7.4351 2.3751
3.6480 -7.3982 2.3751
3.9523 -7.3495 2.3751
4.2577 -7.2888 2.3751
4.5635 -7.2157 2.3751
4.8692 -7.1302 2.3751
5.1741 -7.0318 2.3751
5.4776 -6.9204 2.3751
5.7790 -6.7959 2.3751
6.0776 -6.6581 2.3751
6.3727 -6.5069 2.3751
6.6635 -6.3422 2.3751
6.9492 -6.1642 2.3751
7.2290 -5.9727 2.3751
7.5021 -5.7679 2.3751
7.7677 -5.5500 2.3751
8.0248 -5.3192 2.3751
8.2727 -5.0756 2.3751
9.1484 -3.2391 2.2825
9.2241 -2.9071 2.2632
9.2986 -2.5769 2.2478
9.3733 -2.2478 2.2365
9.4512 -1.9198 2.2299
9.5262 -1.5905 2.2264
9.5982 -1.2595 2.2262
9.6675 -0.9262 2.2291
8.1708 5.2260 2.3751
7.9183 5.4646 2.3751
7.6569 5.6903 2.3751
7.3873 5.9029 2.3751
7.1105 6.1022 2.3751
6.8271 6.2881 2.3751
6.5382 6.4605 2.3751
6.2445 6.6194 2.3751
5.9468 6.7648 2.3751
5.6457 6.8967 2.3751
5.3421 7.0154 2.3751
5.0368 7.1208 2.3751
4.7303 7.2133 2.3751
4.4233 7.2930 2.3751
4.1165 7.3602 2.3751
3.8102 7.4150 2.3751
3.5053 7.4579 2.3751
3.2021 7.4891 2.3751
2.9011 7.5089 2.3751
0.9409 2.7176 0.8586
0.8434 2.7469 0.8681
0.7448 2.7726 0.8776
0.6454 2.7947 0.8872
0.5453 2.8131 0.8969
0.4445 2.8279 0.9067
0.3433 2.8391 0.9165
0.2417 2.8466 0.9263
0.1399 2.8504 0.9361
0.0380 2.8504 0.9460
-0.0638 2.8468 0.9558
-0.1654 2.8395 0.9656
-0.2666 2.8285 0.9754
-0.3675 2.8139 0.9851
-0.4677 2.7956 0.9947
-0.5672 2.7736 1.0043
-0.6659 2.7481 1.0138
-0.7635 2.7190 1.0232
-1.9786 6.1797 2.3751
-2.1785 6.0431 2.3751
-2.3722 5.9018 2.3751
-2.5597 5.7562 2.3751
-2.7408 5.6064 2.3751
-2.9157 5.4528 2.3751
-3.0843 5.2954 2.3751
-3.2466 5.1345 2.3751
-3.4027 4.9704 2.3751
-3.5526 4.8032 2.3751
-3.6963 4.6331 2.3751
-3.8339 4.4602 2.3751
-3.9653 4.2848 2.3751
-4.0905 4.1070 2.3751
-4.2097 3.9269 2.3751
-4.3229 3.7448 2.3751
-4.4301 3.5607 2.3751
-4.5313 3.3748 2.3751
-4.6265 3.1872 2.3751
-4.7158 2.9981 2.3751
-4.7993 2.8075 2.3751
-4.8769 2.6156 2.3751
-4.9487 2.4225 2.3751
-5.0147 2.2284 2.3751
-5.0750 2.0332 2.3751
-5.1295 1.8371 2.3751
-5.1783 1.6402 2.3751
-5.2215 1.4427 2.3751
-5.2589 1.2445 2.3751
-5.2907 1.0458 2.3751
-5.3169 0.8467 2.3751
-5.3375 0.6472 2.3751
-5.3524 0.4476 2.3751
-5.3618 0.2477 2.3751
-5.3655 0.0478 2.3751
-5.3636 -0.1521 2.3751
-5.3562 -0.3520 2.3751
-5.3432 -0.5516 2.3751
-5.3245 -0.7510 2.3751
-5.3003 -0.9500 2.3751
-5.2704 -1.1487 2.3751
-5.2349 -1.3468 2.3751
-5.1937 -1.5442 2.3751
-5.1470 -1.7411 2.3751
-5.0945 -1.9370 2.3751
-5.0363 -2.1320 2.3751
-4.9724 -2.3262 2.3751
-4.9028 -2.5193 2.3751
-4.8274 -2.7111 2.3751
-4.7462 -2.9016 2.3751
-4.6591 -3.0907 2.3751
-4.5662 -3.2782 2.3751
-4.4675 -3.4641 2.3751
-4.3628 -3.6482 2.3751
-4.2521 -3.8304 2.3751
-4.1355 -4.0105 2.3751
-4.0129 -4.1884 2.3751
-3.8842 -4.3640 2.3751
-3.7495 -4.5371 2.3751
-3.6087 -4.7075 2.3751
-3.4617 -4.8750 2.3751
-3.3086 -5.0395 2.3751
-3.1493 -5.2009 2.3751
-2.9838 -5.3588 2.3751
-2.8121 -5.5131 2.3751
-2.6343 -5.6636 2.3751
-2.4501 -5.8101 2.3751
-2.2598 -5.9523 2.3751
-2.0633 -6.0901 2.3751
-1.8606 -6.2231 2.3751
-1.6518 -6.3511 2.3751
-1.4368 -6.4738 2.3751
-1.2157 -6.5910 2.3751
-0.9887 -6.7024 2.3751
-0.7557 -6.8077 2.3751
-0.5168 -6.9066 2.3751
-0.2722 -6.9988 2.3751
-0.0219 -7.0839 2.3751
0.2339 -7.1617 2.3751
0.4950 -7.2318 2.3751
0.7612 -7.2939 2.3751
1.0325 -7.3476 2.3751
1.3085 -7.3926 2.3751
1.5890 -7.4286 2.3751
1.8738 -7.4552 2.3751
2.1625 -7.4719 2.3751
2.4547 -7.4786 2.3751
2.7503 -7.4749 2.3751
3.0487 -7.4603 2.3751
3.3496 -7.4347 2.3751
3.6524 -7.3975 2.3751
3.9568 -7.3487 2.3751
4.2622 -7.2878 2.3751
4.5680 -7.2146 2.3751
4.8736 -7.1288 2.3751
5.1785 -7.0302 2.3751
5.4820 -6.9187 2.3751
5.7834 -6.7940 2.3751
6.0820 -6.6560 2.3751
6.3770 -6.5046 2.3751
6.6678 -6.3397 2.3751
6.9534 -6.1615 2.3751
7.2331 -5.9698 2.3751
7.5061 -5.7648 2.3751
7.7715 -5.5467 2.3751
8.0285 -5.3157 2.3751
8.2762 -5.0720 2.3751
9.1495 -3.2343 2.2822
9.2252 -2.9023 2.2630
9.2997 -2.5721 2.2476
4.2058 -6.6281 2.3751
4.4829 -6.5441 2.3751
4.7588 -6.4485 2.3751
5.0331 -6.3412 2.3751
5.3050 -6.2220 2.3751
5.5739 -6.0910 2.3751
5.8392 -5.9480 2.3751
6.1002 -5.7930 2.3751
6.3563 -5.6261 2.3751
6.6066 -5.4474 2.3751
6.8507 -5.2569 2.3751
7.0876 -5.0548 2.3751
7.3167 -4.8413 2.3751
7.5372 -4.6168 2.3751
7.7485 -4.3814 2.3751
7.9499 -4.1356 2.3751
8.1406 -3.8798 2.3751
8.3200 -3.6145 2.3751
8.4875 -3.3400 2.3751
8.6423 -3.0572 2.3751
8.7841 -2.7665 2.3751
8.9121 -2.4685 2.3751
9.0260 -2.1640 2.3751
9.1252 -1.8538 2.3751
9.2093 -1.5386 2.3751
9.2781 -1.2193 2.3751
9.3312 -0.8965 2.3751
9.3684 -0.5713 2.3751
9.3896 -0.2445 2.3751
9.3947 0.0830 2.3751
9.3836 0.4104 2.3751
9.3564 0.7368 2.3751
9.3131 1.0612 2.3751
9.2541 1.3829 2.3751
9.1794 1.7009 2.3751
9.0895 2.0145 2.3751
8.9846 2.3228 2.3751
8.8652 2.6250 2.3751
8.7317 2.9205 2.3751
8.5847 3.2086 2.3751
8.4247 3.4885 2.3751
8.2523 3.7598 2.3751
8.0681 4.0218 2.3751
7.8727 4.2740 2.3751
7.6670 4.5160 2.3751
7.4515 4.7474 2.3751
7.2269 4.9679 2.3751
6.9940 5.1770 2.3751
6.7536 5.3747 2.3751
6.5062 5.5607 2.3751
6.2527 5.7348 2.3751
5.9938 5.8970 2.3751
5.7301 6.0472 2.3751
5.4624 6.1853 2.3751
5.1913 6.3115 2.3751
4.9174 6.4257 2.3751
4.6414 6.5280 2.3751
4.3639 6.6186 2.3751
4.0855 6.6976 2.3751
3.8067 6.7652 2.3751
3.5280 6.8217 2.3751
3.2500 6.8672 2.3751
2.9731 6.9019 2.3751
0.9715 2.4943 0.8553
0.8819 2.5247 0.8640
0.7913 2.5519 0.8728
0.6998 2.5758 0.8817
0.6074 2.5963 0.8906
0.5144 2.6135 0.8996
0.4208 2.6273 0.9087
0.3267 2.6377 0.9178
0.2323 2.6447 0.9269
0.1378 2.6483 0.9361
0.0431 2.6484 0.9452
-0.0515 2.6451 0.9543
-0.1459 2.6383 0.9634
-0.2400 2.6282 0.9725
-0.3337 2.6146 0.9815
-0.4268 2.5976 0.9905
-0.5193 2.5773 0.9994
-0.6109 2.5536 1.0082
-0.7017 2.5266 1.0169
-0.7914 2.4964 1.0256
-2.0212 5.6569 2.3751
-2.2039 5.5278 2.3751
-2.3809 5.3944 2.3751
-2.5521 5.2569 2.3751
-2.7176 5.1155 2.3751
-2.8773 4.9704 2.3751
-3.0312 4.8218 2.3751
-3.1793 4.6699 2.3751
-3.3217 4.5148 2.3751
-3.4583 4.3568 2.3751
-3.5892 4.1961 2.3751
-3.7143 4.0327 2.3751
-3.8337 3.8669 2.3751
-3.9474 3.6988 2.3751
-4.0554 3.5286 2.3751
-4.1577 3.3563 2.3751
-4.2544 3.1822 2.3751
-4.3455 3.0063 2.3751
-4.4310 2.8289 2.3751
-4.5109 2.6499 2.3751
-4.5853 2.4695 2.3751
-4.6541 2.2879 2.3751
-4.7174 2.1052 2.3751
-4.7752 1.9214 2.3751
-4.8275 1.7366 2.3751
-4.8744 1.5511 2.3751
-4.9159 1.3648 2.3751
-4.9519 1.1778 2.3751
-4.9825 0.9903 2.3751
-5.0077 0.8024 2.3751
-5.0276 0.6141 2.3751
-5.0420 0.4256 2.3751
-5.0511 0.2368 2.3751
-5.0548 0.0480 2.3751
-5.0531 -0.1408 2.3751
-5.0461 -0.3295 2.3751
-5.0336 -0.5181 2.3751
-5.0159 -0.7064 2.3751
-4.9927 -0.8943 2.3751
-4.9641 -1.0815 2.3751
-4.9302 -1.2687 2.3751
-4.8909 -1.4550 2.3751
-4.8461 -1.6406 2.3751
-4.7959 -1.8253 2.3751
-4.7403 -2.0091 2.3751
-4.6792 -2.1919 2.3751
-4.6126 -2.3735 2.3751
-4.5406 -2.5540 2.3751
-4.4630 -2.7330 2.3751
-4.3799 -2.9106 2.3751
-4.2912 -3.0866 2.3751
-4.1970 -3.2609 2.3751
-4.0972 -3.4334 2.3751
-3.9918 -3.6038 2.3751
-3.8807 -3.7722 2.3751
-3.7640 -3.9383 2.3751
-3.6416 -4.1021 2.3751
-3.5135 -4.2632 2.3751
-3.3797 -4.4217 2.3751
-3.2403 -4.5773 2.3751
-3.0951 -4.7299 2.3751
-2.9441 -4.8792 2.3751
-2.7875 -5.0251 2.3751
-2.6251 -5.1675 2.3751
-2.4571 -5.3060 2.3751
-2.2833 -5.4405 2.3751
-2.1039 -5.5708 2.3751
-1.9188 -5.6966 2.3751
-1.7281 -5.8178 2.3751
-1.5318 -5.9341 2.3751
-1.3300 -6.0452 2.3751
-1.1228 -6.1509 2.3751
-0.9101 -6.2510 2.3751
-0.6922 -6.3451 2.3751
-0.4692 -6.4330 2.3751
-0.2410 -6.5145 2.3751
-0.0079 -6.5892 2.3751
0.2299 -6.6569 2.3751
0.4724 -6.7172 2.3751
0.7194 -6.7699 2.3751
0.9705 -6.8147 2.3751
1.2257 -6.8512 2.3751
1.4847 -6.8793 2.3751
1.7471 -6.8985 2.3751
2.0127 -6.9085 2.3751
2.2813 -6.9092 2.3751
2.5523 -6.9002 2.3751
2.8256 -6.8811 2.3751
3.1006 -6.8519 2.3751
3.3771 -6.8120 2.3751
3.6544 -6.7614 2.3751
3.9322 -6.6998 2.3751
4.2098 -6.6270 2.3751
4.4869 -6.5428 2.3751
4.7629 -6.4470 2.3751
5.0371 -6.3395 2.3751
5.3089 -6.2202 2.3751
5.5778 -6.0890 2.3751
5.8430 -5.9458 2.3751
6.1040 -5.7907 2.3751
6.3600 -5.6236 2.3751
6.6103 -5.4447 2.3751
6.8542 -5.2540 2.3751
7.0910 -5.0517 2.3751
7.3200 -4.8381 2.3751
7.5404 -4.6134 2.3751
7.7516 -4.3779 2.3751
7.9528 -4.1320 2.3751
8.1433 -3.8760 2.3751
8.3226 -3.6105 2.3751
8.4898 -3.3360 2.3751
8.6445 -3.0530 2.3751
8.7861 -2.7621 2.3751
8.9138 -2.4644 2.3751
9.0275 -2.1595 2.3751
9.1265 -1.8492 2.3751
9.2104 -1.5340 2.3751
9.2790 -1.2145 2.3751
9.3319 -0.8918 2.3751
9.3689 -0.5666 2.3751
9.3898 -0.2397 2.3751
9.3946 0.0877 2.3751
9.3833 0.4152 2.3751
9.3558 0.7416 2.3751
9.3124 1.0660 2.3751
9.2531 1.3876 2.3751
9.1782 1.7055 2.3751
9.0881 2.0190 2.3751
8.9830 2.3273 2.3751
8.8633 2.6294 2.3751
8.7297 2.9248 2.3751
8.5824 3.2128 2.3751
8.4222 3.4926 2.3751
8.2496 3.7637 2.3751
8.0653 4.0255 2.3751
7.8698 4.2776 2.3751
7.6639 4.5195 2.3751
7.4482 4.7507 2.3751
7.2236 4.9710 2.3751
6.9906 5.1800 2.3751
6.7500 5.3775 2.3751
6.5026 5.5634 2.3751
6.2490 5.7373 2.3751
5.9900 5.8993 2.3751
5.7262 6.0493 2.3751
5.4584 6.1873 2.3751
5.1872 6.3132 2.3751
4.9134 6.4272 2.3751
4.6374 6.5294 2.3751
4.3598 6.6198 2.3751
4.0814 6.6987 2.3751
3.8026 6.7662 2.3751
3.5239 6.8224 2.3751
3.2459 6.8677 2.3751
2.9690 6.9023 2.3751
0.9702 2.4947 0.8555
0.8806 2.5251 0.8642
0.7900 2.5523 0.8729
0.6984 2.5761 0.8818
0.6060 2.5966 0.8908
0.5130 2.6138 0.8998
0.4194 2.6275 0.9088
0.3253 2.6379 0.9179
0.2309 2.6448 0.9271
0.1364 2.6483 0.9362
0.0417 2.6484 0.9453
-0.0528 2.6450 0.9545
-0.1473 2.6382 0.9636
-0.2414 2.6280 0.9726
-0.3350 2.6144 0.9817
-0.4282 2.5974 0.9906
-0.5206 2.5770 0.9995
-0.6123 2.5533 1.0083
-0.7030 2.5262 1.0171
-0.7927 2.4959 1.0257
-2.0239 5.6550 2.3751
-2.2065 5.5259 2.3751
-2.3834 5.3924 2.3751
-2.5546 5.2549 2.3751
-2.7200 5.1134 2.3751
-2.8796 4.9682 2.3751
-3.0334 4.8196 2.3751
-3.1815 4.6676 2.3751
-3.3238 4.5125 2.3751
-3.4603 4.3545 2.3751
-3.5911 4.1937 2.3751
-3.7161 4.0303 2.3751
-3.8354 3.8645 2.3751
-3.9490 3.6963 2.3751
-4.0569 3.5261 2.3751
-4.1592 3.3538 2.3751
-4.2558 3.1796 2.3751
-4.3468 3.0037 2.3751
-4.4322 2.8263 2.3751
-4.5120 2.6472 2.3751
-4.5863 2.4668 2.3751
-4.6550 2.2852 2.3751
-4.7183 2.1025 2.3751
-4.7760 1.9186 2.3751
-4.8283 1.7339 2.3751
-4.8751 1.5483 2.3751
-4.9165 1.3620 2.3751
-4.9524 1.1751 2.3751
-4.9829 0.9876 2.3751
-5.0081 0.7996 2.3751
-5.0278 0.6114 2.3751
-5.0422 0.4228 2.3751
-5.0512 0.2341 2.3751
-5.0548 0.0452 2.3751
-5.0530 -0.1436 2.3751
-5.0459 -0.3323 2.3751
-5.0334 -0.5208 2.3751
-5.0156 -0.7091 2.3751
-4.9923 -0.8967 2.3751
-4.9637 -1.0843 2.3751
-4.9297 -1.2715 2.3751
-4.8902 -1.4577 2.3751
-4.8454 -1.6433 2.3751
-4.7951 -1.8280 2.3751
-4.7394 -2.0118 2.3751
-4.6783 -2.1946 2.3751
-4.6116 -2.3762 2.3751
-4.5395 -2.5566 2.3751
-4.4618 -2.7356 2.3751
-4.3786 -2.9132 2.3751
-4.2899 -3.0892 2.3751
-4.1956 -3.2634 2.3751
-4.0957 -3.4359 2.3751
-3.9902 -3.6063 2.3751
-3.8790 -3.7747 2.3751
-3.7622 -3.9408 2.3751
-3.6397 -4.1044 2.3751
-3.5116 -4.2656 2.3751
-3.3777 -4.4240 2.3751
-3.2382 -4.5796 2.3751
-3.0929 -4.7321 2.3751
-2.9419 -4.8814 2.3751
-2.7852 -5.0273 2.3751
-2.6227 -5.1695 2.3751
-2.4546 -5.3080 2.3751
-2.2807 -5.4424 2.3751
-2.1012 -5.5727 2.3751
-1.9160 -5.6984 2.3751
-1.7252 -5.8195 2.3751
-1.5289 -5.9357 2.3751
-1.3270 -6.0468 2.3751
-1.1197 -6.1524 2.3751
-0.9070 -6.2524 2.3751
-0.6890 -6.3464 2.3751
-0.4659 -6.4343 2.3751
-0.2376 -6.5156 2.3751
-0.0045 -6.5903 2.3751
0.2335 -6.6578 2.3751
0.4760 -6.7180 2.3751
0.7230 -6.7706 2.3751
0.9742 -6.8153 2.3751
1.2295 -6.8517 2.3751
1.4885 -6.8796 2.3751
1.7510 -6.8987 2.3751
2.0167 -6.9086 2.3751
2.2852 -6.9091 2.3751
2.5564 -6.8999 2.3751
2.8297 -6.8807 2.3751
3.1047 -6.8513 2.3751
3.3811 -6.8113 2.3751
3.6585 -6.7605 2.3751
3.9362 -6.6988 2.3751
4.2139 -6.6258 2.3751
4.4910 -6.5414 2.3751
4.7669 -6.4454 2.3751
5.0411 -6.3378 2.3751
5.3129 -6.2183 2.3751
5.5817 -6.0870 2.3751
5.8469 -5.9436 2.3751
6.1078 -5.7883 2.3751
6.3637 -5.6210 2.3751
6.6139 -5.4419 2.3751
6.8577 -5.2511 2.3751
7.0944 -5.0487 2.3751
7.3233 -4.8349 2.3751
7.5436 -4.6100 2.3751
7.7546 -4.3744 2.3751
7.9556 -4.1283 2.3751
8.1460 -3.8722 2.3751
8.3251 -3.6065 2.3751
8.4922 -3.3319 2.3751
8.6467 -3.0487 2.3751
8.7880 -2.7578 2.3751
8.9156 -2.4601 2.3751
3.9013 -6.1206 2.3751
4.1543 -6.0386 2.3751
4.4059 -5.9460 2.3751
4.6555 -5.8428 2.3751
4.9027 -5.7289 2.3751
5.1468 -5.6042 2.3751
5.3873 -5.4688 2.3751
5.6235 -5.3226 2.3751
5.8550 -5.1658 2.3751
6.0810 -4.9983 2.3751
6.3010 -4.8204 2.3751
6.5143 -4.6322 2.3751
6.7203 -4.4339 2.3751
6.9184 -4.2257 2.3751
7.1079 -4.0081 2.3751
7.2884 -3.7812 2.3751
7.4591 -3.5455 2.3751
7.6195 -3.3014 2.3751
7.7691 -3.0494 2.3751
7.9074 -2.7900 2.3751
8.0338 -2.5237 2.3751
8.1479 -2.2511 2.3751
8.2493 -1.9728 2.3751
8.3376 -1.6896 2.3751
8.4124 -1.4019 2.3751
8.4735 -1.1107 2.3751
8.5207 -0.8166 2.3751
8.5538 -0.5203 2.3751
8.5726 -0.2226 2.3751
8.5770 0.0758 2.3751
8.5671 0.3740 2.3751
8.5428 0.6713 2.3751
8.5043 0.9669 2.3751
8.4517 1.2601 2.3751
8.3853 1.5502 2.3751
8.3052 1.8363 2.3751
8.2117 2.1179 2.3751
8.1052 2.3942 2.3751
7.9862 2.6646 2.3751
7.8549 2.9286 2.3751
7.7120 3.1854 2.3751
7.5578 3.4346 2.3751
7.3930 3.6756 2.3751
7.2180 3.9081 2.3751
7.0335 4.1316 2.3751
6.8401 4.3458 2.3751
6.6383 4.5502 2.3751
6.4288 4.7447 2.3751
6.2122 4.9289 2.3751
5.9891 5.1028 2.3751
5.7601 5.2661 2.3751
5.5260 5.4187 2.3751
5.2872 5.5605 2.3751
5.0444 5.6915 2.3751
4.7982 5.8117 2.3751
4.5491 5.9212 2.3751
4.2978 6.0198 2.3751
4.0447 6.1079 2.3751
3.7904 6.1854 2.3751
3.5354 6.2524 2.3751
3.2801 6.3092 2.3751
3.0250 6.3560 2.3751
0.9948 2.2954 0.8528
0.9123 2.3268 0.8608
0.8287 2.3552 0.8689
0.7442 2.3805 0.8771
0.6588 2.4028 0.8854
0.5726 2.4219 0.8937
0.4859 2.4380 0.9021
0.3985 2.4508 0.9106
0.3108 2.4605 0.9191
0.2228 2.4670 0.9276
0.1346 2.4703 0.9361
0.0463 2.4704 0.9446
-0.0419 2.4673 0.9532
-0.1300 2.4610 0.9616
-0.2178 2.4516 0.9701
-0.3052 2.4389 0.9785
-0.3920 2.4231 0.9869
-0.4783 2.4041 0.9952
-0.5638 2.3820 1.0034
-0.6485 2.3568 1.0116
-0.7322 2.3286 1.0196
-0.8148 2.2974 1.0275
-2.0560 5.1917 2.3751
-2.2234 5.0689 2.3751
-2.3855 4.9420 2.3751
-2.5423 4.8112 2.3751
-2.6937 4.6767 2.3751
-2.8398 4.5388 2.3751
-2.9806 4.3976 2.3751
-3.1160 4.2532 2.3751
-3.2459 4.1060 2.3751
-3.3705 3.9559 2.3751
-3.4898 3.8032 2.3751
-3.6036 3.6480 2.3751
-3.7121 3.4905 2.3751
-3.8152 3.3308 2.3751
-3.9130 3.1691 2.3751
-4.0054 3.0055 2.3751
-4.0925 2.8401 2.3751
-4.1743 2.6731 2.3751
-4.2508 2.5045 2.3751
-4.3220 2.3345 2.3751
-4.3879 2.1633 2.3751
-4.4486 1.9909 2.3751
-4.5041 1.8173 2.3751
-4.5543 1.6429 2.3751
-4.5993 1.4675 2.3751
-4.6391 1.2913 2.3751
-4.6736 1.1149 2.3751
-4.7030 0.9375 2.3751
-4.7273 0.7595 2.3751
-4.7463 0.5816 2.3751
-4.7602 0.4030 2.3751
-4.7689 0.2245 2.3751
-4.7725 0.0457 2.3751
-4.7709 -0.1329 2.3751
-4.7642 -0.3118 2.3751
-4.7523 -0.4903 2.3751
-4.7352 -0.6685 2.3751
-4.7130 -0.8463 2.3751
-4.6856 -1.0236 2.3751
-4.6531 -1.2004 2.3751
-4.6153 -1.3766 2.3751
-4.5724 -1.5520 2.3751
-4.5243 -1.7265 2.3751
-4.4710 -1.9001 2.3751
-4.4125 -2.0727 2.3751
-4.3487 -2.2441 2.3751
-4.2797 -2.4142 2.3751
-4.2055 -2.5829 2.3751
-4.1260 -2.7501 2.3751
-4.0412 -2.9157 2.3751
-3.9511 -3.0796 2.3751
-3.8557 -3.2416 2.3751
-3.7551 -3.4016 2.3751
-3.6491 -3.5595 2.3751
-3.5378 -3.7151 2.3751
-3.4211 -3.8683 2.3751
-3.2991 -4.0189 2.3751
-3.1718 -4.1668 2.3751
-3.0391 -4.3118 2.3751
-2.9011 -4.4538 2.3751
-2.7578 -4.5925 2.3751
-2.6092 -4.7279 2.3751
-2.4553 -4.8597 2.3751
-2.2961 -4.9877 2.3751
-2.1316 -5.1118 2.3751
-1.9619 -5.2317 2.3751
-1.7871 -5.3472 2.3751
-1.6072 -5.4582 2.3751
-1.4221 -5.5643 2.3751
-1.2321 -5.6655 2.3751
-1.0372 -5.7613 2.3751
-0.8374 -5.8517 2.3751
-0.6330 -5.9364 2.3751
-0.4239 -6.0151 2.3751
-0.2103 -6.0875 2.3751
0.0077 -6.1535 2.3751
0.2298 -6.2127 2.3751
0.4560 -6.2650 2.3751
0.6860 -6.3100 2.3751
0.9196 -6.3474 2.3751
1.1567 -6.3771 2.3751
1.3969 -6.3988 2.3751
1.6401 -6.4122 2.3751
1.8858 -6.4170 2.3751
2.1339 -6.4130 2.3751
2.3839 -6.3999 2.3751
2.6356 -6.3776 2.3751
2.8886 -6.3458 2.3751
3.1425 -6.3043 2.3751
3.3968 -6.2528 2.3751
3.6511 -6.1913 2.3751
3.9050 -6.1195 2.3751
4.1580 -6.0373 2.3751
4.4096 -5.9446 2.3751
4.6592 -5.8412 2.3751
4.9063 -5.7271 2.3751
5.1504 -5.6023 2.3751
5.3908 -5.4667 2.3751
5.6270 -5.3204 2.3751
5.8584 -5.1634 2.3751
6.0843 -4.9958 2.3751
6.3042 -4.8177 2.3751
6.5174 -4.6293 2.3751
6.7233 -4.4309 2.3751
6.9212 -4.2226 2.3751
7.1107 -4.0048 2.3751
7.2910 -3.7778 2.3751
7.4615 -3.5420 2.3751
7.6218 -3.2978 2.3751
7.7713 -3.0456 2.3751
7.9093 -2.7861 2.3751
8.0356 -2.5197 2.3751
8.1495 -2.2470 2.3751
8.2507 -1.9687 2.3751
8.3388 -1.6854 2.3751
8.4134 -1.3977 2.3751
8.4743 -1.1064 2.3751
8.5213 -0.8122 2.3751
8.5542 -0.5159 2.3751
8.5727 -0.2182 2.3751
8.5770 0.0802 2.3751
8.5668 0.3784 2.3751
8.5424 0.6756 2.3751
8.5037 0.9712 2.3751
8.4509 1.2644 2.3751
8.3842 1.5544 2.3751
8.3039 1.8405 2.3751
8.2102 2.1220 2.3751
8.1036 2.3982 2.3751
7.9843 2.6686 2.3751
7.8529 2.9324 2.3751
7.7098 3.1891 2.3751
7.5555 3.4381 2.3751
7.3905 3.6791 2.3751
7.2154 3.9115 2.3751
7.0308 4.1348 2.3751
6.8372 4.3488 2.3751
6.6353 4.5531 2.3751
6.4257 4.7475 2.3751
6.2089 4.9316 2.3751
5.9858 5.1053 2.3751
5.7567 5.2684 2.3751
5.5225 5.4208 2.3751
5.2837 5.5625 2.3751
5.0408 5.6934 2.3751
4.7946 5.8134 2.3751
4.5455 5.9227 2.3751
4.2941 6.0212 2.3751
4.0410 6.1091 2.3751
3.7867 6.1864 2.3751
3.5316 6.2533 2.3751
3.2763 6.3100 2.3751
3.0213 6.3566 2.3751
0.9936 2.2959 0.8529
0.9111 2.3272 0.8609
0.8275 2.3556 0.8690
0.7430 2.3809 0.8772
0.6575 2.4031 0.8855
0.5714 2.4222 0.8939
0.4846 2.4382 0.9023
0.3972 2.4510 0.9107
0.3095 2.4606 0.9192
0.2215 2.4671 0.9277
0.1333 2.4704 0.9362
0.0450 2.4704 0.9448
-0.0432 2.4673 0.9533
-0.1313 2.4609 0.9618
-0.2191 2.4514 0.9702
-0.3065 2.4387 0.9787
-0.3933 2.4228 0.9870
-0.4796 2.4038 0.9953
-0.5651 2.3817 1.0035
-0.6497 2.3565 1.0117
-0.7334 2.3282 1.0197
-0.8160 2.2969 1.0277
-2.0585 5.1900 2.3751
-2.2258 5.0670 2.3751
-2.3878 4.9401 2.3751
-2.5445 4.8092 2.3751
-2.6959 4.6747 2.3751
-2.8419 4.5368 2.3751
-2.9826 4.3955 2.3751
-3.1179 4.2511 2.3751
-3.2478 4.1038 2.3751
-3.3723 3.9536 2.3751
-3.4915 3.8009 2.3751
-3.6052 3.6457 2.3751
-3.7136 3.4882 2.3751
-3.8167 3.3285 2.3751
-3.9144 3.1667 2.3751
-4.0067 3.0031 2.3751
-4.0938 2.8377 2.3751
-4.1755 2.6706 2.3751
-4.2519 2.5020 2.3751
-4.3230 2.3320 2.3751
-4.3889 2.1608 2.3751
-4.4495 1.9883 2.3751
-4.5048 1.8148 2.3751
-4.5550 1.6404 2.3751
-4.5999 1.4651 2.3751
-4.6396 1.2890 2.3751
-4.6741 1.1123 2.3751
-4.7034 0.9347 2.3751
-4.7276 0.7569 2.3751
-4.7465 0.5789 2.3751
-4.7604 0.4002 2.3751
-4.7690 0.2216 2.3751
-4.7725 0.0430 2.3751
-4.7708 -0.1356 2.3751
-4.7640 -0.3144 2.3751
-4.7520 -0.4929 2.3751
-4.7349 -0.6711 2.3751
-4.7126 -0.8489 2.3751
-4.6852 -1.0262 2.3751
-4.6525 -1.2030 2.3751
-4.6147 -1.3792 2.3751
-4.5717 -1.5546 2.3751
-4.5236 -1.7291 2.3751
-4.4702 -1.9027 2.3751
-4.4116 -2.0752 2.3751
-4.3477 -2.2466 2.3751
-4.2787 -2.4167 2.3751
-4.2043 -2.5854 2.3751
-4.1248 -2.7526 2.3751
-4.0399 -2.9181 2.3751
-3.9498 -3.0820 2.3751
-3.8543 -3.2440 2.3751
-3.7536 -3.4039 2.3751
-3.6475 -3.5618 2.3751
-3.5361 -3.7173 2.3751
-3.4194 -3.8705 2.3751
-3.2973 -4.0211 2.3751
-3.1699 -4.1689 2.3751
-3.0372 -4.3139 2.3751
-2.8991 -4.4558 2.3751
-2.7557 -4.5946 2.3751
-2.6070 -4.7299 2.3751
-2.4530 -4.8616 2.3751
-2.2937 -4.9896 2.3751
-2.1291 -5.1136 2.3751
-1.9594 -5.2334 2.3751
-1.7845 -5.3489 2.3751
-1.6045 -5.4598 2.3751
-1.4194 -5.5658 2.3751
-1.2293 -5.6669 2.3751
-1.0343 -5.7627 2.3751
-0.8345 -5.8530 2.3751
-0.6299 -5.9376 2.3751
-0.4208 -6.0162 2.3751
-0.2071 -6.0885 2.3751
0.0109 -6.1544 2.3751
0.2331 -6.2135 2.3751
0.4593 -6.2657 2.3751
0.6894 -6.3106 2.3751
0.9231 -6.3479 2.3751
1.1602 -6.3775 2.3751
1.4005 -6.3990 2.3751
1.6436 -6.4123 2.3751
1.8894 -6.4170 2.3751
2.1375 -6.4128 2.3751
2.3876 -6.3997 2.3751
2.6393 -6.3772 2.3751
2.8923 -6.3453 2.3751
3.1462 -6.3036 2.3751
3.4005 -6.2520 2.3751
3.6549 -6.1903 2.3751
3.9088 -6.1184 2.3751
4.1617 -6.0360 2.3751
4.4133 -5.9431 2.3751
4.6628 -5.8396 2.3751
4.9099 -5.7254 2.3751
5.1539 -5.6004 2.3751
5.3943 -5.4647 2.3751
5.6304 -5.3182 2.3751
5.8617 -5.1610 2.3751
6.0876 -4.9932 2.3751
6.3073 -4.8150 2.3751
6.5204 -4.6265 2.3751
6.7262 -4.4279 2.3751
6.9241 -4.2195 2.3751
7.1134 -4.0015 2.3751
7.2935 -3.7744 2.3751
7.4640 -3.5384 2.3751
7.6241 -3.2941 2.3751
7.7734 -3.0419 2.3751
7.9113 -2.7822 2.3751
8.0373 -2.5158 2.3751
8.1511 -2.2430 2.3751
3.6359 -5.6783 2.3751
3.8683 -5.5986 2.3751
4.0991 -5.5092 2.3751
4.3278 -5.4102 2.3751
4.5540 -5.3014 2.3751
4.7771 -5.1828 2.3751
4.9966 -5.0544 2.3751
5.2119 -4.9164 2.3751
5.4227 -4.7687 2.3751
5.6283 -4.6115 2.3751
5.8281 -4.4449 2.3751
6.0217 -4.2690 2.3751
6.2084 -4.0841 2.3751
6.3878 -3.8904 2.3751
6.5593 -3.6883 2.3751
6.7224 -3.4779 2.3751
6.8765 -3.2597 2.3751
7.0213 -3.0340 2.3751
7.1561 -2.8014 2.3751
7.2806 -2.5621 2.3751
7.3944 -2.3168 2.3751
7.4971 -2.0659 2.3751
7.5882 -1.8101 2.3751
7.6675 -1.5498 2.3751
7.7348 -1.2857 2.3751
7.7896 -1.0184 2.3751
7.8320 -0.7486 2.3751
7.8616 -0.4769 2.3751
7.8784 -0.2039 2.3751
7.8823 0.0696 2.3751
7.8734 0.3430 2.3751
7.8516 0.6156 2.3751
7.8170 0.8868 2.3751
7.7697 1.1558 2.3751
7.7099 1.4220 2.3751
7.6379 1.6848 2.3751
7.5538 1.9435 2.3751
7.4580 2.1977 2.3751
7.3508 2.4466 2.3751
7.2326 2.6897 2.3751
7.1037 2.9266 2.3751
6.9647 3.1568 2.3751
6.8159 3.3797 2.3751
6.6578 3.5950 2.3751
6.4910 3.8023 2.3751
6.3159 4.0013 2.3751
6.1330 4.1917 2.3751
5.9430 4.3731 2.3751
5.7464 4.5454 2.3751
5.5436 4.7083 2.3751
5.3353 4.8618 2.3751
5.1220 5.0056 2.3751
4.9042 5.1397 2.3751
4.6825 5.2640 2.3751
4.4574 5.3785 2.3751
4.2294 5.4832 2.3751
3.9991 5.5781 2.3751
3.7668 5.6633 2.3751
3.5331 5.7388 2.3751
3.2985 5.8047 2.3751
3.0633 5.8613 2.3751
2.8281 5.9085 2.3751
0.9369 2.1486 0.8582
0.8597 2.1780 0.8657
0.7815 2.2045 0.8733
0.7024 2.2283 0.8809
0.6224 2.2491 0.8887
0.5418 2.2670 0.8965
0.4605 2.2820 0.9044
0.3788 2.2940 0.9123
0.2967 2.3031 0.9202
0.2143 2.3092 0.9282
0.1317 2.3123 0.9362
0.0491 2.3124 0.9441
-0.0335 2.3094 0.9521
-0.1159 2.3036 0.9601
-0.1981 2.2947 0.9680
-0.2799 2.2828 0.9759
-0.3612 2.2680 0.9837
-0.4419 2.2503 0.9915
-0.5219 2.2296 0.9992
-0.6012 2.2060 1.0068
-0.6795 2.1796 1.0143
-0.7569 2.1504 1.0217
-1.9229 4.8893 2.3751
-2.0815 4.7757 2.3751
-2.2353 4.6580 2.3751
-2.3841 4.5366 2.3751
-2.5280 4.4116 2.3751
-2.6669 4.2831 2.3751
-2.8008 4.1513 2.3751
-2.9297 4.0165 2.3751
-3.0536 3.8787 2.3751
-3.1724 3.7382 2.3751
-3.2861 3.5950 2.3751
-3.3948 3.4493 2.3751
-3.4985 3.3014 2.3751
-3.5970 3.1512 2.3751
-3.6905 2.9990 2.3751
-3.7789 2.8448 2.3751
-3.8623 2.6889 2.3751
-3.9406 2.5313 2.3751
-4.0139 2.3722 2.3751
-4.0822 2.2116 2.3751
-4.1454 2.0497 2.3751
-4.2036 1.8866 2.3751
-4.2568 1.7225 2.3751
-4.3050 1.5573 2.3751
-4.3482 1.3913 2.3751
-4.3864 1.2245 2.3751
-4.4196 1.0570 2.3751
-4.4479 0.8889 2.3751
-4.4711 0.7204 2.3751
-4.4895 0.5514 2.3751
-4.5028 0.3822 2.3751
-4.5112 0.2128 2.3751
-4.5147 0.0433 2.3751
-4.5131 -0.1262 2.3751
-4.5067 -0.2957 2.3751
-4.4953 -0.4649 2.3751
-4.4789 -0.6339 2.3751
-4.4576 -0.8024 2.3751
-4.4313 -0.9706 2.3751
-4.4001 -1.1381 2.3751
-4.3639 -1.3050 2.3751
-4.3227 -1.4712 2.3751
-4.2765 -1.6364 2.3751
-4.2254 -1.8007 2.3751
-4.1693 -1.9640 2.3751
-4.1082 -2.1260 2.3751
-4.0421 -2.2868 2.3751
-3.9709 -2.4462 2.3751
-3.8948 -2.6040 2.3751
-3.8137 -2.7602 2.3751
-3.7275 -2.9147 2.3751
-3.6363 -3.0673 2.3751
-3.5400 -3.2179 2.3751
-3.4388 -3.3663 2.3751
-3.3325 -3.5125 2.3751
-3.2212 -3.6562 2.3751
-3.1048 -3.7974 2.3751
-2.9835 -3.9359 2.3751
-2.8571 -4.0715 2.3751
-2.7258 -4.2041 2.3751
-2.5895 -4.3335 2.3751
-2.4482 -4.4595 2.3751
-2.3020 -4.5820 2.3751
-2.1509 -4.7008 2.3751
-1.9950 -4.8157 2.3751
-1.8342 -4.9266 2.3751
-1.6688 -5.0331 2.3751
