ply
format ascii 1.0
element vertex 2178
property float32 x
property float32 y
property float32 z
end_header
8.8418 -0.7011 -0.8231
8.8680 -0.3830 -0.8211
7.8665 -5.6680 -0.7092
8.0544 -3.1484 -0.6237
8.8463 -0.7535 -0.6230
8.8550 -0.4344 -0.6195
7.8499 -5.5887 -0.7047
8.8417 -0.7027 -0.6220
8.8676 -0.3847 -0.6198
8.1381 -5.4309 -0.4935
8.2585 -5.0920 -0.4882
8.2022 -4.6589 -0.4734
8.0013 -4.1718 -0.4515
7.7565 -3.6958 -0.4285
8.8471 -0.7552 -0.4224
8.8543 -0.4360 -0.4192
8.1631 -5.3810 -0.4929
8.2507 -5.0229 -0.4858
8.1691 -4.5791 -0.4698
7.9715 -4.0990 -0.4483
7.6404 -3.5875 -0.4208
8.8415 -0.7043 -0.4216
8.8671 -0.3863 -0.4192
8.8478 -0.7568 -0.2222
8.8414 -0.7059 -0.2216
8.8486 -0.7585 -0.0222
8.8412 -0.7075 -0.0218
8.8493 -0.7602 0.1778
8.8411 -0.7091 0.1780
5.5168 -8.2941 0.3921
5.5799 -7.7688 0.3761
5.6133 -7.2507 0.3603
6.0999 -7.3203 0.3743
6.0181 -6.7163 0.3543
6.4099 -6.6563 0.3632
6.5165 -6.2978 0.3564
6.6204 -5.9535 0.3506
6.8666 -5.3356 0.3436
6.8629 -4.9479 0.3351
7.2221 -3.7690 0.3267
7.5888 -3.6198 0.3385
7.7286 -2.4026 0.3321
8.4253 -2.2908 0.3603
8.3864 -1.9597 0.3574
8.2665 -1.6210 0.3517
8.2308 -1.3090 0.3501
8.3507 -1.0221 0.3557
8.3173 -0.7160 0.3553
8.7977 -0.4398 0.3775
5.4917 -8.1559 0.3870
5.6332 -7.7501 0.3767
5.9362 -7.5789 0.3782
6.0810 -7.2142 0.3706
6.2960 -6.0162 0.3426
6.7746 -5.6009 0.3468
6.8901 -5.2916 0.3434
6.8776 -4.8996 0.3346
7.6194 -3.5817 0.3392
8.3002 -1.8901 0.3536
8.2107 -1.2582 0.3493
8.3948 -0.9793 0.3577
8.2515 -0.6633 0.3527
8.8034 -0.3902 0.3781
4.9165 -8.6839 0.6194
5.0907 -8.2832 0.6028
5.3162 -7.9919 0.5946
5.5080 -7.6683 0.5844
5.5635 -7.1862 0.5623
5.7964 -6.9561 0.5601
5.9262 -6.6138 0.5494
6.1036 -6.3384 0.5445
5.9074 -5.7094 0.5086
6.0977 -5.4839 0.5081
6.2942 -5.2644 0.5089
6.4738 -5.0309 0.5091
6.6345 -4.7839 0.5086
6.7848 -4.5312 0.5082
6.7586 -4.1708 0.4956
6.8439 -3.8914 0.4924
6.9811 -3.6441 0.4936
7.2565 -3.4623 0.5053
7.2030 -3.1244 0.4948
7.2734 -2.8492 0.4937
7.2562 -2.5460 0.4876
7.3648 -2.2906 0.4907
7.8989 -2.1489 0.5226
7.7549 -1.8134 0.5104
7.7717 -1.5253 0.5095
7.7889 -1.2400 0.5095
7.9582 -0.9755 0.5201
8.0315 -0.6928 0.5252
8.0551 -0.4042 0.5278
8.1767 -0.1163 0.5377
4.9632 -8.6518 0.6190
5.0869 -8.1729 0.5967
5.2632 -7.8160 0.5836
5.4746 -7.5315 0.5763
5.6016 -7.1515 0.5620
5.8157 -6.8995 0.5582
5.9591 -6.5753 0.5490
6.1046 -6.2681 0.5415
5.9607 -5.6960 0.5105
6.1165 -5.4385 0.5072
6.3319 -5.2354 0.5096
6.4836 -4.9800 0.5077
6.6026 -4.7043 0.5042
6.8133 -4.4947 0.5086
6.7932 -4.1393 0.4966
7.0062 -3.9313 0.5026
7.0094 -3.6086 0.4944
7.1858 -3.3787 0.4992
7.2917 -3.1140 0.4999
7.2089 -2.7770 0.4885
7.3061 -2.5171 0.4902
7.3889 -2.2523 0.4917
7.8499 -2.0879 0.5189
7.7890 -1.7749 0.5123
7.7115 -1.4682 0.5053
7.8270 -1.2007 0.5118
7.9489 -0.9287 0.5195
7.9834 -0.6432 0.5222
8.0222 -0.3571 0.5259
8.2011 -0.0702 0.5396
5.0820 -8.2683 0.8215
5.2317 -7.8645 0.7990
5.5073 -7.6669 0.7981
5.5831 -7.2114 0.7708
5.7517 -6.9024 0.7592
5.8858 -6.5688 0.7453
6.0318 -6.2640 0.7350
5.9239 -5.7257 0.6966
5.9919 -5.3891 0.6818
6.2166 -5.2000 0.6861
6.4240 -4.9927 0.6894
6.6161 -4.7712 0.6919
6.7537 -4.5111 0.6898
6.6849 -4.1261 0.6681
6.8266 -3.8823 0.6690
7.0119 -3.6611 0.6750
7.1076 -3.3921 0.6733
7.1248 -3.0914 0.6653
7.2380 -2.8364 0.6674
7.2154 -2.5327 0.6581
7.2476 -2.2552 0.6548
7.8746 -2.1435 0.7059
7.8347 -1.8333 0.6979
7.6985 -1.5122 0.6824
7.7334 -1.2325 0.6832
7.9416 -0.9748 0.7003
7.9158 -0.6843 0.6976
7.9377 -0.3998 0.7002
7.9971 -0.1153 0.7070
5.0854 -8.1699 0.8144
5.2984 -7.8678 0.8023
5.5078 -7.5768 0.7919
5.5823 -7.1267 0.7651
5.7801 -6.8572 0.7578
5.9152 -6.5270 0.7444
6.0181 -6.1794 0.7291
5.8704 -5.6101 0.6866
6.0142 -5.3479 0.6809
6.2457 -5.1646 0.6862
6.4491 -4.9540 0.6892
6.6379 -4.7301 0.6915
6.7480 -4.4523 0.6868
6.7322 -4.1029 0.6707
6.8633 -3.8519 0.6706
6.9484 -3.5780 0.6671
7.0751 -3.3276 0.6686
7.1384 -3.0495 0.6652
7.2452 -2.7920 0.6669
7.2422 -2.4962 0.6595
7.2802 -2.2203 0.6569
7.8397 -2.0865 0.7020
7.6903 -1.7537 0.6844
7.6559 -1.4589 0.6782
7.7260 -1.1866 0.6823
7.8796 -0.9220 0.6947
7.8699 -0.6355 0.6936
8.0210 -0.3585 0.7077
8.0310 -0.0703 0.7104
5.0774 -8.2600 1.0410
5.2732 -7.9262 1.0216
5.4606 -7.6016 1.0040
5.6087 -7.2443 0.9825
5.7005 -6.8409 0.9549
5.8561 -6.5357 0.9410
5.9620 -6.1917 0.9219
5.9742 -5.7745 0.8914
6.0371 -5.4301 0.8715
6.3214 -5.2881 0.8851
6.3640 -4.9467 0.8662
6.5206 -4.7029 0.8647
6.7331 -4.4980 0.8718
6.7155 -4.1457 0.8506
6.8469 -3.8946 0.8501
6.9844 -3.6475 0.8515
7.1231 -3.4004 0.8542
7.1474 -3.1022 0.8446
7.1274 -2.7940 0.8313
7.2441 -2.5438 0.8353
7.2709 -2.2636 0.8301
7.7006 -2.0974 0.8718
7.6910 -1.8009 0.8647
7.6639 -1.5067 0.8570
7.7160 -1.2311 0.8594
7.8983 -0.9709 0.8774
7.9431 -0.6881 0.8814
8.0314 -0.4060 0.8913
8.0677 -0.1179 0.8968
5.1256 -8.2337 1.0413
5.2874 -7.8510 1.0157
5.5086 -7.5776 1.0049
5.6018 -7.1514 0.9742
5.7280 -6.7954 0.9530
5.9462 -6.5612 0.9495
5.9689 -6.1292 0.9176
5.9430 -5.6798 0.8820
6.0404 -5.3716 0.8676
6.3526 -5.2534 0.8853
6.4725 -4.9725 0.8772
6.6259 -4.7222 0.8752
6.7445 -4.4507 0.8701
6.7643 -4.1232 0.8540
6.8736 -3.8586 0.8508
6.9221 -3.5654 0.8416
7.1109 -3.3454 0.8507
7.1753 -3.0662 0.8461
7.1777 -2.7670 0.8356
7.2591 -2.5031 0.8356
7.2829 -2.2222 0.8303
7.8982 -2.1033 0.8931
7.6647 -1.7491 0.8609
7.6052 -1.4505 0.8498
7.7255 -1.1879 0.8600
7.9073 -0.9267 0.8782
7.9300 -0.6418 0.8799
7.9941 -0.3588 0.8874
8.1253 -0.0728 0.9035
5.0283 -8.1795 1.2502
5.2652 -7.9136 1.2371
5.3937 -7.5081 1.2028
5.5230 -7.1333 1.1735
5.7527 -6.9034 1.1688
5.9050 -6.5904 1.1510
6.0146 -6.2465 1.1280
5.9394 -5.7412 1.0749
5.9545 -5.3562 1.0425
6.3619 -5.3224 1.0802
6.4322 -5.0002 1.0616
6.5656 -4.7360 1.0556
6.6593 -4.4494 1.0452
6.7358 -4.1590 1.0341
6.8393 -3.8911 1.0289
6.9726 -3.6423 1.0298
7.0508 -3.3668 1.0241
7.1789 -3.1168 1.0272
7.1879 -2.8188 1.0148
7.2213 -2.5369 1.0075
7.2771 -2.2666 1.0050
7.6375 -2.0814 1.0455
7.7612 -1.8186 1.0548
7.6555 -1.5063 1.0344
7.6888 -1.2281 1.0343
7.9532 -0.9791 1.0667
7.9073 -0.6865 1.0588
7.9693 -0.4044 1.0669
8.1551 -0.1208 1.0930
5.0774 -8.1556 1.2508
5.2733 -7.8295 1.2285
5.4743 -7.5302 1.2112
5.5523 -7.0881 1.1712
5.7462 -6.8169 1.1596
5.9283 -6.5416 1.1483
6.0437 -6.2062 1.1270
5.9189 -5.6570 1.0654
6.0264 -5.3596 1.0499
6.3699 -5.2682 1.0766
6.3962 -4.9144 1.0512
6.5853 -4.6939 1.0546
6.7020 -4.4233 1.0481
6.7316 -4.1040 1.0300
6.8696 -3.8571 1.0303
6.9681 -3.5899 1.0263
7.1378 -3.3590 1.0342
7.1589 -3.0602 1.0220
7.1399 -2.7535 1.0060
7.1573 -2.4690 0.9969
7.2882 -2.2250 1.0050
7.8075 -2.0803 1.0675
7.6703 -1.7516 1.0414
7.6737 -1.4649 1.0360
7.7071 -1.1864 1.0362
7.9691 -0.9354 1.0684
7.9887 -0.6481 1.0696
7.9607 -0.3589 1.0658
8.1805 -0.0749 1.0967
5.0597 -8.2297 1.4798
5.2320 -7.8632 1.4462
5.4530 -7.5904 1.4307
5.4976 -7.1004 1.3744
5.7324 -6.8791 1.3704
5.8466 -6.5253 1.3409
6.0512 -6.2847 1.3354
5.8894 -5.6932 1.2540
6.0499 -5.4424 1.2462
6.2531 -5.2319 1.2491
6.3350 -4.9252 1.2300
6.5349 -4.7145 1.2359
6.7143 -4.4868 1.2394
6.7337 -4.1584 1.2156
6.8272 -3.8850 1.2076
6.8898 -3.5999 1.1962
7.0826 -3.3829 1.2091
7.1880 -3.1218 1.2086
7.2307 -2.8366 1.1994
7.2056 -2.5324 1.1809
7.2612 -2.2628 1.1776
7.5504 -2.0588 1.2135
7.7063 -1.8070 1.2293
7.6420 -1.5049 1.2116
7.6926 -1.2300 1.2139
7.8945 -0.9733 1.2417
8.0063 -0.6966 1.2569
8.0062 -0.4078 1.2562
8.1572 -0.1224 1.2809
5.0917 -8.1779 1.4756
5.3027 -7.8727 1.4534
5.4845 -7.5438 1.4277
5.5392 -7.0712 1.3748
5.7672 -6.8418 1.3694
5.9204 -6.5330 1.3493
6.0101 -6.1718 1.3186
5.9278 -5.6658 1.2554
6.1234 -5.4462 1.2550
6.2707 -5.1866 1.2468
6.3621 -4.8888 1.2299
6.5503 -4.6695 1.2339
6.7459 -4.4530 1.2407
6.6757 -4.0707 1.2011
6.8376 -3.8399 1.2058
6.9083 -3.5600 1.1961
7.0735 -3.3297 1.2045
7.1405 -3.0533 1.1979
7.2200 -2.7854 1.1952
7.1650 -2.4727 1.1722
7.2944 -2.2280 1.1812
7.5710 -2.0185 1.2153
7.6811 -1.7554 1.2240
7.6741 -1.4662 1.2157
7.8316 -1.2069 1.2351
7.8162 -0.9188 1.2289
7.9848 -0.6492 1.2533
8.0270 -0.3634 1.2595
8.1831 -0.0765 1.2852
5.1094 -8.3098 1.7199
5.2708 -7.9210 1.6770
5.4292 -7.5568 1.6397
5.5891 -7.2184 1.6084
5.7336 -6.8805 1.5779
5.8316 -6.5086 1.5396
6.0956 -6.3310 1.5485
5.9411 -5.7434 1.4562
6.0855 -5.4748 1.4429
6.2478 -5.2279 1.4365
6.4064 -4.9813 1.4316
6.5420 -4.7203 1.4239
6.6737 -4.4604 1.4177
6.7121 -4.1458 1.3943
6.7856 -3.8622 1.3810
6.9422 -3.6281 1.3866
7.0740 -3.3798 1.3891
7.1159 -3.0914 1.3761
7.2296 -2.8372 1.3790
7.1974 -2.5306 1.3562
7.2943 -2.2742 1.3599
7.6066 -2.0754 1.4051
7.6414 -1.7931 1.4007
7.6212 -1.5022 1.3882
7.6916 -1.2312 1.3942
7.8501 -0.9693 1.4179
7.9566 -0.6937 1.4340
7.9807 -0.4081 1.4372
8.1369 -0.1237 1.4662
5.1410 -8.2563 1.7147
5.3143 -7.8893 1.6765
5.4776 -7.5340 1.6413
5.6053 -7.1554 1.6014
5.7476 -6.8185 1.5711
5.8895 -6.4989 1.5452
6.0945 -6.2588 1.5392
5.9862 -5.7219 1.4594
6.0772 -5.4055 1.4338
6.2315 -5.1547 1.4261
6.3420 -4.8739 1.4111
6.5841 -4.6943 1.4274
6.7114 -4.4309 1.4205
6.7372 -4.1089 1.3948
6.8186 -3.8301 1.3834
6.9767 -3.5961 1.3896
7.0682 -3.3281 1.3845
7.1469 -3.0570 1.3789
7.2287 -2.7898 1.3760
7.2087 -2.4889 1.3559
7.3494 -2.2459 1.3680
7.8297 -2.0888 1.4444
7.6513 -1.7498 1.4010
7.6449 -1.4620 1.3913
7.7653 -1.1981 1.4066
7.8875 -0.9286 1.4240
8.0161 -0.6533 1.4444
8.0127 -0.3643 1.4430
8.1372 -0.0777 1.4665
5.0948 -8.2853 1.9417
5.2998 -7.9641 1.9092
5.4846 -7.6336 1.8755
5.5895 -7.2186 1.8214
5.7197 -6.8638 1.7823
5.8413 -6.5195 1.7463
6.1308 -6.3678 1.7636
5.9292 -5.7322 1.6456
6.1042 -5.4920 1.6389
6.2727 -5.2492 1.6330
6.3787 -4.9603 1.6139
6.5538 -4.7294 1.6150
6.6694 -4.4582 1.6039
6.7776 -4.1870 1.5937
6.8341 -3.8906 1.5743
6.9417 -3.6287 1.5693
7.0000 -3.3454 1.5556
7.1848 -3.1224 1.5722
7.1601 -2.8110 1.5452
7.1969 -2.5315 1.5341
7.3025 -2.2779 1.5399
7.6697 -2.0938 1.6023
7.6239 -1.7902 1.5803
7.6224 -1.5037 1.5698
7.7261 -1.2381 1.5831
7.9896 -0.9879 1.6310
7.9559 -0.6952 1.6204
7.9992 -0.4106 1.6276
8.1350 -0.1253 1.6558
5.1276 -8.2340 1.9363
5.3088 -7.8806 1.8963
5.4935 -7.5555 1.8639
5.6004 -7.1489 1.8117
5.6894 -6.7495 1.7610
5.9148 -6.5270 1.7572
6.0322 -6.1950 1.7251
5.9566 -5.6940 1.6443
6.1362 -5.4584 1.6392
6.3315 -5.2379 1.6407
6.3820 -4.9052 1.6078
6.5917 -4.7003 1.6179
6.6476 -4.3895 1.5928
6.7904 -4.1422 1.5914
6.8380 -3.8418 1.5703
6.9368 -3.5764 1.5638
7.1392 -3.3625 1.5825
7.2207 -3.0896 1.5764
7.1857 -2.7742 1.5476
7.2164 -2.4926 1.5355
7.2939 -2.2301 1.5357
7.6994 -2.0553 1.6064
7.6385 -1.7482 1.5815
7.6168 -1.4579 1.5672
7.7286 -1.1938 1.5825
7.9852 -0.9416 1.6294
7.9420 -0.6487 1.6171
7.9984 -0.3652 1.6274
8.1300 -0.0793 1.6551
5.1094 -8.3082 2.1766
5.3321 -8.0120 2.1471
5.4851 -7.6339 2.0968
5.5420 -7.1572 2.0189
5.7711 -6.9253 2.0104
5.8745 -6.5566 1.9633
6.1414 -6.3790 1.9749
6.0531 -5.8522 1.8781
6.1098 -5.4974 1.8338
6.3063 -5.2778 1.8353
6.3829 -4.9641 1.8053
6.5253 -4.7095 1.7974
6.7051 -4.4828 1.8024
6.7372 -4.1629 1.7707
6.8277 -3.8878 1.7578
6.8967 -3.6061 1.7423
7.0565 -3.3733 1.7523
7.2721 -3.1613 1.7780
7.2058 -2.8299 1.7374
7.1953 -2.5320 1.7134
7.2806 -2.2722 1.7149
7.6533 -2.0906 1.7858
7.6162 -1.7897 1.7630
7.6694 -1.5143 1.7636
7.7308 -1.2403 1.7685
8.0409 -0.9958 1.8324
8.0167 -0.7020 1.8223
8.0192 -0.4132 1.8209
8.1133 -0.1266 1.8426
-5.2492 8.1647 2.3974
-5.5388 7.9686 2.3974
-5.8214 7.7628 2.3974
-6.0968 7.5474 2.3974
-6.3647 7.3227 2.3974
-6.6247 7.0890 2.3974
-6.8765 6.8464 2.3974
-7.1199 6.5954 2.3974
-7.3546 6.3361 2.3974
5.1276 -8.2333 2.1644
5.3570 -7.9517 2.1390
5.5288 -7.6037 2.0970
5.5715 -7.1119 2.0149
5.7878 -6.8662 2.0027
5.9376 -6.5522 1.9720
6.0647 -6.2286 1.9390
6.0129 -5.7481 1.8556
6.1400 -5.4622 1.8336
6.3378 -5.2436 1.8359
6.4191 -4.9343 1.8077
6.5707 -4.6860 1.8027
6.7027 -4.4266 1.7951
6.7549 -4.1213 1.7694
6.8343 -3.8406 1.7541
6.9209 -3.5691 1.7435
7.1280 -3.3582 1.7656
7.2404 -3.0990 1.7662
7.2156 -2.7868 1.7362
7.2160 -2.4936 1.7152
7.2814 -2.2274 1.7124
7.6758 -2.0502 1.7886
7.6142 -1.7439 1.7605
7.6823 -1.4718 1.7650
7.7345 -1.1961 1.7681
8.0251 -0.9478 1.8279
8.0414 -0.6584 1.8275
8.0792 -0.3705 1.8344
8.3276 -0.0829 1.8915
-5.2953 8.1344 2.3974
-5.5838 7.9368 2.3974
-5.8653 7.7294 2.3974
-6.1395 7.5126 2.3974
-6.4062 7.2865 2.3974
-6.6649 7.0513 2.3974
-6.9154 6.8075 2.3974
-7.1575 6.5551 2.3974
-7.3908 6.2945 2.3974
-8.1583 -4.1603 2.3974
-8.0165 -4.4581 2.3974
-7.8641 -4.7512 2.3974
-7.7010 -5.0392 2.3974
-7.5275 -5.3216 2.3974
-7.3438 -5.5980 2.3974
-7.1499 -5.8682 2.3974
-6.9462 -6.1316 2.3974
-6.7328 -6.3880 2.3974
-6.5100 -6.6369 2.3974
-6.2781 -6.8780 2.3974
-6.0372 -7.1110 2.3974
-5.7876 -7.3355 2.3974
-5.5297 -7.5511 2.3974
-5.2638 -7.7576 2.3974
-4.9901 -7.9546 2.3974
-4.7090 -8.1418 2.3974
-4.4209 -8.3189 2.3974
-4.1260 -8.4856 2.3974
-3.8248 -8.6417 2.3974
-3.5177 -8.7869 2.3974
-3.2051 -8.9209 2.3974
-2.8873 -9.0436 2.3974
-2.5647 -9.1546 2.3974
-2.2379 -9.2538 2.3974
-1.9072 -9.3411 2.3974
-1.5731 -9.4162 2.3974
-1.2361 -9.4789 2.3974
-0.8965 -9.5293 2.3974
-0.5550 -9.5670 2.3974
-0.2119 -9.5921 2.3974
0.1322 -9.6045 2.3974
0.4770 -9.6041 2.3974
0.8218 -9.5908 2.3974
1.1661 -9.5647 2.3974
1.5096 -9.5257 2.3974
1.8027 -9.2235 2.3340
2.0525 -8.8112 2.2450
2.3688 -8.7388 2.2450
2.6823 -8.6546 2.2450
2.9927 -8.5586 2.2450
3.2995 -8.4510 2.2450
3.6021 -8.3319 2.2450
3.9002 -8.2015 2.2450
4.1934 -8.0600 2.2450
4.4811 -7.9075 2.2450
4.7630 -7.7442 2.2450
5.0386 -7.5704 2.2450
5.3075 -7.3864 2.2450
5.5694 -7.1923 2.2450
5.7926 -6.9511 2.2329
5.8843 -6.5677 2.1762
6.1913 -6.4310 2.2032
6.0534 -5.8529 2.0784
6.1098 -5.4978 2.0292
6.2540 -5.2345 2.0140
6.3616 -4.9481 1.9909
6.5088 -4.6982 1.9837
6.6717 -4.4611 1.9842
6.7118 -4.1479 1.9516
6.8051 -3.8758 1.9382
7.0026 -3.6624 1.9571
7.0473 -3.3699 1.9358
7.2521 -3.1537 1.9612
7.2742 -2.8579 1.9398
7.2609 -2.5563 1.9122
7.4006 -2.3109 1.9277
7.6710 -2.0967 1.9791
7.6573 -1.8006 1.9597
7.6849 -1.5187 1.9536
7.7878 -1.2508 1.9693
8.0003 -0.9922 2.0150
8.0616 -0.7075 2.0252
8.1344 -0.4207 2.0409
8.2515 -0.1305 2.0704
8.9346 0.1792 2.2450
8.9103 0.4988 2.2450
8.8743 0.8170 2.2450
8.8266 1.1331 2.2450
8.7674 1.4469 2.2450
8.6969 1.7578 2.2450
8.6151 2.0656 2.2450
9.1008 2.5306 2.3974
8.9900 2.8510 2.3974
8.8678 3.1668 2.3974
8.7343 3.4774 2.3974
8.5899 3.7825 2.3974
8.4347 4.0817 2.3974
8.2690 4.3746 2.3974
8.0931 4.6609 2.3974
7.9072 4.9402 2.3974
7.7117 5.2122 2.3974
7.5068 5.4766 2.3974
7.2929 5.7330 2.3974
7.0703 5.9812 2.3974
6.8393 6.2208 2.3974
6.6002 6.4517 2.3974
6.3534 6.6735 2.3974
6.0993 6.8860 2.3974
5.8382 7.0890 2.3974
5.5704 7.2823 2.3974
5.2964 7.4656 2.3974
5.0164 7.6389 2.3974
4.7309 7.8019 2.3974
4.4403 7.9545 2.3974
4.1449 8.0964 2.3974
3.8451 8.2277 2.3974
3.5415 8.3480 2.3974
3.2340 8.4577 2.3974
2.9233 8.5563 2.3974
2.6099 8.6438 2.3974
0.9304 3.5368 0.9723
0.8026 3.5681 0.9737
0.6736 3.5948 0.9750
0.5438 3.6168 0.9763
0.4133 3.6341 0.9775
0.2822 3.6467 0.9786
0.1507 3.6545 0.9798
0.0190 3.6576 0.9808
-0.1127 3.6558 0.9818
-0.2443 3.6493 0.9828
-0.3756 3.6381 0.9837
-0.5063 3.6220 0.9846
-0.6365 3.6013 0.9854
-0.7657 3.5758 0.9861
-2.1719 8.6142 2.3974
-2.4791 8.5244 2.3974
-2.7828 8.4241 2.3974
-3.0827 8.3135 2.3974
-3.3785 8.1926 2.3974
-3.6697 8.0617 2.3974
-3.9562 7.9209 2.3974
-4.2375 7.7704 2.3974
-4.5133 7.6103 2.3974
-4.7835 7.4409 2.3974
-5.0475 7.2623 2.3974
-5.3052 7.0747 2.3974
-5.5563 6.8784 2.3974
-5.8005 6.6736 2.3974
-6.0375 6.4605 2.3974
-6.2670 6.2393 2.3974
-6.4888 6.0104 2.3974
-6.7027 5.7739 2.3974
-6.9083 5.5302 2.3974
-7.1054 5.2794 2.3974
-7.2939 5.0219 2.3974
-7.4734 4.7579 2.3974
-7.6439 4.4878 2.3974
-7.8050 4.2118 2.3974
-7.9565 3.9303 2.3974
-8.0984 3.6435 2.3974
-8.2303 3.3518 2.3974
-8.3522 3.0556 2.3974
-8.4638 2.7550 2.3974
-8.5651 2.4505 2.3974
-8.6558 2.1424 2.3974
-8.7358 1.8311 2.3974
-8.8051 1.5168 2.3974
-8.8635 1.2000 2.3974
-8.9109 0.8811 2.3974
-8.9472 0.5604 2.3974
-8.9723 0.2382 2.3974
-8.9862 -0.0851 2.3974
-8.9888 -0.4090 2.3974
-8.9802 -0.7332 2.3974
-8.9601 -1.0574 2.3974
-8.9286 -1.3810 2.3974
-8.8858 -1.7038 2.3974
-8.8315 -2.0254 2.3974
-8.7660 -2.3452 2.3974
-8.6891 -2.6631 2.3974
-8.6009 -2.9784 2.3974
-8.5015 -3.2910 2.3974
-8.3909 -3.6002 2.3974
-8.2693 -3.9059 2.3974
-8.1367 -4.2075 2.3974
-7.9932 -4.5046 2.3974
-7.8391 -4.7970 2.3974
-7.6744 -5.0841 2.3974
-7.4993 -5.3655 2.3974
-7.3139 -5.6410 2.3974
-7.1185 -5.9101 2.3974
-6.9132 -6.1725 2.3974
-6.6984 -6.4277 2.3974
-6.4741 -6.6754 2.3974
-6.2407 -6.9153 2.3974
-5.9984 -7.1469 2.3974
-5.7475 -7.3700 2.3974
-5.4883 -7.5842 2.3974
-5.2212 -7.7892 2.3974
-4.9463 -7.9847 2.3974
-4.6641 -8.1703 2.3974
-4.3748 -8.3458 2.3974
-4.0790 -8.5109 2.3974
-3.7769 -8.6653 2.3974
-3.4688 -8.8088 2.3974
-3.1553 -8.9410 2.3974
-2.8368 -9.0618 2.3974
-2.5135 -9.1710 2.3974
-2.1861 -9.2684 2.3974
-1.8548 -9.3537 2.3974
-1.5202 -9.4269 2.3974
-1.1828 -9.4877 2.3974
-0.8429 -9.5360 2.3974
-0.5011 -9.5718 2.3974
-0.1578 -9.5949 2.3974
0.1865 -9.6053 2.3974
0.5313 -9.6028 2.3974
0.8761 -9.5875 2.3974
1.2203 -9.5594 2.3974
1.5636 -9.5184 2.3974
1.8398 -9.1388 2.3148
2.1025 -8.8006 2.2450
2.4184 -8.7263 2.2450
2.7315 -8.6402 2.2450
3.0413 -8.5424 2.2450
3.3474 -8.4330 2.2450
3.6494 -8.3121 2.2450
3.9468 -8.1799 2.2450
4.2391 -8.0367 2.2450
4.5259 -7.8825 2.2450
4.8068 -7.7175 2.2450
5.0814 -7.5421 2.2450
5.3492 -7.3565 2.2450
5.5994 -7.1473 2.2407
5.8059 -6.8877 2.2230
5.9423 -6.5575 2.1839
6.1316 -6.2975 2.1693
6.0657 -5.7989 2.0714
6.1615 -5.4817 2.0361
6.2773 -5.1941 2.0121
6.3818 -4.9062 1.9886
6.5979 -4.7061 2.0029
6.7496 -4.4583 2.0000
6.7427 -4.1146 1.9540
6.8172 -3.8318 1.9357
7.0103 -3.6161 1.9537
7.1691 -3.3785 1.9643
7.2572 -3.1073 1.9581
7.2316 -2.7941 1.9245
7.2722 -2.5142 1.9117
7.4164 -2.2699 1.9287
7.7043 -2.0591 1.9850
7.6808 -1.7605 1.9634
7.6993 -1.4764 1.9554
7.8145 -1.2099 1.9746
8.0065 -0.9471 2.0156
8.1389 -0.6679 2.0440
8.1708 -0.3763 2.0499
8.5395 -0.0867 2.1430
8.9315 0.2297 2.2450
8.9054 0.5491 2.2450
8.8675 0.8669 2.2450
8.8180 1.1827 2.2450
8.7571 1.4961 2.2450
8.6848 1.8066 2.2450
8.6012 2.1138 2.2450
9.0841 2.5814 2.3974
8.9715 2.9011 2.3974
8.8475 3.2161 2.3974
8.7123 3.5259 2.3974
8.5661 3.8301 2.3974
8.4093 4.1283 2.3974
8.2419 4.4202 2.3974
8.0644 4.7054 2.3974
7.8770 4.9836 2.3974
7.6800 5.2544 2.3974
7.4737 5.5175 2.3974
7.2584 5.7727 2.3974
7.0344 6.0195 2.3974
6.8021 6.2578 2.3974
6.5618 6.4872 2.3974
6.3139 6.7076 2.3974
6.0586 6.9186 2.3974
5.7964 7.1201 2.3974
5.5276 7.3118 2.3974
5.2526 7.4936 2.3974
4.9718 7.6653 2.3974
4.6855 7.8266 2.3974
4.3941 7.9775 2.3974
4.0980 8.1178 2.3974
3.7975 8.2475 2.3974
3.4931 8.3662 2.3974
3.1852 8.4740 2.3974
2.8742 8.5707 2.3974
2.5603 8.6565 2.3974
0.9103 3.5420 0.9726
0.7823 3.5726 0.9739
0.6532 3.5986 0.9752
0.5233 3.6199 0.9764
0.3926 3.6364 0.9777
0.2615 3.6483 0.9788
0.1299 3.6553 0.9799
-0.0018 3.6576 0.9810
-0.1335 3.6551 0.9820
-0.2650 3.6479 0.9829
-0.3962 3.6358 0.9839
-0.5269 3.6191 0.9847
-0.6569 3.5976 0.9855
-0.7860 3.5714 0.9862
-2.2205 8.6007 2.3974
-2.5272 8.5093 2.3974
-2.8303 8.4074 2.3974
-3.1296 8.2951 2.3974
-3.4247 8.1727 2.3974
-3.7152 8.0402 2.3974
-4.0008 7.8978 2.3974
-4.2813 7.7458 2.3974
-4.5563 7.5842 2.3974
-4.8255 7.4133 2.3974
-5.0886 7.2333 2.3974
-5.3453 7.0443 2.3974
-5.5953 6.8467 2.3974
-5.8383 6.6406 2.3974
-6.0742 6.4262 2.3974
-6.3025 6.2038 2.3974
-6.5231 5.9736 2.3974
-6.7356 5.7360 2.3974
-6.9399 5.4911 2.3974
-7.1357 5.2392 2.3974
-7.3228 4.9807 2.3974
-7.5009 4.7158 2.3974
-7.6699 4.4447 2.3974
-7.8295 4.1678 2.3974
-7.9795 3.8855 2.3974
-8.1198 3.5979 2.3974
-8.2502 3.3055 2.3974
-8.3705 3.0085 2.3974
-8.4805 2.7073 2.3974
-8.5801 2.4022 2.3974
-8.6691 2.0935 2.3974
-8.7475 1.7817 2.3974
-8.8150 1.4671 2.3974
-8.8717 1.1499 2.3974
-8.9174 0.8307 2.3974
-8.9519 0.5097 2.3974
-7.4667 -3.8101 2.3974
-7.3360 -4.0823 2.3974
-7.1955 -4.3500 2.3974
-7.0453 -4.6129 2.3974
-6.8856 -4.8706 2.3974
-6.7166 -5.1229 2.3974
-6.5384 -5.3693 2.3974
-6.3512 -5.6095 2.3974
-6.1552 -5.8432 2.3974
-5.9507 -6.0700 2.3974
-5.7378 -6.2896 2.3974
-5.5168 -6.5017 2.3974
-5.2880 -6.7060 2.3974
-5.0516 -6.9021 2.3974
-4.8079 -7.0899 2.3974
-4.5573 -7.2689 2.3974
-4.2999 -7.4389 2.3974
-4.0362 -7.5997 2.3974
-3.7664 -7.7510 2.3974
-3.4909 -7.8925 2.3974
-3.2101 -8.0241 2.3974
-2.9243 -8.1455 2.3974
-2.6338 -8.2564 2.3974
-2.3392 -8.3568 2.3974
-2.0406 -8.4464 2.3974
-1.7387 -8.5250 2.3974
-1.4337 -8.5926 2.3974
-1.1261 -8.6489 2.3974
-0.8162 -8.6939 2.3974
-0.5046 -8.7275 2.3974
-0.1917 -8.7495 2.3974
0.1221 -8.7600 2.3974
0.4364 -8.7588 2.3974
0.7508 -8.7459 2.3974
1.0647 -8.7214 2.3974
1.3777 -8.6852 2.3974
1.6894 -8.6373 2.3974
1.9993 -8.5779 2.3974
2.2184 -8.1803 2.3053
2.4459 -7.8888 2.2450
2.7287 -7.8009 2.2450
3.0081 -7.7025 2.2450
3.2837 -7.5936 2.2450
3.5552 -7.4745 2.2450
3.8221 -7.3453 2.2450
4.0841 -7.2061 2.2450
4.3408 -7.0572 2.2450
4.5918 -6.8987 2.2450
4.8368 -6.7309 2.2450
5.0753 -6.5541 2.2450
5.3070 -6.3684 2.2450
5.5317 -6.1742 2.2450
5.7489 -5.9718 2.2450
5.9583 -5.7613 2.2450
6.1597 -5.5432 2.2450
6.3528 -5.3177 2.2450
6.3543 -4.9430 2.1821
6.6050 -4.7683 2.2089
6.7781 -4.5330 2.2119
6.7382 -4.1650 2.1498
6.8214 -3.8859 2.1317
7.0392 -3.6824 2.1583
7.1575 -3.4235 2.1570
7.3068 -3.1785 2.1677
7.3353 -2.8830 2.1457
7.2697 -2.5605 2.1000
7.4233 -2.3191 2.1207
7.8629 -2.1505 2.2248
7.8022 -1.8361 2.1897
7.5998 -1.5032 2.1184
7.8451 -1.2615 2.1750
8.0709 -1.0025 2.2286
8.1522 -0.7170 2.2450
8.1633 -0.4238 2.2450
8.1636 -0.1308 2.2450
8.1531 0.1618 2.2450
8.1318 0.4535 2.2450
8.0999 0.7438 2.2450
8.0573 1.0325 2.2450
8.0043 1.3190 2.2450
7.9409 1.6030 2.2450
7.8672 1.8842 2.2450
8.3118 2.3090 2.3974
8.2117 2.6019 2.3974
8.1011 2.8906 2.3974
7.9802 3.1748 2.3974
7.8493 3.4539 2.3974
7.7085 3.7278 2.3974
7.5582 3.9960 2.3974
7.3984 4.2582 2.3974
7.2295 4.5141 2.3974
7.0517 4.7634 2.3974
6.8653 5.0057 2.3974
6.6707 5.2409 2.3974
6.4680 5.4686 2.3974
6.2575 5.6885 2.3974
6.0397 5.9005 2.3974
5.8147 6.1042 2.3974
5.5829 6.2995 2.3974
5.3446 6.4861 2.3974
5.1002 6.6639 2.3974
4.8500 6.8326 2.3974
4.5943 6.9921 2.3974
4.3335 7.1423 2.3974
4.0679 7.2827 2.3974
3.7979 7.4137 2.3974
3.5237 7.5349 2.3974
3.2458 7.6462 2.3974
2.9645 7.7475 2.3974
2.6802 7.8386 2.3974
2.3933 7.9197 2.3974
0.8510 3.2319 0.9697
0.7341 3.2605 0.9709
0.6163 3.2849 0.9721
0.4976 3.3050 0.9732
0.3783 3.3208 0.9743
0.2585 3.3322 0.9754
0.1383 3.3393 0.9764
0.0179 3.3421 0.9774
-0.1024 3.3405 0.9783
-0.2227 3.3345 0.9792
-0.3426 3.3242 0.9800
-0.4622 3.3096 0.9808
-0.5811 3.2906 0.9816
-0.6992 3.2673 0.9822
-0.8165 3.2398 0.9829
-2.2734 7.8205 2.3974
-2.5523 7.7289 2.3974
-2.8276 7.6277 2.3974
-3.0992 7.5171 2.3974
-3.3666 7.3973 2.3974
-3.6296 7.2683 2.3974
-3.8879 7.1303 2.3974
-4.1412 6.9835 2.3974
-4.3892 6.8281 2.3974
-4.6317 6.6643 2.3974
-4.8683 6.4922 2.3974
-5.0988 6.3120 2.3974
-5.3229 6.1241 2.3974
-5.5404 5.9284 2.3974
-5.7511 5.7254 2.3974
-5.9546 5.5152 2.3974
-6.1508 5.2980 2.3974
-6.3393 5.0742 2.3974
-6.5201 4.8439 2.3974
-6.6929 4.6074 2.3974
-6.8575 4.3650 2.3974
-7.0136 4.1169 2.3974
-7.1612 3.8635 2.3974
-7.2999 3.6050 2.3974
-7.4297 3.3416 2.3974
-7.5503 3.0738 2.3974
-7.6617 2.8018 2.3974
-7.7636 2.5258 2.3974
-7.8560 2.2463 2.3974
-7.9386 1.9635 2.3974
-8.0115 1.6778 2.3974
-8.0744 1.3895 2.3974
-8.1273 1.0988 2.3974
-8.1700 0.8063 2.3974
-8.2026 0.5121 2.3974
-8.2248 0.2166 2.3974
-8.2368 -0.0797 2.3974
-8.2384 -0.3766 2.3974
-8.2295 -0.6738 2.3974
-8.2103 -0.9708 2.3974
-8.1806 -1.2673 2.3974
-8.1404 -1.5629 2.3974
-8.0898 -1.8573 2.3974
-8.0288 -2.1501 2.3974
-7.9574 -2.4410 2.3974
-7.8756 -2.7296 2.3974
-7.7836 -3.0154 2.3974
-7.6814 -3.2982 2.3974
-7.5691 -3.5776 2.3974
-7.4467 -3.8532 2.3974
-7.3145 -4.1247 2.3974
-7.1725 -4.3917 2.3974
-7.0208 -4.6538 2.3974
-6.8596 -4.9108 2.3974
-6.6891 -5.1621 2.3974
-6.5095 -5.4075 2.3974
-6.3209 -5.6468 2.3974
-6.1236 -5.8794 2.3974
-5.9177 -6.1051 2.3974
-5.7035 -6.3235 2.3974
-5.4813 -6.5344 2.3974
-5.2513 -6.7374 2.3974
-5.0137 -6.9323 2.3974
-4.7689 -7.1186 2.3974
-4.5172 -7.2963 2.3974
-4.2588 -7.4649 2.3974
-3.9941 -7.6242 2.3974
-3.7234 -7.7740 2.3974
-3.4470 -7.9139 2.3974
-3.1654 -8.0439 2.3974
-2.8788 -8.1636 2.3974
-2.5877 -8.2729 2.3974
-2.2924 -8.3716 2.3974
-1.9933 -8.4595 2.3974
-1.6908 -8.5364 2.3974
-1.3854 -8.6022 2.3974
-1.0774 -8.6567 2.3974
-0.7673 -8.6999 2.3974
-0.4554 -8.7317 2.3974
-0.1423 -8.7519 2.3974
0.1716 -8.7605 2.3974
0.4860 -8.7575 2.3974
0.8003 -8.7428 2.3974
1.1141 -8.7165 2.3974
1.4269 -8.6784 2.3974
1.7383 -8.6287 2.3974
2.0479 -8.5674 2.3974
2.2489 -8.1110 2.2891
2.4907 -7.8757 2.2450
2.7729 -7.7861 2.2450
3.0517 -7.6860 2.2450
3.3267 -7.5756 2.2450
3.5975 -7.4548 2.2450
3.8637 -7.3240 2.2450
4.1249 -7.1833 2.2450
4.3808 -7.0328 2.2450
4.6308 -6.8729 2.2450
4.8748 -6.7037 2.2450
5.1123 -6.5254 2.2450
5.3429 -6.3384 2.2450
5.5664 -6.1429 2.2450
5.7824 -5.9391 2.2450
5.9906 -5.7274 2.2450
6.1907 -5.5082 2.2450
6.3187 -5.2288 2.2225
6.3942 -4.9163 2.1864
6.6173 -4.7206 2.2042
6.7182 -4.4383 2.1843
6.7607 -4.1264 2.1497
6.8969 -3.8775 2.1486
7.0189 -3.6215 2.1460
7.1575 -3.3740 2.1514
7.2453 -3.1032 2.1445
7.3515 -2.8415 2.1460
7.2996 -2.5248 2.1047
7.4384 -2.2778 2.1216
7.8447 -2.0979 2.2166
7.6820 -1.7621 2.1534
7.6239 -1.4633 2.1231
7.8659 -1.2193 2.1792
7.9997 -0.9478 2.2078
8.1547 -0.6709 2.2450
8.1114 -0.3752 2.2305
8.1627 -0.0846 2.2450
8.1504 0.2078 2.2450
8.1275 0.4993 2.2450
8.0939 0.7894 2.2450
8.0497 1.0778 2.2450
7.9950 1.3639 2.2450
7.9300 1.6475 2.2450
7.8547 1.9282 2.2450
8.2967 2.3554 2.3974
8.1949 2.6477 2.3974
8.0827 2.9357 2.3974
7.9603 3.2193 2.3974
7.8278 3.4974 2.3974
7.6855 3.7704 2.3974
7.5336 4.0377 2.3974
7.3724 4.2989 2.3974
7.2021 4.5538 2.3974
7.0229 4.8020 2.3974
6.8352 5.0433 2.3974
6.6393 5.2773 2.3974
6.4353 5.5037 2.3974
6.2237 5.7225 2.3974
6.0047 5.9331 2.3974
5.7786 6.1356 2.3974
5.5458 6.3295 2.3974
5.3065 6.5147 2.3974
5.0612 6.6911 2.3974
4.8101 6.8584 2.3974
4.5536 7.0164 2.3974
4.2920 7.1651 2.3974
4.0256 7.3041 2.3974
3.7549 7.4335 2.3974
3.4801 7.5531 2.3974
3.2017 7.6628 2.3974
2.9199 7.7625 2.3974
2.6352 7.8521 2.3974
2.3478 7.9315 2.3974
0.8327 3.2367 0.9699
0.7156 3.2646 0.9711
0.5976 3.2883 0.9723
0.4789 3.3077 0.9734
0.3595 3.3229 0.9745
0.2396 3.3336 0.9756
0.1194 3.3401 0.9766
-0.0010 3.3421 0.9776
-0.1214 3.3398 0.9785
-0.2416 3.3332 0.9793
-0.3615 3.3222 0.9802
-0.4809 3.3069 0.9809
-0.5997 3.2872 0.9817
-0.7178 3.2633 0.9823
-0.8348 3.2351 0.9830
-2.3176 7.8067 2.3974
-2.5959 7.7136 2.3974
-2.8707 7.6109 2.3974
-3.1416 7.4988 2.3974
-3.4083 7.3775 2.3974
-3.6706 7.2471 2.3974
-3.9281 7.1077 2.3974
-4.1806 6.9596 2.3974
-4.4278 6.8029 2.3974
-4.6693 6.6377 2.3974
-4.9050 6.4644 2.3974
-5.1345 6.2830 2.3974
-5.3576 6.0937 2.3974
-5.5741 5.8969 2.3974
-5.7836 5.6928 2.3974
-5.9860 5.4814 2.3974
-6.1810 5.2632 2.3974
-6.3683 5.0383 2.3974
-6.5479 4.8070 2.3974
-6.7194 4.5696 2.3974
-6.8827 4.3263 2.3974
-7.0374 4.0774 2.3974
-7.1836 3.8231 2.3974
-7.3210 3.5638 2.3974
-7.4493 3.2997 2.3974
-7.5685 3.0312 2.3974
-7.6784 2.7585 2.3974
-7.7788 2.4820 2.3974
-7.8696 2.2020 2.3974
-7.9508 1.9187 2.3974
-8.0220 1.6325 2.3974
-8.0834 1.3438 2.3974
-8.1347 1.0529 2.3974
-8.1758 0.7600 2.3974
-8.2067 0.4656 2.3974
-6.8760 -3.5111 2.3974
-6.7549 -3.7613 2.3974
-6.6248 -4.0074 2.3974
-6.4858 -4.2491 2.3974
-6.3380 -4.4859 2.3974
-6.1817 -4.7176 2.3974
-6.0169 -4.9439 2.3974
-5.8439 -5.1644 2.3974
-5.6629 -5.3788 2.3974
-5.4741 -5.5869 2.3974
-5.2776 -5.7883 2.3974
-5.0737 -5.9828 2.3974
-4.8626 -6.1700 2.3974
-4.6446 -6.3497 2.3974
-4.4200 -6.5216 2.3974
-4.1890 -6.6855 2.3974
-3.9519 -6.8411 2.3974
-3.7090 -6.9881 2.3974
-3.4606 -7.1264 2.3974
-3.2071 -7.2558 2.3974
-2.9486 -7.3759 2.3974
-2.6857 -7.4866 2.3974
-2.4186 -7.5878 2.3974
-2.1476 -7.6792 2.3974
-1.8732 -7.7608 2.3974
-1.5956 -7.8323 2.3974
-1.3153 -7.8936 2.3974
-1.0327 -7.9446 2.3974
-0.7481 -7.9852 2.3974
-0.4619 -8.0153 2.3974
-0.1745 -8.0349 2.3974
0.1136 -8.0439 2.3974
0.4021 -8.0422 2.3974
0.6906 -8.0298 2.3974
0.9787 -8.0067 2.3974
1.2659 -7.9729 2.3974
1.5519 -7.9285 2.3974
1.8362 -7.8735 2.3974
2.1184 -7.8079 2.3974
2.3893 -7.7033 2.3885
2.5601 -7.3166 2.2943
2.7613 -7.0687 2.2450
3.0140 -6.9685 2.2450
3.2630 -6.8590 2.2450
3.5078 -6.7402 2.2450
3.7481 -6.6124 2.2450
3.9835 -6.4756 2.2450
4.2137 -6.3301 2.2450
4.4383 -6.1762 2.2450
4.6571 -6.0139 2.2450
4.8697 -5.8435 2.2450
5.0757 -5.6654 2.2450
5.2750 -5.4797 2.2450
5.4672 -5.2867 2.2450
5.6520 -5.0867 2.2450
5.8292 -4.8799 2.2450
5.9986 -4.6668 2.2450
6.1598 -4.4475 2.2450
6.3127 -4.2225 2.2450
6.4571 -3.9920 2.2450
6.5927 -3.7564 2.2450
6.7194 -3.5160 2.2450
6.8370 -3.2712 2.2450
6.9454 -3.0223 2.2450
7.0443 -2.7697 2.2450
7.1338 -2.5137 2.2450
7.2137 -2.2548 2.2450
7.2839 -1.9933 2.2450
7.3442 -1.7296 2.2450
7.3948 -1.4640 2.2450
7.4355 -1.1970 2.2450
7.4662 -0.9288 2.2450
7.4870 -0.6600 2.2450
7.4978 -0.3908 2.2450
7.4987 -0.1217 2.2450
7.4898 0.1470 2.2450
7.4710 0.4150 2.2450
7.4423 0.6817 2.2450
7.4040 0.9470 2.2450
7.3560 1.2104 2.2450
7.2985 1.4715 2.2450
7.3004 1.7466 2.2663
7.6411 2.1205 2.3974
7.5499 2.3900 2.3974
7.4490 2.6558 2.3974
7.3387 2.9173 2.3974
7.2192 3.1744 2.3974
7.0905 3.4266 2.3974
6.9530 3.6736 2.3974
6.8069 3.9153 2.3974
6.6523 4.1511 2.3974
6.4895 4.3810 2.3974
6.3187 4.6045 2.3974
6.1403 4.8214 2.3974
5.9544 5.0315 2.3974
5.7614 5.2346 2.3974
5.5615 5.4303 2.3974
5.3550 5.6185 2.3974
5.1422 5.7990 2.3974
4.9233 5.9715 2.3974
4.6988 6.1359 2.3974
4.4688 6.2920 2.3974
4.2338 6.4396 2.3974
3.9939 6.5786 2.3974
3.7496 6.7089 2.3974
3.5011 6.8302 2.3974
3.2488 6.9426 2.3974
2.9930 7.0458 2.3974
2.7340 7.1399 2.3974
2.4722 7.2246 2.3974
0.8898 2.9421 0.9662
0.7834 2.9723 0.9674
0.6759 2.9986 0.9685
0.5675 3.0210 0.9696
0.4583 3.0394 0.9707
0.3485 3.0539 0.9717
0.2383 3.0644 0.9727
0.1278 3.0710 0.9736
0.0171 3.0735 0.9745
-0.0937 3.0720 0.9754
-0.2043 3.0665 0.9762
-0.3146 3.0570 0.9769
-0.4245 3.0435 0.9776
-0.5339 3.0261 0.9783
-0.6426 3.0047 0.9789
-0.7504 2.9794 0.9795
-0.8573 2.9502 0.9800
-2.3545 7.1325 2.3974
-2.6087 7.0393 2.3974
-2.8595 6.9375 2.3974
-3.1064 6.8271 2.3974
-3.3493 6.7082 2.3974
-3.5878 6.5810 2.3974
-3.8218 6.4456 2.3974
-4.0508 6.3022 2.3974
-4.2747 6.1511 2.3974
-4.4932 5.9922 2.3974
-4.7060 5.8259 2.3974
-4.9130 5.6524 2.3974
-5.1138 5.4718 2.3974
-5.3082 5.2843 2.3974
-5.4960 5.0901 2.3974
-5.6771 4.8896 2.3974
-5.8511 4.6829 2.3974
-6.0179 4.4702 2.3974
-6.1772 4.2517 2.3974
-6.3289 4.0278 2.3974
-6.4728 3.7987 2.3974
-6.6088 3.5646 2.3974
-6.7366 3.3259 2.3974
-6.8561 3.0827 2.3974
-6.9671 2.8353 2.3974
-7.0695 2.5841 2.3974
-7.1632 2.3293 2.3974
-7.2480 2.0713 2.3974
-7.3238 1.8102 2.3974
-7.3906 1.5465 2.3974
-7.4481 1.2803 2.3974
-7.4963 1.0121 2.3974
-7.5352 0.7422 2.3974
-7.5647 0.4707 2.3974
-7.5846 0.1982 2.3974
-7.5950 -0.0751 2.3974
-7.5958 -0.3490 2.3974
-7.5870 -0.6229 2.3974
-7.5686 -0.8967 2.3974
-7.5405 -1.1700 2.3974
-7.5027 -1.4424 2.3974
-7.4554 -1.7136 2.3974
-7.3984 -1.9833 2.3974
-7.3318 -2.2512 2.3974
-7.2557 -2.5168 2.3974
-7.1702 -2.7799 2.3974
-7.0753 -3.0402 2.3974
-6.9710 -3.2972 2.3974
-6.8576 -3.5507 2.3974
-6.7350 -3.8004 2.3974
-6.6035 -4.0458 2.3974
-6.4631 -4.2867 2.3974
-6.3139 -4.5228 2.3974
-6.1563 -4.7536 2.3974
-5.9902 -4.9790 2.3974
-5.8160 -5.1986 2.3974
-5.6337 -5.4120 2.3974
-5.4436 -5.6191 2.3974
-5.2459 -5.8194 2.3974
-5.0409 -6.0127 2.3974
-4.8287 -6.1988 2.3974
-4.6097 -6.3773 2.3974
-4.3840 -6.5480 2.3974
-4.1521 -6.7105 2.3974
-3.9141 -6.8648 2.3974
-3.6703 -7.0105 2.3974
-3.4210 -7.1474 2.3974
-3.1667 -7.2753 2.3974
-2.9075 -7.3940 2.3974
-2.6439 -7.5032 2.3974
-2.3761 -7.6029 2.3974
-2.1046 -7.6927 2.3974
-1.8296 -7.7727 2.3974
-1.5516 -7.8426 2.3974
-1.2710 -7.9023 2.3974
-0.9880 -7.9517 2.3974
-0.7031 -7.9906 2.3974
-0.4167 -8.0191 2.3974
-0.1292 -8.0370 2.3974
0.1590 -8.0443 2.3974
0.4476 -8.0409 2.3974
0.7360 -8.0268 2.3974
1.0240 -8.0021 2.3974
1.3110 -7.9666 2.3974
1.5968 -7.9206 2.3974
1.8808 -7.8638 2.3974
2.1627 -7.7966 2.3974
2.4172 -7.6403 2.3730
2.5857 -7.2583 2.2803
2.8013 -7.0535 2.2450
3.0535 -6.9519 2.2450
3.3019 -6.8409 2.2450
3.5460 -6.7207 2.2450
3.7855 -6.5914 2.2450
4.0201 -6.4533 2.2450
4.2495 -6.3064 2.2450
4.4732 -6.1511 2.2450
4.6910 -5.9876 2.2450
4.9026 -5.8160 2.2450
5.1076 -5.6366 2.2450
5.3057 -5.4498 2.2450
5.4968 -5.2556 2.2450
5.6805 -5.0546 2.2450
5.8564 -4.8468 2.2450
6.0245 -4.6327 2.2450
6.1845 -4.4125 2.2450
6.3360 -4.1866 2.2450
6.4790 -3.9552 2.2450
6.6132 -3.7188 2.2450
6.7385 -3.4777 2.2450
6.8547 -3.2322 2.2450
6.9616 -2.9827 2.2450
7.0591 -2.7296 2.2450
7.1470 -2.4731 2.2450
7.2254 -2.2138 2.2450
7.2940 -1.9519 2.2450
7.3529 -1.6879 2.2450
7.4018 -1.4220 2.2450
7.4409 -1.1548 2.2450
7.4701 -0.8865 2.2450
7.4893 -0.6176 2.2450
7.4986 -0.3484 2.2450
7.4980 -0.0793 2.2450
7.4875 0.1893 2.2450
7.4671 0.4571 2.2450
7.4369 0.7236 2.2450
7.3971 0.9886 2.2450
7.3476 1.2517 2.2450
7.2886 1.5124 2.2450
7.4458 1.8259 2.3151
7.6274 2.1633 2.3974
7.5346 2.4321 2.3974
7.4323 2.6973 2.3974
7.3205 2.9581 2.3974
7.1995 3.2144 2.3974
7.0695 3.4658 2.3974
6.9306 3.7121 2.3974
6.7831 3.9528 2.3974
6.6272 4.1877 2.3974
6.4631 4.4166 2.3974
6.2911 4.6391 2.3974
6.1115 4.8550 2.3974
5.9245 5.0640 2.3974
5.7304 5.2659 2.3974
5.5294 5.4605 2.3974
5.3219 5.6475 2.3974
5.1081 5.8267 2.3974
4.8883 5.9979 2.3974
4.6629 6.1610 2.3974
4.4321 6.3158 2.3974
4.1963 6.4621 2.3974
3.9557 6.5997 2.3974
3.7108 6.7285 2.3974
3.4616 6.8485 2.3974
3.2088 6.9595 2.3974
2.9524 7.0613 2.3974
2.6930 7.1538 2.3974
2.4308 7.2371 2.3974
0.8731 2.9471 0.9664
0.7665 2.9767 0.9676
0.6588 3.0024 0.9687
0.5503 3.0241 0.9698
0.4410 3.0420 0.9708
0.3312 3.0558 0.9718
0.2209 3.0657 0.9728
0.1104 3.0716 0.9737
-0.0004 3.0735 0.9746
-0.1111 3.0714 0.9755
-0.2217 3.0653 0.9763
-0.3320 3.0552 0.9770
-0.4418 3.0411 0.9778
-0.5511 3.0230 0.9784
-0.6596 3.0010 0.9790
-0.7673 2.9750 0.9796
-0.8740 2.9452 0.9801
-2.3947 7.1184 2.3974
-2.6485 7.0239 2.3974
-2.8986 6.9207 2.3974
-3.1450 6.8089 2.3974
-3.3872 6.6887 2.3974
-3.6250 6.5602 2.3974
-3.8582 6.4235 2.3974
-4.0864 6.2789 2.3974
-4.3095 6.1265 2.3974
-4.5271 5.9665 2.3974
-4.7390 5.7991 2.3974
-4.9450 5.6244 2.3974
-5.1448 5.4427 2.3974
-5.3382 5.2541 2.3974
-5.5250 5.0590 2.3974
-5.7049 4.8574 2.3974
-5.8778 4.6497 2.3974
-6.0435 4.4361 2.3974
-6.2016 4.2168 2.3974
-6.3521 3.9921 2.3974
-6.4948 3.7622 2.3974
-6.6295 3.5273 2.3974
-6.7560 3.2878 2.3974
-6.8741 3.0440 2.3974
-6.9838 2.7960 2.3974
-7.0849 2.5442 2.3974
-7.1771 2.2889 2.3974
-7.2605 2.0303 2.3974
-7.3349 1.7688 2.3974
-7.4002 1.5047 2.3974
-7.4563 1.2382 2.3974
-7.5031 0.9697 2.3974
-7.5405 0.6995 2.3974
-7.5684 0.4279 2.3974
-6.3653 -3.2525 2.3974
-6.2525 -3.4839 2.3974
-6.1314 -3.7114 2.3974
-6.0022 -3.9347 2.3974
-5.8649 -4.1535 2.3974
-5.7196 -4.3675 2.3974
-5.5666 -4.5765 2.3974
-5.4059 -4.7800 2.3974
-5.2379 -4.9780 2.3974
-5.0627 -5.1700 2.3974
-4.8804 -5.3557 2.3974
-4.6914 -5.5351 2.3974
-4.4957 -5.7077 2.3974
-4.2937 -5.8733 2.3974
-4.0856 -6.0317 2.3974
-3.8716 -6.1826 2.3974
-3.6520 -6.3258 2.3974
-3.4272 -6.4612 2.3974
-3.1973 -6.5884 2.3974
-2.9626 -6.7073 2.3974
-2.7235 -6.8177 2.3974
-2.4803 -6.9194 2.3974
-2.2333 -7.0123 2.3974
-1.9827 -7.0961 2.3974
-1.7290 -7.1709 2.3974
-1.4725 -7.2363 2.3974
-1.2135 -7.2923 2.3974
-0.9524 -7.3389 2.3974
-0.6895 -7.3758 2.3974
-0.4252 -7.4031 2.3974
-0.1598 -7.4206 2.3974
0.1062 -7.4284 2.3974
0.3726 -7.4263 2.3974
0.6389 -7.4144 2.3974
0.9048 -7.3927 2.3974
1.1699 -7.3611 2.3974
1.4338 -7.3197 2.3974
1.6961 -7.2685 2.3974
1.9565 -7.2077 2.3974
2.2146 -7.1371 2.3974
2.4701 -7.0570 2.3974
2.7015 -6.9138 2.3789
2.8478 -6.5827 2.2976
3.0122 -6.3307 2.2450
3.2380 -6.2209 2.2450
3.4597 -6.1028 2.2450
3.6768 -5.9765 2.2450
3.8892 -5.8422 2.2450
4.0964 -5.7000 2.2450
4.2982 -5.5503 2.2450
4.4943 -5.3931 2.2450
4.6844 -5.2287 2.2450
4.8683 -5.0574 2.2450
5.0457 -4.8794 2.2450
5.2163 -4.6949 2.2450
5.3799 -4.5042 2.2450
5.5362 -4.3076 2.2450
5.6851 -4.1054 2.2450
5.8264 -3.8979 2.2450
5.9598 -3.6853 2.2450
6.0851 -3.4680 2.2450
6.2023 -3.2462 2.2450
6.3111 -3.0204 2.2450
6.4114 -2.7909 2.2450
6.5031 -2.5579 2.2450
6.5860 -2.3217 2.2450
6.6601 -2.0829 2.2450
6.7252 -1.8416 2.2450
6.7814 -1.5982 2.2450
6.8285 -1.3531 2.2450
6.8665 -1.1067 2.2450
6.8953 -0.8591 2.2450
6.9150 -0.6109 2.2450
6.9256 -0.3624 2.2450
6.9269 -0.1139 2.2450
6.9192 0.1343 2.2450
6.9024 0.3818 2.2450
6.8766 0.6283 2.2450
6.8417 0.8734 2.2450
6.7980 1.1169 2.2450
6.7454 1.3583 2.2450
7.1380 1.7058 2.3974
7.0634 1.9583 2.3974
6.9797 2.2076 2.3974
6.8872 2.4534 2.3974
6.7859 2.6955 2.3974
6.6760 2.9333 2.3974
6.5577 3.1668 2.3974
6.4312 3.3956 2.3974
6.2966 3.6194 2.3974
6.1543 3.8380 2.3974
6.0043 4.0509 2.3974
5.8469 4.2581 2.3974
5.6824 4.4593 2.3974
5.5110 4.6541 2.3974
5.3329 4.8425 2.3974
5.1484 5.0241 2.3974
4.9578 5.1988 2.3974
4.7613 5.3664 2.3974
4.5592 5.5266 2.3974
4.3517 5.6794 2.3974
4.1392 5.8245 2.3974
3.9219 5.9617 2.3974
3.7001 6.0910 2.3974
3.4742 6.2122 2.3974
3.2443 6.3252 2.3974
3.0109 6.4298 2.3974
2.7742 6.5260 2.3974
2.5345 6.6137 2.3974
0.9209 2.6890 0.9632
0.8235 2.7204 0.9643
0.7250 2.7483 0.9654
0.6256 2.7726 0.9664
0.5253 2.7933 0.9675
0.4244 2.8104 0.9684
0.3229 2.8237 0.9694
0.2209 2.8335 0.9703
0.1187 2.8395 0.9712
0.0163 2.8418 0.9720
-0.0861 2.8404 0.9728
-0.1884 2.8353 0.9735
-0.2904 2.8265 0.9742
-0.3921 2.8141 0.9749
-0.4932 2.7979 0.9755
-0.5938 2.7781 0.9761
-0.6935 2.7547 0.9766
-0.7923 2.7277 0.9771
-0.8900 2.6972 0.9775
-2.4187 6.5285 2.3974
-2.6513 6.4342 2.3974
-2.8805 6.3319 2.3974
-3.1059 6.2218 2.3974
-3.3273 6.1039 2.3974
-3.5444 5.9784 2.3974
-3.7569 5.8455 2.3974
-3.9647 5.7053 2.3974
-4.1674 5.5580 2.3974
-4.3649 5.4037 2.3974
-4.5569 5.2427 2.3974
-4.7432 5.0751 2.3974
-4.9236 4.9012 2.3974
-5.0978 4.7210 2.3974
-5.2657 4.5349 2.3974
-5.4270 4.3430 2.3974
-5.5817 4.1456 2.3974
-5.7294 3.9429 2.3974
-5.8700 3.7351 2.3974
-6.0033 3.5224 2.3974
-6.1292 3.3051 2.3974
-6.2475 3.0835 2.3974
-6.3581 2.8579 2.3974
-6.4609 2.6283 2.3974
-6.5556 2.3952 2.3974
-6.6421 2.1588 2.3974
-6.7204 1.9194 2.3974
-6.7904 1.6772 2.3974
-6.8519 1.4325 2.3974
-6.9048 1.1856 2.3974
-6.9492 0.9369 2.3974
-6.9848 0.6865 2.3974
-7.0116 0.4349 2.3974
-7.0296 0.1822 2.3974
-7.0387 -0.0712 2.3974
-7.0389 -0.3250 2.3974
-7.0303 -0.5788 2.3974
-7.0126 -0.8325 2.3974
-6.9860 -1.0857 2.3974
-6.9505 -1.3380 2.3974
-6.9060 -1.5892 2.3974
-6.8526 -1.8389 2.3974
-6.7903 -2.0868 2.3974
-6.7193 -2.3327 2.3974
-6.6394 -2.5762 2.3974
-6.5509 -2.8170 2.3974
-6.4538 -3.0547 2.3974
-6.3481 -3.2892 2.3974
-6.2340 -3.5200 2.3974
-6.1116 -3.7468 2.3974
-5.9811 -3.9695 2.3974
-5.8425 -4.1875 2.3974
-5.6960 -4.4008 2.3974
-5.5418 -4.6089 2.3974
-5.3800 -4.8116 2.3974
-5.2108 -5.0086 2.3974
-5.0344 -5.1996 2.3974
-4.8511 -5.3844 2.3974
-4.6610 -5.5627 2.3974
-4.4643 -5.7342 2.3974
-4.2613 -5.8987 2.3974
-4.0522 -6.0559 2.3974
-3.8374 -6.2057 2.3974
-3.6170 -6.3477 2.3974
-3.3913 -6.4818 2.3974
-3.1606 -6.6077 2.3974
-2.9252 -6.7252 2.3974
-2.6855 -6.8343 2.3974
-2.4416 -6.9346 2.3974
-2.1940 -7.0261 2.3974
-1.9430 -7.1085 2.3974
-1.6888 -7.1818 2.3974
-1.4319 -7.2457 2.3974
-1.1725 -7.3003 2.3974
-0.9111 -7.3453 2.3974
-0.6479 -7.3808 2.3974
-0.3834 -7.4065 2.3974
-0.1179 -7.4225 2.3974
0.1482 -7.4287 2.3974
0.4146 -7.4251 2.3974
0.6808 -7.4117 2.3974
0.9466 -7.3884 2.3974
1.2115 -7.3552 2.3974
1.4752 -7.3123 2.3974
1.7373 -7.2596 2.3974
1.9973 -7.1972 2.3974
2.2551 -7.1251 2.3974
2.5100 -7.0435 2.3974
2.7253 -6.8602 2.3655
2.8699 -6.5325 2.2855
3.0481 -6.3139 2.2450
3.2732 -6.2028 2.2450
3.4942 -6.0834 2.2450
3.7106 -5.9558 2.2450
3.9222 -5.8203 2.2450
4.1285 -5.6769 2.2450
4.3295 -5.5260 2.2450
4.5247 -5.3677 2.2450
4.7138 -5.2022 2.2450
4.8967 -5.0298 2.2450
5.0730 -4.8507 2.2450
5.2425 -4.6652 2.2450
5.4050 -4.4736 2.2450
5.5602 -4.2761 2.2450
5.7079 -4.0731 2.2450
5.8479 -3.8647 2.2450
5.9801 -3.6513 2.2450
6.1041 -3.4333 2.2450
6.2200 -3.2109 2.2450
6.3275 -2.9845 2.2450
6.4264 -2.7544 2.2450
6.5167 -2.5209 2.2450
6.5983 -2.2843 2.2450
6.6709 -2.0450 2.2450
6.7347 -1.8034 2.2450
6.7894 -1.5597 2.2450
6.8351 -1.3144 2.2450
6.8716 -1.0677 2.2450
6.8990 -0.8201 2.2450
6.9173 -0.5718 2.2450
6.9264 -0.3233 2.2450
6.9263 -0.0747 2.2450
6.9172 0.1734 2.2450
6.8989 0.4207 2.2450
6.8717 0.6670 2.2450
6.8354 0.9119 2.2450
6.7903 1.1550 2.2450
6.7495 1.3988 2.2493
7.1268 1.7458 2.3974
7.0508 1.9978 2.3974
6.9657 2.2466 2.3974
6.8718 2.4918 2.3974
6.7691 2.7332 2.3974
6.6579 2.9704 2.3974
6.5383 3.2032 2.3974
6.4105 3.4312 2.3974
6.2747 3.6542 2.3974
6.1311 3.8719 2.3974
5.9800 4.0840 2.3974
5.8215 4.2902 2.3974
5.6559 4.4904 2.3974
5.4834 4.6843 2.3974
5.3043 4.8716 2.3974
5.1188 5.0521 2.3974
4.9272 5.2257 2.3974
4.7298 5.3921 2.3974
4.5268 5.5512 2.3974
4.3185 5.7027 2.3974
4.1053 5.8465 2.3974
3.8872 5.9826 2.3974
3.6648 6.1106 2.3974
3.4382 6.2306 2.3974
3.2078 6.3422 2.3974
2.9738 6.4455 2.3974
2.7366 6.5404 2.3974
2.4965 6.6267 2.3974
0.9056 2.6942 0.9634
0.8081 2.7251 0.9645
0.7094 2.7524 0.9656
0.6098 2.7761 0.9666
0.5095 2.7962 0.9676
0.4084 2.8127 0.9686
0.3068 2.8255 0.9695
0.2048 2.8347 0.9704
0.1026 2.8401 0.9713
0.0002 2.8418 0.9721
-0.1022 2.8399 0.9729
-0.2045 2.8342 0.9736
-0.3065 2.8248 0.9743
-0.4081 2.8118 0.9750
-0.5091 2.7951 0.9756
-0.6095 2.7747 0.9762
-0.7091 2.7507 0.9767
-0.8078 2.7232 0.9772
-2.2201 6.6016 2.3974
-2.4556 6.5142 2.3974
-2.6877 6.4186 2.3974
-2.9163 6.3151 2.3974
-3.1411 6.2037 2.3974
-3.3618 6.0846 2.3974
-3.5782 5.9580 2.3974
-3.7900 5.8239 2.3974
-3.9970 5.6826 2.3974
-4.1989 5.5342 2.3974
-4.3955 5.3788 2.3974
-4.5866 5.2168 2.3974
-4.7720 5.0481 2.3974
-4.9514 4.8732 2.3974
-5.1247 4.6921 2.3974
-5.2915 4.5050 2.3974
-5.4518 4.3123 2.3974
-5.6054 4.1140 2.3974
-5.7520 3.9105 2.3974
-5.8915 3.7019 2.3974
-6.0236 3.4885 2.3974
-6.1484 3.2705 2.3974
-6.2655 3.0483 2.3974
-6.3748 2.8219 2.3974
-6.4763 2.5918 2.3974
-6.5698 2.3582 2.3974
-6.6550 2.1213 2.3974
-6.7320 1.8814 2.3974
-6.8006 1.6388 2.3974
-6.8608 1.3937 2.3974
-6.9124 1.1466 2.3974
-6.9553 0.8976 2.3974
-6.9896 0.6470 2.3974
-7.0150 0.3951 2.3974
-5.9188 -3.0264 2.3974
-5.8135 -3.2414 2.3974
-5.7004 -3.4527 2.3974
-5.5797 -3.6600 2.3974
-5.4515 -3.8631 2.3974
-5.3160 -4.0618 2.3974
-5.1733 -4.2557 2.3974
-5.0236 -4.4445 2.3974
-4.8670 -4.6281 2.3974
-4.7037 -4.8061 2.3974
-4.5339 -4.9783 2.3974
-4.3578 -5.1445 2.3974
-4.1757 -5.3044 2.3974
-3.9876 -5.4578 2.3974
-3.7940 -5.6045 2.3974
-3.5949 -5.7442 2.3974
-3.3907 -5.8768 2.3974
-3.1815 -6.0020 2.3974
-2.9678 -6.1196 2.3974
-2.7497 -6.2295 2.3974
-2.5275 -6.3315 2.3974
-2.3014 -6.4255 2.3974
-2.0719 -6.5112 2.3974
-1.8392 -6.5885 2.3974
-1.6036 -6.6574 2.3974
-1.3654 -6.7177 2.3974
-1.1249 -6.7692 2.3974
-0.8825 -6.8119 2.3974
-0.6385 -6.8457 2.3974
-0.3932 -6.8706 2.3974
-0.1470 -6.8865 2.3974
0.0999 -6.8933 2.3974
0.3470 -6.8909 2.3974
0.5940 -6.8795 2.3974
0.8406 -6.8590 2.3974
1.0864 -6.8294 2.3974
1.3311 -6.7907 2.3974
1.5744 -6.7429 2.3974
1.8158 -6.6861 2.3974
2.0551 -6.6205 2.3974
2.2919 -6.5460 2.3974
2.5259 -6.4627 2.3974
2.7568 -6.3708 2.3974
2.9673 -6.2350 2.3839
3.0952 -5.9455 2.3133
3.2194 -5.6782 2.2521
3.4105 -5.5430 2.2450
3.6073 -5.4184 2.2450
3.7994 -5.2866 2.2450
3.9865 -5.1477 2.2450
4.1684 -5.0019 2.2450
4.3447 -4.8495 2.2450
4.5152 -4.6907 2.2450
4.6797 -4.5256 2.2450
4.8379 -4.3546 2.2450
4.9896 -4.1779 2.2450
5.1347 -3.9957 2.2450
5.2729 -3.8082 2.2450
5.4040 -3.6159 2.2450
5.5278 -3.4188 2.2450
5.6442 -3.2174 2.2450
5.7531 -3.0119 2.2450
5.8542 -2.8026 2.2450
5.9474 -2.5898 2.2450
6.0327 -2.3738 2.2450
6.1099 -2.1549 2.2450
6.1789 -1.9334 2.2450
6.2397 -1.7097 2.2450
6.2921 -1.4840 2.2450
6.3361 -1.2567 2.2450
6.3717 -1.0281 2.2450
6.3989 -0.7985 2.2450
6.4176 -0.5683 2.2450
6.4278 -0.3377 2.2450
6.4295 -0.1071 2.2450
6.4228 0.1233 2.2450
6.4076 0.3530 2.2450
6.3841 0.5818 2.2450
6.3522 0.8094 2.2450
6.3147 1.0359 2.2459
6.6039 1.3281 2.3669
6.6288 1.5823 2.3974
6.5601 1.8169 2.3974
6.4830 2.0486 2.3974
6.3975 2.2771 2.3974
6.3040 2.5021 2.3974
6.2024 2.7232 2.3974
6.0931 2.9404 2.3974
5.9761 3.1532 2.3974
5.8516 3.3614 2.3974
5.7198 3.5648 2.3974
5.5809 3.7630 2.3974
5.4351 3.9559 2.3974
5.2827 4.1432 2.3974
5.1238 4.3247 2.3974
4.9588 4.5001 2.3974
4.7877 4.6694 2.3974
4.6108 4.8322 2.3974
4.4285 4.9885 2.3974
4.2409 5.1379 2.3974
4.0483 5.2804 2.3974
3.8510 5.4157 2.3974
3.6492 5.5439 2.3974
3.4432 5.6646 2.3974
3.2333 5.7778 2.3974
3.0197 5.8834 2.3974
2.8027 5.9812 2.3974
2.5827 6.0712 2.3974
2.3598 6.1532 2.3974
0.8562 2.4979 0.9617
0.7656 2.5271 0.9627
0.6741 2.5530 0.9637
0.5817 2.5755 0.9647
0.4886 2.5947 0.9656
0.3948 2.6106 0.9665
0.3005 2.6230 0.9674
0.2058 2.6320 0.9682
0.1108 2.6376 0.9690
0.0157 2.6397 0.9698
-0.0795 2.6384 0.9705
-0.1745 2.6337 0.9712
-0.2693 2.6255 0.9719
-0.3638 2.6139 0.9725
-0.4578 2.5989 0.9731
-0.5512 2.5806 0.9736
-0.6438 2.5588 0.9741
-0.7356 2.5337 0.9746
-0.8264 2.5053 0.9750
-2.2520 6.0804 2.3974
-2.4688 5.9927 2.3974
-2.6824 5.8976 2.3974
-2.8924 5.7951 2.3974
-3.0987 5.6853 2.3974
-3.3010 5.5685 2.3974
-3.4991 5.4448 2.3974
-3.6927 5.3142 2.3974
-3.8816 5.1770 2.3974
-4.0656 5.0333 2.3974
-4.2445 4.8833 2.3974
-4.4180 4.7271 2.3974
-4.5861 4.5650 2.3974
-4.7484 4.3971 2.3974
-4.9047 4.2237 2.3974
-5.0550 4.0448 2.3974
-5.1989 3.8608 2.3974
-5.3365 3.6719 2.3974
-5.4673 3.4782 2.3974
-5.5914 3.2800 2.3974
-5.7086 3.0775 2.3974
-5.8186 2.8710 2.3974
-5.9214 2.6607 2.3974
-6.0169 2.4468 2.3974
-6.1049 2.2296 2.3974
-6.1852 2.0093 2.3974
-6.2579 1.7862 2.3974
-6.3228 1.5605 2.3974
-6.3797 1.3326 2.3974
-6.4287 1.1027 2.3974
-6.4696 0.8710 2.3974
-6.5024 0.6378 2.3974
-6.5270 0.4035 2.3974
-6.5434 0.1682 2.3974
-6.5515 -0.0677 2.3974
-6.5512 -0.3039 2.3974
-6.5427 -0.5402 2.3974
-6.5258 -0.7763 2.3974
-6.5006 -1.0119 2.3974
-6.4670 -1.2466 2.3974
-6.4252 -1.4803 2.3974
-6.3750 -1.7125 2.3974
-6.3166 -1.9431 2.3974
-6.2500 -2.1717 2.3974
-6.1752 -2.3980 2.3974
-6.0924 -2.6218 2.3974
-6.0015 -2.8427 2.3974
-5.9028 -3.0605 2.3974
-5.7962 -3.2749 2.3974
-5.6819 -3.4856 2.3974
-5.5600 -3.6923 2.3974
-5.4307 -3.8947 2.3974
-5.2940 -4.0926 2.3974
-5.1502 -4.2857 2.3974
-4.9993 -4.4738 2.3974
-4.8417 -4.6565 2.3974
-4.6774 -4.8336 2.3974
-4.5066 -5.0049 2.3974
-4.3295 -5.1701 2.3974
-4.1464 -5.3290 2.3974
-3.9575 -5.4814 2.3974
-3.7630 -5.6270 2.3974
-3.5631 -5.7656 2.3974
-3.3580 -5.8970 2.3974
-3.1482 -6.0210 2.3974
-2.9337 -6.1374 2.3974
-2.7149 -6.2461 2.3974
-2.4921 -6.3469 2.3974
-2.2655 -6.4395 2.3974
-2.0355 -6.5239 2.3974
-1.8023 -6.6000 2.3974
-1.5662 -6.6675 2.3974
-1.3276 -6.7264 2.3974
-1.0869 -6.7765 2.3974
-0.8442 -6.8178 2.3974
-0.6000 -6.8503 2.3974
-0.3545 -6.8737 2.3974
-0.1081 -6.8881 2.3974
0.1388 -6.8935 2.3974
0.3859 -6.8897 2.3974
0.6329 -6.8769 2.3974
0.8794 -6.8549 2.3974
1.1250 -6.8239 2.3974
1.3696 -6.7837 2.3974
1.6126 -6.7345 2.3974
1.8537 -6.6764 2.3974
2.0926 -6.6093 2.3974
2.3290 -6.5334 2.3974
2.5625 -6.4488 2.3974
2.7928 -6.3555 2.3974
2.9880 -6.1883 2.3723
3.1146 -5.9013 2.3028
3.2412 -5.6422 2.2450
3.4418 -5.5239 2.2450
3.6379 -5.3981 2.2450
3.8292 -5.2651 2.2450
4.0155 -5.1252 2.2450
4.1965 -4.9783 2.2450
4.3719 -4.8249 2.2450
4.5415 -4.6651 2.2450
4.7050 -4.4991 2.2450
4.8622 -4.3272 2.2450
5.0129 -4.1495 2.2450
5.1569 -3.9665 2.2450
5.2940 -3.7783 2.2450
5.4240 -3.5851 2.2450
5.5467 -3.3874 2.2450
5.6619 -3.1853 2.2450
5.7695 -2.9792 2.2450
5.8694 -2.7693 2.2450
5.9614 -2.5560 2.2450
6.0454 -2.3395 2.2450
6.1213 -2.1202 2.2450
6.1890 -1.8983 2.2450
6.2485 -1.6743 2.2450
6.2996 -1.4483 2.2450
6.3423 -1.2208 2.2450
6.3766 -0.9920 2.2450
6.4024 -0.7623 2.2450
6.4197 -0.5320 2.2450
6.4286 -0.3014 2.2450
6.4290 -0.0708 2.2450
6.4209 0.1595 2.2450
6.4044 0.3891 2.2450
6.3796 0.6177 2.2450
6.3464 0.8451 2.2450
6.3415 1.0771 2.2579
6.6649 1.3795 2.3919
6.6186 1.6195 2.3974
6.5485 1.8536 2.3974
6.4700 2.0848 2.3974
6.3833 2.3127 2.3974
6.2885 2.5372 2.3974
6.1857 2.7577 2.3974
6.0751 2.9742 2.3974
5.9569 3.1863 2.3974
5.8313 3.3938 2.3974
5.6984 3.5963 2.3974
5.5584 3.7937 2.3974
5.4116 3.9858 2.3974
5.2581 4.1722 2.3974
5.0982 4.3527 2.3974
4.9323 4.5271 2.3974
4.7602 4.6955 2.3974
4.5825 4.8573 2.3974
4.3993 5.0124 2.3974
4.2109 5.1609 2.3974
4.0175 5.3022 2.3974
3.8195 5.4364 2.3974
3.6170 5.5634 2.3974
3.4104 5.6829 2.3974
3.1999 5.7949 2.3974
2.9857 5.8993 2.3974
2.7683 5.9959 2.3974
2.5477 6.0846 2.3974
0.9315 2.4708 0.9608
0.8420 2.5027 0.9618
0.7513 2.5314 0.9628
0.6596 2.5567 0.9638
