ply
format ascii 1.0
element vertex 2200
property float32 x
property float32 y
property float32 z
end_header
7.5585 2.7144 1.0185
7.5258 3.0131 1.0235
7.4924 3.3178 1.0295
7.4583 3.6296 1.0363
7.4232 3.9495 1.0442
7.3871 4.2787 1.0531
7.3499 4.6185 1.0631
7.3114 4.9703 1.0743
7.2713 5.3358 1.0868
7.2296 5.7168 1.1007
7.1859 6.1153 1.1161
7.1401 6.5336 1.1333
6.9573 -6.3887 1.0484
8.3908 -4.8816 1.1534
8.3446 -4.4607 1.1347
8.3007 -4.0600 1.1178
8.2588 -3.6770 1.1026
8.2185 -3.3098 1.0887
8.1798 -2.9564 1.0763
8.1424 -2.6152 1.0651
8.1063 -2.2849 1.0550
8.0711 -1.9639 1.0460
8.0368 -1.6513 1.0381
8.0034 -1.3457 1.0311
7.9706 -1.0464 1.0250
7.9383 -0.7522 1.0197
7.9066 -0.4624 1.0153
7.8752 -0.1760 1.0117
7.8441 0.1076 1.0089
7.8133 0.3893 1.0069
7.7825 0.6698 1.0056
7.7519 0.9498 1.0050
7.7212 1.2300 1.0052
7.6903 1.5113 1.0062
7.6593 1.7942 1.0079
7.6281 2.0797 1.0103
7.5964 2.3684 1.0136
7.5644 2.6612 1.0176
7.5317 2.9589 1.0225
7.4985 3.2625 1.0283
7.4645 3.5729 1.0350
7.4296 3.8913 1.0427
7.3937 4.2187 1.0514
7.3567 4.5565 1.0612
7.3184 4.9060 1.0722
7.2787 5.2689 1.0844
7.2372 5.6470 1.0981
7.1939 6.0422 1.1132
7.1485 6.4568 1.1300
7.1007 6.8934 1.1487
6.9720 -6.3311 1.2628
8.3832 -4.8126 1.3718
8.3374 -4.3947 1.3479
8.2938 -3.9966 1.3263
8.2521 -3.6159 1.3068
8.2121 -3.2507 1.2892
8.1735 -2.8990 1.2733
8.1363 -2.5594 1.2590
8.1003 -2.2303 1.2462
8.0652 -1.9105 1.2348
8.0311 -1.5987 1.2248
7.9977 -1.2939 1.2159
7.9649 -0.9951 1.2083
7.9328 -0.7014 1.2017
7.9010 -0.4119 1.1963
7.8697 -0.1257 1.1919
7.8386 0.1578 1.1885
7.8078 0.4396 1.1862
7.7770 0.7203 1.1848
7.7463 1.0006 1.1844
7.7155 1.2814 1.1849
7.6847 1.5632 1.1865
7.6536 1.8470 1.1890
7.6222 2.1333 1.1926
7.5904 2.4231 1.1972
7.5582 2.7171 1.2029
7.5255 3.0162 1.2097
7.4920 3.3214 1.2176
7.4578 3.6336 1.2268
7.4227 3.9540 1.2372
7.3866 4.2837 1.2491
7.3493 4.6240 1.2624
7.3107 4.9765 1.2773
7.2706 5.3426 1.2938
7.2288 5.7243 1.3123
7.1850 6.1236 1.3328
7.1391 6.5428 1.3555
6.9558 -6.3991 1.2649
8.3917 -4.8902 1.3763
8.3455 -4.4684 1.3520
8.3015 -4.0669 1.3300
8.2595 -3.6832 1.3102
8.2192 -3.3153 1.2922
8.1804 -2.9614 1.2760
8.1429 -2.6197 1.2615
8.1067 -2.2888 1.2484
8.0715 -1.9674 1.2368
8.0372 -1.6543 1.2265
8.0036 -1.3483 1.2174
7.9708 -1.0485 1.2096
7.9385 -0.7540 1.2028
7.9067 -0.4637 1.1972
7.8753 -0.1770 1.1926
7.8442 0.1070 1.1891
7.8133 0.3890 1.1865
7.7825 0.6698 1.1849
7.7518 0.9502 1.1844
7.7211 1.2308 1.1847
7.6902 1.5124 1.1861
7.6592 1.7957 1.1885
7.6279 2.0815 1.1919
7.5962 2.3706 1.1963
7.5641 2.6638 1.2018
7.5314 2.9619 1.2083
7.4981 3.2659 1.2161
7.4640 3.5768 1.2250
7.4291 3.8957 1.2353
7.3932 4.2236 1.2468
7.3561 4.5619 1.2599
7.3178 4.9120 1.2745
7.2779 5.2756 1.2907
7.2364 5.6543 1.3088
7.1930 6.0503 1.3289
7.1475 6.4658 1.3512
7.0996 6.9033 1.3759
6.9667 -6.3379 1.4793
8.3841 -4.8211 1.5953
8.3382 -4.4023 1.5658
8.2945 -4.0034 1.5392
8.2528 -3.6221 1.5151
8.2127 -3.2562 1.4934
8.1741 -2.9039 1.4738
8.1368 -2.5638 1.4562
8.1007 -2.2342 1.4405
8.0656 -1.9138 1.4265
8.0314 -1.6016 1.4141
7.9980 -1.2964 1.4033
7.9652 -0.9972 1.3939
7.9330 -0.7031 1.3859
7.9012 -0.4132 1.3792
7.8698 -0.1267 1.3739
7.8387 0.1572 1.3698
7.8078 0.4394 1.3670
7.7770 0.7204 1.3653
7.7462 1.0011 1.3649
7.7154 1.2822 1.3658
7.6845 1.5644 1.3678
7.6534 1.8485 1.3711
7.6220 2.1352 1.3756
7.5902 2.4254 1.3814
7.5579 2.7198 1.3885
7.5251 3.0193 1.3971
7.4916 3.3249 1.4071
7.4574 3.6376 1.4186
7.4222 3.9585 1.4316
7.3860 4.2887 1.4465
7.3487 4.6296 1.4631
7.3100 4.9826 1.4817
7.2698 5.3494 1.5024
7.2279 5.7318 1.5254
7.1841 6.1319 1.5510
7.1381 6.5520 1.5793
6.9543 -6.4096 1.4830
8.3926 -4.8988 1.6010
8.3463 -4.4761 1.5709
8.3023 -4.0739 1.5438
8.2601 -3.6895 1.5193
8.2198 -3.3210 1.4971
8.1809 -2.9664 1.4772
8.1434 -2.6242 1.4592
8.1071 -2.2928 1.4432
8.0719 -1.9709 1.4289
8.0375 -1.6573 1.4162
8.0039 -1.3509 1.4051
7.9710 -1.0507 1.3955
7.9387 -0.7557 1.3872
7.9069 -0.4651 1.3803
7.8754 -0.1781 1.3748
7.8443 0.1063 1.3705
7.8133 0.3887 1.3674
7.7825 0.6699 1.3656
7.7518 0.9506 1.3649
7.7210 1.2315 1.3655
7.6901 1.5135 1.3673
7.6590 1.7972 1.3704
7.6277 2.0834 1.3747
7.5959 2.3728 1.3803
7.5638 2.6664 1.3872
7.5311 2.9650 1.3954
7.4977 3.2694 1.4051
7.4636 3.5808 1.4164
7.4286 3.9001 1.4292
7.3926 4.2285 1.4437
7.3555 4.5674 1.4600
7.3171 4.9181 1.4782
7.2772 5.2823 1.4985
7.2356 5.6618 1.5211
7.1921 6.0585 1.5462
7.1465 6.4748 1.5740
6.9633 -6.3466 1.6979
8.3851 -4.8296 1.8208
8.3391 -4.4100 1.7856
8.2953 -4.0103 1.7539
8.2534 -3.6283 1.7252
8.2133 -3.2617 1.6993
8.1746 -2.9089 1.6760
8.1373 -2.5682 1.6550
8.1011 -2.2381 1.6363
8.0660 -1.9173 1.6197
8.0317 -1.6046 1.6050
7.9982 -1.2990 1.5921
7.9654 -0.9994 1.5810
7.9331 -0.7049 1.5715
7.9013 -0.4146 1.5636
7.8699 -0.1277 1.5573
7.8388 0.1566 1.5525
7.8078 0.4391 1.5492
7.7770 0.7205 1.5474
7.7462 1.0016 1.5470
7.7154 1.2830 1.5480
7.6844 1.5656 1.5505
7.6532 1.8501 1.5545
7.6218 2.1371 1.5600
7.5899 2.4277 1.5671
7.5576 2.7225 1.5757
7.5248 3.0224 1.5860
7.4912 3.3285 1.5980
7.4569 3.6417 1.6119
7.4217 3.9630 1.6276
7.3855 4.2938 1.6454
7.3481 4.6352 1.6654
7.3093 4.9889 1.6878
7.2691 5.3563 1.7127
7.2271 5.7395 1.7404
7.1832 6.1403 1.7711
7.1371 6.5613 1.8051
6.9528 -6.4202 1.7030
8.3936 -4.9075 1.8275
8.3472 -4.4840 1.7917
8.3030 -4.0809 1.7594
8.2608 -3.6959 1.7301
8.2204 -3.3267 1.7038
8.1815 -2.9715 1.6800
8.1439 -2.6287 1.6586
8.1076 -2.2967 1.6395
8.0722 -1.9744 1.6225
8.0378 -1.6603 1.6075
8.0042 -1.3535 1.5943
7.9713 -1.0529 1.5828
7.9389 -0.7575 1.5731
7.9070 -0.4666 1.5649
7.8755 -0.1791 1.5583
7.8443 0.1056 1.5533
7.8134 0.3884 1.5497
7.7825 0.6699 1.5476
7.7517 0.9510 1.5469
7.7209 1.2323 1.5477
7.6900 1.5146 1.5500
7.6589 1.7987 1.5537
7.6275 2.0852 1.5589
7.5957 2.3751 1.5657
7.5635 2.6691 1.5740
7.5307 2.9680 1.5840
7.4973 3.2729 1.5957
7.4632 3.5847 1.6092
7.4281 3.9045 1.6247
7.3921 4.2335 1.6421
7.3549 4.5729 1.6617
7.3164 4.9242 1.6836
7.2764 5.2891 1.7080
7.2348 5.6693 1.7352
7.1912 6.0668 1.7653
7.1455 6.4839 1.7987
6.9618 -6.3571 1.9189
8.3860 -4.8383 2.0484
8.3399 -4.4178 2.0075
8.2961 -4.0173 1.9706
8.2541 -3.6345 1.9372
8.2139 -3.2674 1.9071
8.1752 -2.9139 1.8800
8.1378 -2.5726 1.8557
8.1016 -2.2420 1.8340
8.0664 -1.9207 1.8146
8.0320 -1.6076 1.7976
7.9985 -1.3015 1.7826
7.9656 -1.0015 1.7697
7.9333 -0.7066 1.7588
7.9015 -0.4159 1.7497
7.8700 -0.1286 1.7424
7.8388 0.1560 1.7369
7.8078 0.4389 1.7331
7.7770 0.7206 1.7310
7.7461 1.0020 1.7306
7.7153 1.2839 1.7319
7.6843 1.5668 1.7349
7.6531 1.8516 1.7396
7.6216 2.1391 1.7461
7.5897 2.4300 1.7544
7.5573 2.7252 1.7646
7.5244 3.0256 1.7766
7.4909 3.3321 1.7907
7.4565 3.6457 1.8070
7.4212 3.9676 1.8254
7.3849 4.2989 1.8463
7.3475 4.6409 1.8697
7.3086 4.9952 1.8958
7.2683 5.3633 1.9250
7.2263 5.7472 1.9573
7.1823 6.1488 1.9932
7.1360 6.5707 2.0330
6.9568 -6.4359 1.9265
8.3946 -4.9163 2.0562
8.3481 -4.4919 2.0146
8.3038 -4.0880 1.9769
8.2615 -3.7023 1.9430
8.2210 -3.3324 1.9123
8.1820 -2.9766 1.8847
8.1444 -2.6332 1.8599
8.1080 -2.3008 1.8377
8.0726 -1.9779 1.8179
8.0382 -1.6634 1.8005
8.0045 -1.3561 1.7852
7.9715 -1.0551 1.7719
7.9391 -0.7593 1.7606
7.9072 -0.4680 1.7512
7.8757 -0.1801 1.7436
7.8444 0.1050 1.7377
7.8134 0.3881 1.7336
7.7825 0.6700 1.7313
7.7517 0.9514 1.7306
7.7208 1.2331 1.7316
7.6899 1.5158 1.7343
7.6587 1.8002 1.7387
7.6273 2.0871 1.7448
7.5955 2.3774 1.7528
7.5632 2.6717 1.7626
7.5304 2.9711 1.7743
7.4969 3.2764 1.7880
7.4627 3.5887 1.8039
7.4276 3.9090 1.8219
7.3915 4.2385 1.8423
7.3543 4.5785 1.8653
7.3157 4.9304 1.8909
7.2757 5.2959 1.9195
7.2340 5.6768 1.9512
7.1903 6.0751 1.9865
7.1445 6.4931 2.0255
6.9603 -6.3677 2.1423
7.6291 -6.0281 2.2365
7.7951 -5.7140 2.2365
7.9510 -5.3975 2.2365
8.0968 -5.0787 2.2365
8.2327 -4.7579 2.2365
8.3587 -4.4351 2.2365
8.2968 -4.0244 2.1895
8.2548 -3.6409 2.1514
8.2145 -3.2730 2.1171
8.1757 -2.9190 2.0862
8.1383 -2.5771 2.0584
8.1020 -2.2460 2.0336
8.0667 -1.9242 2.0116
8.0324 -1.6106 1.9921
7.9988 -1.3041 1.9751
7.9659 -1.0037 1.9604
7.9335 -0.7083 1.9479
7.9016 -0.4173 1.9376
7.8701 -0.1296 1.9293
7.8389 0.1554 1.9231
7.8079 0.4386 1.9188
7.7770 0.7208 1.9165
7.7461 1.0025 1.9161
7.7152 1.2847 1.9177
7.6841 1.5680 1.9212
7.6529 1.8532 1.9266
7.6213 2.1411 1.9341
7.5894 2.4324 1.9437
7.5570 2.7280 1.9553
7.5241 3.0288 1.9692
7.4905 3.3358 1.9854
7.4560 3.6499 2.0040
7.4207 3.9722 2.0252
7.3844 4.3040 2.0492
7.3468 4.6466 2.0760
7.3079 5.0015 2.1060
7.2675 5.3703 2.1394
7.2254 5.7549 2.1765
7.1813 6.1574 2.2177
7.0503 6.5020 2.2365
6.8489 6.7908 2.2365
6.6380 7.0755 2.2365
6.9647 -6.4554 2.1539
7.5981 -6.0843 2.2365
7.7660 -5.7708 2.2365
7.9237 -5.4547 2.2365
8.0713 -5.1363 2.2365
8.2090 -4.8157 2.2365
8.3367 -4.4933 2.2365
8.3046 -4.0952 2.1968
8.2622 -3.7087 2.1580
8.2217 -3.3382 2.1230
8.1826 -2.9818 2.0915
8.1449 -2.6378 2.0632
8.1084 -2.3049 2.0379
8.0730 -1.9815 2.0153
8.0385 -1.6665 1.9954
8.0048 -1.3588 1.9780
7.9718 -1.0573 1.9629
7.9393 -0.7612 1.9500
7.9073 -0.4694 1.9393
7.8758 -0.1812 1.9307
7.8445 0.1043 1.9241
7.8134 0.3877 1.9194
7.7825 0.6700 1.9168
7.7516 0.9518 1.9160
7.7207 1.2338 1.9172
7.6897 1.5169 1.9204
7.6585 1.8017 1.9255
7.6270 2.0890 1.9326
7.5952 2.3797 1.9418
7.5629 2.6744 1.9531
7.5301 2.9742 1.9665
7.4966 3.2800 1.9823
7.4623 3.5927 2.0005
7.4272 3.9135 2.0212
7.3910 4.2435 2.0446
7.3537 4.5841 2.0710
7.3151 4.9367 2.1004
7.2749 5.3028 2.1331
7.2331 5.6845 2.1696
7.1894 6.0835 2.2100
7.0855 6.4497 2.2365
6.8859 6.7391 2.2365
6.6767 7.0245 2.2365
5.7860 -7.0909 2.2365
5.9966 -6.8301 2.2365
6.1977 -6.5651 2.2365
6.3893 -6.2962 2.2365
6.5717 -6.0236 2.2365
6.7446 -5.7476 2.2365
6.9083 -5.4685 2.2365
7.0626 -5.1864 2.2365
7.2078 -4.9016 2.2365
7.3437 -4.6143 2.2365
7.4705 -4.3247 2.2365
7.5883 -4.0331 2.2365
7.6969 -3.7397 2.2365
7.7966 -3.4445 2.2365
7.8873 -3.1479 2.2365
7.9690 -2.8500 2.2365
8.0419 -2.5510 2.2365
8.2927 -2.3028 2.2880
8.0671 -1.9277 2.2107
8.0327 -1.6137 2.1888
7.9991 -1.3067 2.1697
7.9661 -1.0058 2.1532
7.9337 -0.7101 2.1392
7.9018 -0.4187 2.1276
7.8702 -0.1306 2.1183
7.8390 0.1548 2.1114
7.8079 0.4384 2.1066
7.7769 0.7209 2.1040
7.7460 1.0030 2.1037
7.7151 1.2855 2.1055
7.6840 1.5692 2.1095
7.6527 1.8548 2.1157
7.6211 2.1431 2.1242
7.5892 2.4348 2.1350
7.5567 2.7308 2.1482
7.5237 3.0320 2.1639
7.4900 3.3394 2.1823
7.4556 3.6540 2.2033
7.4202 3.9769 2.2273
7.3253 4.2751 2.2365
7.1912 4.5543 2.2365
7.0484 4.8306 2.2365
6.8970 5.1039 2.2365
6.7371 5.3740 2.2365
6.5684 5.6406 2.2365
6.3911 5.9036 2.2365
6.2052 6.1628 2.2365
6.0105 6.4179 2.2365
5.8072 6.6687 2.2365
5.5953 6.9149 2.2365
5.3746 7.1564 2.2365
5.1453 7.3929 2.2365
4.9073 7.6240 2.2365
4.6606 7.8495 2.2365
4.4053 8.0693 2.2365
4.1415 8.2828 2.2365
3.8691 8.4899 2.2365
3.5881 8.6902 2.2365
3.2987 8.8835 2.2365
3.0010 9.0693 2.2365
2.6948 9.2475 2.2365
5.7471 -7.1373 2.2365
5.9594 -6.8774 2.2365
6.1622 -6.6131 2.2365
6.3555 -6.3449 2.2365
6.5395 -6.0730 2.2365
6.7142 -5.7976 2.2365
6.8795 -5.5189 2.2365
7.0355 -5.2374 2.2365
7.1823 -4.9530 2.2365
7.3199 -4.6662 2.2365
7.4484 -4.3770 2.2365
7.5677 -4.0858 2.2365
7.6780 -3.7927 2.2365
7.7793 -3.4978 2.2365
7.8716 -3.2014 2.2365
7.9550 -2.9037 2.2365
8.0294 -2.6049 2.2365
8.2995 -2.3633 2.2930
8.0734 -1.9851 2.2150
8.0388 -1.6697 2.1926
8.0051 -1.3615 2.1730
7.9720 -1.0596 2.1560
7.9395 -0.7630 2.1415
7.9075 -0.4709 2.1295
7.8759 -0.1823 2.1198
7.8446 0.1036 2.1125
7.8135 0.3874 2.1073
7.7825 0.6701 2.1043
7.7516 0.9522 2.1036
7.7207 1.2346 2.1050
7.6896 1.5181 2.1086
7.6584 1.8032 2.1144
7.6268 2.0909 2.1225
7.5949 2.3820 2.1329
7.5626 2.6772 2.1457
7.5297 2.9774 2.1609
7.4962 3.2836 2.1788
7.4618 3.5968 2.1993
7.4266 3.9181 2.2228
7.3485 4.2246 2.2365
7.2159 4.5042 2.2365
7.0747 4.7811 2.2365
6.9249 5.0549 2.2365
6.7665 5.3256 2.2365
6.5994 5.5929 2.2365
6.4237 5.8565 2.2365
6.2393 6.1164 2.2365
6.0462 6.3723 2.2365
5.8445 6.6239 2.2365
5.6341 6.8710 2.2365
5.4149 7.1133 2.2365
5.1872 7.3507 2.2365
4.9507 7.5828 2.2365
4.7056 7.8094 2.2365
4.4519 8.0301 2.2365
4.1896 8.2448 2.2365
3.9187 8.4531 2.2365
3.6393 8.6547 2.2365
3.3514 8.8492 2.2365
3.0552 9.0364 2.2365
2.7506 9.2154 2.2365
2.7365 -9.2649 2.3889
3.0425 -9.0859 2.3889
3.3397 -8.8987 2.3889
3.6288 -8.7036 2.3889
3.9090 -8.5010 2.3889
4.1804 -8.2914 2.3889
4.4428 -8.0750 2.3889
4.6965 -7.8521 2.3889
4.9411 -7.6233 2.3889
5.1767 -7.3886 2.3889
5.0585 -6.6925 2.2365
5.2621 -6.4630 2.2365
5.4572 -6.2289 2.2365
5.6438 -5.9906 2.2365
5.8218 -5.7483 2.2365
5.9913 -5.5023 2.2365
6.1524 -5.2528 2.2365
6.3049 -5.0000 2.2365
6.4489 -4.7442 2.2365
6.5845 -4.4856 2.2365
6.7116 -4.2244 2.2365
6.8303 -3.9609 2.2365
6.9406 -3.6952 2.2365
7.0425 -3.4275 2.2365
7.1360 -3.1581 2.2365
7.2212 -2.8870 2.2365
7.2982 -2.6145 2.2365
7.3668 -2.3409 2.2365
7.4272 -2.0661 2.2365
7.4794 -1.7905 2.2365
7.5234 -1.5142 2.2365
7.5591 -1.2373 2.2365
7.5868 -0.9600 2.2365
7.6063 -0.6825 2.2365
7.6177 -0.4050 2.2365
7.6209 -0.1275 2.2365
7.6161 0.1498 2.2365
7.6033 0.4266 2.2365
7.5824 0.7030 2.2365
7.5534 0.9785 2.2365
7.5164 1.2533 2.2365
7.4714 1.5271 2.2365
7.4184 1.7996 2.2365
7.3574 2.0709 2.2365
7.2884 2.3407 2.2365
7.2114 2.6088 2.2365
7.1264 2.8752 2.2365
7.0334 3.1396 2.2365
6.9325 3.4018 2.2365
6.8236 3.6617 2.2365
6.7067 3.9192 2.2365
6.5818 4.1740 2.2365
6.4490 4.4260 2.2365
6.3082 4.6749 2.2365
6.1595 4.9206 2.2365
6.0028 5.1629 2.2365
5.8381 5.4016 2.2365
5.6656 5.6364 2.2365
5.4851 5.8672 2.2365
5.2968 6.0937 2.2365
5.1005 6.3158 2.2365
4.8964 6.5331 2.2365
4.6845 6.7454 2.2365
4.4648 6.9525 2.2365
4.2374 7.1542 2.2365
4.0023 7.3501 2.2365
3.7596 7.5400 2.2365
3.5092 7.7236 2.2365
3.2514 7.9007 2.2365
2.9862 8.0709 2.2365
2.7278 8.2770 2.2482
2.5997 8.9612 2.3889
2.2932 9.1191 2.3889
1.9794 9.2684 2.3889
1.6583 9.4086 2.3889
1.3300 9.5396 2.3889
2.6805 -9.2962 2.3889
2.9880 -9.1187 2.3889
3.2870 -8.9329 2.3889
3.5776 -8.7392 2.3889
3.8592 -8.5380 2.3889
4.1322 -8.3296 2.3889
4.3963 -8.1144 2.3889
4.6515 -7.8927 2.3889
4.8977 -7.6649 2.3889
5.1349 -7.4313 2.3889
5.0210 -6.7333 2.2365
5.2261 -6.5046 2.2365
5.4227 -6.2714 2.2365
5.6108 -6.0338 2.2365
5.7904 -5.7922 2.2365
5.9615 -5.5468 2.2365
6.1240 -5.2979 2.2365
6.2780 -5.0457 2.2365
6.4236 -4.7905 2.2365
6.5607 -4.5324 2.2365
6.6893 -4.2716 2.2365
6.8095 -4.0085 2.2365
6.9213 -3.7432 2.2365
7.0247 -3.4758 2.2365
7.1198 -3.2067 2.2365
7.2065 -2.9359 2.2365
7.2849 -2.6637 2.2365
7.3551 -2.3902 2.2365
7.4170 -2.1157 2.2365
7.4706 -1.8402 2.2365
7.5160 -1.5640 2.2365
7.5533 -1.2872 2.2365
7.5824 -1.0100 2.2365
7.6034 -0.7325 2.2365
7.6162 -0.4549 2.2365
7.6209 -0.1774 2.2365
7.6176 0.0999 2.2365
7.6062 0.3768 2.2365
7.5867 0.6533 2.2365
7.5592 0.9290 2.2365
7.5237 1.2039 2.2365
7.4801 1.4779 2.2365
7.4285 1.7507 2.2365
7.3689 2.0222 2.2365
7.3014 2.2922 2.2365
7.2258 2.5607 2.2365
7.1423 2.8274 2.2365
7.0507 3.0921 2.2365
6.9512 3.3548 2.2365
6.8437 3.6151 2.2365
6.7283 3.8730 2.2365
6.6049 4.1283 2.2365
6.4735 4.3808 2.2365
6.3341 4.6303 2.2365
6.1868 4.8766 2.2365
6.0316 5.1195 2.2365
5.8684 5.3589 2.2365
5.6972 5.5944 2.2365
5.5182 5.8260 2.2365
5.3312 6.0533 2.2365
5.1364 6.2761 2.2365
4.9338 6.4943 2.2365
4.7233 6.7076 2.2365
4.5050 6.9156 2.2365
4.2789 7.1183 2.2365
4.0452 7.3152 2.2365
3.8038 7.5063 2.2365
3.5548 7.6911 2.2365
3.2984 7.8693 2.2365
3.0344 8.0408 2.2365
2.7632 8.2052 2.2365
2.6362 8.8719 2.3729
2.3490 9.0913 2.3889
2.0364 9.2422 2.3889
1.7166 9.3841 2.3889
1.3896 9.5167 2.3889
1.0557 9.6397 2.3889
-1.3900 -9.5988 2.3889
-1.0378 -9.5631 2.3889
-0.6898 -9.5152 2.3889
-0.3464 -9.4556 2.3889
-0.0082 -9.3846 2.3889
0.3250 -9.3024 2.3889
0.6525 -9.2097 2.3889
0.9739 -9.1065 2.3889
1.2892 -8.9934 2.3889
1.5980 -8.8707 2.3889
1.9003 -8.7387 2.3889
2.1954 -8.5979 2.3889
2.4836 -8.4485 2.3889
2.7645 -8.2909 2.3889
3.0380 -8.1254 2.3889
3.3039 -7.9524 2.3889
3.5622 -7.7723 2.3889
3.8127 -7.5852 2.3889
4.0554 -7.3917 2.3889
4.2900 -7.1919 2.3889
4.5166 -6.9862 2.3889
4.7352 -6.7749 2.3889
4.6300 -6.1398 2.2365
4.8193 -5.9322 2.2365
5.0008 -5.7202 2.2365
5.1746 -5.5040 2.2365
5.3406 -5.2838 2.2365
5.4989 -5.0598 2.2365
5.6493 -4.8324 2.2365
5.7919 -4.6017 2.2365
5.9267 -4.3680 2.2365
6.0537 -4.1314 2.2365
6.1729 -3.8922 2.2365
6.2843 -3.6506 2.2365
6.3879 -3.4068 2.2365
6.4837 -3.1610 2.2365
6.5717 -2.9133 2.2365
6.6520 -2.6640 2.2365
6.7245 -2.4132 2.2365
6.7892 -2.1611 2.2365
6.8463 -1.9079 2.2365
6.8957 -1.6538 2.2365
6.9373 -1.3989 2.2365
6.9713 -1.1434 2.2365
6.9976 -0.8874 2.2365
7.0163 -0.6312 2.2365
7.0274 -0.3748 2.2365
7.0309 -0.1185 2.2365
7.0267 0.1376 2.2365
7.0150 0.3934 2.2365
6.9957 0.6487 2.2365
6.9688 0.9033 2.2365
6.9344 1.1571 2.2365
6.8925 1.4099 2.2365
6.8430 1.6616 2.2365
6.7860 1.9120 2.2365
6.7215 2.1609 2.2365
6.6496 2.4082 2.2365
6.5701 2.6538 2.2365
6.4832 2.8974 2.2365
6.3889 3.1389 2.2365
6.2870 3.3781 2.2365
6.1778 3.6149 2.2365
6.0611 3.8490 2.2365
5.9371 4.0804 2.2365
5.8056 4.3088 2.2365
5.6668 4.5339 2.2365
5.5206 4.7557 2.2365
5.3671 4.9739 2.2365
5.2063 5.1884 2.2365
5.0383 5.3989 2.2365
4.8630 5.6052 2.2365
4.6805 5.8071 2.2365
4.4909 6.0044 2.2365
4.2941 6.1968 2.2365
4.0904 6.3841 2.2365
3.8796 6.5662 2.2365
3.6619 6.7426 2.2365
3.4373 6.9133 2.2365
3.2060 7.0779 2.2365
2.9680 7.2358 2.2365
2.7932 7.5773 2.2938
2.6408 8.0459 2.3889
2.3659 8.1930 2.3889
0.8847 3.5367 1.0140
0.7574 3.5686 1.0073
0.6290 3.5958 1.0005
0.4998 3.6184 0.9936
0.3697 3.6363 0.9867
0.2391 3.6495 0.9797
0.1081 3.6579 0.9727
-0.0231 3.6616 0.9656
-0.1544 3.6605 0.9584
-0.2856 3.6546 0.9513
-0.4164 3.6441 0.9441
-0.5468 3.6288 0.9369
-0.6766 3.6087 0.9297
-0.8056 3.5840 0.9226
-0.9336 3.5547 0.9154
-2.7888 9.2592 2.3889
-1.1009 -9.5704 2.3889
-0.7521 -9.5247 2.3889
-0.4078 -9.4672 2.3889
-0.0689 -9.3982 2.3889
0.2655 -9.3180 2.3889
0.5940 -9.2271 2.3889
0.9166 -9.1258 2.3889
1.2329 -9.0145 2.3889
1.5429 -8.8935 2.3889
1.8462 -8.7632 2.3889
2.1428 -8.6239 2.3889
2.4322 -8.4760 2.3889
2.7145 -8.3198 2.3889
2.9893 -8.1557 2.3889
3.2566 -7.9841 2.3889
3.5163 -7.8052 2.3889
3.7682 -7.6194 2.3889
4.0123 -7.4270 2.3889
4.2484 -7.2283 2.3889
4.4765 -7.0236 2.3889
4.6964 -6.8133 2.3889
4.6974 -6.3141 2.2862
4.7858 -5.9699 2.2365
4.9687 -5.7587 2.2365
5.1439 -5.5432 2.2365
5.3113 -5.3237 2.2365
5.4709 -5.1004 2.2365
5.6228 -4.8736 2.2365
5.7668 -4.6435 2.2365
5.9030 -4.4103 2.2365
6.0314 -4.1742 2.2365
6.1520 -3.9355 2.2365
6.2648 -3.6943 2.2365
6.3698 -3.4508 2.2365
6.4670 -3.2053 2.2365
6.5564 -2.9580 2.2365
6.6381 -2.7089 2.2365
6.7120 -2.4584 2.2365
6.7782 -2.2066 2.2365
6.8366 -1.9536 2.2365
6.8873 -1.6996 2.2365
6.9304 -1.4448 2.2365
6.9658 -1.1894 2.2365
6.9935 -0.9335 2.2365
7.0135 -0.6773 2.2365
7.0260 -0.4210 2.2365
7.0308 -0.1646 2.2365
7.0280 0.0915 2.2365
7.0176 0.3474 2.2365
6.9997 0.6028 2.2365
6.9742 0.8575 2.2365
6.9412 1.1114 2.2365
6.9006 1.3645 2.2365
6.8525 1.6163 2.2365
6.7968 1.8670 2.2365
6.7337 2.1162 2.2365
6.6631 2.3638 2.2365
6.5850 2.6097 2.2365
6.4994 2.8537 2.2365
6.4064 3.0956 2.2365
6.3059 3.3353 2.2365
6.1980 3.5725 2.2365
6.0827 3.8071 2.2365
5.9599 4.0390 2.2365
5.8298 4.2679 2.2365
5.6923 4.4936 2.2365
5.5475 4.7160 2.2365
5.3953 4.9349 2.2365
5.2358 5.1501 2.2365
5.0691 5.3613 2.2365
4.8951 5.5684 2.2365
4.7139 5.7711 2.2365
4.5255 5.9692 2.2365
4.3301 6.1625 2.2365
4.1276 6.3508 2.2365
3.9180 6.5338 2.2365
3.7016 6.7113 2.2365
3.4782 6.8830 2.2365
3.2481 7.0487 2.2365
3.0113 7.2081 2.2365
2.8093 7.4711 2.2700
2.6896 8.0186 2.3889
2.4159 8.1672 2.3889
2.1355 8.3078 2.3889
0.7804 3.5632 1.0085
0.6522 3.5913 1.0017
0.5231 3.6147 0.9949
0.3932 3.6334 0.9880
0.2627 3.6474 0.9810
0.1317 3.6567 0.9739
0.0005 3.6612 0.9668
-0.1308 3.6610 0.9597
-0.2620 3.6561 0.9526
-0.3929 3.6463 0.9454
-0.5234 3.6319 0.9382
-0.6533 3.6127 0.9310
-0.7824 3.5888 0.9239
-0.9106 3.5603 0.9167
-2.7252 9.2631 2.3889
-5.5444 -7.9701 2.3889
-5.2233 -8.1081 2.3889
-4.8988 -8.2326 2.3889
-4.5716 -8.3438 2.3889
-4.2423 -8.4416 2.3889
-3.9115 -8.5261 2.3889
-3.5798 -8.5976 2.3889
-3.2479 -8.6561 2.3889
-2.9161 -8.7018 2.3889
-2.5850 -8.7348 2.3889
-2.2552 -8.7555 2.3889
-1.9272 -8.7640 2.3889
-1.6012 -8.7605 2.3889
-1.2779 -8.7453 2.3889
-0.9576 -8.7188 2.3889
-0.6407 -8.6811 2.3889
-0.3276 -8.6325 2.3889
-0.0185 -8.5734 2.3889
0.2859 -8.5040 2.3889
0.5859 -8.4247 2.3889
0.8802 -8.3357 2.3889
1.1697 -8.2374 2.3889
1.4535 -8.1301 2.3889
1.7315 -8.0141 2.3889
2.0036 -7.8896 2.3889
2.2694 -7.7571 2.3889
2.5288 -7.6167 2.3889
2.7817 -7.4689 2.3889
3.0278 -7.3140 2.3889
3.2672 -7.1521 2.3889
3.4996 -6.9837 2.3889
3.7249 -6.8089 2.3889
3.9430 -6.6282 2.3889
4.1539 -6.4417 2.3889
4.3574 -6.2497 2.3889
4.5135 -5.9993 2.3679
4.4397 -5.4773 2.2365
4.6093 -5.2838 2.2365
4.7717 -5.0861 2.2365
4.9271 -4.8845 2.2365
5.0753 -4.6793 2.2365
5.2162 -4.4706 2.2365
5.3500 -4.2586 2.2365
5.4766 -4.0437 2.2365
5.5959 -3.8259 2.2365
5.7079 -3.6055 2.2365
5.8127 -3.3827 2.2365
5.9103 -3.1576 2.2365
6.0005 -2.9305 2.2365
6.0835 -2.7016 2.2365
6.1593 -2.4709 2.2365
6.2278 -2.2388 2.2365
6.2890 -2.0054 2.2365
6.3430 -1.7708 2.2365
6.3897 -1.5353 2.2365
6.4292 -1.2989 2.2365
6.4616 -1.0619 2.2365
6.4867 -0.8244 2.2365
6.5046 -0.5866 2.2365
6.5153 -0.3487 2.2365
6.5188 -0.1107 2.2365
6.5152 0.1271 2.2365
6.5044 0.3645 2.2365
6.4865 0.6016 2.2365
6.4615 0.8379 2.2365
6.4294 1.0736 2.2365
6.3901 1.3082 2.2365
6.3438 1.5418 2.2365
6.2904 1.7741 2.2365
6.2300 2.0050 2.2365
6.1625 2.2343 2.2365
6.0880 2.4619 2.2365
6.0065 2.6876 2.2365
5.9179 2.9112 2.2365
5.8225 3.1325 2.2365
5.7200 3.3515 2.2365
5.6106 3.5679 2.2365
5.4944 3.7816 2.2365
5.3712 3.9923 2.2365
5.2412 4.1999 2.2365
5.1044 4.4042 2.2365
4.9607 4.6050 2.2365
4.8104 4.8021 2.2365
4.6533 4.9954 2.2365
4.4895 5.1845 2.2365
4.3192 5.3694 2.2365
4.1422 5.5498 2.2365
3.9588 5.7255 2.2365
3.7689 5.8963 2.2365
3.5727 6.0619 2.2365
3.3702 6.2222 2.2365
3.1615 6.3769 2.2365
2.9467 6.5257 2.2365
2.8510 6.9746 2.3392
2.6695 7.2687 2.3889
2.4212 7.4074 2.3889
2.1668 7.5390 2.3889
0.8042 3.2322 1.0076
0.6879 3.2613 1.0015
0.5705 3.2862 0.9953
0.4523 3.3067 0.9890
0.3335 3.3231 0.9827
0.2141 3.3351 0.9763
0.0944 3.3427 0.9698
-0.0256 3.3461 0.9633
-0.1455 3.3451 0.9568
-0.2654 3.3398 0.9503
-0.3850 3.3301 0.9437
-0.5042 3.3161 0.9372
-0.6228 3.2978 0.9306
-0.7407 3.2752 0.9241
-0.8576 3.2483 0.9175
-2.5528 8.4362 2.3889
-2.8740 8.4033 2.3889
-3.1960 8.3587 2.3889
-3.5184 8.3019 2.3889
-3.8408 8.2329 2.3889
-4.1626 8.1515 2.3889
-4.4832 8.0576 2.3889
-4.8022 7.9510 2.3889
-5.1190 7.8318 2.3889
-5.4330 7.6997 2.3889
-5.7436 7.5548 2.3889
-6.0502 7.3970 2.3889
-6.3522 7.2265 2.3889
-6.6490 7.0432 2.3889
-5.2813 -8.0842 2.3889
-4.9574 -8.2112 2.3889
-4.6307 -8.3247 2.3889
-4.3017 -8.4250 2.3889
-3.9712 -8.5119 2.3889
-3.6395 -8.5857 2.3889
-3.3076 -8.6465 2.3889
-2.9757 -8.6945 2.3889
-2.6446 -8.7298 2.3889
-2.3144 -8.7527 2.3889
-1.9860 -8.7633 2.3889
-1.6596 -8.7620 2.3889
-1.3359 -8.7489 2.3889
-1.0150 -8.7244 2.3889
-0.6975 -8.6887 2.3889
-0.3837 -8.6420 2.3889
-0.0738 -8.5848 2.3889
0.2313 -8.5172 2.3889
0.5320 -8.4397 2.3889
0.8276 -8.3524 2.3889
1.1180 -8.2558 2.3889
1.4024 -8.1501 2.3889
1.6819 -8.0356 2.3889
1.9550 -7.9126 2.3889
2.2220 -7.7815 2.3889
2.4826 -7.6426 2.3889
2.7366 -7.4961 2.3889
2.9840 -7.3424 2.3889
3.2246 -7.1817 2.3889
3.4582 -7.0145 2.3889
3.6848 -6.8408 2.3889
3.9043 -6.6611 2.3889
4.1165 -6.4757 2.3889
4.3213 -6.2847 2.3889
4.5188 -6.0885 2.3889
4.4084 -5.5117 2.2365
4.5793 -5.3189 2.2365
4.7430 -5.1220 2.2365
4.8996 -4.9211 2.2365
5.0491 -4.7165 2.2365
5.1914 -4.5084 2.2365
5.3265 -4.2970 2.2365
5.4543 -4.0826 2.2365
5.5749 -3.8653 2.2365
5.6883 -3.6453 2.2365
5.7944 -3.4229 2.2365
5.8932 -3.1983 2.2365
5.9848 -2.9715 2.2365
6.0691 -2.7429 2.2365
6.1462 -2.5126 2.2365
6.2160 -2.2807 2.2365
6.2785 -2.0475 2.2365
6.3338 -1.8131 2.2365
6.3818 -1.5777 2.2365
6.4227 -1.3415 2.2365
6.4563 -1.1046 2.2365
6.4827 -0.8672 2.2365
6.5019 -0.6295 2.2365
6.5139 -0.3915 2.2365
6.5187 -0.1536 2.2365
6.5164 0.0843 2.2365
6.5069 0.3218 2.2365
6.4903 0.5590 2.2365
6.4665 0.7954 2.2365
6.4357 1.0312 2.2365
6.3977 1.2660 2.2365
6.3527 1.4998 2.2365
6.3006 1.7324 2.2365
6.2414 1.9635 2.2365
6.1752 2.1931 2.2365
6.1019 2.4211 2.2365
6.0216 2.6471 2.2365
5.9344 2.8711 2.2365
5.8402 3.0929 2.2365
5.7390 3.3123 2.2365
5.6308 3.5292 2.2365
5.5158 3.7433 2.2365
5.3939 3.9546 2.2365
5.2651 4.1628 2.2365
5.1295 4.3676 2.2365
4.9871 4.5691 2.2365
4.8379 4.7669 2.2365
4.6820 4.9609 2.2365
4.5195 5.1508 2.2365
4.3503 5.3365 2.2365
4.1746 5.5177 2.2365
3.9923 5.6942 2.2365
3.8036 5.8659 2.2365
3.6085 6.0325 2.2365
3.4071 6.1937 2.2365
3.1995 6.3495 2.2365
2.9858 6.4994 2.2365
2.8654 6.8818 2.3168
2.7135 7.2430 2.3889
2.4663 7.3830 2.3889
2.2131 7.5159 2.3889
0.8250 3.2265 1.0087
0.7089 3.2564 1.0026
0.5917 3.2820 0.9964
0.4737 3.3034 0.9901
0.3549 3.3204 0.9838
0.2356 3.3332 0.9774
0.1160 3.3417 0.9710
-0.0040 3.3458 0.9645
-0.1239 3.3456 0.9580
-0.2439 3.3410 0.9515
-0.3635 3.3321 0.9449
-0.4828 3.3189 0.9383
-0.6015 3.3014 0.9318
-0.7195 3.2796 0.9252
-0.8367 3.2535 0.9187
-0.9528 3.2232 0.9122
-2.8161 8.4101 2.3889
-3.1380 8.3676 2.3889
-3.4604 8.3130 2.3889
-3.7828 8.2462 2.3889
-4.1047 8.1671 2.3889
-4.4256 8.0754 2.3889
-4.7449 7.9712 2.3889
-5.0622 7.8541 2.3889
-5.3767 7.7244 2.3889
-5.6880 7.5818 2.3889
-5.9954 7.4264 2.3889
-6.2982 7.2581 2.3889
-6.5960 7.0771 2.3889
-5.3393 -8.0599 2.3889
-5.0159 -8.1893 2.3889
-7.1875 -5.7947 2.3889
-6.9454 -6.0172 2.3889
-6.6953 -6.2288 2.3889
-6.4378 -6.4292 2.3889
-6.1734 -6.6182 2.3889
-5.9027 -6.7956 2.3889
-5.6264 -6.9612 2.3889
-5.3450 -7.1149 2.3889
-5.0592 -7.2566 2.3889
-4.7694 -7.3864 2.3889
-4.4763 -7.5041 2.3889
-4.1804 -7.6097 2.3889
-3.8823 -7.7034 2.3889
-3.5825 -7.7851 2.3889
-3.2816 -7.8549 2.3889
-2.9800 -7.9130 2.3889
-2.6782 -7.9595 2.3889
-2.3768 -7.9944 2.3889
-2.0761 -8.0181 2.3889
-1.7766 -8.0306 2.3889
-1.4788 -8.0321 2.3889
-1.1830 -8.0230 2.3889
-0.8896 -8.0033 2.3889
-0.5991 -7.9733 2.3889
-0.3116 -7.9332 2.3889
-0.0277 -7.8834 2.3889
0.2525 -7.8240 2.3889
0.5286 -7.7553 2.3889
0.8004 -7.6777 2.3889
1.0676 -7.5912 2.3889
1.3299 -7.4963 2.3889
1.5871 -7.3932 2.3889
1.8390 -7.2822 2.3889
2.0854 -7.1634 2.3889
2.3262 -7.0373 2.3889
2.5611 -6.9041 2.3889
2.7900 -6.7641 2.3889
3.0128 -6.6175 2.3889
3.2293 -6.4645 2.3889
3.4394 -6.3055 2.3889
3.6430 -6.1408 2.3889
3.8400 -5.9705 2.3889
4.0303 -5.7949 2.3889
4.2138 -5.6144 2.3889
4.2504 -5.2558 2.3127
4.2693 -4.9049 2.2365
4.4217 -4.7230 2.2365
4.5675 -4.5374 2.2365
4.7067 -4.3482 2.2365
4.8392 -4.1555 2.2365
4.9650 -3.9597 2.2365
5.0842 -3.7610 2.2365
5.1965 -3.5594 2.2365
5.3021 -3.3552 2.2365
5.4010 -3.1487 2.2365
5.4930 -2.9399 2.2365
5.5783 -2.7291 2.2365
5.6567 -2.5164 2.2365
5.7283 -2.3021 2.2365
5.7931 -2.0863 2.2365
5.8511 -1.8691 2.2365
5.9022 -1.6508 2.2365
5.9466 -1.4315 2.2365
5.9841 -1.2114 2.2365
6.0149 -0.9906 2.2365
6.0388 -0.7693 2.2365
6.0559 -0.5476 2.2365
6.0663 -0.3258 2.2365
6.0699 -0.1039 2.2365
6.0667 0.1178 2.2365
6.0568 0.3393 2.2365
6.0401 0.5603 2.2365
6.0167 0.7807 2.2365
5.9866 1.0003 2.2365
5.9497 1.2191 2.2365
5.9062 1.4368 2.2365
5.8560 1.6532 2.2365
5.7992 1.8683 2.2365
5.7357 2.0819 2.2365
5.6656 2.2938 2.2365
5.5889 2.5038 2.2365
5.5057 2.7118 2.2365
5.4159 2.9176 2.2365
5.3195 3.1211 2.2365
5.2167 3.3221 2.2365
5.1074 3.5203 2.2365
4.9916 3.7158 2.2365
4.8695 3.9081 2.2365
4.7410 4.0973 2.2365
4.6062 4.2831 2.2365
4.4651 4.4653 2.2365
4.3178 4.6437 2.2365
4.1643 4.8182 2.2365
4.0047 4.9885 2.2365
3.8390 5.1545 2.2365
3.6674 5.3159 2.2365
3.4898 5.4726 2.2365
3.3064 5.6244 2.2365
3.1173 5.7710 2.2365
2.9697 6.0075 2.2726
2.9010 6.4449 2.3833
2.6880 6.5985 2.3889
2.4625 6.7307 2.3889
2.2316 6.8563 2.3889
0.8416 2.9423 1.0077
0.7356 2.9729 1.0022
0.6286 2.9996 0.9965
0.5207 3.0225 0.9908
0.4120 3.0414 0.9851
0.3026 3.0564 0.9792
0.1928 3.0674 0.9733
0.0827 3.0744 0.9674
-0.0276 3.0775 0.9615
-0.1380 3.0766 0.9555
-0.2483 3.0716 0.9494
-0.3583 3.0627 0.9434
-0.4679 3.0498 0.9374
-0.5770 3.0330 0.9313
-0.6854 3.0122 0.9253
-0.7930 2.9875 0.9193
-0.8996 2.9590 0.9133
-2.6462 7.7046 2.3889
-2.9398 7.6591 2.3889
-3.2334 7.6026 2.3889
-3.5267 7.5349 2.3889
-3.8190 7.4560 2.3889
-4.1100 7.3657 2.3889
-4.3991 7.2640 2.3889
-4.6858 7.1508 2.3889
-4.9697 7.0260 2.3889
-5.2502 6.8898 2.3889
-5.5268 6.7420 2.3889
-5.7989 6.5828 2.3889
-6.0660 6.4122 2.3889
-6.3274 6.2304 2.3889
-6.5828 6.0373 2.3889
-6.8314 5.8333 2.3889
-7.0728 5.6186 2.3889
-7.3063 5.3932 2.3889
-7.5314 5.1577 2.3889
-7.7475 4.9121 2.3889
-7.9542 4.6569 2.3889
-8.1508 4.3923 2.3889
-8.3369 4.1190 2.3889
-8.5120 3.8371 2.3889
-8.6756 3.5473 2.3889
-8.8272 3.2500 2.3889
-8.9664 2.9457 2.3889
-9.0928 2.6351 2.3889
-9.2061 2.3186 2.3889
-9.3058 1.9969 2.3889
-9.3918 1.6706 2.3889
-9.4636 1.3404 2.3889
-9.5212 1.0070 2.3889
-9.5642 0.6710 2.3889
-9.5926 0.3331 2.3889
-9.6063 -0.0059 2.3889
-9.6051 -0.3453 2.3889
-9.5891 -0.6845 2.3889
-9.5583 -1.0227 2.3889
-9.5128 -1.3591 2.3889
-9.4526 -1.6931 2.3889
-9.3779 -2.0240 2.3889
-9.2890 -2.3510 2.3889
-9.1860 -2.6736 2.3889
-9.0693 -2.9910 2.3889
-8.9391 -3.3025 2.3889
-8.7958 -3.6077 2.3889
-8.6398 -3.9059 2.3889
-8.4715 -4.1964 2.3889
-8.2913 -4.4789 2.3889
-8.0998 -4.7528 2.3889
-7.8974 -5.0176 2.3889
-7.6846 -5.2729 2.3889
-7.4620 -5.5183 2.3889
-7.2302 -5.7535 2.3889
-6.9896 -5.9780 2.3889
-6.7409 -6.1916 2.3889
-6.4847 -6.3940 2.3889
-6.2214 -6.5851 2.3889
-5.9519 -6.7645 2.3889
-5.6765 -6.9322 2.3889
-5.3960 -7.0881 2.3889
-5.1109 -7.2320 2.3889
-4.8218 -7.3639 2.3889
-4.5293 -7.4838 2.3889
-4.2338 -7.5916 2.3889
-3.9361 -7.6874 2.3889
-3.6366 -7.7713 2.3889
-3.3358 -7.8432 2.3889
-3.0343 -7.9034 2.3889
-2.7325 -7.9520 2.3889
-2.4310 -7.9890 2.3889
-2.1301 -8.0147 2.3889
-1.8304 -8.0291 2.3889
-1.5323 -8.0327 2.3889
-1.2361 -8.0254 2.3889
-0.9423 -8.0076 2.3889
-0.6511 -7.9794 2.3889
-0.3631 -7.9412 2.3889
-0.0785 -7.8931 2.3889
0.2024 -7.8354 2.3889
0.4793 -7.7684 2.3889
0.7518 -7.6923 2.3889
1.0198 -7.6074 2.3889
1.2830 -7.5140 2.3889
1.5412 -7.4124 2.3889
1.7940 -7.3027 2.3889
2.0415 -7.1854 2.3889
2.2833 -7.0606 2.3889
2.5193 -6.9286 2.3889
2.7493 -6.7898 2.3889
2.9731 -6.6443 2.3889
3.1908 -6.4925 2.3889
3.4020 -6.3346 2.3889
3.6068 -6.1709 2.3889
3.8050 -6.0016 2.3889
3.9965 -5.8269 2.3889
4.1813 -5.6472 2.3889
4.2749 -5.3570 2.3427
4.2412 -4.9372 2.2365
4.3947 -4.7560 2.2365
4.5417 -4.5711 2.2365
4.6821 -4.3825 2.2365
4.8158 -4.1905 2.2365
4.9429 -3.9952 2.2365
5.0632 -3.7970 2.2365
5.1768 -3.5959 2.2365
5.2836 -3.3922 2.2365
5.3837 -3.1860 2.2365
5.4770 -2.9776 2.2365
5.5634 -2.7672 2.2365
5.6431 -2.5548 2.2365
5.7159 -2.3408 2.2365
5.7819 -2.1252 2.2365
5.8411 -1.9083 2.2365
5.8935 -1.6902 2.2365
5.9391 -1.4710 2.2365
5.9779 -1.2510 2.2365
6.0098 -1.0303 2.2365
6.0350 -0.8091 2.2365
6.0534 -0.5875 2.2365
6.0649 -0.3657 2.2365
6.0697 -0.1439 2.2365
6.0678 0.0779 2.2365
6.0591 0.2994 2.2365
6.0436 0.5205 2.2365
6.0214 0.7410 2.2365
5.9925 0.9608 2.2365
5.9569 1.1798 2.2365
5.9145 1.3977 2.2365
5.8656 1.6144 2.2365
5.8099 1.8297 2.2365
5.7476 2.0436 2.2365
5.6787 2.2558 2.2365
5.6032 2.4661 2.2365
5.5212 2.6745 2.2365
5.4325 2.8808 2.2365
5.3374 3.0846 2.2365
5.2357 3.2861 2.2365
5.1275 3.4849 2.2365
5.0130 3.6808 2.2365
4.8920 3.8738 2.2365
4.7646 4.0635 2.2365
4.6309 4.2499 2.2365
4.4910 4.4328 2.2365
4.3447 4.6119 2.2365
4.1924 4.7871 2.2365
4.0339 4.9582 2.2365
3.8693 5.1249 2.2365
3.6987 5.2872 2.2365
3.5222 5.4448 2.2365
3.3399 5.5974 2.2365
3.1518 5.7449 2.2365
2.9813 5.9334 2.2541
2.9139 6.3627 2.3623
2.7280 6.5740 2.3889
2.5035 6.7074 2.3889
2.2735 6.8342 2.3889
0.8606 2.9364 1.0087
0.7548 2.9677 1.0032
0.6479 2.9951 0.9976
0.5402 3.0186 0.9919
0.4316 3.0383 0.9861
0.3224 3.0540 0.9803
0.2126 3.0657 0.9744
0.1025 3.0735 0.9685
-0.0078 3.0772 0.9625
-0.1181 3.0770 0.9565
-0.2284 3.0728 0.9505
-0.3385 3.0646 0.9445
-0.4482 3.0524 0.9385
-0.5574 3.0363 0.9324
-0.6659 3.0162 0.9264
-0.7737 2.9923 0.9204
-0.8805 2.9644 0.9144
-2.5933 7.7117 2.3889
-2.8869 7.6681 2.3889
-3.1806 7.6136 2.3889
-3.4739 7.5479 2.3889
-3.7665 7.4710 2.3889
-4.0577 7.3828 2.3889
-4.3472 7.2831 2.3889
-4.6344 7.1720 2.3889
-4.9189 7.0493 2.3889
-5.2000 6.9153 2.3889
-5.4773 6.7695 2.3889
-5.7503 6.6123 2.3889
-6.0183 6.4438 2.3889
-6.2808 6.2639 2.3889
-6.5373 6.0729 2.3889
-6.7872 5.8709 2.3889
-7.0299 5.6580 2.3889
-7.2648 5.4346 2.3889
-7.4915 5.2008 2.3889
-7.7093 4.9570 2.3889
-7.9177 4.7035 2.3889
-8.1162 4.4406 2.3889
-8.3042 4.1688 2.3889
-8.4813 3.8885 2.3889
-8.6470 3.6001 2.3889
-8.8008 3.3041 2.3889
-8.9423 3.0010 2.3889
-9.0710 2.6914 2.3889
-9.1867 2.3759 2.3889
-9.2889 2.0551 2.3889
-9.3773 1.7297 2.3889
-9.4517 1.4001 2.3889
-9.5119 1.0672 2.3889
-9.5576 0.7316 2.3889
-9.5886 0.3941 2.3889
-9.6049 0.0552 2.3889
-9.6064 -0.2842 2.3889
-9.5931 -0.6235 2.3889
-9.5649 -0.9619 2.3889
-9.5220 -1.2987 2.3889
-9.4645 -1.6332 2.3889
-9.3924 -1.9647 2.3889
-9.3060 -2.2925 2.3889
-9.2056 -2.6159 2.3889
-9.0913 -2.9342 2.3889
-8.9635 -3.2469 2.3889
-8.8225 -3.5533 2.3889
-8.6688 -3.8527 2.3889
-8.5027 -4.1447 2.3889
-8.3246 -4.4287 2.3889
-8.1351 -4.7042 2.3889
-7.9346 -4.9707 2.3889
-7.7237 -5.2277 2.3889
-7.5028 -5.4749 2.3889
-7.2726 -5.7119 2.3889
-7.0335 -5.9383 2.3889
-6.7862 -6.1539 2.3889
-6.5313 -6.3584 2.3889
-6.2693 -6.5515 2.3889
-6.0008 -6.7331 2.3889
-5.7265 -6.9029 2.3889
-5.4469 -7.0609 2.3889
-5.1626 -7.2070 2.3889
-4.8741 -7.3411 2.3889
-4.5821 -7.4631 2.3889
-6.5777 -5.2948 2.3889
-6.3589 -5.5002 2.3889
-6.1327 -5.6959 2.3889
-5.8995 -5.8815 2.3889
-5.6600 -6.0569 2.3889
-5.4146 -6.2218 2.3889
-5.1639 -6.3762 2.3889
-4.9084 -6.5200 2.3889
-4.6486 -6.6530 2.3889
-4.3849 -6.7751 2.3889
-4.1180 -6.8863 2.3889
-3.8484 -6.9866 2.3889
-3.5764 -7.0761 2.3889
-3.3026 -7.1547 2.3889
-3.0275 -7.2225 2.3889
-2.7516 -7.2795 2.3889
-2.4752 -7.3260 2.3889
-2.1988 -7.3619 2.3889
-1.9229 -7.3874 2.3889
-1.6478 -7.4026 2.3889
-1.3739 -7.4078 2.3889
-1.1016 -7.4031 2.3889
-0.8313 -7.3886 2.3889
-0.5633 -7.3646 2.3889
-0.2979 -7.3312 2.3889
-0.0354 -7.2887 2.3889
0.2238 -7.2374 2.3889
0.4794 -7.1773 2.3889
0.7313 -7.1088 2.3889
0.9792 -7.0320 2.3889
1.2227 -6.9473 2.3889
1.4618 -6.8549 2.3889
1.6962 -6.7549 2.3889
1.9256 -6.6477 2.3889
2.1500 -6.5335 2.3889
2.3691 -6.4125 2.3889
2.5829 -6.2851 2.3889
2.7910 -6.1513 2.3889
2.9934 -6.0115 2.3889
3.1901 -5.8659 2.3889
3.3808 -5.7148 2.3889
3.5654 -5.5584 2.3889
3.7439 -5.3968 2.3889
3.9162 -5.2305 2.3889
4.0821 -5.0594 2.3889
4.1488 -4.7771 2.3366
4.1275 -4.4183 2.2436
4.2516 -4.2325 2.2365
4.3827 -4.0571 2.2365
4.5076 -3.8785 2.2365
4.6263 -3.6968 2.2365
4.7387 -3.5121 2.2365
4.8448 -3.3247 2.2365
4.9446 -3.1347 2.2365
5.0380 -2.9424 2.2365
5.1250 -2.7479 2.2365
5.2057 -2.5514 2.2365
5.2799 -2.3530 2.2365
5.3478 -2.1530 2.2365
5.4092 -1.9515 2.2365
5.4642 -1.7487 2.2365
5.5128 -1.5447 2.2365
5.5549 -1.3397 2.2365
5.5906 -1.1339 2.2365
5.6198 -0.9274 2.2365
5.6427 -0.7204 2.2365
5.6591 -0.5131 2.2365
5.6691 -0.3055 2.2365
5.6727 -0.0979 2.2365
5.6699 0.1096 2.2365
5.6606 0.3169 2.2365
5.6451 0.5237 2.2365
5.6231 0.7300 2.2365
5.5948 0.9355 2.2365
5.5601 1.1402 2.2365
5.5191 1.3439 2.2365
5.4718 1.5464 2.2365
5.4182 1.7475 2.2365
5.3584 1.9471 2.2365
5.2923 2.1452 2.2365
5.2199 2.3414 2.2365
5.1414 2.5356 2.2365
5.0567 2.7278 2.2365
4.9659 2.9176 2.2365
4.8689 3.1050 2.2365
4.7659 3.2898 2.2365
4.6568 3.4719 2.2365
4.5418 3.6509 2.2365
4.4208 3.8269 2.2365
4.2939 3.9995 2.2365
4.1611 4.1687 2.2365
4.0225 4.3343 2.2365
3.8782 4.4960 2.2365
3.7282 4.6537 2.2365
3.5726 4.8072 2.2365
3.4115 4.9563 2.2365
3.2449 5.1009 2.2365
3.0730 5.2407 2.2365
3.0071 5.5823 2.3225
2.8982 5.8804 2.3889
2.6980 6.0132 2.3889
2.4925 6.1401 2.3889
2.2818 6.2608 2.3889
0.8715 2.6892 1.0077
0.7745 2.7209 1.0026
0.6765 2.7492 0.9975
0.5775 2.7739 0.9923
0.4777 2.7950 0.9870
0.3771 2.8125 0.9817
0.2760 2.8263 0.9763
0.1745 2.8365 0.9708
0.0726 2.8430 0.9653
-0.0294 2.8458 0.9598
-0.1315 2.8449 0.9543
-0.2335 2.8404 0.9487
-0.3352 2.8321 0.9431
-0.4366 2.8202 0.9376
-0.5375 2.8046 0.9320
-0.6377 2.7854 0.9264
-0.7372 2.7626 0.9209
-0.8358 2.7362 0.9153
-0.9334 2.7062 0.9098
-2.7203 7.0599 2.3889
-2.9896 7.0042 2.3889
-3.2582 6.9384 2.3889
-3.5257 6.8622 2.3889
-3.7916 6.7756 2.3889
-4.0556 6.6787 2.3889
-4.3172 6.5713 2.3889
-4.5759 6.4534 2.3889
-4.8313 6.3251 2.3889
-5.0828 6.1864 2.3889
-5.3300 6.0374 2.3889
-5.5724 5.8781 2.3889
-5.8095 5.7087 2.3889
-6.0408 5.5293 2.3889
-6.2658 5.3400 2.3889
-6.4840 5.1412 2.3889
-6.6949 4.9329 2.3889
-6.8980 4.7154 2.3889
-7.0929 4.4890 2.3889
-7.2791 4.2542 2.3889
-7.4561 4.0110 2.3889
-7.6234 3.7599 2.3889
-7.7807 3.5014 2.3889
-7.9276 3.2359 2.3889
-8.0636 2.9637 2.3889
-8.1883 2.6854 2.3889
-8.3015 2.4015 2.3889
-8.4029 2.1124 2.3889
-8.4920 1.8188 2.3889
-8.5687 1.5212 2.3889
-8.6328 1.2202 2.3889
-8.6840 0.9163 2.3889
-8.7222 0.6102 2.3889
-8.7473 0.3024 2.3889
-8.7591 -0.0063 2.3889
-8.7577 -0.3154 2.3889
-8.7429 -0.6242 2.3889
-8.7149 -0.9321 2.3889
-8.6737 -1.2385 2.3889
-8.6194 -1.5427 2.3889
-8.5521 -1.8442 2.3889
-8.4720 -2.1422 2.3889
-8.3793 -2.4363 2.3889
-8.2742 -2.7258 2.3889
-8.1570 -3.0102 2.3889
-8.0280 -3.2890 2.3889
-7.8875 -3.5615 2.3889
-7.7359 -3.8273 2.3889
-7.5736 -4.0859 2.3889
-7.4010 -4.3370 2.3889
-7.2185 -4.5800 2.3889
-7.0266 -4.8145 2.3889
-6.8257 -5.0403 2.3889
-6.6162 -5.2569 2.3889
-6.3988 -5.4640 2.3889
-6.1739 -5.6614 2.3889
-5.9420 -5.8488 2.3889
-5.7036 -6.0260 2.3889
-5.4592 -6.1929 2.3889
-5.2094 -6.3492 2.3889
-4.9547 -6.4949 2.3889
-4.6956 -6.6298 2.3889
-4.4326 -6.7539 2.3889
-4.1663 -6.8671 2.3889
-3.8971 -6.9694 2.3889
-3.6255 -7.0608 2.3889
-3.3520 -7.1413 2.3889
-3.0771 -7.2111 2.3889
-2.8013 -7.2701 2.3889
-2.5249 -7.3184 2.3889
-2.2485 -7.3562 2.3889
-1.9725 -7.3835 2.3889
-1.6972 -7.4007 2.3889
-1.4231 -7.4076 2.3889
-1.1505 -7.4047 2.3889
-0.8798 -7.3919 2.3889
-0.6113 -7.3696 2.3889
-0.3454 -7.3379 2.3889
-0.0824 -7.2971 2.3889
0.1773 -7.2473 2.3889
0.4337 -7.1887 2.3889
0.6863 -7.1217 2.3889
0.9349 -7.0464 2.3889
1.1792 -6.9632 2.3889
1.4191 -6.8721 2.3889
1.6543 -6.7735 2.3889
1.8847 -6.6675 2.3889
2.1100 -6.5546 2.3889
2.3301 -6.4348 2.3889
2.5448 -6.3085 2.3889
2.7539 -6.1758 2.3889
2.9574 -6.0371 2.3889
3.1551 -5.8926 2.3889
3.3469 -5.7424 2.3889
3.5326 -5.5869 2.3889
3.7122 -5.4263 2.3889
3.8856 -5.2608 2.3889
4.0527 -5.0906 2.3889
4.1556 -4.8485 2.3561
4.1245 -4.4734 2.2559
4.2274 -4.2637 2.2365
4.3596 -4.0890 2.2365
4.4856 -3.9109 2.2365
4.6054 -3.7297 2.2365
4.7189 -3.5455 2.2365
4.8262 -3.3586 2.2365
4.9271 -3.1691 2.2365
5.0216 -2.9772 2.2365
5.1098 -2.7830 2.2365
5.1916 -2.5869 2.2365
5.2670 -2.3889 2.2365
5.3360 -2.1891 2.2365
5.3986 -1.9879 2.2365
5.4548 -1.7853 2.2365
5.5045 -1.5815 2.2365
5.5478 -1.3767 2.2365
5.5846 -1.1710 2.2365
5.6151 -0.9646 2.2365
5.6391 -0.7577 2.2365
5.6566 -0.5504 2.2365
5.6678 -0.3429 2.2365
5.6725 -0.1353 2.2365
5.6708 0.0723 2.2365
5.6628 0.2796 2.2365
5.6483 0.4865 2.2365
5.6275 0.6929 2.2365
5.6003 0.8986 2.2365
5.5668 1.1034 2.2365
5.5270 1.3073 2.2365
5.4808 1.5100 2.2365
5.4283 1.7114 2.2365
5.3696 1.9113 2.2365
5.3046 2.1097 2.2365
5.2334 2.3062 2.2365
5.1560 2.5008 2.2365
5.0724 2.6934 2.2365
4.9827 2.8836 2.2365
4.8868 3.0715 2.2365
4.7849 3.2568 2.2365
4.6769 3.4393 2.2365
4.5629 3.6189 2.2365
4.4430 3.7954 2.2365
4.3171 3.9687 2.2365
4.1854 4.1385 2.2365
4.0479 4.3047 2.2365
3.9046 4.4672 2.2365
3.7556 4.6256 2.2365
3.6010 4.7799 2.2365
3.4409 4.9298 2.2365
3.2753 5.0752 2.2365
3.1043 5.2160 2.2365
3.0177 5.5156 2.3050
2.9337 5.8559 2.3889
2.7344 5.9897 2.3889
2.5298 6.1177 2.3889
2.3201 6.2396 2.3889
2.1053 6.3551 2.3889
0.7921 2.7155 1.0035
0.6942 2.7444 0.9984
0.5954 2.7697 0.9932
0.4957 2.7915 0.9880
0.3953 2.8096 0.9826
0.2943 2.8241 0.9772
0.1928 2.8349 0.9718
0.0910 2.8421 0.9663
-0.0110 2.8456 0.9608
-0.1131 2.8454 0.9553
-0.2151 2.8415 0.9497
-0.3169 2.8339 0.9441
-0.4184 2.8226 0.9386
-0.5194 2.8077 0.9330
-0.6197 2.7891 0.9274
-0.7194 2.7670 0.9219
-0.8182 2.7412 0.9163
-0.9159 2.7119 0.9108
-2.6718 7.0688 2.3889
-2.9412 7.0150 2.3889
-3.2099 6.9510 2.3889
-3.4776 6.8767 2.3889
-3.7439 6.7920 2.3889
-4.0083 6.6969 2.3889
-4.2704 6.5914 2.3889
-4.5296 6.4754 2.3889
-4.7856 6.3490 2.3889
-5.0379 6.2122 2.3889
-5.2859 6.0650 2.3889
-5.5292 5.9076 2.3889
-5.7672 5.7399 2.3889
-5.9996 5.5623 2.3889
-6.2258 5.3748 2.3889
-6.4452 5.1777 2.3889
-6.6575 4.9710 2.3889
-6.8621 4.7552 2.3889
-7.0585 4.5304 2.3889
-7.2462 4.2970 2.3889
-7.4249 4.0553 2.3889
-7.5940 3.8056 2.3889
-7.7532 3.5485 2.3889
-7.9019 3.2842 2.3889
-8.0399 3.0131 2.3889
-8.1667 2.7359 2.3889
-8.2820 2.4530 2.3889
-8.3855 2.1648 2.3889
-8.4769 1.8720 2.3889
-8.5559 1.5751 2.3889
-8.6222 1.2746 2.3889
-8.6758 0.9712 2.3889
-8.7163 0.6654 2.3889
-8.7437 0.3579 2.3889
-8.7580 0.0493 2.3889
-8.7589 -0.2597 2.3889
-8.7466 -0.5687 2.3889
-8.7210 -0.8768 2.3889
-8.6821 -1.1835 2.3889
-8.6302 -1.4882 2.3889
-8.5652 -1.7901 2.3889
-8.4873 -2.0889 2.3889
-8.3969 -2.3837 2.3889
-8.2940 -2.6741 2.3889
-8.1789 -2.9594 2.3889
-8.0520 -3.2392 2.3889
-7.9136 -3.5129 2.3889
-7.7640 -3.7800 2.3889
-7.6036 -4.0400 2.3889
-7.4329 -4.2924 2.3889
-7.2521 -4.5368 2.3889
-7.0618 -4.7729 2.3889
-6.8625 -5.0003 2.3889
-6.6545 -5.2186 2.3889
-6.4385 -5.4274 2.3889
-6.2149 -5.6266 2.3889
-5.9842 -5.8158 2.3889
-5.7469 -5.9949 2.3889
-5.5036 -6.1637 2.3889
-5.2548 -6.3219 2.3889
-5.0009 -6.4695 2.3889
-4.7426 -6.6063 2.3889
-4.4802 -6.7324 2.3889
-4.2145 -6.8475 2.3889
-6.0578 -4.8687 2.3889
-5.8585 -5.0592 2.3889
-5.6523 -5.2408 2.3889
-5.4396 -5.4135 2.3889
-5.2210 -5.5769 2.3889
-4.9970 -5.7308 2.3889
-4.7678 -5.8753 2.3889
-4.5341 -6.0100 2.3889
-4.2963 -6.1350 2.3889
-4.0548 -6.2501 2.3889
-3.8101 -6.3554 2.3889
-3.5627 -6.4506 2.3889
-3.3130 -6.5360 2.3889
-3.0614 -6.6114 2.3889
-2.8084 -6.6769 2.3889
-2.5543 -6.7325 2.3889
-2.2997 -6.7784 2.3889
-2.0448 -6.8146 2.3889
-1.7902 -6.8412 2.3889
-1.5361 -6.8584 2.3889
-1.2828 -6.8662 2.3889
-1.0309 -6.8648 2.3889
-0.7805 -6.8543 2.3889
-0.5321 -6.8350 2.3889
-0.2859 -6.8070 2.3889
-0.0422 -6.7705 2.3889
0.1987 -6.7256 2.3889
0.4365 -6.6725 2.3889
0.6709 -6.6116 2.3889
0.9019 -6.5429 2.3889
1.1290 -6.4667 2.3889
1.3521 -6.3832 2.3889
1.5709 -6.2926 2.3889
1.7854 -6.1951 2.3889
1.9953 -6.0910 2.3889
2.2004 -5.9804 2.3889
2.4006 -5.8636 2.3889
2.5957 -5.7409 2.3889
2.7857 -5.6124 2.3889
2.9702 -5.4783 2.3889
3.1494 -5.3390 2.3889
3.3230 -5.1945 2.3889
3.4909 -5.0451 2.3889
3.6530 -4.8911 2.3889
3.8093 -4.7325 2.3889
3.9597 -4.5698 2.3889
4.0919 -4.3899 2.3818
4.0725 -4.0628 2.2932
4.0955 -3.7991 2.2365
4.2135 -3.6328 2.2365
4.3257 -3.4634 2.2365
4.4320 -3.2911 2.2365
4.5323 -3.1162 2.2365
4.6268 -2.9387 2.2365
4.7152 -2.7590 2.2365
4.7977 -2.5771 2.2365
4.8742 -2.3932 2.2365
4.9446 -2.2076 2.2365
5.0090 -2.0203 2.2365
5.0673 -1.8315 2.2365
5.1196 -1.6414 2.2365
5.1657 -1.4502 2.2365
5.2058 -1.2580 2.2365
5.2398 -1.0649 2.2365
5.2677 -0.8712 2.2365
5.2895 -0.6769 2.2365
5.3052 -0.4823 2.2365
5.3149 -0.2874 2.2365
5.3184 -0.0925 2.2365
5.3159 0.1023 2.2365
5.3073 0.2969 2.2365
5.2927 0.4911 2.2365
5.2720 0.6848 2.2365
5.2453 0.8777 2.2365
5.2126 1.0699 2.2365
5.1739 1.2610 2.2365
5.1292 1.4510 2.2365
5.0786 1.6398 2.2365
5.0220 1.8270 2.2365
4.9595 2.0127 2.2365
4.8911 2.1967 2.2365
4.8169 2.3787 2.2365
4.7368 2.5587 2.2365
4.6510 2.7365 2.2365
4.5594 2.9118 2.2365
4.4620 3.0847 2.2365
4.3590 3.2549 2.2365
4.2504 3.4222 2.2365
4.1361 3.5865 2.2365
4.0164 3.7476 2.2365
3.8911 3.9053 2.2365
3.7604 4.0596 2.2365
3.6244 4.2101 2.2365
3.4831 4.3568 2.2365
3.3365 4.4994 2.2365
3.1848 4.6377 2.2365
3.0923 4.8730 2.2839
3.0401 5.1983 2.3720
2.8838 5.3684 2.3889
2.7008 5.4963 2.3889
2.5128 5.6187 2.3889
2.3199 5.7355 2.3889
2.1223 5.8464 2.3889
0.8061 2.4983 1.0029
0.7160 2.5278 0.9982
0.6249 2.5541 0.9934
0.5329 2.5770 0.9886
0.4402 2.5966 0.9837
0.3468 2.6128 0.9787
0.2528 2.6256 0.9737
0.1585 2.6351 0.9686
0.0638 2.6411 0.9635
-0.0310 2.6437 0.9584
-0.1258 2.6429 0.9532
-0.2205 2.6387 0.9481
-0.3151 2.6310 0.9429
-0.4093 2.6199 0.9377
-0.5030 2.6054 0.9325
-0.5961 2.5876 0.9274
-0.6886 2.5664 0.9222
-0.7802 2.5418 0.9171
-0.8709 2.5140 0.9120
-0.9605 2.4829 0.9069
-2.7784 6.4859 2.3889
-3.0258 6.4221 2.3889
-3.2721 6.3488 2.3889
-3.5167 6.2660 2.3889
-3.7593 6.1736 2.3889
-3.9994 6.0717 2.3889
-4.2368 5.9602 2.3889
-4.4708 5.8392 2.3889
-4.7011 5.7088 2.3889
-4.9273 5.5689 2.3889
-5.1488 5.4198 2.3889
-5.3654 5.2614 2.3889
-5.5764 5.0940 2.3889
-5.7816 4.9178 2.3889
-5.9804 4.7328 2.3889
-6.1724 4.5393 2.3889
-6.3571 4.3377 2.3889
-6.5343 4.1280 2.3889
-6.7034 3.9106 2.3889
-6.8640 3.6859 2.3889
-7.0158 3.4541 2.3889
-7.1583 3.2157 2.3889
-7.2913 2.9709 2.3889
-7.4144 2.7203 2.3889
-7.5272 2.4642 2.3889
-7.6295 2.2031 2.3889
-7.7210 1.9374 2.3889
-7.8014 1.6677 2.3889
-7.8705 1.3945 2.3889
-7.9282 1.1182 2.3889
-7.9742 0.8394 2.3889
-8.0085 0.5586 2.3889
-8.0308 0.2764 2.3889
-8.0412 -0.0066 2.3889
-8.0396 -0.2900 2.3889
-8.0260 -0.5730 2.3889
-8.0003 -0.8554 2.3889
-7.9628 -1.1363 2.3889
-7.9133 -1.4153 2.3889
-7.8521 -1.6918 2.3889
-7.7794 -1.9652 2.3889
-7.6952 -2.2351 2.3889
-7.5997 -2.5010 2.3889
-7.4934 -2.7622 2.3889
-7.3763 -3.0184 2.3889
-7.2487 -3.2690 2.3889
-7.1111 -3.5137 2.3889
-6.9637 -3.7519 2.3889
-6.8068 -3.9834 2.3889
-6.6409 -4.2076 2.3889
-6.4663 -4.4242 2.3889
-6.2835 -4.6330 2.3889
-6.0929 -4.8335 2.3889
-5.8949 -5.0255 2.3889
-5.6899 -5.2088 2.3889
-5.4784 -5.3831 2.3889
-5.2608 -5.5481 2.3889
-5.0377 -5.7038 2.3889
-4.8094 -5.8500 2.3889
-4.5765 -5.9865 2.3889
-4.3394 -6.1132 2.3889
-4.0985 -6.2301 2.3889
-3.8544 -6.3372 2.3889
-3.6074 -6.4342 2.3889
-3.3581 -6.5213 2.3889
-3.1068 -6.5985 2.3889
-2.8540 -6.6658 2.3889
-2.6001 -6.7233 2.3889
-2.3456 -6.7709 2.3889
-2.0907 -6.8088 2.3889
-1.8360 -6.8372 2.3889
-1.5817 -6.8560 2.3889
-1.3283 -6.8655 2.3889
-1.0761 -6.8657 2.3889
-0.8255 -6.8569 2.3889
-0.5767 -6.8392 2.3889
-0.3300 -6.8127 2.3889
-0.0859 -6.7777 2.3889
0.1555 -6.7343 2.3889
0.3939 -6.6827 2.3889
0.6290 -6.6231 2.3889
0.8606 -6.5558 2.3889
1.0884 -6.4810 2.3889
1.3122 -6.3988 2.3889
1.5319 -6.3094 2.3889
1.7471 -6.2131 2.3889
1.9579 -6.1102 2.3889
2.1638 -6.0008 2.3889
2.3649 -5.8851 2.3889
2.5610 -5.7634 2.3889
2.7519 -5.6359 2.3889
2.9374 -5.5029 2.3889
3.1175 -5.3644 2.3889
3.2921 -5.2209 2.3889
3.4611 -5.0723 2.3889
3.6243 -4.9191 2.3889
3.7816 -4.7614 2.3889
3.9331 -4.5994 2.3889
4.0786 -4.4333 2.3889
4.0759 -4.1197 2.3084
4.0737 -3.8288 2.2365
4.2012 -3.6703 2.2410
4.3059 -3.4941 2.2365
4.4133 -3.3223 2.2365
4.5147 -3.1478 2.2365
4.6102 -2.9708 2.2365
4.6998 -2.7915 2.2365
4.7833 -2.6100 2.2365
4.8609 -2.4265 2.2365
4.9324 -2.2411 2.2365
4.9978 -2.0541 2.2365
5.0573 -1.8656 2.2365
5.1106 -1.6757 2.2365
5.1579 -1.4847 2.2365
5.1990 -1.2926 2.2365
5.2341 -1.0997 2.2365
5.2631 -0.9061 2.2365
5.2860 -0.7119 2.2365
5.3028 -0.5173 2.2365
5.3136 -0.3225 2.2365
5.3182 -0.1276 2.2365
5.3168 0.0673 2.2365
5.3093 0.2619 2.2365
5.2958 0.4562 2.2365
5.2762 0.6499 2.2365
5.2506 0.8431 2.2365
5.2189 1.0354 2.2365
5.1813 1.2267 2.2365
5.1377 1.4169 2.2365
5.0881 1.6059 2.2365
5.0326 1.7934 2.2365
4.9712 1.9794 2.2365
4.9039 2.1637 2.2365
4.8307 2.3461 2.2365
4.7517 2.5265 2.2365
4.6669 2.7046 2.2365
4.5763 2.8805 2.2365
4.4800 3.0538 2.2365
4.3780 3.2244 2.2365
4.2703 3.3923 2.2365
4.1571 3.5571 2.2365
4.0383 3.7188 2.2365
3.9141 3.8772 2.2365
3.7843 4.0321 2.2365
3.6493 4.1833 2.2365
3.5089 4.3307 2.2365
3.3633 4.4740 2.2365
3.2125 4.6132 2.2365
3.1012 4.8171 2.2690
3.0498 5.1377 2.3554
2.9162 5.3448 2.3889
2.7341 5.4737 2.3889
2.5470 5.5971 2.3889
2.3550 5.7149 2.3889
2.1582 5.8269 2.3889
0.8222 2.4927 1.0037
0.7323 2.5228 0.9990
0.6414 2.5496 0.9943
0.5495 2.5731 0.9894
0.4569 2.5933 0.9845
0.3636 2.6101 0.9796
0.2698 2.6236 0.9746
0.1755 2.6336 0.9695
0.0809 2.6403 0.9644
-0.0139 2.6435 0.9593
-0.1087 2.6433 0.9542
-0.2035 2.6397 0.9490
-0.2981 2.6326 0.9438
-0.3923 2.6222 0.9386
-0.4862 2.6083 0.9335
-0.5794 2.5910 0.9283
-0.6720 2.5704 0.9231
-0.7638 2.5465 0.9180
-0.8546 2.5193 0.9129
-0.9444 2.4888 0.9078
-2.7337 6.4964 2.3889
-2.9814 6.4343 2.3889
-3.2278 6.3627 2.3889
-3.4728 6.2816 2.3889
-3.7158 6.1909 2.3889
-3.9564 6.0907 2.3889
-4.1943 5.9810 2.3889
-4.4289 5.8617 2.3889
-4.6599 5.7329 2.3889
-4.8869 5.5946 2.3889
-5.1093 5.4474 2.3889
-5.3268 5.2906 2.3889
-5.5389 5.1248 2.3889
-5.7451 4.9501 2.3889
-5.9451 4.7667 2.3889
-6.1383 4.5748 2.3889
-6.3244 4.3746 2.3889
-6.5030 4.1663 2.3889
-6.6735 3.9503 2.3889
-6.8357 3.7269 2.3889
