ply
format ascii 1.0
element vertex 2181
property float32 x
property float32 y
property float32 z
end_header
8.8968 -2.4389 2.3874
8.9784 -2.1175 2.3874
9.0484 -1.7934 2.3874
9.1066 -1.4670 2.3874
9.1531 -1.1387 2.3874
9.1878 -0.8089 2.3874
9.2106 -0.4782 2.3874
9.2214 -0.1468 2.3874
9.2204 0.1847 2.3874
9.2074 0.5159 2.3874
9.1826 0.8465 2.3874
9.1459 1.1759 2.3874
9.0973 1.5038 2.3874
9.0371 1.8297 2.3874
8.9651 2.1533 2.3874
8.8816 2.4740 2.3874
8.7866 2.7915 2.3874
8.6802 3.1054 2.3874
8.5627 3.4152 2.3874
8.4341 3.7206 2.3874
8.2946 4.0212 2.3874
8.1444 4.3166 2.3874
7.9837 4.6063 2.3874
7.8127 4.8901 2.3874
7.6316 5.1676 2.3874
7.4407 5.4383 2.3874
7.2401 5.7020 2.3874
7.0303 5.9584 2.3874
6.8113 6.2070 2.3874
6.5836 6.4476 2.3874
6.3474 6.6798 2.3874
6.1030 6.9035 2.3874
5.8508 7.1181 2.3874
5.5910 7.3236 2.3874
5.3240 7.5196 2.3874
5.0501 7.7059 2.3874
4.7698 7.8822 2.3874
4.4833 8.0484 2.3874
4.1910 8.2041 2.3874
3.8933 8.3493 2.3874
3.5906 8.4836 2.3874
3.2833 8.6070 2.3874
2.9718 8.7193 2.3874
2.6564 8.8203 2.3874
0.9312 3.5492 0.9510
0.8031 3.5809 0.9512
0.6740 3.6079 0.9513
0.5439 3.6303 0.9514
0.4131 3.6479 0.9515
0.2818 3.6608 0.9517
0.1500 3.6688 0.9517
0.0181 3.6721 0.9518
-0.1139 3.6706 0.9519
-0.2458 3.6643 0.9519
-0.3774 3.6532 0.9519
-0.5084 3.6373 0.9520
-0.6388 3.6167 0.9520
-0.7684 3.5913 0.9519
-0.8970 3.5612 0.9519
-2.5692 8.8450 2.3874
-2.8855 8.7470 2.3874
-3.1980 8.6377 2.3874
-3.5064 8.5172 2.3874
-3.8104 8.3858 2.3874
-4.1094 8.2435 2.3874
-4.4030 8.0905 2.3874
-4.6911 7.9272 2.3874
-4.9730 7.7535 2.3874
-5.2486 7.5699 2.3874
-5.5174 7.3765 2.3874
-5.7791 7.1735 2.3874
-6.0333 6.9613 2.3874
-6.2797 6.7401 2.3874
-6.5181 6.5102 2.3874
-6.7480 6.2718 2.3874
-6.9692 6.0254 2.3874
-7.1815 5.7712 2.3874
-7.3845 5.5094 2.3874
-7.5779 5.2406 2.3874
-7.7616 4.9650 2.3874
-7.9353 4.6829 2.3874
-8.0987 4.3948 2.3874
-8.2517 4.1010 2.3874
-8.3941 3.8019 2.3874
-8.5256 3.4979 2.3874
-8.6461 3.1893 2.3874
-8.7554 2.8766 2.3874
-8.8535 2.5601 2.3874
-8.9401 2.2403 2.3874
-9.0152 1.9176 2.3874
-9.0786 1.5924 2.3874
-9.1303 1.2651 2.3874
-9.1702 0.9362 2.3874
-9.1983 0.6060 2.3874
-9.2145 0.2751 2.3874
-9.2188 -0.0563 2.3874
-9.2111 -0.3876 2.3874
-9.1916 -0.7185 2.3874
-9.1602 -1.0484 2.3874
-9.1170 -1.3770 2.3874
-9.0620 -1.7038 2.3874
-8.9952 -2.0285 2.3874
-8.9169 -2.3506 2.3874
-8.8269 -2.6697 2.3874
-8.7256 -2.9853 2.3874
-8.6130 -3.2971 2.3874
-8.4893 -3.6047 2.3874
-8.3546 -3.9076 2.3874
-8.2090 -4.2053 2.3874
-8.0529 -4.4980 2.3874
-7.8863 -4.7847 2.3874
-7.7096 -5.0652 2.3874
-7.5228 -5.3392 2.3874
-7.3263 -5.6063 2.3874
-7.1203 -5.8662 2.3874
-6.9051 -6.1186 2.3874
-6.6810 -6.3630 2.3874
-6.4482 -6.5992 2.3874
-6.2071 -6.8269 2.3874
-5.9579 -7.0458 2.3874
-5.7010 -7.2556 2.3874
-5.4367 -7.4560 2.3874
-5.1654 -7.6468 2.3874
-4.8874 -7.8277 2.3874
-4.6030 -7.9985 2.3874
-4.3127 -8.1590 2.3874
-4.0168 -8.3089 2.3874
-3.7156 -8.4481 2.3874
-3.4097 -8.5763 2.3874
-3.0993 -8.6935 2.3874
-2.7850 -8.7994 2.3874
-2.4670 -8.8940 2.3874
-2.1458 -8.9771 2.3874
-1.8218 -9.0485 2.3874
-1.4954 -9.1083 2.3874
-1.1671 -9.1562 2.3874
-0.8373 -9.1924 2.3874
-0.5064 -9.2166 2.3874
-0.1749 -9.2289 2.3874
0.1569 -9.2293 2.3874
0.4885 -9.2178 2.3874
0.8195 -9.1943 2.3874
1.1494 -9.1589 2.3874
1.4778 -9.1117 2.3874
1.8043 -9.0527 2.3874
2.1285 -8.9820 2.3874
2.4499 -8.8997 2.3874
2.7681 -8.8059 2.3874
3.0828 -8.7007 2.3874
3.3935 -8.5842 2.3874
3.6997 -8.4566 2.3874
4.0012 -8.3181 2.3874
4.2975 -8.1688 2.3874
4.5883 -8.0090 2.3874
4.8731 -7.8388 2.3874
5.1516 -7.6585 2.3874
5.4234 -7.4683 2.3874
5.6882 -7.2684 2.3874
5.9456 -7.0592 2.3874
6.1954 -6.8408 2.3874
6.4371 -6.6136 2.3874
6.6704 -6.3778 2.3874
6.8952 -6.1338 2.3874
7.1110 -5.8819 2.3874
7.3176 -5.6224 2.3874
7.5147 -5.3556 2.3874
7.7022 -5.0819 2.3874
7.8796 -4.8017 2.3874
8.0468 -4.5153 2.3874
8.2036 -4.2231 2.3874
8.3499 -3.9254 2.3874
8.4853 -3.6226 2.3874
8.6097 -3.3152 2.3874
8.7230 -3.0035 2.3874
8.8250 -2.6880 2.3874
8.9156 -2.3690 2.3874
8.9946 -2.0470 2.3874
9.0621 -1.7223 2.3874
9.1178 -1.3955 2.3874
9.1617 -1.0668 2.3874
9.1937 -0.7369 2.3874
9.2139 -0.4059 2.3874
9.2222 -0.0745 2.3874
9.2186 0.2570 2.3874
9.2030 0.5881 2.3874
9.1756 0.9185 2.3874
9.1363 1.2476 2.3874
9.0852 1.5751 2.3874
9.0224 1.9005 2.3874
8.9478 2.2235 2.3874
8.8618 2.5435 2.3874
8.7643 2.8603 2.3874
8.6555 3.1734 2.3874
8.5356 3.4822 2.3874
8.4046 3.7866 2.3874
8.2627 4.0861 2.3874
8.1102 4.3803 2.3874
7.9472 4.6688 2.3874
7.7740 4.9512 2.3874
7.5908 5.2272 2.3874
7.3977 5.4965 2.3874
7.1951 5.7586 2.3874
6.9833 6.0133 2.3874
6.7624 6.2602 2.3874
6.5328 6.4990 2.3874
6.2948 6.7294 2.3874
6.0487 6.9511 2.3874
5.7947 7.1638 2.3874
5.5334 7.3672 2.3874
5.2648 7.5611 2.3874
4.9895 7.7452 2.3874
4.7078 7.9194 2.3874
7.3350 4.1556 2.3874
7.1807 4.4165 2.3874
7.0170 4.6715 2.3874
6.8444 4.9206 2.3874
6.6629 5.1632 2.3874
6.4728 5.3992 2.3874
6.2744 5.6282 2.3874
6.0678 5.8499 2.3874
5.8535 6.0640 2.3874
5.6316 6.2703 2.3874
5.4024 6.4684 2.3874
5.1663 6.6583 2.3874
4.9235 6.8395 2.3874
4.6744 7.0118 2.3874
4.4192 7.1751 2.3874
4.1583 7.3292 2.3874
3.8921 7.4737 2.3874
3.6209 7.6086 2.3874
3.3450 7.7337 2.3874
3.0648 7.8488 2.3874
2.7807 7.9537 2.3874
2.4930 8.0484 2.3874
0.8763 3.2363 0.9500
0.7595 3.2662 0.9502
0.6417 3.2918 0.9503
0.5230 3.3131 0.9505
0.4036 3.3302 0.9506
0.2837 3.3428 0.9507
0.1634 3.3511 0.9507
0.0428 3.3551 0.9508
-0.0778 3.3546 0.9509
-0.1983 3.3498 0.9509
-0.3186 3.3406 0.9509
-0.4385 3.3270 0.9510
-0.5578 3.3091 0.9510
-0.6764 3.2869 0.9510
-0.7940 3.2604 0.9509
-2.2865 8.1085 2.3874
-2.5765 8.0211 2.3874
-2.8631 7.9234 2.3874
-3.1461 7.8154 2.3874
-3.4250 7.6973 2.3874
-3.6995 7.5693 2.3874
-3.9692 7.4316 2.3874
-4.2338 7.2842 2.3874
-4.4929 7.1274 2.3874
-4.7463 6.9614 2.3874
-4.9935 6.7864 2.3874
-5.2343 6.6026 2.3874
-5.4683 6.4103 2.3874
-5.6953 6.2098 2.3874
-5.9150 6.0012 2.3874
-6.1270 5.7848 2.3874
-6.3311 5.5610 2.3874
-6.5270 5.3299 2.3874
-6.7145 5.0920 2.3874
-6.8934 4.8475 2.3874
-7.0634 4.5967 2.3874
-7.2242 4.3400 2.3874
-7.3757 4.0777 2.3874
-7.5177 3.8100 2.3874
-7.6500 3.5375 2.3874
-7.7725 3.2603 2.3874
-7.8849 2.9789 2.3874
-7.9871 2.6937 2.3874
-8.0790 2.4050 2.3874
-8.1605 2.1131 2.3874
-8.2315 1.8185 2.3874
-8.2918 1.5215 2.3874
-8.3414 1.2225 2.3874
-8.3803 0.9220 2.3874
-8.4083 0.6202 2.3874
-8.4254 0.3176 2.3874
-8.4317 0.0146 2.3874
-8.4271 -0.2885 2.3874
-8.4116 -0.5912 2.3874
-8.3852 -0.8932 2.3874
-8.3480 -1.1940 2.3874
-8.3000 -1.4933 2.3874
-8.2413 -1.7908 2.3874
-8.1719 -2.0859 2.3874
-8.0919 -2.3783 2.3874
-8.0015 -2.6677 2.3874
-7.9007 -2.9537 2.3874
-7.7897 -3.2358 2.3874
-7.6687 -3.5138 2.3874
-7.5377 -3.7873 2.3874
-7.3970 -4.0559 2.3874
-7.2467 -4.3193 2.3874
-7.0870 -4.5771 2.3874
-6.9182 -4.8290 2.3874
-6.7404 -5.0747 2.3874
-6.5538 -5.3138 2.3874
-6.3588 -5.5461 2.3874
-6.1556 -5.7712 2.3874
-5.9444 -5.9889 2.3874
-5.7255 -6.1989 2.3874
-5.4991 -6.4008 2.3874
-5.2657 -6.5945 2.3874
-5.0254 -6.7797 2.3874
-4.7786 -6.9561 2.3874
-4.5257 -7.1235 2.3874
-4.2669 -7.2817 2.3874
-4.0025 -7.4306 2.3874
-3.7329 -7.5698 2.3874
-3.4586 -7.6992 2.3874
-3.1797 -7.8187 2.3874
-2.8967 -7.9280 2.3874
-2.6099 -8.0272 2.3874
-2.3198 -8.1159 2.3874
-2.0267 -8.1942 2.3874
-1.7309 -8.2618 2.3874
-1.4329 -8.3188 2.3874
-1.1330 -8.3650 2.3874
-0.8317 -8.4004 2.3874
-0.5292 -8.4250 2.3874
-0.2261 -8.4386 2.3874
0.0773 -8.4414 2.3874
0.3806 -8.4332 2.3874
0.6835 -8.4141 2.3874
0.9854 -8.3841 2.3874
1.2861 -8.3433 2.3874
1.5851 -8.2917 2.3874
1.8821 -8.2294 2.3874
2.1766 -8.1564 2.3874
2.4683 -8.0729 2.3874
2.7568 -7.9789 2.3874
3.0418 -7.8746 2.3874
3.3228 -7.7602 2.3874
3.5995 -7.6357 2.3874
3.8715 -7.5013 2.3874
4.1386 -7.3572 2.3874
4.4002 -7.2036 2.3874
4.6562 -7.0408 2.3874
4.9062 -6.8688 2.3874
5.1498 -6.6879 2.3874
5.3867 -6.4984 2.3874
5.6167 -6.3005 2.3874
5.8394 -6.0944 2.3874
6.0545 -5.8805 2.3874
6.2618 -5.6590 2.3874
6.4610 -5.4302 2.3874
6.6518 -5.1943 2.3874
6.8340 -4.9518 2.3874
7.0074 -4.7029 2.3874
7.1717 -4.4479 2.3874
7.3267 -4.1871 2.3874
7.4722 -3.9210 2.3874
7.6081 -3.6498 2.3874
7.7341 -3.3739 2.3874
7.8501 -3.0937 2.3874
7.9560 -2.8095 2.3874
8.0516 -2.5216 2.3874
8.1367 -2.2306 2.3874
8.2114 -1.9366 2.3874
8.2754 -1.6402 2.3874
8.3287 -1.3417 2.3874
8.3713 -1.0415 2.3874
8.4030 -0.7399 2.3874
8.4239 -0.4373 2.3874
8.4338 -0.1343 2.3874
8.4329 0.1689 2.3874
8.4211 0.4718 2.3874
8.3984 0.7741 2.3874
8.3648 1.0754 2.3874
8.3205 1.3753 2.3874
8.2654 1.6735 2.3874
8.1996 1.9693 2.3874
8.1232 2.2627 2.3874
8.0363 2.5531 2.3874
7.9391 2.8402 2.3874
7.8316 3.1236 2.3874
7.7140 3.4029 2.3874
7.5864 3.6778 2.3874
7.4491 3.9480 2.3874
7.3021 4.2130 2.3874
7.1457 4.4726 2.3874
6.9801 4.7264 2.3874
6.8055 4.9740 2.3874
6.6221 5.2153 2.3874
6.4302 5.4497 2.3874
6.2300 5.6772 2.3874
6.0217 5.8972 2.3874
5.8057 6.1097 2.3874
5.5822 6.3142 2.3874
5.3515 6.5106 2.3874
5.1139 6.6985 2.3874
4.8697 6.8778 2.3874
4.6192 7.0483 2.3874
4.3628 7.2095 2.3874
4.1007 7.3615 2.3874
3.8334 7.5040 2.3874
3.5611 7.6368 2.3874
3.2843 7.7597 2.3874
3.0032 7.8725 2.3874
2.7182 7.9753 2.3874
2.4298 8.0677 2.3874
0.8509 3.2432 0.9501
0.7339 3.2722 0.9502
0.6159 3.2968 0.9504
0.4970 3.3172 0.9505
0.3775 3.3333 0.9506
0.2575 3.3450 0.9507
0.1371 3.3524 0.9508
0.0165 3.3553 0.9508
-0.1041 3.3539 0.9509
-0.2246 3.3481 0.9509
-0.3448 3.3380 0.9509
-0.4646 3.3235 0.9510
-0.5837 3.3046 0.9510
-0.7021 3.2815 0.9509
-0.8196 3.2540 0.9509
-2.3500 8.0903 2.3874
-2.6393 8.0007 2.3874
-2.9252 7.9007 2.3874
-3.2073 7.7905 2.3874
-3.4853 7.6702 2.3874
-3.7587 7.5401 2.3874
-4.0274 7.4002 2.3874
-4.2908 7.2507 2.3874
-4.5487 7.0919 2.3874
-4.8008 6.9240 2.3874
-5.0466 6.7470 2.3874
-5.2859 6.5614 2.3874
-5.5185 6.3673 2.3874
-5.7439 6.1649 2.3874
-5.9619 5.9546 2.3874
-6.1722 5.7366 2.3874
-6.3745 5.5112 2.3874
-6.5686 5.2786 2.3874
-6.7543 5.0392 2.3874
-6.9312 4.7933 2.3874
-7.0992 4.5412 2.3874
-7.2581 4.2832 2.3874
-7.4075 4.0197 2.3874
-7.5474 3.7510 2.3874
-7.6776 3.4774 2.3874
-7.7979 3.1993 2.3874
-7.9081 2.9170 2.3874
-8.0081 2.6310 2.3874
-8.0977 2.3415 2.3874
-8.1769 2.0490 2.3874
-8.2456 1.7539 2.3874
-8.3035 1.4564 2.3874
-8.3508 1.1571 2.3874
-8.3873 0.8562 2.3874
-8.4129 0.5542 2.3874
-8.4277 0.2515 2.3874
-8.4316 -0.0516 2.3874
-8.4246 -0.3546 2.3874
-8.4067 -0.6572 2.3874
-8.3780 -0.9589 2.3874
-8.3384 -1.2595 2.3874
-8.2881 -1.5584 2.3874
-8.2270 -1.8553 2.3874
-8.1553 -2.1499 2.3874
-8.0731 -2.4417 2.3874
-7.9804 -2.7304 2.3874
-7.8774 -3.0156 2.3874
-7.7642 -3.2968 2.3874
-7.6410 -3.5739 2.3874
-7.5078 -3.8463 2.3874
-7.3650 -4.1138 2.3874
-7.2126 -4.3760 2.3874
-7.0509 -4.6326 2.3874
-6.8801 -4.8831 2.3874
-6.7004 -5.1274 2.3874
-6.5120 -5.3651 2.3874
-6.3152 -5.5959 2.3874
-6.1102 -5.8194 2.3874
-5.8973 -6.0354 2.3874
-5.6767 -6.2436 2.3874
-5.4488 -6.4438 2.3874
-5.2138 -6.6357 2.3874
-4.9721 -6.8189 2.3874
-4.7240 -6.9934 2.3874
-4.4697 -7.1588 2.3874
-4.2096 -7.3150 2.3874
-3.9441 -7.4618 2.3874
-3.6735 -7.5988 2.3874
-3.3981 -7.7261 2.3874
-3.1183 -7.8434 2.3874
-2.8344 -7.9506 2.3874
-2.5469 -8.0474 2.3874
-2.2561 -8.1339 2.3874
-1.9623 -8.2098 2.3874
-1.6661 -8.2752 2.3874
-1.3676 -8.3298 2.3874
-1.0674 -8.3737 2.3874
-0.7657 -8.4067 2.3874
-0.4631 -8.4289 2.3874
-0.1599 -8.4401 2.3874
0.1435 -8.4405 2.3874
0.4468 -8.4300 2.3874
0.7494 -8.4085 2.3874
1.0511 -8.3761 2.3874
1.3515 -8.3329 2.3874
1.6501 -8.2790 2.3874
1.9465 -8.2143 2.3874
2.2405 -8.1390 2.3874
2.5315 -8.0532 2.3874
2.8193 -7.9570 2.3874
3.1034 -7.8505 2.3874
3.3835 -7.7338 2.3874
3.6592 -7.6072 2.3874
3.9302 -7.4707 2.3874
4.1961 -7.3245 2.3874
4.4566 -7.1689 2.3874
4.7113 -7.0040 2.3874
4.9599 -6.8301 2.3874
5.2021 -6.6473 2.3874
5.4375 -6.4559 2.3874
5.6659 -6.2562 2.3874
5.8869 -6.0484 2.3874
6.1004 -5.8328 2.3874
6.3059 -5.6097 2.3874
6.5033 -5.3793 2.3874
6.6923 -5.1420 2.3874
6.8726 -4.8980 2.3874
7.0440 -4.6478 2.3874
7.2063 -4.3915 2.3874
7.3593 -4.1295 2.3874
7.5027 -3.8622 2.3874
7.6364 -3.5900 2.3874
7.7603 -3.3132 2.3874
7.8741 -3.0320 2.3874
7.9777 -2.7470 2.3874
8.0710 -2.4584 2.3874
8.1539 -2.1667 2.3874
8.2262 -1.8722 2.3874
8.2879 -1.5753 2.3874
8.3389 -1.2763 2.3874
8.3791 -0.9758 2.3874
8.4085 -0.6739 2.3874
8.4269 -0.3713 2.3874
8.4346 -0.0682 2.3874
8.4313 0.2350 2.3874
8.4171 0.5378 2.3874
8.3920 0.8400 2.3874
8.3561 1.1410 2.3874
8.3094 1.4405 2.3874
8.2519 1.7382 2.3874
8.1838 2.0336 2.3874
8.1051 2.3263 2.3874
8.0160 2.6160 2.3874
7.9165 2.9024 2.3874
7.8068 3.1849 2.3874
7.6870 3.4633 2.3874
7.5573 3.7372 2.3874
7.4178 4.0063 2.3874
7.2688 4.2701 2.3874
7.1104 4.5285 2.3874
6.9428 4.7809 2.3874
6.7662 5.0272 2.3874
6.5810 5.2670 2.3874
6.3872 5.5000 2.3874
6.1852 5.7258 2.3874
5.9752 5.9442 2.3874
5.7576 6.1550 2.3874
5.5324 6.3578 2.3874
5.3002 6.5523 2.3874
5.0611 6.7384 2.3874
4.8155 6.9158 2.3874
4.5637 7.0842 2.3874
4.3061 7.2435 2.3874
6.7513 3.8249 2.3874
6.6092 4.0649 2.3874
6.4586 4.2997 2.3874
6.2997 4.5289 2.3874
6.1327 4.7523 2.3874
5.9577 4.9695 2.3874
5.7751 5.1803 2.3874
5.5850 5.3843 2.3874
5.3877 5.5814 2.3874
5.1835 5.7713 2.3874
4.9726 5.9537 2.3874
4.7553 6.1285 2.3874
4.5318 6.2953 2.3874
4.3025 6.4539 2.3874
4.0676 6.6043 2.3874
3.8275 6.7461 2.3874
3.5825 6.8791 2.3874
3.3329 7.0033 2.3874
3.0789 7.1184 2.3874
2.8210 7.2244 2.3874
2.5595 7.3210 2.3874
0.9123 2.9452 0.9491
0.8059 2.9765 0.9493
0.6985 3.0039 0.9494
0.5902 3.0274 0.9495
0.4810 3.0470 0.9496
0.3712 3.0626 0.9498
0.2609 3.0742 0.9498
0.1503 3.0819 0.9499
0.0394 3.0855 0.9500
-0.0715 3.0850 0.9500
-0.1824 3.0806 0.9501
-0.2930 3.0721 0.9501
-0.4032 3.0596 0.9501
-0.5130 3.0432 0.9501
-0.6220 3.0227 0.9501
-0.7302 2.9983 0.9501
-0.8375 2.9701 0.9500
-2.3715 7.3831 2.3874
-2.6354 7.2931 2.3874
-2.8958 7.1937 2.3874
-3.1525 7.0850 2.3874
-3.4052 6.9672 2.3874
-3.6535 6.8404 2.3874
-3.8970 6.7047 2.3874
-4.1355 6.5604 2.3874
-4.3687 6.4076 2.3874
-4.5963 6.2465 2.3874
-4.8179 6.0774 2.3874
-5.0333 5.9004 2.3874
-5.2422 5.7157 2.3874
-5.4444 5.5237 2.3874
-5.6395 5.3246 2.3874
-5.8274 5.1185 2.3874
-6.0078 4.9059 2.3874
-6.1803 4.6869 2.3874
-6.3450 4.4618 2.3874
-6.5014 4.2310 2.3874
-6.6494 3.9947 2.3874
-6.7889 3.7532 2.3874
-6.9196 3.5068 2.3874
-7.0413 3.2560 2.3874
-7.1540 3.0008 2.3874
-7.2575 2.7418 2.3874
-7.3515 2.4793 2.3874
-7.4361 2.2135 2.3874
-7.5111 1.9449 2.3874
-7.5764 1.6737 2.3874
-7.6319 1.4004 2.3874
-7.6776 1.1252 2.3874
-7.7133 0.8485 2.3874
-7.7391 0.5708 2.3874
-7.7548 0.2923 2.3874
-7.7606 0.0134 2.3874
-7.7563 -0.2656 2.3874
-7.7420 -0.5442 2.3874
-7.7177 -0.8221 2.3874
-7.6834 -1.0990 2.3874
-7.6392 -1.3745 2.3874
-7.5851 -1.6482 2.3874
-7.5213 -1.9198 2.3874
-7.4477 -2.1890 2.3874
-7.3644 -2.4554 2.3874
-7.2717 -2.7185 2.3874
-7.1695 -2.9782 2.3874
-7.0581 -3.2341 2.3874
-6.9375 -3.4858 2.3874
-6.8080 -3.7330 2.3874
-6.6696 -3.9754 2.3874
-6.5226 -4.2127 2.3874
-6.3672 -4.4445 2.3874
-6.2036 -4.6706 2.3874
-6.0319 -4.8907 2.3874
-5.8524 -5.1045 2.3874
-5.6653 -5.3116 2.3874
-5.4709 -5.5120 2.3874
-5.2694 -5.7052 2.3874
-5.0611 -5.8910 2.3874
-4.8463 -6.0693 2.3874
-4.6251 -6.2397 2.3874
-4.3980 -6.4020 2.3874
-4.1652 -6.5561 2.3874
-3.9269 -6.7017 2.3874
-3.6836 -6.8387 2.3874
-3.4356 -6.9668 2.3874
-3.1830 -7.0859 2.3874
-2.9264 -7.1958 2.3874
-2.6659 -7.2965 2.3874
-2.4020 -7.3877 2.3874
-2.1350 -7.4694 2.3874
-1.8652 -7.5414 2.3874
-1.5930 -7.6037 2.3874
-1.3187 -7.6561 2.3874
-1.0427 -7.6986 2.3874
-0.7654 -7.7312 2.3874
-0.4870 -7.7538 2.3874
-0.2081 -7.7663 2.3874
0.0712 -7.7688 2.3874
0.3503 -7.7613 2.3874
0.6290 -7.7437 2.3874
0.9069 -7.7161 2.3874
1.1836 -7.6786 2.3874
1.4588 -7.6311 2.3874
1.7321 -7.5737 2.3874
2.0032 -7.5066 2.3874
2.2716 -7.4297 2.3874
2.5372 -7.3432 2.3874
2.7994 -7.2473 2.3874
3.0581 -7.1419 2.3874
3.3127 -7.0273 2.3874
3.5631 -6.9037 2.3874
3.8089 -6.7711 2.3874
4.0497 -6.6298 2.3874
4.2853 -6.4799 2.3874
4.5153 -6.3216 2.3874
4.7395 -6.1551 2.3874
4.9576 -5.9807 2.3874
5.1692 -5.7986 2.3874
5.3742 -5.6090 2.3874
5.5722 -5.4121 2.3874
5.7630 -5.2083 2.3874
5.9463 -4.9977 2.3874
6.1219 -4.7806 2.3874
6.2896 -4.5574 2.3874
6.4492 -4.3283 2.3874
6.6004 -4.0936 2.3874
6.7431 -3.8537 2.3874
6.8771 -3.6088 2.3874
7.0021 -3.3592 2.3874
7.1181 -3.1053 2.3874
7.2249 -2.8473 2.3874
7.3224 -2.5857 2.3874
7.4104 -2.3208 2.3874
7.4888 -2.0530 2.3874
7.5575 -1.7824 2.3874
7.6164 -1.5096 2.3874
7.6655 -1.2349 2.3874
7.7047 -0.9586 2.3874
7.7339 -0.6810 2.3874
7.7531 -0.4026 2.3874
7.7623 -0.1237 2.3874
7.7615 0.1553 2.3874
7.7506 0.4342 2.3874
7.7298 0.7124 2.3874
7.6989 0.9898 2.3874
7.6581 1.2658 2.3874
7.6074 1.5401 2.3874
7.5469 1.8125 2.3874
7.4766 2.0825 2.3874
7.3967 2.3497 2.3874
7.3072 2.6141 2.3874
7.2083 2.8749 2.3874
7.1001 3.1320 2.3874
6.9827 3.3851 2.3874
6.8563 3.6337 2.3874
6.7210 3.8777 2.3874
6.5771 4.1166 2.3874
6.4247 4.3502 2.3874
6.2640 4.5782 2.3874
6.0952 4.8002 2.3874
5.9185 5.0160 2.3874
5.7343 5.2254 2.3874
5.5426 5.4279 2.3874
5.3438 5.6235 2.3874
5.1380 5.8118 2.3874
4.9257 5.9925 2.3874
4.7070 6.1655 2.3874
4.4823 6.3306 2.3874
4.2517 6.4875 2.3874
4.0157 6.6359 2.3874
3.7745 6.7758 2.3874
3.5284 6.9070 2.3874
3.2778 7.0292 2.3874
3.0230 7.1423 2.3874
2.7643 7.2462 2.3874
2.5020 7.3408 2.3874
0.8892 2.9523 0.9492
0.7826 2.9828 0.9493
0.6750 3.0094 0.9494
0.5664 3.0320 0.9496
0.4571 3.0508 0.9497
0.3472 3.0655 0.9498
0.2368 3.0762 0.9499
0.1261 3.0830 0.9499
0.0152 3.0857 0.9500
-0.0957 3.0844 0.9500
-0.2065 3.0791 0.9501
-0.3171 3.0697 0.9501
-0.4272 3.0564 0.9501
-0.5368 3.0390 0.9501
-0.6457 3.0177 0.9501
-0.7537 2.9925 0.9501
-0.8608 2.9634 0.9500
-2.4293 7.3643 2.3874
-2.6925 7.2722 2.3874
-2.9522 7.1708 2.3874
-3.2080 7.0601 2.3874
-3.4598 6.9403 2.3874
-3.7070 6.8115 2.3874
-3.9495 6.6740 2.3874
-4.1869 6.5278 2.3874
-4.4189 6.3731 2.3874
-4.6452 6.2103 2.3874
-4.8655 6.0394 2.3874
-5.0795 5.8607 2.3874
-5.2869 5.6745 2.3874
-5.4876 5.4809 2.3874
-5.6812 5.2802 2.3874
-5.8674 5.0727 2.3874
-6.0461 4.8586 2.3874
-6.2169 4.6383 2.3874
-6.3798 4.4119 2.3874
-6.5344 4.1799 2.3874
-6.6806 3.9424 2.3874
-6.8181 3.6998 2.3874
-6.9469 3.4525 2.3874
-7.0667 3.2006 2.3874
-7.1774 2.9447 2.3874
-7.2788 2.6849 2.3874
-7.3708 2.4216 2.3874
-7.4533 2.1552 2.3874
-7.5262 1.8859 2.3874
-7.5894 1.6142 2.3874
-7.6427 1.3405 2.3874
-7.6862 1.0649 2.3874
-7.7198 0.7880 2.3874
-7.7434 0.5101 2.3874
-7.7569 0.2314 2.3874
-7.7605 -0.0475 2.3874
-7.7540 -0.3264 2.3874
-7.7376 -0.6049 2.3874
-7.7111 -0.8826 2.3874
-7.6746 -1.1593 2.3874
-7.6283 -1.4344 2.3874
-7.5721 -1.7077 2.3874
-7.5060 -1.9788 2.3874
-7.4303 -2.2474 2.3874
-7.3450 -2.5130 2.3874
-7.2502 -2.7755 2.3874
-7.1460 -3.0344 2.3874
-7.0325 -3.2894 2.3874
-6.9100 -3.5401 2.3874
-6.7785 -3.7863 2.3874
-6.6383 -4.0276 2.3874
-6.4894 -4.2637 2.3874
-6.3322 -4.4943 2.3874
-6.1668 -4.7191 2.3874
-5.9934 -4.9379 2.3874
-5.8122 -5.1502 2.3874
-5.6235 -5.3559 2.3874
-5.4275 -5.5547 2.3874
-5.2245 -5.7464 2.3874
-5.0148 -5.9306 2.3874
-4.7985 -6.1071 2.3874
-4.5761 -6.2758 2.3874
-4.3477 -6.4364 2.3874
-4.1136 -6.5886 2.3874
-3.8743 -6.7323 2.3874
-3.6299 -6.8674 2.3874
-3.3808 -6.9935 2.3874
-3.1274 -7.1107 2.3874
-2.8699 -7.2186 2.3874
-2.6086 -7.3172 2.3874
-2.3440 -7.4064 2.3874
-2.0763 -7.4859 2.3874
-1.8060 -7.5558 2.3874
-1.5333 -7.6159 2.3874
-1.2586 -7.6662 2.3874
-0.9823 -7.7066 2.3874
-0.7047 -7.7370 2.3874
-0.4262 -7.7574 2.3874
-0.1472 -7.7677 2.3874
0.1321 -7.7681 2.3874
0.4112 -7.7583 2.3874
0.6897 -7.7386 2.3874
0.9674 -7.7088 2.3874
1.2438 -7.6691 2.3874
1.5186 -7.6194 2.3874
1.7915 -7.5599 2.3874
2.0620 -7.4906 2.3874
2.3298 -7.4116 2.3874
2.5947 -7.3231 2.3874
2.8562 -7.2251 2.3874
3.1140 -7.1177 2.3874
3.3677 -7.0011 2.3874
3.6171 -6.8755 2.3874
3.8618 -6.7410 2.3874
4.1015 -6.5978 2.3874
4.3359 -6.4460 2.3874
4.5647 -6.2860 2.3874
4.7876 -6.1178 2.3874
5.0043 -5.9416 2.3874
5.2145 -5.7579 2.3874
5.4180 -5.5666 2.3874
5.6144 -5.3682 2.3874
5.8036 -5.1629 2.3874
5.9853 -4.9509 2.3874
6.1592 -4.7324 2.3874
6.3251 -4.5079 2.3874
6.4829 -4.2776 2.3874
6.6323 -4.0417 2.3874
6.7731 -3.8007 2.3874
6.9051 -3.5547 2.3874
7.0282 -3.3042 2.3874
7.1422 -3.0493 2.3874
7.2470 -2.7906 2.3874
7.3424 -2.5283 2.3874
7.4283 -2.2627 2.3874
7.5046 -1.9942 2.3874
7.5712 -1.7231 2.3874
7.6279 -1.4499 2.3874
7.6749 -1.1747 2.3874
7.7119 -0.8981 2.3874
7.7389 -0.6203 2.3874
7.7560 -0.3418 2.3874
7.7630 -0.0628 2.3874
7.7600 0.2162 2.3874
7.7469 0.4950 2.3874
7.7239 0.7731 2.3874
7.6908 1.0501 2.3874
7.6479 1.3258 2.3874
7.5950 1.5998 2.3874
7.5324 1.8717 2.3874
7.4600 2.1411 2.3874
7.3779 2.4077 2.3874
7.2864 2.6713 2.3874
7.1855 2.9313 2.3874
7.0752 3.1876 2.3874
6.9558 3.4397 2.3874
6.8275 3.6874 2.3874
6.6903 3.9302 2.3874
6.5445 4.1681 2.3874
6.3903 4.4004 2.3874
6.2278 4.6271 2.3874
6.0573 4.8478 2.3874
5.8790 5.0623 2.3874
5.6931 5.2701 2.3874
5.4998 5.4712 2.3874
5.2995 5.6652 2.3874
5.0923 5.8519 2.3874
4.8785 6.0310 2.3874
4.6585 6.2023 2.3874
4.4324 6.3655 2.3874
4.2007 6.5206 2.3874
3.9635 6.6672 2.3874
6.2472 3.5392 2.3874
6.1157 3.7614 2.3874
5.9764 3.9786 2.3874
5.8294 4.1907 2.3874
5.6748 4.3974 2.3874
5.5129 4.5984 2.3874
5.3439 4.7935 2.3874
5.1681 4.9823 2.3874
4.9855 5.1647 2.3874
4.7965 5.3404 2.3874
4.6014 5.5093 2.3874
4.4003 5.6709 2.3874
4.1935 5.8253 2.3874
3.9813 5.9721 2.3874
3.7640 6.1112 2.3874
3.5418 6.2425 2.3874
3.3151 6.3656 2.3874
3.0841 6.4805 2.3874
2.8491 6.5871 2.3874
2.6105 6.6851 2.3874
2.3685 6.7745 2.3874
0.8436 2.7234 0.9485
0.7453 2.7524 0.9486
0.6459 2.7777 0.9487
0.5457 2.7994 0.9488
0.4448 2.8175 0.9490
0.3433 2.8319 0.9490
0.2413 2.8427 0.9491
0.1389 2.8497 0.9492
0.0364 2.8530 0.9493
-0.0662 2.8526 0.9493
-0.1686 2.8485 0.9493
-0.2709 2.8406 0.9494
-0.3729 2.8291 0.9494
-0.4743 2.8139 0.9494
-0.5751 2.7950 0.9494
-0.6752 2.7724 0.9494
-0.7744 2.7463 0.9493
-0.8726 2.7166 0.9493
-2.4387 6.7488 2.3874
-2.6797 6.6568 2.3874
-2.9173 6.5562 2.3874
-3.1511 6.4472 2.3874
-3.3808 6.3298 2.3874
-3.6062 6.2043 2.3874
-3.8269 6.0707 2.3874
-4.0427 5.9293 2.3874
-4.2532 5.7803 2.3874
-4.4583 5.6237 2.3874
-4.6577 5.4599 2.3874
-4.8510 5.2891 2.3874
-5.0380 5.1114 2.3874
-5.2186 4.9271 2.3874
-5.3924 4.7364 2.3874
-5.5593 4.5396 2.3874
-5.7190 4.3370 2.3874
-5.8713 4.1287 2.3874
-6.0161 3.9151 2.3874
-6.1530 3.6964 2.3874
-6.2821 3.4729 2.3874
-6.4030 3.2450 2.3874
-6.5157 3.0128 2.3874
-6.6199 2.7768 2.3874
-6.7156 2.5371 2.3874
-6.8027 2.2941 2.3874
-6.8809 2.0482 2.3874
-6.9503 1.7996 2.3874
-7.0107 1.5487 2.3874
-7.0620 1.2958 2.3874
-7.1043 1.0411 2.3874
-7.1373 0.7851 2.3874
-7.1611 0.5281 2.3874
-7.1757 0.2704 2.3874
-7.1810 0.0123 2.3874
-7.1771 -0.2458 2.3874
-7.1638 -0.5036 2.3874
-7.1413 -0.7608 2.3874
-7.1096 -1.0170 2.3874
-7.0687 -1.2719 2.3874
-7.0186 -1.5252 2.3874
-6.9595 -1.7765 2.3874
-6.8914 -2.0255 2.3874
-6.8143 -2.2720 2.3874
-6.7285 -2.5155 2.3874
-6.6339 -2.7558 2.3874
-6.5308 -2.9925 2.3874
-6.4192 -3.2254 2.3874
-6.2993 -3.4541 2.3874
-6.1713 -3.6784 2.3874
-6.0353 -3.8980 2.3874
-5.8915 -4.1125 2.3874
-5.7401 -4.3217 2.3874
-5.5812 -4.5253 2.3874
-5.4151 -4.7231 2.3874
-5.2420 -4.9148 2.3874
-5.0621 -5.1001 2.3874
-4.8757 -5.2789 2.3874
-4.6829 -5.4509 2.3874
-4.4841 -5.6158 2.3874
-4.2795 -5.7735 2.3874
-4.0693 -5.9237 2.3874
-3.8539 -6.0662 2.3874
-3.6334 -6.2009 2.3874
-3.4083 -6.3276 2.3874
-3.1788 -6.4462 2.3874
-2.9451 -6.5563 2.3874
-2.7076 -6.6581 2.3874
-2.4667 -6.7512 2.3874
-2.2225 -6.8356 2.3874
-1.9754 -6.9111 2.3874
-1.7258 -6.9778 2.3874
-1.4739 -7.0354 2.3874
-1.2201 -7.0839 2.3874
-0.9648 -7.1232 2.3874
-0.7082 -7.1534 2.3874
-0.4506 -7.1742 2.3874
-0.1925 -7.1859 2.3874
0.0659 -7.1882 2.3874
0.3241 -7.1812 2.3874
0.5820 -7.1649 2.3874
0.8391 -7.1394 2.3874
1.0952 -7.1047 2.3874
1.3498 -7.0607 2.3874
1.6027 -7.0076 2.3874
1.8535 -6.9455 2.3874
2.1018 -6.8744 2.3874
2.3475 -6.7944 2.3874
2.5902 -6.7056 2.3874
2.8295 -6.6081 2.3874
3.0651 -6.5021 2.3874
3.2968 -6.3877 2.3874
3.5242 -6.2650 2.3874
3.7470 -6.1343 2.3874
3.9650 -5.9956 2.3874
4.1778 -5.8491 2.3874
4.3853 -5.6951 2.3874
4.5871 -5.5338 2.3874
4.7829 -5.3653 2.3874
4.9725 -5.1898 2.3874
5.1557 -5.0077 2.3874
5.3323 -4.8190 2.3874
5.5019 -4.6242 2.3874
5.6644 -4.4234 2.3874
5.8196 -4.2169 2.3874
5.9673 -4.0049 2.3874
6.1072 -3.7878 2.3874
6.2392 -3.5658 2.3874
6.3632 -3.3392 2.3874
6.4789 -3.1082 2.3874
6.5862 -2.8733 2.3874
6.6851 -2.6347 2.3874
6.7753 -2.3926 2.3874
6.8567 -2.1475 2.3874
6.9292 -1.8997 2.3874
6.9928 -1.6493 2.3874
7.0474 -1.3969 2.3874
7.0928 -1.1427 2.3874
7.1291 -0.8870 2.3874
7.1562 -0.6302 2.3874
7.1739 -0.3726 2.3874
7.1825 -0.1145 2.3874
7.1817 0.1437 2.3874
7.1717 0.4017 2.3874
7.1524 0.6592 2.3874
7.1239 0.9159 2.3874
7.0861 1.1712 2.3874
7.0392 1.4251 2.3874
6.9832 1.6771 2.3874
6.9182 1.9269 2.3874
6.8443 2.1743 2.3874
6.7615 2.4188 2.3874
6.6700 2.6602 2.3874
6.5699 2.8981 2.3874
6.4613 3.1322 2.3874
6.3443 3.3623 2.3874
6.2192 3.5881 2.3874
6.0860 3.8092 2.3874
5.9450 4.0254 2.3874
5.7963 4.2363 2.3874
5.6401 4.4418 2.3874
5.4767 4.6415 2.3874
5.3062 4.8352 2.3874
5.1288 5.0227 2.3874
4.9448 5.2036 2.3874
4.7545 5.3779 2.3874
4.5580 5.5451 2.3874
4.3556 5.7053 2.3874
4.1477 5.8580 2.3874
3.9343 6.0032 2.3874
3.7159 6.1406 2.3874
3.4928 6.2700 2.3874
3.2651 6.3914 2.3874
3.0332 6.5045 2.3874
2.7974 6.6092 2.3874
2.5580 6.7054 2.3874
0.9197 2.6984 0.9484
0.8222 2.7301 0.9485
0.7237 2.7582 0.9486
0.6241 2.7827 0.9488
0.5238 2.8037 0.9489
0.4227 2.8210 0.9490
0.3210 2.8346 0.9491
0.2190 2.8445 0.9491
0.1166 2.8507 0.9492
0.0140 2.8532 0.9493
-0.0885 2.8520 0.9493
-0.1910 2.8471 0.9494
-0.2932 2.8384 0.9494
-0.3950 2.8261 0.9494
-0.4964 2.8101 0.9494
-0.5970 2.7904 0.9494
-0.6969 2.7670 0.9493
-0.7959 2.7401 0.9493
-0.8939 2.7096 0.9493
-2.4915 6.7295 2.3874
-2.7318 6.6356 2.3874
-2.9686 6.5332 2.3874
-3.2015 6.4223 2.3874
-3.4303 6.3031 2.3874
-3.6547 6.1758 2.3874
-3.8744 6.0405 2.3874
-4.0891 5.8974 2.3874
-4.2985 5.7467 2.3874
-4.5023 5.5886 2.3874
-4.7004 5.4232 2.3874
-4.8923 5.2509 2.3874
-5.0780 5.0717 2.3874
-5.2571 4.8860 2.3874
-5.4294 4.6940 2.3874
-5.5948 4.4959 2.3874
-5.7529 4.2920 2.3874
-5.9036 4.0825 2.3874
-6.0466 3.8678 2.3874
-6.1819 3.6480 2.3874
-6.3092 3.4236 2.3874
-6.4283 3.1947 2.3874
-6.5391 2.9616 2.3874
-6.6415 2.7248 2.3874
-6.7354 2.4844 2.3874
-6.8205 2.2407 2.3874
-6.8968 1.9942 2.3874
-6.9642 1.7451 2.3874
-7.0227 1.4937 2.3874
-7.0720 1.2403 2.3874
-7.1123 0.9854 2.3874
-7.1433 0.7291 2.3874
-7.1651 0.4719 2.3874
-7.1777 0.2141 2.3874
-7.1809 -0.0440 2.3874
-7.1750 -0.3021 2.3874
-7.1597 -0.5598 2.3874
-7.1352 -0.8168 2.3874
-7.1014 -1.0727 2.3874
-7.0585 -1.3273 2.3874
-7.0065 -1.5802 2.3874
-6.9454 -1.8311 2.3874
-6.8753 -2.0795 2.3874
-6.7963 -2.3254 2.3874
-6.7086 -2.5682 2.3874
-6.6121 -2.8078 2.3874
-6.5072 -3.0437 2.3874
-6.3938 -3.2757 2.3874
-6.2721 -3.5035 2.3874
-6.1423 -3.7267 2.3874
-6.0046 -3.9452 2.3874
-5.8591 -4.1586 2.3874
-5.7060 -4.3666 2.3874
-5.5455 -4.5690 2.3874
-5.3779 -4.7655 2.3874
-5.2033 -4.9558 2.3874
-5.0220 -5.1397 2.3874
-4.8341 -5.3170 2.3874
-4.6400 -5.4875 2.3874
-4.4399 -5.6508 2.3874
-4.2341 -5.8069 2.3874
-4.0227 -5.9554 2.3874
-3.8062 -6.0963 2.3874
-3.5847 -6.2293 2.3874
-3.3586 -6.3542 2.3874
-3.1281 -6.4709 2.3874
-2.8936 -6.5793 2.3874
-2.6553 -6.6791 2.3874
-2.4136 -6.7704 2.3874
-2.1688 -6.8528 2.3874
-1.9212 -6.9264 2.3874
-1.6710 -6.9911 2.3874
-1.4187 -7.0467 2.3874
-1.1645 -7.0932 2.3874
-0.9089 -7.1306 2.3874
-0.6520 -7.1587 2.3874
-0.3944 -7.1776 2.3874
-0.1361 -7.1872 2.3874
0.1222 -7.1874 2.3874
0.3804 -7.1784 2.3874
0.6382 -7.1602 2.3874
0.8951 -7.1326 2.3874
1.1508 -7.0959 2.3874
1.4051 -7.0499 2.3874
1.6576 -6.9948 2.3874
1.9079 -6.9308 2.3874
2.1557 -6.8577 2.3874
2.4007 -6.7758 2.3874
2.6427 -6.6851 2.3874
2.8812 -6.5857 2.3874
3.1160 -6.4779 2.3874
3.3468 -6.3616 2.3874
3.5732 -6.2372 2.3874
3.7950 -6.1047 2.3874
4.0119 -5.9643 2.3874
4.2236 -5.8162 2.3874
4.4298 -5.6605 2.3874
4.6303 -5.4976 2.3874
4.8248 -5.3276 2.3874
5.0130 -5.1506 2.3874
5.1948 -4.9671 2.3874
5.3699 -4.7771 2.3874
5.5380 -4.5809 2.3874
5.6989 -4.3788 2.3874
5.8525 -4.1711 2.3874
5.9984 -3.9580 2.3874
6.1367 -3.7397 2.3874
6.2670 -3.5166 2.3874
6.3891 -3.2891 2.3874
6.5030 -3.0573 2.3874
6.6085 -2.8215 2.3874
6.7055 -2.5821 2.3874
6.7938 -2.3394 2.3874
6.8733 -2.0937 2.3874
6.9439 -1.8452 2.3874
7.0055 -1.5945 2.3874
7.0581 -1.3416 2.3874
7.1015 -1.0870 2.3874
7.1358 -0.8311 2.3874
7.1608 -0.5741 2.3874
7.1766 -0.3163 2.3874
7.1831 -0.0582 2.3874
7.1803 0.2000 2.3874
7.1683 0.4579 2.3874
7.1470 0.7152 2.3874
7.1164 0.9716 2.3874
7.0767 1.2267 2.3874
7.0278 1.4802 2.3874
6.9698 1.7318 2.3874
6.9028 1.9811 2.3874
6.8270 2.2279 2.3874
6.7423 2.4717 2.3874
6.6489 2.7124 2.3874
6.5469 2.9495 2.3874
6.4364 3.1828 2.3874
6.3177 3.4120 2.3874
6.1908 3.6367 2.3874
6.0559 3.8568 2.3874
5.9132 4.0718 2.3874
5.7629 4.2816 2.3874
5.6051 4.4858 2.3874
5.4401 4.6843 2.3874
5.2680 4.8767 2.3874
5.0892 5.0627 2.3874
4.9038 5.2422 2.3874
4.7121 5.4150 2.3874
4.5143 5.5807 2.3874
4.3107 5.7392 2.3874
4.1016 5.8903 2.3874
3.8871 6.0338 2.3874
3.6677 6.1695 2.3874
5.8070 3.2898 2.3874
5.6849 3.4963 2.3874
5.5554 3.6983 2.3874
5.4187 3.8955 2.3874
5.2750 4.0876 2.3874
5.1246 4.2744 2.3874
4.9675 4.4558 2.3874
4.8040 4.6313 2.3874
4.6343 4.8009 2.3874
4.4587 4.9642 2.3874
4.2773 5.1211 2.3874
4.0903 5.2715 2.3874
3.8981 5.4149 2.3874
3.7009 5.5514 2.3874
3.4989 5.6808 2.3874
3.2924 5.8027 2.3874
3.0816 5.9172 2.3874
2.8669 6.0241 2.3874
2.6485 6.1231 2.3874
2.4266 6.2142 2.3874
0.8740 2.5000 0.9478
0.7837 2.5301 0.9479
0.6923 2.5569 0.9480
0.6001 2.5805 0.9481
0.5070 2.6006 0.9483
0.4132 2.6174 0.9483
0.3189 2.6308 0.9484
0.2241 2.6407 0.9485
0.1291 2.6473 0.9486
0.0338 2.6503 0.9486
-0.0614 2.6499 0.9487
-0.1567 2.6461 0.9487
-0.2517 2.6388 0.9487
-0.3464 2.6281 0.9487
-0.4406 2.6139 0.9487
-0.5343 2.5964 0.9487
-0.6272 2.5755 0.9487
-0.7194 2.5512 0.9487
-0.8106 2.5236 0.9486
-0.9007 2.4927 0.9486
-2.4910 6.1880 2.3874
-2.7118 6.0945 2.3874
-2.9292 5.9931 2.3874
-3.1427 5.8840 2.3874
-3.3522 5.7673 2.3874
-3.5574 5.6431 2.3874
-3.7580 5.5117 2.3874
-3.9537 5.3731 2.3874
-4.1443 5.2276 2.3874
-4.3296 5.0753 2.3874
-4.5093 4.9165 2.3874
-4.6832 4.7513 2.3874
-4.8510 4.5800 2.3874
-5.0126 4.4028 2.3874
-5.1677 4.2198 2.3874
-5.3162 4.0314 2.3874
-5.4578 3.8378 2.3874
-5.5923 3.6393 2.3874
-5.7196 3.4360 2.3874
-5.8396 3.2283 2.3874
-5.9520 3.0164 2.3874
-6.0567 2.8006 2.3874
-6.1536 2.5811 2.3874
-6.2425 2.3583 2.3874
-6.3234 2.1325 2.3874
-6.3962 1.9039 2.3874
-6.4606 1.6728 2.3874
-6.5168 1.4395 2.3874
-6.5645 1.2044 2.3874
-6.6037 0.9677 2.3874
-6.6344 0.7298 2.3874
-6.6566 0.4909 2.3874
-6.6701 0.2513 2.3874
-6.6750 0.0114 2.3874
-6.6713 -0.2285 2.3874
-6.6590 -0.4682 2.3874
-6.6381 -0.7072 2.3874
-6.6086 -0.9454 2.3874
-6.5705 -1.1823 2.3874
-6.5240 -1.4177 2.3874
-6.4690 -1.6513 2.3874
-6.4057 -1.8828 2.3874
-6.3340 -2.1119 2.3874
-6.2542 -2.3383 2.3874
-6.1663 -2.5616 2.3874
-6.0704 -2.7816 2.3874
-5.9667 -2.9981 2.3874
-5.8553 -3.2107 2.3874
-5.7363 -3.4192 2.3874
-5.6098 -3.6232 2.3874
-5.4762 -3.8226 2.3874
-5.3354 -4.0170 2.3874
-5.1877 -4.2063 2.3874
-5.0333 -4.3902 2.3874
-4.8724 -4.5683 2.3874
-4.7052 -4.7406 2.3874
-4.5319 -4.9068 2.3874
-4.3527 -5.0666 2.3874
-4.1679 -5.2199 2.3874
-3.9777 -5.3664 2.3874
-3.7824 -5.5060 2.3874
-3.5821 -5.6385 2.3874
-3.3772 -5.7637 2.3874
-3.1680 -5.8815 2.3874
-2.9546 -5.9916 2.3874
-2.7374 -6.0941 2.3874
-2.5167 -6.1886 2.3874
-2.2927 -6.2752 2.3874
-2.0657 -6.3536 2.3874
-1.8361 -6.4238 2.3874
-1.6041 -6.4857 2.3874
-1.3700 -6.5393 2.3874
-1.1341 -6.5843 2.3874
-0.8967 -6.6209 2.3874
-0.6582 -6.6489 2.3874
-0.4188 -6.6683 2.3874
-0.1789 -6.6791 2.3874
0.0612 -6.6813 2.3874
0.3013 -6.6748 2.3874
0.5410 -6.6597 2.3874
0.7800 -6.6360 2.3874
1.0179 -6.6036 2.3874
1.2546 -6.5628 2.3874
1.4896 -6.5135 2.3874
1.7227 -6.4557 2.3874
1.9536 -6.3896 2.3874
2.1820 -6.3153 2.3874
2.4075 -6.2327 2.3874
2.6299 -6.1421 2.3874
2.8490 -6.0436 2.3874
3.0643 -5.9373 2.3874
3.2756 -5.8232 2.3874
3.4828 -5.7017 2.3874
3.6854 -5.5728 2.3874
3.8832 -5.4367 2.3874
4.0760 -5.2936 2.3874
4.2636 -5.1436 2.3874
4.4456 -4.9870 2.3874
4.6219 -4.8239 2.3874
4.7922 -4.6546 2.3874
4.9563 -4.4793 2.3874
5.1139 -4.2982 2.3874
5.2650 -4.1115 2.3874
5.4093 -3.9196 2.3874
5.5465 -3.7226 2.3874
5.6766 -3.5208 2.3874
5.7993 -3.3144 2.3874
5.9146 -3.1038 2.3874
6.0221 -2.8891 2.3874
6.1219 -2.6708 2.3874
6.2138 -2.4490 2.3874
6.2976 -2.2240 2.3874
6.3733 -1.9962 2.3874
6.4408 -1.7658 2.3874
6.4999 -1.5331 2.3874
6.5506 -1.2985 2.3874
6.5929 -1.0622 2.3874
6.6266 -0.8245 2.3874
6.6517 -0.5858 2.3874
6.6683 -0.3464 2.3874
6.6762 -0.1065 2.3874
6.6756 0.1335 2.3874
6.6663 0.3734 2.3874
6.6483 0.6127 2.3874
6.6218 0.8512 2.3874
6.5867 1.0886 2.3874
6.5432 1.3246 2.3874
6.4911 1.5589 2.3874
6.4307 1.7911 2.3874
6.3620 2.0210 2.3874
6.2851 2.2483 2.3874
6.2000 2.4727 2.3874
6.1069 2.6938 2.3874
6.0060 2.9115 2.3874
5.8973 3.1254 2.3874
5.7810 3.3353 2.3874
5.6572 3.5408 2.3874
5.5262 3.7417 2.3874
5.3880 3.9378 2.3874
5.2428 4.1288 2.3874
5.0909 4.3145 2.3874
4.9324 4.4945 2.3874
4.7675 4.6688 2.3874
4.5965 4.8370 2.3874
4.4196 4.9990 2.3874
4.2369 5.1545 2.3874
4.0489 5.3033 2.3874
3.8555 5.4453 2.3874
3.6572 5.5803 2.3874
3.4542 5.7080 2.3874
3.2468 5.8284 2.3874
3.0351 5.9412 2.3874
2.8196 6.0463 2.3874
2.6004 6.1437 2.3874
2.3778 6.2331 2.3874
0.8544 2.5068 0.9478
0.7639 2.5362 0.9479
0.6723 2.5624 0.9481
0.5798 2.5851 0.9482
0.4866 2.6046 0.9483
0.3927 2.6206 0.9484
0.2982 2.6333 0.9485
0.2034 2.6425 0.9485
0.1083 2.6482 0.9486
0.0131 2.6505 0.9486
-0.0822 2.6494 0.9487
-0.1774 2.6448 0.9487
-0.2724 2.6368 0.9487
-0.3670 2.6253 0.9487
-0.4611 2.6104 0.9487
-0.5546 2.5921 0.9487
-0.6474 2.5704 0.9487
-0.7394 2.5454 0.9487
-0.8304 2.5171 0.9486
-2.3161 6.2555 2.3874
-2.5394 6.1682 2.3874
-2.7595 6.0730 2.3874
-2.9761 5.9700 2.3874
-3.1888 5.8592 2.3874
-3.3973 5.7408 2.3874
-3.6015 5.6151 2.3874
-3.8011 5.4821 2.3874
-3.9957 5.3420 2.3874
-4.1852 5.1950 2.3874
-4.3693 5.0412 2.3874
-4.5477 4.8810 2.3874
-4.7203 4.7145 2.3874
-4.8868 4.5419 2.3874
-5.0470 4.3633 2.3874
-5.2007 4.1792 2.3874
-5.3477 3.9897 2.3874
-5.4877 3.7949 2.3874
-5.6207 3.5953 2.3874
-5.7464 3.3910 2.3874
-5.8647 3.1824 2.3874
-5.9755 2.9696 2.3874
-6.0785 2.7530 2.3874
-6.1737 2.5328 2.3874
-6.2609 2.3093 2.3874
-6.3400 2.0828 2.3874
-6.4109 1.8537 2.3874
-6.4736 1.6221 2.3874
-6.5279 1.3884 2.3874
-6.5738 1.1529 2.3874
-6.6112 0.9159 2.3874
-6.6400 0.6777 2.3874
-6.6603 0.4386 2.3874
-6.6719 0.1990 2.3874
-6.6749 -0.0409 2.3874
-6.6694 -0.2808 2.3874
-6.6552 -0.5204 2.3874
-6.6323 -0.7593 2.3874
-6.6010 -0.9972 2.3874
-6.5611 -1.2338 2.3874
-6.5127 -1.4689 2.3874
-6.4559 -1.7020 2.3874
-6.3907 -1.9330 2.3874
-6.3173 -2.1615 2.3874
-6.2357 -2.3873 2.3874
-6.1461 -2.6099 2.3874
-6.0485 -2.8292 2.3874
-5.9431 -3.0448 2.3874
-5.8300 -3.2566 2.3874
-5.7093 -3.4641 2.3874
-5.5813 -3.6671 2.3874
-5.4460 -3.8655 2.3874
-5.3037 -4.0588 2.3874
-5.1546 -4.2469 2.3874
-4.9988 -4.4295 2.3874
-4.8365 -4.6064 2.3874
-4.6679 -4.7774 2.3874
-4.4933 -4.9422 2.3874
-4.3129 -5.1006 2.3874
-4.1269 -5.2524 2.3874
-3.9355 -5.3975 2.3874
-3.7391 -5.5355 2.3874
-3.5378 -5.6665 2.3874
-3.3320 -5.7901 2.3874
-3.1218 -5.9062 2.3874
-2.9075 -6.0147 2.3874
-2.6896 -6.1154 2.3874
-2.4681 -6.2082 2.3874
-2.2434 -6.2930 2.3874
-2.0159 -6.3696 2.3874
-1.7856 -6.4380 2.3874
-1.5532 -6.4981 2.3874
-1.3186 -6.5498 2.3874
-1.0824 -6.5931 2.3874
-0.8448 -6.6278 2.3874
-0.6060 -6.6539 2.3874
-0.3665 -6.6714 2.3874
-0.1265 -6.6803 2.3874
0.1136 -6.6806 2.3874
0.3536 -6.6722 2.3874
0.5932 -6.6552 2.3874
0.8320 -6.6296 2.3874
1.0697 -6.5955 2.3874
1.3060 -6.5528 2.3874
1.5407 -6.5016 2.3874
1.7733 -6.4420 2.3874
2.0037 -6.3741 2.3874
2.2315 -6.2979 2.3874
2.4563 -6.2136 2.3874
2.6780 -6.1213 2.3874
2.8962 -6.0211 2.3874
3.1107 -5.9130 2.3874
3.3212 -5.7974 2.3874
3.5274 -5.6742 2.3874
3.7290 -5.5437 2.3874
3.9257 -5.4061 2.3874
4.1174 -5.2614 2.3874
4.3038 -5.1100 2.3874
4.4846 -4.9519 2.3874
4.6596 -4.7875 2.3874
4.8285 -4.6168 2.3874
4.9912 -4.4403 2.3874
5.1475 -4.2579 2.3874
5.2971 -4.0701 2.3874
5.4398 -3.8770 2.3874
5.5755 -3.6789 2.3874
5.7040 -3.4761 2.3874
5.8251 -3.2688 2.3874
5.9387 -3.0573 2.3874
6.0446 -2.8418 2.3874
6.1426 -2.6227 2.3874
6.2328 -2.4001 2.3874
6.3148 -2.1745 2.3874
6.3887 -1.9461 2.3874
6.4544 -1.7152 2.3874
6.5117 -1.4821 2.3874
6.5606 -1.2471 2.3874
6.6009 -1.0104 2.3874
6.6328 -0.7725 2.3874
6.6561 -0.5336 2.3874
6.6708 -0.2941 2.3874
6.6768 -0.0541 2.3874
6.6743 0.1859 2.3874
6.6631 0.4256 2.3874
6.6433 0.6648 2.3874
6.6149 0.9031 2.3874
6.5780 1.1402 2.3874
6.5325 1.3759 2.3874
6.4787 1.6097 2.3874
6.4164 1.8415 2.3874
6.3459 2.0708 2.3874
6.2672 2.2975 2.3874
6.1804 2.5212 2.3874
6.0856 2.7416 2.3874
5.9829 2.9585 2.3874
5.8726 3.1715 2.3874
5.7546 3.3805 2.3874
5.6292 3.5850 2.3874
5.4966 3.7849 2.3874
5.3569 3.9799 2.3874
5.2102 4.1698 2.3874
5.0568 4.3543 2.3874
4.8970 4.5331 2.3874
4.7307 4.7060 2.3874
4.5584 4.8729 2.3874
4.3802 5.0335 2.3874
4.1964 5.1876 2.3874
4.0071 5.3349 2.3874
3.8127 5.4754 2.3874
3.6133 5.6088 2.3874
3.4093 5.7349 2.3874
5.4190 3.0700 2.3874
5.3050 3.2627 2.3874
5.1842 3.4512 2.3874
5.0567 3.6352 2.3874
4.9226 3.8145 2.3874
4.7822 3.9888 2.3874
4.6357 4.1580 2.3874
4.4831 4.3219 2.3874
4.3248 4.4801 2.3874
4.1608 4.6325 2.3874
3.9916 4.7790 2.3874
3.8171 4.9193 2.3874
3.6378 5.0532 2.3874
3.4537 5.1806 2.3874
3.2652 5.3013 2.3874
3.0725 5.4151 2.3874
2.8758 5.5219 2.3874
2.6754 5.6216 2.3874
2.4716 5.7141 2.3874
0.8984 2.3006 0.9471
0.8152 2.3318 0.9473
0.7310 2.3598 0.9474
0.6458 2.3849 0.9475
0.5597 2.4068 0.9476
0.4729 2.4256 0.9477
0.3854 2.4412 0.9478
0.2974 2.4537 0.9479
0.2090 2.4629 0.9480
0.1204 2.4690 0.9480
0.0316 2.4719 0.9481
-0.0573 2.4715 0.9481
-0.1461 2.4679 0.9482
-0.2347 2.4611 0.9482
-0.3230 2.4511 0.9482
-0.4109 2.4379 0.9482
-0.4983 2.4215 0.9482
-0.5850 2.4020 0.9482
-0.6709 2.3794 0.9481
-0.7560 2.3536 0.9481
-0.8401 2.3248 0.9480
-2.3246 5.7747 2.3874
-2.5307 5.6874 2.3874
-2.7335 5.5928 2.3874
-2.9328 5.4910 2.3874
-3.1283 5.3821 2.3874
-3.3198 5.2662 2.3874
-3.5070 5.1435 2.3874
-3.6896 5.0142 2.3874
-3.8675 4.8784 2.3874
-4.0404 4.7363 2.3874
-4.2081 4.5881 2.3874
-4.3704 4.4339 2.3874
-4.5270 4.2741 2.3874
-4.6778 4.1087 2.3874
-4.8225 3.9379 2.3874
-4.9611 3.7621 2.3874
-5.0932 3.5814 2.3874
-5.2187 3.3961 2.3874
-5.3375 3.2064 2.3874
-5.4495 3.0126 2.3874
-5.5543 2.8148 2.3874
-5.6521 2.6134 2.3874
-5.7425 2.4086 2.3874
-5.8255 2.2007 2.3874
-5.9010 1.9900 2.3874
-5.9688 1.7766 2.3874
-6.0290 1.5610 2.3874
-6.0813 1.3433 2.3874
-6.1259 1.1239 2.3874
-6.1625 0.9030 2.3874
-6.1911 0.6810 2.3874
-6.2118 0.4580 2.3874
-6.2244 0.2345 2.3874
-6.2290 0.0106 2.3874
-6.2255 -0.2133 2.3874
-6.2140 -0.4369 2.3874
-6.1944 -0.6600 2.3874
-6.1669 -0.8822 2.3874
-6.1314 -1.1033 2.3874
-6.0879 -1.3230 2.3874
-6.0366 -1.5410 2.3874
-5.9775 -1.7570 2.3874
-5.9107 -1.9708 2.3874
-5.8362 -2.1820 2.3874
-5.7542 -2.3904 2.3874
-5.6647 -2.5958 2.3874
-5.5679 -2.7977 2.3874
-5.4639 -2.9961 2.3874
-5.3528 -3.1906 2.3874
-5.2348 -3.3811 2.3874
-5.1101 -3.5671 2.3874
-4.9787 -3.7485 2.3874
-4.8409 -3.9252 2.3874
-4.6968 -4.0967 2.3874
-4.5466 -4.2630 2.3874
-4.3906 -4.4237 2.3874
-4.2289 -4.5787 2.3874
-4.0617 -4.7279 2.3874
-3.8892 -4.8709 2.3874
-3.7117 -5.0076 2.3874
-3.5295 -5.1379 2.3874
-3.3426 -5.2615 2.3874
-3.1514 -5.3784 2.3874
-2.9561 -5.4882 2.3874
-2.7570 -5.5910 2.3874
-2.5544 -5.6866 2.3874
-2.3484 -5.7748 2.3874
-2.1394 -5.8556 2.3874
-1.9276 -5.9288 2.3874
-1.7133 -5.9943 2.3874
-1.4968 -6.0521 2.3874
-1.2783 -6.1020 2.3874
-1.0582 -6.1441 2.3874
-0.8368 -6.1782 2.3874
-0.6142 -6.2043 2.3874
-0.3908 -6.2224 2.3874
-0.1670 -6.2325 2.3874
0.0571 -6.2345 2.3874
0.2812 -6.2284 2.3874
0.5048 -6.2144 2.3874
0.7278 -6.1922 2.3874
0.9499 -6.1621 2.3874
1.1707 -6.1239 2.3874
1.3900 -6.0779 2.3874
1.6075 -6.0240 2.3874
1.8230 -5.9623 2.3874
2.0361 -5.8930 2.3874
2.2465 -5.8159 2.3874
2.4541 -5.7314 2.3874
2.6584 -5.6395 2.3874
2.8594 -5.5403 2.3874
3.0566 -5.4339 2.3874
3.2499 -5.3205 2.3874
3.4389 -5.2002 2.3874
3.6235 -5.0732 2.3874
3.8035 -4.9396 2.3874
3.9785 -4.7997 2.3874
4.1483 -4.6535 2.3874
4.3128 -4.5014 2.3874
4.4717 -4.3434 2.3874
4.6249 -4.1798 2.3874
4.7720 -4.0108 2.3874
4.9130 -3.8367 2.3874
5.0476 -3.6575 2.3874
5.1757 -3.4737 2.3874
5.2970 -3.2854 2.3874
5.4116 -3.0928 2.3874
5.5191 -2.8963 2.3874
5.6195 -2.6960 2.3874
5.7126 -2.4922 2.3874
5.7984 -2.2853 2.3874
5.8766 -2.0754 2.3874
5.9473 -1.8628 2.3874
6.0102 -1.6478 2.3874
6.0654 -1.4307 2.3874
6.1127 -1.2117 2.3874
6.1522 -0.9912 2.3874
6.1836 -0.7695 2.3874
6.2071 -0.5467 2.3874
6.2226 -0.3233 2.3874
6.2300 -0.0994 2.3874
6.2294 0.1246 2.3874
6.2207 0.3484 2.3874
6.2040 0.5717 2.3874
6.1793 0.7943 2.3874
6.1466 1.0158 2.3874
6.1059 1.2360 2.3874
6.0573 1.4547 2.3874
6.0010 1.6714 2.3874
5.9369 1.8859 2.3874
5.8651 2.0980 2.3874
5.7857 2.3074 2.3874
5.6989 2.5138 2.3874
5.6047 2.7169 2.3874
5.5033 2.9165 2.3874
5.3948 3.1124 2.3874
5.2793 3.3042 2.3874
5.1569 3.4917 2.3874
5.0280 3.6747 2.3874
4.8925 3.8529 2.3874
4.7508 4.0262 2.3874
4.6029 4.1942 2.3874
4.4490 4.3569 2.3874
4.2895 4.5139 2.3874
4.1244 4.6650 2.3874
3.9539 4.8101 2.3874
3.7784 4.9490 2.3874
3.5980 5.0816 2.3874
3.4129 5.2075 2.3874
3.2235 5.3267 2.3874
3.0299 5.4390 2.3874
2.8324 5.5443 2.3874
2.6312 5.6424 2.3874
2.4267 5.7333 2.3874
0.8804 2.3077 0.9472
0.7969 2.3381 0.9473
0.7125 2.3656 0.9474
0.6271 2.3899 0.9475
0.5408 2.4111 0.9476
0.4538 2.4292 0.9477
0.3662 2.4442 0.9478
0.2782 2.4560 0.9479
0.1897 2.4645 0.9480
0.1010 2.4699 0.9480
0.0122 2.4721 0.9481
-0.0767 2.4710 0.9481
-0.1655 2.4667 0.9482
-0.2540 2.4592 0.9482
-0.3423 2.4485 0.9482
-0.4300 2.4346 0.9482
-0.5173 2.4176 0.9482
-0.6038 2.3973 0.9482
-0.6896 2.3740 0.9481
-0.7744 2.3476 0.9481
-0.8583 2.3181 0.9480
-2.3698 5.7563 2.3874
-2.5752 5.6674 2.3874
-2.7773 5.5712 2.3874
-2.9758 5.4678 2.3874
-3.1704 5.3574 2.3874
-3.3610 5.2400 2.3874
-3.5472 5.1159 2.3874
-3.7288 4.9851 2.3874
-3.9057 4.8479 2.3874
-4.0775 4.7045 2.3874
-4.2440 4.5550 2.3874
-4.4050 4.3995 2.3874
-4.5604 4.2384 2.3874
-4.7099 4.0719 2.3874
-4.8533 3.9000 2.3874
-4.9904 3.7231 2.3874
-5.1211 3.5414 2.3874
-5.2452 3.3551 2.3874
-5.3625 3.1645 2.3874
-5.4729 2.9698 2.3874
-5.5763 2.7712 2.3874
-5.6724 2.5690 2.3874
-5.7612 2.3635 2.3874
-5.8426 2.1550 2.3874
-5.9164 1.9436 2.3874
-5.9826 1.7298 2.3874
-6.0411 1.5137 2.3874
-6.0917 1.2956 2.3874
-6.1345 1.0758 2.3874
-6.1694 0.8547 2.3874
-6.1963 0.6324 2.3874
-6.2152 0.4093 2.3874
-6.2261 0.1856 2.3874
-6.2289 -0.0382 2.3874
-6.2237 -0.2621 2.3874
-6.2104 -0.4856 2.3874
-6.1891 -0.7086 2.3874
-6.1598 -0.9306 2.3874
-6.1226 -1.1514 2.3874
-6.0774 -1.3707 2.3874
-6.0244 -1.5883 2.3874
-5.9636 -1.8039 2.3874
-5.8951 -2.0171 2.3874
-5.8189 -2.2277 2.3874
-5.7353 -2.4355 2.3874
-5.6442 -2.6401 2.3874
-5.5458 -2.8413 2.3874
-5.4403 -3.0389 2.3874
-5.3277 -3.2325 2.3874
-5.2082 -3.4220 2.3874
-5.0820 -3.6071 2.3874
-4.9492 -3.7875 2.3874
-4.8100 -3.9630 2.3874
-4.6645 -4.1334 2.3874
-4.5131 -4.2985 2.3874
-4.3558 -4.4580 2.3874
-4.1929 -4.6118 2.3874
-4.0245 -4.7596 2.3874
-3.8509 -4.9013 2.3874
-3.6724 -5.0366 2.3874
-3.4891 -5.1655 2.3874
-3.3012 -5.2876 2.3874
-3.1091 -5.4029 2.3874
-2.9130 -5.5113 2.3874
-2.7131 -5.6125 2.3874
-2.5097 -5.7065 2.3874
-2.3030 -5.7931 2.3874
-2.0934 -5.8722 2.3874
-1.8810 -5.9437 2.3874
-1.6662 -6.0075 2.3874
-1.4493 -6.0636 2.3874
-1.2304 -6.1119 2.3874
-1.0100 -6.1522 2.3874
-0.7883 -6.1846 2.3874
-0.5655 -6.2089 2.3874
-0.3420 -6.2253 2.3874
-0.1181 -6.2336 2.3874
0.1060 -6.2339 2.3874
0.3300 -6.2261 2.3874
0.5535 -6.2102 2.3874
0.7763 -6.1863 2.3874
0.9982 -6.1544 2.3874
1.2187 -6.1146 2.3874
1.4376 -6.0668 2.3874
1.6547 -6.0112 2.3874
1.8697 -5.9478 2.3874
2.0822 -5.8768 2.3874
2.2921 -5.7981 2.3874
2.4989 -5.7120 2.3874
2.7026 -5.6184 2.3874
2.9027 -5.5176 2.3874
3.0991 -5.4097 2.3874
3.2915 -5.2948 2.3874
3.4796 -5.1730 2.3874
3.6632 -5.0446 2.3874
3.8421 -4.9096 2.3874
4.0160 -4.7683 2.3874
4.1847 -4.6208 2.3874
4.3480 -4.4674 2.3874
4.5056 -4.3082 2.3874
4.6575 -4.1434 2.3874
4.8033 -3.9733 2.3874
4.9429 -3.7980 2.3874
5.0761 -3.6178 2.3874
5.2027 -3.4330 2.3874
5.3226 -3.2437 2.3874
5.4356 -3.0503 2.3874
5.5416 -2.8529 2.3874
5.6404 -2.6518 2.3874
5.7320 -2.4474 2.3874
5.8161 -2.2397 2.3874
5.8927 -2.0292 2.3874
5.9616 -1.8161 2.3874
6.0229 -1.6006 2.3874
6.0764 -1.3831 2.3874
6.1220 -1.1638 2.3874
6.1597 -0.9429 2.3874
6.1894 -0.7209 2.3874
6.2112 -0.4980 2.3874
6.2249 -0.2744 2.3874
6.2306 -0.0505 2.3874
6.2282 0.1734 2.3874
6.2177 0.3971 2.3874
6.1993 0.6203 2.3874
6.1728 0.8427 2.3874
6.1384 1.0640 2.3874
6.0960 1.2839 2.3874
6.0457 1.5021 2.3874
5.9876 1.7184 2.3874
5.9218 1.9324 2.3874
5.8484 2.1440 2.3874
5.7674 2.3527 2.3874
5.6790 2.5584 2.3874
5.5832 2.7608 2.3874
5.4802 2.9596 2.3874
5.3701 3.1546 2.3874
5.2531 3.3454 2.3874
5.1294 3.5320 2.3874
4.9990 3.7140 2.3874
4.8621 3.8912 2.3874
4.7190 4.0633 2.3874
4.5698 4.2302 2.3874
4.4147 4.3916 2.3874
4.2539 4.5473 2.3874
4.0876 4.6972 2.3874
3.9161 4.8410 2.3874
3.7394 4.9785 2.3874
3.5580 5.1096 2.3874
3.3720 5.2341 2.3874
3.1816 5.3518 2.3874
5.0741 2.8745 2.3874
4.9674 3.0550 2.3874
4.8542 3.2315 2.3874
4.7348 3.4037 2.3874
4.6093 3.5716 2.3874
4.4779 3.7349 2.3874
4.3406 3.8934 2.3874
4.1978 4.0468 2.3874
4.0495 4.1949 2.3874
3.8960 4.3377 2.3874
3.7375 4.4748 2.3874
3.5742 4.6062 2.3874
3.4063 4.7316 2.3874
3.2339 4.8509 2.3874
3.0574 4.9639 2.3874
2.8770 5.0705 2.3874
2.6928 5.1705 2.3874
2.5052 5.2639 2.3874
0.9176 2.1214 0.9466
0.8409 2.1533 0.9467
0.7630 2.1824 0.9468
0.6842 2.2086 0.9469
0.6044 2.2320 0.9471
0.5238 2.2525 0.9472
0.4425 2.2701 0.9473
0.3607 2.2847 0.9473
0.2784 2.2964 0.9474
0.1956 2.3050 0.9475
0.1127 2.3107 0.9475
0.0295 2.3134 0.9476
-0.0536 2.3130 0.9476
-0.1367 2.3097 0.9477
-0.2197 2.3033 0.9477
-0.3023 2.2939 0.9477
-0.3846 2.2816 0.9477
-0.4664 2.2663 0.9477
-0.5475 2.2480 0.9477
-0.6279 2.2268 0.9476
-0.7075 2.2027 0.9476
-0.7862 2.1758 0.9476
-0.8639 2.1460 0.9475
-2.3697 5.3255 2.3874
-2.5596 5.2369 2.3874
-2.7462 5.1416 2.3874
-2.9293 5.0396 2.3874
-3.1085 4.9311 2.3874
-3.2838 4.8162 2.3874
-3.4548 4.6951 2.3874
-3.6214 4.5680 2.3874
-3.7833 4.4349 2.3874
-3.9403 4.2961 2.3874
-4.0923 4.1518 2.3874
-4.2389 4.0021 2.3874
-4.3801 3.8472 2.3874
-4.5157 3.6873 2.3874
-4.6454 3.5227 2.3874
-4.7691 3.3535 2.3874
-4.8866 3.1800 2.3874
-4.9979 3.0023 2.3874
-5.1027 2.8208 2.3874
-5.2008 2.6356 2.3874
-5.2923 2.4471 2.3874
-5.3770 2.2553 2.3874
-5.4547 2.0606 2.3874
-5.5254 1.8633 2.3874
-5.5889 1.6635 2.3874
-5.6452 1.4616 2.3874
-5.6943 1.2578 2.3874
-5.7359 1.0523 2.3874
-5.7702 0.8455 2.3874
-5.7970 0.6376 2.3874
-5.8163 0.4288 2.3874
-5.8282 0.2195 2.3874
-5.8324 0.0099 2.3874
-5.8292 -0.1998 2.3874
-5.8184 -0.4091 2.3874
-5.8001 -0.6180 2.3874
-5.7743 -0.8261 2.3874
-5.7410 -1.0331 2.3874
-5.7003 -1.2388 2.3874
-5.6523 -1.4429 2.3874
-5.5969 -1.6452 2.3874
-5.5343 -1.8453 2.3874
-5.4646 -2.0431 2.3874
-5.3878 -2.2383 2.3874
-5.3040 -2.4305 2.3874
-5.2133 -2.6196 2.3874
-5.1159 -2.8054 2.3874
-5.0119 -2.9875 2.3874
-4.9014 -3.1658 2.3874
-4.7846 -3.3400 2.3874
-4.6616 -3.5099 2.3874
-4.5326 -3.6752 2.3874
-4.3977 -3.8358 2.3874
-4.2571 -3.9915 2.3874
-4.1110 -4.1420 2.3874
-3.9595 -4.2872 2.3874
-3.8030 -4.4268 2.3874
-3.6415 -4.5607 2.3874
-3.4753 -4.6887 2.3874
-3.3046 -4.8107 2.3874
-3.1297 -4.9264 2.3874
-2.9507 -5.0358 2.3874
-2.7678 -5.1387 2.3874
-2.5814 -5.2349 2.3874
-2.3917 -5.3244 2.3874
-2.1988 -5.4070 2.3874
-2.0031 -5.4826 2.3874
-1.8048 -5.5511 2.3874
-1.6041 -5.6125 2.3874
-1.4014 -5.6666 2.3874
-1.1969 -5.7133 2.3874
-0.9908 -5.7527 2.3874
-0.7834 -5.7846 2.3874
-0.5750 -5.8091 2.3874
-0.3659 -5.8261 2.3874
-0.1563 -5.8355 2.3874
0.0535 -5.8373 2.3874
0.2632 -5.8317 2.3874
0.4727 -5.8185 2.3874
0.6814 -5.7977 2.3874
0.8894 -5.7695 2.3874
1.0961 -5.7338 2.3874
1.3015 -5.6907 2.3874
1.5051 -5.6403 2.3874
1.7069 -5.5825 2.3874
1.9064 -5.5176 2.3874
2.1034 -5.4455 2.3874
2.2977 -5.3663 2.3874
2.4891 -5.2802 2.3874
2.6772 -5.1873 2.3874
2.8619 -5.0877 2.3874
3.0428 -4.9816 2.3874
3.2199 -4.8689 2.3874
3.3927 -4.7500 2.3874
3.5612 -4.6250 2.3874
3.7251 -4.4940 2.3874
3.8841 -4.3571 2.3874
4.0381 -4.2147 2.3874
4.1869 -4.0668 2.3874
4.3303 -3.9136 2.3874
4.4680 -3.7554 2.3874
4.6000 -3.5923 2.3874
4.7261 -3.4246 2.3874
