ply
format ascii 1.0
element vertex 2180
property float32 x
property float32 y
property float32 z
end_header
-0.3399 2.4525 0.9317
-0.4277 2.4409 0.9262
-0.5151 2.4261 0.9207
-0.6018 2.4082 0.9152
-0.6879 2.3871 0.9097
-0.7731 2.3629 0.9043
-0.8574 2.3356 0.8989
-0.9407 2.3053 0.8936
-2.7468 6.1017 2.3856
-2.9814 6.0397 2.3856
-3.2148 5.9686 2.3856
-3.4466 5.8884 2.3856
-3.6764 5.7989 2.3856
-3.9039 5.7003 2.3856
-4.1285 5.5924 2.3856
-4.3498 5.4754 2.3856
-4.5675 5.3493 2.3856
-4.7811 5.2141 2.3856
-4.9901 5.0700 2.3856
-5.1942 4.9170 2.3856
-5.3929 4.7554 2.3856
-5.5857 4.5853 2.3856
-5.7721 4.4068 2.3856
-5.9519 4.2202 2.3856
-6.1246 4.0258 2.3856
-6.2896 3.8238 2.3856
-6.4468 3.6146 2.3856
-6.5955 3.3983 2.3856
-6.7356 3.1755 2.3856
-6.8665 2.9464 2.3856
-6.9880 2.7114 2.3856
-7.0998 2.4710 2.3856
-7.2015 2.2256 2.3856
-7.2929 1.9756 2.3856
-7.3737 1.7216 2.3856
-7.4437 1.4640 2.3856
-7.5027 1.2033 2.3856
-7.5505 0.9400 2.3856
-7.5871 0.6747 2.3856
-7.6121 0.4079 2.3856
-7.6257 0.1401 2.3856
-7.6278 -0.1281 2.3856
-7.6183 -0.3961 2.3856
-7.5972 -0.6634 2.3856
-7.5647 -0.9296 2.3856
-7.5208 -1.1939 2.3856
-7.4656 -1.4559 2.3856
-7.3993 -1.7150 2.3856
-7.3221 -1.9708 2.3856
-7.2340 -2.2228 2.3856
-7.1355 -2.4703 2.3856
-7.0267 -2.7131 2.3856
-6.9080 -2.9506 2.3856
-6.7796 -3.1824 2.3856
-6.6419 -3.4080 2.3856
-6.4952 -3.6272 2.3856
-6.3400 -3.8395 2.3856
-6.1765 -4.0445 2.3856
-6.0052 -4.2421 2.3856
-5.8265 -4.4318 2.3856
-5.6408 -4.6134 2.3856
-5.4485 -4.7867 2.3856
-5.2502 -4.9515 2.3856
-5.0462 -5.1076 2.3856
-4.8369 -5.2547 2.3856
-4.6229 -5.3929 2.3856
-4.4046 -5.5219 2.3856
-4.1824 -5.6417 2.3856
-3.9567 -5.7522 2.3856
-3.7280 -5.8534 2.3856
-3.4968 -5.9452 2.3856
-3.2634 -6.0277 2.3856
-3.0283 -6.1009 2.3856
-2.7918 -6.1648 2.3856
-2.5544 -6.2194 2.3856
-2.3164 -6.2649 2.3856
-2.0783 -6.3014 2.3856
-1.8403 -6.3289 2.3856
-1.6029 -6.3475 2.3856
-1.3663 -6.3575 2.3856
-1.1310 -6.3588 2.3856
-0.8971 -6.3517 2.3856
-0.6650 -6.3364 2.3856
-0.4350 -6.3130 2.3856
-0.2074 -6.2816 2.3856
0.0176 -6.2425 2.3856
0.2397 -6.1959 2.3856
0.4588 -6.1419 2.3856
0.6746 -6.0807 2.3856
0.8868 -6.0126 2.3856
1.0953 -5.9377 2.3856
1.3000 -5.8563 2.3856
1.5005 -5.7684 2.3856
1.6969 -5.6745 2.3856
1.8888 -5.5745 2.3856
2.0762 -5.4689 2.3856
2.2590 -5.3577 2.3856
2.4370 -5.2412 2.3856
2.6101 -5.1195 2.3856
2.7782 -4.9929 2.3856
2.9412 -4.8615 2.3856
3.0990 -4.7257 2.3856
3.2516 -4.5855 2.3856
3.3988 -4.4411 2.3856
3.5406 -4.2928 2.3856
3.6769 -4.1407 2.3856
3.8077 -3.9850 2.3856
3.9329 -3.8260 2.3856
4.0524 -3.6637 2.3856
4.1663 -3.4983 2.3856
4.2745 -3.3301 2.3856
4.3769 -3.1592 2.3856
4.4735 -2.9858 2.3856
4.5644 -2.8100 2.3856
4.6493 -2.6320 2.3856
4.7285 -2.4520 2.3856
4.8017 -2.2701 2.3856
4.8690 -2.0865 2.3856
4.9305 -1.9013 2.3856
4.9860 -1.7148 2.3856
5.0356 -1.5269 2.3856
5.0792 -1.3380 2.3856
5.1169 -1.1481 2.3856
5.1487 -0.9574 2.3856
5.1745 -0.7661 2.3856
5.1943 -0.5742 2.3856
5.2082 -0.3820 2.3856
5.2161 -0.1895 2.3856
5.2181 0.0030 2.3856
5.2141 0.1955 2.3856
5.2041 0.3878 2.3856
5.1883 0.5797 2.3856
5.1664 0.7711 2.3856
5.1387 0.9619 2.3856
5.1050 1.1519 2.3856
5.0654 1.3410 2.3856
5.0199 1.5290 2.3856
4.9685 1.7158 2.3856
4.9113 1.9012 2.3856
4.8481 2.0851 2.3856
4.7792 2.2673 2.3856
4.7044 2.4478 2.3856
4.6239 2.6262 2.3856
4.5375 2.8025 2.3856
4.4454 2.9765 2.3856
4.3476 3.1481 2.3856
4.2442 3.3171 2.3856
4.1350 3.4833 2.3856
4.0203 3.6466 2.3856
3.9000 3.8067 2.3856
3.7742 3.9636 2.3856
3.6429 4.1171 2.3856
3.5062 4.2669 2.3856
3.3642 4.4129 2.3856
3.2168 4.5549 2.3856
3.0643 4.6928 2.3856
2.9066 4.8263 2.3856
2.7439 4.9553 2.3856
2.5762 5.0795 2.3856
2.4036 5.1989 2.3856
2.2263 5.3131 2.3856
0.8622 2.2868 1.0062
0.7797 2.3188 1.0011
0.6960 2.3477 0.9960
0.6113 2.3737 0.9908
0.5257 2.3965 0.9856
0.4394 2.4162 0.9803
0.3524 2.4328 0.9749
0.2649 2.4463 0.9695
0.1769 2.4566 0.9640
0.0886 2.4636 0.9585
0.0001 2.4675 0.9530
-0.0885 2.4682 0.9475
-0.1771 2.4656 0.9419
-0.2655 2.4599 0.9364
-0.3536 2.4509 0.9309
-0.4414 2.4388 0.9253
-0.5286 2.4235 0.9198
-0.6153 2.4051 0.9143
-0.7012 2.3835 0.9089
-0.7863 2.3588 0.9034
-0.8705 2.3311 0.8981
-0.9536 2.3003 0.8928
-2.7834 6.0926 2.3856
-3.0179 6.0292 2.3856
-3.2510 5.9567 2.3856
-3.4826 5.8750 2.3856
-3.7120 5.7841 2.3856
-3.9390 5.6840 2.3856
-4.1632 5.5748 2.3856
-4.3840 5.4563 2.3856
-4.6011 5.3288 2.3856
-4.8140 5.1922 2.3856
-5.0223 5.0467 2.3856
-5.2255 4.8924 2.3856
-5.4233 4.7294 2.3856
-5.6151 4.5580 2.3856
-5.8006 4.3782 2.3856
-5.9793 4.1905 2.3856
-6.1508 3.9948 2.3856
-6.3147 3.7917 2.3856
-6.4705 3.5813 2.3856
-6.6179 3.3640 2.3856
-6.7566 3.1402 2.3856
-6.8861 2.9101 2.3856
-7.0061 2.6743 2.3856
-7.1163 2.4331 2.3856
-7.2165 2.1869 2.3856
-7.3062 1.9363 2.3856
-7.3854 1.6817 2.3856
-7.4537 1.4235 2.3856
-7.5109 1.1624 2.3856
-7.5570 0.8988 2.3856
-7.5917 0.6332 2.3856
-7.6150 0.3662 2.3856
-7.6268 0.0983 2.3856
-7.6271 -0.1699 2.3856
-7.6158 -0.4378 2.3856
-7.5929 -0.7050 2.3856
-7.5586 -0.9709 2.3856
-7.5130 -1.2349 2.3856
-7.4560 -1.4965 2.3856
-7.3880 -1.7551 2.3856
-7.3090 -2.0104 2.3856
-7.2194 -2.2616 2.3856
-7.1192 -2.5085 2.3856
-7.0089 -2.7505 2.3856
-6.8886 -2.9871 2.3856
-6.7588 -3.2180 2.3856
-6.6196 -3.4426 2.3856
-6.4716 -3.6607 2.3856
-6.3150 -3.8719 2.3856
-6.1503 -4.0758 2.3856
-5.9778 -4.2722 2.3856
-5.7980 -4.4607 2.3856
-5.6112 -4.6410 2.3856
-5.4180 -4.8130 2.3856
-5.2188 -4.9764 2.3856
-5.0139 -5.1311 2.3856
-4.8039 -5.2769 2.3856
-4.5892 -5.4136 2.3856
-4.3702 -5.5412 2.3856
-4.1474 -5.6595 2.3856
-3.9213 -5.7686 2.3856
-3.6922 -5.8683 2.3856
-3.4606 -5.9587 2.3856
-3.2269 -6.0397 2.3856
-2.9915 -6.1114 2.3856
-2.7548 -6.1739 2.3856
-2.5173 -6.2271 2.3856
-2.2793 -6.2712 2.3856
-2.0412 -6.3062 2.3856
-1.8033 -6.3324 2.3856
-1.5660 -6.3497 2.3856
-1.3296 -6.3582 2.3856
-1.0944 -6.3583 2.3856
-0.8608 -6.3499 2.3856
-0.6290 -6.3333 2.3856
-0.3994 -6.3086 2.3856
-0.1722 -6.2760 2.3856
0.0524 -6.2358 2.3856
0.2741 -6.1880 2.3856
0.4927 -6.1328 2.3856
0.7079 -6.0706 2.3856
0.9196 -6.0014 2.3856
1.1275 -5.9254 2.3856
1.3315 -5.8430 2.3856
1.5314 -5.7542 2.3856
1.7271 -5.6593 2.3856
1.9183 -5.5585 2.3856
2.1050 -5.4519 2.3856
2.2871 -5.3399 2.3856
2.4643 -5.2225 2.3856
2.6366 -5.1001 2.3856
2.8039 -4.9727 2.3856
2.9661 -4.8407 2.3856
3.1231 -4.7041 2.3856
3.2749 -4.5632 2.3856
3.4212 -4.4182 2.3856
3.5622 -4.2693 2.3856
3.6977 -4.1167 2.3856
3.8276 -3.9605 2.3856
3.9519 -3.8009 2.3856
4.0706 -3.6381 2.3856
4.1836 -3.4723 2.3856
4.2908 -3.3037 2.3856
4.3923 -3.1324 2.3856
4.4881 -2.9586 2.3856
4.5780 -2.7824 2.3856
4.6620 -2.6041 2.3856
4.7403 -2.4238 2.3856
4.8126 -2.2416 2.3856
4.8790 -2.0577 2.3856
4.9395 -1.8723 2.3856
4.9941 -1.6856 2.3856
5.0428 -1.4976 2.3856
5.0855 -1.3085 2.3856
5.1223 -1.1184 2.3856
5.1531 -0.9276 2.3856
5.1780 -0.7362 2.3856
5.1969 -0.5442 2.3856
5.2098 -0.3520 2.3856
5.2168 -0.1595 2.3856
5.2178 0.0330 2.3856
5.2129 0.2255 2.3856
5.2020 0.4177 2.3856
5.1852 0.6096 2.3856
5.1625 0.8009 2.3856
5.1338 0.9916 2.3856
5.0992 1.1814 2.3856
5.0587 1.3704 2.3856
5.0123 1.5582 2.3856
4.9600 1.7448 2.3856
4.9018 1.9300 2.3856
4.8378 2.1136 2.3856
4.7679 2.2956 2.3856
4.6923 2.4757 2.3856
4.6108 2.6538 2.3856
4.5235 2.8298 2.3856
4.4306 3.0034 2.3856
4.3319 3.1746 2.3856
4.2275 3.3432 2.3856
4.1175 3.5090 2.3856
4.0019 3.6718 2.3856
3.8807 3.8314 2.3856
3.7541 3.9878 2.3856
3.6220 4.1406 2.3856
3.4844 4.2899 2.3856
3.3415 4.4353 2.3856
3.1934 4.5767 2.3856
3.0401 4.7139 2.3856
2.8816 4.8467 2.3856
2.7181 4.9750 2.3856
2.5496 5.0985 2.3856
2.3763 5.2170 2.3856
2.1983 5.3304 2.3856
0.8494 2.2920 1.0054
0.7667 2.3235 1.0003
0.6828 2.3520 0.9952
0.5980 2.3774 0.9900
0.5123 2.3998 0.9848
0.4259 2.4190 0.9794
4.1087 2.9453 2.3856
4.0112 3.1046 2.3856
3.9084 3.2612 2.3856
3.8003 3.4151 2.3856
3.6869 3.5659 2.3856
3.5683 3.7136 2.3856
3.4446 3.8579 2.3856
3.3158 3.9988 2.3856
3.1819 4.1360 2.3856
3.0431 4.2694 2.3856
2.8995 4.3988 2.3856
2.7510 4.5240 2.3856
2.5978 4.6448 2.3856
2.4400 4.7612 2.3856
2.2776 4.8728 2.3856
2.1109 4.9796 2.3856
0.8153 2.1355 1.0026
0.7381 2.1659 0.9979
0.6600 2.1934 0.9932
0.5808 2.2181 0.9883
0.5009 2.2399 0.9834
0.4201 2.2588 0.9784
0.3388 2.2748 0.9734
0.2569 2.2879 0.9683
0.1746 2.2979 0.9632
0.0920 2.3050 0.9581
0.0092 2.3091 0.9530
-0.0737 2.3102 0.9478
-0.1566 2.3083 0.9426
-0.2394 2.3033 0.9374
-0.3219 2.2954 0.9322
-0.4041 2.2845 0.9270
-0.4859 2.2707 0.9219
-0.5671 2.2539 0.9167
-0.6476 2.2341 0.9116
-0.7274 2.2115 0.9065
-0.8063 2.1860 0.9015
-0.8843 2.1576 0.8965
-0.9611 2.1265 0.8916
-2.7894 5.6299 2.3856
-3.0059 5.5614 2.3856
-3.2207 5.4845 2.3856
-3.4335 5.3991 2.3856
-3.6439 5.3052 2.3856
-3.8516 5.2029 2.3856
-4.0561 5.0921 2.3856
-4.2570 4.9729 2.3856
-4.4540 4.8455 2.3856
-4.6467 4.7099 2.3856
-4.8347 4.5662 2.3856
-5.0175 4.4146 2.3856
-5.1949 4.2553 2.3856
-5.3663 4.0883 2.3856
-5.5314 3.9141 2.3856
-5.6899 3.7326 2.3856
-5.8414 3.5443 2.3856
-5.9855 3.3494 2.3856
-6.1218 3.1482 2.3856
-6.2501 2.9410 2.3856
-6.3699 2.7282 2.3856
-6.4811 2.5101 2.3856
-6.5833 2.2870 2.3856
-6.6763 2.0595 2.3856
-6.7598 1.8278 2.3856
-6.8336 1.5925 2.3856
-6.8975 1.3540 2.3856
-6.9514 1.1127 2.3856
-6.9950 0.8691 2.3856
-7.0282 0.6237 2.3856
-7.0511 0.3769 2.3856
-7.0634 0.1292 2.3856
-7.0652 -0.1188 2.3856
-7.0564 -0.3666 2.3856
-7.0371 -0.6139 2.3856
-7.0073 -0.8600 2.3856
-6.9671 -1.1045 2.3856
-6.9166 -1.3469 2.3856
-6.8559 -1.5868 2.3856
-6.7852 -1.8236 2.3856
-6.7046 -2.0570 2.3856
-6.6144 -2.2864 2.3856
-6.5149 -2.5115 2.3856
-6.4061 -2.7318 2.3856
-6.2885 -2.9469 2.3856
-6.1623 -3.1566 2.3856
-6.0278 -3.3603 2.3856
-5.8854 -3.5578 2.3856
-5.7354 -3.7488 2.3856
-5.5781 -3.9330 2.3856
-5.4139 -4.1100 2.3856
-5.2433 -4.2797 2.3856
-5.0665 -4.4419 2.3856
-4.8839 -4.5963 2.3856
-4.6961 -4.7427 2.3856
-4.5033 -4.8810 2.3856
-4.3060 -5.0110 2.3856
-4.1045 -5.1327 2.3856
-3.8993 -5.2460 2.3856
-3.6908 -5.3507 2.3856
-3.4794 -5.4469 2.3856
-3.2654 -5.5344 2.3856
-3.0492 -5.6133 2.3856
-2.8313 -5.6837 2.3856
-2.6120 -5.7454 2.3856
-2.3916 -5.7987 2.3856
-2.1706 -5.8434 2.3856
-1.9492 -5.8797 2.3856
-1.7278 -5.9077 2.3856
-1.5067 -5.9274 2.3856
-1.2862 -5.9391 2.3856
-1.0667 -5.9426 2.3856
-0.8485 -5.9383 2.3856
-0.6317 -5.9263 2.3856
-0.4167 -5.9067 2.3856
-0.2038 -5.8796 2.3856
0.0069 -5.8453 2.3856
0.2151 -5.8037 2.3856
0.4205 -5.7553 2.3856
0.6229 -5.7000 2.3856
0.8222 -5.6382 2.3856
1.0181 -5.5699 2.3856
1.2106 -5.4954 2.3856
1.3993 -5.4149 2.3856
1.5841 -5.3284 2.3856
1.7650 -5.2363 2.3856
1.9417 -5.1387 2.3856
2.1142 -5.0358 2.3856
2.2822 -4.9278 2.3856
2.4457 -4.8148 2.3856
2.6046 -4.6971 2.3856
2.7587 -4.5748 2.3856
2.9081 -4.4482 2.3856
3.0525 -4.3174 2.3856
3.1919 -4.1825 2.3856
3.3263 -4.0439 2.3856
3.4556 -3.9015 2.3856
3.5797 -3.7557 2.3856
3.6985 -3.6066 2.3856
3.8120 -3.4543 2.3856
3.9202 -3.2991 2.3856
4.0230 -3.1411 2.3856
4.1204 -2.9805 2.3856
4.2123 -2.8173 2.3856
4.2987 -2.6519 2.3856
4.3795 -2.4843 2.3856
4.4549 -2.3148 2.3856
4.5246 -2.1434 2.3856
4.5888 -1.9703 2.3856
4.6473 -1.7956 2.3856
4.7003 -1.6196 2.3856
4.7476 -1.4424 2.3856
4.7892 -1.2640 2.3856
4.8252 -1.0847 2.3856
4.8555 -0.9047 2.3856
4.8801 -0.7239 2.3856
4.8991 -0.5427 2.3856
4.9123 -0.3611 2.3856
4.9199 -0.1793 2.3856
4.9219 0.0026 2.3856
4.9181 0.1845 2.3856
4.9087 0.3661 2.3856
4.8936 0.5474 2.3856
4.8728 0.7283 2.3856
4.8464 0.9085 2.3856
4.8143 1.0880 2.3856
4.7767 1.2665 2.3856
4.7333 1.4440 2.3856
4.6844 1.6203 2.3856
4.6299 1.7953 2.3856
4.5699 1.9688 2.3856
4.5043 2.1406 2.3856
4.4331 2.3107 2.3856
4.3565 2.4789 2.3856
4.2744 2.6450 2.3856
4.1868 2.8088 2.3856
4.0939 2.9703 2.3856
3.9956 3.1292 2.3856
3.8919 3.2854 2.3856
3.7829 3.4388 2.3856
3.6687 3.5891 2.3856
3.5493 3.7363 2.3856
3.4248 3.8801 2.3856
3.2952 4.0204 2.3856
3.1606 4.1570 2.3856
3.0210 4.2898 2.3856
2.8766 4.4185 2.3856
2.7274 4.5431 2.3856
2.5735 4.6633 2.3856
2.4150 4.7789 2.3856
2.2519 4.8898 2.3856
2.0845 4.9957 2.3856
0.8033 2.1404 1.0019
0.7260 2.1704 0.9972
0.6477 2.1974 0.9924
0.5684 2.2217 0.9875
0.4883 2.2431 0.9826
0.4075 2.2615 0.9777
0.3261 2.2771 0.9726
0.2441 2.2896 0.9676
0.1618 2.2992 0.9624
0.0791 2.3058 0.9573
-0.0037 2.3095 0.9521
-0.0866 2.3101 0.9470
-0.1695 2.3077 0.9418
-0.2523 2.3023 0.9366
-0.3348 2.2939 0.9314
-0.4169 2.2826 0.9262
-0.4986 2.2683 0.9211
-0.5797 2.2510 0.9159
-0.6601 2.2308 0.9108
-0.7398 2.2077 0.9057
-0.8185 2.1818 0.9007
-0.8963 2.1530 0.8957
-2.6057 5.6811 2.3856
-2.8233 5.6198 2.3856
-3.0395 5.5500 2.3856
-3.2540 5.4718 2.3856
-3.4665 5.3850 2.3856
-3.6765 5.2898 2.3856
-3.8837 5.1861 2.3856
-4.0876 5.0741 2.3856
-4.2880 4.9536 2.3856
-4.4844 4.8249 2.3856
-4.6763 4.6880 2.3856
-4.8635 4.5431 2.3856
-5.0455 4.3903 2.3856
-5.2220 4.2298 2.3856
-5.3925 4.0617 2.3856
-5.5566 3.8862 2.3856
-5.7140 3.7037 2.3856
-5.8643 3.5144 2.3856
-6.0072 3.3185 2.3856
-6.1423 3.1163 2.3856
-6.2693 2.9082 2.3856
-6.3878 2.6945 2.3856
-6.4977 2.4756 2.3856
-6.5985 2.2519 2.3856
-6.6900 2.0236 2.3856
-6.7720 1.7914 2.3856
-6.8443 1.5556 2.3856
-6.9066 1.3166 2.3856
-6.9588 1.0749 2.3856
-7.0008 0.8309 2.3856
-7.0325 0.5853 2.3856
-7.0537 0.3383 2.3856
-7.0643 0.0906 2.3856
-7.0645 -0.1574 2.3856
-7.0541 -0.4052 2.3856
-7.0331 -0.6523 2.3856
-7.0017 -0.8982 2.3856
-6.9599 -1.1425 2.3856
-6.9078 -1.3845 2.3856
-6.8455 -1.6239 2.3856
-6.7733 -1.8602 2.3856
-6.6912 -2.0930 2.3856
-6.5995 -2.3218 2.3856
-6.4985 -2.5461 2.3856
-6.3884 -2.7657 2.3856
-6.2694 -2.9800 2.3856
-6.1419 -3.1887 2.3856
-6.0061 -3.3915 2.3856
-5.8625 -3.5880 2.3856
-5.7113 -3.7780 2.3856
-5.5529 -3.9611 2.3856
-5.3877 -4.1370 2.3856
-5.2161 -4.3055 2.3856
-5.0384 -4.4665 2.3856
-4.8550 -4.6196 2.3856
-4.6663 -4.7648 2.3856
-4.4728 -4.9018 2.3856
-4.2748 -5.0305 2.3856
-4.0728 -5.1509 2.3856
-3.8670 -5.2628 2.3856
-3.6580 -5.3662 2.3856
-3.4462 -5.4611 2.3856
-3.2318 -5.5473 2.3856
-3.0154 -5.6249 2.3856
-2.7972 -5.6939 2.3856
-2.5777 -5.7543 2.3856
-2.3572 -5.8062 2.3856
-2.1361 -5.8496 2.3856
-1.9146 -5.8846 2.3856
-1.6933 -5.9113 2.3856
-1.4723 -5.9298 2.3856
-1.2519 -5.9401 2.3856
-1.0326 -5.9424 2.3856
-0.8146 -5.9370 2.3856
-0.5981 -5.9237 2.3856
-0.3834 -5.9029 2.3856
-0.1708 -5.8747 2.3856
0.0395 -5.8392 2.3856
0.2472 -5.7966 2.3856
0.4522 -5.7471 2.3856
0.6542 -5.6908 2.3856
0.8530 -5.6280 2.3856
1.0484 -5.5587 2.3856
1.2402 -5.4833 2.3856
1.4283 -5.4018 2.3856
1.6126 -5.3145 2.3856
1.7928 -5.2215 2.3856
1.9689 -5.1230 2.3856
2.1406 -5.0193 2.3856
2.3080 -4.9105 2.3856
2.4708 -4.7968 2.3856
2.6289 -4.6784 2.3856
2.7823 -4.5554 2.3856
2.9309 -4.4281 2.3856
3.0746 -4.2966 2.3856
3.2132 -4.1612 2.3856
3.3468 -4.0219 2.3856
3.4753 -3.8790 2.3856
3.5985 -3.7327 2.3856
3.7165 -3.5831 2.3856
3.8292 -3.4303 2.3856
3.9366 -3.2747 2.3856
4.0385 -3.1162 2.3856
4.1350 -2.9552 2.3856
4.2261 -2.7917 2.3856
4.3116 -2.6259 2.3856
4.3917 -2.4580 2.3856
4.4661 -2.2882 2.3856
4.5350 -2.1165 2.3856
4.5983 -1.9431 2.3856
4.6560 -1.7683 2.3856
4.7080 -1.5921 2.3856
4.7544 -1.4146 2.3856
4.7952 -1.2361 2.3856
4.8303 -1.0567 2.3856
4.8597 -0.8766 2.3856
4.8834 -0.6957 2.3856
4.9015 -0.5144 2.3856
4.9139 -0.3328 2.3856
4.9206 -0.1509 2.3856
4.9216 0.0310 2.3856
4.9170 0.2128 2.3856
4.9067 0.3944 2.3856
4.8907 0.5757 2.3856
4.8691 0.7564 2.3856
4.8418 0.9365 2.3856
4.8088 1.1159 2.3856
4.7703 1.2942 2.3856
4.7261 1.4716 2.3856
4.6763 1.6477 2.3856
4.6210 1.8224 2.3856
4.5600 1.9957 2.3856
4.4936 2.1673 2.3856
4.4216 2.3371 2.3856
4.3441 2.5049 2.3856
4.2611 2.6706 2.3856
4.1727 2.8341 2.3856
4.0789 2.9952 2.3856
3.9797 3.1537 2.3856
3.8752 3.3095 2.3856
3.7655 3.4624 2.3856
3.6505 3.6123 2.3856
3.5303 3.7589 2.3856
3.4050 3.9022 2.3856
3.2746 4.0419 2.3856
3.1392 4.1780 2.3856
2.9989 4.3101 2.3856
2.8537 4.4382 2.3856
2.7037 4.5621 2.3856
2.5491 4.6816 2.3856
2.3899 4.7965 2.3856
2.2261 4.9066 2.3856
2.0580 5.0118 2.3856
0.7913 2.1453 1.0012
0.7139 2.1748 0.9964
0.6354 2.2014 0.9916
0.5560 2.2252 0.9868
0.4758 2.2461 0.9819
0.3949 2.2641 0.9769
3.8774 2.7850 2.3856
3.7846 2.9353 2.3856
3.6867 3.0829 2.3856
3.5839 3.2278 2.3856
3.4761 3.3697 2.3856
3.3634 3.5087 2.3856
3.2458 3.6444 2.3856
3.1235 3.7767 2.3856
2.9964 3.9055 2.3856
2.8647 4.0305 2.3856
2.7284 4.1517 2.3856
2.5876 4.2689 2.3856
2.4424 4.3819 2.3856
2.2929 4.4906 2.3856
2.1392 4.5947 2.3856
0.8331 1.9737 1.0031
0.7618 2.0048 0.9988
0.6894 2.0333 0.9943
0.6160 2.0591 0.9899
0.5417 2.0823 0.9853
0.4666 2.1028 0.9807
0.3908 2.1205 0.9760
0.3145 2.1355 0.9713
0.2376 2.1478 0.9666
0.1603 2.1572 0.9618
0.0828 2.1638 0.9570
0.0050 2.1677 0.9521
-0.0728 2.1687 0.9473
-0.1506 2.1669 0.9424
-0.2283 2.1623 0.9375
-0.3058 2.1548 0.9326
-0.3830 2.1446 0.9278
-0.4598 2.1316 0.9229
-0.5360 2.1158 0.9181
-0.6116 2.0973 0.9133
-0.6865 2.0760 0.9085
-0.7606 2.0521 0.9038
-0.8338 2.0255 0.8991
-0.9059 1.9962 0.8945
-2.6189 5.2659 2.3856
-2.8205 5.2001 2.3856
-3.0203 5.1264 2.3856
-3.2182 5.0448 2.3856
-3.4137 4.9554 2.3856
-3.6065 4.8581 2.3856
-3.7963 4.7531 2.3856
-3.9826 4.6404 2.3856
-4.1652 4.5200 2.3856
-4.3436 4.3921 2.3856
-4.5176 4.2568 2.3856
-4.6867 4.1143 2.3856
-4.8506 3.9646 2.3856
-5.0090 3.8080 2.3856
-5.1615 3.6447 2.3856
-5.3077 3.4748 2.3856
-5.4474 3.2987 2.3856
-5.5802 3.1165 2.3856
-5.7058 2.9286 2.3856
-5.8240 2.7353 2.3856
-5.9343 2.5368 2.3856
-6.0366 2.3335 2.3856
-6.1306 2.1258 2.3856
-6.2161 1.9139 2.3856
-6.2929 1.6984 2.3856
-6.3606 1.4795 2.3856
-6.4193 1.2577 2.3856
-6.4687 1.0334 2.3856
-6.5087 0.8070 2.3856
-6.5392 0.5790 2.3856
-6.5601 0.3498 2.3856
-6.5713 0.1197 2.3856
-6.5729 -0.1106 2.3856
-6.5648 -0.3409 2.3856
-6.5470 -0.5705 2.3856
-6.5195 -0.7991 2.3856
-6.4825 -1.0263 2.3856
-6.4360 -1.2516 2.3856
-6.3802 -1.4745 2.3856
-6.3151 -1.6947 2.3856
-6.2410 -1.9118 2.3856
-6.1580 -2.1253 2.3856
-6.0663 -2.3348 2.3856
-5.9661 -2.5400 2.3856
-5.8578 -2.7405 2.3856
-5.7415 -2.9360 2.3856
-5.6176 -3.1261 2.3856
-5.4862 -3.3105 2.3856
-5.3478 -3.4890 2.3856
-5.2027 -3.6613 2.3856
-5.0511 -3.8271 2.3856
-4.8935 -3.9861 2.3856
-4.7301 -4.1382 2.3856
-4.5613 -4.2832 2.3856
-4.3874 -4.4210 2.3856
-4.2090 -4.5512 2.3856
-4.0262 -4.6739 2.3856
-3.8394 -4.7889 2.3856
-3.6491 -4.8962 2.3856
-3.4556 -4.9955 2.3856
-3.2592 -5.0870 2.3856
-3.0604 -5.1705 2.3856
-2.8594 -5.2460 2.3856
-2.6566 -5.3136 2.3856
-2.4523 -5.3732 2.3856
-2.2470 -5.4249 2.3856
-2.0409 -5.4686 2.3856
-1.8343 -5.5045 2.3856
-1.6275 -5.5327 2.3856
-1.4209 -5.5531 2.3856
-1.2148 -5.5660 2.3856
-1.0094 -5.5713 2.3856
-0.8050 -5.5691 2.3856
-0.6019 -5.5598 2.3856
-0.4003 -5.5433 2.3856
-0.2005 -5.5198 2.3856
-0.0027 -5.4894 2.3856
0.1929 -5.4522 2.3856
0.3861 -5.4085 2.3856
0.5765 -5.3584 2.3856
0.7642 -5.3019 2.3856
0.9488 -5.2394 2.3856
1.1301 -5.1709 2.3856
1.3082 -5.0967 2.3856
1.4826 -5.0169 2.3856
1.6534 -4.9316 2.3856
1.8204 -4.8411 2.3856
1.9835 -4.7455 2.3856
2.1424 -4.6449 2.3856
2.2972 -4.5397 2.3856
2.4477 -4.4299 2.3856
2.5938 -4.3156 2.3856
2.7353 -4.1972 2.3856
2.8723 -4.0747 2.3856
3.0047 -3.9484 2.3856
3.1322 -3.8183 2.3856
3.2550 -3.6847 2.3856
3.3729 -3.5478 2.3856
3.4859 -3.4076 2.3856
3.5939 -3.2644 2.3856
3.6968 -3.1183 2.3856
3.7946 -2.9694 2.3856
3.8873 -2.8180 2.3856
3.9748 -2.6643 2.3856
4.0572 -2.5082 2.3856
4.1342 -2.3500 2.3856
4.2061 -2.1899 2.3856
4.2726 -2.0280 2.3856
4.3338 -1.8645 2.3856
4.3896 -1.6994 2.3856
4.4402 -1.5330 2.3856
4.4853 -1.3654 2.3856
4.5251 -1.1967 2.3856
4.5594 -1.0271 2.3856
4.5884 -0.8566 2.3856
4.6119 -0.6856 2.3856
4.6301 -0.5140 2.3856
4.6428 -0.3421 2.3856
4.6501 -0.1700 2.3856
4.6519 0.0022 2.3856
4.6484 0.1744 2.3856
4.6394 0.3464 2.3856
4.6251 0.5181 2.3856
4.6053 0.6893 2.3856
4.5801 0.8599 2.3856
4.5496 1.0297 2.3856
4.5137 1.1987 2.3856
4.4724 1.3666 2.3856
4.4258 1.5334 2.3856
4.3738 1.6988 2.3856
4.3166 1.8629 2.3856
4.2541 2.0253 2.3856
4.1863 2.1860 2.3856
4.1133 2.3449 2.3856
4.0351 2.5017 2.3856
3.9517 2.6563 2.3856
3.8632 2.8086 2.3856
3.7697 2.9584 2.3856
3.6710 3.1057 2.3856
3.5674 3.2501 2.3856
3.4588 3.3916 2.3856
3.3454 3.5300 2.3856
3.2271 3.6652 2.3856
3.1040 3.7970 2.3856
2.9762 3.9252 2.3856
2.8437 4.0497 2.3856
2.7067 4.1703 2.3856
2.5653 4.2868 2.3856
2.4194 4.3992 2.3856
2.2692 4.5071 2.3856
2.1149 4.6105 2.3856
0.8221 1.9787 1.0024
0.7506 2.0094 0.9981
0.6780 2.0375 0.9936
0.6044 2.0629 0.9892
0.5300 2.0857 0.9846
0.4548 2.1057 0.9800
0.3790 2.1230 0.9753
0.3025 2.1376 0.9706
0.2256 2.1494 0.9658
0.1483 2.1584 0.9610
0.0707 2.1646 0.9562
-0.0071 2.1680 0.9514
-0.0849 2.1686 0.9465
-0.1627 2.1663 0.9416
-0.2404 2.1613 0.9368
-0.3179 2.1534 0.9319
-0.3950 2.1428 0.9270
-0.4717 2.1293 0.9222
-0.5478 2.1131 0.9174
-0.6233 2.0941 0.9126
-0.6981 2.0725 0.9078
-0.7721 2.0481 0.9031
-0.8451 2.0211 0.8984
-0.9171 1.9914 0.8938
-2.6504 5.2562 2.3856
-2.8517 5.1891 2.3856
-3.0513 5.1142 2.3856
-3.2488 5.0314 2.3856
-3.4439 4.9407 2.3856
-3.6363 4.8423 2.3856
-3.8255 4.7360 2.3856
-4.0113 4.6221 2.3856
-4.1933 4.5006 2.3856
-4.3711 4.3715 2.3856
-4.5443 4.2351 2.3856
-4.7126 4.0914 2.3856
-4.8757 3.9406 2.3856
-5.0332 3.7830 2.3856
-5.1847 3.6186 2.3856
-5.3299 3.4478 2.3856
-5.4686 3.2707 2.3856
-5.6003 3.0876 2.3856
-5.7248 2.8988 2.3856
-5.8417 2.7047 2.3856
-5.9508 2.5054 2.3856
-6.0518 2.3014 2.3856
-6.1445 2.0930 2.3856
-6.2287 1.8806 2.3856
-6.3040 1.6645 2.3856
-6.3704 1.4451 2.3856
-6.4276 1.2229 2.3856
-6.4756 0.9983 2.3856
-6.5141 0.7716 2.3856
-6.5431 0.5433 2.3856
-6.5625 0.3139 2.3856
-6.5722 0.0838 2.3856
-6.5723 -0.1465 2.3856
-6.5626 -0.3767 2.3856
-6.5433 -0.6062 2.3856
-6.5144 -0.8347 2.3856
-6.4759 -1.0616 2.3856
-6.4279 -1.2865 2.3856
-6.3706 -1.5091 2.3856
-6.3041 -1.7288 2.3856
-6.2286 -1.9453 2.3856
-6.1442 -2.1582 2.3856
-6.0512 -2.3671 2.3856
-5.9498 -2.5715 2.3856
-5.8402 -2.7713 2.3856
-5.7227 -2.9660 2.3856
-5.5976 -3.1552 2.3856
-5.4651 -3.3387 2.3856
-5.3257 -3.5163 2.3856
-5.1795 -3.6876 2.3856
-5.0269 -3.8523 2.3856
-4.8684 -4.0103 2.3856
-4.7041 -4.1613 2.3856
-4.5345 -4.3052 2.3856
-4.3599 -4.4418 2.3856
-4.1807 -4.5709 2.3856
-3.9973 -4.6924 2.3856
-3.8100 -4.8062 2.3856
-3.6192 -4.9122 2.3856
-3.4252 -5.0103 2.3856
-3.2284 -5.1005 2.3856
-3.0292 -5.1828 2.3856
-2.8279 -5.2571 2.3856
-2.6248 -5.3234 2.3856
-2.4204 -5.3818 2.3856
-2.2149 -5.4322 2.3856
-2.0087 -5.4747 2.3856
-1.8021 -5.5094 2.3856
-1.5953 -5.5364 2.3856
-1.3888 -5.5555 2.3856
-1.1827 -5.5672 2.3856
-0.9775 -5.5713 2.3856
-0.7732 -5.5681 2.3856
-0.5704 -5.5577 2.3856
-0.3690 -5.5401 2.3856
-0.1695 -5.5155 2.3856
0.0280 -5.4840 2.3856
0.2232 -5.4458 2.3856
0.4159 -5.4011 2.3856
0.6060 -5.3500 2.3856
0.7931 -5.2926 2.3856
0.9772 -5.2291 2.3856
1.1581 -5.1597 2.3856
1.3356 -5.0846 2.3856
1.5095 -5.0039 2.3856
1.6797 -4.9178 2.3856
1.8461 -4.8265 2.3856
2.0085 -4.7301 2.3856
2.1668 -4.6288 2.3856
2.3209 -4.5229 2.3856
2.4707 -4.4123 2.3856
2.6161 -4.2975 2.3856
2.7570 -4.1784 2.3856
2.8933 -4.0553 2.3856
3.0249 -3.9284 2.3856
3.1517 -3.7977 2.3856
3.2737 -3.6636 2.3856
3.3909 -3.5261 2.3856
3.5030 -3.3855 2.3856
3.6102 -3.2418 2.3856
3.7124 -3.0952 2.3856
3.8094 -2.9460 2.3856
3.9013 -2.7942 2.3856
3.9880 -2.6401 2.3856
4.0695 -2.4837 2.3856
4.1458 -2.3252 2.3856
4.2168 -2.1648 2.3856
4.2825 -2.0026 2.3856
4.3428 -1.8388 2.3856
4.3979 -1.6736 2.3856
4.4475 -1.5069 2.3856
4.4918 -1.3391 2.3856
4.5308 -1.1703 2.3856
4.5643 -1.0005 2.3856
4.5924 -0.8300 2.3856
4.6151 -0.6589 2.3856
4.6324 -0.4873 2.3856
4.6443 -0.3153 2.3856
4.6507 -0.1431 2.3856
4.6517 0.0291 2.3856
4.6474 0.2012 2.3856
4.6375 0.3732 2.3856
4.6223 0.5448 2.3856
4.6017 0.7159 2.3856
4.5757 0.8864 2.3856
4.5443 1.0561 2.3856
4.5076 1.2249 2.3856
4.4655 1.3927 2.3856
4.4180 1.5593 2.3856
4.3653 1.7245 2.3856
4.3072 1.8883 2.3856
4.2438 2.0505 2.3856
4.1753 2.2109 2.3856
4.1014 2.3694 2.3856
4.0224 2.5259 2.3856
3.9383 2.6802 2.3856
3.8490 2.8321 2.3856
3.7546 2.9816 2.3856
3.6552 3.1284 2.3856
3.5508 3.2723 2.3856
3.4415 3.4134 2.3856
3.3272 3.5513 2.3856
3.2082 3.6860 2.3856
3.0843 3.8172 2.3856
2.9558 3.9448 2.3856
2.8227 4.0687 2.3856
2.6850 4.1887 2.3856
2.5428 4.3046 2.3856
2.3963 4.4163 2.3856
2.2454 4.5235 2.3856
2.0904 4.6262 2.3856
0.8110 1.9837 1.0017
0.7393 2.0140 0.9974
0.6666 2.0416 0.9930
0.5929 2.0666 0.9884
0.5184 2.0890 0.9839
0.4430 2.1086 0.9793
0.3671 2.1255 0.9746
3.6660 2.6386 2.3856
3.5775 2.7806 2.3856
3.4843 2.9200 2.3856
3.3863 3.0568 2.3856
3.2837 3.1907 2.3856
3.1764 3.3217 2.3856
3.0645 3.4496 2.3856
2.9481 3.5742 2.3856
2.8273 3.6953 2.3856
2.7021 3.8130 2.3856
2.5726 3.9268 2.3856
2.4389 4.0368 2.3856
2.3011 4.1428 2.3856
2.1592 4.2445 2.3856
0.8468 1.8261 1.0033
0.7807 1.8578 0.9993
0.7136 1.8870 0.9953
0.6454 1.9138 0.9911
0.5763 1.9381 0.9869
0.5064 1.9599 0.9826
0.4357 1.9792 0.9783
0.3644 1.9959 0.9739
0.2925 2.0100 0.9694
0.2202 2.0215 0.9650
0.1474 2.0304 0.9605
0.0744 2.0366 0.9559
0.0013 2.0402 0.9514
-0.0720 2.0411 0.9468
-0.1453 2.0395 0.9422
-0.2184 2.0351 0.9376
-0.2913 2.0281 0.9330
-0.3640 2.0185 0.9285
-0.4362 2.0062 0.9239
-0.5080 1.9914 0.9193
-0.5791 1.9739 0.9148
-0.6496 1.9539 0.9103
-0.7194 1.9314 0.9059
-0.7882 1.9063 0.9015
-0.8562 1.8788 0.8971
-0.9230 1.8489 0.8928
-2.6546 4.8768 2.3856
-2.8413 4.8062 2.3856
-3.0259 4.7283 2.3856
-3.2082 4.6431 2.3856
-3.3879 4.5506 2.3856
-3.5647 4.4509 2.3856
-3.7381 4.3441 2.3856
-3.9080 4.2302 2.3856
-4.0739 4.1093 2.3856
-4.2356 3.9817 2.3856
-4.3926 3.8473 2.3856
-4.5448 3.7064 2.3856
-4.6918 3.5591 2.3856
-4.8332 3.4056 2.3856
-4.9687 3.2461 2.3856
-5.0981 3.0809 2.3856
-5.2211 2.9101 2.3856
-5.3374 2.7341 2.3856
-5.4467 2.5531 2.3856
-5.5487 2.3674 2.3856
-5.6433 2.1773 2.3856
-5.7302 1.9831 2.3856
-5.8091 1.7852 2.3856
-5.8800 1.5840 2.3856
-5.9426 1.3796 2.3856
-5.9967 1.1726 2.3856
-6.0423 0.9634 2.3856
-6.0792 0.7522 2.3856
-6.1073 0.5396 2.3856
-6.1265 0.3258 2.3856
-6.1368 0.1113 2.3856
-6.1382 -0.1034 2.3856
-6.1306 -0.3181 2.3856
-6.1141 -0.5322 2.3856
-6.0887 -0.7454 2.3856
-6.0545 -0.9573 2.3856
-6.0115 -1.1674 2.3856
-5.9599 -1.3754 2.3856
-5.8997 -1.5808 2.3856
-5.8311 -1.7834 2.3856
-5.7544 -1.9828 2.3856
-5.6695 -2.1785 2.3856
-5.5769 -2.3703 2.3856
-5.4767 -2.5578 2.3856
-5.3690 -2.7407 2.3856
-5.2542 -2.9186 2.3856
-5.1326 -3.0914 2.3856
-5.0043 -3.2588 2.3856
-4.8698 -3.4203 2.3856
-4.7292 -3.5760 2.3856
-4.5830 -3.7255 2.3856
-4.4313 -3.8686 2.3856
-4.2746 -4.0051 2.3856
-4.1131 -4.1350 2.3856
-3.9472 -4.2580 2.3856
-3.7771 -4.3739 2.3856
-3.6034 -4.4828 2.3856
-3.4262 -4.5845 2.3856
-3.2459 -4.6789 2.3856
-3.0628 -4.7659 2.3856
-2.8774 -4.8456 2.3856
-2.6898 -4.9179 2.3856
-2.5004 -4.9828 2.3856
-2.3096 -5.0402 2.3856
-2.1176 -5.0902 2.3856
-1.9247 -5.1329 2.3856
-1.7313 -5.1682 2.3856
-1.5376 -5.1963 2.3856
-1.3440 -5.2171 2.3856
-1.1507 -5.2310 2.3856
-0.9579 -5.2375 2.3856
-0.7659 -5.2372 2.3856
-0.5751 -5.2301 2.3856
-0.3855 -5.2161 2.3856
-0.1975 -5.1956 2.3856
-0.0113 -5.1685 2.3856
0.1729 -5.1351 2.3856
0.3550 -5.0954 2.3856
0.5346 -5.0497 2.3856
0.7117 -4.9980 2.3856
0.8860 -4.9404 2.3856
1.0574 -4.8773 2.3856
1.2256 -4.8086 2.3856
1.3907 -4.7345 2.3856
1.5523 -4.6553 2.3856
1.7104 -4.5711 2.3856
1.8649 -4.4819 2.3856
2.0155 -4.3881 2.3856
2.1623 -4.2897 2.3856
2.3051 -4.1869 2.3856
2.4437 -4.0799 2.3856
2.5782 -3.9689 2.3856
2.7083 -3.8539 2.3856
2.8341 -3.7352 2.3856
2.9554 -3.6129 2.3856
3.0722 -3.4872 2.3856
3.1844 -3.3582 2.3856
3.2920 -3.2261 2.3856
3.3948 -3.0911 2.3856
3.4928 -2.9532 2.3856
3.5861 -2.8127 2.3856
3.6745 -2.6697 2.3856
3.7579 -2.5244 2.3856
3.8364 -2.3769 2.3856
3.9100 -2.2273 2.3856
3.9785 -2.0758 2.3856
4.0421 -1.9225 2.3856
4.1005 -1.7677 2.3856
4.1539 -1.6114 2.3856
4.2021 -1.4537 2.3856
4.2453 -1.2949 2.3856
4.2833 -1.1350 2.3856
4.3161 -0.9742 2.3856
4.3438 -0.8127 2.3856
4.3664 -0.6505 2.3856
4.3837 -0.4878 2.3856
4.3959 -0.3247 2.3856
4.4029 -0.1615 2.3856
4.4047 0.0019 2.3856
4.4014 0.1652 2.3856
4.3929 0.3283 2.3856
4.3792 0.4912 2.3856
4.3603 0.6535 2.3856
4.3363 0.8153 2.3856
4.3072 0.9764 2.3856
4.2729 1.1365 2.3856
4.2335 1.2957 2.3856
4.1890 1.4538 2.3856
4.1394 1.6106 2.3856
4.0848 1.7660 2.3856
4.0252 1.9198 2.3856
3.9605 2.0720 2.3856
3.8909 2.2223 2.3856
3.8163 2.3707 2.3856
3.7368 2.5169 2.3856
3.6525 2.6609 2.3856
3.5633 2.8025 2.3856
3.4693 2.9415 2.3856
3.3707 3.0778 2.3856
3.2673 3.2114 2.3856
3.1593 3.3418 2.3856
3.0467 3.4692 2.3856
2.9296 3.5933 2.3856
2.8081 3.7139 2.3856
2.6822 3.8310 2.3856
2.5520 3.9442 2.3856
2.4177 4.0536 2.3856
2.2792 4.1589 2.3856
2.1367 4.2600 2.3856
0.8366 1.8312 1.0027
0.7703 1.8625 0.9987
0.7030 1.8913 0.9946
0.6347 1.9177 0.9905
0.5655 1.9417 0.9862
0.4954 1.9631 0.9819
0.4246 1.9819 0.9776
0.3532 1.9982 0.9732
0.2813 2.0119 0.9688
0.2088 2.0230 0.9643
0.1361 2.0315 0.9598
0.0630 2.0373 0.9552
-0.0102 2.0405 0.9507
-0.0834 2.0411 0.9461
-0.1567 2.0389 0.9415
-0.2298 2.0342 0.9369
-0.3027 2.0268 0.9323
-0.3753 2.0167 0.9277
-0.4474 2.0041 0.9232
-0.5191 1.9888 0.9186
-0.5902 1.9710 0.9141
-0.6606 1.9506 0.9096
-0.7302 1.9277 0.9052
-0.7989 1.9022 0.9008
-0.8667 1.8743 0.8965
-0.9334 1.8440 0.8922
-2.6838 4.8663 2.3856
-2.8702 4.7946 2.3856
-3.0545 4.7155 2.3856
-3.2364 4.6291 2.3856
-3.4157 4.5355 2.3856
-3.5919 4.4347 2.3856
-3.7648 4.3268 2.3856
-3.9341 4.2118 2.3856
-4.0994 4.0899 2.3856
-4.2604 3.9612 2.3856
-4.4167 3.8258 2.3856
-4.5681 3.6838 2.3856
-4.7142 3.5356 2.3856
-4.8547 3.3811 2.3856
-4.9893 3.2207 2.3856
-5.1177 3.0546 2.3856
-5.2397 2.8830 2.3856
-5.3549 2.7062 2.3856
-5.4630 2.5244 2.3856
-5.5640 2.3381 2.3856
-5.6573 2.1473 2.3856
-5.7430 1.9525 2.3856
-5.8207 1.7541 2.3856
-5.8903 1.5523 2.3856
-5.9516 1.3475 2.3856
-6.0044 1.1402 2.3856
-6.0486 0.9306 2.3856
-6.0841 0.7192 2.3856
-6.1108 0.5063 2.3856
-6.1287 0.2924 2.3856
-6.1376 0.0779 2.3856
-6.1376 -0.1369 2.3856
-6.1286 -0.3515 2.3856
-6.1107 -0.5655 2.3856
-6.0840 -0.7785 2.3856
-6.0484 -0.9901 2.3856
-6.0040 -1.1999 2.3856
-5.9510 -1.4076 2.3856
-5.8896 -1.6126 2.3856
-5.8197 -1.8147 2.3856
-5.7417 -2.0135 2.3856
-5.6556 -2.2087 2.3856
-5.5618 -2.3998 2.3856
-5.4604 -2.5866 2.3856
-5.3516 -2.7687 2.3856
-5.2357 -2.9459 2.3856
-5.1130 -3.1179 2.3856
-4.9838 -3.2843 2.3856
-4.8483 -3.4450 2.3856
-4.7068 -3.5997 2.3856
-4.5597 -3.7482 2.3856
-4.4072 -3.8903 2.3856
-4.2497 -4.0258 2.3856
-4.0875 -4.1546 2.3856
-3.9209 -4.2765 2.3856
-3.7503 -4.3914 2.3856
-3.5760 -4.4991 2.3856
-3.3983 -4.5997 2.3856
-3.2175 -4.6929 2.3856
-3.0341 -4.7788 2.3856
-2.8482 -4.8574 2.3856
-2.6604 -4.9285 2.3856
-2.4707 -4.9922 2.3856
-2.2797 -5.0485 2.3856
-2.0876 -5.0974 2.3856
-1.8946 -5.1389 2.3856
-1.7011 -5.1731 2.3856
-1.5075 -5.2000 2.3856
-1.3138 -5.2198 2.3856
-1.1206 -5.2325 2.3856
-0.9279 -5.2379 2.3856
-0.7361 -5.2364 2.3856
-0.5454 -5.2283 2.3856
-0.3561 -5.2133 2.3856
-0.1684 -5.1918 2.3856
0.0176 -5.1637 2.3856
0.2015 -5.1293 2.3856
0.3831 -5.0887 2.3856
0.5624 -5.0420 2.3856
0.7390 -4.9894 2.3856
0.9129 -4.9310 2.3856
1.0838 -4.8669 2.3856
1.2516 -4.7974 2.3856
1.4161 -4.7225 2.3856
1.5772 -4.6425 2.3856
1.7347 -4.5575 2.3856
1.8886 -4.4676 2.3856
2.0387 -4.3730 2.3856
2.1848 -4.2740 2.3856
2.3270 -4.1705 2.3856
2.4650 -4.0629 2.3856
2.5987 -3.9512 2.3856
2.7282 -3.8356 2.3856
2.8533 -3.7164 2.3856
2.9739 -3.5935 2.3856
3.0900 -3.4673 2.3856
3.2015 -3.3378 2.3856
3.3083 -3.2052 2.3856
3.4104 -3.0697 2.3856
3.5077 -2.9315 2.3856
3.6002 -2.7906 2.3856
3.6878 -2.6472 2.3856
3.7705 -2.5015 2.3856
3.8482 -2.3537 2.3856
3.9210 -2.2038 2.3856
3.9888 -2.0520 2.3856
4.0515 -1.8985 2.3856
4.1092 -1.7434 2.3856
4.1617 -1.5869 2.3856
4.2092 -1.4291 2.3856
4.2515 -1.2700 2.3856
4.2887 -1.1100 2.3856
4.3208 -0.9491 2.3856
4.3477 -0.7874 2.3856
4.3694 -0.6251 2.3856
4.3860 -0.4624 2.3856
4.3973 -0.2993 2.3856
4.4035 -0.1360 2.3856
4.4046 0.0274 2.3856
4.4004 0.1907 2.3856
4.3911 0.3538 2.3856
4.3766 0.5165 2.3856
4.3569 0.6788 2.3856
4.3321 0.8405 2.3856
4.3021 1.0014 2.3856
4.2671 1.1614 2.3856
4.2269 1.3205 2.3856
4.1816 1.4783 2.3856
4.1313 1.6349 2.3856
4.0759 1.7901 2.3856
4.0154 1.9437 2.3856
3.9500 2.0955 2.3856
3.8796 2.2456 2.3856
3.8043 2.3936 2.3856
3.7240 2.5395 2.3856
3.6389 2.6831 2.3856
3.5490 2.8243 2.3856
3.4543 2.9629 2.3856
3.3549 3.0988 2.3856
3.2507 3.2319 2.3856
3.1420 3.3619 2.3856
3.0287 3.4888 2.3856
2.9109 3.6123 2.3856
2.7888 3.7324 2.3856
2.6622 3.8489 2.3856
2.5314 3.9615 2.3856
2.3964 4.0703 2.3856
2.2573 4.1750 2.3856
2.1142 4.2754 2.3856
0.8263 1.8362 1.0021
0.7599 1.8671 0.9981
0.6924 1.8956 0.9940
0.6240 1.9216 0.9898
0.5546 1.9452 0.9856
0.4844 1.9662 0.9813
0.4136 1.9847 0.9769
0.3420 2.0006 0.9725
3.4718 2.5041 2.3856
3.3874 2.6385 2.3856
3.2985 2.7705 2.3856
3.2051 2.8999 2.3856
3.1072 3.0265 2.3856
3.0050 3.1503 2.3856
2.8984 3.2711 2.3856
2.7875 3.3886 2.3856
2.6724 3.5029 2.3856
2.5533 3.6138 2.3856
2.4300 3.7210 2.3856
2.3029 3.8245 2.3856
2.1718 3.9241 2.3856
0.8568 1.6907 1.0034
0.7956 1.7228 0.9997
0.7332 1.7526 0.9959
0.6699 1.7802 0.9921
0.6056 1.8054 0.9882
0.5404 1.8284 0.9842
0.4744 1.8489 0.9802
0.4077 1.8671 0.9761
0.3404 1.8829 0.9719
0.2726 1.8961 0.9677
0.2044 1.9070 0.9635
0.1357 1.9154 0.9593
0.0669 1.9212 0.9550
-0.0022 1.9246 0.9507
-0.0713 1.9255 0.9464
-0.1404 1.9239 0.9420
-0.2094 1.9198 0.9377
-0.2782 1.9132 0.9334
-0.3467 1.9041 0.9291
-0.4149 1.8926 0.9248
-0.4826 1.8786 0.9205
-0.5497 1.8621 0.9162
-0.6162 1.8432 0.9120
-0.6820 1.8220 0.9078
-0.7470 1.7984 0.9036
-0.8110 1.7724 0.8995
-0.8741 1.7441 0.8955
-0.9362 1.7136 0.8915
-2.6801 4.5181 2.3856
-2.8529 4.4436 2.3856
-3.0235 4.3623 2.3856
-3.1915 4.2743 2.3856
-3.3567 4.1795 2.3856
-3.5187 4.0781 2.3856
-3.6773 3.9702 2.3856
-3.8321 3.8558 2.3856
-3.9829 3.7351 2.3856
-4.1293 3.6082 2.3856
-4.2711 3.4752 2.3856
-4.4079 3.3363 2.3856
-4.5395 3.1918 2.3856
-4.6656 3.0417 2.3856
-4.7860 2.8862 2.3856
-4.9003 2.7257 2.3856
-5.0084 2.5604 2.3856
-5.1099 2.3905 2.3856
-5.2047 2.2162 2.3856
-5.2925 2.0380 2.3856
-5.3731 1.8560 2.3856
-5.4463 1.6705 2.3856
-5.5120 1.4819 2.3856
-5.5701 1.2906 2.3856
-5.6202 1.0968 2.3856
-5.6624 0.9010 2.3856
-5.6966 0.7034 2.3856
-5.7226 0.5044 2.3856
-5.7404 0.3044 2.3856
-5.7499 0.1038 2.3856
-5.7511 -0.0970 2.3856
-5.7440 -0.2978 2.3856
-5.7287 -0.4981 2.3856
-5.7051 -0.6975 2.3856
-5.6733 -0.8957 2.3856
-5.6334 -1.0924 2.3856
-5.5854 -1.2870 2.3856
-5.5296 -1.4794 2.3856
-5.4659 -1.6691 2.3856
-5.3946 -1.8558 2.3856
-5.3159 -2.0392 2.3856
-5.2298 -2.2190 2.3856
-5.1367 -2.3948 2.3856
-5.0366 -2.5664 2.3856
-4.9299 -2.7335 2.3856
-4.8168 -2.8958 2.3856
-4.6975 -3.0530 2.3856
-4.5723 -3.2050 2.3856
-4.4415 -3.3515 2.3856
-4.3053 -3.4924 2.3856
-4.1640 -3.6273 2.3856
-4.0179 -3.7562 2.3856
-3.8673 -3.8788 2.3856
-3.7125 -3.9951 2.3856
-3.5538 -4.1049 2.3856
-3.3916 -4.2082 2.3856
-3.2261 -4.3047 2.3856
-3.0575 -4.3945 2.3856
-2.8864 -4.4774 2.3856
-2.7128 -4.5535 2.3856
-2.5372 -4.6227 2.3856
-2.3598 -4.6850 2.3856
-2.1809 -4.7403 2.3856
-2.0009 -4.7887 2.3856
-1.8200 -4.8302 2.3856
-1.6384 -4.8648 2.3856
-1.4565 -4.8926 2.3856
-1.2745 -4.9136 2.3856
-1.0927 -4.9280 2.3856
-0.9113 -4.9357 2.3856
-0.7306 -4.9367 2.3856
-0.5508 -4.9313 2.3856
-0.3721 -4.9196 2.3856
-0.1948 -4.9016 2.3856
-0.0191 -4.8774 2.3856
0.1548 -4.8472 2.3856
0.3268 -4.8111 2.3856
0.4966 -4.7692 2.3856
0.6640 -4.7216 2.3856
0.8289 -4.6685 2.3856
0.9911 -4.6099 2.3856
1.1505 -4.5462 2.3856
1.3069 -4.4773 2.3856
1.4601 -4.4034 2.3856
1.6101 -4.3248 2.3856
1.7567 -4.2414 2.3856
1.8997 -4.1536 2.3856
2.0391 -4.0614 2.3856
2.1748 -3.9649 2.3856
2.3066 -3.8644 2.3856
2.4344 -3.7600 2.3856
2.5583 -3.6518 2.3856
2.6780 -3.5400 2.3856
2.7935 -3.4248 2.3856
2.9048 -3.3062 2.3856
3.0117 -3.1845 2.3856
3.1142 -3.0597 2.3856
3.2122 -2.9321 2.3856
3.3058 -2.8018 2.3856
3.3947 -2.6689 2.3856
3.4791 -2.5336 2.3856
3.5588 -2.3960 2.3856
3.6338 -2.2562 2.3856
3.7040 -2.1145 2.3856
3.7695 -1.9709 2.3856
3.8302 -1.8256 2.3856
3.8861 -1.6788 2.3856
3.9371 -1.5305 2.3856
3.9833 -1.3809 2.3856
4.0245 -1.2301 2.3856
4.0609 -1.0783 2.3856
4.0924 -0.9256 2.3856
4.1189 -0.7722 2.3856
4.1405 -0.6182 2.3856
4.1571 -0.4636 2.3856
4.1688 -0.3087 2.3856
4.1755 -0.1536 2.3856
4.1773 0.0016 2.3856
4.1741 0.1567 2.3856
4.1660 0.3117 2.3856
4.1529 0.4664 2.3856
4.1349 0.6207 2.3856
4.1120 0.7743 2.3856
4.0841 0.9273 2.3856
4.0514 1.0794 2.3856
4.0138 1.2306 2.3856
3.9713 1.3806 2.3856
3.9239 1.5295 2.3856
3.8717 1.6769 2.3856
3.8148 1.8229 2.3856
3.7530 1.9672 2.3856
3.6865 2.1097 2.3856
3.6153 2.2503 2.3856
3.5395 2.3889 2.3856
3.4590 2.5252 2.3856
3.3739 2.6593 2.3856
3.2843 2.7909 2.3856
3.1901 2.9198 2.3856
3.0916 3.0460 2.3856
2.9886 3.1693 2.3856
2.8814 3.2896 2.3856
2.7698 3.4067 2.3856
2.6541 3.5204 2.3856
2.5343 3.6307 2.3856
2.4105 3.7374 2.3856
2.2827 3.8403 2.3856
2.1510 3.9392 2.3856
0.8473 1.6958 1.0028
0.7859 1.7276 0.9991
0.7234 1.7570 0.9954
0.6599 1.7843 0.9915
0.5955 1.8092 0.9876
0.5301 1.8317 0.9836
0.4641 1.8519 0.9795
0.3973 1.8697 0.9754
0.3299 1.8851 0.9713
0.2620 1.8980 0.9671
0.1937 1.9085 0.9629
0.1250 1.9164 0.9586
0.0561 1.9219 0.9543
-0.0129 1.9249 0.9500
-0.0820 1.9254 0.9457
-0.1511 1.9234 0.9414
-0.2201 1.9189 0.9370
-0.2889 1.9120 0.9327
-0.3574 1.9025 0.9284
-0.4255 1.8906 0.9241
-0.4931 1.8762 0.9198
-0.5601 1.8593 0.9156
-0.6265 1.8401 0.9113
-0.6922 1.8185 0.9071
-0.7570 1.7945 0.9030
-0.8209 1.7681 0.8989
-0.8839 1.7395 0.8948
-0.9457 1.7087 0.8908
-2.7072 4.5069 2.3856
-2.8797 4.4314 2.3856
-3.0499 4.3490 2.3856
-3.2175 4.2599 2.3856
-3.3822 4.1642 2.3856
-3.5437 4.0617 2.3856
-3.7017 3.9528 2.3856
-3.8559 3.8374 2.3856
-4.0060 3.7157 2.3856
-4.1517 3.5879 2.3856
-4.2927 3.4539 2.3856
-4.4288 3.3142 2.3856
-4.5595 3.1687 2.3856
-4.6848 3.0178 2.3856
-4.8042 2.8615 2.3856
-4.9176 2.7003 2.3856
-5.0246 2.5342 2.3856
-5.1251 2.3636 2.3856
-5.2188 2.1887 2.3856
-5.3055 2.0098 2.3856
-5.3850 1.8273 2.3856
-5.4571 1.6413 2.3856
-5.5216 1.4523 2.3856
-5.5784 1.2606 2.3856
-5.6273 1.0665 2.3856
-5.6683 0.8703 2.3856
-5.7012 0.6725 2.3856
-5.7259 0.4733 2.3856
-5.7424 0.2732 2.3856
-5.7506 0.0725 2.3856
-5.7506 -0.1284 2.3856
-5.7422 -0.3291 2.3856
-5.7256 -0.5292 2.3856
-5.7007 -0.7285 2.3856
-5.6676 -0.9265 2.3856
-5.6264 -1.1228 2.3856
-5.5772 -1.3172 2.3856
-5.5202 -1.5091 2.3856
-5.4553 -1.6984 2.3856
-5.3828 -1.8846 2.3856
-5.3029 -2.0675 2.3856
-5.2157 -2.2466 2.3856
-5.1215 -2.4218 2.3856
-5.0204 -2.5927 2.3856
-4.9127 -2.7591 2.3856
-4.7986 -2.9206 2.3856
-4.6784 -3.0771 2.3856
-4.5523 -3.2282 2.3856
-4.4206 -3.3739 2.3856
-4.2836 -3.5138 2.3856
-4.1415 -3.6478 2.3856
-3.9947 -3.7757 2.3856
-3.8434 -3.8974 2.3856
-3.6880 -4.0127 2.3856
-3.5288 -4.1215 2.3856
-3.3660 -4.2236 2.3856
-3.2000 -4.3191 2.3856
-3.0310 -4.4078 2.3856
-2.8595 -4.4897 2.3856
-2.6856 -4.5648 2.3856
-2.5097 -4.6329 2.3856
-2.3320 -4.6940 2.3856
-2.1530 -4.7483 2.3856
-1.9728 -4.7956 2.3856
-1.7917 -4.8360 2.3856
-1.6101 -4.8696 2.3856
-1.4281 -4.8963 2.3856
-1.2461 -4.9162 2.3856
-1.0644 -4.9298 2.3856
-0.8831 -4.9362 2.3856
-0.7024 -4.9361 2.3856
-0.5228 -4.9299 2.3856
-0.3444 -4.9172 2.3856
-0.1673 -4.8983 2.3856
0.0081 -4.8731 2.3856
0.1818 -4.8420 2.3856
0.3534 -4.8049 2.3856
0.5228 -4.7621 2.3856
0.6899 -4.7137 2.3856
0.8544 -4.6597 2.3856
1.0162 -4.6004 2.3856
1.1751 -4.5358 2.3856
1.3310 -4.4661 2.3856
1.4837 -4.3915 2.3856
1.6332 -4.3121 2.3856
1.7792 -4.2281 2.3856
1.9217 -4.1395 2.3856
2.0605 -4.0466 2.3856
2.1956 -3.9495 2.3856
2.3268 -3.8484 2.3856
2.4540 -3.7434 2.3856
2.5772 -3.6346 2.3856
2.6963 -3.5223 2.3856
2.8111 -3.4065 2.3856
2.9217 -3.2874 2.3856
3.0280 -3.1652 2.3856
3.1298 -3.0400 2.3856
3.2271 -2.9120 2.3856
3.3199 -2.7812 2.3856
3.4082 -2.6480 2.3856
3.4918 -2.5123 2.3856
3.5708 -2.3743 2.3856
3.6450 -2.2343 2.3856
3.7145 -2.0922 2.3856
3.7793 -1.9484 2.3856
3.8392 -1.8028 2.3856
3.8944 -1.6557 2.3856
3.9446 -1.5072 2.3856
3.9900 -1.3574 2.3856
4.0305 -1.2065 2.3856
4.0661 -1.0546 2.3856
4.0968 -0.9018 2.3856
4.1226 -0.7482 2.3856
4.1434 -0.5941 2.3856
4.1592 -0.4395 2.3856
4.1702 -0.2846 2.3856
4.1761 -0.1294 2.3856
4.1771 0.0258 2.3856
4.1732 0.1809 2.3856
4.1643 0.3359 2.3856
4.1504 0.4905 2.3856
4.1317 0.6446 2.3856
4.1080 0.7982 2.3856
4.0793 0.9511 2.3856
4.0458 1.1030 2.3856
4.0074 1.2540 2.3856
3.9642 1.4039 2.3856
3.9161 1.5525 2.3856
3.8632 1.6998 2.3856
3.8054 1.8455 2.3856
3.7430 1.9895 2.3856
3.6757 2.1317 2.3856
3.6038 2.2720 2.3856
3.5272 2.4103 2.3856
3.4460 2.5463 2.3856
3.3602 2.6800 2.3856
3.2699 2.8111 2.3856
3.1751 2.9397 2.3856
3.0758 3.0654 2.3856
2.9722 3.1883 2.3856
2.8643 3.3081 2.3856
2.7521 3.4246 2.3856
2.6357 3.5378 2.3856
2.5153 3.6476 2.3856
2.3908 3.7537 2.3856
2.2624 3.8559 2.3856
2.1302 3.9543 2.3856
0.8378 1.7009 1.0023
0.7762 1.7323 0.9986
0.7136 1.7614 0.9948
0.6499 1.7883 0.9909
0.5853 1.8128 0.9869
0.5199 1.8350 0.9829
0.4537 1.8549 0.9789
0.3868 1.8723 0.9748
0.3193 1.8873 0.9706
3.2928 2.3801 2.3856
3.2122 2.5076 2.3856
3.1272 2.6327 2.3856
3.0381 2.7553 2.3856
2.9446 2.8752 2.3856
2.8470 2.9924 2.3856
2.7454 3.1067 2.3856
2.6396 3.2178 2.3856
2.5299 3.3258 2.3856
2.4163 3.4305 2.3856
2.2989 3.5317 2.3856
2.1778 3.6293 2.3856
2.0530 3.7231 2.3856
0.8067 1.5982 0.9999
0.7488 1.6285 0.9964
0.6899 1.6567 0.9929
0.6300 1.6828 0.9892
0.5692 1.7067 0.9855
0.5076 1.7283 0.9817
0.4452 1.7478 0.9779
0.3822 1.7649 0.9741
0.3186 1.7798 0.9701
0.2545 1.7924 0.9662
0.1899 1.8026 0.9622
0.1251 1.8105 0.9582
0.0600 1.8161 0.9541
-0.0053 1.8193 0.9501
-0.0706 1.8201 0.9460
-0.1359 1.8186 0.9419
-0.2012 1.8147 0.9378
-0.2662 1.8085 0.9337
-0.3310 1.7999 0.9296
-0.3954 1.7890 0.9256
-0.4594 1.7757 0.9215
-0.5229 1.7602 0.9175
-0.5857 1.7423 0.9135
-0.6479 1.7222 0.9095
-0.7093 1.6999 0.9056
-0.7699 1.6754 0.9017
-0.8296 1.6486 0.8979
-0.8882 1.6198 0.8941
-0.9458 1.5888 0.8904
-2.6963 4.1859 2.3856
-2.8564 4.1083 2.3856
-3.0139 4.0244 2.3856
-3.1687 3.9343 2.3856
-3.3205 3.8379 2.3856
-3.4690 3.7355 2.3856
-3.6139 3.6270 2.3856
-3.7549 3.5127 2.3856
-3.8918 3.3926 2.3856
-4.0243 3.2669 2.3856
-4.1522 3.1357 2.3856
-4.2751 2.9992 2.3856
-4.3928 2.8576 2.3856
-4.5051 2.7111 2.3856
-4.6118 2.5599 2.3856
-4.7125 2.4042 2.3856
-4.8072 2.2443 2.3856
-4.8955 2.0804 2.3856
-4.9773 1.9128 2.3856
-5.0523 1.7417 2.3856
-5.1205 1.5675 2.3856
-5.1817 1.3904 2.3856
-5.2357 1.2107 2.3856
-5.2824 1.0288 2.3856
-5.3216 0.8450 2.3856
-5.3534 0.6596 2.3856
-5.3775 0.4729 2.3856
-5.3940 0.2853 2.3856
-5.4028 0.0971 2.3856
-5.4039 -0.0913 2.3856
-5.3973 -0.2796 2.3856
-5.3830 -0.4675 2.3856
-5.3610 -0.6546 2.3856
-5.3313 -0.8405 2.3856
-5.2941 -1.0250 2.3856
-5.2494 -1.2077 2.3856
-5.1974 -1.3883 2.3856
-5.1381 -1.5664 2.3856
-5.0716 -1.7418 2.3856
-4.9982 -1.9141 2.3856
-4.9180 -2.0830 2.3856
-4.8312 -2.2484 2.3856
-4.7379 -2.4098 2.3856
-4.6384 -2.5670 2.3856
-4.5328 -2.7198 2.3856
-4.4215 -2.8680 2.3856
-4.3046 -3.0113 2.3856
-4.1824 -3.1495 2.3856
-4.0551 -3.2824 2.3856
-3.9231 -3.4099 2.3856
-3.7865 -3.5317 2.3856
-3.6457 -3.6478 2.3856
-3.5008 -3.7580 2.3856
-3.3523 -3.8621 2.3856
-3.2004 -3.9601 2.3856
-3.0453 -4.0519 2.3856
-2.8873 -4.1374 2.3856
-2.7267 -4.2165 2.3856
-2.5639 -4.2892 2.3856
-2.3991 -4.3554 2.3856
-2.2325 -4.4152 2.3856
-2.0644 -4.4685 2.3856
-1.8951 -4.5152 2.3856
-1.7249 -4.5555 2.3856
-1.5541 -4.5894 2.3856
-1.3828 -4.6168 2.3856
-1.2113 -4.6378 2.3856
-1.0400 -4.6526 2.3856
-0.8689 -4.6609 2.3856
-0.6984 -4.6632 2.3856
-0.5287 -4.6594 2.3856
-0.3599 -4.6495 2.3856
-0.1924 -4.6336 2.3856
-0.0263 -4.6119 2.3856
0.1383 -4.5845 2.3856
0.3010 -4.5515 2.3856
0.4618 -4.5129 2.3856
0.6204 -4.4690 2.3856
0.7767 -4.4198 2.3856
0.9305 -4.3654 2.3856
1.0817 -4.3060 2.3856
1.2301 -4.2417 2.3856
1.3757 -4.1727 2.3856
1.5181 -4.0990 2.3856
1.6574 -4.0209 2.3856
1.7934 -3.9385 2.3856
1.9260 -3.8518 2.3856
2.0551 -3.7611 2.3856
2.1806 -3.6665 2.3856
2.3023 -3.5681 2.3856
2.4203 -3.4660 2.3856
2.5344 -3.3605 2.3856
2.6446 -3.2517 2.3856
2.7507 -3.1396 2.3856
2.8527 -3.0245 2.3856
2.9505 -2.9065 2.3856
3.0441 -2.7857 2.3856
3.1334 -2.6623 2.3856
3.2184 -2.5363 2.3856
3.2990 -2.4080 2.3856
3.3751 -2.2776 2.3856
3.4468 -2.1450 2.3856
3.5140 -2.0105 2.3856
3.5766 -1.8742 2.3856
3.6347 -1.7362 2.3856
3.6882 -1.5967 2.3856
3.7370 -1.4557 2.3856
3.7812 -1.3136 2.3856
3.8207 -1.1702 2.3856
3.8555 -1.0259 2.3856
3.8856 -0.8807 2.3856
3.9110 -0.7348 2.3856
3.9317 -0.5883 2.3856
3.9477 -0.4413 2.3856
3.9589 -0.2939 2.3856
3.9654 -0.1464 2.3856
3.9671 0.0013 2.3856
3.9641 0.1489 2.3856
3.9563 0.2964 2.3856
3.9438 0.4435 2.3856
3.9266 0.5903 2.3856
3.9047 0.7364 2.3856
3.8781 0.8819 2.3856
3.8468 1.0266 2.3856
3.8108 1.1704 2.3856
3.7701 1.3130 2.3856
3.7249 1.4545 2.3856
3.6750 1.5946 2.3856
3.6205 1.7333 2.3856
3.5615 1.8704 2.3856
3.4979 2.0058 2.3856
3.4299 2.1393 2.3856
3.3574 2.2708 2.3856
3.2805 2.4001 2.3856
3.1992 2.5273 2.3856
3.1136 2.6520 2.3856
3.0238 2.7742 2.3856
2.9297 2.8937 2.3856
2.8315 3.0104 2.3856
2.7291 3.1242 2.3856
2.6228 3.2349 2.3856
2.5125 3.3424 2.3856
2.3983 3.4465 2.3856
2.2803 3.5471 2.3856
2.1586 3.6441 2.3856
0.8547 1.5710 1.0028
0.7978 1.6031 0.9994
0.7397 1.6330 0.9959
0.6807 1.6609 0.9923
0.6206 1.6866 0.9886
0.5597 1.7102 0.9849
0.4979 1.7315 0.9812
0.4354 1.7506 0.9773
0.3723 1.7674 0.9735
0.3086 1.7819 0.9695
0.2444 1.7941 0.9656
0.1799 1.8040 0.9616
0.1150 1.8115 0.9575
0.0498 1.8167 0.9535
-0.0155 1.8196 0.9494
-0.0808 1.8200 0.9453
-0.1461 1.8181 0.9413
-0.2113 1.8139 0.9372
-0.2763 1.8073 0.9331
-0.3410 1.7983 0.9290
-0.4054 1.7870 0.9249
-0.4693 1.7734 0.9209
-0.5327 1.7575 0.9169
-0.5955 1.7393 0.9129
-0.6576 1.7189 0.9089
-0.7188 1.6962 0.9050
-0.7793 1.6713 0.9011
-0.8388 1.6443 0.8973
-0.8973 1.6151 0.8935
-0.9546 1.5838 0.8898
-2.7214 4.1742 2.3856
-2.8811 4.0957 2.3856
-3.0382 4.0108 2.3856
-3.1926 3.9197 2.3856
-3.3439 3.8224 2.3856
-3.4918 3.7190 2.3856
-3.6361 3.6096 2.3856
-3.7765 3.4944 2.3856
-3.9128 3.3734 2.3856
-4.0446 3.2468 2.3856
-4.1717 3.1148 2.3856
-4.2938 2.9775 2.3856
-4.4107 2.8351 2.3856
-4.5221 2.6878 2.3856
-4.6279 2.5359 2.3856
-4.7277 2.3796 2.3856
-4.8214 2.2190 2.3856
-4.9087 2.0545 2.3856
-4.9894 1.8863 2.3856
-5.0634 1.7147 2.3856
-5.1305 1.5400 2.3856
-5.1906 1.3625 2.3856
-5.2434 1.1825 2.3856
-5.2890 1.0003 2.3856
-5.3271 0.8162 2.3856
-5.3576 0.6306 2.3856
-5.3806 0.4437 2.3856
-5.3959 0.2560 2.3856
-5.4035 0.0678 2.3856
-5.4034 -0.1207 2.3856
-5.3956 -0.3089 2.3856
-5.3800 -0.4967 2.3856
-5.3568 -0.6837 2.3856
-5.3260 -0.8694 2.3856
-5.2876 -1.0536 2.3856
-5.2418 -1.2360 2.3856
-5.1886 -1.4162 2.3856
-5.1282 -1.5939 2.3856
-5.0607 -1.7688 2.3856
-4.9862 -1.9406 2.3856
-4.9049 -2.1090 2.3856
-4.8170 -2.2738 2.3856
-4.7228 -2.4345 2.3856
-4.6223 -2.5911 2.3856
-4.5158 -2.7432 2.3856
-4.4036 -2.8906 2.3856
-4.2859 -3.0332 2.3856
-4.1629 -3.1705 2.3856
-4.0349 -3.3026 2.3856
-3.9021 -3.4292 2.3856
-3.7648 -3.5502 2.3856
-3.6233 -3.6654 2.3856
-3.4779 -3.7746 2.3856
-3.3288 -3.8778 2.3856
-3.1764 -3.9749 2.3856
-3.0208 -4.0657 2.3856
-2.8624 -4.1501 2.3856
-2.7015 -4.2283 2.3856
-2.5383 -4.3000 2.3856
-2.3732 -4.3652 2.3856
-2.2063 -4.4239 2.3856
-2.0381 -4.4762 2.3856
-1.8686 -4.5219 2.3856
-1.6983 -4.5612 2.3856
-1.5274 -4.5941 2.3856
-1.3560 -4.6205 2.3856
-1.1846 -4.6405 2.3856
-1.0133 -4.6544 2.3856
-0.8423 -4.6616 2.3856
-0.6719 -4.6630 2.3856
-0.5023 -4.6580 2.3856
-0.3337 -4.6474 2.3856
-0.1664 -4.6306 2.3856
-0.0005 -4.6080 2.3856
0.1638 -4.5798 2.3856
0.3262 -4.5458 2.3856
0.4866 -4.5064 2.3856
0.6449 -4.4616 2.3856
0.8008 -4.4116 2.3856
0.9543 -4.3564 2.3856
1.1050 -4.2963 2.3856
1.2530 -4.2313 2.3856
1.3981 -4.1615 2.3856
1.5400 -4.0871 2.3856
1.6788 -4.0083 2.3856
1.8143 -3.9252 2.3856
1.9464 -3.8379 2.3856
2.0749 -3.7466 2.3856
2.1998 -3.6514 2.3856
2.3210 -3.5524 2.3856
2.4384 -3.4498 2.3856
2.5519 -3.3438 2.3856
2.6614 -3.2344 2.3856
2.7668 -3.1219 2.3856
2.8682 -3.0063 2.3856
2.9653 -2.8878 2.3856
3.0583 -2.7666 2.3856
3.1469 -2.6428 2.3856
3.2312 -2.5165 2.3856
3.3111 -2.3879 2.3856
3.3866 -2.2570 2.3856
3.4576 -2.1241 2.3856
3.5241 -1.9893 2.3856
3.5860 -1.8527 2.3856
3.6433 -1.7145 2.3856
3.6961 -1.5748 2.3856
3.7442 -1.4337 2.3856
3.7876 -1.2913 2.3856
3.8264 -1.1478 2.3856
3.8605 -1.0034 2.3856
3.8899 -0.8581 2.3856
3.9146 -0.7120 2.3856
3.9345 -0.5654 2.3856
3.9497 -0.4183 2.3856
3.9602 -0.2710 2.3856
3.9659 -0.1234 2.3856
3.9669 0.0243 2.3856
3.9632 0.1719 2.3856
3.9547 0.3193 2.3856
3.9415 0.4664 2.3856
3.9235 0.6131 2.3856
3.9009 0.7592 2.3856
3.8735 0.9045 2.3856
3.8415 1.0491 2.3856
3.8047 1.1927 2.3856
3.7634 1.3352 2.3856
3.7174 1.4764 2.3856
3.6668 1.6164 2.3856
3.6116 1.7548 2.3856
3.5519 1.8916 2.3856
3.4876 2.0267 2.3856
3.4189 2.1599 2.3856
3.3457 2.2911 2.3856
