ply
format ascii 1.0
element vertex 2178
property float32 x
property float32 y
property float32 z
end_header
-3.2618 -8.7524 2.3937
-2.9496 -8.8755 2.3937
-2.6328 -8.9873 2.3937
-2.3117 -9.0876 2.3937
-1.9869 -9.1764 2.3937
-1.6586 -9.2533 2.3937
-1.3274 -9.3183 2.3937
-0.9937 -9.3712 2.3937
-0.6578 -9.4120 2.3937
-0.3203 -9.4405 2.3937
0.0183 -9.4566 2.3937
0.3576 -9.4603 2.3937
0.6972 -9.4516 2.3937
1.0366 -9.4304 2.3937
1.3753 -9.3967 2.3937
1.7128 -9.3505 2.3937
2.0487 -9.2919 2.3937
2.3825 -9.2209 2.3937
2.7137 -9.1375 2.3937
3.0419 -9.0419 2.3937
3.3665 -8.9342 2.3937
3.6872 -8.8144 2.3937
4.0034 -8.6828 2.3937
4.3147 -8.5395 2.3937
4.6206 -8.3846 2.3937
4.9208 -8.2184 2.3937
5.2148 -8.0411 2.3937
5.5021 -7.8529 2.3937
5.7823 -7.6541 2.3937
6.0550 -7.4450 2.3937
6.3199 -7.2257 2.3937
6.4505 -6.8627 2.3479
6.4123 -6.3501 2.2491
6.6138 -6.0963 2.2413
6.8289 -5.8564 2.2414
7.0350 -5.6087 2.2414
7.2317 -5.3534 2.2415
7.4196 -5.0915 2.2417
7.5985 -4.8234 2.2423
7.7673 -4.5487 2.2428
7.9257 -4.2679 2.2433
8.0734 -3.9813 2.2438
8.2103 -3.6894 2.2442
8.3275 -3.3889 2.2424
8.4140 -3.0778 2.2353
8.4955 -2.7669 2.2301
8.5674 -2.4546 2.2255
8.6393 -2.1434 2.2239
8.7049 -1.8310 2.2237
8.7622 -1.5184 2.2243
8.8094 -1.2031 2.2254
8.8423 -0.8862 2.2258
8.8631 -0.5685 2.2261
8.8721 -0.2505 2.2264
8.8694 0.0675 2.2267
8.8550 0.3850 2.2270
8.8289 0.7015 2.2273
8.3027 0.9601 2.1039
8.2550 1.2558 2.1039
8.2112 1.5521 2.1077
8.1731 1.8505 2.1157
8.1347 2.1510 2.1267
8.4317 2.5562 2.2293
8.3265 2.8540 2.2296
8.2106 3.1475 2.2299
8.0842 3.4361 2.2303
7.9456 3.7191 2.2301
7.7974 3.9968 2.2301
7.6436 4.2706 2.2312
7.4898 4.5447 2.2353
7.3323 4.8173 2.2414
7.1573 5.0788 2.2450
6.9602 5.3243 2.2446
6.7545 5.5621 2.2442
6.5406 5.7920 2.2438
6.3187 6.0136 2.2433
6.0893 6.2266 2.2428
5.8527 6.4310 2.2423
5.6092 6.6263 2.2418
5.3594 6.8128 2.2414
5.1044 6.9910 2.2413
4.8435 7.1600 2.2413
4.6989 7.5141 2.3010
4.5983 7.9766 2.3937
4.3031 8.1256 2.3937
4.0032 8.2638 2.3937
3.6990 8.3911 2.3937
3.3907 8.5073 2.3937
3.0790 8.6124 2.3937
2.7641 8.7063 2.3937
2.4464 8.7888 2.3937
0.8542 3.5592 0.9616
0.7258 3.5877 0.9628
0.5965 3.6116 0.9640
0.4663 3.6308 0.9652
0.3355 3.6453 0.9663
0.2043 3.6551 0.9675
0.0728 3.6601 0.9685
-0.0588 3.6603 0.9696
-0.1904 3.6557 0.9706
-0.3217 3.6464 0.9715
-0.4525 3.6324 0.9725
-0.5828 3.6136 0.9733
-0.7124 3.5901 0.9742
-0.8409 3.5619 0.9750
-2.3758 8.6578 2.3937
-2.6834 8.5598 2.3937
-2.9873 8.4513 2.3937
-3.2869 8.3323 2.3937
-3.5820 8.2030 2.3937
-3.8723 8.0636 2.3937
-4.1574 7.9143 2.3937
-4.4369 7.7553 2.3937
-4.7106 7.5867 2.3937
-4.9781 7.4088 2.3937
-5.2392 7.2218 2.3937
-5.4936 7.0259 2.3937
-5.7409 6.8214 2.3937
-5.9808 6.6085 2.3937
-6.2132 6.3875 2.3937
-6.4378 6.1585 2.3937
-6.6542 5.9220 2.3937
-6.8623 5.6782 2.3937
-7.0618 5.4272 2.3937
-7.2524 5.1698 2.3937
-7.4340 4.9054 2.3937
-7.6064 4.6352 2.3937
-7.7693 4.3590 2.3937
-7.9225 4.0774 2.3937
-8.0660 3.7905 2.3937
-8.1994 3.4988 2.3937
-8.3226 3.2026 2.3937
-8.4355 2.9021 2.3937
-8.5380 2.5978 2.3937
-8.6299 2.2900 2.3937
-8.7111 1.9790 2.3937
-8.7814 1.6653 2.3937
-8.8408 1.3491 2.3937
-8.8893 1.0308 2.3937
-8.9266 0.7109 2.3937
-8.9528 0.3896 2.3937
-8.9678 0.0674 2.3937
-8.9715 -0.2554 2.3937
-8.9640 -0.5783 2.3937
-8.9452 -0.9011 2.3937
-8.9150 -1.2233 2.3937
-8.8736 -1.5445 2.3937
-8.8210 -1.8644 2.3937
-8.7570 -2.1825 2.3937
-8.6819 -2.4985 2.3937
-8.5957 -2.8120 2.3937
-8.4984 -3.1226 2.3937
-8.3901 -3.4299 2.3937
-8.2710 -3.7335 2.3937
-8.1411 -4.0330 2.3937
-8.0005 -4.3282 2.3937
-7.8494 -4.6185 2.3937
-7.6880 -4.9036 2.3937
-7.5163 -5.1832 2.3937
-7.3347 -5.4568 2.3937
-7.1432 -5.7242 2.3937
-6.9421 -5.9849 2.3937
-6.7316 -6.2386 2.3937
-6.5119 -6.4849 2.3937
-6.2833 -6.7236 2.3937
-6.0460 -6.9542 2.3937
-5.8003 -7.1766 2.3937
-5.5465 -7.3901 2.3937
-5.2848 -7.5949 2.3937
-5.0156 -7.7902 2.3937
-4.7393 -7.9761 2.3937
-4.4561 -8.1521 2.3937
-4.1663 -8.3180 2.3937
-3.8704 -8.4735 2.3937
-3.5687 -8.6184 2.3937
-3.2616 -8.7525 2.3937
-2.9494 -8.8756 2.3937
-2.6326 -8.9874 2.3937
-2.3115 -9.0877 2.3937
-1.9867 -9.1764 2.3937
-1.6584 -9.2533 2.3937
-1.3272 -9.3183 2.3937
-0.9934 -9.3713 2.3937
-0.6576 -9.4120 2.3937
-0.3201 -9.4405 2.3937
0.0180 -8.6344 2.3937
0.3278 -8.6370 2.3937
0.6378 -8.6283 2.3937
0.9474 -8.6082 2.3937
1.2565 -8.5768 2.3937
1.5644 -8.5339 2.3937
1.8708 -8.4798 2.3937
2.1752 -8.4144 2.3937
2.4772 -8.3377 2.3937
2.7764 -8.2499 2.3937
3.0723 -8.1511 2.3937
3.3647 -8.0414 2.3937
3.6529 -7.9209 2.3937
3.9366 -7.7897 2.3937
4.2155 -7.6481 2.3937
4.4890 -7.4962 2.3937
4.7569 -7.3342 2.3937
5.0187 -7.1623 2.3937
5.2740 -6.9807 2.3937
5.5226 -6.7898 2.3937
5.7639 -6.5897 2.3937
5.9978 -6.3808 2.3937
6.2237 -6.1633 2.3937
6.3236 -5.8288 2.3499
6.2862 -5.3909 2.2625
6.4209 -5.1193 2.2433
6.5945 -4.8819 2.2413
6.7650 -4.6427 2.2414
6.9266 -4.3973 2.2414
7.0790 -4.1460 2.2415
7.2225 -3.8898 2.2417
7.3571 -3.6286 2.2421
7.4819 -3.3627 2.2425
7.5966 -3.0922 2.2429
7.7011 -2.8178 2.2433
7.7953 -2.5396 2.2436
7.8790 -2.2582 2.2440
7.9521 -1.9739 2.2443
8.0146 -1.6872 2.2445
8.0600 -1.3976 2.2430
8.0898 -1.1059 2.2402
8.1069 -0.8137 2.2368
8.1176 -0.5219 2.2347
8.1194 -0.2304 2.2331
8.1121 0.0604 2.2319
8.0955 0.3505 2.2311
8.0697 0.6400 2.2307
8.0347 0.9279 2.2307
7.9906 1.2141 2.2311
7.9375 1.4988 2.2319
7.8753 1.7815 2.2331
7.8042 2.0621 2.2347
7.7244 2.3403 2.2367
7.6371 2.6159 2.2395
7.5430 2.8896 2.2432
7.4318 3.1570 2.2448
7.3056 3.4177 2.2448
7.1694 3.6728 2.2445
7.0242 3.9225 2.2443
6.8701 4.1665 2.2440
6.7074 4.4043 2.2437
6.5363 4.6358 2.2433
6.3571 4.8606 2.2430
6.1700 5.0784 2.2426
5.9754 5.2890 2.2422
5.7736 5.4921 2.2418
5.5649 5.6876 2.2414
5.3504 5.8762 2.2414
5.1295 6.0567 2.2413
4.9026 6.2291 2.2413
4.8111 6.5859 2.3090
4.7333 6.9934 2.3937
4.4736 7.1498 2.3937
4.2087 7.2967 2.3937
3.9391 7.4338 2.3937
3.6651 7.5606 2.3937
3.3870 7.6784 2.3937
3.1052 7.7856 2.3937
2.8201 7.8826 2.3937
2.5321 7.9693 2.3937
0.8978 3.2223 0.9587
0.7814 3.2526 0.9598
0.6641 3.2787 0.9610
0.5458 3.3005 0.9621
0.4269 3.3180 0.9631
0.3073 3.3312 0.9642
0.1874 3.3401 0.9652
0.0672 3.3446 0.9662
-0.0531 3.3448 0.9671
-0.1733 3.3407 0.9680
-0.2933 3.3321 0.9689
-0.4129 3.3193 0.9698
-0.5320 3.3021 0.9706
-0.6504 3.2807 0.9713
-0.7679 3.2549 0.9721
-0.8844 3.2250 0.9728
-2.4585 7.8465 2.3937
-2.7372 7.7474 2.3937
-3.0121 7.6388 2.3937
-3.2829 7.5206 2.3937
-3.5492 7.3932 2.3937
-3.8108 7.2567 2.3937
-4.0673 7.1111 2.3937
-4.3185 6.9568 2.3937
-4.5640 6.7939 2.3937
-4.8036 6.6226 2.3937
-5.0370 6.4432 2.3937
-5.2640 6.2558 2.3937
-5.4842 6.0606 2.3937
-5.6975 5.8580 2.3937
-5.9036 5.6481 2.3937
-6.1022 5.4312 2.3937
-6.2931 5.2076 2.3937
-6.4761 4.9774 2.3937
-6.6510 4.7411 2.3937
-6.8176 4.4988 2.3937
-6.9756 4.2509 2.3937
-7.1250 3.9974 2.3937
-7.2655 3.7391 2.3937
-7.3969 3.4760 2.3937
-7.5191 3.2083 2.3937
-7.6320 2.9365 2.3937
-7.7354 2.6609 2.3937
-7.8291 2.3817 2.3937
-7.9131 2.0993 2.3937
-7.9872 1.8140 2.3937
-8.0514 1.5262 2.3937
-8.1055 1.2362 2.3937
-8.1496 0.9443 2.3937
-8.1834 0.6509 2.3937
-8.2069 0.3563 2.3937
-8.2202 0.0609 2.3937
-8.2231 -0.2350 2.3937
-8.2157 -0.5310 2.3937
-8.1979 -0.8269 2.3937
-8.1697 -1.1221 2.3937
-8.1312 -1.4164 2.3937
-8.0823 -1.7094 2.3937
-8.0231 -2.0008 2.3937
-7.9536 -2.2902 2.3937
-7.8740 -2.5772 2.3937
-7.7842 -2.8616 2.3937
-7.6843 -3.1428 2.3937
-7.5745 -3.4206 2.3937
-7.4548 -3.6947 2.3937
-7.3253 -3.9646 2.3937
-7.1863 -4.2301 2.3937
-7.0378 -4.4907 2.3937
-6.8799 -4.7462 2.3937
-6.7130 -4.9962 2.3937
-6.5370 -5.2405 2.3937
-6.3523 -5.4785 2.3937
-6.1590 -5.7101 2.3937
-5.9573 -5.9349 2.3937
-5.7475 -6.1527 2.3937
-5.5298 -6.3631 2.3937
-5.3044 -6.5659 2.3937
-5.0717 -6.7604 2.3937
-4.8319 -6.9468 2.3937
-4.5852 -7.1247 2.3937
-4.3320 -7.2939 2.3937
-4.0726 -7.4540 2.3937
-3.8073 -7.6049 2.3937
-3.5364 -7.7462 2.3937
-3.2603 -7.8779 2.3937
-2.9792 -7.9996 2.3937
-2.6937 -8.1112 2.3937
-2.4039 -8.2124 2.3937
-2.1104 -8.3033 2.3937
-1.8134 -8.3834 2.3937
-1.5134 -8.4529 2.3937
-1.2107 -8.5114 2.3937
-0.9059 -8.5589 2.3937
-0.5991 -8.5953 2.3937
-0.2909 -8.6205 2.3937
0.0182 -8.6344 2.3937
0.3280 -8.6370 2.3937
0.6380 -8.6283 2.3937
0.9477 -8.6082 2.3937
1.2567 -8.5767 2.3937
1.5646 -8.5339 2.3937
1.8710 -8.4798 2.3937
2.1754 -8.4143 2.3937
2.4774 -8.3377 2.3937
2.7766 -8.2499 2.3937
3.0725 -8.1510 2.3937
3.3648 -8.0413 2.3937
3.6531 -7.9208 2.3937
3.9368 -7.7896 2.3937
4.2157 -7.6480 2.3937
4.4892 -7.4961 2.3937
4.7571 -7.3340 2.3937
5.0189 -7.1621 2.3937
5.2742 -6.9806 2.3937
5.5227 -6.7897 2.3937
5.7641 -6.5896 2.3937
5.9979 -6.3806 2.3937
6.2239 -6.1631 2.3937
6.3235 -5.8285 2.3498
6.2862 -5.3907 2.2625
6.4210 -5.1190 2.2433
6.5946 -4.8817 2.2413
6.7651 -4.6426 2.2414
6.9267 -4.3971 2.2414
7.0791 -4.1459 2.2415
7.2226 -3.8896 2.2417
7.3572 -3.6285 2.2421
7.4820 -3.3625 2.2425
7.5967 -3.0921 2.2429
7.7012 -2.8176 2.2433
7.7954 -2.5394 2.2436
7.8791 -2.2580 2.2440
7.9522 -1.9737 2.2443
8.0146 -1.6870 2.2445
8.0600 -1.3973 2.2430
8.0898 -1.1055 2.2402
8.1069 -0.8135 2.2368
8.1176 -0.5216 2.2347
8.1194 -0.2302 2.2331
8.1121 0.0606 2.2319
8.0955 0.3509 2.2311
8.0697 0.6399 2.2307
8.0347 0.9277 2.2307
7.9906 1.2142 2.2311
7.9375 1.4990 2.2319
7.8753 1.7818 2.2331
7.8042 2.0623 2.2347
7.7244 2.3403 2.2367
7.6370 2.6161 2.2395
7.5429 2.8900 2.2432
7.4317 3.1571 2.2448
7.3055 3.4178 2.2448
7.1693 3.6730 2.2445
7.0241 3.9227 2.2443
6.8700 4.1666 2.2440
6.7073 4.4045 2.2437
6.5362 4.6359 2.2433
6.3570 4.8607 2.2430
6.1699 5.0785 2.2426
5.9753 5.2891 2.2422
5.7734 5.4922 2.2418
5.5648 5.6878 2.2414
5.3503 5.8763 2.2414
5.1294 6.0568 2.2413
4.9025 6.2292 2.2413
4.8110 6.5862 2.3091
4.7331 6.9935 2.3937
4.4734 7.1498 2.3937
4.2085 7.2968 2.3937
3.9389 7.4339 2.3937
3.6649 7.5609 2.3937
3.3868 7.6784 2.3937
3.1050 7.7856 2.3937
2.8200 7.8826 2.3937
2.5320 7.9693 2.3937
0.8977 3.2223 0.9587
0.7814 3.2526 0.9598
0.6640 3.2787 0.9610
0.5457 3.3005 0.9621
0.4268 3.3180 0.9631
0.3073 3.3312 0.9642
0.1873 3.3401 0.9652
0.0671 3.3446 0.9662
-0.0532 3.3448 0.9671
-0.1734 3.3407 0.9680
-0.2934 3.3321 0.9689
-0.4130 3.3193 0.9698
-0.5321 3.3021 0.9706
-0.6504 3.2807 0.9713
-0.7680 3.2549 0.9721
-0.8845 3.2249 0.9728
-2.4587 7.8464 2.3937
-2.7374 7.7474 2.3937
-3.0123 7.6387 2.3937
-3.2830 7.5205 2.3937
-3.5494 7.3931 2.3937
-3.8109 7.2566 2.3937
-4.0674 7.1110 2.3937
-4.3186 6.9567 2.3937
-4.5641 6.7938 2.3937
-4.8038 6.6225 2.3937
-5.0372 6.4431 2.3937
-5.2642 6.2557 2.3937
-5.4844 6.0605 2.3937
-5.6977 5.8578 2.3937
-5.9037 5.6480 2.3937
-6.1023 5.4311 2.3937
-6.2932 5.2074 2.3937
-6.4762 4.9773 2.3937
-6.6511 4.7409 2.3937
-6.8177 4.4987 2.3937
-6.9757 4.2507 2.3937
-7.1251 3.9975 2.3937
-7.2656 3.7388 2.3937
-7.3970 3.4758 2.3937
-7.5192 3.2081 2.3937
-7.6321 2.9363 2.3937
-7.7354 2.6607 2.3937
-7.8292 2.3815 2.3937
-7.9131 2.0991 2.3937
-7.9873 1.8138 2.3937
-8.0514 1.5260 2.3937
-8.1056 1.2360 2.3937
-8.1496 0.9442 2.3937
-8.1834 0.6507 2.3937
-8.2069 0.3562 2.3937
-8.2202 0.0607 2.3937
-8.2231 -0.2352 2.3937
-8.2157 -0.5312 2.3937
-8.1979 -0.8271 2.3937
-8.1697 -1.1223 2.3937
-8.1311 -1.4166 2.3937
-8.0822 -1.7096 2.3937
-8.0230 -2.0010 2.3937
-7.9536 -2.2904 2.3937
-7.8739 -2.5774 2.3937
-7.7841 -2.8617 2.3937
-7.6842 -3.1430 2.3937
-7.5744 -3.4208 2.3937
-7.4547 -3.6948 2.3937
-7.3252 -3.9648 2.3937
-7.1862 -4.2302 2.3937
-7.0377 -4.4909 2.3937
-6.8798 -4.7464 2.3937
-6.7128 -4.9964 2.3937
-6.5369 -5.2406 2.3937
-6.3521 -5.4787 2.3937
-6.1588 -5.7102 2.3937
-5.9571 -5.9351 2.3937
-5.7473 -6.1531 2.3937
-5.5296 -6.3633 2.3937
-5.3043 -6.5659 2.3937
-5.0715 -6.7605 2.3937
-4.8317 -6.9469 2.3937
-4.5850 -7.1249 2.3937
-4.3318 -7.2940 2.3937
-4.0724 -7.4541 2.3937
-3.8071 -7.6050 2.3937
-3.5362 -7.7463 2.3937
-3.2601 -7.8779 2.3937
-2.9791 -7.9996 2.3937
-2.6935 -8.1112 2.3937
-2.4037 -8.2125 2.3937
-2.1102 -8.3033 2.3937
-1.8132 -8.3835 2.3937
-1.5132 -8.4529 2.3937
-1.2105 -8.5114 2.3937
-0.9056 -8.5589 2.3937
-0.5989 -8.5953 2.3937
-0.2907 -8.6205 2.3937
0.0180 -7.9357 2.3937
0.3027 -7.9375 2.3937
0.5874 -7.9289 2.3937
0.8719 -7.9099 2.3937
1.1558 -7.8804 2.3937
1.4385 -7.8406 2.3937
1.7199 -7.7903 2.3937
1.9994 -7.7297 2.3937
2.2766 -7.6589 2.3937
2.5513 -7.5778 2.3937
2.8230 -7.4867 2.3937
3.0912 -7.3855 2.3937
3.3557 -7.2745 2.3937
3.6161 -7.1537 2.3937
3.8720 -7.0233 2.3937
4.1230 -6.8836 2.3937
4.3688 -6.7346 2.3937
4.6090 -6.5765 2.3937
4.8433 -6.4097 2.3937
5.0713 -6.2342 2.3937
5.2927 -6.0504 2.3937
5.5073 -5.8585 2.3937
5.7146 -5.6587 2.3937
5.9145 -5.4515 2.3937
6.1065 -5.2368 2.3937
6.2137 -4.9540 2.3645
6.1817 -4.5764 2.2884
6.2109 -4.2615 2.2413
6.3593 -4.0373 2.2413
6.4992 -3.8067 2.2414
6.6304 -3.5711 2.2414
6.7528 -3.3309 2.2414
6.8663 -3.0864 2.2414
6.9706 -2.8379 2.2415
7.0666 -2.5861 2.2418
7.1531 -2.3309 2.2421
7.2301 -2.0728 2.2424
7.2973 -1.8121 2.2427
7.3548 -1.5490 2.2429
7.4025 -1.2842 2.2432
7.4403 -1.0178 2.2434
7.4681 -0.7504 2.2435
7.4860 -0.4822 2.2437
7.4939 -0.2136 2.2438
7.4918 0.0549 2.2439
7.4798 0.3229 2.2440
7.4579 0.5902 2.2440
7.4261 0.8563 2.2441
7.3846 1.1208 2.2441
7.3333 1.3835 2.2440
7.2724 1.6438 2.2440
7.2020 1.9016 2.2439
7.1222 2.1563 2.2438
7.0332 2.4077 2.2437
6.9350 2.6554 2.2435
6.8279 2.8991 2.2434
6.7121 3.1384 2.2432
6.5877 3.3731 2.2430
6.4549 3.6029 2.2427
6.3140 3.8274 2.2425
6.1651 4.0464 2.2422
6.0085 4.2595 2.2419
5.8444 4.4665 2.2415
5.6735 4.6677 2.2414
5.4960 4.8625 2.2414
5.3118 5.0506 2.2413
5.1212 5.2318 2.2413
4.9603 5.4453 2.2577
4.9051 5.7889 2.3284
4.8202 6.1214 2.3937
4.5920 6.2830 2.3937
4.3583 6.4363 2.3937
4.1196 6.5808 2.3937
3.8762 6.7166 2.3937
3.6283 6.8435 2.3937
3.3763 6.9614 2.3937
3.1205 7.0700 2.3937
2.8613 7.1694 2.3937
2.5990 7.2593 2.3937
0.9323 2.9320 0.9562
0.8264 2.9637 0.9573
0.7194 2.9915 0.9583
0.6114 3.0155 0.9594
0.5026 3.0355 0.9604
0.3932 3.0516 0.9614
0.2833 3.0638 0.9623
0.1729 3.0719 0.9633
0.0624 3.0761 0.9642
-0.0483 3.0762 0.9650
-0.1588 3.0724 0.9659
-0.2692 3.0646 0.9667
-0.3792 3.0527 0.9675
-0.4888 3.0369 0.9682
-0.5977 3.0172 0.9689
-0.7058 2.9935 0.9696
-0.8129 2.9660 0.9702
-2.2660 7.2355 2.3937
-2.5232 7.1446 2.3937
-2.7768 7.0447 2.3937
-3.0267 6.9360 2.3937
-3.2725 6.8188 2.3937
-3.5140 6.6931 2.3937
-3.7507 6.5591 2.3937
-3.9826 6.4170 2.3937
-4.2092 6.2669 2.3937
-4.4304 6.1090 2.3937
-4.6459 5.9436 2.3937
-4.8554 5.7708 2.3937
-5.0587 5.5909 2.3937
-5.2556 5.4040 2.3937
-5.4458 5.2104 2.3937
-5.6291 5.0104 2.3937
-5.8053 4.8040 2.3937
-5.9742 4.5917 2.3937
-6.1356 4.3736 2.3937
-6.2892 4.1501 2.3937
-6.4350 3.9213 2.3937
-6.5728 3.6875 2.3937
-6.7023 3.4490 2.3937
-6.8235 3.2061 2.3937
-6.9361 2.9591 2.3937
-7.0401 2.7084 2.3937
-7.1353 2.4540 2.3937
-7.2216 2.1963 2.3937
-7.2989 1.9357 2.3937
-7.3670 1.6725 2.3937
-7.4260 1.4069 2.3937
-7.4756 1.1393 2.3937
-7.5159 0.8701 2.3937
-7.5467 0.5994 2.3937
-7.5681 0.3277 2.3937
-7.5800 0.0552 2.3937
-7.5823 -0.2177 2.3937
-7.5750 -0.4907 2.3937
-7.5581 -0.7635 2.3937
-7.5317 -1.0357 2.3937
-7.4957 -1.3070 2.3937
-7.4501 -1.5770 2.3937
-7.3951 -1.8456 2.3937
-7.3305 -2.1122 2.3937
-7.2565 -2.3766 2.3937
-7.1732 -2.6385 2.3937
-7.0807 -2.8975 2.3937
-6.9789 -3.1533 2.3937
-6.8680 -3.4056 2.3937
-6.7482 -3.6540 2.3937
-6.6196 -3.8983 2.3937
-6.4822 -4.1381 2.3937
-6.3362 -4.3731 2.3937
-6.1819 -4.6031 2.3937
-6.0193 -4.8276 2.3937
-5.8486 -5.0464 2.3937
-5.6701 -5.2591 2.3937
-5.4839 -5.4660 2.3937
-5.2902 -5.6657 2.3937
-5.0893 -5.8588 2.3937
-4.8814 -6.0448 2.3937
-4.6667 -6.2235 2.3937
-4.4456 -6.3945 2.3937
-4.2182 -6.5576 2.3937
-3.9848 -6.7127 2.3937
-3.7457 -6.8594 2.3937
-3.5013 -6.9975 2.3937
-3.2518 -7.1269 2.3937
-2.9975 -7.2473 2.3937
-2.7387 -7.3586 2.3937
-2.4758 -7.4606 2.3937
-2.2092 -7.5531 2.3937
-1.9391 -7.6359 2.3937
-1.6659 -7.7089 2.3937
-1.3899 -7.7721 2.3937
-1.1116 -7.8252 2.3937
-0.8312 -7.8682 2.3937
-0.5492 -7.9010 2.3937
-0.2659 -7.9235 2.3937
0.0182 -7.9357 2.3937
0.3028 -7.9375 2.3937
0.5876 -7.9289 2.3937
0.8721 -7.9099 2.3937
1.1559 -7.8804 2.3937
1.4387 -7.8405 2.3937
1.7200 -7.7903 2.3937
1.9995 -7.7297 2.3937
2.2768 -7.6588 2.3937
2.5515 -7.5777 2.3937
2.8231 -7.4865 2.3937
3.0914 -7.3854 2.3937
3.3559 -7.2744 2.3937
3.6163 -7.1536 2.3937
3.8722 -7.0232 2.3937
4.1232 -6.8835 2.3937
4.3689 -6.7345 2.3937
4.6091 -6.5764 2.3937
4.8434 -6.4096 2.3937
5.0714 -6.2341 2.3937
5.2929 -6.0503 2.3937
5.5074 -5.8584 2.3937
5.7148 -5.6586 2.3937
5.9146 -5.4512 2.3937
6.1067 -5.2367 2.3937
6.2137 -4.9537 2.3644
6.1816 -4.5760 2.2883
6.2111 -4.2620 2.2413
6.3594 -4.0371 2.2413
6.4993 -3.8066 2.2414
6.6305 -3.5710 2.2414
6.7529 -3.3307 2.2414
6.8664 -3.0862 2.2414
6.9707 -2.8377 2.2415
7.0666 -2.5859 2.2418
7.1532 -2.3308 2.2421
7.2301 -2.0726 2.2424
7.2974 -1.8119 2.2427
7.3549 -1.5489 2.2429
7.4025 -1.2840 2.2432
7.4403 -1.0176 2.2434
7.4681 -0.7502 2.2435
7.4860 -0.4820 2.2437
7.4939 -0.2134 2.2438
7.4918 0.0550 2.2439
7.4798 0.3231 2.2440
7.4579 0.5904 2.2440
7.4261 0.8565 2.2441
7.3845 1.1210 2.2441
7.3333 1.3837 2.2440
7.2723 1.6440 2.2440
7.2019 1.9017 2.2439
7.1221 2.1564 2.2438
7.0331 2.4078 2.2437
6.9350 2.6555 2.2435
6.8279 2.8992 2.2434
6.7120 3.1386 2.2432
6.5876 3.3733 2.2430
6.4548 3.6030 2.2427
6.3139 3.8276 2.2425
6.1650 4.0465 2.2422
6.0083 4.2596 2.2419
5.8442 4.4667 2.2415
5.6734 4.6678 2.2414
5.4959 4.8626 2.2414
5.3117 5.0507 2.2413
5.1210 5.2319 2.2413
4.9603 5.4456 2.2577
4.9050 5.7892 2.3284
4.8201 6.1215 2.3937
4.5918 6.2831 2.3937
4.3582 6.4364 2.3937
4.1195 6.5809 2.3937
3.8760 6.7167 2.3937
3.6281 6.8436 2.3937
3.3761 6.9614 2.3937
3.1203 7.0701 2.3937
2.8611 7.1694 2.3937
2.5988 7.2594 2.3937
0.9322 2.9321 0.9562
0.8263 2.9637 0.9573
0.7193 2.9916 0.9583
0.6113 3.0155 0.9594
0.5026 3.0356 0.9604
0.3931 3.0516 0.9614
0.2832 3.0638 0.9623
0.1729 3.0719 0.9633
0.0623 3.0761 0.9642
-0.0483 3.0762 0.9650
-0.1589 3.0724 0.9659
-0.2693 3.0645 0.9667
-0.3793 3.0527 0.9675
-0.4888 3.0369 0.9682
-0.5977 3.0172 0.9689
-0.7058 2.9935 0.9696
-0.8130 2.9659 0.9702
-2.2662 7.2355 2.3937
-2.5233 7.1445 2.3937
-2.7770 7.0446 2.3937
-3.0269 6.9360 2.3937
-3.2727 6.8187 2.3937
-3.5141 6.6930 2.3937
-3.7509 6.5590 2.3937
-3.9827 6.4169 2.3937
-4.2094 6.2668 2.3937
-4.4306 6.1089 2.3937
-4.6460 5.9435 2.3937
-4.8556 5.7707 2.3937
-5.0589 5.5908 2.3937
-5.2557 5.4039 2.3937
-5.4459 5.2103 2.3937
-5.6292 5.0103 2.3937
-5.8054 4.8039 2.3937
-5.9743 4.5916 2.3937
-6.1357 4.3735 2.3937
-6.2893 4.1499 2.3937
-6.4351 3.9211 2.3937
-6.5729 3.6873 2.3937
-6.7024 3.4489 2.3937
-6.8236 3.2060 2.3937
-6.9362 2.9590 2.3937
-7.0402 2.7081 2.3937
-7.1354 2.4538 2.3937
-7.2217 2.1961 2.3937
-7.2989 1.9355 2.3937
-7.3671 1.6723 2.3937
-7.4260 1.4067 2.3937
-7.4756 1.1392 2.3937
-7.5159 0.8699 2.3937
-7.5468 0.5992 2.3937
-7.5681 0.3275 2.3937
-7.5800 0.0550 2.3937
-7.5823 -0.2179 2.3937
-7.5750 -0.4909 2.3937
-7.5581 -0.7637 2.3937
-7.5317 -1.0358 2.3937
-7.4957 -1.3072 2.3937
-7.4501 -1.5772 2.3937
-7.3950 -1.8457 2.3937
-7.3305 -2.1124 2.3937
-7.2565 -2.3768 2.3937
-7.1732 -2.6387 2.3937
-7.0806 -2.8977 2.3937
-6.9788 -3.1535 2.3937
-6.8680 -3.4058 2.3937
-6.7481 -3.6542 2.3937
-6.6195 -3.8985 2.3937
-6.4821 -4.1383 2.3937
-6.3361 -4.3733 2.3937
-6.1818 -4.6032 2.3937
-6.0192 -4.8277 2.3937
-5.8485 -5.0464 2.3937
-5.6700 -5.2594 2.3937
-5.4837 -5.4660 2.3937
-5.2901 -5.6658 2.3937
-5.0892 -5.8589 2.3937
-4.8813 -6.0450 2.3937
-4.6666 -6.2236 2.3937
-4.4454 -6.3946 2.3937
-4.2180 -6.5578 2.3937
-3.9846 -6.7128 2.3937
-3.7456 -6.8595 2.3937
-3.5011 -6.9976 2.3937
-3.2516 -7.1270 2.3937
-2.9973 -7.2474 2.3937
-2.7386 -7.3587 2.3937
-2.4757 -7.4606 2.3937
-2.2090 -7.5531 2.3937
-1.9389 -7.6359 2.3937
-1.6657 -7.7090 2.3937
-1.3897 -7.7721 2.3937
-1.1114 -7.8253 2.3937
-0.8310 -7.8683 2.3937
-0.5490 -7.9010 2.3937
-0.2658 -7.9236 2.3937
0.0180 -7.3342 2.3937
0.2810 -7.3354 2.3937
0.5441 -7.3269 2.3937
0.8069 -7.3089 2.3937
1.0691 -7.2812 2.3937
1.3302 -7.2440 2.3937
1.5900 -7.1971 2.3937
1.8481 -7.1408 2.3937
2.1041 -7.0750 2.3937
2.3577 -6.9997 2.3937
2.6085 -6.9153 2.3937
2.8561 -6.8215 2.3937
3.1003 -6.7187 2.3937
3.3406 -6.6069 2.3937
3.5767 -6.4863 2.3937
3.8084 -6.3570 2.3937
4.0352 -6.2192 2.3937
4.2568 -6.0731 2.3937
4.4730 -5.9189 2.3937
4.6835 -5.7568 2.3937
4.8878 -5.5870 2.3937
5.0858 -5.4097 2.3937
5.2772 -5.2259 2.3937
5.4616 -5.0337 2.3937
5.6389 -4.8356 2.3937
5.8087 -4.6308 2.3937
5.9709 -4.4202 2.3937
6.1163 -4.1976 2.3902
6.0880 -3.8651 2.3237
6.0607 -3.5500 2.2635
6.1223 -3.2977 2.2413
6.2354 -3.0760 2.2413
6.3402 -2.8503 2.2413
6.4366 -2.6208 2.2414
6.5244 -2.3882 2.2414
6.6036 -2.1524 2.2414
6.6740 -1.9139 2.2414
6.7355 -1.6731 2.2414
6.7884 -1.4304 2.2416
6.8326 -1.1860 2.2418
6.8677 -0.9402 2.2420
6.8937 -0.6934 2.2421
6.9104 -0.4459 2.2423
6.9180 -0.1981 2.2424
6.9164 0.0497 2.2425
6.9057 0.2972 2.2425
6.8858 0.5439 2.2426
6.8569 0.7896 2.2426
6.8189 1.0339 2.2426
6.7719 1.2764 2.2426
6.7161 1.5169 2.2426
6.6516 1.7550 2.2425
6.5784 1.9903 2.2424
6.4966 2.2226 2.2423
6.4064 2.4516 2.2421
6.3080 2.6768 2.2420
6.2015 2.8982 2.2418
6.0871 3.1152 2.2416
5.9650 3.3278 2.2414
5.8358 3.5359 2.2414
5.6993 3.7389 2.2414
5.5557 3.9367 2.2414
5.4052 4.1290 2.2413
5.2479 4.3155 2.2413
5.0893 4.5006 2.2435
5.0341 4.7844 2.2959
4.9851 5.0904 2.3580
4.8666 5.3400 2.3937
4.6667 5.5051 2.3937
4.4612 5.6628 2.3937
4.2503 5.8128 2.3937
4.0345 5.9551 2.3937
3.8139 6.0894 2.3937
3.5889 6.2155 2.3937
3.3597 6.3335 2.3937
3.1267 6.4430 2.3937
2.8901 6.5441 2.3937
2.6504 6.6366 2.3937
2.4077 6.7204 2.3937
0.8628 2.7114 0.9551
0.7648 2.7406 0.9561
0.6658 2.7664 0.9570
0.5660 2.7885 0.9580
0.4654 2.8070 0.9589
0.3642 2.8219 0.9598
0.2625 2.8331 0.9607
0.1605 2.8406 0.9616
0.0582 2.8444 0.9624
-0.0441 2.8446 0.9632
-0.1464 2.8410 0.9640
-0.2485 2.8337 0.9648
-0.3502 2.8228 0.9655
-0.4515 2.8082 0.9662
-0.5522 2.7899 0.9668
-0.6522 2.7680 0.9675
-0.7513 2.7426 0.9680
-0.8494 2.7135 0.9686
-2.3376 6.6219 2.3937
-2.5729 6.5296 2.3937
-2.8047 6.4292 2.3937
-3.0326 6.3207 2.3937
-3.2566 6.2044 2.3937
-3.4762 6.0803 2.3937
-3.6913 5.9487 2.3937
-3.9015 5.8097 2.3937
-4.1067 5.6635 2.3937
-4.3066 5.5103 2.3937
-4.5010 5.3502 2.3937
-4.6896 5.1834 2.3937
-4.8722 5.0102 2.3937
-5.0486 4.8307 2.3937
-5.2186 4.6452 2.3937
-5.3821 4.4539 2.3937
-5.5387 4.2571 2.3937
-5.6883 4.0548 2.3937
-5.8309 3.8475 2.3937
-5.9660 3.6353 2.3937
-6.0937 3.4185 2.3937
-6.2138 3.1973 2.3937
-6.3261 2.9721 2.3937
-6.4304 2.7430 2.3937
-6.5267 2.5104 2.3937
-6.6148 2.2744 2.3937
-6.6947 2.0355 2.3937
-6.7662 1.7938 2.3937
-6.8291 1.5497 2.3937
-6.8836 1.3033 2.3937
-6.9294 1.0555 2.3937
-6.9665 0.8057 2.3937
-6.9948 0.5547 2.3937
-7.0143 0.3027 2.3937
-7.0250 0.0502 2.3937
-7.0268 -0.2028 2.3937
-7.0197 -0.4558 2.3937
-7.0037 -0.7086 2.3937
-6.9789 -0.9608 2.3937
-6.9451 -1.2122 2.3937
-6.9025 -1.4624 2.3937
-6.8511 -1.7111 2.3937
-6.7909 -1.9580 2.3937
-6.7219 -2.2029 2.3937
-6.6443 -2.4454 2.3937
-6.5581 -2.6852 2.3937
-6.4634 -2.9219 2.3937
-6.3603 -3.1554 2.3937
-6.2488 -3.3853 2.3937
-6.1292 -3.6113 2.3937
-6.0016 -3.8331 2.3937
-5.8660 -4.0506 2.3937
-5.7226 -4.2630 2.3937
-5.5716 -4.4708 2.3937
-5.4132 -4.6728 2.3937
-5.2475 -4.8695 2.3937
-5.0747 -5.0602 2.3937
-4.8951 -5.2449 2.3937
-4.7088 -5.4233 2.3937
-4.5160 -5.5950 2.3937
-4.3170 -5.7598 2.3937
-4.1120 -5.9176 2.3937
-3.9013 -6.0681 2.3937
-3.6851 -6.2110 2.3937
-3.4636 -6.3462 2.3937
-3.2373 -6.4735 2.3937
-3.0062 -6.5926 2.3937
-2.7708 -6.7035 2.3937
-2.5313 -6.8059 2.3937
-2.2880 -6.8996 2.3937
-2.0413 -6.9846 2.3937
-1.7914 -7.0606 2.3937
-1.5387 -7.1276 2.3937
-1.2835 -7.1855 2.3937
-1.0261 -7.2341 2.3937
-0.7669 -7.2733 2.3937
-0.5062 -7.3031 2.3937
-0.2444 -7.3234 2.3937
0.0182 -7.3342 2.3937
0.2812 -7.3353 2.3937
0.5443 -7.3269 2.3937
0.8071 -7.3089 2.3937
1.0693 -7.2812 2.3937
1.3304 -7.2439 2.3937
1.5902 -7.1971 2.3937
1.8483 -7.1407 2.3937
2.1043 -7.0749 2.3937
2.3579 -6.9997 2.3937
2.6086 -6.9151 2.3937
2.8562 -6.8214 2.3937
3.1004 -6.7186 2.3937
3.3407 -6.6068 2.3937
3.5769 -6.4862 2.3937
3.8085 -6.3569 2.3937
4.0353 -6.2191 2.3937
4.2570 -6.0730 2.3937
4.4732 -5.9188 2.3937
4.6836 -5.7567 2.3937
4.8880 -5.5868 2.3937
5.0859 -5.4096 2.3937
5.2773 -5.2249 2.3937
5.4617 -5.0336 2.3937
5.6390 -4.8354 2.3937
5.8088 -4.6307 2.3937
5.9710 -4.4201 2.3937
6.1163 -4.1974 2.3902
6.0880 -3.8649 2.3237
6.0606 -3.5497 2.2635
6.1224 -3.2976 2.2413
6.2354 -3.0758 2.2413
6.3402 -2.8501 2.2413
6.4366 -2.6206 2.2414
6.5245 -2.3880 2.2414
6.6036 -2.1522 2.2414
6.6740 -1.9138 2.2414
6.7355 -1.6730 2.2414
6.7885 -1.4303 2.2416
6.8327 -1.1859 2.2418
6.8677 -0.9401 2.2420
6.8937 -0.6933 2.2421
6.9104 -0.4458 2.2423
6.9180 -0.1979 2.2424
6.9164 0.0499 2.2425
6.9057 0.2973 2.2425
6.8858 0.5441 2.2426
6.8568 0.7897 2.2426
6.8189 1.0340 2.2426
6.7719 1.2766 2.2426
6.7161 1.5170 2.2426
6.6515 1.7551 2.2425
6.5783 1.9905 2.2424
6.4965 2.2228 2.2423
6.4064 2.4517 2.2421
6.3080 2.6770 2.2420
6.2015 2.8983 2.2418
6.0870 3.1154 2.2416
5.9649 3.3279 2.2414
5.8357 3.5360 2.2414
5.6992 3.7391 2.2414
5.5556 3.9368 2.2414
5.4051 4.1291 2.2413
5.2478 4.3157 2.2413
5.0893 4.5008 2.2436
5.0341 4.7846 2.2960
4.9850 5.0905 2.3580
4.8665 5.3401 2.3937
4.6666 5.5051 2.3937
4.4610 5.6629 2.3937
4.2502 5.8129 2.3937
4.0343 5.9551 2.3937
3.8138 6.0894 2.3937
3.5887 6.2156 2.3937
3.3595 6.3335 2.3937
3.1265 6.4431 2.3937
2.8900 6.5442 2.3937
2.6502 6.6367 2.3937
2.4075 6.7205 2.3937
0.8627 2.7114 0.9551
0.7648 2.7407 0.9561
0.6658 2.7664 0.9570
0.5659 2.7885 0.9580
0.4653 2.8070 0.9589
0.3641 2.8219 0.9598
0.2624 2.8331 0.9607
0.1604 2.8406 0.9616
0.0581 2.8444 0.9624
-0.0442 2.8446 0.9632
-0.1464 2.8410 0.9640
-0.2485 2.8337 0.9648
-0.3503 2.8228 0.9655
-0.4516 2.8082 0.9662
-0.5522 2.7899 0.9668
-0.6522 2.7680 0.9675
-0.7513 2.7425 0.9680
-0.8495 2.7135 0.9686
-2.3378 6.6219 2.3937
-2.5730 6.5295 2.3937
-2.8048 6.4291 2.3937
-3.0328 6.3206 2.3937
-3.2567 6.2043 2.3937
-3.4764 6.0803 2.3937
-3.6914 5.9487 2.3937
-3.9017 5.8097 2.3937
-4.1069 5.6634 2.3937
-4.3068 5.5102 2.3937
-4.5011 5.3501 2.3937
-4.6897 5.1833 2.3937
-4.8723 5.0101 2.3937
-5.0487 4.8306 2.3937
-5.2187 4.6451 2.3937
-5.3822 4.4538 2.3937
-5.5388 4.2569 2.3937
-5.6884 4.0547 2.3937
-5.8309 3.8474 2.3937
-5.9661 3.6352 2.3937
-6.0938 3.4184 2.3937
-6.2139 3.1972 2.3937
-6.3261 2.9719 2.3937
-6.4305 2.7429 2.3937
-6.5268 2.5102 2.3937
-6.6149 2.2743 2.3937
-6.6947 2.0353 2.3937
-6.7662 1.7936 2.3937
-6.8292 1.5496 2.3937
-6.8836 1.3033 2.3937
-6.9294 1.0553 2.3937
-6.9665 0.8053 2.3937
-6.9948 0.5545 2.3937
-7.0143 0.3026 2.3937
-7.0250 0.0500 2.3937
-7.0268 -0.2029 2.3937
-7.0197 -0.4559 2.3937
-7.0037 -0.7087 2.3937
-6.9789 -0.9609 2.3937
-6.9451 -1.2123 2.3937
-6.9025 -1.4625 2.3937
-6.8510 -1.7113 2.3937
-6.7908 -1.9582 2.3937
-6.7219 -2.2031 2.3937
-6.6442 -2.4455 2.3937
-6.5580 -2.6853 2.3937
-6.4633 -2.9221 2.3937
-6.3602 -3.1556 2.3937
-6.2488 -3.3854 2.3937
-6.1292 -3.6114 2.3937
-6.0015 -3.8333 2.3937
-5.8659 -4.0506 2.3937
-5.7225 -4.2629 2.3937
-5.5715 -4.4707 2.3937
-5.4131 -4.6729 2.3937
-5.2474 -4.8696 2.3937
-5.0746 -5.0604 2.3937
-4.8950 -5.2450 2.3937
-4.7086 -5.4234 2.3937
-4.5159 -5.5951 2.3937
-4.3169 -5.7599 2.3937
-4.1119 -5.9177 2.3937
-3.9011 -6.0682 2.3937
-3.6849 -6.2111 2.3937
-3.4635 -6.3463 2.3937
-3.2371 -6.4736 2.3937
-3.0061 -6.5927 2.3937
-2.7706 -6.7036 2.3937
-2.5311 -6.8059 2.3937
-2.2879 -6.8997 2.3937
-2.0411 -6.9847 2.3937
-1.7912 -7.0607 2.3937
-1.5385 -7.1277 2.3937
-1.2833 -7.1855 2.3937
-1.0259 -7.2341 2.3937
-0.7667 -7.2733 2.3937
-0.5061 -7.3031 2.3937
-0.2442 -7.3234 2.3937
0.0180 -6.8103 2.3937
0.2622 -6.8110 2.3937
0.5064 -6.8028 2.3937
0.7503 -6.7857 2.3937
0.9936 -6.7596 2.3937
1.2360 -6.7247 2.3937
1.4771 -6.6809 2.3937
1.7165 -6.6283 2.3937
1.9540 -6.5669 2.3937
2.1893 -6.4968 2.3937
2.4219 -6.4182 2.3937
2.6516 -6.3308 2.3937
2.8780 -6.2352 2.3937
3.1009 -6.1313 2.3937
3.3199 -6.0192 2.3937
3.5348 -5.8990 2.3937
3.7451 -5.7711 2.3937
3.9506 -5.6354 2.3937
4.1511 -5.4922 2.3937
4.3463 -5.3417 2.3937
4.5358 -5.1840 2.3937
4.7194 -5.0195 2.3937
4.8968 -4.8483 2.3937
5.0679 -4.6706 2.3937
5.2323 -4.4869 2.3937
5.3898 -4.2969 2.3937
5.5403 -4.1014 2.3937
5.6834 -3.9005 2.3937
5.8190 -3.6945 2.3937
5.9470 -3.4836 2.3937
6.0024 -3.2333 2.3682
5.9774 -2.9490 2.3156
5.9529 -2.6764 2.2680
5.9723 -2.4319 2.2413
6.0642 -2.2201 2.2451
6.1275 -1.9977 2.2413
6.1929 -1.7765 2.2413
6.2502 -1.5532 2.2414
6.2992 -1.3280 2.2414
6.3398 -1.1012 2.2414
6.3721 -0.8731 2.2414
6.3959 -0.6441 2.2414
6.4114 -0.4145 2.2414
6.4184 -0.1847 2.2414
6.4169 0.0453 2.2414
6.4070 0.2748 2.2414
6.3888 0.5036 2.2414
6.3622 0.7316 2.2414
6.3272 0.9583 2.2414
6.2841 1.1834 2.2414
6.2328 1.4066 2.2414
6.1734 1.6276 2.2414
6.1060 1.8462 2.2414
6.0307 2.0619 2.2414
5.9478 2.2747 2.2414
5.8571 2.4841 2.2414
5.7591 2.6900 2.2414
5.6536 2.8919 2.2413
5.5410 3.0897 2.2413
5.4215 3.2832 2.2413
5.2951 3.4721 2.2413
5.1837 3.6712 2.2507
5.1398 3.9244 2.2936
5.0981 4.1904 2.3429
5.0465 4.4607 2.3937
4.8782 4.6341 2.3937
4.7039 4.8012 2.3937
4.5239 4.9618 2.3937
4.3385 5.1155 2.3937
4.1478 5.2624 2.3937
3.9521 5.4025 2.3937
3.7517 5.5349 2.3937
3.5469 5.6601 2.3937
3.3379 5.7778 2.3937
3.1251 5.8879 2.3937
2.9086 5.9902 2.3937
2.6888 6.0846 2.3937
2.4660 6.1710 2.3937
0.8921 2.4884 0.9531
0.8021 2.5189 0.9541
0.7111 2.5461 0.9550
0.6191 2.5699 0.9559
0.5264 2.5905 0.9568
0.4329 2.6077 0.9577
0.3389 2.6215 0.9585
0.2444 2.6319 0.9593
0.1496 2.6388 0.9601
0.0546 2.6424 0.9609
-0.0405 2.6425 0.9617
-0.1355 2.6392 0.9624
-0.2303 2.6324 0.9631
-0.3249 2.6223 0.9638
-0.4190 2.6087 0.9644
-0.5125 2.5917 0.9650
-0.6054 2.5714 0.9656
-0.6975 2.5477 0.9661
-0.7887 2.5207 0.9666
-0.8788 2.4905 0.9671
-2.3942 6.0784 2.3937
-2.6101 5.9850 2.3937
-2.8224 5.8843 2.3937
-3.0311 5.7762 2.3937
-3.2356 5.6608 2.3937
-3.4360 5.5384 2.3937
-3.6319 5.4091 2.3937
-3.8230 5.2731 2.3937
-4.0092 5.1304 2.3937
-4.1903 4.9814 2.3937
-4.3660 4.8262 2.3937
-4.5361 4.6650 2.3937
-4.7005 4.4979 2.3937
-4.8588 4.3252 2.3937
-5.0111 4.1470 2.3937
-5.1569 3.9637 2.3937
-5.2963 3.7754 2.3937
-5.4290 3.5822 2.3937
-5.5549 3.3846 2.3937
-5.6738 3.1827 2.3937
-5.7855 2.9767 2.3937
-5.8900 2.7669 2.3937
-5.9871 2.5535 2.3937
-6.0767 2.3368 2.3937
-6.1586 2.1171 2.3937
-6.2329 1.8945 2.3937
-6.2993 1.6695 2.3937
-6.3578 1.4422 2.3937
-6.4083 1.2128 2.3937
-6.4507 0.9818 2.3937
-6.4850 0.7492 2.3937
-6.5112 0.5156 2.3937
-6.5291 0.2810 2.3937
-6.5388 0.0458 2.3937
-6.5403 -0.1897 2.3937
-6.5334 -0.4252 2.3937
-6.5182 -0.6605 2.3937
-6.4948 -0.8952 2.3937
-6.4631 -1.1291 2.3937
-6.4231 -1.3619 2.3937
-6.3749 -1.5934 2.3937
-6.3185 -1.8231 2.3937
-6.2540 -2.0509 2.3937
-6.1814 -2.2764 2.3937
-6.1009 -2.4994 2.3937
-6.0124 -2.7195 2.3937
-5.9161 -2.9367 2.3937
-5.8121 -3.1503 2.3937
-5.7004 -3.3605 2.3937
-5.5813 -3.5665 2.3937
-5.4549 -3.7683 2.3937
-5.3212 -3.9658 2.3937
-5.1804 -4.1586 2.3937
-5.0327 -4.3463 2.3937
-4.8783 -4.5289 2.3937
-4.7173 -4.7060 2.3937
-4.5500 -4.8774 2.3937
-4.3764 -5.0428 2.3937
-4.1969 -5.2021 2.3937
-4.0116 -5.3550 2.3937
-3.8208 -5.5013 2.3937
-3.6247 -5.6407 2.3937
-3.4235 -5.7732 2.3937
-3.2175 -5.8984 2.3937
-3.0069 -6.0163 2.3937
-2.7920 -6.1266 2.3937
-2.5731 -6.2291 2.3937
-2.3504 -6.3238 2.3937
-2.1242 -6.4105 2.3937
-1.8949 -6.4890 2.3937
-1.6627 -6.5592 2.3937
-1.4278 -6.6210 2.3937
-1.1907 -6.6743 2.3937
-0.9516 -6.7190 2.3937
-0.7109 -6.7550 2.3937
-0.4688 -6.7822 2.3937
-0.2257 -6.8007 2.3937
0.0181 -6.8103 2.3937
0.2623 -6.8110 2.3937
0.5066 -6.8028 2.3937
0.7505 -6.7856 2.3937
0.9938 -6.7596 2.3937
1.2362 -6.7247 2.3937
1.4772 -6.6809 2.3937
1.7167 -6.6282 2.3937
1.9542 -6.5668 2.3937
2.1894 -6.4967 2.3937
2.4220 -6.4180 2.3937
2.6517 -6.3308 2.3937
2.8782 -6.2352 2.3937
3.1011 -6.1312 2.3937
3.3201 -6.0191 2.3937
3.5349 -5.8990 2.3937
3.7452 -5.7710 2.3937
3.9508 -5.6353 2.3937
4.1513 -5.4921 2.3937
4.3464 -5.3416 2.3937
4.5359 -5.1839 2.3937
4.7195 -5.0194 2.3937
4.8969 -4.8482 2.3937
5.0680 -4.6705 2.3937
5.2324 -4.4864 2.3937
5.3899 -4.2968 2.3937
5.5403 -4.1012 2.3937
5.6835 -3.9004 2.3937
5.8191 -3.6944 2.3937
5.9471 -3.4835 2.3937
6.0023 -3.2331 2.3681
5.9773 -2.9488 2.3155
5.9528 -2.6761 2.2679
5.9724 -2.4315 2.2413
6.0642 -2.2200 2.2451
6.1275 -1.9976 2.2413
6.1930 -1.7764 2.2413
6.2502 -1.5531 2.2414
6.2992 -1.3278 2.2414
6.3398 -1.1010 2.2414
6.3721 -0.8730 2.2414
6.3960 -0.6440 2.2414
6.4114 -0.4143 2.2414
6.4184 -0.1845 2.2414
6.4169 0.0454 2.2414
6.4070 0.2749 2.2414
6.3888 0.5038 2.2414
6.3621 0.7318 2.2414
6.3272 0.9584 2.2414
6.2840 1.1836 2.2414
6.2327 1.4067 2.2414
6.1733 1.6278 2.2414
6.1059 1.8463 2.2414
6.0307 2.0621 2.2414
5.9477 2.2749 2.2414
5.8571 2.4843 2.2414
5.7590 2.6901 2.2414
5.6536 2.8921 2.2413
5.5410 3.0899 2.2413
5.4214 3.2834 2.2413
5.2950 3.4722 2.2413
5.1836 3.6713 2.2507
5.1398 3.9247 2.2936
5.0980 4.1906 2.3430
5.0463 4.4608 2.3937
4.8781 4.6342 2.3937
4.7038 4.8013 2.3937
4.5238 4.9618 2.3937
4.3383 5.1156 2.3937
4.1476 5.2625 2.3937
3.9520 5.4022 2.3937
3.7516 5.5350 2.3937
3.5467 5.6602 2.3937
3.3378 5.7779 2.3937
3.1249 5.8880 2.3937
2.9084 5.9902 2.3937
2.6887 6.0846 2.3937
2.4659 6.1711 2.3937
0.8921 2.4885 0.9531
0.8021 2.5189 0.9541
0.7111 2.5461 0.9550
0.6191 2.5700 0.9559
0.5263 2.5905 0.9568
0.4328 2.6077 0.9577
0.3388 2.6215 0.9585
0.2443 2.6319 0.9593
0.1495 2.6388 0.9601
0.0545 2.6424 0.9609
-0.0405 2.6425 0.9617
-0.1356 2.6392 0.9624
-0.2304 2.6324 0.9631
-0.3249 2.6223 0.9638
-0.4190 2.6087 0.9644
-0.5126 2.5917 0.9650
-0.6055 2.5714 0.9656
-0.6976 2.5477 0.9661
-0.7887 2.5207 0.9666
-0.8789 2.4904 0.9671
-2.3944 6.0783 2.3937
-2.6102 5.9850 2.3937
-2.8226 5.8842 2.3937
-3.0312 5.7761 2.3937
-3.2358 5.6607 2.3937
-3.4361 5.5383 2.3937
-3.6320 5.4090 2.3937
-3.8231 5.2730 2.3937
-4.0094 5.1303 2.3937
-4.1904 4.9813 2.3937
-4.3661 4.8261 2.3937
-4.5362 4.6649 2.3937
-4.7006 4.4978 2.3937
-4.8589 4.3250 2.3937
-5.0112 4.1469 2.3937
-5.1570 3.9636 2.3937
-5.2964 3.7752 2.3937
-5.4291 3.5821 2.3937
-5.5550 3.3845 2.3937
-5.6738 3.1826 2.3937
-5.7856 2.9766 2.3937
-5.8901 2.7668 2.3937
-5.9872 2.5534 2.3937
-6.0767 2.3367 2.3937
-6.1587 2.1169 2.3937
-6.2329 1.8944 2.3937
-6.2993 1.6693 2.3937
-6.3578 1.4420 2.3937
-6.4083 1.2127 2.3937
-6.4507 0.9816 2.3937
-6.4851 0.7491 2.3937
-6.5112 0.5154 2.3937
-6.5292 0.2809 2.3937
-6.5388 0.0457 2.3937
-6.5403 -0.1898 2.3937
-6.5334 -0.4253 2.3937
-6.5182 -0.6606 2.3937
-6.4948 -0.8954 2.3937
-6.4630 -1.1293 2.3937
-6.4231 -1.3621 2.3937
-6.3748 -1.5935 2.3937
-6.3185 -1.8233 2.3937
-6.2540 -2.0510 2.3937
-6.1814 -2.2765 2.3937
-6.1008 -2.4995 2.3937
-6.0123 -2.7197 2.3937
-5.9160 -2.9368 2.3937
-5.8120 -3.1506 2.3937
-5.7004 -3.3601 2.3937
-5.5812 -3.5667 2.3937
-5.4548 -3.7685 2.3937
-5.3211 -3.9659 2.3937
-5.1803 -4.1587 2.3937
-5.0326 -4.3465 2.3937
-4.8782 -4.5290 2.3937
-4.7172 -4.7061 2.3937
-4.5499 -4.8775 2.3937
-4.3763 -5.0429 2.3937
-4.1968 -5.2022 2.3937
-4.0115 -5.3551 2.3937
-3.8207 -5.5014 2.3937
-3.6245 -5.6408 2.3937
-3.4233 -5.7733 2.3937
-3.2173 -5.8985 2.3937
-3.0068 -6.0164 2.3937
-2.7919 -6.1266 2.3937
-2.5729 -6.2292 2.3937
-2.3503 -6.3239 2.3937
-2.1241 -6.4105 2.3937
-1.8947 -6.4890 2.3937
-1.6625 -6.5593 2.3937
-1.4277 -6.6210 2.3937
-1.1906 -6.6743 2.3937
-0.9515 -6.7190 2.3937
-0.7107 -6.7550 2.3937
-0.4686 -6.7822 2.3937
-0.2255 -6.8007 2.3937
0.0180 -6.3495 2.3937
0.2456 -6.3498 2.3937
0.4732 -6.3418 2.3937
0.7006 -6.3256 2.3937
0.9273 -6.3010 2.3937
1.1531 -6.2682 2.3937
1.3778 -6.2271 2.3937
1.6008 -6.1778 2.3937
1.8221 -6.1204 2.3937
2.0412 -6.0548 2.3937
2.2579 -5.9812 2.3937
2.4719 -5.8998 2.3937
2.6828 -5.8105 2.3937
2.8904 -5.7135 2.3937
3.0943 -5.6088 2.3937
3.2944 -5.4968 2.3937
3.4903 -5.3774 2.3937
3.6817 -5.2509 2.3937
3.8684 -5.1174 2.3937
4.0501 -4.9771 2.3937
4.2266 -4.8301 2.3937
4.3976 -4.6768 2.3937
4.5628 -4.5173 2.3937
4.7221 -4.3517 2.3937
4.8753 -4.1804 2.3937
5.0220 -4.0036 2.3937
5.1621 -3.8215 2.3937
5.2954 -3.6343 2.3937
5.4218 -3.4424 2.3937
5.5410 -3.2461 2.3937
5.6529 -3.0452 2.3937
5.7573 -2.8407 2.3937
5.8542 -2.6324 2.3937
5.8992 -2.4028 2.3760
5.8761 -2.1517 2.3348
5.8533 -1.9088 2.2978
5.8306 -1.6731 2.2646
5.8240 -1.4478 2.2413
5.8697 -1.2380 2.2413
5.9181 -1.0285 2.2453
5.9380 -0.8143 2.2413
5.9604 -0.6010 2.2413
5.9750 -0.3871 2.2413
5.9817 -0.1728 2.2413
5.9806 0.0413 2.2413
5.9716 0.2552 2.2413
5.9548 0.4685 2.2413
5.9302 0.6810 2.2413
5.8980 0.8923 2.2413
5.8580 1.1021 2.2413
5.8105 1.3102 2.2413
5.7554 1.5163 2.2413
5.6929 1.7201 2.2413
5.6230 1.9213 2.2413
5.5460 2.1198 2.2413
5.4618 2.3151 2.2413
5.3707 2.5072 2.2413
5.2994 2.7096 2.2527
5.2632 2.9334 2.2826
5.2284 3.1648 2.3173
5.1921 3.4029 2.3560
5.1430 3.6409 2.3937
5.0044 3.8193 2.3937
4.8595 3.9925 2.3937
4.7087 4.1602 2.3937
4.5520 4.3222 2.3937
4.3897 4.4783 2.3937
4.2220 4.6284 2.3937
4.0492 4.7722 2.3937
3.8715 4.9096 2.3937
3.6892 5.0404 2.3937
3.5024 5.1645 2.3937
3.3114 5.2817 2.3937
3.1166 5.3918 2.3937
2.9181 5.4949 2.3937
2.7162 5.5907 2.3937
2.5112 5.6792 2.3937
0.9156 2.2896 0.9514
0.8327 2.3210 0.9523
0.7487 2.3493 0.9532
0.6638 2.3747 0.9541
0.5780 2.3969 0.9549
0.4915 2.4161 0.9558
0.4043 2.4321 0.9566
0.3166 2.4450 0.9574
0.2284 2.4546 0.9581
0.1400 2.4611 0.9589
0.0514 2.4644 0.9596
-0.0373 2.4645 0.9603
-0.1259 2.4614 0.9610
-0.2144 2.4551 0.9616
-0.3026 2.4457 0.9622
-0.3903 2.4330 0.9628
-0.4776 2.4172 0.9634
-0.5642 2.3982 0.9639
-0.6501 2.3761 0.9645
-0.7352 2.3509 0.9649
-0.8193 2.3227 0.9654
-0.9023 2.2915 0.9658
-2.4380 5.5923 2.3937
-2.6366 5.4983 2.3937
-2.8316 5.3974 2.3937
-3.0229 5.2898 2.3937
-3.2102 5.1753 2.3937
-3.3933 5.0547 2.3937
-3.5721 4.9277 2.3937
-3.7462 4.7945 2.3937
-3.9155 4.6553 2.3937
-4.0798 4.5102 2.3937
-4.2388 4.3596 2.3937
-4.3925 4.2034 2.3937
-4.5405 4.0420 2.3937
-4.6829 3.8756 2.3937
-4.8192 3.7041 2.3937
-4.9495 3.5281 2.3937
-5.0735 3.3476 2.3937
-5.1912 3.1629 2.3937
-5.3023 2.9741 2.3937
-5.4067 2.7815 2.3937
-5.5043 2.5854 2.3937
-5.5950 2.3859 2.3937
-5.6786 2.1834 2.3937
-5.7551 1.9779 2.3937
-5.8244 1.7699 2.3937
-5.8863 1.5595 2.3937
-5.9409 1.3470 2.3937
-5.9879 1.1326 2.3937
-6.0275 0.9166 2.3937
-6.0594 0.6993 2.3937
-6.0836 0.4809 2.3937
-6.1002 0.2617 2.3937
-6.1090 0.0420 2.3937
-6.1102 -0.1781 2.3937
-6.1035 -0.3981 2.3937
-6.0891 -0.6180 2.3937
-6.0670 -0.8373 2.3937
-6.0371 -1.0558 2.3937
-5.9994 -1.2732 2.3937
-5.9541 -1.4895 2.3937
-5.9012 -1.7039 2.3937
-5.8407 -1.9166 2.3937
-5.7726 -2.1270 2.3937
-5.6971 -2.3353 2.3937
-5.6141 -2.5408 2.3937
-5.5239 -2.7433 2.3937
-5.4265 -2.9428 2.3937
-5.3219 -3.1387 2.3937
-5.2104 -3.3310 2.3937
-5.0920 -3.5193 2.3937
-4.9669 -3.7035 2.3937
-4.8352 -3.8833 2.3937
-4.6970 -4.0583 2.3937
-4.5526 -4.2285 2.3937
-4.4021 -4.3935 2.3937
-4.2456 -4.5532 2.3937
-4.0834 -4.7074 2.3937
-3.9156 -4.8557 2.3937
-3.7424 -4.9981 2.3937
-3.5641 -5.1343 2.3937
-3.3809 -5.2641 2.3937
-3.1930 -5.3874 2.3937
-3.0006 -5.5039 2.3937
-2.8040 -5.6135 2.3937
-2.6033 -5.7160 2.3937
-2.3990 -5.8114 2.3937
-2.1911 -5.8993 2.3937
-1.9800 -5.9798 2.3937
-1.7660 -6.0527 2.3937
-1.5494 -6.1178 2.3937
-1.3303 -6.1750 2.3937
-1.1091 -6.2244 2.3937
-0.8861 -6.2657 2.3937
-0.6616 -6.2989 2.3937
-0.4358 -6.3240 2.3937
-0.2092 -6.3409 2.3937
0.0181 -6.3495 2.3937
0.2457 -6.3498 2.3937
0.4734 -6.3418 2.3937
0.7007 -6.3256 2.3937
0.9275 -6.3010 2.3937
1.1533 -6.2682 2.3937
1.3779 -6.2271 2.3937
1.6010 -6.1778 2.3937
1.8223 -6.1203 2.3937
2.0414 -6.0547 2.3937
2.2581 -5.9813 2.3937
2.4720 -5.8998 2.3937
2.6829 -5.8104 2.3937
2.8905 -5.7134 2.3937
3.0945 -5.6088 2.3937
3.2945 -5.4967 2.3937
3.4904 -5.3773 2.3937
3.6818 -5.2508 2.3937
3.8685 -5.1173 2.3937
4.0502 -4.9770 2.3937
4.2267 -4.8300 2.3937
4.3977 -4.6767 2.3937
4.5629 -4.5172 2.3937
4.7222 -4.3516 2.3937
4.8753 -4.1803 2.3937
5.0221 -4.0035 2.3937
5.1622 -3.8214 2.3937
5.2955 -3.6342 2.3937
5.4219 -3.4423 2.3937
5.5411 -3.2458 2.3937
5.6530 -3.0452 2.3937
5.7574 -2.8406 2.3937
5.8542 -2.6323 2.3937
5.8992 -2.4027 2.3759
5.8761 -2.1516 2.3347
5.8533 -1.9086 2.2977
5.8306 -1.6728 2.2646
5.8240 -1.4477 2.2413
5.8698 -1.2379 2.2413
5.9181 -1.0284 2.2452
5.9380 -0.8142 2.2413
5.9604 -0.6008 2.2413
5.9750 -0.3869 2.2413
5.9817 -0.1728 2.2413
5.9805 0.0415 2.2413
5.9716 0.2554 2.2413
5.9548 0.4686 2.2413
5.9302 0.6811 2.2413
5.8980 0.8924 2.2413
5.8580 1.1022 2.2413
5.8104 1.3103 2.2413
5.7553 1.5165 2.2413
5.6928 1.7202 2.2413
5.6230 1.9215 2.2413
5.5459 2.1199 2.2413
5.4617 2.3153 2.2413
5.3706 2.5072 2.2413
5.2994 2.7095 2.2527
5.2632 2.9335 2.2826
5.2284 3.1649 2.3174
5.1920 3.4031 2.3560
5.1429 3.6410 2.3937
5.0043 3.8194 2.3937
4.8595 3.9926 2.3937
4.7086 4.1602 2.3937
4.5519 4.3223 2.3937
4.3896 4.4785 2.3937
4.2219 4.6285 2.3937
4.0491 4.7723 2.3937
3.8714 4.9097 2.3937
3.6890 5.0405 2.3937
3.5023 5.1645 2.3937
3.3113 5.2817 2.3937
3.1165 5.3919 2.3937
2.9180 5.4950 2.3937
2.7161 5.5908 2.3937
2.5111 5.6792 2.3937
0.9155 2.2896 0.9514
0.8326 2.3210 0.9523
0.7487 2.3494 0.9532
0.6638 2.3747 0.9541
0.5780 2.3969 0.9549
0.4914 2.4161 0.9558
0.4042 2.4321 0.9566
0.3165 2.4450 0.9574
0.2284 2.4546 0.9581
0.1399 2.4611 0.9589
0.0513 2.4644 0.9596
-0.0374 2.4645 0.9603
-0.1260 2.4614 0.9610
-0.2144 2.4551 0.9616
-0.3026 2.4456 0.9622
-0.3904 2.4330 0.9628
-0.4777 2.4171 0.9634
-0.5643 2.3982 0.9639
-0.6502 2.3761 0.9645
-0.7352 2.3509 0.9649
-0.8193 2.3227 0.9654
-0.9023 2.2915 0.9658
-2.4382 5.5923 2.3937
-2.6367 5.4982 2.3937
-2.8317 5.3974 2.3937
-3.0230 5.2896 2.3937
-3.2103 5.1753 2.3937
-3.3934 5.0547 2.3937
-3.5722 4.9276 2.3937
-3.7463 4.7944 2.3937
-3.9156 4.6552 2.3937
-4.0799 4.5101 2.3937
-4.2389 4.3595 2.3937
-4.3926 4.2033 2.3937
-4.5406 4.0419 2.3937
-4.6829 3.8754 2.3937
-4.8193 3.7040 2.3937
-4.9496 3.5280 2.3937
-5.0736 3.3475 2.3937
-5.1912 3.1627 2.3937
-5.3023 2.9740 2.3937
-5.4067 2.7814 2.3937
-5.5043 2.5853 2.3937
-5.5950 2.3858 2.3937
-5.6787 2.1832 2.3937
-5.7552 1.9778 2.3937
-5.8244 1.7698 2.3937
-5.8864 1.5594 2.3937
-5.9409 1.3468 2.3937
-5.9880 1.1325 2.3937
-6.0275 0.9165 2.3937
-6.0594 0.6992 2.3937
-6.0836 0.4808 2.3937
-6.1002 0.2616 2.3937
-6.1091 0.0418 2.3937
-6.1102 -0.1782 2.3937
-6.1035 -0.3983 2.3937
-6.0891 -0.6181 2.3937
-6.0669 -0.8374 2.3937
-6.0370 -1.0559 2.3937
-5.9994 -1.2734 2.3937
-5.9541 -1.4894 2.3937
-5.9012 -1.7042 2.3937
-5.8406 -1.9166 2.3937
-5.7725 -2.1273 2.3937
-5.6970 -2.3354 2.3937
-5.6141 -2.5409 2.3937
-5.5238 -2.7435 2.3937
-5.4264 -2.9429 2.3937
-5.3218 -3.1388 2.3937
-5.2103 -3.3311 2.3937
-5.0919 -3.5195 2.3937
-4.9668 -3.7036 2.3937
-4.8351 -3.8834 2.3937
-4.6969 -4.0584 2.3937
-4.5525 -4.2286 2.3937
-4.4020 -4.3936 2.3937
-4.2455 -4.5533 2.3937
-4.0833 -4.7075 2.3937
-3.9155 -4.8558 2.3937
-3.7423 -4.9982 2.3937
-3.5640 -5.1344 2.3937
-3.3808 -5.2642 2.3937
-3.1929 -5.3874 2.3937
-3.0005 -5.5040 2.3937
-2.8038 -5.6136 2.3937
-2.6032 -5.7161 2.3937
-2.3988 -5.8114 2.3937
-2.1910 -5.8994 2.3937
-1.9799 -5.9799 2.3937
-1.7659 -6.0527 2.3937
-1.5492 -6.1178 2.3937
-1.3301 -6.1751 2.3937
-1.1090 -6.2244 2.3937
-0.8860 -6.2657 2.3937
-0.6614 -6.2989 2.3937
-0.4357 -6.3240 2.3937
-0.2090 -6.3409 2.3937
0.0180 -5.9406 2.3937
0.2309 -5.9407 2.3937
0.4438 -5.9330 2.3937
0.6564 -5.9175 2.3937
0.8685 -5.8943 2.3937
1.0797 -5.8634 2.3937
1.2897 -5.8247 2.3937
1.4983 -5.7784 2.3937
1.7051 -5.7245 2.3937
1.9100 -5.6629 2.3937
2.1126 -5.5940 2.3937
2.3126 -5.5176 2.3937
2.5097 -5.4339 2.3937
2.7037 -5.3431 2.3937
2.8944 -5.2452 2.3937
3.0814 -5.1403 2.3937
3.2644 -5.0285 2.3937
3.4434 -4.9102 2.3937
3.6178 -4.7853 2.3937
3.7877 -4.6540 2.3937
3.9526 -4.5166 2.3937
4.1124 -4.3732 2.3937
4.2669 -4.2240 2.3937
4.4158 -4.0692 2.3937
4.5589 -3.9090 2.3937
4.6961 -3.7437 2.3937
4.8270 -3.5734 2.3937
4.9517 -3.3985 2.3937
5.0699 -3.2194 2.3937
5.1813 -3.0354 2.3937
5.2860 -2.8479 2.3937
5.3836 -2.6567 2.3937
5.4742 -2.4619 2.3937
5.5576 -2.2640 2.3937
5.6336 -2.0633 2.3937
5.7022 -1.8600 2.3937
5.7633 -1.6543 2.3937
5.7805 -1.4376 2.3788
5.7584 -1.2151 2.3512
5.7363 -0.9976 2.3270
5.7140 -0.7842 2.3062
5.6916 -0.5743 2.2884
5.6691 -0.3678 2.2738
5.6463 -0.1637 2.2620
5.6254 0.0373 2.2539
5.6054 0.2387 2.2493
5.5835 0.4384 2.2467
5.5596 0.6375 2.2463
5.5336 0.8362 2.2479
5.5055 1.0346 2.2516
5.4760 1.2338 2.2578
5.4494 1.4347 2.2682
5.4221 1.6373 2.2816
5.3940 1.8419 2.2978
5.3650 2.0494 2.3171
5.3351 2.2601 2.3395
5.3040 2.4747 2.3652
5.2702 2.6930 2.3937
5.1659 2.8777 2.3937
5.0550 3.0583 2.3937
4.9378 3.2347 2.3937
4.8144 3.4067 2.3937
4.6849 3.5738 2.3937
4.5496 3.7361 2.3937
4.4086 3.8932 2.3937
4.2622 4.0451 2.3937
4.1105 4.1913 2.3937
3.9537 4.3322 2.3937
3.7922 4.4671 2.3937
3.6260 4.5959 2.3937
3.4554 4.7187 2.3937
3.2807 4.8351 2.3937
3.1021 4.9451 2.3937
2.9198 5.0486 2.3937
2.7341 5.1454 2.3937
2.5451 5.2354 2.3937
2.3533 5.3185 2.3937
0.8574 2.1428 0.9508
0.7799 2.1722 0.9516
0.7013 2.1987 0.9524
0.6218 2.2224 0.9533
0.5415 2.2432 0.9540
0.4605 2.2612 0.9548
0.3789 2.2761 0.9556
0.2967 2.2882 0.9563
0.2143 2.2972 0.9570
0.1315 2.3033 0.9577
0.0485 2.3064 0.9584
-0.0345 2.3065 0.9591
-0.1174 2.3036 0.9597
-0.2002 2.2977 0.9603
-0.2827 2.2888 0.9609
-0.3649 2.2769 0.9614
-0.4466 2.2621 0.9620
-0.5277 2.2443 0.9625
-0.6081 2.2237 0.9630
-0.6877 2.2001 0.9634
-0.7664 2.1737 0.9638
-0.8441 2.1445 0.9642
-2.2847 5.2423 2.3937
-2.4709 5.1543 2.3937
-2.6538 5.0598 2.3937
-2.8332 4.9590 2.3937
-3.0089 4.8519 2.3937
-3.1807 4.7388 2.3937
-3.3483 4.6197 2.3937
-3.5116 4.4949 2.3937
-3.6704 4.3644 2.3937
-3.8245 4.2285 2.3937
-3.9737 4.0872 2.3937
-4.1178 3.9408 2.3937
-4.2567 3.7895 2.3937
-4.3901 3.6334 2.3937
-4.5180 3.4727 2.3937
-4.6402 3.3077 2.3937
-4.7565 3.1384 2.3937
-4.8668 2.9651 2.3937
-4.9710 2.7881 2.3937
-5.0688 2.6075 2.3937
-5.1603 2.4235 2.3937
-5.2453 2.2365 2.3937
-5.3237 2.0465 2.3937
-5.3953 1.8538 2.3937
-5.4602 1.6587 2.3937
-5.5182 1.4614 2.3937
-5.5692 1.2622 2.3937
-5.6132 1.0611 2.3937
-5.6501 0.8586 2.3937
-5.6799 0.6549 2.3937
-5.7025 0.4501 2.3937
-5.7179 0.2446 2.3937
-5.7260 0.0385 2.3937
-5.7268 -0.1677 2.3937
-5.7204 -0.3740 2.3937
-5.7067 -0.5801 2.3937
-5.6858 -0.7856 2.3937
-5.6575 -0.9904 2.3937
-5.6220 -1.1942 2.3937
-5.5794 -1.3967 2.3937
-5.5295 -1.5977 2.3937
-5.4725 -1.7970 2.3937
-5.4085 -1.9942 2.3937
-5.3375 -2.1891 2.3937
-5.2595 -2.3816 2.3937
-5.1747 -2.5713 2.3937
-5.0832 -2.7580 2.3937
-4.9850 -2.9415 2.3937
-4.8803 -3.1215 2.3937
-4.7691 -3.2978 2.3937
-4.6516 -3.4701 2.3937
-4.5280 -3.6383 2.3937
-4.3984 -3.8021 2.3937
-4.2629 -3.9613 2.3937
-4.1217 -4.1156 2.3937
-3.9749 -4.2650 2.3937
-3.8228 -4.4091 2.3937
-3.6654 -4.5478 2.3937
-3.5031 -4.6808 2.3937
-3.3360 -4.8081 2.3937
-3.1643 -4.9294 2.3937
-2.9882 -5.0445 2.3937
-2.8079 -5.1533 2.3937
-2.6236 -5.2556 2.3937
-2.4357 -5.3513 2.3937
-2.2443 -5.4403 2.3937
-2.0496 -5.5223 2.3937
-1.8520 -5.5973 2.3937
-1.6516 -5.6653 2.3937
-1.4487 -5.7258 2.3937
-1.2437 -5.7791 2.3937
-1.0366 -5.8250 2.3937
-0.8279 -5.8634 2.3937
-0.6179 -5.8942 2.3937
-0.4066 -5.9174 2.3937
-0.1945 -5.9328 2.3937
0.0181 -5.9406 2.3937
0.2310 -5.9407 2.3937
0.4439 -5.9330 2.3937
0.6566 -5.9175 2.3937
0.8686 -5.8943 2.3937
1.0798 -5.8633 2.3937
1.2898 -5.8247 2.3937
1.4984 -5.7784 2.3937
1.7053 -5.7244 2.3937
1.9101 -5.6629 2.3937
2.1127 -5.5939 2.3937
2.3127 -5.5175 2.3937
2.5098 -5.4339 2.3937
2.7039 -5.3430 2.3937
2.8945 -5.2451 2.3937
3.0815 -5.1402 2.3937
3.2646 -5.0285 2.3937
3.4435 -4.9101 2.3937
3.6180 -4.7852 2.3937
3.7878 -4.6539 2.3937
3.9527 -4.5165 2.3937
4.1125 -4.3731 2.3937
4.2670 -4.2239 2.3937
4.4159 -4.0691 2.3937
4.5590 -3.9089 2.3937
4.6961 -3.7436 2.3937
4.8271 -3.5733 2.3937
4.9518 -3.3984 2.3937
5.0698 -3.2183 2.3937
5.1814 -3.0353 2.3937
5.2860 -2.8478 2.3937
5.3837 -2.6565 2.3937
5.4743 -2.4618 2.3937
5.5576 -2.2639 2.3937
5.6336 -2.0632 2.3937
5.7022 -1.8598 2.3937
5.7633 -1.6542 2.3937
5.7805 -1.4374 2.3788
5.7584 -1.2150 2.3512
5.7363 -0.9974 2.3270
5.7140 -0.7841 2.3062
5.6917 -0.5744 2.2884
5.6691 -0.3678 2.2737
5.6463 -0.1637 2.2620
5.6251 0.0392 2.2539
5.6054 0.2389 2.2493
5.5835 0.4386 2.2467
5.5596 0.6376 2.2463
5.5336 0.8363 2.2479
5.5055 1.0346 2.2516
5.4760 1.2339 2.2578
5.4494 1.4350 2.2683
5.4221 1.6375 2.2816
5.3940 1.8420 2.2978
5.3650 2.0495 2.3171
5.3350 2.2603 2.3395
5.3040 2.4749 2.3652
5.2702 2.6931 2.3937
5.1658 2.8778 2.3937
5.0550 3.0584 2.3937
4.9377 3.2348 2.3937
4.8143 3.4067 2.3937
4.6848 3.5739 2.3937
4.5495 3.7362 2.3937
4.4085 3.8934 2.3937
4.2621 4.0452 2.3937
4.1104 4.1915 2.3937
3.9536 4.3323 2.3937
