ply
format ascii 1.0
element vertex 2179
property float32 x
property float32 y
property float32 z
end_header
4.7038 -6.3338 2.3926
4.9076 -6.1331 2.3926
5.1039 -5.9266 2.3926
5.2925 -5.7146 2.3926
5.4732 -5.4974 2.3926
5.6460 -5.2752 2.3926
5.8109 -5.0485 2.3926
5.9676 -4.8173 2.3926
6.1162 -4.5820 2.3926
6.2566 -4.3429 2.3926
6.3888 -4.1001 2.3926
6.5126 -3.8540 2.3926
6.6281 -3.6048 2.3926
6.7351 -3.3528 2.3926
6.8338 -3.0982 2.3926
6.9240 -2.8412 2.3926
7.0058 -2.5821 2.3926
7.0790 -2.3212 2.3926
7.1438 -2.0586 2.3926
7.2001 -1.7946 2.3926
7.2478 -1.5295 2.3926
7.2871 -1.2635 2.3926
7.3178 -0.9967 2.3926
7.3400 -0.7294 2.3926
7.3538 -0.4619 2.3926
7.3591 -0.1944 2.3926
7.3559 0.0729 2.3926
7.3443 0.3399 2.3926
7.3242 0.6062 2.3926
7.2958 0.8716 2.3926
7.2590 1.1360 2.3926
7.2138 1.3991 2.3926
7.1604 1.6607 2.3926
7.0987 1.9206 2.3926
7.0288 2.1785 2.3926
6.9507 2.4344 2.3926
6.8645 2.6878 2.3926
6.7702 2.9387 2.3926
6.6678 3.1867 2.3926
6.5575 3.4317 2.3926
6.4393 3.6736 2.3926
6.3133 3.9119 2.3926
6.1794 4.1466 2.3926
6.0379 4.3773 2.3926
5.8887 4.6040 2.3926
5.7320 4.8263 2.3926
5.5678 5.0440 2.3926
5.3963 5.2570 2.3926
5.2175 5.4649 2.3926
5.0315 5.6675 2.3926
4.8385 5.8647 2.3926
4.6386 6.0562 2.3926
4.4318 6.2417 2.3926
4.2184 6.4210 2.3926
3.9985 6.5940 2.3926
3.7721 6.7602 2.3926
3.5395 6.9196 2.3926
3.3008 7.0719 2.3926
3.0563 7.2169 2.3926
2.8060 7.3542 2.3926
2.5502 7.4837 2.3926
2.2891 7.6052 2.3926
0.8450 3.2242 0.9995
0.7287 3.2542 0.9953
0.6113 3.2800 0.9910
0.4931 3.3015 0.9867
0.3742 3.3188 0.9823
0.2547 3.3317 0.9778
0.1348 3.3403 0.9733
0.0147 3.3445 0.9688
-0.1055 3.3444 0.9642
-0.2257 3.3400 0.9596
-0.3455 3.3312 0.9550
-0.4650 3.3180 0.9503
-0.5840 3.3006 0.9456
-0.7022 3.2788 0.9410
-0.8196 3.2528 0.9363
-0.9359 3.2226 0.9316
-2.7131 8.2291 2.3926
-3.0221 8.1704 2.3926
-3.3302 8.1002 2.3926
-3.6372 8.0185 2.3926
-3.9424 7.9251 2.3926
-4.2454 7.8201 2.3926
-4.5458 7.7034 2.3926
-4.8430 7.5751 2.3926
-5.1365 7.4352 2.3926
-5.4259 7.2836 2.3926
-5.7107 7.1205 2.3926
-5.9902 6.9460 2.3926
-6.2641 6.7602 2.3926
-6.5317 6.5633 2.3926
-6.7927 6.3554 2.3926
-7.0464 6.1366 2.3926
-7.2923 5.9074 2.3926
-7.5299 5.6678 2.3926
-7.7588 5.4182 2.3926
-7.9783 5.1589 2.3926
-8.1882 4.8902 2.3926
-8.3878 4.6126 2.3926
-8.5767 4.3263 2.3926
-8.7545 4.0319 2.3926
-8.9207 3.7297 2.3926
-9.0750 3.4203 2.3926
-7.5874 -6.0182 2.3926
-7.3458 -6.2649 2.3926
-7.0950 -6.5010 2.3926
-6.8357 -6.7263 2.3926
-6.5684 -6.9403 2.3926
-6.2936 -7.1430 2.3926
-6.0118 -7.3339 2.3926
-5.7237 -7.5130 2.3926
-5.4298 -7.6800 2.3926
-5.1306 -7.8349 2.3926
-4.8268 -7.9774 2.3926
-4.5188 -8.1076 2.3926
-4.2073 -8.2253 2.3926
-3.8928 -8.3306 2.3926
-3.5758 -8.4233 2.3926
-3.2569 -8.5037 2.3926
-2.9366 -8.5716 2.3926
-2.6154 -8.6271 2.3926
-2.2938 -8.6705 2.3926
-1.9723 -8.7016 2.3926
-1.6514 -8.7208 2.3926
-1.3315 -8.7281 2.3926
-1.0131 -8.7237 2.3926
-0.6966 -8.7078 2.3926
-0.3825 -8.6805 2.3926
-0.0731 -7.9426 2.3926
0.2103 -7.9005 2.3926
0.4907 -7.8485 2.3926
0.7679 -7.7869 2.3926
1.0414 -7.7158 2.3926
1.3110 -7.6354 2.3926
1.5763 -7.5461 2.3926
1.8372 -7.4479 2.3926
2.0933 -7.3413 2.3926
2.3444 -7.2263 2.3926
2.5902 -7.1033 2.3926
2.8306 -6.9724 2.3926
3.0653 -6.8341 2.3926
3.2941 -6.6884 2.3926
3.5169 -6.5357 2.3926
3.7334 -6.3762 2.3926
3.9434 -6.2102 2.3926
4.1470 -6.0380 2.3926
4.3438 -5.8597 2.3926
4.5338 -5.6757 2.3926
4.7168 -5.4863 2.3926
4.8927 -5.2916 2.3926
5.0615 -5.0919 2.3926
5.2229 -4.8875 2.3926
5.3770 -4.6786 2.3926
5.5236 -4.4655 2.3926
5.6627 -4.2485 2.3926
5.7942 -4.0277 2.3926
5.9180 -3.8035 2.3926
6.0341 -3.5760 2.3926
6.1424 -3.3455 2.3926
6.2430 -3.1123 2.3926
6.3357 -2.8765 2.3926
6.4205 -2.6384 2.3926
6.4974 -2.3983 2.3926
6.5664 -2.1564 2.3926
6.6274 -1.9128 2.3926
6.6805 -1.6679 2.3926
6.7256 -1.4218 2.3926
6.7628 -1.1748 2.3926
6.7919 -0.9271 2.3926
6.8132 -0.6789 2.3926
6.8264 -0.4303 2.3926
6.8317 -0.1818 2.3926
6.8291 0.0667 2.3926
6.8185 0.3147 2.3926
6.8001 0.5622 2.3926
6.7737 0.8089 2.3926
6.7396 1.0546 2.3926
6.6976 1.2991 2.3926
6.6478 1.5422 2.3926
6.5903 1.7837 2.3926
6.5250 2.0233 2.3926
6.4521 2.2609 2.3926
6.3716 2.4962 2.3926
6.2835 2.7291 2.3926
6.1879 2.9593 2.3926
6.0848 3.1867 2.3926
5.9744 3.4109 2.3926
5.8566 3.6319 2.3926
5.7316 3.8493 2.3926
5.5994 4.0630 2.3926
5.4600 4.2728 2.3926
5.3137 4.4785 2.3926
5.1604 4.6798 2.3926
5.0003 4.8765 2.3926
4.8335 5.0684 2.3926
4.6600 5.2554 2.3926
4.4801 5.4371 2.3926
4.2937 5.6134 2.3926
4.1011 5.7841 2.3926
3.9023 5.9488 2.3926
3.6975 6.1076 2.3926
3.4869 6.2600 2.3926
3.2706 6.4059 2.3926
3.0487 6.5451 2.3926
2.8215 6.6773 2.3926
2.5891 6.8024 2.3926
2.3517 6.9201 2.3926
0.8804 2.9340 0.9985
0.7744 2.9654 0.9947
0.6674 2.9930 0.9909
0.5595 3.0167 0.9870
0.4507 3.0365 0.9830
0.3413 3.0523 0.9789
0.2314 3.0642 0.9748
0.1211 3.0721 0.9707
0.0107 3.0760 0.9665
-0.0999 3.0759 0.9623
-0.2104 3.0718 0.9581
-0.3207 3.0636 0.9538
-0.4306 3.0516 0.9495
-0.5400 3.0355 0.9452
-0.6487 3.0155 0.9409
-0.7567 2.9916 0.9366
-0.8637 2.9637 0.9323
-2.4999 7.5593 2.3926
-2.7827 7.5023 2.3926
-3.0645 7.4349 2.3926
-3.3450 7.3568 2.3926
-3.6236 7.2682 2.3926
-3.9000 7.1690 2.3926
-4.1737 7.0592 2.3926
-4.4444 6.9388 2.3926
-4.7115 6.8078 2.3926
-4.9746 6.6664 2.3926
-5.2332 6.5145 2.3926
-5.4869 6.3524 2.3926
-5.7352 6.1801 2.3926
-5.9777 5.9977 2.3926
-6.2139 5.8055 2.3926
-6.4434 5.6037 2.3926
-6.6657 5.3923 2.3926
-6.8803 5.1718 2.3926
-7.0868 4.9424 2.3926
-7.2848 4.7042 2.3926
-7.4739 4.4578 2.3926
-7.6536 4.2034 2.3926
-7.8235 3.9413 2.3926
-7.9833 3.6720 2.3926
-8.1326 3.3958 2.3926
-8.2710 3.1132 2.3926
-8.3983 2.8247 2.3926
-8.5140 2.5307 2.3926
-8.6180 2.2316 2.3926
-8.7100 1.9281 2.3926
-8.7896 1.6206 2.3926
-8.8568 1.3097 2.3926
-8.9113 0.9959 2.3926
-8.9530 0.6797 2.3926
-8.9817 0.3618 2.3926
-8.9974 0.0428 2.3926
-9.0000 -0.2769 2.3926
-8.9895 -0.5965 2.3926
-8.9658 -0.9156 2.3926
-8.9290 -1.2335 2.3926
-8.8791 -1.5496 2.3926
-8.8164 -1.8634 2.3926
-8.7407 -2.1742 2.3926
-8.6524 -2.4815 2.3926
-8.5517 -2.7848 2.3926
-8.4386 -3.0834 2.3926
-8.3136 -3.3769 2.3926
-8.1767 -3.6648 2.3926
-8.0284 -3.9464 2.3926
-7.8690 -4.2215 2.3926
-7.6988 -4.4894 2.3926
-7.5181 -4.7497 2.3926
-7.3275 -5.0021 2.3926
-7.1271 -5.2461 2.3926
-6.9176 -5.4813 2.3926
-6.6993 -5.7075 2.3926
-6.4727 -5.9242 2.3926
-6.2382 -6.1312 2.3926
-5.9963 -6.3281 2.3926
-5.7475 -6.5149 2.3926
-5.4923 -6.6912 2.3926
-5.2312 -6.8568 2.3926
-4.9647 -7.0117 2.3926
-4.6932 -7.1555 2.3926
-4.4173 -7.2883 2.3926
-4.1375 -7.4099 2.3926
-3.8543 -7.5203 2.3926
-3.5681 -7.6194 2.3926
-3.2794 -7.7073 2.3926
-2.9888 -7.7838 2.3926
-2.6967 -7.8490 2.3926
-2.4035 -7.9031 2.3926
-2.1097 -7.9460 2.3926
-1.8158 -7.9778 2.3926
-1.5223 -7.9986 2.3926
-1.2293 -8.0085 2.3926
-0.9376 -8.0078 2.3926
-0.6473 -7.9964 2.3926
-0.3590 -7.9746 2.3926
-0.0730 -7.9426 2.3926
0.2105 -7.9005 2.3926
0.4909 -7.8485 2.3926
0.7681 -7.7868 2.3926
1.0415 -7.7157 2.3926
1.3111 -7.6354 2.3926
1.5765 -7.5460 2.3926
1.8374 -7.4479 2.3926
2.0934 -7.3412 2.3926
2.3445 -7.2262 2.3926
2.5904 -7.1032 2.3926
2.8308 -6.9724 2.3926
3.0654 -6.8340 2.3926
3.2943 -6.6883 2.3926
3.5170 -6.5356 2.3926
3.7335 -6.3761 2.3926
3.9436 -6.2101 2.3926
4.1471 -6.0379 2.3926
4.3439 -5.8596 2.3926
4.5339 -5.6756 2.3926
4.7169 -5.4861 2.3926
4.8928 -5.2914 2.3926
5.0616 -5.0917 2.3926
5.2230 -4.8873 2.3926
5.3771 -4.6785 2.3926
5.5237 -4.4654 2.3926
5.6628 -4.2483 2.3926
5.7942 -4.0276 2.3926
5.9181 -3.8033 2.3926
6.0342 -3.5758 2.3926
6.1425 -3.3453 2.3926
6.2430 -3.1121 2.3926
6.3357 -2.8763 2.3926
6.4205 -2.6383 2.3926
6.4974 -2.3982 2.3926
6.5664 -2.1562 2.3926
6.6274 -1.9127 2.3926
6.6805 -1.6677 2.3926
6.7256 -1.4217 2.3926
6.7628 -1.1747 2.3926
6.7920 -0.9269 2.3926
6.8132 -0.6787 2.3926
6.8264 -0.4302 2.3926
6.8317 -0.1816 2.3926
6.8291 0.0668 2.3926
6.8185 0.3149 2.3926
6.8000 0.5624 2.3926
6.7737 0.8091 2.3926
6.7395 1.0548 2.3926
6.6976 1.2993 2.3926
6.6478 1.5424 2.3926
6.5902 1.7838 2.3926
6.5250 2.0235 2.3926
6.4521 2.2610 2.3926
6.3716 2.4964 2.3926
6.2835 2.7293 2.3926
6.1878 2.9595 2.3926
6.0848 3.1868 2.3926
5.9743 3.4111 2.3926
5.8565 3.6320 2.3926
5.7315 3.8495 2.3926
5.5993 4.0632 2.3926
5.4599 4.2730 2.3926
5.3136 4.4786 2.3926
5.1603 4.6799 2.3926
5.0002 4.8766 2.3926
4.8334 5.0686 2.3926
4.6599 5.2555 2.3926
4.4800 5.4372 2.3926
4.2936 5.6135 2.3926
4.1009 5.7842 2.3926
3.9022 5.9490 2.3926
3.6974 6.1077 2.3926
3.4868 6.2601 2.3926
3.2704 6.4060 2.3926
3.0486 6.5451 2.3926
2.8214 6.6774 2.3926
2.5890 6.8025 2.3926
2.3516 6.9202 2.3926
0.8803 2.9340 0.9985
0.7744 2.9654 0.9947
0.6674 2.9930 0.9909
0.5594 3.0167 0.9870
0.4507 3.0365 0.9830
0.3413 3.0523 0.9789
0.2314 3.0642 0.9748
0.1211 3.0721 0.9707
0.0106 3.0760 0.9665
-0.1000 3.0759 0.9623
-0.2105 3.0717 0.9581
-0.3207 3.0636 0.9538
-0.4307 3.0515 0.9495
-0.5401 3.0355 0.9452
-0.6488 3.0155 0.9409
-0.7568 2.9916 0.9366
-0.8638 2.9637 0.9323
-2.5001 7.5593 2.3926
-2.7829 7.5023 2.3926
-3.0647 7.4348 2.3926
-3.3451 7.3568 2.3926
-3.6238 7.2681 2.3926
-3.9002 7.1689 2.3926
-4.1739 7.0591 2.3926
-4.4446 6.9387 2.3926
-4.7116 6.8077 2.3926
-4.9747 6.6663 2.3926
-5.2333 6.5144 2.3926
-5.4871 6.3523 2.3926
-5.7354 6.1800 2.3926
-5.9779 5.9976 2.3926
-6.2141 5.8054 2.3926
-6.4436 5.6035 2.3926
-6.6658 5.3922 2.3926
-6.8804 5.1717 2.3926
-7.0870 4.9422 2.3926
-7.2850 4.7041 2.3926
-7.4740 4.4576 2.3926
-7.6537 4.2032 2.3926
-7.8236 3.9411 2.3926
-7.9834 3.6718 2.3926
-8.1327 3.3956 2.3926
-8.2711 3.1130 2.3926
-8.3984 2.8245 2.3926
-8.5141 2.5305 2.3926
-8.6181 2.2314 2.3926
-8.7100 1.9279 2.3926
-8.7897 1.6204 2.3926
-8.8568 1.3095 2.3926
-8.9113 0.9957 2.3926
-8.9530 0.6795 2.3926
-8.9817 0.3616 2.3926
-8.9974 0.0426 2.3926
-9.0000 -0.2771 2.3926
-8.9894 -0.5967 2.3926
-8.9658 -0.9158 2.3926
-8.9289 -1.2337 2.3926
-8.8791 -1.5498 2.3926
-8.8163 -1.8636 2.3926
-8.7407 -2.1744 2.3926
-8.6524 -2.4817 2.3926
-8.5516 -2.7850 2.3926
-8.4386 -3.0836 2.3926
-8.3135 -3.3771 2.3926
-8.1766 -3.6650 2.3926
-8.0283 -3.9466 2.3926
-7.8689 -4.2216 2.3926
-7.6987 -4.4895 2.3926
-7.5180 -4.7499 2.3926
-7.3273 -5.0023 2.3926
-7.1270 -5.2462 2.3926
-6.9175 -5.4815 2.3926
-6.6992 -5.7076 2.3926
-6.4725 -5.9243 2.3926
-6.2380 -6.1313 2.3926
-5.9961 -6.3283 2.3926
-5.7474 -6.5150 2.3926
-5.4922 -6.6913 2.3926
-5.2310 -6.8569 2.3926
-4.9645 -7.0118 2.3926
-4.6930 -7.1556 2.3926
-4.4171 -7.2884 2.3926
-4.1373 -7.4100 2.3926
-3.8541 -7.5204 2.3926
-3.5679 -7.6195 2.3926
-3.2792 -7.7073 2.3926
-2.9886 -7.7838 2.3926
-2.6965 -7.8491 2.3926
-2.4033 -7.9031 2.3926
-2.1096 -7.9460 2.3926
-1.8157 -7.9778 2.3926
-1.5220 -7.9986 2.3926
-1.2292 -8.0085 2.3926
-0.9374 -8.0078 2.3926
-0.6472 -7.9964 2.3926
-0.3588 -7.9746 2.3926
-0.0746 -7.3403 2.3926
0.1874 -7.3039 2.3926
0.4468 -7.2584 2.3926
0.7034 -7.2038 2.3926
0.9567 -7.1405 2.3926
1.2066 -7.0685 2.3926
1.4527 -6.9882 2.3926
1.6949 -6.8996 2.3926
1.9327 -6.8030 2.3926
2.1661 -6.6986 2.3926
2.3948 -6.5867 2.3926
2.6185 -6.4674 2.3926
2.8370 -6.3410 2.3926
3.0503 -6.2077 2.3926
3.2579 -6.0678 2.3926
3.4599 -5.9215 2.3926
3.6561 -5.7690 2.3926
3.8462 -5.6106 2.3926
4.0302 -5.4464 2.3926
4.2078 -5.2768 2.3926
4.3791 -5.1020 2.3926
4.5438 -4.9222 2.3926
4.7019 -4.7376 2.3926
4.8532 -4.5485 2.3926
4.9977 -4.3551 2.3926
5.1353 -4.1577 2.3926
5.2659 -3.9565 2.3926
5.3894 -3.7517 2.3926
5.5057 -3.5435 2.3926
5.6149 -3.3322 2.3926
5.7169 -3.1181 2.3926
5.8115 -2.9012 2.3926
5.8988 -2.6819 2.3926
5.9787 -2.4604 2.3926
6.0512 -2.2369 2.3926
6.1163 -2.0116 2.3926
6.1740 -1.7847 2.3926
6.2242 -1.5565 2.3926
6.2669 -1.3271 2.3926
6.3021 -1.0968 2.3926
6.3299 -0.8658 2.3926
6.3501 -0.6342 2.3926
6.3628 -0.4024 2.3926
6.3681 -0.1705 2.3926
6.3659 0.0613 2.3926
6.3563 0.2928 2.3926
6.3392 0.5237 2.3926
6.3147 0.7539 2.3926
6.2828 0.9832 2.3926
6.2436 1.2113 2.3926
6.1971 1.4382 2.3926
6.1432 1.6634 2.3926
6.0821 1.8870 2.3926
6.0138 2.1085 2.3926
5.9383 2.3280 2.3926
5.8558 2.5451 2.3926
5.7661 2.7597 2.3926
5.6695 2.9715 2.3926
5.5660 3.1804 2.3926
5.4555 3.3861 2.3926
5.3383 3.5885 2.3926
5.2144 3.7873 2.3926
5.0838 3.9824 2.3926
4.9467 4.1735 2.3926
4.8031 4.3605 2.3926
4.6531 4.5431 2.3926
4.4969 4.7212 2.3926
4.3345 4.8945 2.3926
4.1661 5.0628 2.3926
3.9917 5.2260 2.3926
3.8116 5.3838 2.3926
3.6257 5.5360 2.3926
3.4344 5.6825 2.3926
3.2376 5.8230 2.3926
3.0356 5.9573 2.3926
2.8286 6.0853 2.3926
2.6166 6.2067 2.3926
2.3999 6.3214 2.3926
2.1787 6.4291 2.3926
0.8115 2.7132 0.9942
0.7135 2.7422 0.9907
0.6146 2.7677 0.9871
0.5147 2.7896 0.9835
0.4141 2.8079 0.9798
0.3130 2.8225 0.9760
0.2113 2.8334 0.9722
0.1093 2.8407 0.9684
0.0071 2.8443 0.9646
-0.0951 2.8442 0.9607
-0.1973 2.8404 0.9567
-0.2993 2.8329 0.9528
-0.4009 2.8217 0.9488
-0.5021 2.8069 0.9449
-0.6027 2.7884 0.9409
-0.7025 2.7662 0.9369
-0.8015 2.7405 0.9329
-0.8995 2.7112 0.9290
-2.5770 6.9278 2.3926
-2.8364 6.8631 2.3926
-3.0942 6.7886 2.3926
-3.3502 6.7045 2.3926
-3.6039 6.6107 2.3926
-3.8552 6.5071 2.3926
-4.1033 6.3939 2.3926
-4.3480 6.2710 2.3926
-4.5889 6.1387 2.3926
-4.8255 5.9968 2.3926
-5.0574 5.8456 2.3926
-5.2843 5.6851 2.3926
-5.5057 5.5156 2.3926
-5.7211 5.3371 2.3926
-5.9303 5.1499 2.3926
-6.1328 4.9541 2.3926
-6.3282 4.7501 2.3926
-6.5161 4.5380 2.3926
-6.6961 4.3181 2.3926
-6.8678 4.0907 2.3926
-7.0310 3.8561 2.3926
-7.1852 3.6147 2.3926
-7.3300 3.3668 2.3926
-7.4653 3.1128 2.3926
-7.5907 2.8531 2.3926
-7.7058 2.5880 2.3926
-7.8104 2.3181 2.3926
-7.9043 2.0437 2.3926
-7.9873 1.7653 2.3926
-8.0591 1.4833 2.3926
-8.1195 1.1984 2.3926
-8.1685 0.9108 2.3926
-8.2058 0.6213 2.3926
-8.2314 0.3302 2.3926
-8.2452 0.0380 2.3926
-8.2470 -0.2546 2.3926
-8.2370 -0.5472 2.3926
-8.2151 -0.8393 2.3926
-8.1813 -1.1303 2.3926
-8.1358 -1.4197 2.3926
-8.0784 -1.7069 2.3926
-8.0095 -1.9915 2.3926
-7.9291 -2.2730 2.3926
-7.8373 -2.5508 2.3926
-7.7345 -2.8244 2.3926
-7.6207 -3.0935 2.3926
-7.4962 -3.3574 2.3926
-7.3613 -3.6158 2.3926
-7.2163 -3.8683 2.3926
-7.0615 -4.1144 2.3926
-6.8971 -4.3536 2.3926
-6.7236 -4.5857 2.3926
-6.5412 -4.8103 2.3926
-6.3505 -5.0270 2.3926
-6.1516 -5.2355 2.3926
-5.9451 -5.4355 2.3926
-5.7314 -5.6267 2.3926
-5.5108 -5.8089 2.3926
-5.2839 -5.9819 2.3926
-5.0510 -6.1454 2.3926
-4.8125 -6.2993 2.3926
-4.5690 -6.4434 2.3926
-4.3208 -6.5775 2.3926
-4.0685 -6.7016 2.3926
-3.8124 -6.8155 2.3926
-3.5530 -6.9192 2.3926
-3.2908 -7.0127 2.3926
-3.0261 -7.0958 2.3926
-2.7595 -7.1687 2.3926
-2.4913 -7.2312 2.3926
-2.2220 -7.2835 2.3926
-1.9519 -7.3255 2.3926
-1.6816 -7.3573 2.3926
-1.4113 -7.3791 2.3926
-1.1415 -7.3909 2.3926
-0.8726 -7.3927 2.3926
-0.6048 -7.3848 2.3926
-0.3387 -7.3673 2.3926
-0.0744 -7.3402 2.3926
0.1876 -7.3039 2.3926
0.4470 -7.2583 2.3926
0.7035 -7.2038 2.3926
0.9569 -7.1404 2.3926
1.2067 -7.0685 2.3926
1.4529 -6.9881 2.3926
1.6950 -6.8995 2.3926
1.9329 -6.8029 2.3926
2.1663 -6.6985 2.3926
2.3949 -6.5866 2.3926
2.6186 -6.4673 2.3926
2.8372 -6.3409 2.3926
3.0504 -6.2076 2.3926
3.2581 -6.0677 2.3926
3.4601 -5.9214 2.3926
3.6562 -5.7689 2.3926
3.8463 -5.6105 2.3926
4.0303 -5.4463 2.3926
4.2079 -5.2767 2.3926
4.3792 -5.1019 2.3926
4.5439 -4.9220 2.3926
4.7020 -4.7375 2.3926
4.8533 -4.5484 2.3926
4.9978 -4.3550 2.3926
5.1354 -4.1576 2.3926
5.2660 -3.9564 2.3926
5.3895 -3.7515 2.3926
5.5058 -3.5434 2.3926
5.6150 -3.3321 2.3926
5.7169 -3.1179 2.3926
5.8116 -2.9011 2.3926
5.8988 -2.6818 2.3926
5.9788 -2.4603 2.3926
6.0513 -2.2367 2.3926
6.1164 -2.0114 2.3926
6.1740 -1.7845 2.3926
6.2242 -1.5563 2.3926
6.2669 -1.3269 2.3926
6.3021 -1.0966 2.3926
6.3299 -0.8656 2.3926
6.3501 -0.6341 2.3926
6.3628 -0.4023 2.3926
6.3681 -0.1704 2.3926
6.3659 0.0614 2.3926
6.3563 0.2929 2.3926
6.3392 0.5239 2.3926
6.3147 0.7541 2.3926
6.2828 0.9834 2.3926
6.2436 1.2115 2.3926
6.1970 1.4383 2.3926
6.1432 1.6636 2.3926
6.0821 1.8871 2.3926
6.0138 2.1087 2.3926
5.9383 2.3281 2.3926
5.8557 2.5452 2.3926
5.7661 2.7598 2.3926
5.6695 2.9716 2.3926
5.5659 3.1805 2.3926
5.4555 3.3862 2.3926
5.3382 3.5886 2.3926
5.2143 3.7874 2.3926
5.0837 3.9825 2.3926
4.9466 4.1736 2.3926
4.8030 4.3606 2.3926
4.6530 4.5432 2.3926
4.4968 4.7213 2.3926
4.3344 4.8946 2.3926
4.1660 5.0629 2.3926
3.9916 5.2261 2.3926
3.8115 5.3839 2.3926
3.6256 5.5361 2.3926
3.4342 5.6826 2.3926
3.2375 5.8231 2.3926
3.0355 5.9574 2.3926
2.8284 6.0854 2.3926
2.6165 6.2068 2.3926
2.3997 6.3214 2.3926
2.1785 6.4291 2.3926
0.8115 2.7132 0.9942
0.7135 2.7422 0.9907
0.6145 2.7677 0.9871
0.5147 2.7896 0.9835
0.4141 2.8079 0.9798
0.3129 2.8225 0.9760
0.2112 2.8335 0.9722
0.1093 2.8407 0.9684
0.0071 2.8443 0.9646
-0.0952 2.8442 0.9607
-0.1974 2.8404 0.9567
-0.2994 2.8329 0.9528
-0.4010 2.8217 0.9488
-0.5022 2.8068 0.9449
-0.6028 2.7883 0.9409
-0.7026 2.7662 0.9369
-0.8016 2.7405 0.9329
-0.8995 2.7112 0.9290
-2.5772 6.9277 2.3926
-2.8365 6.8630 2.3926
-3.0944 6.7886 2.3926
-3.3504 6.7045 2.3926
-3.6040 6.6106 2.3926
-3.8553 6.5070 2.3926
-4.1035 6.3938 2.3926
-4.3481 6.2710 2.3926
-4.5890 6.1386 2.3926
-4.8256 5.9967 2.3926
-5.0575 5.8455 2.3926
-5.2844 5.6850 2.3926
-5.5058 5.5154 2.3926
-5.7213 5.3370 2.3926
-5.9305 5.1497 2.3926
-6.1329 4.9540 2.3926
-6.3283 4.7499 2.3926
-6.5162 4.5378 2.3926
-6.6962 4.3179 2.3926
-6.8679 4.0905 2.3926
-7.0311 3.8560 2.3926
-7.1853 3.6146 2.3926
-7.3302 3.3667 2.3926
-7.4654 3.1127 2.3926
-7.5907 2.8529 2.3926
-7.7058 2.5879 2.3926
-7.8105 2.3179 2.3926
-7.9044 2.0435 2.3926
-7.9873 1.7651 2.3926
-8.0591 1.4832 2.3926
-8.1196 1.1982 2.3926
-8.1685 0.9106 2.3926
-8.2058 0.6211 2.3926
-8.2314 0.3300 2.3926
-8.2452 0.0378 2.3926
-8.2470 -0.2548 2.3926
-8.2370 -0.5474 2.3926
-8.2151 -0.8395 2.3926
-8.1813 -1.1305 2.3926
-8.1357 -1.4198 2.3926
-8.0784 -1.7071 2.3926
-8.0094 -1.9917 2.3926
-7.9290 -2.2731 2.3926
-7.8373 -2.5509 2.3926
-7.7344 -2.8246 2.3926
-7.6206 -3.0936 2.3926
-7.4961 -3.3576 2.3926
-7.3612 -3.6160 2.3926
-7.2162 -3.8685 2.3926
-7.0614 -4.1145 2.3926
-6.8970 -4.3538 2.3926
-6.7235 -4.5859 2.3926
-6.5411 -4.8104 2.3926
-6.3503 -5.0271 2.3926
-6.1515 -5.2356 2.3926
-5.9450 -5.4356 2.3926
-5.7312 -5.6268 2.3926
-5.5107 -5.8090 2.3926
-5.2837 -5.9820 2.3926
-5.0508 -6.1455 2.3926
-4.8124 -6.2994 2.3926
-4.5688 -6.4435 2.3926
-4.3207 -6.5776 2.3926
-4.0683 -6.7017 2.3926
-3.8122 -6.8156 2.3926
-3.5528 -6.9193 2.3926
-3.2906 -7.0128 2.3926
-3.0260 -7.0959 2.3926
-2.7593 -7.1687 2.3926
-2.4911 -7.2312 2.3926
-2.2218 -7.2835 2.3926
-1.9518 -7.3255 2.3926
-1.6814 -7.3574 2.3926
-1.4111 -7.3791 2.3926
-1.1413 -7.3909 2.3926
-0.8724 -7.3927 2.3926
-0.6046 -7.3848 2.3926
-0.3385 -7.3673 2.3926
-0.0758 -6.8157 2.3926
0.1675 -6.7840 2.3926
0.4085 -6.7438 2.3926
0.6471 -6.6951 2.3926
0.8828 -6.6382 2.3926
1.1154 -6.5733 2.3926
1.3447 -6.5004 2.3926
1.5704 -6.4199 2.3926
1.7922 -6.3318 2.3926
2.0100 -6.2365 2.3926
2.2235 -6.1340 2.3926
2.4325 -6.0246 2.3926
2.6368 -5.9084 2.3926
2.8362 -5.7858 2.3926
3.0306 -5.6569 2.3926
3.2197 -5.5219 2.3926
3.4034 -5.3810 2.3926
3.5816 -5.2345 2.3926
3.7541 -5.0826 2.3926
3.9208 -4.9255 2.3926
4.0816 -4.7634 2.3926
4.2363 -4.5966 2.3926
4.3848 -4.4252 2.3926
4.5271 -4.2494 2.3926
4.6630 -4.0696 2.3926
4.7925 -3.8859 2.3926
4.9154 -3.6986 2.3926
5.0317 -3.5078 2.3926
5.1414 -3.3138 2.3926
5.2443 -3.1167 2.3926
5.3404 -2.9169 2.3926
5.4297 -2.7145 2.3926
5.5121 -2.5097 2.3926
5.5876 -2.3028 2.3926
5.6562 -2.0939 2.3926
5.7178 -1.8833 2.3926
5.7723 -1.6712 2.3926
5.8198 -1.4577 2.3926
5.8603 -1.2431 2.3926
5.8938 -1.0276 2.3926
5.9202 -0.8114 2.3926
5.9395 -0.5947 2.3926
5.9518 -0.3777 2.3926
5.9570 -0.1605 2.3926
5.9552 0.0565 2.3926
5.9463 0.2733 2.3926
5.9304 0.4895 2.3926
5.9076 0.7051 2.3926
5.8777 0.9199 2.3926
5.8409 1.1335 2.3926
5.7973 1.3459 2.3926
5.7467 1.5568 2.3926
5.6893 1.7660 2.3926
5.6251 1.9735 2.3926
5.5542 2.1788 2.3926
5.4765 2.3820 2.3926
5.3923 2.5827 2.3926
5.3014 2.7808 2.3926
5.2040 2.9760 2.3926
5.1002 3.1683 2.3926
4.9900 3.3574 2.3926
4.8734 3.5431 2.3926
4.7507 3.7252 2.3926
4.6218 3.9035 2.3926
4.4869 4.0779 2.3926
4.3460 4.2481 2.3926
4.1992 4.4140 2.3926
4.0467 4.5754 2.3926
3.8886 4.7320 2.3926
3.7249 4.8837 2.3926
3.5559 5.0303 2.3926
3.3816 5.1716 2.3926
3.2021 5.3074 2.3926
3.0177 5.4376 2.3926
2.8285 5.5619 2.3926
2.6345 5.6802 2.3926
2.4361 5.7922 2.3926
2.2333 5.8979 2.3926
0.8415 2.4903 0.9936
0.7515 2.5205 0.9904
0.6604 2.5475 0.9871
0.5684 2.5712 0.9838
0.4757 2.5915 0.9804
0.3822 2.6084 0.9770
0.2882 2.6220 0.9735
0.1938 2.6322 0.9700
0.0990 2.6389 0.9664
0.0041 2.6423 0.9628
-0.0909 2.6421 0.9592
-0.1859 2.6386 0.9556
-0.2806 2.6316 0.9519
-0.3751 2.6212 0.9482
-0.4691 2.6074 0.9446
-0.5625 2.5902 0.9409
-0.6553 2.5697 0.9372
-0.7472 2.5458 0.9335
-0.8383 2.5186 0.9298
-0.9283 2.4881 0.9261
-2.6380 6.3659 2.3926
-2.8763 6.2950 2.3926
-3.1129 6.2151 2.3926
-3.3472 6.1262 2.3926
-3.5789 6.0284 2.3926
-3.8077 5.9217 2.3926
-4.0332 5.8062 2.3926
-4.2550 5.6819 2.3926
-4.4728 5.5490 2.3926
-4.6861 5.4075 2.3926
-4.8947 5.2575 2.3926
-5.0981 5.0993 2.3926
-5.2959 4.9329 2.3926
-5.4879 4.7585 2.3926
-5.6736 4.5764 2.3926
-5.8526 4.3868 2.3926
-6.0247 4.1898 2.3926
-6.1895 3.9858 2.3926
-6.3466 3.7750 2.3926
-6.4958 3.5576 2.3926
-6.6367 3.3342 2.3926
-6.7690 3.1048 2.3926
-6.8924 2.8699 2.3926
-7.0068 2.6299 2.3926
-7.1117 2.3850 2.3926
-7.2070 2.1358 2.3926
-7.2925 1.8826 2.3926
-7.3680 1.6257 2.3926
-7.4332 1.3657 2.3926
-7.4880 1.1030 2.3926
-7.5324 0.8380 2.3926
-7.5661 0.5712 2.3926
-7.5891 0.3030 2.3926
-7.6013 0.0339 2.3926
-7.6026 -0.2356 2.3926
-7.5931 -0.5051 2.3926
-7.5728 -0.7740 2.3926
-7.5416 -1.0420 2.3926
-7.4996 -1.3085 2.3926
-7.4469 -1.5730 2.3926
-7.3837 -1.8352 2.3926
-7.3099 -2.0945 2.3926
-7.2258 -2.3505 2.3926
-7.1316 -2.6027 2.3926
-7.0274 -2.8507 2.3926
-6.9134 -3.0942 2.3926
-6.7898 -3.3326 2.3926
-6.6570 -3.5657 2.3926
-6.5152 -3.7929 2.3926
-6.3646 -4.0140 2.3926
-6.2056 -4.2286 2.3926
-6.0385 -4.4364 2.3926
-5.8636 -4.6370 2.3926
-5.6813 -4.8302 2.3926
-5.4919 -5.0157 2.3926
-5.2958 -5.1932 2.3926
-5.0934 -5.3625 2.3926
-4.8850 -5.5234 2.3926
-4.6711 -5.6757 2.3926
-4.4519 -5.8192 2.3926
-4.2281 -5.9537 2.3926
-3.9998 -6.0792 2.3926
-3.7676 -6.1955 2.3926
-3.5318 -6.3025 2.3926
-3.2929 -6.4002 2.3926
-3.0512 -6.4884 2.3926
-2.8071 -6.5672 2.3926
-2.5611 -6.6365 2.3926
-2.3135 -6.6963 2.3926
-2.0647 -6.7467 2.3926
-1.8151 -6.7876 2.3926
-1.5651 -6.8192 2.3926
-1.3150 -6.8414 2.3926
-1.0652 -6.8544 2.3926
-0.8160 -6.8582 2.3926
-0.5678 -6.8529 2.3926
-0.3210 -6.8387 2.3926
-0.0757 -6.8157 2.3926
0.1676 -6.7840 2.3926
0.4087 -6.7437 2.3926
0.6472 -6.6951 2.3926
0.8829 -6.6382 2.3926
1.1156 -6.5732 2.3926
1.3448 -6.5004 2.3926
1.5705 -6.4198 2.3926
1.7924 -6.3318 2.3926
2.0101 -6.2364 2.3926
2.2236 -6.1339 2.3926
2.4326 -6.0245 2.3926
2.6369 -5.9083 2.3926
2.8363 -5.7857 2.3926
3.0307 -5.6568 2.3926
3.2198 -5.5218 2.3926
3.4035 -5.3809 2.3926
3.5817 -5.2344 2.3926
3.7542 -5.0825 2.3926
3.9209 -4.9254 2.3926
4.0817 -4.7633 2.3926
4.2364 -4.5964 2.3926
4.3849 -4.4250 2.3926
4.5272 -4.2493 2.3926
4.6631 -4.0695 2.3926
4.7925 -3.8858 2.3926
4.9155 -3.6984 2.3926
5.0318 -3.5076 2.3926
5.1414 -3.3136 2.3926
5.2444 -3.1166 2.3926
5.3405 -2.9168 2.3926
5.4298 -2.7143 2.3926
5.5122 -2.5096 2.3926
5.5877 -2.3026 2.3926
5.6562 -2.0938 2.3926
5.7178 -1.8832 2.3926
5.7724 -1.6710 2.3926
5.8199 -1.4576 2.3926
5.8604 -1.2430 2.3926
5.8938 -1.0275 2.3926
5.9202 -0.8113 2.3926
5.9395 -0.5945 2.3926
5.9518 -0.3775 2.3926
5.9570 -0.1604 2.3926
5.9551 0.0567 2.3926
5.9463 0.2734 2.3926
5.9304 0.4897 2.3926
5.9075 0.7053 2.3926
5.8777 0.9200 2.3926
5.8409 1.1336 2.3926
5.7972 1.3460 2.3926
5.7466 1.5569 2.3926
5.6892 1.7662 2.3926
5.6251 1.9736 2.3926
5.5541 2.1790 2.3926
5.4765 2.3821 2.3926
5.3922 2.5828 2.3926
5.3013 2.7809 2.3926
5.2039 2.9762 2.3926
5.1001 3.1684 2.3926
4.9899 3.3575 2.3926
4.8734 3.5432 2.3926
4.7506 3.7253 2.3926
4.6217 3.9037 2.3926
4.4868 4.0780 2.3926
4.3459 4.2483 2.3926
4.1991 4.4141 2.3926
4.0466 4.5755 2.3926
3.8885 4.7321 2.3926
3.7248 4.8838 2.3926
3.5558 5.0304 2.3926
3.3815 5.1717 2.3926
3.2020 5.3075 2.3926
3.0176 5.4377 2.3926
2.8283 5.5620 2.3926
2.6344 5.6802 2.3926
2.4360 5.7923 2.3926
2.2332 5.8979 2.3926
0.8414 2.4903 0.9936
0.7514 2.5206 0.9904
0.6603 2.5475 0.9871
0.5684 2.5712 0.9838
0.4756 2.5915 0.9804
0.3821 2.6085 0.9770
0.2881 2.6220 0.9735
0.1937 2.6322 0.9700
0.0989 2.6389 0.9664
0.0040 2.6423 0.9628
-0.0910 2.6421 0.9592
-0.1859 2.6386 0.9556
-0.2807 2.6316 0.9519
-0.3751 2.6212 0.9482
-0.4691 2.6074 0.9445
-0.5626 2.5902 0.9409
-0.6553 2.5697 0.9372
-0.7473 2.5458 0.9335
-0.8383 2.5186 0.9298
-0.9283 2.4881 0.9261
-2.6381 6.3659 2.3926
-2.8765 6.2949 2.3926
-3.1130 6.2150 2.3926
-3.3473 6.1261 2.3926
-3.5791 6.0283 2.3926
-3.8079 5.9216 2.3926
-4.0333 5.8061 2.3926
-4.2552 5.6818 2.3926
-4.4729 5.5489 2.3926
-4.6863 5.4074 2.3926
-4.8948 5.2574 2.3926
-5.0982 5.0992 2.3926
-5.2960 4.9328 2.3926
-5.4880 4.7584 2.3926
-5.6737 4.5763 2.3926
-5.8527 4.3866 2.3926
-6.0248 4.1897 2.3926
-6.1896 3.9856 2.3926
-6.3467 3.7748 2.3926
-6.4959 3.5575 2.3926
-6.6367 3.3340 2.3926
-6.7691 3.1046 2.3926
-6.8925 2.8698 2.3926
-7.0068 2.6297 2.3926
-7.1118 2.3849 2.3926
-7.2071 2.1356 2.3926
-7.2926 1.8824 2.3926
-7.3680 1.6256 2.3926
-7.4332 1.3656 2.3926
-7.4881 1.1029 2.3926
-7.5324 0.8378 2.3926
-7.5661 0.5710 2.3926
-7.5891 0.3028 2.3926
-7.6013 0.0338 2.3926
-7.6026 -0.2358 2.3926
-7.5931 -0.5052 2.3926
-7.5727 -0.7742 2.3926
-7.5416 -1.0421 2.3926
-7.4996 -1.3086 2.3926
-7.4469 -1.5732 2.3926
-7.3836 -1.8353 2.3926
-7.3099 -2.0946 2.3926
-7.2258 -2.3506 2.3926
-7.1315 -2.6029 2.3926
-7.0273 -2.8509 2.3926
-6.9133 -3.0944 2.3926
-6.7897 -3.3328 2.3926
-6.6569 -3.5658 2.3926
-6.5151 -3.7931 2.3926
-6.3645 -4.0142 2.3926
-6.2055 -4.2287 2.3926
-6.0384 -4.4365 2.3926
-5.8635 -4.6371 2.3926
-5.6812 -4.8303 2.3926
-5.4918 -5.0158 2.3926
-5.2957 -5.1933 2.3926
-5.0933 -5.3626 2.3926
-4.8849 -5.5235 2.3926
-4.6709 -5.6757 2.3926
-4.4518 -5.8192 2.3926
-4.2279 -5.9538 2.3926
-3.9997 -6.0793 2.3926
-3.7674 -6.1956 2.3926
-3.5317 -6.3026 2.3926
-3.2927 -6.4002 2.3926
-3.0510 -6.4884 2.3926
-2.8070 -6.5672 2.3926
-2.5609 -6.6365 2.3926
-2.3133 -6.6964 2.3926
-2.0646 -6.7467 2.3926
-1.8150 -6.7877 2.3926
-1.5649 -6.8192 2.3926
-1.3148 -6.8414 2.3926
-1.0650 -6.8544 2.3926
-0.8159 -6.8582 2.3926
-0.5677 -6.8529 2.3926
-0.3208 -6.8387 2.3926
-0.0770 -6.3544 2.3926
0.1499 -6.3265 2.3926
0.3748 -6.2906 2.3926
0.5975 -6.2469 2.3926
0.8176 -6.1955 2.3926
1.0350 -6.1364 2.3926
1.2493 -6.0700 2.3926
1.4605 -5.9964 2.3926
1.6681 -5.9156 2.3926
1.8720 -5.8280 2.3926
2.0720 -5.7336 2.3926
2.2679 -5.6327 2.3926
2.4595 -5.5255 2.3926
2.6466 -5.4121 2.3926
2.8290 -5.2927 2.3926
3.0067 -5.1676 2.3926
3.1793 -5.0369 2.3926
3.3468 -4.9009 2.3926
3.5091 -4.7597 2.3926
3.6659 -4.6135 2.3926
3.8172 -4.4626 2.3926
3.9629 -4.3071 2.3926
4.1029 -4.1473 2.3926
4.2370 -3.9834 2.3926
4.3651 -3.8155 2.3926
4.4872 -3.6440 2.3926
4.6033 -3.4689 2.3926
4.7131 -3.2905 2.3926
4.8166 -3.1090 2.3926
4.9139 -2.9246 2.3926
5.0048 -2.7375 2.3926
5.0892 -2.5479 2.3926
5.1672 -2.3561 2.3926
5.2387 -2.1621 2.3926
5.3036 -1.9663 2.3926
5.3619 -1.7688 2.3926
5.4137 -1.5698 2.3926
5.4587 -1.3695 2.3926
5.4972 -1.1681 2.3926
5.5290 -0.9658 2.3926
5.5541 -0.7628 2.3926
5.5726 -0.5593 2.3926
5.5844 -0.3555 2.3926
5.5895 -0.1516 2.3926
5.5880 0.0523 2.3926
5.5798 0.2559 2.3926
5.5650 0.4590 2.3926
5.5436 0.6615 2.3926
5.5156 0.8632 2.3926
5.4810 1.0639 2.3926
5.4399 1.2634 2.3926
5.3922 1.4615 2.3926
5.3382 1.6580 2.3926
5.2777 1.8527 2.3926
5.2108 2.0455 2.3926
5.1377 2.2362 2.3926
5.0582 2.4245 2.3926
4.9725 2.6104 2.3926
4.8807 2.7936 2.3926
4.7828 2.9738 2.3926
4.6789 3.1511 2.3926
4.5691 3.3251 2.3926
4.4534 3.4957 2.3926
4.3319 3.6627 2.3926
4.2048 3.8259 2.3926
4.0720 3.9851 2.3926
3.9338 4.1402 2.3926
3.7902 4.2910 2.3926
3.6413 4.4372 2.3926
3.4873 4.5788 2.3926
3.3282 4.7155 2.3926
3.1643 4.8472 2.3926
2.9955 4.9737 2.3926
2.8221 5.0948 2.3926
2.6443 5.2103 2.3926
2.4621 5.3201 2.3926
2.2757 5.4240 2.3926
0.8654 2.2915 0.9929
0.7825 2.3227 0.9900
0.6985 2.3509 0.9870
0.6136 2.3760 0.9840
0.5278 2.3981 0.9809
0.4413 2.4170 0.9777
0.3541 2.4328 0.9745
0.2664 2.4455 0.9713
0.1783 2.4549 0.9680
0.0899 2.4612 0.9647
0.0014 2.4643 0.9613
-0.0873 2.4642 0.9580
-0.1758 2.4609 0.9546
-0.2642 2.4544 0.9512
-0.3523 2.4447 0.9477
-0.4400 2.4318 0.9443
-0.5271 2.4158 0.9408
-0.6137 2.3966 0.9374
-0.6994 2.3743 0.9339
-0.7844 2.3489 0.9305
-0.8683 2.3205 0.9271
-2.4637 5.9293 2.3926
-2.6851 5.8617 2.3926
-2.9046 5.7857 2.3926
-3.1220 5.7014 2.3926
-3.3368 5.6089 2.3926
-3.5488 5.5082 2.3926
-3.7577 5.3993 2.3926
-3.9630 5.2824 2.3926
-4.1645 5.1574 2.3926
-4.3617 5.0246 2.3926
-4.5544 4.8840 2.3926
-4.7423 4.7359 2.3926
-4.9249 4.5802 2.3926
-5.1020 4.4172 2.3926
-5.2732 4.2472 2.3926
-5.4383 4.0702 2.3926
-5.5968 3.8866 2.3926
-5.7485 3.6965 2.3926
-5.8931 3.5002 2.3926
-6.0303 3.2981 2.3926
-6.1598 3.0902 2.3926
-6.2814 2.8771 2.3926
-6.3948 2.6589 2.3926
-6.4997 2.4360 2.3926
-6.5960 2.2088 2.3926
-6.6834 1.9776 2.3926
-6.7617 1.7428 2.3926
-6.8308 1.5047 2.3926
-6.8904 1.2638 2.3926
-6.9405 1.0204 2.3926
-6.9810 0.7749 2.3926
-7.0117 0.5278 2.3926
-7.0325 0.2795 2.3926
-7.0434 0.0304 2.3926
-7.0443 -0.2191 2.3926
-7.0353 -0.4685 2.3926
-7.0163 -0.7174 2.3926
-6.9874 -0.9655 2.3926
-6.9486 -1.2121 2.3926
-6.8999 -1.4570 2.3926
-6.8415 -1.6997 2.3926
-6.7735 -1.9398 2.3926
-6.6960 -2.1769 2.3926
-6.6092 -2.4105 2.3926
-6.5131 -2.6404 2.3926
-6.4081 -2.8660 2.3926
-6.2943 -3.0871 2.3926
-6.1719 -3.3032 2.3926
-6.0413 -3.5141 2.3926
-5.9025 -3.7193 2.3926
-5.7560 -3.9186 2.3926
-5.6020 -4.1117 2.3926
-5.4408 -4.2983 2.3926
-5.2727 -4.4780 2.3926
-5.0980 -4.6508 2.3926
-4.9171 -4.8162 2.3926
-4.7303 -4.9741 2.3926
-4.5379 -5.1243 2.3926
-4.3403 -5.2667 2.3926
-4.1379 -5.4010 2.3926
-3.9310 -5.5270 2.3926
-3.7199 -5.6448 2.3926
-3.5051 -5.7540 2.3926
-3.2869 -5.8548 2.3926
-3.0657 -5.9469 2.3926
-2.8418 -6.0304 2.3926
-2.6157 -6.1051 2.3926
-2.3876 -6.1711 2.3926
-2.1579 -6.2283 2.3926
-1.9270 -6.2767 2.3926
-1.6953 -6.3165 2.3926
-1.4630 -6.3475 2.3926
-1.2306 -6.3699 2.3926
-0.9982 -6.3836 2.3926
-0.7664 -6.3889 2.3926
-0.5353 -6.3857 2.3926
-0.3054 -6.3742 2.3926
-0.0768 -6.3544 2.3926
0.1501 -6.3265 2.3926
0.3750 -6.2906 2.3926
0.5976 -6.2469 2.3926
0.8178 -6.1954 2.3926
1.0351 -6.1364 2.3926
1.2495 -6.0700 2.3926
1.4606 -5.9963 2.3926
1.6682 -5.9156 2.3926
1.8721 -5.8279 2.3926
2.0721 -5.7336 2.3926
2.2680 -5.6327 2.3926
2.4596 -5.5254 2.3926
2.6467 -5.4120 2.3926
2.8292 -5.2926 2.3926
3.0068 -5.1675 2.3926
3.1794 -5.0368 2.3926
3.3469 -4.9008 2.3926
3.5092 -4.7596 2.3926
3.6660 -4.6134 2.3926
3.8173 -4.4625 2.3926
3.9630 -4.3070 2.3926
4.1030 -4.1472 2.3926
4.2371 -3.9833 2.3926
4.3652 -3.8154 2.3926
4.4873 -3.6439 2.3926
4.6033 -3.4688 2.3926
4.7131 -3.2904 2.3926
4.8167 -3.1089 2.3926
4.9140 -2.9245 2.3926
5.0048 -2.7374 2.3926
5.0893 -2.5478 2.3926
5.1672 -2.3560 2.3926
5.2387 -2.1620 2.3926
5.3036 -1.9662 2.3926
5.3619 -1.7687 2.3926
5.4137 -1.5697 2.3926
5.4588 -1.3694 2.3926
5.4972 -1.1680 2.3926
5.5290 -0.9657 2.3926
5.5542 -0.7627 2.3926
5.5726 -0.5592 2.3926
5.5844 -0.3554 2.3926
5.5895 -0.1515 2.3926
5.5880 0.0524 2.3926
5.5798 0.2560 2.3926
5.5650 0.4592 2.3926
5.5435 0.6617 2.3926
5.5155 0.8634 2.3926
5.4809 1.0640 2.3926
5.4398 1.2635 2.3926
5.3922 1.4616 2.3926
5.3382 1.6581 2.3926
5.2777 1.8528 2.3926
5.2108 2.0456 2.3926
5.1376 2.2363 2.3926
5.0582 2.4247 2.3926
4.9725 2.6105 2.3926
4.8807 2.7937 2.3926
4.7828 2.9740 2.3926
4.6789 3.1512 2.3926
4.5690 3.3252 2.3926
4.4533 3.4958 2.3926
4.3318 3.6628 2.3926
4.2047 3.8260 2.3926
4.0719 3.9852 2.3926
3.9337 4.1403 2.3926
3.7901 4.2911 2.3926
3.6412 4.4373 2.3926
3.4872 4.5789 2.3926
3.3281 4.7156 2.3926
3.1642 4.8473 2.3926
2.9954 4.9738 2.3926
2.8220 5.0948 2.3926
2.6442 5.2104 2.3926
2.4620 5.3202 2.3926
2.2756 5.4241 2.3926
0.8654 2.2915 0.9929
0.7825 2.3227 0.9900
0.6985 2.3509 0.9870
0.6136 2.3760 0.9840
0.5278 2.3981 0.9809
0.4412 2.4170 0.9777
0.3540 2.4328 0.9745
0.2663 2.4455 0.9713
0.1782 2.4549 0.9680
0.0898 2.4612 0.9647
0.0013 2.4643 0.9613
-0.0873 2.4642 0.9580
-0.1759 2.4609 0.9546
-0.2643 2.4544 0.9511
-0.3524 2.4447 0.9477
-0.4400 2.4318 0.9443
-0.5272 2.4157 0.9408
-0.6137 2.3966 0.9374
-0.6995 2.3743 0.9339
-0.7844 2.3489 0.9305
-0.8683 2.3205 0.9271
-2.4639 5.9293 2.3926
-2.6853 5.8616 2.3926
-2.9048 5.7856 2.3926
-3.1221 5.7014 2.3926
-3.3370 5.6089 2.3926
-3.5490 5.5081 2.3926
-3.7578 5.3992 2.3926
-3.9631 5.2823 2.3926
-4.1646 5.1573 2.3926
-4.3618 5.0245 2.3926
-4.5545 4.8840 2.3926
-4.7424 4.7358 2.3926
-4.9250 4.5801 2.3926
-5.1021 4.4171 2.3926
-5.2733 4.2471 2.3926
-5.4384 4.0701 2.3926
-5.5969 3.8865 2.3926
-5.7486 3.6964 2.3926
-5.8932 3.5001 2.3926
-6.0304 3.2979 2.3926
-6.1599 3.0901 2.3926
-6.2815 2.8769 2.3926
-6.3948 2.6587 2.3926
-6.4998 2.4359 2.3926
-6.5960 2.2087 2.3926
-6.6834 1.9774 2.3926
-6.7617 1.7426 2.3926
-6.8308 1.5045 2.3926
-6.8905 1.2636 2.3926
-6.9406 1.0202 2.3926
-6.9810 0.7747 2.3926
-7.0117 0.5277 2.3926
-7.0325 0.2794 2.3926
-7.0434 0.0302 2.3926
-7.0443 -0.2192 2.3926
-7.0353 -0.4687 2.3926
-7.0163 -0.7176 2.3926
-6.9874 -0.9656 2.3926
-6.9485 -1.2123 2.3926
-6.8999 -1.4572 2.3926
-6.8415 -1.6999 2.3926
-6.7735 -1.9400 2.3926
-6.6960 -2.1770 2.3926
-6.6091 -2.4107 2.3926
-6.5130 -2.6405 2.3926
-6.4080 -2.8662 2.3926
-6.2942 -3.0872 2.3926
-6.1719 -3.3034 2.3926
-6.0412 -3.5142 2.3926
-5.9025 -3.7194 2.3926
-5.7559 -3.9188 2.3926
-5.6019 -4.1118 2.3926
-5.4407 -4.2984 2.3926
-5.2726 -4.4782 2.3926
-5.0979 -4.6509 2.3926
-4.9170 -4.8163 2.3926
-4.7302 -4.9742 2.3926
-4.5378 -5.1244 2.3926
-4.3402 -5.2668 2.3926
-4.1378 -5.4010 2.3926
-3.9308 -5.5271 2.3926
-3.7198 -5.6448 2.3926
-3.5050 -5.7541 2.3926
-3.2868 -5.8548 2.3926
-3.0656 -5.9470 2.3926
-2.8417 -6.0304 2.3926
-2.6155 -6.1051 2.3926
-2.3874 -6.1711 2.3926
-2.1578 -6.2283 2.3926
-1.9269 -6.2768 2.3926
-1.6951 -6.3165 2.3926
-1.4629 -6.3475 2.3926
-1.2304 -6.3699 2.3926
-0.9981 -6.3836 2.3926
-0.7663 -6.3889 2.3926
-0.5352 -6.3857 2.3926
-0.3052 -6.3741 2.3926
-0.0779 -5.9451 2.3926
0.1344 -5.9204 2.3926
0.3449 -5.8882 2.3926
0.5534 -5.8487 2.3926
0.7597 -5.8019 2.3926
0.9635 -5.7479 2.3926
1.1645 -5.6870 2.3926
1.3626 -5.6193 2.3926
1.5575 -5.5449 2.3926
1.7490 -5.4640 2.3926
1.9370 -5.3767 2.3926
2.1211 -5.2832 2.3926
2.3013 -5.1838 2.3926
2.4773 -5.0785 2.3926
2.6491 -4.9675 2.3926
2.8163 -4.8511 2.3926
2.9790 -4.7293 2.3926
3.1369 -4.6025 2.3926
3.2898 -4.4707 2.3926
3.4378 -4.3343 2.3926
3.5806 -4.1933 2.3926
3.7181 -4.0479 2.3926
3.8503 -3.8984 2.3926
3.9769 -3.7450 2.3926
4.0981 -3.5877 2.3926
4.2135 -3.4270 2.3926
4.3233 -3.2628 2.3926
4.4272 -3.0955 2.3926
4.5252 -2.9252 2.3926
4.6172 -2.7521 2.3926
4.7033 -2.5764 2.3926
4.7834 -2.3983 2.3926
4.8572 -2.2180 2.3926
4.9250 -2.0357 2.3926
4.9866 -1.8516 2.3926
5.0420 -1.6658 2.3926
5.0911 -1.4786 2.3926
5.1340 -1.2902 2.3926
5.1706 -1.1006 2.3926
5.2008 -0.9102 2.3926
5.2248 -0.7191 2.3926
5.2424 -0.5275 2.3926
5.2538 -0.3356 2.3926
5.2588 -0.1436 2.3926
5.2575 0.0484 2.3926
5.2499 0.2402 2.3926
5.2361 0.4315 2.3926
5.2159 0.6223 2.3926
5.1896 0.8123 2.3926
5.1570 1.0013 2.3926
5.1182 1.1891 2.3926
5.0733 1.3757 2.3926
5.0222 1.5607 2.3926
4.9651 1.7441 2.3926
4.9019 1.9256 2.3926
4.8327 2.1050 2.3926
4.7577 2.2823 2.3926
4.6767 2.4571 2.3926
4.5899 2.6294 2.3926
4.4974 2.7990 2.3926
4.3993 2.9656 2.3926
4.2955 3.1291 2.3926
4.1862 3.2894 2.3926
4.0714 3.4462 2.3926
3.9514 3.5994 2.3926
3.8260 3.7488 2.3926
3.6955 3.8943 2.3926
3.5599 4.0356 2.3926
3.4194 4.1727 2.3926
3.2741 4.3053 2.3926
3.1240 4.4332 2.3926
2.9694 4.5563 2.3926
2.8103 4.6745 2.3926
2.6469 4.7876 2.3926
2.4793 4.8953 2.3926
2.3077 4.9977 2.3926
0.8842 2.1126 0.9922
0.8077 2.1446 0.9895
0.7301 2.1738 0.9868
0.6515 2.2001 0.9840
0.5720 2.2236 0.9812
0.4917 2.2443 0.9783
0.4107 2.2620 0.9753
0.3291 2.2768 0.9724
0.2470 2.2886 0.9693
0.1646 2.2975 0.9662
0.0818 2.3033 0.9631
-0.0011 2.3062 0.9600
-0.0840 2.3061 0.9568
-0.1669 2.3030 0.9537
-0.2496 2.2969 0.9505
-0.3321 2.2878 0.9473
-0.4141 2.2758 0.9440
-0.4957 2.2608 0.9408
-0.5767 2.2428 0.9376
-0.6570 2.2220 0.9344
-0.7365 2.1982 0.9311
-0.8150 2.1716 0.9279
-0.8926 2.1422 0.9248
-2.5158 5.4779 2.3926
-2.7203 5.4056 2.3926
-2.9228 5.3256 2.3926
-3.1228 5.2380 2.3926
-3.3200 5.1427 2.3926
-3.5143 5.0399 2.3926
-3.7051 4.9296 2.3926
-3.8923 4.8119 2.3926
-4.0755 4.6869 2.3926
-4.2544 4.5547 2.3926
-4.4287 4.4156 2.3926
-4.5981 4.2695 2.3926
-4.7622 4.1167 2.3926
-4.9209 3.9574 2.3926
-5.0737 3.7917 2.3926
-5.2204 3.6199 2.3926
-5.3608 3.4422 2.3926
-5.4945 3.2588 2.3926
-5.6214 3.0700 2.3926
-5.7411 2.8760 2.3926
-5.8534 2.6772 2.3926
-5.9580 2.4737 2.3926
-6.0548 2.2660 2.3926
-6.1436 2.0542 2.3926
-6.2242 1.8389 2.3926
-6.2964 1.6202 2.3926
-6.3599 1.3986 2.3926
-6.4148 1.1744 2.3926
-6.4609 0.9479 2.3926
-6.4980 0.7196 2.3926
-6.5261 0.4898 2.3926
-6.5450 0.2589 2.3926
-6.5549 0.0273 2.3926
-6.5555 -0.2046 2.3926
-6.5469 -0.4365 2.3926
-6.5292 -0.6679 2.3926
-6.5022 -0.8985 2.3926
-6.4661 -1.1278 2.3926
-6.4210 -1.3555 2.3926
-6.3669 -1.5811 2.3926
-6.3038 -1.8044 2.3926
-6.2320 -2.0249 2.3926
-6.1516 -2.2422 2.3926
-6.0627 -2.4561 2.3926
-5.9655 -2.6661 2.3926
-5.8601 -2.8719 2.3926
-5.7469 -3.0732 2.3926
-5.6259 -3.2697 2.3926
-5.4974 -3.4610 2.3926
-5.3618 -3.6468 2.3926
-5.2191 -3.8269 2.3926
-5.0698 -4.0011 2.3926
-4.9140 -4.1690 2.3926
-4.7522 -4.3304 2.3926
-4.5845 -4.4851 2.3926
-4.4113 -4.6329 2.3926
-4.2328 -4.7736 2.3926
-4.0495 -4.9071 2.3926
-3.8616 -5.0331 2.3926
-3.6695 -5.1515 2.3926
-3.4735 -5.2623 2.3926
-3.2740 -5.3652 2.3926
-3.0712 -5.4603 2.3926
-2.8655 -5.5473 2.3926
-2.6572 -5.6264 2.3926
-2.4468 -5.6973 2.3926
-2.2344 -5.7602 2.3926
-2.0205 -5.8149 2.3926
-1.8054 -5.8615 2.3926
-1.5893 -5.8999 2.3926
-1.3727 -5.9303 2.3926
-1.1558 -5.9526 2.3926
-0.9390 -5.9668 2.3926
-0.7224 -5.9731 2.3926
-0.5065 -5.9716 2.3926
-0.2916 -5.9622 2.3926
-0.0778 -5.9451 2.3926
0.1345 -5.9204 2.3926
0.3450 -5.8882 2.3926
0.5536 -5.8487 2.3926
0.7598 -5.8018 2.3926
0.9636 -5.7479 2.3926
1.1647 -5.6870 2.3926
1.3627 -5.6193 2.3926
1.5576 -5.5448 2.3926
1.7491 -5.4639 2.3926
1.9371 -5.3766 2.3926
2.1212 -5.2832 2.3926
2.3014 -5.1837 2.3926
2.4774 -5.0784 2.3926
2.6492 -4.9674 2.3926
2.8164 -4.8510 2.3926
2.9791 -4.7292 2.3926
3.1370 -4.6024 2.3926
3.2899 -4.4707 2.3926
3.4379 -4.3342 2.3926
3.5807 -4.1932 2.3926
3.7182 -4.0478 2.3926
3.8504 -3.8983 2.3926
3.9770 -3.7449 2.3926
4.0981 -3.5877 2.3926
4.2136 -3.4269 2.3926
4.3233 -3.2627 2.3926
4.4272 -3.0954 2.3926
4.5252 -2.9251 2.3926
4.6173 -2.7520 2.3926
4.7034 -2.5763 2.3926
4.7834 -2.3982 2.3926
4.8573 -2.2179 2.3926
4.9251 -2.0356 2.3926
4.9867 -1.8515 2.3926
5.0420 -1.6657 2.3926
5.0911 -1.4785 2.3926
5.1340 -1.2900 2.3926
5.1706 -1.1005 2.3926
5.2008 -0.9101 2.3926
5.2248 -0.7190 2.3926
5.2424 -0.5274 2.3926
5.2538 -0.3355 2.3926
5.2588 -0.1434 2.3926
5.2575 0.0486 2.3926
5.2499 0.2403 2.3926
5.2361 0.4317 2.3926
5.2159 0.6224 2.3926
5.1895 0.8124 2.3926
5.1569 1.0014 2.3926
5.1182 1.1892 2.3926
5.0732 1.3758 2.3926
5.0221 1.5608 2.3926
4.9650 1.7442 2.3926
4.9019 1.9257 2.3926
4.8327 2.1051 2.3926
4.7576 2.2824 2.3926
4.6767 2.4572 2.3926
4.5899 2.6295 2.3926
4.4974 2.7991 2.3926
4.3992 2.9657 2.3926
4.2954 3.1292 2.3926
4.1861 3.2895 2.3926
4.0714 3.4463 2.3926
3.9513 3.5995 2.3926
3.8259 3.7489 2.3926
3.6954 3.8944 2.3926
3.5598 4.0357 2.3926
3.4193 4.1728 2.3926
3.2740 4.3053 2.3926
3.1239 4.4333 2.3926
2.9693 4.5564 2.3926
2.8102 4.6746 2.3926
2.6468 4.7876 2.3926
2.4792 4.8954 2.3926
2.3076 4.9977 2.3926
0.8842 2.1127 0.9922
0.8077 2.1446 0.9895
0.7301 2.1738 0.9868
0.6515 2.2002 0.9840
0.5720 2.2237 0.9812
0.4917 2.2443 0.9783
0.4107 2.2620 0.9753
0.3291 2.2768 0.9724
0.2470 2.2886 0.9693
0.1645 2.2975 0.9662
0.0818 2.3034 0.9631
-0.0011 2.3062 0.9600
-0.0841 2.3061 0.9568
-0.1669 2.3030 0.9537
-0.2497 2.2969 0.9505
-0.3321 2.2878 0.9473
-0.4142 2.2758 0.9440
-0.4958 2.2608 0.9408
-0.5768 2.2428 0.9376
-0.6570 2.2219 0.9344
-0.7365 2.1982 0.9311
-0.8151 2.1716 0.9279
-0.8926 2.1422 0.9248
-2.5159 5.4779 2.3926
-2.7204 5.4056 2.3926
-2.9229 5.3256 2.3926
-3.1229 5.2379 2.3926
-3.3202 5.1426 2.3926
-3.5144 5.0398 2.3926
-3.7053 4.9295 2.3926
-3.8924 4.8118 2.3926
-4.0756 4.6868 2.3926
-4.2545 4.5546 2.3926
-4.4288 4.4155 2.3926
-4.5982 4.2694 2.3926
-4.7623 4.1166 2.3926
-4.9209 3.9573 2.3926
-5.0738 3.7916 2.3926
-5.2205 3.6198 2.3926
-5.3609 3.4421 2.3926
-5.4946 3.2587 2.3926
-5.6215 3.0699 2.3926
-5.7411 2.8759 2.3926
-5.8534 2.6770 2.3926
-5.9581 2.4736 2.3926
-6.0549 2.2658 2.3926
-6.1437 2.0541 2.3926
-6.2243 1.8387 2.3926
-6.2964 1.6201 2.3926
-6.3600 1.3985 2.3926
-6.4148 1.1742 2.3926
-6.4609 0.9478 2.3926
-6.4980 0.7195 2.3926
-6.5261 0.4897 2.3926
-6.5450 0.2588 2.3926
-6.5549 0.0272 2.3926
-6.5555 -0.2048 2.3926
-6.5469 -0.4367 2.3926
-6.5291 -0.6681 2.3926
-6.5022 -0.8986 2.3926
-6.4661 -1.1280 2.3926
-6.4210 -1.3556 2.3926
-6.3668 -1.5813 2.3926
-6.3038 -1.8046 2.3926
-6.2320 -2.0250 2.3926
-6.1515 -2.2424 2.3926
-6.0626 -2.4562 2.3926
-5.9654 -2.6662 2.3926
-5.8601 -2.8721 2.3926
-5.7468 -3.0733 2.3926
-5.6258 -3.2698 2.3926
-5.4973 -3.4611 2.3926
-5.3617 -3.6469 2.3926
-5.2190 -3.8270 2.3926
-5.0697 -4.0012 2.3926
-4.9139 -4.1691 2.3926
-4.7521 -4.3305 2.3926
-4.5843 -4.4852 2.3926
-4.4111 -4.6330 2.3926
-4.2327 -4.7737 2.3926
-4.0494 -4.9072 2.3926
-3.8615 -5.0332 2.3926
-3.6694 -5.1516 2.3926
-3.4734 -5.2623 2.3926
-3.2738 -5.3653 2.3926
-3.0710 -5.4603 2.3926
-2.8653 -5.5474 2.3926
-2.6571 -5.6264 2.3926
-2.4466 -5.6974 2.3926
-2.2343 -5.7602 2.3926
-2.0204 -5.8149 2.3926
-1.8052 -5.8615 2.3926
-1.5892 -5.8999 2.3926
-1.3726 -5.9303 2.3926
-1.1557 -5.9526 2.3926
-0.9388 -5.9668 2.3926
-0.7223 -5.9731 2.3926
-0.5064 -5.9716 2.3926
-0.2914 -5.9622 2.3926
-0.0788 -5.5792 2.3926
0.1204 -5.5572 2.3926
0.3181 -5.5282 2.3926
0.5140 -5.4922 2.3926
0.7078 -5.4493 2.3926
0.8994 -5.3998 2.3926
1.0885 -5.3437 2.3926
1.2748 -5.2811 2.3926
1.4583 -5.2123 2.3926
1.6387 -5.1372 2.3926
1.8157 -5.0562 2.3926
1.9892 -4.9693 2.3926
2.1591 -4.8767 2.3926
2.3252 -4.7785 2.3926
2.4872 -4.6750 2.3926
2.6451 -4.5662 2.3926
2.7987 -4.4525 2.3926
2.9478 -4.3338 2.3926
3.0924 -4.2105 2.3926
3.2322 -4.0827 2.3926
3.3673 -3.9505 2.3926
3.4974 -3.8142 2.3926
3.6224 -3.6739 2.3926
3.7423 -3.5298 2.3926
3.8570 -3.3822 2.3926
3.9664 -3.2311 2.3926
4.0704 -3.0768 2.3926
4.1689 -2.9194 2.3926
4.2618 -2.7591 2.3926
4.3492 -2.5962 2.3926
4.4308 -2.4308 2.3926
4.5068 -2.2631 2.3926
4.5770 -2.0932 2.3926
4.6414 -1.9214 2.3926
4.6999 -1.7478 2.3926
4.7525 -1.5727 2.3926
4.7992 -1.3961 2.3926
4.8400 -1.2184 2.3926
4.8749 -1.0396 2.3926
4.9037 -0.8599 2.3926
4.9266 -0.6796 2.3926
4.9435 -0.4987 2.3926
4.9544 -0.3176 2.3926
4.9593 -0.1363 2.3926
4.9582 0.0450 2.3926
4.9512 0.2260 2.3926
4.9381 0.4066 2.3926
4.9192 0.5867 2.3926
4.8943 0.7661 2.3926
4.8635 0.9445 2.3926
4.8268 1.1219 2.3926
4.7843 1.2980 2.3926
4.7360 1.4726 2.3926
4.6819 1.6457 2.3926
4.6221 1.8169 2.3926
4.5567 1.9862 2.3926
4.4856 2.1535 2.3926
4.4089 2.3184 2.3926
4.3267 2.4808 2.3926
4.2392 2.6407 2.3926
4.1462 2.7977 2.3926
4.0479 2.9518 2.3926
3.9445 3.1028 2.3926
3.8359 3.2505 2.3926
3.7222 3.3947 2.3926
3.6036 3.5353 2.3926
3.4801 3.6721 2.3926
3.3518 3.8049 2.3926
3.2190 3.9337 2.3926
3.0815 4.0582 2.3926
2.9397 4.1783 2.3926
2.7935 4.2938 2.3926
2.6432 4.4046 2.3926
2.4888 4.5104 2.3926
2.3305 4.6113 2.3926
2.1685 4.7070 2.3926
0.8279 1.9831 0.9890
0.7561 2.0131 0.9865
0.6833 2.0405 0.9840
0.6095 2.0652 0.9814
0.5348 2.0873 0.9787
0.4594 2.1066 0.9760
0.3834 2.1233 0.9732
0.3068 2.1371 0.9704
0.2297 2.1482 0.9676
0.1523 2.1565 0.9647
0.0746 2.1620 0.9618
-0.0032 2.1647 0.9588
-0.0811 2.1646 0.9558
-0.1589 2.1617 0.9529
-0.2366 2.1560 0.9499
-0.3140 2.1475 0.9468
-0.3910 2.1361 0.9438
-0.4676 2.1221 0.9408
-0.5436 2.1052 0.9378
-0.6190 2.0856 0.9347
-0.6936 2.0633 0.9317
-0.7674 2.0384 0.9287
-0.8402 2.0107 0.9257
-0.9119 1.9805 0.9227
-2.5559 5.0665 2.3926
-2.7451 4.9904 2.3926
-2.9319 4.9073 2.3926
-3.1162 4.8170 2.3926
-3.2975 4.7197 2.3926
-3.4755 4.6154 2.3926
-3.6501 4.5043 2.3926
-3.8209 4.3864 2.3926
-3.9876 4.2619 2.3926
-4.1499 4.1309 2.3926
-4.3077 3.9935 2.3926
-4.4604 3.8498 2.3926
-4.6080 3.7001 2.3926
-4.7502 3.5446 2.3926
-4.8866 3.3834 2.3926
-5.0170 3.2167 2.3926
-5.1412 3.0448 2.3926
-5.2590 2.8679 2.3926
-5.3701 2.6862 2.3926
-5.4742 2.5001 2.3926
-5.5713 2.3097 2.3926
-5.6610 2.1154 2.3926
-5.7433 1.9174 2.3926
-5.8179 1.7161 2.3926
-5.8847 1.5118 2.3926
-5.9435 1.3048 2.3926
-5.9942 1.0954 2.3926
-6.0367 0.8839 2.3926
-6.0710 0.6708 2.3926
-6.0968 0.4562 2.3926
-6.1142 0.2407 2.3926
-6.1231 0.0246 2.3926
-6.1235 -0.1919 2.3926
-6.1154 -0.4082 2.3926
-6.0987 -0.6242 2.3926
-6.0735 -0.8393 2.3926
-6.0399 -1.0533 2.3926
-5.9978 -1.2657 2.3926
-5.9474 -1.4764 2.3926
-5.8888 -1.6847 2.3926
-5.8220 -1.8906 2.3926
-5.7472 -2.0935 2.3926
-5.6645 -2.2932 2.3926
-5.5741 -2.4894 2.3926
-5.4762 -2.6817 2.3926
-5.3709 -2.8698 2.3926
-5.2584 -3.0534 2.3926
-5.1390 -3.2324 2.3926
-5.0129 -3.4062 2.3926
-4.8802 -3.5748 2.3926
-4.7413 -3.7379 2.3926
-4.5964 -3.8952 2.3926
-4.4458 -4.0466 2.3926
-4.2897 -4.1917 2.3926
-4.1284 -4.3304 2.3926
-3.9623 -4.4626 2.3926
-3.7915 -4.5881 2.3926
-3.6165 -4.7067 2.3926
-3.4375 -4.8182 2.3926
-3.2547 -4.9226 2.3926
-3.0686 -5.0198 2.3926
-2.8794 -5.1097 2.3926
-2.6875 -5.1921 2.3926
-2.4930 -5.2671 2.3926
-2.2965 -5.3346 2.3926
-2.0981 -5.3945 2.3926
-1.8982 -5.4468 2.3926
-1.6970 -5.4915 2.3926
-1.4949 -5.5287 2.3926
-1.2922 -5.5582 2.3926
-1.0892 -5.5803 2.3926
-0.8860 -5.5948 2.3926
-0.6832 -5.6019 2.3926
-0.4808 -5.6016 2.3926
-0.2792 -5.5940 2.3926
-0.0787 -5.5792 2.3926
0.1205 -5.5572 2.3926
0.3182 -5.5281 2.3926
0.5141 -5.4921 2.3926
0.7079 -5.4493 2.3926
0.8995 -5.3998 2.3926
1.0886 -5.3437 2.3926
1.2750 -5.2811 2.3926
1.4584 -5.2122 2.3926
1.6388 -5.1372 2.3926
1.8158 -5.0561 2.3926
1.9893 -4.9692 2.3926
2.1592 -4.8766 2.3926
2.3253 -4.7784 2.3926
2.4873 -4.6749 2.3926
2.6452 -4.5662 2.3926
2.7988 -4.4524 2.3926
2.9479 -4.3337 2.3926
3.0925 -4.2104 2.3926
3.2323 -4.0826 2.3926
3.3673 -3.9504 2.3926
3.4974 -3.8141 2.3926
3.6225 -3.6738 2.3926
3.7424 -3.5297 2.3926
3.8571 -3.3821 2.3926
3.9665 -3.2310 2.3926
4.0705 -3.0767 2.3926
4.1689 -2.9193 2.3926
4.2619 -2.7590 2.3926
4.3492 -2.5961 2.3926
4.4309 -2.4307 2.3926
4.5068 -2.2630 2.3926
4.5770 -2.0931 2.3926
4.6414 -1.9213 2.3926
4.6999 -1.7477 2.3926
4.7526 -1.5726 2.3926
4.7993 -1.3960 2.3926
4.8401 -1.2182 2.3926
4.8749 -1.0394 2.3926
4.9037 -0.8598 2.3926
4.9266 -0.6794 2.3926
4.9435 -0.4986 2.3926
4.9544 -0.3175 2.3926
4.9593 -0.1362 2.3926
4.9582 0.0451 2.3926
4.9512 0.2261 2.3926
4.9381 0.4068 2.3926
4.9192 0.5869 2.3926
4.8943 0.7662 2.3926
4.8635 0.9446 2.3926
4.8268 1.1220 2.3926
4.7843 1.2981 2.3926
4.7360 1.4727 2.3926
4.6819 1.6458 2.3926
4.6221 1.8170 2.3926
4.5566 1.9864 2.3926
4.4855 2.1536 2.3926
4.4089 2.3185 2.3926
4.3267 2.4810 2.3926
4.2391 2.6408 2.3926
4.1461 2.7978 2.3926
4.0479 2.9519 2.3926
3.9444 3.1029 2.3926
3.8358 3.2505 2.3926
3.7221 3.3948 2.3926
3.6035 3.5354 2.3926
3.4800 3.6722 2.3926
3.3518 3.8050 2.3926
3.2189 3.9338 2.3926
3.0814 4.0583 2.3926
2.9396 4.1784 2.3926
2.7934 4.2939 2.3926
2.6431 4.4046 2.3926
2.4887 4.5105 2.3926
2.3304 4.6114 2.3926
2.1684 4.7070 2.3926
0.8279 1.9831 0.9890
0.7561 2.0131 0.9865
0.6832 2.0405 0.9840
0.6094 2.0652 0.9814
0.5348 2.0873 0.9787
0.4594 2.1066 0.9760
0.3833 2.1233 0.9732
0.3067 2.1371 0.9704
0.2296 2.1482 0.9676
0.1522 2.1565 0.9647
0.0746 2.1620 0.9618
-0.0033 2.1647 0.9588
-0.0811 2.1646 0.9558
-0.1589 2.1617 0.9529
-0.2366 2.1560 0.9499
-0.3140 2.1475 0.9468
-0.3911 2.1361 0.9438
-0.4676 2.1220 0.9408
-0.5437 2.1052 0.9378
-0.6190 2.0856 0.9347
-0.6937 2.0633 0.9317
-0.7674 2.0383 0.9287
-0.8402 2.0107 0.9257
-0.9120 1.9805 0.9227
-2.5560 5.0664 2.3926
-2.7452 4.9904 2.3926
-2.9321 4.9072 2.3926
-3.1163 4.8169 2.3926
-3.2976 4.7196 2.3926
-3.4757 4.6154 2.3926
-3.6502 4.5042 2.3926
-3.8210 4.3864 2.3926
-3.9877 4.2618 2.3926
-4.1500 4.1308 2.3926
-4.3077 3.9934 2.3926
-4.4605 3.8497 2.3926
-4.6081 3.7000 2.3926
-4.7502 3.5445 2.3926
-4.8867 3.3833 2.3926
-5.0171 3.2166 2.3926
-5.1413 3.0447 2.3926
-5.2590 2.8678 2.3926
-5.3701 2.6861 2.3926
-5.4743 2.4999 2.3926
-5.5713 2.3096 2.3926
-5.6611 2.1153 2.3926
-5.7433 1.9173 2.3926
-5.8179 1.7160 2.3926
-5.8847 1.5117 2.3926
