ply
format ascii 1.0
element vertex 2168
property float32 x
property float32 y
property float32 z
end_header
7.6913 -0.2416 2.2484
7.6845 0.0352 2.2486
7.6681 0.3112 2.2488
7.6422 0.5861 2.2489
7.6069 0.8596 2.2492
5.4320 0.8127 1.6157
5.3788 1.0039 1.6116
7.4409 1.6679 2.2486
7.3665 1.9321 2.2481
7.2880 2.1948 2.2492
7.2008 2.4545 2.2504
7.1047 2.7110 2.2515
6.9999 2.9640 2.2527
6.8835 3.2117 2.2529
6.7582 3.4548 2.2529
6.6247 3.6934 2.2529
6.4832 3.9270 2.2529
6.3339 4.1556 2.2529
6.1769 4.3787 2.2529
6.0124 4.5963 2.2529
5.8407 4.8080 2.2529
5.6618 5.0136 2.2529
5.4761 5.2129 2.2529
5.2831 5.4051 2.2526
5.0835 5.5903 2.2523
4.8777 5.7685 2.2519
4.6659 5.9395 2.2516
4.4485 6.1030 2.2512
4.2255 6.2590 2.2508
3.9974 6.4073 2.2504
3.7643 6.5476 2.2500
3.5264 6.6799 2.2496
3.2842 6.8039 2.2492
3.0378 6.9196 2.2487
2.7874 7.0267 2.2483
2.5335 7.1253 2.2478
2.2764 7.2155 2.2476
0.8884 3.2153 0.9902
0.7722 3.2458 0.9897
0.6549 3.2721 0.9890
0.5368 3.2942 0.9883
0.4179 3.3119 0.9876
0.2985 3.3254 0.9868
0.1786 3.3345 0.9859
0.0585 3.3393 0.9850
-0.0617 3.3398 0.9840
-0.1819 3.3358 0.9829
-0.3019 3.3276 0.9818
-0.4215 3.3150 0.9807
-0.5405 3.2981 0.9795
-0.6589 3.2769 0.9782
-0.7764 3.2515 0.9769
-0.8929 3.2218 0.9756
-2.4840 7.8536 2.4000
-2.7690 7.7713 2.4000
-3.0515 7.6790 2.4000
-3.3310 7.5768 2.4000
-3.6072 7.4646 2.4000
-3.8797 7.3426 2.4000
-4.1481 7.2109 2.4000
-4.4122 7.0696 2.4000
-4.6716 6.9189 2.4000
-4.9260 6.7588 2.4000
-5.1749 6.5895 2.4000
-5.4181 6.4112 2.4000
-5.6553 6.2241 2.4000
-5.8860 6.0283 2.4000
-6.1101 5.8241 2.4000
-6.3271 5.6117 2.4000
-6.5367 5.3912 2.4000
-6.7386 5.1630 2.4000
-6.9327 4.9273 2.4000
-7.1184 4.6844 2.4000
-7.2956 4.4345 2.4000
-7.4639 4.1779 2.4000
-7.6232 3.9150 2.4000
-7.7732 3.6460 2.4000
-7.9135 3.3713 2.4000
-8.0440 3.0913 2.4000
-8.1644 2.8061 2.4000
-8.2745 2.5164 2.4000
-8.3742 2.2223 2.3999
-8.4632 1.9243 2.3999
-8.5414 1.6227 2.3999
-8.6085 1.3180 2.3999
-8.6645 1.0106 2.3999
-8.7093 0.7009 2.3999
-8.7426 0.3893 2.3999
-8.7645 0.0763 2.3999
-8.7748 -0.2378 2.3999
-8.7735 -0.5525 2.3999
-8.7604 -0.8673 2.3999
-8.7357 -1.1818 2.3999
-8.6993 -1.4956 2.3999
-8.6512 -1.8081 2.3999
-8.5914 -2.1190 2.3999
-8.5200 -2.4277 2.3999
-8.4370 -2.7339 2.3999
-8.3425 -3.0370 2.3999
-8.2367 -3.3367 2.3999
-8.1196 -3.6324 2.3999
-7.9914 -3.9238 2.3999
-7.8522 -4.2104 2.3999
-7.7023 -4.4917 2.3999
-7.5418 -4.7674 2.3999
-7.3710 -5.0370 2.3999
-7.1901 -5.3001 2.3999
-6.9992 -5.5563 2.3999
-6.7988 -5.8052 2.3999
-6.5891 -6.0465 2.3999
-6.3704 -6.2798 2.3999
-6.1430 -6.5047 2.3999
-5.9073 -6.7208 2.3999
-5.6635 -6.9280 2.3999
-5.4121 -7.1258 2.3999
-5.1534 -7.3140 2.3999
-4.8879 -7.4922 2.3999
-4.6158 -7.6603 2.3999
-4.3377 -7.8180 2.3999
-4.0540 -7.9650 2.3999
-3.7649 -8.1012 2.3999
-3.4711 -8.2263 2.3999
-3.1730 -8.3403 2.3999
-2.8709 -8.4429 2.3999
-2.5654 -8.5340 2.3999
-2.2568 -8.6135 2.3999
-1.9458 -8.6813 2.3999
-1.6326 -8.7374 2.3999
-1.3179 -8.7817 2.3999
-1.0019 -8.8141 2.3999
-0.6853 -8.8346 2.3999
-0.3685 -8.8434 2.3999
-0.0519 -8.8402 2.3999
0.2641 -8.8254 2.3999
0.5789 -8.7988 2.3999
0.8921 -8.7605 2.3999
1.2033 -8.7107 2.3999
1.5121 -8.6495 2.3999
1.8180 -8.5770 2.3999
2.1205 -8.4934 2.3999
2.4194 -8.3988 2.3999
2.7141 -8.2934 2.3999
3.0044 -8.1774 2.3999
3.2897 -8.0510 2.3999
3.5698 -7.9145 2.3999
3.8443 -7.7680 2.3999
4.1128 -7.6118 2.3999
4.3750 -7.4462 2.3999
4.6306 -7.2715 2.3999
4.8793 -7.0879 2.3999
5.1207 -6.8957 2.3999
5.3546 -6.6952 2.3999
5.5807 -6.4868 2.3999
5.7987 -6.2707 2.3999
6.0085 -6.0473 2.3999
6.2097 -5.8169 2.3999
-2.5969 7.1518 2.4000
-2.8567 7.0644 2.4000
-3.1136 6.9678 2.4000
-3.3673 6.8621 2.4000
-3.6175 6.7474 2.4000
-3.8638 6.6238 2.4000
-4.1061 6.4913 2.4000
-4.3438 6.3502 2.4000
-4.5768 6.2005 2.4000
-4.8047 6.0424 2.4000
-5.0272 5.8761 2.4000
-5.2440 5.7017 2.4000
-5.4548 5.5194 2.4000
-5.6593 5.3292 2.4000
-5.8572 5.1319 2.4000
-6.0482 4.9271 2.4000
-6.2321 4.7153 2.4000
-6.4085 4.4967 2.4000
-6.5773 4.2715 2.4000
-6.7381 4.0400 2.4000
-6.8907 3.8025 2.4000
-7.0349 3.5593 2.4000
-7.1704 3.3106 2.4000
-7.2970 3.0568 2.4000
-7.4145 2.7981 2.4000
-7.5227 2.5350 2.4000
-7.6213 2.2677 2.3999
-7.7104 1.9965 2.3999
-7.7895 1.7219 2.3999
-7.8587 1.4442 2.3999
-7.9178 1.1637 2.3999
-7.9666 0.8809 2.3999
-8.0051 0.5961 2.3999
-8.0330 0.3096 2.3999
-8.0505 0.0220 2.3999
-8.0573 -0.2664 2.3999
-8.0535 -0.5553 2.3999
-8.0390 -0.8441 2.3999
-8.0138 -1.1326 2.3999
-7.9778 -1.4202 2.3999
-7.9312 -1.7066 2.3999
-7.8739 -1.9914 2.3999
-7.8060 -2.2741 2.3999
-7.7275 -2.5543 2.3999
-7.6386 -2.8317 2.3999
-7.5393 -3.1058 2.3999
-7.4298 -3.3761 2.3999
-7.3101 -3.6424 2.3999
-7.1805 -3.9043 2.3999
-7.0411 -4.1612 2.3999
-6.8921 -4.4129 2.3999
-6.7337 -4.6589 2.3999
-6.5660 -4.8989 2.3999
-6.3895 -5.1326 2.3999
-6.2042 -5.3595 2.3999
-6.0105 -5.5794 2.3999
-5.8086 -5.7920 2.3999
-5.5988 -5.9968 2.3999
-5.3815 -6.1936 2.3999
-5.1569 -6.3821 2.3999
-4.9254 -6.5620 2.3999
-4.6873 -6.7332 2.3999
-4.4430 -6.8952 2.3999
-4.1928 -7.0479 2.3999
-3.9371 -7.1911 2.3999
-3.6762 -7.3245 2.3999
-3.4107 -7.4480 2.3999
-3.1408 -7.5614 2.3999
-2.8670 -7.6646 2.3999
-2.5896 -7.7574 2.3999
-2.3092 -7.8397 2.3999
-2.0260 -7.9114 2.3999
-1.7405 -7.9724 2.3999
-1.4532 -8.0226 2.3999
-1.1644 -8.0621 2.3999
-0.8745 -8.0908 2.3999
-0.5841 -8.1086 2.3999
-0.2935 -8.1156 2.3999
-0.0031 -8.1117 2.3999
0.2867 -8.0971 2.3999
0.5754 -8.0718 2.3999
0.8627 -8.0359 2.3999
1.1481 -7.9894 2.3999
1.4313 -7.9324 2.3999
1.7118 -7.8651 2.3999
1.9893 -7.7877 2.3999
2.2635 -7.7001 2.3999
2.5338 -7.6027 2.3999
2.8000 -7.4956 2.3999
3.0618 -7.3789 2.3999
3.3187 -7.2529 2.3999
3.5705 -7.1179 2.3999
3.8169 -6.9739 2.3999
4.0575 -6.8212 2.3999
4.2920 -6.6601 2.3999
4.5201 -6.4910 2.3999
4.7417 -6.3140 2.3999
4.9563 -6.1293 2.3999
5.1638 -5.9373 2.3999
5.3639 -5.7383 2.3999
5.5564 -5.5325 2.3999
5.7411 -5.3202 2.3999
5.9178 -5.1018 2.3999
6.0862 -4.8776 2.3999
6.2463 -4.6479 2.3999
6.3978 -4.4130 2.3999
6.5406 -4.1732 2.3999
6.6745 -3.9289 2.3999
6.7995 -3.6803 2.3999
6.9154 -3.4279 2.3999
7.0221 -3.1719 2.3999
7.1195 -2.9128 2.3999
7.2075 -2.6507 2.3999
7.2862 -2.3861 2.3999
7.3553 -2.1194 2.3999
7.4149 -1.8507 2.3999
6.9910 -1.4801 2.2475
7.0295 -1.2261 2.2477
7.0590 -0.9712 2.2479
7.0795 -0.7157 2.2481
7.0911 -0.4600 2.2482
7.0937 -0.2044 2.2484
7.0875 0.0509 2.2486
7.0723 0.3055 2.2488
7.0484 0.5591 2.2489
7.0156 0.8115 2.2491
5.4185 0.8253 1.7475
5.3850 1.0198 1.7494
6.8637 1.5577 2.2490
6.7926 1.8010 2.2479
6.7180 2.0428 2.2483
6.6371 2.2823 2.2494
6.5480 2.5189 2.2504
6.4507 2.7521 2.2515
6.3454 2.9817 2.2525
6.2305 3.2066 2.2529
6.1069 3.4267 2.2529
5.9759 3.6423 2.2529
5.8376 3.8531 2.2529
5.6923 4.0590 2.2529
5.5400 4.2596 2.2529
5.3806 4.4546 2.2527
5.2143 4.6436 2.2525
5.0417 4.8267 2.2522
4.8630 5.0036 2.2519
4.6783 5.1743 2.2515
4.4879 5.3384 2.2512
4.2919 5.4958 2.2509
4.0907 5.6464 2.2505
3.8844 5.7899 2.2502
3.6733 5.9263 2.2498
3.4577 6.0553 2.2494
3.2377 6.1768 2.2490
3.0136 6.2906 2.2486
2.7856 6.3967 2.2482
2.5541 6.4949 2.2478
2.3194 6.5854 2.2476
0.9140 2.9277 0.9867
0.8081 2.9593 0.9862
0.7011 2.9870 0.9857
0.5932 3.0108 0.9851
0.4844 3.0308 0.9845
0.3750 3.0468 0.9838
0.2651 3.0588 0.9830
0.1548 3.0669 0.9822
0.0443 3.0709 0.9814
-0.0663 3.0710 0.9805
-0.1768 3.0671 0.9795
-0.2871 3.0592 0.9785
-0.3971 3.0473 0.9774
-0.5065 3.0314 0.9763
-0.6153 3.0116 0.9751
-0.7234 2.9879 0.9739
-0.8305 2.9603 0.9727
-2.3137 7.2358 2.4000
-2.5761 7.1584 2.4000
-2.8361 7.0717 2.4000
-3.0932 6.9759 2.4000
-3.3472 6.8709 2.4000
-3.5977 6.7569 2.4000
-3.8444 6.6339 2.4000
-4.0869 6.5022 2.4000
-4.3251 6.3617 2.4000
-4.5584 6.2127 2.4000
-4.7867 6.0553 2.4000
-5.0097 5.8896 2.4000
-5.2269 5.7159 2.4000
-5.4382 5.5342 2.4000
-5.6432 5.3448 2.4000
-5.8417 5.1479 2.4000
-6.0333 4.9437 2.4000
-6.2177 4.7324 2.4000
-6.3948 4.5144 2.4000
-6.5641 4.2897 2.4000
-6.7256 4.0587 2.4000
-6.8789 3.8217 2.4000
-7.0237 3.5789 2.4000
-7.1599 3.3306 2.4000
-7.2872 3.0772 2.4000
-7.4054 2.8189 2.4000
-7.5144 2.5561 2.4000
-7.6138 2.2891 2.3999
-7.7036 2.0183 2.3999
-7.7836 1.7439 2.3999
-7.8536 1.4664 2.3999
-7.9135 1.1862 2.3999
-7.9631 0.9035 2.3999
-8.0024 0.6188 2.3999
-8.0312 0.3325 2.3999
-8.0495 0.0450 2.3999
-8.0572 -0.2434 2.3999
-8.0542 -0.5323 2.3999
-8.0405 -0.8211 2.3999
-8.0162 -1.1096 2.3999
-7.9811 -1.3974 2.3999
-7.9353 -1.6839 2.3999
-7.8789 -1.9688 2.3999
-7.8118 -2.2517 2.3999
-7.7342 -2.5321 2.3999
-7.6461 -2.8097 2.3999
-7.5476 -3.0841 2.3999
-7.4389 -3.3548 2.3999
-7.3200 -3.6214 2.3999
-7.1912 -3.8836 2.3999
-7.0526 -4.1409 2.3999
-6.9043 -4.3930 2.3999
-6.7466 -4.6395 2.3999
-6.5797 -4.8800 2.3999
-6.4039 -5.1142 2.3999
-6.2193 -5.3417 2.3999
-6.0262 -5.5622 2.3999
-5.8250 -5.7753 2.3999
-5.6158 -5.9807 2.3999
-5.3991 -6.1782 2.3999
-5.1750 -6.3674 2.3999
-4.9441 -6.5480 2.3999
-4.7065 -6.7199 2.3999
-4.4626 -6.8826 2.3999
-4.2129 -7.0361 2.3999
-3.9576 -7.1800 2.3999
-3.6972 -7.3142 2.3999
-3.4320 -7.4385 2.3999
-3.1625 -7.5528 2.3999
-2.8889 -7.6568 2.3999
-2.6118 -7.7504 2.3999
-2.3316 -7.8335 2.3999
-2.0486 -7.9060 2.3999
-1.7633 -7.9679 2.3999
-1.4761 -8.0190 2.3999
-1.1874 -8.0594 2.3999
-0.8976 -8.0889 2.3999
-0.6072 -8.1076 2.3999
-0.3166 -8.1154 2.3999
-0.0262 -8.1124 2.3999
0.2637 -8.0987 2.3999
0.5525 -8.0742 2.3999
0.8399 -8.0391 2.3999
1.1255 -7.9935 2.3999
1.4088 -7.9373 2.3999
1.6896 -7.8709 2.3999
1.9674 -7.7942 2.3999
2.2417 -7.7075 2.3999
2.5124 -7.6108 2.3999
2.7790 -7.5044 2.3999
3.0411 -7.3885 2.3999
3.2984 -7.2633 2.3999
3.5507 -7.1290 2.3999
3.7975 -6.9857 2.3999
4.0385 -6.8337 2.3999
4.2735 -6.6733 2.3999
4.5022 -6.5048 2.3999
4.7243 -6.3284 2.3999
4.9395 -6.1443 2.3999
5.1475 -5.9529 2.3999
5.3482 -5.7544 2.3999
5.5414 -5.5491 2.3999
5.7267 -5.3374 2.3999
5.9040 -5.1195 2.3999
6.0731 -4.8957 2.3999
6.2338 -4.6664 2.3999
6.3860 -4.4319 2.3999
6.5295 -4.1925 2.3999
6.6642 -3.9485 2.3999
6.7899 -3.7003 2.3999
6.9065 -3.4481 2.3999
7.0139 -3.1925 2.3999
7.1120 -2.9335 2.3999
7.2009 -2.6717 2.3999
7.2802 -2.4073 2.3999
7.3501 -2.1407 2.3999
7.4105 -1.8722 2.3999
6.9876 -1.5003 2.2475
7.0267 -1.2463 2.2477
7.0569 -0.9915 2.2479
7.0782 -0.7361 2.2480
7.0905 -0.4804 2.2482
7.0939 -0.2247 2.2484
7.0883 0.0306 2.2486
7.0739 0.2852 2.2487
7.0506 0.5389 2.2489
7.0186 0.7914 2.2491
5.4332 0.8116 1.7514
5.3785 1.0026 1.7462
6.8695 1.5383 2.2493
6.7983 1.7816 2.2479
6.7241 2.0236 2.2482
6.6439 2.2634 2.2493
6.5554 2.5001 2.2504
6.4588 2.7336 2.2514
6.3541 2.9636 2.2524
6.2400 3.1888 2.2529
6.1170 3.4093 2.2529
5.9866 3.6253 2.2529
5.8489 3.8365 2.2529
5.7041 4.0428 2.2529
5.5524 4.2439 2.2529
5.3936 4.4393 2.2528
5.2278 4.6288 2.2525
5.0557 4.8123 2.2522
4.8774 4.9898 2.2519
4.6932 5.1609 2.2516
4.5032 5.3255 2.2512
4.3077 5.4835 2.2509
4.1069 5.6347 2.2506
3.9010 5.7788 2.2502
3.6903 5.9157 2.2498
3.4750 6.0453 2.2495
3.2553 6.1674 2.2491
3.0316 6.2818 2.2487
2.8039 6.3885 2.2483
2.5727 6.4874 2.2479
2.3382 6.5784 2.2476
0.9224 2.9250 0.9868
0.8166 2.9569 0.9863
0.7097 2.9849 0.9858
0.6018 3.0091 0.9852
0.4931 3.0293 0.9845
0.3838 3.0456 0.9839
0.2739 3.0580 0.9831
0.1636 3.0664 0.9823
0.0531 3.0708 0.9814
-0.0574 3.0712 0.9805
-0.1680 3.0676 0.9796
-0.2783 3.0600 0.9786
-0.3883 3.0484 0.9775
-0.4978 3.0328 0.9764
-0.6067 3.0133 0.9752
-0.7148 2.9899 0.9740
-0.8220 2.9626 0.9728
-2.2927 7.2416 2.4000
-2.5553 7.1649 2.4000
-2.8155 7.0790 2.4000
-3.0728 6.9838 2.4000
-3.3271 6.8796 2.4000
-3.5778 6.7663 2.4000
-3.8249 6.6441 2.4000
-4.0678 6.5130 2.4000
-4.3063 6.3732 2.4000
-4.5400 6.2249 2.4000
-4.7687 6.0682 2.4000
-4.9921 5.9031 2.4000
-5.2099 5.7300 2.4000
-5.4216 5.5489 2.4000
-5.6271 5.3602 2.4000
-5.8261 5.1639 2.4000
-6.0183 4.9602 2.4000
-6.2033 4.7495 2.4000
-6.3809 4.5320 2.4000
-6.5509 4.3078 2.4000
-6.7130 4.0773 2.4000
-6.8670 3.8408 2.4000
-7.0125 3.5984 2.4000
-7.1494 3.3506 2.4000
-7.2774 3.0975 2.4000
-7.3964 2.8397 2.4000
-7.5060 2.5772 2.4000
-7.6063 2.3105 2.3999
-7.6968 2.0400 2.3999
-7.7776 1.7659 2.3999
-7.8484 1.4886 2.3999
-7.9091 1.2086 2.3999
-7.9595 0.9261 2.3999
-7.9996 0.6416 2.3999
-8.0293 0.3554 2.3999
-8.0484 0.0679 2.3999
-8.0570 -0.2204 2.3999
-8.0548 -0.5093 2.3999
-8.0420 -0.7981 2.3999
-8.0185 -1.0867 2.3999
-7.9843 -1.3745 2.3999
-7.9394 -1.6611 2.3999
-7.8838 -1.9462 2.3999
-7.8175 -2.2292 2.3999
-7.7408 -2.5099 2.3999
-7.6535 -2.7877 2.3999
-7.5558 -3.0623 2.3999
-7.4479 -3.3333 2.3999
-7.3299 -3.6003 2.3999
-7.2018 -3.8629 2.3999
-7.0640 -4.1206 2.3999
-6.9165 -4.3731 2.3999
-6.7595 -4.6201 2.3999
-6.5933 -4.8611 2.3999
-6.4182 -5.0958 2.3999
-6.2343 -5.3238 2.3999
-6.0419 -5.5449 2.3999
-5.8413 -5.7586 2.3999
-5.6327 -5.9647 2.3999
-5.4166 -6.1628 2.3999
-5.1931 -6.3526 2.3999
-4.9627 -6.5340 2.3999
-4.7256 -6.7065 2.3999
-4.4823 -6.8700 2.3999
-4.2330 -7.0242 2.3999
-3.9781 -7.1689 2.3999
-3.7181 -7.3039 2.3999
-3.4533 -7.4290 2.3999
-3.1841 -7.5440 2.3999
-2.9109 -7.6489 2.3999
-2.6340 -7.7433 2.3999
-2.3540 -7.8273 2.3999
-2.0712 -7.9007 2.3999
-1.7861 -7.9634 2.3999
-1.4990 -8.0154 2.3999
-1.2105 -8.0565 2.3999
-0.9208 -8.0869 2.3999
-0.6304 -8.1065 2.3999
-0.3398 -8.1152 2.3999
-0.0493 -8.1131 2.3999
0.2406 -8.1002 2.3999
0.5296 -8.0766 2.3999
0.8171 -8.0423 2.3999
1.1028 -7.9975 2.3999
1.3863 -7.9422 2.3999
1.6673 -7.8765 2.3999
1.9454 -7.8007 2.3999
2.2200 -7.7147 2.3999
2.4910 -7.6189 2.3999
2.7579 -7.5133 2.3999
3.0204 -7.3981 2.3999
3.2781 -7.2736 2.3999
3.5308 -7.1400 2.3999
3.7780 -6.9974 2.3999
4.0195 -6.8461 2.3999
4.2550 -6.6864 2.3999
4.4842 -6.5185 2.3999
4.7068 -6.3427 2.3999
4.9226 -6.1592 2.3999
5.1312 -5.9684 2.3999
5.3325 -5.7704 2.3999
5.5263 -5.5657 2.3999
5.7122 -5.3545 2.3999
-2.4086 6.6270 2.4000
-2.6491 6.5454 2.4000
-2.8869 6.4552 2.4000
-3.1217 6.3566 2.4000
-3.3531 6.2496 2.4000
-3.5810 6.1344 2.4000
-3.8050 6.0110 2.4000
-4.0248 5.8796 2.4000
-4.2401 5.7403 2.4000
-4.4507 5.5933 2.4000
-4.6561 5.4386 2.4000
-4.8563 5.2765 2.4000
-5.0509 5.1072 2.4000
-5.2395 4.9307 2.4000
-5.4221 4.7474 2.4000
-5.5982 4.5573 2.4000
-5.7676 4.3607 2.4000
-5.9302 4.1580 2.4000
-6.0855 3.9492 2.4000
-6.2335 3.7346 2.4000
-6.3739 3.5145 2.4000
-6.5064 3.2892 2.4000
-6.6309 3.0589 2.4000
-6.7472 2.8239 2.4000
-6.8550 2.5844 2.4000
-6.9542 2.3409 2.4000
-7.0446 2.0936 2.3999
-7.1260 1.8428 2.3999
-7.1984 1.5889 2.3999
-7.2615 1.3322 2.3999
-7.3153 1.0730 2.3999
-7.3596 0.8116 2.3999
-7.3943 0.5485 2.3999
-7.4194 0.2839 2.3999
-7.4347 0.0183 2.3999
-7.4403 -0.2480 2.3999
-7.4361 -0.5146 2.3999
-7.4220 -0.7812 2.3999
-7.3981 -1.0473 2.3999
-7.3643 -1.3127 2.3999
-7.3206 -1.5769 2.3999
-7.2672 -1.8395 2.3999
-7.2040 -2.1002 2.3999
-7.1311 -2.3586 2.3999
-7.0485 -2.6143 2.3999
-6.9565 -2.8670 2.3999
-6.8550 -3.1162 2.3999
-6.7443 -3.3617 2.3999
-6.6244 -3.6030 2.3999
-6.4955 -3.8398 2.3999
-6.3578 -4.0717 2.3999
-6.2114 -4.2984 2.3999
-6.0566 -4.5196 2.3999
-5.8936 -4.7350 2.3999
-5.7226 -4.9441 2.3999
-5.5439 -5.1468 2.3999
-5.3576 -5.3427 2.3999
-5.1642 -5.5315 2.3999
-4.9637 -5.7129 2.3999
-4.7566 -5.8867 2.3999
-4.5432 -6.0527 2.3999
-4.3237 -6.2105 2.3999
-4.0984 -6.3600 2.3999
-3.8678 -6.5009 2.3999
-3.6321 -6.6330 2.3999
-3.3917 -6.7563 2.3999
-3.1469 -6.8704 2.3999
-2.8981 -6.9752 2.3999
-2.6457 -7.0706 2.3999
-2.3900 -7.1565 2.3999
-2.1314 -7.2327 2.3999
-1.8703 -7.2993 2.3999
-1.6071 -7.3559 2.3999
-1.3421 -7.4028 2.3999
-1.0758 -7.4397 2.3999
-0.8085 -7.4666 2.3999
-0.5406 -7.4836 2.3999
-0.2724 -7.4906 2.3999
-0.0044 -7.4877 2.3999
0.2630 -7.4748 2.3999
0.5295 -7.4521 2.3999
0.7947 -7.4196 2.3999
1.0583 -7.3773 2.3999
1.3198 -7.3255 2.3999
1.5790 -7.2640 2.3999
1.8354 -7.1932 2.3999
2.0887 -7.1131 2.3999
2.3386 -7.0239 2.3999
2.5848 -6.9257 2.3999
2.8269 -6.8187 2.3999
3.0646 -6.7031 2.3999
3.2977 -6.5790 2.3999
3.5257 -6.4467 2.3999
3.7485 -6.3064 2.3999
3.9657 -6.1583 2.3999
4.1771 -6.0026 2.3999
4.3824 -5.8396 2.3999
4.5814 -5.6696 2.3999
4.7738 -5.4927 2.3999
4.9595 -5.3092 2.3999
5.1382 -5.1195 2.3999
5.3096 -4.9238 2.3999
5.4737 -4.7223 2.3999
5.6303 -4.5154 2.3999
5.7791 -4.3033 2.3999
5.9200 -4.0864 2.3999
6.0529 -3.8649 2.3999
6.1776 -3.6392 2.3999
6.2940 -3.4095 2.3999
6.4021 -3.1762 2.3999
6.5016 -2.9395 2.3999
6.5926 -2.6997 2.3999
6.6749 -2.4573 2.3999
6.7485 -2.2125 2.3999
6.8133 -1.9655 2.3999
6.4330 -1.6078 2.2475
6.4772 -1.3734 2.2475
6.5130 -1.1380 2.2475
6.5405 -0.9018 2.2475
6.5597 -0.6650 2.2475
6.5705 -0.4281 2.2475
6.5731 -0.1912 2.2475
6.5673 0.0454 2.2475
6.5533 0.2814 2.2475
6.5312 0.5164 2.2475
6.5009 0.7503 2.2475
5.4197 0.8242 1.8849
5.3836 1.0183 1.8859
6.3617 1.4423 2.2475
6.2995 1.6689 2.2475
6.2298 1.8930 2.2476
6.1543 2.1151 2.2484
6.0718 2.3345 2.2494
5.9817 2.5508 2.2504
5.8841 2.7639 2.2513
5.7792 2.9733 2.2523
5.6664 3.1785 2.2529
5.5450 3.3788 2.2529
5.4166 3.5744 2.2528
5.2813 3.7652 2.2525
5.1395 3.9511 2.2523
4.9915 4.1319 2.2520
4.8374 4.3074 2.2518
4.6773 4.4774 2.2515
4.5115 4.6417 2.2512
4.3402 4.8002 2.2509
4.1635 4.9525 2.2506
3.9817 5.0987 2.2503
3.7950 5.2385 2.2500
3.6036 5.3717 2.2496
3.4077 5.4983 2.2493
3.2075 5.6180 2.2490
3.0033 5.7307 2.2486
2.7953 5.8363 2.2482
2.5838 5.9346 2.2479
2.3690 6.0258 2.2476
2.2178 6.2993 2.3170
0.8447 2.7070 0.9833
0.7468 2.7361 0.9829
0.6478 2.7618 0.9824
0.5480 2.7838 0.9818
0.4474 2.8022 0.9812
0.3462 2.8170 0.9806
0.2446 2.8281 0.9799
0.1426 2.8356 0.9791
0.0404 2.8393 0.9783
-0.0619 2.8394 0.9775
-0.1641 2.8357 0.9766
-0.2661 2.8284 0.9757
-0.3678 2.8174 0.9747
-0.4691 2.8027 0.9737
-0.5697 2.7844 0.9726
-0.6696 2.7625 0.9715
-0.7686 2.7369 0.9703
-0.8667 2.7078 0.9691
-2.3893 6.6332 2.4000
-2.6300 6.5522 2.4000
-2.8680 6.4627 2.4000
-3.1031 6.3647 2.4000
-3.3348 6.2584 2.4000
-3.5630 6.1439 2.4000
-3.7873 6.0211 2.4000
-4.0074 5.8904 2.4000
-4.2231 5.7517 2.4000
-4.4341 5.6053 2.4000
-4.6400 5.4512 2.4000
-4.8406 5.2897 2.4000
-5.0356 5.1209 2.4000
-5.2247 4.9450 2.4000
-5.4077 4.7622 2.4000
-5.5844 4.5727 2.4000
-5.7544 4.3767 2.4000
-5.9175 4.1744 2.4000
-6.0734 3.9661 2.4000
-6.2220 3.7519 2.4000
-6.3630 3.5323 2.4000
-6.4962 3.3073 2.4000
-6.6213 3.0774 2.4000
-6.7382 2.8427 2.4000
-6.8467 2.6037 2.4000
-6.9466 2.3605 2.4000
-7.0377 2.1135 2.3999
-7.1199 1.8629 2.3999
-7.1930 1.6093 2.3999
-7.2568 1.3527 2.3999
-7.3113 1.0937 2.3999
-7.3564 0.8325 2.3999
-7.3919 0.5695 2.3999
-7.4177 0.3051 2.3999
-7.4339 0.0395 2.3999
-7.4402 -0.2267 2.3999
-7.4368 -0.4933 2.3999
-7.4235 -0.7600 2.3999
-7.4003 -1.0262 2.3999
-7.3673 -1.2916 2.3999
-7.3245 -1.5559 2.3999
-7.2718 -1.8187 2.3999
-7.2094 -2.0795 2.3999
-7.1372 -2.3381 2.3999
-7.0555 -2.5941 2.3999
-6.9642 -2.8470 2.3999
-6.8635 -3.0965 2.3999
-6.7534 -3.3423 2.3999
-6.6343 -3.5839 2.3999
-6.5061 -3.8211 2.3999
-6.3691 -4.0534 2.3999
-6.2234 -4.2806 2.3999
-6.0693 -4.5022 2.3999
-5.9069 -4.7180 2.3999
-5.7365 -4.9277 2.3999
-5.5584 -5.1309 2.3999
-5.3727 -5.3273 2.3999
-5.1798 -5.5167 2.3999
-4.9799 -5.6987 2.3999
-4.7733 -5.8732 2.3999
-4.5604 -6.0397 2.3999
-4.3414 -6.1982 2.3999
-4.1166 -6.3484 2.3999
-3.8863 -6.4900 2.3999
-3.6510 -6.6228 2.3999
-3.4110 -6.7468 2.3999
-3.1665 -6.8616 2.3999
-2.9181 -6.9672 2.3999
-2.6659 -7.0634 2.3999
-2.4105 -7.1500 2.3999
-2.1521 -7.2270 2.3999
-1.8912 -7.2943 2.3999
-1.6282 -7.3518 2.3999
-1.3633 -7.3994 2.3999
-1.0971 -7.4371 2.3999
-0.8298 -7.4648 2.3999
-0.5619 -7.4826 2.3999
-0.2938 -7.4904 2.3999
-0.0258 -7.4883 2.3999
0.2417 -7.4762 2.3999
0.5083 -7.4543 2.3999
0.7737 -7.4225 2.3999
1.0374 -7.3811 2.3999
1.2991 -7.3299 2.3999
1.5584 -7.2693 2.3999
1.8151 -7.1992 2.3999
2.0687 -7.1198 2.3999
2.3189 -7.0313 2.3999
2.5654 -6.9338 2.3999
2.8078 -6.8275 2.3999
3.0459 -6.7126 2.3999
3.2793 -6.5892 2.3999
3.5077 -6.4576 2.3999
3.7309 -6.3178 2.3999
3.9486 -6.1703 2.3999
4.1604 -6.0153 2.3999
4.3662 -5.8529 2.3999
4.5658 -5.6833 2.3999
4.7587 -5.5070 2.3999
4.9450 -5.3241 2.3999
5.1242 -5.1349 2.3999
5.2963 -4.9396 2.3999
5.4609 -4.7386 2.3999
5.6181 -4.5320 2.3999
5.7675 -4.3204 2.3999
5.9091 -4.1039 2.3999
6.0426 -3.8827 2.3999
6.1680 -3.6573 2.3999
6.2851 -3.4279 2.3999
6.3938 -3.1949 2.3999
6.4940 -2.9584 2.3999
6.5857 -2.7189 2.3999
6.6687 -2.4767 2.3999
6.7429 -2.2320 2.3999
6.8084 -1.9852 2.3999
6.8651 -1.7366 2.3999
6.4740 -1.3921 2.2475
6.5104 -1.1568 2.2475
6.5386 -0.9206 2.2475
6.5584 -0.6839 2.2475
6.5699 -0.4470 2.2475
6.5732 -0.2100 2.2475
6.5681 0.0266 2.2475
6.5548 0.2626 2.2475
6.5332 0.4978 2.2475
6.5036 0.7318 2.2475
5.4344 0.8105 1.8890
5.3782 1.0013 1.8828
6.3663 1.4242 2.2475
6.3047 1.6509 2.2475
6.2356 1.8753 2.2476
6.1606 2.0975 2.2483
6.0786 2.3171 2.2493
5.9891 2.5337 2.2503
5.8922 2.7470 2.2513
5.7879 2.9568 2.2522
5.6757 3.1624 2.2529
5.5549 3.3630 2.2529
5.4271 3.5590 2.2528
5.2923 3.7502 2.2526
5.1511 3.9365 2.2523
5.0035 4.1177 2.2521
4.8499 4.2936 2.2518
4.6903 4.4641 2.2515
4.5249 4.6288 2.2512
4.3541 4.7878 2.2509
4.1778 4.9406 2.2506
3.9964 5.0873 2.2503
3.8101 5.2276 2.2500
3.6190 5.3614 2.2497
3.4235 5.4884 2.2493
3.2236 5.6087 2.2490
3.0197 5.7219 2.2486
2.8120 5.8281 2.2483
2.6007 5.9271 2.2479
2.3861 6.0187 2.2476
2.2220 6.2536 2.3027
0.8525 2.7045 0.9833
0.7546 2.7340 0.9829
0.6557 2.7599 0.9824
0.5560 2.7822 0.9819
0.4554 2.8009 0.9813
0.3543 2.8160 0.9806
0.2527 2.8274 0.9799
0.1507 2.8351 0.9792
0.0485 2.8391 0.9784
-0.0537 2.8395 0.9776
-0.1560 2.8362 0.9767
-0.2580 2.8291 0.9757
-0.3597 2.8184 0.9748
-0.4610 2.8040 0.9737
-0.5617 2.7860 0.9727
-0.6617 2.7643 0.9716
-0.7608 2.7391 0.9704
-0.8589 2.7103 0.9692
-2.3701 6.6393 2.4000
-2.6110 6.5590 2.4000
-2.8492 6.4701 2.4000
-3.0845 6.3729 2.4000
-3.3165 6.2672 2.4000
-3.5450 6.1533 2.4000
-3.7696 6.0312 2.4000
-3.9901 5.9011 2.4000
-4.2061 5.7631 2.4000
-4.4174 5.6172 2.4000
-4.6238 5.4638 2.4000
-4.8248 5.3029 2.4000
-5.0203 5.1346 2.4000
-5.2099 4.9593 2.4000
-5.3934 4.7770 2.4000
-5.5705 4.5880 2.4000
-5.7411 4.3925 2.4000
-5.9047 4.1907 2.4000
-6.0613 3.9829 2.4000
-6.2105 3.7692 2.4000
-6.3521 3.5500 2.4000
-6.4859 3.3254 2.4000
-6.6116 3.0959 2.4000
-6.7292 2.8616 2.4000
-6.8384 2.6229 2.4000
-6.9390 2.3800 2.4000
-7.0308 2.1333 2.3999
-7.1137 1.8830 2.3999
-7.1875 1.6296 2.3999
-7.2521 1.3733 2.3999
-7.3073 1.1144 2.3999
-7.3531 0.8534 2.3999
-7.3894 0.5905 2.3999
-7.4160 0.3262 2.3999
-7.4329 0.0607 2.3999
-7.4401 -0.2055 2.3999
-7.4374 -0.4721 2.3999
-7.4249 -0.7387 2.3999
-7.4025 -1.0050 2.3999
-7.3703 -1.2705 2.3999
-7.3282 -1.5349 2.3999
-7.2764 -1.7978 2.3999
-7.2147 -2.0588 2.3999
-7.1433 -2.3176 2.3999
-7.0623 -2.5738 2.3999
-6.9718 -2.8270 2.3999
-6.8718 -3.0768 2.3999
-6.7625 -3.3229 2.3999
-6.6441 -3.5648 2.3999
-6.5166 -3.8024 2.3999
-6.3803 -4.0351 2.3999
-6.2353 -4.2627 2.3999
-6.0819 -4.4848 2.3999
-5.9201 -4.7011 2.3999
-5.7504 -4.9112 2.3999
-5.5729 -5.1150 2.3999
-5.3878 -5.3119 2.3999
-5.1955 -5.5019 2.3999
-4.9961 -5.6845 2.3999
-4.7900 -5.8596 2.3999
-4.5776 -6.0268 2.3999
-4.3590 -6.1859 2.3999
-4.1347 -6.3367 2.3999
-3.9049 -6.4790 2.3999
-3.6700 -6.6126 2.3999
-3.4303 -6.7372 2.3999
-3.1862 -6.8528 2.3999
-2.9380 -6.9591 2.3999
-2.6861 -7.0561 2.3999
-2.4309 -7.1435 2.3999
-2.1728 -7.2213 2.3999
-1.9121 -7.2893 2.3999
-1.6492 -7.3476 2.3999
-1.3845 -7.3960 2.3999
-1.1183 -7.4344 2.3999
-0.8511 -7.4630 2.3999
-0.5832 -7.4815 2.3999
-0.3151 -7.4901 2.3999
-0.0471 -7.4888 2.3999
0.2204 -7.4775 2.3999
0.4871 -7.4564 2.3999
0.7526 -7.4254 2.3999
1.0164 -7.3847 2.3999
1.2783 -7.3344 2.3999
1.5379 -7.2745 2.3999
1.7947 -7.2051 2.3999
2.0486 -7.1265 2.3999
2.2991 -7.0387 2.3999
2.5459 -6.9419 2.3999
2.7886 -6.8363 2.3999
3.0271 -6.7220 2.3999
3.2608 -6.5993 2.3999
3.4897 -6.4683 2.3999
3.7133 -6.3293 2.3999
3.9314 -6.1824 2.3999
4.1438 -6.0279 2.3999
4.3501 -5.8661 2.3999
4.5501 -5.6971 2.3999
4.7436 -5.5213 2.3999
4.9304 -5.3389 2.3999
5.1102 -5.1502 2.3999
5.2828 -4.9554 2.3999
-0.9030 2.4822 0.9659
-2.4673 6.0909 2.4000
-2.6884 6.0064 2.4000
-2.9067 5.9140 2.4000
-3.1218 5.8140 2.4000
-3.3336 5.7062 2.4000
-3.5416 5.5909 2.4000
-3.7458 5.4681 2.4000
-3.9457 5.3379 2.4000
-4.1411 5.2006 2.4000
-4.3318 5.0563 2.4000
-4.5175 4.9050 2.4000
-4.6979 4.7470 2.4000
-4.8729 4.5825 2.4000
-5.0420 4.4115 2.4000
-5.2052 4.2344 2.4000
-5.3622 4.0513 2.4000
-5.5127 3.8624 2.4000
-5.6565 3.6680 2.4000
-5.7934 3.4682 2.4000
-5.9232 3.2634 2.4000
-6.0457 3.0537 2.4000
-6.1607 2.8394 2.4000
-6.2680 2.6209 2.4000
-6.3675 2.3982 2.4000
-6.4589 2.1719 2.3999
-6.5422 1.9420 2.3999
-6.6172 1.7090 2.3999
-6.6837 1.4731 2.3999
-6.7417 1.2347 2.3999
-6.7909 0.9940 2.3999
-6.8314 0.7513 2.3999
-6.8630 0.5071 2.3999
-6.8857 0.2616 2.3999
-6.8993 0.0151 2.3999
-6.9039 -0.2319 2.3999
-6.8994 -0.4792 2.3999
-6.8858 -0.7264 2.3999
-6.8630 -0.9733 2.3999
-6.8312 -1.2193 2.3999
-6.7902 -1.4642 2.3999
-6.7402 -1.7076 2.3999
-6.6812 -1.9492 2.3999
-6.6131 -2.1887 2.3999
-6.5362 -2.4256 2.3999
-6.4505 -2.6597 2.3999
-6.3561 -2.8906 2.3999
-6.2532 -3.1180 2.3999
-6.1418 -3.3415 2.3999
-6.0220 -3.5609 2.3999
-5.8942 -3.7757 2.3999
-5.7583 -3.9857 2.3999
-5.6147 -4.1906 2.3999
-5.4635 -4.3901 2.3999
-5.3049 -4.5838 2.3999
-5.1392 -4.7715 2.3999
-4.9665 -4.9530 2.3999
-4.7871 -5.1279 2.3999
-4.6014 -5.2960 2.3999
-4.4094 -5.4571 2.3999
-4.2116 -5.6108 2.3999
-4.0083 -5.7571 2.3999
-3.7996 -5.8957 2.3999
-3.5859 -6.0264 2.3999
-3.3675 -6.1490 2.3999
-3.1448 -6.2633 2.3999
-2.9180 -6.3692 2.3999
-2.6875 -6.4666 2.3999
-2.4537 -6.5552 2.3999
-2.2168 -6.6351 2.3999
-1.9772 -6.7060 2.3999
-1.7353 -6.7680 2.3999
-1.4913 -6.8209 2.3999
-1.2458 -6.8647 2.3999
-0.9989 -6.8992 2.3999
-0.7511 -6.9246 2.3999
-0.5027 -6.9408 2.3999
-0.2541 -6.9478 2.3999
-0.0056 -6.9455 2.3999
0.2424 -6.9341 2.3999
0.4896 -6.9136 2.3999
0.7356 -6.8839 2.3999
0.9802 -6.8453 2.3999
1.2229 -6.7978 2.3999
1.4634 -6.7414 2.3999
1.7015 -6.6762 2.3999
1.9367 -6.6025 2.3999
2.1688 -6.5203 2.3999
2.3975 -6.4298 2.3999
2.6225 -6.3311 2.3999
2.8434 -6.2243 2.3999
3.0600 -6.1097 2.3999
3.2721 -5.9875 2.3999
3.4793 -5.8578 2.3999
3.6813 -5.7209 2.3999
3.8781 -5.5769 2.3999
4.0692 -5.4261 2.3999
4.2545 -5.2686 2.3999
4.4337 -5.1049 2.3999
4.6067 -4.9350 2.3999
4.7732 -4.7592 2.3999
4.9331 -4.5778 2.3999
5.0861 -4.3910 2.3999
5.2322 -4.1991 2.3999
5.3711 -4.0024 2.3999
5.5026 -3.8011 2.3999
5.6268 -3.5956 2.3999
5.7433 -3.3861 2.3999
5.8522 -3.1728 2.3999
5.9533 -2.9560 2.3999
6.0465 -2.7362 2.3999
6.1317 -2.5135 2.3999
6.2089 -2.2881 2.3999
6.2780 -2.0605 2.3999
6.3389 -1.8309 2.3999
5.9857 -1.4980 2.2475
6.0273 -1.2800 2.2475
6.0612 -1.0610 2.2475
6.0873 -0.8412 2.2475
6.1057 -0.6208 2.2475
6.1163 -0.4002 2.2475
6.1192 -0.1797 2.2475
6.1143 0.0406 2.2475
6.1018 0.2604 2.2475
6.0816 0.4793 2.2475
6.0538 0.6972 2.2475
5.4209 0.8231 2.0244
5.3821 1.0167 2.0243
5.9253 1.3420 2.2475
5.8677 1.5532 2.2475
5.8029 1.7620 2.2475
5.7308 1.9683 2.2475
5.6518 2.1719 2.2475
5.5657 2.3724 2.2475
5.4729 2.5697 2.2475
5.3733 2.7635 2.2476
5.2786 2.9602 2.2525
5.1653 3.1466 2.2523
5.0456 3.3288 2.2521
4.9197 3.5067 2.2519
4.7878 3.6801 2.2517
4.6500 3.8487 2.2514
4.5065 4.0123 2.2512
4.3574 4.1708 2.2509
4.2030 4.3240 2.2506
4.0434 4.4717 2.2504
3.8788 4.6138 2.2501
3.7094 4.7501 2.2498
3.5354 4.8804 2.2495
3.3571 5.0046 2.2492
3.1745 5.1225 2.2489
2.9879 5.2340 2.2485
2.7976 5.3390 2.2482
2.6037 5.4374 2.2479
2.4135 5.5451 2.2541
2.2430 5.7073 2.2846
0.8743 2.4841 0.9807
0.7843 2.5144 0.9803
0.6933 2.5415 0.9799
0.6013 2.5653 0.9794
0.5086 2.5858 0.9789
0.4151 2.6029 0.9784
0.3211 2.6166 0.9778
0.2267 2.6269 0.9771
0.1319 2.6338 0.9764
0.0369 2.6373 0.9757
-0.0581 2.6373 0.9749
-0.1531 2.6339 0.9741
-0.2478 2.6271 0.9732
-0.3423 2.6169 0.9723
-0.4364 2.6033 0.9713
-0.5299 2.5862 0.9704
-0.6227 2.5658 0.9693
-0.7147 2.5421 0.9683
-0.8058 2.5151 0.9672
-0.8959 2.4848 0.9660
-2.4496 6.0972 2.4000
-2.6709 6.0134 2.4000
-2.8894 5.9217 2.4000
-3.1048 5.8222 2.4000
-3.3168 5.7151 2.4000
-3.5252 5.6003 2.4000
-3.7296 5.4781 2.4000
-3.9299 5.3486 2.4000
-4.1257 5.2118 2.4000
-4.3168 5.0680 2.4000
-4.5029 4.9173 2.4000
-4.6838 4.7598 2.4000
-4.8591 4.5958 2.4000
-5.0288 4.4254 2.4000
-5.1924 4.2487 2.4000
-5.3499 4.0661 2.4000
-5.5009 3.8777 2.4000
-5.6453 3.6837 2.4000
-5.7827 3.4843 2.4000
-5.9131 3.2799 2.4000
-6.0362 3.0706 2.4000
-6.1518 2.8567 2.4000
-6.2598 2.6384 2.4000
-6.3599 2.4161 2.4000
-6.4520 2.1900 2.3999
-6.5359 1.9605 2.3999
-6.6115 1.7277 2.3999
-6.6787 1.4920 2.3999
-6.7374 1.2538 2.3999
-6.7873 1.0132 2.3999
-6.8285 0.7707 2.3999
-6.8608 0.5266 2.3999
-6.8842 0.2812 2.3999
-6.8986 0.0348 2.3999
-6.9039 -0.2122 2.3999
-6.9001 -0.4595 2.3999
-6.8872 -0.7068 2.3999
-6.8652 -0.9536 2.3999
-6.8341 -1.1997 2.3999
-6.7938 -1.4447 2.3999
-6.7445 -1.6883 2.3999
-6.6862 -1.9301 2.3999
-6.6189 -2.1697 2.3999
-6.5427 -2.4069 2.3999
-6.4577 -2.6412 2.3999
-6.3640 -2.8724 2.3999
-6.2617 -3.1000 2.3999
-6.1509 -3.3239 2.3999
-6.0319 -3.5436 2.3999
-5.9046 -3.7588 2.3999
-5.7694 -3.9692 2.3999
-5.6264 -4.1745 2.3999
-5.4758 -4.3744 2.3999
-5.3178 -4.5686 2.3999
-5.1526 -4.7568 2.3999
-4.9805 -4.9388 2.3999
-4.8017 -5.1142 2.3999
-4.6164 -5.2828 2.3999
-4.4249 -5.4445 2.3999
-4.2276 -5.5989 2.3999
-4.0247 -5.7458 2.3999
-3.8164 -5.8850 2.3999
-3.6031 -6.0163 2.3999
-3.3851 -6.1395 2.3999
-3.1627 -6.2545 2.3999
-2.9362 -6.3611 2.3999
-2.7060 -6.4591 2.3999
-2.4724 -6.5485 2.3999
-2.2357 -6.6291 2.3999
-1.9964 -6.7007 2.3999
-1.7546 -6.7634 2.3999
-1.5108 -6.8170 2.3999
-1.2654 -6.8615 2.3999
-1.0186 -6.8968 2.3999
-0.7709 -6.9229 2.3999
-0.5225 -6.9399 2.3999
-0.2739 -6.9476 2.3999
-0.0254 -6.9460 2.3999
0.2227 -6.9354 2.3999
0.4699 -6.9155 2.3999
0.7161 -6.8866 2.3999
0.9608 -6.8487 2.3999
1.2036 -6.8019 2.3999
1.4444 -6.7462 2.3999
1.6826 -6.6817 2.3999
1.9181 -6.6087 2.3999
2.1505 -6.5272 2.3999
2.3794 -6.4373 2.3999
2.6047 -6.3392 2.3999
2.8260 -6.2331 2.3999
3.0429 -6.1192 2.3999
3.2553 -5.9975 2.3999
3.4629 -5.8684 2.3999
3.6654 -5.7321 2.3999
3.8626 -5.5886 2.3999
4.0542 -5.4383 2.3999
4.2399 -5.2814 2.3999
4.4196 -5.1181 2.3999
4.5931 -4.9487 2.3999
4.7602 -4.7734 2.3999
4.9206 -4.5924 2.3999
5.0742 -4.4061 2.3999
5.2208 -4.2146 2.3999
5.3603 -4.0183 2.3999
5.4924 -3.8173 2.3999
5.6172 -3.6121 2.3999
5.7343 -3.4028 2.3999
5.8438 -3.1899 2.3999
5.9455 -2.9734 2.3999
6.0394 -2.7538 2.3999
6.1252 -2.5312 2.3999
6.2031 -2.3061 2.3999
6.2728 -2.0787 2.3999
6.3343 -1.8492 2.3999
5.9820 -1.5153 2.2475
6.0243 -1.2974 2.2475
6.0588 -1.0785 2.2475
6.0855 -0.8587 2.2475
6.1045 -0.6384 2.2475
6.1157 -0.4178 2.2475
6.1192 -0.1972 2.2475
6.1150 0.0231 2.2475
6.1030 0.2429 2.2475
6.0835 0.4619 2.2475
6.0563 0.6799 2.2475
5.4356 0.8094 2.0289
5.3779 1.0000 2.0215
5.9296 1.3251 2.2475
5.8726 1.5364 2.2475
5.8083 1.7455 2.2475
5.7368 1.9520 2.2475
5.6583 2.1558 2.2475
5.5729 2.3565 2.2475
5.4805 2.5541 2.2475
5.3815 2.7482 2.2476
5.2874 2.9451 2.2525
5.1746 3.1319 2.2523
5.0554 3.3145 2.2521
4.9300 3.4927 2.2519
4.7985 3.6664 2.2517
4.6612 3.8354 2.2514
4.5181 3.9995 2.2512
4.3695 4.1584 2.2509
4.2155 4.3120 2.2507
4.0563 4.4602 2.2504
3.8921 4.6027 2.2501
3.7231 4.7394 2.2498
3.5495 4.8702 2.2495
3.3714 4.9949 2.2492
3.1892 5.1133 2.2489
3.0029 5.2254 2.2486
2.8129 5.3309 2.2482
2.6193 5.4298 2.2479
2.4224 5.5219 2.2476
2.2467 5.6686 2.2718
0.8814 2.4815 0.9807
0.7915 2.5121 0.9803
0.7006 2.5395 0.9799
0.6087 2.5635 0.9795
0.5160 2.5843 0.9790
0.4226 2.6016 0.9784
0.3286 2.6156 0.9778
0.2342 2.6262 0.9772
0.1395 2.6334 0.9765
0.0445 2.6371 0.9758
-0.0505 2.6374 0.9750
-0.1455 2.6343 0.9742
-0.2403 2.6278 0.9733
-0.3348 2.6178 0.9724
-0.4289 2.6045 0.9714
-0.5224 2.5877 0.9704
-0.6153 2.5676 0.9694
-0.7074 2.5441 0.9683
-0.7986 2.5174 0.9672
-0.8888 2.4873 0.9661
-2.4318 6.1036 2.4000
-2.6534 6.0204 2.4000
-2.8721 5.9293 2.4000
-3.0877 5.8304 2.4000
-3.3001 5.7239 2.4000
-3.5087 5.6097 2.4000
-3.7135 5.4881 2.4000
-3.9141 5.3592 2.4000
-4.1103 5.2230 2.4000
-4.3018 5.0797 2.4000
-4.4883 4.9296 2.4000
-4.6696 4.7726 2.4000
-4.8454 4.6091 2.4000
-5.0155 4.4392 2.4000
-5.1796 4.2630 2.4000
-5.3376 4.0809 2.4000
-5.4891 3.8929 2.4000
-5.6340 3.6993 2.4000
-5.7720 3.5004 2.4000
-5.9030 3.2963 2.4000
-6.0267 3.0874 2.4000
-6.1429 2.8739 2.4000
-6.2514 2.6559 2.4000
-6.3522 2.4340 2.4000
-6.4449 2.2082 2.3999
-6.5295 1.9789 2.3999
-6.6058 1.7463 2.3999
-6.6737 1.5109 2.3999
-6.7330 1.2728 2.3999
-6.7836 1.0325 2.3999
-6.8255 0.7901 2.3999
-6.8586 0.5461 2.3999
-6.8826 0.3008 2.3999
-6.8977 0.0545 2.3999
-6.9038 -0.1925 2.3999
-6.9007 -0.4398 2.3999
-6.8886 -0.6871 2.3999
-6.8673 -0.9340 2.3999
-6.8369 -1.1801 2.3999
-6.7974 -1.4253 2.3999
-6.7488 -1.6690 2.3999
-6.6912 -1.9109 2.3999
-6.6246 -2.1507 2.3999
-6.5491 -2.3881 2.3999
-6.4648 -2.6226 2.3999
-6.3718 -2.8541 2.3999
-6.2701 -3.0820 2.3999
-6.1601 -3.3062 2.3999
-6.0416 -3.5262 2.3999
-5.9151 -3.7418 2.3999
-5.7805 -3.9526 2.3999
-5.6381 -4.1583 2.3999
-5.4881 -4.3587 2.3999
-5.3306 -4.5533 2.3999
-5.1660 -4.7420 2.3999
-4.9945 -4.9245 2.3999
-4.8161 -5.1005 2.3999
-4.6314 -5.2697 2.3999
-4.4404 -5.4319 2.3999
-4.2435 -5.5868 2.3999
-4.0410 -5.7343 2.3999
-3.8331 -5.8742 2.3999
-3.6202 -6.0061 2.3999
-3.4026 -6.1300 2.3999
-3.1806 -6.2457 2.3999
-2.9544 -6.3529 2.3999
-2.7245 -6.4517 2.3999
-2.4911 -6.5417 2.3999
-2.2547 -6.6230 2.3999
-2.0155 -6.6953 2.3999
-1.7739 -6.7587 2.3999
-1.5303 -6.8131 2.3999
-1.2850 -6.8583 2.3999
-1.0383 -6.8943 2.3999
-0.7906 -6.9212 2.3999
-0.5423 -6.9389 2.3999
-0.2937 -6.9473 2.3999
-0.0452 -6.9465 2.3999
0.2029 -6.9365 2.3999
0.4503 -6.9175 2.3999
0.6965 -6.8893 2.3999
0.9413 -6.8521 2.3999
1.1844 -6.8059 2.3999
1.4253 -6.7509 2.3999
1.6637 -6.6872 2.3999
1.8995 -6.6148 2.3999
2.1321 -6.5340 2.3999
2.3613 -6.4447 2.3999
2.5869 -6.3473 2.3999
2.8085 -6.2419 2.3999
3.0258 -6.1285 2.3999
3.2386 -6.0075 2.3999
3.4466 -5.8790 2.3999
3.6495 -5.7432 2.3999
3.8471 -5.6003 2.3999
4.0391 -5.4506 2.3999
4.2253 -5.2942 2.3999
4.4056 -5.1314 2.3999
4.5796 -4.9624 2.3999
4.7471 -4.7876 2.3999
4.9081 -4.6070 2.3999
-0.8429 2.3147 0.9643
-2.3066 5.6891 2.4000
-2.5130 5.6098 2.4000
-2.7167 5.5231 2.4000
-2.9175 5.4291 2.4000
-3.1150 5.3280 2.4000
-3.3091 5.2198 2.4000
-3.4994 5.1047 2.4000
-3.6858 4.9827 2.4000
-3.8679 4.8541 2.4000
-4.0456 4.7189 2.4000
-4.2186 4.5773 2.4000
-4.3866 4.4293 2.4000
-4.5495 4.2754 2.4000
-4.7070 4.1154 2.4000
-4.8588 3.9497 2.4000
-5.0048 3.7785 2.4000
-5.1448 3.6019 2.4000
-5.2784 3.4202 2.4000
-5.4057 3.2335 2.4000
-5.5263 3.0422 2.4000
-5.6400 2.8463 2.4000
-5.7467 2.6462 2.4000
-5.8463 2.4422 2.4000
-5.9385 2.2344 2.3999
-6.0233 2.0232 2.3999
-6.1004 1.8087 2.3999
-6.1697 1.5913 2.3999
-6.2312 1.3713 2.3999
-6.2846 1.1490 2.3999
-6.3300 0.9245 2.3999
-6.3672 0.6984 2.3999
-6.3962 0.4707 2.3999
-6.4168 0.2420 2.3999
-6.4290 0.0123 2.3999
-6.4328 -0.2178 2.3999
-6.4281 -0.4482 2.3999
-6.4150 -0.6784 2.3999
-6.3934 -0.9082 2.3999
-6.3633 -1.1373 2.3999
-6.3248 -1.3653 2.3999
-6.2778 -1.5919 2.3999
-6.2224 -1.8168 2.3999
-6.1588 -2.0396 2.3999
-6.0869 -2.2601 2.3999
-6.0068 -2.4779 2.3999
-5.9186 -2.6928 2.3999
-5.8225 -2.9043 2.3999
-5.7186 -3.1123 2.3999
-5.6069 -3.3163 2.3999
-5.4877 -3.5162 2.3999
-5.3611 -3.7116 2.3999
-5.2273 -3.9022 2.3999
-5.0864 -4.0877 2.3999
-4.9388 -4.2680 2.3999
-4.7844 -4.4426 2.3999
-4.6237 -4.6114 2.3999
-4.4567 -4.7742 2.3999
-4.2838 -4.9306 2.3999
-4.1052 -5.0805 2.3999
-3.9211 -5.2236 2.3999
-3.7318 -5.3598 2.3999
-3.5376 -5.4888 2.3999
-3.3388 -5.6105 2.3999
-3.1356 -5.7247 2.3999
-2.9284 -5.8312 2.3999
-2.7174 -5.9299 2.3999
-2.5029 -6.0207 2.3999
-2.2853 -6.1034 2.3999
-2.0649 -6.1779 2.3999
-1.8419 -6.2442 2.3999
-1.6168 -6.3021 2.3999
-1.3898 -6.3516 2.3999
-1.1612 -6.3927 2.3999
-0.9315 -6.4252 2.3999
-0.7008 -6.4492 2.3999
-0.4696 -6.4646 2.3999
-0.2381 -6.4714 2.3999
-0.0067 -6.4698 2.3999
0.2243 -6.4595 2.3999
0.4546 -6.4408 2.3999
0.6838 -6.4137 2.3999
0.9116 -6.3781 2.3999
1.1378 -6.3343 2.3999
1.3620 -6.2822 2.3999
1.5839 -6.2220 2.3999
1.8032 -6.1538 2.3999
2.0196 -6.0777 2.3999
2.2329 -5.9938 2.3999
2.4428 -5.9023 2.3999
2.6489 -5.8034 2.3999
2.8510 -5.6971 2.3999
3.0490 -5.5836 2.3999
3.2424 -5.4632 2.3999
3.4311 -5.3360 2.3999
3.6149 -5.2023 2.3999
3.7934 -5.0620 2.3999
3.9666 -4.9157 2.3999
4.1342 -4.7634 2.3999
4.2959 -4.6053 2.3999
4.4517 -4.4417 2.3999
4.6013 -4.2729 2.3999
4.7445 -4.0990 2.3999
4.8812 -3.9203 2.3999
5.0113 -3.7371 2.3999
5.1346 -3.5496 2.3999
5.2509 -3.3581 2.3999
5.3602 -3.1627 2.3999
5.4624 -2.9639 2.3999
5.5572 -2.7618 2.3999
5.6448 -2.5567 2.3999
5.7249 -2.3489 2.3999
5.7974 -2.1387 2.3999
5.8624 -1.9262 2.3999
5.9198 -1.7119 2.3999
5.5904 -1.4010 2.2475
5.6298 -1.1974 2.2475
5.6619 -0.9929 2.2475
5.6867 -0.7876 2.2475
5.7043 -0.5817 2.2475
5.7147 -0.3756 2.2475
5.7178 -0.1695 2.2475
5.7136 0.0364 2.2475
5.7023 0.2418 2.2475
5.6838 0.4465 2.2475
5.6581 0.6502 2.2475
5.4221 0.8219 2.1663
5.3814 1.0153 2.1654
5.5390 1.2533 2.2475
5.4854 1.4508 2.2475
5.4251 1.6461 2.2475
5.3580 1.8391 2.2475
5.2843 2.0295 2.2475
5.2040 2.2172 2.2475
5.1174 2.4018 2.2475
5.0244 2.5832 2.2476
4.9253 2.7611 2.2476
4.8289 2.9408 2.2517
4.7171 3.1114 2.2515
4.5995 3.2779 2.2513
4.4763 3.4401 2.2511
4.3475 3.5978 2.2509
4.2134 3.7509 2.2506
4.0741 3.8993 2.2504
3.9297 4.0426 2.2501
3.7805 4.1808 2.2499
3.6266 4.3138 2.2496
3.4682 4.4413 2.2493
3.3055 4.5631 2.2491
3.1387 4.6793 2.2488
2.9679 4.7896 2.2485
2.7934 4.8939 2.2482
2.6154 4.9921 2.2479
2.4340 5.0840 2.2475
2.2643 5.2035 2.2619
0.8979 2.2853 0.9783
0.8150 2.3166 0.9780
0.7311 2.3449 0.9777
0.6461 2.3701 0.9773
0.5604 2.3923 0.9769
0.4738 2.4114 0.9764
0.3867 2.4273 0.9759
0.2990 2.4401 0.9753
0.2109 2.4497 0.9747
0.1225 2.4561 0.9741
0.0339 2.4593 0.9734
-0.0547 2.4594 0.9726
-0.1433 2.4562 0.9719
-0.2317 2.4498 0.9711
-0.3199 2.4403 0.9702
-0.4076 2.4276 0.9693
-0.4948 2.4117 0.9684
-0.5814 2.3927 0.9674
-0.6672 2.3706 0.9664
-0.7522 2.3454 0.9654
-0.8362 2.3171 0.9643
-0.9192 2.2858 0.9632
-2.4967 5.6164 2.4000
-2.7006 5.5302 2.4000
-2.9016 5.4369 2.4000
-3.0994 5.3363 2.4000
-3.2937 5.2287 2.4000
-3.4844 5.1141 2.4000
-3.6711 4.9927 2.4000
-3.8536 4.8646 2.4000
-4.0316 4.7299 2.4000
-4.2050 4.5888 2.4000
-4.3734 4.4414 2.4000
-4.5367 4.2878 2.4000
-4.6946 4.1284 2.4000
-4.8469 3.9632 2.4000
-4.9934 3.7924 2.4000
-5.1338 3.6162 2.4000
-5.2680 3.4349 2.4000
-5.3958 3.2486 2.4000
-5.5169 3.0576 2.4000
-5.6312 2.8621 2.4000
-5.7385 2.6623 2.4000
-5.8386 2.4586 2.4000
-5.9314 2.2511 2.3999
-6.0168 2.0401 2.3999
-6.0945 1.8259 2.3999
-6.1645 1.6088 2.3999
-6.2266 1.3889 2.3999
-6.2807 1.1668 2.3999
-6.3267 0.9425 2.3999
-6.3646 0.7165 2.3999
-6.3942 0.4889 2.3999
-6.4154 0.2602 2.3999
-6.4283 0.0307 2.3999
-6.4328 -0.1995 2.3999
-6.4288 -0.4298 2.3999
-6.4164 -0.6601 2.3999
-6.3954 -0.8899 2.3999
-6.3660 -1.1191 2.3999
-6.3281 -1.3472 2.3999
-6.2818 -1.5739 2.3999
-6.2272 -1.7989 2.3999
-6.1642 -2.0220 2.3999
-6.0929 -2.2426 2.3999
-6.0135 -2.4607 2.3999
-5.9259 -2.6758 2.3999
-5.8305 -2.8876 2.3999
-5.7271 -3.0959 2.3999
-5.6161 -3.3002 2.3999
-5.4975 -3.5004 2.3999
-5.3715 -3.6962 2.3999
-5.2382 -3.8872 2.3999
-5.0979 -4.0731 2.3999
-4.9508 -4.2538 2.3999
-4.7969 -4.4289 2.3999
-4.6367 -4.5982 2.3999
-4.4702 -4.7614 2.3999
-4.2978 -4.9184 2.3999
-4.1196 -5.0688 2.3999
-3.9359 -5.2125 2.3999
-3.7471 -5.3492 2.3999
-3.5533 -5.4788 2.3999
-3.3548 -5.6011 2.3999
-3.1520 -5.7159 2.3999
-2.9450 -5.8230 2.3999
-2.7343 -5.9223 2.3999
-2.5201 -6.0138 2.3999
-2.3028 -6.0971 2.3999
-2.0825 -6.1723 2.3999
-1.8598 -6.2392 2.3999
-1.6348 -6.2978 2.3999
-1.4079 -6.3480 2.3999
-1.1795 -6.3897 2.3999
-0.9498 -6.4229 2.3999
-0.7192 -6.4476 2.3999
-0.4880 -6.4637 2.3999
-0.2565 -6.4712 2.3999
-0.0251 -6.4702 2.3999
0.2059 -6.4607 2.3999
0.4363 -6.4426 2.3999
0.6656 -6.4161 2.3999
0.8935 -6.3813 2.3999
1.1198 -6.3381 2.3999
1.3442 -6.2867 2.3999
1.5663 -6.2271 2.3999
1.7858 -6.1596 2.3999
2.0025 -6.0841 2.3999
2.2160 -6.0008 2.3999
2.4262 -5.9099 2.3999
2.6326 -5.8115 2.3999
2.8351 -5.7058 2.3999
3.0334 -5.5929 2.3999
3.2272 -5.4730 2.3999
3.4163 -5.3464 2.3999
3.6004 -5.2131 2.3999
3.7794 -5.0734 2.3999
3.9530 -4.9276 2.3999
4.1210 -4.7757 2.3999
4.2833 -4.6180 2.3999
4.4395 -4.4549 2.3999
4.5896 -4.2865 2.3999
4.7333 -4.1130 2.3999
4.8706 -3.9347 2.3999
5.0012 -3.7519 2.3999
5.1250 -3.5647 2.3999
5.2419 -3.3735 2.3999
5.3518 -3.1784 2.3999
5.4545 -2.9798 2.3999
5.5500 -2.7780 2.3999
5.6381 -2.5731 2.3999
5.7187 -2.3655 2.3999
5.7919 -2.1555 2.3999
5.8575 -1.9432 2.3999
5.9155 -1.7291 2.3999
5.5870 -1.4171 2.2475
5.6269 -1.2137 2.2475
5.6596 -1.0092 2.2475
5.6850 -0.8039 2.2475
5.7032 -0.5981 2.2475
5.7141 -0.3920 2.2475
5.7178 -0.1859 2.2475
5.7142 0.0200 2.2475
5.7034 0.2255 2.2475
5.6855 0.4302 2.2475
5.6604 0.6340 2.2475
5.4369 0.8082 2.1711
5.3776 0.9986 2.1625
5.5430 1.2374 2.2475
5.4899 1.4351 2.2475
5.4301 1.6306 2.2475
5.3636 1.8238 2.2475
5.2904 2.0145 2.2475
5.2107 2.2023 2.2475
5.1245 2.3872 2.2475
5.0321 2.5688 2.2476
4.9334 2.7471 2.2476
4.8375 2.9271 2.2517
4.7262 3.0979 2.2515
4.6091 3.2648 2.2513
4.4863 3.4273 2.2511
4.3580 3.5854 2.2509
4.2243 3.7389 2.2507
4.0854 3.8876 2.2504
3.9414 4.0314 2.2502
3.7926 4.1700 2.2499
3.6390 4.3034 2.2496
3.4810 4.4313 2.2494
3.3186 4.5536 2.2491
3.1521 4.6703 2.2488
2.9816 4.7810 2.2485
2.8074 4.8858 2.2482
2.6297 4.9845 2.2479
2.4486 5.0769 2.2476
2.2721 5.1806 2.2549
0.9044 2.2827 0.9783
0.8216 2.3142 0.9780
0.7378 2.3427 0.9777
0.6529 2.3682 0.9773
0.5672 2.3906 0.9769
0.4807 2.4100 0.9764
0.3936 2.4261 0.9759
0.3060 2.4392 0.9754
0.2179 2.4490 0.9748
0.1295 2.4557 0.9741
0.0410 2.4592 0.9734
-0.0477 2.4595 0.9727
-0.1363 2.4566 0.9719
-0.2247 2.4505 0.9711
-0.3129 2.4412 0.9703
-0.4006 2.4287 0.9694
-0.4879 2.4131 0.9685
-0.5745 2.3943 0.9675
-0.6604 2.3724 0.9665
-0.7455 2.3475 0.9655
-0.8296 2.3195 0.9644
-0.9126 2.2884 0.9633
-2.4803 5.6229 2.4000
-2.6845 5.5374 2.4000
-2.8857 5.4446 2.4000
-3.0837 5.3446 2.4000
-3.2784 5.2375 2.4000
-3.4693 5.1235 2.4000
-3.6564 5.0026 2.4000
-3.8392 4.8750 2.4000
-4.0176 4.7409 2.4000
-4.1914 4.6002 2.4000
-4.3602 4.4533 2.4000
-4.5239 4.3003 2.4000
-4.6823 4.1413 2.4000
-4.8350 3.9765 2.4000
-4.9820 3.8062 2.4000
-5.1229 3.6304 2.4000
-5.2576 3.4495 2.4000
-5.3858 3.2636 2.4000
-5.5075 3.0730 2.4000
-5.6223 2.8778 2.4000
-5.7302 2.6784 2.4000
-5.8309 2.4749 2.4000
-5.9243 2.2677 2.4000
-6.0103 2.0570 2.3999
-6.0886 1.8431 2.3999
-6.1592 1.6261 2.3999
-6.2219 1.4065 2.3999
-6.2767 1.1845 2.3999
-6.3233 0.9604 2.3999
-6.3618 0.7345 2.3999
-6.3921 0.5071 2.3999
-6.4140 0.2785 2.3999
-6.4276 0.0490 2.3999
-6.4328 -0.1811 2.3999
-6.4294 -0.4115 2.3999
-6.4177 -0.6417 2.3999
-6.3974 -0.8716 2.3999
-6.3687 -1.1009 2.3999
-6.3315 -1.3290 2.3999
-6.2858 -1.5559 2.3999
-6.2318 -1.7811 2.3999
-6.1695 -2.0043 2.3999
-6.0989 -2.2252 2.3999
-6.0201 -2.4434 2.3999
-5.9332 -2.6588 2.3999
-5.8384 -2.8709 2.3999
-5.7356 -3.0794 2.3999
-5.6252 -3.2841 2.3999
-5.5072 -3.4847 2.3999
-5.3818 -3.6808 2.3999
-5.2491 -3.8721 2.3999
-5.1094 -4.0585 2.3999
-4.9627 -4.2396 2.3999
-4.8094 -4.4152 2.3999
-4.6497 -4.5849 2.3999
-4.4837 -4.7487 2.3999
-4.3117 -4.9061 2.3999
-4.1340 -5.0570 2.3999
-3.9508 -5.2013 2.3999
-3.7623 -5.3386 2.3999
-3.5689 -5.4687 2.3999
-3.3708 -5.5916 2.3999
-3.1683 -5.7070 2.3999
-2.9617 -5.8148 2.3999
-2.7512 -5.9147 2.3999
-2.5373 -6.0068 2.3999
-2.3202 -6.0908 2.3999
-2.1002 -6.1666 2.3999
-1.8776 -6.2342 2.3999
-1.6528 -6.2935 2.3999
-1.4261 -6.3443 2.3999
-1.1977 -6.3867 2.3999
-0.9682 -6.4206 2.3999
-0.7376 -6.4459 2.3999
-0.5064 -6.4627 2.3999
-0.2750 -6.4709 2.3999
-0.0435 -6.4706 2.3999
0.1875 -6.4617 2.3999
0.4179 -6.4444 2.3999
0.6473 -6.4186 2.3999
0.8754 -6.3844 2.3999
1.1019 -6.3418 2.3999
1.3264 -6.2911 2.3999
1.5487 -6.2322 2.3999
1.7684 -6.1652 2.3999
1.9853 -6.0904 2.3999
2.1991 -6.0077 2.3999
2.4096 -5.9174 2.3999
2.6163 -5.8196 2.3999
2.8191 -5.7145 2.3999
3.0177 -5.6022 2.3999
3.2119 -5.4828 2.3999
3.4014 -5.3567 2.3999
3.5859 -5.2241 2.3999
3.7654 -5.0848 2.3999
3.9394 -4.9394 2.3999
4.1079 -4.7880 2.3999
4.2706 -4.6308 2.3999
4.4273 -4.4681 2.3999
4.5778 -4.3001 2.3999
-0.7894 2.1659 0.9628
-0.8670 2.1364 0.9617
-2.3568 5.2564 2.4000
-2.5475 5.1748 2.4000
-2.7354 5.0863 2.4000
-2.9203 4.9912 2.4000
-3.1020 4.8895 2.4000
-3.2801 4.7812 2.4000
-3.4544 4.6666 2.4000
-3.6248 4.5457 2.4000
-3.7910 4.4187 2.4000
-3.9527 4.2857 2.4000
-4.1098 4.1468 2.4000
-4.2620 4.0022 2.4000
-4.4091 3.8521 2.4000
-4.5509 3.6967 2.4000
-4.6872 3.5361 2.4000
-4.8178 3.3705 2.4000
-4.9426 3.2001 2.4000
-5.0613 3.0251 2.4000
-5.1737 2.8457 2.4000
-5.2797 2.6622 2.4000
-5.3792 2.4747 2.4000
-5.4719 2.2836 2.4000
-5.5578 2.0890 2.3999
-5.6366 1.8912 2.3999
-5.7083 1.6904 2.3999
-5.7727 1.4869 2.3999
-5.8298 1.2810 2.3999
-5.8793 1.0730 2.3999
-5.9213 0.8630 2.3999
-5.9557 0.6514 2.3999
-5.9823 0.4385 2.3999
-6.0012 0.2246 2.3999
-6.0122 0.0099 2.3999
-6.0154 -0.2053 2.3999
-6.0106 -0.4206 2.3999
-5.9980 -0.6358 2.3999
-5.9774 -0.8506 2.3999
-5.9489 -1.0647 2.3999
-5.9126 -1.2777 2.3999
-5.8684 -1.4894 2.3999
-5.8163 -1.6995 2.3999
-5.7566 -1.9077 2.3999
-5.6891 -2.1136 2.3999
-5.6140 -2.3171 2.3999
-5.5314 -2.5177 2.3999
-5.4414 -2.7153 2.3999
-5.3441 -2.9094 2.3999
-5.2396 -3.1000 2.3999
-5.1281 -3.2866 2.3999
-5.0097 -3.4690 2.3999
-4.8846 -3.6470 2.3999
-4.7529 -3.8203 2.3999
-4.6149 -3.9886 2.3999
-4.4706 -4.1517 2.3999
-4.3204 -4.3093 2.3999
-4.1644 -4.4613 2.3999
-4.0029 -4.6074 2.3999
-3.8360 -4.7474 2.3999
-3.6641 -4.8811 2.3999
-3.4873 -5.0083 2.3999
-3.3059 -5.1289 2.3999
-3.1203 -5.2426 2.3999
-2.9305 -5.3494 2.3999
-2.7370 -5.4490 2.3999
-2.5399 -5.5413 2.3999
-2.3396 -5.6262 2.3999
-2.1364 -5.7037 2.3999
-1.9305 -5.7735 2.3999
-1.7223 -5.8356 2.3999
-1.5120 -5.8899 2.3999
-1.2999 -5.9364 2.3999
-1.0864 -5.9750 2.3999
-0.8718 -6.0056 2.3999
-0.6562 -6.0283 2.3999
-0.4402 -6.0430 2.3999
-0.2239 -6.0497 2.3999
-0.0076 -6.0484 2.3999
0.2083 -6.0392 2.3999
0.4235 -6.0221 2.3999
0.6378 -5.9971 2.3999
0.8508 -5.9642 2.3999
1.0623 -5.9236 2.3999
1.2720 -5.8753 2.3999
1.4796 -5.8195 2.3999
1.6848 -5.7561 2.3999
1.8873 -5.6853 2.3999
2.0869 -5.6073 2.3999
2.2833 -5.5221 2.3999
2.4763 -5.4300 2.3999
2.6656 -5.3309 2.3999
2.8510 -5.2252 2.3999
3.0322 -5.1130 2.3999
3.2090 -4.9944 2.3999
3.3812 -4.8696 2.3999
3.5486 -4.7388 2.3999
3.7110 -4.6022 2.3999
3.8681 -4.4600 2.3999
4.0199 -4.3124 2.3999
4.1660 -4.1597 2.3999
4.3064 -4.0019 2.3999
4.4408 -3.8395 2.3999
4.5692 -3.6725 2.3999
4.6914 -3.5012 2.3999
4.8073 -3.3259 2.3999
4.9166 -3.1467 2.3999
5.0194 -2.9640 2.3999
5.1155 -2.7780 2.3999
5.2048 -2.5889 2.3999
5.2872 -2.3970 2.3999
5.3626 -2.2025 2.3999
5.4310 -2.0056 2.3999
5.4924 -1.8067 2.3999
5.5466 -1.6060 2.3999
5.2561 -1.3190 2.2552
5.2756 -1.1239 2.2475
5.3061 -0.9322 2.2475
5.3297 -0.7398 2.2475
5.3466 -0.5469 2.2475
5.3566 -0.3537 2.2475
5.3599 -0.1604 2.2475
5.3563 0.0326 2.2475
5.3460 0.2253 2.2475
5.3289 0.4172 2.2475
5.3052 0.6083 2.2475
5.2748 0.7983 2.2475
5.2378 0.9869 2.2475
5.1943 1.1740 2.2475
5.1443 1.3594 2.2475
5.0879 1.5427 2.2475
5.0252 1.7238 2.2475
4.9562 1.9025 2.2475
4.8811 2.0786 2.2475
4.8000 2.2519 2.2475
4.7129 2.4222 2.2475
4.6200 2.5892 2.2476
4.5214 2.7528 2.2476
4.4239 2.9173 2.2510
4.3137 3.0736 2.2508
4.1982 3.2258 2.2506
4.0775 3.3739 2.2504
3.9518 3.5176 2.2502
3.8211 3.6568 2.2499
3.6857 3.7914 2.2497
3.5458 3.9211 2.2495
3.4014 4.0459 2.2492
3.2528 4.1655 2.2490
3.1002 4.2799 2.2487
2.9437 4.3889 2.2484
2.7834 4.4924 2.2481
2.6197 4.5902 2.2479
2.4527 4.6823 2.2476
2.2876 4.7793 2.2523
0.9164 2.1064 0.9761
0.8399 2.1385 0.9759
0.7623 2.1677 0.9756
0.6838 2.1942 0.9753
0.6043 2.2178 0.9750
0.5240 2.2386 0.9746
0.4430 2.2564 0.9741
0.3614 2.2713 0.9737
0.2793 2.2833 0.9731
0.1969 2.2923 0.9726
0.1141 2.2983 0.9720
0.0312 2.3013 0.9713
-0.0518 2.3013 0.9706
-0.1347 2.2983 0.9699
-0.2174 2.2924 0.9691
-0.2999 2.2834 0.9683
-0.3820 2.2715 0.9675
-0.4637 2.2567 0.9666
-0.5447 2.2389 0.9657
-0.6250 2.2182 0.9648
-0.7046 2.1946 0.9638
-0.7832 2.1681 0.9629
-0.8608 2.1389 0.9618
-2.3415 5.2626 2.4000
-2.5324 5.1815 2.4000
-2.7206 5.0936 2.4000
-2.9057 4.9990 2.4000
-3.0876 4.8978 2.4000
-3.2660 4.7901 2.4000
-3.4407 4.6760 2.4000
-3.6114 4.5556 2.4000
-3.7779 4.4290 2.4000
-3.9400 4.2965 2.4000
-4.0974 4.1581 2.4000
-4.2500 4.0140 2.4000
-4.3975 3.8643 2.4000
-4.5398 3.7093 2.4000
-4.6765 3.5490 2.4000
-4.8076 3.3838 2.4000
-4.9329 3.2138 2.4000
-5.0520 3.0392 2.4000
-5.1650 2.8601 2.4000
-5.2715 2.6769 2.4000
-5.3715 2.4898 2.4000
-5.4648 2.2989 2.4000
-5.5512 2.1046 2.3999
-5.6306 1.9070 2.3999
-5.7028 1.7065 2.3999
-5.7678 1.5032 2.3999
-5.8255 1.2975 2.3999
