ply
format ascii 1.0
element vertex 2174
property float32 x
property float32 y
property float32 z
end_header
-7.5197 1.9369 2.3810
-7.5980 1.6754 2.3810
-7.6650 1.4104 2.3810
-7.7202 1.1425 2.3810
-7.7637 0.8722 2.3810
-7.7953 0.6001 2.3810
-7.8148 0.3267 2.3810
-7.8223 0.0527 2.3810
-7.8177 -0.2214 2.3810
-7.8010 -0.4949 2.3810
-7.7722 -0.7673 2.3810
-7.7316 -1.0380 2.3810
-7.6791 -1.3064 2.3810
-7.6150 -1.5719 2.3810
-7.5395 -1.8340 2.3810
-7.4527 -2.0922 2.3810
-7.3549 -2.3459 2.3810
-7.2465 -2.5947 2.3810
-7.1277 -2.8380 2.3810
-6.9989 -3.0754 2.3810
-6.8603 -3.3065 2.3810
-6.7125 -3.5308 2.3810
-6.5559 -3.7480 2.3810
-6.3907 -3.9577 2.3810
-6.2175 -4.1597 2.3810
-6.0368 -4.3535 2.3810
-5.8489 -4.5390 2.3810
-5.6544 -4.7159 2.3810
-5.4536 -4.8840 2.3810
-5.2471 -5.0430 2.3810
-5.0354 -5.1930 2.3810
-4.8190 -5.3337 2.3810
-4.5982 -5.4650 2.3810
-4.3736 -5.5869 2.3810
-4.1456 -5.6993 2.3810
-3.9147 -5.8022 2.3810
-3.6813 -5.8955 2.3810
-3.4459 -5.9794 2.3810
-3.2089 -6.0538 2.3810
-2.9707 -6.1189 2.3810
-2.7317 -6.1746 2.3810
-2.4924 -6.2211 2.3810
-2.2530 -6.2585 2.3810
-2.0140 -6.2869 2.3810
-1.7756 -6.3065 2.3810
-1.5383 -6.3174 2.3810
-1.3024 -6.3197 2.3810
-1.0681 -6.3136 2.3810
-0.8357 -6.2994 2.3810
-0.6056 -6.2771 2.3810
-0.3779 -6.2470 2.3810
-0.1530 -6.2092 2.3810
0.0689 -6.1641 2.3810
0.2877 -6.1116 2.3810
0.5031 -6.0522 2.3810
0.7148 -5.9859 2.3810
0.9229 -5.9130 2.3810
1.1269 -5.8337 2.3810
1.3269 -5.7482 2.3810
1.5226 -5.6568 2.3810
1.7140 -5.5595 2.3810
1.9008 -5.4566 2.3810
2.0830 -5.3484 2.3810
2.2605 -5.2350 2.3810
2.4331 -5.1166 2.3810
2.6008 -4.9935 2.3810
2.7635 -4.8657 2.3810
2.9211 -4.7336 2.3810
3.0736 -4.5973 2.3810
3.2208 -4.4570 2.3810
3.3628 -4.3128 2.3810
3.4994 -4.1650 2.3810
3.6306 -4.0138 2.3810
3.7564 -3.8593 2.3810
3.8768 -3.7014 2.3810
3.9916 -3.5407 2.3810
4.1010 -3.3771 2.3810
4.2047 -3.2111 2.3810
4.3029 -3.0425 2.3810
4.3955 -2.8716 2.3810
4.4825 -2.6985 2.3810
4.5638 -2.5234 2.3810
4.6395 -2.3464 2.3810
4.7095 -2.1677 2.3810
4.7738 -1.9874 2.3810
4.8324 -1.8056 2.3810
4.8854 -1.6226 2.3810
4.9326 -1.4383 2.3810
4.9742 -1.2530 2.3810
5.0100 -1.0669 2.3810
5.0401 -0.8799 2.3810
5.0644 -0.6923 2.3810
5.0830 -0.5042 2.3810
5.0959 -0.3158 2.3810
5.1031 -0.1270 2.3810
5.1045 0.0618 2.3810
5.1002 0.2506 2.3810
5.0901 0.4393 2.3810
5.0743 0.6277 2.3810
5.0528 0.8157 2.3810
5.0255 1.0031 2.3810
4.9925 1.1899 2.3810
4.9537 1.3759 2.3810
4.9092 1.5609 2.3810
4.8590 1.7449 2.3810
4.8030 1.9277 2.3810
4.7413 2.1091 2.3810
4.6739 2.2890 2.3810
4.6008 2.4673 2.3810
4.5221 2.6438 2.3810
4.4376 2.8183 2.3810
4.3474 2.9908 2.3810
4.2516 3.1610 2.3810
4.1502 3.3290 2.3810
4.0431 3.4944 2.3810
3.9305 3.6568 2.3810
3.8123 3.8166 2.3810
3.6886 3.9733 2.3810
3.5594 4.1267 2.3810
3.4247 4.2768 2.3810
3.2846 4.4233 2.3810
3.1392 4.5660 2.3810
2.9884 4.7048 2.3810
2.8324 4.8394 2.3810
2.6713 4.9697 2.3810
2.5050 5.0955 2.3810
2.3338 5.2166 2.3810
2.1576 5.3328 2.3810
0.8343 2.2978 1.0050
0.7515 2.3290 0.9992
0.6677 2.3571 0.9934
0.5829 2.3823 0.9875
0.4973 2.4043 0.9815
0.4109 2.4233 0.9754
0.3239 2.4391 0.9694
0.2363 2.4517 0.9632
0.1484 2.4612 0.9571
0.0601 2.4675 0.9509
-0.0283 2.4706 0.9447
-0.1167 2.4705 0.9385
-0.2051 2.4671 0.9323
-0.2934 2.4606 0.9261
-0.3813 2.4509 0.9199
-0.4688 2.4381 0.9138
-0.5559 2.4220 0.9076
-0.6422 2.4028 0.9015
-0.7279 2.3805 0.8955
-0.8126 2.3552 0.8895
-0.8964 2.3267 0.8836
-2.6560 6.2261 2.3810
-2.8962 6.1733 2.3810
-3.1357 6.1111 2.3810
-3.3741 6.0395 2.3810
-3.6109 5.9584 2.3810
-3.8459 5.8677 2.3810
-4.0785 5.7675 2.3810
-4.3082 5.6576 2.3810
-4.5347 5.5383 2.3810
-4.7574 5.4093 2.3810
-4.9759 5.2710 2.3810
-5.1897 5.1233 2.3810
-5.3983 4.9664 2.3810
-5.6013 4.8004 2.3810
-5.7981 4.6255 2.3810
-5.9883 4.4419 2.3810
-6.1715 4.2498 2.3810
-6.3471 4.0496 2.3810
-6.5148 3.8415 2.3810
-6.6740 3.6258 2.3810
-6.8244 3.4029 2.3810
-6.9655 3.1731 2.3810
-7.0970 2.9369 2.3810
-7.2185 2.6947 2.3810
-7.3297 2.4469 2.3810
-7.4302 2.1941 2.3810
-7.5198 1.9367 2.3810
-7.5981 1.6752 2.3810
-7.6650 1.4103 2.3810
-7.7203 1.1424 2.3810
-7.7637 0.8720 2.3810
-7.7953 0.5999 2.3810
-7.8148 0.3265 2.3810
-7.8223 0.0525 2.3810
-7.8177 -0.2215 2.3810
-7.8010 -0.4951 2.3810
-7.7722 -0.7675 2.3810
-7.7316 -1.0381 2.3810
-7.6791 -1.3065 2.3810
-7.6150 -1.5721 2.3810
-7.5394 -1.8342 2.3810
-7.4526 -2.0924 2.3810
-7.3549 -2.3461 2.3810
-7.2464 -2.5948 2.3810
-7.1276 -2.8381 2.3810
-6.9988 -3.0755 2.3810
-6.8603 -3.3066 2.3810
-6.7124 -3.5309 2.3810
-6.5557 -3.7481 2.3810
-6.3906 -3.9579 2.3810
-6.2174 -4.1598 2.3810
-6.0367 -4.3536 2.3810
-5.8488 -4.5391 2.3810
-5.6542 -4.7160 2.3810
-5.4535 -4.8841 2.3810
-5.2470 -5.0432 2.3810
-5.0353 -5.1931 2.3810
-4.8188 -5.3338 2.3810
-4.5980 -5.4651 2.3810
-4.3734 -5.5869 2.3810
-4.1454 -5.6993 2.3810
-3.9145 -5.8022 2.3810
-3.6811 -5.8956 2.3810
-3.4458 -5.9795 2.3810
-3.2088 -6.0539 2.3810
-2.9706 -6.1189 2.3810
-2.7316 -6.1746 2.3810
-2.4922 -6.2212 2.3810
-2.2528 -6.2585 2.3810
-2.0138 -6.2870 2.3810
-1.7755 -6.3065 2.3810
-1.5382 -6.3174 2.3810
-1.3022 -6.3197 2.3810
-1.0679 -6.3136 2.3810
-0.8356 -6.2994 2.3810
-0.6054 -6.2771 2.3810
-0.3778 -6.2470 2.3810
-0.1541 -5.8148 2.3810
0.0538 -5.7749 2.3810
0.2590 -5.7282 2.3810
0.4611 -5.6748 2.3810
0.6600 -5.6148 2.3810
0.8555 -5.5486 2.3810
1.0475 -5.4763 2.3810
1.2357 -5.3981 2.3810
1.4201 -5.3141 2.3810
1.6005 -5.2246 2.3810
1.7768 -5.1298 2.3810
1.9488 -5.0297 2.3810
2.1165 -4.9247 2.3810
2.2797 -4.8149 2.3810
2.4383 -4.7005 2.3810
2.5923 -4.5817 2.3810
2.7416 -4.4586 2.3810
2.8860 -4.3314 2.3810
3.0256 -4.2004 2.3810
3.1603 -4.0656 2.3810
3.2900 -3.9272 2.3810
3.4146 -3.7855 2.3810
3.5341 -3.6406 2.3810
3.6485 -3.4927 2.3810
3.7577 -3.3417 2.3810
3.8617 -3.1881 2.3810
3.9605 -3.0319 2.3810
4.0540 -2.8732 2.3810
4.1421 -2.7122 2.3810
4.2250 -2.5492 2.3810
4.3025 -2.3840 2.3810
4.3746 -2.2172 2.3810
4.4414 -2.0485 2.3810
4.5027 -1.8784 2.3810
4.5587 -1.7068 2.3810
4.6091 -1.5339 2.3810
4.6542 -1.3598 2.3810
4.6939 -1.1848 2.3810
4.7280 -1.0088 2.3810
4.7567 -0.8321 2.3810
4.7800 -0.6547 2.3810
4.7978 -0.4769 2.3810
4.8101 -0.2986 2.3810
4.8169 -0.1202 2.3810
4.8182 0.0584 2.3810
4.8141 0.2370 2.3810
4.8044 0.4154 2.3810
4.7893 0.5935 2.3810
4.7687 0.7713 2.3810
4.7427 0.9485 2.3810
4.7111 1.1250 2.3810
4.6741 1.3008 2.3810
4.6316 1.4756 2.3810
4.5836 1.6493 2.3810
4.5302 1.8219 2.3810
4.4714 1.9931 2.3810
4.4071 2.1629 2.3810
4.3374 2.3310 2.3810
4.2623 2.4973 2.3810
4.1817 2.6618 2.3810
4.0959 2.8242 2.3810
4.0046 2.9845 2.3810
3.9081 3.1423 2.3810
3.8062 3.2977 2.3810
3.6991 3.4503 2.3810
3.5867 3.6002 2.3810
3.4691 3.7471 2.3810
3.3464 3.8909 2.3810
3.2185 4.0313 2.3810
3.0856 4.1683 2.3810
2.9477 4.3016 2.3810
2.8049 4.4310 2.3810
2.6571 4.5565 2.3810
2.5046 4.6778 2.3810
2.3473 4.7947 2.3810
2.1853 4.9070 2.3810
0.8531 2.1189 1.0061
0.7767 2.1508 1.0008
0.6993 2.1800 0.9954
0.6208 2.2064 0.9899
0.5414 2.2299 0.9844
0.4613 2.2505 0.9788
0.3804 2.2683 0.9731
0.2989 2.2830 0.9674
0.2170 2.2949 0.9617
0.1347 2.3037 0.9559
0.0521 2.3096 0.9501
-0.0307 2.3125 0.9443
-0.1134 2.3124 0.9385
-0.1962 2.3093 0.9327
-0.2788 2.3032 0.9269
-0.3611 2.2941 0.9211
-0.4430 2.2820 0.9154
-0.5245 2.2670 0.9096
-0.6053 2.2491 0.9039
-0.6855 2.2282 0.8983
-0.7648 2.2045 0.8927
-0.8432 2.1779 0.8872
-0.9207 2.1485 0.8817
-2.7089 5.7502 2.3810
-2.9308 5.6897 2.3810
-3.1514 5.6206 2.3810
-3.3704 5.5426 2.3810
-3.5875 5.4559 2.3810
-3.8022 5.3604 2.3810
-4.0141 5.2561 2.3810
-4.2228 5.1430 2.3810
-4.4278 5.0213 2.3810
-4.6288 4.8909 2.3810
-4.8254 4.7520 2.3810
-5.0170 4.6047 2.3810
-5.2033 4.4491 2.3810
-5.3838 4.2855 2.3810
-5.5582 4.1140 2.3810
-5.7259 3.9348 2.3810
-5.8867 3.7482 2.3810
-6.0401 3.5545 2.3810
-6.1856 3.3540 2.3810
-6.3231 3.1469 2.3810
-6.4520 2.9337 2.3810
-6.5720 2.7147 2.3810
-6.6829 2.4903 2.3810
-6.7843 2.2609 2.3810
-6.8759 2.0270 2.3810
-6.9576 1.7889 2.3810
-7.0290 1.5473 2.3810
-7.0900 1.3024 2.3810
-7.1403 1.0550 2.3810
-7.1800 0.8053 2.3810
-7.2087 0.5541 2.3810
-7.2266 0.3018 2.3810
-7.2334 0.0488 2.3810
-7.2292 -0.2042 2.3810
-7.2141 -0.4567 2.3810
-7.1880 -0.7082 2.3810
-7.1510 -0.9581 2.3810
-7.1033 -1.2060 2.3810
-7.0450 -1.4514 2.3810
-6.9762 -1.6937 2.3810
-6.8972 -1.9325 2.3810
-6.8081 -2.1673 2.3810
-6.7093 -2.3976 2.3810
-6.6009 -2.6230 2.3810
-6.4834 -2.8432 2.3810
-6.3570 -3.0576 2.3810
-6.2220 -3.2660 2.3810
-6.0788 -3.4679 2.3810
-5.9278 -3.6631 2.3810
-5.7693 -3.8513 2.3810
-5.6038 -4.0322 2.3810
-5.4316 -4.2055 2.3810
-5.2532 -4.3709 2.3810
-5.0690 -4.5284 2.3810
-4.8794 -4.6778 2.3810
-4.6848 -4.8188 2.3810
-4.4857 -4.9513 2.3810
-4.2824 -5.0753 2.3810
-4.0755 -5.1907 2.3810
-3.8652 -5.2974 2.3810
-3.6521 -5.3954 2.3810
-3.4365 -5.4846 2.3810
-3.2189 -5.5651 2.3810
-2.9995 -5.6369 2.3810
-2.7789 -5.7000 2.3810
-2.5574 -5.7545 2.3810
-2.3353 -5.8004 2.3810
-2.1129 -5.8379 2.3810
-1.8907 -5.8671 2.3810
-1.6690 -5.8879 2.3810
-1.4480 -5.9007 2.3810
-1.2280 -5.9055 2.3810
-1.0095 -5.9024 2.3810
-0.7925 -5.8917 2.3810
-0.5774 -5.8734 2.3810
-0.3645 -5.8477 2.3810
-0.1540 -5.8148 2.3810
0.0540 -5.7749 2.3810
0.2591 -5.7281 2.3810
0.4612 -5.6747 2.3810
0.6601 -5.6148 2.3810
0.8556 -5.5486 2.3810
1.0476 -5.4763 2.3810
1.2358 -5.3980 2.3810
1.4202 -5.3141 2.3810
1.6006 -5.2246 2.3810
1.7769 -5.1297 2.3810
1.9489 -5.0297 2.3810
2.1166 -4.9247 2.3810
2.2798 -4.8148 2.3810
2.4384 -4.7004 2.3810
2.5924 -4.5816 2.3810
2.7417 -4.4585 2.3810
2.8861 -4.3313 2.3810
3.0257 -4.2003 2.3810
3.1604 -4.0655 2.3810
3.2901 -3.9272 2.3810
3.4147 -3.7854 2.3810
3.5342 -3.6405 2.3810
3.6486 -3.4926 2.3810
3.7578 -3.3416 2.3810
3.8618 -3.1880 2.3810
3.9605 -3.0316 2.3810
4.0540 -2.8731 2.3810
4.1422 -2.7121 2.3810
4.2250 -2.5491 2.3810
4.3025 -2.3839 2.3810
4.3747 -2.2171 2.3810
4.4414 -2.0485 2.3810
4.5028 -1.8783 2.3810
4.5587 -1.7067 2.3810
4.6092 -1.5338 2.3810
4.6543 -1.3597 2.3810
4.6939 -1.1846 2.3810
4.7280 -1.0087 2.3810
4.7568 -0.8319 2.3810
4.7800 -0.6546 2.3810
4.7978 -0.4767 2.3810
4.8101 -0.2985 2.3810
4.8169 -0.1201 2.3810
4.8182 0.0586 2.3810
4.8141 0.2371 2.3810
4.8044 0.4155 2.3810
4.7893 0.5937 2.3810
4.7687 0.7714 2.3810
4.7426 0.9486 2.3810
4.7111 1.1251 2.3810
4.6741 1.3009 2.3810
4.6316 1.4757 2.3810
4.5836 1.6494 2.3810
4.5302 1.8220 2.3810
4.4713 1.9932 2.3810
4.4070 2.1629 2.3810
4.3373 2.3311 2.3810
4.2622 2.4976 2.3810
4.1817 2.6618 2.3810
4.0958 2.8246 2.3810
4.0046 2.9846 2.3810
3.9080 3.1423 2.3810
3.8061 3.2977 2.3810
3.6990 3.4504 2.3810
3.5866 3.6003 2.3810
3.4690 3.7472 2.3810
3.3463 3.8910 2.3810
3.2185 4.0314 2.3810
3.0855 4.1684 2.3810
2.9476 4.3017 2.3810
2.8048 4.4311 2.3810
2.6570 4.5566 2.3810
2.5045 4.6778 2.3810
2.3472 4.7947 2.3810
2.1852 4.9071 2.3810
0.8530 2.1189 1.0061
0.7767 2.1509 1.0008
0.6992 2.1800 0.9954
0.6207 2.2064 0.9899
0.5414 2.2299 0.9844
0.4612 2.2505 0.9788
0.3803 2.2683 0.9731
0.2989 2.2830 0.9674
0.2170 2.2949 0.9617
0.1346 2.3037 0.9559
0.0520 2.3096 0.9501
-0.0307 2.3125 0.9443
-0.1135 2.3124 0.9385
-0.1963 2.3093 0.9327
-0.2788 2.3032 0.9269
-0.3611 2.2941 0.9211
-0.4431 2.2820 0.9154
-0.5245 2.2670 0.9096
-0.6054 2.2491 0.9039
-0.6855 2.2282 0.8983
-0.7649 2.2045 0.8927
-0.8433 2.1779 0.8872
-0.9207 2.1484 0.8817
-2.7091 5.7501 2.3810
-2.9309 5.6897 2.3810
-3.1515 5.6205 2.3810
-3.3706 5.5426 2.3810
-3.5877 5.4558 2.3810
-3.8023 5.3603 2.3810
-4.0142 5.2560 2.3810
-4.2229 5.1429 2.3810
-4.4280 5.0212 2.3810
-4.6290 4.8908 2.3810
-4.8255 4.7519 2.3810
-5.0171 4.6046 2.3810
-5.2034 4.4490 2.3810
-5.3839 4.2854 2.3810
-5.5583 4.1138 2.3810
-5.7261 3.9347 2.3810
-5.8868 3.7481 2.3810
-6.0402 3.5544 2.3810
-6.1857 3.3538 2.3810
-6.3232 3.1468 2.3810
-6.4521 2.9336 2.3810
-6.5721 2.7145 2.3810
-6.6830 2.4902 2.3810
-6.7844 2.2608 2.3810
-6.8760 2.0268 2.3810
-6.9576 1.7888 2.3810
-7.0290 1.5471 2.3810
-7.0900 1.3023 2.3810
-7.1404 1.0548 2.3810
-7.1800 0.8052 2.3810
-7.2087 0.5539 2.3810
-7.2266 0.3016 2.3810
-7.2334 0.0487 2.3810
-7.2292 -0.2043 2.3810
-7.2141 -0.4568 2.3810
-7.1880 -0.7083 2.3810
-7.1510 -0.9583 2.3810
-7.1033 -1.2062 2.3810
-7.0449 -1.4516 2.3810
-6.9762 -1.6939 2.3810
-6.8971 -1.9327 2.3810
-6.8081 -2.1674 2.3810
-6.7092 -2.3977 2.3810
-6.6009 -2.6232 2.3810
-6.4833 -2.8433 2.3810
-6.3569 -3.0577 2.3810
-6.2219 -3.2661 2.3810
-6.0787 -3.4681 2.3810
-5.9277 -3.6633 2.3810
-5.7692 -3.8514 2.3810
-5.6037 -4.0323 2.3810
-5.4315 -4.2056 2.3810
-5.2531 -4.3710 2.3810
-5.0689 -4.5285 2.3810
-4.8793 -4.6779 2.3810
-4.6847 -4.8189 2.3810
-4.4856 -4.9514 2.3810
-4.2823 -5.0754 2.3810
-4.0753 -5.1908 2.3810
-3.8651 -5.2975 2.3810
-3.6520 -5.3954 2.3810
-3.4364 -5.4847 2.3810
-3.2187 -5.5651 2.3810
-2.9994 -5.6369 2.3810
-2.7788 -5.7000 2.3810
-2.5572 -5.7545 2.3810
-2.3351 -5.8005 2.3810
-2.1128 -5.8380 2.3810
-1.8906 -5.8671 2.3810
-1.6688 -5.8880 2.3810
-1.4478 -5.9007 2.3810
-1.2279 -5.9055 2.3810
-1.0093 -5.9024 2.3810
-0.7924 -5.8917 2.3810
-0.5773 -5.8734 2.3810
-0.3644 -5.8477 2.3810
-0.1550 -5.4614 2.3810
0.0404 -5.4260 2.3810
0.2333 -5.3840 2.3810
0.4235 -5.3357 2.3810
0.6108 -5.2813 2.3810
0.7951 -5.2209 2.3810
0.9761 -5.1546 2.3810
1.1537 -5.0827 2.3810
1.3278 -5.0053 2.3810
1.4983 -4.9225 2.3810
1.6649 -4.8347 2.3810
1.8277 -4.7419 2.3810
1.9864 -4.6443 2.3810
2.1410 -4.5420 2.3810
2.2913 -4.4354 2.3810
2.4374 -4.3244 2.3810
2.5790 -4.2094 2.3810
2.7161 -4.0904 2.3810
2.8487 -3.9676 2.3810
2.9767 -3.8412 2.3810
3.1000 -3.7114 2.3810
3.2185 -3.5782 2.3810
3.3322 -3.4419 2.3810
3.4411 -3.3027 2.3810
3.5451 -3.1606 2.3810
3.6442 -3.0159 2.3810
3.7383 -2.8686 2.3810
3.8274 -2.7190 2.3810
3.9115 -2.5670 2.3810
3.9905 -2.4130 2.3810
4.0645 -2.2570 2.3810
4.1333 -2.0992 2.3810
4.1970 -1.9399 2.3810
4.2556 -1.7789 2.3810
4.3090 -1.6164 2.3810
4.3572 -1.4529 2.3810
4.4003 -1.2881 2.3810
4.4381 -1.1223 2.3810
4.4708 -0.9557 2.3810
4.4982 -0.7883 2.3810
4.5204 -0.6202 2.3810
4.5374 -0.4517 2.3810
4.5491 -0.2828 2.3810
4.5556 -0.1137 2.3810
4.5569 0.0555 2.3810
4.5529 0.2247 2.3810
4.5437 0.3937 2.3810
4.5292 0.5625 2.3810
4.5095 0.7309 2.3810
4.4845 0.8987 2.3810
4.4544 1.0659 2.3810
4.4190 1.2324 2.3810
4.3783 1.3978 2.3810
4.3325 1.5623 2.3810
4.2815 1.7255 2.3810
4.2252 1.8877 2.3810
4.1638 2.0481 2.3810
4.0973 2.2070 2.3810
4.0256 2.3640 2.3810
3.9488 2.5194 2.3810
3.8668 2.6727 2.3810
3.7798 2.8238 2.3810
3.6878 2.9726 2.3810
3.5907 3.1190 2.3810
3.4887 3.2628 2.3810
3.3817 3.4038 2.3810
3.2698 3.5419 2.3810
3.1530 3.6769 2.3810
3.0315 3.8088 2.3810
2.9052 3.9372 2.3810
2.7741 4.0621 2.3810
2.6385 4.1832 2.3810
2.4983 4.3005 2.3810
2.3536 4.4137 2.3810
2.2045 4.5227 2.3810
2.0512 4.6273 2.3810
0.7968 1.9893 1.0020
0.7252 2.0193 0.9970
0.6524 2.0467 0.9919
0.5788 2.0715 0.9868
0.5042 2.0935 0.9816
0.4290 2.1129 0.9763
0.3531 2.1295 0.9710
0.2766 2.1434 0.9657
0.1997 2.1545 0.9603
0.1224 2.1628 0.9549
0.0449 2.1683 0.9494
-0.0328 2.1710 0.9440
-0.1106 2.1709 0.9385
-0.1882 2.1680 0.9331
-0.2658 2.1622 0.9276
-0.3430 2.1537 0.9222
-0.4200 2.1424 0.9168
-0.4964 2.1283 0.9114
-0.5723 2.1115 0.9061
-0.6476 2.0919 0.9008
-0.7221 2.0696 0.8955
-0.7957 2.0446 0.8903
-0.8684 2.0170 0.8852
-0.9400 1.9868 0.8801
-2.7494 5.3163 2.3810
-2.9544 5.2496 2.3810
-3.1578 5.1748 2.3810
-3.3593 5.0919 2.3810
-3.5583 5.0008 2.3810
-3.7546 4.9017 2.3810
-3.9478 4.7945 2.3810
-4.1376 4.6793 2.3810
-4.3234 4.5561 2.3810
-4.5050 4.4252 2.3810
-4.6819 4.2866 2.3810
-4.8538 4.1404 2.3810
-5.0202 3.9869 2.3810
-5.1809 3.8262 2.3810
-5.3354 3.6584 2.3810
-5.4834 3.4840 2.3810
-5.6244 3.3031 2.3810
-5.7583 3.1159 2.3810
-5.8846 2.9229 2.3810
-6.0030 2.7242 2.3810
-6.1132 2.5204 2.3810
-6.2150 2.3116 2.3810
-6.3080 2.0983 2.3810
-6.3921 1.8809 2.3810
-6.4670 1.6598 2.3810
-6.5325 1.4354 2.3810
-6.5884 1.2082 2.3810
-6.6345 0.9786 2.3810
-6.6709 0.7470 2.3810
-6.6973 0.5140 2.3810
-6.7136 0.2800 2.3810
-6.7199 0.0454 2.3810
-6.7162 -0.1892 2.3810
-6.7023 -0.4233 2.3810
-6.6785 -0.6566 2.3810
-6.6446 -0.8885 2.3810
-6.6010 -1.1185 2.3810
-6.5476 -1.3463 2.3810
-6.4846 -1.5712 2.3810
-6.4121 -1.7931 2.3810
-6.3305 -2.0112 2.3810
-6.2399 -2.2254 2.3810
-6.1405 -2.4351 2.3810
-6.0326 -2.6401 2.3810
-5.9165 -2.8399 2.3810
-5.7925 -3.0341 2.3810
-5.6609 -3.2226 2.3810
-5.5220 -3.4049 2.3810
-5.3762 -3.5809 2.3810
-5.2238 -3.7502 2.3810
-5.0652 -3.9126 2.3810
-4.9008 -4.0678 2.3810
-4.7308 -4.2158 2.3810
-4.5558 -4.3563 2.3810
-4.3761 -4.4892 2.3810
-4.1920 -4.6144 2.3810
-4.0039 -4.7317 2.3810
-3.8123 -4.8410 2.3810
-3.6176 -4.9424 2.3810
-3.4200 -5.0357 2.3810
-3.2199 -5.1210 2.3810
-3.0178 -5.1982 2.3810
-2.8140 -5.2673 2.3810
-2.6088 -5.3284 2.3810
-2.4026 -5.3815 2.3810
-2.1957 -5.4266 2.3810
-1.9884 -5.4639 2.3810
-1.7810 -5.4934 2.3810
-1.5740 -5.5151 2.3810
-1.3674 -5.5293 2.3810
-1.1617 -5.5359 2.3810
-0.9571 -5.5352 2.3810
-0.7539 -5.5273 2.3810
-0.5523 -5.5122 2.3810
-0.3525 -5.4902 2.3810
-0.1548 -5.4614 2.3810
0.0406 -5.4260 2.3810
0.2334 -5.3840 2.3810
0.4236 -5.3357 2.3810
0.6109 -5.2813 2.3810
0.7952 -5.2208 2.3810
0.9762 -5.1545 2.3810
1.1538 -5.0826 2.3810
1.3280 -5.0052 2.3810
1.4984 -4.9225 2.3810
1.6651 -4.8346 2.3810
1.8278 -4.7418 2.3810
1.9865 -4.6442 2.3810
2.1411 -4.5420 2.3810
2.2914 -4.4353 2.3810
2.4375 -4.3243 2.3810
2.5791 -4.2093 2.3810
2.7162 -4.0903 2.3810
2.8488 -3.9675 2.3810
2.9768 -3.8411 2.3810
3.1000 -3.7113 2.3810
3.2186 -3.5781 2.3810
3.3323 -3.4419 2.3810
3.4412 -3.3026 2.3810
3.5452 -3.1605 2.3810
3.6443 -3.0157 2.3810
3.7384 -2.8685 2.3810
3.8275 -2.7187 2.3810
3.9115 -2.5669 2.3810
3.9906 -2.4130 2.3810
4.0645 -2.2569 2.3810
4.1333 -2.0991 2.3810
4.1970 -1.9398 2.3810
4.2556 -1.7787 2.3810
4.3090 -1.6163 2.3810
4.3572 -1.4528 2.3810
4.4003 -1.2879 2.3810
4.4382 -1.1222 2.3810
4.4708 -0.9556 2.3810
4.4982 -0.7882 2.3810
4.5204 -0.6201 2.3810
4.5374 -0.4516 2.3810
4.5491 -0.2827 2.3810
4.5556 -0.1136 2.3810
4.5569 0.0556 2.3810
4.5529 0.2248 2.3810
4.5436 0.3938 2.3810
4.5292 0.5626 2.3810
4.5095 0.7310 2.3810
4.4845 0.8988 2.3810
4.4543 1.0661 2.3810
4.4189 1.2325 2.3810
4.3783 1.3979 2.3810
4.3325 1.5624 2.3810
4.2814 1.7256 2.3810
4.2252 1.8877 2.3810
4.1638 2.0481 2.3810
4.0972 2.2070 2.3810
4.0255 2.3641 2.3810
3.9487 2.5194 2.3810
3.8668 2.6726 2.3810
3.7798 2.8239 2.3810
3.6877 2.9727 2.3810
3.5907 3.1191 2.3810
3.4886 3.2628 2.3810
3.3816 3.4039 2.3810
3.2697 3.5420 2.3810
3.1530 3.6770 2.3810
3.0314 3.8088 2.3810
2.9051 3.9373 2.3810
2.7741 4.0621 2.3810
2.6384 4.1833 2.3810
2.4982 4.3006 2.3810
2.3535 4.4138 2.3810
2.2044 4.5228 2.3810
2.0511 4.6274 2.3810
0.7968 1.9894 1.0020
0.7251 2.0194 0.9970
0.6524 2.0467 0.9919
0.5787 2.0715 0.9868
0.5042 2.0935 0.9816
0.4289 2.1129 0.9763
0.3530 2.1295 0.9710
0.2765 2.1434 0.9657
0.1996 2.1545 0.9603
0.1223 2.1628 0.9549
0.0448 2.1683 0.9494
-0.0329 2.1710 0.9440
-0.1106 2.1709 0.9385
-0.1883 2.1680 0.9331
-0.2658 2.1622 0.9276
-0.3431 2.1537 0.9222
-0.4200 2.1424 0.9168
-0.4965 2.1283 0.9114
-0.5724 2.1115 0.9061
-0.6476 2.0919 0.9008
-0.7221 2.0696 0.8955
-0.7957 2.0446 0.8903
-0.8684 2.0170 0.8852
-0.9401 1.9868 0.8801
-2.7495 5.3162 2.3810
-2.9546 5.2495 2.3810
-3.1580 5.1747 2.3810
-3.3594 5.0918 2.3810
-3.5584 5.0008 2.3810
-3.7548 4.9016 2.3810
-3.9480 4.7944 2.3810
-4.1377 4.6792 2.3810
-4.3235 4.5560 2.3810
-4.5051 4.4251 2.3810
-4.6820 4.2865 2.3810
-4.8539 4.1403 2.3810
-5.0203 3.9868 2.3810
-5.1810 3.8260 2.3810
-5.3355 3.6583 2.3810
-5.4835 3.4839 2.3810
-5.6245 3.3029 2.3810
-5.7584 3.1158 2.3810
-5.8847 2.9228 2.3810
-6.0031 2.7241 2.3810
-6.1133 2.5202 2.3810
-6.2151 2.3115 2.3810
-6.3081 2.0982 2.3810
-6.3922 1.8808 2.3810
-6.4670 1.6597 2.3810
-6.5325 1.4353 2.3810
-6.5884 1.2081 2.3810
-6.6346 0.9784 2.3810
-6.6709 0.7469 2.3810
-6.6973 0.5139 2.3810
-6.7136 0.2798 2.3810
-6.7199 0.0453 2.3810
-6.7161 -0.1893 2.3810
-6.7023 -0.4235 2.3810
-6.6784 -0.6568 2.3810
-6.6446 -0.8886 2.3810
-6.6009 -1.1187 2.3810
-6.5475 -1.3464 2.3810
-6.4845 -1.5714 2.3810
-6.4121 -1.7932 2.3810
-6.3305 -2.0114 2.3810
-6.2398 -2.2255 2.3810
-6.1404 -2.4353 2.3810
-6.0325 -2.6402 2.3810
-5.9165 -2.8400 2.3810
-5.7924 -3.0343 2.3810
-5.6608 -3.2227 2.3810
-5.5219 -3.4051 2.3810
-5.3761 -3.5810 2.3810
-5.2237 -3.7503 2.3810
-5.0651 -3.9127 2.3810
-4.9007 -4.0679 2.3810
-4.7307 -4.2159 2.3810
-4.5557 -4.3564 2.3810
-4.3759 -4.4893 2.3810
-4.1918 -4.6144 2.3810
-4.0038 -4.7317 2.3810
-3.8122 -4.8411 2.3810
-3.6174 -4.9425 2.3810
-3.4198 -5.0358 2.3810
-3.2198 -5.1211 2.3810
-3.0177 -5.1983 2.3810
-2.8138 -5.2674 2.3810
-2.6086 -5.3285 2.3810
-2.4024 -5.3815 2.3810
-2.1955 -5.4267 2.3810
-1.9883 -5.4639 2.3810
-1.7809 -5.4934 2.3810
-1.5738 -5.5151 2.3810
-1.3673 -5.5293 2.3810
-1.1616 -5.5359 2.3810
-0.9570 -5.5352 2.3810
-0.7538 -5.5273 2.3810
-0.5522 -5.5122 2.3810
-0.3524 -5.4902 2.3810
-0.1557 -5.1427 2.3810
0.0283 -5.1110 2.3810
0.2102 -5.0732 2.3810
0.3895 -5.0293 2.3810
0.5663 -4.9796 2.3810
0.7404 -4.9242 2.3810
0.9114 -4.8632 2.3810
1.0794 -4.7968 2.3810
1.2442 -4.7252 2.3810
1.4055 -4.6484 2.3810
1.5634 -4.5668 2.3810
1.7177 -4.4804 2.3810
1.8682 -4.3893 2.3810
2.0149 -4.2938 2.3810
2.1576 -4.1941 2.3810
2.2963 -4.0902 2.3810
2.4309 -3.9823 2.3810
2.5613 -3.8707 2.3810
2.6874 -3.7553 2.3810
2.8092 -3.6365 2.3810
2.9266 -3.5143 2.3810
3.0394 -3.3889 2.3810
3.1478 -3.2605 2.3810
3.2516 -3.1292 2.3810
3.3508 -2.9951 2.3810
3.4453 -2.8584 2.3810
3.5351 -2.7192 2.3810
3.6201 -2.5777 2.3810
3.7004 -2.4341 2.3810
3.7758 -2.2883 2.3810
3.8465 -2.1407 2.3810
3.9122 -1.9913 2.3810
3.9731 -1.8402 2.3810
4.0291 -1.6877 2.3810
4.0801 -1.5338 2.3810
4.1263 -1.3785 2.3810
4.1674 -1.2221 2.3810
4.2036 -1.0651 2.3810
4.2348 -0.9070 2.3810
4.2611 -0.7481 2.3810
4.2823 -0.5886 2.3810
4.2985 -0.4286 2.3810
4.3097 -0.2684 2.3810
4.3159 -0.1077 2.3810
4.3171 0.0529 2.3810
4.3133 0.2134 2.3810
4.3044 0.3738 2.3810
4.2906 0.5341 2.3810
4.2717 0.6939 2.3810
4.2478 0.8533 2.3810
4.2189 1.0119 2.3810
4.1851 1.1697 2.3810
4.1462 1.3265 2.3810
4.1023 1.4826 2.3810
4.0535 1.6373 2.3810
3.9998 1.7907 2.3810
3.9411 1.9426 2.3810
3.8774 2.0931 2.3810
3.8089 2.2421 2.3810
3.7355 2.3889 2.3810
3.6573 2.5339 2.3810
3.5742 2.6768 2.3810
3.4864 2.8174 2.3810
3.3938 2.9557 2.3810
3.2964 3.0913 2.3810
3.1944 3.2243 2.3810
3.0878 3.3545 2.3810
2.9766 3.4817 2.3810
2.8608 3.6057 2.3810
2.7406 3.7265 2.3810
2.6160 3.8438 2.3810
2.4870 3.9575 2.3810
2.3537 4.0675 2.3810
2.2163 4.1735 2.3810
2.0748 4.2754 2.3810
0.8126 1.8420 1.0029
0.7462 1.8726 0.9983
0.6787 1.9008 0.9936
0.6102 1.9266 0.9888
0.5409 1.9499 0.9840
0.4707 1.9706 0.9791
0.3999 1.9888 0.9741
0.3284 2.0045 0.9691
0.2565 2.0175 0.9641
0.1840 2.0280 0.9590
0.1113 2.0358 0.9539
0.0383 2.0410 0.9488
-0.0348 2.0435 0.9437
-0.1080 2.0434 0.9386
-0.1811 2.0406 0.9334
-0.2541 2.0353 0.9283
-0.3268 2.0272 0.9232
-0.3992 2.0166 0.9181
-0.4711 2.0033 0.9130
-0.5426 1.9874 0.9080
-0.6134 1.9690 0.9030
-0.6835 1.9480 0.8981
-0.7528 1.9245 0.8932
-0.8212 1.8985 0.8883
-0.8887 1.8701 0.8836
-0.9551 1.8392 0.8789
-2.7786 4.9185 2.3810
-2.9682 4.8468 2.3810
-3.1559 4.7675 2.3810
-3.3412 4.6806 2.3810
-3.5238 4.5863 2.3810
-3.7034 4.4845 2.3810
-3.8796 4.3753 2.3810
-4.0522 4.2589 2.3810
-4.2206 4.1352 2.3810
-4.3847 4.0045 2.3810
-4.5440 3.8668 2.3810
-4.6982 3.7224 2.3810
-4.8469 3.5714 2.3810
-4.9899 3.4139 2.3810
-5.1267 3.2503 2.3810
-5.2571 3.0808 2.3810
-5.3808 2.9056 2.3810
-5.4974 2.7251 2.3810
-5.6067 2.5394 2.3810
-5.7084 2.3489 2.3810
-5.8023 2.1540 2.3810
-5.8881 1.9550 2.3810
-5.9657 1.7522 2.3810
-6.0347 1.5460 2.3810
-6.0950 1.3369 2.3810
-6.1466 1.1252 2.3810
-6.1891 0.9113 2.3810
-6.2226 0.6957 2.3810
-6.2469 0.4787 2.3810
-6.2620 0.2608 2.3810
-6.2678 0.0424 2.3810
-6.2644 -0.1760 2.3810
-6.2517 -0.3940 2.3810
-6.2298 -0.6112 2.3810
-6.1986 -0.8272 2.3810
-6.1585 -1.0414 2.3810
-6.1093 -1.2536 2.3810
-6.0513 -1.4633 2.3810
-5.9846 -1.6701 2.3810
-5.9094 -1.8736 2.3810
-5.8258 -2.0735 2.3810
-5.7342 -2.2693 2.3810
-5.6347 -2.4608 2.3810
-5.5276 -2.6475 2.3810
-5.4131 -2.8293 2.3810
-5.2915 -3.0057 2.3810
-5.1632 -3.1766 2.3810
-5.0284 -3.3416 2.3810
-4.8874 -3.5005 2.3810
-4.7406 -3.6531 2.3810
-4.5883 -3.7991 2.3810
-4.4309 -3.9385 2.3810
-4.2686 -4.0710 2.3810
-4.1018 -4.1965 2.3810
-3.9309 -4.3149 2.3810
-3.7563 -4.4260 2.3810
-3.5782 -4.5298 2.3810
-3.3970 -4.6262 2.3810
-3.2131 -4.7152 2.3810
-3.0267 -4.7967 2.3810
-2.8384 -4.8707 2.3810
-2.6482 -4.9372 2.3810
-2.4567 -4.9962 2.3810
-2.2641 -5.0478 2.3810
-2.0707 -5.0920 2.3810
-1.8768 -5.1288 2.3810
-1.6827 -5.1582 2.3810
-1.4887 -5.1805 2.3810
-1.2951 -5.1957 2.3810
-1.1021 -5.2038 2.3810
-0.9101 -5.2049 2.3810
-0.7192 -5.1993 2.3810
-0.5296 -5.1869 2.3810
-0.3417 -5.1680 2.3810
-0.1556 -5.1426 2.3810
0.0284 -5.1110 2.3810
0.2103 -5.0732 2.3810
0.3897 -5.0293 2.3810
0.5665 -4.9796 2.3810
0.7405 -4.9242 2.3810
0.9115 -4.8631 2.3810
1.0795 -4.7967 2.3810
1.2443 -4.7251 2.3810
1.4056 -4.6484 2.3810
1.5635 -4.5667 2.3810
1.7178 -4.4803 2.3810
1.8683 -4.3893 2.3810
2.0150 -4.2938 2.3810
2.1577 -4.1940 2.3810
2.2964 -4.0901 2.3810
2.4310 -3.9823 2.3810
2.5614 -3.8706 2.3810
2.6875 -3.7553 2.3810
2.8093 -3.6364 2.3810
2.9266 -3.5142 2.3810
3.0395 -3.3888 2.3810
3.1479 -3.2604 2.3810
3.2517 -3.1291 2.3810
3.3508 -2.9950 2.3810
3.4453 -2.8583 2.3810
3.5351 -2.7191 2.3810
3.6202 -2.5776 2.3810
3.7004 -2.4339 2.3810
3.7759 -2.2882 2.3810
3.8465 -2.1406 2.3810
3.9123 -1.9912 2.3810
3.9731 -1.8403 2.3810
4.0291 -1.6876 2.3810
4.0802 -1.5337 2.3810
4.1263 -1.3785 2.3810
4.1674 -1.2222 2.3810
4.2036 -1.0650 2.3810
4.2348 -0.9069 2.3810
4.2611 -0.7478 2.3810
4.2823 -0.5885 2.3810
4.2985 -0.4286 2.3810
4.3097 -0.2682 2.3810
4.3159 -0.1076 2.3810
4.3171 0.0529 2.3810
4.3133 0.2134 2.3810
4.3044 0.3740 2.3810
4.2906 0.5342 2.3810
4.2717 0.6940 2.3810
4.2478 0.8533 2.3810
4.2189 1.0119 2.3810
4.1850 1.1697 2.3810
4.1461 1.3267 2.3810
4.1023 1.4826 2.3810
4.0535 1.6373 2.3810
3.9997 1.7907 2.3810
3.9410 1.9427 2.3810
3.8774 2.0932 2.3810
3.8089 2.2421 2.3810
3.7355 2.3891 2.3810
3.6572 2.5340 2.3810
3.5742 2.6769 2.3810
3.4863 2.8175 2.3810
3.3937 2.9557 2.3810
3.2964 3.0914 2.3810
3.1944 3.2244 2.3810
3.0877 3.3546 2.3810
2.9765 3.4818 2.3810
2.8608 3.6058 2.3810
2.7405 3.7266 2.3810
2.6159 3.8439 2.3810
2.4869 3.9576 2.3810
2.3537 4.0675 2.3810
2.2162 4.1736 2.3810
2.0747 4.2755 2.3810
0.8125 1.8420 1.0029
0.7461 1.8726 0.9983
0.6786 1.9008 0.9936
0.6102 1.9266 0.9888
0.5408 1.9499 0.9840
0.4707 1.9706 0.9791
0.3998 1.9888 0.9741
0.3284 2.0045 0.9691
0.2564 2.0175 0.9641
0.1840 2.0280 0.9590
0.1113 2.0358 0.9539
0.0383 2.0410 0.9488
-0.0348 2.0435 0.9437
-0.1080 2.0434 0.9386
-0.1811 2.0406 0.9334
-0.2541 2.0352 0.9283
-0.3268 2.0272 0.9232
-0.3992 2.0166 0.9181
-0.4712 2.0033 0.9130
-0.5426 1.9874 0.9080
-0.6135 1.9690 0.9030
-0.6836 1.9480 0.8981
-0.7529 1.9245 0.8932
-0.8213 1.8985 0.8883
-0.8887 1.8701 0.8836
-0.9551 1.8392 0.8789
-2.7788 4.9185 2.3810
-2.9684 4.8467 2.3810
-3.1560 4.7674 2.3810
-3.3413 4.6806 2.3810
-3.5239 4.5862 2.3810
-3.7035 4.4845 2.3810
-3.8797 4.3753 2.3810
-4.0523 4.2588 2.3810
-4.2208 4.1352 2.3810
-4.3848 4.0044 2.3810
-4.5441 3.8667 2.3810
-4.6983 3.7223 2.3810
-4.8470 3.5713 2.3810
-4.9899 3.4138 2.3810
-5.1268 3.2502 2.3810
-5.2572 3.0807 2.3810
-5.3809 2.9055 2.3810
-5.4975 2.7249 2.3810
-5.6068 2.5393 2.3810
-5.7085 2.3488 2.3810
-5.8024 2.1539 2.3810
-5.8882 1.9548 2.3810
-5.9657 1.7521 2.3810
-6.0347 1.5459 2.3810
-6.0951 1.3368 2.3810
-6.1466 1.1251 2.3810
-6.1891 0.9112 2.3810
-6.2226 0.6955 2.3810
-6.2469 0.4786 2.3810
-6.2620 0.2607 2.3810
-6.2678 0.0423 2.3810
-6.2644 -0.1761 2.3810
-6.2517 -0.3941 2.3810
-6.2297 -0.6114 2.3810
-6.1986 -0.8273 2.3810
-6.1584 -1.0416 2.3810
-6.1093 -1.2538 2.3810
-6.0512 -1.4635 2.3810
-5.9845 -1.6703 2.3810
-5.9093 -1.8738 2.3810
-5.8258 -2.0736 2.3810
-5.7341 -2.2695 2.3810
-5.6346 -2.4609 2.3810
-5.5275 -2.6477 2.3810
-5.4130 -2.8294 2.3810
-5.2914 -3.0059 2.3810
-5.1631 -3.1767 2.3810
-5.0283 -3.3417 2.3810
-4.8873 -3.5006 2.3810
-4.7405 -3.6532 2.3810
-4.5882 -3.7992 2.3810
-4.4308 -3.9386 2.3810
-4.2685 -4.0711 2.3810
-4.1017 -4.1966 2.3810
-3.9308 -4.3149 2.3810
-3.7561 -4.4261 2.3810
-3.5780 -4.5299 2.3810
-3.3969 -4.6263 2.3810
-3.2129 -4.7153 2.3810
-3.0266 -4.7968 2.3810
-2.8382 -4.8707 2.3810
-2.6481 -4.9373 2.3810
-2.4566 -4.9963 2.3810
-2.2639 -5.0478 2.3810
-2.0705 -5.0920 2.3810
-1.8766 -5.1288 2.3810
-1.6826 -5.1583 2.3810
-1.4886 -5.1805 2.3810
-1.2950 -5.1957 2.3810
-1.1020 -5.2038 2.3810
-0.9100 -5.2049 2.3810
-0.7190 -5.1993 2.3810
-0.5295 -5.1869 2.3810
-0.3416 -5.1680 2.3810
-0.1564 -4.8534 2.3810
0.0173 -4.8250 2.3810
0.1891 -4.7907 2.3810
0.3587 -4.7507 2.3810
0.5259 -4.7052 2.3810
0.6906 -4.6541 2.3810
0.8525 -4.5978 2.3810
1.0117 -4.5363 2.3810
1.1679 -4.4698 2.3810
1.3209 -4.3983 2.3810
1.4707 -4.3222 2.3810
1.6172 -4.2415 2.3810
1.7602 -4.1563 2.3810
1.8996 -4.0669 2.3810
2.0353 -3.9734 2.3810
2.1672 -3.8758 2.3810
2.2953 -3.7745 2.3810
2.4195 -3.6694 2.3810
2.5396 -3.5608 2.3810
2.6556 -3.4488 2.3810
2.7675 -3.3336 2.3810
2.8752 -3.2153 2.3810
2.9785 -3.0939 2.3810
3.0776 -2.9698 2.3810
3.1723 -2.8430 2.3810
3.2625 -2.7137 2.3810
3.3483 -2.5819 2.3810
3.4295 -2.4479 2.3810
3.5062 -2.3117 2.3810
3.5784 -2.1736 2.3810
3.6459 -2.0336 2.3810
3.7088 -1.8919 2.3810
3.7670 -1.7486 2.3810
3.8206 -1.6038 2.3810
3.8694 -1.4576 2.3810
3.9135 -1.3102 2.3810
3.9529 -1.1618 2.3810
3.9876 -1.0123 2.3810
4.0175 -0.8621 2.3810
4.0426 -0.7109 2.3810
4.0629 -0.5595 2.3810
4.0784 -0.4075 2.3810
4.0891 -0.2551 2.3810
4.0951 -0.1024 2.3810
4.0962 0.0503 2.3810
4.0925 0.2030 2.3810
4.0840 0.3555 2.3810
4.0707 0.5079 2.3810
4.0526 0.6597 2.3810
4.0297 0.8110 2.3810
4.0021 0.9618 2.3810
3.9696 1.1119 2.3810
3.9324 1.2609 2.3810
3.8904 1.4090 2.3810
3.8437 1.5561 2.3810
3.7922 1.7017 2.3810
3.7360 1.8459 2.3810
3.6752 1.9887 2.3810
3.6096 2.1298 2.3810
3.5395 2.2691 2.3810
3.4647 2.4065 2.3810
3.3853 2.5418 2.3810
3.3013 2.6749 2.3810
3.2129 2.8057 2.3810
3.1200 2.9340 2.3810
3.0226 3.0597 2.3810
2.9209 3.1826 2.3810
2.8148 3.3027 2.3810
2.7044 3.4196 2.3810
2.5898 3.5334 2.3810
2.4711 3.6439 2.3810
2.3483 3.7509 2.3810
2.2215 3.8542 2.3810
2.0907 3.9538 2.3810
0.8245 1.7067 1.0035
0.7629 1.7379 0.9993
0.7002 1.7667 0.9949
0.6366 1.7934 0.9905
0.5720 1.8177 0.9860
0.5065 1.8396 0.9814
0.4404 1.8592 0.9768
0.3735 1.8764 0.9721
0.3061 1.8911 0.9674
0.2382 1.9034 0.9627
0.1699 1.9133 0.9579
0.1013 1.9206 0.9531
0.0324 1.9255 0.9483
-0.0366 1.9279 0.9434
-0.1056 1.9278 0.9386
-0.1746 1.9252 0.9337
-0.2434 1.9201 0.9289
-0.3120 1.9125 0.9241
-0.3803 1.9025 0.9193
-0.4482 1.8900 0.9145
-0.5156 1.8750 0.9097
-0.5824 1.8576 0.9050
-0.6486 1.8378 0.9004
-0.7140 1.8157 0.8958
-0.7785 1.7911 0.8912
-0.8421 1.7643 0.8867
-0.9048 1.7352 0.8823
-0.9663 1.7038 0.8779
-2.7980 4.5521 2.3810
-2.9733 4.4763 2.3810
-3.1464 4.3934 2.3810
-3.3168 4.3036 2.3810
-3.4844 4.2069 2.3810
-3.6487 4.1033 2.3810
-3.8095 3.9929 2.3810
-3.9664 3.8759 2.3810
-4.1191 3.7524 2.3810
-4.2673 3.6225 2.3810
-4.4106 3.4863 2.3810
-4.5489 3.3440 2.3810
-4.6817 3.1959 2.3810
-4.8087 3.0421 2.3810
-4.9298 2.8828 2.3810
-5.0445 2.7183 2.3810
-5.1527 2.5489 2.3810
-5.2540 2.3748 2.3810
-5.3483 2.1964 2.3810
-5.4353 2.0138 2.3810
-5.5148 1.8275 2.3810
-5.5866 1.6378 2.3810
-5.6505 1.4449 2.3810
-5.7064 1.2494 2.3810
-5.7541 1.0515 2.3810
-5.7934 0.8516 2.3810
-5.8244 0.6501 2.3810
-5.8470 0.4473 2.3810
-5.8609 0.2438 2.3810
-5.8664 0.0398 2.3810
-5.8632 -0.1643 2.3810
-5.8515 -0.3679 2.3810
-5.8312 -0.5709 2.3810
-5.8025 -0.7727 2.3810
-5.7653 -0.9729 2.3810
-5.7199 -1.1713 2.3810
-5.6662 -1.3674 2.3810
-5.6045 -1.5608 2.3810
-5.5349 -1.7513 2.3810
-5.4575 -1.9384 2.3810
-5.3727 -2.1218 2.3810
-5.2805 -2.3012 2.3810
-5.1812 -2.4763 2.3810
-5.0751 -2.6468 2.3810
-4.9623 -2.8125 2.3810
-4.8432 -2.9730 2.3810
-4.7181 -3.1281 2.3810
-4.5872 -3.2776 2.3810
-4.4508 -3.4214 2.3810
-4.3092 -3.5591 2.3810
-4.1627 -3.6906 2.3810
-4.0117 -3.8158 2.3810
-3.8564 -3.9345 2.3810
-3.6972 -4.0467 2.3810
-3.5343 -4.1521 2.3810
-3.3682 -4.2508 2.3810
-3.1991 -4.3425 2.3810
-3.0273 -4.4274 2.3810
-2.8532 -4.5054 2.3810
-2.6770 -4.5763 2.3810
-2.4991 -4.6402 2.3810
-2.3198 -4.6972 2.3810
-2.1393 -4.7472 2.3810
-1.9580 -4.7903 2.3810
-1.7761 -4.8265 2.3810
-1.5939 -4.8558 2.3810
-1.4117 -4.8783 2.3810
-1.2297 -4.8942 2.3810
-1.0482 -4.9034 2.3810
-0.8675 -4.9060 2.3810
-0.6877 -4.9023 2.3810
-0.5091 -4.8922 2.3810
-0.3319 -4.8758 2.3810
-0.1563 -4.8534 2.3810
0.0175 -4.8250 2.3810
0.1892 -4.7907 2.3810
0.3588 -4.7507 2.3810
0.5260 -4.7051 2.3810
0.6907 -4.6541 2.3810
0.8526 -4.5977 2.3810
1.0118 -4.5362 2.3810
1.1680 -4.4697 2.3810
1.3210 -4.3983 2.3810
1.4708 -4.3222 2.3810
1.6173 -4.2414 2.3810
1.7603 -4.1563 2.3810
1.8997 -4.0669 2.3810
2.0354 -3.9733 2.3810
2.1673 -3.8758 2.3810
2.2954 -3.7744 2.3810
2.4196 -3.6693 2.3810
2.5397 -3.5607 2.3810
2.6557 -3.4487 2.3810
2.7676 -3.3335 2.3810
2.8752 -3.2152 2.3810
2.9786 -3.0939 2.3810
3.0776 -2.9697 2.3810
3.1723 -2.8429 2.3810
3.2625 -2.7136 2.3810
3.3483 -2.5818 2.3810
3.4296 -2.4478 2.3810
3.5063 -2.3116 2.3810
3.5784 -2.1735 2.3810
3.6459 -2.0335 2.3810
3.7088 -1.8919 2.3810
3.7671 -1.7485 2.3810
3.8206 -1.6038 2.3810
3.8694 -1.4576 2.3810
3.9136 -1.3101 2.3810
3.9530 -1.1617 2.3810
3.9876 -1.0122 2.3810
4.0175 -0.8619 2.3810
4.0426 -0.7109 2.3810
4.0629 -0.5594 2.3810
4.0784 -0.4074 2.3810
4.0891 -0.2550 2.3810
4.0951 -0.1023 2.3810
4.0962 0.0504 2.3810
4.0925 0.2031 2.3810
4.0840 0.3556 2.3810
4.0707 0.5079 2.3810
4.0526 0.6600 2.3810
4.0297 0.8112 2.3810
4.0021 0.9621 2.3810
3.9696 1.1118 2.3810
3.9324 1.2609 2.3810
3.8904 1.4091 2.3810
3.8436 1.5561 2.3810
3.7922 1.7018 2.3810
3.7360 1.8461 2.3810
3.6751 1.9888 2.3810
3.6096 2.1299 2.3810
3.5394 2.2692 2.3810
3.4646 2.4065 2.3810
3.3852 2.5419 2.3810
3.3013 2.6750 2.3810
3.2128 2.8057 2.3810
3.1199 2.9341 2.3810
3.0225 3.0598 2.3810
2.9208 3.1827 2.3810
2.8147 3.3027 2.3810
2.7043 3.4197 2.3810
2.5898 3.5335 2.3810
2.4710 3.6440 2.3810
2.3482 3.7510 2.3810
2.2214 3.8543 2.3810
2.0906 3.9538 2.3810
0.8244 1.7067 1.0035
0.7628 1.7379 0.9993
0.7002 1.7668 0.9949
0.6365 1.7934 0.9905
0.5719 1.8177 0.9860
0.5065 1.8396 0.9814
0.4403 1.8592 0.9768
0.3735 1.8764 0.9721
0.3061 1.8911 0.9674
0.2381 1.9034 0.9627
0.1698 1.9133 0.9579
0.1012 1.9206 0.9531
0.0324 1.9255 0.9483
-0.0366 1.9279 0.9434
-0.1056 1.9278 0.9386
-0.1746 1.9252 0.9337
-0.2435 1.9201 0.9289
-0.3121 1.9125 0.9241
-0.3804 1.9025 0.9193
-0.4483 1.8899 0.9145
-0.5157 1.8750 0.9097
-0.5825 1.8576 0.9050
-0.6486 1.8378 0.9004
-0.7140 1.8156 0.8958
-0.7786 1.7911 0.8912
-0.8422 1.7643 0.8867
-0.9048 1.7352 0.8823
-0.9663 1.7038 0.8779
-2.7981 4.5521 2.3810
-2.9734 4.4762 2.3810
-3.1465 4.3934 2.3810
-3.3169 4.3035 2.3810
-3.4845 4.2068 2.3810
-3.6488 4.1032 2.3810
-3.8096 3.9928 2.3810
-3.9665 3.8758 2.3810
-4.1192 3.7523 2.3810
-4.2674 3.6224 2.3810
-4.4107 3.4862 2.3810
-4.5490 3.3439 2.3810
-4.6818 3.1958 2.3810
-4.8088 3.0420 2.3810
-4.9298 2.8827 2.3810
-5.0446 2.7182 2.3810
-5.1528 2.5488 2.3810
-5.2541 2.3747 2.3810
-5.3484 2.1962 2.3810
-5.4354 2.0137 2.3810
-5.5148 1.8274 2.3810
-5.5866 1.6376 2.3810
-5.6505 1.4448 2.3810
-5.7064 1.2493 2.3810
-5.7541 1.0514 2.3810
-5.7935 0.8515 2.3810
-5.8245 0.6499 2.3810
-5.8470 0.4472 2.3810
-5.8609 0.2437 2.3810
-5.8664 0.0397 2.3810
-5.8632 -0.1644 2.3810
-5.8515 -0.3681 2.3810
-5.8312 -0.5710 2.3810
-5.8024 -0.7728 2.3810
-5.7653 -0.9731 2.3810
-5.7198 -1.1714 2.3810
-5.6661 -1.3675 2.3810
-5.6044 -1.5610 2.3810
-5.5348 -1.7514 2.3810
-5.4575 -1.9385 2.3810
-5.3726 -2.1219 2.3810
-5.2804 -2.3013 2.3810
-5.1811 -2.4764 2.3810
-5.0750 -2.6469 2.3810
-4.9622 -2.8126 2.3810
-4.8431 -2.9731 2.3810
-4.7180 -3.1282 2.3810
-4.5871 -3.2777 2.3810
-4.4507 -3.4215 2.3810
-4.3091 -3.5592 2.3810
-4.1626 -3.6907 2.3810
-4.0116 -3.8159 2.3810
-3.8563 -3.9346 2.3810
-3.6971 -4.0467 2.3810
-3.5342 -4.1522 2.3810
-3.3681 -4.2508 2.3810
-3.1990 -4.3426 2.3810
-3.0272 -4.4275 2.3810
-2.8531 -4.5054 2.3810
-2.6769 -4.5763 2.3810
-2.4990 -4.6403 2.3810
-2.3197 -4.6973 2.3810
-2.1392 -4.7473 2.3810
-1.9579 -4.7903 2.3810
-1.7760 -4.8265 2.3810
-1.5938 -4.8558 2.3810
-1.4116 -4.8784 2.3810
-1.2296 -4.8942 2.3810
-1.0481 -4.9034 2.3810
-0.8674 -4.9060 2.3810
-0.6876 -4.9023 2.3810
-0.5090 -4.8922 2.3810
-0.3318 -4.8758 2.3810
-0.1571 -4.5895 2.3810
0.0073 -4.5639 2.3810
0.1699 -4.5327 2.3810
0.3305 -4.4961 2.3810
0.4889 -4.4542 2.3810
0.6450 -4.4070 2.3810
0.7986 -4.3548 2.3810
0.9497 -4.2976 2.3810
1.0979 -4.2357 2.3810
1.2433 -4.1690 2.3810
1.3857 -4.0978 2.3810
1.5250 -4.0223 2.3810
1.6610 -3.9424 2.3810
1.7936 -3.8585 2.3810
1.9229 -3.7705 2.3810
2.0485 -3.6787 2.3810
2.1706 -3.5833 2.3810
2.2889 -3.4842 2.3810
2.4035 -3.3817 2.3810
2.5142 -3.2760 2.3810
2.6210 -3.1671 2.3810
2.7237 -3.0552 2.3810
2.8225 -2.9404 2.3810
2.9171 -2.8228 2.3810
3.0075 -2.7027 2.3810
3.0938 -2.5801 2.3810
3.1758 -2.4552 2.3810
3.2535 -2.3280 2.3810
3.3269 -2.1988 2.3810
3.3959 -2.0677 2.3810
3.4605 -1.9347 2.3810
3.5207 -1.8000 2.3810
3.5765 -1.6639 2.3810
3.6278 -1.5261 2.3810
3.6746 -1.3872 2.3810
3.7168 -1.2471 2.3810
3.7546 -1.1057 2.3810
3.7877 -0.9635 2.3810
3.8164 -0.8205 2.3810
3.8404 -0.6769 2.3810
3.8599 -0.5325 2.3810
3.8747 -0.3880 2.3810
3.8850 -0.2428 2.3810
3.8907 -0.0974 2.3810
3.8917 0.0479 2.3810
3.8882 0.1933 2.3810
3.8801 0.3385 2.3810
3.8673 0.4835 2.3810
3.8499 0.6281 2.3810
3.8280 0.7722 2.3810
3.8015 0.9157 2.3810
3.7703 1.0582 2.3810
3.7347 1.2003 2.3810
3.6944 1.3413 2.3810
3.6497 1.4808 2.3810
3.6004 1.6193 2.3810
3.5466 1.7564 2.3810
3.4883 1.8921 2.3810
3.4255 2.0261 2.3810
3.3584 2.1584 2.3810
3.2868 2.2887 2.3810
3.2109 2.4171 2.3810
3.1306 2.5433 2.3810
3.0460 2.6673 2.3810
2.9572 2.7888 2.3810
2.8642 2.9079 2.3810
2.7670 3.0242 2.3810
2.6657 3.1377 2.3810
2.5604 3.2483 2.3810
2.4510 3.3557 2.3810
2.3378 3.4600 2.3810
2.2207 3.5608 2.3810
2.0998 3.6582 2.3810
0.8329 1.5820 1.0040
0.7758 1.6135 1.0000
0.7176 1.6429 0.9960
0.6583 1.6702 0.9918
0.5981 1.6954 0.9876
0.5371 1.7183 0.9834
0.4752 1.7391 0.9791
0.4127 1.7576 0.9747
0.3495 1.7738 0.9703
0.2857 1.7877 0.9658
0.2215 1.7994 0.9614
0.1570 1.8087 0.9568
0.0921 1.8156 0.9523
0.0270 1.8202 0.9477
-0.0382 1.8225 0.9432
-0.1035 1.8224 0.9386
-0.1687 1.8199 0.9340
-0.2337 1.8151 0.9294
-0.2986 1.8080 0.9249
-0.3632 1.7985 0.9203
-0.4273 1.7866 0.9158
-0.4910 1.7725 0.9113
-0.5542 1.7560 0.9069
-0.6167 1.7373 0.9025
-0.6785 1.7164 0.8981
-0.7396 1.6932 0.8938
-0.7997 1.6679 0.8896
-0.8589 1.6403 0.8854
-0.9171 1.6107 0.8812
-0.9741 1.5790 0.8772
-2.8084 4.2132 2.3810
-2.9705 4.1341 2.3810
-3.1301 4.0485 2.3810
-3.2869 3.9564 2.3810
-3.4406 3.8580 2.3810
-3.5908 3.7533 2.3810
-3.7374 3.6424 2.3810
-3.8800 3.5255 2.3810
-4.0184 3.4026 2.3810
-4.1521 3.2740 2.3810
-4.2810 3.1397 2.3810
-4.4048 3.0000 2.3810
-4.5232 2.8550 2.3810
-4.6360 2.7051 2.3810
-4.7428 2.5503 2.3810
-4.8435 2.3909 2.3810
-4.9378 2.2273 2.3810
-5.0255 2.0596 2.3810
-5.1064 1.8882 2.3810
-5.1803 1.7133 2.3810
-5.2471 1.5353 2.3810
-5.3065 1.3544 2.3810
-5.3584 1.1710 2.3810
-5.4027 0.9855 2.3810
-5.4393 0.7981 2.3810
-5.4681 0.6093 2.3810
-5.4890 0.4193 2.3810
-5.5021 0.2286 2.3810
-5.5071 0.0374 2.3810
-5.5042 -0.1538 2.3810
-5.4933 -0.3446 2.3810
-5.4745 -0.5348 2.3810
-5.4479 -0.7239 2.3810
-5.4134 -0.9116 2.3810
-5.3712 -1.0976 2.3810
-5.3213 -1.2815 2.3810
-5.2640 -1.4630 2.3810
-5.1994 -1.6417 2.3810
-5.1275 -1.8173 2.3810
-5.0486 -1.9895 2.3810
-4.9629 -2.1581 2.3810
-4.8705 -2.3227 2.3810
-4.7717 -2.4831 2.3810
-4.6668 -2.6390 2.3810
-4.5559 -2.7901 2.3810
-4.4393 -2.9363 2.3810
-4.3173 -3.0773 2.3810
-4.1901 -3.2130 2.3810
-4.0580 -3.3431 2.3810
-3.9213 -3.4675 2.3810
-3.7803 -3.5860 2.3810
-3.6352 -3.6985 2.3810
-3.4864 -3.8049 2.3810
-3.3341 -3.9050 2.3810
-3.1787 -3.9989 2.3810
-3.0203 -4.0864 2.3810
-2.8595 -4.1674 2.3810
-2.6963 -4.2419 2.3810
-2.5311 -4.3099 2.3810
-2.3641 -4.3714 2.3810
-2.1958 -4.4264 2.3810
-2.0262 -4.4748 2.3810
-1.8558 -4.5167 2.3810
-1.6847 -4.5522 2.3810
-1.5133 -4.5812 2.3810
-1.3417 -4.6038 2.3810
-1.1703 -4.6201 2.3810
-0.9992 -4.6301 2.3810
-0.8287 -4.6340 2.3810
-0.6590 -4.6317 2.3810
-0.4904 -4.6235 2.3810
-0.3229 -4.6094 2.3810
-0.1570 -4.5895 2.3810
0.0074 -4.5639 2.3810
0.1700 -4.5327 2.3810
0.3306 -4.4961 2.3810
0.4890 -4.4541 2.3810
0.6451 -4.4070 2.3810
0.7987 -4.3548 2.3810
0.9498 -4.2976 2.3810
1.0980 -4.2356 2.3810
1.2434 -4.1690 2.3810
1.3858 -4.0978 2.3810
1.5250 -4.0222 2.3810
1.6611 -3.9424 2.3810
1.7937 -3.8584 2.3810
1.9229 -3.7705 2.3810
2.0486 -3.6787 2.3810
2.1707 -3.5832 2.3810
2.2890 -3.4841 2.3810
2.4036 -3.3817 2.3810
2.5143 -3.2759 2.3810
2.6210 -3.1670 2.3810
2.7238 -3.0551 2.3810
2.8225 -2.9403 2.3810
2.9171 -2.8228 2.3810
3.0076 -2.7026 2.3810
3.0938 -2.5800 2.3810
3.1759 -2.4551 2.3810
3.2536 -2.3280 2.3810
3.3269 -2.1988 2.3810
3.3960 -2.0676 2.3810
3.4606 -1.9346 2.3810
3.5208 -1.7999 2.3810
3.5765 -1.6636 2.3810
3.6278 -1.5260 2.3810
3.6746 -1.3871 2.3810
3.7169 -1.2468 2.3810
3.7546 -1.1057 2.3810
3.7878 -0.9635 2.3810
3.8164 -0.8205 2.3810
3.8404 -0.6769 2.3810
3.8599 -0.5325 2.3810
3.8747 -0.3878 2.3810
3.8850 -0.2427 2.3810
3.8907 -0.0974 2.3810
3.8917 0.0480 2.3810
3.8882 0.1934 2.3810
3.8801 0.3386 2.3810
3.8673 0.4836 2.3810
3.8499 0.6282 2.3810
3.8280 0.7722 2.3810
3.8014 0.9158 2.3810
3.7703 1.0584 2.3810
3.7346 1.2004 2.3810
3.6944 1.3412 2.3810
3.6496 1.4809 2.3810
3.6003 1.6194 2.3810
3.5465 1.7565 2.3810
3.4882 1.8922 2.3810
3.4255 2.0262 2.3810
3.3583 2.1584 2.3810
3.2867 2.2888 2.3810
3.2108 2.4172 2.3810
3.1305 2.5434 2.3810
3.0460 2.6674 2.3810
2.9571 2.7889 2.3810
2.8641 2.9079 2.3810
2.7669 3.0243 2.3810
2.6656 3.1378 2.3810
2.5603 3.2483 2.3810
2.4510 3.3558 2.3810
2.3377 3.4600 2.3810
2.2206 3.5609 2.3810
2.0998 3.6582 2.3810
0.8329 1.5820 1.0040
0.7757 1.6135 1.0000
0.7175 1.6429 0.9960
0.6583 1.6702 0.9918
0.5981 1.6954 0.9876
0.5370 1.7183 0.9834
0.4752 1.7391 0.9791
0.4126 1.7576 0.9747
0.3494 1.7738 0.9703
0.2857 1.7878 0.9658
0.2215 1.7994 0.9614
0.1569 1.8087 0.9568
0.0921 1.8156 0.9523
0.0270 1.8202 0.9477
-0.0382 1.8225 0.9432
-0.1035 1.8224 0.9386
-0.1687 1.8199 0.9340
-0.2338 1.8151 0.9294
-0.2986 1.8079 0.9249
-0.3632 1.7984 0.9203
-0.4274 1.7866 0.9158
-0.4911 1.7725 0.9113
-0.5542 1.7560 0.9069
-0.6168 1.7373 0.9025
-0.6786 1.7164 0.8981
-0.7396 1.6932 0.8938
-0.7997 1.6678 0.8895
-0.8589 1.6403 0.8854
-0.9171 1.6107 0.8812
-0.9741 1.5789 0.8772
-2.8085 4.2132 2.3810
-2.9706 4.1340 2.3810
-3.1302 4.0484 2.3810
-3.2870 3.9564 2.3810
-3.4407 3.8579 2.3810
-3.5910 3.7532 2.3810
-3.7375 3.6424 2.3810
-3.8801 3.5254 2.3810
-4.0185 3.4025 2.3810
-4.1522 3.2739 2.3810
-4.2811 3.1396 2.3810
-4.4049 2.9999 2.3810
-4.5233 2.8549 2.3810
-4.6360 2.7050 2.3810
-4.7429 2.5502 2.3810
-4.8436 2.3909 2.3810
-4.9379 2.2272 2.3810
-5.0256 2.0595 2.3810
-5.1065 1.8881 2.3810
-5.1804 1.7132 2.3810
-5.2471 1.5352 2.3810
-5.3065 1.3543 2.3810
-5.3584 1.1709 2.3810
-5.4027 0.9854 2.3810
-5.4393 0.7980 2.3810
-5.4681 0.6091 2.3810
-5.4891 0.4192 2.3810
-5.5021 0.2284 2.3810
-5.5071 0.0373 2.3810
-5.5042 -0.1539 2.3810
-5.4933 -0.3447 2.3810
-5.4745 -0.5349 2.3810
-5.4478 -0.7240 2.3810
-5.4134 -0.9118 2.3810
-5.3711 -1.0977 2.3810
-5.3213 -1.2816 2.3810
-5.2640 -1.4631 2.3810
-5.1993 -1.6418 2.3810
-5.1274 -1.8174 2.3810
-5.0485 -1.9896 2.3810
-4.9628 -2.1582 2.3810
-4.8704 -2.3228 2.3810
-4.7717 -2.4832 2.3810
-4.6667 -2.6391 2.3810
-4.5558 -2.7902 2.3810
-4.4392 -2.9364 2.3810
-4.3172 -3.0774 2.3810
-4.1900 -3.2131 2.3810
-4.0579 -3.3432 2.3810
-3.9212 -3.4675 2.3810
-3.7802 -3.5860 2.3810
-3.6351 -3.6986 2.3810
-3.4863 -3.8049 2.3810
-3.3340 -3.9051 2.3810
-3.1786 -3.9990 2.3810
-3.0203 -4.0864 2.3810
-2.8593 -4.1674 2.3810
-2.6962 -4.2420 2.3810
-2.5310 -4.3100 2.3810
-2.3640 -4.3715 2.3810
-2.1957 -4.4264 2.3810
-2.0261 -4.4748 2.3810
-1.8557 -4.5167 2.3810
-1.6846 -4.5522 2.3810
-1.5132 -4.5812 2.3810
-1.3416 -4.6038 2.3810
-1.1702 -4.6201 2.3810
-0.9991 -4.6301 2.3810
-0.8286 -4.6340 2.3810
-0.6589 -4.6317 2.3810
-0.4903 -4.6235 2.3810
-0.3228 -4.6094 2.3810
-0.1576 -4.3475 2.3810
-0.0019 -4.3243 2.3810
0.1522 -4.2959 2.3810
0.3045 -4.2622 2.3810
0.4549 -4.2235 2.3810
0.6031 -4.1798 2.3810
0.7490 -4.1313 2.3810
0.8926 -4.0780 2.3810
1.0335 -4.0201 2.3810
1.1718 -3.9578 2.3810
1.3073 -3.8911 2.3810
1.4399 -3.8201 2.3810
1.5695 -3.7451 2.3810
1.6959 -3.6661 2.3810
1.8191 -3.5832 2.3810
1.9389 -3.4967 2.3810
2.0553 -3.4066 2.3810
2.1683 -3.3130 2.3810
2.2777 -3.2161 2.3810
2.3834 -3.1161 2.3810
2.4854 -3.0130 2.3810
2.5836 -2.9070 2.3810
2.6780 -2.7982 2.3810
2.7684 -2.6867 2.3810
2.8550 -2.5728 2.3810
2.9375 -2.4564 2.3810
3.0160 -2.3377 2.3810
3.0903 -2.2169 2.3810
3.1606 -2.0941 2.3810
3.2267 -1.9694 2.3810
3.2886 -1.8429 2.3810
3.3463 -1.7148 2.3810
3.3997 -1.5851 2.3810
3.4488 -1.4541 2.3810
3.4937 -1.3217 2.3810
3.5342 -1.1882 2.3810
3.5703 -1.0536 2.3810
3.6021 -0.9182 2.3810
3.6296 -0.7819 2.3810
3.6526 -0.6450 2.3810
3.6713 -0.5075 2.3810
3.6855 -0.3696 2.3810
3.6954 -0.2313 2.3810
3.7008 -0.0928 2.3810
3.7018 0.0458 2.3810
3.6984 0.1844 2.3810
3.6906 0.3229 2.3810
3.6783 0.4611 2.3810
3.6617 0.5989 2.3810
3.6406 0.7362 2.3810
3.6152 0.8728 2.3810
3.5853 1.0088 2.3810
3.5511 1.1439 2.3810
3.5125 1.2780 2.3810
3.4696 1.4111 2.3810
3.4223 1.5429 2.3810
3.3707 1.6734 2.3810
3.3149 1.8025 2.3810
3.2548 1.9299 2.3810
3.1904 2.0557 2.3810
3.1219 2.1796 2.3810
3.0492 2.3016 2.3810
2.9724 2.4215 2.3810
2.8914 2.5391 2.3810
2.8065 2.6545 2.3810
2.7175 2.7673 2.3810
2.6246 2.8776 2.3810
2.5278 2.9851 2.3810
2.4271 3.0898 2.3810
2.3227 3.1914 2.3810
2.2146 3.2900 2.3810
2.1028 3.3852 2.3810
0.8382 1.4665 1.0042
0.7853 1.4982 1.0005
0.7312 1.5281 0.9968
0.6760 1.5559 0.9929
0.6199 1.5818 0.9890
0.5629 1.6056 0.9851
0.5051 1.6273 0.9810
0.4465 1.6470 0.9769
0.3873 1.6645 0.9728
0.3274 1.6798 0.9686
0.2671 1.6930 0.9644
0.2063 1.7040 0.9602
0.1451 1.7128 0.9559
0.0837 1.7194 0.9516
0.0221 1.7238 0.9473
-0.0397 1.7259 0.9429
-0.1015 1.7258 0.9386
-0.1632 1.7235 0.9343
-0.2249 1.7189 0.9299
-0.2863 1.7121 0.9256
-0.3474 1.7031 0.9213
-0.4082 1.6919 0.9170
-0.4685 1.6785 0.9128
-0.5283 1.6630 0.9086
-0.5875 1.6453 0.9044
-0.6461 1.6254 0.9003
-0.7039 1.6035 0.8962
-0.7608 1.5795 0.8922
-0.8169 1.5534 0.8882
-0.8719 1.5253 0.8843
-0.9260 1.4953 0.8805
-0.9789 1.4633 0.8767
-2.8107 3.8986 2.3810
-2.9606 3.8169 2.3810
-3.1077 3.7292 2.3810
-3.2518 3.6356 2.3810
-3.3927 3.5361 2.3810
-3.5300 3.4309 2.3810
-3.6636 3.3200 2.3810
-3.7930 3.2036 2.3810
-3.9182 3.0819 2.3810
-4.0388 2.9549 2.3810
-4.1545 2.8229 2.3810
-4.2652 2.6860 2.3810
-4.3705 2.5445 2.3810
-4.4703 2.3985 2.3810
-4.5644 2.2483 2.3810
-4.6524 2.0942 2.3810
-4.7343 1.9363 2.3810
-4.8097 1.7749 2.3810
-4.8787 1.6103 2.3810
-4.9409 1.4429 2.3810
-4.9963 1.2728 2.3810
-5.0447 1.1004 2.3810
-5.0861 0.9260 2.3810
-5.1202 0.7499 2.3810
-5.1470 0.5725 2.3810
-5.1666 0.3940 2.3810
-5.1787 0.2148 2.3810
-5.1834 0.0353 2.3810
-5.1807 -0.1443 2.3810
-5.1706 -0.3236 2.3810
-5.1531 -0.5023 2.3810
-5.1283 -0.6800 2.3810
-5.0962 -0.8564 2.3810
-5.0569 -1.0312 2.3810
-5.0104 -1.2041 2.3810
-4.9570 -1.3747 2.3810
-4.8967 -1.5428 2.3810
-4.8297 -1.7081 2.3810
-4.7561 -1.8702 2.3810
-4.6762 -2.0289 2.3810
-4.5900 -2.1840 2.3810
-4.4978 -2.3352 2.3810
-4.3998 -2.4822 2.3810
-4.2962 -2.6248 2.3810
-4.1872 -2.7629 2.3810
-4.0731 -2.8962 2.3810
-3.9542 -3.0244 2.3810
-3.8306 -3.1475 2.3810
-3.7027 -3.2653 2.3810
-3.5706 -3.3777 2.3810
-3.4347 -3.4845 2.3810
-3.2952 -3.5855 2.3810
-3.1524 -3.6808 2.3810
-3.0066 -3.7702 2.3810
-2.8580 -3.8536 2.3810
-2.7069 -3.9310 2.3810
-2.5536 -4.0024 2.3810
-2.3983 -4.0676 2.3810
-2.2413 -4.1267 2.3810
-2.0828 -4.1797 2.3810
-1.9232 -4.2265 2.3810
-1.7626 -4.2672 2.3810
-1.6014 -4.3019 2.3810
-1.4397 -4.3304 2.3810
-1.2778 -4.3530 2.3810
-1.1160 -4.3695 2.3810
-0.9544 -4.3802 2.3810
-0.7932 -4.3850 2.3810
-0.6328 -4.3841 2.3810
-0.4732 -4.3774 2.3810
-0.3147 -4.3652 2.3810
-0.1575 -4.3475 2.3810
-0.0018 -4.3243 2.3810
0.1523 -4.2959 2.3810
0.3046 -4.2622 2.3810
0.4550 -4.2235 2.3810
0.6032 -4.1798 2.3810
0.7491 -4.1313 2.3810
0.8927 -4.0780 2.3810
1.0336 -4.0201 2.3810
1.1719 -3.9577 2.3810
1.3074 -3.8910 2.3810
1.4400 -3.8201 2.3810
1.5695 -3.7450 2.3810
1.6960 -3.6660 2.3810
1.8191 -3.5832 2.3810
1.9390 -3.4966 2.3810
2.0554 -3.4065 2.3810
2.1684 -3.3129 2.3810
2.2777 -3.2161 2.3810
2.3834 -3.1160 2.3810
2.4854 -3.0129 2.3810
2.5836 -2.9069 2.3810
2.6780 -2.7981 2.3810
