ply
format ascii 1.0
element vertex 2183
property float32 x
property float32 y
property float32 z
end_header
5.4556 5.4442 2.1265
5.4897 5.8902 2.2112
5.3047 6.1220 2.2136
5.1197 6.3592 2.2197
4.9267 6.5942 2.2262
4.7298 6.8324 2.2350
4.5147 7.0534 2.2397
4.2813 7.2530 2.2393
4.0402 7.4462 2.2388
3.7915 7.6328 2.2383
3.5354 7.8126 2.2377
3.2723 7.9860 2.2374
3.0025 8.1532 2.2373
2.7255 8.3128 2.2373
2.4414 8.4646 2.2372
2.1505 8.6083 2.2372
1.9327 9.1198 2.3334
1.6544 9.4744 2.3896
1.3227 9.5999 2.3896
2.7417 -9.2993 2.3896
3.0510 -9.1256 2.3896
3.3522 -8.9434 2.3896
3.6450 -8.7529 2.3896
3.9293 -8.5545 2.3896
4.2051 -8.3485 2.3896
4.4722 -8.1353 2.3896
4.7305 -7.9155 2.3896
4.8477 -7.4849 2.3261
4.8875 -6.9812 2.2372
5.1044 -6.7578 2.2372
5.3128 -6.5296 2.2373
5.5127 -6.2964 2.2373
5.7042 -6.0586 2.2374
5.8870 -5.8164 2.2374
6.0613 -5.5701 2.2374
6.2272 -5.3201 2.2375
6.3858 -5.0675 2.2381
6.5357 -4.8114 2.2386
6.6689 -4.5465 2.2363
6.7816 -4.2718 2.2302
6.8772 -3.9914 2.2216
6.9711 -3.7147 2.2154
7.0576 -3.4382 2.2097
7.1363 -3.1613 2.2044
6.9429 -2.7790 2.1188
7.2910 -2.6155 2.2010
6.8426 -2.1777 2.0459
7.4246 -2.0695 2.2014
7.4812 -1.7948 2.2022
7.5303 -1.5196 2.2033
7.5703 -1.2433 2.2041
7.6002 -0.9660 2.2044
6.5402 -0.5907 1.8919
7.6349 -0.4105 2.2050
6.4601 -0.1121 1.8647
7.6367 0.1452 2.2055
6.3759 0.3534 1.8443
7.6057 0.6997 2.2060
7.5780 0.9761 2.2063
7.5420 1.2517 2.2066
7.4979 1.5264 2.2069
7.4456 1.7999 2.2071
7.3851 2.0721 2.2074
7.3165 2.3428 2.2077
7.2398 2.6119 2.2080
7.1549 2.8792 2.2083
7.0619 3.1445 2.2086
6.9608 3.4076 2.2089
6.8516 3.6683 2.2092
6.7342 3.9264 2.2095
6.6088 4.1818 2.2098
6.4752 4.4343 2.2101
6.3336 4.6836 2.2104
6.1835 4.9292 2.2105
6.0236 5.1697 2.2100
5.8561 5.4062 2.2096
5.4599 5.4200 2.1233
5.5029 5.8733 2.2110
5.3179 6.1045 2.2132
5.1334 6.3420 2.2192
4.9410 6.5772 2.2257
4.7442 6.8151 2.2343
4.5307 7.0377 2.2394
4.2985 7.2388 2.2393
4.0579 7.4324 2.2388
3.8098 7.6195 2.2383
3.5543 7.7998 2.2378
3.2917 7.9735 2.2374
3.0223 8.1413 2.2373
2.7458 8.3015 2.2373
2.4623 8.4539 2.2372
2.1719 8.5981 2.2372
1.9452 9.0619 2.3212
1.6782 9.4649 2.3896
1.3471 9.5910 2.3896
2.7190 -9.3116 2.3896
3.0289 -9.1386 2.3896
3.3306 -8.9569 2.3896
3.6240 -8.7670 2.3896
3.9090 -8.5691 2.3896
4.1854 -8.3637 2.3896
4.4531 -8.1511 2.3896
4.7120 -7.9317 2.3896
4.8550 -7.5395 2.3380
4.8714 -6.9969 2.2372
5.0889 -6.7742 2.2372
5.2979 -6.5463 2.2373
5.4985 -6.3135 2.2373
5.6905 -6.0760 2.2374
5.8740 -5.8342 2.2374
6.0490 -5.5882 2.2374
6.2154 -5.3383 2.2375
6.3745 -5.0860 2.2380
6.5251 -4.8301 2.2385
6.6598 -4.5660 2.2365
6.7744 -4.2922 2.2309
6.8701 -4.0115 2.2221
6.9645 -3.7348 2.2158
7.0516 -3.4583 2.2101
7.1308 -3.1815 2.2048
-1.0154 -9.5222 2.3896
-0.6691 -9.4805 2.3896
-0.3270 -9.4269 2.3896
0.0105 -9.3618 2.3896
0.3432 -9.2856 2.3896
0.6706 -9.1984 2.3896
0.9925 -9.1008 2.3896
1.3085 -8.9929 2.3896
1.6185 -8.8752 2.3896
1.9221 -8.7480 2.3896
2.2191 -8.6116 2.3896
2.5093 -8.4664 2.3896
2.7926 -8.3127 2.3896
3.0687 -8.1509 2.3896
3.3374 -7.9813 2.3896
3.5987 -7.8041 2.3896
3.8523 -7.6198 2.3896
4.0983 -7.4285 2.3896
4.3364 -7.2308 2.3896
4.5665 -7.0268 2.3896
4.7056 -6.6986 2.3481
4.6836 -6.1802 2.2372
4.8764 -5.9733 2.2372
5.0615 -5.7618 2.2373
5.2389 -5.5457 2.2373
5.4085 -5.3254 2.2373
5.5703 -5.1010 2.2374
5.7242 -4.8729 2.2374
5.8702 -4.6412 2.2374
6.0084 -4.4062 2.2375
6.1398 -4.1689 2.2379
6.2632 -3.9286 2.2383
6.3787 -3.6855 2.2388
6.4781 -3.4356 2.2363
6.5629 -3.1808 2.2317
6.6319 -2.9220 2.2246
6.6979 -2.6647 2.2193
6.7583 -2.4081 2.2148
6.8117 -2.1515 2.2107
6.8579 -1.8945 2.2069
6.9010 -1.6391 2.2046
6.9404 -1.3839 2.2037
6.9724 -1.1286 2.2028
6.9986 -0.8725 2.2027
6.5372 -0.5743 2.0519
7.0308 -0.3605 2.2032
7.0354 -0.1044 2.2035
7.0332 0.1518 2.2041
7.0233 0.4078 2.2047
7.0055 0.6633 2.2053
6.9798 0.9183 2.2057
6.9463 1.1725 2.2062
6.9049 1.4258 2.2065
6.8557 1.6782 2.2068
6.7987 1.9286 2.2071
6.7339 2.1780 2.2073
6.6613 2.4256 2.2074
6.5808 2.6712 2.2075
6.4927 2.9148 2.2075
6.3968 3.1560 2.2074
6.2934 3.3947 2.2074
6.1834 3.6315 2.2076
5.7746 3.6800 2.1019
5.9407 4.0966 2.2081
5.8109 4.3266 2.2094
5.6739 4.5539 2.2109
5.5331 4.7812 2.2138
5.3882 5.0084 2.2182
5.2360 5.2331 2.2230
5.0777 5.4576 2.2286
4.9157 5.6825 2.2362
4.7356 5.8927 2.2392
4.5417 6.0904 2.2393
4.3397 6.2817 2.2389
4.1308 6.4674 2.2385
3.9148 6.6473 2.2381
3.6921 6.8213 2.2376
3.4630 6.9897 2.2374
3.2275 7.1524 2.2373
2.9854 7.3083 2.2373
2.7369 7.4574 2.2373
2.4821 7.5992 2.2372
2.2211 7.7337 2.2372
0.8800 3.5398 1.0075
0.7525 3.5714 1.0013
0.6240 3.5983 0.9951
0.4945 3.6205 0.9888
0.3643 3.6380 0.9824
0.2336 3.6508 0.9759
0.1024 3.6589 0.9695
-0.0289 3.6622 0.9629
-0.1603 3.6608 0.9564
-0.2916 3.6546 0.9498
-0.4225 3.6436 0.9432
-0.5530 3.6279 0.9366
-0.6828 3.6075 0.9300
-0.8118 3.5824 0.9235
-0.9398 3.5526 0.9169
-2.7998 9.2346 2.3896
-1.3909 -9.5534 2.3896
-1.0407 -9.5248 2.3896
-0.6941 -9.4839 2.3896
-0.3517 -9.4312 2.3896
-0.0138 -9.3670 2.3896
0.3192 -9.2915 2.3896
0.6470 -9.2051 2.3896
0.9693 -9.1082 2.3896
1.2858 -9.0010 2.3896
1.5962 -8.8841 2.3896
1.9003 -8.7575 2.3896
2.1978 -8.6218 2.3896
2.4885 -8.4773 2.3896
2.7723 -8.3242 2.3896
3.0488 -8.1629 2.3896
3.3181 -7.9938 2.3896
3.5800 -7.8172 2.3896
3.8342 -7.6334 2.3896
4.0807 -7.4427 2.3896
4.3193 -7.2453 2.3896
4.5501 -7.0418 2.3896
4.7116 -6.7447 2.3590
4.6693 -6.1950 2.2372
4.8627 -5.9885 2.2372
5.0484 -5.7773 2.2372
5.2263 -5.5615 2.2373
5.3965 -5.3415 2.2373
5.5588 -5.1174 2.2374
5.7133 -4.8896 2.2374
5.8599 -4.6581 2.2374
5.9986 -4.4234 2.2375
6.1305 -4.1862 2.2379
6.2545 -3.9461 2.2383
6.3706 -3.7033 2.2387
6.4712 -3.4538 2.2365
6.5576 -3.1996 2.2323
6.6271 -2.9406 2.2251
6.6933 -2.6833 2.2196
6.7541 -2.4267 2.2151
6.8081 -2.1701 2.2110
6.8549 -1.9135 2.2072
6.8978 -1.6576 2.2047
6.9378 -1.4024 2.2037
6.9703 -1.1467 2.2029
6.9968 -0.8911 2.2026
6.5404 -0.5920 2.0532
7.0302 -0.3791 2.2032
7.0353 -0.1230 2.2035
7.0336 0.1332 2.2041
7.0242 0.3892 2.2047
7.0070 0.6448 2.2052
6.9820 0.8998 2.2057
6.9490 1.1541 2.2061
6.9081 1.4078 2.2065
6.8596 1.6596 2.2068
6.8031 1.9106 2.2071
6.7388 2.1603 2.2073
6.6668 2.4077 2.2074
6.5869 2.6535 2.2075
6.4994 2.8972 2.2075
6.4040 3.1386 2.2074
6.3011 3.3775 2.2073
6.1916 3.6143 2.2076
5.7781 3.6608 2.1001
5.9500 4.0799 2.2081
5.8206 4.3100 2.2093
5.6841 4.5375 2.2108
5.5434 4.7647 2.2135
5.3989 4.9920 2.2179
5.2472 5.2171 2.2226
5.0893 5.4406 2.2281
4.9277 5.6662 2.2356
4.7489 5.8776 2.2390
4.5561 6.0763 2.2393
4.3546 6.2680 2.2390
4.1462 6.4541 2.2385
3.9308 6.6345 2.2381
3.7085 6.8088 2.2376
3.4798 6.9777 2.2374
3.2448 7.1408 2.2373
3.0032 7.2972 2.2373
2.7552 7.4468 2.2373
2.5008 7.5892 2.2372
2.2403 7.7242 2.2372
0.8892 3.5373 1.0079
0.7618 3.5692 1.0018
0.6333 3.5965 0.9955
0.5039 3.6190 0.9892
0.3738 3.6369 0.9828
0.2431 3.6501 0.9764
0.1120 3.6585 0.9699
-0.0194 3.6622 0.9634
-0.1508 3.6610 0.9569
-0.2821 3.6552 0.9503
-0.4130 3.6446 0.9437
-0.5435 3.6292 0.9371
-0.6734 3.6091 0.9305
-0.8025 3.5844 0.9239
-0.9306 3.5549 0.9174
-2.7743 9.2368 2.3896
-1.4165 -9.5550 2.3896
-1.0660 -9.5273 2.3896
-0.7191 -9.4873 2.3896
-0.3764 -9.4354 2.3896
-0.0382 -9.3720 2.3896
0.2952 -9.2973 2.3896
0.6234 -9.2117 2.3896
0.9461 -9.1156 2.3896
1.2630 -9.0092 2.3896
1.5739 -8.8929 2.3896
1.8784 -8.7671 2.3896
2.1764 -8.6320 2.3896
2.4676 -8.4880 2.3896
2.7519 -8.3356 2.3896
3.0290 -8.1749 2.3896
3.2988 -8.0064 2.3896
3.5612 -7.8303 2.3896
3.8160 -7.6470 2.3896
4.0630 -7.4567 2.3896
4.3023 -7.2599 2.3896
4.5336 -7.0568 2.3896
4.7178 -6.7913 2.3699
4.6550 -6.2098 2.2372
4.8489 -6.0037 2.2372
5.0351 -5.7928 2.2372
5.2136 -5.5774 2.2373
5.3844 -5.3576 2.2373
5.5473 -5.1338 2.2374
5.7023 -4.9062 2.2374
5.8495 -4.6750 2.2374
5.9888 -4.4405 2.2375
6.1212 -4.2035 2.2379
6.2458 -3.9636 2.2383
6.3624 -3.7210 2.2387
6.4643 -3.4720 2.2367
6.5523 -3.2185 2.2328
6.6223 -2.9594 2.2256
-0.9366 -8.6847 2.3896
-0.6211 -8.6520 2.3896
-0.3090 -8.6085 2.3896
-0.0008 -8.5543 2.3896
0.3034 -8.4897 2.3896
0.6032 -8.4150 2.3896
0.8982 -8.3306 2.3896
1.1883 -8.2367 2.3896
1.4730 -8.1335 2.3896
1.7523 -8.0215 2.3896
2.0258 -7.9008 2.3896
2.2934 -7.7718 2.3896
2.5548 -7.6348 2.3896
2.8098 -7.4901 2.3896
3.0584 -7.3379 2.3896
3.3003 -7.1786 2.3896
3.5353 -7.0124 2.3896
3.7634 -6.8394 2.3896
3.9845 -6.6606 2.3896
4.1984 -6.4756 2.3896
4.4050 -6.2848 2.3896
4.5887 -6.0679 2.3815
4.5221 -5.5507 2.2530
4.6628 -5.3184 2.2372
4.8284 -5.1209 2.2372
4.9868 -4.9192 2.2373
5.1380 -4.7137 2.2373
5.2820 -4.5043 2.2373
5.4187 -4.2916 2.2374
5.5482 -4.0755 2.2374
5.6703 -3.8565 2.2374
5.7850 -3.6345 2.2375
5.8930 -3.4103 2.2377
5.9939 -3.1838 2.2381
6.0874 -2.9550 2.2384
6.1735 -2.7241 2.2388
6.2482 -2.4897 2.2377
6.3127 -2.2530 2.2356
6.3631 -2.0130 2.2312
6.4036 -1.7724 2.2261
6.4394 -1.5320 2.2220
6.4704 -1.2923 2.2187
6.4952 -1.0530 2.2159
6.5135 -0.8137 2.2134
6.5252 -0.5746 2.2112
6.5303 -0.3357 2.2093
6.5290 -0.0973 2.2076
6.5229 0.1404 2.2067
6.5114 0.3779 2.2065
6.4929 0.6149 2.2064
6.4674 0.8513 2.2063
6.4350 1.0870 2.2064
6.3957 1.3217 2.2065
6.3495 1.5554 2.2068
6.2964 1.7879 2.2071
6.2363 2.0191 2.2075
6.1694 2.2488 2.2080
6.0955 2.4769 2.2086
6.0148 2.7033 2.2093
5.9288 2.9288 2.2107
5.8378 3.1530 2.2129
5.7402 3.3755 2.2154
5.6361 3.5963 2.2181
5.5255 3.8153 2.2212
5.4086 4.0326 2.2246
5.2865 4.2489 2.2290
5.1595 4.4648 2.2345
5.0200 4.6734 2.2377
4.8699 4.8753 2.2395
4.7085 5.0688 2.2392
4.5404 5.2579 2.2389
4.3656 5.4423 2.2385
4.1842 5.6219 2.2382
3.9963 5.7964 2.2378
3.8021 5.9656 2.2374
3.6020 6.1303 2.2374
3.3958 6.2894 2.2373
3.1834 6.4426 2.2373
2.9651 6.5896 2.2373
2.7408 6.7304 2.2372
2.5118 6.8695 2.2384
2.3035 7.0797 2.2652
2.1724 7.5969 2.3896
0.8003 3.2351 1.0017
0.6837 3.2639 0.9960
0.5662 3.2884 0.9903
0.4479 3.3087 0.9846
0.3289 3.3247 0.9787
0.2094 3.3364 0.9728
0.0896 3.3437 0.9669
-0.0305 3.3468 0.9610
-0.1506 3.3454 0.9550
-0.2705 3.3397 0.9490
-0.3902 3.3297 0.9429
-0.5095 3.3153 0.9369
-0.6281 3.2967 0.9309
-0.7460 3.2737 0.9249
-0.8630 3.2465 0.9189
-2.5623 8.4154 2.3896
-2.8812 8.3766 2.3896
-3.2006 8.3259 2.3896
-3.5199 8.2633 2.3896
-3.8387 8.1884 2.3896
-4.1565 8.1013 2.3896
-4.4727 8.0018 2.3896
-4.7868 7.8899 2.3896
-5.0983 7.7654 2.3896
-5.4067 7.6284 2.3896
-5.7112 7.4789 2.3896
-6.0114 7.3168 2.3896
-6.3066 7.1423 2.3896
-6.5963 6.9555 2.3896
-6.8798 6.7563 2.3896
-7.1566 6.5451 2.3896
-6.1018 -7.5425 2.3896
-5.7965 -7.7102 2.3896
-5.4864 -7.8649 2.3896
-5.1720 -8.0066 2.3896
-4.8539 -8.1352 2.3896
-4.5328 -8.2507 2.3896
-4.2093 -8.3532 2.3896
-3.8839 -8.4427 2.3896
-3.5572 -8.5194 2.3896
-3.2298 -8.5833 2.3896
-2.9021 -8.6345 2.3896
-2.5748 -8.6733 2.3896
-2.2483 -8.6997 2.3896
-1.9231 -8.7141 2.3896
-1.5996 -8.7165 2.3896
-1.2783 -8.7073 2.3896
-0.9596 -8.6866 2.3896
-0.6439 -8.6548 2.3896
-0.3316 -8.6120 2.3896
-0.0230 -8.5585 2.3896
0.2815 -8.4947 2.3896
0.5816 -8.4208 2.3896
0.8770 -8.3371 2.3896
1.1674 -8.2438 2.3896
1.4526 -8.1413 2.3896
1.7322 -8.0299 2.3896
2.0062 -7.9098 2.3896
2.2741 -7.7814 2.3896
2.5360 -7.6450 2.3896
2.7915 -7.5008 2.3896
3.0406 -7.3492 2.3896
3.2829 -7.1904 2.3896
3.5185 -7.0247 2.3896
3.7471 -6.8524 2.3896
3.9687 -6.6738 2.3896
4.1831 -6.4892 2.3896
4.3903 -6.2988 2.3896
4.5901 -6.1030 2.3896
4.5266 -5.5862 2.2618
4.6533 -5.3358 2.2385
4.8166 -5.1354 2.2372
4.9755 -4.9340 2.2373
5.1273 -4.7287 2.2373
5.2718 -4.5197 2.2373
5.4091 -4.3071 2.2374
5.5390 -4.0913 2.2374
5.6616 -3.8724 2.2374
5.7769 -3.6507 2.2375
5.8853 -3.4267 2.2377
5.9868 -3.2003 2.2380
6.0808 -2.9717 2.2384
6.1675 -2.7409 2.2387
6.2432 -2.5068 2.2378
6.3082 -2.2701 2.2357
6.3599 -2.0305 2.2316
6.4008 -1.7896 2.2264
6.4369 -1.5494 2.2222
6.4684 -1.3098 2.2190
6.4936 -1.0703 2.2161
6.5124 -0.8310 2.2136
6.5245 -0.5920 2.2114
6.5302 -0.3531 2.2094
6.5293 -0.1148 2.2077
6.5234 0.1231 2.2067
6.5124 0.3607 2.2065
6.4944 0.5977 2.2064
6.4695 0.8342 2.2063
6.4376 1.0699 2.2064
6.3988 1.3047 2.2065
6.3531 1.5385 2.2067
6.3005 1.7710 2.2071
6.2409 2.0023 2.2075
6.1745 2.2322 2.2080
6.1011 2.4604 2.2086
6.0209 2.6869 2.2093
5.9352 2.9121 2.2106
5.8446 3.1367 2.2127
5.7475 3.3594 2.2152
5.6439 3.5804 2.2179
5.5337 3.7995 2.2209
5.4173 4.0169 2.2244
5.2954 4.2331 2.2286
5.1690 4.4492 2.2341
5.0305 4.6585 2.2376
4.8814 4.8611 2.2395
4.7205 5.0549 2.2392
4.5528 5.2443 2.2389
4.3785 5.4291 2.2386
4.1976 5.6090 2.2382
4.0102 5.7839 2.2379
3.8164 5.9535 2.2375
3.6168 6.1185 2.2374
3.4110 6.2780 2.2373
3.1991 6.4316 2.2373
2.9811 6.5792 2.2373
2.7573 6.7204 2.2372
2.5276 6.8550 2.2372
2.3118 7.0422 2.2562
2.1911 7.5871 2.3894
0.8087 3.2328 1.0021
0.6922 3.2619 0.9964
0.5748 3.2868 0.9907
0.4565 3.3074 0.9850
0.3376 3.3237 0.9792
0.2181 3.3357 0.9733
0.0983 3.3434 0.9674
-0.0218 3.3467 0.9614
-0.1419 3.3457 0.9554
-0.2618 3.3403 0.9494
-0.3815 3.3306 0.9434
-0.5008 3.3165 0.9374
-0.6195 3.2982 0.9313
-0.7375 3.2755 0.9253
-0.8545 3.2486 0.9193
-2.5392 8.4178 2.3896
-2.8581 8.3798 2.3896
-3.1774 8.3300 2.3896
-3.4968 8.2682 2.3896
-3.8156 8.1943 2.3896
-4.1335 8.1081 2.3896
-4.4498 8.0095 2.3896
-4.7641 7.8984 2.3896
-5.0758 7.7749 2.3896
-5.3844 7.6388 2.3896
-5.6892 7.4902 2.3896
-5.9897 7.3290 2.3896
-6.2854 7.1554 2.3896
-6.5755 6.9694 2.3896
-6.8595 6.7712 2.3896
-7.1367 6.5608 2.3896
-6.1237 -7.5298 2.3896
-5.8188 -7.6985 2.3896
-5.5091 -7.8541 2.3896
-5.1949 -7.9967 2.3896
-4.8771 -8.1263 2.3896
-4.5562 -8.2428 2.3896
-4.2329 -8.3462 2.3896
-3.9076 -8.4367 2.3896
-3.5809 -8.5143 2.3896
-3.2536 -8.5790 2.3896
-2.9259 -8.6312 2.3896
-2.5985 -8.6709 2.3896
-2.2720 -8.6982 2.3896
-1.9466 -8.7134 2.3896
-1.6230 -8.7167 2.3896
-1.3015 -8.7083 2.3896
-0.9826 -8.6885 2.3896
-0.6667 -8.6574 2.3896
-0.3541 -8.6154 2.3896
-0.0453 -8.5628 2.3896
0.2595 -8.4997 2.3896
0.5600 -8.4265 2.3896
0.8557 -8.3435 2.3896
1.1465 -8.2509 2.3896
1.4321 -8.1491 2.3896
1.7121 -8.0383 2.3896
1.9865 -7.9188 2.3896
2.2549 -7.7910 2.3896
2.5172 -7.6552 2.3896
2.7732 -7.5115 2.3896
3.0227 -7.3604 2.3896
3.2656 -7.2021 2.3896
3.5016 -7.0369 2.3896
3.7308 -6.8651 2.3896
3.9528 -6.6870 2.3896
4.1678 -6.5027 2.3896
4.3755 -6.3129 2.3896
4.5758 -6.1174 2.3896
4.5313 -5.6220 2.2706
4.6382 -5.3468 2.2372
4.8048 -5.1499 2.2372
4.9642 -4.9488 2.2373
5.1165 -4.7437 2.2373
5.2616 -4.5349 2.2373
5.3993 -4.3227 2.2374
5.5298 -4.1071 2.2374
5.6530 -3.8884 2.2374
5.7688 -3.6669 2.2375
5.8777 -3.4430 2.2377
5.9797 -3.2169 2.2380
6.0743 -2.9884 2.2384
6.1614 -2.7577 2.2387
-0.8697 -7.9744 2.3896
-0.5803 -7.9486 2.3896
-0.2938 -7.9128 2.3896
-0.0103 -7.8670 2.3896
0.2696 -7.8117 2.3896
0.5457 -7.7469 2.3896
0.8178 -7.6731 2.3896
1.0855 -7.5903 2.3896
1.3486 -7.4990 2.3896
1.6069 -7.3992 2.3896
1.8601 -7.2914 2.3896
2.1080 -7.1757 2.3896
2.3505 -7.0524 2.3896
2.5873 -6.9218 2.3896
2.8182 -6.7841 2.3896
3.0432 -6.6396 2.3896
3.2620 -6.4887 2.3896
3.4745 -6.3314 2.3896
3.6806 -6.1681 2.3896
3.8802 -5.9991 2.3896
4.0731 -5.8245 2.3896
4.2594 -5.6447 2.3896
4.4388 -5.4599 2.3896
4.4283 -5.0611 2.2948
4.4722 -4.7524 2.2372
4.6206 -4.5666 2.2372
4.7625 -4.3771 2.2372
4.8976 -4.1840 2.2373
5.0260 -3.9874 2.2373
5.1476 -3.7877 2.2373
5.2624 -3.5850 2.2374
5.3703 -3.3796 2.2374
5.4714 -3.1715 2.2374
5.5656 -2.9611 2.2374
5.6528 -2.7484 2.2375
5.7339 -2.5342 2.2378
5.8080 -2.3180 2.2381
5.8751 -2.1001 2.2383
5.9353 -1.8807 2.2386
5.9884 -1.6600 2.2388
6.0326 -1.4377 2.2384
6.0673 -1.2140 2.2369
6.0953 -0.9906 2.2356
6.1127 -0.7651 2.2330
6.1219 -0.5404 2.2300
6.1251 -0.3160 2.2273
6.1224 -0.0919 2.2250
6.1151 0.1312 2.2235
6.1019 0.3540 2.2223
6.0825 0.5762 2.2215
6.0571 0.7978 2.2209
6.0257 1.0182 2.2206
5.9880 1.2384 2.2205
5.9444 1.4575 2.2208
5.8946 1.6755 2.2213
5.8389 1.8923 2.2221
5.7770 2.1080 2.2232
5.7090 2.3224 2.2245
5.6352 2.5355 2.2262
5.5567 2.7477 2.2288
5.4721 2.9589 2.2317
5.3816 3.1686 2.2350
5.2811 3.3737 2.2370
5.1725 3.5764 2.2384
5.0561 3.7751 2.2394
4.9306 3.9686 2.2392
4.7986 4.1587 2.2389
4.6601 4.3451 2.2387
4.5153 4.5277 2.2384
4.3643 4.7062 2.2382
4.2070 4.8805 2.2379
4.0435 5.0503 2.2376
3.8743 5.2158 2.2374
3.6994 5.3769 2.2374
3.5186 5.5330 2.2373
3.3319 5.6839 2.2373
3.1396 5.8293 2.2373
2.9416 5.9692 2.2372
2.7382 6.1032 2.2372
2.5296 6.2306 2.2372
2.3881 6.5523 2.3073
2.2393 6.9091 2.3896
0.8385 2.9452 1.0018
0.7324 2.9756 0.9967
0.6252 3.0020 0.9915
0.5171 3.0246 0.9863
0.4082 3.0432 0.9810
0.2988 3.0579 0.9756
0.1888 3.0686 0.9702
0.0786 3.0754 0.9648
-0.0318 3.0781 0.9593
-0.1423 3.0769 0.9538
-0.2526 3.0716 0.9482
-0.3627 3.0624 0.9427
-0.4724 3.0492 0.9372
-0.5815 3.0320 0.9316
-0.6900 3.0109 0.9261
-0.7976 2.9859 0.9206
-0.9042 2.9570 0.9151
-2.6525 7.6818 2.3896
-2.9439 7.6312 2.3896
-3.2349 7.5697 2.3896
-3.5251 7.4970 2.3896
-3.8141 7.4133 2.3896
-4.1013 7.3183 2.3896
-4.3864 7.2120 2.3896
-4.6687 7.0945 2.3896
-4.9479 6.9656 2.3896
-5.2233 6.8255 2.3896
-5.4945 6.6741 2.3896
-5.7610 6.5116 2.3896
-6.0222 6.3380 2.3896
-6.2775 6.1535 2.3896
-6.5265 5.9582 2.3896
-6.7686 5.7523 2.3896
-7.0033 5.5360 2.3896
-7.2300 5.3096 2.3896
-7.4483 5.0733 2.3896
-7.6575 4.8275 2.3896
-7.8573 4.5724 2.3896
-8.0470 4.3086 2.3896
-8.2263 4.0363 2.3896
-8.3947 3.7560 2.3896
-8.5517 3.4681 2.3896
-8.6970 3.1732 2.3896
-8.8300 2.8717 2.3896
-8.9505 2.5643 2.3896
-9.0582 2.2516 2.3896
-9.1526 1.9337 2.3896
-9.2337 1.6120 2.3896
-9.3010 1.2864 2.3896
-9.3545 0.9578 2.3896
-9.3938 0.6269 2.3896
-9.4190 0.2946 2.3896
-9.4299 -0.0392 2.3896
-9.4265 -0.3728 2.3896
-9.4088 -0.7059 2.3896
-9.3767 -1.0385 2.3896
-9.3304 -1.3690 2.3896
-9.2700 -1.6972 2.3896
-9.1956 -2.0222 2.3896
-9.1075 -2.3432 2.3896
-9.0057 -2.6603 2.3896
-8.8907 -2.9721 2.3896
-8.7626 -3.2789 2.3896
-8.6219 -3.5788 2.3896
-8.4689 -3.8722 2.3896
-8.3039 -4.1583 2.3896
-8.1275 -4.4365 2.3896
-7.9399 -4.7066 2.3896
-7.7418 -4.9679 2.3896
-7.5335 -5.2200 2.3896
-7.3156 -5.4627 2.3896
-7.0886 -5.6954 2.3896
-6.8531 -5.9179 2.3896
-6.6095 -6.1298 2.3896
-6.3584 -6.3310 2.3896
-6.1005 -6.5212 2.3896
-5.8361 -6.7001 2.3896
-5.5660 -6.8677 2.3896
-5.2906 -7.0238 2.3896
-5.0105 -7.1682 2.3896
-4.7263 -7.3010 2.3896
-4.4385 -7.4220 2.3896
-4.1476 -7.5313 2.3896
-3.8543 -7.6289 2.3896
-3.5590 -7.7147 2.3896
-3.2622 -7.7888 2.3896
-2.9644 -7.8514 2.3896
-2.6660 -7.9026 2.3896
-2.3677 -7.9423 2.3896
-2.0698 -7.9708 2.3896
-1.7727 -7.9882 2.3896
-1.4769 -7.9948 2.3896
-1.1828 -7.9906 2.3896
-0.8908 -7.9759 2.3896
-0.6012 -7.9508 2.3896
-0.3145 -7.9157 2.3896
-0.0308 -7.8707 2.3896
0.2494 -7.8160 2.3896
0.5258 -7.7520 2.3896
0.7982 -7.6788 2.3896
1.0662 -7.5966 2.3896
1.3297 -7.5059 2.3896
1.5883 -7.4067 2.3896
1.8419 -7.2995 2.3896
2.0902 -7.1843 2.3896
2.3331 -7.0616 2.3896
2.5703 -6.9315 2.3896
2.8016 -6.7943 2.3896
3.0270 -6.6504 2.3896
3.2463 -6.4998 2.3896
3.4593 -6.3430 2.3896
3.6658 -6.1802 2.3896
3.8659 -6.0115 2.3896
4.0594 -5.8373 2.3896
4.2461 -5.6579 2.3896
4.4260 -5.4734 2.3896
4.4323 -5.0926 2.3030
4.4612 -4.7657 2.2372
4.6101 -4.5802 2.2372
4.7524 -4.3910 2.2372
4.8880 -4.1981 2.2373
5.0169 -4.0018 2.2373
5.1390 -3.8023 2.2373
5.2543 -3.5998 2.2374
5.3627 -3.3946 2.2374
5.4643 -3.1867 2.2374
5.5590 -2.9764 2.2374
5.6467 -2.7639 2.2375
5.7282 -2.5498 2.2377
5.8029 -2.3337 2.2380
5.8705 -2.1160 2.2383
5.9311 -1.8967 2.2386
5.9848 -1.6761 2.2388
6.0299 -1.4539 2.2385
6.0650 -1.2303 2.2370
6.0933 -1.0059 2.2357
6.1118 -0.7815 2.2333
6.1214 -0.5567 2.2302
6.1251 -0.3323 2.2275
6.1229 -0.1085 2.2251
6.1158 0.1150 2.2236
6.1030 0.3378 2.2224
6.0841 0.5601 2.2215
6.0591 0.7819 2.2209
6.0280 1.0031 2.2206
5.9910 1.2223 2.2205
5.9478 1.4415 2.2208
5.8984 1.6599 2.2213
5.8431 1.8766 2.2220
5.7817 2.0924 2.2231
5.7142 2.3069 2.2244
5.6407 2.5202 2.2261
5.5626 2.7320 2.2286
5.4784 2.9437 2.2315
5.3884 3.1534 2.2347
5.2887 3.3590 2.2369
5.1806 3.5618 2.2383
5.0650 3.7609 2.2394
4.9399 3.9547 2.2392
4.8084 4.1450 2.2390
4.6704 4.3317 2.2387
4.5261 4.5146 2.2385
4.3754 4.6934 2.2382
4.2186 4.8679 2.2379
4.0556 5.0381 2.2376
3.8868 5.2039 2.2374
3.7123 5.3654 2.2374
3.5319 5.5218 2.2373
3.3457 5.6731 2.2373
3.1537 5.8190 2.2373
2.9562 5.9593 2.2372
2.7532 6.0937 2.2372
2.5448 6.2220 2.2372
2.3955 6.5194 2.2989
2.2565 6.9004 2.3896
0.8462 2.9429 1.0022
0.7401 2.9735 0.9971
0.6330 3.0002 0.9919
0.5249 3.0231 0.9867
0.4161 3.0420 0.9814
0.3067 3.0570 0.9760
0.1968 3.0680 0.9706
0.0866 3.0750 0.9652
-0.0238 3.0781 0.9597
-0.1343 3.0771 0.9542
-0.2446 3.0722 0.9486
-0.3547 3.0632 0.9431
-0.4645 3.0503 0.9376
-0.5736 3.0334 0.9320
-0.6821 3.0126 0.9265
-0.7898 2.9879 0.9210
-0.8965 2.9592 0.9155
-2.6313 7.6850 2.3896
-2.9227 7.6352 2.3896
-3.2138 7.5745 2.3896
-3.5041 7.5027 2.3896
-3.7932 7.4198 2.3896
-4.0805 7.3256 2.3896
-4.3658 7.2201 2.3896
-4.6483 7.1034 2.3896
-4.9277 6.9753 2.3896
-5.2035 6.8361 2.3896
-5.4750 6.6855 2.3896
-5.7418 6.5238 2.3896
-6.0034 6.3510 2.3896
-6.2592 6.1672 2.3896
-6.5087 5.9727 2.3896
-6.7513 5.7676 2.3896
-6.9865 5.5520 2.3896
-7.2138 5.3263 2.3896
-7.4327 5.0908 2.3896
-7.6427 4.8456 2.3896
-7.8431 4.5912 2.3896
-8.0336 4.3280 2.3896
-8.2137 4.0563 2.3896
-8.3829 3.7766 2.3896
-8.5407 3.4893 2.3896
-8.6868 3.1949 2.3896
-8.8208 2.8937 2.3896
-8.9422 2.5868 2.3896
-9.0508 2.2746 2.3896
-9.1462 1.9569 2.3896
-9.2282 1.6352 2.3896
-9.2966 1.3101 2.3896
-9.3510 0.9819 2.3896
-9.3914 0.6509 2.3896
-9.4177 0.3187 2.3896
-9.4296 -0.0148 2.3896
-9.4272 -0.3486 2.3896
-9.4105 -0.6821 2.3896
-9.3795 -1.0144 2.3896
-9.3343 -1.3451 2.3896
-9.2749 -1.6735 2.3896
-9.2015 -1.9986 2.3896
-9.1143 -2.3201 2.3896
-9.0136 -2.6375 2.3896
-8.8995 -2.9498 2.3896
-8.7724 -3.2566 2.3896
-8.6326 -3.5572 2.3896
-8.4804 -3.8512 2.3896
-8.3163 -4.1377 2.3896
-8.1407 -4.4167 2.3896
-7.9539 -4.6873 2.3896
-7.7565 -4.9493 2.3896
-7.5490 -5.2021 2.3896
-7.3318 -5.4454 2.3896
-7.1054 -5.6788 2.3896
-6.8705 -5.9021 2.3896
-6.6274 -6.1148 2.3896
-6.3769 -6.3168 2.3896
-6.1194 -6.5077 2.3896
-5.8555 -6.6875 2.3896
-5.5858 -6.8559 2.3896
-5.3107 -7.0128 2.3896
-5.0310 -7.1581 2.3896
-4.7470 -7.2918 2.3896
-4.4595 -7.4136 2.3896
-4.1689 -7.5238 2.3896
-3.8757 -7.6222 2.3896
-3.5805 -7.7088 2.3896
-3.2837 -7.7839 2.3896
-2.9860 -7.8473 2.3896
-2.6877 -7.8992 2.3896
-2.3893 -7.9398 2.3896
-2.0914 -7.9691 2.3896
-1.7942 -7.9873 2.3896
-1.4984 -7.9947 2.3896
-1.2041 -7.9912 2.3896
-0.9119 -7.9773 2.3896
-0.6222 -7.9530 2.3896
-0.3352 -7.9186 2.3896
-0.0513 -7.8744 2.3896
0.2292 -7.8203 2.3896
0.5059 -7.7569 2.3896
0.7785 -7.6844 2.3896
1.0469 -7.6029 2.3896
1.3107 -7.5127 2.3896
1.5697 -7.4142 2.3896
1.8237 -7.3075 2.3896
2.0724 -7.1930 2.3896
2.3156 -7.0708 2.3896
2.5532 -6.9412 2.3896
2.7850 -6.8045 2.3896
3.0109 -6.6610 2.3896
3.2306 -6.5110 2.3896
3.4440 -6.3546 2.3896
3.6511 -6.1923 2.3896
3.8516 -6.0240 2.3896
4.0455 -5.8502 2.3896
4.2328 -5.6711 2.3896
4.4132 -5.4870 2.3896
4.4363 -5.1244 2.3112
4.4501 -4.7790 2.2372
4.5995 -4.5938 2.2372
4.7423 -4.4048 2.2372
4.8784 -4.2122 2.2373
5.0077 -4.0162 2.2373
5.1303 -3.8169 2.2373
5.2461 -3.6146 2.2374
5.3551 -3.4096 2.2374
5.4571 -3.2019 2.2374
5.5523 -2.9918 2.2374
5.6406 -2.7795 2.2375
5.7226 -2.5654 2.2377
-0.8123 -7.3638 2.3896
-0.5452 -7.3434 2.3896
-0.2806 -7.3136 2.3896
-0.0186 -7.2746 2.3896
0.2404 -7.2266 2.3896
0.4961 -7.1699 2.3896
0.7482 -7.1046 2.3896
0.9966 -7.0310 2.3896
1.2408 -6.9493 2.3896
1.4808 -6.8598 2.3896
1.7163 -6.7625 2.3896
1.9471 -6.6579 2.3896
2.1729 -6.5462 2.3896
2.3936 -6.4274 2.3896
2.6091 -6.3020 2.3896
2.8191 -6.1701 2.3896
3.0236 -6.0320 2.3896
3.2223 -5.8879 2.3896
3.4152 -5.7380 2.3896
3.6021 -5.5826 2.3896
3.7829 -5.4220 2.3896
3.9575 -5.2562 2.3896
4.1259 -5.0857 2.3896
4.2878 -4.9106 2.3896
4.3440 -4.6253 2.3362
4.3077 -4.2650 2.2415
4.4344 -4.0846 2.2379
4.5600 -3.9026 2.2372
4.6809 -3.7202 2.2372
4.7954 -3.5347 2.2373
4.9036 -3.3463 2.2373
5.0054 -3.1552 2.2373
5.1008 -2.9616 2.2374
5.1897 -2.7656 2.2374
5.2721 -2.5676 2.2374
5.3481 -2.3675 2.2374
5.4174 -2.1656 2.2374
5.4803 -1.9622 2.2375
5.5371 -1.7574 2.2377
5.5874 -1.5514 2.2379
5.6311 -1.3443 2.2381
5.6681 -1.1362 2.2383
5.6986 -0.9273 2.2385
5.7224 -0.7178 2.2387
5.7396 -0.5078 2.2388
5.7502 -0.2976 2.2390
5.7542 -0.0873 2.2391
5.7502 0.1230 2.2387
5.7395 0.3328 2.2382
5.7225 0.5422 2.2378
5.6994 0.7510 2.2376
5.6701 0.9591 2.2374
5.6345 1.1663 2.2374
5.5929 1.3725 2.2376
5.5450 1.5775 2.2378
5.4910 1.7814 2.2382
5.4309 1.9838 2.2387
5.3646 2.1847 2.2393
5.2903 2.3831 2.2392
5.2096 2.5794 2.2391
5.1226 2.7734 2.2390
5.0293 2.9649 2.2389
4.9297 3.1539 2.2387
4.8240 3.3400 2.2386
4.7120 3.5232 2.2384
4.5940 3.7032 2.2382
4.4699 3.8798 2.2380
4.3399 4.0529 2.2378
4.2039 4.2223 2.2375
4.0623 4.3882 2.2374
3.9151 4.5501 2.2374
3.7622 4.7078 2.2374
3.6037 4.8612 2.2373
3.4397 5.0100 2.2373
3.2702 5.1540 2.2373
3.0954 5.2930 2.2372
2.9153 5.4268 2.2372
2.7363 5.5678 2.2422
2.5519 5.7050 2.2477
2.4622 6.0853 2.3491
2.2913 6.3091 2.3896
0.8691 2.6922 1.0018
0.7720 2.7237 0.9972
0.6738 2.7517 0.9925
0.5746 2.7761 0.9877
0.4747 2.7970 0.9828
0.3740 2.8142 0.9779
0.2728 2.8278 0.9729
0.1711 2.8377 0.9679
0.0691 2.8439 0.9629
-0.0330 2.8464 0.9578
-0.1351 2.8453 0.9527
-0.2372 2.8404 0.9476
-0.3390 2.8319 0.9425
-0.4404 2.8197 0.9374
-0.5414 2.8038 0.9323
-0.6416 2.7843 0.9271
-0.7412 2.7611 0.9221
-0.8398 2.7344 0.9170
-0.9374 2.7041 0.9119
-2.7238 7.0358 2.3896
-2.9908 6.9758 2.3896
-3.2569 6.9057 2.3896
-3.5215 6.8254 2.3896
-3.7843 6.7349 2.3896
-4.0449 6.6340 2.3896
-4.3027 6.5229 2.3896
-4.5574 6.4016 2.3896
-4.8085 6.2700 2.3896
-5.0555 6.1282 2.3896
-5.2979 5.9763 2.3896
-5.5354 5.8145 2.3896
-5.7673 5.6428 2.3896
-5.9933 5.4615 2.3896
-6.2128 5.2706 2.3896
-6.4254 5.0704 2.3896
-6.6306 4.8612 2.3896
-6.8280 4.6431 2.3896
-7.0171 4.4165 2.3896
-7.1975 4.1817 2.3896
-7.3687 3.9391 2.3896
-7.5304 3.6889 2.3896
-7.6821 3.4317 2.3896
-7.8234 3.1678 2.3896
-7.9541 2.8976 2.3896
-8.0737 2.6216 2.3896
-8.1819 2.3404 2.3896
-8.2786 2.0543 2.3896
-8.3633 1.7640 2.3896
-8.4359 1.4701 2.3896
-8.4961 1.1728 2.3896
-8.5439 0.8730 2.3896
-8.5789 0.5710 2.3896
-8.6012 0.2677 2.3896
-8.6107 -0.0364 2.3896
-8.6073 -0.3407 2.3896
-8.5910 -0.6447 2.3896
-8.5619 -0.9479 2.3896
-8.5200 -1.2493 2.3896
-8.4653 -1.5486 2.3896
-8.3981 -1.8452 2.3896
-8.3185 -2.1384 2.3896
-8.2267 -2.4280 2.3896
-8.1228 -2.7130 2.3896
-8.0073 -2.9929 2.3896
-7.8803 -3.2674 2.3896
-7.7421 -3.5359 2.3896
-7.5932 -3.7979 2.3896
-7.4338 -4.0530 2.3896
-7.2643 -4.3008 2.3896
-7.0852 -4.5408 2.3896
-6.8969 -4.7726 2.3896
-6.6998 -4.9959 2.3896
-6.4943 -5.2104 2.3896
-6.2809 -5.4157 2.3896
-6.0601 -5.6116 2.3896
-5.8324 -5.7979 2.3896
-5.5982 -5.9743 2.3896
-5.3581 -6.1406 2.3896
-5.1125 -6.2967 2.3896
-4.8620 -6.4424 2.3896
-4.6070 -6.5776 2.3896
-4.3481 -6.7023 2.3896
-4.0856 -6.8163 2.3896
-3.8202 -6.9197 2.3896
-3.5522 -7.0124 2.3896
-3.2822 -7.0945 2.3896
-3.0106 -7.1659 2.3896
-2.7378 -7.2268 2.3896
-2.4643 -7.2772 2.3896
-2.1906 -7.3171 2.3896
-1.9170 -7.3468 2.3896
-1.6439 -7.3662 2.3896
-1.3717 -7.3756 2.3896
-1.1009 -7.3752 2.3896
-0.8317 -7.3650 2.3896
-0.5645 -7.3452 2.3896
-0.2997 -7.3160 2.3896
-0.0375 -7.2777 2.3896
0.2217 -7.2304 2.3896
0.4776 -7.1743 2.3896
0.7300 -7.1096 2.3896
0.9787 -7.0366 2.3896
1.2232 -6.9555 2.3896
1.4636 -6.8665 2.3896
1.6994 -6.7699 2.3896
1.9305 -6.6658 2.3896
2.1567 -6.5545 2.3896
2.3778 -6.4362 2.3896
2.5936 -6.3113 2.3896
2.8041 -6.1799 2.3896
3.0089 -6.0422 2.3896
3.2081 -5.8985 2.3896
3.4014 -5.7491 2.3896
3.5887 -5.5941 2.3896
3.7700 -5.4338 2.3896
3.9450 -5.2684 2.3896
4.1138 -5.0982 2.3896
4.2763 -4.9234 2.3896
4.3475 -4.6535 2.3439
4.3068 -4.2871 2.2462
4.4333 -4.1038 2.2423
4.5509 -3.9157 2.2372
4.6723 -3.7335 2.2372
4.7873 -3.5483 2.2373
4.8960 -3.3601 2.2373
4.9982 -3.1692 2.2373
5.0941 -2.9757 2.2374
5.1835 -2.7799 2.2374
5.2664 -2.5820 2.2374
5.3428 -2.3821 2.2374
5.4126 -2.1803 2.2374
5.4760 -1.9770 2.2375
5.5332 -1.7724 2.2377
5.5840 -1.5664 2.2379
5.6281 -1.3593 2.2381
5.6656 -1.1513 2.2383
5.6966 -0.9425 2.2385
5.7209 -0.7330 2.2387
5.7386 -0.5231 2.2388
5.7496 -0.3129 2.2390
5.7541 -0.1025 2.2391
5.7508 0.1077 2.2387
5.7405 0.3176 2.2382
5.7240 0.5271 2.2378
5.7013 0.7359 2.2376
5.6724 0.9440 2.2374
5.6373 1.1513 2.2374
5.5961 1.3575 2.2376
5.5487 1.5627 2.2378
5.4952 1.7666 2.2382
5.4355 1.9692 2.2387
5.3697 2.1702 2.2393
5.2959 2.3688 2.2392
5.2157 2.5652 2.2391
5.1291 2.7594 2.2390
5.0363 2.9511 2.2389
4.9372 3.1403 2.2388
4.8319 3.3266 2.2386
4.7204 3.5100 2.2384
4.6028 3.6902 2.2382
4.4791 3.8671 2.2380
4.3495 4.0405 2.2378
4.2139 4.2102 2.2375
4.0727 4.3763 2.2374
3.9260 4.5385 2.2374
3.7735 4.6966 2.2374
3.6154 4.8502 2.2373
3.4518 4.9993 2.2373
3.2827 5.1437 2.2373
3.1083 5.2830 2.2372
2.9286 5.4173 2.2372
2.7438 5.5461 2.2372
2.5605 5.6840 2.2429
2.4689 6.0560 2.3411
2.3070 6.3007 2.3896
0.8761 2.6897 1.0022
0.7791 2.7215 0.9975
0.6809 2.7498 0.9928
0.5819 2.7745 0.9880
0.4819 2.7956 0.9832
0.3813 2.8131 0.9783
0.2801 2.8269 0.9733
0.1785 2.8371 0.9683
0.0765 2.8436 0.9633
-0.0256 2.8464 0.9582
-0.1277 2.8455 0.9531
-0.2298 2.8409 0.9480
-0.3316 2.8326 0.9429
-0.4331 2.8207 0.9378
-0.5341 2.8051 0.9326
-0.6344 2.7858 0.9275
-0.7340 2.7629 0.9224
-0.8327 2.7365 0.9174
-0.9303 2.7064 0.9123
-2.7044 7.0398 2.3896
-2.9715 6.9805 2.3896
-3.2376 6.9112 2.3896
-3.5024 6.8316 2.3896
-3.7653 6.7418 2.3896
-4.0261 6.6417 2.3896
-4.2841 6.5313 2.3896
-4.5391 6.4107 2.3896
-4.7904 6.2799 2.3896
-5.0377 6.1388 2.3896
-5.2805 5.9877 2.3896
-5.5183 5.8266 2.3896
-5.7507 5.6556 2.3896
-5.9771 5.4750 2.3896
-6.1971 5.2848 2.3896
-6.4102 5.0852 2.3896
-6.6160 4.8766 2.3896
-6.8139 4.6592 2.3896
-7.0037 4.4332 2.3896
-7.1847 4.1990 2.3896
-7.3566 3.9570 2.3896
-7.5190 3.7073 2.3896
-7.6714 3.4506 2.3896
-7.8135 3.1871 2.3896
-7.9450 2.9174 2.3896
-8.0654 2.6419 2.3896
-8.1745 2.3610 2.3896
-8.2720 2.0752 2.3896
-8.3575 1.7852 2.3896
-8.4310 1.4915 2.3896
-8.4922 1.1945 2.3896
-8.5408 0.8949 2.3896
-8.5768 0.5929 2.3896
-8.6001 0.2898 2.3896
-8.6105 -0.0143 2.3896
-8.6080 -0.3188 2.3896
-8.5927 -0.6227 2.3896
-8.5644 -0.9259 2.3896
-8.5234 -1.2277 2.3896
-8.4697 -1.5269 2.3896
-8.4034 -1.8238 2.3896
-8.3247 -2.1173 2.3896
-8.2337 -2.4070 2.3896
-8.1308 -2.6925 2.3896
-8.0161 -2.9727 2.3896
-7.8899 -3.2477 2.3896
-7.7525 -3.5166 2.3896
-7.6043 -3.7790 2.3896
-7.4457 -4.0348 2.3896
-7.2770 -4.2830 2.3896
-7.0986 -4.5236 2.3896
-6.9109 -4.7561 2.3896
-6.7144 -4.9800 2.3896
-6.5094 -5.1951 2.3896
-6.2966 -5.4011 2.3896
-6.0764 -5.5977 2.3896
-5.8491 -5.7847 2.3896
-5.6154 -5.9618 2.3896
-5.3757 -6.1289 2.3896
-5.1305 -6.2857 2.3896
-4.8803 -6.4321 2.3896
-4.6257 -6.5681 2.3896
-4.3670 -6.6936 2.3896
-4.1048 -6.8084 2.3896
-3.8395 -6.9126 2.3896
-3.5717 -7.0060 2.3896
-3.3019 -7.0889 2.3896
-3.0303 -7.1611 2.3896
-2.7576 -7.2227 2.3896
-2.4842 -7.2739 2.3896
-2.2104 -7.3146 2.3896
-1.9368 -7.3450 2.3896
-1.6637 -7.3652 2.3896
-1.3915 -7.3753 2.3896
-1.1205 -7.3755 2.3896
-0.8512 -7.3660 2.3896
-0.5839 -7.3469 2.3896
-0.3189 -7.3185 2.3896
-0.0565 -7.2808 2.3896
0.2029 -7.2341 2.3896
0.4591 -7.1786 2.3896
0.7118 -7.1146 2.3896
0.9607 -7.0422 2.3896
1.2056 -6.9617 2.3896
1.4462 -6.8732 2.3896
1.6824 -6.7771 2.3896
1.9139 -6.6735 2.3896
2.1404 -6.5628 2.3896
2.3619 -6.4450 2.3896
2.5781 -6.3206 2.3896
2.7890 -6.1896 2.3896
2.9942 -6.0524 2.3896
3.1938 -5.9091 2.3896
3.3875 -5.7601 2.3896
3.5753 -5.6055 2.3896
3.7570 -5.4456 2.3896
3.9325 -5.2806 2.3896
4.1018 -5.1108 2.3896
4.2647 -4.9362 2.3896
4.3511 -4.6819 2.3517
4.3058 -4.3088 2.2509
4.4138 -4.1074 2.2372
4.5419 -3.9288 2.2372
4.6637 -3.7469 2.2372
4.7792 -3.5618 2.2373
4.8883 -3.3738 2.2373
4.9910 -3.1831 2.2373
5.0874 -2.9899 2.2373
5.1772 -2.7942 2.2374
5.2606 -2.5964 2.2374
5.3374 -2.3966 2.2374
-0.7623 -6.8329 2.3896
-0.5147 -6.8166 2.3896
-0.2691 -6.7916 2.3896
-0.0258 -6.7580 2.3896
0.2149 -6.7161 2.3896
0.4527 -6.6659 2.3896
0.6874 -6.6078 2.3896
0.9188 -6.5418 2.3896
1.1465 -6.4682 2.3896
1.3704 -6.3872 2.3896
1.5902 -6.2989 2.3896
1.8058 -6.2037 2.3896
2.0170 -6.1016 2.3896
2.2235 -5.9930 2.3896
2.4252 -5.8780 2.3896
2.6220 -5.7569 2.3896
2.8137 -5.6298 2.3896
3.0001 -5.4971 2.3896
3.1812 -5.3588 2.3896
3.3567 -5.2152 2.3896
3.5266 -5.0666 2.3896
3.6909 -4.9131 2.3896
3.8493 -4.7550 2.3896
4.0018 -4.5925 2.3896
4.1483 -4.4257 2.3896
4.2675 -4.2339 2.3778
4.2265 -3.8991 2.2834
4.2608 -3.6533 2.2372
4.3749 -3.4833 2.2372
4.4831 -3.3103 2.2372
4.5853 -3.1345 2.2372
4.6816 -2.9561 2.2373
4.7718 -2.7752 2.2373
4.8559 -2.5921 2.2373
4.9339 -2.4068 2.2373
5.0058 -2.2196 2.2374
5.0715 -2.0307 2.2374
5.1311 -1.8402 2.2374
5.1845 -1.6482 2.2374
5.2316 -1.4551 2.2374
5.2726 -1.2609 2.2374
5.3074 -1.0658 2.2375
5.3364 -0.8700 2.2377
5.3590 -0.6736 2.2378
5.3754 -0.4767 2.2380
5.3856 -0.2796 2.2381
5.3894 -0.0824 2.2382
5.3871 0.1148 2.2383
5.3785 0.3118 2.2384
5.3636 0.5084 2.2384
5.3426 0.7044 2.2385
5.3153 0.8997 2.2385
5.2818 1.0942 2.2385
5.2422 1.2876 2.2385
5.1964 1.4798 2.2385
5.1445 1.6707 2.2385
5.0864 1.8600 2.2385
5.0223 2.0476 2.2384
4.9522 2.2334 2.2383
4.8760 2.4172 2.2382
4.7939 2.5987 2.2381
4.7059 2.7779 2.2380
4.6120 2.9545 2.2379
4.5122 3.1285 2.2377
4.4067 3.2996 2.2375
4.2955 3.4677 2.2374
4.1789 3.6328 2.2374
4.0567 3.7947 2.2374
3.9290 3.9529 2.2374
3.7958 4.1075 2.2373
3.6572 4.2582 2.2373
3.5133 4.4048 2.2373
3.3642 4.5473 2.2373
3.2099 4.6853 2.2372
3.0506 4.8188 2.2372
2.8864 4.9475 2.2372
2.7173 5.0713 2.2372
2.6071 5.3197 2.2931
2.5263 5.6646 2.3896
2.3309 5.7799 2.3896
2.1310 5.8891 2.3896
0.8042 2.5012 0.9974
0.7139 2.5304 0.9931
0.6227 2.5564 0.9887
0.5306 2.5791 0.9843
0.4377 2.5985 0.9798
0.3441 2.6145 0.9752
0.2501 2.6271 0.9706
0.1556 2.6363 0.9660
0.0609 2.6420 0.9613
-0.0340 2.6444 0.9566
-0.1289 2.6433 0.9518
-0.2237 2.6388 0.9471
-0.3183 2.6308 0.9423
-0.4125 2.6195 0.9376
-0.5063 2.6047 0.9328
-0.5995 2.5866 0.9281
-0.6920 2.5651 0.9233
-0.7836 2.5402 0.9186
-0.8742 2.5121 0.9139
-2.5329 6.5194 2.3896
-2.7793 6.4612 2.3896
-3.0246 6.3937 2.3896
-3.2684 6.3168 2.3896
-3.5103 6.2305 2.3896
-3.7499 6.1348 2.3896
-3.9869 6.0297 2.3896
-4.2208 5.9152 2.3896
-4.4511 5.7913 2.3896
-4.6776 5.6582 2.3896
-4.8997 5.5160 2.3896
-5.1170 5.3646 2.3896
-5.3292 5.2043 2.3896
-5.5357 5.0353 2.3896
-5.7362 4.8576 2.3896
-5.9302 4.6715 2.3896
-6.1174 4.4772 2.3896
-6.2973 4.2750 2.3896
-6.4695 4.0651 2.3896
-6.6336 3.8479 2.3896
-6.7894 3.6235 2.3896
-6.9363 3.3925 2.3896
-7.0741 3.1551 2.3896
-7.2024 2.9117 2.3896
-7.3210 2.6627 2.3896
-7.4294 2.4085 2.3896
-7.5275 2.1496 2.3896
-7.6150 1.8865 2.3896
-7.6916 1.6195 2.3896
-7.7572 1.3492 2.3896
-7.8116 1.0762 2.3896
-7.8547 0.8007 2.3896
-7.8862 0.5235 2.3896
-7.9062 0.2451 2.3896
-7.9145 -0.0341 2.3896
-7.9112 -0.3135 2.3896
-7.8961 -0.5926 2.3896
-7.8695 -0.8708 2.3896
-7.8312 -1.1476 2.3896
-7.7814 -1.4225 2.3896
-7.7202 -1.6949 2.3896
-7.6477 -1.9643 2.3896
-7.5641 -2.2302 2.3896
-7.4697 -2.4922 2.3896
-7.3646 -2.7497 2.3896
-7.2490 -3.0023 2.3896
-7.1233 -3.2496 2.3896
-6.9877 -3.4910 2.3896
-6.8426 -3.7262 2.3896
-6.6883 -3.9548 2.3896
-6.5252 -4.1764 2.3896
-6.3535 -4.3906 2.3896
-6.1738 -4.5973 2.3896
-5.9864 -4.7959 2.3896
-5.7916 -4.9863 2.3896
-5.5900 -5.1683 2.3896
-5.3820 -5.3414 2.3896
-5.1679 -5.5057 2.3896
-4.9483 -5.6608 2.3896
-4.7235 -5.8067 2.3896
-4.4940 -5.9431 2.3896
-4.2603 -6.0700 2.3896
-4.0228 -6.1873 2.3896
-3.7819 -6.2949 2.3896
-3.5381 -6.3928 2.3896
-3.2917 -6.4810 2.3896
-3.0433 -6.5593 2.3896
-2.7933 -6.6280 2.3896
-2.5420 -6.6869 2.3896
-2.2898 -6.7361 2.3896
-2.0372 -6.7758 2.3896
-1.7845 -6.8060 2.3896
-1.5321 -6.8267 2.3896
-1.2804 -6.8382 2.3896
-1.0297 -6.8405 2.3896
-0.7803 -6.8337 2.3896
-0.5326 -6.8181 2.3896
-0.2869 -6.7937 2.3896
-0.0434 -6.7608 2.3896
0.1975 -6.7194 2.3896
0.4355 -6.6699 2.3896
0.6705 -6.6122 2.3896
0.9021 -6.5468 2.3896
1.1301 -6.4738 2.3896
1.3543 -6.3933 2.3896
1.5744 -6.3055 2.3896
1.7903 -6.2108 2.3896
2.0018 -6.1092 2.3896
2.2087 -6.0011 2.3896
2.4108 -5.8866 2.3896
2.6079 -5.7659 2.3896
2.7999 -5.6392 2.3896
2.9868 -5.5069 2.3896
3.1682 -5.3690 2.3896
3.3442 -5.2258 2.3896
3.5145 -5.0776 2.3896
3.6791 -4.9244 2.3896
3.8380 -4.7666 2.3896
3.9909 -4.6044 2.3896
4.1379 -4.4380 2.3896
4.2706 -4.2594 2.3851
4.2294 -3.9224 2.2899
4.2523 -3.6655 2.2372
4.3668 -3.4957 2.2372
4.4754 -3.3230 2.2372
4.5781 -3.1474 2.2372
4.6748 -2.9691 2.2373
4.7654 -2.7884 2.2373
4.8500 -2.6054 2.2373
4.9284 -2.4203 2.2373
5.0008 -2.2333 2.2374
5.0669 -2.0445 2.2374
5.1270 -1.8541 2.2374
5.1808 -1.6622 2.2374
5.2284 -1.4692 2.2374
5.2698 -1.2750 2.2374
5.3051 -1.0800 2.2375
5.3345 -0.8842 2.2376
5.3576 -0.6879 2.2378
5.3744 -0.4910 2.2379
5.3850 -0.2939 2.2381
5.3894 -0.0967 2.2382
5.3875 0.1005 2.2383
5.3793 0.2975 2.2384
5.3649 0.4941 2.2384
5.3443 0.6902 2.2385
5.3175 0.8856 2.2385
5.2845 1.0801 2.2385
5.2453 1.2736 2.2385
5.1999 1.4659 2.2385
5.1484 1.6569 2.2385
5.0908 1.8463 2.2385
5.0272 2.0341 2.2384
4.9575 2.2200 2.2383
4.8818 2.4039 2.2382
4.8001 2.5856 2.2381
4.7125 2.7650 2.2380
4.6190 2.9418 2.2379
4.5196 3.1160 2.2377
4.4145 3.2873 2.2375
4.3038 3.4556 2.2374
4.1876 3.6210 2.2374
4.0658 3.7830 2.2374
3.9385 3.9416 2.2374
3.8057 4.0964 2.2373
3.6675 4.2474 2.2373
3.5240 4.3943 2.2373
3.3752 4.5371 2.2373
3.2213 4.6755 2.2373
3.0624 4.8093 2.2372
2.8985 4.9383 2.2372
2.7298 5.0622 2.2372
2.6126 5.2956 2.2864
2.5337 5.6414 2.3834
2.3453 5.7717 2.3896
2.1456 5.8814 2.3896
0.8107 2.4989 0.9978
0.7205 2.5284 0.9934
0.6293 2.5547 0.9891
0.5373 2.5776 0.9846
0.4444 2.5972 0.9801
0.3509 2.6134 0.9756
0.2569 2.6263 0.9709
0.1625 2.6357 0.9663
0.0678 2.6417 0.9616
-0.0271 2.6443 0.9569
-0.1220 2.6435 0.9522
-0.2168 2.6392 0.9474
-0.3115 2.6315 0.9427
-0.4057 2.6204 0.9379
-0.4995 2.6059 0.9332
-0.5928 2.5880 0.9284
-0.6853 2.5667 0.9237
-0.7770 2.5422 0.9190
-0.8677 2.5143 0.9143
-2.5150 6.5232 2.3896
-2.7615 6.4658 2.3896
-3.0068 6.3989 2.3896
-3.2508 6.3227 2.3896
-3.4928 6.2371 2.3896
-3.7326 6.1421 2.3896
-3.9698 6.0376 2.3896
-4.2039 5.9238 2.3896
-4.4346 5.8007 2.3896
-4.6613 5.6682 2.3896
-4.8837 5.5266 2.3896
-5.1014 5.3759 2.3896
-5.3139 5.2163 2.3896
-5.5209 5.0478 2.3896
-5.7218 4.8708 2.3896
-5.9163 4.6853 2.3896
-6.1040 4.4916 2.3896
-6.2844 4.2899 2.3896
-6.4572 4.0806 2.3896
-6.6220 3.8639 2.3896
-6.7784 3.6401 2.3896
-6.9260 3.4095 2.3896
-7.0644 3.1725 2.3896
-7.1934 2.9295 2.3896
-7.3127 2.6809 2.3896
-7.4219 2.4271 2.3896
-7.5207 2.1686 2.3896
-7.6090 1.9057 2.3896
-7.6864 1.6390 2.3896
-7.7529 1.3690 2.3896
-7.8081 1.0961 2.3896
-7.8519 0.8208 2.3896
-7.8843 0.5437 2.3896
-7.9051 0.2653 2.3896
-7.9143 -0.0138 2.3896
-7.9118 -0.2933 2.3896
-7.8976 -0.5724 2.3896
-7.8718 -0.8506 2.3896
-7.8343 -1.1276 2.3896
-7.7854 -1.4026 2.3896
-7.7250 -1.6752 2.3896
-7.6533 -1.9449 2.3896
-7.5706 -2.2111 2.3896
-7.4769 -2.4734 2.3896
-7.3725 -2.7312 2.3896
-7.2577 -2.9842 2.3896
-7.1328 -3.2318 2.3896
-6.9979 -3.4736 2.3896
-6.8535 -3.7093 2.3896
-6.6998 -3.9384 2.3896
-6.5373 -4.1605 2.3896
-6.3663 -4.3754 2.3896
-6.1871 -4.5825 2.3896
-6.0002 -4.7818 2.3896
-5.8060 -4.9728 2.3896
-5.6049 -5.1553 2.3896
-5.3973 -5.3292 2.3896
-5.1836 -5.4941 2.3896
-4.9644 -5.6499 2.3896
-4.7400 -5.7964 2.3896
-4.5108 -5.9335 2.3896
-4.2774 -6.0611 2.3896
-4.0401 -6.1791 2.3896
-3.7995 -6.2874 2.3896
-3.5558 -6.3860 2.3896
-3.3097 -6.4749 2.3896
-3.0614 -6.5539 2.3896
-2.8115 -6.6233 2.3896
-2.5603 -6.6829 2.3896
-2.3081 -6.7329 2.3896
-2.0556 -6.7733 2.3896
-1.8029 -6.8041 2.3896
-1.5505 -6.8256 2.3896
-1.2987 -6.8377 2.3896
-1.0479 -6.8406 2.3896
-0.7984 -6.8345 2.3896
-0.5505 -6.8195 2.3896
-0.3046 -6.7958 2.3896
-0.0610 -6.7634 2.3896
0.1801 -6.7227 2.3896
0.4184 -6.6737 2.3896
0.6535 -6.6167 2.3896
0.8854 -6.5518 2.3896
1.1137 -6.4793 2.3896
1.3381 -6.3994 2.3896
1.5586 -6.3121 2.3896
1.7748 -6.2179 2.3896
1.9866 -6.1168 2.3896
2.1938 -6.0092 2.3896
2.3962 -5.8950 2.3896
2.5938 -5.7748 2.3896
2.7862 -5.6486 2.3896
2.9734 -5.5167 2.3896
3.1552 -5.3792 2.3896
3.3316 -5.2364 2.3896
3.5023 -5.0885 2.3896
3.6674 -4.9357 2.3896
3.8266 -4.7783 2.3896
3.9800 -4.6163 2.3896
4.1274 -4.4502 2.3896
4.2687 -4.2800 2.3896
4.2323 -3.9459 2.2965
4.2438 -3.6777 2.2372
4.3587 -3.5081 2.2372
4.4678 -3.3356 2.2372
4.5709 -3.1602 2.2372
4.6680 -2.9821 2.2373
4.7590 -2.8016 2.2373
4.8440 -2.6188 2.2373
4.9229 -2.4338 2.2373
4.9957 -2.2469 2.2374
-0.7184 -6.3665 2.3896
-0.4879 -6.3535 2.3896
-0.2590 -6.3324 2.3896
-0.0322 -6.3033 2.3896
0.1924 -6.2663 2.3896
0.4145 -6.2216 2.3896
0.6338 -6.1694 2.3896
0.8501 -6.1098 2.3896
1.0631 -6.0431 2.3896
1.2727 -5.9693 2.3896
1.4787 -5.8887 2.3896
1.6808 -5.8015 2.3896
1.8788 -5.7078 2.3896
2.0727 -5.6079 2.3896
2.2621 -5.5019 2.3896
2.4470 -5.3901 2.3896
2.6273 -5.2727 2.3896
2.8027 -5.1498 2.3896
2.9731 -5.0216 2.3896
3.1384 -4.8884 2.3896
3.2986 -4.7503 2.3896
3.4534 -4.6076 2.3896
3.6028 -4.4603 2.3896
3.7468 -4.3089 2.3896
3.8851 -4.1534 2.3896
4.0178 -3.9940 2.3896
4.1447 -3.8309 2.3896
4.1606 -3.5740 2.3307
4.1272 -3.2920 2.2511
4.2041 -3.1102 2.2372
4.3008 -2.9451 2.2372
4.3919 -2.7780 2.2372
4.4774 -2.6084 2.2372
4.5571 -2.4367 2.2373
4.6311 -2.2629 2.2373
4.6993 -2.0872 2.2373
4.7616 -1.9098 2.2373
4.8182 -1.7309 2.2373
4.8689 -1.5506 2.2374
4.9137 -1.3691 2.2374
4.9527 -1.1865 2.2374
4.9858 -1.0030 2.2374
5.0129 -0.8189 2.2374
5.0342 -0.6341 2.2374
5.0496 -0.4489 2.2374
5.0590 -0.2635 2.2374
5.0626 -0.0779 2.2374
5.0604 0.1075 2.2375
5.0523 0.2927 2.2376
5.0383 0.4777 2.2376
5.0185 0.6620 2.2377
4.9927 0.8457 2.2377
4.9611 1.0286 2.2377
4.9236 1.2105 2.2377
4.8803 1.3912 2.2377
4.8312 1.5706 2.2377
4.7763 1.7485 2.2376
4.7157 1.9248 2.2376
4.6493 2.0993 2.2375
4.5773 2.2719 2.2374
4.4999 2.4424 2.2374
4.4168 2.6107 2.2374
4.3282 2.7766 2.2374
4.2342 2.9399 2.2374
4.1347 3.1004 2.2374
4.0298 3.2582 2.2374
3.9196 3.4128 2.2373
3.8041 3.5642 2.2373
3.6835 3.7122 2.2373
3.5577 3.8567 2.2373
3.4269 3.9975 2.2373
3.2911 4.1344 2.2372
3.1505 4.2672 2.2372
3.0050 4.3958 2.2372
2.8549 4.5200 2.2372
2.7254 4.6831 2.2581
2.6586 4.9749 2.3408
2.5393 5.1962 2.3896
2.3601 5.3084 2.3896
2.1764 5.4150 2.3896
0.8301 2.3026 0.9975
0.7470 2.3329 0.9936
0.6628 2.3602 0.9896
0.5777 2.3845 0.9855
0.4917 2.4056 0.9813
0.4051 2.4236 0.9771
0.3178 2.4385 0.9729
0.2301 2.4503 0.9686
0.1420 2.4588 0.9642
0.0536 2.4642 0.9598
-0.0349 2.4664 0.9555
-0.1234 2.4654 0.9510
-0.2119 2.4611 0.9466
-0.3001 2.4537 0.9422
-0.3880 2.4431 0.9377
-0.4755 2.4294 0.9333
-0.5624 2.4124 0.9289
-0.6486 2.3924 0.9244
-0.7341 2.3692 0.9201
-0.8186 2.3430 0.9157
-0.9022 2.3137 0.9113
-2.5941 6.0105 2.3896
-2.8213 5.9456 2.3896
-3.0470 5.8721 2.3896
-3.2709 5.7898 2.3896
-3.4924 5.6989 2.3896
-3.7113 5.5993 2.3896
-3.9272 5.4911 2.3896
-4.1398 5.3743 2.3896
-4.3485 5.2491 2.3896
-4.5532 5.1154 2.3896
-4.7533 4.9734 2.3896
-4.9485 4.8233 2.3896
-5.1384 4.6652 2.3896
-5.3226 4.4992 2.3896
-5.5008 4.3255 2.3896
-5.6725 4.1445 2.3896
-5.8375 3.9562 2.3896
-5.9954 3.7609 2.3896
-6.1458 3.5590 2.3896
-6.2884 3.3507 2.3896
-6.4229 3.1362 2.3896
-6.5489 2.9161 2.3896
-6.6662 2.6905 2.3896
-6.7745 2.4599 2.3896
-6.8735 2.2246 2.3896
-6.9630 1.9851 2.3896
-7.0428 1.7417 2.3896
-7.1126 1.4950 2.3896
-7.1724 1.2452 2.3896
-7.2219 0.9929 2.3896
-7.2610 0.7386 2.3896
-7.2896 0.4826 2.3896
-7.3076 0.2255 2.3896
-7.3150 -0.0322 2.3896
-7.3117 -0.2901 2.3896
-7.2978 -0.5477 2.3896
-7.2732 -0.8045 2.3896
-7.2380 -1.0600 2.3896
-7.1923 -1.3138 2.3896
-7.1362 -1.5654 2.3896
-7.0698 -1.8142 2.3896
-6.9933 -2.0599 2.3896
-6.9068 -2.3020 2.3896
-6.8105 -2.5401 2.3896
-6.7047 -2.7738 2.3896
-6.5895 -3.0026 2.3896
-6.4653 -3.2261 2.3896
-6.3324 -3.4440 2.3896
-6.1909 -3.6560 2.3896
-6.0413 -3.8616 2.3896
-5.8839 -4.0605 2.3896
-5.7190 -4.2525 2.3896
-5.5469 -4.4373 2.3896
-5.3681 -4.6147 2.3896
-5.1828 -4.7842 2.3896
-4.9916 -4.9459 2.3896
-4.7947 -5.0993 2.3896
-4.5926 -5.2445 2.3896
-4.3857 -5.3812 2.3896
-4.1743 -5.5093 2.3896
-3.9588 -5.6287 2.3896
-3.7398 -5.7393 2.3896
-3.5174 -5.8410 2.3896
-3.2923 -5.9338 2.3896
-3.0646 -6.0176 2.3896
-2.8350 -6.0924 2.3896
-2.6036 -6.1582 2.3896
-2.3709 -6.2151 2.3896
-2.1372 -6.2631 2.3896
-1.9030 -6.3021 2.3896
-1.6686 -6.3324 2.3896
-1.4342 -6.3539 2.3896
-1.2003 -6.3668 2.3896
-0.9672 -6.3712 2.3896
-0.7352 -6.3671 2.3896
-0.5045 -6.3548 2.3896
-0.2756 -6.3342 2.3896
-0.0486 -6.3057 2.3896
0.1762 -6.2693 2.3896
0.3984 -6.2251 2.3896
0.6180 -6.1735 2.3896
0.8345 -6.1144 2.3896
1.0478 -6.0481 2.3896
1.2576 -5.9749 2.3896
1.4639 -5.8948 2.3896
1.6662 -5.8080 2.3896
1.8646 -5.7148 2.3896
2.0587 -5.6153 2.3896
2.2485 -5.5098 2.3896
2.4338 -5.3984 2.3896
2.6143 -5.2814 2.3896
2.7901 -5.1589 2.3896
2.9609 -5.0311 2.3896
3.1266 -4.8982 2.3896
3.2871 -4.7605 2.3896
3.4423 -4.6181 2.3896
3.5922 -4.4712 2.3896
3.7365 -4.3200 2.3896
3.8752 -4.1648 2.3896
4.0083 -4.0057 2.3896
4.1357 -3.8429 2.3896
4.1632 -3.5954 2.3368
4.1285 -3.3110 2.2560
4.1967 -3.1215 2.2372
4.2939 -2.9572 2.2372
4.3855 -2.7902 2.2372
4.4713 -2.6208 2.2372
4.5515 -2.4492 2.2373
4.6259 -2.2756 2.2373
4.6945 -2.1000 2.2373
4.7573 -1.9228 2.2373
4.8143 -1.7439 2.2373
4.8654 -1.5637 2.2374
4.9107 -1.3823 2.2374
4.9501 -1.1998 2.2374
4.9836 -1.0164 2.2374
5.0112 -0.8323 2.2374
5.0329 -0.6475 2.2374
5.0487 -0.4624 2.2374
5.0586 -0.2770 2.2374
5.0626 -0.0915 2.2374
5.0607 0.0940 2.2375
5.0531 0.2793 2.2376
5.0396 0.4642 2.2376
5.0201 0.6487 2.2377
4.9948 0.8324 2.2377
4.9636 1.0154 2.2377
4.9265 1.1973 2.2377
4.8836 1.3781 2.2377
4.8350 1.5576 2.2377
4.7805 1.7357 2.2376
4.7203 1.9121 2.2376
4.6543 2.0867 2.2375
4.5827 2.2594 2.2374
4.5057 2.4301 2.2374
4.4230 2.5986 2.2374
4.3349 2.7646 2.2374
4.2412 2.9281 2.2374
4.1421 3.0889 2.2374
4.0376 3.2469 2.2374
3.9278 3.4017 2.2373
3.8127 3.5533 2.2373
3.6924 3.7016 2.2373
3.5670 3.8464 2.2373
3.4366 3.9874 2.2373
3.3012 4.1246 2.2372
3.1608 4.2577 2.2372
3.0157 4.3866 2.2372
2.8659 4.5112 2.2372
2.7300 4.6626 2.2524
2.6637 4.9529 2.3345
2.5522 5.1879 2.3896
2.3733 5.3004 2.3896
2.1899 5.4074 2.3896
0.8361 2.3003 0.9978
0.7531 2.3308 0.9939
0.6689 2.3583 0.9899
0.5839 2.3828 0.9858
0.4980 2.4042 0.9816
0.4114 2.4224 0.9774
0.3242 2.4376 0.9732
0.2365 2.4495 0.9689
0.1484 2.4583 0.9645
0.0600 2.4639 0.9602
-0.0285 2.4663 0.9558
-0.1170 2.4655 0.9514
-0.2054 2.4616 0.9469
-0.2937 2.4544 0.9425
-0.3816 2.4440 0.9381
-0.4691 2.4305 0.9336
-0.5561 2.4138 0.9292
-0.6424 2.3940 0.9248
-0.7279 2.3710 0.9204
-0.8125 2.3450 0.9160
-0.8962 2.3160 0.9117
-2.5775 6.0149 2.3896
-2.8049 5.9506 2.3896
-3.0307 5.8777 2.3896
-3.2547 5.7961 2.3896
-3.4764 5.7058 2.3896
-3.6955 5.6068 2.3896
-3.9117 5.4993 2.3896
-4.1245 5.3831 2.3896
-4.3335 5.2585 2.3896
-4.5385 5.1254 2.3896
-4.7389 4.9840 2.3896
-4.9345 4.8345 2.3896
-5.1248 4.6769 2.3896
-5.3094 4.5115 2.3896
-5.4880 4.3384 2.3896
-5.6603 4.1579 2.3896
-5.8258 3.9701 2.3896
-5.9842 3.7753 2.3896
-6.1351 3.5739 2.3896
-6.2783 3.3660 2.3896
-6.4134 3.1520 2.3896
-6.5400 2.9323 2.3896
-6.6580 2.7071 2.3896
-6.7669 2.4768 2.3896
-6.8666 2.2419 2.3896
-6.9568 2.0026 2.3896
-7.0373 1.7595 2.3896
-7.1079 1.5130 2.3896
-7.1684 1.2634 2.3896
-7.2186 1.0113 2.3896
-7.2585 0.7571 2.3896
-7.2878 0.5012 2.3896
-7.3066 0.2442 2.3896
-7.3148 -0.0135 2.3896
-7.3123 -0.2714 2.3896
-7.2991 -0.5290 2.3896
-7.2753 -0.7859 2.3896
-7.2409 -1.0415 2.3896
-7.1960 -1.2955 2.3896
-7.1407 -1.5472 2.3896
-7.0750 -1.7962 2.3896
-6.9992 -2.0422 2.3896
-6.9134 -2.2846 2.3896
-6.8178 -2.5230 2.3896
-6.7127 -2.7570 2.3896
-6.5982 -2.9861 2.3896
-6.4746 -3.2101 2.3896
-6.3423 -3.4284 2.3896
-6.2015 -3.6408 2.3896
-6.0524 -3.8469 2.3896
-5.8956 -4.0463 2.3896
-5.7312 -4.2389 2.3896
-5.5596 -4.4242 2.3896
-5.3813 -4.6020 2.3896
-5.1965 -4.7722 2.3896
-5.0057 -4.9344 2.3896
-4.8092 -5.0885 2.3896
-4.6074 -5.2343 2.3896
-4.4008 -5.3716 2.3896
-4.1897 -5.5003 2.3896
-3.9746 -5.6203 2.3896
-3.7558 -5.7316 2.3896
-3.5337 -5.8339 2.3896
-3.3087 -5.9273 2.3896
-3.0812 -6.0118 2.3896
-2.8517 -6.0872 2.3896
-2.6204 -6.1538 2.3896
-2.3878 -6.2113 2.3896
-2.1542 -6.2599 2.3896
-1.9200 -6.2996 2.3896
-1.6856 -6.3305 2.3896
-1.4512 -6.3527 2.3896
-1.2173 -6.3662 2.3896
-0.9841 -6.3712 2.3896
-0.7520 -6.3677 2.3896
-0.5212 -6.3559 2.3896
-0.2921 -6.3360 2.3896
-0.0650 -6.3080 2.3896
0.1599 -6.2722 2.3896
0.3824 -6.2286 2.3896
0.6021 -6.1775 2.3896
0.8188 -6.1189 2.3896
1.0324 -6.0532 2.3896
1.2425 -5.9804 2.3896
1.4490 -5.9008 2.3896
1.6517 -5.8145 2.3896
1.8503 -5.7218 2.3896
2.0448 -5.6228 2.3896
2.2349 -5.5177 2.3896
2.4205 -5.4067 2.3896
2.6014 -5.2901 2.3896
2.7775 -5.1679 2.3896
2.9486 -5.0405 2.3896
3.1147 -4.9080 2.3896
3.2756 -4.7706 2.3896
3.4314 -4.6293 2.3896
3.5815 -4.4820 2.3896
