ply
format ascii 1.0
element vertex 2175
property float32 x
property float32 y
property float32 z
end_header
-4.8226 8.1200 2.3839
-5.1455 8.0011 2.3839
-5.4657 7.8691 2.3839
-5.7823 7.7237 2.3839
-5.8916 -7.6568 2.3839
-5.5767 -7.8067 2.3839
-5.2581 -7.9433 2.3839
-4.9364 -8.0668 2.3839
-4.6123 -8.1770 2.3839
-4.2863 -8.2742 2.3839
-3.9590 -8.3584 2.3839
-3.6309 -8.4298 2.3839
-3.3028 -8.4884 2.3839
-2.9749 -8.5346 2.3839
-2.6479 -8.5685 2.3839
-2.3222 -8.5902 2.3839
-1.9983 -8.6001 2.3839
-1.6766 -8.5984 2.3839
-1.3575 -8.5853 2.3839
-1.0414 -8.5611 2.3839
-0.7286 -8.5261 2.3839
-0.4196 -8.4804 2.3839
-0.1166 -7.7546 2.3839
0.1603 -7.6984 2.3839
0.4332 -7.6331 2.3839
0.7019 -7.5590 2.3839
0.9661 -7.4763 2.3839
1.2256 -7.3854 2.3839
1.4802 -7.2864 2.3839
1.7296 -7.1797 2.3839
1.9738 -7.0655 2.3839
2.2125 -6.9441 2.3839
2.4456 -6.8156 2.3839
2.6729 -6.6806 2.3839
2.8943 -6.5389 2.3839
3.1097 -6.3910 2.3839
3.3189 -6.2372 2.3839
3.5218 -6.0776 2.3839
3.7183 -5.9126 2.3839
3.9085 -5.7423 2.3839
4.0921 -5.5670 2.3839
4.2690 -5.3869 2.3839
4.4394 -5.2023 2.3839
4.6030 -5.0133 2.3839
4.7598 -4.8202 2.3839
4.9098 -4.6232 2.3839
5.0529 -4.4225 2.3839
5.1891 -4.2183 2.3839
5.3184 -4.0108 2.3839
5.4406 -3.8003 2.3839
5.5559 -3.5868 2.3839
5.6642 -3.3707 2.3839
5.7654 -3.1520 2.3839
5.8595 -2.9310 2.3839
5.9466 -2.7078 2.3839
6.0266 -2.4827 2.3839
6.0995 -2.2558 2.3839
6.1652 -2.0273 2.3839
6.2238 -1.7973 2.3839
6.2753 -1.5661 2.3839
6.3197 -1.3337 2.3839
6.3569 -1.1004 2.3839
6.3870 -0.8664 2.3839
6.4099 -0.6317 2.3839
6.4256 -0.3966 2.3839
6.4342 -0.1612 2.3839
6.4357 0.0743 2.3839
6.4300 0.3098 2.3839
6.4171 0.5451 2.3839
6.3971 0.7800 2.3839
6.3699 1.0144 2.3839
6.3356 1.2481 2.3839
6.2941 1.4809 2.3839
6.2455 1.7127 2.3839
6.1897 1.9433 2.3839
6.1268 2.1725 2.3839
6.0568 2.4002 2.3839
5.9796 2.6261 2.3839
5.8953 2.8502 2.3839
5.8040 3.0723 2.3839
5.7055 3.2920 2.3839
5.6000 3.5094 2.3839
5.4875 3.7241 2.3839
5.3679 3.9360 2.3839
5.2413 4.1449 2.3839
5.1078 4.3507 2.3839
4.9673 4.5529 2.3839
4.8199 4.7516 2.3839
4.6656 4.9464 2.3839
4.5046 5.1373 2.3839
4.3367 5.3239 2.3839
4.1622 5.5060 2.3839
3.9810 5.6834 2.3839
3.7933 5.8558 2.3839
3.5990 6.0232 2.3839
3.3983 6.1851 2.3839
3.1913 6.3414 2.3839
2.9781 6.4918 2.3839
2.7588 6.6360 2.3839
2.5335 6.7739 2.3839
2.3024 6.9051 2.3839
0.8637 2.9395 0.9969
0.7579 2.9709 0.9910
0.6510 2.9985 0.9851
0.5431 3.0222 0.9791
0.4345 3.0420 0.9731
0.3252 3.0579 0.9670
0.2154 3.0698 0.9609
0.1052 3.0777 0.9547
-0.0052 3.0816 0.9485
-0.1157 3.0815 0.9424
-0.2261 3.0774 0.9362
-0.3363 3.0693 0.9300
-0.4461 3.0572 0.9238
-0.5554 3.0412 0.9177
-0.6641 3.0212 0.9116
-0.7720 2.9973 0.9055
-0.8789 2.9694 0.8994
-2.6275 7.8387 2.3839
-2.9262 7.7957 2.3839
-3.2249 7.7414 2.3839
-3.5233 7.6756 2.3839
-3.8208 7.5982 2.3839
-4.1170 7.5090 2.3839
-4.4113 7.4081 2.3839
-4.7032 7.2953 2.3839
-4.9922 7.1706 2.3839
-5.2777 7.0341 2.3839
-5.5591 6.8856 2.3839
-5.8359 6.7254 2.3839
-6.1074 6.5534 2.3839
-6.3732 6.3698 2.3839
-6.6325 6.1748 2.3839
-6.8849 5.9685 2.3839
-7.1297 5.7511 2.3839
-7.3663 5.5229 2.3839
-7.5941 5.2842 2.3839
-7.8126 5.0354 2.3839
-8.0213 4.7767 2.3839
-8.2195 4.5086 2.3839
-8.4068 4.2315 2.3839
-8.5826 3.9458 2.3839
-8.7466 3.6522 2.3839
-8.8981 3.3510 2.3839
-9.0368 3.0429 2.3839
-9.1623 2.7285 2.3839
-9.2742 2.4084 2.3839
-9.3722 2.0832 2.3839
-9.4561 1.7536 2.3839
-9.5255 1.4203 2.3839
-9.5803 1.0839 2.3839
-9.6202 0.7452 2.3839
-9.6453 0.4050 2.3839
-9.6553 0.0639 2.3839
-9.6504 -0.2774 2.3839
-9.6304 -0.6180 2.3839
-9.5955 -0.9573 2.3839
-9.5457 -1.2945 2.3839
-9.4812 -1.6288 2.3839
-9.4023 -1.9597 2.3839
-9.3090 -2.2864 2.3839
-9.2018 -2.6083 2.3839
-9.0810 -2.9246 2.3839
-8.9468 -3.2348 2.3839
-8.7996 -3.5383 2.3839
-8.6399 -3.8345 2.3839
-8.4682 -4.1228 2.3839
-8.2849 -4.4028 2.3839
-8.0905 -4.6739 2.3839
-7.8855 -4.9358 2.3839
-7.6704 -5.1880 2.3839
-7.4459 -5.4301 2.3839
-7.2124 -5.6618 2.3839
-6.9705 -5.8829 2.3839
-6.7209 -6.0929 2.3839
-6.4642 -6.2918 2.3839
-6.2008 -6.4793 2.3839
-5.9315 -6.6553 2.3839
-5.6567 -6.8195 2.3839
-5.3771 -6.9720 2.3839
-5.0932 -7.1127 2.3839
-4.8057 -7.2415 2.3839
-4.5151 -7.3585 2.3839
-4.2218 -7.4636 2.3839
-3.9266 -7.5569 2.3839
-3.6298 -7.6385 2.3839
-3.3320 -7.7084 2.3839
-3.0336 -7.7668 2.3839
-2.7353 -7.8139 2.3839
-2.4372 -7.8497 2.3839
-2.1401 -7.8744 2.3839
-1.8442 -7.8883 2.3839
-1.5500 -7.8914 2.3839
-1.2578 -7.8841 2.3839
-0.9680 -7.8666 2.3839
-0.6809 -7.8390 2.3839
-0.3970 -7.8016 2.3839
-0.1164 -7.7546 2.3839
0.1604 -7.6984 2.3839
0.4333 -7.6330 2.3839
0.7020 -7.5589 2.3839
0.9662 -7.4763 2.3839
1.2257 -7.3853 2.3839
1.4803 -7.2864 2.3839
1.7298 -7.1797 2.3839
1.9740 -7.0654 2.3839
2.2127 -6.9440 2.3839
2.4458 -6.8156 2.3839
2.6731 -6.6805 2.3839
2.8945 -6.5387 2.3839
3.1098 -6.3909 2.3839
3.3190 -6.2371 2.3839
3.5219 -6.0775 2.3839
3.7185 -5.9125 2.3839
3.9086 -5.7422 2.3839
4.0922 -5.5669 2.3839
4.2692 -5.3868 2.3839
4.4395 -5.2022 2.3839
4.6031 -5.0132 2.3839
4.7599 -4.8201 2.3839
4.9099 -4.6231 2.3839
5.0530 -4.4224 2.3839
5.1892 -4.2182 2.3839
5.3184 -4.0107 2.3839
5.4407 -3.8001 2.3839
5.5560 -3.5867 2.3839
5.6643 -3.3705 2.3839
5.7655 -3.1518 2.3839
5.8596 -2.9308 2.3839
5.9467 -2.7077 2.3839
6.0266 -2.4826 2.3839
6.0995 -2.2557 2.3839
6.1653 -2.0271 2.3839
6.2239 -1.7971 2.3839
6.2754 -1.5659 2.3839
6.3197 -1.3336 2.3839
6.3569 -1.1003 2.3839
6.3870 -0.8662 2.3839
6.4099 -0.6315 2.3839
6.4256 -0.3964 2.3839
6.4343 -0.1610 2.3839
6.4357 0.0745 2.3839
6.4300 0.3100 2.3839
6.4171 0.5453 2.3839
6.3971 0.7802 2.3839
6.3699 1.0145 2.3839
6.3356 1.2482 2.3839
6.2941 1.4810 2.3839
6.2454 1.7128 2.3839
6.1897 1.9434 2.3839
6.1267 2.1726 2.3839
6.0567 2.4003 2.3839
5.9795 2.6263 2.3839
5.8953 2.8504 2.3839
5.8039 3.0724 2.3839
5.7055 3.2922 2.3839
5.6000 3.5095 2.3839
5.4874 3.7242 2.3839
5.3678 3.9361 2.3839
5.2413 4.1451 2.3839
5.1077 4.3507 2.3839
4.9672 4.5530 2.3839
4.8198 4.7517 2.3839
4.6655 4.9466 2.3839
4.5045 5.1374 2.3839
4.3366 5.3240 2.3839
4.1621 5.5061 2.3839
3.9809 5.6835 2.3839
3.7931 5.8560 2.3839
3.5989 6.0233 2.3839
3.3982 6.1852 2.3839
3.1912 6.3415 2.3839
2.9780 6.4919 2.3839
2.7587 6.6361 2.3839
2.5334 6.7740 2.3839
2.3022 6.9052 2.3839
0.8637 2.9395 0.9969
0.7578 2.9710 0.9910
0.6509 2.9986 0.9851
0.5431 3.0223 0.9791
0.4344 3.0420 0.9731
0.3251 3.0579 0.9670
0.2153 3.0698 0.9609
0.1051 3.0777 0.9547
-0.0053 3.0816 0.9485
-0.1158 3.0815 0.9424
-0.2262 3.0774 0.9362
-0.3363 3.0693 0.9300
-0.4462 3.0572 0.9238
-0.5555 3.0411 0.9177
-0.6642 3.0212 0.9116
-0.7720 2.9972 0.9055
-0.8790 2.9694 0.8994
-2.6277 7.8386 2.3839
-2.9264 7.7957 2.3839
-3.2251 7.7414 2.3839
-3.5235 7.6756 2.3839
-3.8210 7.5981 2.3839
-4.1172 7.5090 2.3839
-4.4115 7.4080 2.3839
-4.7034 7.2952 2.3839
-4.9924 7.1705 2.3839
-5.2779 7.0340 2.3839
-5.5593 6.8855 2.3839
-5.8361 6.7253 2.3839
-6.1076 6.5533 2.3839
-6.3734 6.3697 2.3839
-6.6327 6.1746 2.3839
-6.8850 5.9683 2.3839
-7.1298 5.7510 2.3839
-7.3664 5.5228 2.3839
-7.5942 5.2841 2.3839
-7.8128 5.0352 2.3839
-8.0214 4.7765 2.3839
-8.2197 4.5084 2.3839
-8.4069 4.2313 2.3839
-8.5828 3.9456 2.3839
-8.7467 3.6520 2.3839
-8.8982 3.3508 2.3839
-9.0369 3.0427 2.3839
-9.1624 2.7283 2.3839
-9.2743 2.4082 2.3839
-9.3723 2.0830 2.3839
-9.4561 1.7534 2.3839
-9.5255 1.4200 2.3839
-9.5803 1.0837 2.3839
-9.6202 0.7450 2.3839
-9.6453 0.4048 2.3839
-9.6553 0.0636 2.3839
-9.6504 -0.2776 2.3839
-9.6304 -0.6182 2.3839
-9.5954 -0.9575 2.3839
-9.5456 -1.2947 2.3839
-9.4812 -1.6291 2.3839
-9.4022 -1.9600 2.3839
-9.3090 -2.2867 2.3839
-9.2018 -2.6085 2.3839
-9.0809 -2.9249 2.3839
-8.9467 -3.2350 2.3839
-8.7995 -3.5385 2.3839
-8.6399 -3.8347 2.3839
-8.4681 -4.1230 2.3839
-8.2848 -4.4030 2.3839
-8.0903 -4.6741 2.3839
-7.8853 -4.9360 2.3839
-7.6703 -5.1881 2.3839
-7.4457 -5.4302 2.3839
-7.2122 -5.6620 2.3839
-6.9704 -5.8830 2.3839
-6.7208 -6.0931 2.3839
-6.4640 -6.2919 2.3839
-6.2006 -6.4794 2.3839
-5.9313 -6.6554 2.3839
-5.6565 -6.8196 2.3839
-5.3769 -6.9721 2.3839
-5.0931 -7.1128 2.3839
-4.8055 -7.2416 2.3839
-4.5149 -7.3586 2.3839
-4.2217 -7.4637 2.3839
-3.9264 -7.5570 2.3839
-3.6296 -7.6385 2.3839
-3.3318 -7.7085 2.3839
-3.0334 -7.7669 2.3839
-2.7351 -7.8139 2.3839
-2.4370 -7.8497 2.3839
-2.1399 -7.8744 2.3839
-1.8440 -7.8883 2.3839
-1.5498 -7.8914 2.3839
-1.2576 -7.8841 2.3839
-0.9678 -7.8666 2.3839
-0.6808 -7.8389 2.3839
-0.3968 -7.8015 2.3839
-0.1179 -7.1760 2.3839
0.1384 -7.1274 2.3839
0.3913 -7.0703 2.3839
0.6406 -7.0050 2.3839
0.8859 -6.9316 2.3839
1.1271 -6.8505 2.3839
1.3639 -6.7617 2.3839
1.5962 -6.6656 2.3839
1.8237 -6.5624 2.3839
2.0464 -6.4523 2.3839
2.2639 -6.3356 2.3839
2.4763 -6.2124 2.3839
2.6832 -6.0831 2.3839
2.8847 -5.9478 2.3839
3.0806 -5.8068 2.3839
3.2707 -5.6603 2.3839
3.4551 -5.5085 2.3839
3.6335 -5.3517 2.3839
3.8058 -5.1900 2.3839
3.9721 -5.0236 2.3839
4.1323 -4.8529 2.3839
4.2861 -4.6780 2.3839
4.4338 -4.4991 2.3839
4.5750 -4.3163 2.3839
4.7098 -4.1300 2.3839
4.8382 -3.9403 2.3839
4.9601 -3.7473 2.3839
5.0755 -3.5514 2.3839
5.1843 -3.3526 2.3839
5.2866 -3.1511 2.3839
5.3822 -2.9472 2.3839
5.4711 -2.7410 2.3839
5.5534 -2.5327 2.3839
5.6291 -2.3225 2.3839
5.6980 -2.1105 2.3839
5.7602 -1.8969 2.3839
5.8156 -1.6819 2.3839
5.8644 -1.4656 2.3839
5.9064 -1.2483 2.3839
5.9416 -1.0300 2.3839
5.9700 -0.8109 2.3839
5.9917 -0.5913 2.3839
6.0066 -0.3712 2.3839
6.0148 -0.1508 2.3839
6.0162 0.0696 2.3839
6.0107 0.2901 2.3839
5.9985 0.5103 2.3839
5.9796 0.7302 2.3839
5.9538 0.9495 2.3839
5.9213 1.1682 2.3839
5.8820 1.3860 2.3839
5.8360 1.6028 2.3839
5.7832 1.8184 2.3839
5.7237 2.0326 2.3839
5.6574 2.2454 2.3839
5.5845 2.4565 2.3839
5.5048 2.6657 2.3839
5.4184 2.8728 2.3839
5.3254 3.0778 2.3839
5.2258 3.2804 2.3839
5.1195 3.4803 2.3839
5.0067 3.6777 2.3839
4.8872 3.8718 2.3839
4.7613 4.0631 2.3839
4.6289 4.2510 2.3839
4.4901 4.4353 2.3839
4.3449 4.6159 2.3839
4.1933 4.7926 2.3839
4.0355 4.9652 2.3839
3.8715 5.1335 2.3839
3.7013 5.2972 2.3839
3.5251 5.4561 2.3839
3.3429 5.6100 2.3839
3.1548 5.7588 2.3839
2.9610 5.9021 2.3839
2.7614 6.0398 2.3839
2.5563 6.1716 2.3839
2.3458 6.2974 2.3839
2.1300 6.4167 2.3839
0.7949 2.7187 0.9926
0.6970 2.7477 0.9872
0.5981 2.7732 0.9817
0.4983 2.7951 0.9761
0.3978 2.8134 0.9706
0.2967 2.8280 0.9649
0.1952 2.8390 0.9593
0.0933 2.8463 0.9536
-0.0088 2.8499 0.9479
-0.1110 2.8498 0.9422
-0.2131 2.8460 0.9364
-0.3150 2.8385 0.9307
-0.4165 2.8273 0.9250
-0.5176 2.8125 0.9193
-0.6181 2.7940 0.9137
-0.7179 2.7719 0.9080
-0.8168 2.7462 0.9025
-0.9147 2.7169 0.8969
-2.7049 7.1779 2.3839
-2.9785 7.1242 2.3839
-3.2514 7.0599 2.3839
-3.5233 6.9851 2.3839
-3.7937 6.8996 2.3839
-4.0621 6.8033 2.3839
-4.3280 6.6963 2.3839
-4.5910 6.5786 2.3839
-4.8507 6.4500 2.3839
-5.1062 6.3109 2.3839
-5.3574 6.1610 2.3839
-5.6035 6.0007 2.3839
-5.8443 5.8298 2.3839
-6.0789 5.6488 2.3839
-6.3071 5.4577 2.3839
-6.5282 5.2567 2.3839
-6.7417 5.0460 2.3839
-6.9472 4.8261 2.3839
-7.1442 4.5970 2.3839
-7.3320 4.3593 2.3839
-7.5104 4.1132 2.3839
-7.6789 3.8591 2.3839
-7.8369 3.5975 2.3839
-7.9841 3.3289 2.3839
-8.1201 3.0536 2.3839
-8.2446 2.7722 2.3839
-8.3571 2.4852 2.3839
-8.4575 2.1932 2.3839
-8.5453 1.8968 2.3839
-8.6204 1.5964 2.3839
-8.6826 1.2928 2.3839
-8.7317 0.9866 2.3839
-8.7675 0.6783 2.3839
-8.7899 0.3686 2.3839
-8.7989 0.0582 2.3839
-8.7945 -0.2524 2.3839
-8.7766 -0.5624 2.3839
-8.7454 -0.8712 2.3839
-8.7008 -1.1782 2.3839
-8.6431 -1.4827 2.3839
-8.5724 -1.7842 2.3839
-8.4889 -2.0820 2.3839
-8.3928 -2.3755 2.3839
-8.2844 -2.6642 2.3839
-8.1641 -2.9475 2.3839
-8.0320 -3.2249 2.3839
-7.8887 -3.4958 2.3839
-7.7344 -3.7598 2.3839
-7.5696 -4.0164 2.3839
-7.3947 -4.2652 2.3839
-7.2101 -4.5057 2.3839
-7.0164 -4.7377 2.3839
-6.8139 -4.9608 2.3839
-6.6033 -5.1746 2.3839
-6.3849 -5.3788 2.3839
-6.1593 -5.5733 2.3839
-5.9270 -5.7578 2.3839
-5.6886 -5.9322 2.3839
-5.4445 -6.0961 2.3839
-5.1952 -6.2496 2.3839
-4.9413 -6.3925 2.3839
-4.6833 -6.5247 2.3839
-4.4217 -6.6462 2.3839
-4.1570 -6.7570 2.3839
-3.8897 -6.8570 2.3839
-3.6202 -6.9463 2.3839
-3.3491 -7.0250 2.3839
-3.0767 -7.0930 2.3839
-2.8036 -7.1505 2.3839
-2.5301 -7.1976 2.3839
-2.2567 -7.2343 2.3839
-1.9839 -7.2609 2.3839
-1.7118 -7.2775 2.3839
-1.4410 -7.2842 2.3839
-1.1719 -7.2812 2.3839
-0.9046 -7.2686 2.3839
-0.6397 -7.2468 2.3839
-0.3773 -7.2158 2.3839
-0.1178 -7.1759 2.3839
0.1386 -7.1273 2.3839
0.3915 -7.0703 2.3839
0.6407 -7.0050 2.3839
0.8860 -6.9316 2.3839
1.1272 -6.8504 2.3839
1.3640 -6.7616 2.3839
1.5963 -6.6655 2.3839
1.8239 -6.5623 2.3839
2.0465 -6.4522 2.3839
2.2641 -6.3355 2.3839
2.4764 -6.2123 2.3839
2.6834 -6.0830 2.3839
2.8849 -5.9477 2.3839
3.0807 -5.8067 2.3839
3.2709 -5.6602 2.3839
3.4552 -5.5084 2.3839
3.6336 -5.3516 2.3839
3.8060 -5.1899 2.3839
3.9722 -5.0236 2.3839
4.1324 -4.8528 2.3839
4.2862 -4.6779 2.3839
4.4338 -4.4989 2.3839
4.5751 -4.3162 2.3839
4.7099 -4.1299 2.3839
4.8383 -3.9401 2.3839
4.9602 -3.7472 2.3839
5.0756 -3.5512 2.3839
5.1844 -3.3524 2.3839
5.2866 -3.1510 2.3839
5.3822 -2.9471 2.3839
5.4712 -2.7409 2.3839
5.5535 -2.5326 2.3839
5.6291 -2.3223 2.3839
5.6980 -2.1104 2.3839
5.7602 -1.8968 2.3839
5.8157 -1.6818 2.3839
5.8644 -1.4655 2.3839
5.9064 -1.2481 2.3839
5.9416 -1.0298 2.3839
5.9701 -0.8108 2.3839
5.9917 -0.5912 2.3839
6.0067 -0.3711 2.3839
6.0148 -0.1507 2.3839
6.0161 0.0698 2.3839
6.0107 0.2902 2.3839
5.9985 0.5104 2.3839
5.9795 0.7303 2.3839
5.9538 0.9497 2.3839
5.9213 1.1683 2.3839
5.8820 1.3861 2.3839
5.8360 1.6029 2.3839
5.7832 1.8185 2.3839
5.7236 2.0328 2.3839
5.6574 2.2455 2.3839
5.5844 2.4566 2.3839
5.5047 2.6658 2.3839
5.4184 2.8730 2.3839
5.3254 3.0779 2.3839
5.2257 3.2805 2.3839
5.1194 3.4804 2.3839
5.0066 3.6777 2.3839
4.8872 3.8721 2.3839
4.7612 4.0632 2.3839
4.6288 4.2511 2.3839
4.4900 4.4354 2.3839
4.3448 4.6160 2.3839
4.1932 4.7927 2.3839
4.0354 4.9653 2.3839
3.8714 5.1336 2.3839
3.7012 5.2972 2.3839
3.5250 5.4562 2.3839
3.3428 5.6101 2.3839
3.1547 5.7589 2.3839
2.9608 5.9022 2.3839
2.7613 6.0399 2.3839
2.5562 6.1717 2.3839
2.3457 6.2974 2.3839
2.1299 6.4168 2.3839
0.7948 2.7187 0.9926
0.6969 2.7477 0.9872
0.5980 2.7732 0.9817
0.4983 2.7951 0.9761
0.3978 2.8134 0.9706
0.2967 2.8281 0.9649
0.1951 2.8390 0.9593
0.0932 2.8463 0.9536
-0.0089 2.8499 0.9479
-0.1110 2.8498 0.9422
-0.2131 2.8460 0.9364
-0.3150 2.8385 0.9307
-0.4166 2.8273 0.9250
-0.5177 2.8125 0.9193
-0.6182 2.7940 0.9137
-0.7180 2.7719 0.9080
-0.8169 2.7462 0.9025
-0.9148 2.7169 0.8969
-2.7051 7.1778 2.3839
-2.9787 7.1241 2.3839
-3.2516 7.0599 2.3839
-3.5235 6.9850 2.3839
-3.7939 6.8995 2.3839
-4.0623 6.8032 2.3839
-4.3282 6.6963 2.3839
-4.5908 6.5787 2.3839
-4.8508 6.4499 2.3839
-5.1064 6.3108 2.3839
-5.3576 6.1609 2.3839
-5.6037 6.0005 2.3839
-5.8445 5.8297 2.3839
-6.0791 5.6487 2.3839
-6.3072 5.4575 2.3839
-6.5283 5.2565 2.3839
-6.7419 5.0459 2.3839
-6.9474 4.8259 2.3839
-7.1443 4.5969 2.3839
-7.3321 4.3591 2.3839
-7.5105 4.1130 2.3839
-7.6790 3.8590 2.3839
-7.8370 3.5974 2.3839
-7.9842 3.3287 2.3839
-8.1202 3.0534 2.3839
-8.2446 2.7720 2.3839
-8.3572 2.4850 2.3839
-8.4575 2.1930 2.3839
-8.5454 1.8966 2.3839
-8.6205 1.5962 2.3839
-8.6827 1.2926 2.3839
-8.7317 0.9863 2.3839
-8.7675 0.6781 2.3839
-8.7899 0.3684 2.3839
-8.7989 0.0579 2.3839
-8.7945 -0.2526 2.3839
-8.7766 -0.5626 2.3839
-8.7453 -0.8714 2.3839
-8.7008 -1.1784 2.3839
-8.6431 -1.4830 2.3839
-8.5724 -1.7844 2.3839
-8.4888 -2.0822 2.3839
-8.3928 -2.3757 2.3839
-8.2844 -2.6644 2.3839
-8.1640 -2.9477 2.3839
-8.0319 -3.2250 2.3839
-7.8886 -3.4959 2.3839
-7.7343 -3.7599 2.3839
-7.5695 -4.0165 2.3839
-7.3946 -4.2653 2.3839
-7.2100 -4.5059 2.3839
-7.0163 -4.7379 2.3839
-6.8138 -4.9609 2.3839
-6.6031 -5.1747 2.3839
-6.3848 -5.3790 2.3839
-6.1592 -5.5735 2.3839
-5.9269 -5.7580 2.3839
-5.6884 -5.9323 2.3839
-5.4443 -6.0962 2.3839
-5.1950 -6.2497 2.3839
-4.9412 -6.3926 2.3839
-4.6832 -6.5248 2.3839
-4.4215 -6.6463 2.3839
-4.1568 -6.7571 2.3839
-3.8895 -6.8571 2.3839
-3.6200 -6.9464 2.3839
-3.3489 -7.0250 2.3839
-3.0765 -7.0931 2.3839
-2.8034 -7.1505 2.3839
-2.5299 -7.1976 2.3839
-2.2566 -7.2344 2.3839
-1.9837 -7.2609 2.3839
-1.7116 -7.2775 2.3839
-1.4409 -7.2842 2.3839
-1.1717 -7.2811 2.3839
-0.9044 -7.2686 2.3839
-0.6395 -7.2468 2.3839
-0.3771 -7.2158 2.3839
-0.1191 -6.6707 2.3839
0.1193 -6.6283 2.3839
0.3547 -6.5780 2.3839
0.5869 -6.5199 2.3839
0.8156 -6.4543 2.3839
1.0407 -6.3813 2.3839
1.2618 -6.3011 2.3839
1.4789 -6.2139 2.3839
1.6917 -6.1200 2.3839
1.9001 -6.0196 2.3839
2.1039 -5.9128 2.3839
2.3029 -5.8000 2.3839
2.4971 -5.6812 2.3839
2.6862 -5.5567 2.3839
2.8702 -5.4267 2.3839
3.0489 -5.2915 2.3839
3.2222 -5.1512 2.3839
3.3901 -5.0060 2.3839
3.5524 -4.8561 2.3839
3.7091 -4.7018 2.3839
3.8600 -4.5432 2.3839
4.0051 -4.3806 2.3839
4.1444 -4.2141 2.3839
4.2777 -4.0439 2.3839
4.4051 -3.8702 2.3839
4.5264 -3.6932 2.3839
4.6416 -3.5130 2.3839
4.7508 -3.3300 2.3839
4.8537 -3.1441 2.3839
4.9504 -2.9557 2.3839
5.0409 -2.7649 2.3839
5.1252 -2.5718 2.3839
5.2031 -2.3767 2.3839
5.2748 -2.1797 2.3839
5.3401 -1.9810 2.3839
5.3990 -1.7807 2.3839
5.4516 -1.5790 2.3839
5.4978 -1.3760 2.3839
5.5376 -1.1721 2.3839
5.5710 -0.9672 2.3839
5.5980 -0.7615 2.3839
5.6186 -0.5553 2.3839
5.6327 -0.3486 2.3839
5.6405 -0.1416 2.3839
5.6417 0.0654 2.3839
5.6366 0.2724 2.3839
5.6250 0.4793 2.3839
5.6070 0.6857 2.3839
5.5826 0.8917 2.3839
5.5517 1.0969 2.3839
5.5145 1.3013 2.3839
5.4708 1.5048 2.3839
5.4208 1.7070 2.3839
5.3643 1.9080 2.3839
5.3015 2.1075 2.3839
5.2324 2.3053 2.3839
5.1569 2.5012 2.3839
5.0751 2.6953 2.3839
4.9870 2.8871 2.3839
4.8927 3.0766 2.3839
4.7922 3.2636 2.3839
4.6854 3.4479 2.3839
4.5725 3.6293 2.3839
4.4535 3.8077 2.3839
4.3285 3.9829 2.3839
4.1974 4.1546 2.3839
4.0603 4.3227 2.3839
3.9174 4.4871 2.3839
3.7686 4.6474 2.3839
3.6140 4.8036 2.3839
3.4538 4.9553 2.3839
3.2879 5.1025 2.3839
3.1165 5.2449 2.3839
2.9397 5.3822 2.3839
2.7576 5.5144 2.3839
2.5703 5.6412 2.3839
2.3779 5.7623 2.3839
2.1805 5.8776 2.3839
0.8247 2.4958 0.9938
0.7348 2.5260 0.9888
0.6438 2.5530 0.9838
0.5519 2.5767 0.9787
0.4593 2.5970 0.9736
0.3659 2.6140 0.9684
0.2720 2.6276 0.9631
0.1776 2.6378 0.9579
0.0829 2.6445 0.9526
-0.0119 2.6478 0.9473
-0.1069 2.6477 0.9420
-0.2017 2.6442 0.9367
-0.2964 2.6372 0.9314
-0.3908 2.6269 0.9261
-0.4847 2.6131 0.9208
-0.5781 2.5959 0.9155
-0.6707 2.5753 0.9103
-0.7626 2.5515 0.9051
-0.8536 2.5243 0.9000
-0.9435 2.4938 0.8949
-2.7653 6.5908 2.3839
-3.0167 6.5284 2.3839
-3.2668 6.4562 2.3839
-3.5152 6.3744 2.3839
-3.7615 6.2827 2.3839
-4.0054 6.1811 2.3839
-4.2464 6.0698 2.3839
-4.4840 5.9487 2.3839
-4.7178 5.8179 2.3839
-4.9474 5.6774 2.3839
-5.1722 5.5274 2.3839
-5.3918 5.3679 2.3839
-5.6057 5.1993 2.3839
-5.8137 5.0214 2.3839
-6.0150 4.8347 2.3839
-6.2092 4.6394 2.3839
-6.3961 4.4356 2.3839
-6.5750 4.2238 2.3839
-6.7456 4.0041 2.3839
-6.9074 3.7770 2.3839
-7.0602 3.5427 2.3839
-7.2034 3.3017 2.3839
-7.3368 3.0544 2.3839
-7.4600 2.8012 2.3839
-7.5727 2.5426 2.3839
-7.6745 2.2789 2.3839
-7.7653 2.0109 2.3839
-7.8447 1.7388 2.3839
-7.9126 1.4633 2.3839
-7.9688 1.1849 2.3839
-8.0132 0.9041 2.3839
-8.0455 0.6216 2.3839
-8.0658 0.3378 2.3839
-8.0740 0.0533 2.3839
-8.0700 -0.2312 2.3839
-8.0539 -0.5153 2.3839
-8.0256 -0.7984 2.3839
-7.9854 -1.0798 2.3839
-7.9333 -1.3590 2.3839
-7.8694 -1.6355 2.3839
-7.7939 -1.9088 2.3839
-7.7070 -2.1782 2.3839
-7.6090 -2.4434 2.3839
-7.5000 -2.7037 2.3839
-7.3805 -2.9588 2.3839
-7.2506 -3.2081 2.3839
-7.1108 -3.4512 2.3839
-6.9614 -3.6878 2.3839
-6.8027 -3.9174 2.3839
-6.6352 -4.1396 2.3839
-6.4592 -4.3541 2.3839
-6.2752 -4.5606 2.3839
-6.0836 -4.7588 2.3839
-5.8848 -4.9485 2.3839
-5.6794 -5.1293 2.3839
-5.4676 -5.3012 2.3839
-5.2501 -5.4638 2.3839
-5.0272 -5.6171 2.3839
-4.7995 -5.7609 2.3839
-4.5673 -5.8951 2.3839
-4.3312 -6.0196 2.3839
-4.0915 -6.1343 2.3839
-3.8488 -6.2393 2.3839
-3.6035 -6.3345 2.3839
-3.3560 -6.4198 2.3839
-3.1067 -6.4954 2.3839
-2.8561 -6.5613 2.3839
-2.6046 -6.6175 2.3839
-2.3525 -6.6640 2.3839
-2.1003 -6.7011 2.3839
-1.8483 -6.7288 2.3839
-1.5969 -6.7471 2.3839
-1.3464 -6.7564 2.3839
-1.0971 -6.7566 2.3839
-0.8495 -6.7480 2.3839
-0.6037 -6.7307 2.3839
-0.3601 -6.7048 2.3839
-0.1190 -6.6706 2.3839
0.1195 -6.6283 2.3839
0.3549 -6.5780 2.3839
0.5871 -6.5199 2.3839
0.8158 -6.4542 2.3839
1.0408 -6.3812 2.3839
1.2620 -6.3010 2.3839
1.4791 -6.2139 2.3839
1.6919 -6.1200 2.3839
1.9002 -6.0195 2.3839
2.1040 -5.9128 2.3839
2.3031 -5.7999 2.3839
2.4972 -5.6811 2.3839
2.6863 -5.5566 2.3839
2.8703 -5.4266 2.3839
3.0490 -5.2914 2.3839
3.2223 -5.1511 2.3839
3.3902 -5.0059 2.3839
3.5525 -4.8560 2.3839
3.7092 -4.7017 2.3839
3.8601 -4.5431 2.3839
4.0052 -4.3805 2.3839
4.1445 -4.2139 2.3839
4.2778 -4.0437 2.3839
4.4052 -3.8700 2.3839
4.5265 -3.6930 2.3839
4.6417 -3.5129 2.3839
4.7508 -3.3298 2.3839
4.8538 -3.1440 2.3839
4.9505 -2.9556 2.3839
5.0410 -2.7647 2.3839
5.1252 -2.5717 2.3839
5.2032 -2.3766 2.3839
5.2748 -2.1796 2.3839
5.3401 -1.9808 2.3839
5.3991 -1.7805 2.3839
5.4516 -1.5788 2.3839
5.4978 -1.3759 2.3839
5.5376 -1.1719 2.3839
5.5710 -0.9670 2.3839
5.5980 -0.7614 2.3839
5.6186 -0.5551 2.3839
5.6327 -0.3484 2.3839
5.6405 -0.1415 2.3839
5.6417 0.0656 2.3839
5.6366 0.2726 2.3839
5.6250 0.4794 2.3839
5.6070 0.6859 2.3839
5.5826 0.8918 2.3839
5.5517 1.0970 2.3839
5.5144 1.3015 2.3839
5.4708 1.5049 2.3839
5.4207 1.7072 2.3839
5.3643 1.9081 2.3839
5.3015 2.1076 2.3839
5.2323 2.3054 2.3839
5.1568 2.5014 2.3839
5.0751 2.6954 2.3839
4.9870 2.8872 2.3839
4.8927 3.0768 2.3839
4.7921 3.2637 2.3839
4.6854 3.4480 2.3839
4.5725 3.6294 2.3839
4.4535 3.8078 2.3839
4.3284 3.9830 2.3839
4.1973 4.1547 2.3839
4.0602 4.3228 2.3839
3.9173 4.4872 2.3839
3.7685 4.6475 2.3839
3.6139 4.8037 2.3839
3.4537 4.9554 2.3839
3.2878 5.1026 2.3839
3.1164 5.2450 2.3839
2.9396 5.3823 2.3839
2.7575 5.5145 2.3839
2.5702 5.6413 2.3839
2.3777 5.7624 2.3839
2.1804 5.8777 2.3839
0.8247 2.4958 0.9938
0.7347 2.5261 0.9888
0.6438 2.5530 0.9838
0.5519 2.5767 0.9787
0.4592 2.5970 0.9736
0.3658 2.6140 0.9684
0.2719 2.6276 0.9631
0.1775 2.6378 0.9579
0.0829 2.6445 0.9526
-0.0120 2.6478 0.9473
-0.1069 2.6478 0.9420
-0.2018 2.6442 0.9367
-0.2965 2.6372 0.9314
-0.3908 2.6269 0.9261
-0.4848 2.6131 0.9208
-0.5781 2.5959 0.9155
-0.6708 2.5753 0.9103
-0.7627 2.5514 0.9051
-0.8537 2.5242 0.9000
-0.9436 2.4938 0.8949
-2.7658 6.5906 2.3839
-3.0167 6.5284 2.3839
-3.2669 6.4562 2.3839
-3.5153 6.3743 2.3839
-3.7616 6.2826 2.3839
-4.0056 6.1811 2.3839
-4.2466 6.0697 2.3839
-4.4842 5.9486 2.3839
-4.7180 5.8178 2.3839
-4.9475 5.6773 2.3839
-5.1724 5.5273 2.3839
-5.3920 5.3678 2.3839
-5.6059 5.1991 2.3839
-5.8138 5.0213 2.3839
-6.0149 4.8347 2.3839
-6.2094 4.6393 2.3839
-6.3962 4.4355 2.3839
-6.5751 4.2236 2.3839
-6.7457 4.0040 2.3839
-6.9076 3.7768 2.3839
-7.0603 3.5425 2.3839
-7.2035 3.3015 2.3839
-7.3369 3.0542 2.3839
-7.4601 2.8010 2.3839
-7.5727 2.5424 2.3839
-7.6746 2.2788 2.3839
-7.7653 2.0107 2.3839
-7.8448 1.7386 2.3839
-7.9127 1.4631 2.3839
-7.9689 1.1847 2.3839
-8.0132 0.9040 2.3839
-8.0456 0.6214 2.3839
-8.0658 0.3376 2.3839
-8.0740 0.0531 2.3839
-8.0700 -0.2314 2.3839
-8.0538 -0.5155 2.3839
-8.0256 -0.7985 2.3839
-7.9854 -1.0800 2.3839
-7.9332 -1.3592 2.3839
-7.8693 -1.6357 2.3839
-7.7938 -1.9089 2.3839
-7.7069 -2.1784 2.3839
-7.6089 -2.4435 2.3839
-7.4999 -2.7039 2.3839
-7.3804 -2.9589 2.3839
-7.2505 -3.2083 2.3839
-7.1107 -3.4514 2.3839
-6.9613 -3.6880 2.3839
-6.8026 -3.9175 2.3839
-6.6351 -4.1397 2.3839
-6.4591 -4.3542 2.3839
-6.2751 -4.5607 2.3839
-6.0835 -4.7590 2.3839
-5.8847 -4.9486 2.3839
-5.6792 -5.1294 2.3839
-5.4675 -5.3013 2.3839
-5.2499 -5.4639 2.3839
-5.0271 -5.6172 2.3839
-4.7993 -5.7610 2.3839
-4.5672 -5.8951 2.3839
-4.3310 -6.0196 2.3839
-4.0914 -6.1344 2.3839
-3.8487 -6.2394 2.3839
-3.6034 -6.3345 2.3839
-3.3558 -6.4199 2.3839
-3.1066 -6.4955 2.3839
-2.8560 -6.5613 2.3839
-2.6045 -6.6175 2.3839
-2.3524 -6.6641 2.3839
-2.1001 -6.7011 2.3839
-1.8481 -6.7288 2.3839
-1.5967 -6.7472 2.3839
-1.3462 -6.7564 2.3839
-1.0970 -6.7566 2.3839
-0.8493 -6.7480 2.3839
-0.6035 -6.7306 2.3839
-0.3599 -6.7048 2.3839
-0.1201 -6.2252 2.3839
0.1024 -6.1880 2.3839
0.3224 -6.1433 2.3839
0.5395 -6.0913 2.3839
0.7535 -6.0321 2.3839
0.9642 -5.9660 2.3839
1.1714 -5.8931 2.3839
1.3750 -5.8136 2.3839
1.5747 -5.7277 2.3839
1.7703 -5.6355 2.3839
1.9618 -5.5373 2.3839
2.1489 -5.4333 2.3839
2.3315 -5.3237 2.3839
2.5095 -5.2086 2.3839
2.6828 -5.0883 2.3839
2.8512 -4.9629 2.3839
3.0146 -4.8326 2.3839
3.1730 -4.6976 2.3839
3.3262 -4.5582 2.3839
3.4742 -4.4144 2.3839
3.6167 -4.2667 2.3839
3.7539 -4.1147 2.3839
3.8856 -3.9592 2.3839
4.0118 -3.8001 2.3839
4.1323 -3.6376 2.3839
4.2472 -3.4719 2.3839
4.3563 -3.3031 2.3839
4.4597 -3.1315 2.3839
4.5573 -2.9573 2.3839
4.6490 -2.7805 2.3839
4.7348 -2.6013 2.3839
4.8148 -2.4200 2.3839
4.8887 -2.2367 2.3839
4.9567 -2.0515 2.3839
5.0187 -1.8647 2.3839
5.0747 -1.6763 2.3839
5.1246 -1.4865 2.3839
5.1685 -1.2956 2.3839
5.2063 -1.1036 2.3839
5.2381 -0.9107 2.3839
5.2637 -0.7171 2.3839
5.2832 -0.5229 2.3839
5.2967 -0.3283 2.3839
5.3040 -0.1334 2.3839
5.3052 0.0616 2.3839
5.3003 0.2566 2.3839
5.2893 0.4513 2.3839
5.2722 0.6458 2.3839
5.2490 0.8396 2.3839
5.2197 1.0329 2.3839
5.1843 1.2253 2.3839
5.1428 1.4167 2.3839
5.0952 1.6070 2.3839
5.0416 1.7961 2.3839
4.9820 1.9836 2.3839
4.9164 2.1696 2.3839
4.8447 2.3537 2.3839
4.7671 2.5360 2.3839
4.6836 2.7161 2.3839
4.5942 2.8939 2.3839
4.4988 3.0693 2.3839
4.3977 3.2420 2.3839
4.2907 3.4120 2.3839
4.1780 3.5791 2.3839
4.0596 3.7430 2.3839
3.9356 3.9035 2.3839
3.8059 4.0606 2.3839
3.6708 4.2140 2.3839
3.5302 4.3636 2.3839
3.3842 4.5091 2.3839
3.2329 4.6504 2.3839
3.0764 4.7872 2.3839
2.9148 4.9195 2.3839
2.7482 5.0469 2.3839
2.5766 5.1693 2.3839
2.4002 5.2866 2.3839
2.2192 5.3985 2.3839
0.8486 2.2970 0.9947
0.7658 2.3282 0.9902
0.6819 2.3564 0.9855
0.5970 2.3815 0.9808
0.5113 2.4036 0.9761
0.4248 2.4225 0.9713
0.3377 2.4383 0.9664
0.2501 2.4510 0.9616
0.1621 2.4605 0.9567
0.0738 2.4668 0.9517
-0.0147 2.4699 0.9468
-0.1032 2.4698 0.9418
-0.1917 2.4665 0.9369
-0.2800 2.4600 0.9319
-0.3681 2.4503 0.9270
-0.4557 2.4374 0.9220
-0.5428 2.4214 0.9171
-0.6292 2.4022 0.9123
-0.7149 2.3800 0.9074
-0.7998 2.3546 0.9026
-0.8837 2.3262 0.8979
-2.5795 6.1247 2.3839
-2.8119 6.0643 2.3839
-3.0430 5.9950 2.3839
-3.2724 5.9167 2.3839
-3.4998 5.8293 2.3839
-3.7247 5.7329 2.3839
-3.9468 5.6275 2.3839
-4.1656 5.5132 2.3839
-4.3807 5.3900 2.3839
-4.5918 5.2580 2.3839
-4.7984 5.1172 2.3839
-5.0000 4.9679 2.3839
-5.1964 4.8102 2.3839
-5.3870 4.6442 2.3839
-5.5714 4.4701 2.3839
-5.7494 4.2882 2.3839
-5.9203 4.0987 2.3839
-6.0840 3.9018 2.3839
-6.2400 3.6979 2.3839
-6.3879 3.4873 2.3839
-6.5274 3.2702 2.3839
-6.6582 3.0471 2.3839
-6.7799 2.8183 2.3839
-6.8923 2.5842 2.3839
-6.9950 2.3451 2.3839
-7.0879 2.1017 2.3839
-7.1706 1.8542 2.3839
-7.2430 1.6031 2.3839
-7.3049 1.3490 2.3839
-7.3560 1.0922 2.3839
-7.3964 0.8334 2.3839
-7.4259 0.5729 2.3839
-7.4444 0.3113 2.3839
-7.4518 0.0492 2.3839
-7.4482 -0.2131 2.3839
-7.4335 -0.4749 2.3839
-7.4078 -0.7358 2.3839
-7.3712 -0.9953 2.3839
-7.3237 -1.2528 2.3839
-7.2656 -1.5078 2.3839
-7.1968 -1.7599 2.3839
-7.1176 -2.0087 2.3839
-7.0283 -2.2535 2.3839
-6.9290 -2.4941 2.3839
-6.8200 -2.7299 2.3839
-6.7015 -2.9605 2.3839
-6.5739 -3.1856 2.3839
-6.4374 -3.4047 2.3839
-6.2925 -3.6176 2.3839
-6.1393 -3.8238 2.3839
-5.9784 -4.0231 2.3839
-5.8100 -4.2151 2.3839
-5.6346 -4.3996 2.3839
-5.4525 -4.5764 2.3839
-5.2641 -4.7452 2.3839
-5.0698 -4.9058 2.3839
-4.8702 -5.0580 2.3839
-4.6654 -5.2017 2.3839
-4.4561 -5.3368 2.3839
-4.2425 -5.4631 2.3839
-4.0251 -5.5805 2.3839
-3.8043 -5.6890 2.3839
-3.5805 -5.7886 2.3839
-3.3542 -5.8791 2.3839
-3.1256 -5.9607 2.3839
-2.8953 -6.0332 2.3839
-2.6635 -6.0968 2.3839
-2.4307 -6.1514 2.3839
-2.1972 -6.1972 2.3839
-1.9633 -6.2341 2.3839
-1.7295 -6.2623 2.3839
-1.4961 -6.2819 2.3839
-1.2633 -6.2930 2.3839
-1.0315 -6.2957 2.3839
-0.8009 -6.2901 2.3839
-0.5720 -6.2764 2.3839
-0.3449 -6.2547 2.3839
-0.1200 -6.2252 2.3839
0.1026 -6.1880 2.3839
0.3225 -6.1433 2.3839
0.5396 -6.0913 2.3839
0.7536 -6.0321 2.3839
0.9643 -5.9660 2.3839
1.1716 -5.8930 2.3839
1.3751 -5.8135 2.3839
1.5748 -5.7276 2.3839
1.7704 -5.6355 2.3839
1.9619 -5.5373 2.3839
2.1490 -5.4333 2.3839
2.3316 -5.3236 2.3839
2.5096 -5.2085 2.3839
2.6829 -5.0882 2.3839
2.8513 -4.9628 2.3839
3.0147 -4.8325 2.3839
3.1731 -4.6975 2.3839
3.3263 -4.5581 2.3839
3.4742 -4.4143 2.3839
3.6168 -4.2665 2.3839
3.7540 -4.1146 2.3839
3.8857 -3.9591 2.3839
4.0119 -3.8000 2.3839
4.1324 -3.6375 2.3839
4.2473 -3.4718 2.3839
4.3564 -3.3030 2.3839
4.4598 -3.1314 2.3839
4.5573 -2.9572 2.3839
4.6491 -2.7804 2.3839
4.7349 -2.6012 2.3839
4.8148 -2.4199 2.3839
4.8888 -2.2366 2.3839
4.9568 -2.0514 2.3839
5.0188 -1.8645 2.3839
5.0747 -1.6761 2.3839
5.1247 -1.4864 2.3839
5.1685 -1.2954 2.3839
5.2064 -1.1034 2.3839
5.2381 -0.9106 2.3839
5.2637 -0.7169 2.3839
5.2833 -0.5227 2.3839
5.2967 -0.3281 2.3839
5.3040 -0.1332 2.3839
5.3052 0.0618 2.3839
5.3003 0.2567 2.3839
5.2893 0.4515 2.3839
5.2722 0.6459 2.3839
5.2490 0.8398 2.3839
5.2197 1.0330 2.3839
5.1842 1.2254 2.3839
5.1428 1.4169 2.3839
5.0952 1.6071 2.3839
5.0416 1.7962 2.3839
4.9820 1.9837 2.3839
4.9163 2.1697 2.3839
4.8447 2.3538 2.3839
4.7671 2.5360 2.3839
4.6835 2.7162 2.3839
4.5941 2.8939 2.3839
4.4988 3.0694 2.3839
4.3976 3.2422 2.3839
4.2906 3.4121 2.3839
4.1779 3.5792 2.3839
4.0595 3.7431 2.3839
3.9355 3.9036 2.3839
3.8059 4.0607 2.3839
3.6707 4.2141 2.3839
3.5301 4.3637 2.3839
3.3841 4.5092 2.3839
3.2328 4.6504 2.3839
3.0763 4.7873 2.3839
2.9147 4.9195 2.3839
2.7481 5.0470 2.3839
2.5765 5.1694 2.3839
2.4001 5.2867 2.3839
2.2191 5.3985 2.3839
0.8485 2.2970 0.9947
0.7657 2.3282 0.9902
0.6818 2.3564 0.9855
0.5970 2.3815 0.9808
0.5112 2.4036 0.9761
0.4248 2.4225 0.9713
0.3377 2.4384 0.9664
0.2501 2.4510 0.9616
0.1620 2.4605 0.9567
0.0737 2.4668 0.9517
-0.0148 2.4699 0.9468
-0.1033 2.4698 0.9418
-0.1918 2.4665 0.9369
-0.2801 2.4600 0.9319
-0.3681 2.4503 0.9270
-0.4557 2.4374 0.9220
-0.5428 2.4214 0.9171
-0.6293 2.4022 0.9123
-0.7150 2.3799 0.9074
-0.7998 2.3546 0.9026
-0.8837 2.3262 0.8979
-2.5796 6.1247 2.3839
-2.8120 6.0643 2.3839
-3.0431 5.9950 2.3839
-3.2726 5.9166 2.3839
-3.4999 5.8292 2.3839
-3.7248 5.7329 2.3839
-3.9469 5.6275 2.3839
-4.1657 5.5131 2.3839
-4.3809 5.3899 2.3839
-4.5919 5.2579 2.3839
-4.7985 5.1171 2.3839
-5.0002 4.9678 2.3839
-5.1965 4.8101 2.3839
-5.3871 4.6441 2.3839
-5.5716 4.4700 2.3839
-5.7495 4.2881 2.3839
-5.9205 4.0986 2.3839
-6.0841 3.9017 2.3839
-6.2401 3.6978 2.3839
-6.3880 3.4871 2.3839
-6.5275 3.2701 2.3839
-6.6583 3.0469 2.3839
-6.7800 2.8181 2.3839
-6.8924 2.5840 2.3839
-6.9951 2.3450 2.3839
-7.0879 2.1015 2.3839
-7.1707 1.8540 2.3839
-7.2430 1.6030 2.3839
-7.3049 1.3488 2.3839
-7.3561 1.0921 2.3839
-7.3964 0.8332 2.3839
-7.4259 0.5727 2.3839
-7.4444 0.3112 2.3839
-7.4518 0.0490 2.3839
-7.4482 -0.2133 2.3839
-7.4335 -0.4751 2.3839
-7.4078 -0.7360 2.3839
-7.3712 -0.9954 2.3839
-7.3237 -1.2529 2.3839
-7.2655 -1.5080 2.3839
-7.1967 -1.7601 2.3839
-7.1176 -2.0088 2.3839
-7.0282 -2.2537 2.3839
-6.9289 -2.4942 2.3839
-6.8199 -2.7300 2.3839
-6.7014 -2.9606 2.3839
-6.5738 -3.1857 2.3839
-6.4373 -3.4049 2.3839
-6.2924 -3.6177 2.3839
-6.1392 -3.8239 2.3839
-5.9783 -4.0232 2.3839
-5.8099 -4.2152 2.3839
-5.6345 -4.3997 2.3839
-5.4524 -4.5765 2.3839
-5.2640 -4.7453 2.3839
-5.0697 -4.9059 2.3839
-4.8700 -5.0581 2.3839
-4.6653 -5.2018 2.3839
-4.4559 -5.3368 2.3839
-4.2423 -5.4631 2.3839
-4.0249 -5.5806 2.3839
-3.8042 -5.6891 2.3839
-3.5804 -5.7886 2.3839
-3.3540 -5.8792 2.3839
-3.1255 -5.9607 2.3839
-2.8951 -6.0333 2.3839
-2.6633 -6.0968 2.3839
-2.4305 -6.1515 2.3839
-2.1970 -6.1972 2.3839
-1.9632 -6.2341 2.3839
-1.7294 -6.2624 2.3839
-1.4959 -6.2820 2.3839
-1.2631 -6.2930 2.3839
-1.0313 -6.2957 2.3839
-0.8008 -6.2901 2.3839
-0.5719 -6.2764 2.3839
-0.3448 -6.2547 2.3839
-0.1210 -5.8291 2.3839
0.0874 -5.7962 2.3839
0.2936 -5.7563 2.3839
0.4972 -5.7094 2.3839
0.6981 -5.6558 2.3839
0.8960 -5.5956 2.3839
1.0907 -5.5289 2.3839
1.2821 -5.4559 2.3839
1.4700 -5.3769 2.3839
1.6542 -5.2920 2.3839
1.8346 -5.2013 2.3839
2.0109 -5.1050 2.3839
2.1832 -5.0034 2.3839
2.3511 -4.8965 2.3839
2.5147 -4.7847 2.3839
2.6738 -4.6679 2.3839
2.8282 -4.5465 2.3839
2.9780 -4.4206 2.3839
3.1229 -4.2903 2.3839
3.2629 -4.1559 2.3839
3.3979 -4.0176 2.3839
3.5278 -3.8754 2.3839
3.6526 -3.7297 2.3839
3.7722 -3.5804 2.3839
3.8865 -3.4280 2.3839
3.9955 -3.2724 2.3839
4.0990 -3.1139 2.3839
4.1972 -2.9525 2.3839
4.2898 -2.7886 2.3839
4.3769 -2.6223 2.3839
4.4585 -2.4537 2.3839
4.5344 -2.2829 2.3839
4.6047 -2.1102 2.3839
4.6694 -1.9357 2.3839
4.7283 -1.7595 2.3839
4.7815 -1.5819 2.3839
4.8290 -1.4029 2.3839
4.8708 -1.2228 2.3839
4.9068 -1.0416 2.3839
4.9370 -0.8596 2.3839
4.9613 -0.6769 2.3839
4.9799 -0.4936 2.3839
4.9927 -0.3098 2.3839
4.9997 -0.1259 2.3839
5.0009 0.0582 2.3839
4.9962 0.2423 2.3839
4.9857 0.4261 2.3839
4.9694 0.6096 2.3839
4.9473 0.7926 2.3839
4.9194 0.9750 2.3839
4.8857 1.1565 2.3839
4.8462 1.3371 2.3839
4.8010 1.5167 2.3839
4.7500 1.6949 2.3839
4.6933 1.8717 2.3839
4.6309 2.0470 2.3839
4.5628 2.2205 2.3839
4.4890 2.3920 2.3839
4.4096 2.5616 2.3839
4.3247 2.7290 2.3839
4.2342 2.8940 2.3839
4.1381 3.0564 2.3839
4.0366 3.2161 2.3839
3.9297 3.3730 2.3839
3.8174 3.5268 2.3839
3.6998 3.6774 2.3839
3.5770 3.8247 2.3839
3.4489 3.9684 2.3839
3.3158 4.1083 2.3839
3.1776 4.2444 2.3839
3.0345 4.3763 2.3839
2.8865 4.5041 2.3839
2.7337 4.6273 2.3839
2.5763 4.7460 2.3839
2.4143 4.8599 2.3839
2.2479 4.9688 2.3839
0.8673 2.1181 0.9954
0.7909 2.1501 0.9912
0.7134 2.1793 0.9869
0.6349 2.2056 0.9826
0.5554 2.2292 0.9782
0.4752 2.2498 0.9738
0.3943 2.2675 0.9693
0.3127 2.2823 0.9647
0.2307 2.2942 0.9602
0.1483 2.3030 0.9556
0.0657 2.3089 0.9510
-0.0172 2.3118 0.9463
-0.1000 2.3117 0.9417
-0.1828 2.3086 0.9371
-0.2655 2.3025 0.9324
-0.3479 2.2935 0.9278
-0.4299 2.2814 0.9232
-0.5114 2.2664 0.9186
-0.5923 2.2485 0.9140
-0.6726 2.2276 0.9095
-0.7520 2.2039 0.9050
-0.8305 2.1773 0.9006
-0.9080 2.1479 0.8962
-2.6313 5.6554 2.3839
-2.8459 5.5888 2.3839
-3.0588 5.5139 2.3839
-3.2696 5.4306 2.3839
-3.4780 5.3390 2.3839
-3.6836 5.2392 2.3839
-3.8861 5.1311 2.3839
-4.0851 5.0148 2.3839
-4.2802 4.8904 2.3839
-4.4710 4.7580 2.3839
-4.6571 4.6178 2.3839
-4.8382 4.4699 2.3839
-5.0140 4.3144 2.3839
-5.1840 4.1516 2.3839
-5.3478 3.9816 2.3839
-5.5052 3.8047 2.3839
-5.6558 3.6210 2.3839
-5.7993 3.4310 2.3839
-5.9352 3.2349 2.3839
-6.0634 3.0329 2.3839
-6.1835 2.8254 2.3839
-6.2953 2.6128 2.3839
-6.3984 2.3953 2.3839
-6.4927 2.1735 2.3839
-6.5778 1.9475 2.3839
-6.6537 1.7180 2.3839
-6.7201 1.4852 2.3839
-6.7768 1.2497 2.3839
-6.8237 1.0118 2.3839
-6.8607 0.7719 2.3839
-6.8877 0.5307 2.3839
-6.9047 0.2884 2.3839
-6.9115 0.0456 2.3839
-6.9082 -0.1973 2.3839
-6.8947 -0.4398 2.3839
-6.8712 -0.6815 2.3839
-6.8377 -0.9219 2.3839
-6.7942 -1.1605 2.3839
-6.7409 -1.3968 2.3839
-6.6778 -1.6306 2.3839
-6.6053 -1.8613 2.3839
-6.5233 -2.0884 2.3839
-6.4322 -2.3117 2.3839
-6.3322 -2.5307 2.3839
-6.2235 -2.7450 2.3839
-6.1063 -2.9542 2.3839
-5.9809 -3.1581 2.3839
-5.8477 -3.3563 2.3839
-5.7069 -3.5484 2.3839
-5.5588 -3.7342 2.3839
-5.4039 -3.9134 2.3839
-5.2423 -4.0858 2.3839
-5.0746 -4.2511 2.3839
-4.9009 -4.4092 2.3839
-4.7218 -4.5597 2.3839
-4.5375 -4.7026 2.3839
-4.3484 -4.8377 2.3839
-4.1549 -4.9649 2.3839
-3.9575 -5.0840 2.3839
-3.7563 -5.1950 2.3839
-3.5519 -5.2978 2.3839
-3.3446 -5.3923 2.3839
-3.1348 -5.4785 2.3839
-2.9227 -5.5564 2.3839
-2.7089 -5.6259 2.3839
-2.4936 -5.6872 2.3839
-2.2772 -5.7401 2.3839
-2.0599 -5.7849 2.3839
-1.8423 -5.8214 2.3839
-1.6244 -5.8498 2.3839
-1.4068 -5.8701 2.3839
-1.1896 -5.8826 2.3839
-0.9732 -5.8871 2.3839
-0.7579 -5.8839 2.3839
-0.5439 -5.8731 2.3839
-0.3315 -5.8548 2.3839
-0.1209 -5.8291 2.3839
0.0876 -5.7962 2.3839
0.2937 -5.7563 2.3839
0.4974 -5.7094 2.3839
0.6982 -5.6557 2.3839
0.8961 -5.5955 2.3839
1.0909 -5.5288 2.3839
1.2823 -5.4559 2.3839
1.4701 -5.3769 2.3839
1.6543 -5.2919 2.3839
1.8347 -5.2012 2.3839
2.0110 -5.1050 2.3839
2.1833 -5.0033 2.3839
2.3512 -4.8965 2.3839
2.5148 -4.7846 2.3839
2.6738 -4.6679 2.3839
2.8283 -4.5464 2.3839
2.9780 -4.4205 2.3839
3.1230 -4.2902 2.3839
3.2630 -4.1558 2.3839
3.3980 -4.0175 2.3839
3.5279 -3.8753 2.3839
3.6527 -3.7296 2.3839
3.7723 -3.5804 2.3839
3.8866 -3.4279 2.3839
3.9955 -3.2723 2.3839
4.0991 -3.1138 2.3839
4.1972 -2.9525 2.3839
4.2899 -2.7886 2.3839
4.3770 -2.6222 2.3839
4.4585 -2.4535 2.3839
4.5345 -2.2828 2.3839
4.6048 -2.1101 2.3839
4.6694 -1.9356 2.3839
4.7283 -1.7594 2.3839
4.7816 -1.5818 2.3839
4.8291 -1.4028 2.3839
4.8708 -1.2227 2.3839
4.9068 -1.0415 2.3839
4.9370 -0.8595 2.3839
4.9614 -0.6767 2.3839
4.9800 -0.4934 2.3839
4.9927 -0.3097 2.3839
4.9997 -0.1258 2.3839
5.0009 0.0584 2.3839
4.9962 0.2424 2.3839
4.9857 0.4262 2.3839
4.9694 0.6097 2.3839
4.9473 0.7928 2.3839
4.9194 0.9751 2.3839
4.8857 1.1567 2.3839
4.8462 1.3373 2.3839
4.8010 1.5168 2.3839
4.7500 1.6950 2.3839
4.6933 1.8719 2.3839
4.6309 2.0471 2.3839
4.5627 2.2206 2.3839
4.4890 2.3922 2.3839
4.4096 2.5617 2.3839
4.3246 2.7291 2.3839
4.2341 2.8941 2.3839
4.1381 3.0565 2.3839
4.0366 3.2162 2.3839
3.9296 3.3731 2.3839
3.8173 3.5269 2.3839
3.6997 3.6775 2.3839
3.5769 3.8248 2.3839
3.4489 3.9685 2.3839
3.3157 4.1084 2.3839
3.1775 4.2445 2.3839
3.0344 4.3764 2.3839
2.8864 4.5041 2.3839
2.7336 4.6274 2.3839
2.5762 4.7461 2.3839
2.4142 4.8600 2.3839
2.2478 4.9689 2.3839
0.8673 2.1181 0.9954
0.7909 2.1501 0.9912
0.7133 2.1793 0.9869
0.6348 2.2057 0.9826
0.5554 2.2292 0.9782
0.4751 2.2498 0.9738
0.3942 2.2675 0.9693
0.3127 2.2823 0.9647
0.2307 2.2942 0.9602
0.1483 2.3030 0.9556
0.0656 2.3089 0.9510
-0.0172 2.3118 0.9463
-0.1001 2.3117 0.9417
-0.1829 2.3086 0.9371
-0.2656 2.3025 0.9324
-0.3479 2.2934 0.9278
-0.4299 2.2814 0.9232
-0.5115 2.2664 0.9186
-0.5924 2.2485 0.9140
-0.6726 2.2276 0.9095
-0.7520 2.2039 0.9050
-0.8305 2.1773 0.9006
-0.9080 2.1479 0.8962
-2.6314 5.6553 2.3839
-2.8460 5.5887 2.3839
-3.0589 5.5138 2.3839
-3.2697 5.4305 2.3839
-3.4781 5.3390 2.3839
-3.6838 5.2391 2.3839
-3.8863 5.1310 2.3839
-4.0852 5.0147 2.3839
-4.2803 4.8903 2.3839
-4.4711 4.7579 2.3839
-4.6572 4.6177 2.3839
-4.8383 4.4698 2.3839
-5.0141 4.3143 2.3839
-5.1841 4.1515 2.3839
-5.3479 3.9815 2.3839
-5.5053 3.8045 2.3839
-5.6559 3.6209 2.3839
-5.7993 3.4309 2.3839
-5.9353 3.2347 2.3839
-6.0635 3.0328 2.3839
-6.1836 2.8253 2.3839
-6.2954 2.6126 2.3839
-6.3985 2.3952 2.3839
-6.4927 2.1733 2.3839
-6.5779 1.9474 2.3839
-6.6538 1.7179 2.3839
-6.7201 1.4851 2.3839
-6.7768 1.2495 2.3839
-6.8237 1.0116 2.3839
-6.8607 0.7718 2.3839
-6.8877 0.5305 2.3839
-6.9047 0.2882 2.3839
-6.9115 0.0454 2.3839
-6.9082 -0.1975 2.3839
-6.8947 -0.4400 2.3839
-6.8712 -0.6817 2.3839
-6.8376 -0.9220 2.3839
-6.7941 -1.1606 2.3839
-6.7408 -1.3970 2.3839
-6.6778 -1.6307 2.3839
-6.6052 -1.8614 2.3839
-6.5233 -2.0886 2.3839
-6.4322 -2.3118 2.3839
-6.3321 -2.5308 2.3839
-6.2234 -2.7451 2.3839
-6.1062 -2.9543 2.3839
-5.9808 -3.1582 2.3839
-5.8476 -3.3564 2.3839
-5.7068 -3.5485 2.3839
-5.5587 -3.7343 2.3839
-5.4038 -3.9136 2.3839
-5.2422 -4.0859 2.3839
-5.0744 -4.2512 2.3839
-4.9008 -4.4093 2.3839
-4.7216 -4.5598 2.3839
-4.5373 -4.7027 2.3839
-4.3483 -4.8378 2.3839
-4.1548 -4.9649 2.3839
-3.9573 -5.0841 2.3839
-3.7562 -5.1951 2.3839
-3.5518 -5.2978 2.3839
-3.3445 -5.3923 2.3839
-3.1346 -5.4785 2.3839
-2.9226 -5.5564 2.3839
-2.7088 -5.6260 2.3839
-2.4934 -5.6872 2.3839
-2.2770 -5.7402 2.3839
-2.0598 -5.7849 2.3839
-1.8421 -5.8214 2.3839
-1.6243 -5.8498 2.3839
-1.4067 -5.8702 2.3839
-1.1895 -5.8825 2.3839
-0.9731 -5.8871 2.3839
-0.7578 -5.8839 2.3839
-0.5438 -5.8731 2.3839
-0.3313 -5.8548 2.3839
-0.1219 -5.4744 2.3839
0.0740 -5.4451 2.3839
0.2678 -5.4092 2.3839
0.4593 -5.3667 2.3839
0.6483 -5.3178 2.3839
0.8347 -5.2627 2.3839
1.0182 -5.2014 2.3839
1.1986 -5.1342 2.3839
1.3758 -5.0612 2.3839
1.5496 -4.9826 2.3839
1.7199 -4.8985 2.3839
1.8865 -4.8090 2.3839
2.0493 -4.7145 2.3839
2.2082 -4.6149 2.3839
2.3629 -4.5105 2.3839
2.5135 -4.4014 2.3839
2.6597 -4.2879 2.3839
2.8016 -4.1701 2.3839
2.9390 -4.0479 2.3839
3.0717 -3.9220 2.3839
3.1997 -3.7922 2.3839
3.3231 -3.6586 2.3839
3.4415 -3.5217 2.3839
3.5550 -3.3815 2.3839
3.6636 -3.2379 2.3839
3.7671 -3.0915 2.3839
3.8656 -2.9421 2.3839
3.9589 -2.7901 2.3839
4.0470 -2.6356 2.3839
4.1299 -2.4787 2.3839
4.2074 -2.3195 2.3839
4.2797 -2.1583 2.3839
4.3466 -1.9953 2.3839
4.4082 -1.8304 2.3839
4.4643 -1.6640 2.3839
4.5150 -1.4961 2.3839
4.5603 -1.3269 2.3839
4.6000 -1.1566 2.3839
4.6343 -0.9853 2.3839
4.6631 -0.8132 2.3839
4.6863 -0.6403 2.3839
4.7040 -0.4669 2.3839
4.7162 -0.2931 2.3839
4.7228 -0.1190 2.3839
4.7239 0.0551 2.3839
4.7195 0.2292 2.3839
4.7095 0.4031 2.3839
4.6940 0.5767 2.3839
4.6729 0.7500 2.3839
4.6463 0.9223 2.3839
4.6142 1.0940 2.3839
4.5766 1.2648 2.3839
4.5335 1.4346 2.3839
4.4849 1.6029 2.3839
4.4309 1.7700 2.3839
4.3715 1.9356 2.3839
4.3066 2.0994 2.3839
4.2364 2.2614 2.3839
4.1609 2.4214 2.3839
4.0800 2.5793 2.3839
3.9940 2.7349 2.3839
3.9026 2.8880 2.3839
3.8062 3.0385 2.3839
3.7045 3.1862 2.3839
3.5979 3.3309 2.3839
3.4862 3.4726 2.3839
3.3696 3.6110 2.3839
3.2480 3.7459 2.3839
3.1217 3.8773 2.3839
2.9907 4.0049 2.3839
2.8550 4.1286 2.3839
2.7148 4.2481 2.3839
2.5701 4.3634 2.3839
2.4211 4.4743 2.3839
2.2678 4.5806 2.3839
2.1104 4.6821 2.3839
0.8110 1.9886 0.9920
0.7393 2.0186 0.9881
0.6665 2.0460 0.9841
0.5928 2.0707 0.9800
0.5182 2.0928 0.9758
0.4429 2.1122 0.9717
0.3669 2.1288 0.9675
0.2904 2.1427 0.9632
0.2134 2.1538 0.9589
0.1360 2.1621 0.9546
0.0584 2.1676 0.9503
-0.0193 2.1703 0.9459
-0.0972 2.1702 0.9416
-0.1749 2.1673 0.9372
-0.2525 2.1616 0.9329
-0.3298 2.1531 0.9285
-0.4068 2.1418 0.9242
-0.4834 2.1277 0.9199
-0.5593 2.1108 0.9156
-0.6346 2.0913 0.9113
-0.7092 2.0690 0.9071
-0.7829 2.0440 0.9030
-0.8557 2.0164 0.8988
-0.9274 1.9862 0.8948
-2.6708 5.2280 2.3839
-2.8691 5.1563 2.3839
-3.0654 5.0769 2.3839
-3.2593 4.9898 2.3839
-3.4505 4.8950 2.3839
-3.6387 4.7927 2.3839
-3.8235 4.6827 2.3839
-4.0046 4.5653 2.3839
-4.1816 4.4405 2.3839
-4.3542 4.3085 2.3839
-4.5220 4.1694 2.3839
-4.6848 4.0234 2.3839
-4.8422 3.8706 2.3839
-4.9938 3.7113 2.3839
-5.1394 3.5456 2.3839
-5.2787 3.3737 2.3839
-5.4112 3.1960 2.3839
-5.5369 3.0127 2.3839
-5.6552 2.8241 2.3839
-5.7661 2.6305 2.3839
-5.8693 2.4321 2.3839
-5.9644 2.2294 2.3839
-6.0514 2.0226 2.3839
-6.1299 1.8122 2.3839
-6.1998 1.5984 2.3839
-6.2610 1.3817 2.3839
-6.3133 1.1625 2.3839
-6.3565 0.9411 2.3839
-6.3906 0.7180 2.3839
-6.4155 0.4936 2.3839
-6.4311 0.2682 2.3839
-6.4374 0.0424 2.3839
-6.4344 -0.1835 2.3839
-6.4220 -0.4091 2.3839
-6.4003 -0.6338 2.3839
-6.3694 -0.8574 2.3839
-6.3294 -1.0794 2.3839
-6.2802 -1.2994 2.3839
-6.2222 -1.5170 2.3839
-6.1553 -1.7318 2.3839
-6.0797 -1.9434 2.3839
-5.9957 -2.1514 2.3839
-5.9035 -2.3556 2.3839
-5.8031 -2.5554 2.3839
-5.6950 -2.7507 2.3839
-5.5792 -2.9411 2.3839
-5.4562 -3.1262 2.3839
-5.3261 -3.3059 2.3839
-5.1892 -3.4797 2.3839
-5.0459 -3.6475 2.3839
-4.8964 -3.8091 2.3839
-4.7411 -3.9642 2.3839
-4.5803 -4.1125 2.3839
-4.4143 -4.2540 2.3839
-4.2434 -4.3885 2.3839
-4.0680 -4.5158 2.3839
-3.8885 -4.6358 2.3839
-3.7051 -4.7484 2.3839
-3.5182 -4.8534 2.3839
-3.3282 -4.9509 2.3839
-3.1353 -5.0407 2.3839
-2.9400 -5.1229 2.3839
-2.7426 -5.1973 2.3839
-2.5433 -5.2640 2.3839
-2.3425 -5.3229 2.3839
-2.1405 -5.3741 2.3839
-1.9377 -5.4177 2.3839
-1.7344 -5.4536 2.3839
-1.5308 -5.4819 2.3839
-1.3272 -5.5027 2.3839
-1.1239 -5.5161 2.3839
-0.9212 -5.5220 2.3839
-0.7194 -5.5207 2.3839
-0.5187 -5.5123 2.3839
-0.3194 -5.4968 2.3839
-0.1217 -5.4743 2.3839
0.0741 -5.4451 2.3839
0.2679 -5.4091 2.3839
0.4594 -5.3667 2.3839
0.6485 -5.3178 2.3839
0.8348 -5.2626 2.3839
1.0183 -5.2014 2.3839
1.1987 -5.1342 2.3839
1.3759 -5.0612 2.3839
1.5497 -4.9825 2.3839
1.7200 -4.8984 2.3839
1.8866 -4.8090 2.3839
2.0494 -4.7144 2.3839
2.2083 -4.6148 2.3839
2.3630 -4.5104 2.3839
2.5136 -4.4014 2.3839
2.6598 -4.2878 2.3839
2.8017 -4.1701 2.3839
2.9390 -4.0479 2.3839
3.0718 -3.9219 2.3839
3.1998 -3.7921 2.3839
3.3231 -3.6586 2.3839
3.4416 -3.5216 2.3839
3.5551 -3.3815 2.3839
3.6637 -3.2378 2.3839
3.7672 -3.0914 2.3839
3.8656 -2.9420 2.3839
3.9589 -2.7900 2.3839
4.0470 -2.6355 2.3839
4.1299 -2.4786 2.3839
4.2075 -2.3195 2.3839
4.2798 -2.1582 2.3839
4.3467 -1.9952 2.3839
4.4082 -1.8303 2.3839
4.4643 -1.6639 2.3839
4.5150 -1.4960 2.3839
4.5603 -1.3268 2.3839
4.6000 -1.1565 2.3839
4.6343 -0.9852 2.3839
4.6631 -0.8130 2.3839
4.6863 -0.6402 2.3839
4.7040 -0.4668 2.3839
4.7162 -0.2930 2.3839
4.7228 -0.1190 2.3839
4.7239 0.0552 2.3839
4.7195 0.2293 2.3839
4.7095 0.4033 2.3839
4.6939 0.5769 2.3839
4.6729 0.7501 2.3839
4.6463 0.9225 2.3839
4.6142 1.0941 2.3839
4.5765 1.2649 2.3839
4.5334 1.4346 2.3839
4.4849 1.6031 2.3839
4.4308 1.7700 2.3839
4.3714 1.9356 2.3839
4.3066 2.0995 2.3839
4.2364 2.2615 2.3839
4.1608 2.4215 2.3839
4.0800 2.5794 2.3839
3.9939 2.7350 2.3839
3.9026 2.8881 2.3839
3.8061 3.0386 2.3839
3.7045 3.1863 2.3839
3.5978 3.3310 2.3839
3.4861 3.4727 2.3839
3.3695 3.6110 2.3839
3.2480 3.7460 2.3839
3.1217 3.8774 2.3839
2.9906 4.0050 2.3839
2.8550 4.1286 2.3839
2.7147 4.2482 2.3839
2.5700 4.3635 2.3839
2.4210 4.4744 2.3839
2.2677 4.5807 2.3839
2.1103 4.6822 2.3839
0.8110 1.9886 0.9920
0.7393 2.0186 0.9881
0.6665 2.0460 0.9840
0.5927 2.0707 0.9800
0.5182 2.0928 0.9758
0.4428 2.1122 0.9717
0.3668 2.1288 0.9675
0.2903 2.1427 0.9632
0.2133 2.1538 0.9589
0.1360 2.1621 0.9546
0.0584 2.1676 0.9503
-0.0194 2.1703 0.9459
-0.0972 2.1702 0.9416
-0.1750 2.1673 0.9372
-0.2525 2.1616 0.9329
-0.3299 2.1531 0.9285
-0.4069 2.1418 0.9242
-0.4834 2.1277 0.9199
-0.5594 2.1108 0.9156
-0.6347 2.0913 0.9113
-0.7092 2.0690 0.9071
-0.7829 2.0440 0.9029
-0.8557 2.0164 0.8988
-0.9274 1.9862 0.8948
-2.6709 5.2279 2.3839
-2.8692 5.1563 2.3839
-3.0655 5.0769 2.3839
-3.2594 4.9898 2.3839
-3.4506 4.8950 2.3839
-3.6388 4.7926 2.3839
-3.8236 4.6826 2.3839
-4.0047 4.5652 2.3839
-4.1817 4.4404 2.3839
-4.3543 4.3084 2.3839
-4.5221 4.1693 2.3839
-4.6849 4.0233 2.3839
-4.8423 3.8705 2.3839
-4.9939 3.7112 2.3839
-5.1395 3.5454 2.3839
-5.2788 3.3736 2.3839
-5.4113 3.1959 2.3839
-5.5369 3.0126 2.3839
-5.6553 2.8240 2.3839
-5.7662 2.6304 2.3839
-5.8693 2.4320 2.3839
-5.9645 2.2293 2.3839
-6.0514 2.0225 2.3839
-6.1299 1.8120 2.3839
-6.1999 1.5983 2.3839
-6.2610 1.3816 2.3839
-6.3133 1.1624 2.3839
-6.3565 0.9410 2.3839
-6.3906 0.7179 2.3839
-6.4155 0.4934 2.3839
-6.4311 0.2681 2.3839
-6.4374 0.0423 2.3839
-6.4344 -0.1836 2.3839
-6.4220 -0.4092 2.3839
-6.4003 -0.6340 2.3839
-6.3694 -0.8576 2.3839
-6.3293 -1.0796 2.3839
-6.2802 -1.2996 2.3839
-6.2221 -1.5171 2.3839
-6.1552 -1.7319 2.3839
-6.0797 -1.9435 2.3839
-5.9957 -2.1516 2.3839
-5.9034 -2.3557 2.3839
-5.8031 -2.5556 2.3839
-5.6949 -2.7508 2.3839
-5.5791 -2.9412 2.3839
-5.4561 -3.1263 2.3839
-5.3260 -3.3060 2.3839
-5.1891 -3.4798 2.3839
-5.0458 -3.6476 2.3839
-4.8963 -3.8092 2.3839
-4.7410 -3.9643 2.3839
-4.5802 -4.1126 2.3839
-4.4142 -4.2541 2.3839
-4.2433 -4.3886 2.3839
-4.0679 -4.5159 2.3839
-3.8884 -4.6359 2.3839
-3.7050 -4.7485 2.3839
-3.5181 -4.8535 2.3839
-3.3281 -4.9510 2.3839
-3.1352 -5.0408 2.3839
-2.9399 -5.1229 2.3839
-2.7424 -5.1973 2.3839
-2.5431 -5.2640 2.3839
-2.3424 -5.3229 2.3839
-2.1404 -5.3742 2.3839
-1.9376 -5.4177 2.3839
-1.7342 -5.4536 2.3839
-1.5306 -5.4819 2.3839
-1.3270 -5.5027 2.3839
-1.1238 -5.5161 2.3839
-0.9211 -5.5220 2.3839
-0.7193 -5.5207 2.3839
-0.5186 -5.5123 2.3839
-0.3193 -5.4968 2.3839
-0.1226 -5.1544 2.3839
0.0619 -5.1283 2.3839
0.2445 -5.0958 2.3839
0.4251 -5.0571 2.3839
0.6034 -5.0123 2.3839
0.7793 -4.9617 2.3839
0.9525 -4.9052 2.3839
1.1230 -4.8430 2.3839
1.2905 -4.7753 2.3839
1.4549 -4.7022 2.3839
1.6160 -4.6239 2.3839
1.7737 -4.5406 2.3839
1.9279 -4.4523 2.3839
2.0784 -4.3592 2.3839
2.2251 -4.2615 2.3839
2.3678 -4.1593 2.3839
2.5066 -4.0528 2.3839
2.6412 -3.9422 2.3839
2.7716 -3.8276 2.3839
2.8977 -3.7091 2.3839
3.0193 -3.5870 2.3839
3.1365 -3.4613 2.3839
3.2491 -3.3323 2.3839
3.3571 -3.2000 2.3839
3.4604 -3.0647 2.3839
3.5589 -2.9264 2.3839
3.6526 -2.7854 2.3839
3.7415 -2.6419 2.3839
3.8254 -2.4958 2.3839
3.9043 -2.3475 2.3839
3.9782 -2.1970 2.3839
4.0471 -2.0444 2.3839
4.1109 -1.8902 2.3839
4.1696 -1.7342 2.3839
4.2231 -1.5767 2.3839
4.2714 -1.4177 2.3839
4.3146 -1.2575 2.3839
4.3525 -1.0961 2.3839
4.3852 -0.9338 2.3839
4.4126 -0.7707 2.3839
4.4348 -0.6069 2.3839
4.4517 -0.4425 2.3839
4.4633 -0.2778 2.3839
4.4697 -0.1127 2.3839
4.4707 0.0522 2.3839
4.4664 0.2173 2.3839
4.4569 0.3822 2.3839
4.4421 0.5467 2.3839
4.4220 0.7108 2.3839
4.3966 0.8741 2.3839
4.3660 1.0370 2.3839
4.3301 1.1987 2.3839
4.2890 1.3593 2.3839
