ply
format ascii 1.0
element vertex 2179
property float32 x
property float32 y
property float32 z
end_header
-4.5264 2.4228 2.3918
-4.6047 2.2515 2.3918
-4.6773 2.0780 2.3918
-4.7443 1.9026 2.3918
-4.8055 1.7252 2.3918
-4.8609 1.5462 2.3918
-4.9106 1.3656 2.3918
-4.9544 1.1837 2.3918
-4.9923 1.0005 2.3918
-5.0244 0.8163 2.3918
-5.0505 0.6312 2.3918
-5.0707 0.4453 2.3918
-5.0850 0.2588 2.3918
-5.0932 0.0720 2.3918
-5.0955 -0.1152 2.3918
-5.0918 -0.3024 2.3918
-5.0821 -0.4896 2.3918
-5.0664 -0.6765 2.3918
-5.0447 -0.8630 2.3918
-5.0170 -1.0490 2.3918
-4.9832 -1.2343 2.3918
-4.9435 -1.4186 2.3918
-4.8977 -1.6020 2.3918
-4.8460 -1.7840 2.3918
-4.7883 -1.9647 2.3918
-4.7247 -2.1438 2.3918
-4.6551 -2.3212 2.3918
-4.5797 -2.4967 2.3918
-4.4984 -2.6700 2.3918
-4.4112 -2.8411 2.3918
-4.3182 -3.0097 2.3918
-4.2195 -3.1757 2.3918
-4.1151 -3.3389 2.3918
-4.0051 -3.4990 2.3918
-3.8894 -3.6560 2.3918
-3.7682 -3.8096 2.3918
-3.6416 -3.9597 2.3918
-3.5095 -4.1060 2.3918
-3.3722 -4.2484 2.3918
-3.2297 -4.3866 2.3918
-3.0820 -4.5205 2.3918
-2.9293 -4.6499 2.3918
-2.7717 -4.7746 2.3918
-2.6093 -4.8944 2.3918
-2.4423 -5.0091 2.3918
-2.2707 -5.1185 2.3918
-2.0947 -5.2225 2.3918
-1.9145 -5.3208 2.3918
-1.7302 -5.4132 2.3918
-1.5419 -5.4997 2.3918
-1.3500 -5.5799 2.3918
-1.1545 -5.6537 2.3918
-0.9556 -5.7210 2.3918
-0.7536 -5.7815 2.3918
-0.5486 -5.8351 2.3918
-0.3409 -5.8816 2.3918
-0.1308 -5.9209 2.3918
0.0816 -5.9528 2.3918
0.2959 -5.9773 2.3918
0.5119 -5.9940 2.3918
0.7294 -6.0030 2.3918
0.9480 -6.0040 2.3918
1.1675 -5.9971 2.3918
1.3875 -5.9820 2.3918
1.6077 -5.9588 2.3918
1.8279 -5.9274 2.3918
2.0476 -5.8875 2.3918
2.2666 -5.8392 2.3918
2.4845 -5.7826 2.3918
2.7009 -5.7178 2.3918
2.9156 -5.6436 2.3918
3.1280 -5.5622 2.3918
3.3379 -5.4719 2.3918
3.5450 -5.3732 2.3918
3.7488 -5.2663 2.3918
3.9489 -5.1512 2.3918
4.1450 -5.0280 2.3918
4.3368 -4.8969 2.3918
4.5238 -4.7579 2.3918
4.7058 -4.6108 2.3918
4.8822 -4.4571 2.3918
5.0528 -4.2956 2.3918
5.2173 -4.1270 2.3918
5.3752 -3.9517 2.3918
5.5263 -3.7698 2.3918
5.6703 -3.5815 2.3918
5.8069 -3.3872 2.3918
5.9356 -3.1874 2.3918
6.0564 -2.9820 2.3918
6.1485 -2.7626 2.3840
6.2143 -2.5328 2.3695
6.2791 -2.3046 2.3584
6.3429 -2.0775 2.3506
6.4060 -1.8509 2.3459
6.4684 -1.6243 2.3445
6.5304 -1.3973 2.3462
6.5920 -1.1693 2.3511
6.6534 -0.9398 2.3592
6.7148 -0.7082 2.3707
6.7762 -0.4741 2.3855
6.8039 -0.2356 2.3918
6.8037 0.0043 2.3918
6.7938 0.2440 2.3918
6.7740 0.4826 2.3918
6.7445 0.7201 2.3918
6.7053 0.9560 2.3918
6.6567 1.1899 2.3918
6.5986 1.4212 2.3918
6.5312 1.6496 2.3918
6.4548 1.8747 2.3918
6.3695 2.0964 2.3918
6.2755 2.3139 2.3918
6.1731 2.5271 2.3918
6.0624 2.7355 2.3918
5.9438 2.9388 2.3918
5.8174 3.1368 2.3918
5.6837 3.3292 2.3918
5.5428 3.5155 2.3918
5.3952 3.6957 2.3918
5.2410 3.8695 2.3918
5.0807 4.0365 2.3918
4.9145 4.1968 2.3918
4.7428 4.3499 2.3918
4.5659 4.4958 2.3918
4.3842 4.6343 2.3918
4.1981 4.7653 2.3918
4.0077 4.8886 2.3918
3.8136 5.0043 2.3918
3.6161 5.1121 2.3918
3.4154 5.2120 2.3918
3.2120 5.3040 2.3918
3.0061 5.3880 2.3918
2.7982 5.4640 2.3918
2.5885 5.5320 2.3918
0.9087 2.1375 0.9143
0.8314 2.1673 0.9185
0.7530 2.1943 0.9227
0.6737 2.2184 0.9269
0.5935 2.2396 0.9312
0.5127 2.2580 0.9354
0.4312 2.2734 0.9397
0.3493 2.2858 0.9440
0.2669 2.2953 0.9483
0.1842 2.3018 0.9525
0.1013 2.3053 0.9568
0.0184 2.3058 0.9610
-0.0645 2.3033 0.9652
-0.1473 2.2978 0.9694
-0.2298 2.2894 0.9735
-0.3120 2.2779 0.9776
-0.3936 2.2635 0.9817
-0.4748 2.2461 0.9856
-0.5552 2.2258 0.9896
-0.6349 2.2026 0.9934
-0.7137 2.1766 0.9972
-0.7914 2.1477 1.0009
-2.0670 5.0382 2.3918
-2.2388 4.9388 2.3918
-2.4066 4.8341 2.3918
-2.5702 4.7243 2.3918
-2.7294 4.6096 2.3918
-2.8843 4.4901 2.3918
-3.0346 4.3660 2.3918
-3.1803 4.2374 2.3918
-3.3212 4.1045 2.3918
-3.4573 3.9675 2.3918
-3.5884 3.8266 2.3918
-3.7145 3.6818 2.3918
-3.8355 3.5335 2.3918
-3.9514 3.3817 2.3918
-4.0619 3.2266 2.3918
-4.1672 3.0683 2.3918
-4.2671 2.9071 2.3918
-4.3615 2.7431 2.3918
-4.4504 2.5764 2.3918
-4.5338 2.4072 2.3918
-4.6116 2.2358 2.3918
-4.6837 2.0621 2.3918
-4.7501 1.8865 2.3918
-4.8108 1.7090 2.3918
-4.8657 1.5298 2.3918
-4.9148 1.3491 2.3918
-4.9581 1.1670 2.3918
-4.9955 0.9838 2.3918
-5.0270 0.7995 2.3918
-5.0526 0.6143 2.3918
-5.0723 0.4283 2.3918
-5.0860 0.2418 2.3918
-5.0937 0.0549 2.3918
-5.0954 -0.1322 2.3918
-5.0912 -0.3194 2.3918
-5.0810 -0.5066 2.3918
-5.0647 -0.6935 2.3918
-5.0424 -0.8800 2.3918
-5.0141 -1.0659 2.3918
-4.9798 -1.2511 2.3918
-4.9396 -1.4354 2.3918
-4.8933 -1.6186 2.3918
-4.8410 -1.8006 2.3918
-4.7828 -1.9811 2.3918
-4.7186 -2.1601 2.3918
-4.6485 -2.3373 2.3918
-4.5725 -2.5125 2.3918
-4.4907 -2.6857 2.3918
-4.4030 -2.8566 2.3918
-4.3095 -3.0250 2.3918
-4.2102 -3.1907 2.3918
-4.1053 -3.3536 2.3918
-3.9947 -3.5135 2.3918
-3.8786 -3.6702 2.3918
-3.7569 -3.8235 2.3918
-3.6297 -3.9732 2.3918
-3.4972 -4.1191 2.3918
-3.3594 -4.2611 2.3918
-3.2164 -4.3990 2.3918
-3.0683 -4.5325 2.3918
-2.9151 -4.6615 2.3918
-2.7571 -4.7857 2.3918
-2.5943 -4.9050 2.3918
-2.4268 -5.0193 2.3918
-2.2548 -5.1282 2.3918
-2.0784 -5.2317 2.3918
-1.8978 -5.3295 2.3918
-1.7132 -5.4214 2.3918
-1.5246 -5.5072 2.3918
-1.3323 -5.5869 2.3918
-1.1365 -5.6601 2.3918
-0.9373 -5.7268 2.3918
-0.7350 -5.7867 2.3918
-0.5298 -5.8396 2.3918
-0.3219 -5.8855 2.3918
-0.1115 -5.9241 2.3918
0.1010 -5.9554 2.3918
0.3155 -5.9791 2.3918
0.5317 -5.9951 2.3918
0.7493 -6.0034 2.3918
0.9680 -6.0037 2.3918
1.1875 -5.9961 2.3918
1.4076 -5.9803 2.3918
1.6278 -5.9563 2.3918
1.8479 -5.9241 2.3918
2.0676 -5.8834 2.3918
2.2865 -5.8344 2.3918
2.5043 -5.7770 2.3918
2.7206 -5.7112 2.3918
2.9350 -5.6369 2.3918
3.1473 -5.5543 2.3918
3.3569 -5.4632 2.3918
3.5637 -5.3638 2.3918
3.7672 -5.2562 2.3918
3.9670 -5.1403 2.3918
4.1627 -5.0164 2.3918
4.3540 -4.8845 2.3918
4.5406 -4.7448 2.3918
4.7220 -4.5975 2.3918
4.8980 -4.4426 2.3918
5.0681 -4.2805 2.3918
5.2320 -4.1113 2.3918
5.3893 -3.9354 2.3918
5.5398 -3.7528 2.3918
5.6831 -3.5640 2.3918
5.8189 -3.3695 2.3918
5.9470 -3.1689 2.3918
6.0670 -2.9630 2.3918
6.1546 -2.7416 2.3825
6.2203 -2.5119 2.3684
6.2850 -2.2838 2.3576
6.3487 -2.0568 2.3500
6.4117 -1.8302 2.3457
6.4741 -1.6036 2.3445
6.5360 -1.3766 2.3465
6.5976 -1.1484 2.3517
6.6590 -0.9187 2.3602
6.7203 -0.6872 2.3719
6.7817 -0.4530 2.3870
6.8043 -0.2137 2.3918
6.8032 0.0262 2.3918
6.7924 0.2658 2.3918
6.7717 0.5043 2.3918
6.7413 0.7417 2.3918
6.7013 0.9774 2.3918
6.6517 1.2110 2.3918
6.5928 1.4421 2.3918
6.5247 1.6703 2.3918
6.4476 1.8958 2.3918
6.3613 2.1164 2.3918
6.2665 2.3335 2.3918
6.1633 2.5463 2.3918
6.0519 2.7542 2.3918
5.9326 2.9571 2.3918
5.8056 3.1546 2.3918
5.6712 3.3464 2.3918
5.5297 3.5322 2.3918
5.3814 3.7118 2.3918
5.2267 3.8850 2.3918
5.0658 4.0514 2.3918
4.8990 4.2107 2.3918
4.7269 4.3635 2.3918
4.5495 4.5086 2.3918
4.3674 4.6465 2.3918
4.1809 4.7769 2.3918
3.9902 4.8996 2.3918
3.7957 5.0145 2.3918
3.5979 5.1216 2.3918
3.3970 5.2208 2.3918
3.1933 5.3120 2.3918
2.9872 5.3953 2.3918
2.7791 5.4706 2.3918
2.5693 5.5378 2.3918
0.9017 2.1403 0.9146
0.8243 2.1699 0.9188
0.7458 2.1966 0.9231
0.6664 2.2205 0.9273
0.5862 2.2414 0.9316
0.5053 2.2595 0.9358
0.4238 2.2746 0.9401
0.3418 2.2868 0.9444
0.2593 2.2960 0.9487
0.1766 2.3023 0.9529
0.0938 2.3055 0.9572
0.0108 2.3057 0.9614
-0.0721 2.3030 0.9656
-0.1548 2.2972 0.9698
-0.2373 2.2884 0.9739
-0.3194 2.2767 0.9780
-0.4011 2.2620 0.9820
-0.4821 2.2444 0.9860
-0.5625 2.2238 0.9899
-0.6421 2.2004 0.9938
-0.7208 2.1741 0.9976
-0.7985 2.1449 1.0013
-2.0828 5.0294 2.3918
-2.2543 4.9295 2.3918
-2.4217 4.8243 2.3918
0.8626 2.0037 0.9155
0.7901 2.0319 0.9194
0.7166 2.0575 0.9234
0.6422 2.0804 0.9273
0.5670 2.1005 0.9313
0.4912 2.1180 0.9354
0.4147 2.1327 0.9394
0.3378 2.1446 0.9434
0.2605 2.1538 0.9474
0.1829 2.1601 0.9514
0.1051 2.1637 0.9554
0.0273 2.1644 0.9594
-0.0506 2.1623 0.9633
-0.1283 2.1574 0.9672
-0.2058 2.1497 0.9711
-0.2829 2.1392 0.9750
-0.3597 2.1259 0.9788
-0.4359 2.1099 0.9825
-0.5115 2.0911 0.9862
-0.5863 2.0696 0.9898
-0.6604 2.0453 0.9934
-0.7335 2.0185 0.9969
-0.8056 1.9890 1.0003
-2.0889 4.6636 2.3918
-2.2479 4.5663 2.3918
-2.4030 4.4641 2.3918
-2.5541 4.3571 2.3918
-2.7011 4.2455 2.3918
-2.8438 4.1296 2.3918
-2.9822 4.0093 2.3918
-3.1161 3.8849 2.3918
-3.2454 3.7565 2.3918
-3.3702 3.6243 2.3918
-3.4902 3.4885 2.3918
-3.6054 3.3491 2.3918
-3.7157 3.2065 2.3918
-3.8211 3.0606 2.3918
-3.9214 2.9117 2.3918
-4.0167 2.7599 2.3918
-4.1068 2.6054 2.3918
-4.1917 2.4484 2.3918
-4.2713 2.2889 2.3918
-4.3456 2.1272 2.3918
-4.4145 1.9634 2.3918
-4.4781 1.7977 2.3918
-4.5362 1.6301 2.3918
-4.5888 1.4609 2.3918
-4.6359 1.2903 2.3918
-4.6774 1.1183 2.3918
-4.7134 0.9451 2.3918
-4.7438 0.7710 2.3918
-4.7685 0.5959 2.3918
-4.7876 0.4202 2.3918
-4.8010 0.2439 2.3918
-4.8087 0.0672 2.3918
-4.8108 -0.1097 2.3918
-4.8071 -0.2867 2.3918
-4.7977 -0.4636 2.3918
-4.7826 -0.6403 2.3918
-4.7618 -0.8166 2.3918
-4.7353 -0.9923 2.3918
-4.7030 -1.1673 2.3918
-4.6651 -1.3415 2.3918
-4.6214 -1.5146 2.3918
-4.5721 -1.6865 2.3918
-4.5171 -1.8570 2.3918
-4.4565 -2.0260 2.3918
-4.3902 -2.1933 2.3918
-4.3184 -2.3587 2.3918
-4.2410 -2.5221 2.3918
-4.1581 -2.6833 2.3918
-4.0697 -2.8421 2.3918
-3.9759 -2.9983 2.3918
-3.8767 -3.1518 2.3918
-3.7722 -3.3024 2.3918
-3.6624 -3.4499 2.3918
-3.5474 -3.5942 2.3918
-3.4273 -3.7351 2.3918
-3.3021 -3.8723 2.3918
-3.1720 -4.0057 2.3918
-3.0370 -4.1352 2.3918
-2.8972 -4.2605 2.3918
-2.7527 -4.3815 2.3918
-2.6036 -4.4979 2.3918
-2.4500 -4.6097 2.3918
-2.2922 -4.7167 2.3918
-2.1301 -4.8185 2.3918
-1.9640 -4.9152 2.3918
-1.7939 -5.0065 2.3918
-1.6201 -5.0922 2.3918
-1.4426 -5.1721 2.3918
-1.2618 -5.2462 2.3918
-1.0777 -5.3142 2.3918
-0.8905 -5.3760 2.3918
-0.7005 -5.4314 2.3918
-0.5078 -5.4802 2.3918
-0.3127 -5.5224 2.3918
-0.1153 -5.5578 2.3918
0.0840 -5.5862 2.3918
0.2850 -5.6076 2.3918
0.4876 -5.6217 2.3918
0.6913 -5.6286 2.3918
0.8961 -5.6280 2.3918
1.1015 -5.6199 2.3918
1.3073 -5.6042 2.3918
1.5132 -5.5809 2.3918
1.7189 -5.5499 2.3918
1.9241 -5.5111 2.3918
2.1285 -5.4645 2.3918
2.3318 -5.4100 2.3918
2.5336 -5.3478 2.3918
2.7336 -5.2777 2.3918
2.9315 -5.1998 2.3918
3.1270 -5.1140 2.3918
3.3197 -5.0207 2.3918
3.5092 -4.9196 2.3918
3.6953 -4.8109 2.3918
3.8776 -4.6948 2.3918
4.0557 -4.5714 2.3918
4.2294 -4.4407 2.3918
4.3982 -4.3030 2.3918
4.5619 -4.1583 2.3918
4.7202 -4.0070 2.3918
4.8727 -3.8490 2.3918
5.0192 -3.6845 2.3918
5.1592 -3.5148 2.3918
5.2926 -3.3388 2.3918
5.4191 -3.1573 2.3918
5.5384 -2.9705 2.3918
5.6502 -2.7790 2.3918
5.7544 -2.5827 2.3918
5.8506 -2.3821 2.3918
5.9388 -2.1776 2.3918
6.0187 -1.9695 2.3918
6.0901 -1.7582 2.3918
6.1529 -1.5440 2.3918
6.2071 -1.3272 2.3918
6.2523 -1.1086 2.3918
6.2886 -0.8881 2.3918
6.3159 -0.6662 2.3918
6.3342 -0.4435 2.3918
6.3434 -0.2203 2.3918
6.3434 0.0030 2.3918
6.3345 0.2260 2.3918
6.3164 0.4483 2.3918
6.2894 0.6696 2.3918
6.2536 0.8898 2.3918
6.2088 1.1074 2.3918
6.1553 1.3229 2.3918
6.0933 1.5359 2.3918
6.0229 1.7460 2.3918
5.9443 1.9527 2.3918
5.8576 2.1558 2.3918
5.7630 2.3548 2.3918
5.6608 2.5496 2.3918
5.5512 2.7397 2.3918
5.4344 2.9249 2.3918
5.3107 3.1049 2.3918
5.1803 3.2795 2.3918
5.0436 3.4484 2.3918
4.9008 3.6114 2.3918
4.7522 3.7682 2.3918
4.5980 3.9187 2.3918
4.4387 4.0627 2.3918
4.2745 4.2001 2.3918
4.1058 4.3306 2.3918
3.9327 4.4542 2.3918
3.7557 4.5708 2.3918
3.5751 4.6802 2.3918
3.3912 4.7823 2.3918
3.2043 4.8771 2.3918
3.0147 4.9646 2.3918
2.8227 5.0446 2.3918
2.6287 5.1172 2.3918
0.9276 1.9759 0.9119
0.8560 2.0064 0.9158
0.7834 2.0344 0.9198
0.7098 2.0597 0.9237
0.6354 2.0823 0.9277
0.5601 2.1023 0.9317
0.4842 2.1195 0.9357
0.4077 2.1339 0.9397
0.3308 2.1456 0.9438
0.2534 2.1545 0.9478
0.1758 2.1606 0.9518
0.0980 2.1639 0.9558
0.0202 2.1643 0.9597
-0.0577 2.1620 0.9637
-0.1354 2.1568 0.9676
-0.2128 2.1489 0.9715
-0.2900 2.1381 0.9753
-0.3666 2.1246 0.9791
-0.4428 2.1083 0.9828
-0.5183 2.0892 0.9865
-0.5931 2.0675 0.9902
-0.6671 2.0430 0.9937
-0.7401 2.0159 0.9972
-0.8121 1.9862 1.0006
-2.1036 4.6549 2.3918
-2.2622 4.5572 2.3918
-2.4170 4.4545 2.3918
-2.5677 4.3471 2.3918
-2.7143 4.2352 2.3918
-2.8566 4.1188 2.3918
-2.9945 3.9981 2.3918
-3.1281 3.8733 2.3918
-3.2570 3.7446 2.3918
-3.3813 3.6121 2.3918
-3.5009 3.4759 2.3918
-3.6157 3.3363 2.3918
-3.7255 3.1933 2.3918
-3.8304 3.0471 2.3918
-3.9303 2.8980 2.3918
-4.0251 2.7460 2.3918
-4.1147 2.5912 2.3918
-4.1991 2.4339 2.3918
-4.2783 2.2743 2.3918
-4.3521 2.1124 2.3918
-4.4206 1.9484 2.3918
-4.4836 1.7824 2.3918
-4.5412 1.6147 2.3918
-4.5933 1.4454 2.3918
-4.6399 1.2746 2.3918
-4.6809 1.1025 2.3918
-4.7164 0.9293 2.3918
-4.7463 0.7550 2.3918
-4.7705 0.5799 2.3918
-4.7890 0.4041 2.3918
-4.8019 0.2278 2.3918
-4.8091 0.0511 2.3918
-4.8107 -0.1258 2.3918
-4.8065 -0.3028 2.3918
-4.7966 -0.4797 2.3918
-4.7809 -0.6564 2.3918
-4.7596 -0.8326 2.3918
-4.7326 -1.0083 2.3918
-4.6998 -1.1833 2.3918
-4.6613 -1.3573 2.3918
-4.6172 -1.5303 2.3918
-4.5673 -1.7021 2.3918
-4.5118 -1.8725 2.3918
-4.4507 -2.0413 2.3918
-4.3839 -2.2085 2.3918
-4.3116 -2.3737 2.3918
-4.2337 -2.5369 2.3918
-4.1503 -2.6978 2.3918
-4.0614 -2.8564 2.3918
-3.9671 -3.0124 2.3918
-3.8674 -3.1657 2.3918
-3.7624 -3.3160 2.3918
-3.6522 -3.4632 2.3918
-3.5367 -3.6072 2.3918
-3.4161 -3.7477 2.3918
-3.2905 -3.8846 2.3918
-3.1599 -4.0177 2.3918
-3.0244 -4.1468 2.3918
-2.8842 -4.2717 2.3918
-2.7393 -4.3923 2.3918
-2.5898 -4.5083 2.3918
-2.4358 -4.6197 2.3918
-2.2776 -4.7262 2.3918
-2.1151 -4.8276 2.3918
-1.9486 -4.9237 2.3918
-1.7782 -5.0145 2.3918
-1.6040 -5.0997 2.3918
-1.4263 -5.1791 2.3918
-1.2451 -5.2527 2.3918
-1.0607 -5.3201 2.3918
-0.8733 -5.3813 2.3918
-0.6830 -5.4361 2.3918
-0.4901 -5.4844 2.3918
-0.2948 -5.5260 2.3918
-0.0972 -5.5607 2.3918
0.1023 -5.5885 2.3918
0.3034 -5.6092 2.3918
0.5061 -5.6226 2.3918
0.7100 -5.6288 2.3918
0.9148 -5.6275 2.3918
1.1202 -5.6188 2.3918
1.3261 -5.6024 2.3918
1.5320 -5.5784 2.3918
1.7377 -5.5466 2.3918
1.9428 -5.5072 2.3918
2.1471 -5.4599 2.3918
2.3502 -5.4047 2.3918
2.5519 -5.3415 2.3918
2.7518 -5.2709 2.3918
2.9494 -5.1924 2.3918
3.1447 -5.1058 2.3918
3.3371 -5.0118 2.3918
3.5263 -4.9100 2.3918
3.7121 -4.8007 2.3918
3.8940 -4.6839 2.3918
4.0717 -4.5598 2.3918
4.2450 -4.4284 2.3918
4.4134 -4.2900 2.3918
4.5766 -4.1448 2.3918
4.7343 -3.9928 2.3918
4.8865 -3.8339 2.3918
5.0322 -3.6697 2.3918
5.1716 -3.4990 2.3918
5.3044 -3.3224 2.3918
5.4303 -3.1405 2.3918
5.5489 -2.9533 2.3918
5.6600 -2.7612 2.3918
5.7635 -2.5645 2.3918
5.8590 -2.3635 2.3918
5.9465 -2.1587 2.3918
6.0256 -1.9504 2.3918
6.0962 -1.7388 2.3918
6.1582 -1.5243 2.3918
6.2115 -1.3075 2.3918
6.2560 -1.0885 2.3918
6.2915 -0.8678 2.3918
6.3180 -0.6459 2.3918
6.3354 -0.4232 2.3918
6.3437 -0.1999 2.3918
6.3430 0.0234 2.3918
6.3332 0.2464 2.3918
6.3143 0.4685 2.3918
6.2865 0.6897 2.3918
6.2497 0.9090 2.3918
6.2042 1.1270 2.3918
6.1500 1.3424 2.3918
6.0873 1.5552 2.3918
6.0161 1.7650 2.3918
5.9367 1.9714 2.3918
5.8493 2.1741 2.3918
5.7540 2.3728 2.3918
5.6511 2.5671 2.3918
5.5408 2.7568 2.3918
5.4234 2.9415 2.3918
5.2991 3.1210 2.3918
5.1681 3.2951 2.3918
5.0308 3.4635 2.3918
4.8875 3.6260 2.3918
4.7383 3.7822 2.3918
4.5837 3.9321 2.3918
4.4240 4.0756 2.3918
4.2593 4.2123 2.3918
4.0902 4.3422 2.3918
3.9167 4.4652 2.3918
3.7394 4.5811 2.3918
3.5585 4.6898 2.3918
3.3743 4.7912 2.3918
3.1871 4.8854 2.3918
2.9973 4.9722 2.3918
2.8051 5.0515 2.3918
2.6109 5.1235 2.3918
0.9211 1.9788 0.9123
0.8495 2.0091 0.9162
0.7767 2.0368 0.9201
0.7031 2.0619 0.9241
0.6285 2.0843 0.9281
0.5532 2.1039 0.9321
0.4773 2.1209 0.9361
0.4007 2.1351 0.9401
0.3237 2.1465 0.9441
0.2464 2.1552 0.9481
0.1687 2.1610 0.9521
0.0909 2.1640 0.9561
0.0131 2.1642 0.9601
-0.0648 2.1616 0.9640
-0.1424 2.1562 0.9680
-0.2199 2.1480 0.9718
-0.2970 2.1370 0.9757
-0.3736 2.1232 0.9794
-0.4497 2.1066 0.9832
-0.5252 2.0873 0.9869
-0.5999 2.0653 0.9905
-0.6738 2.0407 0.9940
-0.7467 2.0133 0.9975
-0.8186 1.9833 1.0009
-2.1182 4.6462 2.3918
-2.2765 4.5480 2.3918
0.8147 1.8858 0.9169
0.7465 1.9123 0.9206
0.6773 1.9363 0.9243
0.6073 1.9578 0.9281
0.5365 1.9768 0.9319
0.4651 1.9933 0.9356
0.3932 2.0071 0.9394
0.3208 2.0183 0.9432
0.2480 2.0269 0.9470
0.1750 2.0329 0.9507
0.1017 2.0362 0.9545
0.0285 2.0369 0.9582
-0.0448 2.0349 0.9620
-0.1180 2.0303 0.9656
-0.1909 2.0230 0.9693
-0.2635 2.0131 0.9729
-0.3358 2.0006 0.9765
-0.4075 1.9855 0.9800
-0.4786 1.9679 0.9835
-0.5491 1.9476 0.9869
-0.6188 1.9248 0.9902
-0.6876 1.8995 0.9935
-0.7554 1.8718 0.9968
-0.8223 1.8416 0.9999
-2.1175 4.3141 2.3918
-2.2645 4.2182 2.3918
-2.4077 4.1178 2.3918
-2.5471 4.0130 2.3918
-2.6824 3.9040 2.3918
-2.8137 3.7908 2.3918
-2.9408 3.6737 2.3918
-3.0636 3.5528 2.3918
-3.1821 3.4282 2.3918
-3.2961 3.3001 2.3918
-3.4055 3.1687 2.3918
-3.5103 3.0340 2.3918
-3.6104 2.8962 2.3918
-3.7058 2.7556 2.3918
-3.7963 2.6122 2.3918
-3.8820 2.4661 2.3918
-3.9627 2.3176 2.3918
-4.0384 2.1668 2.3918
-4.1091 2.0138 2.3918
-4.1746 1.8587 2.3918
-4.2350 1.7018 2.3918
-4.2903 1.5432 2.3918
-4.3403 1.3830 2.3918
-4.3850 1.2214 2.3918
-4.4245 1.0585 2.3918
-4.4586 0.8945 2.3918
-4.4874 0.7295 2.3918
-4.5109 0.5637 2.3918
-4.5290 0.3973 2.3918
-4.5416 0.2303 2.3918
-4.5489 0.0629 2.3918
-4.5507 -0.1047 2.3918
-4.5470 -0.2724 2.3918
-4.5380 -0.4399 2.3918
-4.5235 -0.6072 2.3918
-4.5035 -0.7742 2.3918
-4.4781 -0.9406 2.3918
-4.4473 -1.1062 2.3918
-4.4110 -1.2710 2.3918
-4.3693 -1.4349 2.3918
-4.3222 -1.5975 2.3918
-4.2697 -1.7587 2.3918
-4.2119 -1.9185 2.3918
-4.1487 -2.0767 2.3918
-4.0803 -2.2330 2.3918
-4.0065 -2.3873 2.3918
-3.9276 -2.5395 2.3918
-3.8434 -2.6894 2.3918
-3.7541 -2.8368 2.3918
-3.6598 -2.9816 2.3918
-3.5604 -3.1235 2.3918
-3.4560 -3.2625 2.3918
-3.3467 -3.3983 2.3918
-3.2326 -3.5309 2.3918
-3.1137 -3.6599 2.3918
-2.9902 -3.7853 2.3918
-2.8620 -3.9069 2.3918
-2.7294 -4.0245 2.3918
-2.5924 -4.1380 2.3918
-2.4511 -4.2471 2.3918
-2.3057 -4.3517 2.3918
-2.1562 -4.4517 2.3918
-2.0028 -4.5469 2.3918
-1.8456 -4.6370 2.3918
-1.6848 -4.7221 2.3918
-1.5205 -4.8018 2.3918
-1.3529 -4.8761 2.3918
-1.1821 -4.9447 2.3918
-1.0083 -5.0076 2.3918
-0.8318 -5.0646 2.3918
-0.6526 -5.1156 2.3918
-0.4710 -5.1603 2.3918
-0.2872 -5.1988 2.3918
-0.1014 -5.2308 2.3918
0.0862 -5.2562 2.3918
0.2753 -5.2750 2.3918
0.4657 -5.2869 2.3918
0.6571 -5.2920 2.3918
0.8494 -5.2902 2.3918
1.0422 -5.2813 2.3918
1.2353 -5.2652 2.3918
1.4284 -5.2420 2.3918
1.6212 -5.2116 2.3918
1.8135 -5.1739 2.3918
2.0049 -5.1289 2.3918
2.1951 -5.0767 2.3918
2.3839 -5.0170 2.3918
2.5710 -4.9501 2.3918
2.7560 -4.8759 2.3918
2.9386 -4.7945 2.3918
3.1185 -4.7059 2.3918
3.2954 -4.6102 2.3918
3.4691 -4.5074 2.3918
3.6391 -4.3978 2.3918
3.8052 -4.2813 2.3918
3.9670 -4.1581 2.3918
4.1244 -4.0284 2.3918
4.2769 -3.8924 2.3918
4.4242 -3.7501 2.3918
4.5662 -3.6018 2.3918
4.7025 -3.4477 2.3918
4.8328 -3.2881 2.3918
4.9569 -3.1231 2.3918
5.0745 -2.9530 2.3918
5.1856 -2.7778 2.3918
5.2893 -2.5995 2.3918
5.3863 -2.4150 2.3918
5.4758 -2.2273 2.3918
5.5578 -2.0361 2.3918
5.6321 -1.8415 2.3918
5.6986 -1.6439 2.3918
5.7570 -1.4437 2.3918
5.8074 -1.2412 2.3918
5.8495 -1.0368 2.3918
5.8834 -0.8307 2.3918
5.9089 -0.6235 2.3918
5.9260 -0.4154 2.3918
5.9347 -0.2069 2.3918
5.9350 0.0018 2.3918
5.9270 0.2105 2.3918
5.9104 0.4180 2.3918
5.8855 0.6247 2.3918
5.8524 0.8302 2.3918
5.8111 1.0339 2.3918
5.7617 1.2356 2.3918
5.7044 1.4349 2.3918
5.6392 1.6315 2.3918
5.5663 1.8250 2.3918
5.4860 2.0152 2.3918
5.3983 2.2016 2.3918
5.3035 2.3842 2.3918
5.2018 2.5624 2.3918
5.0934 2.7362 2.3918
4.9785 2.9052 2.3918
4.8573 3.0692 2.3918
4.7302 3.2279 2.3918
4.5973 3.3808 2.3918
4.4591 3.5289 2.3918
4.3156 3.6706 2.3918
4.1673 3.8064 2.3918
4.0142 3.9360 2.3918
3.8569 4.0593 2.3918
3.6955 4.1761 2.3918
3.5303 4.2864 2.3918
3.3617 4.3900 2.3918
3.1899 4.4869 2.3918
3.0152 4.5770 2.3918
2.8379 4.6603 2.3918
2.6583 4.7366 2.3918
0.9422 1.8284 0.9099
0.8759 1.8595 0.9136
0.8086 1.8883 0.9172
0.7402 1.9146 0.9210
0.6709 1.9384 0.9247
0.6008 1.9597 0.9284
0.5300 1.9784 0.9322
0.4586 1.9946 0.9360
0.3866 2.0082 0.9398
0.3141 2.0192 0.9435
0.2413 2.0276 0.9473
0.1683 2.0333 0.9511
0.0951 2.0364 0.9548
0.0218 2.0368 0.9586
-0.0515 2.0346 0.9623
-0.1246 2.0297 0.9660
-0.1975 2.0222 0.9696
-0.2701 2.0121 0.9732
-0.3423 1.9994 0.9768
-0.4140 1.9840 0.9803
-0.4851 1.9661 0.9838
-0.5555 1.9456 0.9872
-0.6251 1.9226 0.9906
-0.6938 1.8971 0.9938
-0.7616 1.8691 0.9971
-0.8283 1.8387 1.0002
-2.1311 4.3055 2.3918
-2.2777 4.2092 2.3918
-2.4206 4.1084 2.3918
-2.5596 4.0032 2.3918
-2.6946 3.8938 2.3918
-2.8255 3.7803 2.3918
-2.9522 3.6629 2.3918
-3.0746 3.5416 2.3918
-3.1927 3.4167 2.3918
-3.3062 3.2883 2.3918
-3.4153 3.1565 2.3918
-3.5196 3.0216 2.3918
-3.6193 2.8835 2.3918
-3.7143 2.7426 2.3918
-3.8044 2.5990 2.3918
-3.8896 2.4527 2.3918
-3.9698 2.3039 2.3918
-4.0451 2.1529 2.3918
-4.1152 1.9997 2.3918
-4.1803 1.8445 2.3918
-4.2403 1.6874 2.3918
-4.2950 1.5287 2.3918
-4.3446 1.3684 2.3918
-4.3888 1.2066 2.3918
-4.4278 1.0436 2.3918
-4.4615 0.8795 2.3918
-4.4898 0.7145 2.3918
-4.5128 0.5486 2.3918
-4.5303 0.3820 2.3918
-4.5425 0.2150 2.3918
-4.5492 0.0476 2.3918
-4.5506 -0.1200 2.3918
-4.5464 -0.2876 2.3918
-4.5369 -0.4552 2.3918
-4.5219 -0.6225 2.3918
-4.5014 -0.7894 2.3918
-4.4755 -0.9557 2.3918
-4.4442 -1.1213 2.3918
-4.4074 -1.2860 2.3918
-4.3652 -1.4497 2.3918
-4.3176 -1.6122 2.3918
-4.2647 -1.7734 2.3918
-4.2064 -1.9330 2.3918
-4.1427 -2.0910 2.3918
-4.0738 -2.2471 2.3918
-3.9996 -2.4013 2.3918
-3.9201 -2.5533 2.3918
-3.8355 -2.7029 2.3918
-3.7457 -2.8501 2.3918
-3.6509 -2.9946 2.3918
-3.5510 -3.1363 2.3918
-3.4462 -3.2750 2.3918
-3.3365 -3.4106 2.3918
-3.2219 -3.5428 2.3918
-3.1026 -3.6715 2.3918
-2.9787 -3.7966 2.3918
-2.8501 -3.9178 2.3918
-2.7171 -4.0350 2.3918
-2.5797 -4.1481 2.3918
-2.4380 -4.2568 2.3918
-2.2922 -4.3610 2.3918
-2.1424 -4.4606 2.3918
-1.9886 -4.5553 2.3918
-1.8311 -4.6450 2.3918
-1.6700 -4.7296 2.3918
-1.5054 -4.8088 2.3918
-1.3375 -4.8826 2.3918
-1.1664 -4.9507 2.3918
-0.9924 -5.0131 2.3918
-0.8155 -5.0695 2.3918
-0.6361 -5.1199 2.3918
-0.4543 -5.1641 2.3918
-0.2703 -5.2020 2.3918
-0.0844 -5.2334 2.3918
0.1033 -5.2582 2.3918
0.2926 -5.2763 2.3918
0.4831 -5.2877 2.3918
0.6746 -5.2922 2.3918
0.8670 -5.2897 2.3918
1.0598 -5.2801 2.3918
1.2529 -5.2634 2.3918
1.4460 -5.2396 2.3918
1.6388 -5.2085 2.3918
1.8310 -5.1701 2.3918
2.0223 -5.1244 2.3918
2.2124 -5.0716 2.3918
2.4011 -5.0112 2.3918
2.5879 -4.9436 2.3918
2.7727 -4.8689 2.3918
2.9551 -4.7867 2.3918
3.1348 -4.6975 2.3918
3.3114 -4.6011 2.3918
3.4847 -4.4977 2.3918
3.6544 -4.3874 2.3918
3.8201 -4.2703 2.3918
3.9816 -4.1466 2.3918
4.1385 -4.0163 2.3918
4.2905 -3.8796 2.3918
4.4374 -3.7368 2.3918
4.5789 -3.5880 2.3918
4.7146 -3.4334 2.3918
4.8444 -3.2733 2.3918
4.9679 -3.1078 2.3918
5.0849 -2.9373 2.3918
5.1953 -2.7618 2.3918
5.2986 -2.5821 2.3918
5.3948 -2.3980 2.3918
5.4836 -2.2100 2.3918
5.5649 -2.0185 2.3918
5.6385 -1.8236 2.3918
5.7042 -1.6258 2.3918
5.7619 -1.4253 2.3918
5.8116 -1.2226 2.3918
5.8530 -1.0180 2.3918
5.8861 -0.8119 2.3918
5.9108 -0.6046 2.3918
5.9272 -0.3964 2.3918
5.9351 -0.1879 2.3918
5.9346 0.0208 2.3918
5.9257 0.2292 2.3918
5.9085 0.4369 2.3918
5.8828 0.6435 2.3918
5.8490 0.8488 2.3918
5.8069 1.0524 2.3918
5.7568 1.2539 2.3918
5.6987 1.4530 2.3918
5.6329 1.6493 2.3918
5.5593 1.8425 2.3918
5.4783 2.0323 2.3918
5.3900 2.2185 2.3918
5.2945 2.4006 2.3918
5.1922 2.5785 2.3918
5.0832 2.7518 2.3918
4.9677 2.9203 2.3918
4.8460 3.0839 2.3918
4.7184 3.2421 2.3918
4.5850 3.3949 2.3918
4.4462 3.5420 2.3918
4.3024 3.6837 2.3918
4.1535 3.8184 2.3918
4.0001 3.9474 2.3918
3.8423 4.0702 2.3918
3.6806 4.1864 2.3918
3.5151 4.2961 2.3918
3.3461 4.3992 2.3918
3.1741 4.4954 2.3918
2.9991 4.5849 2.3918
2.8216 4.6675 2.3918
2.6418 4.7432 2.3918
0.9362 1.8313 0.9103
0.8698 1.8622 0.9139
0.8024 1.8908 0.9176
0.7339 1.9169 0.9213
0.6646 1.9404 0.9250
0.5944 1.9615 0.9288
0.5235 1.9800 0.9325
0.4520 1.9960 0.9363
0.3800 2.0093 0.9401
0.3075 2.0201 0.9439
0.2347 2.0282 0.9477
0.1616 2.0337 0.9514
0.0884 2.0365 0.9552
0.0151 2.0367 0.9589
-0.0582 2.0343 0.9626
-0.1313 2.0292 0.9663
-0.2042 2.0214 0.9700
-0.2767 2.0111 0.9736
-0.3489 1.9981 0.9771
-0.4205 1.9825 0.9806
-0.4915 1.9643 0.9841
-0.5619 1.9436 0.9875
-0.6314 1.9204 0.9909
-0.7000 1.8947 0.9941
-0.7677 1.8665 0.9973
-0.8343 1.8358 1.0005
-2.1446 4.2969 2.3918
0.7713 1.7788 0.9182
0.7069 1.8038 0.9217
0.6417 1.8264 0.9252
0.5756 1.8468 0.9288
0.5088 1.8647 0.9323
0.4415 1.8801 0.9359
0.3736 1.8932 0.9394
0.3053 1.9038 0.9430
0.2366 1.9119 0.9466
0.1677 1.9175 0.9501
0.0987 1.9206 0.9537
0.0295 1.9213 0.9572
-0.0396 1.9194 0.9607
-0.1086 1.9150 0.9642
-0.1774 1.9082 0.9676
-0.2459 1.8989 0.9710
-0.3141 1.8871 0.9744
-0.3817 1.8728 0.9777
-0.4489 1.8561 0.9810
-0.5153 1.8370 0.9842
-0.5811 1.8155 0.9874
-0.6460 1.7917 0.9905
-0.7100 1.7655 0.9935
-0.7730 1.7370 0.9965
-0.8350 1.7063 0.9994
-2.1379 3.9935 2.3918
-2.2739 3.8991 2.3918
-2.4062 3.8004 2.3918
-2.5349 3.6977 2.3918
-2.6596 3.5910 2.3918
-2.7804 3.4805 2.3918
-2.8972 3.3663 2.3918
-3.0098 3.2487 2.3918
-3.1183 3.1276 2.3918
-3.2224 3.0033 2.3918
-3.3221 2.8760 2.3918
-3.4174 2.7456 2.3918
-3.5082 2.6125 2.3918
-3.5943 2.4767 2.3918
-3.6759 2.3384 2.3918
-3.7527 2.1976 2.3918
-3.8248 2.0547 2.3918
-3.8921 1.9097 2.3918
-3.9545 1.7627 2.3918
-4.0120 1.6139 2.3918
-4.0646 1.4635 2.3918
-4.1122 1.3115 2.3918
-4.1548 1.1582 2.3918
-4.1923 1.0037 2.3918
-4.2248 0.8481 2.3918
-4.2522 0.6915 2.3918
-4.2744 0.5342 2.3918
-4.2916 0.3762 2.3918
-4.3035 0.2177 2.3918
-4.3103 0.0589 2.3918
-4.3120 -0.1001 2.3918
-4.3084 -0.2592 2.3918
-4.2996 -0.4182 2.3918
-4.2857 -0.5769 2.3918
-4.2665 -0.7353 2.3918
-4.2422 -0.8931 2.3918
-4.2126 -1.0502 2.3918
-4.1779 -1.2065 2.3918
-4.1381 -1.3617 2.3918
-4.0931 -1.5159 2.3918
-4.0430 -1.6687 2.3918
-3.9877 -1.8201 2.3918
-3.9274 -1.9698 2.3918
-3.8621 -2.1178 2.3918
-3.7918 -2.2639 2.3918
-3.7165 -2.4079 2.3918
-3.6362 -2.5496 2.3918
-3.5512 -2.6890 2.3918
-3.4612 -2.8258 2.3918
-3.3666 -2.9599 2.3918
-3.2672 -3.0911 2.3918
-3.1632 -3.2193 2.3918
-3.0546 -3.3443 2.3918
-2.9416 -3.4659 2.3918
-2.8241 -3.5841 2.3918
-2.7023 -3.6985 2.3918
-2.5763 -3.8092 2.3918
-2.4462 -3.9158 2.3918
-2.3121 -4.0183 2.3918
-2.1741 -4.1165 2.3918
-2.0323 -4.2103 2.3918
-1.8869 -4.2994 2.3918
-1.7379 -4.3838 2.3918
-1.5855 -4.4633 2.3918
-1.4300 -4.5377 2.3918
-1.2713 -4.6069 2.3918
-1.1097 -4.6708 2.3918
-0.9454 -4.7292 2.3918
-0.7785 -4.7819 2.3918
-0.6091 -4.8290 2.3918
-0.4376 -4.8701 2.3918
-0.2641 -4.9053 2.3918
-0.0888 -4.9344 2.3918
0.0881 -4.9573 2.3918
0.2664 -4.9738 2.3918
0.4459 -4.9840 2.3918
0.6262 -4.9877 2.3918
0.8072 -4.9848 2.3918
0.9887 -4.9753 2.3918
1.1703 -4.9590 2.3918
1.3519 -4.9361 2.3918
1.5331 -4.9063 2.3918
1.7137 -4.8698 2.3918
1.8934 -4.8264 2.3918
2.0720 -4.7761 2.3918
2.2491 -4.7191 2.3918
2.4245 -4.6551 2.3918
2.5979 -4.5846 2.3918
2.7691 -4.5069 2.3918
2.9375 -4.4232 2.3918
3.1033 -4.3321 2.3918
3.2658 -4.2347 2.3918
3.4249 -4.1310 2.3918
3.5803 -4.0209 2.3918
3.7316 -3.9046 2.3918
3.8787 -3.7822 2.3918
4.0212 -3.6539 2.3918
4.1589 -3.5198 2.3918
4.2915 -3.3802 2.3918
4.4188 -3.2352 2.3918
4.5405 -3.0850 2.3918
4.6563 -2.9299 2.3918
4.7661 -2.7701 2.3918
4.8696 -2.6058 2.3918
4.9667 -2.4373 2.3918
5.0571 -2.2649 2.3918
5.1406 -2.0889 2.3918
5.2171 -1.9094 2.3918
5.2864 -1.7269 2.3918
5.3484 -1.5416 2.3918
5.4030 -1.3540 2.3918
5.4500 -1.1641 2.3918
5.4894 -0.9725 2.3918
5.5211 -0.7795 2.3918
5.5451 -0.5853 2.3918
5.5612 -0.3903 2.3918
5.5694 -0.1948 2.3918
5.5699 0.0007 2.3918
5.5625 0.1960 2.3918
5.5472 0.3908 2.3918
5.5243 0.5847 2.3918
5.4936 0.7773 2.3918
5.4553 0.9683 2.3918
5.4095 1.1575 2.3918
5.3562 1.3445 2.3918
5.2956 1.5290 2.3918
5.2279 1.7107 2.3918
5.1532 1.8892 2.3918
5.0716 2.0644 2.3918
4.9833 2.2359 2.3918
4.8886 2.4035 2.3918
4.7876 2.5670 2.3918
4.6805 2.7260 2.3918
4.5677 2.8813 2.3918
4.4489 3.0298 2.3918
4.3249 3.1745 2.3918
4.1958 3.3137 2.3918
4.0618 3.4476 2.3918
3.9231 3.5758 2.3918
3.7801 3.6984 2.3918
3.6329 3.8150 2.3918
3.4819 3.9257 2.3918
3.3273 4.0302 2.3918
3.1693 4.1286 2.3918
3.0083 4.2207 2.3918
2.8446 4.3064 2.3918
2.6783 4.3857 2.3918
0.9530 1.6930 0.9082
0.8916 1.7246 0.9116
0.8291 1.7540 0.9151
0.7655 1.7811 0.9185
0.7010 1.8059 0.9220
0.6357 1.8284 0.9255
0.5695 1.8485 0.9291
0.5027 1.8662 0.9326
0.4353 1.8814 0.9362
0.3674 1.8943 0.9398
0.2990 1.9046 0.9433
0.2304 1.9125 0.9469
0.1614 1.9179 0.9505
0.0924 1.9208 0.9540
0.0232 1.9212 0.9575
-0.0459 1.9191 0.9610
-0.1149 1.9145 0.9645
-0.1837 1.9075 0.9679
-0.2522 1.8979 0.9714
-0.3203 1.8859 0.9747
-0.3879 1.8714 0.9780
-0.4549 1.8545 0.9813
-0.5213 1.8352 0.9845
-0.5870 1.8135 0.9877
-0.6519 1.7894 0.9908
-0.7158 1.7630 0.9938
-0.7787 1.7343 0.9968
-0.8406 1.7034 0.9997
-2.1504 3.9851 2.3918
-2.2861 3.8902 2.3918
-2.4181 3.7912 2.3918
-2.5464 3.6881 2.3918
-2.6708 3.5810 2.3918
-2.7912 3.4702 2.3918
-2.9076 3.3557 2.3918
-3.0199 3.2378 2.3918
-3.1279 3.1164 2.3918
-3.2316 2.9918 2.3918
-3.3310 2.8642 2.3918
-3.4259 2.7336 2.3918
-3.5162 2.6002 2.3918
-3.6020 2.4642 2.3918
-3.6831 2.3256 2.3918
-3.7595 2.1847 2.3918
-3.8311 2.0416 2.3918
-3.8980 1.8964 2.3918
-3.9599 1.7492 2.3918
-4.0170 1.6003 2.3918
-4.0691 1.4497 2.3918
-4.1163 1.2976 2.3918
-4.1584 1.1442 2.3918
-4.1955 0.9896 2.3918
-4.2275 0.8338 2.3918
-4.2544 0.6772 2.3918
-4.2762 0.5198 2.3918
-4.2929 0.3618 2.3918
-4.3044 0.2033 2.3918
-4.3107 0.0444 2.3918
-4.3118 -0.1146 2.3918
-4.3078 -0.2737 2.3918
-4.2986 -0.4327 2.3918
-4.2841 -0.5914 2.3918
-4.2645 -0.7497 2.3918
-4.2397 -0.9074 2.3918
-4.2097 -1.0645 2.3918
-4.1745 -1.2207 2.3918
-4.1342 -1.3758 2.3918
-4.0887 -1.5298 2.3918
-4.0381 -1.6825 2.3918
-3.9824 -1.8338 2.3918
-3.9217 -1.9834 2.3918
-3.8559 -2.1312 2.3918
-3.7851 -2.2771 2.3918
-3.7094 -2.4209 2.3918
-3.6287 -2.5624 2.3918
-3.5432 -2.7016 2.3918
-3.4528 -2.8381 2.3918
-3.3577 -2.9720 2.3918
-3.2579 -3.1029 2.3918
-3.1535 -3.2308 2.3918
-3.0445 -3.3555 2.3918
-2.9310 -3.4769 2.3918
-2.8132 -3.5947 2.3918
-2.6910 -3.7088 2.3918
-2.5647 -3.8191 2.3918
-2.4342 -3.9253 2.3918
-2.2997 -4.0275 2.3918
-2.1613 -4.1253 2.3918
-2.0192 -4.2186 2.3918
-1.8734 -4.3073 2.3918
-1.7241 -4.3913 2.3918
-1.5715 -4.4703 2.3918
-1.4156 -4.5442 2.3918
-1.2567 -4.6130 2.3918
-1.0948 -4.6763 2.3918
-0.9303 -4.7342 2.3918
-0.7631 -4.7865 2.3918
-0.5936 -4.8330 2.3918
-0.4219 -4.8736 2.3918
-0.2482 -4.9082 2.3918
-0.0727 -4.9367 2.3918
0.1043 -4.9590 2.3918
0.2827 -4.9750 2.3918
0.4623 -4.9846 2.3918
0.6427 -4.9877 2.3918
0.8238 -4.9842 2.3918
1.0052 -4.9741 2.3918
1.1869 -4.9572 2.3918
1.3684 -4.9337 2.3918
1.5496 -4.9033 2.3918
1.7301 -4.8661 2.3918
1.9098 -4.8221 2.3918
2.0882 -4.7712 2.3918
2.2652 -4.7135 2.3918
2.4404 -4.6490 2.3918
2.6137 -4.5777 2.3918
2.7846 -4.4994 2.3918
2.9529 -4.4148 2.3918
3.1182 -4.3237 2.3918
3.2805 -4.2254 2.3918
3.4392 -4.1212 2.3918
3.5942 -4.0105 2.3918
3.7452 -3.8937 2.3918
3.8919 -3.7707 2.3918
4.0340 -3.6419 2.3918
4.1712 -3.5073 2.3918
4.3034 -3.3672 2.3918
4.4301 -3.2217 2.3918
4.5513 -3.0711 2.3918
4.6666 -2.9155 2.3918
4.7758 -2.7553 2.3918
4.8788 -2.5906 2.3918
4.9752 -2.4218 2.3918
5.0650 -2.2490 2.3918
5.1479 -2.0726 2.3918
5.2237 -1.8929 2.3918
5.2924 -1.7101 2.3918
5.3537 -1.5246 2.3918
5.4076 -1.3367 2.3918
5.4540 -1.1467 2.3918
5.4927 -0.9550 2.3918
5.5236 -0.7618 2.3918
5.5468 -0.5675 2.3918
5.5622 -0.3725 2.3918
5.5698 -0.1770 2.3918
5.5695 0.0185 2.3918
5.5614 0.2138 2.3918
5.5455 0.4085 2.3918
5.5218 0.6023 2.3918
5.4904 0.7948 2.3918
5.4514 0.9857 2.3918
5.4049 1.1747 2.3918
5.3510 1.3614 2.3918
5.2898 1.5457 2.3918
5.2214 1.7271 2.3918
5.1460 1.9053 2.3918
5.0638 2.0802 2.3918
4.9750 2.2514 2.3918
4.8796 2.4186 2.3918
4.7780 2.5817 2.3918
4.6704 2.7403 2.3918
4.5569 2.8943 2.3918
4.4378 3.0434 2.3918
4.3133 3.1872 2.3918
4.1838 3.3262 2.3918
4.0494 3.4595 2.3918
3.9103 3.5873 2.3918
3.7669 3.7092 2.3918
3.6193 3.8254 2.3918
3.4679 3.9355 2.3918
3.3130 4.0395 2.3918
3.1548 4.1373 2.3918
2.9935 4.2288 2.3918
2.8295 4.3139 2.3918
2.6630 4.3926 2.3918
0.9475 1.6960 0.9085
0.8859 1.7274 0.9119
0.8233 1.7566 0.9154
0.7597 1.7835 0.9189
0.6951 1.8081 0.9223
0.6297 1.8303 0.9259
0.5635 1.8502 0.9294
0.4966 1.8677 0.9330
0.4291 1.8827 0.9365
0.3612 1.8953 0.9401
0.2928 1.9054 0.9437
0.2241 1.9131 0.9472
0.1551 1.9183 0.9508
0.0861 1.9209 0.9543
0.0169 1.9211 0.9578
-0.0522 1.9188 0.9613
-0.1212 1.9140 0.9648
-0.1899 1.9067 0.9683
-0.2584 1.8969 0.9717
-0.3264 1.8847 0.9750
-0.3940 1.8700 0.9783
-0.4610 1.8528 0.9816
-0.5274 1.8333 0.9848
-0.5930 1.8114 0.9880
-0.6577 1.7871 0.9911
-0.7216 1.7605 0.9941
-0.7844 1.7316 0.9970
-0.8462 1.7005 0.9999
0.7318 1.6812 0.9194
0.6709 1.7049 0.9227
0.6092 1.7263 0.9260
0.5467 1.7455 0.9294
0.4836 1.7624 0.9327
0.4199 1.7770 0.9361
0.3558 1.7893 0.9395
0.2912 1.7993 0.9428
0.2263 1.8070 0.9462
0.1612 1.8123 0.9496
0.0959 1.8153 0.9529
0.0305 1.8159 0.9563
-0.0348 1.8141 0.9596
-0.1001 1.8100 0.9629
-0.1651 1.8035 0.9661
-0.2299 1.7947 0.9693
-0.2943 1.7835 0.9725
-0.3583 1.7701 0.9757
-0.4217 1.7543 0.9788
-0.4845 1.7362 0.9818
-0.5467 1.7159 0.9848
-0.6081 1.6934 0.9877
-0.6686 1.6686 0.9906
-0.7282 1.6417 0.9934
-0.7867 1.6127 0.9962
-0.8442 1.5815 0.9988
-2.1510 3.6981 2.3918
-2.2769 3.6051 2.3918
-2.3992 3.5080 2.3918
-2.5180 3.4072 2.3918
-2.6330 3.3028 2.3918
-2.7441 3.1948 2.3918
-2.8514 3.0835 2.3918
-2.9546 2.9689 2.3918
-3.0538 2.8511 2.3918
-3.1488 2.7305 2.3918
-3.2396 2.6069 2.3918
-3.3261 2.4807 2.3918
-3.4083 2.3519 2.3918
-3.4860 2.2206 2.3918
-3.5592 2.0871 2.3918
-3.6280 1.9515 2.3918
-3.6921 1.8138 2.3918
-3.7516 1.6742 2.3918
-3.8064 1.5329 2.3918
-3.8565 1.3900 2.3918
-3.9019 1.2457 2.3918
-3.9425 1.1000 2.3918
-3.9783 0.9531 2.3918
-4.0092 0.8053 2.3918
-4.0353 0.6565 2.3918
-4.0564 0.5069 2.3918
-4.0727 0.3568 2.3918
-4.0840 0.2062 2.3918
-4.0904 0.0552 2.3918
-4.0919 -0.0959 2.3918
-4.0884 -0.2471 2.3918
-4.0799 -0.3981 2.3918
-4.0665 -0.5490 2.3918
-4.0481 -0.6994 2.3918
-4.0248 -0.8493 2.3918
-3.9965 -0.9985 2.3918
-3.9633 -1.1470 2.3918
-3.9251 -1.2944 2.3918
-3.8821 -1.4407 2.3918
-3.8341 -1.5857 2.3918
-3.7813 -1.7294 2.3918
-3.7237 -1.8714 2.3918
-3.6613 -2.0118 2.3918
-3.5941 -2.1503 2.3918
-3.5223 -2.2867 2.3918
-3.4457 -2.4211 2.3918
-3.3645 -2.5530 2.3918
-3.2787 -2.6826 2.3918
-3.1885 -2.8095 2.3918
-3.0937 -2.9336 2.3918
-2.9946 -3.0548 2.3918
-2.8912 -3.1730 2.3918
-2.7835 -3.2879 2.3918
-2.6717 -3.3994 2.3918
-2.5558 -3.5074 2.3918
-2.4360 -3.6117 2.3918
-2.3122 -3.7122 2.3918
-2.1847 -3.8087 2.3918
-2.0536 -3.9011 2.3918
-1.9189 -3.9892 2.3918
-1.7807 -4.0729 2.3918
-1.6393 -4.1521 2.3918
-1.4947 -4.2266 2.3918
-1.3472 -4.2962 2.3918
-1.1967 -4.3609 2.3918
-1.0436 -4.4205 2.3918
-0.8879 -4.4749 2.3918
-0.7298 -4.5239 2.3918
-0.5695 -4.5675 2.3918
-0.4072 -4.6055 2.3918
-0.2431 -4.6378 2.3918
-0.0773 -4.6643 2.3918
0.0899 -4.6850 2.3918
0.2584 -4.6997 2.3918
0.4278 -4.7083 2.3918
0.5981 -4.7108 2.3918
0.7689 -4.7071 2.3918
0.9400 -4.6971 2.3918
1.1113 -4.6809 2.3918
1.2824 -4.6582 2.3918
1.4531 -4.6292 2.3918
1.6231 -4.5938 2.3918
1.7923 -4.5520 2.3918
1.9603 -4.5037 2.3918
2.1270 -4.4490 2.3918
2.2919 -4.3879 2.3918
2.4549 -4.3205 2.3918
2.6157 -4.2468 2.3918
2.7740 -4.1668 2.3918
2.9295 -4.0805 2.3918
3.0820 -3.9884 2.3918
3.2313 -3.8898 2.3918
3.3771 -3.7856 2.3918
3.5190 -3.6756 2.3918
3.6569 -3.5598 2.3918
3.7905 -3.4386 2.3918
3.9195 -3.3120 2.3918
4.0437 -3.1803 2.3918
4.1629 -3.0435 2.3918
4.2769 -2.9019 2.3918
4.3853 -2.7558 2.3918
4.4881 -2.6052 2.3918
4.5850 -2.4505 2.3918
4.6759 -2.2920 2.3918
4.7605 -2.1297 2.3918
4.8386 -1.9641 2.3918
4.9102 -1.7953 2.3918
4.9751 -1.6237 2.3918
5.0332 -1.4496 2.3918
5.0843 -1.2732 2.3918
5.1284 -1.0948 2.3918
5.1653 -0.9147 2.3918
5.1950 -0.7333 2.3918
5.2175 -0.5508 2.3918
5.2327 -0.3676 2.3918
5.2405 -0.1840 2.3918
5.2411 -0.0002 2.3918
5.2343 0.1833 2.3918
5.2202 0.3663 2.3918
5.1989 0.5486 2.3918
5.1704 0.7296 2.3918
5.1348 0.9093 2.3918
5.0921 1.0872 2.3918
5.0425 1.2630 2.3918
4.9860 1.4366 2.3918
4.9228 1.6076 2.3918
4.8531 1.7757 2.3918
4.7769 1.9406 2.3918
4.6944 2.1022 2.3918
4.6059 2.2602 2.3918
4.5115 2.4143 2.3918
4.4113 2.5643 2.3918
4.3057 2.7100 2.3918
4.1947 2.8512 2.3918
4.0787 2.9876 2.3918
3.9578 3.1193 2.3918
3.8322 3.2459 2.3918
3.7023 3.3672 2.3918
3.5681 3.4833 2.3918
3.4301 3.5939 2.3918
3.2884 3.6988 2.3918
3.1433 3.7981 2.3918
2.9949 3.8916 2.3918
2.8437 3.9792 2.3918
2.6898 4.0608 2.3918
0.9605 1.5682 0.9068
0.9035 1.6002 0.9100
0.8455 1.6301 0.9132
0.7863 1.6578 0.9164
0.7263 1.6835 0.9197
0.6653 1.7069 0.9230
0.6035 1.7281 0.9263
0.5410 1.7471 0.9297
0.4778 1.7638 0.9330
0.4141 1.7782 0.9364
0.3499 1.7903 0.9398
0.2853 1.8001 0.9432
0.2204 1.8076 0.9465
0.1552 1.8127 0.9499
0.0899 1.8154 0.9532
0.0246 1.8158 0.9566
-0.0408 1.8138 0.9599
-0.1060 1.8095 0.9632
-0.1710 1.8028 0.9664
-0.2358 1.7938 0.9696
-0.3001 1.7824 0.9728
-0.3641 1.7687 0.9760
-0.4275 1.7527 0.9790
-0.4902 1.7345 0.9821
-0.5523 1.7140 0.9851
-0.6136 1.6912 0.9880
-0.6740 1.6663 0.9909
-0.7335 1.6392 0.9937
-0.7920 1.6099 0.9964
-0.8494 1.5786 0.9991
-2.1626 3.6898 2.3918
-2.2882 3.5964 2.3918
-2.4102 3.4990 2.3918
-2.5286 3.3979 2.3918
-2.6432 3.2931 2.3918
-2.7541 3.1848 2.3918
-2.8610 3.0731 2.3918
-2.9638 2.9583 2.3918
-3.0627 2.8403 2.3918
-3.1573 2.7193 2.3918
-3.2477 2.5955 2.3918
-3.3338 2.4690 2.3918
-3.4155 2.3400 2.3918
-3.4929 2.2086 2.3918
-3.5657 2.0748 2.3918
-3.6340 1.9390 2.3918
-3.6977 1.8011 2.3918
-3.7568 1.6614 2.3918
-3.8112 1.5199 2.3918
-3.8609 1.3769 2.3918
-3.9058 1.2324 2.3918
-3.9460 1.0866 2.3918
-3.9813 0.9397 2.3918
-4.0118 0.7917 2.3918
-4.0374 0.6429 2.3918
-4.0581 0.4933 2.3918
-4.0739 0.3431 2.3918
-4.0848 0.1924 2.3918
-4.0908 0.0415 2.3918
-4.0918 -0.1097 2.3918
-4.0878 -0.2608 2.3918
-4.0789 -0.4119 2.3918
-4.0650 -0.5627 2.3918
-4.0462 -0.7131 2.3918
-4.0224 -0.8630 2.3918
-3.9936 -1.0121 2.3918
-3.9600 -1.1604 2.3918
-3.9214 -1.3078 2.3918
-3.8779 -1.4540 2.3918
-3.8295 -1.5989 2.3918
-3.7763 -1.7424 2.3918
-3.7182 -1.8843 2.3918
-3.6554 -2.0245 2.3918
-3.5878 -2.1628 2.3918
-3.5155 -2.2991 2.3918
-3.4385 -2.4332 2.3918
-3.3569 -2.5650 2.3918
-3.2707 -2.6943 2.3918
-3.1800 -2.8209 2.3918
-3.0849 -2.9448 2.3918
-2.9854 -3.0657 2.3918
-2.8816 -3.1836 2.3918
-2.7735 -3.2982 2.3918
-2.6613 -3.4094 2.3918
-2.5451 -3.5171 2.3918
-2.4248 -3.6210 2.3918
-2.3008 -3.7212 2.3918
-2.1729 -3.8173 2.3918
-2.0414 -3.9093 2.3918
-1.9064 -3.9970 2.3918
-1.7680 -4.0804 2.3918
-1.6263 -4.1591 2.3918
-1.4814 -4.2331 2.3918
-1.3336 -4.3023 2.3918
-1.1829 -4.3665 2.3918
-1.0295 -4.4257 2.3918
-0.8735 -4.4796 2.3918
-0.7152 -4.5281 2.3918
-0.5548 -4.5712 2.3918
-0.3923 -4.6086 2.3918
-0.2280 -4.6404 2.3918
-0.0621 -4.6664 2.3918
0.1052 -4.6866 2.3918
0.2738 -4.7007 2.3918
0.4433 -4.7088 2.3918
0.6136 -4.7107 2.3918
0.7845 -4.7064 2.3918
0.9556 -4.6959 2.3918
1.1269 -4.6791 2.3918
1.2979 -4.6559 2.3918
1.4686 -4.6263 2.3918
1.6386 -4.5903 2.3918
1.8077 -4.5478 2.3918
1.9756 -4.4990 2.3918
2.1421 -4.4437 2.3918
2.3068 -4.3821 2.3918
2.4696 -4.3141 2.3918
2.6302 -4.2397 2.3918
2.7883 -4.1591 2.3918
2.9436 -4.0724 2.3918
3.0958 -3.9795 2.3918
3.2448 -3.8806 2.3918
3.3902 -3.7758 2.3918
3.5317 -3.6652 2.3918
3.6692 -3.5490 2.3918
3.8024 -3.4273 2.3918
3.9310 -3.3002 2.3918
4.0548 -3.1680 2.3918
4.1735 -3.0308 2.3918
4.2870 -2.8888 2.3918
4.3949 -2.7422 2.3918
4.4972 -2.5913 2.3918
4.5936 -2.4362 2.3918
4.6838 -2.2773 2.3918
4.7678 -2.1148 2.3918
4.8454 -1.9488 2.3918
4.9164 -1.7798 2.3918
4.9807 -1.6080 2.3918
5.0381 -1.4336 2.3918
5.0886 -1.2570 2.3918
5.1320 -1.0784 2.3918
5.1683 -0.8982 2.3918
5.1974 -0.7167 2.3918
5.2192 -0.5342 2.3918
5.2337 -0.3509 2.3918
5.2409 -0.1672 2.3918
5.2408 0.0165 2.3918
5.2333 0.2000 2.3918
5.2186 0.3830 2.3918
5.1966 0.5651 2.3918
5.1675 0.7461 2.3918
5.1312 0.9256 2.3918
5.0878 1.1033 2.3918
5.0376 1.2790 2.3918
4.9805 1.4523 2.3918
4.9167 1.6230 2.3918
4.8464 1.7909 2.3918
4.7696 1.9555 2.3918
4.6866 2.1168 2.3918
4.5976 2.2744 2.3918
4.5026 2.4281 2.3918
4.4019 2.5777 2.3918
4.2958 2.7230 2.3918
4.1844 2.8638 2.3918
4.0679 2.9999 2.3918
3.9465 3.1310 2.3918
3.8205 3.2572 2.3918
3.6902 3.3780 2.3918
3.5557 3.4936 2.3918
3.4173 3.6037 2.3918
3.2753 3.7081 2.3918
3.1299 3.8069 2.3918
2.9813 3.8998 2.3918
2.8298 3.9869 2.3918
2.6756 4.0680 2.3918
0.9553 1.5712 0.9071
0.8983 1.6030 0.9103
0.8401 1.6327 0.9135
0.7809 1.6603 0.9167
0.7207 1.6857 0.9200
0.6597 1.7089 0.9233
0.5978 1.7299 0.9266
0.5353 1.7487 0.9300
0.4720 1.7652 0.9333
0.4083 1.7794 0.9367
0.3440 1.7913 0.9401
0.2794 1.8009 0.9435
0.2144 1.8081 0.9468
0.1493 1.8130 0.9502
0.0840 1.8155 0.9535
0.0186 1.8157 0.9569
-0.0467 1.8135 0.9602
-0.1119 1.8090 0.9635
-0.1769 1.8021 0.9667
-0.2416 1.7928 0.9699
-0.3060 1.7812 0.9731
-0.3699 1.7673 0.9762
-0.4332 1.7512 0.9793
-0.4959 1.7327 0.9824
-0.5579 1.7120 0.9853
-0.6192 1.6890 0.9883
-0.6795 1.6639 0.9911
-0.7389 1.6366 0.9939
-0.7973 1.6072 0.9967
0.6955 1.5918 0.9205
0.6378 1.6142 0.9236
0.5794 1.6345 0.9268
0.5203 1.6526 0.9299
0.4605 1.6687 0.9331
0.4002 1.6825 0.9363
0.3394 1.6942 0.9395
0.2783 1.7036 0.9427
0.2168 1.7109 0.9459
0.1551 1.7159 0.9491
0.0933 1.7187 0.9522
0.0314 1.7193 0.9554
-0.0305 1.7176 0.9585
-0.0922 1.7137 0.9616
-0.1538 1.7076 0.9647
-0.2152 1.6992 0.9678
-0.2762 1.6886 0.9708
-0.3367 1.6759 0.9738
-0.3968 1.6609 0.9767
-0.4563 1.6438 0.9796
-0.5152 1.6246 0.9824
-0.5733 1.6033 0.9852
-0.6306 1.5798 0.9879
-0.6870 1.5544 0.9906
-0.7425 1.5269 0.9932
-0.7970 1.4974 0.9957
-0.8503 1.4659 0.9982
-2.1575 3.4248 2.3918
-2.2740 3.3330 2.3918
-2.3872 3.2376 2.3918
-2.4967 3.1387 2.3918
-2.6027 3.0364 2.3918
-2.7050 2.9308 2.3918
-2.8034 2.8222 2.3918
-2.8980 2.7105 2.3918
-2.9887 2.5959 2.3918
-3.0753 2.4787 2.3918
-3.1578 2.3588 2.3918
-3.2362 2.2365 2.3918
-3.3104 2.1118 2.3918
-3.3802 1.9849 2.3918
-3.4458 1.8559 2.3918
-3.5070 1.7250 2.3918
-3.5638 1.5923 2.3918
-3.6161 1.4579 2.3918
-3.6640 1.3220 2.3918
-3.7073 1.1847 2.3918
-3.7460 1.0461 2.3918
-3.7801 0.9063 2.3918
-3.8096 0.7656 2.3918
-3.8344 0.6240 2.3918
-3.8546 0.4817 2.3918
-3.8700 0.3388 2.3918
-3.8808 0.1955 2.3918
-3.8868 0.0518 2.3918
-3.8881 -0.0920 2.3918
-3.8847 -0.2358 2.3918
-3.8765 -0.3796 2.3918
-3.8636 -0.5231 2.3918
-3.8460 -0.6662 2.3918
-3.8236 -0.8088 2.3918
-3.7964 -0.9508 2.3918
-3.7646 -1.0919 2.3918
-3.7281 -1.2321 2.3918
-3.6869 -1.3712 2.3918
-3.6410 -1.5090 2.3918
-3.5905 -1.6455 2.3918
-3.5354 -1.7805 2.3918
-3.4757 -1.9138 2.3918
-3.4115 -2.0453 2.3918
-3.3428 -2.1749 2.3918
-3.2697 -2.3023 2.3918
-3.1921 -2.4275 2.3918
-3.1102 -2.5504 2.3918
-3.0241 -2.6706 2.3918
-2.9337 -2.7883 2.3918
-2.8391 -2.9031 2.3918
-2.7405 -3.0149 2.3918
-2.6378 -3.1236 2.3918
-2.5312 -3.2291 2.3918
-2.4208 -3.3313 2.3918
-2.3066 -3.4297 2.3918
-2.1888 -3.5246 2.3918
-2.0674 -3.6157 2.3918
-1.9426 -3.7028 2.3918
-1.8145 -3.7858 2.3918
-1.6831 -3.8646 2.3918
-1.5487 -3.9391 2.3918
-1.4113 -4.0090 2.3918
-1.2711 -4.0743 2.3918
-1.1282 -4.1349 2.3918
-0.9828 -4.1907 2.3918
-0.8351 -4.2415 2.3918
-0.6851 -4.2872 2.3918
-0.5331 -4.3276 2.3918
-0.3793 -4.3628 2.3918
-0.2238 -4.3926 2.3918
-0.0667 -4.4169 2.3918
0.0916 -4.4356 2.3918
0.2510 -4.4487 2.3918
0.4113 -4.4560 2.3918
0.5723 -4.4576 2.3918
0.7338 -4.4532 2.3918
0.8955 -4.4430 2.3918
1.0573 -4.4268 2.3918
1.2189 -4.4045 2.3918
1.3800 -4.3763 2.3918
1.5405 -4.3421 2.3918
1.7001 -4.3018 2.3918
1.8586 -4.2554 2.3918
2.0156 -4.2030 2.3918
2.1710 -4.1446 2.3918
2.3246 -4.0802 2.3918
2.4760 -4.0098 2.3918
2.6250 -3.9337 2.3918
2.7714 -3.8517 2.3918
2.9149 -3.7640 2.3918
3.0554 -3.6705 2.3918
3.1924 -3.5717 2.3918
3.3258 -3.4674 2.3918
3.4551 -3.3592 2.3918
3.5809 -3.2431 2.3918
3.7021 -3.1234 2.3918
3.8188 -2.9988 2.3918
3.9307 -2.8695 2.3918
4.0377 -2.7358 2.3918
4.1395 -2.5978 2.3918
4.2360 -2.4557 2.3918
4.3270 -2.3098 2.3918
4.4122 -2.1602 2.3918
4.4916 -2.0072 2.3918
4.5650 -1.8510 2.3918
4.6322 -1.6920 2.3918
4.6931 -1.5303 2.3918
4.7476 -1.3662 2.3918
4.7956 -1.2000 2.3918
4.8370 -1.0320 2.3918
4.8717 -0.8623 2.3918
4.8996 -0.6915 2.3918
4.9208 -0.5196 2.3918
4.9351 -0.3471 2.3918
4.9426 -0.1741 2.3918
4.9432 -0.0011 2.3918
4.9370 0.1718 2.3918
4.9240 0.3442 2.3918
4.9041 0.5158 2.3918
4.8775 0.6864 2.3918
4.8443 0.8557 2.3918
4.8044 1.0234 2.3918
4.7580 1.1892 2.3918
4.7052 1.3528 2.3918
4.6461 1.5141 2.3918
4.5808 1.6726 2.3918
4.5095 1.8283 2.3918
4.4323 1.9808 2.3918
4.3493 2.1300 2.3918
4.2608 2.2756 2.3918
4.1669 2.4173 2.3918
4.0678 2.5551 2.3918
3.9637 2.6886 2.3918
3.8548 2.8178 2.3918
3.7413 2.9424 2.3918
3.6233 3.0623 2.3918
3.5013 3.1774 2.3918
3.3752 3.2875 2.3918
3.2454 3.3924 2.3918
3.1121 3.4922 2.3918
2.9756 3.5865 2.3918
2.8359 3.6755 2.3918
2.6935 3.7589 2.3918
0.9649 1.4527 0.9056
0.9121 1.4848 0.9086
0.8582 1.5151 0.9116
0.8032 1.5434 0.9146
0.7472 1.5697 0.9177
0.6903 1.5939 0.9208
0.6325 1.6161 0.9239
0.5740 1.6362 0.9271
0.5148 1.6542 0.9302
0.4550 1.6700 0.9334
0.3947 1.6837 0.9366
0.3339 1.6951 0.9398
0.2727 1.7044 0.9430
0.2112 1.7114 0.9462
0.1495 1.7163 0.9494
0.0877 1.7188 0.9525
0.0258 1.7192 0.9557
-0.0361 1.7173 0.9588
-0.0979 1.7132 0.9619
-0.1594 1.7069 0.9650
-0.2207 1.6983 0.9681
-0.2817 1.6876 0.9711
-0.3422 1.6746 0.9740
-0.4023 1.6595 0.9770
-0.4617 1.6422 0.9799
-0.5205 1.6228 0.9827
-0.5786 1.6012 0.9855
-0.6358 1.5776 0.9882
-0.6921 1.5519 0.9908
-0.7475 1.5243 0.9934
-0.8019 1.4946 0.9959
-0.8551 1.4630 0.9984
-2.1682 3.4165 2.3918
-2.2845 3.3244 2.3918
-2.3973 3.2287 2.3918
-2.5066 3.1295 2.3918
-2.6122 3.0269 2.3918
-2.7141 2.9210 2.3918
-2.8122 2.8121 2.3918
-2.9065 2.7002 2.3918
-2.9967 2.5854 2.3918
-3.0830 2.4679 2.3918
-3.1651 2.3477 2.3918
-3.2431 2.2252 2.3918
-3.3169 2.1003 2.3918
-3.3864 1.9732 2.3918
-3.4516 1.8440 2.3918
-3.5124 1.7130 2.3918
-3.5688 1.5801 2.3918
-3.6207 1.4456 2.3918
-3.6681 1.3095 2.3918
-3.7110 1.1721 2.3918
-3.7493 1.0334 2.3918
-3.7830 0.8935 2.3918
-3.8120 0.7527 2.3918
-3.8365 0.6111 2.3918
-3.8562 0.4687 2.3918
-3.8712 0.3258 2.3918
-3.8816 0.1824 2.3918
-3.8872 0.0387 2.3918
-3.8880 -0.1051 2.3918
-3.8842 -0.2490 2.3918
-3.8756 -0.3927 2.3918
-3.8622 -0.5362 2.3918
-3.8441 -0.6792 2.3918
-3.8213 -0.8218 2.3918
-3.7937 -0.9637 2.3918
-3.7615 -1.1047 2.3918
-3.7245 -1.2448 2.3918
-3.6829 -1.3838 2.3918
-3.6366 -1.5215 2.3918
-3.5857 -1.6579 2.3918
-3.5301 -1.7927 2.3918
-3.4700 -1.9259 2.3918
-3.4054 -2.0572 2.3918
-3.3363 -2.1866 2.3918
-3.2628 -2.3138 2.3918
-3.1848 -2.4388 2.3918
-3.1026 -2.5614 2.3918
-3.0160 -2.6815 2.3918
-2.9252 -2.7988 2.3918
-2.8303 -2.9134 2.3918
-2.7313 -3.0250 2.3918
-2.6283 -3.1334 2.3918
-2.5213 -3.2386 2.3918
-2.4106 -3.3404 2.3918
-2.2960 -3.4386 2.3918
-2.1779 -3.5331 2.3918
-2.0562 -3.6238 2.3918
-1.9311 -3.7105 2.3918
-1.8026 -3.7932 2.3918
-1.6710 -3.8716 2.3918
-1.5363 -3.9456 2.3918
-1.3986 -4.0152 2.3918
-1.2582 -4.0801 2.3918
-1.1151 -4.1402 2.3918
-0.9695 -4.1955 2.3918
-0.8215 -4.2458 2.3918
-0.6713 -4.2911 2.3918
-0.5192 -4.3311 2.3918
-0.3652 -4.3658 2.3918
-0.2095 -4.3951 2.3918
-0.0524 -4.4189 2.3918
0.1061 -4.4371 2.3918
0.2656 -4.4496 2.3918
0.4260 -4.4564 2.3918
0.5870 -4.4574 2.3918
0.7485 -4.4525 2.3918
0.9103 -4.4417 2.3918
1.0721 -4.4250 2.3918
1.2336 -4.4022 2.3918
1.3947 -4.3734 2.3918
1.5551 -4.3386 2.3918
1.7146 -4.2977 2.3918
1.8729 -4.2508 2.3918
2.0299 -4.1979 2.3918
2.1851 -4.1389 2.3918
2.3385 -4.0741 2.3918
2.4897 -4.0032 2.3918
2.6385 -3.9265 2.3918
2.7846 -3.8439 2.3918
2.9279 -3.7557 2.3918
3.0679 -3.6621 2.3918
3.2046 -3.5627 2.3918
3.3378 -3.4574 2.3918
3.4670 -3.3476 2.3918
3.5921 -3.2324 2.3918
3.7129 -3.1122 2.3918
3.8292 -2.9872 2.3918
3.9407 -2.8575 2.3918
4.0472 -2.7234 2.3918
4.1486 -2.5850 2.3918
4.2445 -2.4426 2.3918
4.3350 -2.2963 2.3918
4.4197 -2.1464 2.3918
4.4985 -1.9931 2.3918
4.5714 -1.8366 2.3918
4.6380 -1.6773 2.3918
4.6983 -1.5154 2.3918
4.7522 -1.3511 2.3918
4.7996 -1.1847 2.3918
4.8404 -1.0165 2.3918
4.8745 -0.8468 2.3918
4.9018 -0.6759 2.3918
4.9224 -0.5039 2.3918
4.9361 -0.3313 2.3918
4.9430 -0.1584 2.3918
4.9430 0.0147 2.3918
4.9361 0.1875 2.3918
4.9224 0.3599 2.3918
4.9020 0.5314 2.3918
4.8748 0.7019 2.3918
4.8409 0.8711 2.3918
4.8004 1.0386 2.3918
4.7534 1.2042 2.3918
4.7000 1.3676 2.3918
4.6404 1.5286 2.3918
4.5745 1.6870 2.3918
4.5027 1.8424 2.3918
4.4249 1.9946 2.3918
4.3415 2.1434 2.3918
4.2525 2.2886 2.3918
4.1581 2.4301 2.3918
4.0585 2.5674 2.3918
3.9540 2.7006 2.3918
3.8446 2.8294 2.3918
3.7307 2.9536 2.3918
3.6124 3.0731 2.3918
3.4899 3.1877 2.3918
3.3635 3.2973 2.3918
3.2334 3.4017 2.3918
3.0998 3.5010 2.3918
2.9629 3.5949 2.3918
2.8231 3.6833 2.3918
2.6804 3.7662 2.3918
