ply
format ascii 1.0
element vertex 2179
property float32 x
property float32 y
property float32 z
end_header
1.7086 -6.6199 2.3953
1.9442 -6.5530 2.3953
2.1771 -6.4776 2.3953
2.4070 -6.3937 2.3953
2.6337 -6.3015 2.3953
2.8568 -6.2011 2.3953
3.0760 -6.0926 2.3953
3.2910 -5.9763 2.3953
3.5016 -5.8522 2.3953
3.7075 -5.7206 2.3953
3.9083 -5.5817 2.3953
4.1039 -5.4355 2.3953
4.2939 -5.2824 2.3953
4.4781 -5.1225 2.3953
4.6564 -4.9562 2.3953
4.8283 -4.7835 2.3953
4.9938 -4.6048 2.3953
5.1527 -4.4203 2.3953
5.3046 -4.2302 2.3953
5.4494 -4.0348 2.3953
5.5870 -3.8344 2.3953
5.7172 -3.6293 2.3953
5.8398 -3.4198 2.3953
5.9546 -3.2060 2.3953
6.0616 -2.9884 2.3953
6.1560 -2.7651 2.3935
6.1632 -2.5067 2.3615
6.1696 -2.2550 2.3331
6.1754 -2.0091 2.3082
6.1805 -1.7683 2.2866
6.1851 -1.5318 2.2682
6.1922 -1.2997 2.2539
6.2031 -1.0709 2.2441
6.2294 -0.8468 2.2429
6.2511 -0.6222 2.2429
6.2646 -0.3972 2.2429
6.2701 -0.1719 2.2429
6.2674 0.0531 2.2429
6.2568 0.2780 2.2429
6.2380 0.5020 2.2429
6.2124 0.7252 2.2433
6.2040 0.9512 2.2528
6.1982 1.1795 2.2663
6.1960 1.4114 2.2843
6.1932 1.6469 2.3052
6.1899 1.8865 2.3294
6.1859 2.1310 2.3569
6.1814 2.3812 2.3879
6.1063 2.6079 2.3953
6.0045 2.8237 2.3953
5.8952 3.0356 2.3953
5.7785 3.2434 2.3953
5.6546 3.4468 2.3953
5.5236 3.6455 2.3953
5.3857 3.8393 2.3953
5.2411 4.0280 2.3953
5.0899 4.2115 2.3953
4.9325 4.3893 2.3953
4.7689 4.5614 2.3953
4.5994 4.7274 2.3953
4.4242 4.8873 2.3953
4.2435 5.0409 2.3953
4.0576 5.1877 2.3953
3.8667 5.3279 2.3953
3.6710 5.4614 2.3953
3.4709 5.5878 2.3953
3.2664 5.7068 2.3953
3.0579 5.8187 2.3953
2.8457 5.9230 2.3953
2.6300 6.0198 2.3953
2.4111 6.1088 2.3953
0.8802 2.4889 0.9631
0.7902 2.5192 0.9634
0.6991 2.5462 0.9636
0.6071 2.5699 0.9639
0.5142 2.5902 0.9641
0.4207 2.6072 0.9643
0.3267 2.6209 0.9644
0.2322 2.6311 0.9645
0.1373 2.6379 0.9646
0.0423 2.6413 0.9647
-0.0527 2.6412 0.9647
-0.1478 2.6377 0.9647
-0.2426 2.6308 0.9647
-0.3371 2.6204 0.9646
-0.4312 2.6067 0.9645
-0.5247 2.5895 0.9644
-0.6175 2.5690 0.9642
-0.7096 2.5452 0.9640
-0.8007 2.5180 0.9638
-0.8908 2.4876 0.9636
-2.4360 6.1015 2.3953
-2.6547 6.0118 2.3953
-2.8702 5.9143 2.3953
-3.0822 5.8093 2.3953
-3.2904 5.6968 2.3953
-3.4946 5.5770 2.3953
-3.6945 5.4500 2.3953
-3.8898 5.3160 2.3953
-4.0804 5.1751 2.3953
-4.2660 5.0274 2.3953
-4.4462 4.8732 2.3953
-4.6210 4.7127 2.3953
-4.7901 4.5460 2.3953
-4.9532 4.3733 2.3953
-5.1102 4.1948 2.3953
-5.2609 4.0108 2.3953
-5.4050 3.8216 2.3953
-5.5424 3.6271 2.3953
-5.6728 3.4278 2.3953
-5.7961 3.2240 2.3953
-5.9122 3.0153 2.3953
-6.0209 2.8037 2.3953
-6.1219 2.5866 2.3953
-6.2153 2.3667 2.3953
-6.3008 2.1434 2.3953
-6.3784 1.9171 2.3953
-6.4478 1.6880 2.3953
-6.5091 1.4564 2.3953
-6.5621 1.2226 2.3953
-6.6067 0.9870 2.3953
-6.6429 0.7497 2.3953
-6.6706 0.5111 2.3953
-6.6897 0.2715 2.3953
-6.7002 0.0312 2.3953
-6.7021 -0.2094 2.3953
-6.6953 -0.4502 2.3953
-6.6799 -0.6907 2.3953
-6.6558 -0.9306 2.3953
-6.6231 -1.1697 2.3953
-6.5818 -1.4077 2.3953
-6.5319 -1.6441 2.3953
-6.4734 -1.8787 2.3953
-6.4065 -2.1112 2.3953
-6.3312 -2.3413 2.3953
-6.2476 -2.5687 2.3953
-6.1557 -2.7930 2.3953
-6.0557 -3.0140 2.3953
-5.9478 -3.2313 2.3953
-5.8319 -3.4448 2.3953
-5.7084 -3.6540 2.3953
-5.5772 -3.8587 2.3953
-5.4387 -4.0586 2.3953
-5.2928 -4.2534 2.3953
-5.1400 -4.4430 2.3953
-4.9802 -4.6269 2.3953
-4.8138 -4.8050 2.3953
-4.6410 -4.9770 2.3953
-4.4619 -5.1427 2.3953
-4.2768 -5.3018 2.3953
-4.0860 -5.4541 2.3953
-3.8897 -5.5995 2.3953
-3.6881 -5.7376 2.3953
-3.4816 -5.8683 2.3953
-3.2703 -5.9915 2.3953
-3.0547 -6.1068 2.3953
-2.8349 -6.2143 2.3953
-2.6112 -6.3137 2.3953
-2.3840 -6.4049 2.3953
-2.1536 -6.4877 2.3953
-1.9203 -6.5621 2.3953
-1.6844 -6.6279 2.3953
-1.4462 -6.6850 2.3953
-1.2060 -6.7334 2.3953
-0.9642 -6.7730 2.3953
-0.7211 -6.8037 2.3953
-0.4770 -6.8255 2.3953
-0.2322 -6.8384 2.3953
0.0128 -6.8423 2.3953
0.2578 -6.8372 2.3953
0.5025 -6.8232 2.3953
0.7464 -6.8003 2.3953
0.9894 -6.7684 2.3953
1.2310 -6.7277 2.3953
1.4709 -6.6781 2.3953
1.7088 -6.6199 2.3953
1.9443 -6.5530 2.3953
2.1772 -6.4775 2.3953
2.4072 -6.3936 2.3953
2.6338 -6.3014 2.3953
2.8569 -6.2010 2.3953
3.0761 -6.0926 2.3953
3.2912 -5.9762 2.3953
3.5018 -5.8522 2.3953
3.7076 -5.7205 2.3953
3.9084 -5.5816 2.3953
4.1040 -5.4354 2.3953
4.2940 -5.2823 2.3953
4.4783 -5.1224 2.3953
4.6565 -4.9561 2.3953
4.8285 -4.7834 2.3953
4.9939 -4.6047 2.3953
5.1528 -4.4201 2.3953
5.3047 -4.2301 2.3953
5.4495 -4.0347 2.3953
5.5871 -3.8343 2.3953
5.7173 -3.6292 2.3953
5.8399 -3.4196 2.3953
5.9547 -3.2059 2.3953
6.0617 -2.9883 2.3953
6.1560 -2.7649 2.3935
6.1632 -2.5066 2.3614
6.1696 -2.2549 2.3331
6.1754 -2.0090 2.3082
6.1806 -1.7682 2.2866
6.1851 -1.5317 2.2681
6.1922 -1.2996 2.2539
6.2031 -1.0710 2.2441
6.2294 -0.8467 2.2429
6.2511 -0.6222 2.2429
6.2646 -0.3971 2.2429
6.2701 -0.1718 2.2429
6.2674 0.0534 2.2429
6.2567 0.2780 2.2429
6.2380 0.5022 2.2429
6.2124 0.7254 2.2433
6.2040 0.9513 2.2528
6.1982 1.1797 2.2663
6.1960 1.4116 2.2843
6.1932 1.6470 2.3053
6.1899 1.8867 2.3294
6.1859 2.1312 2.3569
6.1814 2.3813 2.3880
6.1062 2.6080 2.3953
6.0045 2.8238 2.3953
5.8952 3.0358 2.3953
5.7785 3.2435 2.3953
5.6545 3.4470 2.3953
5.5235 3.6457 2.3953
5.3856 3.8395 2.3953
5.2410 4.0283 2.3953
5.0898 4.2116 2.3953
4.9324 4.3895 2.3953
4.7688 4.5615 2.3953
4.5993 4.7276 2.3953
4.4241 4.8875 2.3953
4.2434 5.0410 2.3953
4.0575 5.1880 2.3953
3.8666 5.3281 2.3953
3.6709 5.4615 2.3953
3.4707 5.5878 2.3953
3.2663 5.7070 2.3953
3.0578 5.8187 2.3953
2.8456 5.9231 2.3953
2.6299 6.0198 2.3953
2.4109 6.1089 2.3953
0.8802 2.4889 0.9631
0.7901 2.5192 0.9634
0.6990 2.5462 0.9636
0.6070 2.5699 0.9639
0.5142 2.5902 0.9641
0.4207 2.6073 0.9643
0.3266 2.6209 0.9644
0.2321 2.6311 0.9645
0.1373 2.6379 0.9646
0.0423 2.6413 0.9647
-0.0528 2.6412 0.9647
-0.1478 2.6377 0.9647
-0.2426 2.6308 0.9647
-0.3372 2.6204 0.9646
-0.4312 2.6066 0.9645
-0.5248 2.5895 0.9644
-0.6176 2.5690 0.9642
-0.7096 2.5451 0.9640
-0.8008 2.5180 0.9638
-0.8908 2.4875 0.9636
-2.4361 6.1015 2.3953
-2.6549 6.0117 2.3953
-2.8704 5.9143 2.3953
-3.0823 5.8092 2.3953
-3.2905 5.6968 2.3953
-3.4947 5.5769 2.3953
-3.6946 5.4499 2.3953
-3.8900 5.3159 2.3953
-4.0805 5.1749 2.3953
-4.2661 5.0273 2.3953
-4.4464 4.8731 2.3953
-4.6211 4.7126 2.3953
-4.7902 4.5459 2.3953
-4.9534 4.3732 2.3953
-5.1103 4.1947 2.3953
-5.2610 4.0107 2.3953
-5.4051 3.8218 2.3953
-5.5424 3.6268 2.3953
-5.6729 3.4280 2.3953
-5.7962 3.2235 2.3953
-5.9123 3.0153 2.3953
-6.0209 2.8027 2.3953
-6.1220 2.5865 2.3953
-6.2154 2.3665 2.3953
-6.3009 2.1433 2.3953
-6.3784 1.9169 2.3953
-6.4479 1.6879 2.3953
-6.5091 1.4563 2.3953
-6.5621 1.2225 2.3953
-6.6067 0.9868 2.3953
-6.6429 0.7495 2.3953
-6.6706 0.5109 2.3953
-6.6897 0.2713 2.3953
-6.7002 0.0311 2.3953
-6.7021 -0.2096 2.3953
-6.6953 -0.4503 2.3953
-6.6799 -0.6908 2.3953
-6.6558 -0.9308 2.3953
-6.6231 -1.1699 2.3953
-6.5817 -1.4078 2.3953
-6.5318 -1.6442 2.3953
-6.4734 -1.8789 2.3953
-6.4065 -2.1114 2.3953
-6.3311 -2.3415 2.3953
-6.2475 -2.5688 2.3953
-6.1556 -2.7931 2.3953
-6.0557 -3.0141 2.3953
-5.9477 -3.2315 2.3953
-5.8319 -3.4449 2.3953
-5.7083 -3.6541 2.3953
-5.5771 -3.8588 2.3953
-5.4386 -4.0587 2.3953
-5.2927 -4.2536 2.3953
-5.1399 -4.4431 2.3953
-4.9801 -4.6270 2.3953
-4.8137 -4.8051 2.3953
-4.6409 -4.9771 2.3953
-4.4618 -5.1428 2.3953
-4.2767 -5.3019 2.3953
-4.0859 -5.4542 2.3953
-3.8896 -5.5996 2.3953
-3.6880 -5.7377 2.3953
-3.4814 -5.8684 2.3953
-3.2702 -5.9915 2.3953
-3.0545 -6.1069 2.3953
-2.8347 -6.2144 2.3953
-2.6111 -6.3138 2.3953
-2.3839 -6.4050 2.3953
-2.1535 -6.4878 2.3953
-1.9202 -6.5621 2.3953
-1.6842 -6.6279 2.3953
-1.4460 -6.6851 2.3953
-1.2058 -6.7335 2.3953
-0.9640 -6.7730 2.3953
-0.7209 -6.8038 2.3953
-0.4768 -6.8256 2.3953
-0.2321 -6.8384 2.3953
0.0118 -6.3780 2.3953
0.2401 -6.3733 2.3953
0.4681 -6.3602 2.3953
0.6955 -6.3389 2.3953
0.9219 -6.3092 2.3953
1.1471 -6.2713 2.3953
1.3707 -6.2252 2.3953
1.5924 -6.1710 2.3953
1.8120 -6.1087 2.3953
2.0291 -6.0385 2.3953
2.2435 -5.9604 2.3953
2.4548 -5.8746 2.3953
2.6628 -5.7811 2.3953
2.8672 -5.6802 2.3953
3.0677 -5.5718 2.3953
3.2641 -5.4563 2.3953
3.4560 -5.3338 2.3953
3.6434 -5.2044 2.3953
3.8258 -5.0683 2.3953
4.0030 -4.9257 2.3953
4.1749 -4.7768 2.3953
4.3412 -4.6219 2.3953
4.5017 -4.4610 2.3953
4.6562 -4.2945 2.3953
4.8044 -4.1226 2.3953
4.9463 -3.9455 2.3953
5.0815 -3.7635 2.3953
5.2100 -3.5768 2.3953
5.3316 -3.3857 2.3953
5.4461 -3.1903 2.3953
5.5535 -2.9911 2.3953
5.6535 -2.7882 2.3953
5.7460 -2.5820 2.3953
5.8310 -2.3727 2.3953
5.9083 -2.1606 2.3953
5.9779 -1.9460 2.3953
6.0396 -1.7291 2.3953
6.0935 -1.5102 2.3953
6.1394 -1.2897 2.3953
6.1647 -1.0657 2.3903
6.1676 -0.8395 2.3800
6.1701 -0.6153 2.3726
6.1720 -0.3924 2.3681
6.1733 -0.1704 2.3664
6.1741 0.0513 2.3676
6.1744 0.2732 2.3717
6.1742 0.4958 2.3786
6.1734 0.7196 2.3884
6.1568 0.9429 2.3953
6.1147 1.1626 2.3953
6.0647 1.3805 2.3953
6.0071 1.5963 2.3953
5.9418 1.8098 2.3953
5.8689 2.0208 2.3953
5.7887 2.2288 2.3953
5.7011 2.4338 2.3953
5.6063 2.6354 2.3953
5.5045 2.8334 2.3953
5.3958 3.0275 2.3953
5.2802 3.2173 2.3953
5.1581 3.4032 2.3953
5.0295 3.5843 2.3953
4.8946 3.7608 2.3953
4.7536 3.9322 2.3953
4.6067 4.0984 2.3953
4.4540 4.2592 2.3953
4.2958 4.4147 2.3953
4.1323 4.5641 2.3953
3.9637 4.7076 2.3953
3.7902 4.8449 2.3953
3.6119 4.9759 2.3953
3.4292 5.1007 2.3953
3.2423 5.2187 2.3953
3.0514 5.3302 2.3953
2.8567 5.4347 2.3953
2.6585 5.5323 2.3953
2.4570 5.6228 2.3953
0.9040 2.2901 0.9613
0.8211 2.3213 0.9616
0.7371 2.3495 0.9619
0.6521 2.3747 0.9621
0.5663 2.3968 0.9623
0.4797 2.4158 0.9625
0.3924 2.4316 0.9627
0.3047 2.4443 0.9628
0.2165 2.4538 0.9630
0.1281 2.4602 0.9630
0.0395 2.4633 0.9631
-0.0492 2.4632 0.9631
-0.1378 2.4600 0.9631
-0.2263 2.4535 0.9631
-0.3144 2.4438 0.9630
-0.4022 2.4310 0.9629
-0.4894 2.4150 0.9628
-0.5760 2.3959 0.9627
-0.6619 2.3736 0.9625
-0.7469 2.3483 0.9623
-0.8309 2.3199 0.9621
-2.2758 5.6992 2.3953
-2.4801 5.6152 2.3953
-2.6814 5.5241 2.3953
-2.8793 5.4258 2.3953
-3.0738 5.3206 2.3953
-3.2644 5.2086 2.3953
-3.4511 5.0898 2.3953
-3.6335 4.9645 2.3953
-3.8114 4.8327 2.3953
-3.9846 4.6947 2.3953
-4.1528 4.5506 2.3953
-4.3160 4.4005 2.3953
-4.4737 4.2446 2.3953
-4.6259 4.0832 2.3953
-4.7724 3.9164 2.3953
-4.9129 3.7444 2.3953
-5.0473 3.5675 2.3953
-5.1754 3.3858 2.3953
-5.2970 3.1996 2.3953
-5.4119 3.0091 2.3953
-5.5201 2.8145 2.3953
-5.6213 2.6159 2.3953
-5.7155 2.4138 2.3953
-5.8024 2.2083 2.3953
-5.8820 1.9999 2.3953
-5.9541 1.7886 2.3953
-6.0187 1.5746 2.3953
-6.0756 1.3584 2.3953
-6.1248 1.1401 2.3953
-6.1662 0.9201 2.3953
-6.1997 0.6986 2.3953
-6.2252 0.4759 2.3953
-6.2428 0.2523 2.3953
-6.2523 0.0280 2.3953
-6.2538 -0.1965 2.3953
-6.2472 -0.4211 2.3953
-6.2325 -0.6455 2.3953
-6.2098 -0.8693 2.3953
-6.1790 -1.0924 2.3953
-6.1402 -1.3143 2.3953
-6.0933 -1.5348 2.3953
-6.0386 -1.7536 2.3953
-5.9759 -1.9704 2.3953
-5.9054 -2.1849 2.3953
-5.8271 -2.3969 2.3953
-5.7412 -2.6060 2.3953
-5.6478 -2.8119 2.3953
-5.5468 -3.0146 2.3953
-5.4386 -3.2135 2.3953
-5.3231 -3.4085 2.3953
-5.2006 -3.5992 2.3953
-5.0713 -3.7855 2.3953
-4.9351 -3.9670 2.3953
-4.7924 -4.1436 2.3953
-4.6433 -4.3150 2.3953
-4.4880 -4.4809 2.3953
-4.3267 -4.6411 2.3953
-4.1597 -4.7954 2.3953
-3.9870 -4.9436 2.3953
-3.8090 -5.0855 2.3953
-3.6259 -5.2208 2.3953
-3.4379 -5.3494 2.3953
-3.2453 -5.4712 2.3953
-3.0483 -5.5858 2.3953
-2.8473 -5.6933 2.3953
-2.6423 -5.7933 2.3953
-2.4338 -5.8859 2.3953
-2.2221 -5.9707 2.3953
-2.0073 -6.0479 2.3953
-1.7898 -6.1171 2.3953
-1.5699 -6.1784 2.3953
-1.3479 -6.2316 2.3953
-1.1240 -6.2766 2.3953
-0.8986 -6.3135 2.3953
-0.6721 -6.3421 2.3953
-0.4446 -6.3624 2.3953
-0.2165 -6.3744 2.3953
0.0119 -6.3780 2.3953
0.2403 -6.3733 2.3953
0.4683 -6.3602 2.3953
0.6957 -6.3389 2.3953
0.9221 -6.3092 2.3953
1.1472 -6.2713 2.3953
1.3708 -6.2252 2.3953
1.5926 -6.1710 2.3953
1.8121 -6.1087 2.3953
2.0293 -6.0385 2.3953
2.2436 -5.9604 2.3953
2.4549 -5.8745 2.3953
2.6629 -5.7811 2.3953
2.8673 -5.6801 2.3953
3.0678 -5.5718 2.3953
3.2642 -5.4563 2.3953
3.4562 -5.3337 2.3953
3.6435 -5.2043 2.3953
3.8259 -5.0682 2.3953
4.0031 -4.9256 2.3953
4.1751 -4.7767 2.3953
4.3413 -4.6217 2.3953
4.5018 -4.4609 2.3953
4.6563 -4.2944 2.3953
4.8045 -4.1225 2.3953
4.9464 -3.9454 2.3953
5.0816 -3.7634 2.3953
5.2101 -3.5767 2.3953
5.3317 -3.3855 2.3953
5.4462 -3.1902 2.3953
5.5535 -2.9910 2.3953
5.6535 -2.7881 2.3953
5.7461 -2.5819 2.3953
5.8310 -2.3726 2.3953
5.9084 -2.1605 2.3953
5.9779 -1.9458 2.3953
6.0397 -1.7289 2.3953
6.0935 -1.5101 2.3953
6.1394 -1.2896 2.3953
6.1647 -1.0655 2.3903
6.1676 -0.8394 2.3800
6.1701 -0.6151 2.3726
6.1720 -0.3922 2.3681
6.1733 -0.1702 2.3664
6.1741 0.0515 2.3676
6.1744 0.2734 2.3717
6.1742 0.4960 2.3786
6.1734 0.7198 2.3884
6.1568 0.9430 2.3953
6.1146 1.1627 2.3953
6.0647 1.3806 2.3953
6.0070 1.5965 2.3953
5.9417 1.8100 2.3953
5.8689 2.0209 2.3953
5.7886 2.2290 2.3953
5.7010 2.4340 2.3953
5.6063 2.6356 2.3953
5.5044 2.8335 2.3953
5.3957 3.0276 2.3953
5.2801 3.2174 2.3953
5.1580 3.4034 2.3953
5.0294 3.5845 2.3953
4.8945 3.7609 2.3953
4.7535 3.9323 2.3953
4.6066 4.0985 2.3953
4.4539 4.2594 2.3953
4.2957 4.4150 2.3953
4.1322 4.5641 2.3953
3.9636 4.7074 2.3953
3.7900 4.8451 2.3953
3.6118 4.9760 2.3953
3.4291 5.1008 2.3953
3.2422 5.2189 2.3953
3.0513 5.3303 2.3953
2.8566 5.4348 2.3953
2.6584 5.5324 2.3953
2.4569 5.6229 2.3953
0.9040 2.2901 0.9613
0.8210 2.3213 0.9616
0.7370 2.3495 0.9619
0.6520 2.3747 0.9621
0.5662 2.3968 0.9623
0.4796 2.4158 0.9625
0.3924 2.4316 0.9627
0.3046 2.4443 0.9628
0.2165 2.4538 0.9630
0.1280 2.4602 0.9630
0.0394 2.4633 0.9631
-0.0493 2.4632 0.9631
-0.1379 2.4600 0.9631
-0.2263 2.4535 0.9631
-0.3145 2.4438 0.9630
-0.4023 2.4310 0.9629
-0.4895 2.4150 0.9628
-0.5761 2.3959 0.9627
-0.6620 2.3736 0.9625
-0.7469 2.3483 0.9623
-0.8310 2.3199 0.9621
-2.2759 5.6991 2.3953
-2.4802 5.6151 2.3953
-2.6815 5.5240 2.3953
-2.8795 5.4258 2.3953
-3.0739 5.3206 2.3953
-3.2646 5.2085 2.3953
-3.4512 5.0898 2.3953
-3.6336 4.9644 2.3953
-3.8115 4.8326 2.3953
-3.9847 4.6946 2.3953
-4.1529 4.5505 2.3953
-4.3161 4.4004 2.3953
-4.4738 4.2445 2.3953
-4.6260 4.0831 2.3953
-4.7725 3.9163 2.3953
-4.9130 3.7443 2.3953
-5.0474 3.5674 2.3953
-5.1755 3.3857 2.3953
-5.2971 3.1994 2.3953
-5.4120 3.0088 2.3953
-5.5202 2.8147 2.3953
-5.6214 2.6157 2.3953
-5.7155 2.4137 2.3953
-5.8024 2.2083 2.3953
-5.8820 1.9998 2.3953
-5.9542 1.7884 2.3953
-6.0187 1.5745 2.3953
-6.0757 1.3582 2.3953
-6.1248 1.1399 2.3953
-6.1662 0.9199 2.3953
-6.1997 0.6984 2.3953
-6.2252 0.4758 2.3953
-6.2428 0.2521 2.3953
-6.2523 0.0279 2.3953
-6.2538 -0.1967 2.3953
-6.2472 -0.4213 2.3953
-6.2325 -0.6457 2.3953
-6.2098 -0.8695 2.3953
-6.1790 -1.0925 2.3953
-6.1401 -1.3144 2.3953
-6.0933 -1.5349 2.3953
-6.0385 -1.7537 2.3953
-5.9758 -1.9705 2.3953
-5.9053 -2.1850 2.3953
-5.8271 -2.3970 2.3953
-5.7412 -2.6061 2.3953
-5.6477 -2.8120 2.3953
-5.5468 -3.0147 2.3953
-5.4385 -3.2136 2.3953
-5.3231 -3.4086 2.3953
-5.2006 -3.5993 2.3953
-5.0712 -3.7856 2.3953
-4.9350 -3.9672 2.3953
-4.7923 -4.1437 2.3953
-4.6432 -4.3151 2.3953
-4.4879 -4.4810 2.3953
-4.3266 -4.6412 2.3953
-4.1596 -4.7955 2.3953
-3.9869 -4.9437 2.3953
-3.8089 -5.0856 2.3953
-3.6258 -5.2209 2.3953
-3.4378 -5.3495 2.3953
-3.2452 -5.4712 2.3953
-3.0482 -5.5859 2.3953
-2.8471 -5.6933 2.3953
-2.6422 -5.7934 2.3953
-2.4337 -5.8859 2.3953
-2.2219 -5.9708 2.3953
-2.0071 -6.0479 2.3953
-1.7897 -6.1171 2.3953
-1.5697 -6.1784 2.3953
-1.3477 -6.2316 2.3953
-1.1239 -6.2766 2.3953
-0.8985 -6.3135 2.3953
-0.6719 -6.3421 2.3953
-0.4444 -6.3624 2.3953
-0.2163 -6.3744 2.3953
0.0110 -5.9662 2.3953
0.2245 -5.9618 2.3953
0.4378 -5.9496 2.3953
0.6505 -5.9297 2.3953
0.8622 -5.9020 2.3953
1.0728 -5.8666 2.3953
1.2820 -5.8235 2.3953
1.4894 -5.7729 2.3953
1.6948 -5.7147 2.3953
1.8979 -5.6491 2.3953
2.0984 -5.5761 2.3953
2.2961 -5.4959 2.3953
2.4907 -5.4086 2.3953
2.6819 -5.3143 2.3953
2.8696 -5.2131 2.3953
3.0533 -5.1051 2.3953
3.2330 -4.9906 2.3953
3.4083 -4.8696 2.3953
3.5790 -4.7425 2.3953
3.7449 -4.6092 2.3953
3.9059 -4.4700 2.3953
4.0616 -4.3252 2.3953
4.2118 -4.1748 2.3953
4.3565 -4.0191 2.3953
4.4953 -3.8584 2.3953
4.6282 -3.6928 2.3953
4.7549 -3.5227 2.3953
4.8753 -3.3481 2.3953
4.9893 -3.1693 2.3953
5.0966 -2.9866 2.3953
5.1972 -2.8004 2.3953
5.2910 -2.6105 2.3953
5.3778 -2.4176 2.3953
5.4576 -2.2218 2.3953
5.5301 -2.0233 2.3953
5.5955 -1.8225 2.3953
5.6535 -1.6195 2.3953
5.7041 -1.4148 2.3953
5.7473 -1.2084 2.3953
5.7831 -1.0007 2.3953
5.8113 -0.7920 2.3953
5.8320 -0.5826 2.3953
5.8451 -0.3726 2.3953
5.8507 -0.1625 2.3953
5.8487 0.0476 2.3953
5.8393 0.2574 2.3953
5.8223 0.4665 2.3953
5.7978 0.6748 2.3953
5.7659 0.8820 2.3953
5.7267 1.0878 2.3953
5.6801 1.2919 2.3953
5.6263 1.4942 2.3953
5.5654 1.6942 2.3953
5.4974 1.8919 2.3953
5.4224 2.0868 2.3953
5.3406 2.2789 2.3953
5.2520 2.4678 2.3953
5.1568 2.6534 2.3953
5.0551 2.8354 2.3953
4.9470 3.0135 2.3953
4.8327 3.1876 2.3953
4.7124 3.3574 2.3953
4.5861 3.5228 2.3953
4.4542 3.6835 2.3953
4.3167 3.8385 2.3953
4.1737 3.9902 2.3953
4.0256 4.1355 2.3953
3.8725 4.2759 2.3953
3.7145 4.4106 2.3953
3.5520 4.5394 2.3953
3.3850 4.6624 2.3953
3.2139 4.7794 2.3953
3.0387 4.8902 2.3953
2.8599 4.9947 2.3953
2.6774 5.0927 2.3953
2.4917 5.1843 2.3953
0.9227 2.1112 0.9597
0.8462 2.1432 0.9600
0.7686 2.1724 0.9603
0.6899 2.1988 0.9606
0.6104 2.2224 0.9608
0.5300 2.2430 0.9610
0.4490 2.2608 0.9612
0.3673 2.2756 0.9613
0.2852 2.2875 0.9615
0.2027 2.2964 0.9616
0.1199 2.3023 0.9616
0.0369 2.3052 0.9617
-0.0461 2.3052 0.9617
-0.1290 2.3021 0.9617
-0.2118 2.2960 0.9617
-0.2943 2.2870 0.9616
-0.3765 2.2750 0.9615
-0.4581 2.2600 0.9614
-0.5392 2.2421 0.9613
-0.6195 2.2213 0.9611
-0.6991 2.1976 0.9610
-0.7777 2.1710 0.9607
-0.8554 2.1416 0.9605
-2.3245 5.2619 2.3953
-2.5131 5.1764 2.3953
-2.6986 5.0843 2.3953
-2.8808 4.9856 2.3953
-3.0594 4.8805 2.3953
-3.2343 4.7691 2.3953
-3.4051 4.6515 2.3953
-3.5718 4.5279 2.3953
-3.7340 4.3984 2.3953
-3.8916 4.2632 2.3953
-4.0443 4.1225 2.3953
-4.1920 3.9764 2.3953
-4.3345 3.8250 2.3953
-4.4716 3.6686 2.3953
-4.6032 3.5073 2.3953
-4.7289 3.3414 2.3953
-4.8487 3.1711 2.3953
-4.9625 2.9965 2.3953
-5.0700 2.8179 2.3953
-5.1712 2.6354 2.3953
-5.2658 2.4494 2.3953
-5.3538 2.2600 2.3953
-5.4350 2.0675 2.3953
-5.5094 1.8721 2.3953
-5.5767 1.6741 2.3953
-5.6370 1.4737 2.3953
-5.6901 1.2711 2.3953
-5.7359 1.0667 2.3953
-5.7745 0.8606 2.3953
-5.8056 0.6532 2.3953
-5.8293 0.4446 2.3953
-5.8455 0.2352 2.3953
-5.8542 0.0253 2.3953
-5.8553 -0.1850 2.3953
-5.8489 -0.3953 2.3953
-5.8350 -0.6054 2.3953
-5.8135 -0.8149 2.3953
-5.7844 -1.0235 2.3953
-5.7478 -1.2313 2.3953
-5.7037 -1.4377 2.3953
-5.6522 -1.6425 2.3953
-5.5934 -1.8453 2.3953
-5.5272 -2.0460 2.3953
-5.4537 -2.2443 2.3953
-5.3731 -2.4399 2.3953
-5.2854 -2.6326 2.3953
-5.1908 -2.8221 2.3953
-5.0893 -3.0081 2.3953
-4.9811 -3.1905 2.3953
-4.8664 -3.3689 2.3953
-4.7451 -3.5431 2.3953
-4.6176 -3.7128 2.3953
-4.4839 -3.8779 2.3953
-4.3443 -4.0381 2.3953
-4.1989 -4.1932 2.3953
-4.0479 -4.3430 2.3953
-3.8915 -4.4873 2.3953
-3.7299 -4.6258 2.3953
-3.5633 -4.7584 2.3953
-3.3919 -4.8848 2.3953
-3.2160 -5.0051 2.3953
-3.0357 -5.1188 2.3953
-2.8514 -5.2260 2.3953
-2.6633 -5.3264 2.3953
-2.4716 -5.4199 2.3953
-2.2765 -5.5064 2.3953
-2.0784 -5.5857 2.3953
-1.8775 -5.6577 2.3953
-1.6740 -5.7224 2.3953
-1.4683 -5.7797 2.3953
-1.2607 -5.8294 2.3953
-1.0513 -5.8715 2.3953
-0.8405 -5.9059 2.3953
-0.6286 -5.9326 2.3953
-0.4158 -5.9516 2.3953
-0.2025 -5.9628 2.3953
0.0111 -5.9662 2.3953
0.2247 -5.9618 2.3953
0.4379 -5.9496 2.3953
0.6506 -5.9297 2.3953
0.8624 -5.9020 2.3953
1.0730 -5.8666 2.3953
1.2821 -5.8235 2.3953
1.4895 -5.7728 2.3953
1.6949 -5.7147 2.3953
1.8980 -5.6491 2.3953
2.0985 -5.5761 2.3953
2.2962 -5.4959 2.3953
2.4908 -5.4085 2.3953
2.6821 -5.3142 2.3953
2.8697 -5.2130 2.3953
3.0534 -5.1050 2.3953
3.2331 -4.9905 2.3953
3.4084 -4.8696 2.3953
3.5791 -4.7424 2.3953
3.7450 -4.6091 2.3953
3.9060 -4.4699 2.3953
4.0617 -4.3251 2.3953
4.2119 -4.1747 2.3953
4.3566 -4.0191 2.3953
4.4954 -3.8583 2.3953
4.6283 -3.6927 2.3953
4.7550 -3.5226 2.3953
4.8754 -3.3479 2.3953
4.9893 -3.1692 2.3953
5.0967 -2.9865 2.3953
5.1973 -2.8002 2.3953
5.2911 -2.6104 2.3953
5.3779 -2.4175 2.3953
5.4576 -2.2216 2.3953
5.5302 -2.0232 2.3953
5.5955 -1.8224 2.3953
5.6535 -1.6194 2.3953
5.7042 -1.4146 2.3953
5.7474 -1.2083 2.3953
5.7831 -1.0006 2.3953
5.8113 -0.7919 2.3953
5.8320 -0.5824 2.3953
5.8451 -0.3725 2.3953
5.8507 -0.1624 2.3953
5.8487 0.0477 2.3953
5.8393 0.2575 2.3953
5.8223 0.4667 2.3953
5.7978 0.6750 2.3953
5.7659 0.8822 2.3953
5.7267 1.0879 2.3953
5.6801 1.2921 2.3953
5.6263 1.4943 2.3953
5.5654 1.6943 2.3953
5.4973 1.8920 2.3953
5.4224 2.0869 2.3953
5.3405 2.2790 2.3953
5.2519 2.4679 2.3953
5.1567 2.6535 2.3953
5.0550 2.8354 2.3953
4.9469 3.0136 2.3953
4.8326 3.1877 2.3953
4.7123 3.3575 2.3953
4.5860 3.5229 2.3953
4.4541 3.6836 2.3953
4.3166 3.8391 2.3953
4.1736 3.9900 2.3953
4.0255 4.1356 2.3953
3.8724 4.2761 2.3953
3.7144 4.4106 2.3953
3.5519 4.5394 2.3953
3.3849 4.6625 2.3953
3.2138 4.7794 2.3953
3.0386 4.8902 2.3953
2.8597 4.9947 2.3953
2.6773 5.0928 2.3953
2.4916 5.1843 2.3953
0.9226 2.1112 0.9597
0.8461 2.1432 0.9600
0.7685 2.1724 0.9603
0.6899 2.1988 0.9606
0.6103 2.2224 0.9608
0.5300 2.2430 0.9610
0.4489 2.2608 0.9612
0.3673 2.2756 0.9613
0.2851 2.2875 0.9615
0.2026 2.2964 0.9616
0.1198 2.3023 0.9616
0.0369 2.3052 0.9617
-0.0461 2.3052 0.9617
-0.1291 2.3021 0.9617
-0.2119 2.2960 0.9617
-0.2944 2.2870 0.9616
-0.3765 2.2750 0.9615
-0.4582 2.2600 0.9614
-0.5392 2.2421 0.9613
-0.6196 2.2213 0.9611
-0.6991 2.1976 0.9610
-0.7778 2.1710 0.9607
-0.8554 2.1416 0.9605
-2.3246 5.2619 2.3953
-2.5132 5.1764 2.3953
-2.6987 5.0842 2.3953
-2.8809 4.9855 2.3953
-3.0596 4.8804 2.3953
-3.2344 4.7690 2.3953
-3.4053 4.6514 2.3953
-3.5719 4.5279 2.3953
-3.7341 4.3983 2.3953
-3.8917 4.2631 2.3953
-4.0444 4.1224 2.3953
-4.1921 3.9762 2.3953
-4.3346 3.8249 2.3953
-4.4717 3.6685 2.3953
-4.6032 3.5072 2.3953
-4.7290 3.3413 2.3953
-4.8488 3.1710 2.3953
-4.9626 2.9964 2.3953
-5.0701 2.8177 2.3953
-5.1712 2.6353 2.3953
-5.2659 2.4493 2.3953
-5.3539 2.2599 2.3953
-5.4351 2.0674 2.3953
-5.5094 1.8720 2.3953
-5.5768 1.6740 2.3953
-5.6370 1.4736 2.3953
-5.6901 1.2710 2.3953
-5.7360 1.0665 2.3953
-5.7745 0.8605 2.3953
-5.8056 0.6530 2.3953
-5.8293 0.4445 2.3953
-5.8455 0.2351 2.3953
-5.8542 0.0251 2.3953
-5.8553 -0.1852 2.3953
-5.8489 -0.3954 2.3953
-5.8350 -0.6055 2.3953
-5.8134 -0.8150 2.3953
-5.7844 -1.0237 2.3953
-5.7478 -1.2315 2.3953
-5.7037 -1.4378 2.3953
-5.6522 -1.6425 2.3953
-5.5933 -1.8454 2.3953
-5.5271 -2.0461 2.3953
-5.4537 -2.2444 2.3953
-5.3731 -2.4401 2.3953
-5.2854 -2.6327 2.3953
-5.1908 -2.8222 2.3953
-5.0893 -3.0083 2.3953
-4.9811 -3.1906 2.3953
-4.8663 -3.3690 2.3953
-4.7450 -3.5432 2.3953
-4.6175 -3.7129 2.3953
-4.4839 -3.8780 2.3953
-4.3442 -4.0382 2.3953
-4.1988 -4.1933 2.3953
-4.0478 -4.3431 2.3953
-3.8914 -4.4873 2.3953
-3.7298 -4.6259 2.3953
-3.5632 -4.7585 2.3953
-3.3918 -4.8849 2.3953
-3.2159 -5.0052 2.3953
-3.0356 -5.1189 2.3953
-2.8513 -5.2261 2.3953
-2.6632 -5.3265 2.3953
-2.4714 -5.4199 2.3953
-2.2764 -5.5064 2.3953
-2.0783 -5.5857 2.3953
-1.8774 -5.6578 2.3953
-1.6739 -5.7225 2.3953
-1.4682 -5.7797 2.3953
-1.2605 -5.8294 2.3953
-1.0512 -5.8715 2.3953
-0.8404 -5.9059 2.3953
-0.6284 -5.9327 2.3953
-0.4157 -5.9516 2.3953
-0.2023 -5.9628 2.3953
0.0103 -5.5982 2.3953
0.2106 -5.5941 2.3953
0.4107 -5.5827 2.3953
0.6102 -5.5640 2.3953
0.8089 -5.5380 2.3953
1.0065 -5.5048 2.3953
1.2027 -5.4645 2.3953
1.3973 -5.4170 2.3953
1.5900 -5.3625 2.3953
1.7806 -5.3010 2.3953
1.9688 -5.2326 2.3953
2.1543 -5.1574 2.3953
2.3369 -5.0756 2.3953
2.5163 -4.9872 2.3953
2.6924 -4.8923 2.3953
2.8649 -4.7911 2.3953
3.0335 -4.6837 2.3953
3.1981 -4.5704 2.3953
3.3584 -4.4511 2.3953
3.5141 -4.3261 2.3953
3.6652 -4.1956 2.3953
3.8114 -4.0598 2.3953
3.9526 -3.9188 2.3953
4.0884 -3.7729 2.3953
4.2188 -3.6221 2.3953
4.3437 -3.4668 2.3953
4.4627 -3.3072 2.3953
4.5759 -3.1434 2.3953
4.6830 -2.9757 2.3953
4.7839 -2.8044 2.3953
4.8785 -2.6295 2.3953
4.9667 -2.4515 2.3953
5.0483 -2.2705 2.3953
5.1233 -2.0867 2.3953
5.1916 -1.9006 2.3953
5.2532 -1.7120 2.3953
5.3078 -1.5215 2.3953
5.3556 -1.3293 2.3953
5.3963 -1.1356 2.3953
5.4301 -0.9406 2.3953
5.4567 -0.7447 2.3953
5.4764 -0.5480 2.3953
5.4889 -0.3509 2.3953
5.4943 -0.1536 2.3953
5.4927 0.0438 2.3953
5.4840 0.2408 2.3953
5.4682 0.4372 2.3953
5.4455 0.6329 2.3953
5.4157 0.8275 2.3953
5.3790 1.0208 2.3953
5.3355 1.2126 2.3953
5.2851 1.4025 2.3953
5.2281 1.5904 2.3953
5.1644 1.7763 2.3953
5.0941 1.9595 2.3953
5.0174 2.1400 2.3953
4.9343 2.3176 2.3953
4.8450 2.4920 2.3953
4.7496 2.6630 2.3953
4.6482 2.8305 2.3953
4.5409 2.9942 2.3953
4.4280 3.1538 2.3953
4.3096 3.3083 2.3953
4.1856 3.4604 2.3953
4.0564 3.6072 2.3953
3.9222 3.7488 2.3953
3.7831 3.8857 2.3953
3.6393 4.0175 2.3953
3.4910 4.1442 2.3953
3.3383 4.2654 2.3953
3.1814 4.3810 2.3953
3.0206 4.4910 2.3953
2.8561 4.5952 2.3953
2.6880 4.6936 2.3953
2.5166 4.7858 2.3953
2.3420 4.8720 2.3953
0.8663 1.9817 0.9586
0.7944 2.0117 0.9589
0.7215 2.0391 0.9591
0.6477 2.0639 0.9594
0.5730 2.0860 0.9596
0.4976 2.1054 0.9598
0.4215 2.1221 0.9599
0.3448 2.1360 0.9601
0.2677 2.1471 0.9602
0.1903 2.1555 0.9603
0.1125 2.1610 0.9604
0.0347 2.1638 0.9604
-0.0433 2.1637 0.9605
-0.1211 2.1608 0.9605
-0.1989 2.1551 0.9604
-0.2763 2.1466 0.9604
-0.3534 2.1353 0.9603
-0.4301 2.1213 0.9602
-0.5062 2.1045 0.9601
-0.5816 2.0849 0.9599
-0.6563 2.0627 0.9597
-0.7301 2.0378 0.9595
-0.8030 2.0102 0.9593
-0.8749 1.9800 0.9591
-2.3622 4.8645 2.3953
-2.5365 4.7778 2.3953
-2.7077 4.6849 2.3953
-2.8755 4.5860 2.3953
-3.0398 4.4812 2.3953
-3.2003 4.3707 2.3953
-3.3568 4.2544 2.3953
-3.5092 4.1327 2.3953
-3.6572 4.0055 2.3953
-3.8007 3.8731 2.3953
-3.9394 3.7356 2.3953
-4.0732 3.5933 2.3953
-4.2019 3.4463 2.3953
-4.3254 3.2947 2.3953
-4.4434 3.1387 2.3953
-4.5559 2.9786 2.3953
-4.6626 2.8144 2.3953
-4.7635 2.6465 2.3953
-4.8584 2.4750 2.3953
-4.9471 2.3002 2.3953
-5.0296 2.1222 2.3953
-5.1058 1.9413 2.3953
-5.1754 1.7577 2.3953
-5.2385 1.5716 2.3953
-5.2949 1.3833 2.3953
-5.3446 1.1930 2.3953
-5.3875 1.0009 2.3953
-5.4235 0.8073 2.3953
-5.4525 0.6125 2.3953
-5.4746 0.4166 2.3953
-5.4896 0.2199 2.3953
-5.4976 0.0227 2.3953
-5.4985 -0.1747 2.3953
-5.4923 -0.3721 2.3953
-5.4790 -0.5694 2.3953
-5.4586 -0.7661 2.3953
-5.4311 -0.9621 2.3953
-5.3965 -1.1570 2.3953
-5.3550 -1.3508 2.3953
-5.3065 -1.5429 2.3953
-5.2510 -1.7333 2.3953
-5.1887 -1.9217 2.3953
-5.1196 -2.1077 2.3953
-5.0437 -2.2913 2.3953
-4.9613 -2.4721 2.3953
-4.8723 -2.6499 2.3953
-4.7769 -2.8244 2.3953
-4.6752 -2.9955 2.3953
-4.5673 -3.1628 2.3953
-4.4534 -3.3262 2.3953
-4.3336 -3.4854 2.3953
-4.2080 -3.6403 2.3953
-4.0769 -3.7905 2.3953
-3.9403 -3.9360 2.3953
-3.7985 -4.0764 2.3953
-3.6517 -4.2117 2.3953
-3.4999 -4.3416 2.3953
-3.3435 -4.4659 2.3953
-3.1827 -4.5845 2.3953
-3.0175 -4.6972 2.3953
-2.8484 -4.8038 2.3953
-2.6754 -4.9043 2.3953
-2.4988 -4.9984 2.3953
-2.3189 -5.0861 2.3953
-2.1359 -5.1671 2.3953
-1.9500 -5.2415 2.3953
-1.7615 -5.3090 2.3953
-1.5706 -5.3697 2.3953
-1.3776 -5.4233 2.3953
-1.1827 -5.4699 2.3953
-0.9863 -5.5094 2.3953
-0.7885 -5.5416 2.3953
-0.5897 -5.5667 2.3953
-0.3901 -5.5845 2.3953
-0.1900 -5.5950 2.3953
0.0104 -5.5982 2.3953
0.2108 -5.5941 2.3953
0.4108 -5.5826 2.3953
0.6103 -5.5639 2.3953
0.8090 -5.5380 2.3953
1.0066 -5.5048 2.3953
1.2028 -5.4644 2.3953
1.3974 -5.4170 2.3953
1.5902 -5.3624 2.3953
1.7807 -5.3010 2.3953
1.9689 -5.2326 2.3953
2.1544 -5.1574 2.3953
2.3370 -5.0755 2.3953
2.5165 -4.9871 2.3953
2.6925 -4.8922 2.3953
2.8650 -4.7910 2.3953
3.0336 -4.6837 2.3953
3.1982 -4.5703 2.3953
3.3585 -4.4510 2.3953
3.5142 -4.3260 2.3953
3.6653 -4.1956 2.3953
3.8115 -4.0597 2.3953
3.9527 -3.9187 2.3953
4.0885 -3.7728 2.3953
4.2189 -3.6220 2.3953
4.3437 -3.4667 2.3953
4.4628 -3.3071 2.3953
4.5759 -3.1433 2.3953
4.6830 -2.9756 2.3953
4.7839 -2.8042 2.3953
4.8785 -2.6294 2.3953
4.9667 -2.4514 2.3953
5.0484 -2.2704 2.3953
5.1234 -2.0866 2.3953
5.1917 -1.9003 2.3953
5.2532 -1.7118 2.3953
5.3079 -1.5214 2.3953
5.3556 -1.3291 2.3953
5.3963 -1.1354 2.3953
5.4301 -0.9405 2.3953
5.4568 -0.7446 2.3953
5.4764 -0.5479 2.3953
5.4889 -0.3508 2.3953
5.4943 -0.1534 2.3953
5.4927 0.0439 2.3953
5.4840 0.2409 2.3953
5.4682 0.4373 2.3953
5.4454 0.6330 2.3953
5.4157 0.8276 2.3953
5.3790 1.0209 2.3953
5.3355 1.2127 2.3953
5.2851 1.4026 2.3953
5.2280 1.5907 2.3953
5.1643 1.7764 2.3953
5.0940 1.9596 2.3953
5.0173 2.1401 2.3953
4.9342 2.3177 2.3953
4.8449 2.4921 2.3953
4.7495 2.6632 2.3953
4.6481 2.8306 2.3953
4.5409 2.9943 2.3953
4.4279 3.1540 2.3953
4.3094 3.3092 2.3953
4.1855 3.4606 2.3953
4.0563 3.6072 2.3953
3.9221 3.7489 2.3953
3.7830 3.8859 2.3953
3.6392 4.0176 2.3953
3.4909 4.1443 2.3953
3.3382 4.2654 2.3953
3.1813 4.3811 2.3953
3.0205 4.4911 2.3953
2.8560 4.5953 2.3953
2.6879 4.6936 2.3953
2.5165 4.7859 2.3953
2.3419 4.8720 2.3953
0.8662 1.9817 0.9586
0.7944 2.0117 0.9589
0.7215 2.0392 0.9591
0.6477 2.0639 0.9594
0.5730 2.0860 0.9596
0.4975 2.1054 0.9598
0.4214 2.1221 0.9599
0.3448 2.1360 0.9601
0.2677 2.1471 0.9602
0.1902 2.1555 0.9603
0.1125 2.1610 0.9604
0.0346 2.1638 0.9604
-0.0433 2.1637 0.9605
-0.1212 2.1608 0.9605
-0.1989 2.1551 0.9604
-0.2764 2.1466 0.9604
-0.3535 2.1353 0.9603
-0.4301 2.1213 0.9602
-0.5062 2.1045 0.9601
-0.5817 2.0849 0.9599
-0.6564 2.0627 0.9597
-0.7302 2.0377 0.9595
-0.8031 2.0102 0.9593
-0.8749 1.9800 0.9591
-2.3623 4.8644 2.3953
-2.5366 4.7777 2.3953
-2.7078 4.6849 2.3953
-2.8756 4.5860 2.3953
-3.0399 4.4812 2.3953
-3.2004 4.3706 2.3953
-3.3569 4.2543 2.3953
-3.5093 4.1325 2.3953
-3.6573 4.0054 2.3953
-3.8007 3.8730 2.3953
-3.9395 3.7356 2.3953
-4.0733 3.5932 2.3953
-4.2020 3.4462 2.3953
-4.3254 3.2945 2.3953
-4.4435 3.1386 2.3953
-4.5559 2.9785 2.3953
-4.6627 2.8143 2.3953
-4.7636 2.6464 2.3953
-4.8584 2.4749 2.3953
-4.9472 2.3001 2.3953
-5.0297 2.1221 2.3953
-5.1058 1.9412 2.3953
-5.1755 1.7576 2.3953
-5.2386 1.5715 2.3953
-5.2950 1.3832 2.3953
-5.3447 1.1929 2.3953
-5.3875 1.0008 2.3953
-5.4235 0.8072 2.3953
-5.4526 0.6123 2.3953
-5.4746 0.4164 2.3953
-5.4896 0.2198 2.3953
-5.4976 0.0226 2.3953
-5.4985 -0.1749 2.3953
-5.4923 -0.3723 2.3953
-5.4790 -0.5695 2.3953
-5.4585 -0.7663 2.3953
-5.4311 -0.9622 2.3953
-5.3965 -1.1572 2.3953
-5.3550 -1.3509 2.3953
-5.3064 -1.5430 2.3953
-5.2510 -1.7334 2.3953
-5.1886 -1.9218 2.3953
-5.1195 -2.1079 2.3953
-5.0437 -2.2914 2.3953
-4.9612 -2.4722 2.3953
-4.8722 -2.6500 2.3953
-4.7768 -2.8245 2.3953
-4.6751 -2.9956 2.3953
-4.5672 -3.1629 2.3953
-4.4533 -3.3263 2.3953
-4.3335 -3.4855 2.3953
-4.2080 -3.6404 2.3953
-4.0768 -3.7906 2.3953
-3.9402 -3.9361 2.3953
-3.7984 -4.0765 2.3953
-3.6516 -4.2118 2.3953
-3.4998 -4.3417 2.3953
-3.3434 -4.4660 2.3953
-3.1826 -4.5846 2.3953
-3.0174 -4.6973 2.3953
-2.8483 -4.8039 2.3953
-2.6753 -4.9044 2.3953
-2.4987 -4.9985 2.3953
-2.3188 -5.0861 2.3953
-2.1357 -5.1672 2.3953
-1.9499 -5.2415 2.3953
-1.7613 -5.3091 2.3953
-1.5704 -5.3697 2.3953
-1.3775 -5.4233 2.3953
-1.1826 -5.4699 2.3953
-0.9862 -5.5094 2.3953
-0.7884 -5.5417 2.3953
-0.5896 -5.5667 2.3953
-0.3900 -5.5845 2.3953
-0.1899 -5.5950 2.3953
0.0096 -5.2669 2.3953
0.1981 -5.2631 2.3953
0.3863 -5.2524 2.3953
0.5740 -5.2348 2.3953
0.7609 -5.2104 2.3953
0.9468 -5.1792 2.3953
1.1314 -5.1413 2.3953
1.3144 -5.0967 2.3953
1.4957 -5.0455 2.3953
1.6750 -4.9877 2.3953
1.8520 -4.9234 2.3953
2.0266 -4.8528 2.3953
2.1984 -4.7758 2.3953
2.3673 -4.6927 2.3953
2.5330 -4.6035 2.3953
2.6953 -4.5084 2.3953
2.8540 -4.4075 2.3953
3.0088 -4.3009 2.3953
3.1597 -4.1888 2.3953
3.3063 -4.0713 2.3953
3.4486 -3.9486 2.3953
3.5862 -3.8209 2.3953
3.7191 -3.6883 2.3953
3.8470 -3.5511 2.3953
3.9698 -3.4093 2.3953
4.0874 -3.2633 2.3953
4.1995 -3.1131 2.3953
4.3061 -2.9591 2.3953
4.4070 -2.8014 2.3953
4.5021 -2.6402 2.3953
4.5913 -2.4757 2.3953
4.6744 -2.3082 2.3953
4.7514 -2.1379 2.3953
4.8222 -1.9650 2.3953
4.8866 -1.7898 2.3953
4.9447 -1.6124 2.3953
4.9963 -1.4332 2.3953
5.0414 -1.2522 2.3953
5.0799 -1.0699 2.3953
5.1118 -0.8864 2.3953
5.1371 -0.7020 2.3953
5.1558 -0.5169 2.3953
5.1677 -0.3313 2.3953
5.1730 -0.1455 2.3953
5.1716 0.0402 2.3953
5.1636 0.2257 2.3953
5.1489 0.4107 2.3953
5.1277 0.5950 2.3953
5.0998 0.7783 2.3953
5.0654 0.9603 2.3953
5.0246 1.1410 2.3953
4.9773 1.3199 2.3953
4.9237 1.4970 2.3953
4.8639 1.6720 2.3953
4.7978 1.8446 2.3953
4.7257 2.0147 2.3953
4.6476 2.1820 2.3953
4.5636 2.3463 2.3953
4.4738 2.5075 2.3953
4.3785 2.6653 2.3953
4.2776 2.8188 2.3953
4.1713 2.9700 2.3953
4.0597 3.1164 2.3953
3.9431 3.2591 2.3953
3.8215 3.3972 2.3953
3.6952 3.5308 2.3953
3.5642 3.6599 2.3953
3.4288 3.7842 2.3953
3.2891 3.9036 2.3953
3.1453 4.0179 2.3953
2.9975 4.1269 2.3953
2.8461 4.2307 2.3953
2.6911 4.3289 2.3953
2.5328 4.4216 2.3953
2.3713 4.5086 2.3953
0.8820 1.8343 0.9573
0.8154 1.8650 0.9575
0.7478 1.8932 0.9578
0.6792 1.9190 0.9581
0.6097 1.9423 0.9583
0.5394 1.9631 0.9585
0.4683 1.9814 0.9587
0.3967 1.9971 0.9588
0.3246 2.0101 0.9590
0.2520 2.0206 0.9591
0.1791 2.0285 0.9592
0.1059 2.0337 0.9593
0.0326 2.0362 0.9593
-0.0407 2.0362 0.9593
-0.1140 2.0335 0.9593
-0.1872 2.0281 0.9593
-0.2601 2.0201 0.9592
-0.3327 2.0095 0.9592
-0.4048 1.9963 0.9591
-0.4764 1.9805 0.9590
-0.5475 1.9621 0.9588
-0.6178 1.9411 0.9587
-0.6872 1.9177 0.9585
-0.7558 1.8917 0.9583
-0.8235 1.8633 0.9580
-0.8900 1.8325 0.9578
-2.3900 4.5009 2.3953
-2.5513 4.4134 2.3953
-2.7094 4.3202 2.3953
-2.8641 4.2213 2.3953
-3.0153 4.1171 2.3953
-3.1627 4.0075 2.3953
-3.3062 3.8926 2.3953
-3.4456 3.7728 2.3953
-3.5807 3.6479 2.3953
-3.7113 3.5184 2.3953
-3.8372 3.3842 2.3953
-3.9584 3.2456 2.3953
-4.0746 3.1027 2.3953
-4.1857 2.9557 2.3953
-4.2915 2.8047 2.3953
-4.3919 2.6501 2.3953
-4.4868 2.4919 2.3953
-4.5761 2.3303 2.3953
-4.6595 2.1655 2.3953
-4.7371 1.9978 2.3953
-4.8087 1.8274 2.3953
-4.8741 1.6544 2.3953
-4.9334 1.4791 2.3953
-4.9864 1.3017 2.3953
-5.0330 1.1225 2.3953
-5.0732 0.9416 2.3953
-5.1070 0.7593 2.3953
-5.1341 0.5758 2.3953
-5.1548 0.3913 2.3953
-5.1687 0.2061 2.3953
-5.1761 0.0205 2.3953
-5.1767 -0.1654 2.3953
-5.1707 -0.3513 2.3953
-5.1580 -0.5370 2.3953
-5.1387 -0.7222 2.3953
-5.1126 -0.9066 2.3953
-5.0799 -1.0901 2.3953
-5.0407 -1.2724 2.3953
-4.9948 -1.4532 2.3953
-4.9425 -1.6324 2.3953
-4.8837 -1.8096 2.3953
-4.8185 -1.9847 2.3953
-4.7470 -2.1575 2.3953
-4.6692 -2.3275 2.3953
-4.5853 -2.4948 2.3953
-4.4954 -2.6590 2.3953
-4.3996 -2.8199 2.3953
-4.2980 -2.9772 2.3953
-4.1907 -3.1309 2.3953
-4.0778 -3.2806 2.3953
-3.9596 -3.4263 2.3953
-3.8361 -3.5676 2.3953
-3.7075 -3.7043 2.3953
-3.5740 -3.8364 2.3953
-3.4358 -3.9636 2.3953
-3.2929 -4.0857 2.3953
-3.1457 -4.2026 2.3953
-2.9943 -4.3141 2.3953
-2.8389 -4.4200 2.3953
-2.6797 -4.5203 2.3953
-2.5169 -4.6147 2.3953
-2.3508 -4.7032 2.3953
-2.1815 -4.7856 2.3953
-2.0093 -4.8618 2.3953
-1.8344 -4.9317 2.3953
-1.6570 -4.9952 2.3953
-1.4774 -5.0522 2.3953
-1.2959 -5.1026 2.3953
-1.1126 -5.1464 2.3953
-0.9278 -5.1835 2.3953
-0.7418 -5.2138 2.3953
-0.5548 -5.2374 2.3953
-0.3670 -5.2541 2.3953
-0.1787 -5.2639 2.3953
0.0098 -5.2670 2.3953
0.1982 -5.2631 2.3953
0.3864 -5.2524 2.3953
0.5741 -5.2348 2.3953
0.7610 -5.2104 2.3953
0.9469 -5.1792 2.3953
1.1315 -5.1413 2.3953
1.3145 -5.0967 2.3953
1.4958 -5.0454 2.3953
1.6751 -4.9876 2.3953
1.8522 -4.9234 2.3953
2.0267 -4.8527 2.3953
2.1985 -4.7758 2.3953
2.3674 -4.6926 2.3953
2.5331 -4.6035 2.3953
2.6954 -4.5083 2.3953
2.8541 -4.4074 2.3953
3.0089 -4.3008 2.3953
3.1598 -4.1887 2.3953
3.3064 -4.0712 2.3953
3.4487 -3.9485 2.3953
3.5863 -3.8208 2.3953
3.7192 -3.6882 2.3953
3.8471 -3.5510 2.3953
3.9699 -3.4092 2.3953
4.0875 -3.2632 2.3953
4.1996 -3.1130 2.3953
4.3062 -2.9590 2.3953
4.4071 -2.8013 2.3953
4.5022 -2.6400 2.3953
4.5914 -2.4756 2.3953
4.6745 -2.3081 2.3953
4.7515 -2.1378 2.3953
4.8222 -1.9649 2.3953
4.8867 -1.7897 2.3953
4.9447 -1.6123 2.3953
4.9963 -1.4330 2.3953
5.0414 -1.2521 2.3953
5.0799 -1.0698 2.3953
5.1118 -0.8863 2.3953
5.1371 -0.7019 2.3953
5.1558 -0.5168 2.3953
5.1677 -0.3312 2.3953
5.1730 -0.1454 2.3953
5.1716 0.0404 2.3953
5.1636 0.2259 2.3953
5.1489 0.4109 2.3953
5.1276 0.5951 2.3953
5.0998 0.7784 2.3953
5.0654 0.9605 2.3953
5.0245 1.1411 2.3953
4.9773 1.3201 2.3953
4.9237 1.4971 2.3953
4.8638 1.6721 2.3953
4.7978 1.8447 2.3953
4.7256 2.0148 2.3953
4.6475 2.1821 2.3953
4.5635 2.3465 2.3953
4.4738 2.5076 2.3953
4.3784 2.6654 2.3953
4.2774 2.8203 2.3953
4.1712 2.9701 2.3953
4.0597 3.1166 2.3953
3.9430 3.2591 2.3953
3.8214 3.3974 2.3953
3.6951 3.5310 2.3953
3.5641 3.6600 2.3953
3.4287 3.7843 2.3953
3.2890 3.9036 2.3953
3.1452 4.0179 2.3953
2.9975 4.1270 2.3953
2.8460 4.2307 2.3953
2.6910 4.3290 2.3953
2.5327 4.4217 2.3953
2.3712 4.5087 2.3953
0.8819 1.8343 0.9573
0.8154 1.8650 0.9575
0.7477 1.8932 0.9578
0.6791 1.9190 0.9581
0.6096 1.9424 0.9583
0.5393 1.9631 0.9585
0.4683 1.9814 0.9587
0.3967 1.9971 0.9588
0.3245 2.0101 0.9590
0.2519 2.0206 0.9591
0.1790 2.0285 0.9592
0.1059 2.0337 0.9593
0.0326 2.0363 0.9593
-0.0408 2.0362 0.9593
-0.1141 2.0335 0.9593
-0.1872 2.0281 0.9593
-0.2601 2.0201 0.9592
-0.3327 2.0095 0.9592
-0.4049 1.9963 0.9591
-0.4765 1.9804 0.9590
-0.5475 1.9620 0.9588
-0.6178 1.9411 0.9587
-0.6873 1.9176 0.9585
-0.7559 1.8917 0.9583
-0.8235 1.8633 0.9580
-0.8901 1.8324 0.9578
-2.3901 4.5009 2.3953
-2.5514 4.4133 2.3953
-2.7095 4.3201 2.3953
-2.8642 4.2213 2.3953
-3.0154 4.1170 2.3953
-3.1628 4.0074 2.3953
-3.3063 3.8926 2.3953
-3.4457 3.7727 2.3953
-3.5807 3.6479 2.3953
-3.7113 3.5183 2.3953
-3.8373 3.3841 2.3953
-3.9585 3.2455 2.3953
-4.0747 3.1026 2.3953
-4.1858 2.9556 2.3953
-4.2916 2.8047 2.3953
-4.3920 2.6500 2.3953
-4.4869 2.4918 2.3953
-4.5761 2.3302 2.3953
-4.6596 2.1654 2.3953
-4.7371 1.9977 2.3953
-4.8087 1.8273 2.3953
-4.8742 1.6543 2.3953
-4.9334 1.4790 2.3953
-4.9864 1.3016 2.3953
-5.0330 1.1224 2.3953
-5.0733 0.9415 2.3953
-5.1070 0.7591 2.3953
-5.1342 0.5756 2.3953
-5.1548 0.3912 2.3953
-5.1687 0.2060 2.3953
-5.1761 0.0203 2.3953
-5.1767 -0.1656 2.3953
-5.1707 -0.3514 2.3953
-5.1580 -0.5371 2.3953
-5.1386 -0.7223 2.3953
-5.1126 -0.9067 2.3953
-5.0799 -1.0902 2.3953
-5.0406 -1.2725 2.3953
-4.9948 -1.4533 2.3953
-4.9424 -1.6325 2.3953
-4.8836 -1.8097 2.3953
-4.8184 -1.9848 2.3953
-4.7469 -2.1575 2.3953
-4.6692 -2.3276 2.3953
-4.5853 -2.4949 2.3953
-4.4954 -2.6591 2.3953
-4.3995 -2.8199 2.3953
-4.2979 -2.9773 2.3953
-4.1906 -3.1310 2.3953
-4.0778 -3.2808 2.3953
-3.9595 -3.4264 2.3953
-3.8360 -3.5677 2.3953
-3.7074 -3.7044 2.3953
-3.5739 -3.8365 2.3953
-3.4357 -3.9637 2.3953
-3.2928 -4.0858 2.3953
-3.1456 -4.2027 2.3953
-2.9942 -4.3142 2.3953
-2.8388 -4.4201 2.3953
-2.6796 -4.5203 2.3953
-2.5168 -4.6148 2.3953
-2.3507 -4.7033 2.3953
-2.1814 -4.7856 2.3953
-2.0092 -4.8618 2.3953
-1.8343 -4.9317 2.3953
-1.6569 -4.9952 2.3953
-1.4773 -5.0522 2.3953
-1.2958 -5.1026 2.3953
-1.1125 -5.1464 2.3953
-0.9277 -5.1835 2.3953
-0.7417 -5.2138 2.3953
-0.5546 -5.2374 2.3953
-0.3669 -5.2541 2.3953
-0.1786 -5.2639 2.3953
0.0091 -4.9670 2.3953
0.1868 -4.9634 2.3953
0.3642 -4.9533 2.3953
0.5412 -4.9367 2.3953
0.7174 -4.9137 2.3953
0.8927 -4.8844 2.3953
1.0667 -4.8487 2.3953
1.2394 -4.8066 2.3953
1.4103 -4.7584 2.3953
1.5794 -4.7039 2.3953
1.7463 -4.6434 2.3953
1.9109 -4.5768 2.3953
2.0730 -4.5043 2.3953
2.2322 -4.4260 2.3953
2.3885 -4.3420 2.3953
2.5416 -4.2523 2.3953
2.6913 -4.1572 2.3953
2.8374 -4.0568 2.3953
2.9797 -3.9511 2.3953
3.1181 -3.8404 2.3953
3.2523 -3.7248 2.3953
3.3821 -3.6044 2.3953
3.5075 -3.4794 2.3953
3.6282 -3.3500 2.3953
3.7442 -3.2165 2.3953
3.8551 -3.0788 2.3953
3.9610 -2.9372 2.3953
4.0617 -2.7920 2.3953
4.1569 -2.6433 2.3953
4.2467 -2.4913 2.3953
4.3310 -2.3363 2.3953
4.4095 -2.1783 2.3953
4.4823 -2.0177 2.3953
4.5491 -1.8547 2.3953
4.6101 -1.6894 2.3953
4.6650 -1.5221 2.3953
4.7138 -1.3530 2.3953
4.7565 -1.1824 2.3953
4.7929 -1.0104 2.3953
4.8232 -0.8373 2.3953
4.8472 -0.6633 2.3953
4.8649 -0.4886 2.3953
4.8764 -0.3135 2.3953
4.8815 -0.1382 2.3953
4.8804 0.0371 2.3953
4.8729 0.2121 2.3953
4.8592 0.3867 2.3953
4.8393 0.5606 2.3953
4.8131 0.7336 2.3953
4.7808 0.9055 2.3953
4.7424 1.0760 2.3953
4.6979 1.2450 2.3953
4.6475 1.4121 2.3953
4.5911 1.5773 2.3953
4.5289 1.7403 2.3953
4.4609 1.9009 2.3953
4.3873 2.0589 2.3953
4.3081 2.2141 2.3953
4.2235 2.3663 2.3953
4.1335 2.5154 2.3953
4.0384 2.6610 2.3953
3.9381 2.8032 2.3953
3.8329 2.9416 2.3953
3.7229 3.0761 2.3953
3.6082 3.2067 2.3953
3.4890 3.3329 2.3953
3.3654 3.4549 2.3953
3.2376 3.5722 2.3953
3.1057 3.6850 2.3953
2.9700 3.7930 2.3953
2.8305 3.8961 2.3953
2.6875 3.9941 2.3953
2.5412 4.0870 2.3953
2.3917 4.1746 2.3953
0.8938 1.6991 0.9560
0.8321 1.7302 0.9563
0.7693 1.7591 0.9566
0.7055 1.7858 0.9569
0.6407 1.8101 0.9571
0.5752 1.8321 0.9573
0.5088 1.8517 0.9575
0.4418 1.8689 0.9577
0.3743 1.8837 0.9578
0.3062 1.8960 0.9580
0.2377 1.9059 0.9581
0.1689 1.9133 0.9582
0.0999 1.9182 0.9582
0.0308 1.9207 0.9583
-0.0384 1.9206 0.9583
-0.1076 1.9180 0.9583
-0.1766 1.9130 0.9583
-0.2454 1.9054 0.9582
-0.3138 1.8954 0.9582
-0.3819 1.8829 0.9581
-0.4495 1.8680 0.9580
-0.5165 1.8506 0.9578
-0.5828 1.8309 0.9577
-0.6484 1.8088 0.9575
-0.7131 1.7843 0.9573
-0.7769 1.7575 0.9571
-0.8397 1.7284 0.9568
-0.9013 1.6971 0.9566
-2.4092 4.1667 2.3953
-2.5585 4.0786 2.3953
-2.7045 3.9852 2.3953
-2.8472 3.8867 2.3953
-2.9864 3.7831 2.3953
-3.1218 3.6746 2.3953
-3.2534 3.5614 2.3953
-3.3808 3.4435 2.3953
-3.5041 3.3211 2.3953
-3.6229 3.1943 2.3953
-3.7372 3.0634 2.3953
-3.8469 2.9284 2.3953
-3.9517 2.7895 2.3953
-4.0515 2.6470 2.3953
-4.1462 2.5009 2.3953
-4.2357 2.3515 2.3953
-4.3198 2.1989 2.3953
-4.3985 2.0433 2.3953
-4.4716 1.8849 2.3953
-4.5390 1.7240 2.3953
-4.6006 1.5607 2.3953
-4.6565 1.3952 2.3953
-4.7063 1.2277 2.3953
-4.7502 1.0585 2.3953
-4.7880 0.8877 2.3953
-4.8197 0.7157 2.3953
-4.8452 0.5424 2.3953
-4.8646 0.3684 2.3953
-4.8776 0.1936 2.3953
-4.8844 0.0184 2.3953
-4.8849 -0.1570 2.3953
-4.8791 -0.3324 2.3953
-4.8669 -0.5076 2.3953
-4.8485 -0.6823 2.3953
-4.8238 -0.8563 2.3953
-4.7928 -1.0294 2.3953
-4.7556 -1.2013 2.3953
-4.7123 -1.3719 2.3953
-4.6627 -1.5409 2.3953
-4.6071 -1.7081 2.3953
-4.5455 -1.8732 2.3953
-4.4779 -2.0361 2.3953
-4.4045 -2.1965 2.3953
-4.3252 -2.3542 2.3953
-4.2403 -2.5090 2.3953
-4.1498 -2.6607 2.3953
-4.0539 -2.8090 2.3953
-3.9526 -2.9539 2.3953
-3.8461 -3.0951 2.3953
-3.7344 -3.2324 2.3953
-3.6179 -3.3655 2.3953
-3.4966 -3.4945 2.3953
-3.3706 -3.6189 2.3953
-3.2401 -3.7388 2.3953
-3.1054 -3.8539 2.3953
-2.9665 -3.9640 2.3953
-2.8237 -4.0691 2.3953
-2.6771 -4.1690 2.3953
-2.5269 -4.2634 2.3953
-2.3734 -4.3524 2.3953
-2.2167 -4.4358 2.3953
-2.0570 -4.5134 2.3953
-1.8946 -4.5853 2.3953
-1.7297 -4.6511 2.3953
-1.5624 -4.7109 2.3953
-1.3931 -4.7646 2.3953
-1.2219 -4.8121 2.3953
-1.0491 -4.8534 2.3953
-0.8748 -4.8883 2.3953
-0.6994 -4.9169 2.3953
-0.5231 -4.9391 2.3953
-0.3460 -4.9549 2.3953
-0.1685 -4.9642 2.3953
0.0092 -4.9670 2.3953
0.1869 -4.9634 2.3953
0.3643 -4.9533 2.3953
0.5413 -4.9367 2.3953
0.7175 -4.9137 2.3953
0.8928 -4.8844 2.3953
1.0668 -4.8486 2.3953
1.2395 -4.8066 2.3953
1.4104 -4.7583 2.3953
1.5795 -4.7039 2.3953
1.7464 -4.6433 2.3953
1.9110 -4.5767 2.3953
2.0731 -4.5042 2.3953
2.2323 -4.4259 2.3953
2.3886 -4.3419 2.3953
2.5417 -4.2523 2.3953
2.6914 -4.1571 2.3953
2.8375 -4.0567 2.3953
2.9798 -3.9510 2.3953
3.1181 -3.8403 2.3953
3.2523 -3.7247 2.3953
3.3822 -3.6043 2.3953
3.5076 -3.4793 2.3953
3.6283 -3.3500 2.3953
3.7443 -3.2164 2.3953
3.8552 -3.0787 2.3953
3.9611 -2.9371 2.3953
4.0617 -2.7919 2.3953
4.1570 -2.6432 2.3953
4.2468 -2.4912 2.3953
4.3310 -2.3361 2.3953
4.4096 -2.1782 2.3953
4.4823 -2.0176 2.3953
4.5492 -1.8546 2.3953
4.6101 -1.6893 2.3953
4.6650 -1.5220 2.3953
4.7138 -1.3529 2.3953
4.7565 -1.1823 2.3953
4.7930 -1.0103 2.3953
4.8232 -0.8372 2.3953
4.8472 -0.6632 2.3953
4.8649 -0.4885 2.3953
4.8764 -0.3134 2.3953
4.8815 -0.1381 2.3953
4.8804 0.0372 2.3953
4.8729 0.2122 2.3953
4.8592 0.3868 2.3953
4.8393 0.5607 2.3953
4.8131 0.7337 2.3953
4.7808 0.9056 2.3953
4.7424 1.0761 2.3953
4.6979 1.2451 2.3953
4.6474 1.4122 2.3953
4.5910 1.5774 2.3953
4.5288 1.7404 2.3953
4.4609 1.9010 2.3953
4.3872 2.0590 2.3953
4.3081 2.2142 2.3953
4.2234 2.3664 2.3953
4.1335 2.5154 2.3953
4.0383 2.6611 2.3953
3.9381 2.8033 2.3953
3.8328 2.9418 2.3953
3.7228 3.0762 2.3953
3.6081 3.2067 2.3953
3.4889 3.3330 2.3953
3.3653 3.4549 2.3953
3.2375 3.5723 2.3953
3.1056 3.6851 2.3953
2.9699 3.7931 2.3953
2.8304 3.8961 2.3953
2.6874 3.9942 2.3953
2.5411 4.0870 2.3953
2.3916 4.1746 2.3953
0.8937 1.6991 0.9560
0.8320 1.7302 0.9563
0.7692 1.7592 0.9566
0.7054 1.7858 0.9569
0.6407 1.8101 0.9571
0.5751 1.8321 0.9573
0.5088 1.8517 0.9575
0.4418 1.8689 0.9577
0.3742 1.8837 0.9578
0.3062 1.8960 0.9580
0.2377 1.9059 0.9581
0.1689 1.9133 0.9582
0.0999 1.9182 0.9582
0.0307 1.9207 0.9583
-0.0385 1.9206 0.9583
-0.1076 1.9180 0.9583
-0.1766 1.9130 0.9583
-0.2454 1.9054 0.9582
-0.3139 1.8954 0.9582
-0.3820 1.8829 0.9581
-0.4495 1.8680 0.9580
-0.5165 1.8506 0.9578
-0.5828 1.8309 0.9577
-0.6484 1.8087 0.9575
-0.7131 1.7843 0.9573
-0.7769 1.7575 0.9571
-0.8397 1.7284 0.9568
-0.9014 1.6970 0.9566
-2.4093 4.1666 2.3953
-2.5586 4.0785 2.3953
-2.7046 3.9851 2.3953
-2.8473 3.8866 2.3953
-2.9865 3.7831 2.3953
-3.1219 3.6746 2.3953
-3.2535 3.5613 2.3953
-3.3809 3.4434 2.3953
-3.5042 3.3210 2.3953
-3.6230 3.1943 2.3953
-3.7373 3.0633 2.3953
-3.8469 2.9283 2.3953
-3.9517 2.7894 2.3953
-4.0515 2.6469 2.3953
-4.1462 2.5008 2.3953
-4.2357 2.3514 2.3953
-4.3198 2.1987 2.3953
-4.3985 2.0432 2.3953
-4.4716 1.8848 2.3953
-4.5390 1.7239 2.3953
-4.6007 1.5606 2.3953
-4.6565 1.3951 2.3953
-4.7064 1.2276 2.3953
-4.7503 1.0584 2.3953
-4.7881 0.8876 2.3953
-4.8197 0.7155 2.3953
-4.8453 0.5423 2.3953
-4.8646 0.3682 2.3953
-4.8776 0.1935 2.3953
-4.8844 0.0183 2.3953
-4.8849 -0.1571 2.3953
-4.8790 -0.3325 2.3953
-4.8669 -0.5077 2.3953
-4.8485 -0.6824 2.3953
-4.8238 -0.8564 2.3953
-4.7928 -1.0295 2.3953
-4.7556 -1.2014 2.3953
-4.7122 -1.3720 2.3953
-4.6627 -1.5410 2.3953
-4.6071 -1.7082 2.3953
-4.5455 -1.8733 2.3953
-4.4779 -2.0362 2.3953
-4.4044 -2.1966 2.3953
-4.3252 -2.3543 2.3953
-4.2403 -2.5091 2.3953
-4.1498 -2.6608 2.3953
-4.0538 -2.8091 2.3953
-3.9525 -2.9540 2.3953
-3.8460 -3.0952 2.3953
-3.7344 -3.2324 2.3953
-3.6178 -3.3656 2.3953
-3.4965 -3.4945 2.3953
-3.3705 -3.6190 2.3953
-3.2401 -3.7389 2.3953
-3.1053 -3.8540 2.3953
-2.9664 -3.9641 2.3953
-2.8236 -4.0692 2.3953
-2.6770 -4.1690 2.3953
-2.5268 -4.2635 2.3953
-2.3733 -4.3525 2.3953
-2.2166 -4.4359 2.3953
-2.0569 -4.5135 2.3953
-1.8945 -4.5853 2.3953
-1.7296 -4.6511 2.3953
-1.5623 -4.7109 2.3953
-1.3930 -4.7646 2.3953
-1.2218 -4.8121 2.3953
-1.0490 -4.8534 2.3953
-0.8747 -4.8883 2.3953
-0.6993 -4.9169 2.3953
-0.5230 -4.9391 2.3953
-0.3459 -4.9549 2.3953
-0.1684 -4.9641 2.3953
0.0085 -4.6938 2.3953
0.1765 -4.6904 2.3953
0.3441 -4.6808 2.3953
0.5113 -4.6652 2.3953
0.6778 -4.6435 2.3953
0.8434 -4.6158 2.3953
1.0079 -4.5821 2.3953
1.1710 -4.5424 2.3953
1.3325 -4.4968 2.3953
1.4923 -4.4454 2.3953
1.6500 -4.3883 2.3953
1.8056 -4.3254 2.3953
1.9587 -4.2570 2.3953
2.1092 -4.1830 2.3953
2.2569 -4.1037 2.3953
2.4016 -4.0190 2.3953
2.5431 -3.9292 2.3953
2.6812 -3.8344 2.3953
2.8157 -3.7346 2.3953
2.9465 -3.6300 2.3953
3.0734 -3.5208 2.3953
3.1962 -3.4071 2.3953
3.3147 -3.2891 2.3953
3.4289 -3.1669 2.3953
3.5385 -3.0407 2.3953
3.6435 -2.9107 2.3953
3.7436 -2.7769 2.3953
3.8388 -2.6397 2.3953
3.9290 -2.4992 2.3953
4.0140 -2.3556 2.3953
4.0937 -2.2091 2.3953
4.1680 -2.0599 2.3953
4.2369 -1.9081 2.3953
4.3002 -1.7541 2.3953
4.3579 -1.5979 2.3953
4.4099 -1.4398 2.3953
4.4562 -1.2800 2.3953
4.4966 -1.1187 2.3953
4.5313 -0.9561 2.3953
4.5600 -0.7925 2.3953
4.5828 -0.6280 2.3953
4.5997 -0.4629 2.3953
4.6106 -0.2973 2.3953
4.6156 -0.1316 2.3953
4.6146 0.0342 2.3953
4.6077 0.1997 2.3953
4.5949 0.3648 2.3953
4.5761 0.5293 2.3953
4.5515 0.6929 2.3953
4.5211 0.8554 2.3953
4.4849 1.0167 2.3953
4.4429 1.1765 2.3953
4.3953 1.3347 2.3953
4.3421 1.4909 2.3953
4.2834 1.6451 2.3953
4.2192 1.7971 2.3953
4.1497 1.9465 2.3953
4.0749 2.0934 2.3953
3.9949 2.2374 2.3953
3.9099 2.3784 2.3953
3.8200 2.5163 2.3953
3.7253 2.6508 2.3953
3.6258 2.7818 2.3953
3.5218 2.9091 2.3953
3.4134 3.0326 2.3953
3.3006 3.1522 2.3953
3.1838 3.2676 2.3953
3.0629 3.3787 2.3953
2.9382 3.4855 2.3953
2.8098 3.5877 2.3953
2.6779 3.6852 2.3953
2.5427 3.7780 2.3953
2.4043 3.8660 2.3953
0.9022 1.5743 0.9549
0.8449 1.6059 0.9552
0.7866 1.6353 0.9555
0.7272 1.6626 0.9558
0.6669 1.6878 0.9560
0.6057 1.7108 0.9562
0.5437 1.7316 0.9564
0.4810 1.7501 0.9566
0.4177 1.7664 0.9568
0.3538 1.7803 0.9569
0.2894 1.7920 0.9571
0.2247 1.8013 0.9572
0.1597 1.8083 0.9572
