ply
format ascii 1.0
element vertex 2170
property float32 x
property float32 y
property float32 z
end_header
-4.6115 4.6805 2.3945
-4.7685 4.5009 2.3945
-4.9194 4.3166 2.3945
-5.0638 4.1278 2.3945
-5.2017 3.9346 2.3945
-5.3330 3.7374 2.3945
-5.4575 3.5362 2.3945
-5.5753 3.3313 2.3945
-5.6861 3.1229 2.3945
-5.7900 2.9112 2.3945
-5.8868 2.6964 2.3945
-5.9765 2.4788 2.3945
-6.0589 2.2585 2.3945
-6.1341 2.0357 2.3945
-6.2019 1.8107 2.3945
-6.2624 1.5837 2.3945
-6.3154 1.3548 2.3945
-6.3609 1.1244 2.3945
-6.3989 0.8925 2.3945
-6.4293 0.6595 2.3945
-6.4521 0.4255 2.3945
-6.4673 0.1907 2.3945
-6.4748 -0.0445 2.3945
-6.4746 -0.2801 2.3945
-6.4667 -0.5158 2.3945
-6.4511 -0.7513 2.3945
-6.4277 -0.9864 2.3945
-6.3967 -1.2210 2.3945
-6.3578 -1.4548 2.3945
-6.3113 -1.6875 2.3945
-6.2571 -1.9189 2.3945
-6.1951 -2.1489 2.3945
-6.1255 -2.3771 2.3945
-6.0482 -2.6033 2.3945
-5.9633 -2.8274 2.3945
-5.8709 -3.0490 2.3945
-5.7709 -3.2679 2.3945
-5.6634 -3.4839 2.3945
-5.5485 -3.6967 2.3945
-5.4262 -3.9062 2.3945
-5.2967 -4.1120 2.3945
-5.1599 -4.3139 2.3945
-5.0160 -4.5117 2.3945
-4.8651 -4.7051 2.3945
-4.7073 -4.8939 2.3945
-4.5426 -5.0778 2.3945
-4.3713 -5.2566 2.3945
-4.1934 -5.4300 2.3945
-4.0091 -5.5979 2.3945
-3.8185 -5.7598 2.3945
-3.6217 -5.9157 2.3945
-3.4190 -6.0653 2.3945
-3.2106 -6.2082 2.3945
-2.9965 -6.3444 2.3945
-2.7771 -6.4735 2.3945
-2.5524 -6.5953 2.3945
-2.3229 -6.7096 2.3945
-2.0885 -6.8162 2.3945
-1.8497 -6.9149 2.3945
-1.6066 -7.0054 2.3945
-1.3596 -7.0875 2.3945
-1.1089 -7.1610 2.3945
-0.8548 -7.2258 2.3945
-0.5975 -7.2816 2.3945
-0.3374 -7.3284 2.3945
-0.0749 -7.3658 2.3945
0.1898 -7.3938 2.3945
0.4563 -7.4123 2.3945
0.7242 -7.4210 2.3945
0.9933 -7.4199 2.3945
1.2630 -7.4089 2.3945
1.5331 -7.3878 2.3945
1.8032 -7.3566 2.3945
2.0728 -7.3153 2.3945
2.3416 -7.2637 2.3945
2.5854 -7.1364 2.3727
2.6919 -6.6762 2.2421
2.9389 -6.5991 2.2421
3.1838 -6.5134 2.2424
3.4266 -6.4190 2.2430
3.6663 -6.3151 2.2436
3.9026 -6.2017 2.2442
4.1349 -6.0790 2.2448
4.3630 -5.9469 2.2454
4.5864 -5.8058 2.2459
4.8046 -5.6557 2.2465
5.0018 -5.4797 2.2400
5.2079 -5.3125 2.2405
5.3610 -5.0927 2.2216
5.5992 -4.9520 2.2408
5.7845 -4.7600 2.2409
5.9624 -4.5605 2.2411
6.1326 -4.3538 2.2413
6.2948 -4.1402 2.2414
6.4485 -3.9201 2.2416
6.5936 -3.6938 2.2418
6.7297 -3.4616 2.2420
6.8567 -3.2239 2.2422
6.9741 -2.9811 2.2424
5.4119 -2.0891 1.7137
7.1798 -2.4820 2.2428
7.2677 -2.2264 2.2430
7.3452 -1.9675 2.2433
7.4124 -1.7056 2.2435
7.4691 -1.4411 2.2437
7.5151 -1.1746 2.2440
7.5505 -0.9065 2.2442
7.5751 -0.6373 2.2445
7.5889 -0.3674 2.2448
7.5919 -0.0973 2.2450
7.5842 0.1726 2.2453
7.5657 0.4417 2.2456
7.5365 0.7096 2.2459
7.4967 0.9760 2.2461
5.4752 0.9119 1.6517
7.3859 1.5019 2.2467
7.3138 1.7604 2.2466
5.4947 1.5313 1.7069
7.1377 2.2658 2.2457
7.0351 2.5122 2.2453
6.9233 2.7539 2.2449
5.5071 2.4211 1.8171
5.4592 2.6359 1.8360
6.5297 3.4448 2.2421
6.3844 3.6647 2.2421
6.2310 3.8782 2.2421
6.0700 4.0852 2.2421
5.9016 4.2853 2.2421
5.7261 4.4783 2.2421
5.5440 4.6639 2.2421
5.3554 4.8419 2.2421
5.5116 5.3528 2.3945
5.2978 5.5262 2.3945
5.0783 5.6908 2.3945
4.8534 5.8466 2.3945
4.6237 5.9934 2.3945
4.3895 6.1310 2.3945
4.1512 6.2595 2.3945
3.9091 6.3787 2.3945
3.6636 6.4885 2.3945
3.4152 6.5889 2.3945
3.1642 6.6798 2.3945
2.9110 6.7613 2.3945
2.6559 6.8333 2.3945
0.9371 2.6933 0.9352
0.8397 2.7245 0.9388
0.7412 2.7520 0.9424
0.6417 2.7760 0.9460
0.5414 2.7964 0.9496
0.4405 2.8131 0.9531
0.3390 2.8262 0.9567
0.2371 2.8356 0.9602
0.1349 2.8413 0.9637
0.0325 2.8433 0.9672
-0.0698 2.8416 0.9706
-0.1720 2.8362 0.9741
-0.2740 2.8271 0.9774
-0.3756 2.8143 0.9807
-0.4766 2.7978 0.9840
-0.5770 2.7777 0.9872
-0.6766 2.7540 0.9903
-0.7753 2.7267 0.9934
-0.8729 2.6959 0.9964
-2.3226 6.3768 2.3945
-2.5433 6.2682 2.3945
-2.7595 6.1526 2.3945
-2.9711 6.0301 2.3945
-3.1778 5.9009 2.3945
-3.3795 5.7653 2.3945
-3.5761 5.6234 2.3945
-3.7673 5.4754 2.3945
-3.9530 5.3216 2.3945
-4.1331 5.1620 2.3945
-4.3070 4.9969 2.3945
-4.4756 4.8266 2.3945
-4.6379 4.6511 2.3945
-4.7940 4.4707 2.3945
-4.9437 4.2857 2.3945
-5.0871 4.0961 2.3945
-5.2239 3.9022 2.3945
-5.3541 3.7043 2.3945
-5.4775 3.5025 2.3945
-5.5941 3.2970 2.3945
-5.7038 3.0881 2.3945
-5.8065 2.8759 2.3945
-5.9021 2.6606 2.3945
-5.9906 2.4425 2.3945
-6.0718 2.2218 2.3945
-6.1458 1.9986 2.3945
-6.2124 1.7733 2.3945
-6.2717 1.5459 2.3945
-6.3234 1.3168 2.3945
-6.3677 1.0861 2.3945
-6.4045 0.8540 2.3945
-6.4336 0.6208 2.3945
-6.4552 0.3867 2.3945
-6.4690 0.1518 2.3945
-6.4753 -0.0835 2.3945
-6.4738 -0.3191 2.3945
-6.4646 -0.5548 2.3945
-6.4477 -0.7902 2.3945
-6.4231 -1.0253 2.3945
-6.3908 -1.2598 2.3945
-6.3507 -1.4934 2.3945
-6.3029 -1.7259 2.3945
-6.2473 -1.9571 2.3945
-6.1841 -2.1868 2.3945
-6.1132 -2.4147 2.3945
-6.0347 -2.6406 2.3945
-5.9485 -2.8642 2.3945
-5.8548 -3.0854 2.3945
-5.7536 -3.3038 2.3945
-5.6449 -3.5193 2.3945
-5.5287 -3.7316 2.3945
-5.4053 -3.9405 2.3945
-5.2745 -4.1457 2.3945
-5.1366 -4.3469 2.3945
-4.9915 -4.5440 2.3945
-4.8394 -4.7367 2.3945
-4.6805 -4.9247 2.3945
-4.5147 -5.1078 2.3945
-4.3423 -5.2857 2.3945
-4.1633 -5.4582 2.3945
-3.9779 -5.6251 2.3945
-3.7863 -5.7861 2.3945
-3.5886 -5.9409 2.3945
-3.3849 -6.0894 2.3945
-3.1755 -6.2313 2.3945
-2.9606 -6.3662 2.3945
-2.7402 -6.4942 2.3945
-2.5148 -6.6148 2.3945
-2.2844 -6.7278 2.3945
-2.0493 -6.8331 2.3945
-1.8098 -6.9304 2.3945
-1.5660 -7.0195 2.3945
-1.3184 -7.1002 2.3945
-1.0670 -7.1723 2.3945
-0.8124 -7.2357 2.3945
-0.5546 -7.2900 2.3945
-0.2941 -7.3352 2.3945
-0.0312 -7.3711 2.3945
0.2338 -7.3976 2.3945
0.5005 -7.4144 2.3945
0.7687 -7.4215 2.3945
1.0379 -7.4188 2.3945
1.3078 -7.4061 2.3945
1.5779 -7.3834 2.3945
1.8479 -7.3505 2.3945
2.1174 -7.3075 2.3945
2.3860 -7.2542 2.3945
2.5940 -7.0303 2.3411
2.7329 -6.6640 2.2421
2.9795 -6.5855 2.2421
3.2242 -6.4984 2.2425
3.4665 -6.4025 2.2431
3.7057 -6.2970 2.2437
3.9413 -6.1820 2.2443
4.1730 -6.0577 2.2449
4.4003 -5.9242 2.2455
4.6229 -5.7815 2.2460
4.8391 -5.6286 2.2460
5.0361 -5.4524 2.2400
4.7764 5.2190 2.3945
4.5709 5.3673 2.3945
4.3607 5.5074 2.3945
4.1460 5.6393 2.3945
3.9274 5.7627 2.3945
3.7050 5.8775 2.3945
3.4793 5.9838 2.3945
3.2506 6.0814 2.3945
3.0193 6.1703 2.3945
2.7856 6.2505 2.3945
2.5501 6.3219 2.3945
0.9027 2.4917 0.9345
0.8125 2.5217 0.9378
0.7213 2.5484 0.9412
0.6291 2.5718 0.9445
0.5362 2.5918 0.9478
0.4426 2.6085 0.9512
0.3485 2.6217 0.9545
0.2539 2.6316 0.9577
0.1590 2.6380 0.9610
0.0639 2.6410 0.9643
-0.0312 2.6405 0.9675
-0.1262 2.6366 0.9706
-0.2210 2.6293 0.9738
-0.3155 2.6186 0.9769
-0.4096 2.6044 0.9799
-0.5031 2.5868 0.9829
-0.5959 2.5659 0.9859
-0.6879 2.5416 0.9887
-0.7789 2.5141 0.9916
-0.8689 2.4832 0.9943
-2.3001 5.8820 2.3945
-2.5037 5.7774 2.3945
-2.7032 5.6662 2.3945
-2.8982 5.5487 2.3945
-3.0886 5.4250 2.3945
-3.2743 5.2953 2.3945
-3.4551 5.1598 2.3945
-3.6309 5.0186 2.3945
-3.8016 4.8720 2.3945
-3.9666 4.7201 2.3945
-4.1263 4.5631 2.3945
-4.2804 4.4012 2.3945
-4.4288 4.2346 2.3945
-4.5712 4.0635 2.3945
-4.7078 3.8880 2.3945
-4.8382 3.7084 2.3945
-4.9624 3.5249 2.3945
-5.0804 3.3376 2.3945
-5.1919 3.1468 2.3945
-5.2970 2.9526 2.3945
-5.3956 2.7552 2.3945
-5.4876 2.5549 2.3945
-5.5728 2.3519 2.3945
-5.6513 2.1462 2.3945
-5.7229 1.9382 2.3945
-5.7876 1.7281 2.3945
-5.8454 1.5160 2.3945
-5.8962 1.3021 2.3945
-5.9399 1.0867 2.3945
-5.9766 0.8700 2.3945
-6.0061 0.6521 2.3945
-6.0285 0.4333 2.3945
-6.0436 0.2137 2.3945
-6.0516 -0.0063 2.3945
-6.0523 -0.2266 2.3945
-6.0458 -0.4471 2.3945
-6.0320 -0.6674 2.3945
-6.0109 -0.8874 2.3945
-5.9826 -1.1068 2.3945
-5.9469 -1.3254 2.3945
-5.9040 -1.5431 2.3945
-5.8539 -1.7595 2.3945
-5.7966 -1.9746 2.3945
-5.7320 -2.1879 2.3945
-5.6602 -2.3994 2.3945
-5.5813 -2.6089 2.3945
-5.4953 -2.8160 2.3945
-5.4022 -3.0205 2.3945
-5.3022 -3.2223 2.3945
-5.1951 -3.4211 2.3945
-5.0812 -3.6167 2.3945
-4.9605 -3.8088 2.3945
-4.8331 -3.9973 2.3945
-4.6990 -4.1818 2.3945
-4.5583 -4.3622 2.3945
-4.4113 -4.5382 2.3945
-4.2578 -4.7096 2.3945
-4.0982 -4.8762 2.3945
-3.9324 -5.0377 2.3945
-3.7607 -5.1940 2.3945
-3.5832 -5.3447 2.3945
-3.3999 -5.4898 2.3945
-3.2112 -5.6288 2.3945
-3.0172 -5.7616 2.3945
-2.8180 -5.8881 2.3945
-2.6138 -6.0080 2.3945
-2.4049 -6.1210 2.3945
-2.1914 -6.2270 2.3945
-1.9736 -6.3258 2.3945
-1.7516 -6.4172 2.3945
-1.5258 -6.5009 2.3945
-1.2964 -6.5769 2.3945
-1.0636 -6.6449 2.3945
-0.8277 -6.7047 2.3945
-0.5890 -6.7562 2.3945
-0.3477 -6.7992 2.3945
-0.1043 -6.8336 2.3945
0.1411 -6.8592 2.3945
0.3881 -6.8760 2.3945
0.6363 -6.8838 2.3945
0.8855 -6.8825 2.3945
1.1353 -6.8720 2.3945
1.3853 -6.8522 2.3945
1.6353 -6.8231 2.3945
1.8847 -6.7846 2.3945
2.1333 -6.7368 2.3945
2.3807 -6.6795 2.3945
2.6011 -6.5489 2.3714
2.6875 -6.1205 2.2421
2.9136 -6.0405 2.2421
3.1373 -5.9521 2.2423
3.3587 -5.8561 2.2429
3.5768 -5.7513 2.2434
3.7913 -5.6379 2.2439
4.0019 -5.5161 2.2445
4.2081 -5.3859 2.2450
4.4096 -5.2475 2.2455
4.6060 -5.1010 2.2460
4.7969 -4.9467 2.2465
4.9694 -4.7724 2.2412
5.1470 -4.6025 2.2412
5.3184 -4.4257 2.2414
5.4830 -4.2420 2.2415
5.6406 -4.0518 2.2417
5.7907 -3.8552 2.2419
5.9333 -3.6526 2.2420
6.0679 -3.4443 2.2422
6.1943 -3.2306 2.2424
6.3123 -3.0119 2.2425
6.4216 -2.7885 2.2427
5.4112 -2.1246 1.8609
6.6136 -2.3291 2.2431
6.6959 -2.0939 2.2433
5.4366 -1.4903 1.8020
5.4352 -1.2843 1.7850
6.8860 -1.3708 2.2440
6.9301 -1.1253 2.2442
6.9644 -0.8783 2.2445
6.9889 -0.6302 2.2447
7.0036 -0.3813 2.2449
7.0083 -0.1322 2.2452
7.0032 0.1168 2.2454
6.9883 0.3652 2.2457
6.9635 0.6126 2.2460
6.9291 0.8586 2.2462
6.8850 1.1029 2.2465
6.8314 1.3449 2.2467
6.7677 1.5842 2.2468
5.4939 1.4939 1.8438
6.6102 2.0526 2.2460
5.5030 1.9259 1.8958
6.4171 2.5054 2.2451
5.5062 2.3789 1.9594
5.4450 2.5861 1.9740
6.0604 3.1475 2.2421
5.9286 3.3523 2.2421
5.7893 3.5514 2.2421
5.6428 3.7445 2.2421
5.4893 3.9314 2.2421
5.3293 4.1119 2.2421
5.1630 4.2857 2.2421
4.9907 4.4526 2.2421
4.8126 4.6125 2.2421
4.9439 5.0890 2.3945
4.7427 5.2441 2.3945
4.5364 5.3910 2.3945
4.3254 5.5298 2.3945
4.1101 5.6603 2.3945
3.8908 5.7823 2.3945
3.6679 5.8957 2.3945
3.4417 6.0006 2.3945
3.2125 6.0968 2.3945
2.9808 6.1842 2.3945
2.7469 6.2628 2.3945
2.5110 6.3329 2.3945
0.8878 2.4969 0.9351
0.7975 2.5264 0.9384
0.7061 2.5525 0.9417
0.6138 2.5753 0.9451
0.5208 2.5948 0.9484
0.4271 2.6109 0.9517
0.3328 2.6236 0.9550
0.2382 2.6329 0.9583
0.1433 2.6387 0.9616
0.0482 2.6411 0.9648
-0.0469 2.6401 0.9680
-0.1419 2.6357 0.9712
-0.2367 2.6278 0.9743
-0.3311 2.6165 0.9774
-0.4251 2.6017 0.9804
-0.5185 2.5836 0.9834
-0.6112 2.5621 0.9863
-0.7030 2.5373 0.9892
-0.7939 2.5092 0.9920
-2.1271 5.9642 2.3945
-2.3341 5.8652 2.3945
-2.5370 5.7594 2.3945
-2.7357 5.6472 2.3945
-2.9300 5.5286 2.3945
-3.1197 5.4039 2.3945
-3.3046 5.2732 2.3945
-3.4846 5.1368 2.3945
-3.6595 4.9947 2.3945
-3.8292 4.8472 2.3945
-3.9934 4.6944 2.3945
-4.1522 4.5366 2.3945
-4.3054 4.3740 2.3945
-4.4527 4.2066 2.3945
-4.5943 4.0347 2.3945
-4.7298 3.8586 2.3945
-4.8592 3.6783 2.3945
-4.9824 3.4942 2.3945
-5.0993 3.3063 2.3945
-5.2098 3.1149 2.3945
-5.3138 2.9201 2.3945
-5.4113 2.7223 2.3945
-5.5021 2.5215 2.3945
-5.5862 2.3180 2.3945
-5.6635 2.1120 2.3945
-5.7341 1.9036 2.3945
-5.7977 1.6931 2.3945
-5.8543 1.4807 2.3945
-5.9039 1.2666 2.3945
-5.9465 1.0509 2.3945
-5.9820 0.8340 2.3945
-6.0103 0.6159 2.3945
-6.0315 0.3970 2.3945
-6.0455 0.1773 2.3945
-6.0522 -0.0428 2.3945
-6.0517 -0.2631 2.3945
-6.0440 -0.4836 2.3945
-6.0290 -0.7038 2.3945
-6.0067 -0.9237 2.3945
-5.9772 -1.1430 2.3945
-5.9403 -1.3615 2.3945
-5.8962 -1.5790 2.3945
-5.8449 -1.7952 2.3945
-5.7864 -2.0100 2.3945
-5.7206 -2.2231 2.3945
-5.6477 -2.4343 2.3945
-5.5676 -2.6433 2.3945
-5.4804 -2.8500 2.3945
-5.3862 -3.0541 2.3945
-5.2849 -3.2554 2.3945
-5.1768 -3.4537 2.3945
-5.0617 -3.6487 2.3945
-4.9399 -3.8403 2.3945
-4.8113 -4.0281 2.3945
-4.6762 -4.2119 2.3945
-4.5344 -4.3916 2.3945
-4.3863 -4.5669 2.3945
-4.2318 -4.7375 2.3945
-4.0711 -4.9033 2.3945
-3.9044 -5.0640 2.3945
-3.7317 -5.2193 2.3945
-3.5532 -5.3691 2.3945
-3.3691 -5.5132 2.3945
-3.1795 -5.6512 2.3945
-2.9846 -5.7830 2.3945
-2.7845 -5.9084 2.3945
-2.5796 -6.0272 2.3945
-2.3699 -6.1391 2.3945
-2.1556 -6.2439 2.3945
-1.9371 -6.3415 2.3945
-1.7145 -6.4316 2.3945
-1.4881 -6.5140 2.3945
-1.2581 -6.5887 2.3945
-1.0247 -6.6553 2.3945
-0.7884 -6.7138 2.3945
-0.5492 -6.7639 2.3945
-0.3076 -6.8055 2.3945
-0.0638 -6.8384 2.3945
0.1819 -6.8626 2.3945
0.4291 -6.8779 2.3945
0.6775 -6.8842 2.3945
0.9268 -6.8814 2.3945
1.1767 -6.8693 2.3945
1.4267 -6.8480 2.3945
1.6766 -6.8173 2.3945
1.9259 -6.7774 2.3945
2.1743 -6.7280 2.3945
2.4215 -6.6691 2.3945
2.6089 -6.4570 2.3423
2.7251 -6.1079 2.2421
2.9508 -6.0264 2.2421
3.1742 -5.9368 2.2424
3.3950 -5.8393 2.2429
3.6126 -5.7331 2.2435
3.8265 -5.6184 2.2440
4.0363 -5.4951 2.2446
4.2418 -5.3635 2.2451
4.4424 -5.2238 2.2456
4.6380 -5.0760 2.2461
4.8280 -4.9204 2.2466
4.9984 -4.7441 2.2409
5.1758 -4.5737 2.2413
5.3461 -4.3957 2.2414
5.5096 -4.2110 2.2416
5.3822 -3.8184 2.1295
5.8149 -3.8221 2.2419
5.9561 -3.6185 2.2421
6.0894 -3.4093 2.2422
6.2144 -3.1948 2.2424
6.3310 -2.9752 2.2426
6.4389 -2.7511 2.2428
5.4119 -2.0882 1.8567
6.6279 -2.2904 2.2432
6.7086 -2.0546 2.2434
5.4317 -1.4547 1.7974
6.8418 -1.5742 2.2438
6.8940 -1.3303 2.2440
6.9365 -1.0845 2.2443
6.9692 -0.8373 2.2445
6.9920 -0.5890 2.2447
7.0050 -0.3401 2.2450
7.0082 -0.0910 2.2452
7.0014 0.1579 2.2455
6.9849 0.4062 2.2457
6.9585 0.6534 2.2460
6.9225 0.8992 2.2462
5.4752 0.9101 1.7886
6.8216 1.3847 2.2468
6.7561 1.6235 2.2467
6.6803 1.8589 2.2463
6.5956 2.0907 2.2459
5.5038 1.9626 1.9007
6.3990 2.5419 2.2448
5.5070 2.4178 1.9655
5.4580 2.6318 1.9851
6.0391 3.1818 2.2421
5.9060 3.3856 2.2421
5.7655 3.5837 2.2421
5.6178 3.7759 2.2421
5.4633 3.9617 2.2421
5.3022 4.1411 2.2421
5.1349 4.3138 2.2421
4.9616 4.4796 2.2421
4.7827 4.6383 2.2421
4.9110 5.1152 2.3945
4.7089 5.2689 2.3945
4.5018 5.4146 2.3945
4.2901 5.5520 2.3945
4.0741 5.6811 2.3945
3.8542 5.8017 2.3945
3.6307 5.9137 2.3945
3.4039 6.0171 2.3945
3.1743 6.1118 2.3945
2.9422 6.1978 2.3945
2.7079 6.2751 2.3945
2.4717 6.3436 2.3945
0.8730 2.5020 0.9356
0.7824 2.5309 0.9389
0.6909 2.5565 0.9423
0.5985 2.5788 0.9456
0.5053 2.5977 0.9489
0.4115 2.6132 0.9523
0.3172 2.6254 0.9556
0.2225 2.6341 0.9588
0.1275 2.6394 0.9621
0.0325 2.6412 0.9653
-0.0626 2.6396 0.9685
-0.1576 2.6346 0.9717
-0.2524 2.6261 0.9748
-0.3467 2.6143 0.9779
-0.4406 2.5990 0.9809
-0.5339 2.5803 0.9839
-0.6264 2.5582 0.9868
-0.7181 2.5329 0.9897
-0.8088 2.5042 0.9925
-2.1616 5.9483 2.3945
-2.3680 5.8481 2.3945
-2.5702 5.7413 2.3945
-2.7682 5.6280 2.3945
-2.9617 5.5084 2.3945
-3.1506 5.3827 2.3945
-3.3347 5.2511 2.3945
-3.5139 5.1136 2.3945
-3.6883 4.9707 2.3945
-3.8568 4.8223 2.3945
-4.0201 4.6687 2.3945
-4.1780 4.5100 2.3945
-4.3302 4.3466 2.3945
-4.4765 4.1784 2.3945
-4.6171 4.0059 2.3945
-4.7516 3.8290 2.3945
-4.8800 3.6481 2.3945
-5.0022 3.4633 2.3945
-5.1180 3.2748 2.3945
-5.2275 3.0829 2.3945
-5.3304 2.8876 2.3945
-5.4268 2.6892 2.3945
-5.5165 2.4880 2.3945
-5.5996 2.2841 2.3945
-5.6757 2.0776 2.3945
-5.7451 1.8689 2.3945
-5.8075 1.6581 2.3945
-5.8630 1.4454 2.3945
-5.9115 1.2310 2.3945
-5.9529 1.0151 2.3945
-5.9872 0.7979 2.3945
-6.0143 0.5797 2.3945
-6.0343 0.3607 2.3945
-6.0471 0.1409 2.3945
-6.0526 -0.0792 2.3945
-6.0510 -0.2996 2.3945
-6.0420 -0.5200 2.3945
-6.0258 -0.7403 2.3945
-6.0023 -0.9601 2.3945
-5.9716 -1.1793 2.3945
-5.9335 -1.3976 2.3945
-5.8883 -1.6149 2.3945
-5.8357 -1.8309 2.3945
-5.7760 -2.0454 2.3945
-5.7090 -2.2582 2.3945
-5.6349 -2.4690 2.3945
-5.5536 -2.6777 2.3945
-5.4653 -2.8840 2.3945
-5.3699 -3.0877 2.3945
-5.2675 -3.2885 2.3945
-5.1582 -3.4862 2.3945
-5.0420 -3.6807 2.3945
-4.9191 -3.8716 2.3945
-4.7894 -4.0588 2.3945
-4.6531 -4.2420 2.3945
-4.5104 -4.4209 2.3945
-4.3612 -4.5955 2.3945
-4.2056 -4.7653 2.3945
-4.0439 -4.9303 2.3945
-3.8762 -5.0901 2.3945
-3.7026 -5.2445 2.3945
-3.5231 -5.3934 2.3945
-3.3381 -5.5364 2.3945
-3.1476 -5.6736 2.3945
-2.9518 -5.8042 2.3945
-2.7510 -5.9285 2.3945
-2.5452 -6.0462 2.3945
-2.3347 -6.1569 2.3945
-2.1198 -6.2606 2.3945
-1.9005 -6.3569 2.3945
-1.6773 -6.4458 2.3945
-1.4503 -6.5270 2.3945
-1.2197 -6.6003 2.3945
-0.9858 -6.6656 2.3945
-0.7490 -6.7226 2.3945
-0.5094 -6.7713 2.3945
-0.2674 -6.8115 2.3945
-0.0232 -6.8431 2.3945
0.2227 -6.8658 2.3945
0.4701 -6.8796 2.3945
0.7187 -6.8844 2.3945
0.9682 -6.8800 2.3945
1.2181 -6.8665 2.3945
1.4681 -6.8436 2.3945
1.7179 -6.8114 2.3945
1.9671 -6.7698 2.3945
2.2154 -6.7188 2.3945
2.4622 -6.6584 2.3945
2.6165 -6.3673 2.3141
2.7626 -6.0950 2.2421
2.9879 -6.0121 2.2421
3.2110 -5.9213 2.2425
3.4313 -5.8223 2.2430
3.6483 -5.7147 2.2436
3.8615 -5.5985 2.2441
4.0706 -5.4739 2.2446
4.2753 -5.3410 2.2452
4.4752 -5.1999 2.2457
4.6698 -5.0508 2.2462
4.4480 4.8529 2.3945
4.2578 4.9919 2.3945
4.0631 5.1234 2.3945
3.8643 5.2473 2.3945
3.6616 5.3634 2.3945
3.4553 5.4716 2.3945
3.2459 5.5718 2.3945
3.0336 5.6640 2.3945
2.8188 5.7482 2.3945
2.6017 5.8242 2.3945
0.9272 2.2930 0.9318
0.8442 2.3239 0.9349
0.7600 2.3519 0.9380
0.6749 2.3767 0.9411
0.5890 2.3985 0.9442
0.5023 2.4172 0.9474
0.4150 2.4327 0.9504
0.3271 2.4451 0.9535
0.2389 2.4543 0.9566
0.1504 2.4602 0.9596
0.0618 2.4630 0.9627
-0.0270 2.4626 0.9657
-0.1156 2.4590 0.9686
-0.2041 2.4521 0.9716
-0.2922 2.4421 0.9744
-0.3800 2.4289 0.9773
-0.4672 2.4125 0.9801
-0.5537 2.3930 0.9828
-0.6395 2.3703 0.9855
-0.7244 2.3446 0.9881
-0.8084 2.3158 0.9907
-2.1486 5.5065 2.3945
-2.3397 5.4094 2.3945
-2.5269 5.3062 2.3945
-2.7100 5.1969 2.3945
-2.8888 5.0818 2.3945
-3.0633 4.9610 2.3945
-3.2333 4.8347 2.3945
-3.3984 4.7031 2.3945
-3.5587 4.5662 2.3945
-3.7141 4.4244 2.3945
-3.8643 4.2777 2.3945
-4.0092 4.1264 2.3945
-4.1488 3.9706 2.3945
-4.2828 3.8104 2.3945
-4.4113 3.6462 2.3945
-4.5340 3.4780 2.3945
-4.6509 3.3061 2.3945
-4.7620 3.1306 2.3945
-4.8670 2.9518 2.3945
-4.9659 2.7697 2.3945
-5.0587 2.5846 2.3945
-5.1452 2.3968 2.3945
-5.2254 2.2063 2.3945
-5.2992 2.0133 2.3945
-5.3666 1.8182 2.3945
-5.4275 1.6210 2.3945
-5.4818 1.4219 2.3945
-5.5295 1.2212 2.3945
-5.5705 1.0190 2.3945
-5.6049 0.8155 2.3945
-5.6325 0.6110 2.3945
-5.6533 0.4056 2.3945
-5.6674 0.1996 2.3945
-5.6746 -0.0070 2.3945
-5.6751 -0.2138 2.3945
-5.6686 -0.4206 2.3945
-5.6554 -0.6273 2.3945
-5.6352 -0.8337 2.3945
-5.6082 -1.0395 2.3945
-5.5744 -1.2445 2.3945
-5.5337 -1.4486 2.3945
-5.4861 -1.6515 2.3945
-5.4318 -1.8530 2.3945
-5.3707 -2.0530 2.3945
-5.3028 -2.2511 2.3945
-5.2282 -2.4472 2.3945
-5.1469 -2.6411 2.3945
-5.0590 -2.8325 2.3945
-4.9645 -3.0212 2.3945
-4.8635 -3.2071 2.3945
-4.7561 -3.3899 2.3945
-4.6422 -3.5694 2.3945
-4.5221 -3.7453 2.3945
-4.3958 -3.9176 2.3945
-4.2633 -4.0858 2.3945
-4.1249 -4.2499 2.3945
-3.9805 -4.4096 2.3945
-3.8303 -4.5647 2.3945
-3.6745 -4.7150 2.3945
-3.5131 -4.8603 2.3945
-3.3464 -5.0004 2.3945
-3.1744 -5.1350 2.3945
-2.9973 -5.2639 2.3945
-2.8152 -5.3870 2.3945
-2.6285 -5.5041 2.3945
-2.4371 -5.6149 2.3945
-2.2414 -5.7193 2.3945
-2.0415 -5.8171 2.3945
-1.8376 -5.9081 2.3945
-1.6300 -5.9920 2.3945
-1.4188 -6.0688 2.3945
-1.2044 -6.1383 2.3945
-0.9869 -6.2003 2.3945
-0.7666 -6.2547 2.3945
-0.5438 -6.3012 2.3945
-0.3188 -6.3399 2.3945
-0.0918 -6.3705 2.3945
0.1369 -6.3929 2.3945
0.3670 -6.4071 2.3945
0.5981 -6.4128 2.3945
0.8301 -6.4101 2.3945
1.0625 -6.3989 2.3945
1.2950 -6.3790 2.3945
1.5272 -6.3505 2.3945
1.7590 -6.3133 2.3945
1.9899 -6.2674 2.3945
2.2195 -6.2127 2.3945
2.4475 -6.1493 2.3945
2.6211 -5.9578 2.3474
2.7130 -5.6149 2.2421
2.9202 -5.5312 2.2421
3.1247 -5.4399 2.2423
3.3266 -5.3415 2.2428
3.5251 -5.2352 2.2433
3.7198 -5.1211 2.2438
3.9104 -4.9992 2.2443
4.0967 -4.8699 2.2447
4.2782 -4.7332 2.2452
4.4546 -4.5892 2.2456
4.6256 -4.4382 2.2461
4.7909 -4.2804 2.2465
4.9417 -4.1088 2.2430
5.0910 -3.9357 2.2419
5.2365 -3.7588 2.2421
5.3752 -3.5761 2.2422
5.5069 -3.3879 2.2424
5.6312 -3.1945 2.2426
5.7479 -2.9961 2.2427
5.8569 -2.7932 2.2429
5.9579 -2.5859 2.2431
5.4112 -2.1237 2.0062
6.1352 -2.1599 2.2435
6.2112 -1.9418 2.2436
6.2786 -1.7208 2.2438
6.3373 -1.4973 2.2441
6.3871 -1.2716 2.2443
6.4280 -1.0441 2.2445
6.4599 -0.8151 2.2447
6.4827 -0.5852 2.2449
6.4965 -0.3546 2.2451
6.5011 -0.1237 2.2454
6.4967 0.1070 2.2456
6.4833 0.3373 2.2458
6.4608 0.5667 2.2461
6.4293 0.7949 2.2463
6.3890 1.0214 2.2465
6.3399 1.2459 2.2468
6.2816 1.4680 2.2468
6.2136 1.6870 2.2465
6.1372 1.9028 2.2461
6.0527 2.1152 2.2457
5.9576 2.3227 2.2444
5.5061 2.3756 2.1095
5.4439 2.5821 2.1244
5.6311 2.9206 2.2421
5.5097 3.1112 2.2421
5.3813 3.2967 2.2421
5.2462 3.4767 2.2421
5.1047 3.6510 2.2421
4.9570 3.8194 2.2421
4.8034 3.9817 2.2421
4.6442 4.1377 2.2421
4.4796 4.2872 2.2421
4.6030 4.7311 2.3945
4.4168 4.8764 2.3945
4.2259 5.0142 2.3945
4.0305 5.1445 2.3945
3.8310 5.2670 2.3945
3.6277 5.3818 2.3945
3.4209 5.4887 2.3945
3.2110 5.5876 2.3945
2.9982 5.6785 2.3945
2.7830 5.7613 2.3945
2.5655 5.8360 2.3945
0.9136 2.2983 0.9323
0.8303 2.3288 0.9354
0.7460 2.3562 0.9385
0.6608 2.3806 0.9417
0.5747 2.4018 0.9448
0.4879 2.4200 0.9479
0.4005 2.4350 0.9510
0.3126 2.4468 0.9540
0.2243 2.4555 0.9571
0.1358 2.4609 0.9601
0.0471 2.4632 0.9632
-0.0416 2.4622 0.9662
-0.1303 2.4581 0.9691
-0.2187 2.4507 0.9720
-0.3068 2.4401 0.9749
-0.3944 2.4264 0.9777
-0.4815 2.4095 0.9805
-0.5680 2.3894 0.9833
-0.6536 2.3663 0.9859
-0.7384 2.3401 0.9886
-0.8222 2.3108 0.9911
-2.1805 5.4909 2.3945
-2.3709 5.3928 2.3945
-2.5575 5.2885 2.3945
-2.7399 5.1783 2.3945
-2.9180 5.0622 2.3945
-3.0921 4.9405 2.3945
-3.2609 4.8133 2.3945
-3.4253 4.6808 2.3945
-3.5848 4.5431 2.3945
-3.7393 4.4004 2.3945
-3.8886 4.2530 2.3945
-4.0327 4.1009 2.3945
-4.1713 3.9444 2.3945
-4.3045 3.7835 2.3945
-4.4320 3.6186 2.3945
-4.5538 3.4498 2.3945
-4.6697 3.2773 2.3945
-4.7798 3.1013 2.3945
-4.8838 2.9218 2.3945
-4.9817 2.7393 2.3945
-5.0734 2.5537 2.3945
-5.1589 2.3654 2.3945
-5.2381 2.1745 2.3945
-5.3108 1.9812 2.3945
-5.3771 1.7857 2.3945
-5.4369 1.5881 2.3945
-5.4901 1.3888 2.3945
-5.5367 1.1878 2.3945
-5.5766 0.9854 2.3945
-5.6099 0.7817 2.3945
-5.6364 0.5771 2.3945
-5.6561 0.3715 2.3945
-5.6691 0.1654 2.3945
-5.6752 -0.0412 2.3945
-5.6745 -0.2480 2.3945
-5.6669 -0.4548 2.3945
-5.6525 -0.6615 2.3945
-5.6312 -0.8678 2.3945
-5.6031 -1.0735 2.3945
-5.5681 -1.2784 2.3945
-5.5263 -1.4823 2.3945
-5.4776 -1.6850 2.3945
-5.4221 -1.8863 2.3945
-5.3599 -2.0859 2.3945
-5.2909 -2.2834 2.3945
-5.2152 -2.4794 2.3945
-5.1328 -2.6729 2.3945
-5.0438 -2.8639 2.3945
-4.9482 -3.0522 2.3945
-4.8462 -3.2376 2.3945
-4.7376 -3.4198 2.3945
-4.6228 -3.5988 2.3945
-4.5016 -3.7741 2.3945
-4.3743 -3.9457 2.3945
-4.2408 -4.1133 2.3945
-4.1014 -4.2767 2.3945
-3.9560 -4.4356 2.3945
-3.8049 -4.5899 2.3945
-3.6482 -4.7394 2.3945
-3.4859 -4.8839 2.3945
-3.3183 -5.0231 2.3945
-3.1454 -5.1567 2.3945
-2.9675 -5.2847 2.3945
-2.7846 -5.4068 2.3945
-2.5971 -5.5229 2.3945
-2.4050 -5.6327 2.3945
-2.2086 -5.7360 2.3945
-2.0080 -5.8326 2.3945
-1.8035 -5.9224 2.3945
-1.5952 -6.0052 2.3945
-1.3835 -6.0809 2.3945
-1.1686 -6.1491 2.3945
-0.9506 -6.2098 2.3945
-0.7299 -6.2629 2.3945
-0.5067 -6.3082 2.3945
-0.2813 -6.3455 2.3945
-0.0540 -6.3748 2.3945
0.1749 -6.3958 2.3945
0.4052 -6.4086 2.3945
0.6365 -6.4130 2.3945
0.8685 -6.4088 2.3945
1.1009 -6.3962 2.3945
1.3334 -6.3749 2.3945
1.5657 -6.3449 2.3945
1.7973 -6.3063 2.3945
2.0280 -6.2589 2.3945
2.2574 -6.2028 2.3945
2.4851 -6.1380 2.3945
2.6280 -5.8791 2.3213
2.7475 -5.6015 2.2421
2.9542 -5.5166 2.2421
3.1583 -5.4242 2.2424
3.3597 -5.3244 2.2429
3.5576 -5.2168 2.2434
3.7516 -5.1014 2.2439
3.9416 -4.9784 2.2443
4.1271 -4.8478 2.2448
4.3077 -4.7098 2.2453
4.4833 -4.5647 2.2457
4.6533 -4.4125 2.2461
4.8177 -4.2536 2.2466
4.9651 -4.0792 2.2421
5.1156 -3.9068 2.2420
5.2600 -3.7290 2.2421
5.3975 -3.5453 2.2423
5.5279 -3.3562 2.2424
5.6510 -3.1620 2.2426
5.7665 -2.9628 2.2428
5.8742 -2.7592 2.2429
5.9738 -2.5512 2.2431
5.4119 -2.0874 2.0017
5.4318 -1.8765 1.9820
6.2230 -1.9054 2.2437
6.2889 -1.6840 2.2439
6.3461 -1.4601 2.2441
5.4402 -1.0499 1.9094
6.4339 -1.0063 2.2445
6.4643 -0.7771 2.2447
6.4856 -0.5471 2.2450
6.4979 -0.3164 2.2452
6.5010 -0.0855 2.2454
6.4951 0.1452 2.2456
6.4801 0.3754 2.2459
6.4562 0.6046 2.2461
6.4233 0.8325 2.2463
5.4752 0.9083 1.9275
6.3309 1.2829 2.2468
6.2709 1.5044 2.2468
6.2015 1.7229 2.2464
6.1238 1.9382 2.2460
6.0376 2.1499 2.2455
5.9413 2.3568 2.2442
5.5069 2.4145 2.1160
5.4568 2.6277 2.1363
5.6115 2.9525 2.2421
5.4889 3.1423 2.2421
5.3594 3.3268 2.2421
5.2232 3.5059 2.2421
5.0807 3.6793 2.2421
4.9320 3.8467 2.2421
4.7774 4.0080 2.2421
4.6173 4.1629 2.2421
4.4519 4.3113 2.2421
4.5725 4.7557 2.3945
4.3855 4.8997 2.3945
4.1938 5.0363 2.3945
3.9977 5.1653 2.3945
3.7976 5.2866 2.3945
3.5937 5.4000 2.3945
3.3863 5.5056 2.3945
3.1759 5.6032 2.3945
2.9627 5.6928 2.3945
2.7471 5.7743 2.3945
2.5293 5.8476 2.3945
0.8999 2.3036 0.9329
0.8164 2.3335 0.9360
0.7320 2.3604 0.9391
0.6466 2.3843 0.9422
0.5604 2.4051 0.9453
0.4734 2.4227 0.9484
0.3859 2.4372 0.9515
0.2980 2.4485 0.9545
0.2096 2.4566 0.9576
0.1211 2.4615 0.9606
0.0324 2.4632 0.9637
-0.0563 2.4618 0.9666
-0.1449 2.4571 0.9696
-0.2333 2.4492 0.9725
-0.3213 2.4381 0.9754
-0.4089 2.4238 0.9782
-0.4959 2.4064 0.9810
-0.5822 2.3858 0.9837
-0.6677 2.3622 0.9864
-0.7523 2.3354 0.9890
-0.8359 2.3056 0.9915
-2.2123 5.4750 2.3945
-2.4021 5.3759 2.3945
-2.5879 5.2707 2.3945
-2.7697 5.1595 2.3945
-2.9471 5.0425 2.3945
-3.1201 4.9198 2.3945
-3.2884 4.7917 2.3945
-3.4520 4.6583 2.3945
-3.6107 4.5198 2.3945
-3.7644 4.3764 2.3945
-3.9128 4.2281 2.3945
-4.0560 4.0753 2.3945
-4.1938 3.9180 2.3945
-4.3260 3.7565 2.3945
-4.4526 3.5910 2.3945
-4.5734 3.4215 2.3945
-4.6884 3.2484 2.3945
-4.7974 3.0718 2.3945
-4.9004 2.8918 2.3945
-4.9973 2.7088 2.3945
-5.0880 2.5228 2.3945
-5.1725 2.3340 2.3945
-5.2505 2.1427 2.3945
-5.3222 1.9490 2.3945
-5.3875 1.7531 2.3945
-5.4462 1.5553 2.3945
-5.4983 1.3556 2.3945
-5.5438 1.1544 2.3945
-5.5826 0.9517 2.3945
-5.6147 0.7479 2.3945
-5.6401 0.5431 2.3945
-5.6587 0.3375 2.3945
-5.6705 0.1312 2.3945
-5.6755 -0.0754 2.3945
-5.6737 -0.2822 2.3945
-5.6650 -0.4891 2.3945
-5.6494 -0.6957 2.3945
-5.6270 -0.9019 2.3945
-5.5978 -1.1075 2.3945
-5.5616 -1.3122 2.3945
-5.5187 -1.5159 2.3945
-5.4689 -1.7184 2.3945
-5.4123 -1.9193 2.3945
-5.3489 -2.1188 2.3945
-5.2788 -2.3162 2.3945
-5.2020 -2.5116 2.3945
-5.1185 -2.7047 2.3945
-5.0284 -2.8953 2.3945
-4.9318 -3.0831 2.3945
-4.8286 -3.2680 2.3945
-4.7191 -3.4497 2.3945
-4.6032 -3.6280 2.3945
-4.4810 -3.8028 2.3945
-4.3526 -3.9737 2.3945
-4.2181 -4.1406 2.3945
-4.0777 -4.3033 2.3945
-3.9314 -4.4615 2.3945
-3.7794 -4.6150 2.3945
-3.6217 -4.7637 2.3945
-3.4585 -4.9073 2.3945
-3.2900 -5.0455 2.3945
-3.1163 -5.1783 2.3945
-2.9376 -5.3053 2.3945
-2.7539 -5.4265 2.3945
-2.5656 -5.5415 2.3945
-2.3728 -5.6502 2.3945
-2.1757 -5.7524 2.3945
-1.9744 -5.8480 2.3945
-1.7693 -5.9366 2.3945
-1.5605 -6.0182 2.3945
-1.3482 -6.0927 2.3945
-1.1327 -6.1597 2.3945
-0.9143 -6.2192 2.3945
-0.6931 -6.2710 2.3945
-0.4696 -6.3149 2.3945
-0.2438 -6.3509 2.3945
-0.0162 -6.3788 2.3945
0.2129 -6.3985 2.3945
0.4434 -6.4099 2.3945
0.6749 -6.4129 2.3945
0.9070 -6.4073 2.3945
1.1394 -6.3932 2.3945
1.3719 -6.3705 2.3945
1.6040 -6.3393 2.3945
1.8355 -6.2991 2.3945
2.0660 -6.2502 2.3945
2.2952 -6.1927 2.3945
2.5226 -6.1264 2.3945
2.6347 -5.8020 2.2958
2.7819 -5.5880 2.2421
2.9881 -5.5018 2.2421
3.1919 -5.4082 2.2424
3.3927 -5.3072 2.2429
3.5900 -5.1983 2.2434
3.7834 -5.0816 2.2439
3.9726 -4.9573 2.2444
4.1573 -4.8254 2.2449
4.3371 -4.6863 2.2453
4.1579 4.5294 2.3945
3.9811 4.6602 2.3945
3.8000 4.7839 2.3945
3.6150 4.9006 2.3945
3.4263 5.0100 2.3945
3.2343 5.1121 2.3945
3.0392 5.2069 2.3945
2.8413 5.2942 2.3945
2.6410 5.3740 2.3945
0.9466 2.1142 0.9295
0.8699 2.1459 0.9324
0.7922 2.1749 0.9353
0.7134 2.2010 0.9382
0.6338 2.2243 0.9411
0.5533 2.2446 0.9440
0.4722 2.2621 0.9469
0.3904 2.2766 0.9498
0.3082 2.2882 0.9527
0.2256 2.2968 0.9556
0.1428 2.3024 0.9584
0.0598 2.3049 0.9613
-0.0232 2.3045 0.9641
-0.1062 2.3011 0.9668
-0.1890 2.2947 0.9696
-0.2715 2.2853 0.9723
-0.3536 2.2730 0.9749
-0.4352 2.2576 0.9775
-0.5163 2.2394 0.9801
-0.5966 2.2182 0.9826
-0.6761 2.1941 0.9851
-0.7546 2.1672 0.9875
-0.8322 2.1374 0.9898
-2.1928 5.0801 2.3945
-2.3690 4.9839 2.3945
-2.5415 4.8819 2.3945
-2.7098 4.7744 2.3945
-2.8742 4.6616 2.3945
-3.0342 4.5434 2.3945
-3.1900 4.4202 2.3945
-3.3411 4.2921 2.3945
-3.4875 4.1592 2.3945
-3.6291 4.0217 2.3945
-3.7659 3.8798 2.3945
-3.8974 3.7336 2.3945
-4.0239 3.5833 2.3945
-4.1451 3.4291 2.3945
-4.2609 3.2711 2.3945
-4.3712 3.1096 2.3945
-4.4759 2.9447 2.3945
-4.5751 2.7766 2.3945
-4.6684 2.6054 2.3945
-4.7559 2.4314 2.3945
-4.8376 2.2546 2.3945
-4.9132 2.0754 2.3945
-4.9828 1.8939 2.3945
-5.0464 1.7103 2.3945
-5.1037 1.5247 2.3945
-5.1549 1.3373 2.3945
-5.1998 1.1484 2.3945
-5.2384 0.9581 2.3945
-5.2707 0.7666 2.3945
-5.2966 0.5741 2.3945
-5.3161 0.3807 2.3945
-5.3292 0.1868 2.3945
-5.3359 -0.0076 2.3945
-5.3361 -0.2022 2.3945
-5.3298 -0.3968 2.3945
-5.3170 -0.5913 2.3945
-5.2977 -0.7855 2.3945
-5.2720 -0.9790 2.3945
-5.2398 -1.1719 2.3945
-5.2011 -1.3638 2.3945
-5.1559 -1.5544 2.3945
-5.1044 -1.7440 2.3945
-5.0464 -1.9319 2.3945
-4.9821 -2.1180 2.3945
-4.9114 -2.3022 2.3945
-4.8344 -2.4842 2.3945
-4.7512 -2.6639 2.3945
-4.6618 -2.8410 2.3945
-4.5663 -3.0153 2.3945
-4.4647 -3.1867 2.3945
-4.3572 -3.3549 2.3945
-4.2437 -3.5198 2.3945
-4.1244 -3.6810 2.3945
-3.9994 -3.8385 2.3945
-3.8687 -3.9920 2.3945
-3.7325 -4.1415 2.3945
-3.5909 -4.2863 2.3945
-3.4441 -4.4266 2.3945
-3.2920 -4.5622 2.3945
-3.1350 -4.6928 2.3945
-2.9730 -4.8183 2.3945
-2.8064 -4.9384 2.3945
-2.6351 -5.0529 2.3945
-2.4595 -5.1618 2.3945
-2.2796 -5.2647 2.3945
-2.0957 -5.3615 2.3945
-1.9080 -5.4521 2.3945
-1.7166 -5.5362 2.3945
-1.5217 -5.6138 2.3945
-1.3236 -5.6846 2.3945
-1.1226 -5.7485 2.3945
-0.9187 -5.8053 2.3945
-0.7124 -5.8550 2.3945
-0.5038 -5.8974 2.3945
-0.2931 -5.9323 2.3945
-0.0807 -5.9597 2.3945
0.1332 -5.9795 2.3945
0.3483 -5.9915 2.3945
0.5643 -5.9956 2.3945
0.7810 -5.9919 2.3945
0.9980 -5.9802 2.3945
1.2150 -5.9604 2.3945
1.4317 -5.9326 2.3945
1.6479 -5.8967 2.3945
1.8631 -5.8526 2.3945
2.0771 -5.8005 2.3945
2.2896 -5.7402 2.3945
2.5002 -5.6719 2.3945
2.6374 -5.4486 2.3316
2.7289 -5.1604 2.2421
2.9189 -5.0740 2.2421
3.1062 -4.9806 2.2422
3.2906 -4.8806 2.2427
3.4716 -4.7734 2.2432
3.6486 -4.6591 2.2436
3.8215 -4.5379 2.2440
3.9900 -4.4098 2.2445
4.1537 -4.2751 2.2449
4.3123 -4.1338 2.2453
4.4657 -3.9863 2.2457
4.6134 -3.8327 2.2460
4.7553 -3.6733 2.2464
4.8900 -3.5074 2.2463
5.0096 -3.3305 2.2423
5.1323 -3.1554 2.2427
5.2476 -2.9751 2.2429
5.3559 -2.7902 2.2430
5.4570 -2.6011 2.2432
5.5507 -2.4081 2.2434
5.4112 -2.1228 2.1537
5.4225 -1.9083 2.1288
5.4270 -1.6961 2.1047
5.8485 -1.6026 2.2441
5.9030 -1.3945 2.2443
5.9493 -1.1845 2.2445
5.9874 -0.9728 2.2447
6.0171 -0.7597 2.2449
6.0385 -0.5457 2.2451
6.0514 -0.3311 2.2453
6.0560 -0.1163 2.2455
6.0521 0.0985 2.2457
6.0399 0.3129 2.2460
6.0193 0.5264 2.2462
5.9905 0.7389 2.2464
5.9534 0.9498 2.2466
5.9082 1.1590 2.2468
5.4898 1.2808 2.1069
5.4942 1.4893 2.1311
5.7215 1.7712 2.2462
5.6416 1.9686 2.2451
5.5545 2.1625 2.2441
5.4582 2.3516 2.2423
5.3590 2.5383 2.2421
5.2532 2.7209 2.2421
5.1408 2.8990 2.2421
5.0219 3.0723 2.2421
4.8968 3.2407 2.2421
4.7656 3.4038 2.2421
4.6287 3.5615 2.2421
4.4862 3.7135 2.2421
4.3384 3.8598 2.2421
4.1857 4.0000 2.2421
4.3019 4.4151 2.3945
4.1289 4.5515 2.3945
3.9514 4.6811 2.3945
3.7697 4.8037 2.3945
3.5840 4.9192 2.3945
3.3948 5.0274 2.3945
3.2022 5.1283 2.3945
3.0066 5.2218 2.3945
2.8083 5.3079 2.3945
2.6076 5.3864 2.3945
0.9340 2.1196 0.9300
0.8571 2.1509 0.9329
0.7792 2.1794 0.9358
0.7003 2.2050 0.9387
0.6205 2.2278 0.9416
0.5399 2.2477 0.9445
0.4587 2.2647 0.9474
0.3768 2.2787 0.9503
0.2946 2.2898 0.9532
0.2119 2.2979 0.9561
0.1291 2.3030 0.9589
0.0461 2.3051 0.9617
-0.0370 2.3042 0.9645
-0.1199 2.3003 0.9673
-0.2027 2.2934 0.9700
-0.2851 2.2835 0.9727
-0.3672 2.2706 0.9754
-0.4487 2.2548 0.9780
-0.5296 2.2361 0.9805
-0.6098 2.2144 0.9830
-0.6891 2.1898 0.9855
-0.7675 2.1624 0.9879
-0.8449 2.1322 0.9902
-2.2223 5.0646 2.3945
-2.3978 4.9674 2.3945
-2.5696 4.8645 2.3945
-2.7375 4.7561 2.3945
-2.9010 4.6424 2.3945
-3.0604 4.5234 2.3945
-3.2153 4.3993 2.3945
-3.3656 4.2704 2.3945
-3.5113 4.1367 2.3945
-3.6521 3.9985 2.3945
-3.7880 3.8559 2.3945
-3.9187 3.7090 2.3945
-4.0444 3.5580 2.3945
-4.1646 3.4032 2.3945
-4.2795 3.2446 2.3945
-4.3889 3.0826 2.3945
-4.4928 2.9171 2.3945
-4.5909 2.7484 2.3945
-4.6833 2.5768 2.3945
-4.7698 2.4023 2.3945
-4.8505 2.2251 2.3945
-4.9251 2.0455 2.3945
-4.9938 1.8637 2.3945
-5.0563 1.6797 2.3945
-5.1126 1.4938 2.3945
-5.1628 1.3061 2.3945
-5.2066 1.1170 2.3945
-5.2442 0.9265 2.3945
-5.2754 0.7348 2.3945
-5.3003 0.5421 2.3945
-5.3188 0.3487 2.3945
-5.3308 0.1547 2.3945
-5.3364 -0.0398 2.3945
-5.3355 -0.2344 2.3945
-5.3281 -0.4290 2.3945
-5.3143 -0.6235 2.3945
-5.2939 -0.8176 2.3945
-5.2671 -1.0111 2.3945
-5.2338 -1.2037 2.3945
-5.1941 -1.3955 2.3945
-5.1478 -1.5859 2.3945
-5.0952 -1.7752 2.3945
-5.0362 -1.9628 2.3945
-4.9708 -2.1486 2.3945
-4.8991 -2.3324 2.3945
-4.8211 -2.5141 2.3945
-4.7368 -2.6934 2.3945
-4.6464 -2.8700 2.3945
-4.5499 -3.0439 2.3945
-4.4473 -3.2148 2.3945
-4.3388 -3.3825 2.3945
-4.2243 -3.5467 2.3945
-4.1041 -3.7074 2.3945
-3.9781 -3.8642 2.3945
-3.8465 -4.0170 2.3945
-3.7094 -4.1658 2.3945
-3.5670 -4.3099 2.3945
-3.4192 -4.4494 2.3945
-3.2664 -4.5842 2.3945
-3.1085 -4.7139 2.3945
-2.9458 -4.8386 2.3945
-2.7783 -4.9577 2.3945
-2.6063 -5.0714 2.3945
-2.4300 -5.1792 2.3945
-2.2495 -5.2811 2.3945
-2.0649 -5.3769 2.3945
-1.8765 -5.4664 2.3945
-1.6845 -5.5495 2.3945
-1.4891 -5.6259 2.3945
-1.2906 -5.6956 2.3945
-1.0890 -5.7584 2.3945
-0.8848 -5.8141 2.3945
-0.6780 -5.8625 2.3945
-0.4690 -5.9037 2.3945
-0.2580 -5.9374 2.3945
-0.0454 -5.9635 2.3945
0.1687 -5.9820 2.3945
0.3840 -5.9927 2.3945
0.6002 -5.9955 2.3945
0.8169 -5.9905 2.3945
1.0339 -5.9774 2.3945
1.2509 -5.9564 2.3945
1.4676 -5.9272 2.3945
1.6836 -5.8900 2.3945
1.8986 -5.8446 2.3945
2.1124 -5.7911 2.3945
2.3246 -5.7295 2.3945
2.5348 -5.6598 2.3945
2.6436 -5.3803 2.3079
2.7605 -5.1466 2.2421
2.9501 -5.0590 2.2421
3.1370 -4.9646 2.2423
3.3208 -4.8634 2.2428
3.5011 -4.7550 2.2432
3.6775 -4.6395 2.2437
3.8497 -4.5171 2.2441
4.0174 -4.3879 2.2445
4.1803 -4.2521 2.2450
4.3381 -4.1099 2.2454
4.4905 -3.9613 2.2457
4.6373 -3.8067 2.2461
4.7781 -3.6463 2.2465
4.9096 -3.4781 2.2453
5.0304 -3.3017 2.2423
5.1519 -3.1259 2.2427
5.2660 -2.9448 2.2429
5.3732 -2.7592 2.2431
5.4731 -2.5694 2.2432
5.5655 -2.3757 2.2434
5.4120 -2.0866 2.1489
5.4233 -1.8729 2.1246
5.4369 -1.6643 2.1046
5.8581 -1.5683 2.2441
5.9112 -1.3599 2.2443
5.9562 -1.1495 2.2445
5.9929 -0.9376 2.2447
6.0212 -0.7244 2.2449
6.0412 -0.5102 2.2451
6.0528 -0.2956 2.2453
6.0559 -0.0807 2.2456
6.0507 0.1340 2.2458
6.0371 0.3483 2.2460
6.0151 0.5617 2.2462
5.9849 0.7739 2.2464
5.4751 0.9065 2.0686
5.8999 1.1934 2.2469
5.4905 1.3150 2.1107
5.7807 1.6035 2.2465
5.7091 1.8042 2.2462
5.6279 2.0010 2.2450
5.5392 2.1941 2.2438
5.4419 2.3826 2.2421
5.3419 2.5688 2.2421
5.2351 2.7507 2.2421
5.1216 2.9280 2.2421
5.0016 3.1006 2.2421
4.8755 3.2680 2.2421
4.7433 3.4303 2.2421
4.6055 3.5870 2.2421
4.4621 3.7381 2.2421
4.3135 3.8834 2.2421
4.1599 4.0226 2.2421
4.2736 4.4381 2.3945
4.0998 4.5735 2.3945
3.9216 4.7019 2.3945
3.7392 4.8233 2.3945
3.5529 4.9376 2.3945
3.3631 5.0446 2.3945
3.1700 5.1443 2.3945
2.9740 5.2366 2.3945
2.7752 5.3214 2.3945
2.5742 5.3987 2.3945
0.9213 2.1250 0.9305
0.8443 2.1558 0.9334
0.7662 2.1838 0.9363
0.6871 2.2090 0.9392
0.6072 2.2313 0.9421
0.5265 2.2507 0.9450
0.4452 2.2672 0.9479
0.3633 2.2808 0.9508
0.2809 2.2914 0.9537
0.1982 2.2989 0.9565
0.1153 2.3035 0.9594
0.0323 2.3051 0.9622
-0.0507 2.3037 0.9650
-0.1336 2.2993 0.9677
-0.2163 2.2919 0.9705
-0.2987 2.2816 0.9732
-0.3807 2.2682 0.9758
-0.4621 2.2519 0.9784
-0.5429 2.2327 0.9810
-0.6230 2.2105 0.9835
-0.7022 2.1855 0.9859
-0.7804 2.1576 0.9883
-0.8576 2.1270 0.9906
-2.2516 5.0489 2.3945
-2.4265 4.9507 2.3945
-2.5976 4.8470 2.3945
-2.7648 4.7377 2.3945
-2.9277 4.6230 2.3945
-3.0863 4.5032 2.3945
-3.2405 4.3783 2.3945
-3.3901 4.2486 2.3945
-3.5350 4.1142 2.3945
-3.6749 3.9752 2.3945
-3.8100 3.8318 2.3945
-3.9399 3.6843 2.3945
-4.0646 3.5327 2.3945
-4.1840 3.3772 2.3945
-4.2980 3.2181 2.3945
-4.4065 3.0554 2.3945
-4.5094 2.8894 2.3945
-4.6066 2.7202 2.3945
-4.6980 2.5481 2.3945
-4.7836 2.3731 2.3945
-4.8633 2.1956 2.3945
-4.9369 2.0156 2.3945
-5.0045 1.8333 2.3945
-5.0660 1.6490 2.3945
-5.1213 1.4628 2.3945
-5.1705 1.2749 2.3945
-5.2133 1.0855 2.3945
-5.2498 0.8948 2.3945
-5.2800 0.7029 2.3945
-5.3038 0.5101 2.3945
-5.3212 0.3166 2.3945
-5.3322 0.1225 2.3945
-5.3367 -0.0720 2.3945
-5.3347 -0.2666 2.3945
-5.3263 -0.4612 2.3945
-5.3114 -0.6556 2.3945
-5.2899 -0.8496 2.3945
-5.2620 -1.0429 2.3945
-5.2277 -1.2356 2.3945
-5.1869 -1.4271 2.3945
-5.1396 -1.6174 2.3945
-5.0859 -1.8064 2.3945
-5.0258 -1.9937 2.3945
-4.9594 -2.1792 2.3945
-4.8866 -2.3627 2.3945
-4.8076 -2.5439 2.3945
-4.7223 -2.7228 2.3945
-4.6309 -2.8990 2.3945
-4.5333 -3.0724 2.3945
-4.4298 -3.2428 2.3945
-4.3202 -3.4099 2.3945
-4.2048 -3.5736 2.3945
-4.0836 -3.7336 2.3945
-3.9567 -3.8898 2.3945
-3.8242 -4.0419 2.3945
-3.6862 -4.1898 2.3945
-3.5429 -4.3333 2.3945
-3.3943 -4.4721 2.3945
-3.2406 -4.6060 2.3945
-3.0819 -4.7350 2.3945
-2.9184 -4.8587 2.3945
-2.7502 -4.9769 2.3945
-2.5774 -5.0896 2.3945
-2.4004 -5.1965 2.3945
-2.2192 -5.2974 2.3945
-2.0340 -5.3922 2.3945
-1.8450 -5.4806 2.3945
-1.6524 -5.5626 2.3945
-1.4565 -5.6379 2.3945
-1.2574 -5.7065 2.3945
-1.0554 -5.7681 2.3945
-0.8507 -5.8226 2.3945
-0.6435 -5.8699 2.3945
-0.4342 -5.9098 2.3945
-0.2230 -5.9422 2.3945
-0.0100 -5.9671 2.3945
0.2043 -5.9843 2.3945
0.4198 -5.9937 2.3945
0.6360 -5.9953 2.3945
0.8528 -5.9889 2.3945
1.0699 -5.9745 2.3945
1.2868 -5.9521 2.3945
1.5034 -5.9216 2.3945
1.7193 -5.8830 2.3945
1.9341 -5.8363 2.3945
2.1476 -5.7815 2.3945
2.3595 -5.7185 2.3945
2.5694 -5.6475 2.3945
2.6497 -5.3132 2.2847
2.7921 -5.1326 2.2421
2.9812 -5.0439 2.2421
3.1676 -4.9483 2.2424
3.3509 -4.8459 2.2429
3.5306 -4.7364 2.2433
3.7063 -4.6197 2.2438
3.8778 -4.4962 2.2442
4.0447 -4.3659 2.2446
3.8995 4.2413 2.3945
3.7345 4.3646 2.3945
3.5655 4.4813 2.3945
3.3928 4.5914 2.3945
3.2165 4.6948 2.3945
3.0370 4.7914 2.3945
2.8546 4.8811 2.3945
2.6696 4.9639 2.3945
2.4821 5.0396 2.3945
0.8906 1.9844 0.9302
0.8186 2.0142 0.9329
0.7456 2.0414 0.9356
0.6717 2.0659 0.9383
0.5969 2.0878 0.9411
0.5214 2.1069 0.9438
0.4452 2.1233 0.9465
0.3685 2.1369 0.9493
0.2913 2.1477 0.9520
0.2138 2.1558 0.9547
0.1360 2.1610 0.9573
0.0581 2.1635 0.9600
-0.0199 2.1631 0.9626
-0.0978 2.1599 0.9652
-0.1755 2.1538 0.9678
-0.2530 2.1450 0.9703
-0.3301 2.1334 0.9728
-0.4067 2.1190 0.9753
-0.4827 2.1019 0.9777
-0.5581 2.0820 0.9801
-0.6328 2.0594 0.9824
-0.7065 2.0341 0.9846
-0.7793 2.0062 0.9868
-0.8510 1.9756 0.9890
-2.2268 4.6934 2.3945
-2.3894 4.5979 2.3945
-2.5485 4.4972 2.3945
-2.7036 4.3914 2.3945
-2.8548 4.2806 2.3945
-3.0018 4.1649 2.3945
-3.1446 4.0446 2.3945
-3.2830 3.9197 2.3945
-3.4168 3.7905 2.3945
-3.5460 3.6570 2.3945
-3.6704 3.5195 2.3945
-3.7900 3.3780 2.3945
-3.9046 3.2329 2.3945
-4.0140 3.0841 2.3945
-4.1183 2.9320 2.3945
-4.2174 2.7766 2.3945
-4.3111 2.6182 2.3945
-4.3994 2.4568 2.3945
-4.4821 2.2927 2.3945
-4.5593 2.1261 2.3945
-4.6308 1.9571 2.3945
-4.6966 1.7859 2.3945
-4.7567 1.6127 2.3945
-4.8109 1.4376 2.3945
-4.8592 1.2608 2.3945
-4.9016 1.0826 2.3945
-4.9380 0.9030 2.3945
-4.9685 0.7223 2.3945
-4.9928 0.5407 2.3945
-5.0112 0.3583 2.3945
-5.0234 0.1753 2.3945
-5.0295 -0.0081 2.3945
-5.0295 -0.1917 2.3945
-5.0234 -0.3753 2.3945
-5.0111 -0.5587 2.3945
-4.9926 -0.7419 2.3945
-4.9681 -0.9244 2.3945
-4.9374 -1.1063 2.3945
-4.9005 -1.2872 2.3945
-4.8576 -1.4670 2.3945
-4.8086 -1.6455 2.3945
-4.7535 -1.8225 2.3945
-4.6924 -1.9978 2.3945
-4.6254 -2.1712 2.3945
-4.5523 -2.3426 2.3945
-4.4734 -2.5117 2.3945
-4.3887 -2.6783 2.3945
-4.2982 -2.8423 2.3945
-4.2020 -3.0034 2.3945
-4.1001 -3.1616 2.3945
-3.9927 -3.3164 2.3945
-3.8798 -3.4679 2.3945
-3.7615 -3.6157 2.3945
-3.6380 -3.7598 2.3945
-3.5092 -3.8998 2.3945
-3.3754 -4.0357 2.3945
-3.2367 -4.1672 2.3945
-3.0931 -4.2941 2.3945
-2.9448 -4.4163 2.3945
-2.7920 -4.5336 2.3945
-2.6348 -4.6459 2.3945
-2.4733 -4.7528 2.3945
-2.3077 -4.8543 2.3945
-2.1382 -4.9502 2.3945
-1.9650 -5.0404 2.3945
-1.7882 -5.1246 2.3945
-1.6080 -5.2028 2.3945
-1.4247 -5.2747 2.3945
-1.2384 -5.3402 2.3945
-1.0493 -5.3993 2.3945
-0.8577 -5.4517 2.3945
-0.6638 -5.4973 2.3945
-0.4679 -5.5361 2.3945
-0.2701 -5.5679 2.3945
-0.0708 -5.5925 2.3945
0.1299 -5.6100 2.3945
0.3316 -5.6203 2.3945
0.5342 -5.6231 2.3945
0.7372 -5.6186 2.3945
0.9405 -5.6066 2.3945
1.1437 -5.5871 2.3945
1.3466 -5.5600 2.3945
1.5489 -5.5254 2.3945
1.7502 -5.4832 2.3945
1.9504 -5.4334 2.3945
2.1490 -5.3761 2.3945
2.3458 -5.3113 2.3945
2.5405 -5.2389 2.3945
2.6508 -5.0044 2.3227
2.7362 -4.7491 2.2421
2.9109 -4.6607 2.2421
3.0825 -4.5658 2.2422
3.2512 -4.4648 2.2426
3.4163 -4.3573 2.2430
3.5774 -4.2433 2.2434
3.7344 -4.1230 2.2438
3.8869 -3.9965 2.2442
4.0347 -3.8641 2.2446
4.1775 -3.7258 2.2450
4.3150 -3.5818 2.2453
4.4471 -3.4325 2.2456
4.5734 -3.2779 2.2460
4.6938 -3.1184 2.2463
4.8080 -2.9541 2.2466
4.9143 -2.7844 2.2461
5.0082 -2.6076 2.2431
5.1028 -2.4310 2.2435
5.1901 -2.2505 2.2436
5.2704 -2.0667 2.2438
5.3435 -1.8798 2.2440
5.4092 -1.6901 2.2441
5.4676 -1.4979 2.2443
5.5184 -1.3036 2.2445
5.5617 -1.1074 2.2447
5.5972 -0.9096 2.2449
5.6250 -0.7107 2.2451
5.6451 -0.5108 2.2453
5.6573 -0.3104 2.2455
5.6618 -0.1097 2.2457
5.6584 0.0910 2.2459
5.6472 0.2912 2.2461
5.6283 0.4907 2.2463
5.6017 0.6892 2.2465
5.5674 0.8864 2.2467
5.5256 1.0819 2.2469
5.4759 1.2753 2.2470
5.4180 1.4663 2.2466
5.3515 1.6541 2.2458
5.2768 1.8386 2.2444
5.1929 2.0188 2.2421
5.1077 2.1975 2.2421
5.0160 2.3725 2.2421
4.9177 2.5436 2.2421
4.8133 2.7105 2.2421
4.7027 2.8731 2.2421
4.5863 3.0310 2.2421
4.4642 3.1841 2.2421
4.3367 3.3321 2.2421
4.2040 3.4750 2.2421
4.0664 3.6124 2.2421
3.9240 3.7444 2.2421
4.0339 4.1336 2.3945
3.8725 4.2622 2.3945
3.7068 4.3843 2.3945
3.5372 4.5000 2.3945
3.3638 4.6090 2.3945
3.1870 4.7112 2.3945
3.0070 4.8067 2.3945
2.8242 4.8953 2.3945
2.6387 4.9769 2.3945
0.9498 1.9576 0.9279
0.8788 1.9896 0.9306
0.8066 2.0189 0.9333
0.7335 2.0457 0.9361
0.6594 2.0697 0.9388
0.5844 2.0911 0.9415
0.5088 2.1098 0.9443
0.4325 2.1257 0.9470
0.3557 2.1389 0.9497
0.2785 2.1493 0.9524
0.2009 2.1568 0.9551
0.1231 2.1616 0.9578
0.0452 2.1636 0.9604
-0.0328 2.1627 0.9631
-0.1107 2.1591 0.9657
-0.1883 2.1526 0.9682
-0.2658 2.1433 0.9708
-0.3428 2.1312 0.9732
-0.4193 2.1164 0.9757
-0.4953 2.0988 0.9781
-0.5705 2.0784 0.9804
-0.6450 2.0554 0.9828
-0.7186 2.0297 0.9850
-0.7913 2.0013 0.9872
-0.8628 1.9703 0.9893
-2.2540 4.6779 2.3945
-2.4160 4.5816 2.3945
-2.5744 4.4801 2.3945
-2.7289 4.3734 2.3945
-2.8794 4.2618 2.3945
-3.0258 4.1453 2.3945
-3.1678 4.0242 2.3945
-3.3055 3.8986 2.3945
-3.4385 3.7687 2.3945
-3.5669 3.6345 2.3945
-3.6905 3.4963 2.3945
-3.8093 3.3543 2.3945
-3.9230 3.2085 2.3945
-4.0317 3.0592 2.3945
-4.1351 2.9065 2.3945
-4.2333 2.7506 2.3945
-4.3261 2.5916 2.3945
-4.4135 2.4298 2.3945
-4.4953 2.2653 2.3945
-4.5715 2.0983 2.3945
-4.6421 1.9289 2.3945
-4.7070 1.7573 2.3945
-4.7661 1.5838 2.3945
-4.8193 1.4084 2.3945
-4.8666 1.2314 2.3945
-4.9080 1.0529 2.3945
-4.9435 0.8732 2.3945
-4.9729 0.6923 2.3945
-4.9963 0.5105 2.3945
-5.0136 0.3280 2.3945
-5.0248 0.1449 2.3945
-5.0299 -0.0385 2.3945
-5.0289 -0.2221 2.3945
-5.0218 -0.4057 2.3945
-5.0085 -0.5891 2.3945
-4.9890 -0.7722 2.3945
-4.9634 -0.9546 2.3945
-4.9317 -1.1363 2.3945
-4.8938 -1.3170 2.3945
-4.8499 -1.4966 2.3945
-4.7999 -1.6749 2.3945
-4.7438 -1.8516 2.3945
-4.6817 -2.0266 2.3945
-4.6137 -2.1997 2.3945
-4.5397 -2.3707 2.3945
-4.4598 -2.5394 2.3945
-4.3741 -2.7057 2.3945
-4.2827 -2.8692 2.3945
-4.1855 -3.0298 2.3945
-4.0827 -3.1874 2.3945
-3.9744 -3.3417 2.3945
-3.8606 -3.4927 2.3945
-3.7414 -3.6398 2.3945
-3.6170 -3.7833 2.3945
-3.4874 -3.9226 2.3945
-3.3528 -4.0578 2.3945
-3.2133 -4.1885 2.3945
-3.0689 -4.3147 2.3945
-2.9199 -4.4361 2.3945
-2.7663 -4.5526 2.3945
-2.6083 -4.6639 2.3945
-2.4462 -4.7700 2.3945
-2.2799 -4.8706 2.3945
-2.1098 -4.9656 2.3945
-1.9360 -5.0548 2.3945
-1.7586 -5.1380 2.3945
-1.5779 -5.2151 2.3945
-1.3940 -5.2860 2.3945
-1.2073 -5.3505 2.3945
-1.0178 -5.4084 2.3945
-0.8258 -5.4597 2.3945
-0.6316 -5.5042 2.3945
-0.4353 -5.5419 2.3945
-0.2372 -5.5725 2.3945
-0.0376 -5.5959 2.3945
0.1632 -5.6122 2.3945
0.3651 -5.6212 2.3945
0.5677 -5.6229 2.3945
0.7708 -5.6171 2.3945
0.9741 -5.6039 2.3945
1.1773 -5.5831 2.3945
1.3801 -5.5548 2.3945
1.5823 -5.5189 2.3945
1.7834 -5.4755 2.3945
1.9834 -5.4245 2.3945
2.1817 -5.3659 2.3945
2.3782 -5.2998 2.3945
2.5725 -5.2262 2.3945
2.6564 -4.9443 2.3010
2.7654 -4.7350 2.2421
2.9395 -4.6455 2.2421
3.1107 -4.5495 2.2423
3.2788 -4.4475 2.2427
3.4432 -4.3389 2.2431
3.6037 -4.2238 2.2435
3.7600 -4.1025 2.2439
3.9117 -3.9750 2.2443
4.0587 -3.8416 2.2447
4.2006 -3.7023 2.2450
4.3373 -3.5575 2.2454
4.4684 -3.4073 2.2457
4.5938 -3.2519 2.2460
4.7132 -3.0915 2.2463
4.8263 -2.9264 2.2466
4.9294 -2.7550 2.2452
5.0243 -2.5786 2.2431
5.1178 -2.4014 2.2435
5.2039 -2.2203 2.2437
5.2830 -2.0360 2.2438
5.3548 -1.8486 2.2440
5.4194 -1.6585 2.2442
5.4765 -1.4659 2.2444
5.5261 -1.2712 2.2445
5.5681 -1.0747 2.2447
5.6024 -0.8768 2.2449
5.6289 -0.6776 2.2451
5.6477 -0.4777 2.2453
5.6586 -0.2771 2.2455
5.6618 -0.0764 2.2457
5.6571 0.1242 2.2459
5.6446 0.3243 2.2461
5.6244 0.5237 2.2463
5.5965 0.7220 2.2465
5.4751 0.9047 2.2120
5.5179 1.1141 2.2469
5.4668 1.3071 2.2469
5.4077 1.4976 2.2466
5.3398 1.6849 2.2456
5.2633 1.8686 2.2440
5.1793 2.0486 2.2421
5.0930 2.2267 2.2421
5.0002 2.4011 2.2421
4.9009 2.5715 2.2421
4.7954 2.7377 2.2421
4.6838 2.8995 2.2421
4.5665 3.0567 2.2421
4.4435 3.2089 2.2421
4.3151 3.3561 2.2421
4.1816 3.4981 2.2421
4.0431 3.6347 2.2421
3.9000 3.7657 2.2421
4.0074 4.1554 2.3945
3.8453 4.2828 2.3945
3.6790 4.4039 2.3945
3.5087 4.5185 2.3945
3.3348 4.6264 2.3945
3.1574 4.7275 2.3945
2.9770 4.8218 2.3945
2.7937 4.9093 2.3945
2.6078 4.9897 2.3945
0.9381 1.9631 0.9284
0.8669 1.9946 0.9311
0.7946 2.0235 0.9338
0.7213 2.0498 0.9365
0.6470 2.0735 0.9393
0.5720 2.0944 0.9420
0.4962 2.1126 0.9447
0.4198 2.1281 0.9474
0.3429 2.1408 0.9502
0.2656 2.1507 0.9529
0.1880 2.1578 0.9556
0.1102 2.1621 0.9582
0.0323 2.1636 0.9609
-0.0457 2.1623 0.9635
-0.1235 2.1582 0.9661
-0.2012 2.1512 0.9686
-0.2785 2.1415 0.9712
-0.3555 2.1290 0.9737
-0.4319 2.1136 0.9761
-0.5078 2.0956 0.9785
-0.5829 2.0748 0.9808
-0.6573 2.0513 0.9831
-0.7307 2.0251 0.9854
-0.8032 1.9964 0.9875
-0.8746 1.9650 0.9897
-2.2810 4.6624 2.3945
-2.4425 4.5652 2.3945
-2.6003 4.4628 2.3945
-2.7540 4.3553 2.3945
-2.9039 4.2428 2.3945
-3.0496 4.1256 2.3945
-3.1909 4.0038 2.3945
-3.3278 3.8774 2.3945
-3.4601 3.7468 2.3945
-3.5877 3.6119 2.3945
-3.7105 3.4731 2.3945
-3.8285 3.3304 2.3945
-3.9414 3.1840 2.3945
-4.0492 3.0341 2.3945
-4.1517 2.8809 2.3945
-4.2490 2.7245 2.3945
-4.3410 2.5650 2.3945
-4.4274 2.4028 2.3945
-4.5083 2.2378 2.3945
-4.5836 2.0704 2.3945
-4.6533 1.9007 2.3945
-4.7172 1.7288 2.3945
-4.7753 1.5549 2.3945
-4.8275 1.3792 2.3945
-4.8739 1.2020 2.3945
-4.9143 1.0232 2.3945
-4.9488 0.8433 2.3945
-4.9772 0.6623 2.3945
-4.9996 0.4803 2.3945
-5.0159 0.2977 2.3945
-5.0261 0.1146 2.3945
-5.0302 -0.0689 2.3945
-5.0282 -0.2525 2.3945
-5.0200 -0.4361 2.3945
-5.0057 -0.6195 2.3945
-4.9852 -0.8024 2.3945
-4.9586 -0.9847 2.3945
-4.9258 -1.1663 2.3945
-4.8870 -1.3468 2.3945
-4.8420 -1.5262 2.3945
-4.7910 -1.7042 2.3945
-4.7340 -1.8807 2.3945
-4.6709 -2.0554 2.3945
-4.6018 -2.2282 2.3945
-4.5269 -2.3988 2.3945
-4.4460 -2.5671 2.3945
-4.3594 -2.7329 2.3945
-4.2670 -2.8960 2.3945
-4.1689 -3.0562 2.3945
-4.0652 -3.2132 2.3945
-3.9559 -3.3670 2.3945
-3.8412 -3.5172 2.3945
-3.7212 -3.6638 2.3945
-3.5959 -3.8066 2.3945
-3.4655 -3.9453 2.3945
-3.3300 -4.0797 2.3945
-3.1897 -4.2097 2.3945
-3.0445 -4.3351 2.3945
-2.8947 -4.4557 2.3945
-2.7404 -4.5714 2.3945
-2.5818 -4.6819 2.3945
-2.4189 -4.7870 2.3945
-2.2520 -4.8867 2.3945
-2.0813 -4.9807 2.3945
-1.9069 -5.0689 2.3945
-1.7289 -5.1512 2.3945
-1.5477 -5.2273 2.3945
-1.3633 -5.2971 2.3945
-1.1761 -5.3605 2.3945
-0.9862 -5.4174 2.3945
-0.7938 -5.4676 2.3945
-0.5992 -5.5109 2.3945
-0.4026 -5.5474 2.3945
-0.2043 -5.5768 2.3945
-0.0045 -5.5991 2.3945
0.1966 -5.6142 2.3945
0.3986 -5.6220 2.3945
0.6013 -5.6225 2.3945
0.8045 -5.6155 2.3945
1.0078 -5.6010 2.3945
1.2109 -5.5790 2.3945
1.4136 -5.5494 2.3945
1.6157 -5.5123 2.3945
1.8166 -5.4676 2.3945
2.0163 -5.4153 2.3945
2.2144 -5.3555 2.3945
2.4105 -5.2881 2.3945
2.6044 -5.2133 2.3945
