ply
format ascii 1.0
element vertex 2175
property float32 x
property float32 y
property float32 z
end_header
-8.4156 -0.8261 2.3789
-8.3718 -1.1263 2.3789
-8.3171 -1.4245 2.3789
-8.2519 -1.7202 2.3789
-8.1761 -2.0131 2.3789
-8.0900 -2.3028 2.3789
-7.9935 -2.5889 2.3789
-7.8870 -2.8711 2.3789
-7.7706 -3.1490 2.3789
-7.6444 -3.4223 2.3789
-7.5087 -3.6907 2.3789
-7.3636 -3.9538 2.3789
-7.2093 -4.2113 2.3789
-7.0462 -4.4629 2.3789
-6.8743 -4.7083 2.3789
-6.6940 -4.9471 2.3789
-6.5055 -5.1792 2.3789
-6.3090 -5.4043 2.3789
-6.1049 -5.6220 2.3789
-5.8934 -5.8322 2.3789
-5.6747 -6.0346 2.3789
-5.4492 -6.2289 2.3789
-5.2172 -6.4150 2.3789
-4.9789 -6.5926 2.3789
-4.7347 -6.7615 2.3789
-4.4849 -6.9217 2.3789
-4.2298 -7.0727 2.3789
-3.9698 -7.2146 2.3789
-3.7050 -7.3472 2.3789
-3.4360 -7.4702 2.3789
-3.1630 -7.5837 2.3789
-2.8863 -7.6874 2.3789
-2.6064 -7.7812 2.3789
-2.3235 -7.8652 2.3789
-2.0380 -7.9390 2.3789
-1.7502 -8.0029 2.3789
-1.4605 -8.0566 2.3789
-1.1692 -8.1001 2.3789
-0.8767 -8.1333 2.3789
-0.5833 -8.1563 2.3789
-0.2895 -8.1690 2.3789
0.0046 -8.1714 2.3789
0.2984 -8.1635 2.3789
0.5917 -8.1453 2.3789
0.8842 -8.1169 2.3789
1.1754 -8.0783 2.3789
1.4650 -8.0295 2.3789
1.7527 -7.9707 2.3789
2.0382 -7.9019 2.3789
2.3211 -7.8231 2.3789
2.6010 -7.7345 2.3789
2.8777 -7.6362 2.3789
3.1507 -7.5283 2.3789
3.4199 -7.4109 2.3789
3.6848 -7.2841 2.3789
3.9452 -7.1481 2.3789
4.2007 -7.0031 2.3789
4.4511 -6.8492 2.3789
4.6960 -6.6866 2.3789
4.9351 -6.5155 2.3789
5.1681 -6.3361 2.3789
5.3948 -6.1485 2.3789
5.6149 -5.9531 2.3789
5.8281 -5.7499 2.3789
6.0342 -5.5394 2.3789
6.2328 -5.3216 2.3789
6.4238 -5.0969 2.3789
6.6069 -4.8655 2.3789
6.7819 -4.6277 2.3789
6.9484 -4.3838 2.3789
7.1065 -4.1339 2.3789
7.2557 -3.8785 2.3789
7.3959 -3.6178 2.3789
7.5270 -3.3522 2.3789
7.6487 -3.0819 2.3789
7.7609 -2.8073 2.3789
7.8634 -2.5287 2.3789
7.9562 -2.2464 2.3789
8.0389 -1.9607 2.3789
8.1115 -1.6721 2.3789
8.1739 -1.3808 2.3789
8.2261 -1.0871 2.3789
8.2678 -0.7919 2.3789
8.2990 -0.4949 2.3789
8.3197 -0.1966 2.3789
8.3298 0.1025 2.3789
8.3292 0.4021 2.3789
8.3180 0.7016 2.3789
8.2960 1.0009 2.3789
8.2634 1.2994 2.3789
8.2200 1.5971 2.3789
8.1661 1.8933 2.3789
8.1014 2.1875 2.3789
8.0262 2.4796 2.3789
7.9405 2.7690 2.3789
7.8444 3.0555 2.3789
7.7380 3.3386 2.3789
7.6213 3.6180 2.3789
7.4945 3.8932 2.3789
7.3577 4.1640 2.3789
7.2111 4.4299 2.3789
7.0549 4.6906 2.3789
6.8892 4.9458 2.3789
6.7142 5.1950 2.3789
6.5301 5.4379 2.3789
6.3372 5.6743 2.3789
6.1356 5.9036 2.3789
5.9257 6.1258 2.3789
5.7076 6.3402 2.3789
5.4816 6.5469 2.3789
5.2482 6.7453 2.3789
5.0074 6.9352 2.3789
4.7597 7.1164 2.3789
4.5053 7.2886 2.3789
4.2446 7.4514 2.3789
3.9779 7.6047 2.3789
3.7056 7.7483 2.3789
3.4281 7.8819 2.3789
3.1456 8.0053 2.3789
2.8587 8.1184 2.3789
2.5676 8.2209 2.3789
0.8846 3.2355 0.9259
0.7683 3.2657 0.9256
0.6509 3.2916 0.9252
0.5326 3.3133 0.9249
0.4136 3.3306 0.9245
0.2941 3.3437 0.9242
0.1741 3.3525 0.9240
0.0539 3.3569 0.9237
-0.0664 3.3569 0.9235
-0.1866 3.3526 0.9233
-0.3066 3.3440 0.9231
-0.4262 3.3310 0.9229
-0.5452 3.3137 0.9228
-0.6636 3.2921 0.9227
-0.7811 3.2662 0.9226
-0.8975 3.2361 0.9225
-2.6121 8.2571 2.3789
-2.9061 8.1582 2.3789
-3.1963 8.0484 2.3789
-3.4822 7.9280 2.3789
-3.7634 7.7971 2.3789
-4.0396 7.6560 2.3789
-4.3103 7.5048 2.3789
-4.5752 7.3438 2.3789
-4.8340 7.1732 2.3789
-5.0862 6.9931 2.3789
-5.3315 6.8040 2.3789
-5.5696 6.6060 2.3789
-5.8001 6.3995 2.3789
-6.0228 6.1847 2.3789
-6.2374 5.9619 2.3789
-6.4435 5.7315 2.3789
-6.6409 5.4938 2.3789
-6.8294 5.2492 2.3789
-7.0086 4.9979 2.3789
-7.1784 4.7404 2.3789
-7.3386 4.4770 2.3789
-7.4888 4.2081 2.3789
-7.6291 3.9340 2.3789
-7.7591 3.6552 2.3789
-7.8788 3.3720 2.3789
-7.9879 3.0848 2.3789
-8.0864 2.7941 2.3789
-8.1742 2.5002 2.3789
-8.2512 2.2036 2.3789
-8.3172 1.9046 2.3789
-8.3723 1.6036 2.3789
-8.4163 1.3011 2.3789
-8.4493 0.9975 2.3789
-8.4713 0.6932 2.3789
-8.4822 0.3885 2.3789
-8.4820 0.0839 2.3789
-8.4709 -0.2202 2.3789
-8.4488 -0.5234 2.3789
-8.4157 -0.8253 2.3789
-8.3719 -1.1255 2.3789
-8.3173 -1.4237 2.3789
-8.2521 -1.7194 2.3789
-8.1763 -2.0123 2.3789
-8.0902 -2.3020 2.3789
-7.9938 -2.5881 2.3789
-7.8873 -2.8704 2.3789
-7.7709 -3.1483 2.3789
-7.6448 -3.4216 2.3789
-7.5091 -3.6900 2.3789
-7.3640 -3.9531 2.3789
-7.2098 -4.2106 2.3789
-7.0466 -4.4619 2.3789
-6.8748 -4.7076 2.3789
-6.6945 -4.9465 2.3789
-6.5060 -5.1786 2.3789
-6.3096 -5.4037 2.3789
-6.1055 -5.6215 2.3789
-5.8939 -5.8317 2.3789
-5.6753 -6.0340 2.3789
-5.4498 -6.2284 2.3789
-5.2178 -6.4145 2.3789
-4.9796 -6.5921 2.3789
-4.7354 -6.7611 2.3789
-4.4856 -6.9212 2.3789
-4.2305 -7.0723 2.3789
-3.9704 -7.2142 2.3789
-3.7057 -7.3468 2.3789
-3.4367 -7.4699 2.3789
-3.1637 -7.5834 2.3789
-2.8871 -7.6871 2.3789
-2.6071 -7.7811 2.3789
-2.3242 -7.8650 2.3789
-2.0388 -7.9388 2.3789
-1.7509 -8.0028 2.3789
-1.4612 -8.0565 2.3789
-1.1700 -8.1000 2.3789
-0.8775 -8.1333 2.3789
-0.5841 -8.1563 2.3789
-0.2903 -8.1690 2.3789
0.0045 -7.5348 2.3789
0.2755 -7.5277 2.3789
0.5460 -7.5110 2.3789
0.8158 -7.4849 2.3789
1.0844 -7.4494 2.3789
1.3515 -7.4045 2.3789
1.6169 -7.3503 2.3789
1.8802 -7.2868 2.3789
2.1411 -7.2142 2.3789
2.3993 -7.1324 2.3789
2.6545 -7.0417 2.3789
2.9063 -6.9421 2.3789
3.1546 -6.8337 2.3789
3.3989 -6.7167 2.3789
3.6390 -6.5912 2.3789
3.8746 -6.4573 2.3789
4.1054 -6.3152 2.3789
4.3311 -6.1651 2.3789
4.5515 -6.0071 2.3789
4.7663 -5.8414 2.3789
4.9752 -5.6683 2.3789
5.1780 -5.4879 2.3789
5.3744 -5.3003 2.3789
5.5642 -5.1060 2.3789
5.7472 -4.9050 2.3789
5.9230 -4.6976 2.3789
6.0915 -4.4840 2.3789
6.2526 -4.2646 2.3789
6.4058 -4.0394 2.3789
6.5511 -3.8089 2.3789
6.6883 -3.5733 2.3789
6.8172 -3.3328 2.3789
6.9376 -3.0877 2.3789
7.0494 -2.8384 2.3789
7.1524 -2.5852 2.3789
7.2464 -2.3282 2.3789
7.3313 -2.0679 2.3789
7.4071 -1.8046 2.3789
7.4735 -1.5385 2.3789
7.5305 -1.2701 2.3789
7.5779 -0.9995 2.3789
7.6158 -0.7273 2.3789
7.6440 -0.4536 2.3789
7.6625 -0.1789 2.3789
7.6712 0.0966 2.3789
7.6700 0.3724 2.3789
7.6591 0.6483 2.3789
7.6382 0.9238 2.3789
7.6076 1.1987 2.3789
7.5671 1.4725 2.3789
7.5168 1.7450 2.3789
7.4567 2.0157 2.3789
7.3869 2.2843 2.3789
7.3074 2.5505 2.3789
7.2183 2.8140 2.3789
7.1198 3.0743 2.3789
7.0118 3.3311 2.3789
6.8946 3.5841 2.3789
6.7682 3.8329 2.3789
6.6328 4.0772 2.3789
6.4885 4.3167 2.3789
6.3356 4.5510 2.3789
6.1742 4.7799 2.3789
6.0044 5.0029 2.3789
5.8265 5.2199 2.3789
5.6407 5.4304 2.3789
5.4473 5.6342 2.3789
5.2464 5.8310 2.3789
5.0383 6.0205 2.3789
4.8233 6.2025 2.3789
4.6016 6.3766 2.3789
4.3736 6.5427 2.3789
4.1395 6.7005 2.3789
3.8997 6.8497 2.3789
3.6544 6.9902 2.3789
3.4040 7.1217 2.3789
3.1488 7.2440 2.3789
2.8891 7.3570 2.3789
2.6253 7.4605 2.3789
0.9193 2.9453 0.9275
0.8133 2.9769 0.9272
0.7062 3.0046 0.9268
0.5982 3.0284 0.9265
0.4894 3.0483 0.9262
0.3800 3.0643 0.9259
0.2700 3.0763 0.9256
0.1597 3.0843 0.9253
0.0491 3.0883 0.9251
-0.0615 3.0883 0.9249
-0.1721 3.0843 0.9247
-0.2825 3.0764 0.9245
-0.3925 3.0644 0.9244
-0.5020 3.0485 0.9242
-0.6108 3.0286 0.9241
-0.7189 3.0048 0.9241
-0.8260 2.9771 0.9240
-2.3999 7.5839 2.3789
-2.6699 7.4930 2.3789
-2.9364 7.3922 2.3789
-3.1989 7.2817 2.3789
-3.4572 7.1616 2.3789
-3.7109 7.0320 2.3789
-3.9596 6.8933 2.3789
-4.2029 6.7455 2.3789
-4.4406 6.5888 2.3789
-4.6724 6.4237 2.3789
-4.8978 6.2501 2.3789
-5.1166 6.0684 2.3789
-5.3285 5.8789 2.3789
-5.5332 5.6818 2.3789
-5.7305 5.4774 2.3789
-5.9201 5.2659 2.3789
-6.1017 5.0478 2.3789
-6.2751 4.8232 2.3789
-6.4400 4.5926 2.3789
-6.5963 4.3562 2.3789
-6.7438 4.1144 2.3789
-6.8822 3.8675 2.3789
-7.0115 3.6159 2.3789
-7.1313 3.3598 2.3789
-7.2417 3.0998 2.3789
-7.3425 2.8360 2.3789
-7.4335 2.5690 2.3789
-7.5146 2.2990 2.3789
-7.5858 2.0264 2.3789
-7.6471 1.7517 2.3789
-7.6982 1.4751 2.3789
-7.7392 1.1970 2.3789
-7.7701 0.9179 2.3789
-7.7909 0.6381 2.3789
-7.8014 0.3580 2.3789
-7.8019 0.0779 2.3789
-7.7922 -0.2019 2.3789
-7.7724 -0.4808 2.3789
-7.7426 -0.7586 2.3789
-7.7028 -1.0349 2.3789
-7.6532 -1.3093 2.3789
-7.5937 -1.5815 2.3789
-7.5246 -1.8511 2.3789
-7.4459 -2.1179 2.3789
-7.3577 -2.3814 2.3789
-7.2603 -2.6414 2.3789
-7.1537 -2.8974 2.3789
-7.0381 -3.1493 2.3789
-6.9137 -3.3966 2.3789
-6.7806 -3.6391 2.3789
-6.6391 -3.8765 2.3789
-6.4893 -4.1085 2.3789
-6.3315 -4.3348 2.3789
-6.1659 -4.5551 2.3789
-5.9927 -4.7692 2.3789
-5.8122 -4.9769 2.3789
-5.6245 -5.1778 2.3789
-5.4300 -5.3718 2.3789
-5.2289 -5.5586 2.3789
-5.0215 -5.7381 2.3789
-4.8080 -5.9099 2.3789
-4.5887 -6.0740 2.3789
-4.3639 -6.2300 2.3789
-4.1340 -6.3780 2.3789
-3.8991 -6.5176 2.3789
-3.6596 -6.6487 2.3789
-3.4158 -6.7713 2.3789
-3.1679 -6.8851 2.3789
-2.9164 -6.9900 2.3789
-2.6615 -7.0860 2.3789
-2.4034 -7.1730 2.3789
-2.1426 -7.2510 2.3789
-1.8796 -7.3191 2.3789
-1.6143 -7.3782 2.3789
-1.3472 -7.4279 2.3789
-1.0786 -7.4683 2.3789
-0.8089 -7.4992 2.3789
-0.5384 -7.5206 2.3789
-0.2674 -7.5324 2.3789
0.0038 -7.5348 2.3789
0.2748 -7.5277 2.3789
0.5453 -7.5111 2.3789
0.8151 -7.4850 2.3789
1.0837 -7.4495 2.3789
1.3508 -7.4046 2.3789
1.6162 -7.3504 2.3789
1.8795 -7.2870 2.3789
2.1404 -7.2144 2.3789
2.3986 -7.1326 2.3789
2.6538 -7.0419 2.3789
2.9057 -6.9424 2.3789
3.1539 -6.8340 2.3789
3.3982 -6.7170 2.3789
3.6383 -6.5915 2.3789
3.8739 -6.4577 2.3789
4.1048 -6.3156 2.3789
4.3305 -6.1655 2.3789
4.5509 -6.0076 2.3789
4.7657 -5.8419 2.3789
4.9747 -5.6688 2.3789
5.1775 -5.4884 2.3789
5.3739 -5.3008 2.3789
5.5637 -5.1065 2.3789
5.7467 -4.9056 2.3789
5.9226 -4.6982 2.3789
6.0911 -4.4846 2.3789
6.2521 -4.2652 2.3789
6.4054 -4.0400 2.3789
6.5507 -3.8095 2.3789
6.6880 -3.5739 2.3789
6.8169 -3.3334 2.3789
6.9373 -3.0884 2.3789
7.0491 -2.8391 2.3789
7.1521 -2.5858 2.3789
7.2461 -2.3289 2.3789
7.3311 -2.0686 2.3789
7.4069 -1.8053 2.3789
7.4733 -1.5392 2.3789
7.5303 -1.2708 2.3789
7.5778 -1.0003 2.3789
7.6157 -0.7280 2.3789
7.6439 -0.4543 2.3789
7.6624 -0.1796 2.3789
7.6712 0.0959 2.3789
7.6700 0.3717 2.3789
7.6591 0.6475 2.3789
7.6383 0.9231 2.3789
7.6077 1.1979 2.3789
7.5672 1.4718 2.3789
7.5169 1.7442 2.3789
7.4568 2.0150 2.3789
7.3870 2.2836 2.3789
7.3076 2.5498 2.3789
7.2186 2.8133 2.3789
7.1200 3.0736 2.3789
7.0121 3.3304 2.3789
6.8949 3.5834 2.3789
6.7685 3.8322 2.3789
6.6332 4.0766 2.3789
6.4889 4.3161 2.3789
6.3360 4.5504 2.3789
6.1746 4.7793 2.3789
6.0049 5.0023 2.3789
5.8270 5.2193 2.3789
5.6412 5.4298 2.3789
5.4478 5.6336 2.3789
5.2469 5.8304 2.3789
5.0388 6.0200 2.3789
4.8239 6.2021 2.3789
4.6022 6.3762 2.3789
4.3743 6.5423 2.3789
4.1402 6.7001 2.3789
3.9003 6.8493 2.3789
3.6551 6.9898 2.3789
3.4047 7.1213 2.3789
3.1495 7.2437 2.3789
2.8898 7.3567 2.3789
2.6260 7.4602 2.3789
0.9195 2.9453 0.9275
0.8136 2.9768 0.9272
0.7065 3.0045 0.9268
0.5985 3.0284 0.9265
0.4897 3.0483 0.9262
0.3803 3.0642 0.9259
0.2703 3.0762 0.9256
0.1600 3.0843 0.9253
0.0494 3.0883 0.9251
-0.0612 3.0883 0.9249
-0.1718 3.0843 0.9247
-0.2822 3.0764 0.9245
-0.3922 3.0644 0.9244
-0.5017 3.0485 0.9242
-0.6105 3.0286 0.9241
-0.7186 3.0048 0.9241
-0.8258 2.9771 0.9240
-2.3992 7.5842 2.3789
-2.6692 7.4933 2.3789
-2.9357 7.3925 2.3789
-3.1983 7.2820 2.3789
-3.4565 7.1619 2.3789
-3.7102 7.0324 2.3789
-3.9589 6.8937 2.3789
-4.2023 6.7459 2.3789
-4.4400 6.5893 2.3789
-4.6717 6.4241 2.3789
-4.8972 6.2506 2.3789
-5.1160 6.0689 2.3789
-5.3280 5.8794 2.3789
-5.5327 5.6823 2.3789
-5.7300 5.4779 2.3789
-5.9196 5.2665 2.3789
-6.1012 5.0484 2.3789
-6.2746 4.8238 2.3789
-6.4396 4.5932 2.3789
-6.5959 4.3569 2.3789
-6.7434 4.1151 2.3789
-6.8819 3.8682 2.3789
-7.0111 3.6165 2.3789
-7.1310 3.3605 2.3789
-7.2415 3.1005 2.3789
-7.3422 2.8367 2.3789
-7.4333 2.5697 2.3789
-7.5144 2.2997 2.3789
-7.5857 2.0272 2.3789
-7.6469 1.7524 2.3789
-7.6981 1.4758 2.3789
-7.7391 1.1978 2.3789
-7.7700 0.9187 2.3789
-7.7908 0.6389 2.3789
-7.8014 0.3587 2.3789
-7.8019 0.0786 2.3789
-7.7922 -0.2011 2.3789
-7.7724 -0.4800 2.3789
-7.7427 -0.7578 2.3789
-7.7029 -1.0341 2.3789
-7.6533 -1.3085 2.3789
-7.5939 -1.5808 2.3789
-7.5248 -1.8504 2.3789
-7.4461 -2.1172 2.3789
-7.3580 -2.3807 2.3789
-7.2605 -2.6407 2.3789
-7.1540 -2.8968 2.3789
-7.0384 -3.1486 2.3789
-6.9140 -3.3959 2.3789
-6.7809 -3.6384 2.3789
-6.6394 -3.8759 2.3789
-6.4897 -4.1079 2.3789
-6.3319 -4.3342 2.3789
-6.1663 -4.5546 2.3789
-5.9932 -4.7687 2.3789
-5.8126 -4.9763 2.3789
-5.6250 -5.1773 2.3789
-5.4305 -5.3713 2.3789
-5.2294 -5.5582 2.3789
-5.0220 -5.7376 2.3789
-4.8086 -5.9095 2.3789
-4.5893 -6.0735 2.3789
-4.3645 -6.2296 2.3789
-4.1346 -6.3776 2.3789
-3.8997 -6.5172 2.3789
-3.6602 -6.6484 2.3789
-3.4164 -6.7710 2.3789
-3.1686 -6.8848 2.3789
-2.9171 -6.9898 2.3789
-2.6622 -7.0857 2.3789
-2.4042 -7.1726 2.3789
-2.1434 -7.2505 2.3789
-1.8803 -7.3189 2.3789
-1.6150 -7.3780 2.3789
-1.3479 -7.4278 2.3789
-1.0793 -7.4682 2.3789
-0.8096 -7.4991 2.3789
-0.5391 -7.5205 2.3789
-0.2681 -7.5324 2.3789
0.0038 -6.9831 2.3789
0.2550 -6.9766 2.3789
0.5058 -6.9613 2.3789
0.7558 -6.9372 2.3789
1.0048 -6.9043 2.3789
1.2525 -6.8627 2.3789
1.4985 -6.8125 2.3789
1.7426 -6.7537 2.3789
1.9845 -6.6864 2.3789
2.2238 -6.6106 2.3789
2.4603 -6.5265 2.3789
2.6938 -6.4341 2.3789
2.9239 -6.3336 2.3789
3.1503 -6.2251 2.3789
3.3729 -6.1087 2.3789
3.5912 -5.9845 2.3789
3.8051 -5.8527 2.3789
4.0143 -5.7134 2.3789
4.2185 -5.5668 2.3789
4.4175 -5.4132 2.3789
4.6111 -5.2526 2.3789
4.7989 -5.0852 2.3789
4.9808 -4.9113 2.3789
5.1565 -4.7310 2.3789
5.3259 -4.5446 2.3789
5.4887 -4.3521 2.3789
5.6447 -4.1541 2.3789
5.7936 -3.9505 2.3789
5.9354 -3.7418 2.3789
6.0698 -3.5280 2.3789
6.1966 -3.3095 2.3789
6.3158 -3.0865 2.3789
6.4270 -2.8594 2.3789
6.5303 -2.6283 2.3789
6.6253 -2.3935 2.3789
6.7120 -2.1554 2.3789
6.7904 -1.9141 2.3789
6.8601 -1.6701 2.3789
6.9212 -1.4236 2.3789
6.9736 -1.1749 2.3789
7.0172 -0.9243 2.3789
7.0518 -0.6722 2.3789
7.0775 -0.4187 2.3789
7.0941 -0.1643 2.3789
7.1017 0.0907 2.3789
7.1002 0.3461 2.3789
7.0896 0.6014 2.3789
7.0699 0.8564 2.3789
7.0410 1.1108 2.3789
7.0031 1.3641 2.3789
6.9560 1.6162 2.3789
6.8999 1.8666 2.3789
6.8349 2.1151 2.3789
6.7609 2.3613 2.3789
6.6780 2.6048 2.3789
6.5864 2.8455 2.3789
6.4861 3.0828 2.3789
6.3772 3.3167 2.3789
6.2599 3.5466 2.3789
6.1342 3.7723 2.3789
6.0004 3.9936 2.3789
5.8586 4.2100 2.3789
5.7089 4.4213 2.3789
5.5515 4.6273 2.3789
5.3867 4.8276 2.3789
5.2146 5.0219 2.3789
5.0354 5.2100 2.3789
4.8494 5.3916 2.3789
4.6568 5.5665 2.3789
4.4578 5.7343 2.3789
4.2527 5.8950 2.3789
4.0417 6.0481 2.3789
3.8252 6.1936 2.3789
3.6033 6.3312 2.3789
3.3765 6.4607 2.3789
3.1449 6.5819 2.3789
2.9089 6.6946 2.3789
2.6689 6.7987 2.3789
2.4250 6.8940 2.3789
0.8500 2.7246 0.9286
0.7520 2.7537 0.9282
0.6530 2.7793 0.9279
0.5531 2.8013 0.9276
0.4525 2.8197 0.9273
0.3513 2.8345 0.9270
0.2496 2.8455 0.9268
0.1475 2.8529 0.9265
0.0453 2.8566 0.9263
-0.0571 2.8566 0.9261
-0.1593 2.8530 0.9259
-0.2614 2.8456 0.9258
-0.3631 2.8345 0.9256
-0.4644 2.8198 0.9255
-0.5651 2.8014 0.9254
-0.6650 2.7794 0.9253
-0.7641 2.7537 0.9253
-0.8622 2.7246 0.9252
-2.4662 6.9213 2.3789
-2.7123 6.8282 2.3789
-2.9547 6.7262 2.3789
-3.1933 6.6153 2.3789
-3.4276 6.4958 2.3789
-3.6573 6.3677 2.3789
-3.8821 6.2313 2.3789
-4.1018 6.0868 2.3789
-4.3159 5.9343 2.3789
-4.5242 5.7742 2.3789
-4.7264 5.6065 2.3789
-4.9223 5.4316 2.3789
-5.1115 5.2497 2.3789
-5.2939 5.0610 2.3789
-5.4692 4.8659 2.3789
-5.6372 4.6645 2.3789
-5.7976 4.4573 2.3789
-5.9503 4.2444 2.3789
-6.0949 4.0262 2.3789
-6.2315 3.8029 2.3789
-6.3597 3.5749 2.3789
-6.4794 3.3426 2.3789
-6.5905 3.1062 2.3789
-6.6929 2.8660 2.3789
-6.7863 2.6228 2.3789
-6.8708 2.3757 2.3789
-6.9462 2.1263 2.3789
-7.0124 1.8745 2.3789
-7.0694 1.6206 2.3789
-7.1171 1.3650 2.3789
-7.1555 1.1080 2.3789
-7.1845 0.8501 2.3789
-7.2042 0.5913 2.3789
-7.2144 0.3323 2.3789
-7.2153 0.0733 2.3789
-7.2068 -0.1853 2.3789
-7.1890 -0.4433 2.3789
-7.1619 -0.7003 2.3789
-7.1256 -0.9559 2.3789
-7.0801 -1.2098 2.3789
-7.0256 -1.4618 2.3789
-6.9621 -1.7113 2.3789
-6.8898 -1.9583 2.3789
-6.8087 -2.2023 2.3789
-6.7190 -2.4430 2.3789
-6.6208 -2.6801 2.3789
-6.5142 -2.9134 2.3789
-6.3995 -3.1425 2.3789
-6.2767 -3.3672 2.3789
-6.1461 -3.5871 2.3789
-6.0079 -3.8021 2.3789
-5.8622 -4.0119 2.3789
-5.7092 -4.2162 2.3789
-5.5492 -4.4147 2.3789
-5.3824 -4.6072 2.3789
-5.2089 -4.7936 2.3789
-5.0291 -4.9735 2.3789
-4.8432 -5.1469 2.3789
-4.6513 -5.3133 2.3789
-4.4538 -5.4728 2.3789
-4.2510 -5.6251 2.3789
-4.0430 -5.7700 2.3789
-3.8301 -5.9073 2.3789
-3.6127 -6.0369 2.3789
-3.3910 -6.1587 2.3789
-3.1653 -6.2726 2.3789
-2.9358 -6.3783 2.3789
-2.7028 -6.4758 2.3789
-2.4668 -6.5648 2.3789
-2.2278 -6.6456 2.3789
-1.9862 -6.7181 2.3789
-1.7423 -6.7818 2.3789
-1.4965 -6.8368 2.3789
-1.2490 -6.8831 2.3789
-1.0001 -6.9207 2.3789
-0.7502 -6.9495 2.3789
-0.4995 -6.9695 2.3789
-0.2483 -6.9807 2.3789
0.0031 -6.9831 2.3789
0.2543 -6.9766 2.3789
0.5051 -6.9613 2.3789
0.7551 -6.9372 2.3789
1.0042 -6.9044 2.3789
1.2518 -6.8629 2.3789
1.4978 -6.8127 2.3789
1.7419 -6.7539 2.3789
1.9838 -6.6866 2.3789
2.2232 -6.6108 2.3789
2.4597 -6.5267 2.3789
2.6932 -6.4344 2.3789
2.9233 -6.3339 2.3789
3.1497 -6.2254 2.3789
3.3723 -6.1090 2.3789
3.5906 -5.9848 2.3789
3.8046 -5.8530 2.3789
4.0137 -5.7138 2.3789
4.2180 -5.5673 2.3789
4.4170 -5.4136 2.3789
4.6105 -5.2530 2.3789
4.7984 -5.0857 2.3789
4.9803 -4.9117 2.3789
5.1561 -4.7315 2.3789
5.3255 -4.5451 2.3789
5.4883 -4.3527 2.3789
5.6442 -4.1546 2.3789
5.7932 -3.9511 2.3789
5.9350 -3.7423 2.3789
6.0695 -3.5286 2.3789
6.1963 -3.3101 2.3789
6.3155 -3.0871 2.3789
6.4267 -2.8600 2.3789
6.5300 -2.6289 2.3789
6.6251 -2.3941 2.3789
6.7118 -2.1560 2.3789
6.7902 -1.9148 2.3789
6.8600 -1.6708 2.3789
6.9211 -1.4243 2.3789
6.9735 -1.1756 2.3789
7.0171 -0.9250 2.3789
7.0517 -0.6728 2.3789
7.0774 -0.4194 2.3789
7.0941 -0.1650 2.3789
7.1017 0.0901 2.3789
7.1002 0.3454 2.3789
7.0896 0.6007 2.3789
7.0699 0.8558 2.3789
7.0411 1.1101 2.3789
7.0032 1.3635 2.3789
6.9562 1.6155 2.3789
6.9001 1.8660 2.3789
6.8351 2.1144 2.3789
6.7611 2.3606 2.3789
6.6782 2.6042 2.3789
6.5866 2.8448 2.3789
6.4863 3.0822 2.3789
6.3775 3.3160 2.3789
6.2602 3.5460 2.3789
6.1346 3.7717 2.3789
6.0008 3.9930 2.3789
5.8590 4.2094 2.3789
5.7093 4.4208 2.3789
5.5520 4.6267 2.3789
5.3872 4.8270 2.3789
5.2151 5.0214 2.3789
5.0359 5.2095 2.3789
4.8499 5.3911 2.3789
4.6573 5.5660 2.3789
4.4583 5.7339 2.3789
4.2532 5.8946 2.3789
4.0423 6.0477 2.3789
3.8258 6.1933 2.3789
3.6039 6.3309 2.3789
3.3771 6.4604 2.3789
3.1455 6.5816 2.3789
2.9096 6.6943 2.3789
2.6695 6.7984 2.3789
2.4257 6.8938 2.3789
0.8503 2.7245 0.9286
0.7523 2.7537 0.9282
0.6533 2.7793 0.9279
0.5534 2.8013 0.9276
0.4528 2.8197 0.9273
0.3515 2.8344 0.9270
0.2498 2.8455 0.9268
0.1478 2.8529 0.9265
0.0455 2.8566 0.9263
-0.0568 2.8567 0.9261
-0.1591 2.8530 0.9259
-0.2611 2.8456 0.9258
-0.3629 2.8345 0.9256
-0.4641 2.8198 0.9255
-0.5648 2.8014 0.9254
-0.6647 2.7794 0.9253
-0.7638 2.7538 0.9253
-0.8619 2.7247 0.9252
-2.4655 6.9215 2.3789
-2.7116 6.8285 2.3789
-2.9541 6.7265 2.3789
-3.1927 6.6156 2.3789
-3.4270 6.4961 2.3789
-3.6567 6.3681 2.3789
-3.8815 6.2317 2.3789
-4.1012 6.0872 2.3789
-4.3153 5.9347 2.3789
-4.5236 5.7746 2.3789
-4.7259 5.6069 2.3789
-4.9218 5.4321 2.3789
-5.1111 5.2502 2.3789
-5.2935 5.0615 2.3789
-5.4688 4.8664 2.3789
-5.6368 4.6651 2.3789
-5.7972 4.4578 2.3789
-5.9498 4.2449 2.3789
-6.0946 4.0267 2.3789
-6.2311 3.8035 2.3789
-6.3593 3.5756 2.3789
-6.4791 3.3432 2.3789
-6.5902 3.1068 2.3789
-6.6926 2.8666 2.3789
-6.7861 2.6228 2.3789
-6.8706 2.3764 2.3789
-6.9460 2.1270 2.3789
-7.0123 1.8751 2.3789
-7.0693 1.6213 2.3789
-7.1170 1.3657 2.3789
-7.1554 1.1087 2.3789
-7.1844 0.8511 2.3789
-7.2040 0.5931 2.3789
-7.2144 0.3330 2.3789
-7.2153 0.0740 2.3789
-7.2068 -0.1847 2.3789
-7.1890 -0.4424 2.3789
-7.1620 -0.6996 2.3789
-7.1257 -0.9552 2.3789
-7.0803 -1.2092 2.3789
-7.0258 -1.4611 2.3789
-6.9623 -1.7104 2.3789
-6.8900 -1.9576 2.3789
-6.8089 -2.2016 2.3789
-6.7192 -2.4423 2.3789
-6.6210 -2.6795 2.3789
-6.5145 -2.9128 2.3789
-6.3998 -3.1419 2.3789
-6.2771 -3.3666 2.3789
-6.1465 -3.5866 2.3789
-6.0083 -3.8016 2.3789
-5.8626 -4.0113 2.3789
-5.7097 -4.2156 2.3789
-5.5497 -4.4142 2.3789
-5.3828 -4.6067 2.3789
-5.2094 -4.7931 2.3789
-5.0296 -4.9731 2.3789
-4.8437 -5.1464 2.3789
-4.6519 -5.3129 2.3789
-4.4544 -5.4724 2.3789
-4.2515 -5.6247 2.3789
-4.0436 -5.7696 2.3789
-3.8307 -5.9069 2.3789
-3.6133 -6.0366 2.3789
-3.3916 -6.1584 2.3789
-3.1659 -6.2723 2.3789
-2.9364 -6.3780 2.3789
-2.7034 -6.4756 2.3789
-2.4674 -6.5646 2.3789
-2.2285 -6.6450 2.3789
-1.9868 -6.7179 2.3789
-1.7430 -6.7816 2.3789
-1.4972 -6.8366 2.3789
-1.2497 -6.8830 2.3789
-1.0008 -6.9206 2.3789
-0.7509 -6.9495 2.3789
-0.5001 -6.9695 2.3789
-0.2489 -6.9807 2.3789
0.0031 -6.4997 2.3789
0.2370 -6.4938 2.3789
0.4705 -6.4796 2.3789
0.7033 -6.4573 2.3789
0.9351 -6.4268 2.3789
1.1657 -6.3881 2.3789
1.3947 -6.3414 2.3789
1.6220 -6.2867 2.3789
1.8472 -6.2240 2.3789
2.0700 -6.1535 2.3789
2.2903 -6.0751 2.3789
2.5076 -5.9891 2.3789
2.7218 -5.8955 2.3789
2.9326 -5.7944 2.3789
3.1398 -5.6860 2.3789
3.3430 -5.5703 2.3789
3.5421 -5.4475 2.3789
3.7368 -5.3178 2.3789
3.9268 -5.1813 2.3789
4.1120 -5.0381 2.3789
4.2921 -4.8885 2.3789
4.4668 -4.7325 2.3789
4.6360 -4.5705 2.3789
4.7995 -4.4026 2.3789
4.9570 -4.2289 2.3789
5.1084 -4.0497 2.3789
5.2534 -3.8652 2.3789
5.3918 -3.6756 2.3789
5.5236 -3.4812 2.3789
5.6485 -3.2821 2.3789
5.7663 -3.0786 2.3789
5.8769 -2.8710 2.3789
5.9802 -2.6595 2.3789
6.0760 -2.4444 2.3789
6.1642 -2.2258 2.3789
6.2446 -2.0041 2.3789
6.3172 -1.7796 2.3789
6.3817 -1.5525 2.3789
6.4383 -1.3231 2.3789
6.4867 -1.0917 2.3789
6.5268 -0.8585 2.3789
6.5587 -0.6239 2.3789
6.5822 -0.3882 2.3789
6.5974 -0.1516 2.3789
6.6041 0.0856 2.3789
6.6023 0.3231 2.3789
6.5920 0.5605 2.3789
6.5733 0.7976 2.3789
6.5461 1.0340 2.3789
6.5104 1.2695 2.3789
6.4663 1.5038 2.3789
6.4138 1.7365 2.3789
6.3529 1.9673 2.3789
6.2838 2.1960 2.3789
6.2064 2.4223 2.3789
6.1208 2.6458 2.3789
6.0273 2.8662 2.3789
5.9257 3.0833 2.3789
5.8164 3.2968 2.3789
5.6993 3.5063 2.3789
5.5746 3.7117 2.3789
5.4425 3.9126 2.3789
5.3032 4.1087 2.3789
5.1567 4.2998 2.3789
5.0033 4.4856 2.3789
4.8432 4.6658 2.3789
4.6765 4.8403 2.3789
4.5035 5.0087 2.3789
4.3243 5.1708 2.3789
4.1393 5.3265 2.3789
3.9487 5.4754 2.3789
3.7526 5.6173 2.3789
3.5513 5.7522 2.3789
3.3452 5.8796 2.3789
3.1344 5.9996 2.3789
2.9193 6.1118 2.3789
2.7001 6.2162 2.3789
2.4771 6.3126 2.3789
0.8797 2.5017 0.9298
0.7896 2.5320 0.9294
0.6986 2.5591 0.9291
0.6066 2.5829 0.9288
0.5138 2.6033 0.9285
0.4203 2.6203 0.9283
0.3262 2.6340 0.9280
0.2317 2.6443 0.9278
0.1369 2.6512 0.9276
0.0419 2.6546 0.9274
-0.0532 2.6546 0.9272
-0.1482 2.6511 0.9270
-0.2430 2.6443 0.9269
-0.3375 2.6340 0.9267
-0.4316 2.6203 0.9266
-0.5252 2.6032 0.9265
-0.6180 2.5828 0.9265
-0.7101 2.5590 0.9264
-0.8012 2.5319 0.9264
-0.8913 2.5015 0.9264
-2.5173 6.3376 2.3789
-2.7423 6.2429 2.3789
-2.9637 6.1401 2.3789
-3.1812 6.0292 2.3789
-3.3944 5.9104 2.3789
-3.6031 5.7840 2.3789
-3.8069 5.6499 2.3789
-4.0057 5.5085 2.3789
-4.1991 5.3600 2.3789
-4.3869 5.2045 2.3789
-4.5688 5.0423 2.3789
-4.7446 4.8736 2.3789
-4.9140 4.6986 2.3789
-5.0769 4.5177 2.3789
-5.2329 4.3309 2.3789
-5.3820 4.1387 2.3789
-5.5239 3.9412 2.3789
-5.6584 3.7388 2.3789
-5.7853 3.5317 2.3789
-5.9046 3.3202 2.3789
-6.0160 3.1046 2.3789
-6.1195 2.8852 2.3789
-6.2148 2.6623 2.3789
-6.3019 2.4363 2.3789
-6.3806 2.2073 2.3789
-6.4509 1.9758 2.3789
-6.5128 1.7421 2.3789
-6.5661 1.5064 2.3789
-6.6107 1.2692 2.3789
-6.6467 1.0304 2.3789
-6.6740 0.7910 2.3789
-6.6926 0.5509 2.3789
-6.7025 0.3100 2.3789
-6.7037 0.0694 2.3789
-6.6962 -0.1710 2.3789
-6.6800 -0.4107 2.3789
-6.6553 -0.6495 2.3789
-6.6219 -0.8870 2.3789
-6.5801 -1.1231 2.3789
-6.5298 -1.3573 2.3789
-6.4712 -1.5893 2.3789
-6.4043 -1.8189 2.3789
-6.3293 -2.0458 2.3789
-6.2463 -2.2697 2.3789
-6.1554 -2.4903 2.3789
-6.0567 -2.7074 2.3789
-5.9503 -2.9205 2.3789
-5.8366 -3.1296 2.3789
-5.7155 -3.3343 2.3789
-5.5872 -3.5344 2.3789
-5.4521 -3.7297 2.3789
-5.3101 -3.9199 2.3789
-5.1616 -4.1047 2.3789
-5.0067 -4.2840 2.3789
-4.8456 -4.4576 2.3789
-4.6786 -4.6252 2.3789
-4.5058 -4.7867 2.3789
-4.3276 -4.9418 2.3789
-4.1441 -5.0904 2.3789
-3.9555 -5.2324 2.3789
-3.7622 -5.3674 2.3789
-3.5643 -5.4954 2.3789
-3.3622 -5.6163 2.3789
-3.1560 -5.7299 2.3789
-2.9460 -5.8361 2.3789
-2.7326 -5.9347 2.3789
-2.5158 -6.0257 2.3789
-2.2962 -6.1090 2.3789
-2.0738 -6.1843 2.3789
-1.8491 -6.2518 2.3789
-1.6221 -6.3113 2.3789
-1.3934 -6.3627 2.3789
-1.1630 -6.4060 2.3789
-0.9314 -6.4411 2.3789
-0.6987 -6.4681 2.3789
-0.4654 -6.4869 2.3789
-0.2315 -6.4974 2.3789
0.0025 -6.4997 2.3789
0.2364 -6.4938 2.3789
0.4698 -6.4797 2.3789
0.7026 -6.4574 2.3789
0.9345 -6.4269 2.3789
1.1651 -6.3882 2.3789
1.3941 -6.3416 2.3789
1.6214 -6.2868 2.3789
1.8466 -6.2242 2.3789
2.0694 -6.1537 2.3789
2.2897 -6.0754 2.3789
2.5070 -5.9893 2.3789
2.7212 -5.8958 2.3789
2.9321 -5.7947 2.3789
3.1392 -5.6863 2.3789
3.3425 -5.5706 2.3789
3.5416 -5.4478 2.3789
3.7363 -5.3181 2.3789
3.9263 -5.1816 2.3789
4.1115 -5.0385 2.3789
4.2916 -4.8889 2.3789
4.4664 -4.7330 2.3789
4.6356 -4.5710 2.3789
4.7991 -4.4030 2.3789
4.9566 -4.2294 2.3789
5.1080 -4.0502 2.3789
5.2530 -3.8657 2.3789
5.3915 -3.6761 2.3789
5.5233 -3.4817 2.3789
5.6482 -3.2827 2.3789
5.7660 -3.0792 2.3789
5.8767 -2.8716 2.3789
5.9799 -2.6601 2.3789
6.0757 -2.4450 2.3789
6.1639 -2.2264 2.3789
6.2444 -2.0048 2.3789
6.3170 -1.7802 2.3789
6.3816 -1.5531 2.3789
6.4381 -1.3237 2.3789
6.4865 -1.0923 2.3789
6.5267 -0.8592 2.3789
6.5586 -0.6246 2.3789
6.5822 -0.3888 2.3789
6.5973 -0.1522 2.3789
6.6040 0.0850 2.3789
6.6023 0.3224 2.3789
6.5921 0.5598 2.3789
6.5734 0.7969 2.3789
6.5462 1.0334 2.3789
6.5105 1.2689 2.3789
6.4664 1.5031 2.3789
6.4139 1.7358 2.3789
6.3531 1.9667 2.3789
6.2840 2.1954 2.3789
6.2066 2.4217 2.3789
6.1211 2.6452 2.3789
6.0275 2.8656 2.3789
5.9260 3.0827 2.3789
5.8167 3.2962 2.3789
5.6996 3.5058 2.3789
5.5750 3.7111 2.3789
5.4429 3.9120 2.3789
5.3035 4.1082 2.3789
5.1571 4.2993 2.3789
5.0037 4.4851 2.3789
4.8436 4.6653 2.3789
4.6770 4.8398 2.3789
4.5040 5.0083 2.3789
4.3248 5.1704 2.3789
4.1398 5.3261 2.3789
3.9492 5.4750 2.3789
3.7531 5.6170 2.3789
3.5519 5.7518 2.3789
3.3457 5.8793 2.3789
3.1350 5.9993 2.3789
2.9199 6.1116 2.3789
2.7007 6.2160 2.3789
2.4778 6.3124 2.3789
0.8799 2.5016 0.9298
0.7899 2.5319 0.9294
0.6988 2.5590 0.9291
0.6068 2.5828 0.9288
0.5140 2.6032 0.9285
0.4205 2.6203 0.9283
0.3265 2.6340 0.9280
0.2320 2.6443 0.9278
0.1371 2.6511 0.9276
0.0421 2.6546 0.9274
-0.0529 2.6546 0.9272
-0.1479 2.6512 0.9270
-0.2428 2.6443 0.9269
-0.3373 2.6340 0.9267
-0.4314 2.6203 0.9266
-0.5249 2.6033 0.9265
-0.6178 2.5828 0.9265
-0.7098 2.5590 0.9264
-0.8010 2.5319 0.9264
-0.8911 2.5016 0.9264
-2.5167 6.3378 2.3789
-2.7417 6.2432 2.3789
-2.9631 6.1404 2.3789
-3.1806 6.0295 2.3789
-3.3938 5.9108 2.3789
-3.6025 5.7843 2.3789
-3.8064 5.6503 2.3789
-4.0052 5.5089 2.3789
-4.1986 5.3604 2.3789
-4.3864 5.2049 2.3789
-4.5683 5.0428 2.3789
-4.7441 4.8741 2.3789
-4.9136 4.6991 2.3789
-5.0764 4.5182 2.3789
-5.2325 4.3314 2.3789
-5.3816 4.1392 2.3789
-5.5235 3.9417 2.3789
-5.6580 3.7393 2.3789
-5.7850 3.5322 2.3789
-5.9043 3.3208 2.3789
-6.0157 3.1052 2.3789
-6.1192 2.8858 2.3789
-6.2145 2.6629 2.3789
-6.3016 2.4369 2.3789
-6.3804 2.2080 2.3789
-6.4508 1.9765 2.3789
-6.5126 1.7427 2.3789
-6.5659 1.5070 2.3789
-6.6106 1.2700 2.3789
-6.6466 1.0312 2.3789
-6.6740 0.7914 2.3789
-6.6926 0.5513 2.3789
-6.7025 0.3106 2.3789
-6.7037 0.0700 2.3789
-6.6962 -0.1703 2.3789
-6.6801 -0.4100 2.3789
-6.6553 -0.6488 2.3789
-6.6220 -0.8864 2.3789
-6.5802 -1.1224 2.3789
-6.5299 -1.3567 2.3789
-6.4714 -1.5887 2.3789
-6.4045 -1.8183 2.3789
-6.3295 -2.0452 2.3789
-6.2465 -2.2691 2.3789
-6.1556 -2.4897 2.3789
-6.0569 -2.7068 2.3789
-5.9506 -2.9199 2.3789
-5.8369 -3.1290 2.3789
-5.7158 -3.3338 2.3789
-5.5876 -3.5339 2.3789
-5.4524 -3.7292 2.3789
-5.3105 -3.9194 2.3789
-5.1620 -4.1042 2.3789
-5.0071 -4.2836 2.3789
-4.8460 -4.4572 2.3789
-4.6790 -4.6248 2.3789
-4.5063 -4.7863 2.3789
-4.3281 -4.9414 2.3789
-4.1446 -5.0901 2.3789
-3.9560 -5.2320 2.3789
-3.7627 -5.3671 2.3789
-3.5649 -5.4951 2.3789
-3.3627 -5.6160 2.3789
-3.1565 -5.7296 2.3789
-2.9466 -5.8358 2.3789
-2.7331 -5.9345 2.3789
-2.5164 -6.0255 2.3789
-2.2967 -6.1090 2.3789
-2.0744 -6.1841 2.3789
-1.8497 -6.2516 2.3789
-1.6228 -6.3111 2.3789
-1.3940 -6.3626 2.3789
-1.1637 -6.4059 2.3789
-0.9320 -6.4411 2.3789
-0.6994 -6.4681 2.3789
-0.4660 -6.4868 2.3789
-0.2321 -6.4974 2.3789
0.0025 -6.0725 2.3789
0.2211 -6.0670 2.3789
0.4393 -6.0538 2.3789
0.6568 -6.0330 2.3789
0.8735 -6.0045 2.3789
1.0890 -5.9685 2.3789
1.3030 -5.9249 2.3789
1.5154 -5.8737 2.3789
1.7258 -5.8152 2.3789
1.9341 -5.7493 2.3789
2.1399 -5.6761 2.3789
2.3430 -5.5957 2.3789
2.5431 -5.5081 2.3789
2.7401 -5.4136 2.3789
2.9337 -5.3122 2.3789
3.1235 -5.2041 2.3789
3.3096 -5.0893 2.3789
3.4914 -4.9680 2.3789
3.6690 -4.8403 2.3789
3.8420 -4.7065 2.3789
4.0101 -4.5666 2.3789
4.1733 -4.4208 2.3789
4.3313 -4.2693 2.3789
4.4840 -4.1123 2.3789
4.6310 -3.9499 2.3789
4.7723 -3.7824 2.3789
4.9076 -3.6099 2.3789
5.0368 -3.4327 2.3789
5.1597 -3.2509 2.3789
5.2762 -3.0649 2.3789
5.3861 -2.8747 2.3789
5.4893 -2.6807 2.3789
5.5855 -2.4830 2.3789
5.6748 -2.2819 2.3789
5.7569 -2.0777 2.3789
5.8318 -1.8706 2.3789
5.8993 -1.6609 2.3789
5.9594 -1.4487 2.3789
6.0119 -1.2344 2.3789
6.0568 -1.0183 2.3789
6.0940 -0.8005 2.3789
6.1235 -0.5814 2.3789
6.1452 -0.3613 2.3789
6.1590 -0.1403 2.3789
6.1649 0.0811 2.3789
6.1630 0.3028 2.3789
6.1531 0.5244 2.3789
6.1353 0.7457 2.3789
6.1096 0.9663 2.3789
6.0760 1.1861 2.3789
6.0345 1.4046 2.3789
5.9852 1.6217 2.3789
5.9281 1.8370 2.3789
5.8632 2.0504 2.3789
5.7907 2.2614 2.3789
5.7106 2.4698 2.3789
5.6230 2.6753 2.3789
5.5280 2.8777 2.3789
5.4257 3.0767 2.3789
5.3162 3.2721 2.3789
5.1996 3.4635 2.3789
5.0761 3.6506 2.3789
4.9459 3.8334 2.3789
4.8090 4.0114 2.3789
4.6658 4.1845 2.3789
4.5162 4.3524 2.3789
4.3605 4.5149 2.3789
4.1990 4.6717 2.3789
4.0318 4.8227 2.3789
3.8591 4.9676 2.3789
3.6812 5.1062 2.3789
3.4982 5.2383 2.3789
3.3104 5.3638 2.3789
3.1181 5.4824 2.3789
2.9215 5.5940 2.3789
2.7209 5.6985 2.3789
2.5165 5.7956 2.3789
0.9033 2.3028 0.9309
0.8204 2.3341 0.9305
0.7364 2.3624 0.9302
0.6515 2.3876 0.9299
0.5657 2.4098 0.9297
0.4791 2.4288 0.9294
0.3919 2.4447 0.9291
0.3041 2.4575 0.9289
0.2160 2.4671 0.9287
0.1275 2.4734 0.9285
0.0389 2.4766 0.9283
-0.0498 2.4766 0.9281
-0.1384 2.4734 0.9280
-0.2268 2.4670 0.9278
-0.3150 2.4574 0.9277
-0.4028 2.4446 0.9276
-0.4900 2.4287 0.9275
-0.5766 2.4096 0.9275
-0.6625 2.3874 0.9274
-0.7475 2.3621 0.9274
-0.8315 2.3338 0.9274
-0.9145 2.3025 0.9274
-2.5556 5.8183 2.3789
-2.7620 5.7225 2.3789
-2.9646 5.6192 2.3789
-3.1633 5.5086 2.3789
-3.3578 5.3908 2.3789
-3.5478 5.2660 2.3789
-3.7331 5.1344 2.3789
-3.9134 4.9960 2.3789
-4.0885 4.8512 2.3789
-4.2580 4.7002 2.3789
-4.4220 4.5431 2.3789
-4.5800 4.3801 2.3789
-4.7319 4.2116 2.3789
-4.8775 4.0376 2.3789
-5.0166 3.8586 2.3789
-5.1490 3.6747 2.3789
-5.2745 3.4861 2.3789
-5.3931 3.2932 2.3789
-5.5044 3.0961 2.3789
-5.6085 2.8953 2.3789
-5.7051 2.6909 2.3789
-5.7942 2.4832 2.3789
-5.8756 2.2725 2.3789
-5.9493 2.0592 2.3789
-6.0152 1.8434 2.3789
-6.0731 1.6255 2.3789
-6.1231 1.4058 2.3789
-6.1650 1.1846 2.3789
-6.1988 0.9621 2.3789
-6.2246 0.7387 2.3789
-6.2422 0.5147 2.3789
-6.2518 0.2903 2.3789
-6.2532 0.0659 2.3789
-6.2465 -0.1583 2.3789
-6.2318 -0.3819 2.3789
-6.2090 -0.6047 2.3789
-6.1782 -0.8264 2.3789
-6.1395 -1.0466 2.3789
-6.0929 -1.2652 2.3789
-6.0385 -1.4818 2.3789
-5.9764 -1.6961 2.3789
-5.9067 -1.9079 2.3789
-5.8296 -2.1170 2.3789
-5.7450 -2.3230 2.3789
-5.6532 -2.5256 2.3789
-5.5542 -2.7247 2.3789
-5.4483 -2.9200 2.3789
-5.3356 -3.1113 2.3789
-5.2161 -3.2983 2.3789
-5.0902 -3.4807 2.3789
-4.9579 -3.6584 2.3789
-4.8195 -3.8312 2.3789
-4.6751 -3.9988 2.3789
-4.5249 -4.1611 2.3789
-4.3691 -4.3178 2.3789
-4.2080 -4.4688 2.3789
-4.0418 -4.6138 2.3789
-3.8705 -4.7528 2.3789
-3.6946 -4.8856 2.3789
-3.5142 -5.0119 2.3789
-3.3295 -5.1317 2.3789
-3.1408 -5.2448 2.3789
-2.9483 -5.3511 2.3789
-2.7523 -5.4505 2.3789
-2.5530 -5.5428 2.3789
-2.3507 -5.6279 2.3789
-2.1455 -5.7059 2.3789
-1.9378 -5.7765 2.3789
-1.7279 -5.8397 2.3789
-1.5160 -5.8955 2.3789
-1.3023 -5.9436 2.3789
-1.0871 -5.9843 2.3789
-0.8706 -6.0173 2.3789
-0.6533 -6.0426 2.3789
-0.4352 -6.0602 2.3789
-0.2167 -6.0702 2.3789
0.0020 -6.0725 2.3789
0.2205 -6.0670 2.3789
0.4387 -6.0539 2.3789
0.6562 -6.0331 2.3789
0.8729 -6.0046 2.3789
1.0884 -5.9686 2.3789
1.3024 -5.9250 2.3789
1.5148 -5.8739 2.3789
1.7253 -5.8154 2.3789
1.9335 -5.7494 2.3789
2.1393 -5.6763 2.3789
2.3424 -5.5959 2.3789
2.5426 -5.5084 2.3789
2.7396 -5.4139 2.3789
2.9332 -5.3125 2.3789
3.1231 -5.2044 2.3789
3.3091 -5.0896 2.3789
3.4910 -4.9683 2.3789
3.6685 -4.8407 2.3789
3.8415 -4.7069 2.3789
4.0097 -4.5670 2.3789
4.1729 -4.4212 2.3789
4.3310 -4.2701 2.3789
4.4836 -4.1127 2.3789
4.6306 -3.9503 2.3789
4.7719 -3.7829 2.3789
4.9073 -3.6104 2.3789
5.0365 -3.4332 2.3789
5.1594 -3.2514 2.3789
5.2759 -3.0653 2.3789
5.3858 -2.8752 2.3789
5.4890 -2.6812 2.3789
5.5853 -2.4835 2.3789
5.6745 -2.2825 2.3789
5.7567 -2.0783 2.3789
5.8316 -1.8712 2.3789
5.8991 -1.6614 2.3789
5.9592 -1.4493 2.3789
6.0117 -1.2350 2.3789
6.0567 -1.0188 2.3789
6.0939 -0.8011 2.3789
6.1234 -0.5820 2.3789
6.1451 -0.3618 2.3789
6.1590 -0.1409 2.3789
6.1649 0.0805 2.3789
6.1630 0.3022 2.3789
6.1532 0.5238 2.3789
6.1354 0.7451 2.3789
6.1097 0.9657 2.3789
6.0761 1.1855 2.3789
6.0346 1.4040 2.3789
5.9853 1.6211 2.3789
5.9283 1.8365 2.3789
5.8634 2.0498 2.3789
5.7909 2.2608 2.3789
5.7108 2.4692 2.3789
5.6232 2.6748 2.3789
5.5282 2.8772 2.3789
5.4259 3.0762 2.3789
5.3165 3.2715 2.3789
5.1999 3.4629 2.3789
5.0765 3.6501 2.3789
4.9462 3.8330 2.3789
4.8094 4.0109 2.3789
4.6661 4.1840 2.3789
4.5166 4.3519 2.3789
4.3610 4.5144 2.3789
4.1995 4.6713 2.3789
4.0322 4.8223 2.3789
3.8596 4.9672 2.3789
3.6816 5.1058 2.3789
3.4987 5.2380 2.3789
3.3109 5.3635 2.3789
3.1186 5.4821 2.3789
2.9221 5.5937 2.3789
2.7214 5.6982 2.3789
2.5170 5.7953 2.3789
0.9036 2.3028 0.9309
0.8207 2.3341 0.9305
0.7367 2.3623 0.9302
0.6517 2.3876 0.9299
0.5659 2.4097 0.9297
0.4793 2.4288 0.9294
0.3921 2.4447 0.9291
0.3044 2.4575 0.9289
0.2162 2.4670 0.9287
0.1278 2.4734 0.9285
0.0392 2.4766 0.9283
-0.0495 2.4766 0.9281
-0.1381 2.4734 0.9280
-0.2266 2.4670 0.9278
-0.3148 2.4574 0.9277
-0.4025 2.4447 0.9276
-0.4898 2.4287 0.9275
-0.5764 2.4097 0.9275
-0.6623 2.3875 0.9274
-0.7473 2.3622 0.9274
-0.8313 2.3339 0.9274
-0.9143 2.3026 0.9274
-2.5551 5.8185 2.3789
-2.7614 5.7228 2.3789
-2.9641 5.6195 2.3789
-3.1628 5.5089 2.3789
-3.3573 5.3912 2.3789
-3.5473 5.2664 2.3789
-3.7326 5.1347 2.3789
-3.9129 4.9964 2.3789
-4.0880 4.8516 2.3789
-4.2576 4.7006 2.3789
-4.4216 4.5435 2.3789
-4.5796 4.3806 2.3789
-4.7315 4.2120 2.3789
-4.8771 4.0381 2.3789
-5.0162 3.8591 2.3789
-5.1486 3.6751 2.3789
-5.2742 3.4866 2.3789
-5.3927 3.2937 2.3789
-5.5041 3.0967 2.3789
-5.6082 2.8958 2.3789
-5.7049 2.6914 2.3789
-5.7940 2.4838 2.3789
-5.8754 2.2731 2.3789
-5.9491 2.0598 2.3789
-6.0150 1.8440 2.3789
-6.0729 1.6261 2.3789
-6.1229 1.4064 2.3789
-6.1649 1.1852 2.3789
-6.1987 0.9627 2.3789
-6.2245 0.7393 2.3789
-6.2422 0.5153 2.3789
-6.2518 0.2909 2.3789
-6.2532 0.0665 2.3789
-6.2466 -0.1577 2.3789
-6.2318 -0.3813 2.3789
-6.2090 -0.6041 2.3789
-6.1783 -0.8258 2.3789
-6.1396 -1.0460 2.3789
-6.0930 -1.2646 2.3789
-6.0387 -1.4812 2.3789
-5.9766 -1.6956 2.3789
-5.9069 -1.9074 2.3789
-5.8298 -2.1164 2.3789
-5.7452 -2.3224 2.3789
-5.6535 -2.5251 2.3789
-5.5545 -2.7242 2.3789
-5.4486 -2.9195 2.3789
-5.3359 -3.1108 2.3789
-5.2165 -3.2978 2.3789
-5.0905 -3.4802 2.3789
-4.9583 -3.6580 2.3789
-4.8199 -3.8307 2.3789
-4.6755 -3.9984 2.3789
-4.5253 -4.1607 2.3789
-4.3696 -4.3174 2.3789
-4.2085 -4.4684 2.3789
-4.0422 -4.6135 2.3789
-3.8710 -4.7525 2.3789
-3.6951 -4.8852 2.3789
-3.5147 -5.0116 2.3789
-3.3300 -5.1314 2.3789
-3.1413 -5.2445 2.3789
-2.9489 -5.3508 2.3789
-2.7528 -5.4502 2.3789
-2.5535 -5.5426 2.3789
-2.3512 -5.6278 2.3789
-2.1461 -5.7057 2.3789
-1.9384 -5.7763 2.3789
-1.7285 -5.8396 2.3789
-1.5165 -5.8953 2.3789
-1.3028 -5.9435 2.3789
-1.0876 -5.9842 2.3789
-0.8712 -6.0172 2.3789
-0.6538 -6.0425 2.3789
-0.4358 -6.0602 2.3789
-0.2173 -6.0702 2.3789
0.0020 -5.6916 2.3789
0.2069 -5.6866 2.3789
0.4115 -5.6743 2.3789
0.6154 -5.6548 2.3789
0.8185 -5.6282 2.3789
1.0206 -5.5944 2.3789
1.2212 -5.5536 2.3789
1.4204 -5.5057 2.3789
1.6177 -5.4508 2.3789
1.8129 -5.3890 2.3789
2.0058 -5.3203 2.3789
2.1962 -5.2449 2.3789
2.3839 -5.1629 2.3789
2.5685 -5.0742 2.3789
2.7500 -4.9791 2.3789
2.9280 -4.8777 2.3789
3.1023 -4.7700 2.3789
3.2728 -4.6562 2.3789
3.4391 -4.5365 2.3789
3.6012 -4.4110 2.3789
3.7588 -4.2798 2.3789
3.9118 -4.1430 2.3789
4.0598 -4.0009 2.3789
4.2028 -3.8536 2.3789
4.3405 -3.7013 2.3789
4.4728 -3.5442 2.3789
4.5996 -3.3825 2.3789
4.7205 -3.2163 2.3789
4.8356 -3.0458 2.3789
4.9447 -2.8714 2.3789
5.0475 -2.6931 2.3789
5.1440 -2.5111 2.3789
5.2340 -2.3258 2.3789
5.3175 -2.1373 2.3789
5.3942 -1.9459 2.3789
5.4642 -1.7517 2.3789
5.5273 -1.5551 2.3789
5.5833 -1.3563 2.3789
5.6323 -1.1554 2.3789
5.6742 -0.9529 2.3789
5.7088 -0.7488 2.3789
5.7362 -0.5436 2.3789
5.7563 -0.3373 2.3789
5.7690 -0.1303 2.3789
5.7743 0.0771 2.3789
5.7722 0.2847 2.3789
5.7627 0.4923 2.3789
5.7458 0.6995 2.3789
5.7214 0.9061 2.3789
5.6897 1.1118 2.3789
5.6506 1.3165 2.3789
5.6041 1.5197 2.3789
5.5504 1.7212 2.3789
5.4894 1.9209 2.3789
5.4213 2.1184 2.3789
5.3460 2.3134 2.3789
5.2638 2.5057 2.3789
5.1746 2.6951 2.3789
5.0785 2.8812 2.3789
4.9758 3.0639 2.3789
4.8665 3.2429 2.3789
4.7507 3.4180 2.3789
4.6286 3.5889 2.3789
4.5003 3.7553 2.3789
4.3660 3.9171 2.3789
4.2259 4.0741 2.3789
4.0801 4.2260 2.3789
3.9287 4.3725 2.3789
3.7721 4.5136 2.3789
3.6104 4.6490 2.3789
3.4438 4.7785 2.3789
3.2724 4.9020 2.3789
3.0967 5.0192 2.3789
2.9167 5.1300 2.3789
2.7326 5.2342 2.3789
2.5449 5.3317 2.3789
0.9219 2.1240 0.9318
0.8454 2.1560 0.9315
0.7678 2.1853 0.9312
0.6892 2.2117 0.9309
0.6097 2.2353 0.9307
0.5293 2.2561 0.9304
0.4483 2.2739 0.9301
0.3666 2.2887 0.9299
0.2845 2.3007 0.9297
0.2020 2.3096 0.9295
0.1192 2.3156 0.9293
0.0363 2.3186 0.9291
-0.0467 2.3185 0.9290
-0.1297 2.3155 0.9288
-0.2125 2.3095 0.9287
-0.2950 2.3005 0.9286
-0.3771 2.2886 0.9285
-0.4588 2.2737 0.9284
-0.5399 2.2558 0.9283
-0.6202 2.2350 0.9283
-0.6998 2.2114 0.9283
-0.7785 2.1849 0.9282
-0.8561 2.1555 0.9282
-2.3902 5.4419 2.3789
-2.5831 5.3523 2.3789
-2.7726 5.2558 2.3789
-2.9585 5.1524 2.3789
-3.1404 5.0423 2.3789
-3.3181 4.9257 2.3789
-3.4914 4.8026 2.3789
-3.6601 4.6733 2.3789
-3.8239 4.5380 2.3789
-3.9826 4.3968 2.3789
-4.1359 4.2500 2.3789
-4.2838 4.0977 2.3789
-4.4260 3.9401 2.3789
-4.5623 3.7775 2.3789
-4.6925 3.6102 2.3789
-4.8165 3.4382 2.3789
-4.9339 3.2617 2.3789
-5.0450 3.0816 2.3789
-5.1494 2.8974 2.3789
-5.2469 2.7096 2.3789
-5.3375 2.5185 2.3789
-5.4210 2.3243 2.3789
-5.4974 2.1273 2.3789
-5.5666 1.9277 2.3789
-5.6284 1.7259 2.3789
-5.6828 1.5221 2.3789
-5.7298 1.3166 2.3789
-5.7692 1.1096 2.3789
-5.8012 0.9015 2.3789
-5.8255 0.6925 2.3789
-5.8423 0.4828 2.3789
-5.8515 0.2728 2.3789
-5.8531 0.0628 2.3789
-5.8471 -0.1470 2.3789
-5.8335 -0.3564 2.3789
-5.8124 -0.5649 2.3789
-5.7839 -0.7725 2.3789
-5.7479 -0.9787 2.3789
-5.7046 -1.1834 2.3789
-5.6539 -1.3862 2.3789
-5.5961 -1.5870 2.3789
-5.5311 -1.7854 2.3789
-5.4591 -1.9812 2.3789
-5.3801 -2.1742 2.3789
-5.2944 -2.3640 2.3789
-5.2020 -2.5506 2.3789
-5.1030 -2.7337 2.3789
-4.9976 -2.9129 2.3789
-4.8860 -3.0882 2.3789
-4.7682 -3.2592 2.3789
-4.6445 -3.4258 2.3789
-4.5151 -3.5878 2.3789
-4.3800 -3.7450 2.3789
-4.2395 -3.8972 2.3789
-4.0937 -4.0441 2.3789
-3.9429 -4.1858 2.3789
-3.7873 -4.3219 2.3789
-3.6270 -4.4522 2.3789
-3.4623 -4.5768 2.3789
-3.2934 -4.6953 2.3789
-3.1204 -4.8078 2.3789
-2.9437 -4.9139 2.3789
-2.7634 -5.0137 2.3789
-2.5798 -5.1070 2.3789
-2.3931 -5.1936 2.3789
-2.2035 -5.2737 2.3789
-2.0113 -5.3469 2.3789
-1.8167 -5.4132 2.3789
-1.6200 -5.4726 2.3789
-1.4213 -5.5250 2.3789
-1.2211 -5.5703 2.3789
-1.0194 -5.6085 2.3789
-0.8165 -5.6395 2.3789
-0.6127 -5.6634 2.3789
-0.4083 -5.6800 2.3789
-0.2035 -5.6894 2.3789
0.0015 -5.6916 2.3789
0.2064 -5.6866 2.3789
0.4109 -5.6744 2.3789
0.6149 -5.6549 2.3789
0.8180 -5.6283 2.3789
1.0200 -5.5945 2.3789
1.2207 -5.5537 2.3789
1.4198 -5.5058 2.3789
1.6171 -5.4509 2.3789
1.8124 -5.3892 2.3789
2.0053 -5.3205 2.3789
2.1957 -5.2451 2.3789
2.3834 -5.1631 2.3789
2.5680 -5.0745 2.3789
2.7495 -4.9794 2.3789
2.9275 -4.8780 2.3789
3.1018 -4.7703 2.3789
3.2723 -4.6566 2.3789
3.4387 -4.5368 2.3789
3.6008 -4.4113 2.3789
3.7584 -4.2801 2.3789
3.9113 -4.1434 2.3789
4.0594 -4.0013 2.3789
4.2024 -3.8540 2.3789
4.3401 -3.7018 2.3789
4.4725 -3.5446 2.3789
4.5992 -3.3829 2.3789
4.7202 -3.2167 2.3789
4.8353 -3.0463 2.3789
4.9444 -2.8718 2.3789
5.0472 -2.6935 2.3789
5.1437 -2.5116 2.3789
5.2338 -2.3262 2.3789
5.3173 -2.1378 2.3789
5.3940 -1.9464 2.3789
5.4640 -1.7522 2.3789
5.5271 -1.5556 2.3789
5.5832 -1.3568 2.3789
5.6322 -1.1560 2.3789
5.6741 -0.9534 2.3789
5.7088 -0.7494 2.3789
5.7362 -0.5441 2.3789
5.7562 -0.3379 2.3789
5.7689 -0.1309 2.3789
5.7743 0.0765 2.3789
5.7722 0.2842 2.3789
5.7627 0.4917 2.3789
5.7458 0.6989 2.3789
5.7215 0.9055 2.3789
5.6898 1.1113 2.3789
5.6507 1.3159 2.3789
5.6043 1.5191 2.3789
5.5506 1.7207 2.3789
5.4896 1.9204 2.3789
5.4215 2.1178 2.3789
5.3462 2.3129 2.3789
5.2640 2.5052 2.3789
5.1748 2.6946 2.3789
5.0788 2.8807 2.3789
4.9761 3.0636 2.3789
4.8668 3.2425 2.3789
4.7510 3.4175 2.3789
4.6289 3.5884 2.3789
4.5007 3.7549 2.3789
4.3664 3.9167 2.3789
4.2263 4.0737 2.3789
4.0804 4.2256 2.3789
3.9291 4.3721 2.3789
3.7725 4.5132 2.3789
3.6108 4.6487 2.3789
3.4442 4.7782 2.3789
3.2729 4.9016 2.3789
3.0971 5.0189 2.3789
2.9171 5.1297 2.3789
2.7331 5.2339 2.3789
2.5454 5.3315 2.3789
0.9221 2.1239 0.9318
0.8456 2.1559 0.9315
0.7680 2.1852 0.9312
0.6894 2.2117 0.9309
0.6099 2.2353 0.9307
0.5295 2.2560 0.9304
0.4485 2.2738 0.9301
0.3669 2.2887 0.9299
0.2847 2.3006 0.9297
0.2022 2.3096 0.9295
0.1195 2.3156 0.9293
0.0365 2.3186 0.9291
-0.0465 2.3186 0.9290
-0.1294 2.3155 0.9288
-0.2122 2.3096 0.9287
-0.2948 2.3006 0.9286
-0.3769 2.2886 0.9285
-0.4586 2.2737 0.9284
-0.5396 2.2559 0.9283
-0.6200 2.2351 0.9283
-0.6996 2.2114 0.9283
-0.7782 2.1849 0.9282
-0.8559 2.1556 0.9282
-2.3896 5.4421 2.3789
-2.5826 5.3526 2.3789
-2.7721 5.2561 2.3789
-2.9580 5.1527 2.3789
-3.1399 5.0426 2.3789
-3.3176 4.9260 2.3789
-3.4910 4.8029 2.3789
-3.6596 4.6737 2.3789
-3.8234 4.5384 2.3789
-3.9821 4.3972 2.3789
-4.1355 4.2504 2.3789
-4.2834 4.0981 2.3789
-4.4256 3.9405 2.3789
-4.5619 3.7780 2.3789
-4.6921 3.6106 2.3789
-4.8161 3.4387 2.3789
-4.9336 3.2621 2.3789
-5.0448 3.0821 2.3789
-5.1491 2.8979 2.3789
-5.2467 2.7101 2.3789
-5.3373 2.5190 2.3789
-5.4208 2.3248 2.3789
-5.4972 2.1278 2.3789
-5.5664 1.9283 2.3789
-5.6282 1.7265 2.3789
-5.6827 1.5227 2.3789
-5.7296 1.3171 2.3789
-5.7691 1.1102 2.3789
-5.8011 0.9020 2.3789
-5.8255 0.6930 2.3789
-5.8423 0.4834 2.3789
-5.8515 0.2734 2.3789
-5.8531 0.0634 2.3789
-5.8471 -0.1465 2.3789
-5.8336 -0.3558 2.3789
-5.8125 -0.5644 2.3789
-5.7840 -0.7719 2.3789
-5.7480 -0.9781 2.3789
-5.7047 -1.1828 2.3789
-5.6541 -1.3857 2.3789
-5.5962 -1.5864 2.3789
-5.5313 -1.7848 2.3789
-5.4593 -1.9807 2.3789
-5.3804 -2.1736 2.3789
-5.2946 -2.3635 2.3789
-5.2022 -2.5501 2.3789
-5.1033 -2.7332 2.3789
-4.9979 -2.9124 2.3789
-4.8863 -3.0877 2.3789
-4.7686 -3.2587 2.3789
-4.6449 -3.4254 2.3789
-4.5154 -3.5874 2.3789
-4.3804 -3.7446 2.3789
-4.2399 -3.8968 2.3789
-4.0941 -4.0437 2.3789
-3.9433 -4.1854 2.3789
-3.7877 -4.3215 2.3789
-3.6275 -4.4519 2.3789
-3.4628 -4.5765 2.3789
-3.2938 -4.6950 2.3789
-3.1209 -4.8075 2.3789
-2.9442 -4.9137 2.3789
-2.7639 -5.0135 2.3789
-2.5803 -5.1068 2.3789
-2.3935 -5.1938 2.3789
-2.2040 -5.2735 2.3789
-2.0118 -5.3467 2.3789
-1.8172 -5.4131 2.3789
-1.6205 -5.4724 2.3789
-1.4219 -5.5248 2.3789
-1.2216 -5.5702 2.3789
-1.0199 -5.6084 2.3789
-0.8170 -5.6394 2.3789
-0.6133 -5.6633 2.3789
-0.4089 -5.6800 2.3789
-0.2041 -5.6894 2.3789
0.0016 -5.3498 2.3789
0.1942 -5.3451 2.3789
0.3865 -5.3336 2.3789
0.5782 -5.3153 2.3789
0.7692 -5.2903 2.3789
0.9591 -5.2586 2.3789
1.1478 -5.2202 2.3789
1.3350 -5.1752 2.3789
1.5205 -5.1236 2.3789
1.7041 -5.0655 2.3789
1.8855 -5.0009 2.3789
2.0645 -4.9300 2.3789
2.2409 -4.8529 2.3789
2.4145 -4.7695 2.3789
2.5850 -4.6801 2.3789
2.7524 -4.5847 2.3789
2.9162 -4.4834 2.3789
3.0765 -4.3764 2.3789
3.2328 -4.2638 2.3789
3.3852 -4.1457 2.3789
3.5333 -4.0222 2.3789
3.6770 -3.8936 2.3789
3.8161 -3.7600 2.3789
3.9504 -3.6215 2.3789
4.0798 -3.4782 2.3789
4.2041 -3.3305 2.3789
4.3231 -3.1784 2.3789
4.4367 -3.0220 2.3789
4.5448 -2.8618 2.3789
4.6471 -2.6977 2.3789
4.7436 -2.5301 2.3789
4.8342 -2.3590 2.3789
4.9187 -2.1848 2.3789
4.9970 -2.0075 2.3789
5.0689 -1.8276 2.3789
5.1345 -1.6451 2.3789
5.1936 -1.4602 2.3789
5.2461 -1.2733 2.3789
5.2920 -1.0846 2.3789
5.3311 -0.8942 2.3789
5.3635 -0.7025 2.3789
5.3890 -0.5096 2.3789
5.4076 -0.3158 2.3789
5.4193 -0.1214 2.3789
5.4241 0.0735 2.3789
5.4220 0.2685 2.3789
5.4128 0.4635 2.3789
5.3967 0.6581 2.3789
5.3736 0.8521 2.3789
5.3436 1.0453 2.3789
5.3066 1.2375 2.3789
5.2628 1.4283 2.3789
5.2121 1.6175 2.3789
5.1546 1.8049 2.3789
5.0904 1.9903 2.3789
5.0195 2.1733 2.3789
4.9421 2.3538 2.3789
4.8581 2.5315 2.3789
4.7678 2.7062 2.3789
4.6711 2.8776 2.3789
4.5683 3.0456 2.3789
4.4594 3.2098 2.3789
4.3446 3.3700 2.3789
4.2241 3.5262 2.3789
4.0978 3.6779 2.3789
3.9661 3.8251 2.3789
3.8291 3.9675 2.3789
3.6869 4.1049 2.3789
3.5398 4.2372 2.3789
3.3879 4.3641 2.3789
3.2314 4.4855 2.3789
3.0706 4.6012 2.3789
2.9055 4.7110 2.3789
2.7365 4.8148 2.3789
2.5638 4.9125 2.3789
2.3875 5.0038 2.3789
0.8654 1.9945 0.9324
0.7936 2.0246 0.9321
0.7207 2.0520 0.9318
0.6469 2.0769 0.9316
0.5722 2.0990 0.9313
0.4968 2.1184 0.9311
0.4207 2.1352 0.9308
0.3441 2.1491 0.9306
0.2670 2.1603 0.9304
0.1895 2.1687 0.9302
0.1118 2.1743 0.9300
0.0339 2.1771 0.9299
-0.0440 2.1771 0.9297
-0.1219 2.1742 0.9296
-0.1996 2.1686 0.9294
-0.2771 2.1601 0.9293
-0.3542 2.1489 0.9292
-0.4308 2.1349 0.9292
-0.5069 2.1181 0.9291
-0.5824 2.0986 0.9291
-0.6571 2.0764 0.9290
-0.7309 2.0516 0.9290
-0.8038 2.0240 0.9290
-0.8757 1.9939 0.9291
-2.4233 5.0216 2.3789
-2.6011 4.9311 2.3789
-2.7754 4.8341 2.3789
-2.9461 4.7309 2.3789
-3.1128 4.6215 2.3789
-3.2755 4.5062 2.3789
-3.4337 4.3849 2.3789
-3.5874 4.2581 2.3789
-3.7363 4.1257 2.3789
-3.8803 3.9880 2.3789
-4.0191 3.8452 2.3789
-4.1526 3.6975 2.3789
-4.2805 3.5451 2.3789
-4.4028 3.3881 2.3789
-4.5192 3.2269 2.3789
-4.6296 3.0616 2.3789
-4.7340 2.8924 2.3789
-4.8320 2.7197 2.3789
-4.9236 2.5435 2.3789
-5.0088 2.3643 2.3789
-5.0873 2.1821 2.3789
-5.1592 1.9973 2.3789
-5.2242 1.8101 2.3789
-5.2824 1.6208 2.3789
-5.3337 1.4296 2.3789
-5.3779 1.2368 2.3789
-5.4152 1.0426 2.3789
-5.4454 0.8472 2.3789
-5.4684 0.6511 2.3789
-5.4844 0.4543 2.3789
-5.4932 0.2572 2.3789
-5.4949 0.0600 2.3789
-5.4895 -0.1369 2.3789
-5.4770 -0.3335 2.3789
-5.4575 -0.5293 2.3789
-5.4309 -0.7242 2.3789
-5.3973 -0.9178 2.3789
-5.3569 -1.1101 2.3789
-5.3095 -1.3006 2.3789
-5.2554 -1.4892 2.3789
-5.1946 -1.6756 2.3789
-5.1272 -1.8595 2.3789
-5.0533 -2.0409 2.3789
-4.9730 -2.2193 2.3789
-4.8864 -2.3946 2.3789
-4.7936 -2.5666 2.3789
-4.6948 -2.7351 2.3789
-4.5901 -2.8999 2.3789
-4.4797 -3.0607 2.3789
-4.3637 -3.2173 2.3789
-4.2422 -3.3696 2.3789
-4.1154 -3.5174 2.3789
-3.9836 -3.6605 2.3789
-3.8468 -3.7987 2.3789
-3.7052 -3.9320 2.3789
-3.5591 -4.0600 2.3789
-3.4086 -4.1827 2.3789
-3.2539 -4.2998 2.3789
-3.0953 -4.4114 2.3789
-2.9329 -4.5172 2.3789
-2.7669 -4.6171 2.3789
-2.5975 -4.7110 2.3789
-2.4250 -4.7988 2.3789
-2.2496 -4.8805 2.3789
-2.0714 -4.9558 2.3789
-1.8908 -5.0247 2.3789
-1.7080 -5.0872 2.3789
-1.5231 -5.1431 2.3789
-1.3364 -5.1925 2.3789
-1.1481 -5.2351 2.3789
-0.9586 -5.2712 2.3789
-0.7679 -5.3004 2.3789
-0.5764 -5.3230 2.3789
-0.3842 -5.3387 2.3789
-0.1917 -5.3476 2.3789
0.0011 -5.3498 2.3789
0.1937 -5.3451 2.3789
0.3860 -5.3336 2.3789
0.5777 -5.3154 2.3789
0.7687 -5.2904 2.3789
0.9586 -5.2587 2.3789
1.1473 -5.2203 2.3789
1.3345 -5.1753 2.3789
1.5200 -5.1237 2.3789
1.7036 -5.0657 2.3789
1.8850 -5.0011 2.3789
2.0640 -4.9302 2.3789
2.2404 -4.8531 2.3789
2.4140 -4.7697 2.3789
2.5846 -4.6803 2.3789
2.7519 -4.5849 2.3789
2.9158 -4.4837 2.3789
3.0760 -4.3767 2.3789
3.2324 -4.2641 2.3789
3.3848 -4.1460 2.3789
3.5329 -4.0226 2.3789
3.6766 -3.8940 2.3789
3.8157 -3.7604 2.3789
3.9500 -3.6218 2.3789
4.0795 -3.4786 2.3789
4.2037 -3.3309 2.3789
4.3228 -3.1788 2.3789
4.4364 -3.0225 2.3789
4.5445 -2.8622 2.3789
4.6469 -2.6982 2.3789
4.7434 -2.5305 2.3789
4.8340 -2.3595 2.3789
4.9185 -2.1852 2.3789
4.9968 -2.0080 2.3789
