ply
format ascii 1.0
element vertex 2179
property float32 x
property float32 y
property float32 z
end_header
2.5158 -7.4991 2.3938
2.7818 -7.4007 2.3938
3.0438 -7.2928 2.3938
3.3016 -7.1754 2.3938
3.5549 -7.0487 2.3938
3.8033 -6.9130 2.3938
4.0465 -6.7685 2.3938
4.2841 -6.6153 2.3938
4.5159 -6.4536 2.3938
4.7416 -6.2837 2.3938
4.9608 -6.1059 2.3938
5.1734 -5.9203 2.3938
5.3789 -5.7273 2.3938
5.5772 -5.5271 2.3938
5.7680 -5.3199 2.3938
5.9511 -5.1061 2.3938
6.1263 -4.8860 2.3938
6.2932 -4.6599 2.3938
6.4518 -4.4280 2.3938
6.6019 -4.1907 2.3938
6.7432 -3.9483 2.3938
6.8756 -3.7011 2.3938
6.9989 -3.4495 2.3938
7.1130 -3.1938 2.3938
7.2178 -2.9343 2.3938
7.3132 -2.6714 2.3938
7.3989 -2.4054 2.3938
7.4751 -2.1367 2.3938
7.5415 -1.8656 2.3938
7.5981 -1.5925 2.3938
7.6449 -1.3177 2.3938
7.6818 -1.0416 2.3938
7.7088 -0.7646 2.3938
7.7258 -0.4869 2.3938
7.7329 -0.2090 2.3938
7.7301 0.0688 2.3938
7.7174 0.3462 2.3938
7.6949 0.6228 2.3938
7.6625 0.8982 2.3938
7.6203 1.1721 2.3938
7.5685 1.4442 2.3938
7.5071 1.7141 2.3938
7.4361 1.9815 2.3938
7.3558 2.2461 2.3938
7.2661 2.5075 2.3938
7.1673 2.7655 2.3938
7.0594 3.0196 2.3938
6.9427 3.2696 2.3938
6.8172 3.5153 2.3938
6.6832 3.7562 2.3938
6.5408 3.9921 2.3938
6.3902 4.2227 2.3938
6.2316 4.4478 2.3938
6.0652 4.6670 2.3938
5.8913 4.8802 2.3938
5.7099 5.0869 2.3938
5.5215 5.2871 2.3938
5.3261 5.4805 2.3938
5.1241 5.6668 2.3938
4.9157 5.8457 2.3938
4.7012 6.0172 2.3938
4.4808 6.1810 2.3938
4.2548 6.3369 2.3938
4.0235 6.4846 2.3938
3.7872 6.6241 2.3938
3.5461 6.7552 2.3938
3.3006 6.8777 2.3938
3.0509 6.9914 2.3938
2.7974 7.0963 2.3938
2.5404 7.1921 2.3938
0.9189 2.9335 0.9647
0.8129 2.9650 0.9648
0.7059 2.9927 0.9649
0.5979 3.0165 0.9649
0.4891 3.0363 0.9649
0.3796 3.0523 0.9649
0.2697 3.0642 0.9648
0.1593 3.0722 0.9647
0.0487 3.0762 0.9646
-0.0619 3.0762 0.9644
-0.1725 3.0722 0.9642
-0.2828 3.0642 0.9640
-0.3928 3.0522 0.9638
-0.5023 3.0362 0.9635
-0.6112 3.0163 0.9632
-0.7193 2.9925 0.9629
-0.8264 2.9647 0.9625
-2.3199 7.2976 2.3938
-2.5818 7.2127 2.3938
-2.8407 7.1185 2.3938
-3.0962 7.0151 2.3938
-3.3480 6.9028 2.3938
-3.5958 6.7815 2.3938
-3.8392 6.6514 2.3938
-4.0780 6.5128 2.3938
-4.3119 6.3656 2.3938
-4.5405 6.2102 2.3938
-4.7635 6.0467 2.3938
-4.9808 5.8752 2.3938
-5.1919 5.6960 2.3938
-5.3966 5.5094 2.3938
-5.5947 5.3154 2.3938
-5.7858 5.1144 2.3938
-5.9698 4.9066 2.3938
-6.1464 4.6922 2.3938
-6.3153 4.4715 2.3938
-6.4763 4.2448 2.3938
-6.6293 4.0124 2.3938
-6.7739 3.7744 2.3938
-6.9100 3.5313 2.3938
-7.0374 3.2833 2.3938
-7.1559 3.0307 2.3938
-7.2654 2.7739 2.3938
-7.3657 2.5132 2.3938
-7.4565 2.2488 2.3938
-7.5379 1.9812 2.3938
-7.6097 1.7106 2.3938
-7.6717 1.4374 2.3938
-7.7239 1.1621 2.3938
-7.7663 0.8848 2.3938
-7.7985 0.6060 2.3938
-7.8208 0.3260 2.3938
-7.8329 0.0453 2.3938
-7.8349 -0.2359 2.3938
-7.8267 -0.5172 2.3938
-7.8084 -0.7981 2.3938
-7.7798 -1.0784 2.3938
-7.7412 -1.3576 2.3938
-7.6924 -1.6354 2.3938
-7.6336 -1.9114 2.3938
-7.5648 -2.1853 2.3938
-7.4860 -2.4566 2.3938
-7.3974 -2.7250 2.3938
-7.2990 -2.9902 2.3938
-7.1910 -3.2517 2.3938
-7.0736 -3.5093 2.3938
-6.9468 -3.7625 2.3938
-6.8108 -4.0111 2.3938
-6.6657 -4.2547 2.3938
-6.5118 -4.4929 2.3938
-6.3493 -4.7255 2.3938
-6.1784 -4.9520 2.3938
-5.9993 -5.1724 2.3938
-5.8121 -5.3859 2.3938
-5.6172 -5.5927 2.3938
-5.4149 -5.7922 2.3938
-5.2054 -5.9843 2.3938
-4.9889 -6.1687 2.3938
-4.7658 -6.3450 2.3938
-4.5363 -6.5131 2.3938
-4.3008 -6.6728 2.3938
-4.0596 -6.8238 2.3938
-3.8130 -6.9658 2.3938
-3.5613 -7.0988 2.3938
-3.3050 -7.2225 2.3938
-3.0442 -7.3367 2.3938
-2.7795 -7.4413 2.3938
-2.5111 -7.5362 2.3938
-2.2394 -7.6212 2.3938
-1.9647 -7.6962 2.3938
-1.6876 -7.7611 2.3938
-1.4082 -7.8158 2.3938
-1.1271 -7.8603 2.3938
-0.8446 -7.8944 2.3938
-0.5610 -7.9182 2.3938
-0.2769 -7.9317 2.3938
0.0080 -7.3332 2.3938
0.2707 -7.3265 2.3938
0.5330 -7.3102 2.3938
0.7943 -7.2843 2.3938
1.0545 -7.2490 2.3938
1.3132 -7.2042 2.3938
1.5700 -7.1500 2.3938
1.8246 -7.0865 2.3938
2.0766 -7.0138 2.3938
2.3257 -6.9320 2.3938
2.5715 -6.8413 2.3938
2.8138 -6.7417 2.3938
3.0522 -6.6333 2.3938
3.2865 -6.5165 2.3938
3.5162 -6.3913 2.3938
3.7411 -6.2579 2.3938
3.9610 -6.1165 2.3938
4.1754 -5.9673 2.3938
4.3842 -5.8104 2.3938
4.5871 -5.6462 2.3938
4.7838 -5.4748 2.3938
4.9741 -5.2966 2.3938
5.1577 -5.1116 2.3938
5.3344 -4.9203 2.3938
5.5039 -4.7228 2.3938
5.6661 -4.5194 2.3938
5.8208 -4.3104 2.3938
5.9678 -4.0961 2.3938
6.1068 -3.8768 2.3938
6.2378 -3.6527 2.3938
6.3606 -3.4242 2.3938
6.4750 -3.1916 2.3938
6.5809 -2.9552 2.3938
6.6781 -2.7152 2.3938
6.7667 -2.4721 2.3938
6.8463 -2.2261 2.3938
6.9171 -1.9775 2.3938
6.9789 -1.7268 2.3938
7.0316 -1.4741 2.3938
7.0752 -1.2199 2.3938
7.1097 -0.9644 2.3938
7.1350 -0.7080 2.3938
7.1511 -0.4510 2.3938
7.1580 -0.1937 2.3938
7.1557 0.0634 2.3938
7.1442 0.3202 2.3938
7.1237 0.5763 2.3938
7.0940 0.8313 2.3938
7.0552 1.0850 2.3938
7.0075 1.3369 2.3938
6.9509 1.5869 2.3938
6.8855 1.8346 2.3938
6.8113 2.0797 2.3938
6.7285 2.3219 2.3938
6.6372 2.5608 2.3938
6.5376 2.7963 2.3938
6.4297 3.0280 2.3938
6.3137 3.2556 2.3938
6.1897 3.4788 2.3938
6.0580 3.6974 2.3938
5.9186 3.9112 2.3938
5.7719 4.1198 2.3938
5.6179 4.3230 2.3938
5.4569 4.5205 2.3938
5.2890 4.7122 2.3938
5.1145 4.8977 2.3938
4.9336 5.0769 2.3938
4.7465 5.2496 2.3938
4.5535 5.4155 2.3938
4.3548 5.5744 2.3938
4.1507 5.7262 2.3938
3.9413 5.8707 2.3938
3.7270 6.0077 2.3938
3.5081 6.1370 2.3938
3.2847 6.2584 2.3938
3.0573 6.3719 2.3938
2.8259 6.4773 2.3938
2.5910 6.5745 2.3938
2.3529 6.6633 2.3938
0.8495 2.7128 0.9630
0.7515 2.7419 0.9630
0.6524 2.7675 0.9631
0.5526 2.7894 0.9631
0.4519 2.8078 0.9631
0.3507 2.8225 0.9631
0.2490 2.8335 0.9630
0.1469 2.8409 0.9629
0.0447 2.8446 0.9628
-0.0576 2.8445 0.9627
-0.1599 2.8408 0.9625
-0.2620 2.8334 0.9623
-0.3637 2.8223 0.9621
-0.4650 2.8075 0.9618
-0.5656 2.7891 0.9616
-0.6656 2.7670 0.9612
-0.7646 2.7414 0.9609
-0.8627 2.7122 0.9606
-2.3925 6.6800 2.3938
-2.6322 6.5925 2.3938
-2.8688 6.4965 2.3938
-3.1019 6.3922 2.3938
-3.3313 6.2796 2.3938
-3.5566 6.1589 2.3938
-3.7776 6.0302 2.3938
-3.9940 5.8937 2.3938
-4.2056 5.7495 2.3938
-4.4119 5.5979 2.3938
-4.6129 5.4388 2.3938
-4.8081 5.2727 2.3938
-4.9975 5.0996 2.3938
-5.1806 4.9198 2.3938
-5.3573 4.7335 2.3938
-5.5274 4.5409 2.3938
-5.6906 4.3422 2.3938
-5.8467 4.1377 2.3938
-5.9954 3.9276 2.3938
-6.1367 3.7122 2.3938
-6.2702 3.4918 2.3938
-6.3958 3.2666 2.3938
-6.5134 3.0370 2.3938
-6.6227 2.8031 2.3938
-6.7237 2.5653 2.3938
-6.8161 2.3238 2.3938
-6.8998 2.0791 2.3938
-6.9748 1.8314 2.3938
-7.0408 1.5810 2.3938
-7.0978 1.3282 2.3938
-7.1458 1.0733 2.3938
-7.1845 0.8168 2.3938
-7.2140 0.5589 2.3938
-7.2342 0.2999 2.3938
-7.2450 0.0402 2.3938
-7.2465 -0.2199 2.3938
-7.2386 -0.4800 2.3938
-7.2212 -0.7398 2.3938
-7.1945 -0.9989 2.3938
-7.1584 -1.2570 2.3938
-7.1130 -1.5138 2.3938
-7.0583 -1.7690 2.3938
-6.9943 -2.0221 2.3938
-6.9212 -2.2728 2.3938
-6.8389 -2.5209 2.3938
-6.7477 -2.7659 2.3938
-6.6476 -3.0076 2.3938
-6.5388 -3.2456 2.3938
-6.4213 -3.4795 2.3938
-6.2953 -3.7091 2.3938
-6.1611 -3.9342 2.3938
-6.0186 -4.1542 2.3938
-5.8682 -4.3690 2.3938
-5.7101 -4.5783 2.3938
-5.5443 -4.7817 2.3938
-5.3712 -4.9790 2.3938
-5.1910 -5.1699 2.3938
-5.0039 -5.3542 2.3938
-4.8101 -5.5316 2.3938
-4.6100 -5.7018 2.3938
-4.4037 -5.8647 2.3938
-4.1916 -6.0199 2.3938
-3.9739 -6.1676 2.3938
-3.7510 -6.3067 2.3938
-3.5231 -6.4379 2.3938
-3.2905 -6.5607 2.3938
-3.0535 -6.6749 2.3938
-2.8126 -6.7804 2.3938
-2.5679 -6.8771 2.3938
-2.3199 -6.9647 2.3938
-2.0688 -7.0432 2.3938
-1.8151 -7.1125 2.3938
-1.5590 -7.1725 2.3938
-1.3009 -7.2231 2.3938
-1.0411 -7.2642 2.3938
-0.7801 -7.2958 2.3938
-0.5181 -7.3179 2.3938
-0.2555 -7.3304 2.3938
0.0073 -7.3332 2.3938
0.2700 -7.3265 2.3938
0.5323 -7.3103 2.3938
0.7936 -7.2844 2.3938
1.0539 -7.2491 2.3938
1.3125 -7.2043 2.3938
1.5693 -7.1502 2.3938
1.8239 -7.0867 2.3938
2.0759 -7.0140 2.3938
2.3250 -6.9323 2.3938
2.5709 -6.8415 2.3938
2.8132 -6.7420 2.3938
3.0516 -6.6336 2.3938
3.2858 -6.5169 2.3938
3.5156 -6.3917 2.3938
3.7405 -6.2583 2.3938
3.9604 -6.1169 2.3938
4.1749 -5.9677 2.3938
4.3837 -5.8108 2.3938
4.5866 -5.6467 2.3938
4.7833 -5.4753 2.3938
4.9736 -5.2972 2.3938
5.1572 -5.1121 2.3938
5.3339 -4.9208 2.3938
5.5035 -4.7233 2.3938
5.6657 -4.5199 2.3938
5.8204 -4.3110 2.3938
5.9674 -4.0967 2.3938
6.1065 -3.8774 2.3938
6.2375 -3.6533 2.3938
6.3603 -3.4249 2.3938
6.4747 -3.1922 2.3938
6.5806 -2.9558 2.3938
6.6779 -2.7159 2.3938
6.7664 -2.4727 2.3938
6.8462 -2.2268 2.3938
6.9169 -1.9782 2.3938
6.9787 -1.7274 2.3938
7.0315 -1.4748 2.3938
7.0751 -1.2205 2.3938
7.1096 -0.9651 2.3938
7.1349 -0.7087 2.3938
7.1511 -0.4517 2.3938
7.1580 -0.1944 2.3938
7.1557 0.0628 2.3938
7.1443 0.3195 2.3938
7.1237 0.5756 2.3938
7.0941 0.8306 2.3938
7.0553 1.0843 2.3938
7.0077 1.3363 2.3938
6.9511 1.5863 2.3938
6.8857 1.8340 2.3938
6.8115 2.0791 2.3938
6.7287 2.3212 2.3938
6.6375 2.5602 2.3938
6.5378 2.7957 2.3938
6.4300 3.0274 2.3938
6.3140 3.2550 2.3938
6.1900 3.4782 2.3938
6.0583 3.6969 2.3938
5.9190 3.9106 2.3938
5.7723 4.1192 2.3938
5.6183 4.3224 2.3938
5.4573 4.5200 2.3938
5.2894 4.7116 2.3938
5.1150 4.8972 2.3938
4.9341 5.0765 2.3938
4.7470 5.2491 2.3938
4.5540 5.4151 2.3938
4.3554 5.5740 2.3938
4.1512 5.7258 2.3938
3.9419 5.8703 2.3938
3.7276 6.0073 2.3938
3.5087 6.1366 2.3938
3.2853 6.2581 2.3938
3.0579 6.3716 2.3938
2.8265 6.4771 2.3938
2.5917 6.5742 2.3938
2.3535 6.6631 2.3938
0.8498 2.7127 0.9630
0.7517 2.7418 0.9630
0.6527 2.7674 0.9631
0.5528 2.7894 0.9631
0.4522 2.8077 0.9631
0.3510 2.8225 0.9631
0.2492 2.8335 0.9630
0.1472 2.8409 0.9629
0.0449 2.8445 0.9628
-0.0574 2.8445 0.9627
-0.1596 2.8408 0.9625
-0.2617 2.8334 0.9623
-0.3634 2.8223 0.9621
-0.4647 2.8075 0.9618
-0.5654 2.7891 0.9616
-0.6653 2.7671 0.9612
-0.7644 2.7414 0.9609
-0.8625 2.7122 0.9606
-2.3919 6.6802 2.3938
-2.6316 6.5927 2.3938
-2.8682 6.4968 2.3938
-3.1013 6.3925 2.3938
-3.3307 6.2799 2.3938
-3.5560 6.1592 2.3938
-3.7770 6.0306 2.3938
-3.9934 5.8941 2.3938
-4.2050 5.7499 2.3938
-4.4114 5.5983 2.3938
-4.6123 5.4393 2.3938
-4.8076 5.2732 2.3938
-4.9970 5.1001 2.3938
-5.1801 4.9203 2.3938
-5.3569 4.7340 2.3938
-5.5270 4.5414 2.3938
-5.6902 4.3427 2.3938
-5.8462 4.1382 2.3938
-5.9950 3.9282 2.3938
-6.1363 3.7128 2.3938
-6.2698 3.4924 2.3938
-6.3955 3.2672 2.3938
-6.5131 3.0376 2.3938
-6.6225 2.8037 2.3938
-6.7234 2.5659 2.3938
-6.8159 2.3245 2.3938
-6.8996 2.0798 2.3938
-6.9746 1.8320 2.3938
-7.0406 1.5816 2.3938
-7.0977 1.3289 2.3938
-7.1456 1.0740 2.3938
-7.1844 0.8175 2.3938
-7.2139 0.5596 2.3938
-7.2341 0.3006 2.3938
-7.2450 0.0409 2.3938
-7.2465 -0.2192 2.3938
-7.2386 -0.4793 2.3938
-7.2213 -0.7391 2.3938
-7.1946 -0.9982 2.3938
-7.1585 -1.2563 2.3938
-7.1131 -1.5132 2.3938
-7.0584 -1.7679 2.3938
-6.9945 -2.0214 2.3938
-6.9214 -2.2722 2.3938
-6.8392 -2.5202 2.3938
-6.7480 -2.7653 2.3938
-6.6479 -3.0069 2.3938
-6.5391 -3.2449 2.3938
-6.4216 -3.4789 2.3938
-6.2957 -3.7086 2.3938
-6.1614 -3.9336 2.3938
-6.0190 -4.1536 2.3938
-5.8687 -4.3685 2.3938
-5.7105 -4.5777 2.3938
-5.5448 -4.7812 2.3938
-5.3717 -4.9785 2.3938
-5.1915 -5.1694 2.3938
-5.0044 -5.3537 2.3938
-4.8106 -5.5311 2.3938
-4.6105 -5.7014 2.3938
-4.4043 -5.8642 2.3938
-4.1922 -6.0195 2.3938
-3.9744 -6.1673 2.3938
-3.7516 -6.3064 2.3938
-3.5237 -6.4376 2.3938
-3.2911 -6.5604 2.3938
-3.0542 -6.6746 2.3938
-2.8132 -6.7802 2.3938
-2.5686 -6.8768 2.3938
-2.3206 -6.9645 2.3938
-2.0695 -7.0430 2.3938
-1.8158 -7.1124 2.3938
-1.5597 -7.1724 2.3938
-1.3016 -7.2230 2.3938
-1.0418 -7.2641 2.3938
-0.7808 -7.2958 2.3938
-0.5188 -7.3178 2.3938
-0.2562 -7.3303 2.3938
0.0072 -6.8095 2.3938
0.2510 -6.8033 2.3938
0.4945 -6.7883 2.3938
0.7372 -6.7644 2.3938
0.9788 -6.7317 2.3938
1.2191 -6.6902 2.3938
1.4575 -6.6401 2.3938
1.6939 -6.5813 2.3938
1.9280 -6.5140 2.3938
2.1593 -6.4382 2.3938
2.3877 -6.3541 2.3938
2.6128 -6.2618 2.3938
2.8343 -6.1614 2.3938
3.0519 -6.0531 2.3938
3.2654 -5.9370 2.3938
3.4744 -5.8132 2.3938
3.6787 -5.6820 2.3938
3.8781 -5.5437 2.3938
4.0722 -5.3982 2.3938
4.2608 -5.2458 2.3938
4.4437 -5.0868 2.3938
4.6206 -4.9214 2.3938
4.7913 -4.7498 2.3938
4.9557 -4.5722 2.3938
5.1134 -4.3889 2.3938
5.2644 -4.2001 2.3938
5.4083 -4.0061 2.3938
5.5451 -3.8071 2.3938
5.6746 -3.6035 2.3938
5.7965 -3.3954 2.3938
5.9109 -3.1832 2.3938
6.0174 -2.9672 2.3938
6.1161 -2.7475 2.3938
6.2068 -2.5246 2.3938
6.2893 -2.2987 2.3938
6.3637 -2.0702 2.3938
6.4298 -1.8392 2.3938
6.4875 -1.6062 2.3938
6.5367 -1.3713 2.3938
6.5776 -1.1350 2.3938
6.6099 -0.8975 2.3938
6.6337 -0.6592 2.3938
6.6489 -0.4202 2.3938
6.6556 -0.1811 2.3938
6.6538 0.0581 2.3938
6.6434 0.2969 2.3938
6.6245 0.5350 2.3938
6.5972 0.7722 2.3938
6.5614 1.0082 2.3938
6.5173 1.2426 2.3938
6.4648 1.4751 2.3938
6.4042 1.7056 2.3938
6.3354 1.9336 2.3938
6.2586 2.1589 2.3938
6.1739 2.3813 2.3938
6.0814 2.6004 2.3938
5.9812 2.8160 2.3938
5.8735 3.0279 2.3938
5.7583 3.2356 2.3938
5.6359 3.4391 2.3938
5.5064 3.6381 2.3938
5.3700 3.8322 2.3938
5.2268 4.0214 2.3938
5.0771 4.2053 2.3938
4.9210 4.3837 2.3938
4.7588 4.5565 2.3938
4.5905 4.7233 2.3938
4.4165 4.8841 2.3938
4.2370 5.0385 2.3938
4.0522 5.1865 2.3938
3.8622 5.3279 2.3938
3.6675 5.4624 2.3938
3.4681 5.5899 2.3938
3.2644 5.7102 2.3938
3.0565 5.8233 2.3938
2.8449 5.9290 2.3938
2.6296 6.0271 2.3938
2.4110 6.1175 2.3938
0.8792 2.4899 0.9613
0.7892 2.5202 0.9614
0.6981 2.5472 0.9615
0.6061 2.5710 0.9615
0.5133 2.5914 0.9616
0.4198 2.6084 0.9616
0.3257 2.6220 0.9615
0.2312 2.6323 0.9615
0.1364 2.6391 0.9614
0.0414 2.6425 0.9613
-0.0537 2.6425 0.9612
-0.1487 2.6390 0.9610
-0.2435 2.6321 0.9608
-0.3380 2.6218 0.9606
-0.4321 2.6080 0.9604
-0.5257 2.5909 0.9601
-0.6185 2.5704 0.9598
-0.7105 2.5466 0.9595
-0.8017 2.5195 0.9592
-0.8917 2.4891 0.9588
-2.4493 6.1325 2.3938
-2.6693 6.0431 2.3938
-2.8861 5.9458 2.3938
-3.0994 5.8409 2.3938
-3.3089 5.7285 2.3938
-3.5144 5.6086 2.3938
-3.7155 5.4814 2.3938
-3.9122 5.3471 2.3938
-4.1040 5.2058 2.3938
-4.2907 5.0578 2.3938
-4.4722 4.9030 2.3938
-4.6481 4.7419 2.3938
-4.8182 4.5745 2.3938
-4.9824 4.4011 2.3938
-5.1404 4.2217 2.3938
-5.2919 4.0368 2.3938
-5.4368 3.8465 2.3938
-5.5749 3.6510 2.3938
-5.7060 3.4506 2.3938
-5.8299 3.2455 2.3938
-5.9464 3.0361 2.3938
-6.0555 2.8224 2.3938
-6.1569 2.6048 2.3938
-6.2504 2.3837 2.3938
-6.3361 2.1592 2.3938
-6.4136 1.9316 2.3938
-6.4830 1.7013 2.3938
-6.5441 1.4684 2.3938
-6.5968 1.2335 2.3938
-6.6410 0.9966 2.3938
-6.6768 0.7581 2.3938
-6.7039 0.5184 2.3938
-6.7224 0.2777 2.3938
-6.7322 0.0364 2.3938
-6.7333 -0.2052 2.3938
-6.7256 -0.4468 2.3938
-6.7092 -0.6882 2.3938
-6.6842 -0.9289 2.3938
-6.6504 -1.1687 2.3938
-6.6079 -1.4072 2.3938
-6.5568 -1.6441 2.3938
-6.4972 -1.8792 2.3938
-6.4290 -2.1120 2.3938
-6.3524 -2.3424 2.3938
-6.2675 -2.5699 2.3938
-6.1743 -2.7942 2.3938
-6.0730 -3.0151 2.3938
-5.9637 -3.2323 2.3938
-5.8466 -3.4455 2.3938
-5.7217 -3.6543 2.3938
-5.5893 -3.8586 2.3938
-5.4495 -4.0579 2.3938
-5.3025 -4.2522 2.3938
-5.1485 -4.4409 2.3938
-4.9876 -4.6241 2.3938
-4.8202 -4.8012 2.3938
-4.6464 -4.9722 2.3938
-4.4664 -5.1368 2.3938
-4.2805 -5.2948 2.3938
-4.0889 -5.4459 2.3938
-3.8919 -5.5900 2.3938
-3.6898 -5.7268 2.3938
-3.4827 -5.8562 2.3938
-3.2711 -5.9779 2.3938
-3.0552 -6.0919 2.3938
-2.8352 -6.1979 2.3938
-2.6115 -6.2958 2.3938
-2.3843 -6.3855 2.3938
-2.1541 -6.4669 2.3938
-1.9210 -6.5398 2.3938
-1.6854 -6.6041 2.3938
-1.4477 -6.6598 2.3938
-1.2080 -6.7068 2.3938
-0.9669 -6.7451 2.3938
-0.7245 -6.7745 2.3938
-0.4813 -6.7950 2.3938
-0.2375 -6.8067 2.3938
0.0065 -6.8095 2.3938
0.2504 -6.8033 2.3938
0.4939 -6.7883 2.3938
0.7366 -6.7645 2.3938
0.9782 -6.7318 2.3938
1.2184 -6.6904 2.3938
1.4569 -6.6402 2.3938
1.6933 -6.5815 2.3938
1.9274 -6.5142 2.3938
2.1587 -6.4384 2.3938
2.3871 -6.3543 2.3938
2.6122 -6.2620 2.3938
2.8337 -6.1617 2.3938
3.0514 -6.0534 2.3938
3.2648 -5.9373 2.3938
3.4739 -5.8136 2.3938
3.6782 -5.6824 2.3938
3.8776 -5.5440 2.3938
4.0717 -5.3986 2.3938
4.2603 -5.2463 2.3938
4.4432 -5.0873 2.3938
4.6201 -4.9219 2.3938
4.7909 -4.7503 2.3938
4.9553 -4.5728 2.3938
5.1130 -4.3894 2.3938
5.2640 -4.2006 2.3938
5.4079 -4.0066 2.3938
5.5448 -3.8077 2.3938
5.6742 -3.6040 2.3938
5.7962 -3.3960 2.3938
5.9106 -3.1838 2.3938
6.0172 -2.9677 2.3938
6.1159 -2.7481 2.3938
6.2066 -2.5252 2.3938
6.2891 -2.2993 2.3938
6.3635 -2.0708 2.3938
6.4296 -1.8398 2.3938
6.4873 -1.6068 2.3938
6.5366 -1.3720 2.3938
6.5775 -1.1356 2.3938
6.6098 -0.8982 2.3938
6.6336 -0.6598 2.3938
6.6489 -0.4209 2.3938
6.6556 -0.1817 2.3938
6.6538 0.0574 2.3938
6.6434 0.2962 2.3938
6.6246 0.5344 2.3938
6.5972 0.7716 2.3938
6.5615 1.0075 2.3938
6.5174 1.2419 2.3938
6.4650 1.4745 2.3938
6.4044 1.7050 2.3938
6.3356 1.9330 2.3938
6.2589 2.1583 2.3938
6.1742 2.3807 2.3938
6.0817 2.5998 2.3938
5.9815 2.8155 2.3938
5.8738 3.0273 2.3938
5.7586 3.2351 2.3938
5.6363 3.4386 2.3938
5.5068 3.6376 2.3938
5.3704 3.8317 2.3938
5.2272 4.0209 2.3938
5.0775 4.2048 2.3938
4.9215 4.3833 2.3938
4.7592 4.5560 2.3938
4.5910 4.7229 2.3938
4.4170 4.8837 2.3938
4.2375 5.0381 2.3938
4.0527 5.1861 2.3938
3.8628 5.3275 2.3938
3.6680 5.4620 2.3938
3.4686 5.5895 2.3938
3.2649 5.7099 2.3938
3.0571 5.8230 2.3938
2.8454 5.9287 2.3938
2.6302 6.0268 2.3938
2.4116 6.1173 2.3938
0.8795 2.4898 0.9613
0.7894 2.5201 0.9614
0.6983 2.5472 0.9615
0.6063 2.5709 0.9615
0.5135 2.5913 0.9616
0.4200 2.6084 0.9616
0.3260 2.6220 0.9615
0.2314 2.6323 0.9615
0.1366 2.6391 0.9614
0.0416 2.6425 0.9613
-0.0534 2.6425 0.9612
-0.1484 2.6390 0.9610
-0.2433 2.6321 0.9608
-0.3378 2.6218 0.9606
-0.4319 2.6081 0.9604
-0.5254 2.5910 0.9601
-0.6182 2.5705 0.9598
-0.7103 2.5467 0.9595
-0.8014 2.5195 0.9592
-0.8915 2.4891 0.9588
-2.4487 6.1328 2.3938
-2.6687 6.0433 2.3938
-2.8855 5.9461 2.3938
-3.0988 5.8412 2.3938
-3.3083 5.7288 2.3938
-3.5138 5.6089 2.3938
-3.7150 5.4818 2.3938
-3.9117 5.3475 2.3938
-4.1035 5.2062 2.3938
-4.2902 5.0582 2.3938
-4.4717 4.9035 2.3938
-4.6476 4.7423 2.3938
-4.8178 4.5749 2.3938
-4.9820 4.4015 2.3938
-5.1399 4.2222 2.3938
-5.2915 4.0373 2.3938
-5.4364 3.8470 2.3938
-5.5745 3.6515 2.3938
-5.7056 3.4512 2.3938
-5.8296 3.2461 2.3938
-5.9461 3.0366 2.3938
-6.0552 2.8230 2.3938
-6.1566 2.6054 2.3938
-6.2502 2.3843 2.3938
-6.3358 2.1598 2.3938
-6.4134 1.9322 2.3938
-6.4828 1.7019 2.3938
-6.5439 1.4691 2.3938
-6.5967 1.2341 2.3938
-6.6409 0.9972 2.3938
-6.6767 0.7588 2.3938
-6.7038 0.5191 2.3938
-6.7223 0.2784 2.3938
-6.7322 0.0371 2.3938
-6.7333 -0.2046 2.3938
-6.7257 -0.4462 2.3938
-6.7093 -0.6875 2.3938
-6.6842 -0.9283 2.3938
-6.6505 -1.1680 2.3938
-6.6080 -1.4066 2.3938
-6.5570 -1.6435 2.3938
-6.4973 -1.8786 2.3938
-6.4292 -2.1114 2.3938
-6.3526 -2.3418 2.3938
-6.2677 -2.5693 2.3938
-6.1746 -2.7936 2.3938
-6.0733 -3.0146 2.3938
-5.9640 -3.2318 2.3938
-5.8469 -3.4449 2.3938
-5.7221 -3.6538 2.3938
-5.5897 -3.8580 2.3938
-5.4499 -4.0574 2.3938
-5.3029 -4.2516 2.3938
-5.1489 -4.4404 2.3938
-4.9881 -4.6236 2.3938
-4.8206 -4.8008 2.3938
-4.6468 -4.9718 2.3938
-4.4669 -5.1364 2.3938
-4.2810 -5.2944 2.3938
-4.0894 -5.4455 2.3938
-3.8924 -5.5896 2.3938
-3.6903 -5.7264 2.3938
-3.4833 -5.8558 2.3938
-3.2717 -5.9776 2.3938
-3.0558 -6.0916 2.3938
-2.8358 -6.1976 2.3938
-2.6121 -6.2956 2.3938
-2.3850 -6.3853 2.3938
-2.1547 -6.4667 2.3938
-1.9216 -6.5396 2.3938
-1.6861 -6.6040 2.3938
-1.4483 -6.6597 2.3938
-1.2087 -6.7067 2.3938
-0.9675 -6.7450 2.3938
-0.7252 -6.7744 2.3938
-0.4820 -6.7950 2.3938
-0.2382 -6.8067 2.3938
0.0064 -6.3488 2.3938
0.2337 -6.3431 2.3938
0.4607 -6.3292 2.3938
0.6870 -6.3070 2.3938
0.9122 -6.2767 2.3938
1.1362 -6.2381 2.3938
1.3586 -6.1915 2.3938
1.5790 -6.1368 2.3938
1.7972 -6.0742 2.3938
2.0130 -6.0036 2.3938
2.2260 -5.9254 2.3938
2.4359 -5.8395 2.3938
2.6425 -5.7460 2.3938
2.8455 -5.6451 2.3938
3.0447 -5.5370 2.3938
3.2397 -5.4218 2.3938
3.4303 -5.2997 2.3938
3.6163 -5.1708 2.3938
3.7974 -5.0353 2.3938
3.9735 -4.8933 2.3938
4.1442 -4.7452 2.3938
4.3093 -4.5911 2.3938
4.4687 -4.4312 2.3938
4.6222 -4.2657 2.3938
4.7695 -4.0948 2.3938
4.9105 -3.9189 2.3938
5.0450 -3.7380 2.3938
5.1728 -3.5526 2.3938
5.2937 -3.3627 2.3938
5.4077 -3.1687 2.3938
5.5146 -2.9708 2.3938
5.6142 -2.7694 2.3938
5.7065 -2.5645 2.3938
5.7913 -2.3566 2.3938
5.8686 -2.1459 2.3938
5.9382 -1.9327 2.3938
6.0001 -1.7173 2.3938
6.0542 -1.4998 2.3938
6.1004 -1.2807 2.3938
6.1387 -1.0602 2.3938
6.1691 -0.8386 2.3938
6.1916 -0.6161 2.3938
6.2060 -0.3931 2.3938
6.2125 -0.1699 2.3938
6.2110 0.0534 2.3938
6.2015 0.2763 2.3938
6.1841 0.4986 2.3938
6.1588 0.7201 2.3938
6.1256 0.9404 2.3938
6.0846 1.1593 2.3938
6.0358 1.3765 2.3938
5.9794 1.5917 2.3938
5.9154 1.8046 2.3938
5.8439 2.0151 2.3938
5.7649 2.2228 2.3938
5.6787 2.4275 2.3938
5.5853 2.6289 2.3938
5.4848 2.8268 2.3938
5.3774 3.0209 2.3938
5.2632 3.2110 2.3938
5.1424 3.3969 2.3938
5.0151 3.5783 2.3938
4.8815 3.7551 2.3938
4.7418 3.9269 2.3938
4.5961 4.0937 2.3938
4.4446 4.2551 2.3938
4.2875 4.4110 2.3938
4.1251 4.5612 2.3938
3.9574 4.7056 2.3938
3.7848 4.8439 2.3938
3.6075 4.9759 2.3938
3.4255 5.1016 2.3938
3.2393 5.2208 2.3938
3.0491 5.3333 2.3938
2.8549 5.4389 2.3938
2.6572 5.5377 2.3938
2.4561 5.6293 2.3938
0.9030 2.2911 0.9598
0.8200 2.3223 0.9600
0.7360 2.3506 0.9601
0.6511 2.3758 0.9601
0.5652 2.3979 0.9602
0.4787 2.4169 0.9602
0.3914 2.4328 0.9602
0.3037 2.4455 0.9602
0.2155 2.4550 0.9601
0.1271 2.4614 0.9600
0.0385 2.4646 0.9599
-0.0502 2.4645 0.9598
-0.1388 2.4613 0.9597
-0.2273 2.4548 0.9595
-0.3154 2.4452 0.9593
-0.4032 2.4324 0.9591
-0.4904 2.4164 0.9588
-0.5770 2.3973 0.9586
-0.6629 2.3751 0.9583
-0.7479 2.3498 0.9580
-0.8319 2.3214 0.9576
-2.2877 5.7264 2.3938
-2.4931 5.6427 2.3938
-2.6955 5.5518 2.3938
-2.8946 5.4537 2.3938
-3.0902 5.3485 2.3938
-3.2820 5.2364 2.3938
-3.4697 5.1175 2.3938
-3.6532 4.9919 2.3938
-3.8322 4.8599 2.3938
-4.0064 4.7215 2.3938
-4.1757 4.5769 2.3938
-4.3398 4.4262 2.3938
-4.4985 4.2698 2.3938
-4.6516 4.1077 2.3938
-4.7989 3.9402 2.3938
-4.9402 3.7675 2.3938
-5.0753 3.5896 2.3938
-5.2040 3.4071 2.3938
-5.3262 3.2199 2.3938
-5.4416 3.0284 2.3938
-5.5502 2.8327 2.3938
-5.6517 2.6332 2.3938
-5.7461 2.4301 2.3938
-5.8332 2.2236 2.3938
-5.9129 2.0140 2.3938
-5.9851 1.8016 2.3938
-6.0496 1.5866 2.3938
-6.1063 1.3693 2.3938
-6.1553 1.1500 2.3938
-6.1963 0.9289 2.3938
-6.2294 0.7064 2.3938
-6.2545 0.4828 2.3938
-6.2715 0.2582 2.3938
-6.2804 0.0331 2.3938
-6.2812 -0.1923 2.3938
-6.2739 -0.4177 2.3938
-6.2584 -0.6427 2.3938
-6.2347 -0.8673 2.3938
-6.2030 -1.0909 2.3938
-6.1632 -1.3133 2.3938
-6.1154 -1.5342 2.3938
-6.0595 -1.7534 2.3938
-5.9958 -1.9705 2.3938
-5.9241 -2.1852 2.3938
-5.8448 -2.3973 2.3938
-5.7577 -2.6064 2.3938
-5.6631 -2.8123 2.3938
-5.5611 -3.0148 2.3938
-5.4517 -3.2135 2.3938
-5.3351 -3.4081 2.3938
-5.2115 -3.5985 2.3938
-5.0811 -3.7843 2.3938
-4.9439 -3.9652 2.3938
-4.8002 -4.1412 2.3938
-4.6501 -4.3120 2.3938
-4.4940 -4.4769 2.3938
-4.3319 -4.6362 2.3938
-4.1640 -4.7896 2.3938
-3.9907 -4.9368 2.3938
-3.8120 -5.0776 2.3938
-3.6283 -5.2119 2.3938
-3.4399 -5.3393 2.3938
-3.2468 -5.4599 2.3938
-3.0496 -5.5733 2.3938
-2.8482 -5.6795 2.3938
-2.6432 -5.7783 2.3938
-2.4346 -5.8696 2.3938
-2.2229 -5.9532 2.3938
-2.0082 -6.0290 2.3938
-1.7910 -6.0970 2.3938
-1.5714 -6.1570 2.3938
-1.3498 -6.2090 2.3938
-1.1264 -6.2528 2.3938
-0.9016 -6.2885 2.3938
-0.6757 -6.3159 2.3938
-0.4490 -6.3352 2.3938
-0.2217 -6.3461 2.3938
0.0058 -6.3488 2.3938
0.2331 -6.3431 2.3938
0.4601 -6.3292 2.3938
0.6864 -6.3071 2.3938
0.9117 -6.2768 2.3938
1.1356 -6.2382 2.3938
1.3580 -6.1916 2.3938
1.5784 -6.1370 2.3938
1.7967 -6.0743 2.3938
2.0124 -6.0038 2.3938
2.2254 -5.9256 2.3938
2.4354 -5.8397 2.3938
2.6420 -5.7463 2.3938
2.8450 -5.6453 2.3938
3.0441 -5.5373 2.3938
3.2392 -5.4222 2.3938
3.4298 -5.3000 2.3938
3.6158 -5.1711 2.3938
3.7970 -5.0356 2.3938
3.9730 -4.8937 2.3938
4.1437 -4.7456 2.3938
4.3089 -4.5915 2.3938
4.4683 -4.4316 2.3938
4.6218 -4.2661 2.3938
4.7691 -4.0953 2.3938
4.9101 -3.9193 2.3938
5.0446 -3.7385 2.3938
5.1724 -3.5531 2.3938
5.2934 -3.3632 2.3938
5.4074 -3.1692 2.3938
5.5143 -2.9714 2.3938
5.6140 -2.7699 2.3938
5.7063 -2.5651 2.3938
5.7911 -2.3572 2.3938
5.8684 -2.1465 2.3938
5.9380 -1.9333 2.3938
5.9999 -1.7178 2.3938
6.0540 -1.5004 2.3938
6.1003 -1.2813 2.3938
6.1387 -1.0608 2.3938
6.1691 -0.8392 2.3938
6.1915 -0.6167 2.3938
6.2060 -0.3937 2.3938
6.2125 -0.1705 2.3938
6.2110 0.0528 2.3938
6.2016 0.2757 2.3938
6.1842 0.4980 2.3938
6.1589 0.7195 2.3938
6.1257 0.9398 2.3938
6.0847 1.1587 2.3938
6.0360 1.3759 2.3938
5.9796 1.5911 2.3938
5.9156 1.8041 2.3938
5.8441 2.0146 2.3938
5.7652 2.2223 2.3938
5.6789 2.4270 2.3938
5.5855 2.6284 2.3938
5.4851 2.8263 2.3938
5.3777 3.0204 2.3938
5.2636 3.2105 2.3938
5.1427 3.3964 2.3938
5.0155 3.5779 2.3938
4.8819 3.7546 2.3938
4.7422 3.9265 2.3938
4.5965 4.0932 2.3938
4.4450 4.2547 2.3938
4.2880 4.4106 2.3938
4.1255 4.5608 2.3938
3.9579 4.7052 2.3938
3.7853 4.8435 2.3938
3.6079 4.9756 2.3938
3.4260 5.1013 2.3938
3.2399 5.2205 2.3938
3.0496 5.3330 2.3938
2.8555 5.4387 2.3938
2.6577 5.5374 2.3938
2.4567 5.6291 2.3938
0.9032 2.2910 0.9598
0.8203 2.3223 0.9600
0.7363 2.3505 0.9601
0.6513 2.3757 0.9601
0.5655 2.3978 0.9602
0.4789 2.4169 0.9602
0.3917 2.4327 0.9602
0.3039 2.4455 0.9602
0.2158 2.4550 0.9601
0.1273 2.4614 0.9600
0.0387 2.4645 0.9599
-0.0500 2.4645 0.9598
-0.1386 2.4613 0.9597
-0.2270 2.4548 0.9595
-0.3152 2.4452 0.9593
-0.4030 2.4324 0.9591
-0.4902 2.4165 0.9588
-0.5768 2.3974 0.9586
-0.6627 2.3751 0.9583
-0.7477 2.3498 0.9580
-0.8317 2.3215 0.9576
-2.2872 5.7266 2.3938
-2.4926 5.6430 2.3938
-2.6950 5.5520 2.3938
-2.8941 5.4539 2.3938
-3.0897 5.3488 2.3938
-3.2815 5.2367 2.3938
-3.4692 5.1178 2.3938
-3.6527 4.9923 2.3938
-3.8317 4.8602 2.3938
-4.0060 4.7218 2.3938
-4.1753 4.5772 2.3938
-4.3394 4.4266 2.3938
-4.4981 4.2702 2.3938
-4.6512 4.1082 2.3938
-4.7985 3.9407 2.3938
-4.9398 3.7679 2.3938
-5.0749 3.5901 2.3938
-5.2037 3.4076 2.3938
-5.3258 3.2204 2.3938
-5.4413 3.0289 2.3938
-5.5499 2.8332 2.3938
-5.6515 2.6337 2.3938
-5.7459 2.4306 2.3938
-5.8330 2.2242 2.3938
-5.9127 2.0146 2.3938
-5.9849 1.8021 2.3938
-6.0494 1.5872 2.3938
-6.1062 1.3699 2.3938
-6.1552 1.1506 2.3938
-6.1962 0.9295 2.3938
-6.2294 0.7070 2.3938
-6.2544 0.4834 2.3938
-6.2715 0.2588 2.3938
-6.2804 0.0337 2.3938
-6.2812 -0.1917 2.3938
-6.2739 -0.4171 2.3938
-6.2584 -0.6421 2.3938
-6.2348 -0.8667 2.3938
-6.2031 -1.0903 2.3938
-6.1633 -1.3127 2.3938
-6.1155 -1.5336 2.3938
-6.0597 -1.7528 2.3938
-5.9959 -1.9699 2.3938
-5.9243 -2.1846 2.3938
-5.8450 -2.3967 2.3938
-5.7580 -2.6059 2.3938
-5.6634 -2.8118 2.3938
-5.5613 -3.0143 2.3938
-5.4520 -3.2129 2.3938
-5.3355 -3.4076 2.3938
-5.2119 -3.5980 2.3938
-5.0814 -3.7838 2.3938
-4.9443 -3.9647 2.3938
-4.8006 -4.1407 2.3938
-4.6505 -4.3116 2.3938
-4.4944 -4.4765 2.3938
-4.3323 -4.6358 2.3938
-4.1645 -4.7892 2.3938
-3.9911 -4.9364 2.3938
-3.8125 -5.0773 2.3938
-3.6289 -5.2113 2.3938
-3.4404 -5.3390 2.3938
-3.2474 -5.4596 2.3938
-3.0501 -5.5730 2.3938
-2.8488 -5.6792 2.3938
-2.6437 -5.7781 2.3938
-2.4352 -5.8693 2.3938
-2.2234 -5.9530 2.3938
-2.0088 -6.0288 2.3938
-1.7916 -6.0968 2.3938
-1.5720 -6.1568 2.3938
-1.3504 -6.2088 2.3938
-1.1270 -6.2527 2.3938
-0.9022 -6.2884 2.3938
-0.6763 -6.3159 2.3938
-0.4496 -6.3351 2.3938
-0.2223 -6.3461 2.3938
0.0057 -5.9400 2.3938
0.2184 -5.9348 2.3938
0.4307 -5.9218 2.3938
0.6424 -5.9012 2.3938
0.8532 -5.8729 2.3938
1.0627 -5.8369 2.3938
1.2707 -5.7934 2.3938
1.4770 -5.7423 2.3938
1.6812 -5.6838 2.3938
1.8831 -5.6180 2.3938
2.0824 -5.5449 2.3938
2.2789 -5.4646 2.3938
2.4723 -5.3773 2.3938
2.6623 -5.2830 2.3938
2.8487 -5.1820 2.3938
3.0313 -5.0744 2.3938
3.2097 -4.9602 2.3938
3.3839 -4.8397 2.3938
3.5535 -4.7130 2.3938
3.7183 -4.5803 2.3938
3.8782 -4.4418 2.3938
4.0329 -4.2977 2.3938
4.1822 -4.1482 2.3938
4.3260 -3.9934 2.3938
4.4640 -3.8336 2.3938
4.5961 -3.6690 2.3938
4.7221 -3.4999 2.3938
4.8419 -3.3264 2.3938
4.9553 -3.1487 2.3938
5.0622 -2.9672 2.3938
5.1624 -2.7821 2.3938
5.2559 -2.5935 2.3938
5.3425 -2.4019 2.3938
5.4221 -2.2073 2.3938
5.4946 -2.0101 2.3938
5.5600 -1.8105 2.3938
5.6181 -1.6088 2.3938
5.6689 -1.4053 2.3938
5.7124 -1.2001 2.3938
5.7485 -0.9937 2.3938
5.7772 -0.7862 2.3938
5.7984 -0.5778 2.3938
5.8121 -0.3690 2.3938
5.8184 -0.1599 2.3938
5.8171 0.0492 2.3938
5.8084 0.2580 2.3938
5.7923 0.4662 2.3938
5.7688 0.6737 2.3938
5.7378 0.8801 2.3938
5.6996 1.0852 2.3938
5.6541 1.2886 2.3938
5.6014 1.4903 2.3938
5.5416 1.6899 2.3938
5.4747 1.8871 2.3938
5.4009 2.0817 2.3938
5.3202 2.2736 2.3938
5.2328 2.4623 2.3938
5.1388 2.6478 2.3938
5.0383 2.8297 2.3938
4.9314 3.0080 2.3938
4.8183 3.1822 2.3938
4.6991 3.3523 2.3938
4.5740 3.5179 2.3938
4.4432 3.6790 2.3938
4.3067 3.8353 2.3938
4.1648 3.9867 2.3938
4.0177 4.1329 2.3938
3.8655 4.2737 2.3938
3.7084 4.4090 2.3938
3.5467 4.5387 2.3938
3.3805 4.6625 2.3938
3.2101 4.7803 2.3938
3.0356 4.8920 2.3938
2.8573 4.9975 2.3938
2.6754 5.0966 2.3938
2.4901 5.1891 2.3938
0.9216 2.1122 0.9585
0.8451 2.1442 0.9586
0.7675 2.1735 0.9588
0.6888 2.1999 0.9588
0.6093 2.2235 0.9589
0.5290 2.2442 0.9590
0.4479 2.2619 0.9590
0.3663 2.2768 0.9590
0.2841 2.2887 0.9590
0.2016 2.2976 0.9589
0.1189 2.3035 0.9588
0.0359 2.3065 0.9587
-0.0471 2.3064 0.9586
-0.1300 2.3034 0.9585
-0.2128 2.2974 0.9583
-0.2954 2.2883 0.9581
-0.3775 2.2763 0.9579
-0.4591 2.2614 0.9577
-0.5402 2.2435 0.9575
-0.6206 2.2227 0.9572
-0.7001 2.1990 0.9569
-0.7788 2.1725 0.9566
-0.8564 2.1431 0.9563
-2.3363 5.2863 2.3938
-2.5259 5.2010 2.3938
-2.7124 5.1089 2.3938
-2.8955 5.0103 2.3938
-3.0751 4.9051 2.3938
-3.2509 4.7936 2.3938
-3.4228 4.6758 2.3938
-3.5903 4.5520 2.3938
-3.7535 4.4222 2.3938
-3.9119 4.2866 2.3938
-4.0655 4.1454 2.3938
-4.2141 3.9987 2.3938
-4.3573 3.8468 2.3938
-4.4952 3.6898 2.3938
-4.6273 3.5278 2.3938
-4.7537 3.3612 2.3938
-4.8741 3.1901 2.3938
-4.9883 3.0147 2.3938
-5.0963 2.8352 2.3938
-5.1978 2.6519 2.3938
-5.2927 2.4650 2.3938
-5.3809 2.2747 2.3938
-5.4623 2.0813 2.3938
-5.5367 1.8850 2.3938
-5.6041 1.6860 2.3938
-5.6643 1.4846 2.3938
-5.7173 1.2812 2.3938
-5.7629 1.0758 2.3938
-5.8011 0.8688 2.3938
-5.8319 0.6605 2.3938
-5.8552 0.4511 2.3938
-5.8709 0.2409 2.3938
-5.8791 0.0302 2.3938
-5.8796 -0.1808 2.3938
-5.8726 -0.3918 2.3938
-5.8579 -0.6024 2.3938
-5.8356 -0.8125 2.3938
-5.8057 -1.0218 2.3938
-5.7683 -1.2299 2.3938
-5.7233 -1.4366 2.3938
-5.6709 -1.6417 2.3938
-5.6111 -1.8448 2.3938
-5.5439 -2.0457 2.3938
-5.4695 -2.2441 2.3938
-5.3879 -2.4397 2.3938
-5.2993 -2.6324 2.3938
-5.2036 -2.8217 2.3938
-5.1012 -3.0075 2.3938
-4.9920 -3.1896 2.3938
-4.8763 -3.3676 2.3938
-4.7541 -3.5414 2.3938
-4.6257 -3.7106 2.3938
-4.4912 -3.8751 2.3938
-4.3507 -4.0347 2.3938
-4.2045 -4.1891 2.3938
-4.0528 -4.3381 2.3938
-3.8957 -4.4815 2.3938
-3.7335 -4.6189 2.3938
-3.5663 -4.7508 2.3938
-3.3945 -4.8764 2.3938
-3.2182 -4.9955 2.3938
-3.0376 -5.1083 2.3938
-2.8530 -5.2144 2.3938
-2.6646 -5.3137 2.3938
-2.4728 -5.4061 2.3938
-2.2777 -5.4915 2.3938
-2.0796 -5.5697 2.3938
-1.8789 -5.6406 2.3938
-1.6756 -5.7042 2.3938
-1.4702 -5.7603 2.3938
-1.2629 -5.8089 2.3938
-1.0540 -5.8500 2.3938
-0.8437 -5.8834 2.3938
-0.6324 -5.9091 2.3938
-0.4203 -5.9272 2.3938
-0.2077 -5.9374 2.3938
0.0051 -5.9400 2.3938
0.2178 -5.9348 2.3938
0.4301 -5.9219 2.3938
0.6418 -5.9013 2.3938
0.8526 -5.8730 2.3938
1.0621 -5.8370 2.3938
1.2702 -5.7935 2.3938
1.4765 -5.7425 2.3938
1.6807 -5.6840 2.3938
1.8826 -5.6182 2.3938
2.0819 -5.5451 2.3938
2.2784 -5.4648 2.3938
2.4718 -5.3775 2.3938
2.6618 -5.2833 2.3938
2.8482 -5.1823 2.3938
3.0308 -5.0745 2.3938
3.2093 -4.9605 2.3938
3.3834 -4.8400 2.3938
3.5530 -4.7133 2.3938
3.7179 -4.5807 2.3938
3.8778 -4.4422 2.3938
4.0325 -4.2981 2.3938
4.1818 -4.1486 2.3938
4.3256 -3.9938 2.3938
4.4636 -3.8340 2.3938
4.5958 -3.6695 2.3938
4.7218 -3.5003 2.3938
4.8416 -3.3268 2.3938
4.9550 -3.1493 2.3938
5.0619 -2.9677 2.3938
5.1622 -2.7826 2.3938
5.2557 -2.5941 2.3938
5.3423 -2.4024 2.3938
5.4219 -2.2078 2.3938
5.4944 -2.0106 2.3938
5.5598 -1.8111 2.3938
5.6180 -1.6094 2.3938
5.6688 -1.4058 2.3938
5.7123 -1.2007 2.3938
5.7484 -0.9942 2.3938
5.7771 -0.7867 2.3938
5.7983 -0.5784 2.3938
5.8121 -0.3696 2.3938
5.8183 -0.1605 2.3938
5.8171 0.0486 2.3938
5.8085 0.2574 2.3938
5.7924 0.4657 2.3938
5.7688 0.6731 2.3938
5.7379 0.8795 2.3938
5.6997 1.0846 2.3938
5.6542 1.2881 2.3938
5.6016 1.4898 2.3938
5.5417 1.6893 2.3938
5.4749 1.8866 2.3938
5.4011 2.0812 2.3938
5.3205 2.2731 2.3938
5.2331 2.4618 2.3938
5.1391 2.6473 2.3938
5.0386 2.8293 2.3938
4.9317 3.0075 2.3938
4.8186 3.1817 2.3938
4.6995 3.3518 2.3938
4.5744 3.5175 2.3938
4.4435 3.6786 2.3938
4.3071 3.8349 2.3938
4.1652 3.9863 2.3938
4.0181 4.1325 2.3938
3.8659 4.2733 2.3938
3.7089 4.4087 2.3938
3.5471 4.5383 2.3938
3.3810 4.6622 2.3938
3.2105 4.7800 2.3938
3.0361 4.8917 2.3938
2.8578 4.9972 2.3938
2.6759 5.0963 2.3938
2.4906 5.1889 2.3938
0.9218 2.1121 0.9585
0.8453 2.1441 0.9586
0.7677 2.1734 0.9588
0.6891 2.1998 0.9588
0.6095 2.2234 0.9589
0.5292 2.2441 0.9590
0.4481 2.2619 0.9590
0.3665 2.2767 0.9590
0.2844 2.2886 0.9590
0.2019 2.2976 0.9589
0.1191 2.3035 0.9588
0.0361 2.3065 0.9587
-0.0469 2.3064 0.9586
-0.1298 2.3034 0.9585
-0.2126 2.2974 0.9583
-0.2951 2.2884 0.9581
-0.3773 2.2764 0.9579
-0.4589 2.2614 0.9577
-0.5400 2.2436 0.9575
-0.6204 2.2228 0.9572
-0.6999 2.1991 0.9569
-0.7786 2.1726 0.9566
-0.8562 2.1432 0.9563
-2.3358 5.2865 2.3938
-2.5253 5.2012 2.3938
-2.7118 5.1092 2.3938
-2.8950 5.0105 2.3938
-3.0746 4.9054 2.3938
-3.2505 4.7939 2.3938
-3.4223 4.6761 2.3938
-3.5899 4.5523 2.3938
-3.7530 4.4225 2.3938
-3.9115 4.2870 2.3938
-4.0651 4.1458 2.3938
-4.2137 3.9991 2.3938
-4.3570 3.8472 2.3938
-4.4948 3.6902 2.3938
-4.6270 3.5283 2.3938
-4.7534 3.3616 2.3938
-4.8738 3.1906 2.3938
-4.9880 3.0152 2.3938
-5.0960 2.8357 2.3938
-5.1975 2.6524 2.3938
-5.2925 2.4655 2.3938
-5.3807 2.2752 2.3938
-5.4621 2.0818 2.3938
-5.5366 1.8855 2.3938
-5.6039 1.6865 2.3938
-5.6642 1.4852 2.3938
-5.7171 1.2817 2.3938
-5.7628 1.0763 2.3938
-5.8011 0.8694 2.3938
-5.8319 0.6611 2.3938
-5.8551 0.4517 2.3938
-5.8709 0.2415 2.3938
-5.8791 0.0307 2.3938
-5.8796 -0.1802 2.3938
-5.8726 -0.3912 2.3938
-5.8579 -0.6019 2.3938
-5.8357 -0.8120 2.3938
-5.8058 -1.0212 2.3938
-5.7684 -1.2294 2.3938
-5.7235 -1.4361 2.3938
-5.6711 -1.6411 2.3938
-5.6113 -1.8442 2.3938
-5.5441 -2.0451 2.3938
-5.4697 -2.2436 2.3938
-5.3881 -2.4392 2.3938
-5.2995 -2.6318 2.3938
-5.2039 -2.8212 2.3938
-5.1015 -3.0070 2.3938
-4.9923 -3.1891 2.3938
-4.8766 -3.3671 2.3938
-4.7545 -3.5409 2.3938
-4.6260 -3.7102 2.3938
-4.4915 -3.8747 2.3938
-4.3511 -4.0343 2.3938
-4.2049 -4.1887 2.3938
-4.0532 -4.3377 2.3938
-3.8961 -4.4812 2.3938
-3.7340 -4.6185 2.3938
-3.5668 -4.7505 2.3938
-3.3950 -4.8761 2.3938
-3.2186 -4.9952 2.3938
-3.0381 -5.1080 2.3938
-2.8535 -5.2141 2.3938
-2.6652 -5.3134 2.3938
-2.4733 -5.4059 2.3938
-2.2782 -5.4912 2.3938
-2.0802 -5.5695 2.3938
-1.8794 -5.6404 2.3938
-1.6762 -5.7040 2.3938
-1.4708 -5.7602 2.3938
-1.2635 -5.8088 2.3938
-1.0545 -5.8499 2.3938
-0.8443 -5.8833 2.3938
-0.6329 -5.9091 2.3938
-0.4208 -5.9271 2.3938
-0.2083 -5.9374 2.3938
0.0051 -5.5745 2.3938
0.2046 -5.5697 2.3938
0.4039 -5.5576 2.3938
0.6025 -5.5383 2.3938
0.8003 -5.5118 2.3938
0.9970 -5.4781 2.3938
1.1922 -5.4374 2.3938
1.3858 -5.3895 2.3938
1.5775 -5.3347 2.3938
1.7670 -5.2730 2.3938
1.9541 -5.2045 2.3938
2.1385 -5.1293 2.3938
2.3200 -5.0475 2.3938
2.4984 -4.9591 2.3938
2.6734 -4.8644 2.3938
2.8448 -4.7635 2.3938
3.0124 -4.6564 2.3938
3.1760 -4.5438 2.3938
3.3352 -4.4246 2.3938
3.4900 -4.3002 2.3938
3.6402 -4.1703 2.3938
3.7855 -4.0351 2.3938
3.9258 -3.8949 2.3938
4.0609 -3.7497 2.3938
4.1906 -3.5998 2.3938
4.3147 -3.4454 2.3938
4.4331 -3.2867 2.3938
4.5457 -3.1238 2.3938
4.6523 -2.9572 2.3938
4.7528 -2.7868 2.3938
4.8471 -2.6131 2.3938
4.9350 -2.4362 2.3938
5.0165 -2.2562 2.3938
5.0914 -2.0736 2.3938
5.1596 -1.8884 2.3938
5.2212 -1.7011 2.3938
5.2759 -1.5117 2.3938
5.3238 -1.3206 2.3938
5.3648 -1.1280 2.3938
5.3989 -0.9341 2.3938
5.4259 -0.7392 2.3938
5.4463 -0.5463 2.3938
5.4591 -0.3474 2.3938
5.4651 -0.1510 2.3938
5.4641 0.0454 2.3938
5.4561 0.2415 2.3938
5.4411 0.4372 2.3938
5.4191 0.6321 2.3938
5.3903 0.8260 2.3938
5.3545 1.0187 2.3938
5.3118 1.2099 2.3938
5.2625 1.3994 2.3938
5.2064 1.5870 2.3938
5.1437 1.7723 2.3938
5.0744 1.9552 2.3938
4.9988 2.1355 2.3938
4.9168 2.3129 2.3938
4.8285 2.4873 2.3938
4.7342 2.6583 2.3938
4.6338 2.8258 2.3938
4.5276 2.9896 2.3938
4.4157 3.1495 2.3938
4.2982 3.3052 2.3938
4.1753 3.4567 2.3938
4.0471 3.6036 2.3938
3.9138 3.7459 2.3938
3.7756 3.8833 2.3938
3.6326 4.0157 2.3938
3.4850 4.1430 2.3938
3.3331 4.2649 2.3938
3.1769 4.3813 2.3938
3.0168 4.4921 2.3938
2.8528 4.5971 2.3938
2.6852 4.6962 2.3938
2.5142 4.7894 2.3938
2.3401 4.8764 2.3938
0.8651 1.9827 0.9574
0.7933 2.0128 0.9576
0.7204 2.0402 0.9577
0.6466 2.0650 0.9578
0.5719 2.0871 0.9578
0.4965 2.1065 0.9579
0.4204 2.1232 0.9579
0.3438 2.1371 0.9579
0.2667 2.1483 0.9579
0.1892 2.1567 0.9578
0.1115 2.1622 0.9578
0.0336 2.1650 0.9577
-0.0443 2.1649 0.9576
-0.1222 2.1621 0.9574
-0.1999 2.1564 0.9573
-0.2774 2.1479 0.9571
-0.3545 2.1367 0.9569
-0.4311 2.1227 0.9567
-0.5072 2.1059 0.9565
-0.5827 2.0863 0.9562
-0.6574 2.0641 0.9559
-0.7312 2.0392 0.9556
-0.8041 2.0116 0.9553
-0.8760 1.9815 0.9550
-2.3737 4.8864 2.3938
-2.5489 4.7998 2.3938
-2.7210 4.7070 2.3938
-2.8897 4.6080 2.3938
-3.0548 4.5031 2.3938
-3.2161 4.3924 2.3938
-3.3735 4.2759 2.3938
-3.5267 4.1539 2.3938
-3.6755 4.0264 2.3938
-3.8197 3.8936 2.3938
-3.9591 3.7557 2.3938
-4.0936 3.6129 2.3938
-4.2229 3.4653 2.3938
-4.3470 3.3131 2.3938
-4.4655 3.1565 2.3938
-4.5785 2.9956 2.3938
-4.6857 2.8308 2.3938
-4.7869 2.6622 2.3938
-4.8821 2.4899 2.3938
-4.9711 2.3143 2.3938
-5.0538 2.1355 2.3938
-5.1301 1.9538 2.3938
-5.1998 1.7694 2.3938
-5.2629 1.5825 2.3938
-5.3193 1.3934 2.3938
-5.3689 1.2022 2.3938
-5.4116 1.0094 2.3938
-5.4473 0.8150 2.3938
-5.4760 0.6194 2.3938
-5.4977 0.4228 2.3938
-5.5123 0.2254 2.3938
-5.5198 0.0276 2.3938
-5.5202 -0.1705 2.3938
-5.5134 -0.3686 2.3938
-5.4994 -0.5663 2.3938
-5.4783 -0.7636 2.3938
-5.4502 -0.9600 2.3938
-5.4149 -1.1553 2.3938
-5.3726 -1.3493 2.3938
-5.3232 -1.5418 2.3938
-5.2669 -1.7323 2.3938
-5.2038 -1.9208 2.3938
-5.1338 -2.1070 2.3938
-5.0571 -2.2906 2.3938
-4.9738 -2.4713 2.3938
-4.8839 -2.6490 2.3938
-4.7877 -2.8233 2.3938
-4.6851 -2.9941 2.3938
-4.5764 -3.1611 2.3938
-4.4617 -3.3241 2.3938
-4.3411 -3.4829 2.3938
-4.2148 -3.6372 2.3938
-4.0829 -3.7869 2.3938
-3.9457 -3.9317 2.3938
-3.8033 -4.0715 2.3938
-3.6558 -4.2060 2.3938
-3.5036 -4.3351 2.3938
-3.3467 -4.4586 2.3938
-3.1854 -4.5764 2.3938
-3.0199 -4.6882 2.3938
-2.8504 -4.7940 2.3938
-2.6772 -4.8935 2.3938
-2.5005 -4.9866 2.3938
-2.3205 -5.0733 2.3938
-2.1374 -5.1534 2.3938
-1.9516 -5.2268 2.3938
-1.7632 -5.2933 2.3938
-1.5725 -5.3530 2.3938
-1.3798 -5.4057 2.3938
-1.1853 -5.4513 2.3938
-0.9892 -5.4898 2.3938
-0.7919 -5.5212 2.3938
-0.5936 -5.5454 2.3938
-0.3946 -5.5624 2.3938
-0.1951 -5.5721 2.3938
0.0045 -5.5745 2.3938
0.2041 -5.5697 2.3938
0.4034 -5.5576 2.3938
0.6020 -5.5384 2.3938
0.7998 -5.5119 2.3938
0.9964 -5.4782 2.3938
1.1917 -5.4375 2.3938
1.3853 -5.3897 2.3938
1.5770 -5.3349 2.3938
1.7665 -5.2732 2.3938
1.9536 -5.2047 2.3938
2.1380 -5.1295 2.3938
2.3195 -5.0477 2.3938
2.4979 -4.9594 2.3938
2.6729 -4.8647 2.3938
2.8444 -4.7638 2.3938
3.0120 -4.6567 2.3938
3.1755 -4.5437 2.3938
3.3348 -4.4249 2.3938
3.4896 -4.3006 2.3938
3.6398 -4.1707 2.3938
3.7851 -4.0355 2.3938
3.9254 -3.8953 2.3938
4.0605 -3.7501 2.3938
4.1902 -3.6002 2.3938
4.3144 -3.4458 2.3938
4.4328 -3.2871 2.3938
4.5454 -3.1243 2.3938
4.6521 -2.9576 2.3938
4.7526 -2.7873 2.3938
4.8469 -2.6136 2.3938
4.9348 -2.4366 2.3938
5.0162 -2.2567 2.3938
5.0912 -2.0741 2.3938
5.1594 -1.8889 2.3938
5.2210 -1.7016 2.3938
5.2758 -1.5122 2.3938
5.3237 -1.3211 2.3938
5.3647 -1.1285 2.3938
5.3988 -0.9346 2.3938
5.4259 -0.7397 2.3938
5.4460 -0.5441 2.3938
5.4590 -0.3479 2.3938
5.4651 -0.1515 2.3938
5.4641 0.0449 2.3938
5.4562 0.2410 2.3938
5.4412 0.4367 2.3938
5.4192 0.6316 2.3938
5.3903 0.8255 2.3938
5.3546 1.0182 2.3938
5.3120 1.2094 2.3938
5.2626 1.3989 2.3938
5.2065 1.5865 2.3938
5.1439 1.7718 2.3938
5.0746 1.9547 2.3938
4.9990 2.1350 2.3938
4.9170 2.3125 2.3938
4.8288 2.4868 2.3938
4.7344 2.6579 2.3938
4.6341 2.8254 2.3938
4.5279 2.9892 2.3938
4.4160 3.1491 2.3938
4.2985 3.3048 2.3938
4.1756 3.4563 2.3938
4.0475 3.6032 2.3938
3.9142 3.7455 2.3938
3.7760 3.8830 2.3938
3.6330 4.0154 2.3938
3.4854 4.1426 2.3938
3.3335 4.2645 2.3938
3.1774 4.3810 2.3938
3.0172 4.4918 2.3938
2.8532 4.5968 2.3938
2.6857 4.6960 2.3938
2.5147 4.7891 2.3938
2.3406 4.8761 2.3938
0.8653 1.9826 0.9574
0.7935 2.0127 0.9576
0.7206 2.0401 0.9577
0.6468 2.0649 0.9578
0.5721 2.0871 0.9578
0.4967 2.1065 0.9579
0.4206 2.1232 0.9579
0.3440 2.1371 0.9579
0.2669 2.1483 0.9579
0.1894 2.1566 0.9578
0.1117 2.1622 0.9578
0.0338 2.1650 0.9577
-0.0441 2.1650 0.9576
-0.1220 2.1621 0.9574
-0.1997 2.1564 0.9573
-0.2772 2.1480 0.9571
-0.3543 2.1367 0.9569
-0.4309 2.1227 0.9567
-0.5070 2.1059 0.9565
-0.5825 2.0864 0.9562
-0.6572 2.0642 0.9559
-0.7310 2.0393 0.9556
-0.8039 2.0117 0.9553
-0.8758 1.9816 0.9550
-2.3732 4.8866 2.3938
-2.5484 4.8000 2.3938
-2.7205 4.7072 2.3938
-2.8892 4.6083 2.3938
-3.0543 4.5034 2.3938
-3.2157 4.3927 2.3938
-3.3731 4.2762 2.3938
-3.5263 4.1542 2.3938
-3.6751 4.0267 2.3938
-3.8193 3.8940 2.3938
-3.9587 3.7561 2.3938
-4.0932 3.6133 2.3938
-4.2226 3.4657 2.3938
-4.3466 3.3135 2.3938
-4.4652 3.1569 2.3938
-4.5782 2.9961 2.3938
-4.6854 2.8313 2.3938
-4.7867 2.6627 2.3938
-4.8819 2.4904 2.3938
-4.9709 2.3148 2.3938
-5.0536 2.1360 2.3938
-5.1299 1.9543 2.3938
-5.1996 1.7699 2.3938
-5.2628 1.5830 2.3938
-5.3192 1.3939 2.3938
-5.3688 1.2028 2.3938
-5.4114 1.0099 2.3938
-5.4472 0.8155 2.3938
-5.4760 0.6199 2.3938
-5.4977 0.4233 2.3938
-5.5123 0.2259 2.3938
-5.5198 0.0281 2.3938
-5.5202 -0.1700 2.3938
-5.5134 -0.3680 2.3938
-5.4995 -0.5658 2.3938
-5.4784 -0.7630 2.3938
-5.4502 -0.9594 2.3938
-5.4150 -1.1548 2.3938
-5.3727 -1.3488 2.3938
-5.3234 -1.5412 2.3938
-5.2671 -1.7318 2.3938
-5.2039 -1.9203 2.3938
-5.1340 -2.1065 2.3938
-5.0573 -2.2901 2.3938
-4.9740 -2.4709 2.3938
-4.8842 -2.6485 2.3938
-4.7879 -2.8229 2.3938
-4.6854 -2.9937 2.3938
-4.5767 -3.1607 2.3938
-4.4620 -3.3237 2.3938
-4.3414 -3.4825 2.3938
-4.2151 -3.6368 2.3938
-4.0833 -3.7865 2.3938
-3.9461 -3.9314 2.3938
-3.8037 -4.0711 2.3938
-3.6562 -4.2057 2.3938
-3.5040 -4.3348 2.3938
-3.3471 -4.4583 2.3938
-3.1858 -4.5761 2.3938
-3.0203 -4.6879 2.3938
-2.8509 -4.7937 2.3938
-2.6777 -4.8932 2.3938
-2.5010 -4.9864 2.3938
-2.3210 -5.0731 2.3938
-2.1379 -5.1532 2.3938
-1.9521 -5.2266 2.3938
-1.7637 -5.2932 2.3938
-1.5730 -5.3528 2.3938
-1.3803 -5.4055 2.3938
-1.1858 -5.4512 2.3938
-0.9897 -5.4897 2.3938
-0.7925 -5.5211 2.3938
-0.5942 -5.5453 2.3938
-0.3952 -5.5623 2.3938
-0.1957 -5.5720 2.3938
0.0045 -5.2454 2.3938
0.1923 -5.2410 2.3938
0.3797 -5.2296 2.3938
0.5666 -5.2115 2.3938
0.7527 -5.1867 2.3938
0.9378 -5.1551 2.3938
1.1215 -5.1168 2.3938
1.3036 -5.0719 2.3938
1.4840 -5.0204 2.3938
1.6624 -4.9624 2.3938
1.8384 -4.8980 2.3938
2.0120 -4.8273 2.3938
2.1829 -4.7504 2.3938
2.3508 -4.6674 2.3938
2.5155 -4.5784 2.3938
2.6769 -4.4834 2.3938
2.8346 -4.3828 2.3938
2.9886 -4.2766 2.3938
3.1386 -4.1649 2.3938
3.2843 -4.0478 2.3938
3.4257 -3.9257 2.3938
3.5626 -3.7986 2.3938
3.6947 -3.6666 2.3938
3.8220 -3.5301 2.3938
3.9441 -3.3891 2.3938
4.0611 -3.2438 2.3938
4.1727 -3.0945 2.3938
4.2788 -2.9413 2.3938
4.3792 -2.7845 2.3938
4.4740 -2.6242 2.3938
4.5628 -2.4607 2.3938
4.6457 -2.2942 2.3938
4.7225 -2.1249 2.3938
4.7932 -1.9530 2.3938
4.8576 -1.7787 2.3938
4.9156 -1.6025 2.3938
4.9673 -1.4241 2.3938
5.0126 -1.2442 2.3938
5.0513 -1.0628 2.3938
5.0835 -0.8803 2.3938
5.1092 -0.6968 2.3938
5.1282 -0.5126 2.3938
5.1406 -0.3279 2.3938
5.1464 -0.1430 2.3938
5.1456 0.0420 2.3938
5.1382 0.2267 2.3938
5.1242 0.4110 2.3938
5.1037 0.5946 2.3938
5.0766 0.7773 2.3938
5.0430 0.9587 2.3938
5.0030 1.1389 2.3938
4.9566 1.3174 2.3938
4.9039 1.4941 2.3938
4.8449 1.6687 2.3938
4.7798 1.8410 2.3938
4.7086 2.0109 2.3938
4.6314 2.1781 2.3938
4.5484 2.3424 2.3938
4.4596 2.5035 2.3938
4.3651 2.6614 2.3938
4.2652 2.8157 2.3938
4.1598 2.9664 2.3938
4.0492 3.1132 2.3938
3.9334 3.2559 2.3938
3.8127 3.3944 2.3938
3.6872 3.5285 2.3938
3.5570 3.6580 2.3938
3.4223 3.7828 2.3938
3.2833 3.9027 2.3938
3.1402 4.0176 2.3938
2.9931 4.1273 2.3938
2.8422 4.2317 2.3938
2.6877 4.3307 2.3938
2.5298 4.4241 2.3938
2.3687 4.5119 2.3938
0.8808 1.8353 0.9563
0.8142 1.8660 0.9565
0.7466 1.8943 0.9566
0.6780 1.9201 0.9567
0.6085 1.9434 0.9568
0.5382 1.9642 0.9568
0.4672 1.9825 0.9569
0.3956 1.9982 0.9569
0.3235 2.0113 0.9569
0.2509 2.0218 0.9569
0.1780 2.0297 0.9568
0.1048 2.0349 0.9568
0.0315 2.0375 0.9567
-0.0418 2.0374 0.9566
-0.1151 2.0348 0.9565
-0.1883 2.0294 0.9563
-0.2612 2.0214 0.9562
-0.3338 2.0108 0.9560
-0.4059 1.9976 0.9558
-0.4775 1.9818 0.9556
-0.5486 1.9635 0.9553
-0.6189 1.9425 0.9551
-0.6884 1.9191 0.9548
-0.7570 1.8931 0.9545
-0.8246 1.8648 0.9542
-0.8911 1.8339 0.9539
-2.4013 4.5207 2.3938
-2.5634 4.4332 2.3938
-2.7222 4.3399 2.3938
-2.8777 4.2410 2.3938
-3.0296 4.1366 2.3938
-3.1778 4.0268 2.3938
-3.3220 3.9117 2.3938
-3.4620 3.7916 2.3938
-3.5978 3.6664 2.3938
-3.7290 3.5365 2.3938
-3.8556 3.4019 2.3938
-3.9773 3.2628 2.3938
-4.0940 3.1193 2.3938
-4.2056 2.9718 2.3938
-4.3118 2.8203 2.3938
-4.4127 2.6650 2.3938
-4.5079 2.5061 2.3938
-4.5974 2.3438 2.3938
-4.6811 2.1785 2.3938
-4.7588 2.0100 2.3938
-4.8305 1.8388 2.3938
-4.8960 1.6652 2.3938
-4.9553 1.4892 2.3938
-5.0082 1.3110 2.3938
-5.0548 1.1311 2.3938
-5.0948 0.9495 2.3938
-5.1283 0.7665 2.3938
-5.1552 0.5823 2.3938
-5.1755 0.3972 2.3938
-5.1891 0.2114 2.3938
-5.1960 0.0252 2.3938
-5.1962 -0.1613 2.3938
-5.1897 -0.3477 2.3938
-5.1764 -0.5338 2.3938
-5.1565 -0.7194 2.3938
-5.1298 -0.9042 2.3938
-5.0965 -1.0881 2.3938
-5.0565 -1.2706 2.3938
-5.0100 -1.4517 2.3938
-4.9569 -1.6310 2.3938
-4.8973 -1.8084 2.3938
-4.8314 -1.9836 2.3938
-4.7591 -2.1563 2.3938
-4.6806 -2.3263 2.3938
-4.5960 -2.4934 2.3938
-4.5053 -2.6574 2.3938
-4.4088 -2.8181 2.3938
-4.3064 -2.9752 2.3938
-4.1984 -3.1285 2.3938
-4.0848 -3.2779 2.3938
-3.9660 -3.4230 2.3938
-3.8418 -3.5638 2.3938
-3.7127 -3.7000 2.3938
-3.5786 -3.8315 2.3938
-3.4398 -3.9580 2.3938
-3.2966 -4.0794 2.3938
-3.1489 -4.1956 2.3938
-2.9971 -4.3064 2.3938
-2.8414 -4.4115 2.3938
-2.6820 -4.5110 2.3938
-2.5190 -4.6046 2.3938
-2.3527 -4.6922 2.3938
-2.1834 -4.7737 2.3938
-2.0112 -4.8491 2.3938
-1.8363 -4.9181 2.3938
-1.6591 -4.9807 2.3938
-1.4797 -5.0368 2.3938
-1.2984 -5.0864 2.3938
-1.1153 -5.1294 2.3938
-0.9309 -5.1656 2.3938
-0.7453 -5.1952 2.3938
-0.5588 -5.2179 2.3938
-0.3715 -5.2339 2.3938
-0.1839 -5.2431 2.3938
0.0040 -5.2454 2.3938
0.1918 -5.2410 2.3938
0.3792 -5.2297 2.3938
0.5661 -5.2116 2.3938
0.7522 -5.1867 2.3938
0.9373 -5.1552 2.3938
1.1210 -5.1169 2.3938
1.3032 -5.0720 2.3938
1.4835 -5.0205 2.3938
1.6619 -4.9626 2.3938
1.8380 -4.8982 2.3938
2.0116 -4.8275 2.3938
2.1824 -4.7506 2.3938
2.3503 -4.6676 2.3938
2.5151 -4.5786 2.3938
2.6764 -4.4837 2.3938
2.8342 -4.3831 2.3938
2.9882 -4.2769 2.3938
3.1382 -4.1652 2.3938
3.2840 -4.0482 2.3938
3.4254 -3.9260 2.3938
3.5623 -3.7989 2.3938
3.6944 -3.6670 2.3938
3.8216 -3.5305 2.3938
3.9438 -3.3895 2.3938
4.0608 -3.2442 2.3938
4.1724 -3.0949 2.3938
4.2785 -2.9417 2.3938
4.3790 -2.7849 2.3938
4.4737 -2.6247 2.3938
4.5626 -2.4612 2.3938
4.6455 -2.2946 2.3938
4.7223 -2.1253 2.3938
4.7930 -1.9534 2.3938
4.8574 -1.7792 2.3938
4.9155 -1.6029 2.3938
4.9672 -1.4246 2.3938
5.0125 -1.2447 2.3938
5.0512 -1.0633 2.3938
5.0834 -0.8808 2.3938
5.1091 -0.6973 2.3938
5.1282 -0.5131 2.3938
5.1406 -0.3284 2.3938
5.1464 -0.1435 2.3938
5.1457 0.0415 2.3938
5.1383 0.2262 2.3938
5.1243 0.4105 2.3938
5.1037 0.5941 2.3938
5.0767 0.7768 2.3938
5.0431 0.9583 2.3938
5.0031 1.1384 2.3938
4.9567 1.3169 2.3938
4.9040 1.4936 2.3938
4.8451 1.6682 2.3938
4.7800 1.8406 2.3938
4.7088 2.0105 2.3938
4.6316 2.1777 2.3938
4.5486 2.3419 2.3938
4.4598 2.5031 2.3938
4.3654 2.6610 2.3938
4.2654 2.8153 2.3938
4.1601 2.9660 2.3938
4.0495 3.1128 2.3938
3.9337 3.2555 2.3938
3.8130 3.3940 2.3938
3.6875 3.5281 2.3938
3.5573 3.6577 2.3938
3.4227 3.7825 2.3938
3.2837 3.9024 2.3938
3.1405 4.0173 2.3938
2.9934 4.1270 2.3938
2.8426 4.2314 2.3938
2.6881 4.3304 2.3938
2.5302 4.4239 2.3938
2.3692 4.5117 2.3938
0.8810 1.8353 0.9563
0.8144 1.8659 0.9565
0.7468 1.8942 0.9566
0.6782 1.9200 0.9567
0.6087 1.9434 0.9568
0.5384 1.9642 0.9568
0.4674 1.9825 0.9569
0.3958 1.9982 0.9569
0.3237 2.0113 0.9569
0.2511 2.0218 0.9569
0.1782 2.0297 0.9568
0.1050 2.0349 0.9568
0.0317 2.0375 0.9567
