ply
format ascii 1.0
element vertex 2185
property float32 x
property float32 y
property float32 z
end_header
3.4758 -4.8139 2.3875
3.6261 -4.6552 2.3875
3.7704 -4.4929 2.3875
3.9088 -4.3271 2.3875
4.0412 -4.1580 2.3875
4.1676 -3.9858 2.3875
4.2879 -3.8106 2.3875
4.4021 -3.6328 2.3875
4.5103 -3.4524 2.3875
4.6124 -3.2696 2.3875
4.7084 -3.0846 2.3875
4.7983 -2.8975 2.3875
4.8821 -2.7086 2.3875
4.9599 -2.5179 2.3875
5.0315 -2.3256 2.3875
5.0970 -2.1319 2.3875
5.1565 -1.9369 2.3875
5.2099 -1.7407 2.3875
5.2572 -1.5436 2.3875
5.2766 -1.3400 2.3776
5.2643 -1.1319 2.3565
5.2519 -0.9279 2.3382
5.2392 -0.7273 2.3225
5.2263 -0.5297 2.3095
5.2131 -0.3344 2.2989
5.1995 -0.1409 2.2909
5.1857 0.0511 2.2852
5.1714 0.2423 2.2819
5.1568 0.4331 2.2809
5.1417 0.6239 2.2823
5.1262 0.8152 2.2860
5.1101 1.0075 2.2921
5.0935 1.2012 2.3006
5.0762 1.3969 2.3115
5.0583 1.5951 2.3250
5.0397 1.7963 2.3412
5.0203 2.0011 2.3600
5.0000 2.2100 2.3817
4.9396 2.4047 2.3875
4.8612 2.5923 2.3875
4.7769 2.7780 2.3875
4.6868 2.9616 2.3875
4.5908 3.1430 2.3875
4.4889 3.3221 2.3875
4.3813 3.4986 2.3875
4.2678 3.6724 2.3875
4.1485 3.8435 2.3875
4.0235 4.0115 2.3875
3.8928 4.1764 2.3875
3.7564 4.3379 2.3875
3.6143 4.4960 2.3875
3.4666 4.6504 2.3875
3.3133 4.8009 2.3875
3.1545 4.9474 2.3875
2.9903 5.0897 2.3875
2.8206 5.2275 2.3875
2.6456 5.3607 2.3875
2.4652 5.4891 2.3875
2.2797 5.6125 2.3875
2.0891 5.7307 2.3875
0.8074 2.4917 1.0180
0.7175 2.5219 1.0118
0.6266 2.5488 1.0055
0.5347 2.5725 0.9992
0.4420 2.5928 0.9927
0.3487 2.6097 0.9862
0.2548 2.6232 0.9796
0.1605 2.6334 0.9729
0.0659 2.6401 0.9662
-0.0290 2.6433 0.9595
-0.1238 2.6432 0.9527
-0.2186 2.6396 0.9459
-0.3133 2.6325 0.9392
-0.4076 2.6221 0.9324
-0.5014 2.6082 0.9256
-0.5947 2.5910 0.9188
-0.6873 2.5703 0.9121
-0.7791 2.5464 0.9054
-0.8700 2.5191 0.8987
-0.9599 2.4885 0.8921
-2.8269 6.6180 2.3875
-3.0851 6.5664 2.3875
-3.3430 6.5048 2.3875
-3.6001 6.4331 2.3875
-3.8562 6.3513 2.3875
-4.1106 6.2592 2.3875
-4.3630 6.1568 2.3875
-4.6129 6.0441 2.3875
-4.8597 5.9210 2.3875
-5.1029 5.7876 2.3875
-5.3422 5.6438 2.3875
-5.5768 5.4898 2.3875
-5.8063 5.3256 2.3875
-6.0302 5.1514 2.3875
-6.2479 4.9672 2.3875
-6.4589 4.7734 2.3875
-6.6627 4.5700 2.3875
-6.8587 4.3575 2.3875
-7.0463 4.1359 2.3875
-7.2252 3.9058 2.3875
-7.3948 3.6673 2.3875
-7.5546 3.4210 2.3875
-0.4269 -6.3762 2.3875
-0.1974 -6.3379 2.3875
0.0291 -6.2919 2.3875
0.2522 -6.2384 2.3875
0.4718 -6.1777 2.3875
0.6877 -6.1099 2.3875
0.8997 -6.0353 2.3875
1.1076 -5.9541 2.3875
1.3111 -5.8665 2.3875
1.5103 -5.7728 2.3875
1.7049 -5.6732 2.3875
1.8948 -5.5679 2.3875
2.0798 -5.4571 2.3875
2.2599 -5.3410 2.3875
2.4350 -5.2199 2.3875
2.6050 -5.0939 2.3875
2.7697 -4.9634 2.3875
2.9292 -4.8284 2.3875
3.0833 -4.6891 2.3875
3.2320 -4.5459 2.3875
3.3752 -4.3989 2.3875
3.5128 -4.2482 2.3875
3.6449 -4.0940 2.3875
3.7715 -3.9367 2.3875
3.8923 -3.7762 2.3875
4.0075 -3.6128 2.3875
4.1170 -3.4467 2.3875
4.2208 -3.2781 2.3875
4.3189 -3.1070 2.3875
4.4112 -2.9338 2.3875
4.4978 -2.7584 2.3875
4.5786 -2.5812 2.3875
4.6536 -2.4022 2.3875
4.7229 -2.2216 2.3875
4.7864 -2.0395 2.3875
4.8441 -1.8561 2.3875
4.8960 -1.6715 2.3875
4.9421 -1.4859 2.3875
4.9825 -1.2994 2.3875
5.0171 -1.1121 2.3875
5.0459 -0.9242 2.3875
5.0690 -0.7358 2.3875
5.0863 -0.5471 2.3875
5.0978 -0.3581 2.3875
5.1036 -0.1691 2.3875
5.1037 0.0200 2.3875
5.0980 0.2089 2.3875
5.0866 0.3974 2.3875
5.0695 0.5856 2.3875
5.0467 0.7733 2.3875
5.0182 0.9602 2.3875
4.9840 1.1464 2.3875
4.9441 1.3316 2.3875
4.8986 1.5158 2.3875
4.8474 1.6988 2.3875
4.7906 1.8804 2.3875
4.7281 2.0606 2.3875
4.6600 2.2392 2.3875
4.5863 2.4161 2.3875
4.5070 2.5911 2.3875
4.4222 2.7641 2.3875
4.3318 2.9350 2.3875
4.2359 3.1035 2.3875
4.1344 3.2696 2.3875
4.0275 3.4331 2.3875
3.9152 3.5939 2.3875
3.7974 3.7517 2.3875
3.6742 3.9065 2.3875
3.5457 4.0581 2.3875
3.4119 4.2062 2.3875
3.2728 4.3508 2.3875
3.1285 4.4917 2.3875
2.9791 4.6287 2.3875
2.8245 4.7616 2.3875
2.6650 4.8902 2.3875
2.5004 5.0144 2.3875
2.3310 5.1340 2.3875
2.1568 5.2487 2.3875
0.8444 2.2877 1.0193
0.7618 2.3193 1.0136
0.6781 2.3480 1.0079
0.5934 2.3736 1.0020
0.5078 2.3961 0.9960
0.4215 2.4155 0.9900
0.3345 2.4318 0.9839
0.2470 2.4449 0.9778
0.1591 2.4548 0.9716
0.0708 2.4616 0.9654
-0.0176 2.4651 0.9591
-0.1061 2.4655 0.9528
-0.1945 2.4626 0.9465
-0.2828 2.4565 0.9401
-0.3708 2.4473 0.9338
-0.4585 2.4348 0.9275
-0.5456 2.4192 0.9212
-0.6321 2.4005 0.9149
-0.7178 2.3786 0.9086
-0.8028 2.3537 0.9024
-0.8867 2.3257 0.8962
-0.9696 2.2946 0.8901
-2.8393 6.1051 2.3875
-3.0773 6.0462 2.3875
-3.3145 5.9781 2.3875
-3.5505 5.9006 2.3875
-3.7848 5.8137 2.3875
-4.0170 5.7174 2.3875
-4.2468 5.6116 2.3875
-4.4736 5.4964 2.3875
-4.6969 5.3718 2.3875
-4.9164 5.2377 2.3875
-5.1316 5.0944 2.3875
-5.3420 4.9418 2.3875
-5.5471 4.7801 2.3875
-5.7465 4.6094 2.3875
-5.9396 4.4300 2.3875
-6.1260 4.2420 2.3875
-6.3053 4.0457 2.3875
-6.4770 3.8413 2.3875
-6.6405 3.6292 2.3875
-6.7956 3.4096 2.3875
-6.9418 3.1828 2.3875
-7.0786 2.9494 2.3875
-7.2056 2.7096 2.3875
-7.3226 2.4640 2.3875
-7.4291 2.2129 2.3875
-7.5248 1.9569 2.3875
-7.6095 1.6964 2.3875
-7.6829 1.4321 2.3875
-7.7447 1.1643 2.3875
-7.7947 0.8937 2.3875
-7.8328 0.6209 2.3875
-7.8589 0.3464 2.3875
-7.8728 0.0709 2.3875
-7.8745 -0.2051 2.3875
-7.8640 -0.4810 2.3875
-7.8413 -0.7562 2.3875
-7.8063 -1.0300 2.3875
-7.7594 -1.3019 2.3875
-7.7005 -1.5713 2.3875
-7.6298 -1.8376 2.3875
-7.5476 -2.1003 2.3875
-7.4539 -2.3587 2.3875
-7.3492 -2.6124 2.3875
-7.2338 -2.8609 2.3875
-7.1079 -3.1036 2.3875
-6.9718 -3.3401 2.3875
-6.8260 -3.5699 2.3875
-6.6709 -3.7927 2.3875
-6.5069 -4.0081 2.3875
-6.3344 -4.2157 2.3875
-6.1539 -4.4151 2.3875
-5.9657 -4.6061 2.3875
-5.7705 -4.7884 2.3875
-5.5687 -4.9617 2.3875
-5.3608 -5.1259 2.3875
-5.1472 -5.2808 2.3875
-4.9285 -5.4262 2.3875
-4.7052 -5.5620 2.3875
-4.4777 -5.6881 2.3875
-4.2465 -5.8044 2.3875
-4.0121 -5.9110 2.3875
-3.7751 -6.0078 2.3875
-3.5358 -6.0947 2.3875
-3.2947 -6.1719 2.3875
-3.0522 -6.2394 2.3875
-2.8088 -6.2972 2.3875
-2.5649 -6.3455 2.3875
-2.3209 -6.3844 2.3875
-2.0772 -6.4140 2.3875
-1.8342 -6.4344 2.3875
-1.5921 -6.4457 2.3875
-1.3515 -6.4482 2.3875
-1.1125 -6.4421 2.3875
-0.8755 -6.4274 2.3875
-0.6408 -6.4045 2.3875
-0.4087 -6.3735 2.3875
-0.1794 -6.3345 2.3875
0.0468 -6.2879 2.3875
0.2697 -6.2339 2.3875
0.4890 -6.1726 2.3875
0.7046 -6.1042 2.3875
0.9162 -6.0291 2.3875
1.1238 -5.9474 2.3875
1.3270 -5.8594 2.3875
1.5258 -5.7652 2.3875
1.7200 -5.6651 2.3875
1.9095 -5.5593 2.3875
2.0942 -5.4481 2.3875
2.2739 -5.3316 2.3875
2.4486 -5.2101 2.3875
2.6182 -5.0838 2.3875
2.7825 -4.9529 2.3875
2.9415 -4.8175 2.3875
3.0952 -4.6780 2.3875
3.2435 -4.5345 2.3875
3.3862 -4.3871 2.3875
3.5235 -4.2361 2.3875
3.6551 -4.0817 2.3875
3.7812 -3.9241 2.3875
3.9016 -3.7634 2.3875
4.0164 -3.5998 2.3875
4.1254 -3.4335 2.3875
4.2288 -3.2647 2.3875
4.3264 -3.0935 2.3875
4.4183 -2.9200 2.3875
4.5044 -2.7445 2.3875
4.5847 -2.5671 2.3875
4.6593 -2.3880 2.3875
4.7281 -2.2072 2.3875
4.7911 -2.0250 2.3875
4.8484 -1.8415 2.3875
4.8998 -1.6569 2.3875
4.9455 -1.4712 2.3875
4.9854 -1.2846 2.3875
5.0196 -1.0973 2.3875
5.0479 -0.9094 2.3875
5.0705 -0.7210 2.3875
5.0874 -0.5322 2.3875
5.0985 -0.3432 2.3875
5.1038 -0.1541 2.3875
5.1034 0.0349 2.3875
5.0973 0.2237 2.3875
5.0855 0.4123 2.3875
5.0680 0.6005 2.3875
5.0447 0.7880 2.3875
5.0157 0.9749 2.3875
4.9811 1.1610 2.3875
4.9408 1.3462 2.3875
4.8948 1.5303 2.3875
4.8431 1.7132 2.3875
4.7858 1.8947 2.3875
4.7229 2.0748 2.3875
4.6544 2.2532 2.3875
4.5803 2.4300 2.3875
4.5005 2.6048 2.3875
4.4153 2.7777 2.3875
4.3244 2.9483 2.3875
4.2281 3.1167 2.3875
4.1262 3.2826 2.3875
4.0189 3.4459 2.3875
3.9061 3.6064 2.3875
3.7879 3.7640 2.3875
3.6643 3.9186 2.3875
3.5353 4.0699 2.3875
3.4011 4.2178 2.3875
3.2616 4.3621 2.3875
3.1169 4.5027 2.3875
2.9671 4.6393 2.3875
2.8121 4.7719 2.3875
2.6522 4.9002 2.3875
2.4872 5.0240 2.3875
2.3174 5.1432 2.3875
2.1428 5.2575 2.3875
0.8379 2.2903 1.0188
0.7552 2.3217 1.0132
0.6714 2.3501 1.0074
0.5867 2.3754 1.0015
0.5011 2.3977 0.9956
0.4147 2.4169 0.9896
0.3276 2.4329 0.9835
0.2401 2.4458 0.9773
0.1521 2.4555 0.9711
0.0639 2.4620 0.9649
-0.0246 2.4652 0.9586
-0.1130 2.4653 0.9523
-0.2015 2.4622 0.9460
-0.2898 2.4559 0.9396
-0.3778 2.4464 0.9333
-0.4653 2.4337 0.9270
-0.5524 2.4179 0.9207
-0.6389 2.3989 0.9144
-0.7246 2.3768 0.9081
-0.8094 2.3516 0.9019
-0.8933 2.3233 0.8957
-0.9761 2.2920 0.8896
-2.8581 6.1008 2.3875
-3.0961 6.0412 2.3875
-3.3332 5.9723 2.3875
-3.5690 5.8941 2.3875
-3.8032 5.8065 2.3875
-4.0353 5.7094 2.3875
-4.2648 5.6029 2.3875
-4.4913 5.4869 2.3875
-4.7144 5.3615 2.3875
-4.9336 5.2268 2.3875
-5.1484 5.0827 2.3875
-5.3584 4.9294 2.3875
-5.5631 4.7670 2.3875
-5.7620 4.5956 2.3875
-5.9546 4.4155 2.3875
-6.1405 4.2269 2.3875
-6.3191 4.0299 2.3875
-6.4902 3.8249 2.3875
-6.6531 3.6121 2.3875
-6.8075 3.3919 2.3875
-6.9529 3.1647 2.3875
-7.0889 2.9307 2.3875
-7.2152 2.6905 2.3875
-7.3314 2.4444 2.3875
-7.4370 2.1929 2.3875
-7.5319 1.9365 2.3875
-7.6157 1.6757 2.3875
-7.6882 1.4110 2.3875
-7.7491 1.1431 2.3875
-7.7982 0.8723 2.3875
-7.8353 0.5993 2.3875
-7.8605 0.3247 2.3875
-7.8734 0.0491 2.3875
-7.8741 -0.2269 2.3875
-7.8626 -0.5028 2.3875
-7.8389 -0.7779 2.3875
-7.8031 -1.0516 2.3875
-7.7552 -1.3233 2.3875
-7.6953 -1.5925 2.3875
-7.6237 -1.8585 2.3875
-7.5406 -2.1208 2.3875
-7.4461 -2.3789 2.3875
-7.3405 -2.6322 2.3875
-7.2242 -2.8802 2.3875
-7.0975 -3.1225 2.3875
-6.9607 -3.3584 2.3875
-6.8141 -3.5878 2.3875
-6.6583 -3.8100 2.3875
-6.4936 -4.0248 2.3875
-6.3204 -4.2317 2.3875
-6.1393 -4.4304 2.3875
-5.9506 -4.6208 2.3875
-5.7549 -4.8023 2.3875
-5.5525 -4.9750 2.3875
-5.3442 -5.1384 2.3875
-5.1302 -5.2926 2.3875
-4.9111 -5.4372 2.3875
-4.6874 -5.5723 2.3875
-4.4596 -5.6976 2.3875
-4.2281 -5.8132 2.3875
-3.9935 -5.9190 2.3875
-3.7563 -6.0150 2.3875
-3.5168 -6.1012 2.3875
-3.2756 -6.1776 2.3875
-3.0330 -6.2443 2.3875
-2.7896 -6.3014 2.3875
-2.5457 -6.3489 2.3875
-2.3017 -6.3871 2.3875
-2.0580 -6.4159 2.3875
-1.8150 -6.4356 2.3875
-1.5731 -6.4462 2.3875
-1.3325 -6.4481 2.3875
-1.0937 -6.4412 2.3875
-0.8569 -6.4259 2.3875
-0.6224 -6.4023 2.3875
-0.3905 -6.3707 2.3875
-0.1614 -6.3311 2.3875
0.0645 -6.2839 2.3875
0.2871 -6.2293 2.3875
0.5062 -6.1674 2.3875
0.7214 -6.0986 2.3875
0.9327 -6.0229 2.3875
1.1400 -5.9407 2.3875
1.3429 -5.8521 2.3875
1.5413 -5.7575 2.3875
1.7351 -5.6570 2.3875
1.9243 -5.5508 2.3875
2.1086 -5.4391 2.3875
2.2879 -5.3222 2.3875
2.4622 -5.2003 2.3875
2.6313 -5.0736 2.3875
2.7953 -4.9423 2.3875
2.9539 -4.8067 2.3875
3.1071 -4.6668 2.3875
3.2549 -4.5230 2.3875
3.3972 -4.3753 2.3875
3.5341 -4.2241 2.3875
3.6653 -4.0694 2.3875
3.7909 -3.9115 2.3875
3.9109 -3.7506 2.3875
4.0252 -3.5868 2.3875
4.1338 -3.4203 2.3875
4.2367 -3.2513 2.3875
4.3338 -3.0799 2.3875
4.4253 -2.9062 2.3875
4.5109 -2.7306 2.3875
4.5908 -2.5531 2.3875
4.6649 -2.3738 2.3875
4.7333 -2.1929 2.3875
4.7959 -2.0106 2.3875
4.8526 -1.8270 2.3875
4.9036 -1.6423 2.3875
4.9489 -1.4565 2.3875
4.9883 -1.2699 2.3875
5.0220 -1.0825 2.3875
5.0499 -0.8945 2.3875
5.0721 -0.7061 2.3875
5.0885 -0.5173 2.3875
5.0991 -0.3283 2.3875
5.1040 -0.1392 2.3875
5.1032 0.0498 2.3875
5.0966 0.2386 2.3875
5.0843 0.4272 2.3875
5.0663 0.6152 2.3875
5.0426 0.8028 2.3875
5.0132 0.9897 2.3875
4.9781 1.1757 2.3875
4.9373 1.3607 2.3875
4.8909 1.5447 2.3875
4.8388 1.7275 2.3875
4.7811 1.9090 2.3875
4.7177 2.0889 2.3875
4.6488 2.2672 2.3875
4.5742 2.4438 2.3875
4.4940 2.6185 2.3875
4.4083 2.7912 2.3875
4.3170 2.9617 2.3875
4.2202 3.1299 2.3875
4.1179 3.2956 2.3875
4.0102 3.4587 2.3875
3.8969 3.6190 2.3875
3.7783 3.7763 2.3875
3.6543 3.9306 2.3875
3.5250 4.0817 2.3875
3.3903 4.2293 2.3875
3.2504 4.3733 2.3875
3.1053 4.5136 2.3875
2.9550 4.6499 2.3875
2.7997 4.7822 2.3875
2.6393 4.9101 2.3875
2.4740 5.0336 2.3875
2.3038 5.1524 2.3875
2.1289 5.2664 2.3875
0.8315 2.2929 1.0184
0.7487 2.3240 1.0127
0.6648 2.3522 1.0069
0.5799 2.3773 1.0011
0.4943 2.3993 0.9951
0.4078 2.4183 0.9891
0.3207 2.4340 0.9830
0.2332 2.4466 0.9768
0.1452 2.4561 0.9706
0.0569 2.4623 0.9644
-0.0315 2.4654 0.9581
-0.1200 2.4652 0.9518
-0.2085 2.4618 0.9455
-0.2967 2.4553 0.9391
-0.3847 2.4455 0.9328
-0.4722 2.4326 0.9265
-0.5593 2.4165 0.9202
-0.6457 2.3973 0.9139
-0.7313 2.3749 0.9076
-0.8161 2.3495 0.9014
-0.8999 2.3210 0.8952
-2.6384 6.1476 2.3875
-2.8769 6.0964 2.3875
-3.1148 6.0361 2.3875
-3.3518 5.9665 2.3875
-3.5876 5.8875 2.3875
-3.8216 5.7992 2.3875
-4.0535 5.7014 2.3875
-4.2828 5.5941 2.3875
-4.5091 5.4774 2.3875
-4.7318 5.3513 2.3875
-4.9507 5.2157 2.3875
-5.1651 5.0709 2.3875
-5.3747 4.9169 2.3875
-5.5790 4.7538 2.3875
-5.7774 4.5817 2.3875
-5.9695 4.4009 2.3875
-6.1548 4.2116 2.3875
-6.3329 4.0140 2.3875
-6.5033 3.8084 2.3875
-6.6656 3.5950 2.3875
-6.8193 3.3743 2.3875
-6.9640 3.1465 2.3875
-0.4103 -5.9634 2.3875
-0.1957 -5.9302 2.3875
0.0163 -5.8897 2.3875
0.2253 -5.8422 2.3875
0.4312 -5.7878 2.3875
0.6338 -5.7267 2.3875
0.8328 -5.6591 2.3875
1.0282 -5.5852 2.3875
1.2197 -5.5053 2.3875
1.4072 -5.4195 2.3875
1.5905 -5.3280 2.3875
1.7695 -5.2311 2.3875
1.9442 -5.1288 2.3875
2.1143 -5.0216 2.3875
2.2797 -4.9094 2.3875
2.4404 -4.7926 2.3875
2.5963 -4.6713 2.3875
2.7473 -4.5457 2.3875
2.8933 -4.4161 2.3875
3.0343 -4.2825 2.3875
3.1701 -4.1452 2.3875
3.3008 -4.0043 2.3875
3.4263 -3.8601 2.3875
3.5465 -3.7127 2.3875
3.6615 -3.5623 2.3875
3.7711 -3.4090 2.3875
3.8753 -3.2531 2.3875
3.9742 -3.0946 2.3875
4.0676 -2.9338 2.3875
4.1556 -2.7708 2.3875
4.2382 -2.6057 2.3875
4.3153 -2.4387 2.3875
4.3870 -2.2700 2.3875
4.4531 -2.0997 2.3875
4.5138 -1.9279 2.3875
4.5689 -1.7548 2.3875
4.6186 -1.5806 2.3875
4.6627 -1.4053 2.3875
4.7014 -1.2291 2.3875
4.7345 -1.0521 2.3875
4.7622 -0.8745 2.3875
4.7843 -0.6965 2.3875
4.8009 -0.5180 2.3875
4.8121 -0.3393 2.3875
4.8177 -0.1605 2.3875
4.8179 0.0183 2.3875
4.8126 0.1970 2.3875
4.8019 0.3753 2.3875
4.7857 0.5533 2.3875
4.7640 0.7308 2.3875
4.7369 0.9076 2.3875
4.7043 1.0836 2.3875
4.6663 1.2587 2.3875
4.6230 1.4328 2.3875
4.5742 1.6057 2.3875
4.5200 1.7773 2.3875
4.4605 1.9475 2.3875
4.3956 2.1161 2.3875
4.3254 2.2830 2.3875
4.2499 2.4481 2.3875
4.1691 2.6112 2.3875
4.0831 2.7722 2.3875
3.9918 2.9310 2.3875
3.8952 3.0874 2.3875
3.7935 3.2412 2.3875
3.6867 3.3923 2.3875
3.5747 3.5406 2.3875
3.4577 3.6859 2.3875
3.3356 3.8280 2.3875
3.2085 3.9669 2.3875
3.0766 4.1023 2.3875
2.9397 4.2340 2.3875
2.7980 4.3620 2.3875
2.6515 4.4860 2.3875
2.5004 4.6059 2.3875
2.3447 4.7214 2.3875
2.1844 4.8325 2.3875
2.0197 4.9389 2.3875
0.7861 2.1411 1.0141
0.7088 2.1707 1.0088
0.6304 2.1975 1.0034
0.5511 2.2214 0.9979
0.4710 2.2425 0.9924
0.3902 2.2606 0.9867
0.3088 2.2759 0.9811
0.2269 2.2881 0.9753
0.1446 2.2974 0.9695
0.0620 2.3037 0.9637
-0.0208 2.3070 0.9578
-0.1036 2.3074 0.9519
-0.1864 2.3047 0.9460
-0.2690 2.2990 0.9400
-0.3514 2.2903 0.9341
-0.4334 2.2787 0.9282
-0.5150 2.2641 0.9223
-0.5959 2.2466 0.9164
-0.6762 2.2261 0.9105
-0.7557 2.2027 0.9047
-0.8343 2.1765 0.8989
-0.9119 2.1475 0.8932
-2.6587 5.6910 2.3875
-2.8793 5.6335 2.3875
-3.0990 5.5675 2.3875
-3.3174 5.4928 2.3875
-3.5340 5.4095 2.3875
-3.7485 5.3175 2.3875
-3.9605 5.2167 2.3875
-4.1696 5.1073 2.3875
-4.3754 4.9893 2.3875
-4.5775 4.8627 2.3875
-4.7753 4.7276 2.3875
-4.9685 4.5840 2.3875
-5.1568 4.4322 2.3875
-5.3396 4.2723 2.3875
-5.5166 4.1044 2.3875
-5.6873 3.9287 2.3875
-5.8513 3.7455 2.3875
-6.0083 3.5550 2.3875
-6.1577 3.3575 2.3875
-6.2992 3.1532 2.3875
-6.4325 2.9426 2.3875
-6.5572 2.7259 2.3875
-6.6729 2.5036 2.3875
-6.7794 2.2760 2.3875
-6.8763 2.0435 2.3875
-6.9633 1.8066 2.3875
-7.0402 1.5658 2.3875
-7.1068 1.3214 2.3875
-7.1628 1.0740 2.3875
-7.2081 0.8241 2.3875
-7.2425 0.5722 2.3875
-7.2660 0.3189 2.3875
-7.2784 0.0645 2.3875
-7.2798 -0.1902 2.3875
-7.2699 -0.4448 2.3875
-7.2490 -0.6987 2.3875
-7.2171 -0.9514 2.3875
-7.1741 -1.2024 2.3875
-7.1203 -1.4511 2.3875
-7.0557 -1.6970 2.3875
-6.9806 -1.9397 2.3875
-6.8952 -2.1786 2.3875
-6.7997 -2.4132 2.3875
-6.6942 -2.6431 2.3875
-6.5792 -2.8679 2.3875
-6.4550 -3.0871 2.3875
-6.3218 -3.3003 2.3875
-6.1801 -3.5071 2.3875
-6.0301 -3.7073 2.3875
-5.8722 -3.9004 2.3875
-5.7070 -4.0861 2.3875
-5.5347 -4.2643 2.3875
-5.3558 -4.4345 2.3875
-5.1707 -4.5967 2.3875
-4.9799 -4.7505 2.3875
-4.7838 -4.8959 2.3875
-4.5828 -5.0326 2.3875
-4.3774 -5.1607 2.3875
-4.1680 -5.2798 2.3875
-3.9550 -5.3901 2.3875
-3.7390 -5.4914 2.3875
-3.5202 -5.5837 2.3875
-3.2992 -5.6670 2.3875
-3.0763 -5.7413 2.3875
-2.8520 -5.8067 2.3875
-2.6267 -5.8632 2.3875
-2.4006 -5.9108 2.3875
-2.1743 -5.9497 2.3875
-1.9480 -5.9800 2.3875
-1.7222 -6.0017 2.3875
-1.4970 -6.0151 2.3875
-1.2730 -6.0202 2.3875
-1.0503 -6.0172 2.3875
-0.8292 -6.0062 2.3875
-0.6102 -5.9874 2.3875
-0.3933 -5.9611 2.3875
-0.1789 -5.9273 2.3875
0.0329 -5.8862 2.3875
0.2416 -5.8381 2.3875
0.4473 -5.7832 2.3875
0.6496 -5.7216 2.3875
0.8484 -5.6535 2.3875
1.0434 -5.5791 2.3875
1.2346 -5.4987 2.3875
1.4218 -5.4125 2.3875
1.6048 -5.3206 2.3875
1.7835 -5.2232 2.3875
1.9577 -5.1206 2.3875
2.1275 -5.0129 2.3875
2.2926 -4.9004 2.3875
2.4529 -4.7832 2.3875
2.6084 -4.6616 2.3875
2.7590 -4.5357 2.3875
2.9046 -4.4057 2.3875
3.0452 -4.2718 2.3875
3.1806 -4.1342 2.3875
3.3109 -3.9931 2.3875
3.4360 -3.8486 2.3875
3.5558 -3.7010 2.3875
3.6703 -3.5503 2.3875
3.7795 -3.3968 2.3875
3.8833 -3.2407 2.3875
3.9818 -3.0820 2.3875
4.0748 -2.9210 2.3875
4.1624 -2.7578 2.3875
4.2445 -2.5926 2.3875
4.3212 -2.4255 2.3875
4.3924 -2.2566 2.3875
4.4581 -2.0862 2.3875
4.5183 -1.9143 2.3875
4.5730 -1.7411 2.3875
4.6222 -1.5668 2.3875
4.6660 -1.3914 2.3875
4.7042 -1.2152 2.3875
4.7369 -1.0381 2.3875
4.7641 -0.8605 2.3875
4.7858 -0.6824 2.3875
4.8020 -0.5039 2.3875
4.8127 -0.3252 2.3875
4.8180 -0.1464 2.3875
4.8177 0.0324 2.3875
4.8120 0.2110 2.3875
4.8008 0.3894 2.3875
4.7841 0.5673 2.3875
4.7620 0.7447 2.3875
4.7345 0.9215 2.3875
4.7015 1.0974 2.3875
4.6631 1.2725 2.3875
4.6193 1.4465 2.3875
4.5701 1.6193 2.3875
4.5155 1.7908 2.3875
4.4556 1.9608 2.3875
4.3903 2.1293 2.3875
4.3197 2.2961 2.3875
4.2438 2.4610 2.3875
4.1625 2.6240 2.3875
4.0761 2.7848 2.3875
3.9843 2.9434 2.3875
3.8874 3.0996 2.3875
3.7853 3.2532 2.3875
3.6781 3.4041 2.3875
3.5657 3.5522 2.3875
3.4482 3.6972 2.3875
3.3258 3.8391 2.3875
3.1983 3.9777 2.3875
3.0659 4.1128 2.3875
2.9287 4.2443 2.3875
2.7866 4.3719 2.3875
2.6398 4.4956 2.3875
2.4883 4.6151 2.3875
2.3322 4.7303 2.3875
2.1716 4.8411 2.3875
2.0065 4.9471 2.3875
0.7800 2.1435 1.0137
0.7026 2.1729 1.0084
0.6242 2.1995 1.0030
0.5448 2.2232 0.9975
0.4647 2.2440 0.9919
0.3838 2.2620 0.9863
0.3024 2.2769 0.9806
0.2204 2.2890 0.9748
0.1381 2.2980 0.9690
0.0555 2.3041 0.9632
-0.0273 2.3072 0.9573
-0.1101 2.3073 0.9514
-0.1929 2.3043 0.9455
-0.2755 2.2984 0.9396
-0.3579 2.2895 0.9336
-0.4399 2.2777 0.9277
-0.5214 2.2628 0.9218
-0.6023 2.2450 0.9159
-0.6825 2.2244 0.9101
-0.7619 2.2008 0.9043
-0.8404 2.1743 0.8985
-0.9179 2.1451 0.8928
-2.6761 5.6868 2.3875
-2.8967 5.6286 2.3875
-3.1163 5.5619 2.3875
-3.3345 5.4866 2.3875
-3.5510 5.4025 2.3875
-3.7653 5.3098 2.3875
-3.9771 5.2084 2.3875
-4.1860 5.0984 2.3875
-4.3915 4.9796 2.3875
-4.5932 4.8523 2.3875
-4.7907 4.7166 2.3875
-4.9836 4.5724 2.3875
-5.1714 4.4199 2.3875
-5.3538 4.2593 2.3875
-5.5303 4.0908 2.3875
-5.7005 3.9145 2.3875
-5.8640 3.7307 2.3875
-6.0203 3.5397 2.3875
-6.1691 3.3416 2.3875
-6.3100 3.1369 2.3875
-6.4427 2.9258 2.3875
-6.5666 2.7086 2.3875
-6.6817 2.4858 2.3875
-6.7874 2.2578 2.3875
-6.8835 2.0250 2.3875
-6.9697 1.7878 2.3875
-7.0458 1.5466 2.3875
-7.1116 1.3020 2.3875
-7.1667 1.0544 2.3875
-7.2112 0.8043 2.3875
-7.2448 0.5523 2.3875
-7.2674 0.2988 2.3875
-7.2789 0.0445 2.3875
-7.2794 -0.2102 2.3875
-7.2687 -0.4648 2.3875
-7.2469 -0.7186 2.3875
-7.2141 -0.9713 2.3875
-7.1703 -1.2221 2.3875
-7.1156 -1.4706 2.3875
-7.0502 -1.7163 2.3875
-6.9743 -1.9587 2.3875
-6.8880 -2.1973 2.3875
-6.7917 -2.4315 2.3875
-6.6855 -2.6611 2.3875
-6.5698 -2.8854 2.3875
-6.4448 -3.1041 2.3875
-6.3110 -3.3168 2.3875
-6.1685 -3.5232 2.3875
-6.0179 -3.7228 2.3875
-5.8595 -3.9153 2.3875
-5.6937 -4.1004 2.3875
-5.5208 -4.2780 2.3875
-5.3414 -4.4476 2.3875
-5.1559 -4.6091 2.3875
-4.9646 -4.7623 2.3875
-4.7681 -4.9070 2.3875
-4.5667 -5.0431 2.3875
-4.3610 -5.1704 2.3875
-4.1513 -5.2888 2.3875
-3.9381 -5.3984 2.3875
-3.7218 -5.4990 2.3875
-3.5029 -5.5906 2.3875
-3.2817 -5.6732 2.3875
-3.0587 -5.7468 2.3875
-2.8343 -5.8115 2.3875
-2.6089 -5.8672 2.3875
-2.3828 -5.9142 2.3875
-2.1565 -5.9524 2.3875
-1.9302 -5.9820 2.3875
-1.7044 -6.0031 2.3875
-1.4793 -6.0158 2.3875
-1.2554 -6.0202 2.3875
-1.0328 -6.0166 2.3875
-0.8119 -6.0050 2.3875
-0.5930 -5.9856 2.3875
-0.3763 -5.9587 2.3875
-0.1621 -5.9243 2.3875
0.0494 -5.8827 2.3875
0.2580 -5.8341 2.3875
0.4634 -5.7786 2.3875
0.6654 -5.7164 2.3875
0.8639 -5.6478 2.3875
1.0587 -5.5730 2.3875
1.2495 -5.4921 2.3875
1.4364 -5.4054 2.3875
1.6190 -5.3131 2.3875
1.7974 -5.2153 2.3875
1.9713 -5.1123 2.3875
2.1407 -5.0042 2.3875
2.3054 -4.8913 2.3875
2.4653 -4.7738 2.3875
2.6205 -4.6518 2.3875
2.7707 -4.5255 2.3875
2.9159 -4.3952 2.3875
3.0560 -4.2611 2.3875
3.1911 -4.1232 2.3875
3.3210 -3.9818 2.3875
3.4456 -3.8371 2.3875
3.5650 -3.6892 2.3875
3.6791 -3.5383 2.3875
3.7879 -3.3846 2.3875
3.8913 -3.2283 2.3875
3.9893 -3.0694 2.3875
4.0819 -2.9082 2.3875
4.1690 -2.7449 2.3875
4.2507 -2.5795 2.3875
4.3270 -2.4122 2.3875
4.3978 -2.2432 2.3875
4.4630 -2.0727 2.3875
4.5228 -1.9007 2.3875
4.5771 -1.7274 2.3875
4.6259 -1.5530 2.3875
4.6692 -1.3775 2.3875
4.7070 -1.2012 2.3875
4.7392 -1.0242 2.3875
4.7660 -0.8465 2.3875
4.7873 -0.6683 2.3875
4.8031 -0.4898 2.3875
4.8133 -0.3111 2.3875
4.8181 -0.1323 2.3875
4.8175 0.0465 2.3875
4.8113 0.2251 2.3875
4.7997 0.4034 2.3875
4.7826 0.5813 2.3875
4.7601 0.7587 2.3875
4.7321 0.9354 2.3875
4.6987 1.1113 2.3875
4.6598 1.2862 2.3875
4.6156 1.4601 2.3875
4.5660 1.6328 2.3875
4.5110 1.8042 2.3875
4.4506 1.9742 2.3875
4.3849 2.1425 2.3875
4.3139 2.3092 2.3875
4.2375 2.4740 2.3875
4.1559 2.6368 2.3875
4.0690 2.7974 2.3875
3.9769 2.9558 2.3875
3.8795 3.1118 2.3875
3.7770 3.2652 2.3875
3.6694 3.4159 2.3875
3.5566 3.5637 2.3875
3.4388 3.7085 2.3875
3.3159 3.8502 2.3875
3.1881 3.9885 2.3875
3.0553 4.1233 2.3875
2.9176 4.2545 2.3875
2.7752 4.3818 2.3875
2.6280 4.5052 2.3875
2.4761 4.6244 2.3875
2.3197 4.7392 2.3875
2.1587 4.8496 2.3875
0.8504 2.1140 1.0185
0.7740 2.1459 1.0133
0.6965 2.1751 1.0080
0.6180 2.2015 1.0026
0.5385 2.2250 0.9971
0.4583 2.2456 0.9915
0.3774 2.2632 0.9859
0.2959 2.2780 0.9801
0.2139 2.2898 0.9744
0.1316 2.2986 0.9686
0.0490 2.3045 0.9627
-0.0338 2.3073 0.9569
-0.1166 2.3071 0.9510
-0.1994 2.3040 0.9450
-0.2820 2.2978 0.9391
-0.3644 2.2887 0.9332
-0.4463 2.2766 0.9273
-0.5278 2.2615 0.9213
-0.6086 2.2435 0.9155
-0.6888 2.2226 0.9096
-0.7681 2.1988 0.9038
-0.8466 2.1721 0.8980
-0.9240 2.1426 0.8923
-2.6935 5.6825 2.3875
-2.9141 5.6237 2.3875
-3.1336 5.5563 2.3875
-3.3517 5.4802 2.3875
-3.5680 5.3955 2.3875
-3.7821 5.3021 2.3875
-3.9937 5.2001 2.3875
-4.2023 5.0893 2.3875
-4.4075 4.9699 2.3875
-4.6089 4.8420 2.3875
-4.8061 4.7055 2.3875
-4.9986 4.5606 2.3875
-5.1860 4.4075 2.3875
-5.3680 4.2463 2.3875
-5.5440 4.0772 2.3875
-5.7136 3.9003 2.3875
-5.8765 3.7159 2.3875
-6.0323 3.5243 2.3875
-6.1805 3.3257 2.3875
-6.3208 3.1204 2.3875
-6.4528 2.9088 2.3875
-0.3955 -5.5946 2.3875
-0.1942 -5.5656 2.3875
0.0048 -5.5298 2.3875
0.2012 -5.4873 2.3875
0.3947 -5.4382 2.3875
0.5853 -5.3828 2.3875
0.7728 -5.3213 2.3875
0.9569 -5.2538 2.3875
1.1375 -5.1804 2.3875
1.3144 -5.1015 2.3875
1.4875 -5.0171 2.3875
1.6567 -4.9275 2.3875
1.8218 -4.8328 2.3875
1.9828 -4.7333 2.3875
2.1394 -4.6291 2.3875
2.2917 -4.5203 2.3875
2.4395 -4.4072 2.3875
2.5827 -4.2900 2.3875
2.7213 -4.1688 2.3875
2.8552 -4.0438 2.3875
2.9843 -3.9152 2.3875
3.1086 -3.7832 2.3875
3.2279 -3.6479 2.3875
3.3424 -3.5094 2.3875
3.4518 -3.3680 2.3875
3.5562 -3.2239 2.3875
3.6556 -3.0770 2.3875
3.7499 -2.9278 2.3875
3.8390 -2.7762 2.3875
3.9231 -2.6224 2.3875
4.0019 -2.4666 2.3875
4.0755 -2.3090 2.3875
4.1440 -2.1496 2.3875
4.2072 -1.9886 2.3875
4.2653 -1.8262 2.3875
4.3180 -1.6625 2.3875
4.3656 -1.4977 2.3875
4.4078 -1.3318 2.3875
4.4449 -1.1650 2.3875
4.4767 -0.9974 2.3875
4.5032 -0.8292 2.3875
4.5245 -0.6605 2.3875
4.5405 -0.4914 2.3875
4.5512 -0.3221 2.3875
4.5568 -0.1527 2.3875
4.5570 0.0168 2.3875
4.5521 0.1861 2.3875
4.5419 0.3551 2.3875
4.5265 0.5238 2.3875
4.5058 0.6920 2.3875
4.4800 0.8595 2.3875
4.4489 1.0263 2.3875
4.4127 1.1921 2.3875
4.3714 1.3570 2.3875
4.3249 1.5207 2.3875
4.2732 1.6832 2.3875
4.2164 1.8443 2.3875
4.1545 2.0038 2.3875
4.0876 2.1617 2.3875
4.0156 2.3178 2.3875
3.9385 2.4719 2.3875
3.8565 2.6240 2.3875
3.7694 2.7739 2.3875
3.6775 2.9214 2.3875
3.5806 3.0665 2.3875
3.4788 3.2089 2.3875
3.3722 3.3486 2.3875
3.2608 3.4854 2.3875
3.1447 3.6190 2.3875
3.0239 3.7495 2.3875
2.8984 3.8766 2.3875
2.7683 4.0002 2.3875
2.6337 4.1201 2.3875
2.4947 4.2362 2.3875
2.3513 4.3482 2.3875
2.2036 4.4561 2.3875
2.0517 4.5597 2.3875
0.8055 1.9795 1.0144
0.7339 2.0099 1.0095
0.6613 2.0377 1.0045
0.5877 2.0628 0.9995
0.5133 2.0853 0.9943
0.4381 2.1050 0.9891
0.3622 2.1221 0.9838
0.2858 2.1363 0.9785
0.2089 2.1478 0.9731
0.1316 2.1566 0.9676
0.0541 2.1625 0.9621
-0.0236 2.1656 0.9566
-0.1014 2.1659 0.9511
-0.1791 2.1633 0.9455
-0.2567 2.1580 0.9400
-0.3340 2.1499 0.9344
-0.4110 2.1389 0.9288
-0.4876 2.1252 0.9233
-0.5636 2.1088 0.9178
-0.6389 2.0896 0.9123
-0.7135 2.0676 0.9068
-0.7873 2.0430 0.9014
-0.8602 2.0158 0.8960
-0.9320 1.9859 0.8907
-2.7036 5.2673 2.3875
-2.9079 5.2034 2.3875
-3.1108 5.1315 2.3875
-3.3120 5.0516 2.3875
-3.5110 4.9637 2.3875
-3.7075 4.8677 2.3875
-3.9012 4.7638 2.3875
-4.0916 4.6519 2.3875
-4.2785 4.5321 2.3875
-4.4613 4.4044 2.3875
-4.6398 4.2691 2.3875
-4.8135 4.1263 2.3875
-4.9820 3.9759 2.3875
-5.1451 3.8183 2.3875
-5.3022 3.6537 2.3875
-5.4531 3.4822 2.3875
-5.5974 3.3040 2.3875
-5.7347 3.1195 2.3875
-5.8646 2.9288 2.3875
-5.9869 2.7324 2.3875
-6.1013 2.5305 2.3875
-6.2073 2.3235 2.3875
-6.3048 2.1118 2.3875
-6.3935 1.8956 2.3875
-6.4731 1.6754 2.3875
-6.5434 1.4517 2.3875
-6.6042 1.2248 2.3875
-6.6553 0.9952 2.3875
-6.6966 0.7634 2.3875
-6.7280 0.5298 2.3875
-6.7493 0.2948 2.3875
-6.7604 0.0590 2.3875
-6.7615 -0.1771 2.3875
-6.7523 -0.4131 2.3875
-6.7329 -0.6485 2.3875
-6.7035 -0.8828 2.3875
-6.6640 -1.1156 2.3875
-6.6145 -1.3463 2.3875
-6.5552 -1.5745 2.3875
-6.4863 -1.7997 2.3875
-6.4078 -2.0215 2.3875
-6.3201 -2.2394 2.3875
-6.2233 -2.4531 2.3875
-6.1177 -2.6621 2.3875
-6.0035 -2.8661 2.3875
-5.8811 -3.0646 2.3875
-5.7508 -3.2574 2.3875
-5.6129 -3.4441 2.3875
-5.4677 -3.6243 2.3875
-5.3156 -3.7980 2.3875
-5.1569 -3.9647 2.3875
-4.9921 -4.1242 2.3875
-4.8215 -4.2763 2.3875
-4.6454 -4.4208 2.3875
-4.4644 -4.5576 2.3875
-4.2787 -4.6865 2.3875
-4.0889 -4.8074 2.3875
-3.8952 -4.9202 2.3875
-3.6981 -5.0248 2.3875
-3.4979 -5.1212 2.3875
-3.2952 -5.2092 2.3875
-3.0902 -5.2890 2.3875
-2.8833 -5.3605 2.3875
-2.6749 -5.4236 2.3875
-2.4653 -5.4786 2.3875
-2.2550 -5.5253 2.3875
-2.0442 -5.5640 2.3875
-1.8333 -5.5945 2.3875
-1.6226 -5.6172 2.3875
-1.4124 -5.6319 2.3875
-1.2031 -5.6390 2.3875
-0.9949 -5.6384 2.3875
-0.7880 -5.6304 2.3875
-0.5828 -5.6151 2.3875
-0.3795 -5.5926 2.3875
-0.1784 -5.5631 2.3875
0.0204 -5.5267 2.3875
0.2165 -5.4836 2.3875
0.4099 -5.4341 2.3875
0.6003 -5.3782 2.3875
0.7874 -5.3162 2.3875
0.9712 -5.2482 2.3875
1.1515 -5.1744 2.3875
1.3282 -5.0950 2.3875
1.5010 -5.0102 2.3875
1.6699 -4.9202 2.3875
1.8347 -4.8252 2.3875
1.9953 -4.7252 2.3875
2.1516 -4.6206 2.3875
2.3035 -4.5115 2.3875
2.4510 -4.3981 2.3875
2.5938 -4.2806 2.3875
2.7321 -4.1591 2.3875
2.8656 -4.0338 2.3875
2.9943 -3.9050 2.3875
3.1182 -3.7726 2.3875
3.2371 -3.6371 2.3875
3.3512 -3.4984 2.3875
3.4602 -3.3568 2.3875
3.5643 -3.2124 2.3875
3.6632 -3.0654 2.3875
3.7571 -2.9159 2.3875
3.8459 -2.7641 2.3875
3.9295 -2.6102 2.3875
4.0079 -2.4542 2.3875
4.0811 -2.2965 2.3875
4.1492 -2.1370 2.3875
4.2120 -1.9759 2.3875
4.2696 -1.8134 2.3875
4.3220 -1.6496 2.3875
4.3691 -1.4846 2.3875
4.4110 -1.3186 2.3875
4.4476 -1.1518 2.3875
4.4790 -0.9842 2.3875
4.5051 -0.8159 2.3875
4.5259 -0.6472 2.3875
4.5415 -0.4781 2.3875
4.5519 -0.3088 2.3875
4.5570 -0.1393 2.3875
4.5568 0.0301 2.3875
4.5514 0.1994 2.3875
4.5408 0.3685 2.3875
4.5250 0.5371 2.3875
4.5040 0.7052 2.3875
4.4777 0.8727 2.3875
4.4463 1.0394 2.3875
4.4097 1.2052 2.3875
4.3679 1.3700 2.3875
4.3210 1.5336 2.3875
4.2689 1.6960 2.3875
4.2117 1.8569 2.3875
4.1494 2.0163 2.3875
4.0821 2.1740 2.3875
4.0097 2.3300 2.3875
3.9322 2.4840 2.3875
3.8498 2.6359 2.3875
3.7624 2.7856 2.3875
3.6700 2.9330 2.3875
3.5727 3.0778 2.3875
3.4706 3.2200 2.3875
3.3636 3.3595 2.3875
3.2518 3.4960 2.3875
3.1353 3.6294 2.3875
3.0141 3.7597 2.3875
2.8883 3.8865 2.3875
2.7579 4.0098 2.3875
2.6229 4.1294 2.3875
2.4836 4.2451 2.3875
2.3398 4.3569 2.3875
2.1918 4.4645 2.3875
2.0396 4.5677 2.3875
0.7999 1.9820 1.0140
0.7282 2.0122 1.0091
0.6555 2.0397 1.0042
0.5819 2.0647 0.9991
0.5074 2.0869 0.9939
0.4321 2.1065 0.9887
0.3562 2.1233 0.9834
0.2797 2.1373 0.9780
0.2028 2.1486 0.9726
0.1255 2.1571 0.9672
0.0480 2.1628 0.9617
-0.0297 2.1657 0.9562
-0.1075 2.1658 0.9506
-0.1852 2.1630 0.9451
-0.2628 2.1575 0.9395
-0.3401 2.1491 0.9340
-0.4171 2.1380 0.9284
-0.4936 2.1240 0.9229
-0.5695 2.1074 0.9173
-0.6448 2.0879 0.9118
-0.7194 2.0658 0.9064
-0.7931 2.0410 0.9009
-0.8659 2.0135 0.8956
-0.9376 1.9834 0.8903
-2.7198 5.2625 2.3875
-2.9240 5.1980 2.3875
-3.1268 5.1255 2.3875
-3.3278 5.0450 2.3875
-3.5266 4.9564 2.3875
-3.7229 4.8598 2.3875
-3.9164 4.7552 2.3875
-4.1065 4.6427 2.3875
-4.2930 4.5223 2.3875
-4.4755 4.3941 2.3875
-4.6537 4.2581 2.3875
-4.8270 4.1147 2.3875
-4.9951 3.9638 2.3875
-5.1577 3.8056 2.3875
-5.3144 3.6404 2.3875
-5.4647 3.4683 2.3875
-5.6085 3.2897 2.3875
-5.7452 3.1047 2.3875
-5.8746 2.9136 2.3875
-5.9962 2.7167 2.3875
-6.1099 2.5144 2.3875
-6.2153 2.3070 2.3875
-6.3121 2.0949 2.3875
-6.4001 1.8784 2.3875
-6.4790 1.6579 2.3875
-6.5485 1.4339 2.3875
-6.6086 1.2068 2.3875
-6.6589 0.9770 2.3875
-6.6995 0.7450 2.3875
-6.7300 0.5113 2.3875
-6.7505 0.2763 2.3875
-6.7609 0.0404 2.3875
-6.7611 -0.1957 2.3875
-6.7511 -0.4317 2.3875
-6.7310 -0.6671 2.3875
-6.7007 -0.9013 2.3875
-6.6604 -1.1339 2.3875
-6.6102 -1.3644 2.3875
-6.5501 -1.5924 2.3875
-6.4804 -1.8173 2.3875
-6.4012 -2.0388 2.3875
-6.3128 -2.2564 2.3875
-6.2153 -2.4698 2.3875
-6.1090 -2.6784 2.3875
-5.9942 -2.8819 2.3875
-5.8712 -3.0800 2.3875
-5.7402 -3.2723 2.3875
-5.6017 -3.4585 2.3875
-5.4559 -3.6383 2.3875
-5.3033 -3.8114 2.3875
-5.1441 -3.9775 2.3875
-4.9788 -4.1364 2.3875
-4.8078 -4.2880 2.3875
-4.6313 -4.4319 2.3875
-4.4499 -4.5681 2.3875
-4.2639 -4.6964 2.3875
-4.0737 -4.8166 2.3875
-3.8798 -4.9288 2.3875
-3.6824 -5.0327 2.3875
-3.4821 -5.1284 2.3875
-3.2791 -5.2158 2.3875
-3.0739 -5.2949 2.3875
-2.8669 -5.3657 2.3875
-2.6584 -5.4283 2.3875
-2.4488 -5.4826 2.3875
-2.2384 -5.5287 2.3875
-2.0276 -5.5667 2.3875
-1.8167 -5.5966 2.3875
-1.6060 -5.6186 2.3875
-1.3959 -5.6328 2.3875
-1.1866 -5.6392 2.3875
-0.9785 -5.6381 2.3875
-0.7718 -5.6295 2.3875
-0.5667 -5.6136 2.3875
-0.3636 -5.5905 2.3875
-0.1626 -5.5604 2.3875
0.0359 -5.5235 2.3875
0.2319 -5.4800 2.3875
0.4250 -5.4299 2.3875
0.6151 -5.3735 2.3875
0.8020 -5.3110 2.3875
0.9856 -5.2426 2.3875
1.1656 -5.1684 2.3875
1.3420 -5.0885 2.3875
1.5145 -5.0033 2.3875
1.6830 -4.9129 2.3875
1.8475 -4.8175 2.3875
2.0078 -4.7172 2.3875
2.1637 -4.6122 2.3875
2.3153 -4.5028 2.3875
2.4624 -4.3890 2.3875
2.6049 -4.2712 2.3875
2.7427 -4.1494 2.3875
2.8759 -4.0238 2.3875
3.0042 -3.8946 2.3875
3.1277 -3.7621 2.3875
3.2463 -3.6262 2.3875
3.3600 -3.4873 2.3875
3.4686 -3.3455 2.3875
3.5723 -3.2009 2.3875
3.6708 -3.0537 2.3875
3.7643 -2.9040 2.3875
3.8526 -2.7521 2.3875
3.9358 -2.5980 2.3875
4.0139 -2.4419 2.3875
4.0867 -2.2840 2.3875
4.1543 -2.1243 2.3875
4.2168 -1.9631 2.3875
4.2739 -1.8005 2.3875
4.3259 -1.6366 2.3875
4.3726 -1.4716 2.3875
4.4140 -1.3055 2.3875
4.4503 -1.1386 2.3875
4.4812 -0.9709 2.3875
4.5069 -0.8026 2.3875
4.5273 -0.6339 2.3875
4.5425 -0.4647 2.3875
4.5525 -0.2954 2.3875
4.5571 -0.1259 2.3875
4.5566 0.0435 2.3875
4.5508 0.2128 2.3875
4.5398 0.3818 2.3875
4.5235 0.5504 2.3875
4.5021 0.7184 2.3875
4.4754 0.8859 2.3875
4.4436 1.0525 2.3875
4.4066 1.2182 2.3875
4.3644 1.3829 2.3875
4.3170 1.5465 2.3875
4.2646 1.7087 2.3875
4.2070 1.8695 2.3875
4.1443 2.0288 2.3875
4.0766 2.1864 2.3875
4.0038 2.3422 2.3875
3.9259 2.4960 2.3875
3.8431 2.6478 2.3875
3.7553 2.7973 2.3875
3.6625 2.9445 2.3875
3.5648 3.0891 2.3875
3.4623 3.2312 2.3875
3.3550 3.3704 2.3875
3.2428 3.5066 2.3875
3.1259 3.6398 2.3875
3.0044 3.7698 2.3875
2.8782 3.8963 2.3875
2.7474 4.0194 2.3875
2.6121 4.1387 2.3875
2.4724 4.2541 2.3875
2.3283 4.3655 2.3875
2.1799 4.4728 2.3875
2.0274 4.5756 2.3875
0.7942 1.9845 1.0137
0.7225 2.0144 1.0088
0.6497 2.0418 1.0038
0.5760 2.0665 0.9987
0.5015 2.0886 0.9935
0.4262 2.1079 0.9883
0.3502 2.1245 0.9830
0.2737 2.1383 0.9776
0.1967 2.1494 0.9722
0.1194 2.1577 0.9668
0.0418 2.1631 0.9613
-0.0359 2.1658 0.9557
-0.1136 2.1657 0.9502
-0.1913 2.1627 0.9446
-0.2689 2.1569 0.9391
-0.3462 2.1483 0.9335
-0.4231 2.1370 0.9280
-0.4996 2.1228 0.9224
-0.5755 2.1059 0.9169
-0.6507 2.0863 0.9114
-0.7252 2.0639 0.9059
-0.7989 2.0389 0.9005
-0.8716 2.0112 0.8952
-0.9432 1.9809 0.8898
-2.7359 5.2577 2.3875
-2.9400 5.1926 2.3875
-3.1428 5.1194 2.3875
-3.3435 5.0383 2.3875
-3.5422 4.9491 2.3875
-3.7383 4.8518 2.3875
-3.9315 4.7466 2.3875
-4.1214 4.6335 2.3875
-4.3076 4.5125 2.3875
-4.4897 4.3836 2.3875
-4.6675 4.2471 2.3875
-4.8404 4.1030 2.3875
-5.0081 3.9515 2.3875
-5.1703 3.7928 2.3875
-5.3265 3.6271 2.3875
-5.4763 3.4545 2.3875
-5.6195 3.2753 2.3875
-5.7557 3.0898 2.3875
-5.8844 2.8982 2.3875
-6.0055 2.7009 2.3875
-0.3821 -5.2627 2.3875
-0.1928 -5.2373 2.3875
-0.0055 -5.2055 2.3875
0.1794 -5.1672 2.3875
0.3619 -5.1228 2.3875
0.5416 -5.0724 2.3875
0.7185 -5.0160 2.3875
0.8924 -4.9540 2.3875
1.0630 -4.8865 2.3875
1.2304 -4.8135 2.3875
1.3942 -4.7354 2.3875
1.5544 -4.6523 2.3875
1.7108 -4.5643 2.3875
1.8634 -4.4716 2.3875
2.0120 -4.3744 2.3875
2.1565 -4.2728 2.3875
2.2969 -4.1671 2.3875
2.4330 -4.0573 2.3875
2.5647 -3.9437 2.3875
2.6921 -3.8265 2.3875
2.8149 -3.7057 2.3875
2.9333 -3.5816 2.3875
3.0470 -3.4542 2.3875
3.1560 -3.3239 2.3875
3.2604 -3.1907 2.3875
3.3600 -3.0547 2.3875
3.4548 -2.9162 2.3875
3.5448 -2.7752 2.3875
3.6300 -2.6320 2.3875
3.7103 -2.4867 2.3875
3.7856 -2.3394 2.3875
3.8561 -2.1902 2.3875
3.9215 -2.0393 2.3875
3.9821 -1.8869 2.3875
4.0376 -1.7331 2.3875
4.0881 -1.5780 2.3875
4.1337 -1.4217 2.3875
4.1742 -1.2644 2.3875
4.2097 -1.1062 2.3875
4.2402 -0.9472 2.3875
4.2657 -0.7876 2.3875
4.2861 -0.6275 2.3875
4.3015 -0.4671 2.3875
4.3119 -0.3064 2.3875
4.3173 -0.1455 2.3875
4.3176 0.0154 2.3875
4.3130 0.1761 2.3875
4.3033 0.3366 2.3875
4.2886 0.4967 2.3875
4.2690 0.6564 2.3875
4.2443 0.8154 2.3875
4.2147 0.9737 2.3875
4.1801 1.1311 2.3875
4.1406 1.2875 2.3875
4.0962 1.4428 2.3875
4.0468 1.5969 2.3875
3.9926 1.7496 2.3875
3.9335 1.9009 2.3875
3.8696 2.0505 2.3875
3.8008 2.1983 2.3875
3.7273 2.3443 2.3875
3.6489 2.4882 2.3875
3.5659 2.6300 2.3875
3.4781 2.7696 2.3875
3.3857 2.9067 2.3875
3.2887 3.0412 2.3875
3.1871 3.1731 2.3875
3.0809 3.3021 2.3875
2.9703 3.4281 2.3875
2.8552 3.5510 2.3875
2.7357 3.6706 2.3875
2.6120 3.7868 2.3875
2.4840 3.8995 2.3875
2.3518 4.0084 2.3875
2.2155 4.1135 2.3875
2.0752 4.2145 2.3875
0.8205 1.8320 1.0145
0.7542 1.8630 1.0100
0.6869 1.8916 1.0054
0.6185 1.9178 1.0007
0.5493 1.9414 0.9959
0.4792 1.9625 0.9911
0.4084 1.9811 0.9861
0.3370 1.9972 0.9812
0.2651 2.0106 0.9761
0.1927 2.0214 0.9710
0.1199 2.0296 0.9659
0.0470 2.0352 0.9608
-0.0262 2.0381 0.9556
-0.0994 2.0384 0.9504
-0.1725 2.0360 0.9451
-0.2455 2.0310 0.9399
-0.3183 2.0233 0.9347
-0.3908 2.0130 0.9294
-0.4629 2.0001 0.9242
-0.5344 1.9846 0.9190
-0.6053 1.9665 0.9138
-0.6756 1.9459 0.9087
-0.7450 1.9227 0.9036
-0.8136 1.8971 0.8985
-0.8812 1.8689 0.8935
-0.9477 1.8384 0.8886
-2.7371 4.8779 2.3875
-2.9264 4.8088 2.3875
-3.1138 4.7322 2.3875
-3.2992 4.6482 2.3875
-3.4821 4.5567 2.3875
-3.6621 4.4578 2.3875
-3.8392 4.3516 2.3875
-4.0127 4.2381 2.3875
-4.1824 4.1174 2.3875
-4.3479 3.9895 2.3875
-4.5088 3.8548 2.3875
-4.6650 3.7131 2.3875
-4.8159 3.5649 2.3875
-4.9612 3.4101 2.3875
-5.1007 3.2491 2.3875
-5.2340 3.0820 2.3875
-5.3607 2.9091 2.3875
-5.4806 2.7306 2.3875
-5.5934 2.5468 2.3875
-5.6988 2.3581 2.3875
-5.7965 2.1647 2.3875
-5.8863 1.9669 2.3875
-5.9679 1.7652 2.3875
-6.0411 1.5598 2.3875
-6.1057 1.3512 2.3875
-6.1615 1.1398 2.3875
-6.2084 0.9259 2.3875
-6.2463 0.7100 2.3875
-6.2750 0.4924 2.3875
-6.2944 0.2737 2.3875
-6.3046 0.0542 2.3875
-6.3053 -0.1656 2.3875
-6.2967 -0.3853 2.3875
-6.2788 -0.6044 2.3875
-6.2515 -0.8225 2.3875
-6.2150 -1.0392 2.3875
-6.1693 -1.2540 2.3875
-6.1146 -1.4666 2.3875
-6.0509 -1.6764 2.3875
-5.9785 -1.8831 2.3875
-5.8976 -2.0863 2.3875
-5.8082 -2.2856 2.3875
-5.7108 -2.4807 2.3875
-5.6054 -2.6712 2.3875
-5.4923 -2.8567 2.3875
-5.3720 -3.0370 2.3875
-5.2445 -3.2117 2.3875
-5.1103 -3.3805 2.3875
-4.9696 -3.5433 2.3875
-4.8228 -3.6997 2.3875
-4.6702 -3.8496 2.3875
-4.5122 -3.9926 2.3875
-4.3491 -4.1287 2.3875
-4.1812 -4.2577 2.3875
-4.0090 -4.3795 2.3875
-3.8327 -4.4939 2.3875
-3.6529 -4.6008 2.3875
-3.4697 -4.7001 2.3875
-3.2835 -4.7918 2.3875
-3.0948 -4.8759 2.3875
-2.9039 -4.9522 2.3875
-2.7111 -5.0209 2.3875
-2.5168 -5.0819 2.3875
-2.3212 -5.1352 2.3875
-2.1248 -5.1809 2.3875
-1.9278 -5.2189 2.3875
-1.7306 -5.2495 2.3875
-1.5334 -5.2727 2.3875
-1.3366 -5.2885 2.3875
-1.1404 -5.2970 2.3875
-0.9451 -5.2984 2.3875
-0.7509 -5.2928 2.3875
-0.5582 -5.2803 2.3875
-0.3671 -5.2610 2.3875
-0.1780 -5.2351 2.3875
0.0091 -5.2027 2.3875
0.1939 -5.1639 2.3875
0.3761 -5.1190 2.3875
0.5557 -5.0681 2.3875
0.7323 -5.0114 2.3875
0.9059 -4.9489 2.3875
1.0764 -4.8809 2.3875
1.2434 -4.8076 2.3875
1.4069 -4.7290 2.3875
1.5668 -4.6455 2.3875
1.7230 -4.5571 2.3875
1.8752 -4.4641 2.3875
2.0235 -4.3665 2.3875
2.1677 -4.2646 2.3875
2.3078 -4.1585 2.3875
2.4435 -4.0485 2.3875
2.5749 -3.9346 2.3875
2.7019 -3.8171 2.3875
2.8244 -3.6960 2.3875
2.9424 -3.5716 2.3875
3.0557 -3.4441 2.3875
3.1644 -3.3135 2.3875
3.2684 -3.1800 2.3875
3.3677 -3.0439 2.3875
3.4621 -2.9051 2.3875
3.5517 -2.7640 2.3875
3.6365 -2.6206 2.3875
3.7164 -2.4751 2.3875
3.7914 -2.3277 2.3875
3.8614 -2.1784 2.3875
3.9265 -2.0274 2.3875
3.9866 -1.8748 2.3875
4.0418 -1.7209 2.3875
4.0919 -1.5657 2.3875
4.1370 -1.4093 2.3875
4.1772 -1.2519 2.3875
4.2123 -1.0937 2.3875
4.2424 -0.9347 2.3875
4.2675 -0.7750 2.3875
4.2875 -0.6149 2.3875
4.3025 -0.4544 2.3875
4.3125 -0.2937 2.3875
4.3175 -0.1328 2.3875
4.3174 0.0280 2.3875
4.3124 0.1888 2.3875
4.3023 0.3492 2.3875
4.2872 0.5093 2.3875
4.2672 0.6689 2.3875
4.2422 0.8279 2.3875
4.2122 0.9861 2.3875
4.1772 1.1435 2.3875
4.1373 1.2998 2.3875
4.0925 1.4550 2.3875
4.0428 1.6090 2.3875
3.9881 1.7616 2.3875
3.9287 1.9127 2.3875
3.8644 2.0622 2.3875
3.7952 2.2099 2.3875
3.7213 2.3557 2.3875
3.6426 2.4995 2.3875
3.5592 2.6411 2.3875
3.4710 2.7805 2.3875
3.3782 2.9174 2.3875
3.2808 3.0517 2.3875
3.1789 3.1833 2.3875
3.0723 3.3121 2.3875
2.9613 3.4379 2.3875
2.8459 3.5606 2.3875
2.7261 3.6799 2.3875
2.6020 3.7959 2.3875
2.4737 3.9082 2.3875
2.3412 4.0169 2.3875
2.2046 4.1216 2.3875
2.0640 4.2223 2.3875
0.8153 1.8346 1.0141
0.7489 1.8654 1.0096
0.6815 1.8938 1.0050
0.6131 1.9197 1.0003
0.5438 1.9432 0.9955
0.4736 1.9641 0.9907
0.4028 1.9825 0.9858
0.3313 1.9983 0.9808
0.2594 2.0115 0.9757
0.1869 2.0222 0.9706
0.1142 2.0301 0.9655
0.0412 2.0355 0.9604
-0.0319 2.0382 0.9552
-0.1051 2.0383 0.9499
-0.1783 2.0357 0.9447
-0.2513 2.0305 0.9395
-0.3241 2.0226 0.9342
-0.3965 2.0121 0.9290
-0.4685 1.9990 0.9238
-0.5400 1.9833 0.9186
-0.6109 1.9650 0.9134
-0.6811 1.9442 0.9083
-0.7505 1.9208 0.9032
-0.8190 1.8949 0.8981
-0.8865 1.8666 0.8931
-0.9529 1.8359 0.8882
-2.7521 4.8728 2.3875
-2.9412 4.8030 2.3875
-3.1286 4.7259 2.3875
-3.3137 4.6412 2.3875
-3.4964 4.5492 2.3875
-3.6763 4.4497 2.3875
-3.8530 4.3429 2.3875
-4.0262 4.2288 2.3875
-4.1955 4.1075 2.3875
-4.3607 3.9792 2.3875
-4.5213 3.8438 2.3875
-4.6771 3.7017 2.3875
-4.8275 3.5529 2.3875
-4.9724 3.3976 2.3875
-5.1114 3.2361 2.3875
-5.2442 3.0685 2.3875
-5.3704 2.8952 2.3875
-5.4898 2.7163 2.3875
-5.6020 2.5321 2.3875
-5.7068 2.3430 2.3875
-5.8039 2.1492 2.3875
-5.8930 1.9511 2.3875
-5.9739 1.7491 2.3875
-6.0465 1.5435 2.3875
-6.1104 1.3347 2.3875
-6.1655 1.1230 2.3875
-6.2117 0.9089 2.3875
-6.2489 0.6929 2.3875
-6.2769 0.4752 2.3875
-6.2956 0.2564 2.3875
-6.3050 0.0369 2.3875
-6.3050 -0.1829 2.3875
-6.2957 -0.4026 2.3875
-6.2770 -0.6216 2.3875
-6.2490 -0.8397 2.3875
-6.2117 -1.0562 2.3875
-6.1653 -1.2709 2.3875
-6.1099 -1.4832 2.3875
-6.0455 -1.6928 2.3875
-5.9725 -1.8993 2.3875
-5.8908 -2.1022 2.3875
-5.8008 -2.3012 2.3875
-5.7027 -2.4959 2.3875
-5.5967 -2.6860 2.3875
-5.4831 -2.8711 2.3875
-5.3622 -3.0509 2.3875
-5.2341 -3.2252 2.3875
-5.0994 -3.3936 2.3875
-4.9582 -3.5559 2.3875
-4.8110 -3.7118 2.3875
-4.6579 -3.8611 2.3875
-4.4995 -4.0036 2.3875
-4.3360 -4.1392 2.3875
-4.1678 -4.2676 2.3875
-3.9952 -4.3888 2.3875
-3.8187 -4.5026 2.3875
-3.6385 -4.6089 2.3875
-3.4551 -4.7076 2.3875
-3.2688 -4.7987 2.3875
-3.0799 -4.8822 2.3875
-2.8888 -4.9579 2.3875
-2.6958 -5.0260 2.3875
-2.5014 -5.0864 2.3875
-2.3058 -5.1391 2.3875
-2.1093 -5.1841 2.3875
-1.9123 -5.2216 2.3875
-1.7150 -5.2516 2.3875
-1.5179 -5.2742 2.3875
-1.3211 -5.2894 2.3875
-1.1249 -5.2974 2.3875
-0.9297 -5.2982 2.3875
-0.7357 -5.2920 2.3875
-0.5431 -5.2790 2.3875
-0.3522 -5.2592 2.3875
-0.1631 -5.2327 2.3875
0.0238 -5.1998 2.3875
0.2083 -5.1606 2.3875
0.3904 -5.1152 2.3875
0.5697 -5.0639 2.3875
0.7461 -5.0066 2.3875
0.9195 -4.9437 2.3875
1.0897 -4.8753 2.3875
1.2564 -4.8016 2.3875
1.4197 -4.7226 2.3875
1.5793 -4.6387 2.3875
1.7351 -4.5499 2.3875
1.8871 -4.4565 2.3875
2.0350 -4.3586 2.3875
2.1789 -4.2564 2.3875
2.3186 -4.1500 2.3875
2.4540 -4.0396 2.3875
2.5851 -3.9255 2.3875
2.7117 -3.8076 2.3875
2.8339 -3.6863 2.3875
2.9515 -3.5617 2.3875
3.0645 -3.4339 2.3875
3.1728 -3.3031 2.3875
3.2764 -3.1694 2.3875
3.3753 -3.0330 2.3875
3.4694 -2.8941 2.3875
3.5586 -2.7528 2.3875
3.6430 -2.6092 2.3875
3.7225 -2.4636 2.3875
3.7971 -2.3159 2.3875
3.8667 -2.1665 2.3875
3.9314 -2.0154 2.3875
3.9912 -1.8628 2.3875
4.0459 -1.7087 2.3875
4.0956 -1.5534 2.3875
4.1404 -1.3969 2.3875
4.1801 -1.2395 2.3875
4.2149 -1.0812 2.3875
4.2446 -0.9221 2.3875
4.2692 -0.7624 2.3875
4.2889 -0.6023 2.3875
4.3035 -0.4417 2.3875
4.3131 -0.2810 2.3875
4.3177 -0.1201 2.3875
4.3172 0.0407 2.3875
4.3118 0.2014 2.3875
4.3013 0.3619 2.3875
4.2859 0.5219 2.3875
4.2654 0.6815 2.3875
4.2400 0.8404 2.3875
4.2096 0.9986 2.3875
4.1742 1.1558 2.3875
4.1339 1.3121 2.3875
4.0887 1.4672 2.3875
4.0386 1.6211 2.3875
3.9836 1.7736 2.3875
3.9238 1.9246 2.3875
3.8591 2.0739 2.3875
3.7895 2.2215 2.3875
3.7152 2.3671 2.3875
3.6362 2.5107 2.3875
3.5524 2.6522 2.3875
3.4639 2.7914 2.3875
3.3707 2.9281 2.3875
3.2730 3.0622 2.3875
3.1706 3.1936 2.3875
3.0637 3.3221 2.3875
2.9524 3.4477 2.3875
2.8366 3.5701 2.3875
2.7165 3.6892 2.3875
2.5921 3.8049 2.3875
2.4634 3.9169 2.3875
2.3306 4.0253 2.3875
2.1936 4.1297 2.3875
2.0527 4.2301 2.3875
0.8101 1.8371 1.0138
0.7437 1.8677 1.0093
0.6761 1.8959 1.0046
0.6076 1.9217 0.9999
0.5383 1.9449 0.9952
0.4681 1.9656 0.9903
0.3972 1.9838 0.9854
0.3257 1.9995 0.9804
0.2537 2.0125 0.9753
0.1812 2.0229 0.9702
0.1084 2.0307 0.9651
0.0354 2.0358 0.9599
-0.0377 2.0383 0.9547
-0.1109 2.0382 0.9495
-0.1840 2.0354 0.9443
-0.2570 2.0299 0.9391
-0.3298 2.0219 0.9338
-0.4022 2.0112 0.9286
-0.4742 1.9978 0.9234
-0.5456 1.9819 0.9182
-0.6165 1.9634 0.9130
-0.6866 1.9424 0.9079
-0.7559 1.9188 0.9028
-0.8243 1.8928 0.8977
-0.8917 1.8643 0.8927
-0.9581 1.8334 0.8878
-2.7671 4.8675 2.3875
-2.9561 4.7972 2.3875
-3.1432 4.7195 2.3875
-3.3282 4.6342 2.3875
-3.5107 4.5416 2.3875
-3.6903 4.4415 2.3875
-3.8668 4.3342 2.3875
-4.0397 4.2195 2.3875
-4.2087 4.0977 2.3875
-4.3736 3.9687 2.3875
-4.5338 3.8329 2.3875
-4.6891 3.6902 2.3875
-4.8392 3.5409 2.3875
-4.9836 3.3851 2.3875
-5.1221 3.2231 2.3875
-5.2544 3.0551 2.3875
-5.3801 2.8813 2.3875
-5.4989 2.7019 2.3875
-5.6105 2.5174 2.3875
-0.3701 -4.9623 2.3875
-0.1916 -4.9399 2.3875
-0.0149 -4.9114 2.3875
0.1597 -4.8769 2.3875
0.3320 -4.8364 2.3875
0.5019 -4.7903 2.3875
0.6692 -4.7386 2.3875
0.8337 -4.6814 2.3875
0.9953 -4.6189 2.3875
1.1538 -4.5513 2.3875
1.3091 -4.4787 2.3875
1.4611 -4.4013 2.3875
1.6095 -4.3192 2.3875
1.7544 -4.2327 2.3875
1.8956 -4.1417 2.3875
2.0330 -4.0466 2.3875
2.1665 -3.9475 2.3875
2.2960 -3.8445 2.3875
2.4214 -3.7377 2.3875
2.5427 -3.6274 2.3875
2.6598 -3.5137 2.3875
2.7726 -3.3968 2.3875
2.8810 -3.2767 2.3875
2.9851 -3.1537 2.3875
3.0847 -3.0279 2.3875
3.1799 -2.8994 2.3875
3.2705 -2.7684 2.3875
3.3565 -2.6351 2.3875
3.4379 -2.4996 2.3875
3.5147 -2.3619 2.3875
3.5868 -2.2223 2.3875
3.6542 -2.0810 2.3875
3.7169 -1.9379 2.3875
3.7748 -1.7933 2.3875
3.8280 -1.6473 2.3875
3.8765 -1.5001 2.3875
3.9201 -1.3517 2.3875
3.9590 -1.2023 2.3875
3.9931 -1.0520 2.3875
4.0224 -0.9010 2.3875
4.0468 -0.7493 2.3875
4.0665 -0.5972 2.3875
4.0813 -0.4446 2.3875
4.0913 -0.2918 2.3875
4.0966 -0.1389 2.3875
4.0970 0.0141 2.3875
4.0926 0.1669 2.3875
4.0834 0.3195 2.3875
4.0694 0.4718 2.3875
4.0506 0.6236 2.3875
4.0271 0.7747 2.3875
3.9988 0.9252 2.3875
3.9658 1.0748 2.3875
3.9280 1.2235 2.3875
3.8855 1.3711 2.3875
3.8384 1.5174 2.3875
3.7865 1.6625 2.3875
3.7300 1.8061 2.3875
3.6689 1.9481 2.3875
3.6032 2.0884 2.3875
3.5329 2.2268 2.3875
3.4580 2.3633 2.3875
3.3787 2.4977 2.3875
3.2949 2.6299 2.3875
3.2066 2.7597 2.3875
3.1140 2.8871 2.3875
3.0170 3.0118 2.3875
2.9157 3.1337 2.3875
2.8101 3.2528 2.3875
2.7004 3.3688 2.3875
2.5865 3.4817 2.3875
2.4686 3.5912 2.3875
2.3467 3.6973 2.3875
2.2208 3.7998 2.3875
2.0911 3.8986 2.3875
0.8318 1.6967 1.0144
0.7703 1.7282 1.0102
0.7078 1.7574 1.0060
0.6442 1.7844 1.0016
0.5797 1.8090 0.9972
0.5144 1.8313 0.9927
0.4483 1.8513 0.9881
0.3815 1.8688 0.9835
0.3141 1.8839 0.9788
0.2462 1.8966 0.9740
0.1780 1.9068 0.9692
0.1093 1.9145 0.9644
0.0405 1.9198 0.9595
-0.0285 1.9225 0.9546
-0.0975 1.9228 0.9497
-0.1666 1.9205 0.9448
-0.2355 1.9158 0.9398
-0.3041 1.9085 0.9349
-0.3725 1.8988 0.9299
-0.4405 1.8867 0.9250
-0.5080 1.8720 0.9201
-0.5749 1.8550 0.9152
-0.6411 1.8355 0.9104
-0.7067 1.8137 0.9056
-0.7713 1.7895 0.9008
-0.8351 1.7629 0.8961
-0.8979 1.7341 0.8914
-0.9596 1.7030 0.8868
-2.7604 4.5186 2.3875
-2.9358 4.4452 2.3875
-3.1090 4.3648 2.3875
-3.2797 4.2775 2.3875
-3.4478 4.1834 2.3875
-3.6129 4.0824 2.3875
-3.7746 3.9747 2.3875
-3.9326 3.8603 2.3875
-4.0867 3.7394 2.3875
-4.2364 3.6120 2.3875
-4.3816 3.4783 2.3875
-4.5218 3.3385 2.3875
-4.6568 3.1927 2.3875
-4.7863 3.0411 2.3875
-4.9099 2.8840 2.3875
-5.0274 2.7215 2.3875
-5.1385 2.5539 2.3875
-5.2430 2.3815 2.3875
-5.3406 2.2045 2.3875
-5.4310 2.0233 2.3875
-5.5140 1.8381 2.3875
-5.5894 1.6492 2.3875
-5.6570 1.4571 2.3875
-5.7167 1.2620 2.3875
-5.7682 1.0642 2.3875
-5.8115 0.8643 2.3875
-5.8464 0.6625 2.3875
-5.8728 0.4593 2.3875
-5.8906 0.2549 2.3875
-5.8999 0.0499 2.3875
-5.9004 -0.1554 2.3875
-5.8924 -0.3606 2.3875
-5.8756 -0.5652 2.3875
-5.8503 -0.7690 2.3875
-5.8164 -0.9714 2.3875
-5.7740 -1.1721 2.3875
-5.7233 -1.3707 2.3875
-5.6643 -1.5669 2.3875
-5.5972 -1.7602 2.3875
-5.5221 -1.9502 2.3875
-5.4393 -2.1368 2.3875
-5.3490 -2.3194 2.3875
-5.2512 -2.4978 2.3875
-5.1464 -2.6717 2.3875
-5.0347 -2.8408 2.3875
-4.9165 -3.0047 2.3875
-4.7919 -3.1633 2.3875
-4.6612 -3.3163 2.3875
-4.5249 -3.4635 2.3875
-4.3831 -3.6046 2.3875
-4.2361 -3.7394 2.3875
-4.0844 -3.8679 2.3875
-3.9282 -3.9898 2.3875
-3.7678 -4.1050 2.3875
-3.6036 -4.2133 2.3875
-3.4359 -4.3148 2.3875
-3.2651 -4.4092 2.3875
-3.0914 -4.4966 2.3875
-2.9152 -4.5769 2.3875
-2.7368 -4.6500 2.3875
-2.5565 -4.7160 2.3875
-2.3747 -4.7747 2.3875
-2.1916 -4.8264 2.3875
-2.0076 -4.8709 2.3875
-1.8230 -4.9083 2.3875
-1.6380 -4.9386 2.3875
-1.4530 -4.9620 2.3875
-1.2681 -4.9785 2.3875
-1.0837 -4.9882 2.3875
-0.9001 -4.9912 2.3875
-0.7174 -4.9875 2.3875
-0.5360 -4.9773 2.3875
-0.3559 -4.9607 2.3875
-0.1776 -4.9379 2.3875
-0.0011 -4.9089 2.3875
0.1733 -4.8739 2.3875
0.3455 -4.8330 2.3875
0.5152 -4.7864 2.3875
0.6823 -4.7342 2.3875
0.8466 -4.6766 2.3875
1.0079 -4.6138 2.3875
1.1662 -4.5458 2.3875
1.3212 -4.4728 2.3875
1.4729 -4.3950 2.3875
1.6211 -4.3126 2.3875
1.7657 -4.2256 2.3875
1.9066 -4.1344 2.3875
2.0436 -4.0389 2.3875
2.1768 -3.9395 2.3875
2.3060 -3.8362 2.3875
2.4311 -3.7291 2.3875
2.5521 -3.6186 2.3875
2.6688 -3.5046 2.3875
2.7813 -3.3874 2.3875
2.8894 -3.2671 2.3875
2.9931 -3.1439 2.3875
