ply
format ascii 1.0
element vertex 2187
property float32 x
property float32 y
property float32 z
end_header
5.4360 -5.6047 2.2408
5.6557 -5.4321 2.2413
5.8608 -5.2429 2.2386
6.0555 -5.0425 2.2349
6.2314 -4.8258 2.2274
6.4010 -4.6040 2.2209
6.5664 -4.3789 2.2162
6.7242 -4.1480 2.2120
6.8736 -3.9114 2.2083
7.0143 -3.6692 2.2050
7.1462 -3.4218 2.2022
7.2698 -3.1700 2.2000
7.3883 -2.9152 2.1995
7.1690 -2.5395 2.1030
7.5942 -2.3915 2.1989
7.6812 -2.1235 2.1989
7.7572 -1.8519 2.1990
7.8222 -1.5774 2.1992
7.8760 -1.3003 2.1996
7.9185 -1.0212 2.2002
7.9496 -0.7406 2.2009
7.9692 -0.4590 2.2017
7.9773 -0.1768 2.2027
7.9766 0.1053 2.2046
7.9689 0.3874 2.2078
7.9507 0.6690 2.2115
7.9221 0.9498 2.2156
7.8833 1.2294 2.2202
7.8349 1.5075 2.2253
7.7826 1.7852 2.2328
7.7138 2.0593 2.2388
7.6236 2.3272 2.2419
7.5112 2.5869 2.2416
7.3879 2.8409 2.2412
7.2547 3.0889 2.2408
7.1131 3.3310 2.2407
6.9622 3.5664 2.2407
6.8023 3.7947 2.2407
6.6340 4.0156 2.2406
6.4575 4.2287 2.2406
6.2733 4.4339 2.2405
6.0820 4.6308 2.2405
6.0275 4.9369 2.2952
6.0656 5.3391 2.3929
5.8408 5.5216 2.3929
5.6102 5.6945 2.3929
5.3741 5.8575 2.3929
5.1331 6.0107 2.3929
4.8876 6.1538 2.3929
4.6381 6.2868 2.3929
4.3850 6.4097 2.3929
4.1289 6.5224 2.3929
3.8701 6.6250 2.3929
3.6091 6.7174 2.3929
3.3463 6.7996 2.3929
3.0821 6.8719 2.3929
2.8169 6.9340 2.3929
2.5512 6.9862 2.3929
0.8829 2.7156 0.9245
0.7848 2.7441 0.9299
0.6857 2.7690 0.9353
0.5857 2.7904 0.9407
0.4851 2.8081 0.9461
0.3838 2.8221 0.9515
0.2821 2.8325 0.9569
0.1801 2.8392 0.9623
0.0779 2.8422 0.9676
-0.0244 2.8415 0.9729
-0.1265 2.8371 0.9782
-0.2285 2.8291 0.9834
-0.3301 2.8173 0.9885
-0.4312 2.8018 0.9936
-0.5316 2.7827 0.9986
-0.6314 2.7600 1.0036
-0.7302 2.7337 1.0084
-0.8280 2.7038 1.0132
-2.1739 6.2777 2.3929
-2.3875 6.1633 2.3929
-2.5962 6.0425 2.3929
-2.7998 5.9157 2.3929
-2.9983 5.7829 2.3929
-3.1916 5.6443 2.3929
-3.3794 5.5003 2.3929
-3.5617 5.3509 2.3929
-3.7383 5.1964 2.3929
-3.9093 5.0369 2.3929
-4.0744 4.8727 2.3929
-4.2337 4.7039 2.3929
-4.3869 4.5308 2.3929
-4.5341 4.3535 2.3929
-4.6752 4.1722 2.3929
4.9664 -5.1943 2.2407
5.1674 -5.0349 2.2408
5.3624 -4.8670 2.2408
5.5509 -4.6908 2.2408
5.7329 -4.5069 2.2410
5.9082 -4.3156 2.2413
6.0719 -4.1140 2.2401
6.2252 -3.9041 2.2382
6.3698 -3.6877 2.2362
6.4983 -3.4614 2.2318
6.6188 -3.2308 2.2279
6.7314 -2.9961 2.2246
6.8367 -2.7579 2.2221
6.9346 -2.5165 2.2205
7.0236 -2.2714 2.2193
7.1037 -2.0232 2.2185
7.1747 -1.7720 2.2182
7.2364 -1.5184 2.2183
7.2889 -1.2625 2.2188
7.3319 -1.0047 2.2197
7.3656 -0.7455 2.2211
7.3897 -0.4851 2.2229
7.4050 -0.2243 2.2254
7.4128 0.0378 2.2289
7.4114 0.2997 2.2329
7.4005 0.5616 2.2374
7.3700 0.8220 2.2393
7.3293 1.0808 2.2414
7.2720 1.3365 2.2417
7.2024 1.5887 2.2414
7.1225 1.8373 2.2410
7.0328 2.0820 2.2408
6.9340 2.3224 2.2407
6.8258 2.5580 2.2407
6.7083 2.7884 2.2407
6.5819 3.0132 2.2407
6.4468 3.2321 2.2406
6.3035 3.4447 2.2406
6.1522 3.6508 2.2405
5.9933 3.8499 2.2405
5.8273 4.0420 2.2405
5.8860 4.3998 2.3322
5.8476 4.7033 2.3929
5.6497 4.8841 2.3929
5.4456 5.0563 2.3929
5.2359 5.2199 2.3929
5.0210 5.3745 2.3929
4.8013 5.5202 2.3929
4.5772 5.6567 2.3929
4.3491 5.7841 2.3929
4.1175 5.9023 2.3929
3.8827 6.0111 2.3929
3.6452 6.1106 2.3929
3.4054 6.2009 2.3929
3.1637 6.2817 2.3929
2.9203 6.3534 2.3929
2.6758 6.4157 2.3929
0.9339 2.4857 0.9195
0.8440 2.5162 0.9245
0.7531 2.5434 0.9295
0.6612 2.5673 0.9345
0.5685 2.5879 0.9395
0.4751 2.6051 0.9445
0.3811 2.6189 0.9496
0.2867 2.6293 0.9546
0.1920 2.6363 0.9596
0.0970 2.6399 0.9645
0.0020 2.6400 0.9695
-0.0929 2.6366 0.9744
-0.1877 2.6299 0.9792
-0.2822 2.6197 0.9840
-0.3762 2.6061 0.9887
-0.4697 2.5891 0.9934
-0.5625 2.5687 0.9980
-0.6546 2.5450 1.0026
-0.7457 2.5180 1.0070
-0.8357 2.4877 1.0114
-2.1785 5.7820 2.3929
-2.3753 5.6721 2.3929
-2.5675 5.5564 2.3929
-2.7549 5.4349 2.3929
-2.9375 5.3080 2.3929
-3.1152 5.1757 2.3929
-3.2877 5.0382 2.3929
-3.4551 4.8958 2.3929
-3.6172 4.7486 2.3929
-3.7738 4.5969 2.3929
-3.9250 4.4407 2.3929
-4.0707 4.2802 2.3929
-4.2107 4.1157 2.3929
-4.3449 3.9474 2.3929
-4.4734 3.7753 2.3929
-4.5960 3.5997 2.3929
-4.7126 3.4207 2.3929
-4.8233 3.2386 2.3929
-4.9279 3.0534 2.3929
-5.0264 2.8654 2.3929
-5.1188 2.6748 2.3929
-5.2049 2.4816 2.3929
-5.2848 2.2861 2.3929
-5.3585 2.0885 2.3929
-5.4257 1.8888 2.3929
-5.4867 1.6873 2.3929
-5.5412 1.4842 2.3929
-5.5893 1.2796 2.3929
-5.6309 1.0735 2.3929
-5.6660 0.8664 2.3929
-5.6946 0.6582 2.3929
-5.7167 0.4492 2.3929
-5.7322 0.2395 2.3929
-5.7411 0.0294 2.3929
-5.7434 -0.1812 2.3929
-5.7391 -0.3919 2.3929
-5.7281 -0.6025 2.3929
-5.7105 -0.8130 2.3929
-5.6862 -1.0232 2.3929
-5.6552 -1.2329 2.3929
-5.6176 -1.4418 2.3929
-5.5733 -1.6499 2.3929
-5.5223 -1.8569 2.3929
-5.4646 -2.0627 2.3929
-5.4003 -2.2671 2.3929
-5.3293 -2.4699 2.3929
-5.2516 -2.6709 2.3929
-5.1673 -2.8699 2.3929
-5.0764 -3.0668 2.3929
-4.9789 -3.2612 2.3929
-4.8749 -3.4531 2.3929
-4.7643 -3.6423 2.3929
-4.6472 -3.8285 2.3929
-4.5236 -4.0114 2.3929
-4.3937 -4.1910 2.3929
-4.2574 -4.3670 2.3929
-4.1148 -4.5392 2.3929
-3.9660 -4.7074 2.3929
-3.8110 -4.8713 2.3929
-3.6500 -5.0307 2.3929
-3.4830 -5.1855 2.3929
-3.3102 -5.3353 2.3929
-3.1315 -5.4799 2.3929
-2.9472 -5.6192 2.3929
-2.7574 -5.7529 2.3929
-2.5622 -5.8808 2.3929
-2.3617 -6.0025 2.3929
-2.1561 -6.1180 2.3929
-1.9456 -6.2269 2.3929
-1.7303 -6.3291 2.3929
-1.5105 -6.4243 2.3929
-1.2863 -6.5123 2.3929
-1.0580 -6.5929 2.3929
-0.8257 -6.6658 2.3929
-0.5898 -6.7308 2.3929
-0.3504 -6.7877 2.3929
-0.1079 -6.8364 2.3929
0.1375 -6.8765 2.3929
0.3855 -6.9080 2.3929
0.6358 -6.9306 2.3929
0.8880 -6.9442 2.3929
1.1419 -6.9486 2.3929
1.3970 -6.9437 2.3929
1.6531 -6.9292 2.3929
1.9098 -6.9052 2.3929
2.1666 -6.8714 2.3929
2.4232 -6.8278 2.3929
2.6791 -6.7742 2.3929
2.9340 -6.7108 2.3929
3.1429 -6.5446 2.3595
3.2496 -6.1930 2.2612
3.4562 -6.0540 2.2425
3.6839 -5.9518 2.2405
3.9116 -5.8456 2.2406
4.1358 -5.7300 2.2406
4.3561 -5.6053 2.2406
4.5720 -5.4714 2.2407
4.7832 -5.3286 2.2407
4.9892 -5.1769 2.2407
5.1895 -5.0165 2.2408
5.3838 -4.8477 2.2408
5.5716 -4.6706 2.2408
5.7529 -4.4859 2.2410
5.9273 -4.2937 2.2413
6.0894 -4.0908 2.2399
6.2418 -3.8802 2.2380
6.3845 -3.6626 2.2357
6.5121 -3.4359 2.2313
6.6318 -3.2048 2.2275
6.7435 -2.9696 2.2242
6.8481 -2.7311 2.2219
6.9450 -2.4892 2.2203
7.0330 -2.2438 2.2192
7.1121 -1.9953 2.2185
7.1820 -1.7438 2.2182
7.2427 -1.4899 2.2183
7.2942 -1.2338 2.2189
7.3362 -0.9758 2.2199
7.3687 -0.7164 2.2213
7.3918 -0.4559 2.2231
7.4064 -0.1948 2.2257
7.4131 0.0670 2.2293
7.4107 0.3290 2.2334
7.3976 0.5906 2.2376
7.3660 0.8510 2.2396
7.3241 1.1097 2.2417
7.2647 1.3648 2.2416
7.1940 1.6167 2.2413
7.1129 1.8648 2.2410
7.0222 2.1091 2.2408
6.9224 2.3490 2.2407
6.8131 2.5840 2.2407
6.6946 2.8138 2.2407
6.5672 3.0380 2.2406
6.4312 3.2562 2.2406
6.2870 3.4681 2.2406
6.1348 3.6734 2.2405
5.9751 3.8718 2.2405
5.8278 4.0766 2.2480
5.8946 4.4427 2.3438
5.8259 4.7241 2.3929
5.6272 4.9038 2.3929
5.4225 5.0751 2.3929
5.2122 5.2376 2.3929
4.9967 5.3913 2.3929
4.7765 5.5359 2.3929
4.5519 5.6714 2.3929
4.3234 5.7978 2.3929
4.0914 5.9149 2.3929
3.8563 6.0227 2.3929
3.6185 6.1211 2.3929
3.3785 6.2103 2.3929
3.1365 6.2902 2.3929
2.8931 6.3607 2.3929
2.6484 6.4221 2.3929
0.9240 2.4893 0.9201
0.8339 2.5194 0.9250
0.7429 2.5463 0.9300
0.6509 2.5698 0.9351
0.5581 2.5900 0.9401
0.4646 2.6068 0.9451
0.3706 2.6203 0.9501
0.2761 2.6303 0.9551
0.1814 2.6369 0.9601
0.0864 2.6400 0.9651
-0.0086 2.6398 0.9700
-0.1035 2.6361 0.9749
-0.1983 2.6289 0.9797
-0.2927 2.6183 0.9845
-0.3867 2.6044 0.9893
-0.4801 2.5870 0.9939
-0.5729 2.5663 0.9985
-0.6648 2.5422 1.0031
-0.7558 2.5148 1.0075
-0.8457 2.4841 1.0119
-2.2007 5.7700 2.3929
-2.3970 5.6595 2.3929
-2.5886 5.5431 2.3929
-2.7756 5.4210 2.3929
-2.9576 5.2934 2.3929
-3.1347 5.1606 2.3929
-3.3067 5.0226 2.3929
-3.4735 4.8796 2.3929
-3.6349 4.7319 2.3929
-3.7910 4.5796 2.3929
-3.9416 4.4229 2.3929
-4.0866 4.2620 2.3929
-4.2260 4.0971 2.3929
-4.3596 3.9283 2.3929
-4.4874 3.7558 2.3929
-4.6093 3.5798 2.3929
-4.7253 3.4005 2.3929
-4.8353 3.2180 2.3929
-4.9392 3.0326 2.3929
-5.0370 2.8443 2.3929
-5.1287 2.6533 2.3929
-5.2142 2.4599 2.3929
-5.2934 2.2642 2.3929
-5.3663 2.0663 2.3929
-5.4329 1.8664 2.3929
-5.4931 1.6647 2.3929
-5.5469 1.4614 2.3929
-5.5943 1.2566 2.3929
-5.6352 1.0505 2.3929
-5.6696 0.8432 2.3929
-5.6974 0.6349 2.3929
-5.7188 0.4258 2.3929
-5.7335 0.2161 2.3929
-5.7417 0.0058 2.3929
-5.7432 -0.2047 2.3929
-5.7382 -0.4154 2.3929
-5.7265 -0.6261 2.3929
-5.7081 -0.8365 2.3929
-5.6831 -1.0467 2.3929
-5.6514 -1.2563 2.3929
-5.6130 -1.4651 2.3929
-5.5679 -1.6731 2.3929
-5.5162 -1.8800 2.3929
-5.4578 -2.0857 2.3929
-5.3927 -2.2899 2.3929
-5.3209 -2.4925 2.3929
-5.2425 -2.6933 2.3929
-5.1575 -2.8920 2.3929
-5.0659 -3.0886 2.3929
-4.9676 -3.2828 2.3929
-4.8628 -3.4744 2.3929
-4.7515 -3.6633 2.3929
-4.6337 -3.8491 2.3929
-4.5094 -4.0317 2.3929
-4.3788 -4.2109 2.3929
-4.2418 -4.3865 2.3929
-4.0985 -4.5582 2.3929
-3.9490 -4.7259 2.3929
-3.7933 -4.8893 2.3929
-3.6317 -5.0482 2.3929
-3.4640 -5.2024 2.3929
-3.2905 -5.3517 2.3929
-3.1112 -5.4958 2.3929
-2.9263 -5.6344 2.3929
-2.7358 -5.7675 2.3929
-2.5400 -5.8947 2.3929
-2.3389 -6.0157 2.3929
-2.1328 -6.1305 2.3929
-1.9218 -6.2387 2.3929
-1.7060 -6.3401 2.3929
-1.4857 -6.4345 2.3929
-1.2610 -6.5217 2.3929
-1.0322 -6.6014 2.3929
-0.7995 -6.6734 2.3929
-0.5632 -6.7376 2.3929
-0.3235 -6.7936 2.3929
-0.0806 -6.8413 2.3929
0.1651 -6.8805 2.3929
0.4134 -6.9110 2.3929
0.6639 -6.9326 2.3929
0.9163 -6.9452 2.3929
1.1703 -6.9485 2.3929
1.4256 -6.9425 2.3929
1.6818 -6.9270 2.3929
1.9385 -6.9019 2.3929
2.1953 -6.8670 2.3929
2.4518 -6.8223 2.3929
2.7077 -6.7676 2.3929
2.9624 -6.7030 2.3929
3.1553 -6.5040 2.3480
3.2629 -6.1588 2.2521
3.4791 -6.0384 2.2405
3.7095 -5.9404 2.2405
3.9368 -5.8331 2.2406
4.1606 -5.7166 2.2406
4.3804 -5.5908 2.2406
4.5959 -5.4559 2.2407
4.8065 -5.3121 2.2407
5.0118 -5.1594 2.2407
5.2115 -4.9981 2.2408
5.4051 -4.8283 2.2408
5.5921 -4.6504 2.2408
5.7728 -4.4648 2.2410
5.9464 -4.2718 2.2414
6.1068 -4.0676 2.2397
6.2583 -3.8563 2.2378
6.3992 -3.6375 2.2352
6.5259 -3.4103 2.2309
6.6447 -3.1787 2.2271
6.7554 -2.9430 2.2239
6.8593 -2.7043 2.2217
6.9553 -2.4620 2.2202
7.0423 -2.2162 2.2191
7.1203 -1.9673 2.2184
7.1893 -1.7156 2.2182
7.2490 -1.4614 2.2183
7.2993 -1.2050 2.2190
7.3403 -0.9469 2.2200
7.3718 -0.6874 2.2215
7.3937 -0.4268 2.2234
7.4076 -0.1655 2.2261
7.4133 0.0963 2.2297
7.4099 0.3583 2.2339
7.3946 0.6200 2.2379
7.3618 0.8800 2.2398
7.3188 1.1384 2.2419
7.2574 1.3931 2.2416
7.1854 1.6446 2.2413
7.1033 1.8923 2.2410
7.0116 2.1361 2.2408
6.9107 2.3754 2.2407
6.8003 2.6099 2.2407
6.6808 2.8391 2.2407
6.5524 3.0627 2.2406
6.4155 3.2802 2.2406
6.2703 3.4914 2.2406
6.1173 3.6959 2.2405
5.9568 3.8935 2.2405
5.8286 4.1118 2.2557
5.9032 4.4860 2.3555
5.8040 4.7446 2.3929
5.6046 4.9234 2.3929
5.3992 5.0937 2.3929
5.1883 5.2552 2.3929
4.9723 5.4079 2.3929
4.7516 5.5515 2.3929
4.5265 5.6860 2.3929
4.2976 5.8113 2.3929
4.0653 5.9274 2.3929
3.8299 6.0341 2.3929
3.5918 6.1315 2.3929
3.3515 6.2197 2.3929
3.1094 6.2985 2.3929
2.8658 6.3681 2.3929
2.6210 6.4284 2.3929
0.9139 2.4928 0.9206
0.8238 2.5226 0.9256
0.7326 2.5491 0.9306
0.6405 2.5722 0.9356
0.5477 2.5920 0.9406
0.4541 2.6085 0.9457
0.3600 2.6215 0.9507
0.2656 2.6312 0.9557
0.1708 2.6374 0.9607
0.0758 2.6402 0.9656
-0.0192 2.6395 0.9706
-0.1141 2.6354 0.9754
-0.2088 2.6279 0.9803
-0.3032 2.6170 0.9851
-0.3972 2.6026 0.9898
-0.4905 2.5848 0.9945
-0.5832 2.5637 0.9991
-0.6750 2.5393 1.0036
-0.7659 2.5115 1.0080
-0.8557 2.4805 1.0123
-2.2229 5.7580 2.3929
-2.4186 5.6468 2.3929
-2.6098 5.5297 2.3929
-2.7961 5.4070 2.3929
-2.9777 5.2789 2.3929
-3.1542 5.1454 2.3929
-3.3256 5.0068 2.3929
-3.4918 4.8633 2.3929
-3.6527 4.7151 2.3929
-3.8081 4.5623 2.3929
-3.9581 4.4052 2.3929
-4.1025 4.2438 2.3929
-4.2412 4.0784 2.3929
-4.3741 3.9092 2.3929
4.6031 -4.8066 2.2406
4.7878 -4.6579 2.2407
4.9669 -4.5015 2.2407
5.1400 -4.3376 2.2407
5.3068 -4.1664 2.2407
5.4668 -3.9881 2.2408
5.6198 -3.8031 2.2408
5.7655 -3.6116 2.2408
5.9034 -3.4140 2.2408
6.0338 -3.2107 2.2410
6.1560 -3.0019 2.2412
6.2695 -2.7880 2.2414
6.3741 -2.5691 2.2415
6.4684 -2.3454 2.2412
6.5528 -2.1177 2.2407
6.6283 -1.8867 2.2403
6.6947 -1.6527 2.2402
6.7520 -1.4162 2.2403
6.7999 -1.1776 2.2405
6.8385 -0.9373 2.2410
6.8676 -0.6956 2.2416
6.8850 -0.4528 2.2417
6.8916 -0.2095 2.2416
6.8881 0.0336 2.2414
6.8744 0.2763 2.2413
6.8506 0.5178 2.2411
6.8168 0.7579 2.2409
6.7735 0.9962 2.2408
6.7207 1.2321 2.2408
6.6584 1.4654 2.2407
6.5867 1.6954 2.2407
6.5058 1.9219 2.2407
6.4159 2.1445 2.2407
6.3172 2.3627 2.2406
6.2100 2.5763 2.2406
6.0946 2.7848 2.2406
5.9713 2.9880 2.2405
5.8402 3.1855 2.2405
5.7019 3.3771 2.2405
5.7066 3.6587 2.3010
5.7721 3.9959 2.3929
5.6029 4.1799 2.3929
5.4272 4.3565 2.3929
5.2454 4.5254 2.3929
5.0579 4.6866 2.3929
4.8651 4.8398 2.3929
4.6673 4.9850 2.3929
4.4649 5.1219 2.3929
4.2584 5.2505 2.3929
4.0480 5.3707 2.3929
3.8342 5.4823 2.3929
3.6174 5.5854 2.3929
3.3978 5.6800 2.3929
3.1760 5.7660 2.3929
2.9521 5.8434 2.3929
2.7267 5.9122 2.3929
0.9572 2.2869 0.9163
0.8745 2.3183 0.9209
0.7906 2.3467 0.9255
0.7057 2.3721 0.9302
0.6200 2.3943 0.9349
0.5335 2.4135 0.9395
0.4464 2.4295 0.9442
0.3588 2.4424 0.9489
0.2707 2.4521 0.9536
0.1823 2.4586 0.9582
0.0938 2.4619 0.9629
0.0051 2.4620 0.9675
-0.0834 2.4589 0.9720
-0.1718 2.4526 0.9766
-0.2599 2.4431 0.9810
-0.3477 2.4304 0.9855
-0.4349 2.4145 0.9898
-0.5215 2.3956 0.9941
-0.6073 2.3734 0.9984
-0.6923 2.3482 1.0025
-0.7763 2.3200 1.0066
-0.8593 2.2887 1.0106
-2.2197 5.3177 2.3929
-2.4005 5.2105 2.3929
-2.5770 5.0978 2.3929
-2.7490 4.9799 2.3929
-2.9164 4.8568 2.3929
-3.0791 4.7288 2.3929
-3.2369 4.5961 2.3929
-3.3898 4.4588 2.3929
-3.5377 4.3171 2.3929
-3.6804 4.1711 2.3929
-3.8179 4.0211 2.3929
-3.9501 3.8671 2.3929
-4.0770 3.7095 2.3929
-4.1983 3.5482 2.3929
-4.3142 3.3836 2.3929
-4.4245 3.2157 2.3929
-4.5291 3.0448 2.3929
-4.6280 2.8710 2.3929
-4.7212 2.6944 2.3929
-4.8085 2.5153 2.3929
-4.8899 2.3338 2.3929
-4.9655 2.1500 2.3929
-5.0351 1.9641 2.3929
-5.0987 1.7764 2.3929
-5.1562 1.5868 2.3929
-5.2077 1.3957 2.3929
-5.2531 1.2031 2.3929
-5.2923 1.0093 2.3929
-5.3254 0.8143 2.3929
-5.3523 0.6184 2.3929
-5.3730 0.4216 2.3929
-5.3874 0.2243 2.3929
-5.3956 0.0265 2.3929
-5.3975 -0.1716 2.3929
-5.3932 -0.3699 2.3929
-5.3825 -0.5681 2.3929
-5.3655 -0.7661 2.3929
-5.3422 -0.9638 2.3929
-5.3126 -1.1609 2.3929
-5.2766 -1.3573 2.3929
-5.2344 -1.5529 2.3929
-5.1858 -1.7474 2.3929
-5.1309 -1.9407 2.3929
-5.0696 -2.1326 2.3929
-5.0021 -2.3229 2.3929
-4.9283 -2.5114 2.3929
-4.8483 -2.6980 2.3929
-4.7620 -2.8825 2.3929
-4.6695 -3.0646 2.3929
-4.5708 -3.2443 2.3929
-4.4660 -3.4212 2.3929
-4.3552 -3.5953 2.3929
-4.2382 -3.7662 2.3929
-4.1153 -3.9339 2.3929
-3.9864 -4.0981 2.3929
-3.8517 -4.2586 2.3929
-3.7111 -4.4152 2.3929
-3.5649 -4.5677 2.3929
-3.4130 -4.7159 2.3929
-3.2556 -4.8596 2.3929
-3.0927 -4.9986 2.3929
-2.9245 -5.1326 2.3929
-2.7511 -5.2614 2.3929
-2.5725 -5.3850 2.3929
-2.3891 -5.5029 2.3929
-2.2008 -5.6151 2.3929
-2.0078 -5.7212 2.3929
-1.8104 -5.8212 2.3929
-1.6086 -5.9147 2.3929
-1.4027 -6.0017 2.3929
-1.1929 -6.0818 2.3929
-0.9793 -6.1549 2.3929
-0.7622 -6.2207 2.3929
-0.5418 -6.2792 2.3929
-0.3184 -6.3301 2.3929
-0.0922 -6.3731 2.3929
0.1365 -6.4083 2.3929
0.3675 -6.4353 2.3929
0.6004 -6.4540 2.3929
0.8350 -6.4643 2.3929
1.0709 -6.4661 2.3929
1.3079 -6.4591 2.3929
1.5456 -6.4434 2.3929
1.7835 -6.4187 2.3929
2.0215 -6.3850 2.3929
2.2591 -6.3422 2.3929
2.4960 -6.2903 2.3929
2.7317 -6.2292 2.3929
2.9659 -6.1589 2.3929
3.1982 -6.0793 2.3929
3.3307 -5.8203 2.3249
3.4288 -5.5273 2.2445
3.6324 -5.4170 2.2405
3.8389 -5.3083 2.2405
4.0418 -5.1912 2.2406
4.2405 -5.0657 2.2406
4.4347 -4.9321 2.2406
4.6240 -4.7904 2.2407
4.8081 -4.6408 2.2407
4.9865 -4.4836 2.2407
5.1590 -4.3188 2.2407
5.3250 -4.1468 2.2408
5.4843 -3.9678 2.2408
5.6365 -3.7820 2.2408
5.7813 -3.5898 2.2408
5.9183 -3.3915 2.2408
6.0479 -3.1877 2.2410
6.1691 -2.9783 2.2412
6.2816 -2.7637 2.2414
6.3853 -2.5444 2.2415
6.4782 -2.3202 2.2411
6.5617 -2.0920 2.2406
6.6362 -1.8606 2.2403
6.7016 -1.6264 2.2402
6.7578 -1.3897 2.2403
6.8047 -1.1509 2.2406
6.8422 -0.9103 2.2410
6.8703 -0.6685 2.2417
6.8862 -0.4256 2.2417
6.8917 -0.1823 2.2415
6.8870 0.0608 2.2414
6.8722 0.3033 2.2412
6.8473 0.5447 2.2411
6.8124 0.7847 2.2408
6.7681 1.0227 2.2408
6.7143 1.2583 2.2408
6.6509 1.4912 2.2407
6.5781 1.7209 2.2407
6.4962 1.9470 2.2407
6.4053 2.1691 2.2407
6.3057 2.3868 2.2406
6.1975 2.5999 2.2406
6.0812 2.8078 2.2406
5.9570 3.0104 2.2405
5.8251 3.2072 2.2405
5.6860 3.3981 2.2405
5.7139 3.6954 2.3109
5.7535 4.0169 2.3929
5.5835 4.2000 2.3929
5.4071 4.3756 2.3929
5.2247 4.5438 2.3929
5.0366 4.7041 2.3929
4.8432 4.8565 2.3929
4.6449 5.0007 2.3929
4.4421 5.1367 2.3929
4.2351 5.2643 2.3929
4.0243 5.3836 2.3929
3.8101 5.4943 2.3929
3.5930 5.5966 2.3929
3.3731 5.6901 2.3929
3.1510 5.7751 2.3929
2.9270 5.8515 2.3929
2.7014 5.9193 2.3929
0.9481 2.2905 0.9168
0.8651 2.3216 0.9214
0.7812 2.3497 0.9260
0.6962 2.3747 0.9307
0.6104 2.3966 0.9354
0.5238 2.4155 0.9401
0.4366 2.4311 0.9448
0.3489 2.4437 0.9494
0.2608 2.4530 0.9541
0.1724 2.4591 0.9588
0.0839 2.4621 0.9634
-0.0048 2.4618 0.9680
-0.0933 2.4584 0.9725
-0.1817 2.4517 0.9771
-0.2698 2.4418 0.9815
-0.3574 2.4288 0.9860
-0.4446 2.4126 0.9903
-0.5311 2.3932 0.9946
-0.6168 2.3708 0.9988
-0.7017 2.3452 1.0030
-0.7856 2.3166 1.0070
-2.0555 5.4082 2.3929
-2.2401 5.3060 2.3929
-2.4205 5.1982 2.3929
-2.5965 5.0849 2.3929
-2.7679 4.9664 2.3929
-2.9348 4.8428 2.3929
-3.0969 4.7142 2.3929
-3.2542 4.5810 2.3929
-3.4066 4.4432 2.3929
-3.5539 4.3010 2.3929
-3.6960 4.1545 2.3929
-3.8329 4.0041 2.3929
-3.9646 3.8497 2.3929
-4.0908 3.6916 2.3929
-4.2116 3.5300 2.3929
-4.3268 3.3650 2.3929
-4.4365 3.1968 2.3929
-4.5404 3.0255 2.3929
-4.6387 2.8514 2.3929
-4.7312 2.6746 2.3929
-4.8179 2.4951 2.3929
-4.8987 2.3134 2.3929
-4.9736 2.1293 2.3929
-5.0425 1.9433 2.3929
-5.1054 1.7553 2.3929
-5.1623 1.5655 2.3929
-5.2131 1.3742 2.3929
-5.2578 1.1815 2.3929
-5.2963 0.9875 2.3929
-5.3287 0.7924 2.3929
-5.3549 0.5964 2.3929
-5.3749 0.3996 2.3929
-5.3887 0.2022 2.3929
-5.3962 0.0044 2.3929
-5.3974 -0.1938 2.3929
-5.3923 -0.3920 2.3929
-5.3809 -0.5902 2.3929
-5.3632 -0.7882 2.3929
-5.3392 -0.9858 2.3929
-5.3089 -1.1829 2.3929
-5.2722 -1.3792 2.3929
-5.2293 -1.5747 2.3929
-5.1800 -1.7691 2.3929
-5.1243 -1.9622 2.3929
-5.0624 -2.1539 2.3929
-4.9942 -2.3440 2.3929
-4.9197 -2.5324 2.3929
-4.8389 -2.7187 2.3929
-4.7520 -2.9030 2.3929
-4.6588 -3.0848 2.3929
-4.5594 -3.2642 2.3929
-4.4540 -3.4408 2.3929
-4.3424 -3.6145 2.3929
-4.2248 -3.7851 2.3929
-4.1012 -3.9524 2.3929
-3.9716 -4.1162 2.3929
-3.8363 -4.2763 2.3929
-3.6951 -4.4325 2.3929
-3.5482 -4.5845 2.3929
-3.3957 -4.7322 2.3929
-3.2376 -4.8754 2.3929
-3.0742 -5.0138 2.3929
-2.9054 -5.1472 2.3929
-2.7313 -5.2755 2.3929
-2.5523 -5.3984 2.3929
-2.3682 -5.5157 2.3929
-2.1794 -5.6272 2.3929
-1.9860 -5.7327 2.3929
-1.7880 -5.8320 2.3929
-1.5858 -5.9248 2.3929
-1.3794 -6.0110 2.3929
-1.1692 -6.0903 2.3929
-0.9552 -6.1626 2.3929
-0.7377 -6.2276 2.3929
-0.5170 -6.2853 2.3929
-0.2933 -6.3353 2.3929
-0.0668 -6.3775 2.3929
0.1622 -6.4117 2.3929
0.3934 -6.4378 2.3929
0.6266 -6.4556 2.3929
0.8613 -6.4650 2.3929
1.0974 -6.4657 2.3929
1.3344 -6.4578 2.3929
1.5721 -6.4410 2.3929
1.8102 -6.4153 2.3929
2.0481 -6.3807 2.3929
2.2856 -6.3369 2.3929
2.5224 -6.2839 2.3929
2.7579 -6.2218 2.3929
2.9920 -6.1505 2.3929
3.2240 -6.0699 2.3929
3.3413 -5.7855 2.3150
3.4462 -5.5065 2.2405
3.6556 -5.4053 2.2405
3.8618 -5.2956 2.2405
4.0642 -5.1776 2.2406
4.2624 -5.0512 2.2406
4.4561 -4.9167 2.2406
4.6449 -4.7741 2.2407
4.8283 -4.6237 2.2407
5.0061 -4.4655 2.2407
5.1778 -4.3000 2.2407
5.3431 -4.1272 2.2408
5.5016 -3.9474 2.2408
5.6530 -3.7609 2.2408
5.7970 -3.5680 2.2408
5.9332 -3.3690 2.2409
6.0619 -3.1645 2.2411
6.1821 -2.9546 2.2413
6.2937 -2.7395 2.2414
6.3963 -2.5196 2.2416
6.4880 -2.2948 2.2411
6.5705 -2.0663 2.2406
6.6439 -1.8346 2.2403
6.7083 -1.6001 2.2402
6.7635 -1.3631 2.2403
6.8094 -1.1241 2.2406
6.8459 -0.8834 2.2411
6.8728 -0.6414 2.2417
6.8873 -0.3984 2.2416
6.8917 -0.1551 2.2415
6.8859 0.0879 2.2414
6.8699 0.3303 2.2412
6.8439 0.5716 2.2410
6.8079 0.8114 2.2408
6.7626 1.0492 2.2408
6.7076 1.2845 2.2408
6.6432 1.5171 2.2407
6.5694 1.7464 2.2407
6.4865 1.9720 2.2407
6.3946 2.1937 2.2407
6.2940 2.4109 2.2406
6.1850 2.6234 2.2406
6.0677 2.8307 2.2406
5.9426 3.0327 2.2405
5.8099 3.2289 2.2405
5.6708 3.4196 2.2408
5.7212 3.7323 2.3209
5.7348 4.0377 2.3929
5.5641 4.2200 2.3929
5.3870 4.3948 2.3929
5.2040 4.5621 2.3929
5.0152 4.7216 2.3929
4.8213 4.8730 2.3929
4.6224 5.0163 2.3929
4.4191 5.1514 2.3929
4.2117 5.2781 2.3929
4.0005 5.3964 2.3929
3.7860 5.5061 2.3929
3.5685 5.6074 2.3929
3.3484 5.7000 2.3929
3.1261 5.7840 2.3929
2.9019 5.8595 2.3929
2.6761 5.9263 2.3929
0.9388 2.2941 0.9173
0.8558 2.3249 0.9219
0.7717 2.3526 0.9266
0.6866 2.3773 0.9312
0.6007 2.3989 0.9359
0.5141 2.4174 0.9406
0.4269 2.4327 0.9453
0.3391 2.4449 0.9500
0.2510 2.4538 0.9546
0.1625 2.4596 0.9593
0.0740 2.4622 0.9639
-0.0147 2.4616 0.9685
-0.1032 2.4578 0.9731
-0.1915 2.4507 0.9776
-0.2796 2.4405 0.9820
-0.3672 2.4271 0.9864
-0.4543 2.4106 0.9908
-0.5407 2.3909 0.9951
-0.6264 2.3681 0.9993
-0.7112 2.3422 1.0034
-0.7950 2.3132 1.0075
-2.0764 5.3971 2.3929
-2.2605 5.2942 2.3929
-2.4404 5.1858 2.3929
-2.6158 5.0719 2.3929
-2.7868 4.9528 2.3929
-2.9532 4.8286 2.3929
-3.1148 4.6996 2.3929
-3.2715 4.5658 2.3929
-3.4233 4.4275 2.3929
-3.5700 4.2848 2.3929
-3.7116 4.1379 2.3929
-3.8479 3.9870 2.3929
-3.9789 3.8322 2.3929
-4.1046 3.6737 2.3929
4.2854 -4.4676 2.2406
4.4560 -4.3285 2.2406
4.6214 -4.1822 2.2406
4.7811 -4.0291 2.2406
4.9350 -3.8693 2.2407
5.0826 -3.7031 2.2407
5.2238 -3.5308 2.2407
5.3580 -3.3525 2.2407
5.4852 -3.1686 2.2407
5.6049 -2.9794 2.2407
5.7171 -2.7852 2.2408
5.8213 -2.5862 2.2408
5.9174 -2.3830 2.2408
6.0051 -2.1757 2.2408
6.0844 -1.9649 2.2408
6.1549 -1.7509 2.2408
6.2167 -1.5339 2.2408
6.2694 -1.3146 2.2408
6.3131 -1.0932 2.2408
6.3476 -0.8702 2.2408
6.3729 -0.6460 2.2408
6.3889 -0.4209 2.2408
6.3956 -0.1955 2.2408
6.3931 0.0299 2.2408
6.3812 0.2548 2.2407
6.3602 0.4788 2.2407
6.3301 0.7016 2.2407
6.2909 0.9227 2.2407
6.2427 1.1417 2.2407
6.1858 1.3582 2.2407
6.1202 1.5719 2.2406
6.0461 1.7824 2.2406
5.9637 1.9893 2.2406
5.8732 2.1923 2.2406
5.7749 2.3911 2.2405
5.6689 2.5853 2.2405
5.5556 2.7746 2.2405
5.5497 3.0212 2.2877
5.6080 3.3151 2.3672
5.5261 3.5361 2.3929
5.3764 3.7147 2.3929
5.2204 3.8868 2.3929
5.0584 4.0522 2.3929
4.8906 4.2106 2.3929
4.7174 4.3619 2.3929
4.5392 4.5059 2.3929
4.3562 4.6425 2.3929
4.1690 4.7715 2.3929
3.9777 4.8928 2.3929
3.7828 5.0064 2.3929
3.5845 5.1121 2.3929
3.3833 5.2100 2.3929
3.1794 5.2999 2.3929
2.9733 5.3819 2.3929
2.7651 5.4559 2.3929
2.5554 5.5219 2.3929
0.8991 2.1401 0.9178
0.8216 2.1695 0.9221
0.7431 2.1961 0.9264
0.6637 2.2198 0.9308
0.5834 2.2407 0.9352
0.5025 2.2586 0.9396
0.4209 2.2736 0.9440
0.3389 2.2856 0.9483
0.2565 2.2947 0.9527
0.1737 2.3008 0.9571
0.0909 2.3039 0.9614
0.0079 2.3039 0.9657
-0.0750 2.3010 0.9700
-0.1577 2.2951 0.9742
-0.2402 2.2862 0.9784
-0.3223 2.2743 0.9825
-0.4039 2.2595 0.9866
-0.4850 2.2417 0.9907
-0.5653 2.2210 0.9946
-0.6449 2.1974 0.9985
-0.7235 2.1710 1.0023
-0.8012 2.1417 1.0060
-2.0801 4.9997 2.3929
-2.2507 4.9000 2.3929
-2.4173 4.7950 2.3929
-2.5796 4.6851 2.3929
-2.7377 4.5702 2.3929
-2.8914 4.4506 2.3929
-3.0406 4.3265 2.3929
-3.1852 4.1980 2.3929
-3.3250 4.0652 2.3929
-3.4601 3.9284 2.3929
-3.5902 3.7876 2.3929
-3.7153 3.6431 2.3929
-3.8354 3.4950 2.3929
-3.9504 3.3435 2.3929
-4.0601 3.1887 2.3929
-4.1645 3.0308 2.3929
-4.2637 2.8700 2.3929
-4.3574 2.7064 2.3929
-4.4456 2.5401 2.3929
-4.5284 2.3713 2.3929
-4.6055 2.2003 2.3929
-4.6771 2.0271 2.3929
-4.7430 1.8518 2.3929
-4.8032 1.6748 2.3929
-4.8577 1.4960 2.3929
-4.9065 1.3157 2.3929
-4.9494 1.1340 2.3929
-4.9865 0.9512 2.3929
-5.0177 0.7672 2.3929
-5.0431 0.5823 2.3929
-5.0625 0.3967 2.3929
-5.0760 0.2105 2.3929
-5.0836 0.0239 2.3929
-5.0852 -0.1630 2.3929
-5.0808 -0.3500 2.3929
-5.0704 -0.5370 2.3929
-5.0541 -0.7237 2.3929
-5.0317 -0.9101 2.3929
-5.0033 -1.0960 2.3929
-4.9689 -1.2811 2.3929
-4.9286 -1.4654 2.3929
-4.8822 -1.6486 2.3929
-4.8299 -1.8306 2.3929
-4.7715 -2.0113 2.3929
-4.7072 -2.1903 2.3929
-4.6370 -2.3677 2.3929
-4.5609 -2.5432 2.3929
-4.4789 -2.7165 2.3929
-4.3910 -2.8876 2.3929
-4.2973 -3.0563 2.3929
-4.1978 -3.2224 2.3929
-4.0926 -3.3856 2.3929
-3.9817 -3.5459 2.3929
-3.8652 -3.7029 2.3929
-3.7431 -3.8566 2.3929
-3.6155 -4.0067 2.3929
-3.4825 -4.1531 2.3929
-3.3442 -4.2955 2.3929
-3.2006 -4.4338 2.3929
-3.0518 -4.5677 2.3929
-2.8980 -4.6971 2.3929
-2.7392 -4.8218 2.3929
-2.5756 -4.9415 2.3929
-2.4073 -5.0561 2.3929
-2.2344 -5.1654 2.3929
-2.0571 -5.2692 2.3929
-1.8755 -5.3672 2.3929
-1.6898 -5.4594 2.3929
-1.5001 -5.5455 2.3929
-1.3067 -5.6253 2.3929
-1.1097 -5.6986 2.3929
-0.9093 -5.7653 2.3929
-0.7057 -5.8252 2.3929
-0.4992 -5.8781 2.3929
-0.2900 -5.9239 2.3929
-0.0783 -5.9623 2.3929
0.1356 -5.9932 2.3929
0.3515 -6.0166 2.3929
0.5691 -6.0322 2.3929
0.7881 -6.0399 2.3929
1.0082 -6.0395 2.3929
1.2292 -6.0311 2.3929
1.4506 -6.0145 2.3929
1.6722 -5.9895 2.3929
1.8937 -5.9563 2.3929
2.1146 -5.9145 2.3929
2.3349 -5.8637 2.3929
2.5537 -5.8055 2.3929
2.7712 -5.7383 2.3929
2.9867 -5.6625 2.3929
3.1999 -5.5782 2.3929
3.4046 -5.4760 2.3888
3.4904 -5.1943 2.3085
3.5795 -4.9397 2.2409
3.7664 -4.8285 2.2405
3.9502 -4.7106 2.2405
4.1298 -4.5852 2.2405
4.3047 -4.4524 2.2406
4.4747 -4.3125 2.2406
4.6395 -4.1654 2.2406
4.7986 -4.0116 2.2406
4.9518 -3.8511 2.2407
5.0987 -3.6842 2.2407
5.2391 -3.5112 2.2407
5.3726 -3.3322 2.2407
5.4989 -3.1477 2.2407
5.6179 -2.9579 2.2408
5.7291 -2.7631 2.2408
5.8324 -2.5637 2.2408
5.9276 -2.3600 2.2408
6.0144 -2.1524 2.2408
6.0927 -1.9411 2.2408
6.1623 -1.7267 2.2408
6.2230 -1.5095 2.2408
6.2748 -1.2899 2.2408
6.3174 -1.0683 2.2408
6.3509 -0.8451 2.2408
6.3751 -0.6208 2.2408
6.3901 -0.3957 2.2408
6.3958 -0.1703 2.2408
6.3922 0.0550 2.2408
6.3794 0.2799 2.2407
6.3573 0.5038 2.2407
6.3261 0.7264 2.2407
6.2859 0.9472 2.2407
6.2368 1.1660 2.2407
6.1789 1.3822 2.2407
6.1123 1.5956 2.2406
6.0373 1.8057 2.2406
5.9540 2.0122 2.2406
5.8626 2.2147 2.2406
5.7634 2.4130 2.2405
5.6566 2.6067 2.2405
5.5425 2.7955 2.2405
5.5560 3.0532 2.2962
5.6147 3.3490 2.3765
5.5097 3.5564 2.3929
5.3593 3.7343 2.3929
5.2026 3.9057 2.3929
5.0399 4.0702 2.3929
4.8715 4.2279 2.3929
4.6977 4.3783 2.3929
4.5190 4.5215 2.3929
4.3355 4.6572 2.3929
4.1478 4.7854 2.3929
3.9561 4.9059 2.3929
3.7608 5.0186 2.3929
3.5622 5.1235 2.3929
3.3606 5.2204 2.3929
3.1565 5.3094 2.3929
2.9501 5.3905 2.3929
2.7418 5.4636 2.3929
0.9670 2.1117 0.9140
0.8905 2.1435 0.9183
0.8129 2.1726 0.9226
0.7343 2.1989 0.9269
0.6548 2.2223 0.9313
0.5744 2.2428 0.9357
0.4934 2.2604 0.9401
0.4118 2.2751 0.9444
0.3297 2.2868 0.9488
0.2472 2.2955 0.9532
0.1645 2.3013 0.9576
0.0816 2.3040 0.9619
-0.0014 2.3038 0.9662
-0.0842 2.3005 0.9705
-0.1670 2.2943 0.9747
-0.2494 2.2850 0.9789
-0.3315 2.2728 0.9830
-0.4130 2.2577 0.9871
-0.4940 2.2396 0.9911
-0.5743 2.2185 0.9951
-0.6537 2.1946 0.9989
-0.7323 2.1678 1.0027
-0.8098 2.1383 1.0065
-2.0994 4.9888 2.3929
-2.2695 4.8885 2.3929
-2.4356 4.7830 2.3929
-2.5975 4.6725 2.3929
-2.7551 4.5571 2.3929
-2.9083 4.4370 2.3929
-3.0570 4.3124 2.3929
-3.2010 4.1833 2.3929
-3.3404 4.0501 2.3929
-3.4748 3.9128 2.3929
-3.6044 3.7717 2.3929
-3.7290 3.6267 2.3929
-3.8485 3.4783 2.3929
-3.9629 3.3264 2.3929
-4.0720 3.1712 2.3929
-4.1759 3.0130 2.3929
-4.2744 2.8518 2.3929
-4.3675 2.6879 2.3929
-4.4551 2.5213 2.3929
-4.5373 2.3523 2.3929
-4.6138 2.1810 2.3929
-4.6847 2.0076 2.3929
-4.7500 1.8321 2.3929
-4.8096 1.6549 2.3929
-4.8635 1.4759 2.3929
-4.9115 1.2955 2.3929
-4.9538 1.1137 2.3929
-4.9903 0.9307 2.3929
-5.0208 0.7466 2.3929
-5.0455 0.5616 2.3929
-5.0643 0.3760 2.3929
-5.0771 0.1897 2.3929
-5.0840 0.0030 2.3929
-5.0850 -0.1839 2.3929
-5.0799 -0.3709 2.3929
-5.0689 -0.5578 2.3929
-5.0519 -0.7446 2.3929
-5.0288 -0.9309 2.3929
-4.9998 -1.1167 2.3929
-4.9647 -1.3017 2.3929
-4.9237 -1.4859 2.3929
-4.8767 -1.6690 2.3929
-4.8236 -1.8509 2.3929
-4.7646 -2.0313 2.3929
-4.6997 -2.2102 2.3929
-4.6288 -2.3874 2.3929
-4.5520 -2.5626 2.3929
-4.4693 -2.7358 2.3929
-4.3808 -2.9066 2.3929
-4.2864 -3.0750 2.3929
-4.1863 -3.2408 2.3929
-4.0805 -3.4037 2.3929
-3.9690 -3.5636 2.3929
-3.8518 -3.7203 2.3929
-3.7291 -3.8736 2.3929
-3.6009 -4.0233 2.3929
-3.4673 -4.1692 2.3929
-3.3284 -4.3112 2.3929
-3.1842 -4.4490 2.3929
-3.0349 -4.5824 2.3929
-2.8805 -4.7113 2.3929
-2.7212 -4.8354 2.3929
-2.5570 -4.9546 2.3929
-2.3882 -5.0686 2.3929
-2.2148 -5.1773 2.3929
-2.0370 -5.2804 2.3929
-1.8550 -5.3778 2.3929
-1.6688 -5.4693 2.3929
-1.4787 -5.5547 2.3929
-1.2849 -5.6338 2.3929
-1.0875 -5.7064 2.3929
-0.8867 -5.7724 2.3929
-0.6828 -5.8315 2.3929
-0.4760 -5.8836 2.3929
-0.2665 -5.9285 2.3929
-0.0545 -5.9661 2.3929
0.1597 -5.9962 2.3929
0.3758 -6.0187 2.3929
0.5935 -6.0334 2.3929
0.8127 -6.0402 2.3929
1.0329 -6.0390 2.3929
1.2539 -6.0297 2.3929
1.4753 -6.0121 2.3929
1.6970 -5.9862 2.3929
1.9184 -5.9521 2.3929
2.1393 -5.9093 2.3929
2.3593 -5.8581 2.3929
2.5781 -5.7984 2.3929
2.7953 -5.7302 2.3929
3.0106 -5.6535 2.3929
3.2236 -5.5683 2.3929
3.4145 -5.4437 2.3794
3.4997 -5.1638 2.3000
3.6000 -4.9268 2.2405
3.7872 -4.8157 2.2405
3.9705 -4.6969 2.2405
4.1496 -4.5707 2.2406
4.3240 -4.4372 2.2406
4.4934 -4.2964 2.2406
4.6576 -4.1486 2.2406
4.8160 -3.9940 2.2406
4.9685 -3.8327 2.2407
5.1148 -3.6652 2.2407
5.2544 -3.4914 2.2407
5.3871 -3.3119 2.2407
5.5126 -3.1268 2.2407
5.6307 -2.9364 2.2408
5.7410 -2.7411 2.2408
5.8435 -2.5412 2.2408
5.9377 -2.3370 2.2408
6.0236 -2.1289 2.2408
6.1009 -1.9173 2.2408
6.1695 -1.7026 2.2408
6.2292 -1.4851 2.2408
6.2800 -1.2652 2.2408
6.3216 -1.0434 2.2408
6.3540 -0.8201 2.2408
6.3773 -0.5957 2.2408
6.3912 -0.3705 2.2408
6.3958 -0.1451 2.2408
6.3912 0.0802 2.2408
6.3773 0.3049 2.2407
6.3543 0.5287 2.2407
6.3221 0.7512 2.2407
6.2809 0.9718 2.2407
6.2307 1.1903 2.2407
6.1718 1.4062 2.2407
6.1043 1.6192 2.2406
6.0284 1.8290 2.2406
5.9442 2.0350 2.2406
5.8519 2.2371 2.2406
5.7519 2.4349 2.2405
5.6442 2.6280 2.2405
5.5293 2.8163 2.2405
5.5625 3.0854 2.3048
5.6215 3.3833 2.3860
5.4932 3.5766 2.3929
5.3421 3.7538 2.3929
5.1847 3.9244 2.3929
5.0213 4.0882 2.3929
4.8523 4.2450 2.3929
4.6780 4.3947 2.3929
4.4987 4.5371 2.3929
4.3148 4.6719 2.3929
4.1266 4.7992 2.3929
3.9344 4.9188 2.3929
3.7387 5.0307 2.3929
3.5398 5.1347 2.3929
3.3379 5.2307 2.3929
3.1335 5.3189 2.3929
2.9269 5.3991 2.3929
2.7184 5.4713 2.3929
0.9585 2.1154 0.9144
0.8819 2.1469 0.9187
0.8042 2.1757 0.9231
0.7254 2.2016 0.9274
0.6458 2.2247 0.9318
0.5654 2.2449 0.9362
0.4843 2.2622 0.9406
0.4026 2.2765 0.9449
0.3205 2.2879 0.9493
0.2380 2.2963 0.9537
0.1552 2.3017 0.9580
0.0723 2.3041 0.9624
-0.0106 2.3035 0.9667
-0.0935 2.3000 0.9709
-0.1762 2.2934 0.9752
-0.2586 2.2838 0.9793
-0.3406 2.2713 0.9835
-0.4221 2.2558 0.9875
-0.5030 2.2373 0.9915
-0.5832 2.2160 0.9955
-0.6625 2.1918 0.9994
-0.7410 2.1647 1.0032
-0.8184 2.1348 1.0069
-2.1186 4.9779 2.3929
-2.2883 4.8770 2.3929
-2.4539 4.7709 2.3929
-2.6154 4.6598 2.3929
-2.7725 4.5439 2.3929
-2.9252 4.4233 2.3929
-3.0733 4.2982 2.3929
-3.2168 4.1687 2.3929
-3.3556 4.0350 2.3929
-3.4896 3.8972 2.3929
-3.6186 3.7556 2.3929
-3.7426 3.6103 2.3929
-3.8616 3.4614 2.3929
4.0049 -4.1683 2.2405
4.1632 -4.0377 2.2405
4.3166 -3.9005 2.2406
4.4647 -3.7571 2.2406
4.6073 -3.6075 2.2406
4.7442 -3.4520 2.2406
4.8749 -3.2909 2.2406
4.9993 -3.1243 2.2406
5.1171 -2.9526 2.2407
5.2280 -2.7760 2.2407
5.3318 -2.5948 2.2407
5.4283 -2.4094 2.2407
5.5173 -2.2199 2.2407
5.5986 -2.0268 2.2407
5.6720 -1.8304 2.2407
5.7374 -1.6311 2.2407
5.7946 -1.4291 2.2407
5.8436 -1.2249 2.2407
5.8842 -1.0188 2.2407
5.9163 -0.8112 2.2407
5.9399 -0.6025 2.2407
5.9550 -0.3930 2.2407
5.9615 -0.1832 2.2407
5.9594 0.0266 2.2407
5.9488 0.2360 2.2407
5.9297 0.4446 2.2406
5.9021 0.6520 2.2406
5.8662 0.8580 2.2406
5.8220 1.0620 2.2406
5.7697 1.2639 2.2406
5.7094 1.4631 2.2406
5.6412 1.6595 2.2405
5.5653 1.8526 2.2405
5.4819 2.0421 2.2405
5.3912 2.2278 2.2405
5.4094 2.4620 2.2896
5.4614 2.7222 2.3582
5.4230 2.9464 2.3929
5.2973 3.1253 2.3929
5.1651 3.2985 2.3929
5.0266 3.4661 2.3929
4.8821 3.6276 2.3929
4.7319 3.7829 2.3929
4.5764 3.9318 2.3929
4.4157 4.0742 2.3929
4.2502 4.2098 2.3929
4.0803 4.3386 2.3929
3.9063 4.4604 2.3929
3.7284 4.5751 2.3929
3.5470 4.6827 2.3929
3.3624 4.7828 2.3929
3.1750 4.8759 2.3929
2.9850 4.9615 2.3929
2.7927 5.0397 2.3929
2.5985 5.1105 2.3929
0.9188 1.9786 0.9151
0.8471 2.0088 0.9191
0.7743 2.0363 0.9232
0.7006 2.0613 0.9273
0.6260 2.0835 0.9314
0.5507 2.1031 0.9355
0.4747 2.1199 0.9396
0.3981 2.1340 0.9437
0.3211 2.1453 0.9478
0.2437 2.1538 0.9519
0.1661 2.1595 0.9560
0.0883 2.1624 0.9601
0.0104 2.1625 0.9641
-0.0674 2.1597 0.9681
-0.1451 2.1542 0.9721
-0.2225 2.1458 0.9761
-0.2996 2.1347 0.9799
-0.3763 2.1207 0.9838
-0.4523 2.1040 0.9876
-0.5278 2.0846 0.9913
-0.6024 2.0625 0.9949
-0.6763 2.0376 0.9985
-0.7492 2.0101 1.0020
-0.8210 1.9801 1.0054
-2.1153 4.6194 2.3929
-2.2729 4.5214 2.3929
-2.4265 4.4185 2.3929
-2.5761 4.3110 2.3929
-2.7217 4.1989 2.3929
-2.8629 4.0824 2.3929
-2.9999 3.9618 2.3929
-3.1324 3.8370 2.3929
-3.2604 3.7084 2.3929
-3.3838 3.5760 2.3929
-3.5025 3.4400 2.3929
-3.6164 3.3006 2.3929
-3.7254 3.1578 2.3929
-3.8295 3.0119 2.3929
-3.9286 2.8630 2.3929
-4.0227 2.7113 2.3929
-4.1116 2.5569 2.3929
-4.1954 2.3999 2.3929
-4.2739 2.2406 2.3929
-4.3472 2.0790 2.3929
-4.4151 1.9154 2.3929
-4.4777 1.7498 2.3929
-4.5348 1.5825 2.3929
-4.5865 1.4135 2.3929
-4.6327 1.2431 2.3929
-4.6734 1.0713 2.3929
-4.7085 0.8984 2.3929
-4.7380 0.7244 2.3929
-4.7620 0.5496 2.3929
-4.7803 0.3741 2.3929
-4.7930 0.1980 2.3929
-4.8000 0.0215 2.3929
-4.8013 -0.1552 2.3929
-4.7970 -0.3320 2.3929
-4.7869 -0.5087 2.3929
-4.7711 -0.6852 2.3929
-4.7497 -0.8614 2.3929
-4.7225 -1.0370 2.3929
-4.6896 -1.2119 2.3929
-4.6510 -1.3859 2.3929
-4.6067 -1.5589 2.3929
-4.5568 -1.7307 2.3929
-4.5011 -1.9012 2.3929
-4.4398 -2.0701 2.3929
-4.3729 -2.2374 2.3929
-4.3004 -2.4028 2.3929
-4.2223 -2.5662 2.3929
-4.1387 -2.7273 2.3929
-4.0496 -2.8861 2.3929
-3.9550 -3.0424 2.3929
-3.8550 -3.1959 2.3929
-3.7497 -3.3465 2.3929
-3.6390 -3.4941 2.3929
-3.5232 -3.6383 2.3929
-3.4022 -3.7792 2.3929
-3.2761 -3.9164 2.3929
-3.1449 -4.0498 2.3929
-3.0089 -4.1792 2.3929
-2.8681 -4.3045 2.3929
-2.7225 -4.4254 2.3929
-2.5723 -4.5417 2.3929
-2.4177 -4.6534 2.3929
-2.2586 -4.7601 2.3929
-2.0953 -4.8618 2.3929
-1.9280 -4.9582 2.3929
-1.7566 -5.0492 2.3929
-1.5815 -5.1345 2.3929
-1.4028 -5.2141 2.3929
-1.2206 -5.2877 2.3929
-1.0351 -5.3552 2.3929
-0.8466 -5.4163 2.3929
-0.6552 -5.4711 2.3929
-0.4611 -5.5192 2.3929
-0.2646 -5.5606 2.3929
-0.0658 -5.5950 2.3929
0.1349 -5.6225 2.3929
0.3373 -5.6427 2.3929
0.5412 -5.6557 2.3929
0.7463 -5.6613 2.3929
0.9523 -5.6594 2.3929
1.1590 -5.6499 2.3929
1.3661 -5.6327 2.3929
1.5732 -5.6078 2.3929
1.7800 -5.5750 2.3929
1.9863 -5.5344 2.3929
2.1916 -5.4860 2.3929
2.3958 -5.4296 2.3929
2.5984 -5.3652 2.3929
2.7992 -5.2930 2.3929
2.9977 -5.2129 2.3929
3.1937 -5.1249 2.3929
3.3867 -5.0291 2.3929
3.5528 -4.8929 2.3770
3.6286 -4.6428 2.3076
3.7052 -4.4104 2.2474
3.8605 -4.2788 2.2405
4.0228 -4.1541 2.2405
4.1806 -4.0227 2.2405
4.3334 -3.8848 2.2406
4.4809 -3.7407 2.2406
4.6229 -3.5904 2.2406
4.7591 -3.4343 2.2406
4.8891 -3.2726 2.2406
5.0128 -3.1054 2.2406
5.1298 -2.9331 2.2407
5.2399 -2.7560 2.2407
5.3429 -2.5743 2.2407
5.4386 -2.3884 2.2407
5.5268 -2.1985 2.2407
5.6072 -2.0050 2.2407
5.6797 -1.8083 2.2407
5.7442 -1.6086 2.2407
5.8005 -1.4064 2.2407
5.8486 -1.2019 2.2407
5.8882 -0.9957 2.2407
5.9194 -0.7879 2.2407
5.9420 -0.5791 2.2407
5.9561 -0.3696 2.2407
5.9617 -0.1598 2.2407
5.9586 0.0500 2.2407
5.9471 0.2593 2.2407
5.9270 0.4678 2.2406
5.8985 0.6751 2.2406
5.8617 0.8809 2.2406
5.8166 1.0847 2.2406
5.7633 1.2863 2.2406
5.7021 1.4852 2.2406
5.6331 1.6812 2.2405
5.5563 1.8739 2.2405
5.4721 2.0630 2.2405
5.3807 2.2483 2.2405
5.4151 2.4905 2.2969
5.4674 2.7522 2.3663
5.4093 2.9667 2.3929
5.2829 3.1449 2.3929
5.1499 3.3176 2.3929
5.0108 3.4844 2.3929
4.8656 3.6453 2.3929
4.7148 3.7999 2.3929
4.5586 3.9481 2.3929
4.3974 4.0897 2.3929
4.2315 4.2246 2.3929
4.0611 4.3526 2.3929
3.8866 4.4736 2.3929
3.7083 4.5875 2.3929
3.5266 4.6942 2.3929
3.3416 4.7936 2.3929
3.1539 4.8858 2.3929
2.9636 4.9706 2.3929
2.7711 5.0480 2.3929
2.5766 5.1179 2.3929
0.9108 1.9821 0.9155
0.8390 2.0120 0.9196
0.7661 2.0393 0.9236
0.6923 2.0639 0.9277
0.6177 2.0859 0.9318
0.5422 2.1051 0.9359
0.4662 2.1216 0.9401
0.3896 2.1354 0.9442
0.3125 2.1464 0.9483
0.2351 2.1546 0.9524
0.1574 2.1600 0.9565
0.0796 2.1625 0.9605
0.0017 2.1623 0.9646
-0.0761 2.1592 0.9686
-0.1538 2.1534 0.9726
-0.2312 2.1447 0.9765
-0.3082 2.1332 0.9804
-0.3848 2.1190 0.9842
-0.4608 2.1020 0.9880
-0.5362 2.0823 0.9917
-0.6107 2.0598 0.9953
-0.6845 2.0347 0.9989
-0.7573 2.0069 1.0024
-0.8290 1.9765 1.0058
-2.1331 4.6087 2.3929
-2.2902 4.5101 2.3929
-2.4434 4.4067 2.3929
-2.5926 4.2986 2.3929
-2.7377 4.1861 2.3929
-2.8785 4.0692 2.3929
-3.0149 3.9480 2.3929
-3.1469 3.8229 2.3929
-3.2744 3.6938 2.3929
-3.3973 3.5610 2.3929
-3.5154 3.4246 2.3929
-3.6288 3.2848 2.3929
-3.7373 3.1416 2.3929
-3.8408 2.9954 2.3929
-3.9394 2.8462 2.3929
-4.0329 2.6942 2.3929
-4.1213 2.5395 2.3929
-4.2044 2.3822 2.3929
-4.2824 2.2226 2.3929
-4.3550 2.0608 2.3929
-4.4224 1.8970 2.3929
-4.4843 1.7312 2.3929
-4.5409 1.5637 2.3929
-4.5919 1.3945 2.3929
-4.6375 1.2239 2.3929
-4.6776 1.0520 2.3929
-4.7121 0.8790 2.3929
-4.7410 0.7049 2.3929
-4.7643 0.5300 2.3929
-4.7820 0.3544 2.3929
-4.7940 0.1783 2.3929
-4.8004 0.0018 2.3929
-4.8011 -0.1749 2.3929
-4.7961 -0.3517 2.3929
-4.7854 -0.5285 2.3929
-4.7690 -0.7049 2.3929
-4.7469 -0.8810 2.3929
-4.7191 -1.0566 2.3929
-4.6856 -1.2314 2.3929
-4.6463 -1.4053 2.3929
-4.6014 -1.5782 2.3929
-4.5508 -1.7499 2.3929
-4.4945 -1.9202 2.3929
-4.4326 -2.0889 2.3929
-4.3651 -2.2560 2.3929
-4.2919 -2.4212 2.3929
-4.2132 -2.5843 2.3929
-4.1290 -2.7452 2.3929
-4.0393 -2.9037 2.3929
-3.9441 -3.0597 2.3929
-3.8435 -3.2129 2.3929
-3.7376 -3.3632 2.3929
-3.6264 -3.5103 2.3929
-3.5099 -3.6543 2.3929
-3.3883 -3.7947 2.3929
-3.2616 -3.9315 2.3929
-3.1300 -4.0645 2.3929
-2.9934 -4.1934 2.3929
-2.8520 -4.3182 2.3929
-2.7059 -4.4386 2.3929
-2.5553 -4.5545 2.3929
-2.4001 -4.6656 2.3929
-2.2406 -4.7718 2.3929
-2.0768 -4.8728 2.3929
-1.9090 -4.9686 2.3929
-1.7373 -5.0590 2.3929
-1.5617 -5.1437 2.3929
-1.3826 -5.2226 2.3929
-1.2000 -5.2955 2.3929
-1.0142 -5.3623 2.3929
-0.8253 -5.4228 2.3929
-0.6336 -5.4768 2.3929
-0.4392 -5.5242 2.3929
-0.2425 -5.5648 2.3929
-0.0435 -5.5985 2.3929
0.1574 -5.6251 2.3929
0.3600 -5.6446 2.3929
0.5641 -5.6567 2.3929
0.7693 -5.6615 2.3929
0.9754 -5.6587 2.3929
1.1822 -5.6484 2.3929
1.3892 -5.6303 2.3929
1.5963 -5.6045 2.3929
1.8031 -5.5709 2.3929
2.0093 -5.5294 2.3929
2.2145 -5.4801 2.3929
2.4185 -5.4228 2.3929
2.6210 -5.3576 2.3929
2.8215 -5.2844 2.3929
3.0197 -5.2034 2.3929
3.2154 -5.1146 2.3929
3.4081 -5.0179 2.3929
3.5615 -4.8643 2.3689
3.6368 -4.6156 2.3002
3.7164 -4.3859 2.2425
3.8788 -4.2652 2.2405
4.0407 -4.1397 2.2405
4.1979 -4.0076 2.2405
4.3501 -3.8690 2.2406
4.4971 -3.7242 2.2406
4.6384 -3.5733 2.2406
4.7739 -3.4165 2.2406
4.9033 -3.2541 2.2406
5.0262 -3.0864 2.2406
5.1425 -2.9136 2.2407
5.2518 -2.7359 2.2407
5.3540 -2.5538 2.2407
5.4489 -2.3674 2.2407
5.5362 -2.1771 2.2407
5.6157 -1.9832 2.2407
5.6873 -1.7861 2.2407
5.7509 -1.5861 2.2407
5.8063 -1.3836 2.2407
5.8534 -1.1790 2.2407
5.8921 -0.9725 2.2407
5.9223 -0.7646 2.2407
5.9440 -0.5557 2.2407
5.9572 -0.3462 2.2407
5.9618 -0.1363 2.2407
5.9578 0.0734 2.2407
5.9453 0.2827 2.2407
5.9242 0.4910 2.2406
5.8948 0.6982 2.2406
5.8570 0.9038 2.2406
5.8110 1.1074 2.2406
5.7569 1.3087 2.2406
5.6948 1.5073 2.2406
5.6249 1.7029 2.2405
5.5473 1.8952 2.2405
5.4623 2.0839 2.2405
5.3796 2.2715 2.2447
5.4209 2.5190 2.3043
5.4733 2.7823 2.3744
5.3955 2.9869 2.3929
5.2684 3.1645 2.3929
5.1347 3.3365 2.3929
4.9948 3.5027 2.3929
4.8490 3.6628 2.3929
4.6976 3.8167 2.3929
4.5409 3.9642 2.3929
4.3791 4.1051 2.3929
4.2127 4.2392 2.3929
4.0418 4.3664 2.3929
3.8669 4.4867 2.3929
3.6882 4.5998 2.3929
3.5061 4.7058 2.3929
3.3208 4.8044 2.3929
3.1327 4.8957 2.3929
2.9422 4.9796 2.3929
2.7494 5.0562 2.3929
2.5548 5.1252 2.3929
0.9029 1.9855 0.9160
0.8309 2.0151 0.9200
0.7579 2.0421 0.9241
0.6840 2.0665 0.9282
0.6093 2.0882 0.9323
0.5338 2.1071 0.9364
0.4576 2.1233 0.9405
0.3810 2.1368 0.9446
0.3038 2.1474 0.9487
0.2264 2.1553 0.9528
0.1487 2.1604 0.9569
0.0709 2.1626 0.9610
-0.0070 2.1621 0.9650
-0.0848 2.1587 0.9690
-0.1624 2.1525 0.9730
-0.2398 2.1436 0.9769
-0.3168 2.1318 0.9808
-0.3933 2.1172 0.9846
-0.4693 2.0999 0.9884
-0.5445 2.0799 0.9921
-0.6190 2.0571 0.9957
-0.6927 2.0317 0.9993
-0.7653 2.0037 1.0028
-0.8369 1.9730 1.0062
-2.1509 4.5980 2.3929
-2.3075 4.4988 2.3929
-2.4603 4.3949 2.3929
-2.6090 4.2863 2.3929
-2.7536 4.1732 2.3929
-2.8939 4.0558 2.3929
-3.0299 3.9342 2.3929
-3.1614 3.8086 2.3929
-3.2884 3.6791 2.3929
-3.4107 3.5459 2.3929
-3.5283 3.4091 2.3929
-3.6412 3.2689 2.3929
3.8073 -3.9560 2.2715
3.9027 -3.7790 2.2405
4.0534 -3.6571 2.2449
4.1834 -3.5152 2.2405
4.3161 -3.3748 2.2405
4.4434 -3.2289 2.2405
4.5650 -3.0778 2.2406
4.6807 -2.9217 2.2406
4.7902 -2.7609 2.2406
4.8934 -2.5955 2.2406
4.9899 -2.4260 2.2406
5.0796 -2.2524 2.2406
5.1624 -2.0753 2.2406
5.2380 -1.8947 2.2406
5.3063 -1.7111 2.2406
5.3672 -1.5248 2.2406
5.4204 -1.3361 2.2406
5.4660 -1.1453 2.2406
5.5039 -0.9528 2.2406
5.5339 -0.7589 2.2406
5.5560 -0.5640 2.2406
5.5702 -0.3683 2.2406
5.5765 -0.1724 2.2406
5.5748 0.0236 2.2406
5.5652 0.2193 2.2406
5.5477 0.4142 2.2406
5.5224 0.6081 2.2406
5.4893 0.8006 2.2406
5.4486 0.9914 2.2405
5.4003 1.1801 2.2405
5.3445 1.3665 2.2405
5.2815 1.5503 2.2405
5.2388 1.7402 2.2523
5.2818 1.9635 2.3049
5.3290 2.1976 2.3642
5.2969 2.4060 2.3929
5.1933 2.5834 2.3929
5.0830 2.7562 2.3929
4.9663 2.9241 2.3929
4.8435 3.0869 2.3929
4.7148 3.2444 2.3929
4.5804 3.3964 2.3929
4.4407 3.5426 2.3929
4.2959 3.6830 2.3929
4.1463 3.8172 2.3929
3.9921 3.9453 2.3929
3.8337 4.0670 2.3929
3.6714 4.1822 2.3929
3.5054 4.2909 2.3929
3.3360 4.3927 2.3929
3.1636 4.4881 2.3929
2.9883 4.5765 2.3929
2.8106 4.6580 2.3929
2.6307 4.7327 2.3929
0.9341 1.8311 0.9128
0.8677 1.8620 0.9165
0.8002 1.8904 0.9203
0.7317 1.9163 0.9242
0.6623 1.9398 0.9280
0.5921 1.9607 0.9319
0.5212 1.9791 0.9357
0.4497 1.9950 0.9396
0.3776 2.0082 0.9435
0.3051 2.0188 0.9474
0.2322 2.0268 0.9512
0.1592 2.0322 0.9551
0.0859 2.0349 0.9589
0.0126 2.0350 0.9627
-0.0606 2.0324 0.9665
-0.1337 2.0271 0.9702
-0.2066 2.0193 0.9739
-0.2792 2.0088 0.9776
-0.3513 1.9957 0.9812
-0.4229 1.9800 0.9848
-0.4939 1.9617 0.9882
-0.5642 1.9408 0.9917
-0.6337 1.9175 0.9951
-0.7023 1.8916 0.9983
-0.7699 1.8633 1.0016
-0.8365 1.8325 1.0047
-2.1416 4.2726 2.3929
-2.2872 4.1761 2.3929
-2.4291 4.0751 2.3929
-2.5671 3.9698 2.3929
-2.7012 3.8602 2.3929
-2.8312 3.7467 2.3929
-2.9569 3.6292 2.3929
-3.0785 3.5080 2.3929
-3.1957 3.3831 2.3929
-3.3084 3.2548 2.3929
-3.4166 3.1232 2.3929
-3.5202 2.9884 2.3929
-3.6192 2.8506 2.3929
-3.7134 2.7099 2.3929
-3.8028 2.5664 2.3929
-3.8873 2.4204 2.3929
-3.9670 2.2719 2.3929
-4.0416 2.1212 2.3929
-4.1113 1.9683 2.3929
-4.1758 1.8134 2.3929
-4.2353 1.6566 2.3929
-4.2896 1.4981 2.3929
-4.3387 1.3381 2.3929
-4.3826 1.1767 2.3929
-4.4212 1.0140 2.3929
-4.4545 0.8501 2.3929
-4.4825 0.6853 2.3929
-4.5052 0.5197 2.3929
-4.5225 0.3534 2.3929
-4.5344 0.1866 2.3929
-4.5409 0.0194 2.3929
-4.5420 -0.1480 2.3929
-4.5377 -0.3155 2.3929
-4.5280 -0.4829 2.3929
-4.5128 -0.6501 2.3929
-4.4922 -0.8169 2.3929
-4.4661 -0.9831 2.3929
-4.4346 -1.1487 2.3929
-4.3977 -1.3134 2.3929
-4.3553 -1.4771 2.3929
-4.3076 -1.6396 2.3929
-4.2545 -1.8008 2.3929
-4.1960 -1.9605 2.3929
-4.1321 -2.1186 2.3929
-4.0630 -2.2749 2.3929
-3.9885 -2.4292 2.3929
-3.9089 -2.5813 2.3929
-3.8240 -2.7312 2.3929
-3.7339 -2.8785 2.3929
-3.6388 -3.0233 2.3929
-3.5386 -3.1652 2.3929
-3.4334 -3.3041 2.3929
-3.3233 -3.4399 2.3929
-3.2083 -3.5724 2.3929
-3.0885 -3.7014 2.3929
-2.9640 -3.8267 2.3929
-2.8350 -3.9482 2.3929
-2.7014 -4.0657 2.3929
-2.5634 -4.1790 2.3929
-2.4210 -4.2879 2.3929
-2.2745 -4.3924 2.3929
-2.1240 -4.4921 2.3929
-1.9694 -4.5870 2.3929
-1.8111 -4.6769 2.3929
-1.6491 -4.7615 2.3929
-1.4837 -4.8409 2.3929
-1.3148 -4.9147 2.3929
-1.1428 -4.9828 2.3929
-0.9678 -5.0452 2.3929
-0.7900 -5.1015 2.3929
-0.6096 -5.1518 2.3929
-0.4267 -5.1958 2.3929
-0.2417 -5.2334 2.3929
-0.0546 -5.2645 2.3929
0.1342 -5.2889 2.3929
0.3245 -5.3066 2.3929
0.5161 -5.3175 2.3929
0.7088 -5.3214 2.3929
0.9022 -5.3182 2.3929
1.0961 -5.3079 2.3929
1.2903 -5.2904 2.3929
1.4844 -5.2657 2.3929
1.6782 -5.2336 2.3929
1.8713 -5.1943 2.3929
2.0636 -5.1474 2.3929
2.2546 -5.0933 2.3929
2.4440 -5.0318 2.3929
2.6317 -4.9629 2.3929
2.8172 -4.8866 2.3929
3.0002 -4.8031 2.3929
3.1804 -4.7123 2.3929
3.3575 -4.6144 2.3929
3.5312 -4.5094 2.3929
3.6818 -4.3745 2.3804
3.7497 -4.1488 2.3203
3.8143 -3.9322 2.2657
3.9189 -3.7649 2.2405
4.0624 -3.6364 2.2412
4.1985 -3.4998 2.2405
4.3306 -3.3588 2.2405
4.4573 -3.2123 2.2405
4.5782 -3.0606 2.2406
4.6933 -2.9040 2.2406
4.8021 -2.7426 2.2406
4.9045 -2.5768 2.2406
5.0003 -2.4068 2.2406
5.0892 -2.2328 2.2406
5.1712 -2.0552 2.2406
5.2460 -1.8743 2.2406
5.3135 -1.6904 2.2406
5.3735 -1.5038 2.2406
5.4259 -1.3149 2.2406
5.4707 -1.1239 2.2406
5.5076 -0.9312 2.2406
5.5368 -0.7372 2.2406
5.5580 -0.5421 2.2406
5.5713 -0.3464 2.2406
5.5767 -0.1504 2.2406
5.5741 0.0455 2.2406
5.5636 0.2411 2.2406
5.5453 0.4359 2.2406
5.5191 0.6297 2.2406
5.4852 0.8220 2.2405
5.4436 1.0126 2.2405
5.3944 1.2011 2.2405
5.3378 1.3872 2.2405
5.2740 1.5706 2.2405
5.2410 1.7639 2.2568
5.2870 1.9891 2.3113
5.3344 2.2244 2.3712
5.2857 2.4260 2.3929
5.1813 2.6029 2.3929
5.0703 2.7752 2.3929
4.9529 2.9425 2.3929
4.8294 3.1048 2.3929
4.7000 3.2617 2.3929
4.5651 3.4130 2.3929
4.4248 3.5586 2.3929
4.2794 3.6983 2.3929
4.1292 3.8319 2.3929
3.9746 3.9592 2.3929
3.8158 4.0802 2.3929
3.6530 4.1947 2.3929
3.4866 4.3026 2.3929
3.3169 4.4037 2.3929
3.1441 4.4982 2.3929
2.9686 4.5859 2.3929
2.7906 4.6667 2.3929
2.6105 4.7406 2.3929
0.9268 1.8347 0.9132
0.8602 1.8653 0.9170
0.7926 1.8934 0.9208
0.7240 1.9191 0.9246
0.6545 1.9423 0.9284
0.5842 1.9629 0.9323
0.5132 1.9810 0.9362
0.4416 1.9966 0.9400
0.3695 2.0095 0.9439
0.2970 2.0198 0.9478
0.2241 2.0275 0.9517
0.1510 2.0326 0.9555
0.0777 2.0350 0.9593
0.0044 2.0348 0.9631
-0.0688 2.0319 0.9669
-0.1419 2.0264 0.9706
-0.2147 2.0182 0.9743
-0.2873 2.0074 0.9780
-0.3593 1.9940 0.9816
-0.4309 1.9780 0.9851
-0.5018 1.9595 0.9886
-0.5720 1.9383 0.9921
-0.6414 1.9147 0.9954
-0.7099 1.8886 0.9987
-0.7774 1.8600 1.0019
-0.8439 1.8289 1.0051
-2.1580 4.2620 2.3929
-2.3033 4.1650 2.3929
-2.4447 4.0635 2.3929
-2.5823 3.9577 2.3929
-2.7159 3.8477 2.3929
-2.8454 3.7337 2.3929
-2.9707 3.6158 2.3929
-3.0918 3.4942 2.3929
-3.2085 3.3690 2.3929
-3.3207 3.2403 2.3929
-3.4284 3.1083 2.3929
-3.5315 2.9731 2.3929
-3.6299 2.8350 2.3929
-3.7236 2.6940 2.3929
-3.8125 2.5502 2.3929
-3.8965 2.4039 2.3929
-3.9756 2.2552 2.3929
-4.0497 2.1042 2.3929
-4.1187 1.9511 2.3929
-4.1827 1.7959 2.3929
-4.2416 1.6390 2.3929
-4.2953 1.4803 2.3929
-4.3439 1.3201 2.3929
-4.3872 1.1585 2.3929
-4.4252 0.9957 2.3929
-4.4579 0.8318 2.3929
-4.4853 0.6669 2.3929
-4.5074 0.5011 2.3929
-4.5241 0.3348 2.3929
-4.5354 0.1679 2.3929
-4.5413 0.0007 2.3929
-4.5418 -0.1667 2.3929
-4.5369 -0.3342 2.3929
-4.5266 -0.5016 2.3929
-4.5108 -0.6687 2.3929
-4.4895 -0.8355 2.3929
-4.4629 -1.0017 2.3929
-4.4308 -1.1671 2.3929
-4.3932 -1.3317 2.3929
-4.3503 -1.4953 2.3929
-4.3019 -1.6577 2.3929
-4.2482 -1.8188 2.3929
-4.1891 -1.9783 2.3929
-4.1247 -2.1362 2.3929
-4.0549 -2.2922 2.3929
-3.9799 -2.4463 2.3929
-3.8996 -2.5982 2.3929
-3.8142 -2.7478 2.3929
-3.7236 -2.8948 2.3929
-3.6279 -3.0393 2.3929
-3.5271 -3.1809 2.3929
-3.4213 -3.3195 2.3929
-3.3107 -3.4549 2.3929
-3.1951 -3.5870 2.3929
-3.0748 -3.7156 2.3929
-2.9499 -3.8405 2.3929
-2.8203 -3.9615 2.3929
-2.6862 -4.0785 2.3929
-2.5477 -4.1914 2.3929
-2.4049 -4.2998 2.3929
-2.2579 -4.4037 2.3929
-2.1069 -4.5030 2.3929
-1.9519 -4.5973 2.3929
-1.7932 -4.6866 2.3929
-1.6308 -4.7707 2.3929
-1.4650 -4.8494 2.3929
-1.2958 -4.9226 2.3929
-1.1234 -4.9901 2.3929
-0.9481 -5.0518 2.3929
-0.7700 -5.1074 2.3929
-0.5893 -5.1570 2.3929
-0.4062 -5.2003 2.3929
-0.2209 -5.2372 2.3929
-0.0336 -5.2675 2.3929
0.1554 -5.2912 2.3929
0.3459 -5.3082 2.3929
0.5376 -5.3183 2.3929
