ply
format ascii 1.0
element vertex 2173
property float32 x
property float32 y
property float32 z
end_header
-4.2349 -3.5197 2.3897
-4.1068 -3.6698 2.3897
-3.9734 -3.8153 2.3897
-3.8348 -3.9559 2.3897
-3.6912 -4.0914 2.3897
-3.5428 -4.2217 2.3897
-3.3898 -4.3465 2.3897
-3.2323 -4.4658 2.3897
-3.0707 -4.5794 2.3897
-2.9050 -4.6870 2.3897
-2.7356 -4.7887 2.3897
-2.5626 -4.8841 2.3897
-2.3862 -4.9733 2.3897
-2.2068 -5.0561 2.3897
-2.0244 -5.1324 2.3897
-1.8394 -5.2021 2.3897
-1.6520 -5.2650 2.3897
-1.4625 -5.3212 2.3897
-1.2710 -5.3704 2.3897
-1.0779 -5.4128 2.3897
-0.8834 -5.4482 2.3897
-0.6877 -5.4765 2.3897
-0.4911 -5.4977 2.3897
-0.2939 -5.5119 2.3897
-0.0963 -5.5189 2.3897
0.1015 -5.5188 2.3897
0.2991 -5.5116 2.3897
0.4963 -5.4973 2.3897
0.6929 -5.4758 2.3897
0.8885 -5.4473 2.3897
1.0830 -5.4118 2.3897
1.2761 -5.3692 2.3897
1.4675 -5.3197 2.3897
1.6570 -5.2634 2.3897
1.8444 -5.2003 2.3897
2.0293 -5.1305 2.3897
2.2116 -5.0540 2.3897
2.3909 -4.9711 2.3897
2.5672 -4.8817 2.3897
2.5654 -4.4808 2.2373
2.7239 -4.3855 2.2373
2.8789 -4.2846 2.2373
3.0301 -4.1781 2.2373
3.1774 -4.0663 2.2373
3.3206 -3.9493 2.2373
3.4594 -3.8272 2.2373
3.5937 -3.7002 2.2373
3.7233 -3.5684 2.2374
3.8481 -3.4321 2.2374
3.9679 -3.2915 2.2374
4.0826 -3.1466 2.2374
4.1919 -2.9977 2.2374
4.2958 -2.8450 2.2374
4.4013 -2.6932 2.2410
4.4944 -2.5333 2.2412
4.5817 -2.3703 2.2413
4.6629 -2.2042 2.2415
4.7382 -2.0354 2.2416
4.8073 -1.8639 2.2417
4.8701 -1.6901 2.2418
4.9266 -1.5142 2.2419
4.9768 -1.3364 2.2420
5.0205 -1.1569 2.2420
5.0576 -0.9759 2.2421
5.0883 -0.7938 2.2421
5.1123 -0.6108 2.2421
5.1298 -0.4270 2.2421
5.1406 -0.2427 2.2422
5.1447 -0.0583 2.2421
5.1422 0.1262 2.2421
5.1331 0.3104 2.2421
5.1174 0.4942 2.2420
5.0950 0.6772 2.2420
5.0661 0.8592 2.2419
5.0307 1.0401 2.2418
4.9888 1.2195 2.2418
4.9405 1.3973 2.2417
4.8859 1.5731 2.2415
4.8250 1.7469 2.2414
4.7579 1.9183 2.2413
4.6847 2.0871 2.2411
4.6055 2.2532 2.2410
4.5204 2.4163 2.2408
4.4296 2.5761 2.2406
4.3331 2.7326 2.2405
4.2310 2.8855 2.2403
4.1236 3.0346 2.2401
4.0110 3.1797 2.2399
3.8932 3.3206 2.2396
3.7705 3.4572 2.2394
3.6430 3.5893 2.2392
3.5109 3.7166 2.2389
3.3743 3.8392 2.2387
3.2335 3.9567 2.2384
3.0887 4.0691 2.2381
2.9399 4.1763 2.2379
2.7874 4.2780 2.2376
2.6315 4.3743 2.2374
2.4988 4.5128 2.2612
2.4678 4.8607 2.3898
0.9108 1.9657 0.9498
0.8397 1.9973 0.9500
0.7676 2.0263 0.9502
0.6944 2.0527 0.9503
0.6203 2.0765 0.9505
0.5454 2.0976 0.9506
0.4698 2.1159 0.9507
0.3936 2.1316 0.9508
0.3169 2.1445 0.9509
0.2397 2.1546 0.9510
0.1622 2.1619 0.9511
0.0845 2.1664 0.9511
0.0067 2.1681 0.9512
-0.0711 2.1671 0.9512
-0.1489 2.1632 0.9512
-0.2264 2.1565 0.9512
-0.3037 2.1470 0.9512
-0.3806 2.1348 0.9512
-0.4569 2.1197 0.9512
-0.5327 2.1020 0.9511
-0.6078 2.0815 0.9510
-0.6821 2.0583 0.9510
-0.7556 2.0325 0.9509
-0.8280 2.0040 0.9508
-0.8994 1.9730 0.9507
-2.4376 4.8757 2.3898
-2.6113 4.7856 2.3898
-2.7817 4.6894 2.3898
-2.9486 4.5871 2.3898
-3.1117 4.4789 2.3898
-3.2709 4.3650 2.3898
-3.4259 4.2454 2.3898
-3.5766 4.1204 2.3898
-3.7228 3.9900 2.3898
-3.8642 3.8545 2.3898
-4.0007 3.7140 2.3898
-4.1321 3.5687 2.3898
-4.2582 3.4187 2.3898
-4.3790 3.2644 2.3898
-4.4941 3.1057 2.3898
-4.6036 2.9431 2.3898
-4.7071 2.7766 2.3898
-4.8047 2.6065 2.3898
-4.8961 2.4330 2.3898
-4.9813 2.2562 2.3898
-5.0601 2.0766 2.3898
-5.1325 1.8941 2.3898
-5.1983 1.7092 2.3898
-5.2574 1.5220 2.3898
-5.3099 1.3328 2.3898
-5.3555 1.1417 2.3898
-5.3942 0.9492 2.3898
-5.4261 0.7553 2.3898
-5.4509 0.5604 2.3898
-5.4688 0.3646 2.3898
-5.4797 0.1683 2.3898
-5.4835 -0.0283 2.3898
-5.4802 -0.2249 2.3898
-5.4699 -0.4213 2.3898
-5.4526 -0.6173 2.3898
-5.4283 -0.8126 2.3898
-5.3969 -1.0069 2.3898
-5.3586 -1.2000 2.3898
-5.3133 -1.3916 2.3898
-5.2612 -1.5816 2.3898
-5.2023 -1.7695 2.3898
-5.1367 -1.9553 2.3898
-5.0645 -2.1386 2.3898
-4.9857 -2.3193 2.3898
-4.9004 -2.4970 2.3898
-4.8087 -2.6716 2.3898
-4.7109 -2.8428 2.3898
-4.6069 -3.0103 2.3898
-4.4970 -3.1741 2.3897
-0.0960 2.0385 0.9506
-0.1691 2.0338 0.9506
-0.2420 2.0264 0.9506
-0.3146 2.0165 0.9506
-0.3868 2.0039 0.9506
-0.4585 1.9887 0.9505
-0.5296 1.9710 0.9505
-0.6000 1.9507 0.9504
-0.6696 1.9279 0.9504
-0.7384 1.9026 0.9503
-0.8062 1.8748 0.9502
-0.8729 1.8447 0.9501
-2.3611 4.5586 2.3898
-2.5234 4.4714 2.3898
-2.6826 4.3785 2.3898
-2.8384 4.2799 2.3898
-2.9905 4.1758 2.3898
-3.1389 4.0664 2.3898
-3.2832 3.9516 2.3898
-3.4234 3.8318 2.3898
-3.5593 3.7071 2.3898
-3.6906 3.5776 2.3898
-3.8173 3.4434 2.3898
-3.9390 3.3048 2.3898
-4.0558 3.1619 2.3898
-4.1674 3.0149 2.3898
-4.2737 2.8639 2.3898
-4.3745 2.7093 2.3898
-4.4697 2.5511 2.3898
-4.5593 2.3896 2.3898
-4.6430 2.2249 2.3898
-4.7208 2.0574 2.3898
-4.7926 1.8871 2.3898
-4.8582 1.7144 2.3898
-4.9177 1.5393 2.3898
-4.9708 1.3623 2.3898
-5.0176 1.1834 2.3898
-5.0579 1.0029 2.3898
-5.0917 0.8210 2.3898
-5.1191 0.6380 2.3898
-5.1398 0.4542 2.3898
-5.1540 0.2696 2.3898
-5.1615 0.0847 2.3898
-5.1624 -0.1005 2.3898
-5.1566 -0.2856 2.3898
-5.1442 -0.4704 2.3898
-5.1252 -0.6546 2.3898
-5.0996 -0.8381 2.3898
-5.0674 -1.0206 2.3898
-5.0287 -1.2019 2.3898
-4.9835 -1.3817 2.3898
-4.9318 -1.5598 2.3898
-4.8738 -1.7359 2.3898
-4.8095 -1.9099 2.3898
-4.7390 -2.0815 2.3898
-4.6623 -2.2504 2.3898
-4.5796 -2.4166 2.3898
-4.4909 -2.5797 2.3898
-4.3964 -2.7395 2.3898
-4.2963 -2.8958 2.3898
-4.1905 -3.0485 2.3898
-4.0794 -3.1972 2.3897
-3.9629 -3.3419 2.3897
-3.8413 -3.4824 2.3897
-3.7146 -3.6184 2.3897
-3.5832 -3.7497 2.3897
-3.4471 -3.8763 2.3897
-3.3065 -3.9979 2.3897
-3.1616 -4.1144 2.3897
-3.0126 -4.2255 2.3897
-2.8597 -4.3313 2.3897
-2.7030 -4.4315 2.3897
-2.5428 -4.5260 2.3897
-2.3793 -4.6147 2.3897
-2.2127 -4.6974 2.3897
-2.0432 -4.7741 2.3897
-1.8711 -4.8447 2.3897
-1.6965 -4.9090 2.3897
-1.5197 -4.9669 2.3897
-1.3409 -5.0185 2.3897
-1.1603 -5.0636 2.3897
-0.9783 -5.1021 2.3897
-0.7950 -5.1341 2.3897
-0.6106 -5.1594 2.3897
-0.4254 -5.1781 2.3897
-0.2397 -5.1901 2.3897
-0.0536 -5.1954 2.3897
0.1325 -5.1940 2.3897
0.3184 -5.1858 2.3897
0.5039 -5.1710 2.3897
0.6888 -5.1495 2.3897
0.8727 -5.1213 2.3897
1.0556 -5.0866 2.3897
1.2370 -5.0453 2.3897
1.4168 -4.9974 2.3897
1.5948 -4.9431 2.3897
1.7707 -4.8825 2.3897
1.9443 -4.8155 2.3897
2.1154 -4.7424 2.3897
2.2836 -4.6631 2.3897
2.4490 -4.5779 2.3897
2.4446 -4.2006 2.2373
2.5932 -4.1098 2.2373
2.7384 -4.0138 2.2373
2.8800 -3.9126 2.2373
3.0179 -3.8064 2.2373
3.1519 -3.6953 2.2374
3.2818 -3.5795 2.2374
3.4074 -3.4591 2.2374
3.5285 -3.3342 2.2374
3.6451 -3.2051 2.2374
3.7569 -3.0719 2.2374
3.8639 -2.9348 2.2374
3.9659 -2.7940 2.2374
4.0683 -2.6532 2.2405
4.1602 -2.5054 2.2406
4.2468 -2.3544 2.2407
4.3278 -2.2004 2.2409
4.4032 -2.0436 2.2410
4.4729 -1.8841 2.2411
4.5368 -1.7223 2.2412
4.5948 -1.5583 2.2413
4.6469 -1.3924 2.2414
4.6929 -1.2247 2.2414
4.7329 -1.0555 2.2415
4.7667 -0.8850 2.2415
4.7943 -0.7134 2.2416
4.8158 -0.5409 2.2416
4.8310 -0.3678 2.2416
4.8400 -0.1943 2.2416
4.8427 -0.0207 2.2416
4.8392 0.1529 2.2416
4.8295 0.3263 2.2415
4.8135 0.4991 2.2415
4.7913 0.6713 2.2415
4.7629 0.8424 2.2414
4.7284 1.0124 2.2413
4.6879 1.1811 2.2412
4.6413 1.3481 2.2411
4.5887 1.5133 2.2410
4.5303 1.6765 2.2409
4.4660 1.8374 2.2408
4.3960 1.9959 2.2406
4.3204 2.1517 2.2405
4.2393 2.3047 2.2403
4.1528 2.4546 2.2402
4.0609 2.6013 2.2400
3.9639 2.7446 2.2398
3.8619 2.8843 2.2396
3.7549 3.0202 2.2394
3.6431 3.1521 2.2392
3.5267 3.2799 2.2390
3.4059 3.4035 2.2388
3.2807 3.5226 2.2385
3.1513 3.6371 2.2383
3.0180 3.7469 2.2380
2.8809 3.8518 2.2378
2.7401 3.9517 2.2375
2.5960 4.0467 2.2374
2.4822 4.1932 2.2679
2.4550 4.5091 2.3898
0.9101 1.8246 0.9492
0.8441 1.8562 0.9494
0.7770 1.8855 0.9495
0.7089 1.9123 0.9497
0.6398 1.9367 0.9498
0.5699 1.9585 0.9499
0.4993 1.9779 0.9501
0.4280 1.9947 0.9502
0.3562 2.0088 0.9503
0.2838 2.0205 0.9504
0.2112 2.0294 0.9504
0.1382 2.0358 0.9505
0.0650 2.0395 0.9505
-0.0082 2.0406 0.9506
-0.0815 2.0391 0.9506
-0.1546 2.0349 0.9506
-0.2276 2.0281 0.9506
-0.3002 2.0186 0.9506
-0.3725 2.0066 0.9506
-0.4443 1.9919 0.9506
-0.5155 1.9747 0.9505
-0.5861 1.9549 0.9505
-0.6559 1.9326 0.9504
-0.7248 1.9078 0.9503
-0.7928 1.8806 0.9502
-0.8598 1.8508 0.9501
-2.3285 4.5752 2.3898
-2.4914 4.4892 2.3898
-2.6513 4.3974 2.3898
-2.8077 4.2999 2.3898
-2.9606 4.1969 2.3898
-3.1097 4.0885 2.3898
-3.2549 3.9748 2.3898
-3.3960 3.8560 2.3898
-3.5327 3.7323 2.3898
-3.6649 3.6037 2.3898
-3.7925 3.4704 2.3898
-3.9152 3.3327 2.3898
-4.0330 3.1906 2.3898
-4.1456 3.0444 2.3898
-4.2530 2.8942 2.3898
-4.3549 2.7403 2.3898
-4.4513 2.5828 2.3898
-4.5420 2.4219 2.3898
-4.6269 2.2579 2.3898
-4.7059 2.0909 2.3898
-4.7788 1.9211 2.3898
-4.8457 1.7488 2.3898
-4.9064 1.5742 2.3898
-4.9607 1.3976 2.3898
-5.0088 1.2190 2.3898
-5.0504 1.0388 2.3898
-5.0855 0.8572 2.3898
-5.1142 0.6744 2.3898
-5.1362 0.4907 2.3898
-5.1517 0.3063 2.3898
-5.1605 0.1214 2.3898
-5.1627 -0.0637 2.3898
-5.1583 -0.2488 2.3898
-5.1472 -0.4337 2.3898
-5.1295 -0.6181 2.3898
-5.1052 -0.8018 2.3898
-5.0743 -0.9845 2.3898
-5.0369 -1.1660 2.3898
-4.9930 -1.3461 2.3898
-4.9426 -1.5246 2.3898
-4.8858 -1.7011 2.3898
-4.8228 -1.8755 2.3898
-4.7534 -2.0476 2.3898
-4.6780 -2.2171 2.3898
-4.5965 -2.3838 2.3898
-4.5090 -2.5475 2.3898
-4.4157 -2.7080 2.3898
-4.3166 -2.8650 2.3898
-4.2120 -3.0184 2.3898
-4.1019 -3.1680 2.3897
-3.9864 -3.3135 2.3897
-3.8658 -3.4548 2.3897
-3.7402 -3.5917 2.3897
-3.6097 -3.7240 2.3897
-3.4745 -3.8515 2.3897
-3.3348 -3.9741 2.3897
-3.1907 -4.0916 2.3897
-3.0425 -4.2039 2.3897
-2.8903 -4.3108 2.3897
-2.7344 -4.4121 2.3897
-2.5749 -4.5077 2.3897
-2.4120 -4.5976 2.3897
-2.2460 -4.6815 2.3897
-2.0771 -4.7594 2.3897
-1.9055 -4.8312 2.3897
-1.7313 -4.8967 2.3897
-1.5549 -4.9559 2.3897
-1.3765 -5.0088 2.3897
-1.1963 -5.0551 2.3897
-1.0145 -5.0950 2.3897
-0.8314 -5.1283 2.3897
-0.6473 -5.1549 2.3897
-0.4622 -5.1749 2.3897
-0.2766 -5.1882 2.3897
-0.0906 -5.1949 2.3897
0.0955 -5.1948 2.3897
0.2815 -5.1880 2.3897
0.4671 -5.1745 2.3897
0.6521 -5.1543 2.3897
0.8363 -5.1275 2.3897
1.0194 -5.0940 2.3897
1.2011 -5.0540 2.3897
1.3813 -5.0074 2.3897
1.5596 -4.9544 2.3897
1.7360 -4.8950 2.3897
1.9100 -4.8293 2.3897
2.0816 -4.7574 2.3897
2.2505 -4.6793 2.3897
2.4164 -4.5953 2.3897
2.4147 -4.2180 2.2373
2.5639 -4.1283 2.2373
2.7098 -4.0333 2.2373
2.8522 -3.9331 2.2373
2.9909 -3.8279 2.2373
3.1256 -3.7177 2.2374
3.2563 -3.6028 2.2374
3.3828 -3.4833 2.2374
3.5048 -3.3593 2.2374
3.6223 -3.2311 2.2374
3.7351 -3.0987 2.2374
3.8431 -2.9623 2.2374
3.9460 -2.8222 2.2374
4.0494 -2.6822 2.2404
4.1424 -2.5350 2.2406
4.2300 -2.3846 2.2407
4.3121 -2.2312 2.2408
4.3887 -2.0749 2.2410
4.4595 -1.9160 2.2411
4.5246 -1.7546 2.2412
4.5838 -1.5911 2.2413
4.6370 -1.4255 2.2414
4.6842 -1.2581 2.2414
4.7254 -1.0892 2.2415
4.7605 -0.9189 2.2415
4.7894 -0.7475 2.2416
4.8120 -0.5752 2.2416
4.8285 -0.4022 2.2416
4.8387 -0.2288 2.2416
4.8427 -0.0552 2.2416
4.8404 0.1185 2.2416
4.8319 0.2919 2.2416
4.8171 0.4649 2.2415
4.7962 0.6372 2.2415
4.7690 0.8085 2.2414
4.7358 0.9788 2.2413
4.6964 1.1477 2.2412
4.6510 1.3151 2.2411
4.5996 1.4806 2.2410
4.5423 1.6442 2.2409
4.4792 1.8056 2.2408
4.4104 1.9646 2.2407
4.3359 2.1210 2.2405
4.2559 2.2745 2.2404
4.1704 2.4251 2.2402
4.0796 2.5724 2.2400
3.9836 2.7164 2.2398
3.8825 2.8568 2.2397
3.7765 2.9935 2.2395
3.6657 3.1262 2.2392
3.5502 3.2549 2.2390
3.4302 3.3793 2.2388
3.3059 3.4993 2.2386
3.1773 3.6147 2.2383
3.0448 3.7255 2.2381
2.9084 3.8314 2.2378
2.7683 3.9323 2.2376
2.6248 4.0282 2.2374
2.4884 4.1363 2.2465
2.4750 4.4696 2.3781
0.9231 1.8180 0.9491
0.8573 1.8502 0.9493
0.7904 1.8799 0.9495
0.7225 1.9072 0.9496
0.6536 1.9321 0.9498
0.5839 1.9544 0.9499
0.5134 1.9742 0.9500
0.4422 1.9915 0.9502
0.3705 2.0062 0.9503
0.2982 2.0184 0.9503
0.2256 2.0279 0.9504
0.1527 2.0347 0.9505
0.0795 2.0390 0.9505
0.0063 2.0406 0.9506
-0.0670 2.0396 0.9506
-0.1401 2.0359 0.9506
-0.2131 2.0296 0.9506
-0.2858 2.0207 0.9506
-0.3582 2.0092 0.9506
-0.4301 1.9951 0.9506
-0.5014 1.9783 0.9505
-0.5721 1.9591 0.9505
-0.6421 1.9373 0.9504
-0.7112 1.9129 0.9503
-0.7794 1.8862 0.9502
-0.8466 1.8569 0.9501
-0.9126 1.8253 0.9500
-2.4593 4.5067 2.3898
-2.6198 4.4161 2.3898
-2.7769 4.3197 2.3898
-2.9305 4.2178 2.3898
-3.0804 4.1105 2.3898
-3.2264 3.9978 2.3898
-3.3683 3.8800 2.3898
-3.5059 3.7572 2.3898
-3.6390 3.6296 2.3898
-3.7675 3.4972 2.3898
-3.8913 3.3604 2.3898
-4.0100 3.2191 2.3898
-4.1237 3.0737 2.3898
-4.2321 2.9243 2.3898
-4.3351 2.7711 2.3898
-4.4326 2.6143 2.3898
-4.5244 2.4541 2.3898
-4.6105 2.2907 2.3898
-4.6906 2.1243 2.3898
-4.7648 1.9550 2.3898
-4.8329 1.7832 2.3898
-4.8948 1.6091 2.3898
-4.9504 1.4328 2.3898
-4.9998 1.2546 2.3898
-5.0426 1.0747 2.3898
-5.0791 0.8934 2.3898
-5.1090 0.7108 2.3898
-5.1324 0.5273 2.3898
-5.1491 0.3430 2.3898
-5.1593 0.1581 2.3898
-5.1628 -0.0269 2.3898
-5.1597 -0.2121 2.3898
-5.1500 -0.3970 2.3898
-5.1336 -0.5815 2.3898
-5.1106 -0.7654 2.3898
-5.0810 -0.9483 2.3898
-5.0449 -1.1301 2.3898
-5.0022 -1.3105 2.3898
-4.9531 -1.4893 2.3898
-4.8976 -1.6662 2.3898
-4.8358 -1.8411 2.3898
-4.7677 -2.0136 2.3898
-4.6935 -2.1837 2.3898
-4.6131 -2.3510 2.3898
-4.5268 -2.5153 2.3898
-4.4346 -2.6764 2.3898
-4.3367 -2.8342 2.3898
-4.2332 -2.9883 2.3898
-0.0906 1.9230 0.9501
-0.1596 1.9185 0.9501
-0.2283 1.9116 0.9501
-0.2968 1.9022 0.9501
-0.3649 1.8903 0.9501
-0.4325 1.8760 0.9500
-0.4996 1.8593 0.9500
-0.5660 1.8402 0.9499
-0.6317 1.8187 0.9498
-0.6966 1.7948 0.9498
-0.7605 1.7686 0.9497
-0.8235 1.7401 0.9496
-0.8854 1.7094 0.9495
-2.3819 4.2202 2.3898
-2.5321 4.1325 2.3898
-2.6791 4.0394 2.3898
-2.8227 3.9411 2.3898
-2.9627 3.8378 2.3898
-3.0990 3.7295 2.3898
-3.2313 3.6164 2.3898
-3.3595 3.4986 2.3898
-3.4834 3.3764 2.3898
-3.6029 3.2497 2.3898
-3.7178 3.1188 2.3898
-3.8279 2.9839 2.3898
-3.9332 2.8452 2.3898
-4.0335 2.7027 2.3898
-4.1286 2.5567 2.3898
-4.2185 2.4074 2.3898
-4.3030 2.2549 2.3898
-4.3820 2.0995 2.3898
-4.4554 1.9414 2.3898
-4.5230 1.7807 2.3898
-4.5849 1.6176 2.3898
-4.6410 1.4524 2.3898
-4.6911 1.2853 2.3898
-4.7352 1.1164 2.3898
-4.7732 0.9461 2.3898
-4.8051 0.7745 2.3898
-4.8308 0.6018 2.3898
-4.8503 0.4283 2.3898
-4.8636 0.2541 2.3898
-4.8707 0.0796 2.3898
-4.8715 -0.0951 2.3898
-4.8660 -0.2698 2.3898
-4.8543 -0.4442 2.3898
-4.8363 -0.6181 2.3898
-4.8121 -0.7912 2.3898
-4.7816 -0.9634 2.3898
-4.7450 -1.1344 2.3898
-4.7023 -1.3041 2.3898
-4.6535 -1.4721 2.3898
-4.5988 -1.6383 2.3898
-4.5380 -1.8024 2.3898
-4.4714 -1.9643 2.3898
-4.3990 -2.1237 2.3898
-4.3209 -2.2804 2.3898
-4.2373 -2.4343 2.3898
-4.1481 -2.5850 2.3898
-4.0535 -2.7325 2.3898
-3.9537 -2.8765 2.3898
-3.8488 -3.0169 2.3898
-3.7389 -3.1534 2.3898
-3.6241 -3.2858 2.3897
-3.5046 -3.4141 2.3897
-3.3806 -3.5380 2.3897
-3.2521 -3.6574 2.3897
-3.1195 -3.7721 2.3897
-2.9828 -3.8820 2.3897
-2.8422 -3.9868 2.3897
-2.6979 -4.0866 2.3897
-2.5501 -4.1811 2.3897
-2.3989 -4.2702 2.3897
-2.2447 -4.3539 2.3897
-2.0875 -4.4319 2.3897
-1.9276 -4.5042 2.3897
-1.7652 -4.5708 2.3897
-1.6005 -4.6314 2.3897
-1.4337 -4.6861 2.3897
-1.2650 -4.7347 2.3897
-1.0947 -4.7772 2.3897
-0.9229 -4.8136 2.3897
-0.7499 -4.8437 2.3897
-0.5760 -4.8676 2.3897
-0.4013 -4.8852 2.3897
-0.2261 -4.8965 2.3897
-0.0506 -4.9015 2.3897
0.1250 -4.9002 2.3897
0.3004 -4.8925 2.3897
0.4754 -4.8785 2.3897
0.6498 -4.8583 2.3897
0.8233 -4.8317 2.3897
0.9958 -4.7989 2.3897
1.1670 -4.7600 2.3897
1.3366 -4.7148 2.3897
1.5045 -4.6636 2.3897
1.6705 -4.6064 2.3897
1.8343 -4.5433 2.3897
1.9956 -4.4743 2.3897
2.1544 -4.3995 2.3897
2.3104 -4.3191 2.3897
2.3261 -3.9973 2.2566
2.4464 -3.8776 2.2374
2.5835 -3.7870 2.2374
2.7171 -3.6916 2.2374
2.8472 -3.5914 2.2374
2.9736 -3.4866 2.2374
3.0962 -3.3774 2.2374
3.2147 -3.2638 2.2374
3.3290 -3.1460 2.2374
3.4391 -3.0242 2.2374
3.5446 -2.8986 2.2374
3.6456 -2.7692 2.2374
3.7460 -2.6394 2.2399
3.8377 -2.5032 2.2400
3.9245 -2.3637 2.2402
4.0061 -2.2213 2.2403
4.0826 -2.0760 2.2404
4.1538 -1.9281 2.2405
4.2195 -1.7777 2.2406
4.2798 -1.6251 2.2407
4.3346 -1.4704 2.2408
4.3837 -1.3139 2.2409
4.4272 -1.1557 2.2410
4.4649 -0.9961 2.2410
4.4969 -0.8352 2.2411
4.5230 -0.6733 2.2411
4.5433 -0.5106 2.2411
4.5577 -0.3473 2.2411
4.5663 -0.1837 2.2411
4.5689 -0.0198 2.2411
4.5656 0.1440 2.2411
4.5565 0.3075 2.2411
4.5414 0.4706 2.2410
4.5205 0.6330 2.2410
4.4938 0.7945 2.2409
4.4613 0.9550 2.2408
4.4231 1.1141 2.2408
4.3792 1.2717 2.2407
4.3297 1.4276 2.2406
4.2746 1.5815 2.2405
4.2140 1.7334 2.2403
4.1481 1.8830 2.2402
4.0768 2.0300 2.2401
4.0003 2.1744 2.2399
3.9187 2.3159 2.2398
3.8321 2.4544 2.2396
3.7406 2.5896 2.2394
3.6443 2.7215 2.2392
3.5434 2.8498 2.2390
3.4380 2.9743 2.2389
3.3282 3.0950 2.2386
3.2142 3.2116 2.2384
3.0961 3.3240 2.2382
2.9740 3.4322 2.2380
2.8483 3.5358 2.2378
2.7189 3.6349 2.2375
2.5861 3.7294 2.2374
2.4682 3.8472 2.2537
2.4594 4.1544 2.3806
0.9198 1.6892 0.9486
0.8586 1.7213 0.9487
0.7964 1.7511 0.9489
0.7331 1.7787 0.9490
0.6688 1.8040 0.9492
0.6036 1.8270 0.9493
0.5377 1.8476 0.9495
0.4711 1.8658 0.9496
0.4038 1.8817 0.9497
0.3360 1.8951 0.9498
0.2678 1.9060 0.9498
0.1992 1.9145 0.9499
0.1304 1.9205 0.9500
0.0613 1.9240 0.9500
-0.0078 1.9250 0.9501
-0.0769 1.9235 0.9501
-0.1459 1.9196 0.9501
-0.2147 1.9132 0.9501
-0.2832 1.9043 0.9501
-0.3514 1.8929 0.9501
-0.4192 1.8791 0.9500
-0.4863 1.8628 0.9500
-0.5529 1.8442 0.9499
-0.6187 1.8231 0.9499
-0.6838 1.7997 0.9498
-0.7479 1.7740 0.9497
-0.8111 1.7460 0.9496
-0.8732 1.7157 0.9495
-2.3517 4.2370 2.3898
-2.5025 4.1503 2.3898
-2.6502 4.0583 2.3898
-2.7945 3.9611 2.3898
-2.9352 3.8587 2.3898
-3.0722 3.7514 2.3898
-3.2053 3.6392 2.3898
-3.3343 3.5224 2.3898
-3.4591 3.4010 2.3898
-3.5795 3.2752 2.3898
-3.6953 3.1451 2.3898
-3.8065 3.0110 2.3898
-3.9127 2.8730 2.3898
-4.0140 2.7313 2.3898
-4.1102 2.5860 2.3898
-4.2011 2.4373 2.3898
-4.2867 2.2854 2.3898
-4.3667 2.1306 2.3898
-4.4412 1.9730 2.3898
-4.5101 1.8127 2.3898
-4.5731 1.6501 2.3898
-4.6303 1.4854 2.3898
-4.6816 1.3186 2.3898
-4.7269 1.1501 2.3898
-4.7661 0.9800 2.3898
-4.7992 0.8086 2.3898
-4.8262 0.6361 2.3898
-4.8470 0.4628 2.3898
-4.8615 0.2887 2.3898
-4.8698 0.1142 2.3898
-4.8718 -0.0604 2.3898
-4.8676 -0.2351 2.3898
-4.8571 -0.4096 2.3898
-4.8403 -0.5836 2.3898
-4.8174 -0.7569 2.3898
-4.7882 -0.9293 2.3898
-4.7528 -1.1006 2.3898
-4.7113 -1.2705 2.3898
-4.6637 -1.4389 2.3898
-4.6101 -1.6054 2.3898
-4.5505 -1.7700 2.3898
-4.4851 -1.9323 2.3898
-4.4138 -2.0923 2.3898
-4.3369 -2.2495 2.3898
-4.2543 -2.4040 2.3898
-4.1662 -2.5554 2.3898
-4.0727 -2.7035 2.3898
-3.9739 -2.8482 2.3898
-3.8700 -2.9893 2.3898
-3.7611 -3.1266 2.3898
-3.6473 -3.2599 2.3897
-3.5287 -3.3890 2.3897
-3.4056 -3.5138 2.3897
-3.2780 -3.6341 2.3897
-3.1462 -3.7497 2.3897
-3.0102 -3.8605 2.3897
-2.8704 -3.9664 2.3897
-2.7268 -4.0672 2.3897
-2.5797 -4.1628 2.3897
-2.4292 -4.2530 2.3897
-2.2755 -4.3377 2.3897
-2.1189 -4.4169 2.3897
-1.9595 -4.4903 2.3897
-1.7976 -4.5580 2.3897
-1.6333 -4.6198 2.3897
-1.4669 -4.6757 2.3897
-1.2986 -4.7255 2.3897
-1.1286 -4.7693 2.3897
-0.9571 -4.8068 2.3897
-0.7844 -4.8382 2.3897
-0.6106 -4.8634 2.3897
-0.4361 -4.8822 2.3897
-0.2609 -4.8948 2.3897
-0.0855 -4.9010 2.3897
0.0901 -4.9009 2.3897
0.2656 -4.8945 2.3897
0.4407 -4.8818 2.3897
0.6152 -4.8628 2.3897
0.7890 -4.8375 2.3897
0.9617 -4.8059 2.3897
1.1331 -4.7682 2.3897
1.3031 -4.7243 2.3897
1.4714 -4.6743 2.3897
1.6377 -4.6183 2.3897
1.8019 -4.5563 2.3897
1.9638 -4.4885 2.3897
2.1231 -4.4148 2.3897
2.2796 -4.3355 2.3897
2.3476 -4.1011 2.3057
2.4189 -3.8950 2.2374
2.5565 -3.8054 2.2374
2.6908 -3.7109 2.2374
2.8217 -3.6117 2.2374
2.9488 -3.5078 2.2374
3.0722 -3.3994 2.2374
3.1915 -3.2867 2.2374
3.3067 -3.1697 2.2374
3.4176 -3.0487 2.2374
3.5240 -2.9238 2.2374
3.6259 -2.7952 2.2374
3.7272 -2.6660 2.2398
3.8199 -2.5305 2.2400
3.9076 -2.3917 2.2401
3.9903 -2.2498 2.2403
4.0678 -2.1051 2.2404
4.1400 -1.9577 2.2405
4.2069 -1.8078 2.2406
4.2683 -1.6556 2.2407
4.3242 -1.5013 2.2408
4.3744 -1.3451 2.2409
4.4190 -1.1872 2.2409
4.4579 -1.0278 2.2410
4.4910 -0.8672 2.2410
4.5183 -0.7055 2.2411
4.5398 -0.5430 2.2411
4.5553 -0.3798 2.2411
4.5650 -0.2162 2.2411
4.5688 -0.0523 2.2411
4.5667 0.1115 2.2411
4.5587 0.2751 2.2411
4.5449 0.4383 2.2410
4.5252 0.6008 2.2410
4.4996 0.7625 2.2409
4.4683 0.9232 2.2409
4.4312 1.0826 2.2408
4.3884 1.2405 2.2407
4.3400 1.3968 2.2406
4.2860 1.5511 2.2405
4.2265 1.7034 2.2404
4.1616 1.8535 2.2402
4.0913 2.0010 2.2401
4.0159 2.1460 2.2399
3.9353 2.2881 2.2398
3.8497 2.4272 2.2396
3.7591 2.5630 2.2395
3.6638 2.6956 2.2393
3.5638 2.8246 2.2391
3.4592 2.9499 2.2389
3.3503 3.0713 2.2387
3.2371 3.1888 2.2385
3.1198 3.3020 2.2383
2.9986 3.4110 2.2380
2.8735 3.5156 2.2378
2.7448 3.6156 2.2376
2.6127 3.7109 2.2374
2.4797 3.8051 2.2393
2.4613 4.0907 2.3541
2.3476 4.2392 2.3898
0.8709 1.7151 0.9487
0.8088 1.7454 0.9489
0.7457 1.7734 0.9490
0.6816 1.7992 0.9492
0.6166 1.8226 0.9493
0.5509 1.8437 0.9494
0.4843 1.8624 0.9495
0.4172 1.8787 0.9497
0.3495 1.8926 0.9497
0.2814 1.9040 0.9498
0.2128 1.9130 0.9499
0.1440 1.9195 0.9500
0.0750 1.9235 0.9500
0.0059 1.9250 0.9500
-0.0632 1.9240 0.9501
-0.1322 1.9206 0.9501
-0.2011 1.9146 0.9501
-0.2697 1.9062 0.9501
-0.3379 1.8953 0.9501
-0.4057 1.8820 0.9500
-0.4731 1.8662 0.9500
-0.5397 1.8481 0.9499
-0.6057 1.8275 0.9499
-0.6709 1.8046 0.9498
-0.7353 1.7793 0.9497
-0.7986 1.7517 0.9496
-0.8610 1.7219 0.9495
-2.3214 4.2536 2.3898
-2.4728 4.1680 2.3898
-2.6211 4.0770 2.3898
-2.7661 3.9808 2.3898
-2.9075 3.8794 2.3898
-3.0453 3.7731 2.3898
-3.1792 3.6619 2.3898
-3.3091 3.5460 2.3898
-3.4347 3.4254 2.3898
-3.5560 3.3005 2.3898
-3.6727 3.1713 2.3898
-3.7848 3.0380 2.3898
-3.8920 2.9007 2.3898
-3.9943 2.7597 2.3898
-4.0915 2.6151 2.3898
-4.1835 2.4671 2.3898
-4.2701 2.3158 2.3898
-4.3513 2.1616 2.3898
-4.4269 2.0045 2.3898
-4.4969 1.8448 2.3898
-4.5611 1.6826 2.3898
-4.6194 1.5182 2.3898
-4.6719 1.3519 2.3898
-4.7184 1.1837 2.3898
-4.7588 1.0139 2.3898
-4.7931 0.8428 2.3898
-4.8213 0.6705 2.3898
-4.8433 0.4972 2.3898
-4.8591 0.3233 2.3898
-4.8686 0.1489 2.3898
-4.8719 -0.0258 2.3898
-4.8689 -0.2005 2.3898
-4.8597 -0.3750 2.3898
-4.8442 -0.5491 2.3898
-4.8224 -0.7226 2.3898
-4.7945 -0.8952 2.3898
-4.7603 -1.0667 2.3898
-4.7200 -1.2369 2.3898
-4.6736 -1.4056 2.3898
-4.6212 -1.5725 2.3898
-4.5628 -1.7375 2.3898
-4.4985 -1.9003 2.3898
-4.4285 -2.0607 2.3898
-4.3526 -2.2185 2.3898
-4.2712 -2.3735 2.3898
-4.1841 -2.5256 2.3898
-4.0917 -2.6744 2.3898
-3.9940 -2.8198 2.3898
-0.0856 1.8177 0.9496
-0.1508 1.8135 0.9496
-0.2158 1.8069 0.9496
-0.2806 1.7980 0.9496
-0.3450 1.7868 0.9496
-0.4089 1.7733 0.9495
-0.4723 1.7575 0.9495
-0.5351 1.7394 0.9494
-0.5972 1.7191 0.9494
-0.6585 1.6965 0.9493
-0.7189 1.6717 0.9492
-0.7785 1.6448 0.9491
-0.8370 1.6158 0.9490
-0.8944 1.5847 0.9489
-2.3947 3.9080 2.3898
-2.5337 3.8199 2.3898
-2.6695 3.7270 2.3898
-2.8019 3.6292 2.3898
-2.9308 3.5268 2.3898
-3.0559 3.4198 2.3898
-3.1771 3.3084 2.3898
-3.2943 3.1927 2.3898
-3.4073 3.0729 2.3898
-3.5159 2.9492 2.3898
-3.6200 2.8216 2.3898
-3.7196 2.6903 2.3898
-3.8144 2.5556 2.3898
-3.9043 2.4175 2.3898
-3.9893 2.2763 2.3898
-4.0691 2.1321 2.3898
-4.1438 1.9851 2.3898
-4.2131 1.8355 2.3898
-4.2771 1.6835 2.3898
-4.3356 1.5293 2.3898
-4.3886 1.3731 2.3898
-4.4359 1.2150 2.3898
-4.4775 1.0554 2.3898
-4.5134 0.8943 2.3898
-4.5436 0.7320 2.3898
-4.5678 0.5687 2.3898
-4.5863 0.4046 2.3898
-4.5988 0.2400 2.3898
-4.6054 0.0749 2.3898
-4.6061 -0.0903 2.3898
-4.6009 -0.2554 2.3898
-4.5898 -0.4203 2.3898
-4.5727 -0.5847 2.3898
-4.5498 -0.7484 2.3898
-4.5210 -0.9112 2.3898
-4.4863 -1.0729 2.3898
-4.4459 -1.2333 2.3898
-4.3997 -1.3921 2.3898
-4.3479 -1.5492 2.3898
-4.2904 -1.7044 2.3898
-4.2274 -1.8574 2.3898
-4.1589 -2.0081 2.3898
-4.0851 -2.1563 2.3898
-4.0059 -2.3017 2.3898
-3.9216 -2.4442 2.3898
-3.8322 -2.5836 2.3898
-3.7378 -2.7197 2.3898
-3.6386 -2.8524 2.3898
-3.5346 -2.9814 2.3898
-3.4261 -3.1066 2.3898
-3.3131 -3.2279 2.3898
-3.1958 -3.3450 2.3897
-3.0744 -3.4578 2.3897
-2.9490 -3.5662 2.3897
-2.8197 -3.6700 2.3897
-2.6868 -3.7692 2.3897
-2.5504 -3.8635 2.3897
-2.4106 -3.9528 2.3897
-2.2677 -4.0370 2.3897
-2.1220 -4.1160 2.3897
-1.9733 -4.1898 2.3897
-1.8221 -4.2582 2.3897
-1.6686 -4.3210 2.3897
-1.5129 -4.3783 2.3897
-1.3552 -4.4300 2.3897
-1.1958 -4.4760 2.3897
-1.0348 -4.5161 2.3897
-0.8725 -4.5505 2.3897
-0.7090 -4.5790 2.3897
-0.5445 -4.6016 2.3897
-0.3794 -4.6182 2.3897
-0.2137 -4.6289 2.3897
-0.0478 -4.6336 2.3897
0.1181 -4.6323 2.3897
0.2839 -4.6251 2.3897
0.4494 -4.6119 2.3897
0.6142 -4.5927 2.3897
0.7783 -4.5676 2.3897
0.9413 -4.5367 2.3897
1.1031 -4.4998 2.3897
1.2635 -4.4572 2.3897
1.4222 -4.4088 2.3897
1.5791 -4.3548 2.3897
1.7339 -4.2951 2.3897
1.8865 -4.2299 2.3897
2.0366 -4.1592 2.3897
2.1840 -4.0832 2.3897
2.2907 -3.9369 2.3509
2.3127 -3.6659 2.2374
2.4422 -3.5803 2.2374
2.5686 -3.4901 2.2374
2.6916 -3.3954 2.2374
2.8111 -3.2963 2.2374
2.9270 -3.1931 2.2374
3.0390 -3.0857 2.2374
3.1471 -2.9744 2.2374
3.2512 -2.8593 2.2374
3.3510 -2.7405 2.2374
3.4495 -2.6206 2.2393
3.5408 -2.4951 2.2395
3.6275 -2.3664 2.2396
3.7096 -2.2346 2.2398
3.7868 -2.1000 2.2399
3.8591 -1.9626 2.2400
3.9263 -1.8228 2.2401
3.9885 -1.6807 2.2402
4.0456 -1.5364 2.2403
4.0974 -1.3902 2.2404
4.1439 -1.2423 2.2405
4.1850 -1.0927 2.2405
4.2207 -0.9419 2.2406
4.2509 -0.7898 2.2406
4.2757 -0.6368 2.2406
4.2949 -0.4830 2.2407
4.3086 -0.3286 2.2407
4.3167 -0.1739 2.2407
4.3192 -0.0190 2.2407
4.3161 0.1358 2.2407
4.3075 0.2904 2.2406
4.2934 0.4446 2.2406
4.2737 0.5981 2.2405
4.2485 0.7509 2.2405
4.2178 0.9025 2.2404
4.1817 1.0530 2.2403
4.1402 1.2020 2.2403
4.0934 1.3494 2.2402
4.0414 1.4950 2.2400
3.9842 1.6386 2.2399
3.9219 1.7800 2.2398
3.8545 1.9191 2.2397
3.7823 2.0556 2.2395
3.7051 2.1894 2.2394
3.6233 2.3204 2.2392
3.5368 2.4483 2.2391
3.4458 2.5730 2.2389
3.3505 2.6943 2.2387
3.2508 2.8121 2.2385
3.1470 2.9262 2.2383
3.0393 3.0365 2.2381
2.9276 3.1429 2.2379
2.8123 3.2452 2.2377
2.6934 3.3432 2.2375
2.5711 3.4371 2.2374
2.4580 3.5443 2.2485
2.4465 3.8130 2.3620
2.3349 3.9438 2.3898
0.8695 1.5968 0.9482
0.8117 1.6271 0.9483
0.7528 1.6553 0.9485
0.6930 1.6814 0.9486
0.6322 1.7053 0.9488
0.5706 1.7270 0.9489
0.5083 1.7465 0.9490
0.4453 1.7637 0.9491
0.3817 1.7787 0.9492
0.3176 1.7913 0.9493
0.2531 1.8016 0.9494
0.1883 1.8096 0.9494
0.1232 1.8153 0.9495
0.0580 1.8186 0.9495
-0.0074 1.8196 0.9496
-0.0727 1.8182 0.9496
-0.1379 1.8145 0.9496
-0.2030 1.8084 0.9496
-0.2678 1.8000 0.9496
-0.3322 1.7892 0.9496
-0.3962 1.7762 0.9495
-0.4597 1.7608 0.9495
-0.5227 1.7432 0.9494
-0.5849 1.7233 0.9494
-0.6464 1.7012 0.9493
-0.7070 1.6768 0.9492
-0.7667 1.6503 0.9491
-0.8255 1.6217 0.9490
-0.8831 1.5910 0.9489
-2.3667 3.9249 2.3898
-2.5064 3.8378 2.3898
-2.6428 3.7458 2.3898
-2.7759 3.6490 2.3898
-2.9055 3.5475 2.3898
-3.0313 3.4414 2.3898
-3.1533 3.3309 2.3898
-3.2713 3.2160 2.3898
-3.3852 3.0970 2.3898
-3.4947 2.9740 2.3898
-3.5997 2.8472 2.3898
-3.7002 2.7166 2.3898
-3.7960 2.5826 2.3898
-3.8869 2.4452 2.3898
-3.9728 2.3045 2.3898
-4.0537 2.1609 2.3898
-4.1294 2.0145 2.3898
-4.1998 1.8654 2.3898
-4.2648 1.7139 2.3898
-4.3244 1.5601 2.3898
-4.3785 1.4043 2.3898
-4.4269 1.2466 2.3898
-4.4697 1.0872 2.3898
-4.5068 0.9264 2.3898
-4.5380 0.7643 2.3898
-4.5635 0.6012 2.3898
-4.5831 0.4373 2.3898
-4.5968 0.2727 2.3898
-4.6046 0.1077 2.3898
-4.6065 -0.0575 2.3898
-4.6024 -0.2226 2.3898
-4.5924 -0.3876 2.3898
-4.5766 -0.5521 2.3898
-4.5548 -0.7160 2.3898
-4.5271 -0.8790 2.3898
-4.4937 -1.0409 2.3898
-4.4544 -1.2015 2.3898
-4.4093 -1.3607 2.3898
-4.3586 -1.5182 2.3898
-4.3023 -1.6737 2.3898
-4.2404 -1.8272 2.3898
-4.1730 -1.9784 2.3898
-4.1002 -2.1271 2.3898
-4.0220 -2.2731 2.3898
-3.9388 -2.4161 2.3898
-3.8503 -2.5562 2.3898
-3.7569 -2.6930 2.3898
-3.6587 -2.8263 2.3898
-3.5556 -2.9561 2.3898
-3.4480 -3.0821 2.3898
-3.3359 -3.2041 2.3898
-3.2195 -3.3221 2.3897
-3.0988 -3.4358 2.3897
-2.9742 -3.5451 2.3897
-2.8457 -3.6498 2.3897
-2.7134 -3.7499 2.3897
-2.5777 -3.8451 2.3897
-2.4386 -3.9354 2.3897
-2.2964 -4.0207 2.3897
-2.1511 -4.1008 2.3897
-2.0031 -4.1756 2.3897
-1.8524 -4.2450 2.3897
-1.6993 -4.3090 2.3897
-1.5440 -4.3674 2.3897
-1.3867 -4.4202 2.3897
-1.2276 -4.4673 2.3897
-1.0668 -4.5086 2.3897
-0.9047 -4.5441 2.3897
-0.7415 -4.5738 2.3897
-0.5772 -4.5976 2.3897
-0.4122 -4.6154 2.3897
-0.2467 -4.6273 2.3897
-0.0808 -4.6332 2.3897
0.0852 -4.6331 2.3897
0.2510 -4.6270 2.3897
0.4165 -4.6150 2.3897
0.5816 -4.5970 2.3897
0.7458 -4.5731 2.3897
0.9090 -4.5433 2.3897
1.0711 -4.5076 2.3897
1.2318 -4.4661 2.3897
1.3909 -4.4189 2.3897
1.5481 -4.3659 2.3897
1.7034 -4.3074 2.3897
1.8564 -4.2433 2.3897
2.0070 -4.1737 2.3897
2.1550 -4.0987 2.3897
2.3001 -4.0185 2.3897
2.2866 -3.6823 2.2374
2.4167 -3.5976 2.2374
2.5437 -3.5083 2.2374
2.6674 -3.4145 2.2374
2.7877 -3.3163 2.2374
2.9043 -3.2139 2.2374
3.0171 -3.1073 2.2374
3.1260 -2.9968 2.2374
3.2308 -2.8824 2.2374
3.3315 -2.7644 2.2374
3.4308 -2.6452 2.2393
3.5230 -2.5203 2.2395
3.6107 -2.3922 2.2396
3.6936 -2.2610 2.2398
3.7718 -2.1269 2.2399
3.8451 -1.9901 2.2400
3.9134 -1.8508 2.2401
3.9766 -1.7091 2.2402
4.0347 -1.5652 2.2403
4.0875 -1.4194 2.2404
4.1351 -1.2718 2.2405
4.1772 -1.1225 2.2405
4.2140 -0.9719 2.2406
4.2454 -0.8201 2.2406
4.2712 -0.6672 2.2406
4.2915 -0.5136 2.2407
4.3063 -0.3593 2.2407
4.3155 -0.2047 2.2407
4.3191 -0.0498 2.2407
4.3172 0.1051 2.2407
4.3097 0.2598 2.2406
4.2966 0.4140 2.2406
4.2780 0.5677 2.2405
4.2539 0.7206 2.2405
4.2243 0.8725 2.2404
4.1893 1.0232 2.2404
4.1489 1.1725 2.2403
4.1032 1.3202 2.2402
4.0522 1.4662 2.2401
3.9960 1.6102 2.2400
3.9346 1.7521 2.2398
3.8683 1.8917 2.2397
3.7970 2.0287 2.2396
3.7208 2.1631 2.2394
3.6399 2.2946 2.2393
3.5543 2.4231 2.2391
3.4642 2.5485 2.2389
3.3697 2.6705 2.2388
3.2709 2.7890 2.2386
3.1680 2.9039 2.2384
3.0610 3.0149 2.2382
2.9501 3.1221 2.2380
2.8355 3.2252 2.2378
2.7172 3.3241 2.2375
2.5956 3.4188 2.2374
2.4710 3.5093 2.2374
2.4483 3.7566 2.3377
2.3630 3.9271 2.3898
0.8809 1.5905 0.9481
0.8233 1.6212 0.9483
0.7646 1.6499 0.9484
0.7049 1.6764 0.9486
0.6444 1.7007 0.9487
0.5829 1.7229 0.9489
0.5207 1.7428 0.9490
0.4579 1.7605 0.9491
0.3944 1.7759 0.9492
0.3304 1.7890 0.9493
0.2660 1.7998 0.9494
0.2012 1.8082 0.9494
0.1362 1.8144 0.9495
0.0709 1.8182 0.9495
0.0056 1.8196 0.9496
-0.0597 1.8187 0.9496
-0.1250 1.8154 0.9496
-0.1901 1.8098 0.9496
-0.2549 1.8018 0.9496
-0.3194 1.7915 0.9496
-0.3836 1.7789 0.9496
-0.4472 1.7640 0.9495
-0.5102 1.7468 0.9495
-0.5726 1.7274 0.9494
-0.6342 1.7057 0.9493
-0.6950 1.6818 0.9492
-0.7550 1.6558 0.9492
-0.8139 1.6276 0.9490
-0.8718 1.5973 0.9489
-2.3387 3.9415 2.3898
-2.4789 3.8555 2.3898
-2.6160 3.7645 2.3898
-2.7498 3.6686 2.3898
-2.8800 3.5680 2.3898
-3.0067 3.4628 2.3898
-3.1294 3.3532 2.3898
-3.2482 3.2392 2.3898
-3.3629 3.1210 2.3898
-3.4733 2.9988 2.3898
-3.5792 2.8727 2.3898
-3.6806 2.7429 2.3898
-3.7773 2.6095 2.3898
-3.8692 2.4727 2.3898
-3.9561 2.3327 2.3898
-4.0380 2.1897 2.3898
-4.1148 2.0438 2.3898
-4.1862 1.8952 2.3898
-4.2524 1.7441 2.3898
-4.3130 1.5908 2.3898
-4.3682 1.4354 2.3898
-4.4178 1.2780 2.3898
-4.4617 1.1190 2.3898
-4.4999 0.9584 2.3898
-4.5323 0.7966 2.3898
-4.5589 0.6337 2.3898
-4.5797 0.4699 2.3898
-4.5945 0.3054 2.3898
-4.6035 0.1405 2.3898
-4.6066 -0.0247 2.3898
-4.6037 -0.1899 2.3898
-4.5949 -0.3549 2.3898
-4.5802 -0.5195 2.3898
-4.5596 -0.6835 2.3898
-4.5331 -0.8467 2.3898
-4.5008 -1.0088 2.3898
-4.4626 -1.1698 2.3898
-4.4187 -1.3292 2.3898
-4.3691 -1.4871 2.3898
-4.3139 -1.6430 2.3898
-4.2531 -1.7969 2.3898
-4.1868 -1.9486 2.3898
-4.1150 -2.0978 2.3898
-4.0380 -2.2443 2.3898
-3.9557 -2.3880 2.3898
-3.8683 -2.5286 2.3898
-3.7759 -2.6661 2.3898
-0.0811 1.7212 0.9491
-0.1428 1.7172 0.9492
-0.2044 1.7110 0.9492
-0.2657 1.7026 0.9491
-0.3267 1.6919 0.9491
-0.3872 1.6791 0.9491
-0.4472 1.6642 0.9491
-0.5067 1.6470 0.9490
-0.5655 1.6278 0.9489
-0.6236 1.6064 0.9489
-0.6808 1.5830 0.9488
-0.7372 1.5575 0.9487
-0.7926 1.5300 0.9486
-0.8470 1.5005 0.9485
-0.9003 1.4691 0.9484
-2.4004 3.6186 2.3898
-2.5291 3.5306 2.3898
-2.6545 3.4379 2.3898
-2.7765 3.3409 2.3898
-2.8950 3.2395 2.3898
-3.0098 3.1339 2.3898
-3.1208 3.0243 2.3898
-3.2278 2.9108 2.3898
-3.3307 2.7936 2.3898
-3.4294 2.6727 2.3898
-3.5237 2.5483 2.3898
-3.6135 2.4206 2.3898
-3.6986 2.2898 2.3898
-3.7791 2.1560 2.3898
-3.8547 2.0194 2.3898
-3.9254 1.8801 2.3898
-3.9910 1.7384 2.3898
-4.0516 1.5944 2.3898
-4.1070 1.4484 2.3898
-4.1571 1.3004 2.3898
-4.2019 1.1507 2.3898
-4.2413 0.9994 2.3898
-4.2753 0.8468 2.3898
-4.3038 0.6931 2.3898
-4.3267 0.5384 2.3898
-4.3442 0.3830 2.3898
-4.3560 0.2270 2.3898
-4.3622 0.0707 2.3898
-4.3629 -0.0858 2.3898
-4.3579 -0.2422 2.3898
-4.3473 -0.3984 2.3898
-4.3311 -0.5541 2.3898
-4.3093 -0.7091 2.3898
-4.2820 -0.8633 2.3898
-4.2492 -1.0165 2.3898
-4.2108 -1.1684 2.3898
-4.1671 -1.3188 2.3898
-4.1179 -1.4676 2.3898
-4.0635 -1.6145 2.3898
-4.0038 -1.7595 2.3898
-3.9389 -1.9022 2.3898
-3.8689 -2.0425 2.3898
-3.7939 -2.1802 2.3898
-3.7140 -2.3151 2.3898
-3.6293 -2.4471 2.3898
-3.5399 -2.5760 2.3898
-3.4459 -2.7016 2.3898
-3.3474 -2.8238 2.3898
-3.2446 -2.9424 2.3898
-3.1376 -3.0572 2.3898
-3.0265 -3.1681 2.3898
-2.9115 -3.2749 2.3898
-2.7927 -3.3775 2.3897
-2.6703 -3.4759 2.3897
-2.5444 -3.5697 2.3897
-2.4152 -3.6590 2.3897
-2.2828 -3.7435 2.3897
-2.1475 -3.8233 2.3897
-2.0094 -3.8981 2.3897
-1.8687 -3.9680 2.3897
-1.7255 -4.0327 2.3897
-1.5801 -4.0922 2.3897
-1.4327 -4.1465 2.3897
-1.2833 -4.1954 2.3897
-1.1323 -4.2389 2.3897
-0.9799 -4.2769 2.3897
-0.8261 -4.3095 2.3897
-0.6713 -4.3364 2.3897
-0.5156 -4.3578 2.3897
-0.3592 -4.3736 2.3897
-0.2024 -4.3837 2.3897
-0.0453 -4.3881 2.3897
0.1119 -4.3869 2.3897
0.2689 -4.3801 2.3897
0.4255 -4.3676 2.3897
0.5816 -4.3494 2.3897
0.7370 -4.3257 2.3897
0.8914 -4.2964 2.3897
1.0446 -4.2615 2.3897
1.1965 -4.2211 2.3897
1.3468 -4.1753 2.3897
1.4954 -4.1241 2.3897
1.6420 -4.0676 2.3897
1.7864 -4.0059 2.3898
1.9286 -3.9390 2.3898
2.0682 -3.8671 2.3898
2.2052 -3.7901 2.3898
2.2130 -3.5082 2.2608
2.3128 -3.3908 2.2374
2.4324 -3.3054 2.2374
2.5489 -3.2157 2.2374
2.6621 -3.1220 2.2374
2.7719 -3.0242 2.2374
2.8780 -2.9225 2.2374
2.9804 -2.8171 2.2374
3.0790 -2.7081 2.2374
3.1756 -2.5974 2.2389
3.2664 -2.4818 2.2390
3.3528 -2.3629 2.2392
3.4350 -2.2410 2.2393
3.5126 -2.1163 2.2394
3.5858 -1.9888 2.2395
3.6542 -1.8588 2.2396
3.7180 -1.7264 2.2398
3.7769 -1.5918 2.2398
3.8309 -1.4552 2.2399
3.8800 -1.3168 2.2400
3.9241 -1.1767 2.2401
3.9630 -1.0351 2.2401
3.9969 -0.8922 2.2402
4.0255 -0.7482 2.2402
4.0490 -0.6033 2.2402
4.0672 -0.4577 2.2403
4.0802 -0.3115 2.2403
4.0879 -0.1650 2.2403
4.0903 -0.0183 2.2403
4.0875 0.1283 2.2402
4.0794 0.2748 2.2402
4.0660 0.4208 2.2402
4.0474 0.5662 2.2401
4.0236 0.7108 2.2401
3.9946 0.8545 2.2400
3.9604 0.9970 2.2399
3.9212 1.1381 2.2399
3.8769 1.2777 2.2398
3.8277 1.4156 2.2397
3.7735 1.5516 2.2396
3.7145 1.6856 2.2395
3.6508 1.8174 2.2393
3.5824 1.9467 2.2392
3.5094 2.0735 2.2391
3.4319 2.1975 2.2389
3.3500 2.3187 2.2388
3.2639 2.4368 2.2386
3.1736 2.5518 2.2384
3.0792 2.6634 2.2382
2.9810 2.7715 2.2381
2.8789 2.8760 2.2379
2.7732 2.9768 2.2377
2.6640 3.0738 2.2375
2.5515 3.1668 2.2374
2.4463 3.2699 2.2470
2.4341 3.5095 2.3503
2.3450 3.6546 2.3898
0.8772 1.4814 0.9476
0.8235 1.5121 0.9478
0.7687 1.5408 0.9479
0.7130 1.5675 0.9481
0.6563 1.5922 0.9482
0.5987 1.6148 0.9484
0.5404 1.6354 0.9485
0.4814 1.6538 0.9486
0.4217 1.6701 0.9487
0.3615 1.6842 0.9488
0.3008 1.6962 0.9489
0.2397 1.7060 0.9489
0.1783 1.7136 0.9490
0.1167 1.7189 0.9491
0.0549 1.7221 0.9491
-0.0070 1.7230 0.9491
-0.0688 1.7217 0.9491
-0.1306 1.7181 0.9492
-0.1922 1.7124 0.9492
-0.2536 1.7044 0.9491
-0.3146 1.6942 0.9491
-0.3752 1.6819 0.9491
-0.4354 1.6673 0.9491
-0.4949 1.6506 0.9490
-0.5539 1.6318 0.9490
-0.6121 1.6108 0.9489
-0.6695 1.5878 0.9488
-0.7261 1.5627 0.9487
-0.7817 1.5356 0.9486
-0.8363 1.5066 0.9485
-0.8898 1.4755 0.9484
-2.3745 3.6356 2.3898
-2.5038 3.5484 2.3898
-2.6298 3.4567 2.3898
-2.7526 3.3605 2.3898
-2.8718 3.2600 2.3898
-2.9874 3.1552 2.3898
-3.0991 3.0464 2.3898
-3.2069 2.9337 2.3898
-3.3107 2.8171 2.3898
-3.4102 2.6969 2.3898
-3.5053 2.5733 2.3898
-3.5960 2.4462 2.3898
-3.6821 2.3160 2.3898
-3.7635 2.1828 2.3898
-3.8401 2.0467 2.3898
-3.9117 1.9080 2.3898
-3.9784 1.7668 2.3898
-4.0400 1.6232 2.3898
-4.0964 1.4775 2.3898
-4.1476 1.3299 2.3898
-4.1934 1.1805 2.3898
-4.2339 1.0295 2.3898
-4.2690 0.8772 2.3898
-4.2986 0.7237 2.3898
-4.3226 0.5692 2.3898
-4.3411 0.4139 2.3898
-4.3541 0.2580 2.3898
-4.3614 0.1017 2.3898
-4.3632 -0.0547 2.3898
-4.3593 -0.2112 2.3898
-4.3498 -0.3674 2.3898
-4.3347 -0.5232 2.3898
-4.3141 -0.6784 2.3898
-4.2879 -0.8328 2.3898
-4.2561 -0.9862 2.3898
-4.2189 -1.1383 2.3898
-4.1762 -1.2891 2.3898
-4.1281 -1.4382 2.3898
-4.0747 -1.5855 2.3898
-4.0160 -1.7309 2.3898
-3.9522 -1.8740 2.3898
-3.8832 -2.0148 2.3898
-3.8092 -2.1531 2.3898
-3.7303 -2.2886 2.3898
-3.6466 -2.4212 2.3898
-3.5580 -2.5507 2.3898
-3.4649 -2.6770 2.3898
-3.3673 -2.7998 2.3898
-3.2654 -2.9191 2.3898
-3.1592 -3.0347 2.3898
-3.0489 -3.1464 2.3898
-2.9346 -3.2540 2.3898
-2.8166 -3.3575 2.3897
-2.6949 -3.4567 2.3897
-2.5696 -3.5514 2.3897
-2.4411 -3.6416 2.3897
-2.3094 -3.7271 2.3897
-2.1746 -3.8079 2.3897
-2.0371 -3.8837 2.3897
-1.8968 -3.9545 2.3897
-1.7541 -4.0202 2.3897
-1.6092 -4.0808 2.3897
-1.4621 -4.1361 2.3897
-1.3131 -4.1861 2.3897
-1.1625 -4.2307 2.3897
-1.0103 -4.2698 2.3897
-0.8567 -4.3034 2.3897
-0.7021 -4.3315 2.3897
-0.5466 -4.3540 2.3897
-0.3903 -4.3709 2.3897
-0.2336 -4.3821 2.3897
-0.0765 -4.3877 2.3897
0.0807 -4.3876 2.3897
0.2377 -4.3819 2.3897
0.3945 -4.3705 2.3897
0.5507 -4.3535 2.3897
0.7062 -4.3308 2.3897
0.8608 -4.3026 2.3897
1.0143 -4.2688 2.3897
1.1665 -4.2296 2.3897
1.3171 -4.1848 2.3897
1.4660 -4.1347 2.3897
1.6130 -4.0793 2.3897
1.7579 -4.0186 2.3898
1.9006 -3.9527 2.3898
2.0407 -3.8817 2.3898
2.1782 -3.8058 2.3898
2.2187 -3.5733 2.2925
2.2886 -3.4072 2.2374
2.4089 -3.3227 2.2374
2.5261 -3.2339 2.2374
2.6399 -3.1409 2.2374
2.7504 -3.0439 2.2374
2.8572 -2.9430 2.2374
2.9604 -2.8384 2.2374
3.0597 -2.7301 2.2374
3.1571 -2.6200 2.2388
3.2487 -2.5050 2.2390
3.3360 -2.3868 2.2391
3.4190 -2.2655 2.2393
3.4976 -2.1412 2.2394
3.5716 -2.0143 2.2395
3.6410 -1.8848 2.2396
3.7057 -1.7529 2.2397
3.7656 -1.6187 2.2398
3.8206 -1.4825 2.2399
3.8707 -1.3444 2.2400
3.9157 -1.2046 2.2401
3.9557 -1.0633 2.2401
3.9906 -0.9207 2.2402
4.0203 -0.7769 2.2402
4.0448 -0.6321 2.2402
4.0640 -0.4866 2.2403
4.0780 -0.3406 2.2403
4.0868 -0.1941 2.2403
4.0903 -0.0474 2.2403
4.0885 0.0992 2.2403
4.0814 0.2457 2.2402
4.0691 0.3918 2.2402
4.0515 0.5374 2.2401
4.0287 0.6822 2.2401
4.0007 0.8260 2.2400
3.9676 0.9688 2.2400
3.9294 1.1102 2.2399
3.8861 1.2501 2.2398
3.8378 1.3884 2.2397
3.7847 1.5248 2.2396
3.7266 1.6592 2.2395
3.6638 1.7914 2.2394
3.5963 1.9212 2.2392
3.5242 2.0485 2.2391
3.4476 2.1731 2.2389
3.3666 2.2949 2.2388
3.2813 2.4136 2.2386
3.1918 2.5292 2.2385
3.0983 2.6415 2.2383
3.0008 2.7503 2.2381
2.8995 2.8556 2.2379
2.7945 2.9571 2.2377
2.6859 3.0548 2.2375
2.5740 3.1486 2.2374
2.4590 3.2386 2.2374
2.4358 3.4590 2.3280
2.3710 3.6378 2.3898
0.8877 1.4751 0.9476
0.8342 1.5062 0.9478
0.7797 1.5352 0.9479
0.7241 1.5623 0.9481
0.6676 1.5874 0.9482
0.6102 1.6105 0.9483
0.5520 1.6314 0.9485
0.4931 1.6503 0.9486
0.4336 1.6670 0.9487
0.3735 1.6816 0.9488
0.3129 1.6940 0.9488
0.2519 1.7042 0.9489
0.1905 1.7123 0.9490
0.1289 1.7181 0.9490
0.0672 1.7216 0.9491
0.0053 1.7230 0.9491
-0.0565 1.7221 0.9491
-0.1183 1.7190 0.9492
-0.1800 1.7137 0.9492
-0.2414 1.7062 0.9492
-0.3025 1.6964 0.9491
-0.3632 1.6845 0.9491
-0.4235 1.6704 0.9491
-0.4832 1.6541 0.9490
-0.5422 1.6357 0.9490
-0.6006 1.6152 0.9489
-0.6582 1.5925 0.9488
-0.7149 1.5679 0.9487
-0.7707 1.5412 0.9486
-0.8256 1.5125 0.9485
-0.8793 1.4818 0.9484
-2.3485 3.6523 2.3898
-2.4784 3.5661 2.3898
-2.6051 3.4753 2.3898
-2.7285 3.3799 2.3898
-2.8484 3.2803 2.3898
-2.9647 3.1764 2.3898
-3.0772 3.0683 2.3898
-3.1858 2.9564 2.3898
-3.2904 2.8406 2.3898
-3.3907 2.7211 2.3898
-3.4868 2.5981 2.3898
-3.5783 2.4717 2.3898
-3.6654 2.3421 2.3898
-3.7477 2.2095 2.3898
-3.8252 2.0740 2.3898
-3.8979 1.9357 2.3898
-3.9656 1.7950 2.3898
-4.0282 1.6519 2.3898
-4.0856 1.5066 2.3898
-4.1378 1.3593 2.3898
-4.1848 1.2103 2.3898
-4.2263 1.0596 2.3898
-4.2625 0.9075 2.3898
-4.2931 0.7542 2.3898
-4.3183 0.5999 2.3898
-4.3379 0.4448 2.3898
-4.3520 0.2890 2.3898
-4.3604 0.1328 2.3898
-4.3633 -0.0237 2.3898
-4.3605 -0.1801 2.3898
-4.3522 -0.3364 2.3898
-4.3382 -0.4923 2.3898
-4.3186 -0.6477 2.3898
-4.2935 -0.8022 2.3898
-4.2629 -0.9558 2.3898
-4.2267 -1.1082 2.3898
-4.1851 -1.2593 2.3898
-4.1381 -1.4087 2.3898
-4.0857 -1.5564 2.3898
-4.0281 -1.7022 2.3898
-3.9653 -1.8458 2.3898
-3.8973 -1.9871 2.3898
-3.8243 -2.1258 2.3898
-3.7463 -2.2619 2.3898
-3.6635 -2.3951 2.3898
-3.5760 -2.5252 2.3898
-0.0769 1.6323 0.9487
-0.1355 1.6285 0.9487
-0.1939 1.6227 0.9487
-0.2520 1.6147 0.9487
-0.3098 1.6046 0.9487
-0.3672 1.5925 0.9487
-0.4242 1.5783 0.9486
-0.4806 1.5620 0.9486
-0.5363 1.5438 0.9485
-0.5914 1.5235 0.9485
-0.6457 1.5013 0.9484
-0.6992 1.4771 0.9483
-0.7518 1.4510 0.9482
-0.8034 1.4231 0.9481
-0.8539 1.3933 0.9480
-0.9034 1.3617 0.9479
-2.3996 3.3496 2.3898
-2.5186 3.2617 2.3898
-2.6344 3.1696 2.3898
-2.7468 3.0734 2.3898
-2.8558 2.9732 2.3898
-2.9610 2.8692 2.3898
-3.0626 2.7615 2.3898
-3.1602 2.6502 2.3898
-3.2538 2.5355 2.3898
-3.3432 2.4175 2.3898
-3.4283 2.2963 2.3898
-3.5091 2.1722 2.3898
-3.5854 2.0452 2.3898
-3.6571 1.9156 2.3898
-3.7242 1.7835 2.3898
-3.7864 1.6490 2.3898
-3.8439 1.5124 2.3898
-3.8964 1.3738 2.3898
-3.9439 1.2334 2.3898
-3.9864 1.0913 2.3898
-4.0237 0.9478 2.3898
-4.0559 0.8031 2.3898
-4.0829 0.6572 2.3898
-4.1047 0.5105 2.3898
-4.1212 0.3630 2.3898
-4.1324 0.2150 2.3898
-4.1382 0.0667 2.3898
-4.1388 -0.0817 2.3898
-4.1340 -0.2301 2.3898
-4.1240 -0.3782 2.3898
-4.1086 -0.5259 2.3898
-4.0879 -0.6730 2.3898
-4.0619 -0.8193 2.3898
-4.0307 -0.9645 2.3898
-3.9944 -1.1086 2.3898
-3.9528 -1.2513 2.3898
-3.9062 -1.3924 2.3898
-3.8545 -1.5318 2.3898
-3.7978 -1.6693 2.3898
-3.7363 -1.8046 2.3898
-3.6698 -1.9377 2.3898
-3.5987 -2.0683 2.3898
-3.5229 -2.1963 2.3898
-3.4425 -2.3215 2.3898
-3.3577 -2.4437 2.3898
-3.2685 -2.5629 2.3898
-3.1751 -2.6787 2.3898
-3.0775 -2.7912 2.3898
-2.9760 -2.9000 2.3898
-2.8706 -3.0052 2.3898
-2.7615 -3.1065 2.3898
-2.6488 -3.2039 2.3898
-2.5327 -3.2971 2.3898
-2.4133 -3.3861 2.3898
-2.2907 -3.4707 2.3897
-2.1652 -3.5509 2.3897
-2.0368 -3.6266 2.3897
-1.9058 -3.6975 2.3897
-1.7724 -3.7637 2.3897
-1.6366 -3.8251 2.3897
-1.4987 -3.8816 2.3897
-1.3588 -3.9330 2.3897
-1.2172 -3.9794 2.3897
-1.0740 -4.0206 2.3897
-0.9294 -4.0567 2.3897
-0.7835 -4.0875 2.3897
-0.6367 -4.1131 2.3897
-0.4890 -4.1334 2.3897
-0.3407 -4.1483 2.3897
-0.1920 -4.1579 2.3897
-0.0430 -4.1622 2.3897
0.1061 -4.1610 2.3897
0.2550 -4.1545 2.3897
0.4036 -4.1427 2.3897
0.5517 -4.1255 2.3897
0.6990 -4.1029 2.3897
0.8454 -4.0751 2.3897
0.9908 -4.0421 2.3897
1.1348 -4.0038 2.3897
1.2774 -3.9604 2.3898
1.4183 -3.9118 2.3898
1.5573 -3.8583 2.3898
1.6944 -3.7997 2.3898
1.8292 -3.7363 2.3898
1.9616 -3.6680 2.3898
2.0915 -3.5951 2.3898
2.1879 -3.4687 2.3566
2.1936 -3.2163 2.2374
2.3071 -3.1353 2.2374
2.4176 -3.0503 2.2374
2.5250 -2.9614 2.2374
2.6291 -2.8687 2.2374
2.7298 -2.7723 2.2374
2.8269 -2.6723 2.2374
2.9218 -2.5702 2.2384
3.0117 -2.4637 2.2386
3.0978 -2.3540 2.2387
3.1798 -2.2412 2.2388
3.2577 -2.1257 2.2390
3.3314 -2.0073 2.2391
3.4008 -1.8864 2.2392
3.4657 -1.7631 2.2393
3.5262 -1.6376 2.2394
3.5821 -1.5100 2.2395
3.6333 -1.3804 2.2396
3.6799 -1.2491 2.2396
3.7217 -1.1163 2.2397
3.7587 -0.9820 2.2398
3.7908 -0.8465 2.2398
3.8180 -0.7099 2.2398
3.8403 -0.5725 2.2399
3.8576 -0.4344 2.2399
3.8700 -0.2957 2.2399
3.8773 -0.1568 2.2399
3.8796 -0.0176 2.2399
3.8770 0.1214 2.2399
3.8693 0.2603 2.2398
3.8567 0.3988 2.2398
3.8390 0.5368 2.2398
3.8165 0.6740 2.2397
3.7890 0.8102 2.2397
3.7567 0.9454 2.2396
3.7195 1.0793 2.2395
3.6775 1.2117 2.2394
3.6309 1.3426 2.2393
3.5795 1.4716 2.2392
3.5236 1.5987 2.2391
3.4632 1.7237 2.2390
3.3983 1.8464 2.2389
3.3291 1.9667 2.2387
3.2556 2.0844 2.2386
3.1780 2.1993 2.2385
3.0963 2.3114 2.2383
3.0107 2.4205 2.2381
2.9212 2.5264 2.2380
2.8280 2.6290 2.2378
2.7312 2.7282 2.2376
2.6309 2.8239 2.2374
2.5275 2.9160 2.2374
2.4328 3.0193 2.2484
2.4220 3.2372 2.3447
2.3483 3.3855 2.3898
0.8818 1.3742 0.9471
0.8320 1.4050 0.9473
0.7811 1.4341 0.9474
0.7291 1.4613 0.9476
0.6762 1.4866 0.9477
0.6225 1.5100 0.9479
0.5679 1.5315 0.9480
0.5126 1.5510 0.9481
0.4566 1.5685 0.9482
0.4000 1.5839 0.9483
0.3429 1.5973 0.9484
0.2853 1.6087 0.9485
0.2274 1.6180 0.9485
0.1691 1.6251 0.9486
0.1107 1.6302 0.9486
0.0521 1.6332 0.9487
-0.0066 1.6341 0.9487
-0.0653 1.6328 0.9487
-0.1239 1.6295 0.9487
-0.1823 1.6240 0.9487
-0.2405 1.6164 0.9487
-0.2984 1.6068 0.9487
-0.3559 1.5950 0.9487
-0.4129 1.5812 0.9487
-0.4694 1.5654 0.9486
-0.5253 1.5475 0.9486
-0.5805 1.5277 0.9485
-0.6350 1.5059 0.9484
-0.6887 1.4821 0.9483
-0.7414 1.4564 0.9482
-0.7932 1.4288 0.9481
-0.8440 1.3994 0.9480
-0.8936 1.3681 0.9479
-2.3756 3.3665 2.3898
-2.4952 3.2795 2.3898
-2.6117 3.1882 2.3898
-2.7248 3.0928 2.3898
-2.8344 2.9934 2.3898
-2.9404 2.8901 2.3898
-3.0427 2.7832 2.3898
-3.1411 2.6726 2.3898
-3.2355 2.5585 2.3898
-3.3258 2.4411 2.3898
-3.4118 2.3206 2.3898
-3.4934 2.1971 2.3898
-3.5706 2.0706 2.3898
-3.6433 1.9415 2.3898
-3.7112 1.8099 2.3898
-3.7745 1.6759 2.3898
-3.8329 1.5397 2.3898
-3.8864 1.4015 2.3898
-3.9349 1.2614 2.3898
-3.9783 1.1197 2.3898
-4.0167 0.9764 2.3898
-4.0500 0.8319 2.3898
-4.0780 0.6862 2.3898
-4.1008 0.5397 2.3898
-4.1183 0.3923 2.3898
-4.1306 0.2445 2.3898
-4.1375 0.0962 2.3898
-4.1391 -0.0522 2.3898
-4.1354 -0.2006 2.3898
-4.1264 -0.3488 2.3898
-4.1120 -0.4967 2.3898
-4.0924 -0.6439 2.3898
-4.0675 -0.7903 2.3898
-4.0374 -0.9358 2.3898
-4.0020 -1.0801 2.3898
-3.9615 -1.2231 2.3898
-3.9158 -1.3645 2.3898
-3.8652 -1.5043 2.3898
-3.8095 -1.6421 2.3898
-3.7489 -1.7779 2.3898
-3.6834 -1.9114 2.3898
-3.6132 -2.0426 2.3898
-3.5383 -2.1711 2.3898
-3.4588 -2.2969 2.3898
-3.3749 -2.4197 2.3898
-3.2865 -2.5395 2.3898
-3.1940 -2.6560 2.3898
-3.0972 -2.7691 2.3898
-2.9965 -2.8787 2.3898
-2.8919 -2.9846 2.3898
-2.7835 -3.0867 2.3898
-2.6715 -3.1849 2.3898
-2.5560 -3.2789 2.3898
-2.4372 -3.3688 2.3898
-2.3153 -3.4543 2.3897
-2.1903 -3.5354 2.3897
-2.0625 -3.6119 2.3897
-1.9320 -3.6838 2.3897
-1.7991 -3.7510 2.3897
-1.6637 -3.8133 2.3897
-1.5262 -3.8707 2.3897
-1.3867 -3.9232 2.3897
-1.2454 -3.9706 2.3897
-1.1025 -4.0129 2.3897
-0.9582 -4.0500 2.3897
-0.8126 -4.0818 2.3897
-0.6659 -4.1085 2.3897
-0.5184 -4.1298 2.3897
-0.3702 -4.1458 2.3897
-0.2215 -4.1565 2.3897
-0.0726 -4.1618 2.3897
0.0765 -4.1617 2.3897
0.2255 -4.1562 2.3897
0.3741 -4.1454 2.3897
0.5223 -4.1293 2.3897
0.6698 -4.1078 2.3897
0.8164 -4.0811 2.3897
0.9620 -4.0490 2.3897
1.1063 -4.0118 2.3897
1.2492 -3.9694 2.3898
1.3904 -3.9219 2.3898
1.5299 -3.8693 2.3898
1.6673 -3.8117 2.3898
1.8026 -3.7493 2.3898
1.9355 -3.6820 2.3898
2.0660 -3.6099 2.3898
2.1932 -3.5325 2.3892
2.1819 -3.2486 2.2489
2.2848 -3.1518 2.2374
2.3959 -3.0675 2.2374
2.5039 -2.9794 2.2374
2.6087 -2.8874 2.2374
2.7101 -2.7917 2.2374
2.8079 -2.6925 2.2374
2.9035 -2.5909 2.2384
2.9942 -2.4851 2.2385
3.0810 -2.3760 2.2387
3.1638 -2.2639 2.2388
3.2426 -2.1488 2.2389
3.3171 -2.0310 2.2391
3.3873 -1.9106 2.2392
3.4532 -1.7878 2.2393
3.5145 -1.6627 2.2394
3.5714 -1.5355 2.2395
3.6235 -1.4063 2.2396
3.6710 -1.2753 2.2396
3.7138 -1.1428 2.2397
3.7517 -1.0087 2.2397
3.7848 -0.8735 2.2398
3.8130 -0.7371 2.2398
3.8363 -0.5998 2.2399
3.8546 -0.4618 2.2399
3.8679 -0.3233 2.2399
3.8763 -0.1844 2.2399
3.8796 -0.0453 2.2399
3.8779 0.0939 2.2399
3.8712 0.2328 2.2399
3.8596 0.3714 2.2398
3.8429 0.5094 2.2398
3.8213 0.6468 2.2397
3.7949 0.7832 2.2397
3.7635 0.9186 2.2396
3.7272 1.0528 2.2395
3.6862 1.1855 2.2394
3.6405 1.3167 2.2394
3.5901 1.4461 2.2393
3.5351 1.5736 2.2391
3.4755 1.6990 2.2390
3.4115 1.8222 2.2389
3.3432 1.9430 2.2388
3.2705 2.0612 2.2386
3.1937 2.1767 2.2385
3.1128 2.2894 2.2383
3.0280 2.3991 2.2382
2.9393 2.5056 2.2380
2.8468 2.6089 2.2378
2.7507 2.7088 2.2377
2.6511 2.8052 2.2375
2.5483 2.8980 2.2374
2.4423 2.9872 2.2374
2.4237 3.1917 2.3241
2.3724 3.3688 2.3898
0.8916 1.3678 0.9471
0.8420 1.3990 0.9473
0.7913 1.4285 0.9474
0.7395 1.4560 0.9476
0.6868 1.4817 0.9477
0.6332 1.5055 0.9478
0.5788 1.5274 0.9480
0.5236 1.5473 0.9481
0.4677 1.5652 0.9482
0.4113 1.5810 0.9483
0.3542 1.5948 0.9484
0.2968 1.6066 0.9485
0.2389 1.6163 0.9485
0.1807 1.6239 0.9486
0.1223 1.6294 0.9486
0.0637 1.6328 0.9487
0.0050 1.6341 0.9487
-0.0536 1.6332 0.9487
-0.1122 1.6303 0.9487
-0.1707 1.6252 0.9487
-0.2290 1.6181 0.9487
-0.2869 1.6089 0.9487
