ply
format ascii 1.0
element vertex 2164
property float32 x
property float32 y
property float32 z
end_header
-5.5327 6.4162 2.3936
-5.7319 6.1786 2.3935
-5.9229 5.9365 2.3933
-6.1057 5.6902 2.3932
-6.2803 5.4399 2.3931
-6.4467 5.1858 2.3929
-6.6048 4.9282 2.3928
-6.7547 4.6671 2.3926
-6.8964 4.4028 2.3925
-7.0298 4.1355 2.3923
-7.1550 3.8654 2.3922
-7.2720 3.5926 2.3920
-7.3807 3.3172 2.3919
-7.4811 3.0396 2.3917
-7.5733 2.7597 2.3916
-7.6572 2.4778 2.3914
-7.7328 2.1941 2.3913
-7.8001 1.9087 2.3911
-7.8592 1.6217 2.3910
-7.9099 1.3333 2.3908
-7.9522 1.0437 2.3906
-7.9863 0.7529 2.3905
-8.0119 0.4612 2.3903
-8.0292 0.1687 2.3902
-8.0380 -0.1244 2.3900
-8.0489 -0.4187 2.3930
-8.0497 -0.7138 2.3954
-8.0338 -1.0089 2.3955
-8.0094 -1.3040 2.3956
-7.9764 -1.5990 2.3957
-7.9347 -1.8939 2.3958
-7.8844 -2.1883 2.3959
-7.8252 -2.4822 2.3959
-7.7573 -2.7753 2.3960
-7.6806 -3.0676 2.3961
-7.5975 -3.3599 2.3970
-7.5283 -3.6622 2.4052
-7.4437 -3.9620 2.4115
-7.3442 -4.2585 2.4161
-7.2311 -4.5517 2.4194
-7.1051 -4.8413 2.4216
-6.9670 -5.1270 2.4228
-6.8169 -5.4084 2.4231
-6.6565 -5.6863 2.4231
-6.4866 -5.9611 2.4231
-6.3074 -6.2325 2.4231
-6.1186 -6.5003 2.4231
-5.9204 -6.7642 2.4231
-5.7126 -7.0239 2.4231
-5.4952 -7.2791 2.4231
-5.2683 -7.5294 2.4231
-5.0319 -7.7747 2.4231
-4.7858 -8.0144 2.4231
-4.5303 -8.2483 2.4231
-4.2652 -8.4760 2.4231
-3.9906 -8.6972 2.4231
-3.7066 -8.9115 2.4231
-0.6306 9.6297 2.3954
-0.9681 9.5167 2.3953
-1.2987 9.3939 2.3952
-1.6223 9.2619 2.3952
-1.9388 9.1209 2.3951
-2.2479 8.9713 2.3950
-2.5496 8.8135 2.3949
-2.8437 8.6477 2.3948
-3.1301 8.4743 2.3947
-3.4088 8.2937 2.3946
-3.6797 8.1060 2.3945
-3.9426 7.9116 2.3944
-4.1976 7.7109 2.3943
-4.4445 7.5040 2.3942
-4.6835 7.2912 2.3941
-4.9143 7.0729 2.3940
-5.1370 6.8493 2.3938
-5.3515 6.6205 2.3937
-5.5579 6.3869 2.3936
-5.7561 6.1486 2.3934
-5.9461 5.9060 2.3933
-6.1279 5.6592 2.3932
-6.3015 5.4084 2.3930
-6.4668 5.1539 2.3929
-6.6239 4.8958 2.3928
-6.7728 4.6343 2.3926
-6.9135 4.3697 2.3925
-7.0459 4.1020 2.3923
-7.1700 3.8315 2.3922
-7.2860 3.5584 2.3920
-7.3936 3.2828 2.3919
-7.4930 3.0048 2.3917
-7.5842 2.7247 2.3916
-7.6670 2.4426 2.3914
-7.7416 2.1586 2.3913
-7.8079 1.8730 2.3911
-7.8659 1.5859 2.3909
-7.9156 1.2973 2.3908
-7.9569 1.0075 2.3906
-7.9899 0.7166 2.3905
-8.0145 0.4248 2.3903
-8.0307 0.1322 2.3901
-8.0385 -0.1610 2.3900
-8.0506 -0.4554 2.3936
-8.0482 -0.7506 2.3955
-8.0313 -1.0456 2.3955
-8.0058 -1.3407 2.3956
-7.9717 -1.6358 2.3957
-7.9289 -1.9305 2.3958
-7.8775 -2.2249 2.3959
-7.8173 -2.5188 2.3959
-7.7482 -2.8118 2.3960
-7.6704 -3.1039 2.3961
-7.5896 -3.3976 2.3981
-7.5188 -3.6998 2.4061
-7.4320 -3.9990 2.4121
-7.3308 -4.2952 2.4166
-7.2162 -4.5880 2.4198
-7.0887 -4.8771 2.4218
-6.9488 -5.1622 2.4228
-6.7974 -5.4432 2.4231
-6.6359 -5.7207 2.4231
-6.4648 -5.9951 2.4231
-6.2844 -6.2661 2.4231
-6.0945 -6.5334 2.4231
-5.8950 -6.7968 2.4231
-5.6860 -7.0559 2.4231
-5.4675 -7.3105 2.4231
-5.2394 -7.5602 2.4231
-5.0017 -7.8048 2.4231
-4.7545 -8.0438 2.4231
-4.4978 -8.2770 2.4231
-4.2315 -8.5040 2.4231
-3.9557 -8.7243 2.4231
-3.6705 -8.9376 2.4231
-6.1293 -5.1995 2.4223
-5.9729 -5.4514 2.4229
-5.8067 -5.6990 2.4231
-5.6313 -5.9426 2.4231
-5.4474 -6.1822 2.4231
-5.2547 -6.4177 2.4231
-5.0534 -6.6486 2.4231
-4.8436 -6.8748 2.4231
-4.6250 -7.0959 2.4231
-4.3979 -7.3116 2.4231
-4.1622 -7.5216 2.4231
-3.9181 -7.7256 2.4231
-3.6656 -7.9232 2.4231
-3.4047 -8.1141 2.4231
-3.1355 -8.2979 2.4231
-2.8582 -8.4743 2.4231
-2.5729 -8.6429 2.4231
-2.2797 -8.8034 2.4231
-1.9788 -8.9552 2.4231
-1.6704 -9.0982 2.4231
-1.3546 -9.2317 2.4231
-1.0317 -9.3556 2.4231
-0.7020 -9.4693 2.4231
-0.3656 -9.5724 2.4231
-0.0229 -9.6646 2.4231
3.1847 9.1469 2.3951
2.8302 9.1730 2.3951
0.9558 3.5431 0.9238
0.8280 3.5736 0.9316
0.6991 3.5995 0.9394
0.5694 3.6207 0.9473
0.4390 3.6371 0.9551
0.3081 3.6488 0.9629
0.1768 3.6558 0.9707
0.0453 3.6580 0.9785
-0.0861 3.6554 0.9862
-0.2174 3.6481 0.9938
-0.3484 3.6360 1.0014
-0.4788 3.6191 1.0089
-0.6085 3.5975 1.0163
-0.7374 3.5712 1.0236
-2.0101 8.2245 2.3946
-2.2885 8.0861 2.3945
-2.5604 7.9402 2.3944
-2.8254 7.7868 2.3943
-3.0837 7.6265 2.3943
-3.3349 7.4593 2.3942
-3.5792 7.2857 2.3941
-3.8163 7.1057 2.3940
-4.0462 6.9198 2.3939
-4.2688 6.7282 2.3938
-4.4841 6.5311 2.3937
-4.6921 6.3287 2.3935
-4.8926 6.1213 2.3934
-5.0857 5.9091 2.3933
-5.2713 5.6924 2.3932
-5.4494 5.4712 2.3931
-5.6199 5.2460 2.3930
-5.7828 5.0168 2.3928
-5.9381 4.7839 2.3927
-6.0858 4.5474 2.3926
-6.2259 4.3075 2.3924
-6.3582 4.0645 2.3923
-6.4830 3.8186 2.3922
-6.6000 3.5697 2.3920
-6.7093 3.3183 2.3919
-6.8109 3.0644 2.3918
-6.9047 2.8082 2.3916
-6.9908 2.5498 2.3915
-7.0692 2.2895 2.3913
-7.1397 2.0273 2.3912
-7.2025 1.7635 2.3910
-7.2574 1.4982 2.3909
-7.3045 1.2315 2.3907
-7.3438 0.9637 2.3906
-7.3752 0.6948 2.3904
-7.3987 0.4250 2.3903
-7.4179 0.1546 2.3913
-7.4366 -0.1168 2.3947
-7.4383 -0.3889 2.3952
-7.4307 -0.6614 2.3953
-7.4150 -0.9340 2.3954
-7.3913 -1.2066 2.3955
-7.3595 -1.4790 2.3955
-7.3195 -1.7511 2.3956
-7.2714 -2.0227 2.3957
-7.2151 -2.2936 2.3958
-7.1505 -2.5636 2.3958
-7.0777 -2.8326 2.3959
-6.9966 -3.1004 2.3960
-6.9071 -3.3668 2.3960
-6.8215 -3.6381 2.4004
-6.7339 -3.9126 2.4072
-6.6329 -4.1837 2.4124
-6.5195 -4.4513 2.4164
-6.3942 -4.7153 2.4193
-6.2577 -4.9753 2.4212
-6.1104 -5.2311 2.4224
-5.9527 -5.4825 2.4230
-5.7853 -5.7296 2.4231
-5.6089 -5.9726 2.4231
-5.4238 -6.2118 2.4231
-5.2301 -6.4467 2.4231
-5.0278 -6.6770 2.4231
-4.8168 -6.9026 2.4231
-4.5972 -7.1231 2.4231
-4.3690 -7.3381 2.4231
-4.1323 -7.5473 2.4231
-3.8871 -7.7505 2.4231
-3.6335 -7.9473 2.4231
-3.3716 -8.1374 2.4231
-3.1014 -8.3203 2.4231
-2.8231 -8.4958 2.4231
-2.5368 -8.6634 2.4231
-2.2427 -8.8228 2.4231
-1.9408 -8.9735 2.4231
-1.6315 -9.1153 2.4231
-1.3148 -9.2477 2.4231
-0.9910 -9.3703 2.4231
-0.6604 -9.4827 2.4231
-0.3233 -9.5845 2.4231
0.0202 -9.6753 2.4231
3.1404 9.1508 2.3951
2.7862 9.1754 2.3951
0.9399 3.5472 0.9247
0.8120 3.5771 0.9326
0.6830 3.6024 0.9404
0.5532 3.6230 0.9483
0.4227 3.6389 0.9561
0.2917 3.6500 0.9639
0.1604 3.6563 0.9717
0.0290 3.6579 0.9794
-0.1025 3.6548 0.9871
-0.2338 3.6468 0.9948
-0.3647 3.6341 1.0023
-0.4950 3.6167 1.0098
-0.6246 3.5945 1.0172
-0.7534 3.5676 1.0245
-2.0451 8.2077 2.3946
-2.3227 8.0684 2.3945
-2.5937 7.9215 2.3944
-2.8580 7.7672 2.3943
-3.1153 7.6060 2.3942
-3.3657 7.4380 2.3942
-3.6091 7.2636 2.3941
-3.8453 7.0829 2.3940
-4.0743 6.8963 2.3939
-4.2960 6.7039 2.3938
-4.5104 6.5061 2.3936
-4.7175 6.3031 2.3935
-4.9171 6.0951 2.3934
-5.1092 5.8823 2.3933
-5.2939 5.6650 2.3932
-5.4710 5.4434 2.3931
-5.6406 5.2176 2.3929
-5.8026 4.9880 2.3928
-5.9569 4.7546 2.3927
-6.1037 4.5177 2.3926
-6.2428 4.2775 2.3924
-6.3742 4.0341 2.3923
-6.4979 3.7877 2.3921
-6.6140 3.5386 2.3920
-6.7224 3.2868 2.3919
-6.8230 3.0326 2.3917
-6.9159 2.7761 2.3916
-7.0010 2.5175 2.3915
-7.0784 2.2569 2.3913
-7.1480 1.9945 2.3912
-7.2097 1.7305 2.3910
-7.2637 1.4651 2.3909
-7.3098 1.1982 2.3907
-7.3481 0.9302 2.3906
-7.3785 0.6612 2.3904
-7.4010 0.3914 2.3903
-7.4212 0.1209 2.3919
-7.4389 -0.1507 2.3953
-7.4378 -0.4228 2.3952
-7.4292 -0.6953 2.3953
-7.4125 -0.9679 2.3954
-7.3878 -1.2405 2.3955
-7.3550 -1.5129 2.3956
-7.3140 -1.7849 2.3956
-7.2648 -2.0564 2.3957
-7.2075 -2.3273 2.3958
-7.1419 -2.5972 2.3958
-7.0681 -2.8661 2.3959
-6.9859 -3.1337 2.3960
-6.8954 -3.3999 2.3960
-6.8114 -3.6725 2.4013
-6.7220 -3.9465 2.4079
-6.6195 -4.2172 2.4130
-6.5046 -4.4845 2.4168
-6.3779 -4.7480 2.4196
-6.2400 -5.0075 2.4214
-6.0913 -5.2627 2.4225
-5.9324 -5.5135 2.4230
-5.7638 -5.7600 2.4231
-5.5863 -6.0026 2.4231
-5.4002 -6.2413 2.4231
-5.2054 -6.4756 2.4231
-5.0020 -6.7054 2.4231
-4.7899 -6.9303 2.4231
-4.5692 -7.1501 2.4231
-4.3400 -7.3644 2.4231
-4.1022 -7.5730 2.4231
-3.8560 -7.7754 2.4231
-3.6013 -7.9714 2.4231
-3.3384 -8.1606 2.4231
-3.0672 -8.3426 2.4231
-2.7879 -8.5171 2.4231
-2.5006 -8.6837 2.4231
-2.2055 -8.8420 2.4231
-1.9027 -8.9917 2.4231
-1.5924 -9.1323 2.4231
-1.2749 -9.2635 2.4231
-0.9502 -9.3849 2.4231
-0.6188 -9.4960 2.4231
-0.2808 -9.5965 2.4231
0.0634 -9.6858 2.4231
-5.6508 -4.8040 2.4185
-5.5072 -5.0375 2.4205
-5.3540 -5.2667 2.4219
-5.1913 -5.4913 2.4227
-5.0197 -5.7108 2.4230
-4.8397 -5.9256 2.4231
-4.6516 -6.1359 2.4231
-4.4556 -6.3414 2.4231
-4.2518 -6.5419 2.4231
-4.0403 -6.7371 2.4231
-3.8210 -6.9268 2.4231
-3.5941 -7.1106 2.4231
-3.3597 -7.2883 2.4231
-3.1178 -7.4594 2.4231
-2.8686 -7.6238 2.4231
-2.6122 -7.7810 2.4231
-2.3487 -7.9307 2.4231
-2.0783 -8.0727 2.4231
-1.8012 -8.2065 2.4231
-1.5175 -8.3318 2.4231
-1.2274 -8.4484 2.4231
-0.9312 -8.5557 2.4231
-0.6292 -8.6536 2.4231
-0.3215 -8.7415 2.4231
-0.0085 -8.8193 2.4231
0.3095 -8.8865 2.4231
0.6321 -8.9428 2.4231
0.9591 -8.9879 2.4231
1.2900 -9.0215 2.4231
1.6243 -9.0431 2.4231
1.9618 -9.0526 2.4231
2.3019 -9.0496 2.4231
2.6440 -9.0339 2.4231
2.9878 -9.0051 2.4231
3.3327 -8.9631 2.4231
3.6780 -8.9075 2.4231
5.2142 -8.1454 2.3437
5.4276 -7.8501 2.2968
5.6690 -7.6068 2.2678
5.9645 -7.4371 2.2641
6.2494 -7.2493 2.2587
6.5215 -7.0434 2.2515
6.7844 -6.8249 2.2440
7.0366 -6.5936 2.2359
7.3081 -6.3767 2.2368
6.7069 6.9964 2.3904
6.4059 7.1768 2.3904
6.1002 7.3443 2.3904
5.7902 7.4989 2.3905
5.4767 7.6405 2.3905
5.1603 7.7693 2.3905
4.8461 7.8926 2.3927
4.5283 8.0015 2.3945
4.2059 8.0924 2.3945
3.8828 8.1707 2.3946
3.5595 8.2367 2.3946
3.2364 8.2905 2.3946
2.9141 8.3323 2.3946
2.5929 8.3624 2.3947
0.8783 3.2377 0.9251
0.7614 3.2656 0.9323
0.6437 3.2892 0.9394
0.5251 3.3085 0.9466
0.4059 3.3235 0.9538
0.2863 3.3342 0.9609
0.1663 3.3405 0.9680
0.0461 3.3425 0.9751
-0.0740 3.3401 0.9822
-0.1940 3.3334 0.9892
-0.3137 3.3223 0.9961
-0.4329 3.3069 1.0029
-0.5515 3.2872 1.0097
-0.6692 3.2632 1.0164
-0.7861 3.2349 1.0229
-2.0975 7.4482 2.3942
-2.3492 7.3176 2.3941
-2.5949 7.1800 2.3940
-2.8346 7.0356 2.3939
-3.0680 6.8847 2.3939
-3.2950 6.7275 2.3938
-3.5157 6.5642 2.3937
-3.7298 6.3952 2.3936
-3.9373 6.2207 2.3935
-4.1381 6.0408 2.3934
-4.3322 5.8558 2.3933
-4.5195 5.6659 2.3932
-4.6999 5.4713 2.3931
-4.8735 5.2723 2.3930
-5.0401 5.0691 2.3929
-5.1997 4.8618 2.3927
-5.3522 4.6506 2.3926
-5.4977 4.4358 2.3925
-5.6361 4.2175 2.3924
-5.7674 3.9959 2.3923
-5.8915 3.7712 2.3921
-6.0085 3.5436 2.3920
-6.1182 3.3132 2.3919
-6.2207 3.0802 2.3918
-6.3160 2.8448 2.3916
-6.4040 2.6072 2.3915
-6.4847 2.3674 2.3914
-6.5581 2.1258 2.3912
-6.6242 1.8823 2.3911
-6.6829 1.6373 2.3910
-6.7342 1.3908 2.3908
-6.7782 1.1431 2.3907
-6.8147 0.8942 2.3906
-6.8438 0.6443 2.3904
-6.8739 0.3940 2.3932
-6.8936 0.1425 2.3950
-6.9009 -0.1099 2.3951
-6.9007 -0.3628 2.3951
-6.8929 -0.6158 2.3952
-6.8775 -0.8689 2.3953
-6.8546 -1.1220 2.3953
-6.8240 -1.3748 2.3954
-6.7857 -1.6272 2.3955
-6.7397 -1.8790 2.3956
-6.6861 -2.1300 2.3956
-6.6247 -2.3801 2.3957
-6.5555 -2.6291 2.3958
-6.4786 -2.8768 2.3958
-6.3939 -3.1231 2.3959
-6.3013 -3.3676 2.3959
-6.2009 -3.6103 2.3960
-6.1089 -3.8611 2.4024
-6.0067 -4.1098 2.4082
-5.8930 -4.3548 2.4127
-5.7684 -4.5961 2.4162
-5.6334 -4.8333 2.4188
-5.4885 -5.0663 2.4207
-5.3342 -5.2949 2.4220
-5.1706 -5.5189 2.4228
-4.9979 -5.7378 2.4230
-4.8167 -5.9521 2.4231
-4.6276 -6.1617 2.4231
-4.4307 -6.3666 2.4231
-4.2259 -6.5665 2.4231
-4.0134 -6.7611 2.4231
-3.7932 -6.9501 2.4231
-3.5654 -7.1331 2.4231
-3.3300 -7.3099 2.4231
-3.0872 -7.4803 2.4231
-2.8371 -7.6437 2.4231
-2.5798 -7.8000 2.4231
-2.3154 -7.9488 2.4231
-2.0442 -8.0898 2.4231
-1.7662 -8.2226 2.4231
-1.4817 -8.3468 2.4231
-1.1908 -8.4622 2.4231
-0.8939 -8.5684 2.4231
-0.5911 -8.6651 2.4231
-0.2828 -8.7518 2.4231
0.0308 -8.8283 2.4231
0.3494 -8.8941 2.4231
0.6726 -8.9491 2.4231
1.0001 -8.9928 2.4231
1.3314 -9.0248 2.4231
1.6662 -9.0450 2.4231
2.0040 -9.0529 2.4231
2.3444 -9.0484 2.4231
2.6868 -9.0310 2.4231
3.0307 -9.0006 2.4231
3.3757 -8.9569 2.4231
3.7210 -8.8997 2.4231
5.2391 -8.1052 2.3367
5.4551 -7.8157 2.2919
5.7063 -7.5867 2.2675
6.0007 -7.4147 2.2636
6.2838 -7.2245 2.2579
6.5546 -7.0167 2.2505
6.8165 -6.7969 2.2430
7.0675 -6.5641 2.2350
7.3475 -6.3541 2.2388
6.6697 7.0195 2.3904
6.3681 7.1983 2.3904
6.0618 7.3643 2.3904
5.7514 7.5172 2.3905
5.4375 7.6572 2.3905
5.1207 7.7844 2.3905
4.8074 7.9083 2.3934
4.4882 8.0135 2.3945
4.1657 8.1028 2.3945
3.8426 8.1796 2.3946
3.5192 8.2440 2.3946
3.1962 8.2963 2.3946
2.8740 8.3367 2.3946
0.9796 3.2099 0.9189
0.8638 3.2414 0.9260
0.7468 3.2687 0.9332
0.6290 3.2918 0.9403
0.5103 3.3106 0.9475
0.3911 3.3251 0.9547
0.2713 3.3352 0.9618
0.1513 3.3410 0.9689
0.0312 3.3425 0.9760
-0.0890 3.3395 0.9830
-0.2089 3.3323 0.9900
-0.3285 3.3207 0.9969
-0.4477 3.3047 1.0038
-0.5662 3.2844 1.0105
-0.6838 3.2599 1.0172
-0.8006 3.2311 1.0237
-2.1291 7.4324 2.3942
-2.3801 7.3009 2.3941
-2.6251 7.1624 2.3940
-2.8640 7.0171 2.3939
-3.0966 6.8654 2.3938
-3.3229 6.7075 2.3938
-3.5427 6.5435 2.3937
-3.7560 6.3738 2.3936
-3.9626 6.1985 2.3935
-4.1626 6.0180 2.3934
-4.3559 5.8324 2.3933
-4.5423 5.6419 2.3932
-4.7219 5.4468 2.3931
-4.8946 5.2473 2.3930
-5.0603 5.0435 2.3928
-5.2190 4.8357 2.3927
-5.3707 4.6240 2.3926
-5.5154 4.4088 2.3925
-5.6529 4.1901 2.3924
-5.7833 3.9681 2.3922
-5.9065 3.7430 2.3921
-6.0226 3.5150 2.3920
-6.1314 3.2843 2.3919
-6.2330 3.0510 2.3917
-6.3274 2.8153 2.3916
-6.4145 2.5774 2.3915
-6.4943 2.3374 2.3914
-6.5667 2.0955 2.3912
-6.6319 1.8519 2.3911
-6.6897 1.6067 2.3909
-6.7401 1.3600 2.3908
-6.7831 1.1121 2.3907
-6.8187 0.8631 2.3905
-6.8469 0.6131 2.3904
-6.8745 0.3626 2.3927
-6.8949 0.1111 2.3950
-6.9013 -0.1414 2.3951
-6.9001 -0.3942 2.3951
-6.8914 -0.6473 2.3952
-6.8751 -0.9005 2.3953
-6.8512 -1.1535 2.3954
-6.8196 -1.4062 2.3954
-6.7804 -1.6586 2.3955
-6.7335 -1.9103 2.3956
-6.6789 -2.1612 2.3956
-6.6165 -2.4112 2.3957
-6.5464 -2.6601 2.3958
-6.4685 -2.9076 2.3958
-6.3828 -3.1536 2.3959
-6.2892 -3.3979 2.3959
-6.1890 -3.6410 2.3964
-6.0967 -3.8922 2.4032
-5.9931 -4.1405 2.4088
-5.8780 -4.3851 2.4132
-5.7521 -4.6259 2.4166
-5.6159 -4.8626 2.4191
-5.4698 -5.0950 2.4209
-5.3142 -5.3230 2.4221
-5.1495 -5.5463 2.4228
-4.9758 -5.7648 2.4231
-4.7936 -5.9784 2.4231
-4.6035 -6.1875 2.4231
-4.4056 -6.3918 2.4231
-4.1998 -6.5911 2.4231
-3.9864 -6.7849 2.4231
-3.7652 -6.9732 2.4231
-3.5365 -7.1555 2.4231
-3.3001 -7.3315 2.4231
-3.0564 -7.5010 2.4231
-2.8054 -7.6636 2.4231
-2.5472 -7.8190 2.4231
-2.2820 -7.9668 2.4231
-2.0099 -8.1068 2.4231
-1.7311 -8.2385 2.4231
-1.4458 -8.3617 2.4231
-1.1542 -8.4760 2.4231
-0.8565 -8.5810 2.4231
-0.5530 -8.6764 2.4231
-0.2440 -8.7619 2.4231
0.0702 -8.8371 2.4231
0.3894 -8.9016 2.4231
0.7132 -8.9551 2.4231
1.0411 -8.9974 2.4231
1.3729 -9.0280 2.4231
1.7082 -9.0467 2.4231
2.0463 -9.0531 2.4231
2.3869 -9.0469 2.4231
2.7296 -9.0280 2.4231
3.0736 -8.9959 2.4231
3.4187 -8.9505 2.4231
3.7640 -8.8916 2.4231
5.2655 -8.0675 2.3306
5.4825 -7.7813 2.2870
5.7435 -7.5662 2.2671
6.0367 -7.3921 2.2630
6.3182 -7.1995 2.2570
6.5876 -6.9898 2.2496
6.8485 -6.7687 2.2421
7.0982 -6.5345 2.2340
7.3886 -6.3329 2.2413
-5.2281 -4.4545 2.4119
-5.0959 -4.6719 2.4152
-4.9545 -4.8851 2.4178
-4.8041 -5.0936 2.4197
-4.6451 -5.2975 2.4211
-4.4779 -5.4966 2.4221
-4.3028 -5.6907 2.4228
-4.1196 -5.8793 2.4230
-3.9291 -6.0627 2.4231
-3.7312 -6.2408 2.4231
-3.5265 -6.4134 2.4231
-3.3148 -6.5804 2.4231
-3.0963 -6.7414 2.4231
-2.8710 -6.8961 2.4231
-2.6393 -7.0444 2.4231
-2.4010 -7.1858 2.4231
-2.1565 -7.3200 2.4231
-1.9058 -7.4469 2.4231
-1.6492 -7.5660 2.4231
-1.3868 -7.6772 2.4231
-1.1188 -7.7800 2.4231
-0.8456 -7.8741 2.4231
-0.5672 -7.9594 2.4231
-0.2840 -8.0354 2.4231
0.0037 -8.1019 2.4231
0.2957 -8.1585 2.4231
0.5915 -8.2051 2.4231
0.8910 -8.2412 2.4231
1.1936 -8.2667 2.4231
1.4991 -8.2812 2.4231
1.8070 -8.2846 2.4231
2.1169 -8.2765 2.4231
2.4283 -8.2568 2.4231
2.7408 -8.2252 2.4231
3.0538 -8.1816 2.4231
3.3669 -8.1257 2.4231
3.6796 -8.0575 2.4231
3.9912 -7.9767 2.4231
4.3012 -7.8834 2.4231
4.6090 -7.7773 2.4231
4.9136 -7.6577 2.4228
5.2132 -7.5232 2.4219
5.5058 -7.3723 2.4197
5.7900 -7.2050 2.4161
6.0645 -7.0216 2.4112
6.3280 -6.8221 2.4047
6.5814 -6.6094 2.3975
6.8254 -6.3852 2.3900
7.0620 -6.1523 2.3833
7.2936 -5.9133 2.3781
7.5213 -5.6686 2.3747
7.7422 -5.4164 2.3725
7.9543 -5.1554 2.3708
8.1574 -4.8863 2.3696
8.3501 -4.6084 2.3688
8.5320 -4.3225 2.3682
8.7025 -4.0287 2.3680
8.8613 -3.7276 2.3679
9.0069 -3.4193 2.3679
9.1389 -3.1045 2.3679
9.2571 -2.7837 2.3679
9.3611 -2.4578 2.3679
9.4505 -2.1273 2.3678
9.5252 -1.7929 2.3678
9.5850 -1.4555 2.3678
9.6298 -1.1157 2.3678
9.6594 -0.7744 2.3678
9.6737 -0.4322 2.3678
9.6729 -0.0899 2.3678
9.6569 0.2517 2.3678
9.6259 0.5920 2.3679
9.5810 0.9301 2.3681
9.5217 1.2656 2.3685
9.4495 1.5979 2.3693
9.3633 1.9261 2.3702
9.2654 2.2503 2.3716
9.1561 2.5699 2.3737
9.0357 2.8849 2.3764
8.9037 3.1938 2.3795
8.7635 3.4983 2.3839
8.6154 3.7982 2.3896
8.4399 4.0837 2.3910
8.2481 4.3579 2.3910
8.0459 4.6229 2.3909
7.8338 4.8782 2.3909
7.6124 5.1234 2.3908
7.3822 5.3583 2.3908
7.1438 5.5827 2.3908
6.8979 5.7962 2.3908
6.6449 5.9986 2.3908
6.3855 6.1898 2.3907
6.1203 6.3697 2.3907
5.8498 6.5381 2.3907
5.5746 6.6950 2.3907
5.2953 6.8403 2.3907
5.0124 6.9740 2.3908
4.7264 7.0961 2.3908
4.4379 7.2067 2.3908
4.1474 7.3057 2.3908
3.8599 7.4021 2.3937
3.5672 7.4801 2.3942
3.2731 7.5453 2.3942
2.9789 7.5995 2.3942
2.6850 7.6427 2.3943
0.9187 2.9482 0.9197
0.8123 2.9777 0.9263
0.7048 3.0033 0.9329
0.5965 3.0249 0.9395
0.4874 3.0427 0.9460
0.3778 3.0565 0.9526
0.2677 3.0663 0.9592
0.1574 3.0721 0.9658
0.0468 3.0739 0.9723
-0.0637 3.0717 0.9788
-0.1740 3.0655 0.9852
-0.2841 3.0553 0.9915
-0.3938 3.0411 0.9978
-0.5028 3.0230 1.0041
-0.6112 3.0009 1.0102
-0.7187 2.9749 1.0162
-0.8251 2.9450 1.0222
-2.1665 6.7791 2.3938
-2.3954 6.6545 2.3937
-2.6187 6.5235 2.3937
-2.8364 6.3862 2.3936
-3.0483 6.2428 2.3935
-3.2544 6.0937 2.3934
-3.4546 5.9390 2.3933
-3.6487 5.7789 2.3932
-3.8367 5.6137 2.3932
-4.0185 5.4436 2.3931
-4.1940 5.2687 2.3930
-4.3632 5.0893 2.3929
-4.5260 4.9055 2.3928
-4.6824 4.7177 2.3927
-4.8323 4.5259 2.3926
-4.9756 4.3303 2.3924
-5.1123 4.1311 2.3923
-5.2424 3.9286 2.3922
-5.3658 3.7229 2.3921
-5.4826 3.5141 2.3920
-5.5925 3.3025 2.3919
-5.6958 3.0881 2.3918
-5.7922 2.8713 2.3916
-5.8818 2.6521 2.3915
-5.9646 2.4307 2.3914
-6.0404 2.2073 2.3913
-6.1094 1.9820 2.3912
-6.1715 1.7550 2.3910
-6.2266 1.5265 2.3909
-6.2747 1.2965 2.3908
-6.3159 1.0653 2.3906
-6.3538 0.8336 2.3920
-6.3869 0.6008 2.3941
-6.4094 0.3666 2.3948
-6.4229 0.1316 2.3949
-6.4294 -0.1039 2.3950
-6.4287 -0.3398 2.3950
-6.4209 -0.5758 2.3951
-6.4059 -0.8119 2.3952
-6.3837 -1.0478 2.3952
-6.3543 -1.2834 2.3953
-6.3176 -1.5185 2.3954
-6.2737 -1.7530 2.3954
-6.2226 -1.9867 2.3955
-6.1641 -2.2194 2.3956
-6.0984 -2.4510 2.3956
-6.0254 -2.6812 2.3957
-5.9450 -2.9099 2.3957
-5.8573 -3.1368 2.3958
-5.7623 -3.3619 2.3958
-5.6599 -3.5848 2.3959
-5.5536 -3.8078 2.3974
-5.4498 -4.0360 2.4034
-5.3360 -4.2609 2.4084
-5.2121 -4.4818 2.4124
-5.0787 -4.6986 2.4156
-4.9362 -4.9112 2.4180
-4.7848 -5.1194 2.4200
-4.6247 -5.3226 2.4213
-4.4565 -5.5210 2.4222
-4.2804 -5.7145 2.4228
-4.0962 -5.9024 2.4230
-3.9048 -6.0852 2.4231
-3.7062 -6.2626 2.4231
-3.5005 -6.4345 2.4231
-3.2879 -6.6008 2.4231
-3.0686 -6.7610 2.4231
-2.8426 -6.9149 2.4231
-2.6100 -7.0623 2.4231
-2.3709 -7.2029 2.4231
-2.1257 -7.3362 2.4231
-1.8742 -7.4622 2.4231
-1.6168 -7.5803 2.4231
-1.3537 -7.6904 2.4231
-1.0851 -7.7922 2.4231
-0.8112 -7.8852 2.4231
-0.5322 -7.9694 2.4231
-0.2484 -8.0442 2.4231
0.0399 -8.1095 2.4231
0.3323 -8.1649 2.4231
0.6287 -8.2101 2.4231
0.9285 -8.2450 2.4231
1.2316 -8.2691 2.4231
1.5374 -8.2823 2.4231
1.8455 -8.2842 2.4231
2.1556 -8.2747 2.4231
2.4672 -8.2535 2.4231
2.7797 -8.2205 2.4231
3.0928 -8.1753 2.4231
3.4059 -8.1179 2.4231
3.7184 -8.0481 2.4231
4.0299 -7.9658 2.4231
4.3397 -7.8709 2.4231
4.6471 -7.7631 2.4230
4.9513 -7.6419 2.4228
5.2500 -7.5052 2.4216
5.5417 -7.3524 2.4193
5.8247 -7.1831 2.4156
6.0980 -6.9976 2.4105
6.3600 -6.7962 2.4038
6.6124 -6.5821 2.3966
6.8554 -6.3568 2.3892
7.0911 -6.1229 2.3825
7.3220 -5.8829 2.3775
7.5492 -5.6377 2.3744
7.7692 -5.3844 2.3723
7.9802 -5.1224 2.3706
8.1820 -4.8521 2.3695
8.3734 -4.5733 2.3687
8.5539 -4.2863 2.3682
8.7230 -3.9916 2.3679
8.8801 -3.6896 2.3679
9.0241 -3.3805 2.3679
9.1544 -3.0648 2.3679
9.2708 -2.7434 2.3679
9.3730 -2.4168 2.3679
9.4606 -2.0858 2.3678
9.5335 -1.7510 2.3678
9.5914 -1.4133 2.3678
9.6343 -1.0733 2.3678
9.6620 -0.7318 2.3678
9.6745 -0.3895 2.3678
9.6717 -0.0473 2.3678
9.6539 0.2942 2.3678
9.6209 0.6342 2.3678
9.5745 0.9722 2.3682
9.5132 1.3072 2.3685
9.4396 1.6390 2.3694
9.3519 1.9669 2.3704
9.2521 2.2903 2.3718
9.1415 2.6094 2.3740
9.0197 2.9234 2.3767
8.8866 3.2316 2.3800
8.7455 3.5361 2.3846
8.5961 3.8351 2.3903
8.4166 4.1183 2.3910
8.2235 4.3914 2.3910
8.0200 4.6552 2.3909
7.8067 4.9093 2.3909
7.5842 5.1532 2.3908
7.3529 5.3869 2.3908
7.1136 5.6099 2.3908
6.8667 5.8220 2.3908
6.6129 6.0230 2.3907
6.3528 6.2128 2.3907
6.0869 6.3913 2.3907
5.8158 6.5583 2.3907
5.5400 6.7137 2.3907
5.2602 6.8576 2.3907
4.9769 6.9898 2.3908
4.6906 7.1105 2.3908
4.4018 7.2196 2.3908
4.1118 7.3186 2.3913
3.8244 7.4143 2.3943
3.5306 7.4888 2.3942
3.2365 7.5527 2.3942
2.9423 7.6055 2.3942
2.6484 7.6473 2.3943
0.9055 2.9521 0.9205
0.7990 2.9811 0.9271
0.6914 3.0062 0.9337
0.5829 3.0274 0.9403
0.4738 3.0446 0.9469
0.3641 3.0579 0.9535
0.2540 3.0672 0.9600
0.1436 3.0725 0.9666
0.0331 3.0738 0.9731
-0.0774 3.0712 0.9796
-0.1878 3.0645 0.9860
-0.2978 3.0538 0.9923
-0.4074 3.0391 0.9986
-0.5164 3.0204 1.0048
-0.6246 2.9979 1.0110
-0.7320 2.9714 1.0170
-0.8383 2.9410 1.0229
-2.1953 6.7639 2.3938
-2.4235 6.6385 2.3937
-2.6461 6.5067 2.3936
-2.8631 6.3686 2.3936
-3.0743 6.2246 2.3935
-3.2797 6.0747 2.3934
-3.4791 5.9194 2.3933
-3.6724 5.7586 2.3932
-3.8597 5.5928 2.3931
-4.0407 5.4221 2.3930
-4.2154 5.2466 2.3930
-4.3838 5.0666 2.3929
-4.5459 4.8824 2.3928
-4.7014 4.6940 2.3926
-4.8505 4.5017 2.3925
-4.9930 4.3057 2.3924
-5.1289 4.1061 2.3923
-5.2581 3.9032 2.3922
-5.3807 3.6970 2.3921
-5.4966 3.4879 2.3920
-5.6058 3.2759 2.3919
-5.7081 3.0613 2.3917
-5.8037 2.8441 2.3916
-5.8925 2.6247 2.3915
-5.9744 2.4030 2.3914
-6.0494 2.1793 2.3913
-6.1175 1.9538 2.3911
-6.1787 1.7266 2.3910
-6.2330 1.4979 2.3909
-6.2802 1.2678 2.3908
-6.3205 1.0365 2.3906
-6.3589 0.8047 2.3924
-6.3912 0.5718 2.3946
-6.4114 0.3374 2.3948
-6.4241 0.1023 2.3949
-6.4297 -0.1333 2.3950
-6.4281 -0.3691 2.3950
-6.4194 -0.6052 2.3951
-6.4035 -0.8412 2.3952
-6.3804 -1.0771 2.3952
-6.3501 -1.3127 2.3953
-6.3126 -1.5478 2.3954
-6.2678 -1.7822 2.3954
-6.2157 -2.0158 2.3955
-6.1564 -2.2483 2.3956
-6.0897 -2.4797 2.3956
-6.0158 -2.7097 2.3957
-5.9345 -2.9382 2.3957
-5.8459 -3.1650 2.3958
-5.7499 -3.3898 2.3958
-5.6466 -3.6124 2.3959
-5.5412 -3.8364 2.3982
-5.4362 -4.0642 2.4040
-5.3211 -4.2886 2.4089
-5.1960 -4.5090 2.4128
-5.0614 -4.7253 2.4159
-4.9177 -4.9373 2.4183
-4.7653 -5.1449 2.4201
-4.6042 -5.3476 2.4214
-4.4350 -5.5453 2.4223
-4.2578 -5.7381 2.4228
-4.0728 -5.9255 2.4230
-3.8804 -6.1076 2.4231
-3.6809 -6.2843 2.4231
-3.4744 -6.4555 2.4231
-3.2610 -6.6211 2.4231
-3.0408 -6.7805 2.4231
-2.8139 -6.9337 2.4231
-2.5805 -7.0802 2.4231
-2.3407 -7.2199 2.4231
-2.0946 -7.3523 2.4231
-1.8424 -7.4773 2.4231
-1.5844 -7.5945 2.4231
-1.3205 -7.7036 2.4231
-1.0513 -7.8042 2.4231
-0.7767 -7.8962 2.4231
-0.4971 -7.9792 2.4231
-0.2127 -8.0528 2.4231
0.0761 -8.1169 2.4231
0.3690 -8.1711 2.4231
0.6658 -8.2150 2.4231
0.9661 -8.2486 2.4231
1.2695 -8.2713 2.4231
1.5756 -8.2831 2.4231
1.8840 -8.2837 2.4231
2.1943 -8.2727 2.4231
2.5061 -8.2501 2.4231
2.8187 -8.2155 2.4231
3.1318 -8.1689 2.4231
3.4449 -8.1099 2.4231
3.7573 -8.0386 2.4231
4.0686 -7.9547 2.4231
4.3781 -7.8582 2.4231
4.6852 -7.7487 2.4230
4.9888 -7.6257 2.4227
5.2867 -7.4870 2.4214
5.5774 -7.3322 2.4189
5.8594 -7.1609 2.4150
6.1311 -6.9733 2.4097
6.3919 -6.7701 2.4029
6.6432 -6.5547 2.3957
6.8853 -6.3282 2.3884
7.1203 -6.0934 2.3818
7.3502 -5.8524 2.3769
7.5771 -5.6066 2.3741
7.7960 -5.3523 2.3721
8.0059 -5.0893 2.3705
8.2063 -4.8178 2.3694
8.3966 -4.5380 2.3687
8.5755 -4.2499 2.3681
8.7433 -3.9544 2.3679
8.8988 -3.6515 2.3679
9.0411 -3.3415 2.3679
9.1697 -3.0251 2.3679
9.2843 -2.7030 2.3679
9.3847 -2.3758 2.3679
9.4705 -2.0443 2.3678
9.5415 -1.7091 2.3678
9.5976 -1.3710 2.3678
9.6386 -1.0308 2.3678
9.6644 -0.6892 2.3678
9.6750 -0.3469 2.3678
9.6703 -0.0047 2.3678
9.6506 0.3367 2.3678
9.6158 0.6764 2.3678
9.5678 1.0141 2.3683
9.5044 1.3486 2.3685
9.4293 1.6800 2.3695
9.3404 2.0074 2.3706
9.2389 2.3302 2.3720
9.1266 2.6487 2.3742
9.0036 2.9621 2.3771
8.8697 3.2702 2.3806
-4.8515 -4.1429 2.4028
-4.7296 -4.3461 2.4074
-4.5989 -4.5451 2.4112
-4.4594 -4.7397 2.4142
-4.3118 -4.9297 2.4165
-4.1563 -5.1150 2.4185
-3.9934 -5.2957 2.4201
-3.8228 -5.4709 2.4211
-3.6451 -5.6411 2.4219
-3.4604 -5.8057 2.4225
-3.2691 -5.9647 2.4228
-3.0711 -6.1177 2.4230
-2.8668 -6.2649 2.4231
-2.6563 -6.4059 2.4231
-2.4399 -6.5405 2.4231
-2.2176 -6.6687 2.4231
-1.9897 -6.7901 2.4231
-1.7563 -6.9044 2.4231
-1.5176 -7.0115 2.4231
-1.2738 -7.1109 2.4231
-1.0251 -7.2024 2.4231
-0.7717 -7.2859 2.4231
-0.5138 -7.3609 2.4231
-0.2518 -7.4273 2.4231
0.0141 -7.4847 2.4231
0.2838 -7.5330 2.4231
0.5567 -7.5719 2.4231
0.8326 -7.6011 2.4231
1.1112 -7.6205 2.4231
1.3920 -7.6297 2.4231
1.6748 -7.6286 2.4231
1.9591 -7.6170 2.4231
2.2445 -7.5947 2.4231
2.5306 -7.5615 2.4231
2.8168 -7.5173 2.4231
3.1027 -7.4619 2.4231
3.3878 -7.3947 2.4229
3.6713 -7.3157 2.4225
3.9525 -7.2244 2.4219
4.2305 -7.1202 2.4208
4.5045 -7.0033 2.4192
4.7736 -6.8732 2.4169
5.0366 -6.7297 2.4139
5.2922 -6.5723 2.4098
5.5389 -6.4007 2.4043
5.7755 -6.2151 2.3975
6.0142 -6.0293 2.3945
6.2533 -5.8403 2.3944
6.4851 -5.6409 2.3943
6.7082 -5.4304 2.3938
6.9109 -5.2010 2.3892
7.1059 -4.9644 2.3852
7.2933 -4.7208 2.3820
7.4723 -4.4702 2.3793
7.6421 -4.2126 2.3771
7.8025 -3.9483 2.3754
7.9526 -3.6775 2.3740
8.0917 -3.4004 2.3728
8.2206 -3.1179 2.3721
8.3374 -2.8297 2.3714
8.4422 -2.5367 2.3709
8.5346 -2.2393 2.3705
8.6147 -1.9381 2.3703
8.6821 -1.6336 2.3702
8.7364 -1.3265 2.3702
8.7777 -1.0174 2.3704
8.8062 -0.7068 2.3707
8.8216 -0.3953 2.3712
8.8237 -0.0837 2.3718
8.8123 0.2275 2.3724
8.7895 0.5379 2.3735
8.7532 0.8468 2.3747
8.7058 1.1535 2.3764
8.6455 1.4581 2.3782
8.5747 1.7596 2.3808
8.4933 2.0581 2.3839
8.4022 2.3531 2.3878
8.2977 2.6434 2.3915
8.1685 2.9240 2.3914
8.0279 3.1982 2.3913
7.8765 3.4653 2.3913
7.7145 3.7251 2.3912
7.5426 3.9770 2.3912
7.3611 4.2207 2.3912
7.1705 4.4559 2.3911
6.9713 4.6822 2.3911
6.7640 4.8993 2.3911
6.5491 5.1070 2.3910
6.3271 5.3050 2.3910
6.0985 5.4931 2.3910
5.8639 5.6712 2.3910
5.6236 5.8391 2.3910
5.3784 5.9967 2.3910
5.1286 6.1439 2.3910
4.8747 6.2807 2.3910
4.6173 6.4070 2.3910
4.3568 6.5228 2.3910
4.0937 6.6281 2.3910
3.8285 6.7229 2.3910
3.5616 6.8074 2.3911
3.2967 6.8881 2.3934
3.0292 6.9563 2.3949
2.7581 7.0070 2.3939
0.9512 2.6953 0.9151
0.8538 2.7261 0.9212
0.7554 2.7533 0.9273
0.6560 2.7770 0.9334
0.5558 2.7970 0.9395
0.4549 2.8134 0.9456
0.3535 2.8261 0.9517
0.2517 2.8352 0.9577
0.1496 2.8406 0.9638
0.0474 2.8422 0.9698
-0.0548 2.8402 0.9758
-0.1568 2.8344 0.9817
-0.2586 2.8250 0.9876
-0.3600 2.8119 0.9935
-0.4609 2.7951 0.9992
-0.5611 2.7747 1.0049
-0.6605 2.7506 1.0105
-0.7590 2.7230 1.0160
-2.0068 6.3081 2.3935
-2.2207 6.1946 2.3935
-2.4296 6.0749 2.3934
-2.6334 5.9492 2.3933
-2.8319 5.8177 2.3933
-3.0251 5.6806 2.3932
-3.2128 5.5382 2.3931
-3.3950 5.3906 2.3930
-3.5716 5.2381 2.3929
-3.7424 5.0808 2.3929
-3.9074 4.9189 2.3928
-4.0665 4.7526 2.3927
-4.2197 4.5821 2.3926
-4.3669 4.4077 2.3925
-4.5080 4.2294 2.3924
-4.6430 4.0474 2.3923
-4.7718 3.8620 2.3922
-4.8944 3.6733 2.3921
-5.0108 3.4815 2.3920
-5.1208 3.2867 2.3919
-5.2246 3.0892 2.3918
-5.3219 2.8890 2.3917
-5.4129 2.6864 2.3915
-5.4974 2.4815 2.3914
-5.5754 2.2745 2.3913
-5.6469 2.0655 2.3912
-5.7119 1.8547 2.3911
-5.7704 1.6422 2.3910
-5.8223 1.4283 2.3908
-5.8681 1.2131 2.3910
-5.9116 0.9974 2.3928
-5.9497 0.7805 2.3951
-5.9743 0.5616 2.3947
-5.9935 0.3421 2.3948
-6.0060 0.1220 2.3948
-6.0117 -0.0986 2.3949
-6.0106 -0.3194 2.3950
-6.0028 -0.5404 2.3950
-5.9882 -0.7613 2.3951
-5.9668 -0.9821 2.3951
-5.9386 -1.2025 2.3952
-5.9035 -1.4224 2.3953
-5.8615 -1.6416 2.3953
-5.8128 -1.8600 2.3954
-5.7571 -2.0774 2.3954
-5.6945 -2.2936 2.3955
-5.6251 -2.5084 2.3955
-5.5487 -2.7217 2.3956
-5.4655 -2.9332 2.3956
-5.3754 -3.1428 2.3957
-5.2784 -3.3503 2.3957
-5.1745 -3.5555 2.3958
-5.0637 -3.7582 2.3958
-4.9509 -3.9621 2.3982
-4.8368 -4.1684 2.4034
-4.7137 -4.3710 2.4079
-4.5819 -4.5695 2.4116
-4.4416 -4.7637 2.4146
-4.2928 -4.9530 2.4168
-4.1364 -5.1378 2.4187
-3.9725 -5.3178 2.4202
-3.8011 -5.4924 2.4212
-3.6225 -5.6619 2.4220
-3.4369 -5.8259 2.4226
-3.2447 -5.9841 2.4229
-3.0460 -6.1364 2.4230
-2.8409 -6.2828 2.4231
-2.6297 -6.4230 2.4231
-2.4124 -6.5569 2.4231
-2.1895 -6.6842 2.4231
-1.9609 -6.8047 2.4231
-1.7269 -6.9182 2.4231
-1.4875 -7.0243 2.4231
-1.2431 -7.1227 2.4231
-0.9938 -7.2133 2.4231
-0.7397 -7.2957 2.4231
-0.4814 -7.3696 2.4231
-0.2189 -7.4349 2.4231
0.0476 -7.4913 2.4231
0.3177 -7.5384 2.4231
0.5909 -7.5761 2.4231
0.8672 -7.6041 2.4231
1.1461 -7.6222 2.4231
1.4272 -7.6301 2.4231
1.7101 -7.6278 2.4231
1.9946 -7.6148 2.4231
2.2801 -7.5912 2.4231
2.5662 -7.5566 2.4231
2.8524 -7.5110 2.4231
3.1383 -7.4542 2.4230
3.4232 -7.3856 2.4229
3.7064 -7.3050 2.4225
3.9874 -7.2122 2.4218
4.2649 -7.1064 2.4206
4.5383 -6.9878 2.4189
4.8067 -6.8561 2.4166
5.0689 -6.7108 2.4134
5.3234 -6.5517 2.4092
5.5689 -6.3783 2.4036
5.8043 -6.1911 2.3966
6.0444 -6.0063 2.3945
6.2826 -5.8160 2.3944
6.5135 -5.6153 2.3943
6.7339 -5.4023 2.3932
6.9356 -5.1719 2.3887
7.1296 -4.9344 2.3847
7.3161 -4.6900 2.3816
7.4940 -4.4385 2.3790
7.6626 -4.1800 2.3769
7.8218 -3.9149 2.3752
7.9705 -3.6433 2.3738
8.1085 -3.3656 2.3727
8.2358 -3.0823 2.3720
8.3511 -2.7935 2.3714
8.4544 -2.4999 2.3708
8.5453 -2.2020 2.3705
8.6238 -1.9003 2.3703
8.6896 -1.5955 2.3702
8.7422 -1.2881 2.3703
8.7820 -0.9788 2.3704
8.8088 -0.6680 2.3708
8.8226 -0.3565 2.3713
8.8230 -0.0449 2.3718
8.8101 0.2663 2.3725
8.7858 0.5766 2.3737
8.7477 0.8851 2.3748
8.6991 1.1919 2.3767
8.6373 1.4958 2.3785
8.5652 1.7969 2.3811
8.4824 2.0950 2.3843
8.3903 2.3897 2.3884
8.2823 2.6787 2.3915
8.1516 2.9585 2.3914
8.0096 3.2318 2.3913
7.8569 3.4981 2.3913
7.6937 3.7569 2.3912
7.5205 4.0078 2.3912
7.3378 4.2505 2.3912
7.1461 4.4846 2.3911
6.9459 4.7097 2.3911
6.7376 4.9257 2.3911
6.5218 5.1322 2.3910
6.2990 5.3289 2.3910
6.0696 5.5158 2.3910
5.8342 5.6927 2.3910
5.5934 5.8593 2.3910
5.3475 6.0156 2.3910
5.0972 6.1615 2.3910
4.8429 6.2970 2.3910
4.5850 6.4220 2.3910
4.3242 6.5365 2.3910
4.0608 6.6405 2.3910
3.7954 6.7340 2.3910
3.5282 6.8171 2.3911
3.2633 6.8971 2.3936
2.9950 6.9621 2.3944
2.7245 7.0130 2.3939
0.9392 2.6994 0.9159
0.8416 2.7297 0.9220
0.7430 2.7565 0.9280
0.6435 2.7797 0.9341
0.5432 2.7993 0.9402
0.4423 2.8152 0.9463
0.3409 2.8275 0.9524
0.2390 2.8361 0.9585
0.1369 2.8410 0.9645
0.0347 2.8422 0.9706
-0.0675 2.8397 0.9765
-0.1695 2.8335 0.9825
-0.2713 2.8236 0.9884
-0.3726 2.8100 0.9942
-0.4734 2.7927 0.9999
-0.5735 2.7719 1.0056
-0.6728 2.7474 1.0112
-0.7711 2.7193 1.0167
-2.0337 6.2943 2.3935
-2.2470 6.1800 2.3935
-2.4553 6.0595 2.3934
-2.6584 5.9331 2.3933
-2.8563 5.8009 2.3933
-3.0488 5.6632 2.3932
-3.2358 5.5201 2.3931
-3.4173 5.3719 2.3930
-3.5931 5.2187 2.3929
-3.7632 5.0608 2.3928
-3.9275 4.8984 2.3928
-4.0859 4.7316 2.3927
-4.2383 4.5606 2.3926
-4.3848 4.3857 2.3925
-4.5251 4.2069 2.3924
-4.6594 4.0245 2.3923
-4.7874 3.8387 2.3922
-4.9093 3.6496 2.3921
-5.0248 3.4574 2.3920
-5.1341 3.2623 2.3919
-5.2370 3.0644 2.3917
-5.3336 2.8639 2.3916
-5.4237 2.6610 2.3915
-5.5074 2.4559 2.3914
-5.5847 2.2486 2.3913
-5.6554 2.0393 2.3912
-5.7196 1.8283 2.3911
-5.7772 1.6157 2.3910
-5.8283 1.4015 2.3908
-5.8743 1.1864 2.3914
-5.9162 0.9704 2.3929
-5.9520 0.7531 2.3946
-5.9771 0.5343 2.3947
-5.9954 0.3147 2.3948
-6.0070 0.0945 2.3948
-6.0119 -0.1261 2.3949
-6.0100 -0.3469 2.3950
-6.0014 -0.5679 2.3950
-5.9859 -0.7888 2.3951
-5.9637 -1.0096 2.3952
-5.9346 -1.2299 2.3952
-5.8986 -1.4497 2.3953
-5.8558 -1.6689 2.3953
-5.8062 -1.8872 2.3954
-5.7497 -2.1044 2.3954
-5.6863 -2.3204 2.3955
-5.6160 -2.5350 2.3956
-5.5388 -2.7481 2.3956
-5.4547 -2.9594 2.3957
-5.3637 -3.1688 2.3957
-5.2658 -3.3760 2.3957
-5.1610 -3.5809 2.3958
-5.0494 -3.7833 2.3958
-4.9372 -3.9880 2.3989
-4.8219 -4.1938 2.4040
-4.6978 -4.3959 2.4084
-4.5648 -4.5939 2.4119
-4.4235 -4.7875 2.4149
-4.2738 -4.9763 2.4171
-4.1164 -5.1604 2.4189
-3.9515 -5.3398 2.4203
-3.7791 -5.5139 2.4214
-3.5997 -5.6826 2.4221
-3.4135 -5.8459 2.4226
-3.2203 -6.0033 2.4229
-3.0207 -6.1550 2.4230
-2.8149 -6.3006 2.4231
-2.6030 -6.4400 2.4231
-2.3850 -6.5731 2.4231
-2.1613 -6.6996 2.4231
-1.9320 -6.8193 2.4231
-1.6973 -6.9318 2.4231
-1.4573 -7.0369 2.4231
-1.2123 -7.1344 2.4231
-0.9624 -7.2240 2.4231
-0.7078 -7.3053 2.4231
-0.4489 -7.3782 2.4231
-0.1858 -7.4424 2.4231
0.0810 -7.4976 2.4231
0.3515 -7.5436 2.4231
0.6252 -7.5801 2.4231
0.9018 -7.6069 2.4231
1.1810 -7.6237 2.4231
1.4623 -7.6304 2.4231
1.7455 -7.6267 2.4231
2.0301 -7.6125 2.4231
2.3157 -7.5875 2.4231
2.6018 -7.5516 2.4231
2.8881 -7.5046 2.4231
3.1738 -7.4462 2.4230
3.4586 -7.3762 2.4228
3.7415 -7.2940 2.4224
4.0222 -7.1997 2.4217
4.2992 -7.0924 2.4204
4.5720 -6.9721 2.4187
4.8397 -6.8387 2.4162
5.1010 -6.6918 2.4129
5.3546 -6.5310 2.4086
5.5988 -6.3558 2.4028
5.8330 -6.1670 2.3957
6.0744 -5.9832 2.3945
6.3117 -5.7916 2.3944
6.5417 -5.5896 2.3943
6.7594 -5.3740 2.3926
6.9603 -5.1428 2.3881
7.1532 -4.9043 2.3843
7.3386 -4.6590 2.3812
7.5155 -4.4067 2.3787
7.6829 -4.1473 2.3766
7.8409 -3.8815 2.3750
7.9883 -3.6091 2.3737
8.1250 -3.3306 2.3726
8.2508 -3.0466 2.3719
8.3647 -2.7572 2.3713
8.4664 -2.4630 2.3708
8.5557 -2.1645 2.3704
8.6327 -1.8625 2.3703
8.6968 -1.5574 2.3702
8.7478 -1.2497 2.3703
8.7861 -0.9401 2.3705
8.8112 -0.6293 2.3708
8.8234 -0.3177 2.3714
8.8220 -0.0060 2.3719
8.8078 0.3050 2.3726
8.7818 0.6151 2.3739
8.7422 0.9234 2.3750
8.6922 1.2298 2.3769
8.6289 1.5334 2.3788
8.5555 1.8343 2.3815
8.4715 2.1318 2.3848
8.3781 2.4261 2.3889
8.2666 2.7139 2.3914
8.1345 2.9929 2.3914
-4.5215 -3.8699 2.3958
-4.4011 -4.0537 2.3974
-4.2797 -4.2398 2.4022
-4.1505 -4.4221 2.4064
-4.0131 -4.5998 2.4097
-3.8683 -4.7730 2.4125
-3.7163 -4.9417 2.4149
-3.5570 -5.1052 2.4168
-3.3911 -5.2637 2.4183
-3.2186 -5.4169 2.4196
-3.0397 -5.5646 2.4206
-2.8546 -5.7067 2.4213
-2.6636 -5.8429 2.4219
-2.4667 -5.9730 2.4223
-2.2642 -6.0970 2.4227
-2.0564 -6.2143 2.4228
-1.8433 -6.3251 2.4229
-1.6253 -6.4290 2.4230
-1.4024 -6.5261 2.4231
-1.1750 -6.6157 2.4231
-0.9432 -6.6979 2.4231
-0.7071 -6.7725 2.4231
-0.4672 -6.8391 2.4231
-0.2236 -6.8976 2.4231
0.0234 -6.9478 2.4231
0.2735 -6.9893 2.4231
0.5265 -7.0221 2.4231
0.7820 -7.0459 2.4231
1.0397 -7.0605 2.4231
1.2993 -7.0655 2.4230
1.5604 -7.0609 2.4230
1.8226 -7.0466 2.4229
2.0855 -7.0222 2.4227
2.3485 -6.9871 2.4223
2.6112 -6.9417 2.4219
2.8732 -6.8853 2.4211
3.1338 -6.8181 2.4202
3.3922 -6.7393 2.4188
3.6480 -6.6492 2.4171
3.9003 -6.5475 2.4149
4.1481 -6.4335 2.4119
4.3905 -6.3072 2.4081
4.6265 -6.1684 2.4033
4.8551 -6.0172 2.3974
5.0844 -5.8642 2.3946
5.3140 -5.7080 2.3945
5.5379 -5.5421 2.3944
5.7556 -5.3665 2.3943
5.9666 -5.1816 2.3943
6.1705 -4.9874 2.3942
6.3667 -4.7845 2.3941
6.5548 -4.5729 2.3940
6.7343 -4.3531 2.3939
6.9049 -4.1255 2.3938
7.0615 -3.8878 2.3921
7.2046 -3.6414 2.3893
7.3387 -3.3900 2.3869
7.4632 -3.1330 2.3849
7.5781 -2.8714 2.3834
7.6828 -2.6053 2.3822
7.7770 -2.3350 2.3813
7.8603 -2.0610 2.3806
7.9327 -1.7837 2.3801
7.9939 -1.5036 2.3799
8.0439 -1.2213 2.3800
8.0826 -0.9370 2.3804
8.1099 -0.6517 2.3809
8.1257 -0.3653 2.3818
8.1301 -0.0786 2.3829
8.1231 0.2079 2.3843
8.1056 0.4938 2.3862
8.0772 0.7786 2.3885
8.0380 1.0620 2.3912
7.9802 1.3422 2.3919
7.9080 1.6188 2.3918
7.8244 1.8915 2.3918
7.7295 2.1598 2.3917
7.6236 2.4233 2.3917
7.5072 2.6816 2.3916
7.3804 2.9340 2.3915
7.2437 3.1803 2.3915
7.0974 3.4200 2.3914
6.9418 3.6527 2.3914
6.7775 3.8780 2.3914
6.6047 4.0958 2.3913
6.4240 4.3055 2.3913
6.2358 4.5071 2.3913
6.0405 4.7001 2.3913
5.8385 4.8845 2.3912
5.6304 5.0600 2.3912
5.4165 5.2264 2.3912
5.1973 5.3836 2.3912
4.9733 5.5315 2.3912
4.7449 5.6700 2.3912
4.5126 5.7989 2.3912
4.2768 5.9183 2.3912
4.0380 6.0282 2.3912
3.7965 6.1284 2.3912
3.5529 6.2191 2.3912
3.3074 6.3002 2.3913
3.0605 6.3718 2.3913
2.8126 6.4340 2.3913
0.9771 2.4720 0.9113
0.8877 2.5038 0.9169
0.7972 2.5324 0.9225
0.7057 2.5577 0.9281
0.6134 2.5796 0.9338
0.5203 2.5982 0.9395
0.4266 2.6134 0.9451
0.3323 2.6252 0.9508
0.2378 2.6336 0.9564
0.1429 2.6386 0.9621
0.0480 2.6401 0.9677
-0.0470 2.6382 0.9732
-0.1418 2.6329 0.9788
-0.2364 2.6241 0.9842
-0.3306 2.6119 0.9896
-0.4243 2.5963 0.9950
-0.5174 2.5773 1.0003
-0.6098 2.5550 1.0054
-0.7012 2.5294 1.0106
-0.7917 2.5004 1.0156
-2.0664 5.7884 2.3932
-2.2625 5.6784 2.3932
-2.4538 5.5626 2.3931
-2.6404 5.4414 2.3931
-2.8220 5.3147 2.3930
-2.9986 5.1830 2.3929
-3.1701 5.0462 2.3928
-3.3363 4.9047 2.3928
-3.4972 4.7586 2.3927
-3.6527 4.6081 2.3926
-3.8028 4.4534 2.3925
-3.9473 4.2946 2.3924
-4.0862 4.1319 2.3923
-4.2194 3.9655 2.3922
-4.3469 3.7956 2.3922
-4.4686 3.6223 2.3921
-4.5844 3.4459 2.3920
-4.6944 3.2664 2.3919
-4.7984 3.0840 2.3918
-4.8964 2.8990 2.3917
-4.9884 2.7114 2.3916
-5.0744 2.5215 2.3915
-5.1543 2.3293 2.3913
-5.2280 2.1350 2.3912
-5.2956 1.9389 2.3911
-5.3570 1.7410 2.3910
-5.4122 1.5415 2.3909
-5.4674 1.3421 2.3935
-5.5130 1.1401 2.3946
-5.5494 0.9365 2.3945
-5.5800 0.7319 2.3946
-5.6042 0.5264 2.3946
-5.6221 0.3202 2.3947
-5.6336 0.1134 2.3948
-5.6387 -0.0938 2.3948
-5.6374 -0.3012 2.3949
-5.6297 -0.5087 2.3949
-5.6155 -0.7162 2.3950
-5.5948 -0.9235 2.3951
-5.5677 -1.1303 2.3951
-5.5341 -1.3367 2.3952
-5.4940 -1.5423 2.3952
-5.4474 -1.7471 2.3953
-5.3943 -1.9508 2.3953
-5.3347 -2.1534 2.3954
-5.2686 -2.3545 2.3954
-5.1960 -2.5541 2.3955
-5.1169 -2.7520 2.3955
-5.0313 -2.9480 2.3956
-4.9392 -3.1418 2.3956
-4.8407 -3.3334 2.3957
-4.7357 -3.5226 2.3957
-4.6243 -3.7090 2.3957
-4.5065 -3.8926 2.3958
-4.3864 -4.0770 2.3981
-4.2640 -4.2627 2.4027
-4.1338 -4.4445 2.4068
-3.9954 -4.6217 2.4101
-3.8497 -4.7943 2.4128
-3.6968 -4.9623 2.4152
-3.5367 -5.1252 2.4170
-3.3700 -5.2830 2.4185
-3.1967 -5.4357 2.4198
-3.0169 -5.5826 2.4207
-2.8311 -5.7240 2.4214
-2.6393 -5.8594 2.4220
-2.4417 -5.9888 2.4224
-2.2387 -6.1120 2.4227
-2.0301 -6.2285 2.4228
-1.8164 -6.3384 2.4229
-1.5978 -6.4415 2.4230
-1.3744 -6.5376 2.4231
-1.1464 -6.6264 2.4231
-0.9140 -6.7076 2.4231
-0.6775 -6.7812 2.4231
-0.4371 -6.8468 2.4231
-0.1931 -6.9043 2.4231
0.0544 -6.9534 2.4231
0.3049 -6.9939 2.4231
0.5582 -7.0256 2.4231
0.8140 -7.0482 2.4231
1.0719 -7.0616 2.4231
1.3318 -7.0655 2.4230
1.5930 -7.0597 2.4229
1.8553 -7.0441 2.4228
2.1182 -7.0184 2.4227
2.3812 -6.9820 2.4223
2.6440 -6.9354 2.4218
2.9057 -6.8775 2.4210
3.1662 -6.8090 2.4201
3.4242 -6.7287 2.4187
3.6796 -6.6371 2.4169
3.9314 -6.5339 2.4146
4.1786 -6.4185 2.4115
4.4204 -6.2907 2.4076
4.6554 -6.1503 2.4026
4.8831 -5.9976 2.3966
5.1133 -5.8453 2.3946
5.3423 -5.6879 2.3945
5.5654 -5.5207 2.3944
5.7823 -5.3440 2.3943
5.9924 -5.1579 2.3942
6.1953 -4.9626 2.3941
6.3905 -4.7586 2.3940
6.5776 -4.5460 2.3939
6.7561 -4.3252 2.3938
6.9255 -4.0966 2.3937
7.0798 -3.8574 2.3917
7.2217 -3.6105 2.3889
7.3548 -3.3583 2.3867
7.4780 -3.1007 2.3847
7.5917 -2.8385 2.3832
7.6951 -2.5718 2.3821
7.7880 -2.3010 2.3812
7.8700 -2.0265 2.3805
7.9409 -1.7489 2.3801
8.0008 -1.4686 2.3799
8.0494 -1.1860 2.3801
8.0866 -0.9017 2.3804
8.1125 -0.6160 2.3810
8.1269 -0.3296 2.3819
8.1298 -0.0429 2.3831
8.1216 0.2435 2.3845
8.1026 0.5293 2.3865
8.0730 0.8140 2.3888
8.0323 1.0972 2.3915
7.9718 1.3769 2.3919
7.8982 1.6529 2.3918
7.8131 1.9251 2.3918
7.7169 2.1929 2.3917
7.6097 2.4558 2.3916
7.4920 2.7133 2.3916
7.3639 2.9650 2.3915
7.2260 3.2105 2.3915
7.0785 3.4493 2.3914
6.9218 3.6811 2.3914
6.7564 3.9056 2.3914
6.5827 4.1223 2.3913
6.4010 4.3311 2.3913
6.2119 4.5316 2.3913
6.0157 4.7236 2.3913
5.8129 4.9069 2.3912
5.6040 5.0812 2.3912
5.3895 5.2465 2.3912
5.1697 5.4025 2.3912
4.9451 5.5493 2.3912
4.7162 5.6865 2.3912
4.4835 5.8143 2.3912
4.2473 5.9325 2.3912
4.0081 6.0412 2.3912
3.7663 6.1402 2.3912
3.5224 6.2297 2.3912
3.2767 6.3096 2.3913
3.0297 6.3801 2.3913
2.7819 6.4416 2.3915
0.9661 2.4761 0.9120
0.8765 2.5075 0.9176
0.7859 2.5357 0.9232
0.6943 2.5606 0.9288
0.6018 2.5821 0.9345
0.5086 2.6003 0.9402
0.4148 2.6151 0.9458
0.3206 2.6265 0.9515
0.2260 2.6344 0.9571
0.1311 2.6390 0.9628
0.0361 2.6401 0.9684
-0.0588 2.6377 0.9739
-0.1536 2.6320 0.9794
-0.2482 2.6228 0.9849
-0.3423 2.6102 0.9903
-0.4360 2.5941 0.9956
-0.5290 2.5747 1.0009
-0.6212 2.5520 1.0061
-0.7126 2.5259 1.0112
-0.8029 2.4966 1.0162
-2.0911 5.7750 2.3932
-2.2866 5.6642 2.3932
-2.4773 5.5478 2.3931
-2.6633 5.4259 2.3930
-2.8443 5.2986 2.3930
-3.0202 5.1662 2.3929
-3.1911 5.0289 2.3928
-3.3566 4.8868 2.3928
-3.5169 4.7401 2.3927
-3.6717 4.5891 2.3926
-3.8211 4.4338 2.3925
-3.9649 4.2745 2.3924
-4.1031 4.1114 2.3923
-4.2356 3.9445 2.3922
-4.3623 3.7742 2.3921
-4.4833 3.6005 2.3920
-4.5984 3.4237 2.3919
-4.7076 3.2438 2.3918
-4.8109 3.0611 2.3917
-4.9082 2.8758 2.3916
-4.9995 2.6879 2.3915
-5.0847 2.4976 2.3914
-5.1638 2.3052 2.3913
-5.2368 2.1107 2.3912
-5.3036 1.9143 2.3911
-5.3643 1.7162 2.3910
-5.4187 1.5166 2.3909
-5.4729 1.3169 2.3934
-5.5187 1.1151 2.3950
-5.5536 0.9111 2.3945
-5.5833 0.7063 2.3946
-5.6068 0.5007 2.3946
-5.6239 0.2944 2.3947
-5.6346 0.0876 2.3948
-5.6389 -0.1196 2.3948
-5.6368 -0.3271 2.3949
-5.6282 -0.5346 2.3949
-5.6132 -0.7420 2.3950
-5.5918 -0.9493 2.3951
-5.5639 -1.1561 2.3951
-5.5295 -1.3623 2.3952
-5.4886 -1.5679 2.3952
-5.4412 -1.7725 2.3953
-5.3873 -1.9761 2.3953
-5.3269 -2.1785 2.3954
-5.2599 -2.3795 2.3954
-5.1865 -2.5788 2.3955
-5.1066 -2.7765 2.3955
-5.0202 -2.9722 2.3956
-4.9273 -3.1658 2.3956
-4.8280 -3.3571 2.3957
-4.7222 -3.5459 2.3957
-4.6100 -3.7321 2.3957
-4.4913 -3.9153 2.3958
-4.3716 -4.1003 2.3987
-4.2481 -4.2855 2.4032
-4.1169 -4.4667 2.4072
-3.9778 -4.6435 2.4105
-3.8310 -4.8155 2.4131
-3.6772 -4.9828 2.4154
-3.5164 -5.1452 2.4172
-3.3487 -5.3023 2.4187
-3.1747 -5.4543 2.4199
-2.9941 -5.6005 2.4208
-2.8076 -5.7412 2.4215
-2.6150 -5.8759 2.4220
-2.4167 -6.0045 2.4224
-2.2130 -6.1269 2.4228
-2.0038 -6.2425 2.4229
-1.7895 -6.3516 2.4230
-1.5702 -6.4539 2.4230
-1.3463 -6.5491 2.4231
-1.1176 -6.6369 2.4231
-0.8847 -6.7172 2.4231
-0.6477 -6.7898 2.4231
-0.4069 -6.8544 2.4231
-0.1624 -6.9109 2.4231
0.0854 -6.9589 2.4231
0.3363 -6.9983 2.4231
0.5899 -7.0289 2.4231
0.8460 -7.0504 2.4231
1.1041 -7.0626 2.4231
1.3642 -7.0653 2.4230
1.6256 -7.0583 2.4229
1.8881 -7.0415 2.4228
2.1510 -7.0144 2.4226
2.4140 -6.9767 2.4222
2.6767 -6.9288 2.4218
2.9382 -6.8695 2.4209
3.1984 -6.7996 2.4199
3.4562 -6.7180 2.4185
3.7111 -6.6249 2.4166
3.9624 -6.5201 2.4142
4.2091 -6.4033 2.4111
4.4501 -6.2741 2.4071
4.6842 -6.1320 2.4020
4.9110 -5.9779 2.3959
5.1421 -5.8262 2.3946
5.3704 -5.6676 2.3945
5.5928 -5.4992 2.3944
5.8088 -5.3213 2.3943
6.0181 -5.1340 2.3942
6.2201 -4.9377 2.3941
6.4143 -4.7326 2.3940
6.6003 -4.5189 2.3939
6.7777 -4.2972 2.3938
6.9460 -4.0676 2.3937
7.0980 -3.8270 2.3914
7.2388 -3.5793 2.3886
7.3707 -3.3264 2.3864
7.4926 -3.0683 2.3845
7.6051 -2.8055 2.3831
7.7073 -2.5383 2.3819
7.7988 -2.2671 2.3811
7.8794 -1.9922 2.3804
7.9490 -1.7141 2.3801
8.0075 -1.4335 2.3799
8.0546 -1.1506 2.3801
8.0905 -0.8660 2.3805
8.1149 -0.5803 2.3811
8.1278 -0.2939 2.3820
8.1294 -0.0073 2.3832
8.1198 0.2792 2.3847
8.0995 0.5648 2.3867
8.0686 0.8494 2.3892
8.0264 1.1323 2.3919
7.9633 1.4114 2.3919
7.8882 1.6871 2.3918
7.8018 1.9587 2.3918
7.7041 2.2259 2.3917
7.5956 2.4882 2.3916
7.4766 2.7450 2.3916
-4.2390 -3.6366 2.3956
-4.1220 -3.8056 2.3957
-3.9991 -3.9715 2.3957
-3.8716 -4.1354 2.3965
-3.7435 -4.3019 2.4007
-3.6083 -4.4642 2.4044
-3.4663 -4.6222 2.4076
-3.3175 -4.7754 2.4103
-3.1623 -4.9234 2.4125
-3.0009 -5.0667 2.4145
-2.8332 -5.2042 2.4160
-2.6599 -5.3366 2.4174
-2.4808 -5.4631 2.4184
-2.2966 -5.5839 2.4193
-2.1068 -5.6989 2.4201
-1.9121 -5.8073 2.4206
-1.7126 -5.9094 2.4211
-1.5085 -6.0051 2.4215
-1.3000 -6.0940 2.4218
-1.0872 -6.1757 2.4219
-0.8705 -6.2503 2.4221
-0.6500 -6.3176 2.4222
-0.4261 -6.3774 2.4222
-0.1988 -6.4294 2.4222
0.0314 -6.4734 2.4222
0.2643 -6.5094 2.4222
0.4997 -6.5369 2.4221
0.7373 -6.5560 2.4219
0.9766 -6.5663 2.4217
1.2174 -6.5674 2.4214
1.4592 -6.5595 2.4209
1.7018 -6.5423 2.4204
1.9446 -6.5155 2.4197
2.1872 -6.4788 2.4188
2.4293 -6.4324 2.4177
2.6700 -6.3755 2.4162
2.9092 -6.3085 2.4144
3.1457 -6.2307 2.4121
3.3793 -6.1421 2.4092
3.6090 -6.0425 2.4057
3.8341 -5.9318 2.4014
4.0539 -5.8101 2.3963
4.2754 -5.6878 2.3947
4.4954 -5.5599 2.3946
4.7110 -5.4229 2.3946
4.9217 -5.2767 2.3945
5.1270 -5.1217 2.3944
5.3265 -4.9580 2.3943
5.5198 -4.7858 2.3942
5.7065 -4.6053 2.3941
5.8861 -4.4167 2.3940
6.0582 -4.2205 2.3939
6.2224 -4.0168 2.3939
6.3784 -3.8059 2.3938
6.5257 -3.5884 2.3937
6.6641 -3.3644 2.3936
6.7932 -3.1344 2.3935
6.9127 -2.8989 2.3934
7.0223 -2.6582 2.3933
7.1217 -2.4128 2.3932
7.2108 -2.1632 2.3931
7.2892 -1.9099 2.3930
7.3569 -1.6533 2.3929
7.4137 -1.3940 2.3928
7.4593 -1.1324 2.3928
7.4939 -0.8691 2.3927
7.5172 -0.6047 2.3926
7.5292 -0.3395 2.3925
7.5300 -0.0743 2.3924
7.5195 0.1906 2.3923
7.4979 0.4545 2.3923
7.4652 0.7170 2.3922
7.4214 0.9776 2.3921
7.3669 1.2357 2.3921
7.3016 1.4908 2.3920
7.2259 1.7426 2.3919
7.1399 1.9905 2.3919
7.0439 2.2341 2.3918
6.9381 2.4729 2.3918
6.8229 2.7066 2.3917
6.6985 2.9347 2.3917
6.5653 3.1569 2.3916
6.4236 3.3728 2.3916
6.2737 3.5822 2.3915
6.1160 3.7847 2.3915
5.9510 3.9799 2.3915
5.7789 4.1678 2.3915
5.6001 4.3479 2.3914
5.4152 4.5202 2.3914
5.2244 4.6844 2.3914
5.0282 4.8404 2.3914
4.8270 4.9880 2.3914
4.6212 5.1271 2.3914
4.4111 5.2575 2.3914
4.1973 5.3793 2.3914
3.9801 5.4924 2.3914
3.7599 5.5966 2.3914
3.5370 5.6921 2.3914
3.3120 5.7787 2.3914
3.0850 5.8566 2.3914
2.8566 5.9256 2.3915
2.6271 5.9859 2.3915
0.9152 2.3054 0.9132
0.8318 2.3351 0.9184
0.7473 2.3617 0.9236
0.6620 2.3853 0.9289
0.5758 2.4058 0.9342
0.4890 2.4231 0.9395
0.4016 2.4373 0.9448
0.3137 2.4483 0.9500
0.2255 2.4561 0.9553
0.1370 2.4607 0.9606
0.0484 2.4622 0.9658
-0.0402 2.4604 0.9710
-0.1286 2.4554 0.9761
-0.2168 2.4472 0.9812
-0.3047 2.4358 0.9863
-0.3921 2.4213 0.9913
-0.4790 2.4036 0.9962
-0.5651 2.3827 1.0010
-0.6504 2.3588 1.0058
-0.7348 2.3318 1.0105
-0.8182 2.3018 1.0151
-2.1135 5.3250 2.3930
-2.2937 5.2179 2.3929
-2.4695 5.1056 2.3929
-2.6407 4.9881 2.3928
-2.8072 4.8657 2.3927
-2.9690 4.7385 2.3927
-3.1259 4.6067 2.3926
-3.2779 4.4705 2.3925
-3.4248 4.3300 2.3924
-3.5666 4.1854 2.3924
-3.7033 4.0370 2.3923
-3.8346 3.8847 2.3922
-3.9607 3.7289 2.3921
-4.0813 3.5697 2.3920
-4.1965 3.4073 2.3919
-4.3062 3.2417 2.3918
-4.4103 3.0733 2.3918
-4.5088 2.9020 2.3917
-4.6017 2.7282 2.3916
-4.6888 2.5518 2.3915
-4.7703 2.3732 2.3914
-4.8459 2.1924 2.3913
-4.9158 2.0097 2.3912
-4.9798 1.8251 2.3911
-5.0428 1.6404 2.3933
-5.0965 1.4527 2.3938
-5.1441 1.2636 2.3943
-5.1849 1.0729 2.3944
-5.2198 0.8811 2.3944
-5.2486 0.6883 2.3945
-5.2713 0.4947 2.3946
-5.2881 0.3005 2.3946
-5.2987 0.1057 2.3947
-5.3033 -0.0895 2.3948
-5.3018 -0.2849 2.3948
-5.2942 -0.4803 2.3949
-5.2804 -0.6757 2.3949
-5.2605 -0.8708 2.3950
-5.2345 -1.0655 2.3950
-5.2023 -1.2597 2.3951
-5.1639 -1.4531 2.3951
-5.1194 -1.6457 2.3952
-5.0687 -1.8372 2.3952
-5.0119 -2.0275 2.3953
-4.9489 -2.2165 2.3953
-4.8797 -2.4039 2.3954
-4.8044 -2.5896 2.3954
-4.7230 -2.7734 2.3955
-4.6355 -2.9551 2.3955
-4.5419 -3.1346 2.3955
-4.4422 -3.3117 2.3956
-4.3365 -3.4861 2.3956
-4.2247 -3.6578 2.3956
-4.1070 -3.8265 2.3957
-3.9834 -3.9919 2.3957
-3.8560 -4.1563 2.3970
-3.7271 -4.3224 2.4012
-3.5910 -4.4842 2.4048
-3.4482 -4.6415 2.4080
-3.2986 -4.7942 2.4107
-3.1425 -4.9415 2.4128
-2.9803 -5.0841 2.4147
-2.8119 -5.2210 2.4162
-2.6379 -5.3528 2.4176
-2.4582 -5.4785 2.4185
-2.2731 -5.5986 2.4194
-2.0829 -5.7127 2.4202
-1.8875 -5.8203 2.4207
-1.6874 -5.9217 2.4211
-1.4827 -6.0166 2.4215
-1.2737 -6.1046 2.4218
-1.0604 -6.1854 2.4220
-0.8433 -6.2591 2.4221
-0.6223 -6.3255 2.4222
-0.3979 -6.3843 2.4222
-0.1703 -6.4353 2.4222
0.0603 -6.4784 2.4222
0.2936 -6.5133 2.4221
0.5293 -6.5398 2.4220
0.7670 -6.5578 2.4219
1.0064 -6.5669 2.4217
1.2474 -6.5669 2.4213
1.4894 -6.5579 2.4209
1.7320 -6.5395 2.4204
1.9748 -6.5114 2.4196
2.2174 -6.4736 2.4186
2.4594 -6.4259 2.4175
2.6999 -6.3677 2.4160
2.9387 -6.2993 2.4141
3.1750 -6.2203 2.4118
3.4081 -6.1303 2.4088
3.6373 -6.0293 2.4052
3.8618 -5.9172 2.4008
4.0809 -5.7943 2.3956
4.3030 -5.6724 2.3947
4.5225 -5.5433 2.3946
4.7375 -5.4051 2.3945
4.9476 -5.2579 2.3945
5.1522 -5.1018 2.3944
5.3510 -4.9370 2.3943
