ply
format ascii 1.0
element vertex 2184
property float32 x
property float32 y
property float32 z
end_header
7.1469 -4.5269 2.2279
7.2869 -4.2548 2.2281
7.4178 -3.9792 2.2283
7.5395 -3.7001 2.2285
7.6521 -3.4180 2.2288
7.7554 -3.1331 2.2290
7.8495 -2.8456 2.2292
7.9342 -2.5558 2.2295
8.0096 -2.2639 2.2297
8.0755 -1.9702 2.2299
8.1322 -1.6749 2.2302
8.1794 -1.3783 2.2304
8.2172 -1.0807 2.2307
8.2456 -0.7823 2.2310
8.2645 -0.4833 2.2312
8.2741 -0.1839 2.2315
8.2742 0.1155 2.2318
8.2649 0.4148 2.2321
8.2462 0.7137 2.2323
8.2180 1.0119 2.2326
8.1805 1.3092 2.2329
8.1336 1.6054 2.2332
8.0773 1.9003 2.2335
8.0117 2.1935 2.2338
5.2385 1.6401 1.4746
5.2253 1.8459 1.4868
7.7592 3.0610 2.2347
7.6565 3.3452 2.2351
7.5447 3.6266 2.2354
7.4238 3.9049 2.2357
7.2938 4.1798 2.2360
5.0059 3.1143 1.5647
7.0068 4.7185 2.2367
6.8500 4.9818 2.2370
6.6843 5.2406 2.2373
6.5099 5.4948 2.2376
6.3268 5.7439 2.2379
6.1352 5.9879 2.2383
5.9351 6.2264 2.2386
5.7267 6.4591 2.2389
4.6193 5.6050 1.8773
5.2852 6.9061 2.2395
5.0524 7.1198 2.2398
4.8118 7.3266 2.2402
4.5635 7.5263 2.2405
4.3076 7.7185 2.2408
4.0441 7.9022 2.2409
3.7650 8.0600 2.2360
3.4878 8.2265 2.2360
3.2040 8.3845 2.2360
2.9137 8.5336 2.2360
2.6171 8.6735 2.2360
2.3146 8.8039 2.2360
2.0064 8.9246 2.2360
3.6873 -8.9551 2.3884
3.9882 -8.7753 2.3884
4.0104 -8.0428 2.2372
4.2755 -7.8534 2.2360
4.5354 -7.6606 2.2361
4.7882 -7.4612 2.2365
5.0340 -7.2554 2.2372
5.2720 -7.0424 2.2378
5.5018 -6.8225 2.2385
5.7235 -6.5960 2.2392
5.9366 -6.3628 2.2397
6.1148 -6.0974 2.2306
6.2960 -5.8408 2.2262
6.4833 -5.5931 2.2271
6.6598 -5.3385 2.2273
6.8274 -5.0792 2.2275
6.9860 -4.8155 2.2277
6.1190 -3.8996 1.9104
7.2765 -4.2758 2.2281
7.4081 -4.0004 2.2283
7.5305 -3.7216 2.2285
7.6438 -3.4398 2.2287
7.7478 -3.1550 2.2290
7.8426 -2.8677 2.2292
7.9280 -2.5781 2.2294
8.0041 -2.2863 2.2297
8.0708 -1.9927 2.2299
8.1281 -1.6976 2.2302
8.1761 -1.4011 2.2304
8.2146 -1.1036 2.2307
8.2437 -0.8052 2.2309
8.2634 -0.5062 2.2312
8.2737 -0.2069 2.2315
8.2745 0.0926 2.2318
8.2659 0.3919 2.2320
8.2479 0.6908 2.2323
8.2205 0.9890 2.2326
8.1837 1.2865 2.2329
8.1375 1.5828 2.2332
8.0820 1.8777 2.2335
8.0171 2.1711 2.2338
5.2409 1.6249 1.4741
5.2156 1.8262 1.4828
7.7667 3.0391 2.2347
7.6647 3.3235 2.2350
7.5536 3.6052 2.2354
7.4334 3.8837 2.2357
7.3041 4.1589 2.2360
5.0087 3.0968 1.5631
7.0185 4.6982 2.2366
6.8623 4.9617 2.2370
6.6973 5.2209 2.2373
6.5235 5.4754 2.2376
6.3411 5.7250 2.2379
4.7672 4.6271 1.7349
5.9507 6.2083 2.2386
5.7430 6.4415 2.2389
4.6235 5.5786 1.8732
5.3027 6.8894 2.2395
5.0705 7.1037 2.2398
4.8305 7.3110 2.2401
4.5828 7.5112 2.2404
4.3275 7.7040 2.2407
4.0646 7.8885 2.2409
3.7898 8.0549 2.2382
3.5093 8.2141 2.2360
3.2260 8.3727 2.2360
2.9361 8.5225 2.2360
2.6401 8.6631 2.2360
2.3380 8.7942 2.2360
2.0302 8.9157 2.2360
1.7258 9.0738 2.2476
3.6640 -8.9685 2.3884
3.9654 -8.7894 2.3884
4.0078 -8.0933 2.2474
4.2553 -7.8679 2.2360
4.5157 -7.6756 2.2361
4.7690 -7.4766 2.2364
5.0155 -7.2714 2.2371
5.2540 -7.0590 2.2378
5.4845 -6.8396 2.2385
5.7068 -6.6136 2.2391
5.9208 -6.3812 2.2398
6.1015 -6.1179 2.2313
6.2814 -5.8596 2.2262
6.4694 -5.6124 2.2271
6.6465 -5.3582 2.2273
6.8148 -5.0993 2.2275
6.1899 -4.2921 1.9772
6.1232 -3.9262 1.9147
7.2660 -4.2968 2.2281
7.3983 -4.0217 2.2283
7.5215 -3.7431 2.2285
7.6354 -3.4615 2.2287
7.7402 -3.1770 2.2290
7.8356 -2.8898 2.2292
7.9218 -2.6004 2.2294
7.9986 -2.3088 2.2297
8.0660 -2.0153 2.2299
8.1241 -1.7203 2.2302
8.1727 -1.4239 2.2304
8.2120 -1.1264 2.2307
8.2418 -0.8281 2.2309
8.2622 -0.5292 2.2312
8.2732 -0.2299 2.2315
8.2748 0.0696 2.2317
8.2669 0.3689 2.2320
8.2496 0.6678 2.2323
8.2229 0.9662 2.2326
8.1869 1.2637 2.2329
8.1414 1.5601 2.2332
8.0866 1.8552 2.2335
8.0224 2.1487 2.2338
5.2639 1.6160 1.4794
5.2180 1.8109 1.4822
7.7741 3.0171 2.2347
7.6729 3.3018 2.2350
7.5625 3.5837 2.2353
7.4429 3.8625 2.2356
7.3143 4.1379 2.2360
5.0114 3.0793 1.5616
-3.0936 -9.1909 2.3884
-2.7500 -9.2520 2.3884
-2.4058 -9.3002 2.3884
-2.0617 -9.3355 2.3884
-1.7180 -9.3582 2.3884
-1.3752 -9.3683 2.3884
-1.0338 -9.3661 2.3884
-0.6943 -9.3516 2.3884
-0.3571 -9.3251 2.3884
-0.0225 -9.2867 2.3884
0.3089 -9.2368 2.3884
0.6369 -9.1754 2.3884
0.9610 -9.1029 2.3884
1.2809 -9.0194 2.3884
1.5963 -8.9253 2.3884
1.9067 -8.8207 2.3884
2.2120 -8.7060 2.3884
2.5118 -8.5813 2.3884
2.8058 -8.4471 2.3884
3.0938 -8.3035 2.3884
3.3755 -8.1509 2.3884
3.6507 -7.9895 2.3884
3.9191 -7.8195 2.3884
3.9137 -7.1538 2.2360
4.1518 -6.9797 2.2360
4.3830 -6.7986 2.2361
4.6078 -6.6113 2.2364
4.8260 -6.4183 2.2370
5.0369 -6.2188 2.2376
5.2404 -6.0131 2.2382
5.4364 -5.8015 2.2388
5.6246 -5.5841 2.2394
5.8036 -5.3601 2.2394
5.9527 -5.1122 2.2312
6.1041 -4.8706 2.2273
6.2605 -4.6355 2.2282
6.4067 -4.3945 2.2283
6.5447 -4.1497 2.2285
6.6744 -3.9011 2.2287
6.7957 -3.6490 2.2289
6.9086 -3.3937 2.2291
7.0129 -3.1355 2.2293
7.1088 -2.8746 2.2295
7.1961 -2.6112 2.2297
7.2748 -2.3456 2.2299
7.3448 -2.0780 2.2302
7.4061 -1.8086 2.2304
7.4588 -1.5378 2.2306
7.5028 -1.2656 2.2309
7.5379 -0.9925 2.2311
7.5644 -0.7185 2.2314
7.5821 -0.4440 2.2316
7.5910 -0.1692 2.2318
7.5912 0.1058 2.2321
7.5826 0.3805 2.2324
7.5653 0.6549 2.2326
7.5392 0.9287 2.2329
7.5044 1.2017 2.2332
7.4610 1.4736 2.2334
7.4088 1.7441 2.2337
7.3480 2.0131 2.2340
5.2383 1.6411 1.6080
7.2005 2.5455 2.2346
7.1139 2.8085 2.2348
7.0187 3.0689 2.2351
6.9151 3.3266 2.2354
6.8031 3.5813 2.2357
6.6827 3.8328 2.2360
5.0055 3.1167 1.7079
6.4171 4.3252 2.2366
6.2720 4.5655 2.2369
6.1188 4.8017 2.2372
5.9576 5.0334 2.2375
5.7884 5.2604 2.2378
5.6115 5.4825 2.2381
4.7214 4.9584 1.9474
5.2345 5.9107 2.2386
5.0347 6.1163 2.2389
4.5624 5.9689 2.1162
4.6132 6.5094 2.2395
4.3918 6.6963 2.2398
4.1634 6.8765 2.2401
3.9282 7.0496 2.2403
3.6864 7.2154 2.2405
3.4370 7.3710 2.2400
3.1815 7.5188 2.2394
2.9165 7.6485 2.2360
2.6506 7.7816 2.2360
2.3792 7.9060 2.2360
2.1026 8.0217 2.2360
0.7990 3.5667 0.9812
0.6706 3.5947 0.9771
0.5413 3.6180 0.9731
0.4111 3.6366 0.9690
0.2804 3.6504 0.9648
0.1493 3.6596 0.9606
0.0178 3.6640 0.9564
-0.1137 3.6636 0.9522
-0.2450 3.6584 0.9479
-0.3762 3.6485 0.9437
-0.5069 3.6339 0.9394
-0.6369 3.6145 0.9352
-0.7662 3.5905 0.9309
-0.8946 3.5618 0.9267
-2.6455 9.1354 2.3884
-2.9851 9.0785 2.3884
-3.3239 9.0089 2.3884
-3.6613 8.9266 2.3884
-3.9971 8.8315 2.3884
-3.1200 -9.1857 2.3884
-2.7764 -9.2478 2.3884
-2.4323 -9.2969 2.3884
-2.0881 -9.3333 2.3884
-1.7443 -9.3569 2.3884
-1.4014 -9.3680 2.3884
-1.0599 -9.3667 2.3884
-0.7203 -9.3531 2.3884
-0.3828 -9.3275 2.3884
-0.0481 -9.2901 2.3884
0.2836 -9.2410 2.3884
0.6119 -9.1805 2.3884
0.9363 -9.1088 2.3884
1.2565 -9.0262 2.3884
1.5722 -8.9328 2.3884
1.8831 -8.8291 2.3884
2.1888 -8.7151 2.3884
2.4890 -8.5912 2.3884
2.7835 -8.4577 2.3884
3.0720 -8.3149 2.3884
3.3541 -8.1629 2.3884
3.6298 -8.0022 2.3884
3.8987 -7.8329 2.3884
3.8952 -7.1669 2.2360
4.1338 -6.9933 2.2360
4.3655 -6.8127 2.2361
4.5907 -6.6259 2.2364
4.8095 -6.4334 2.2370
5.0210 -6.2344 2.2376
5.2251 -6.0291 2.2382
5.4216 -5.8179 2.2388
5.6104 -5.6010 2.2393
5.7909 -5.3782 2.2397
5.9415 -5.1313 2.2318
6.0919 -4.8886 2.2272
6.2490 -4.6538 2.2281
6.3958 -4.4132 2.2283
6.5344 -4.1686 2.2285
6.6648 -3.9202 2.2287
6.7867 -3.6684 2.2289
6.9002 -3.4134 2.2291
7.0052 -3.1554 2.2293
7.1018 -2.8947 2.2295
7.1897 -2.6315 2.2297
7.2690 -2.3660 2.2299
7.3397 -2.0986 2.2301
7.4017 -1.8293 2.2304
7.4551 -1.5586 2.2306
7.4997 -1.2866 2.2309
5.6250 -0.7565 1.6654
7.5626 -0.7396 2.2313
5.5575 -0.3409 1.6359
7.5906 -0.1903 2.2318
7.5915 0.0847 2.2321
7.5836 0.3595 2.2323
7.5669 0.6339 2.2326
7.5415 0.9078 2.2329
7.5074 1.1808 2.2331
7.4646 1.4527 2.2334
7.4131 1.7234 2.2337
7.3530 1.9925 2.2340
5.2407 1.6259 1.6075
7.2068 2.5253 2.2345
7.1208 2.7884 2.2348
7.0263 3.0490 2.2351
6.9234 3.3069 2.2354
6.8120 3.5619 2.2357
6.6923 3.8136 2.2360
5.0083 3.0992 1.7062
6.4279 4.3066 2.2366
6.2834 4.5472 2.2369
6.1308 4.7837 2.2372
5.9702 5.0158 2.2374
5.8017 5.2432 2.2377
4.7666 4.6312 1.8964
4.7251 4.9349 1.9437
5.2495 5.8946 2.2386
5.0503 6.1007 2.2389
4.5668 5.9406 2.1112
4.6299 6.4948 2.2395
4.4090 6.6822 2.2398
4.1812 6.8629 2.2400
3.9465 7.0366 2.2403
3.7053 7.2031 2.2406
3.4563 7.3594 2.2400
3.2013 7.5077 2.2395
2.9366 7.6380 2.2360
2.6712 7.7716 2.2360
2.4002 7.8968 2.2360
2.1240 8.0132 2.2360
0.8088 3.5644 0.9815
0.6805 3.5927 0.9774
0.5512 3.6163 0.9734
0.4211 3.6353 0.9693
0.2904 3.6495 0.9651
0.1593 3.6590 0.9609
0.0279 3.6638 0.9567
-0.1036 3.6638 0.9525
-0.2350 3.6590 0.9483
-0.3661 3.6495 0.9440
-0.4969 3.6352 0.9398
-0.6270 3.6162 0.9355
-0.7564 3.5925 0.9313
-0.8848 3.5641 0.9270
-2.6195 9.1393 2.3884
-2.9592 9.0833 2.3884
-3.2979 9.0147 2.3884
-3.6356 8.9333 2.3884
-3.9714 8.8392 2.3884
-3.1463 -9.1804 2.3884
-2.8028 -9.2435 2.3884
-2.4586 -9.2936 2.3884
-2.1144 -9.3309 2.3884
-1.7706 -9.3555 2.3884
-1.4277 -9.3676 2.3884
-1.0861 -9.3672 2.3884
-0.7462 -9.3546 2.3884
-0.4086 -9.3299 2.3884
-0.0736 -9.2934 2.3884
0.2583 -9.2452 2.3884
0.5868 -9.1855 2.3884
0.9116 -9.1147 2.3884
1.2321 -9.0329 2.3884
1.5482 -8.9404 2.3884
1.8594 -8.8374 2.3884
2.1655 -8.7242 2.3884
2.4662 -8.6011 2.3884
2.7611 -8.4683 2.3884
3.0500 -8.3260 2.3884
3.3327 -8.1749 2.3884
3.6089 -8.0147 2.3884
3.8783 -7.8462 2.3884
3.8793 -7.1848 2.2375
4.1157 -7.0069 2.2360
4.3480 -6.8268 2.2361
4.5737 -6.6404 2.2363
4.7930 -6.4484 2.2369
5.0051 -6.2499 2.2376
5.2097 -6.0451 2.2382
5.4068 -5.8343 2.2387
5.5962 -5.6178 2.2393
5.7778 -5.3959 2.2399
5.9302 -5.1503 2.2324
6.0797 -4.9065 2.2272
6.2373 -4.6716 2.2281
6.1848 -4.2929 2.1585
6.1437 -3.9433 2.0986
6.6550 -3.9394 2.2287
6.7776 -3.6879 2.2289
6.8918 -3.4331 2.2290
6.9975 -3.1753 2.2293
7.0946 -2.9148 2.2295
7.1832 -2.6518 2.2297
7.2632 -2.3865 2.2299
7.3346 -2.1192 2.2301
7.3973 -1.8500 2.2304
7.4513 -1.5794 2.2306
7.4966 -1.3075 2.2308
5.6256 -0.7725 1.6661
7.5609 -0.7606 2.2313
5.5600 -0.3566 1.6369
7.5902 -0.2113 2.2318
7.5917 0.0636 2.2321
7.5845 0.3384 2.2323
7.5685 0.6129 2.2326
7.5438 0.8868 2.2328
7.5103 1.1599 2.2331
7.4682 1.4319 2.2334
7.4174 1.7027 2.2337
7.3579 1.9720 2.2339
5.2565 1.6148 1.6110
7.2130 2.5050 2.2345
7.1277 2.7683 2.2348
7.0339 3.0291 2.2351
6.9316 3.2873 2.2354
6.8208 3.5425 2.2357
6.7017 3.7945 2.2360
5.0110 3.0817 1.7045
-3.1358 -8.3017 2.3884
-2.8249 -8.3724 2.3884
-2.5129 -8.4314 2.3884
-2.2001 -8.4786 2.3884
-1.8871 -8.5142 2.3884
-1.5742 -8.5383 2.3884
-1.2619 -8.5509 2.3884
-0.9507 -8.5523 2.3884
-0.6409 -8.5424 2.3884
-0.3330 -8.5215 2.3884
-0.0273 -8.4898 2.3884
0.2759 -8.4474 2.3884
0.5761 -8.3945 2.3884
0.8729 -8.3314 2.3884
1.1662 -8.2581 2.3884
1.4555 -8.1749 2.3884
1.7405 -8.0822 2.3884
2.0210 -7.9799 2.3884
2.2966 -7.8685 2.3884
2.5671 -7.7482 2.3884
2.8323 -7.6191 2.3884
3.0918 -7.4816 2.3884
3.3455 -7.3358 2.3884
3.5931 -7.1821 2.3884
3.8109 -6.9777 2.3737
3.8097 -6.4148 2.2360
4.0233 -6.2501 2.2360
4.2306 -6.0790 2.2361
4.4318 -5.9021 2.2363
4.6269 -5.7201 2.2369
4.8153 -5.5323 2.2374
4.9968 -5.3388 2.2380
5.1711 -5.1400 2.2385
5.3383 -4.9360 2.2390
5.4983 -4.7272 2.2395
5.6508 -4.5138 2.2400
5.7774 -4.2822 2.2333
5.9003 -4.0514 2.2284
6.0294 -3.8268 2.2289
6.1504 -3.5984 2.2292
6.2633 -3.3665 2.2294
6.3684 -3.1315 2.2296
6.4656 -2.8936 2.2297
6.5549 -2.6532 2.2299
6.6363 -2.4104 2.2301
6.7096 -2.1655 2.2303
6.7749 -1.9186 2.2306
6.8322 -1.6701 2.2308
6.8813 -1.4201 2.2310
6.9223 -1.1690 2.2312
5.6206 -0.7409 1.8033
5.5875 -0.5314 1.7865
6.9965 -0.4103 2.2319
7.0050 -0.1565 2.2322
7.0052 0.0974 2.2324
6.9973 0.3512 2.2326
6.9812 0.6046 2.2329
6.9569 0.8574 2.2331
6.9246 1.1094 2.2334
6.8841 1.3604 2.2336
6.8355 1.6102 2.2339
6.7789 1.8584 2.2341
5.2382 1.6422 1.7432
6.6415 2.3496 2.2346
6.5609 2.5921 2.2349
6.4723 2.8321 2.2352
5.1151 2.4626 1.7934
6.2717 3.3042 2.2357
6.1597 3.5358 2.2360
5.0051 3.1191 1.8531
5.9127 3.9887 2.2365
5.7778 4.2096 2.2368
5.6354 4.4266 2.2371
5.4857 4.6393 2.2373
5.3287 4.8475 2.2376
4.7679 4.6632 2.0661
4.7210 4.9635 2.1162
4.8149 5.4430 2.2384
4.6297 5.6310 2.2387
4.4378 5.8133 2.2389
4.2393 5.9897 2.2392
4.0363 6.1628 2.2405
3.8245 6.3262 2.2405
3.6059 6.4815 2.2400
3.3815 6.6299 2.2395
3.1514 6.7710 2.2390
2.9159 6.9047 2.2385
2.6751 7.0308 2.2380
2.4293 7.1490 2.2374
2.1786 7.2591 2.2368
0.8440 3.2301 0.9813
0.7277 3.2598 0.9777
0.6103 3.2853 0.9740
0.4921 3.3066 0.9703
0.3731 3.3235 0.9665
0.2536 3.3362 0.9627
0.1338 3.3445 0.9589
0.0137 3.3485 0.9551
-0.1065 3.3481 0.9512
-0.2266 3.3434 0.9473
-0.3464 3.3344 0.9434
-0.4659 3.3210 0.9395
-0.5848 3.3033 0.9357
-0.7029 3.2813 0.9318
-0.8202 3.2551 0.9279
-2.4205 8.3346 2.3884
-2.7292 8.2794 2.3884
-3.0370 8.2127 2.3884
-3.3435 8.1344 2.3884
-3.6480 8.0445 2.3884
-3.9502 7.9431 2.3884
-4.2494 7.8301 2.3884
-4.5454 7.7055 2.3884
-4.8378 7.5695 2.3884
-5.1257 7.4220 2.3884
-5.4088 7.2633 2.3884
-5.6867 7.0933 2.3884
-5.9589 6.9122 2.3884
-6.2249 6.7203 2.3884
-6.4841 6.5176 2.3884
-6.7361 6.3045 2.3884
-6.9803 6.0811 2.3884
-7.2164 5.8478 2.3884
-7.4439 5.6047 2.3884
-7.6623 5.3523 2.3884
-7.8711 5.0909 2.3884
-8.0700 4.8208 2.3884
-8.2585 4.5424 2.3884
-8.4362 4.2561 2.3884
-8.6027 3.9625 2.3884
-8.7577 3.6618 2.3884
-8.9009 3.3547 2.3884
-9.0318 3.0416 2.3884
-9.1503 2.7230 2.3884
-9.2560 2.3994 2.3884
-9.3487 2.0715 2.3884
-9.4282 1.7397 2.3884
-9.4943 1.4047 2.3884
-9.5468 1.0670 2.3884
-9.5857 0.7272 2.3884
-9.6107 0.3860 2.3884
-9.6219 0.0439 2.3884
-9.6193 -0.2984 2.3884
-9.6027 -0.6404 2.3884
-9.5723 -0.9815 2.3884
-9.5280 -1.3209 2.3884
-9.4701 -1.6581 2.3884
-9.3986 -1.9926 2.3884
-9.3137 -2.3236 2.3884
-9.2155 -2.6507 2.3884
-9.1042 -2.9733 2.3884
-8.9802 -3.2908 2.3884
-8.8437 -3.6027 2.3884
-8.6949 -3.9084 2.3884
-8.5343 -4.2075 2.3884
-8.3620 -4.4994 2.3884
-8.1786 -4.7837 2.3884
-7.9844 -5.0599 2.3884
-7.7797 -5.3277 2.3884
-7.5651 -5.5866 2.3884
-7.3409 -5.8363 2.3884
-7.1076 -6.0764 2.3884
-6.8657 -6.3066 2.3884
-6.6157 -6.5265 2.3884
-6.3579 -6.7360 2.3884
-6.0930 -6.9347 2.3884
-5.8214 -7.1225 2.3884
-5.5437 -7.2991 2.3884
-5.2602 -7.4645 2.3884
-4.9716 -7.6183 2.3884
-4.6783 -7.7606 2.3884
-4.3809 -7.8912 2.3884
-4.0798 -8.0100 2.3884
-3.7756 -8.1171 2.3884
-3.4687 -8.2124 2.3884
-3.1596 -8.2958 2.3884
-2.8488 -8.3674 2.3884
-2.5368 -8.4273 2.3884
-2.2241 -8.4754 2.3884
-1.9111 -8.5119 2.3884
-1.5982 -8.5368 2.3884
-1.2859 -8.5504 2.3884
-0.9746 -8.5525 2.3884
-0.6646 -8.5436 2.3884
-0.3565 -8.5235 2.3884
-0.0506 -8.4926 2.3884
0.2527 -8.4511 2.3884
0.5531 -8.3987 2.3884
0.8503 -8.3366 2.3884
1.1438 -8.2641 2.3884
1.4334 -8.1817 2.3884
1.7188 -8.0896 2.3884
1.9996 -7.9881 2.3884
2.2756 -7.8774 2.3884
2.5465 -7.7577 2.3884
2.8121 -7.6293 2.3884
3.0721 -7.4924 2.3884
3.3262 -7.3473 2.3884
3.5743 -7.1942 2.3884
3.8162 -7.0334 2.3884
3.7930 -6.4271 2.2360
4.0072 -6.2629 2.2360
4.2150 -6.0923 2.2361
4.4165 -5.9158 2.2363
4.6122 -5.7343 2.2368
4.8011 -5.5469 2.2374
4.9831 -5.3538 2.2379
5.1580 -5.1554 2.2384
5.3258 -4.9519 2.2389
5.4863 -4.7434 2.2394
5.6394 -4.5303 2.2399
5.7681 -4.3002 2.2339
5.8906 -4.0687 2.2286
6.0196 -3.8439 2.2288
6.1414 -3.6160 2.2292
6.2549 -3.3844 2.2294
5.9869 -2.9646 2.0986
6.4584 -2.9120 2.2297
6.5484 -2.6717 2.2299
6.6303 -2.4291 2.2301
6.7043 -2.1843 2.2303
6.7702 -1.9376 2.2305
6.8281 -1.6892 2.2308
6.8778 -1.4394 2.2310
6.9195 -1.1883 2.2312
5.6339 -0.7585 1.8081
5.5901 -0.5473 1.7877
6.9956 -0.4298 2.2319
7.0046 -0.1760 2.2321
7.0055 0.0779 2.2324
6.9982 0.3317 2.2326
6.9827 0.5852 2.2328
6.9591 0.8380 2.2331
6.9273 1.0901 2.2333
6.8875 1.3412 2.2336
6.8395 1.5911 2.2338
6.7835 1.8394 2.2341
5.2406 1.6270 1.7426
6.6474 2.3309 2.2346
6.5673 2.5736 2.2349
6.4794 2.8138 2.2352
5.1177 2.4464 1.7921
6.2799 3.2863 2.2357
6.1685 3.5181 2.2360
5.0079 3.1016 1.8512
5.9227 3.9716 2.2365
5.7884 4.1928 2.2368
5.6466 4.4101 2.2370
5.4975 4.6231 2.2373
5.3410 4.8317 2.2376
4.7659 4.6354 2.0600
4.7247 4.9399 2.1121
4.8288 5.4284 2.2384
4.6442 5.6168 2.2387
4.4528 5.7995 2.2389
4.2548 5.9764 2.2392
4.0511 6.1483 2.2398
3.8411 6.3140 2.2405
3.6229 6.4698 2.2400
3.3989 6.6187 2.2396
3.1693 6.7604 2.2391
2.9341 6.8947 2.2385
2.6937 7.0214 2.2380
2.4483 7.1402 2.2375
2.1980 7.2510 2.2369
0.8529 3.2276 0.9816
0.7366 3.2577 0.9780
0.6193 3.2835 0.9743
0.5012 3.3051 0.9706
0.3823 3.3224 0.9668
0.2628 3.3354 0.9630
0.1430 3.3440 0.9592
0.0229 3.3484 0.9554
-0.0973 3.3483 0.9515
-0.2174 3.3439 0.9476
-0.3373 3.3352 0.9437
-0.4567 3.3222 0.9398
-0.5757 3.3048 0.9360
-0.6939 3.2831 0.9321
-0.8113 3.2572 0.9282
-0.9276 3.2271 0.9243
-2.7057 8.2840 2.3884
-3.0135 8.2182 2.3884
-3.3200 8.1408 2.3884
-3.6247 8.0518 2.3884
-3.9270 7.9513 2.3884
-4.2266 7.8391 2.3884
-4.5228 7.7155 2.3884
-4.8154 7.5803 2.3884
-5.1037 7.4337 2.3884
-5.3873 7.2758 2.3884
-5.6656 7.1067 2.3884
-5.9383 6.9265 2.3884
-6.2047 6.7354 2.3884
-6.4644 6.5336 2.3884
-6.7170 6.3212 2.3884
-6.9619 6.0986 2.3884
-7.1986 5.8660 2.3884
-7.4268 5.6237 2.3884
-7.6459 5.3720 2.3884
-7.8555 5.1112 2.3884
-8.0551 4.8418 2.3884
-8.2444 4.5640 2.3884
-8.4230 4.2784 2.3884
-8.5904 3.9852 2.3884
-8.7463 3.6851 2.3884
-8.8903 3.3785 2.3884
-9.0222 3.0658 2.3884
-9.1417 2.7476 2.3884
-9.2484 2.4244 2.3884
-9.3421 2.0968 2.3884
-9.4226 1.7653 2.3884
-9.4897 1.4305 2.3884
-9.5433 1.0930 2.3884
-9.5832 0.7534 2.3884
-9.6093 0.4122 2.3884
-9.6216 0.0701 2.3884
-9.6200 -0.2722 2.3884
-9.6045 -0.6142 2.3884
-9.5751 -0.9553 2.3884
-9.5319 -1.2949 2.3884
-9.4750 -1.6323 2.3884
-9.4046 -1.9670 2.3884
-9.3206 -2.2984 2.3884
-9.2235 -2.6258 2.3884
-9.1132 -2.9488 2.3884
-8.9902 -3.2667 2.3884
-8.8546 -3.5790 2.3884
-8.7068 -3.8852 2.3884
-8.5470 -4.1848 2.3884
-8.3757 -4.4773 2.3884
-8.1931 -4.7622 2.3884
-7.9997 -5.0390 2.3884
-7.7958 -5.3075 2.3884
-7.5819 -5.5671 2.3884
-7.3584 -5.8175 2.3884
-7.1258 -6.0584 2.3884
-6.8846 -6.2893 2.3884
-6.6351 -6.5100 2.3884
-6.3779 -6.7203 2.3884
-6.1136 -6.9199 2.3884
-5.8425 -7.1085 2.3884
-5.5651 -7.2860 2.3884
-5.2821 -7.4522 2.3884
-4.9939 -7.6069 2.3884
-4.7009 -7.7501 2.3884
-4.4038 -7.8816 2.3884
-4.1030 -8.0015 2.3884
-3.7990 -8.1094 2.3884
-3.4923 -8.2054 2.3884
-3.1833 -8.2898 2.3884
-2.8727 -8.3623 2.3884
-2.5608 -8.4231 2.3884
-2.2481 -8.4721 2.3884
-1.9351 -8.5095 2.3884
-1.6222 -8.5353 2.3884
-1.3098 -8.5497 2.3884
-0.9984 -8.5528 2.3884
-0.6883 -8.5446 2.3884
-0.3801 -8.5255 2.3884
-0.0740 -8.4954 2.3884
0.2296 -8.4546 2.3884
0.5302 -8.4033 2.3884
0.8276 -8.3417 2.3884
1.1215 -8.2700 2.3884
1.4114 -8.1883 2.3884
1.6971 -8.0970 2.3884
1.9783 -7.9962 2.3884
2.2546 -7.8862 2.3884
2.5260 -7.7672 2.3884
2.7919 -7.6394 2.3884
3.0523 -7.5032 2.3884
3.3070 -7.3587 2.3884
3.5555 -7.2062 2.3884
3.7978 -7.0460 2.3884
3.7763 -6.4396 2.2360
3.9909 -6.2757 2.2360
4.1993 -6.1056 2.2361
4.4012 -5.9295 2.2362
4.5974 -5.7484 2.2368
4.7869 -5.5615 2.2373
4.9694 -5.3688 2.2379
5.1449 -5.1708 2.2384
5.3132 -4.9676 2.2389
5.4742 -4.7595 2.2394
5.6279 -4.5468 2.2399
5.7587 -4.3182 2.2344
5.8808 -4.0862 2.2287
6.0097 -3.8614 2.2287
6.1324 -3.6337 2.2292
6.2465 -3.4023 2.2293
5.9796 -2.9816 2.0986
6.4512 -2.9303 2.2297
6.5417 -2.6902 2.2299
6.6243 -2.4478 2.2301
6.6989 -2.2032 2.2303
6.7654 -1.9566 2.2305
6.8239 -1.7083 2.2307
6.8743 -1.4586 2.2310
6.9166 -1.2076 2.2312
6.9507 -0.9555 2.2314
5.5926 -0.5633 1.7889
6.9945 -0.4492 2.2319
7.0042 -0.1955 2.2321
7.0057 0.0584 2.2324
6.9990 0.3123 2.2326
6.9842 0.5657 2.2328
6.9612 0.8187 2.2331
6.9300 1.0708 2.2333
6.8908 1.3220 2.2336
6.8435 1.5720 2.2338
6.7881 1.8205 2.2341
5.2490 1.6137 1.7440
6.6532 2.3122 2.2346
6.5738 2.5550 2.2349
6.4864 2.7955 2.2351
5.1203 2.4302 1.7909
6.2882 3.2684 2.2357
6.1774 3.5005 2.2359
5.0107 3.0841 1.8494
-2.8818 -7.6124 2.3884
-2.5976 -7.6798 2.3884
-2.3121 -7.7364 2.3884
-2.0257 -7.7824 2.3884
-1.7390 -7.8177 2.3884
-1.4522 -7.8424 2.3884
-1.1658 -7.8567 2.3884
-0.8801 -7.8605 2.3884
-0.5955 -7.8541 2.3884
-0.3125 -7.8376 2.3884
-0.0313 -7.8110 2.3884
0.2477 -7.7746 2.3884
0.5241 -7.7284 2.3884
0.7977 -7.6728 2.3884
1.0682 -7.6078 2.3884
1.3351 -7.5336 2.3884
1.5983 -7.4504 2.3884
1.8574 -7.3584 2.3884
2.1122 -7.2579 2.3884
2.3625 -7.1491 2.3884
2.6079 -7.0321 2.3884
2.8483 -6.9073 2.3884
3.0834 -6.7745 2.3884
3.3130 -6.6344 2.3884
3.5369 -6.4872 2.3884
3.7027 -6.2448 2.3552
3.7137 -5.7779 2.2360
3.9064 -5.6212 2.2360
4.0930 -5.4585 2.2361
4.2737 -5.2904 2.2362
4.4489 -5.1178 2.2367
4.6177 -4.9398 2.2372
4.7800 -4.7568 2.2377
4.9357 -4.5690 2.2382
5.0846 -4.3765 2.2386
5.2267 -4.1796 2.2391
5.3619 -3.9786 2.2395
5.4900 -3.7736 2.2399
5.6018 -3.5590 2.2366
5.6992 -3.3378 2.2306
5.8005 -3.1210 2.2292
5.9003 -2.9042 2.2300
5.9912 -2.6840 2.2301
6.0747 -2.4612 2.2303
6.1508 -2.2363 2.2305
6.2194 -2.0092 2.2307
6.2806 -1.7804 2.2309
6.3341 -1.5499 2.2311
6.3801 -1.3181 2.2313
6.4186 -1.0850 2.2315
6.4494 -0.8511 2.2317
6.4726 -0.6163 2.2319
6.4882 -0.3811 2.2321
6.4961 -0.1455 2.2324
6.4964 0.0901 2.2326
6.4890 0.3256 2.2328
6.4740 0.5608 2.2331
6.4514 0.7955 2.2333
6.4212 1.0293 2.2335
6.3833 1.2622 2.2338
6.3379 1.4939 2.2340
6.2850 1.7242 2.2342
5.2380 1.6433 1.8803
6.1566 2.1796 2.2347
5.1805 2.0483 1.9039
5.9985 2.6268 2.2352
5.9084 2.8468 2.2355
5.8111 3.0641 2.2357
5.7065 3.2784 2.2360
5.0047 3.1216 2.0004
5.4759 3.6973 2.2365
5.3500 3.9016 2.2367
5.2172 4.1020 2.2370
5.0775 4.2983 2.2372
4.9311 4.4904 2.2375
4.7781 4.6781 2.2377
4.6184 4.8610 2.2379
4.4524 5.0391 2.2382
4.2800 5.2120 2.2384
4.1053 5.3845 2.2407
3.9194 5.5452 2.2403
3.7277 5.6998 2.2399
3.5304 5.8484 2.2395
3.3275 5.9906 2.2391
3.1193 6.1263 2.2386
2.9060 6.2552 2.2382
2.6877 6.3772 2.2377
2.4646 6.4920 2.2372
2.2370 6.5994 2.2367
0.8799 2.9400 0.9813
0.7740 2.9711 0.9780
0.6669 2.9985 0.9747
0.5589 3.0219 0.9713
0.4502 3.0414 0.9679
0.3408 3.0570 0.9645
0.2309 3.0686 0.9610
0.1206 3.0763 0.9574
0.0101 3.0799 0.9539
-0.1004 3.0796 0.9504
-0.2109 3.0752 0.9468
-0.3211 3.0669 0.9432
-0.4310 3.0546 0.9396
-0.5403 3.0383 0.9361
-0.6490 3.0181 0.9325
-0.7569 2.9939 0.9289
-0.8638 2.9659 0.9254
-2.5124 7.6016 2.3884
-2.7941 7.5378 2.3884
-3.0743 7.4634 2.3884
-3.3521 7.3786 2.3884
-3.6285 7.2831 2.3884
-3.9017 7.1771 2.3884
-4.1717 7.0606 2.3884
-4.4381 6.9337 2.3884
-4.7004 6.7965 2.3884
-4.9582 6.6489 2.3884
-5.2110 6.4913 2.3884
-5.4586 6.3237 2.3884
-5.7001 6.1463 2.3884
-5.9355 5.9592 2.3884
-6.1642 5.7627 2.3884
-6.3857 5.5570 2.3884
-6.5998 5.3423 2.3884
-6.8059 5.1189 2.3884
-7.0036 4.8871 2.3884
-7.1926 4.6473 2.3884
-7.3725 4.3997 2.3884
-7.5429 4.1447 2.3884
-7.7035 3.8827 2.3884
-7.8539 3.6140 2.3884
-7.9938 3.3392 2.3884
-8.1230 3.0586 2.3884
-8.2411 2.7726 2.3884
-8.3479 2.4818 2.3884
-8.4432 2.1866 2.3884
-8.5267 1.8875 2.3884
-8.5982 1.5849 2.3884
-8.6577 1.2796 2.3884
-8.7049 0.9718 2.3884
-8.7398 0.6622 2.3884
-8.7622 0.3513 2.3884
-8.7722 0.0396 2.3884
-8.7696 -0.2722 2.3884
-8.7545 -0.5838 2.3884
-8.7269 -0.8944 2.3884
-8.6868 -1.2037 2.3884
-8.6344 -1.5109 2.3884
-8.5698 -1.8158 2.3884
-8.4930 -2.1175 2.3884
-8.4042 -2.4158 2.3884
-8.3037 -2.7100 2.3884
-8.1917 -2.9997 2.3884
-8.0683 -3.2843 2.3884
-7.9338 -3.5635 2.3884
-7.7885 -3.8368 2.3884
-7.6327 -4.1036 2.3884
-7.4668 -4.3637 2.3884
-7.2910 -4.6166 2.3884
-7.1058 -4.8619 2.3884
-6.9114 -5.0992 2.3884
-6.7083 -5.3283 2.3884
-6.4969 -5.5488 2.3884
-6.2775 -5.7604 2.3884
-6.0506 -5.9628 2.3884
-5.8167 -6.1558 2.3884
-5.5761 -6.3392 2.3884
-5.3294 -6.5127 2.3884
-5.0768 -6.6761 2.3884
-4.8190 -6.8293 2.3884
-4.5563 -6.9722 2.3884
-4.2892 -7.1046 2.3884
-4.0182 -7.2264 2.3884
-3.7436 -7.3376 2.3884
-3.4661 -7.4380 2.3884
-3.1859 -7.5278 2.3884
-2.9035 -7.6067 2.3884
-2.6194 -7.6750 2.3884
-2.3340 -7.7324 2.3884
-2.0477 -7.7792 2.3884
-1.7610 -7.8153 2.3884
-1.4742 -7.8409 2.3884
-1.1877 -7.8559 2.3884
-0.9020 -7.8606 2.3884
-0.6173 -7.8550 2.3884
-0.3341 -7.8392 2.3884
-0.0528 -7.8134 2.3884
0.2264 -7.7777 2.3884
0.5030 -7.7323 2.3884
0.7769 -7.6774 2.3884
1.0475 -7.6131 2.3884
1.3148 -7.5396 2.3884
1.5782 -7.4571 2.3884
1.8377 -7.3658 2.3884
2.0929 -7.2659 2.3884
2.3435 -7.1577 2.3884
2.5893 -7.0413 2.3884
2.8301 -6.9171 2.3884
3.0656 -6.7850 2.3884
3.2956 -6.6455 2.3884
3.5200 -6.4987 2.3884
3.7074 -6.2923 2.3686
3.6988 -5.7899 2.2360
3.8918 -5.6334 2.2360
4.0789 -5.4712 2.2361
4.2600 -5.3035 2.2361
4.4356 -5.1312 2.2367
4.6049 -4.9537 2.2372
4.7678 -4.7710 2.2377
4.9239 -4.5835 2.2381
5.0734 -4.3914 2.2386
5.2161 -4.1948 2.2390
5.3518 -3.9941 2.2395
5.4804 -3.7895 2.2399
5.5944 -3.5761 2.2372
5.6919 -3.3547 2.2310
5.7927 -3.1374 2.2292
5.8930 -2.9205 2.2299
5.9845 -2.7009 2.2301
6.0686 -2.4784 2.2303
6.1452 -2.2536 2.2305
6.2144 -2.0267 2.2307
6.2761 -1.7980 2.2309
6.3303 -1.5677 2.2311
6.3769 -1.3359 2.2313
6.4159 -1.1030 2.2315
6.4473 -0.8690 2.2317
6.4711 -0.6344 2.2319
6.4872 -0.3992 2.2321
6.4957 -0.1636 2.2324
6.4966 0.0720 2.2326
6.4898 0.3076 2.2328
6.4754 0.5428 2.2330
6.4534 0.7775 2.2333
6.4237 1.0114 2.2335
6.3865 1.2444 2.2337
6.3417 1.4762 2.2340
6.2893 1.7066 2.2342
5.2404 1.6281 1.8797
6.1621 2.1623 2.2347
5.1830 2.0326 1.9029
6.0051 2.6099 2.2352
5.9156 2.8300 2.2355
5.8188 3.0475 2.2357
5.0554 2.8857 1.9780
5.0075 3.1040 1.9984
5.4852 3.6815 2.2365
5.3599 3.8860 2.2367
5.2276 4.0867 2.2370
5.0885 4.2834 2.2372
4.9426 4.4759 2.2374
4.7652 4.6397 2.2261
4.6309 4.8472 2.2379
4.4654 5.0256 2.2382
4.2935 5.1989 2.2384
4.1193 5.3720 2.2408
3.9339 5.5330 2.2404
3.7427 5.6882 2.2400
3.5457 5.8372 2.2396
3.3433 5.9800 2.2391
3.1355 6.1161 2.2387
2.9225 6.2456 2.2382
2.7046 6.3681 2.2377
2.4819 6.4834 2.2372
2.2546 6.5914 2.2367
0.8880 2.9374 0.9816
0.7821 2.9689 0.9783
0.6752 2.9965 0.9750
0.5672 3.0202 0.9716
0.4585 3.0401 0.9682
0.3492 3.0560 0.9647
0.2393 3.0679 0.9612
0.1291 3.0758 0.9577
0.0186 3.0798 0.9542
-0.0919 3.0797 0.9506
-0.2024 3.0757 0.9471
-0.3127 3.0677 0.9435
-0.4226 3.0557 0.9399
-0.5320 3.0397 0.9363
-0.6407 3.0197 0.9328
-0.7487 2.9959 0.9292
-0.8557 2.9682 0.9257
-2.4907 7.6061 2.3884
-2.7725 7.5431 2.3884
-3.0528 7.4695 2.3884
-3.3313 7.3854 2.3884
-3.6075 7.2908 2.3884
-3.8809 7.1856 2.3884
-4.1511 7.0699 2.3884
-4.4178 6.9438 2.3884
-4.6804 6.8073 2.3884
-4.9386 6.6606 2.3884
-5.1918 6.5038 2.3884
-5.4398 6.3369 2.3884
-5.6818 6.1602 2.3884
-5.9177 5.9739 2.3884
-6.1469 5.7781 2.3884
-6.3690 5.5731 2.3884
-6.5836 5.3591 2.3884
-6.7903 5.1363 2.3884
-6.9887 4.9052 2.3884
-7.1784 4.6660 2.3884
-7.3590 4.4189 2.3884
-7.5302 4.1645 2.3884
-7.6915 3.9030 2.3884
-7.8427 3.6349 2.3884
-7.9835 3.3605 2.3884
-8.1135 3.0803 2.3884
-8.2325 2.7947 2.3884
-8.3401 2.5042 2.3884
-8.4363 2.2093 2.3884
-8.5207 1.9105 2.3884
-8.5932 1.6082 2.3884
-8.6535 1.3029 2.3884
-8.7017 0.9955 2.3884
-8.7375 0.6860 2.3884
-8.7609 0.3752 2.3884
-8.7718 0.0635 2.3884
-8.7702 -0.2483 2.3884
-8.7561 -0.5599 2.3884
-8.7294 -0.8706 2.3884
-8.6903 -1.1800 2.3884
-8.6389 -1.4875 2.3884
-8.5752 -1.7925 2.3884
-8.4993 -2.0945 2.3884
-8.4115 -2.3930 2.3884
-8.3119 -2.6876 2.3884
-8.2007 -2.9776 2.3884
-8.0781 -3.2627 2.3884
-7.9445 -3.5423 2.3884
-7.8000 -3.8160 2.3884
-7.6451 -4.0834 2.3884
-7.4799 -4.3440 2.3884
-7.3049 -4.5974 2.3884
-7.1203 -4.8432 2.3884
-6.9266 -5.0813 2.3884
-6.7242 -5.3111 2.3884
-6.5134 -5.5322 2.3884
-6.2946 -5.7445 2.3884
-6.0683 -5.9476 2.3884
-5.8349 -6.1414 2.3884
-5.5948 -6.3255 2.3884
-5.3485 -6.4997 2.3884
-5.0964 -6.6639 2.3884
-4.8389 -6.8179 2.3884
-4.5766 -6.9616 2.3884
-4.3099 -7.0947 2.3884
-4.0391 -7.2174 2.3884
-3.7648 -7.3294 2.3884
-3.4874 -7.4307 2.3884
-3.2074 -7.5213 2.3884
-2.9252 -7.6011 2.3884
-2.6412 -7.6701 2.3884
-2.3559 -7.7284 2.3884
-2.0697 -7.7760 2.3884
-1.7830 -7.8129 2.3884
-1.4962 -7.8393 2.3884
-1.2097 -7.8552 2.3884
-0.9239 -7.8606 2.3884
-0.6391 -7.8558 2.3884
-0.3558 -7.8408 2.3884
-0.0743 -7.8157 2.3884
0.2051 -7.7808 2.3884
0.4819 -7.7361 2.3884
0.7560 -7.6819 2.3884
1.0269 -7.6183 2.3884
1.2944 -7.5455 2.3884
1.5582 -7.4637 2.3884
1.8180 -7.3731 2.3884
2.0734 -7.2739 2.3884
2.3244 -7.1663 2.3884
2.5706 -7.0505 2.3884
2.8118 -6.9268 2.3884
3.0477 -6.7954 2.3884
3.2781 -6.6564 2.3884
3.5029 -6.5102 2.3884
3.7122 -6.3404 2.3822
3.6837 -5.8015 2.2360
3.8772 -5.6456 2.2360
4.0648 -5.4839 2.2361
4.2463 -5.3165 2.2361
4.4224 -5.1446 2.2366
4.5922 -4.9675 2.2371
4.7555 -4.7852 2.2376
4.9122 -4.5981 2.2381
5.0622 -4.4063 2.2385
5.2054 -4.2101 2.2390
5.3416 -4.0097 2.2394
5.4708 -3.8053 2.2398
5.5870 -3.5933 2.2379
5.6845 -3.3718 2.2315
5.7847 -3.1539 2.2291
5.8857 -2.9375 2.2299
5.9777 -2.7179 2.2301
6.0624 -2.4956 2.2303
6.1396 -2.2709 2.2305
6.2094 -2.0442 2.2307
6.2717 -1.8156 2.2309
6.3264 -1.5854 2.2311
6.3736 -1.3537 2.2313
6.4132 -1.1209 2.2315
6.4452 -0.8870 2.2317
6.4695 -0.6524 2.2319
6.4863 -0.4172 2.2321
6.4954 -0.1817 2.2323
6.4968 0.0540 2.2326
6.4906 0.2895 2.2328
6.4768 0.5248 2.2330
6.4553 0.7595 2.2333
6.4263 0.9935 2.2335
6.3896 1.2266 2.2337
6.3454 1.4585 2.2340
6.2936 1.6890 2.2342
5.2428 1.6129 1.8791
6.1675 2.1450 2.2347
5.1886 2.0182 1.9031
6.0117 2.5929 2.2352
5.9227 2.8133 2.2354
5.8265 3.0309 2.2357
5.0517 2.8650 1.9737
5.0103 3.0865 1.9963
-2.6639 -7.0213 2.3884
-2.4025 -7.0854 2.3884
-2.1397 -7.1397 2.3884
-1.8760 -7.1842 2.3884
-1.6117 -7.2189 2.3884
-1.3472 -7.2439 2.3884
-1.0830 -7.2591 2.3884
-0.8193 -7.2648 2.3884
-0.5564 -7.2610 2.3884
-0.2948 -7.2478 2.3884
-0.0348 -7.2253 2.3884
0.2234 -7.1937 2.3884
0.4793 -7.1530 2.3884
0.7327 -7.1035 2.3884
0.9834 -7.0452 2.3884
1.2309 -6.9785 2.3884
1.4751 -6.9033 2.3884
1.7157 -6.8199 2.3884
1.9524 -6.7286 2.3884
2.1850 -6.6294 2.3884
2.4132 -6.5226 2.3884
2.6368 -6.4083 2.3884
2.8557 -6.2868 2.3884
3.0695 -6.1583 2.3884
3.2781 -6.0230 2.3884
3.4814 -5.8811 2.3884
3.6105 -5.6259 2.3439
3.6240 -5.2225 2.2360
3.7981 -5.0724 2.2360
3.9667 -4.9170 2.2361
4.1295 -4.7565 2.2361
4.2871 -4.5920 2.2365
4.4387 -4.4226 2.2370
4.5842 -4.2486 2.2374
4.7235 -4.0703 2.2379
4.8564 -3.8878 2.2383
4.9829 -3.7014 2.2387
5.1028 -3.5112 2.2391
5.2161 -3.3175 2.2394
5.3226 -3.1205 2.2398
5.4217 -2.9200 2.2398
5.5019 -2.7109 2.2350
5.5762 -2.5004 2.2307
5.6526 -2.2925 2.2301
5.7254 -2.0835 2.2308
5.7898 -1.8723 2.2310
5.8472 -1.6592 2.2312
5.8975 -1.4446 2.2314
5.9407 -1.2286 2.2316
5.6551 -0.9570 2.1116
6.0058 -0.7934 2.2319
6.0276 -0.5747 2.2321
6.0423 -0.3555 2.2324
6.0497 -0.1359 2.2326
6.0500 0.0837 2.2328
6.0432 0.3033 2.2330
6.0291 0.5225 2.2332
6.0079 0.7412 2.2334
5.9796 0.9591 2.2336
5.9441 1.1761 2.2339
5.9015 1.3920 2.2341
5.8519 1.6065 2.2343
5.2378 1.6445 2.0196
5.7315 2.0306 2.2348
5.6608 2.2399 2.2350
5.5833 2.4469 2.2352
5.4988 2.6516 2.2355
5.0811 2.6814 2.1007
5.0463 2.9016 2.1251
5.0044 3.1241 2.1500
5.0935 3.4423 2.2364
4.9756 3.6319 2.2366
4.8513 3.8179 2.2368
4.7205 4.0001 2.2371
4.5835 4.1783 2.2373
4.4403 4.3522 2.2375
4.2956 4.5264 2.2401
4.1406 4.6917 2.2405
3.9783 4.8506 2.2402
3.8105 5.0043 2.2398
3.6370 5.1526 2.2395
3.4583 5.2954 2.2391
3.2742 5.4324 2.2387
3.0852 5.5634 2.2383
2.8912 5.6882 2.2379
2.6925 5.8067 2.2374
2.4893 5.9186 2.2370
2.2818 6.0238 2.2365
2.0701 6.1221 2.2360
0.8115 2.7190 0.9783
0.7135 2.7478 0.9752
0.6145 2.7730 0.9722
0.5146 2.7947 0.9690
0.4140 2.8127 0.9659
0.3128 2.8271 0.9627
0.2112 2.8378 0.9594
0.1092 2.8449 0.9562
0.0070 2.8482 0.9529
-0.0952 2.8479 0.9496
-0.1973 2.8439 0.9463
-0.2993 2.8362 0.9430
-0.4009 2.8248 0.9397
-0.5020 2.8097 0.9364
-0.6025 2.7910 0.9331
-0.7023 2.7687 0.9298
-0.8012 2.7428 0.9265
-0.8991 2.7133 0.9233
-2.5853 6.9580 2.3884
-2.8431 6.8874 2.3884
-3.0991 6.8071 2.3884
-3.3528 6.7171 2.3884
-3.6037 6.6174 2.3884
-3.8516 6.5082 2.3884
-4.0961 6.3895 2.3884
-4.3366 6.2613 2.3884
-4.5729 6.1237 2.3884
-4.8046 5.9770 2.3884
-5.0311 5.8211 2.3884
-5.2523 5.6563 2.3884
-5.4676 5.4828 2.3884
-5.6766 5.3007 2.3884
-5.8791 5.1104 2.3884
-6.0745 4.9117 2.3884
-6.2627 4.7053 2.3884
-6.4431 4.4913 2.3884
-6.6155 4.2700 2.3884
-6.7794 4.0417 2.3884
-6.9347 3.8067 2.3884
-7.0810 3.5654 2.3884
-7.2179 3.3181 2.3884
-7.3453 3.0653 2.3884
-7.4628 2.8073 2.3884
-7.5702 2.5444 2.3884
-7.6673 2.2772 2.3884
-7.7539 2.0061 2.3884
-7.8297 1.7314 2.3884
-7.8947 1.4537 2.3884
-7.9486 1.1735 2.3884
-7.9915 0.8911 2.3884
-8.0230 0.6070 2.3884
-8.0433 0.3219 2.3884
-8.0522 0.0360 2.3884
-8.0497 -0.2500 2.3884
-8.0359 -0.5358 2.3884
-8.0107 -0.8206 2.3884
-7.9741 -1.1044 2.3884
-7.9263 -1.3862 2.3884
-7.8674 -1.6659 2.3884
-7.7975 -1.9429 2.3884
-7.7166 -2.2166 2.3884
-7.6251 -2.4868 2.3884
-7.5230 -2.7528 2.3884
-7.4105 -3.0143 2.3884
-7.2880 -3.2709 2.3884
-7.1556 -3.5222 2.3884
-7.0136 -3.7677 2.3884
-6.8623 -4.0070 2.3884
-6.7020 -4.2399 2.3884
-6.5330 -4.4660 2.3884
-6.3556 -4.6849 2.3884
-6.1702 -4.8963 2.3884
-5.9772 -5.0999 2.3884
-5.7768 -5.2955 2.3884
-5.5694 -5.4827 2.3884
-5.3555 -5.6615 2.3884
-5.1355 -5.8314 2.3884
-4.9096 -5.9925 2.3884
-4.6784 -6.1443 2.3884
-4.4422 -6.2870 2.3884
-4.2015 -6.4201 2.3884
-3.9566 -6.5437 2.3884
-3.7079 -6.6577 2.3884
-3.4559 -6.7620 2.3884
-3.2010 -6.8565 2.3884
-2.9435 -6.9411 2.3884
-2.6839 -7.0159 2.3884
-2.4226 -7.0809 2.3884
-2.1599 -7.1359 2.3884
-1.8962 -7.1812 2.3884
-1.6320 -7.2166 2.3884
-1.3675 -7.2423 2.3884
-1.1032 -7.2583 2.3884
-0.8395 -7.2647 2.3884
-0.5765 -7.2616 2.3884
-0.3148 -7.2491 2.3884
-0.0547 -7.2273 2.3884
0.2036 -7.1964 2.3884
0.4598 -7.1564 2.3884
0.7134 -7.1076 2.3884
0.9643 -7.0500 2.3884
1.2121 -6.9839 2.3884
1.4565 -6.9094 2.3884
1.6974 -6.8266 2.3884
1.9344 -6.7359 2.3884
2.1673 -6.6373 2.3884
2.3959 -6.5310 2.3884
2.6199 -6.4173 2.3884
2.8391 -6.2964 2.3884
3.0533 -6.1684 2.3884
3.2623 -6.0336 2.3884
3.4660 -5.8923 2.3884
3.6144 -5.6666 2.3560
3.6104 -5.2338 2.2360
3.7850 -5.0841 2.2360
3.9540 -4.9292 2.2361
4.1172 -4.7690 2.2361
4.2752 -4.6048 2.2365
4.4273 -4.4358 2.2370
4.5733 -4.2621 2.2374
4.7131 -4.0841 2.2378
4.8465 -3.9019 2.2383
4.9734 -3.7158 2.2387
5.0938 -3.5259 2.2390
5.2076 -3.3325 2.2394
5.3147 -3.1357 2.2398
5.4148 -2.9358 2.2400
5.4960 -2.7269 2.2354
5.5703 -2.5166 2.2308
5.6468 -2.3085 2.2301
5.7202 -2.1000 2.2308
5.7851 -1.8886 2.2310
5.8430 -1.6756 2.2312
5.8939 -1.4611 2.2314
5.9377 -1.2452 2.2315
5.6578 -0.9737 2.1135
6.0038 -0.8102 2.2319
6.0262 -0.5915 2.2321
6.0414 -0.3723 2.2323
6.0494 -0.1528 2.2325
6.0503 0.0669 2.2328
6.0439 0.2864 2.2330
6.0304 0.5057 2.2332
6.0098 0.7244 2.2334
5.9820 0.9424 2.2336
5.9471 1.1595 2.2338
5.9050 1.3755 2.2341
5.8559 1.5901 2.2343
5.2402 1.6292 2.0189
5.7366 2.0145 2.2348
5.6665 2.2239 2.2350
5.5895 2.4311 2.2352
5.5055 2.6360 2.2354
5.0837 2.6647 2.0990
5.0490 2.8845 2.1231
5.0071 3.1065 2.1478
5.1022 3.4276 2.2364
4.9849 3.6175 2.2366
4.8610 3.8038 2.2368
4.7308 3.9863 2.2371
4.5943 4.1648 2.2373
4.4517 4.3384 2.2375
4.3062 4.5124 2.2395
4.1528 4.6793 2.2405
3.9910 4.8386 2.2402
3.8235 4.9927 2.2399
3.6505 5.1415 2.2395
3.4722 5.2846 2.2391
3.2885 5.4221 2.2387
3.0998 5.5535 2.2383
2.9062 5.6789 2.2379
2.7079 5.7978 2.2375
2.5051 5.9103 2.2370
2.2978 6.0160 2.2366
2.0865 6.1148 2.2361
0.8190 2.7166 0.9785
0.7211 2.7457 0.9755
0.6221 2.7712 0.9724
0.5223 2.7931 0.9693
0.4218 2.8115 0.9661
0.3206 2.8261 0.9629
0.2190 2.8371 0.9597
0.1170 2.8445 0.9564
0.0149 2.8481 0.9532
-0.0873 2.8481 0.9499
-0.1895 2.8443 0.9466
-0.2915 2.8369 0.9433
-0.3931 2.8258 0.9400
-0.4943 2.8110 0.9367
-0.5948 2.7926 0.9334
-0.6947 2.7705 0.9301
-0.7936 2.7449 0.9268
-0.8916 2.7157 0.9235
-2.5654 6.9630 2.3884
-2.8234 6.8931 2.3884
-3.0795 6.8136 2.3884
-3.3334 6.7243 2.3884
-3.5846 6.6254 2.3884
-3.8328 6.5169 2.3884
-4.0775 6.3989 2.3884
-4.3183 6.2715 2.3884
-4.5550 6.1346 2.3884
-4.7870 5.9886 2.3884
-5.0140 5.8334 2.3884
-5.2355 5.6693 2.3884
-5.4513 5.4964 2.3884
-5.6608 5.3150 2.3884
-5.8638 5.1252 2.3884
-6.0598 4.9272 2.3884
-6.2485 4.7214 2.3884
-6.4295 4.5079 2.3884
-6.6025 4.2872 2.3884
-6.7672 4.0594 2.3884
-6.9231 3.8249 2.3884
-7.0701 3.5841 2.3884
-7.2078 3.3373 2.3884
-7.3359 3.0849 2.3884
-7.4542 2.8272 2.3884
-7.5624 2.5647 2.3884
-7.6602 2.2978 2.3884
-7.7476 2.0270 2.3884
-7.8243 1.7526 2.3884
-7.8901 1.4751 2.3884
-7.9449 1.1950 2.3884
-7.9886 0.9128 2.3884
-8.0210 0.6289 2.3884
-8.0422 0.3438 2.3884
-8.0519 0.0580 2.3884
-8.0503 -0.2281 2.3884
-8.0373 -0.5139 2.3884
-8.0129 -0.7990 2.3884
-7.9773 -1.0827 2.3884
-7.9304 -1.3647 2.3884
-7.8723 -1.6445 2.3884
-7.8032 -1.9217 2.3884
-7.7232 -2.1957 2.3884
-7.6325 -2.4662 2.3884
-7.5312 -2.7325 2.3884
-7.4195 -2.9944 2.3884
-7.2978 -3.2514 2.3884
-7.1661 -3.5031 2.3884
-7.0249 -3.7491 2.3884
-6.8743 -3.9889 2.3884
-6.7146 -4.2223 2.3884
-6.5463 -4.4489 2.3884
-6.3695 -4.6684 2.3884
-6.1847 -4.8803 2.3884
-5.9922 -5.0846 2.3884
-5.7924 -5.2808 2.3884
-5.5856 -5.4687 2.3884
-5.3722 -5.6481 2.3884
-5.1526 -5.8187 2.3884
-4.9272 -5.9804 2.3884
-4.6963 -6.1330 2.3884
-4.4605 -6.2763 2.3884
-4.2201 -6.4102 2.3884
-3.9755 -6.5346 2.3884
-3.7271 -6.6493 2.3884
-3.4754 -6.7543 2.3884
-3.2206 -6.8496 2.3884
-2.9634 -6.9350 2.3884
-2.7039 -7.0105 2.3884
-2.4427 -7.0762 2.3884
-2.1800 -7.1321 2.3884
-1.9164 -7.1780 2.3884
-1.6523 -7.2142 2.3884
-1.3878 -7.2407 2.3884
-1.1235 -7.2574 2.3884
-0.8597 -7.2646 2.3884
-0.5967 -7.2622 2.3884
-0.3349 -7.2504 2.3884
-0.0746 -7.2294 2.3884
0.1839 -7.1991 2.3884
0.4402 -7.1598 2.3884
0.6940 -7.1116 2.3884
0.9451 -7.0547 2.3884
1.1932 -6.9893 2.3884
1.4379 -6.9154 2.3884
1.6791 -6.8333 2.3884
1.9164 -6.7431 2.3884
2.1496 -6.6451 2.3884
2.3785 -6.5394 2.3884
2.6028 -6.4263 2.3884
2.8224 -6.3059 2.3884
3.0370 -6.1785 2.3884
3.2465 -6.0443 2.3884
3.4506 -5.9033 2.3884
3.6183 -5.7075 2.3683
3.5967 -5.2450 2.2360
3.7718 -5.0958 2.2360
3.9412 -4.9412 2.2360
4.1049 -4.7815 2.2361
4.2633 -4.6175 2.2365
4.4159 -4.4489 2.2369
4.5623 -4.2756 2.2374
4.7026 -4.0979 2.2378
4.8365 -3.9161 2.2382
4.9639 -3.7302 2.2386
5.0848 -3.5406 2.2390
5.1991 -3.3474 2.2394
5.3067 -3.1509 2.2397
5.4076 -2.9513 2.2401
5.4900 -2.7428 2.2357
5.5648 -2.5327 2.2312
5.6410 -2.3243 2.2300
5.7148 -2.1156 2.2308
5.7804 -1.9049 2.2310
5.8389 -1.6920 2.2312
5.8903 -1.4776 2.2313
5.9346 -1.2618 2.2315
5.6604 -0.9904 2.1154
5.6432 -0.7775 2.0986
6.0247 -0.6083 2.2321
6.0405 -0.3891 2.2323
6.0490 -0.1696 2.2325
6.0504 0.0500 2.2327
6.0447 0.2696 2.2330
6.0317 0.4889 2.2332
6.0116 0.7076 2.2334
5.9844 0.9257 2.2336
5.9500 1.1429 2.2338
5.9085 1.3590 2.2341
5.8600 1.5737 2.2343
5.2426 1.6140 2.0183
5.7417 1.9984 2.2347
5.6721 2.2079 2.2350
5.5956 2.4153 2.2352
5.5122 2.6204 2.2354
5.0895 2.6498 2.0986
5.0517 2.8675 2.1211
5.0099 3.0890 2.1456
-2.4749 -6.5083 2.3884
-2.2331 -6.5694 2.3884
-1.9899 -6.6214 2.3884
-1.7458 -6.6643 2.3884
-1.5010 -6.6982 2.3884
-1.2559 -6.7230 2.3884
-1.0109 -6.7389 2.3884
-0.7663 -6.7459 2.3884
-0.5223 -6.7440 2.3884
-0.2794 -6.7335 2.3884
-0.0378 -6.7143 2.3884
0.2021 -6.6865 2.3884
0.4401 -6.6504 2.3884
0.6759 -6.6060 2.3884
0.9093 -6.5534 2.3884
1.1398 -6.4929 2.3884
1.3674 -6.4245 2.3884
1.5916 -6.3484 2.3884
1.8124 -6.2648 2.3884
2.0294 -6.1739 2.3884
2.2425 -6.0757 2.3884
2.4513 -5.9706 2.3884
2.6558 -5.8587 2.3884
2.8557 -5.7402 2.3884
3.0508 -5.6152 2.3884
3.2409 -5.4841 2.3884
3.4259 -5.3469 2.3884
3.5306 -5.0956 2.3387
3.5387 -4.7327 2.2360
3.6966 -4.5885 2.2360
3.8492 -4.4395 2.2360
3.9962 -4.2858 2.2361
4.1382 -4.1282 2.2364
4.2746 -3.9664 2.2368
4.4053 -3.8005 2.2372
4.5300 -3.6306 2.2376
4.6486 -3.4569 2.2380
4.7612 -3.2797 2.2383
4.8676 -3.0991 2.2387
4.9677 -2.9154 2.2390
5.0614 -2.7288 2.2393
5.1488 -2.5394 2.2396
5.2296 -2.3475 2.2399
5.3033 -2.1530 2.2399
5.3613 -1.9531 2.2361
5.4131 -1.7523 2.2326
5.4627 -1.5516 2.2310
5.5102 -1.3510 2.2312
5.5519 -1.1494 2.2318
5.5859 -0.9464 2.2320
5.6132 -0.7424 2.2322
5.6338 -0.5378 2.2323
5.6476 -0.3328 2.2325
5.6547 -0.1274 2.2327
5.6550 0.0781 2.2329
5.6485 0.2835 2.2331
5.6354 0.4885 2.2333
5.6154 0.6931 2.2335
5.5888 0.8969 2.2337
5.5554 1.0999 2.2339
5.5154 1.3018 2.2342
5.4687 1.5023 2.2344
5.2376 1.6456 2.1612
5.3554 1.8988 2.2348
5.2890 2.0944 2.2350
5.2160 2.2878 2.2352
5.1366 2.4790 2.2354
5.0508 2.6677 2.2357
4.9587 2.8537 2.2359
4.8603 3.0369 2.2361
4.7557 3.2170 2.2363
4.6450 3.3938 2.2365
4.5280 3.5670 2.2366
4.4120 3.7425 2.2403
4.2832 3.9086 2.2405
4.1478 4.0699 2.2402
4.0067 4.2268 2.2400
3.8601 4.3791 2.2397
3.7081 4.5268 2.2394
3.5509 4.6695 2.2390
3.3885 4.8072 2.2387
3.2212 4.9396 2.2383
3.0490 5.0665 2.2380
2.8721 5.1878 2.2376
2.6907 5.3032 2.2372
2.5050 5.4127 2.2368
2.3151 5.5160 2.2364
2.1213 5.6131 2.2360
0.8419 2.4962 0.9784
0.7519 2.5262 0.9756
0.6608 2.5529 0.9728
0.5688 2.5764 0.9699
0.4760 2.5965 0.9670
0.3825 2.6132 0.9641
0.2885 2.6266 0.9611
0.1940 2.6365 0.9581
0.0993 2.6431 0.9551
0.0044 2.6462 0.9521
-0.0906 2.6459 0.9490
-0.1855 2.6421 0.9459
-0.2802 2.6349 0.9429
-0.3746 2.6243 0.9398
-0.4686 2.6103 0.9367
-0.5620 2.5930 0.9336
-0.6547 2.5722 0.9306
-0.7466 2.5481 0.9275
-0.8375 2.5208 0.9245
-0.9274 2.4901 0.9215
-2.6423 6.3869 2.3884
-2.8790 6.3109 2.3884
-3.1134 6.2259 2.3884
-3.3453 6.1320 2.3884
-3.5741 6.0294 2.3884
-3.7997 5.9179 2.3884
-4.0216 5.7978 2.3884
-4.2394 5.6691 2.3884
-4.4529 5.5320 2.3884
-4.6616 5.3865 2.3884
-4.8652 5.2329 2.3884
-5.0633 5.0712 2.3884
-5.2556 4.9018 2.3884
-5.4417 4.7247 2.3884
-5.6213 4.5402 2.3884
-5.7942 4.3486 2.3884
-5.9599 4.1500 2.3884
-6.1181 3.9448 2.3884
-6.2686 3.7332 2.3884
-6.4110 3.5156 2.3884
-6.5451 3.2923 2.3884
-6.6706 3.0635 2.3884
-6.7873 2.8296 2.3884
-6.8950 2.5911 2.3884
-6.9933 2.3482 2.3884
-7.0822 2.1013 2.3884
-7.1614 1.8509 2.3884
-7.2308 1.5973 2.3884
-7.2902 1.3410 2.3884
-7.3395 1.0823 2.3884
-7.3786 0.8218 2.3884
-7.4074 0.5597 2.3884
-7.4258 0.2966 2.3884
-7.4339 0.0329 2.3884
-7.4315 -0.2309 2.3884
-7.4187 -0.4945 2.3884
-7.3955 -0.7574 2.3884
-7.3620 -1.0190 2.3884
-7.3182 -1.2791 2.3884
-7.2641 -1.5372 2.3884
-7.1999 -1.7928 2.3884
-7.1258 -2.0455 2.3884
-7.0418 -2.2949 2.3884
-6.9482 -2.5406 2.3884
-6.8451 -2.7822 2.3884
-6.7327 -3.0193 2.3884
-6.6113 -3.2516 2.3884
-6.4810 -3.4786 2.3884
-6.3421 -3.7001 2.3884
-6.1950 -3.9157 2.3884
-6.0398 -4.1251 2.3884
-5.8769 -4.3279 2.3884
-5.7066 -4.5239 2.3884
-5.5291 -4.7129 2.3884
-5.3449 -4.8945 2.3884
-5.1543 -5.0685 2.3884
-4.9575 -5.2348 2.3884
-4.7550 -5.3930 2.3884
-4.5471 -5.5431 2.3884
-4.3341 -5.6846 2.3884
-4.1165 -5.8180 2.3884
-3.8946 -5.9425 2.3884
-3.6687 -6.0584 2.3884
-3.4393 -6.1653 2.3884
-3.2067 -6.2633 2.3884
-2.9712 -6.3524 2.3884
-2.7333 -6.4323 2.3884
-2.4934 -6.5032 2.3884
-2.2517 -6.5651 2.3884
-2.0086 -6.6178 2.3884
-1.7645 -6.6614 2.3884
-1.5198 -6.6959 2.3884
-1.2747 -6.7215 2.3884
-1.0297 -6.7380 2.3884
-0.7850 -6.7457 2.3884
-0.5410 -6.7445 2.3884
-0.2980 -6.7346 2.3884
-0.0563 -6.7160 2.3884
0.1838 -6.6889 2.3884
0.4220 -6.6534 2.3884
0.6579 -6.6097 2.3884
0.8915 -6.5577 2.3884
1.1222 -6.4978 2.3884
1.3500 -6.4300 2.3884
1.5746 -6.3545 2.3884
1.7956 -6.2715 2.3884
2.0129 -6.1811 2.3884
2.2263 -6.0835 2.3884
2.4355 -5.9789 2.3884
2.6403 -5.8677 2.3884
2.8405 -5.7495 2.3884
3.0360 -5.6251 2.3884
3.2265 -5.4944 2.3884
3.4119 -5.3577 2.3884
3.5339 -5.1306 2.3497
3.5264 -4.7437 2.2360
3.6847 -4.5997 2.2360
3.8376 -4.4511 2.2360
3.9851 -4.2978 2.2361
4.1275 -4.1404 2.2364
4.2644 -3.9790 2.2368
4.3954 -3.8133 2.2372
4.5206 -3.6437 2.2376
4.6398 -3.4703 2.2379
4.7528 -3.2934 2.2383
4.8597 -3.1131 2.2386
4.9602 -2.9296 2.2390
5.0545 -2.7432 2.2393
5.1423 -2.5540 2.2396
5.2236 -2.3623 2.2399
5.2982 -2.1680 2.2401
5.3572 -1.9684 2.2365
5.4093 -1.7676 2.2329
5.4590 -1.5670 2.2310
5.5067 -1.3665 2.2312
5.5490 -1.1649 2.2318
5.5836 -0.9620 2.2320
5.6114 -0.7581 2.2321
5.6325 -0.5536 2.2323
5.6468 -0.3485 2.2325
5.6544 -0.1431 2.2327
5.6552 0.0623 2.2329
5.6493 0.2677 2.2331
5.6366 0.4728 2.2333
5.6172 0.6774 2.2335
5.5911 0.8813 2.2337
5.5582 1.0844 2.2339
5.5187 1.2863 2.2341
5.4725 1.4870 2.2344
5.2400 1.6303 2.1605
5.3603 1.8838 2.2348
5.2943 2.0794 2.2350
5.2219 2.2731 2.2352
5.1430 2.4644 2.2354
5.0576 2.6533 2.2356
4.9660 2.8396 2.2359
4.8681 3.0229 2.2361
4.7639 3.2033 2.2363
4.6537 3.3804 2.2365
4.5370 3.5538 2.2365
4.4210 3.7291 2.2399
4.2934 3.8961 2.2405
4.1584 4.0576 2.2402
4.0177 4.2149 2.2400
3.8716 4.3676 2.2397
3.7200 4.5156 2.2394
3.5631 4.6588 2.2391
3.4012 4.7968 2.2387
3.2342 4.9296 2.2384
3.0624 5.0570 2.2380
2.8858 5.1787 2.2376
2.7048 5.2946 2.2372
2.5194 5.4045 2.2368
2.3298 5.5083 2.2364
2.1363 5.6059 2.2360
0.8488 2.4937 0.9786
0.7588 2.5240 0.9758
0.6678 2.5510 0.9730
0.5758 2.5747 0.9701
0.4831 2.5950 0.9672
0.3897 2.6120 0.9643
0.2957 2.6257 0.9613
0.2013 2.6359 0.9583
0.1066 2.6427 0.9553
0.0117 2.6461 0.9523
-0.0833 2.6460 0.9492
-0.1782 2.6425 0.9462
-0.2730 2.6356 0.9431
-0.3674 2.6253 0.9400
-0.4614 2.6115 0.9369
-0.5548 2.5944 0.9339
-0.6476 2.5739 0.9308
-0.7395 2.5501 0.9278
-0.8306 2.5230 0.9247
-0.9206 2.4926 0.9217
-2.6241 6.3924 2.3884
-2.8609 6.3170 2.3884
-3.0955 6.2327 2.3884
-3.3276 6.1396 2.3884
-3.5567 6.0376 2.3884
-3.7825 5.9268 2.3884
-4.0047 5.8073 2.3884
-4.2229 5.6793 2.3884
-4.4367 5.5428 2.3884
-4.6458 5.3980 2.3884
-4.8497 5.2450 2.3884
-5.0483 5.0839 2.3884
-5.2410 4.9151 2.3884
-5.4277 4.7385 2.3884
-5.6078 4.5546 2.3884
-5.7812 4.3635 2.3884
-5.9474 4.1655 2.3884
-6.1062 3.9608 2.3884
-6.2573 3.7497 2.3884
-6.4004 3.5325 2.3884
-6.5351 3.3096 2.3884
-6.6613 3.0812 2.3884
-6.7787 2.8477 2.3884
-6.8870 2.6095 2.3884
-6.9861 2.3670 2.3884
-7.0757 2.1204 2.3884
-7.1557 1.8702 2.3884
-7.2258 1.6169 2.3884
-7.2860 1.3607 2.3884
-7.3361 1.1022 2.3884
-7.3760 0.8418 2.3884
-7.4056 0.5798 2.3884
-7.4248 0.3168 2.3884
-7.4337 0.0531 2.3884
-7.4321 -0.2107 2.3884
-7.4201 -0.4743 2.3884
-7.3977 -0.7372 2.3884
-7.3649 -0.9991 2.3884
-7.3219 -1.2593 2.3884
-7.2686 -1.5175 2.3884
-7.2052 -1.7733 2.3884
-7.1318 -2.0262 2.3884
-7.0486 -2.2759 2.3884
-6.9557 -2.5219 2.3884
-6.8533 -2.7638 2.3884
-6.7417 -3.0013 2.3884
-6.6209 -3.2340 2.3884
-6.4913 -3.4614 2.3884
-6.3531 -3.6833 2.3884
-6.2066 -3.8994 2.3884
-6.0520 -4.1092 2.3884
-5.8897 -4.3126 2.3884
-5.7199 -4.5092 2.3884
-5.5430 -4.6987 2.3884
-5.3593 -4.8809 2.3884
-5.1691 -5.0555 2.3884
-4.9728 -5.2223 2.3884
-4.7707 -5.3812 2.3884
-4.5632 -5.5318 2.3884
-4.3506 -5.6743 2.3884
-4.1333 -5.8081 2.3884
-3.9117 -5.9333 2.3884
-3.6861 -6.0498 2.3884
-3.4570 -6.1574 2.3884
-3.2246 -6.2561 2.3884
-2.9894 -6.3459 2.3884
-2.7517 -6.4265 2.3884
-2.5118 -6.4981 2.3884
-2.2703 -6.5606 2.3884
-2.0273 -6.6140 2.3884
-1.7833 -6.6583 2.3884
-1.5386 -6.6936 2.3884
-1.2935 -6.7198 2.3884
-1.0485 -6.7371 2.3884
-0.8038 -6.7454 2.3884
-0.5597 -6.7449 2.3884
-0.3166 -6.7357 2.3884
-0.0748 -6.7178 2.3884
0.1654 -6.6913 2.3884
0.4038 -6.6565 2.3884
0.6399 -6.6133 2.3884
0.8736 -6.5620 2.3884
1.1046 -6.5027 2.3884
1.3327 -6.4355 2.3884
1.5575 -6.3606 2.3884
1.7788 -6.2781 2.3884
1.9964 -6.1883 2.3884
2.2101 -6.0912 2.3884
2.4196 -5.9872 2.3884
2.6247 -5.8763 2.3884
2.8253 -5.7588 2.3884
3.0212 -5.6348 2.3884
3.2121 -5.5046 2.3884
3.3979 -5.3683 2.3884
3.5372 -5.1660 2.3609
3.5140 -4.7542 2.2360
3.6727 -4.6110 2.2360
3.8261 -4.4627 2.2360
3.9740 -4.3097 2.2361
4.1167 -4.1526 2.2363
4.2541 -3.9915 2.2367
4.3856 -3.8262 2.2371
4.5112 -3.6569 2.2375
4.6308 -3.4838 2.2379
4.7444 -3.3071 2.2383
4.8517 -3.1270 2.2386
4.9528 -2.9438 2.2390
5.0475 -2.7576 2.2393
5.1358 -2.5686 2.2396
5.2176 -2.3771 2.2399
5.2929 -2.1832 2.2402
5.3533 -1.9841 2.2369
5.4055 -1.7832 2.2331
5.4552 -1.5823 2.2311
5.5032 -1.3819 2.2311
5.5461 -1.1803 2.2318
5.5812 -0.9776 2.2319
5.6095 -0.7738 2.2321
5.6311 -0.5693 2.2323
5.6459 -0.3642 2.2325
5.6540 -0.1589 2.2327
5.6554 0.0466 2.2329
5.6500 0.2520 2.2331
5.6378 0.4571 2.2333
5.6189 0.6617 2.2335
5.5933 0.8657 2.2337
5.5610 1.0688 2.2339
5.5219 1.2709 2.2341
5.4763 1.4717 2.2343
5.2424 1.6151 2.1598
5.3651 1.8687 2.2348
5.2996 2.0645 2.2350
5.2277 2.2583 2.2352
5.1492 2.4498 2.2354
5.0644 2.6389 2.2356
4.9732 2.8254 2.2358
4.8758 3.0090 2.2361
-2.3091 -6.0586 2.3884
-2.0845 -6.1168 2.3884
-1.8585 -6.1665 2.3884
-1.6314 -6.2079 2.3884
-1.4037 -6.2408 2.3884
-1.1757 -6.2653 2.3884
-0.9475 -6.2815 2.3884
-0.7197 -6.2894 2.3884
-0.4923 -6.2891 2.3884
-0.2659 -6.2806 2.3884
-0.0405 -6.2640 2.3884
0.1834 -6.2395 2.3884
0.4056 -6.2072 2.3884
0.6258 -6.1671 2.3884
0.8438 -6.1193 2.3884
1.0594 -6.0641 2.3884
1.2721 -6.0015 2.3884
1.4820 -5.9316 2.3884
1.6886 -5.8547 2.3884
1.8918 -5.7709 2.3884
2.0914 -5.6803 2.3884
2.2871 -5.5832 2.3884
2.4788 -5.4796 2.3884
2.6662 -5.3697 2.3884
2.8493 -5.2538 2.3884
3.0277 -5.1320 2.3884
3.2014 -5.0046 2.3884
3.3702 -4.8715 2.3884
3.4603 -4.6347 2.3387
3.4568 -4.2967 2.2360
3.6002 -4.1579 2.2360
3.7385 -4.0146 2.2360
3.8715 -3.8670 2.2361
3.9995 -3.7156 2.2362
4.1224 -3.5606 2.2366
4.2397 -3.4018 2.2370
4.3514 -3.2395 2.2373
4.4574 -3.0738 2.2377
4.5576 -2.9049 2.2380
4.6518 -2.7330 2.2383
4.7401 -2.5582 2.2386
4.8224 -2.3809 2.2389
