ply
format ascii 1.0
element vertex 2175
property float32 x
property float32 y
property float32 z
end_header
-5.9571 -1.7548 2.3911
-5.9019 -1.9754 2.3911
-5.8398 -2.1946 2.3911
-5.7705 -2.4123 2.3911
-5.6943 -2.6283 2.3911
-5.6110 -2.8423 2.3911
-5.5207 -3.0542 2.3911
-5.4234 -3.2638 2.3911
-5.3191 -3.4709 2.3911
-5.2079 -3.6752 2.3911
-5.0898 -3.8766 2.3911
-4.9649 -4.0749 2.3911
-4.8331 -4.2698 2.3911
-4.6946 -4.4611 2.3911
-4.5493 -4.6486 2.3911
-4.3974 -4.8321 2.3911
-4.2389 -5.0114 2.3911
-4.0739 -5.1863 2.3911
-3.9025 -5.3563 2.3911
-3.7247 -5.5214 2.3911
-3.5407 -5.6814 2.3911
-3.3505 -5.8360 2.3911
-3.1544 -5.9850 2.3911
-2.9523 -6.1281 2.3911
-2.7445 -6.2649 2.3911
-2.5310 -6.3955 2.3911
-2.3122 -6.5194 2.3911
-2.0880 -6.6365 2.3911
-1.8587 -6.7464 2.3911
-1.6245 -6.8490 2.3911
-1.3856 -6.9441 2.3911
-1.1422 -7.0312 2.3911
-0.8945 -7.1104 2.3911
-0.6428 -7.1812 2.3911
-0.3874 -7.2435 2.3911
-0.1285 -7.2971 2.3911
0.1336 -7.3417 2.3911
0.3987 -7.3771 2.3911
0.6662 -7.4031 2.3911
0.9360 -7.4196 2.3911
1.2077 -7.4263 2.3911
1.4810 -7.4231 2.3911
1.7554 -7.4098 2.3911
2.0306 -7.3863 2.3911
2.3061 -7.3524 2.3911
2.5737 -7.2856 2.3837
2.6745 -6.7907 2.2387
2.9311 -6.7294 2.2387
3.1865 -6.6580 2.2387
3.4402 -6.5766 2.2388
3.6917 -6.4851 2.2388
3.9406 -6.3834 2.2389
4.1864 -6.2717 2.2389
4.4297 -6.1514 2.2394
4.6692 -6.0211 2.2400
4.9043 -5.8808 2.2406
5.1259 -5.7210 2.2374
5.3243 -5.5345 2.2270
5.5215 -5.3463 2.2193
5.7124 -5.1520 2.2122
5.9052 -4.9576 2.2088
6.0967 -4.7606 2.2077
6.2847 -4.5585 2.2082
6.4678 -4.3501 2.2096
6.6399 -4.1324 2.2102
6.8022 -3.9064 2.2104
6.9554 -3.6733 2.2106
7.0989 -3.4336 2.2109
7.2327 -3.1876 2.2111
7.3562 -2.9359 2.2113
7.4693 -2.6787 2.2116
7.5716 -2.4168 2.2118
7.6628 -2.1504 2.2121
7.7429 -1.8802 2.2124
7.8115 -1.6067 2.2126
7.8684 -1.3303 2.2129
7.9137 -1.0516 2.2132
7.9471 -0.7712 2.2135
7.9687 -0.4897 2.2138
7.9782 -0.2075 2.2141
7.9759 0.0747 2.2144
7.9616 0.3564 2.2146
7.9354 0.6371 2.2149
7.8974 0.9161 2.2152
7.8478 1.1930 2.2155
7.7866 1.4673 2.2158
7.7141 1.7383 2.2161
7.6305 2.0057 2.2164
7.5359 2.2688 2.2167
7.4307 2.5273 2.2170
7.3152 2.7806 2.2172
6.5886 2.7752 2.0322
7.0537 3.2703 2.2176
6.9050 3.5035 2.2167
6.7514 3.7317 2.2170
6.5971 3.9581 2.2200
6.4471 4.1860 2.2274
6.2937 4.4113 2.2369
6.1180 4.6203 2.2415
5.9208 4.8106 2.2410
5.7171 4.9923 2.2404
5.5073 5.1650 2.2399
5.2918 5.3286 2.2393
5.0714 5.4833 2.2388
4.8471 5.6297 2.2388
4.6184 5.7667 2.2387
4.3858 5.8944 2.2387
4.1498 6.0129 2.2388
4.1692 6.5264 2.3868
3.9182 6.6440 2.3911
3.6573 6.7396 2.3911
3.3944 6.8251 2.3911
3.1300 6.9004 2.3911
2.8644 6.9656 2.3911
2.5980 7.0208 2.3911
0.8953 2.7136 0.9182
0.7973 2.7426 0.9234
0.6984 2.7681 0.9286
0.5985 2.7899 0.9339
0.4980 2.8081 0.9391
0.3968 2.8227 0.9443
0.2952 2.8336 0.9496
0.1932 2.8409 0.9548
0.0911 2.8444 0.9600
-0.0112 2.8442 0.9652
-0.1133 2.8404 0.9703
-0.2153 2.8328 0.9754
-0.3169 2.8216 0.9805
-0.4181 2.8067 0.9855
-0.5186 2.7881 0.9905
-0.6185 2.7659 0.9953
-0.7174 2.7401 1.0002
-0.8154 2.7107 1.0049
-2.1605 6.3424 2.3911
-2.3762 6.2282 2.3911
-2.5869 6.1075 2.3911
-2.7926 5.9805 2.3911
-2.9930 5.8475 2.3911
-3.1881 5.7087 2.3911
-3.3778 5.5642 2.3911
-3.5618 5.4143 2.3911
-3.7402 5.2592 2.3911
-3.9128 5.0991 2.3911
-4.0795 4.9341 2.3911
-4.2402 4.7646 2.3911
-4.3948 4.5906 2.3911
-4.5433 4.4124 2.3911
-4.6856 4.2301 2.3911
-4.8216 4.0441 2.3911
-4.9512 3.8543 2.3911
-5.0744 3.6612 2.3911
-5.1911 3.4647 2.3911
-5.3013 3.2651 2.3911
-5.4050 3.0627 2.3911
-5.5020 2.8575 2.3911
-5.5923 2.6497 2.3911
-5.6760 2.4396 2.3911
-5.7529 2.2273 2.3911
-5.8230 2.0131 2.3911
-5.8863 1.7969 2.3911
-5.9428 1.5791 2.3911
-5.9924 1.3598 2.3911
-6.0351 1.1392 2.3911
-6.0708 0.9175 2.3911
-6.0997 0.6948 2.3911
-6.1215 0.4714 2.3911
-6.1364 0.2473 2.3911
-6.1443 0.0227 2.3911
-6.1451 -0.2021 2.3911
-6.1390 -0.4270 2.3911
-6.1258 -0.6518 2.3911
-6.1055 -0.8763 2.3911
-6.0782 -1.1004 2.3911
-6.0439 -1.3239 2.3911
-6.0024 -1.5465 2.3911
-5.9539 -1.7682 2.3911
-5.8984 -1.9887 2.3911
-5.8358 -2.2078 2.3911
-5.7661 -2.4254 2.3911
-5.6894 -2.6413 2.3911
-5.6057 -2.8552 2.3911
-5.5150 -3.0670 2.3911
-5.4172 -3.2764 2.3911
-5.3126 -3.4833 2.3911
-5.2010 -3.6875 2.3911
-5.0824 -3.8887 2.3911
-4.9571 -4.0868 2.3911
-4.8249 -4.2815 2.3911
-4.6860 -4.4726 2.3911
-4.5403 -4.6599 2.3911
-4.3880 -4.8431 2.3911
-4.2291 -5.0221 2.3911
-4.0637 -5.1967 2.3911
-3.8919 -5.3665 2.3911
-3.7137 -5.5312 2.3911
-3.5293 -5.6910 2.3911
-3.3388 -5.8452 2.3911
-3.1423 -5.9938 2.3911
-2.9399 -6.1365 2.3911
-2.7317 -6.2730 2.3911
-2.5179 -6.4032 2.3911
-2.2987 -6.5267 2.3911
-2.0742 -6.6433 2.3911
-1.8446 -6.7529 2.3911
-2.1715 -6.0628 2.3911
-1.9625 -6.1705 2.3911
-1.7488 -6.2715 2.3911
-1.5306 -6.3656 2.3911
-1.3082 -6.4525 2.3911
-1.0818 -6.5321 2.3911
-0.8515 -6.6042 2.3911
-0.6176 -6.6684 2.3911
-0.3804 -6.7248 2.3911
-0.1401 -6.7729 2.3911
0.1030 -6.8126 2.3911
0.3486 -6.8438 2.3911
0.5965 -6.8663 2.3911
0.8463 -6.8799 2.3911
1.0977 -6.8845 2.3911
1.3503 -6.8799 2.3911
1.6038 -6.8660 2.3911
1.8579 -6.8426 2.3911
2.1122 -6.8097 2.3911
2.3663 -6.7671 2.3911
2.6198 -6.7148 2.3911
2.7129 -6.2833 2.2583
2.9243 -6.1614 2.2387
3.1577 -6.0849 2.2387
3.3890 -5.9992 2.2387
3.6178 -5.9043 2.2388
3.8437 -5.8002 2.2388
4.0663 -5.6870 2.2389
4.2852 -5.5648 2.2390
4.5007 -5.4347 2.2395
4.7118 -5.2956 2.2400
4.9178 -5.1478 2.2405
5.1149 -4.9877 2.2394
5.2957 -4.8102 2.2339
5.4620 -4.6192 2.2256
5.6260 -4.4261 2.2194
5.7834 -4.2272 2.2138
5.9386 -4.0265 2.2104
5.8641 -3.6801 2.1267
6.2392 -3.6145 2.2090
6.3803 -3.4009 2.2094
6.5147 -3.1821 2.2105
6.6394 -2.9572 2.2114
6.7531 -2.7261 2.2116
6.8572 -2.4902 2.2119
6.9515 -2.2498 2.2121
7.0358 -2.0055 2.2123
7.1099 -1.7576 2.2126
7.1736 -1.5067 2.2128
7.2269 -1.2532 2.2131
7.2695 -0.9975 2.2133
6.2050 -0.6291 1.8812
7.3225 -0.4819 2.2139
6.2421 -0.1898 1.8848
7.3323 0.0361 2.2144
7.3209 0.2949 2.2147
7.2988 0.5527 2.2149
7.2659 0.8093 2.2152
7.2225 1.0639 2.2155
7.1685 1.3163 2.2158
7.1042 1.5659 2.2160
7.0298 1.8122 2.2163
6.9445 2.0552 2.2163
6.5101 2.1792 2.1064
6.7430 2.5257 2.2156
6.6318 2.7551 2.2164
6.5157 2.9814 2.2186
6.4015 3.2079 2.2245
6.2797 3.4301 2.2309
6.1542 3.6500 2.2393
6.0031 3.8544 2.2414
5.8378 4.0473 2.2409
5.6655 4.2328 2.2404
5.4866 4.4107 2.2400
5.3015 4.5807 2.2395
5.1107 4.7427 2.2389
4.9153 4.8973 2.2388
4.7150 5.0439 2.2388
4.5102 5.1820 2.2387
4.3011 5.3117 2.2387
4.0881 5.4328 2.2387
4.0964 5.8671 2.3685
3.9009 6.0338 2.3911
3.6636 6.1353 2.3911
3.4238 6.2275 2.3911
3.1818 6.3095 2.3911
2.9383 6.3837 2.3911
2.6934 6.4479 2.3911
0.9360 2.4869 0.9144
0.8461 2.5174 0.9192
0.7552 2.5448 0.9240
0.6634 2.5688 0.9289
0.5707 2.5895 0.9337
0.4774 2.6068 0.9386
0.3835 2.6208 0.9434
0.2891 2.6313 0.9483
0.1944 2.6384 0.9532
0.0995 2.6421 0.9580
0.0045 2.6424 0.9628
-0.0904 2.6392 0.9676
-0.1852 2.6326 0.9723
-0.2797 2.6226 0.9771
-0.3737 2.6091 0.9817
-0.4672 2.5923 0.9863
-0.5600 2.5721 0.9909
-0.6521 2.5485 0.9953
-0.7432 2.5216 0.9998
-0.8333 2.4915 1.0041
-2.1870 5.8289 2.3911
-2.3851 5.7185 2.3911
-2.5785 5.6022 2.3911
-2.7673 5.4801 2.3911
-2.9511 5.3524 2.3911
-3.1298 5.2194 2.3911
-3.3035 5.0811 2.3911
-3.4718 4.9377 2.3911
-3.6348 4.7896 2.3911
-3.7924 4.6368 2.3911
-3.9444 4.4795 2.3911
-4.0907 4.3180 2.3911
-4.2313 4.1524 2.3911
-4.3661 3.9829 2.3911
-4.4950 3.8097 2.3911
-4.6179 3.6329 2.3911
-4.7349 3.4527 2.3911
-4.8457 3.2694 2.3911
-4.9504 3.0831 2.3911
-5.0490 2.8940 2.3911
-5.1413 2.7022 2.3911
-5.2273 2.5079 2.3911
-5.3070 2.3114 2.3911
-5.3803 2.1127 2.3911
-5.4473 1.9120 2.3911
-5.5078 1.7096 2.3911
-5.5618 1.5055 2.3911
-5.6093 1.3000 2.3911
-5.6503 1.0932 2.3911
-5.6848 0.8853 2.3911
-5.7127 0.6765 2.3911
-5.7340 0.4669 2.3911
-5.7486 0.2567 2.3911
-5.7567 0.0460 2.3911
-5.7581 -0.1648 2.3911
-5.7528 -0.3758 2.3911
-5.7409 -0.5867 2.3911
-5.7223 -0.7973 2.3911
-5.6971 -1.0075 2.3911
-5.6651 -1.2171 2.3911
-5.6265 -1.4259 2.3911
-5.5812 -1.6337 2.3911
-5.5293 -1.8404 2.3911
-5.4707 -2.0457 2.3911
-5.4054 -2.2496 2.3911
-5.3335 -2.4518 2.3911
-5.2550 -2.6520 2.3911
-5.1699 -2.8503 2.3911
-5.0782 -3.0462 2.3911
-4.9800 -3.2397 2.3911
-4.8752 -3.4306 2.3911
-4.7640 -3.6186 2.3911
-4.6464 -3.8035 2.3911
-4.5224 -3.9852 2.3911
-4.3921 -4.1635 2.3911
-4.2555 -4.3381 2.3911
-4.1127 -4.5088 2.3911
-3.9638 -4.6756 2.3911
-3.8089 -4.8378 2.3911
-3.6479 -4.9956 2.3911
-3.4812 -5.1487 2.3911
-3.3086 -5.2969 2.3911
-3.1304 -5.4398 2.3911
-2.9467 -5.5774 2.3911
-2.7575 -5.7094 2.3911
-2.5631 -5.8355 2.3911
-2.3635 -5.9556 2.3911
-2.1590 -6.0695 2.3911
-1.9497 -6.1768 2.3911
-1.7357 -6.2774 2.3911
-1.5173 -6.3711 2.3911
-1.2946 -6.4576 2.3911
-1.0679 -6.5367 2.3911
-0.8374 -6.6083 2.3911
-0.6033 -6.6721 2.3911
-0.3659 -6.7279 2.3911
-0.1254 -6.7755 2.3911
0.1178 -6.8147 2.3911
0.3636 -6.8454 2.3911
0.6116 -6.8674 2.3911
0.8615 -6.8805 2.3911
1.1129 -6.8845 2.3911
1.3656 -6.8793 2.3911
1.6192 -6.8648 2.3911
1.8734 -6.8409 2.3911
2.1276 -6.8074 2.3911
2.3817 -6.7642 2.3911
2.6351 -6.7113 2.3911
2.7189 -6.2603 2.2514
2.9385 -6.1570 2.2387
3.1718 -6.0800 2.2387
3.4030 -5.9938 2.2387
3.6316 -5.8983 2.2388
3.8573 -5.7936 2.2388
4.0797 -5.6799 2.2389
4.2984 -5.5572 2.2390
4.5137 -5.4265 2.2395
4.7244 -5.2869 2.2400
4.9301 -5.1385 2.2405
5.1263 -4.9774 2.2392
5.3059 -4.7987 2.2334
5.4721 -4.6076 2.2252
5.6358 -4.4142 2.2191
5.7927 -4.2154 2.2134
5.9480 -4.0143 2.2103
5.8659 -3.6637 2.1241
6.2479 -3.6017 2.2090
6.3887 -3.3878 2.2095
6.5226 -3.1685 2.2106
6.6465 -2.9442 2.2114
6.7597 -2.7120 2.2116
6.8632 -2.4757 2.2119
6.9569 -2.2351 2.2121
7.0405 -1.9905 2.2124
7.1140 -1.7425 2.2126
7.1772 -1.4914 2.2128
7.2298 -1.2377 2.2131
7.2718 -0.9820 2.2134
7.3030 -0.7247 2.2136
7.3235 -0.4663 2.2139
6.2435 -0.1765 1.8852
7.3319 0.0518 2.2144
7.3199 0.3105 2.2147
7.2971 0.5683 2.2150
7.2636 0.8248 2.2152
7.2195 1.0793 2.2155
7.1649 1.3315 2.2158
7.1000 1.5809 2.2160
7.0250 1.8282 2.2163
6.9389 2.0695 2.2162
6.5119 2.1953 2.1089
6.7365 2.5397 2.2156
6.6250 2.7690 2.2165
6.5090 2.9952 2.2189
6.3944 3.2215 2.2249
6.2721 3.4437 2.2314
6.1455 3.6631 2.2395
5.9933 3.8663 2.2413
5.8275 4.0588 2.2409
5.6548 4.2438 2.2404
5.4755 4.4212 2.2399
5.2901 4.5907 2.2394
5.0989 4.7523 2.2389
4.9033 4.9064 2.2388
4.7027 5.0525 2.2387
4.4976 5.1901 2.2387
4.2883 5.3193 2.2387
4.0813 5.4481 2.2420
4.0981 5.8966 2.3776
3.8866 6.0402 2.3911
3.6491 6.1411 2.3911
3.4092 6.2328 2.3911
3.1672 6.3150 2.3911
2.9235 6.3879 2.3911
2.6785 6.4515 2.3911
0.9306 2.4888 0.9147
0.8407 2.5192 0.9195
0.7497 2.5463 0.9243
0.6578 2.5702 0.9291
0.5651 2.5907 0.9340
0.4717 2.6078 0.9389
0.3777 2.6215 0.9437
0.2833 2.6319 0.9486
0.1886 2.6388 0.9535
0.0937 2.6422 0.9583
-0.0013 2.6423 0.9631
-0.0962 2.6389 0.9679
-0.1909 2.6321 0.9726
-0.2854 2.6218 0.9773
-0.3794 2.6082 0.9820
-0.4729 2.5911 0.9866
-0.5656 2.5707 0.9911
-0.6576 2.5470 0.9956
-0.7487 2.5199 1.0000
-0.8387 2.4895 1.0043
-2.1991 5.8223 2.3911
-2.3969 5.7116 2.3911
-2.5901 5.5950 2.3911
-2.7786 5.4724 2.3911
-2.9620 5.3445 2.3911
-3.1405 5.2111 2.3911
-3.3138 5.0725 2.3911
-3.4819 4.9289 2.3911
-3.6445 4.7805 2.3911
-3.8017 4.6274 2.3911
-3.9534 4.4699 2.3911
-4.0994 4.3081 2.3911
-4.2396 4.1422 2.3911
-4.3740 3.9725 2.3911
-4.5026 3.7991 2.3911
-4.6252 3.6221 2.3911
-4.7417 3.4417 2.3911
-4.8522 3.2582 2.3911
-4.9566 3.0717 2.3911
-5.0548 2.8824 2.3911
-5.1467 2.6905 2.3911
-5.2323 2.4961 2.3911
-5.3116 2.2994 2.3911
-5.3846 2.1005 2.3911
-5.4511 1.8998 2.3911
-5.5112 1.6972 2.3911
-5.5649 1.4931 2.3911
-5.6120 1.2875 2.3911
-5.6526 1.0806 2.3911
-5.6867 0.8727 2.3911
-5.7142 0.6638 2.3911
-5.7350 0.4541 2.3911
-5.7493 0.2439 2.3911
-5.7570 0.0333 2.3911
-5.7580 -0.1776 2.3911
-5.7523 -0.3886 2.3911
-5.7400 -0.5994 2.3911
-5.7210 -0.8101 2.3911
-5.6953 -1.0202 2.3911
-5.6630 -1.2298 2.3911
-5.6240 -1.4385 2.3911
-5.5783 -1.6463 2.3911
-5.5259 -1.8529 2.3911
-5.4669 -2.0581 2.3911
-5.4012 -2.2619 2.3911
-5.3289 -2.4640 2.3911
-5.2500 -2.6641 2.3911
-5.1645 -2.8622 2.3911
-5.0724 -3.0580 2.3911
-4.9738 -3.2514 2.3911
-4.8687 -3.4420 2.3911
-4.7571 -3.6299 2.3911
-4.6391 -3.8146 2.3911
-4.5147 -3.9961 2.3911
-4.3840 -4.1742 2.3911
-4.2470 -4.3485 2.3911
-4.1039 -4.5190 2.3911
-3.9546 -4.6857 2.3911
-3.7993 -4.8474 2.3911
-3.6380 -5.0050 2.3911
-3.4709 -5.1578 2.3911
-3.2980 -5.3057 2.3911
-3.1194 -5.4483 2.3911
-2.9354 -5.5856 2.3911
-2.7459 -5.7172 2.3911
-2.5511 -5.8430 2.3911
-2.3513 -5.9627 2.3911
-2.1465 -6.0762 2.3911
-1.9368 -6.1831 2.3911
-1.7226 -6.2833 2.3911
-1.5039 -6.3765 2.3911
-1.2810 -6.4626 2.3911
-1.0540 -6.5413 2.3911
-0.8233 -6.6124 2.3911
-0.5890 -6.6757 2.3911
-0.3514 -6.7310 2.3911
-0.1108 -6.7781 2.3911
0.1327 -6.8169 2.3911
0.3786 -6.8470 2.3911
0.6267 -6.8685 2.3911
0.8767 -6.8810 2.3911
1.1282 -6.8844 2.3911
1.3810 -6.8787 2.3911
1.6346 -6.8636 2.3911
1.8888 -6.8391 2.3911
2.1431 -6.8050 2.3911
2.3971 -6.7613 2.3911
2.6427 -6.6880 2.3840
2.7266 -6.2411 2.2459
2.9527 -6.1526 2.2387
3.1859 -6.0750 2.2387
3.4169 -5.9882 2.2387
3.6454 -5.8922 2.2388
3.8709 -5.7870 2.2388
4.0930 -5.6726 2.2389
4.3115 -5.5495 2.2390
4.5266 -5.4183 2.2395
4.7370 -5.2782 2.2400
4.9425 -5.1292 2.2405
5.1378 -4.9671 2.2390
5.3160 -4.7872 2.2328
5.4822 -4.5961 2.2248
5.6455 -4.4023 2.2187
5.8020 -4.2029 2.2131
5.9574 -4.0021 2.2102
5.8677 -3.6474 2.1216
6.2567 -3.5889 2.2090
6.3971 -3.3747 2.2096
6.5304 -3.1552 2.2107
6.6536 -2.9305 2.2114
6.7662 -2.6978 2.2117
6.8691 -2.4613 2.2119
6.9622 -2.2204 2.2121
7.0453 -1.9756 2.2124
7.1182 -1.7273 2.2126
6.1420 -1.2626 1.8928
7.2326 -1.2223 2.2131
7.2740 -0.9664 2.2134
7.3046 -0.7090 2.2136
7.3244 -0.4506 2.2139
7.3333 -0.1915 2.2142
7.3315 0.0676 2.2144
7.3188 0.3262 2.2147
7.2954 0.5839 2.2150
7.2612 0.8402 2.2152
7.2165 1.0947 2.2155
7.1613 1.3467 2.2158
7.0957 1.5959 2.2161
7.0200 1.8418 2.2163
6.9332 2.0840 2.2162
6.5137 2.2115 2.1113
6.7298 2.5537 2.2156
6.5975 2.7743 2.2097
6.5023 3.0091 2.2193
6.3871 3.2351 2.2252
6.2649 3.4570 2.2319
6.1368 3.6763 2.2397
5.9835 3.8782 2.2413
5.8172 4.0702 2.2409
5.6441 4.2548 2.2404
5.4645 4.4317 2.2399
5.2787 4.6008 2.2394
5.0872 4.7618 2.2389
4.8912 4.9155 2.2388
4.6904 5.0611 2.2387
4.4850 5.1982 2.2387
4.2754 5.3268 2.2387
4.0782 5.4688 2.2475
4.0998 5.9263 2.3868
3.8723 6.0466 2.3911
3.6346 6.1470 2.3911
3.3946 6.2380 2.3911
3.1524 6.3197 2.3911
2.9087 6.3920 2.3911
2.6636 6.4551 2.3911
0.9251 2.4907 0.9150
0.8352 2.5209 0.9198
0.7441 2.5479 0.9246
0.6522 2.5715 0.9294
0.5595 2.5918 0.9343
0.4660 2.6087 0.9392
0.3720 2.6222 0.9440
0.2776 2.6324 0.9489
0.1829 2.6391 0.9537
0.0880 2.6424 0.9586
-0.0070 2.6422 0.9634
-0.1019 2.6386 0.9682
-0.1967 2.6316 0.9729
-0.2911 2.6211 0.9776
-0.3851 2.6072 0.9823
-0.4785 2.5900 0.9869
-0.5712 2.5694 0.9914
-0.6632 2.5454 0.9959
-0.7542 2.5181 1.0003
-0.8442 2.4876 1.0046
-2.2112 5.8158 2.3911
-2.4088 5.7047 2.3911
-2.6017 5.5877 2.3911
-2.7898 5.4649 2.3911
-2.9730 5.3366 2.3911
-3.1512 5.2029 2.3911
-3.3242 5.0640 2.3911
-3.4919 4.9200 2.3911
-3.6542 4.7713 2.3911
-3.8111 4.6180 2.3911
-3.9624 4.4602 2.3911
-4.1080 4.2982 2.3911
-4.2479 4.1321 2.3911
-4.3820 3.9621 2.3911
-4.5102 3.7884 2.3911
-4.6324 3.6112 2.3911
-4.7486 3.4307 2.3911
-4.8587 3.2470 2.3911
-4.9627 3.0603 2.3911
-5.0605 2.8709 2.3911
-5.1520 2.6788 2.3911
-5.2373 2.4842 2.3911
-5.3162 2.2874 2.3911
-5.3888 2.0884 2.3911
-5.4550 1.8876 2.3911
-5.5147 1.6849 2.3911
-5.5679 1.4806 2.3911
-5.6147 1.2750 2.3911
-5.6549 1.0680 2.3911
-5.6885 0.8600 2.3911
-5.7156 0.6511 2.3911
-5.7361 0.4414 2.3911
-5.7500 0.2312 2.3911
-5.7572 0.0205 2.3911
-5.7578 -0.1904 2.3911
-5.7517 -0.4014 2.3911
-5.7390 -0.6122 2.3911
-5.7196 -0.8228 2.3911
-5.6936 -1.0329 2.3911
-5.6608 -1.2424 2.3911
-5.6214 -1.4511 2.3911
-5.5753 -1.6588 2.3911
-5.5225 -1.8654 2.3911
-5.4631 -2.0705 2.3911
-5.3970 -2.2742 2.3911
-5.3243 -2.4761 2.3911
-5.2450 -2.6762 2.3911
-5.1591 -2.8741 2.3911
-5.0666 -3.0698 2.3911
-4.9676 -3.2630 2.3911
-4.8621 -3.4535 2.3911
-4.7501 -3.6412 2.3911
-4.6317 -3.8257 2.3911
-4.5069 -4.0070 2.3911
-4.3759 -4.1848 2.3911
-4.2385 -4.3590 2.3911
-4.0950 -4.5292 2.3911
-3.9453 -4.6954 2.3911
-3.7897 -4.8570 2.3911
-3.6280 -5.0144 2.3911
-3.4605 -5.1669 2.3911
-3.2873 -5.3144 2.3911
-3.1084 -5.4568 2.3911
-2.9240 -5.5937 2.3911
-2.7342 -5.7250 2.3911
-2.5392 -5.8504 2.3911
-2.3390 -5.9698 2.3911
-2.1339 -6.0828 2.3911
-1.9240 -6.1894 2.3911
-1.7094 -6.2891 2.3911
-2.0232 -5.6713 2.3911
-1.8271 -5.7702 2.3911
-1.6267 -5.8628 2.3911
-1.4223 -5.9489 2.3911
-1.2141 -6.0282 2.3911
-1.0022 -6.1005 2.3911
-0.7868 -6.1657 2.3911
-0.5683 -6.2237 2.3911
-0.3468 -6.2740 2.3911
-0.1225 -6.3168 2.3911
0.1042 -6.3517 2.3911
0.3331 -6.3785 2.3911
0.5639 -6.3972 2.3911
0.7963 -6.4077 2.3911
1.0301 -6.4097 2.3911
1.2649 -6.4031 2.3911
1.5003 -6.3879 2.3911
1.7361 -6.3639 2.3911
1.9719 -6.3311 2.3911
2.2074 -6.2894 2.3911
2.4422 -6.2386 2.3911
2.6758 -6.1788 2.3911
2.7649 -5.8091 2.2733
2.9384 -5.6476 2.2387
3.1520 -5.5662 2.2387
3.3632 -5.4764 2.2387
3.5716 -5.3782 2.2388
3.7768 -5.2715 2.2388
3.9784 -5.1566 2.2388
4.1760 -5.0335 2.2389
4.3695 -4.9026 2.2390
4.5589 -4.7643 2.2395
4.7433 -4.6181 2.2399
4.9222 -4.4642 2.2403
5.0953 -4.3028 2.2407
5.2563 -4.1295 2.2386
5.4030 -3.9441 2.2334
5.5384 -3.7504 2.2267
5.6706 -3.5543 2.2219
5.7961 -3.3539 2.2176
5.9141 -3.1489 2.2136
6.0291 -2.9418 2.2116
6.1385 -2.7312 2.2107
6.2404 -2.5167 2.2101
6.3358 -2.2987 2.2104
6.4223 -2.0768 2.2106
6.5001 -1.8513 2.2111
6.5692 -1.6228 2.2117
6.6286 -1.3913 2.2122
6.6782 -1.1572 2.2127
6.7179 -0.9214 2.2131
6.7475 -0.6840 2.2135
6.7671 -0.4452 2.2137
6.2420 -0.1904 2.0393
6.7758 0.0324 2.2140
6.7650 0.2712 2.2141
6.7441 0.5091 2.2140
6.7132 0.7458 2.2139
6.6732 0.9808 2.2139
6.6241 1.2138 2.2142
6.5655 1.4443 2.2144
6.5009 1.6730 2.2157
6.4274 1.8981 2.2171
6.3524 2.1226 2.2212
6.2698 2.3443 2.2258
6.1798 2.5632 2.2309
6.0871 2.7805 2.2383
5.9741 2.9885 2.2413
5.8445 3.1869 2.2411
5.7070 3.3791 2.2407
5.5624 3.5651 2.2403
5.4110 3.7447 2.2399
5.2531 3.9175 2.2395
5.0890 4.0835 2.2390
4.9197 4.2428 2.2388
4.7453 4.3952 2.2388
4.5658 4.5401 2.2387
4.3816 4.6775 2.2387
4.1929 4.8072 2.2387
4.0175 4.9507 2.2483
4.0355 5.3506 2.3750
3.8495 5.5003 2.3911
3.6330 5.6052 2.3911
3.4136 5.7015 2.3911
3.1918 5.7892 2.3911
2.9679 5.8683 2.3911
2.7422 5.9387 2.3911
0.9590 2.2879 0.9117
0.8763 2.3195 0.9161
0.7925 2.3480 0.9206
0.7077 2.3735 0.9251
0.6220 2.3959 0.9296
0.5356 2.4152 0.9341
0.4485 2.4313 0.9387
0.3609 2.4443 0.9432
0.2728 2.4541 0.9477
0.1845 2.4608 0.9523
0.0960 2.4642 0.9568
0.0074 2.4644 0.9613
-0.0812 2.4615 0.9657
-0.1696 2.4553 0.9702
-0.2577 2.4459 0.9746
-0.3454 2.4334 0.9789
-0.4326 2.4177 0.9832
-0.5192 2.3988 0.9874
-0.6051 2.3768 0.9916
-0.6901 2.3518 0.9957
-0.7741 2.3236 0.9998
-0.8571 2.2925 1.0037
-2.2280 5.3591 2.3911
-2.4100 5.2515 2.3911
-2.5876 5.1382 2.3911
-2.7606 5.0197 2.3911
-2.9290 4.8960 2.3911
-3.0926 4.7673 2.3911
-3.2514 4.6338 2.3911
-3.4051 4.4957 2.3911
-3.5537 4.3531 2.3911
-3.6971 4.2063 2.3911
-3.8353 4.0553 2.3911
-3.9680 3.9004 2.3911
-4.0954 3.7417 2.3911
-4.2172 3.5795 2.3911
-4.3334 3.4139 2.3911
-4.4439 3.2450 2.3911
-4.5487 3.0731 2.3911
-4.6477 2.8983 2.3911
-4.7409 2.7207 2.3911
-4.8282 2.5406 2.3911
-4.9096 2.3581 2.3911
-4.9850 2.1734 2.3911
-5.0543 1.9866 2.3911
-5.1176 1.7980 2.3911
-5.1748 1.6076 2.3911
-5.2259 1.4157 2.3911
-5.2708 1.2224 2.3911
-5.3095 1.0278 2.3911
-5.3420 0.8322 2.3911
-5.3683 0.6357 2.3911
-5.3883 0.4385 2.3911
-5.4020 0.2407 2.3911
-5.4095 0.0425 2.3911
-5.4106 -0.1559 2.3911
-5.4055 -0.3544 2.3911
-5.3940 -0.5527 2.3911
-5.3762 -0.7509 2.3911
-5.3520 -0.9485 2.3911
-5.3216 -1.1456 2.3911
-5.2848 -1.3419 2.3911
-5.2417 -1.5372 2.3911
-5.1922 -1.7314 2.3911
-5.1365 -1.9243 2.3911
-5.0745 -2.1157 2.3911
-5.0062 -2.3054 2.3911
-4.9317 -2.4933 2.3911
-4.8509 -2.6792 2.3911
-4.7640 -2.8629 2.3911
-4.6709 -3.0442 2.3911
-4.5717 -3.2229 2.3911
-4.4664 -3.3989 2.3911
-4.3551 -3.5719 2.3911
-4.2378 -3.7417 2.3911
-4.1145 -3.9065 2.3911
-3.9854 -4.0712 2.3911
-3.8506 -4.2304 2.3911
-3.7100 -4.3858 2.3911
-3.5638 -4.5368 2.3911
-3.4120 -4.6836 2.3911
-3.2548 -4.8259 2.3911
-3.0922 -4.9634 2.3911
-2.9245 -5.0960 2.3911
-2.7516 -5.2234 2.3911
-2.5737 -5.3455 2.3911
-2.3909 -5.4620 2.3911
-2.2035 -5.5727 2.3911
-2.0115 -5.6774 2.3911
-1.8151 -5.7760 2.3911
-1.6145 -5.8682 2.3911
-1.4098 -5.9539 2.3911
-1.2013 -6.0327 2.3911
-0.9892 -6.1047 2.3911
-0.7737 -6.1694 2.3911
-0.5549 -6.2268 2.3911
-0.3333 -6.2768 2.3911
-0.1089 -6.3191 2.3911
0.1180 -6.3535 2.3911
0.3470 -6.3799 2.3911
0.5779 -6.3981 2.3911
0.8105 -6.4080 2.3911
1.0443 -6.4095 2.3911
1.2791 -6.4024 2.3911
1.5146 -6.3867 2.3911
1.7504 -6.3622 2.3911
1.9862 -6.3288 2.3911
2.2217 -6.2866 2.3911
2.4564 -6.2352 2.3911
2.6900 -6.1749 2.3911
2.7690 -5.7858 2.2658
2.9540 -5.6478 2.2406
3.1649 -5.5610 2.2387
3.3760 -5.4707 2.2387
3.5841 -5.3719 2.2388
3.7891 -5.2648 2.2388
3.9905 -5.1494 2.2388
4.1878 -5.0258 2.2389
4.3811 -4.8944 2.2391
4.5703 -4.7556 2.2395
4.7543 -4.6090 2.2399
4.9329 -4.4547 2.2404
5.1056 -4.2928 2.2408
5.2658 -4.1187 2.2384
5.4113 -3.9324 2.2329
5.5466 -3.7386 2.2264
5.6784 -3.5423 2.2216
5.8034 -3.3416 2.2173
5.9210 -3.1365 2.2134
6.0360 -2.9292 2.2116
6.1449 -2.7184 2.2106
6.2464 -2.5036 2.2101
6.3413 -2.2854 2.2104
6.4272 -2.0632 2.2107
6.5045 -1.8375 2.2111
6.5730 -1.6088 2.2117
6.6319 -1.3772 2.2123
6.6809 -1.1430 2.2128
6.7199 -0.9071 2.2132
6.7490 -0.6694 2.2135
6.7680 -0.4308 2.2137
6.2435 -0.1771 2.0397
6.7755 0.0472 2.2140
6.7640 0.2859 2.2141
6.7425 0.5235 2.2140
6.7110 0.7601 2.2139
6.6705 0.9949 2.2139
6.6208 1.2279 2.2142
6.5617 1.4584 2.2144
6.4967 1.6867 2.2158
6.4227 1.9117 2.2172
6.3476 2.1360 2.2215
6.2645 2.3576 2.2261
6.1743 2.5759 2.2313
6.0812 2.7939 2.2387
5.9668 3.0009 2.2414
5.8364 3.1987 2.2411
5.6984 3.3905 2.2407
5.5534 3.5762 2.2403
5.4016 3.7554 2.2399
5.2433 3.9278 2.2394
5.0789 4.0933 2.2390
4.9093 4.2522 2.2388
4.7346 4.4041 2.2388
4.5548 4.5486 2.2387
4.3702 4.6856 2.2387
4.1813 4.8149 2.2387
4.0145 4.9688 2.2533
4.0369 5.3766 2.3834
3.8364 5.5069 2.3911
3.6197 5.6113 2.3911
3.4002 5.7071 2.3911
3.1783 5.7943 2.3911
2.9542 5.8728 2.3911
2.7285 5.9427 2.3911
0.9540 2.2899 0.9120
0.8712 2.3213 0.9164
0.7874 2.3496 0.9209
0.7025 2.3749 0.9254
0.6168 2.3971 0.9299
0.5303 2.4162 0.9344
0.4432 2.4322 0.9389
0.3555 2.4450 0.9435
0.2675 2.4546 0.9480
0.1791 2.4611 0.9525
0.0906 2.4643 0.9571
0.0020 2.4643 0.9615
-0.0865 2.4612 0.9660
-0.1749 2.4548 0.9704
-0.2630 2.4452 0.9748
-0.3507 2.4325 0.9792
-0.4379 2.4166 0.9835
-0.5244 2.3976 0.9877
-0.6103 2.3754 0.9919
-0.6952 2.3501 0.9960
-0.7792 2.3218 1.0000
-0.8621 2.2905 1.0040
-2.2391 5.3528 2.3911
-2.4209 5.2447 2.3911
-2.5982 5.1312 2.3911
-2.7710 5.0123 2.3911
-2.9391 4.8883 2.3911
-3.1024 4.7594 2.3911
-3.2608 4.6256 2.3911
-3.4142 4.4872 2.3911
-3.5625 4.3443 2.3911
-3.7057 4.1972 2.3911
-3.8435 4.0460 2.3911
-3.9759 3.8909 2.3911
-4.1029 3.7320 2.3911
-4.2244 3.5696 2.3911
-4.3402 3.4037 2.3911
-4.4504 3.2347 2.3911
-4.5549 3.0626 2.3911
-4.6535 2.8876 2.3911
-4.7464 2.7099 2.3911
-4.8333 2.5296 2.3911
-4.9143 2.3470 2.3911
-4.9893 2.1621 2.3911
-5.0583 1.9753 2.3911
-5.1213 1.7865 2.3911
-5.1781 1.5960 2.3911
-5.2288 1.4040 2.3911
-5.2733 1.2106 2.3911
-5.3116 1.0160 2.3911
-5.3438 0.8203 2.3911
-5.3697 0.6238 2.3911
-5.3893 0.4265 2.3911
-5.4027 0.2287 2.3911
-5.4097 0.0305 2.3911
-5.4105 -0.1679 2.3911
-5.4049 -0.3664 2.3911
-5.3931 -0.5648 2.3911
-5.3749 -0.7629 2.3911
-5.3504 -0.9605 2.3911
-5.3195 -1.1575 2.3911
-5.2823 -1.3537 2.3911
-5.2388 -1.5490 2.3911
-5.1890 -1.7431 2.3911
-5.1329 -1.9359 2.3911
-5.0705 -2.1272 2.3911
-5.0019 -2.3169 2.3911
-4.9270 -2.5047 2.3911
-4.8458 -2.6904 2.3911
-4.7585 -2.8740 2.3911
-4.6651 -3.0551 2.3911
-4.5655 -3.2337 2.3911
-4.4598 -3.4094 2.3911
-4.3481 -3.5823 2.3911
-4.2304 -3.7519 2.3911
-4.1069 -3.9180 2.3911
-3.9774 -4.0810 2.3911
-3.8422 -4.2399 2.3911
-3.7013 -4.3949 2.3911
-3.5547 -4.5459 2.3911
-3.4026 -4.6925 2.3911
-3.2451 -4.8343 2.3911
-3.0822 -4.9716 2.3911
-2.9141 -5.1038 2.3911
-2.7409 -5.2309 2.3911
-2.5627 -5.3527 2.3911
-2.3797 -5.4688 2.3911
-2.1920 -5.5792 2.3911
-1.9997 -5.6836 2.3911
-1.8030 -5.7818 2.3911
-1.6022 -5.8736 2.3911
-1.3973 -5.9589 2.3911
-1.1886 -6.0373 2.3911
-0.9762 -6.1088 2.3911
-0.7605 -6.1732 2.3911
-0.5416 -6.2301 2.3911
-0.3197 -6.2796 2.3911
-0.0952 -6.3214 2.3911
0.1318 -6.3553 2.3911
0.3610 -6.3812 2.3911
0.5920 -6.3989 2.3911
0.8246 -6.4084 2.3911
1.0585 -6.4093 2.3911
1.2934 -6.4017 2.3911
1.5289 -6.3855 2.3911
1.7647 -6.3604 2.3911
2.0005 -6.3265 2.3911
2.2359 -6.2837 2.3911
2.4706 -6.2318 2.3911
2.7020 -6.1662 2.3892
2.7731 -5.7622 2.2583
2.9644 -5.6382 2.2387
3.1778 -5.5558 2.2387
3.3887 -5.4650 2.2387
3.5967 -5.3657 2.2388
3.8014 -5.2580 2.2388
4.0025 -5.1421 2.2388
4.1997 -5.0180 2.2389
4.3927 -4.8862 2.2391
4.5816 -4.7470 2.2395
4.7653 -4.5999 2.2400
4.9435 -4.4451 2.2404
5.1159 -4.2828 2.2408
5.2752 -4.1077 2.2383
5.4197 -3.9208 2.2325
5.5548 -3.7268 2.2261
5.6862 -3.5303 2.2213
5.8108 -3.3292 2.2171
5.9279 -3.1236 2.2131
6.0428 -2.9165 2.2115
6.1512 -2.7055 2.2105
6.2524 -2.4905 2.2101
6.3468 -2.2720 2.2104
6.4322 -2.0495 2.2107
6.5090 -1.8238 2.2111
6.5769 -1.5949 2.2118
6.6351 -1.3631 2.2123
6.6835 -1.1286 2.2128
6.7220 -0.8925 2.2132
6.7504 -0.6551 2.2135
6.7687 -0.4168 2.2138
6.7770 -0.1776 2.2139
6.7751 0.0617 2.2140
6.7630 0.3001 2.2141
6.7409 0.5379 2.2140
6.7088 0.7744 2.2139
6.6677 1.0094 2.2140
6.6175 1.2419 2.2142
6.5580 1.4719 2.2145
6.4924 1.7002 2.2159
6.4183 1.9253 2.2174
6.3428 2.1497 2.2217
6.2592 2.3709 2.2264
6.1689 2.5894 2.2318
6.0745 2.8067 2.2389
5.9591 3.0131 2.2414
5.8282 3.2105 2.2411
5.6899 3.4020 2.2407
5.5444 3.5872 2.2403
5.3922 3.7660 2.2398
5.2335 3.9380 2.2394
5.0687 4.1031 2.2390
4.8988 4.2616 2.2388
4.7238 4.4131 2.2388
4.5437 4.5572 2.2387
4.3589 4.6936 2.2387
4.1697 4.8225 2.2387
4.0154 4.9920 2.2605
4.0371 5.4010 2.3911
3.8234 5.5135 2.3911
3.6065 5.6173 2.3911
3.3868 5.7126 2.3911
3.1648 5.7992 2.3911
2.9406 5.8773 2.3911
2.7148 5.9467 2.3911
0.9490 2.2919 0.9122
0.8662 2.3231 0.9167
0.7822 2.3512 0.9211
0.6973 2.3763 0.9256
0.6116 2.3984 0.9302
0.5250 2.4173 0.9347
0.4379 2.4331 0.9392
0.3502 2.4457 0.9438
0.2621 2.4551 0.9483
0.1738 2.4614 0.9528
0.0852 2.4644 0.9573
-0.0034 2.4642 0.9618
-0.0919 2.4609 0.9663
-0.1803 2.4543 0.9707
-0.2684 2.4446 0.9751
-0.3560 2.4316 0.9794
-0.4432 2.4155 0.9837
-0.5297 2.3963 0.9880
-0.6154 2.3740 0.9921
-0.7003 2.3485 0.9962
-0.7843 2.3200 1.0003
-2.0646 5.4490 2.3911
-2.2503 5.3464 2.3911
-2.4317 5.2380 2.3911
-2.6088 5.1241 2.3911
-2.7813 5.0050 2.3911
-2.9491 4.8807 2.3911
-3.1121 4.7514 2.3911
-3.2703 4.6173 2.3911
-3.4234 4.4786 2.3911
-3.5714 4.3355 2.3911
-3.7142 4.1882 2.3911
-3.8517 4.0367 2.3911
-3.9838 3.8813 2.3911
-4.1104 3.7223 2.3911
-4.2315 3.5596 2.3911
-4.3471 3.3936 2.3911
-4.4569 3.2243 2.3911
-4.5610 3.0521 2.3911
-4.6593 2.8769 2.3911
-4.7518 2.6990 2.3911
-4.8384 2.5186 2.3911
-4.9190 2.3358 2.3911
-4.9937 2.1509 2.3911
-5.0623 1.9639 2.3911
-5.1249 1.7750 2.3911
-5.1813 1.5844 2.3911
-5.2317 1.3923 2.3911
-5.2758 1.1989 2.3911
-5.3138 1.0042 2.3911
-5.3455 0.8085 2.3911
-5.3710 0.6119 2.3911
-5.3903 0.4146 2.3911
-5.4033 0.2167 2.3911
-5.4100 0.0185 2.3911
-5.4103 -0.1799 2.3911
-5.4044 -0.3784 2.3911
-5.3922 -0.5768 2.3911
-5.3736 -0.7749 2.3911
-5.3487 -0.9725 2.3911
-5.3174 -1.1694 2.3911
-5.2799 -1.3656 2.3911
-5.2360 -1.5608 2.3911
-5.1858 -1.7549 2.3911
-5.1293 -1.9476 2.3911
-5.0665 -2.1388 2.3911
-4.9975 -2.3283 2.3911
-4.9222 -2.5160 2.3911
-4.8407 -2.7016 2.3911
-4.7530 -2.8850 2.3911
-4.6592 -3.0660 2.3911
-4.5592 -3.2444 2.3911
-4.4532 -3.4200 2.3911
-4.3412 -3.5926 2.3911
-4.2231 -3.7621 2.3911
-4.0992 -3.9285 2.3911
-3.9694 -4.0910 2.3911
-3.8338 -4.2493 2.3911
-3.6926 -4.4042 2.3911
-3.5457 -4.5548 2.3911
-3.3932 -4.7011 2.3911
-3.2354 -4.8428 2.3911
-3.0722 -4.9797 2.3911
-2.9038 -5.1117 2.3911
-2.7302 -5.2385 2.3911
-2.5518 -5.3599 2.3911
-2.3684 -5.4757 2.3911
-2.1804 -5.5857 2.3911
-1.9879 -5.6897 2.3911
-1.7910 -5.7875 2.3911
-1.5899 -5.8790 2.3911
-1.8908 -5.3217 2.3911
-1.7063 -5.4131 2.3911
-1.5179 -5.4984 2.3911
-1.3258 -5.5775 2.3911
-1.1302 -5.6502 2.3911
-0.9313 -5.7163 2.3911
-0.7293 -5.7758 2.3911
-0.5245 -5.8282 2.3911
-0.3169 -5.8736 2.3911
-0.1070 -5.9118 2.3911
0.1052 -5.9426 2.3911
0.3193 -5.9659 2.3911
0.5350 -5.9816 2.3911
0.7521 -5.9895 2.3911
0.9703 -5.9895 2.3911
1.1893 -5.9815 2.3911
1.4089 -5.9655 2.3911
1.6286 -5.9412 2.3911
1.8481 -5.9088 2.3911
2.0673 -5.8680 2.3911
2.2856 -5.8188 2.3911
2.5028 -5.7614 2.3911
2.7185 -5.6955 2.3911
2.8103 -5.3871 2.2914
2.9437 -5.1856 2.2387
3.1396 -5.1005 2.2387
3.3327 -5.0076 2.2387
3.5227 -4.9070 2.2387
3.7094 -4.7987 2.2388
3.8923 -4.6829 2.2388
4.0710 -4.5597 2.2388
4.2454 -4.4292 2.2389
4.4152 -4.2918 2.2390
4.5803 -4.1478 2.2394
4.7401 -3.9970 2.2398
4.8940 -3.8395 2.2401
5.0419 -3.6756 2.2405
5.1834 -3.5054 2.2408
5.3141 -3.3268 2.2394
5.4355 -3.1415 2.2370
5.5420 -2.9473 2.2317
5.6425 -2.7501 2.2272
5.7381 -2.5508 2.2240
5.8268 -2.3475 2.2212
5.9081 -2.1415 2.2188
5.9818 -1.9326 2.2168
6.0478 -1.7211 2.2150
6.1065 -1.5074 2.2138
6.1592 -1.2920 2.2136
6.2034 -1.0747 2.2135
6.2390 -0.8557 2.2135
6.2659 -0.6355 2.2136
6.2841 -0.4143 2.2139
6.2419 -0.1911 2.1961
6.2942 0.0292 2.2147
6.2862 0.2508 2.2153
6.2706 0.4718 2.2165
6.2484 0.6923 2.2185
6.2182 0.9119 2.2209
6.1801 1.1301 2.2236
6.1340 1.3471 2.2266
6.0804 1.5616 2.2301
6.0224 1.7752 2.2352
5.9533 1.9857 2.2393
5.8703 2.1910 2.2414
5.7731 2.3901 2.2411
5.6683 2.5847 2.2408
5.5560 2.7745 2.2405
5.4364 2.9591 2.2401
5.3100 3.1384 2.2398
5.1769 3.3121 2.2394
5.0374 3.4798 2.2390
4.8923 3.6418 2.2388
4.7419 3.7978 2.2388
4.5859 3.9473 2.2388
4.4248 4.0902 2.2387
4.2589 4.2263 2.2387
4.0885 4.3555 2.2387
3.9612 4.5319 2.2657
3.9808 4.8944 2.3857
3.7954 5.0206 2.3911
3.5976 5.1279 2.3911
3.3967 5.2273 2.3911
3.1930 5.3188 2.3911
2.9870 5.4023 2.3911
2.7788 5.4778 2.3911
2.5689 5.5452 2.3911
0.9007 2.1413 0.9135
0.8233 2.1708 0.9176
0.7448 2.1975 0.9218
0.6654 2.2213 0.9260
0.5852 2.2422 0.9303
0.5043 2.2603 0.9345
0.4228 2.2754 0.9388
0.3408 2.2875 0.9430
0.2584 2.2967 0.9473
0.1757 2.3029 0.9515
0.0928 2.3061 0.9557
0.0099 2.3063 0.9599
-0.0730 2.3036 0.9641
-0.1557 2.2978 0.9682
-0.2382 2.2890 0.9724
-0.3203 2.2773 0.9764
-0.4019 2.2626 0.9804
-0.4830 2.2449 0.9844
-0.5633 2.2243 0.9883
-0.6429 2.2009 0.9922
-0.7216 2.1746 0.9959
-0.7992 2.1454 0.9997
-2.0872 5.0369 2.3911
-2.2588 4.9368 2.3911
-2.4263 4.8315 2.3911
-2.5897 4.7210 2.3911
-2.7487 4.6056 2.3911
-2.9032 4.4854 2.3911
-3.0532 4.3607 2.3911
-3.1985 4.2314 2.3911
-3.3390 4.0979 2.3911
-3.4747 3.9603 2.3911
-3.6054 3.8188 2.3911
-3.7310 3.6735 2.3911
-3.8515 3.5245 2.3911
-3.9669 3.3722 2.3911
-4.0769 3.2165 2.3911
-4.1816 3.0577 2.3911
-4.2809 2.8960 2.3911
-4.3747 2.7315 2.3911
-4.4630 2.5644 2.3911
-4.5457 2.3948 2.3911
-4.6229 2.2229 2.3911
-4.6943 2.0489 2.3911
-4.7600 1.8729 2.3911
-4.8200 1.6951 2.3911
-4.8742 1.5156 2.3911
-4.9226 1.3346 2.3911
-4.9651 1.1523 2.3911
-5.0017 0.9688 2.3911
-5.0324 0.7843 2.3911
-5.0573 0.5989 2.3911
-5.0761 0.4129 2.3911
-5.0890 0.2263 2.3911
-5.0959 0.0394 2.3911
-5.0969 -0.1478 2.3911
-5.0918 -0.3350 2.3911
-5.0808 -0.5221 2.3911
-5.0637 -0.7089 2.3911
-5.0406 -0.8953 2.3911
-5.0115 -1.0811 2.3911
-4.9764 -1.2661 2.3911
-4.9353 -1.4501 2.3911
-4.8882 -1.6331 2.3911
-4.8352 -1.8147 2.3911
-4.7762 -1.9949 2.3911
-4.7112 -2.1735 2.3911
-4.6404 -2.3503 2.3911
-4.5636 -2.5252 2.3911
-4.4811 -2.6978 2.3911
-4.3927 -2.8682 2.3911
-4.2985 -3.0361 2.3911
-4.1986 -3.2012 2.3911
-4.0931 -3.3635 2.3911
-3.9819 -3.5228 2.3911
-3.8651 -3.6787 2.3911
-3.7429 -3.8314 2.3911
-3.6152 -3.9805 2.3911
-3.4822 -4.1256 2.3911
-3.3439 -4.2669 2.3911
-3.2005 -4.4039 2.3911
-3.0519 -4.5366 2.3911
-2.8984 -4.6648 2.3911
-2.7401 -4.7882 2.3911
-2.5770 -4.9066 2.3911
-2.4092 -5.0200 2.3911
-2.2370 -5.1280 2.3911
-2.0605 -5.2306 2.3911
-1.8798 -5.3274 2.3911
-1.6950 -5.4184 2.3911
-1.5064 -5.5034 2.3911
-1.3141 -5.5821 2.3911
-1.1183 -5.6544 2.3911
-0.9192 -5.7201 2.3911
-0.7170 -5.7791 2.3911
-0.5120 -5.8311 2.3911
-0.3043 -5.8761 2.3911
-0.0941 -5.9138 2.3911
0.1181 -5.9443 2.3911
0.3323 -5.9671 2.3911
0.5481 -5.9823 2.3911
0.7653 -5.9897 2.3911
0.9836 -5.9892 2.3911
1.2026 -5.9808 2.3911
1.4222 -5.9642 2.3911
1.6419 -5.9395 2.3911
1.8614 -5.9065 2.3911
2.0805 -5.8653 2.3911
2.2988 -5.8157 2.3911
2.5159 -5.7577 2.3911
2.7316 -5.6913 2.3911
2.8140 -5.3661 2.2844
2.9557 -5.1807 2.2387
3.1513 -5.0950 2.2387
3.3443 -5.0017 2.2387
3.5342 -4.9006 2.2387
3.7206 -4.7919 2.2388
3.9032 -4.6757 2.2388
4.0817 -4.5520 2.2388
4.2558 -4.4210 2.2389
4.4253 -4.2833 2.2391
4.5902 -4.1389 2.2394
4.7496 -3.9877 2.2398
4.9032 -3.8298 2.2402
5.0507 -3.6654 2.2405
5.1918 -3.4949 2.2408
5.3217 -3.3157 2.2392
5.4421 -3.1298 2.2367
5.5482 -2.9354 2.2314
5.6485 -2.7381 2.2270
5.7437 -2.5383 2.2238
5.8319 -2.3351 2.2211
5.9128 -2.1289 2.2187
5.9860 -1.9199 2.2166
6.0515 -1.7081 2.2149
6.1099 -1.4944 2.2138
6.1621 -1.2789 2.2136
6.2058 -1.0615 2.2135
6.2409 -0.8424 2.2135
6.2673 -0.6221 2.2136
6.2850 -0.4009 2.2139
6.2434 -0.1778 2.1965
6.2940 0.0426 2.2148
6.2854 0.2642 2.2154
6.2694 0.4851 2.2166
6.2468 0.7056 2.2186
6.2162 0.9251 2.2210
6.1775 1.1432 2.2237
6.1310 1.3598 2.2268
6.0769 1.5745 2.2303
6.0187 1.7881 2.2355
5.9485 1.9984 2.2394
5.8646 2.2032 2.2413
5.7670 2.4020 2.2411
5.6617 2.5963 2.2408
5.5489 2.7858 2.2404
5.4290 2.9702 2.2401
5.3021 3.1491 2.2397
5.1686 3.3224 2.2394
5.0288 3.4898 2.2390
4.8834 3.6514 2.2388
4.7326 3.8070 2.2388
4.5763 3.9561 2.2387
4.4149 4.0986 2.2387
4.2487 4.2343 2.2387
4.0780 4.3631 2.2387
3.9624 4.5531 2.2726
3.9781 4.9126 2.3911
3.7835 5.0273 2.3911
3.5855 5.1342 2.3911
3.3844 5.2331 2.3911
3.1806 5.3241 2.3911
2.9744 5.4071 2.3911
2.7661 5.4821 2.3911
0.9724 2.1110 0.9096
0.8960 2.1431 0.9137
0.8185 2.1725 0.9179
0.7400 2.1990 0.9221
0.6606 2.2226 0.9263
0.5803 2.2434 0.9305
0.4994 2.2613 0.9348
0.4178 2.2762 0.9390
0.3358 2.2882 0.9433
0.2534 2.2972 0.9475
0.1707 2.3032 0.9517
0.0878 2.3062 0.9560
0.0049 2.3063 0.9602
-0.0780 2.3033 0.9643
-0.1607 2.2973 0.9685
-0.2432 2.2884 0.9726
-0.3252 2.2765 0.9767
-0.4068 2.2616 0.9807
-0.4879 2.2437 0.9846
-0.5682 2.2230 0.9886
-0.6477 2.1994 0.9924
-0.7263 2.1729 0.9962
-0.8039 2.1436 0.9999
-2.0977 5.0310 2.3911
-2.2691 4.9306 2.3911
-2.4363 4.8249 2.3911
-2.5994 4.7142 2.3911
-2.7581 4.5985 2.3911
-2.9124 4.4780 2.3911
-3.0621 4.3529 2.3911
-3.2071 4.2235 2.3911
-3.3474 4.0897 2.3911
-3.4827 3.9519 2.3911
-3.6131 3.8101 2.3911
-3.7385 3.6645 2.3911
-3.8587 3.5154 2.3911
-3.9737 3.3628 2.3911
-4.0834 3.2070 2.3911
-4.1878 3.0480 2.3911
-4.2867 2.8861 2.3911
-4.3802 2.7215 2.3911
-4.4682 2.5542 2.3911
-4.5506 2.3844 2.3911
-4.6273 2.2124 2.3911
-4.6984 2.0383 2.3911
-4.7638 1.8622 2.3911
-4.8234 1.6842 2.3911
-4.8773 1.5047 2.3911
-4.9253 1.3236 2.3911
-4.9675 1.1412 2.3911
-5.0037 0.9577 2.3911
-5.0341 0.7731 2.3911
-5.0586 0.5877 2.3911
-5.0771 0.4016 2.3911
-5.0896 0.2150 2.3911
-5.0962 0.0280 2.3911
-5.0967 -0.1591 2.3911
-5.0913 -0.3464 2.3911
-5.0799 -0.5334 2.3911
-5.0624 -0.7202 2.3911
-5.0390 -0.9066 2.3911
-5.0095 -1.0923 2.3911
-4.9741 -1.2773 2.3911
-4.9326 -1.4612 2.3911
-4.8852 -1.6441 2.3911
-4.8318 -1.8257 2.3911
-4.7724 -2.0058 2.3911
-4.7071 -2.1843 2.3911
-4.6359 -2.3610 2.3911
-4.5588 -2.5357 2.3911
-4.4759 -2.7082 2.3911
-4.3871 -2.8785 2.3911
-4.2926 -3.0461 2.3911
-4.1924 -3.2111 2.3911
-4.0865 -3.3733 2.3911
-3.9749 -3.5323 2.3911
-3.8579 -3.6880 2.3911
-3.7353 -3.8406 2.3911
-3.6073 -3.9892 2.3911
-3.4740 -4.1344 2.3911
-3.3354 -4.2753 2.3911
-3.1916 -4.4121 2.3911
-3.0428 -4.5445 2.3911
-2.8890 -4.6724 2.3911
-2.7303 -4.7955 2.3911
-2.5669 -4.9136 2.3911
-2.3989 -5.0267 2.3911
-2.2265 -5.1344 2.3911
-2.0497 -5.2366 2.3911
-1.8687 -5.3331 2.3911
-1.6837 -5.4238 2.3911
-1.4948 -5.5083 2.3911
-1.3023 -5.5867 2.3911
-1.1063 -5.6586 2.3911
-0.9070 -5.7239 2.3911
-0.7047 -5.7825 2.3911
-0.4994 -5.8341 2.3911
-0.2916 -5.8786 2.3911
-0.0813 -5.9159 2.3911
0.1311 -5.9458 2.3911
0.3454 -5.9682 2.3911
0.5613 -5.9829 2.3911
0.7785 -5.9899 2.3911
0.9968 -5.9889 2.3911
1.2159 -5.9800 2.3911
1.4355 -5.9630 2.3911
1.6552 -5.9377 2.3911
1.8748 -5.9043 2.3911
2.0938 -5.8625 2.3911
2.3120 -5.8124 2.3911
2.5291 -5.7539 2.3911
2.7446 -5.6870 2.3911
2.8177 -5.3452 2.2775
2.9676 -5.1757 2.2387
3.1631 -5.0896 2.2387
3.3559 -4.9958 2.2387
3.5456 -4.8942 2.2387
3.7318 -4.7851 2.2388
3.9142 -4.6684 2.2388
4.0924 -4.5443 2.2388
4.2662 -4.4129 2.2389
4.4355 -4.2747 2.2391
4.6000 -4.1299 2.2395
4.7590 -3.9783 2.2398
4.9123 -3.8200 2.2402
5.0594 -3.6553 2.2405
5.2001 -3.4844 2.2408
5.3293 -3.3046 2.2391
5.4487 -3.1181 2.2364
5.5544 -2.9238 2.2311
5.6544 -2.7261 2.2268
5.7492 -2.5260 2.2236
5.8370 -2.3227 2.2209
5.9174 -2.1163 2.2186
5.9902 -1.9071 2.2165
6.0553 -1.6953 2.2148
6.1133 -1.4814 2.2138
6.1650 -1.2658 2.2136
6.2082 -1.0482 2.2135
6.2427 -0.8291 2.2135
6.2686 -0.6087 2.2137
6.2857 -0.3875 2.2139
6.2941 -0.1658 2.2143
6.2937 0.0560 2.2148
6.2846 0.2776 2.2154
6.2683 0.4987 2.2167
6.2452 0.7187 2.2188
6.2140 0.9384 2.2212
6.1749 1.1564 2.2239
6.1279 1.3728 2.2270
6.0736 1.5872 2.2306
6.0149 1.8010 2.2358
5.9437 2.0111 2.2396
5.8589 2.2154 2.2413
5.7608 2.4139 2.2410
5.6550 2.6080 2.2407
5.5418 2.7971 2.2404
5.4215 2.9812 2.2401
5.2942 3.1598 2.2397
5.1603 3.3327 2.2394
5.0201 3.4998 2.2390
4.8744 3.6610 2.2388
4.7232 3.8162 2.2388
4.5667 3.9650 2.2387
4.4050 4.1071 2.2387
4.2385 4.2424 2.2387
4.0675 4.3707 2.2387
3.9636 4.5743 2.2795
3.9664 4.9198 2.3911
3.7716 5.0340 2.3911
3.5734 5.1404 2.3911
3.3722 5.2388 2.3911
3.1682 5.3293 2.3911
2.9618 5.4119 2.3911
2.7535 5.4864 2.3911
0.9678 2.1131 0.9099
0.8914 2.1450 0.9140
0.8138 2.1742 0.9182
0.7352 2.2005 0.9223
0.6557 2.2240 0.9266
0.5754 2.2446 0.9308
0.4945 2.2623 0.9350
0.4129 2.2770 0.9393
0.3308 2.2888 0.9435
0.2484 2.2976 0.9478
0.1657 2.3035 0.9520
0.0828 2.3063 0.9562
-0.0001 2.3062 0.9604
-0.0830 2.3030 0.9646
-0.1657 2.2969 0.9687
-0.2482 2.2877 0.9728
-0.3302 2.2756 0.9769
-0.4118 2.2606 0.9809
-0.4927 2.2426 0.9849
-0.5730 2.2217 0.9888
-0.6525 2.1978 0.9926
-0.7310 2.1712 0.9964
-0.8086 2.1417 1.0001
-2.1082 5.0251 2.3911
-2.2793 4.9243 2.3911
-2.4464 4.8183 2.3911
-2.6092 4.7073 2.3911
-2.7677 4.5913 2.3911
-2.9216 4.4706 2.3911
-3.0710 4.3452 2.3911
-3.2158 4.2155 2.3911
-3.3557 4.0815 2.3911
-3.4908 3.9434 2.3911
-3.6209 3.8014 2.3911
-3.7459 3.6556 2.3911
-3.8658 3.5063 2.3911
-3.9805 3.3535 2.3911
-4.0899 3.1974 2.3911
-4.1939 3.0383 2.3911
-4.2926 2.8762 2.3911
-4.3857 2.7114 2.3911
-4.4733 2.5440 2.3911
-4.5554 2.3741 2.3911
-4.6318 2.2019 2.3911
-4.7026 2.0277 2.3911
-4.7676 1.8514 2.3911
-4.8269 1.6734 2.3911
-4.8804 1.4937 2.3911
-4.9280 1.3126 2.3911
-4.9698 1.1301 2.3911
-5.0058 0.9465 2.3911
-5.0358 0.7619 2.3911
-5.0599 0.5764 2.3911
-5.0780 0.3903 2.3911
-5.0902 0.2037 2.3911
-5.0964 0.0167 2.3911
-5.0966 -0.1705 2.3911
-5.0908 -0.3577 2.3911
-5.0790 -0.5448 2.3911
-5.0612 -0.7316 2.3911
-5.0374 -0.9179 2.3911
-5.0076 -1.1036 2.3911
-4.9717 -1.2884 2.3911
-4.9299 -1.4724 2.3911
-4.8821 -1.6552 2.3911
-4.8283 -1.8367 2.3911
-4.7686 -2.0167 2.3911
-4.7029 -2.1951 2.3911
-4.6314 -2.3716 2.3911
-4.5539 -2.5462 2.3911
-4.4707 -2.7186 2.3911
-4.3816 -2.8887 2.3911
-4.2867 -3.0562 2.3911
-4.1861 -3.2211 2.3911
-4.0799 -3.3833 2.3911
-3.9680 -3.5419 2.3911
-3.8506 -3.6972 2.3911
-3.7277 -3.8497 2.3911
-3.5994 -3.9982 2.3911
-3.4657 -4.1430 2.3911
-3.3268 -4.2837 2.3911
-3.1827 -4.4202 2.3911
-3.0336 -4.5524 2.3911
-2.8795 -4.6800 2.3911
-2.7205 -4.8028 2.3911
-2.5569 -4.9207 2.3911
-2.3886 -5.0334 2.3911
-2.2158 -5.1408 2.3911
-2.0388 -5.2426 2.3911
-1.8576 -5.3388 2.3911
-1.6723 -5.4291 2.3911
-1.4832 -5.5133 2.3911
-1.7718 -5.0075 2.3911
-1.5978 -5.0922 2.3911
-1.4202 -5.1711 2.3911
-1.2392 -5.2441 2.3911
-1.0550 -5.3111 2.3911
-0.8678 -5.3719 2.3911
-0.6778 -5.4262 2.3911
-0.4852 -5.4740 2.3911
-0.2902 -5.5152 2.3911
-0.0930 -5.5496 2.3911
0.1061 -5.5770 2.3911
0.3069 -5.5972 2.3911
0.5092 -5.6104 2.3911
0.7126 -5.6162 2.3911
0.9170 -5.6147 2.3911
1.1220 -5.6057 2.3911
1.3274 -5.5891 2.3911
1.5328 -5.5648 2.3911
1.7380 -5.5329 2.3911
1.9426 -5.4933 2.3911
2.1464 -5.4458 2.3911
2.3491 -5.3906 2.3911
2.5503 -5.3276 2.3911
2.7496 -5.2567 2.3911
2.8501 -5.0082 2.3126
2.9413 -4.7672 2.2387
3.1210 -4.6792 2.2387
3.2978 -4.5841 2.2387
3.4713 -4.4820 2.2387
3.6413 -4.3728 2.2388
3.8074 -4.2569 2.2388
3.9692 -4.1341 2.2388
4.1266 -4.0049 2.2388
4.2792 -3.8692 2.2389
4.4267 -3.7273 2.2389
4.5694 -3.5797 2.2393
4.7064 -3.4263 2.2396
4.8375 -3.2672 2.2399
4.9623 -3.1026 2.2402
5.0806 -2.9328 2.2404
5.1922 -2.7581 2.2407
5.2967 -2.5787 2.2409
5.3916 -2.3939 2.2401
5.4779 -2.2047 2.2388
5.5565 -2.0121 2.2375
5.6235 -1.8152 2.2347
5.6836 -1.6161 2.2323
5.7367 -1.4153 2.2304
5.7828 -1.2123 2.2290
5.8224 -1.0082 2.2283
5.8547 -0.8028 2.2279
5.8795 -0.5964 2.2279
5.8967 -0.3892 2.2282
5.9064 -0.1814 2.2288
5.9088 0.0266 2.2299
5.9045 0.2343 2.2316
5.8930 0.4420 2.2338
5.8742 0.6492 2.2365
5.8462 0.8555 2.2388
5.8071 1.0596 2.2400
5.7598 1.2620 2.2413
5.7008 1.4612 2.2411
5.6339 1.6576 2.2409
5.5592 1.8508 2.2407
5.4770 2.0405 2.2404
5.3874 2.2264 2.2401
5.2906 2.4082 2.2399
5.1869 2.5856 2.2396
5.0765 2.7583 2.2393
4.9596 2.9260 2.2389
4.8370 3.0890 2.2388
4.7086 3.2466 2.2388
4.5746 3.3989 2.2388
4.4351 3.5453 2.2387
4.2904 3.6857 2.2387
4.1410 3.8201 2.2387
3.9869 3.9483 2.2387
3.9141 4.1610 2.2886
3.9160 4.4703 2.3911
3.7388 4.5864 2.3911
3.5579 4.6953 2.3911
3.3738 4.7970 2.3911
3.1866 4.8913 2.3911
2.9968 4.9783 2.3911
2.8046 5.0578 2.3911
2.6104 5.1299 2.3911
0.9202 1.9797 0.9112
0.8485 2.0100 0.9151
0.7758 2.0377 0.9190
0.7021 2.0627 0.9229
0.6276 2.0851 0.9269
0.5523 2.1047 0.9309
0.4763 2.1217 0.9348
0.3998 2.1358 0.9388
0.3228 2.1472 0.9428
0.2455 2.1558 0.9468
0.1678 2.1617 0.9508
0.0900 2.1647 0.9547
0.0122 2.1649 0.9587
-0.0656 2.1622 0.9626
-0.1433 2.1568 0.9665
-0.2207 2.1486 0.9704
-0.2978 2.1375 0.9742
-0.3744 2.1237 0.9780
-0.4505 2.1072 0.9817
-0.5259 2.0879 0.9854
-0.6006 2.0658 0.9890
-0.6745 2.0411 0.9925
-0.7474 2.0138 0.9960
-0.8193 1.9838 0.9994
-2.1223 4.6528 2.3911
-2.2807 4.5544 2.3911
-2.4352 4.4511 2.3911
-2.5856 4.3431 2.3911
-2.7319 4.2305 2.3911
-2.8739 4.1136 2.3911
-3.0115 3.9923 2.3911
-3.1447 3.8670 2.3911
-3.2732 3.7377 2.3911
-3.3971 3.6046 2.3911
-3.5163 3.4679 2.3911
-3.6306 3.3277 2.3911
-3.7399 3.1842 2.3911
-3.8444 3.0376 2.3911
-3.9437 2.8879 2.3911
-4.0379 2.7354 2.3911
-4.1270 2.5802 2.3911
-4.2108 2.4225 2.3911
-4.2894 2.2625 2.3911
-4.3626 2.1002 2.3911
-4.4304 1.9358 2.3911
-4.4928 1.7696 2.3911
-4.5497 1.6016 2.3911
-4.6011 1.4320 2.3911
-4.6470 1.2609 2.3911
-4.6874 1.0886 2.3911
-4.7221 0.9152 2.3911
-4.7512 0.7408 2.3911
-4.7747 0.5655 2.3911
-4.7925 0.3896 2.3911
-4.8047 0.2132 2.3911
-4.8111 0.0365 2.3911
-4.8119 -0.1405 2.3911
-4.8069 -0.3174 2.3911
-4.7963 -0.4943 2.3911
-4.7799 -0.6709 2.3911
-4.7578 -0.8470 2.3911
-4.7300 -1.0225 2.3911
-4.6965 -1.1973 2.3911
-4.6573 -1.3711 2.3911
-4.6124 -1.5439 2.3911
-4.5618 -1.7154 2.3911
-4.5056 -1.8854 2.3911
-4.4437 -2.0539 2.3911
-4.3763 -2.2207 2.3911
-4.3032 -2.3855 2.3911
-4.2247 -2.5483 2.3911
-4.1406 -2.7087 2.3911
-4.0511 -2.8669 2.3911
-3.9562 -3.0224 2.3911
-3.8559 -3.1750 2.3911
-3.7504 -3.3247 2.3911
-3.6396 -3.4714 2.3911
-3.5236 -3.6147 2.3911
-3.4025 -3.7545 2.3911
-3.2764 -3.8907 2.3911
-3.1454 -4.0231 2.3911
-3.0095 -4.1515 2.3911
-2.8689 -4.2756 2.3911
-2.7237 -4.3954 2.3911
-2.5739 -4.5107 2.3911
-2.4197 -4.6213 2.3911
-2.2612 -4.7269 2.3911
-2.0985 -4.8275 2.3911
-1.9319 -4.9229 2.3911
-1.7613 -5.0128 2.3911
-1.5871 -5.0971 2.3911
-1.4093 -5.1757 2.3911
-1.2281 -5.2484 2.3911
-1.0438 -5.3150 2.3911
-0.8564 -5.3753 2.3911
-0.6662 -5.4293 2.3911
-0.4734 -5.4767 2.3911
-0.2783 -5.5174 2.3911
-0.0810 -5.5514 2.3911
0.1183 -5.5784 2.3911
0.3192 -5.5982 2.3911
0.5215 -5.6109 2.3911
0.7250 -5.6163 2.3911
0.9294 -5.6144 2.3911
1.1344 -5.6049 2.3911
1.3398 -5.5878 2.3911
1.5452 -5.5631 2.3911
1.7504 -5.5307 2.3911
1.9550 -5.4906 2.3911
2.1588 -5.4427 2.3911
2.3613 -5.3870 2.3911
2.5624 -5.3235 2.3911
2.7616 -5.2522 2.3911
2.8535 -4.9892 2.3061
2.9523 -4.7621 2.2387
3.1318 -4.6737 2.2387
3.3084 -4.5781 2.2387
3.4817 -4.4755 2.2387
3.6515 -4.3660 2.2388
3.8173 -4.2496 2.2388
3.9789 -4.1265 2.2388
4.1360 -3.9968 2.2388
4.2883 -3.8607 2.2389
4.4355 -3.7185 2.2390
4.5779 -3.5706 2.2393
4.7145 -3.4168 2.2396
4.8452 -3.2573 2.2399
4.9696 -3.0924 2.2402
5.0875 -2.9223 2.2404
5.1987 -2.7473 2.2407
5.3029 -2.5677 2.2409
5.3970 -2.3825 2.2400
5.4829 -2.1933 2.2387
5.5608 -2.0003 2.2373
5.6274 -1.8032 2.2345
5.6870 -1.6040 2.2322
5.7397 -1.4032 2.2303
5.7854 -1.2000 2.2289
5.8246 -0.9958 2.2282
5.8564 -0.7903 2.2279
5.8807 -0.5838 2.2279
5.8975 -0.3766 2.2282
5.9068 -0.1688 2.2289
5.9087 0.0390 2.2300
5.9040 0.2470 2.2317
5.8920 0.4546 2.2340
5.8728 0.6617 2.2366
5.8440 0.8675 2.2388
5.8045 1.0719 2.2401
5.7565 1.2742 2.2413
5.6970 1.4732 2.2411
5.6296 1.6694 2.2409
5.5545 1.8624 2.2406
5.4718 2.0519 2.2404
5.3817 2.2375 2.2401
5.2846 2.4191 2.2399
5.1804 2.5962 2.2396
5.0696 2.7686 2.2392
4.9523 2.9361 2.2389
4.8294 3.0987 2.2388
4.7007 3.2561 2.2388
4.5662 3.4079 2.2388
4.4264 3.5539 2.2387
4.2815 3.6941 2.2387
4.1317 3.8281 2.2387
3.9775 3.9559 2.2387
3.9151 4.1800 2.2950
3.9054 4.4776 2.3911
3.7279 4.5932 2.3911
3.5469 4.7017 2.3911
3.3625 4.8029 2.3911
3.1752 4.8968 2.3911
2.9852 4.9833 2.3911
2.7929 5.0624 2.3911
2.5986 5.1341 2.3911
0.9158 1.9816 0.9115
0.8441 2.0117 0.9153
0.7713 2.0393 0.9193
0.6976 2.0641 0.9232
0.6231 2.0863 0.9271
0.5477 2.1058 0.9311
0.4717 2.1226 0.9351
0.3952 2.1366 0.9391
0.3181 2.1478 0.9431
0.2408 2.1563 0.9470
0.1631 2.1619 0.9510
0.0853 2.1648 0.9550
0.0075 2.1648 0.9589
-0.0703 2.1620 0.9629
-0.1480 2.1564 0.9667
-0.2254 2.1480 0.9706
-0.3024 2.1368 0.9744
-0.3790 2.1228 0.9782
-0.4551 2.1061 0.9819
-0.5305 2.0866 0.9856
-0.6051 2.0644 0.9892
-0.6789 2.0396 0.9927
-0.7518 2.0120 0.9962
-0.8236 1.9819 0.9996
-2.1320 4.6470 2.3911
-2.2902 4.5483 2.3911
-2.4444 4.4447 2.3911
-2.5946 4.3364 2.3911
-2.7406 4.2236 2.3911
-2.8824 4.1063 2.3911
-3.0197 3.9848 2.3911
-3.1526 3.8592 2.3911
-3.2809 3.7296 2.3911
-3.4045 3.5964 2.3911
-3.5233 3.4595 2.3911
-3.6373 3.3191 2.3911
-3.7464 3.1754 2.3911
-3.8505 3.0286 2.3911
-3.9496 2.8787 2.3911
-4.0435 2.7261 2.3911
-4.1322 2.5708 2.3911
-4.2157 2.4129 2.3911
-4.2940 2.2527 2.3911
-4.3668 2.0903 2.3911
-4.4343 1.9258 2.3911
-4.4964 1.7594 2.3911
-4.5530 1.5913 2.3911
-4.6041 1.4217 2.3911
-4.6496 1.2505 2.3911
-4.6896 1.0781 2.3911
-4.7240 0.9046 2.3911
-4.7528 0.7302 2.3911
-4.7760 0.5549 2.3911
-4.7934 0.3790 2.3911
-4.8052 0.2025 2.3911
-4.8113 0.0258 2.3911
-4.8118 -0.1512 2.3911
-4.8065 -0.3282 2.3911
-4.7954 -0.5050 2.3911
-4.7787 -0.6815 2.3911
-4.7563 -0.8576 2.3911
-4.7281 -1.0331 2.3911
-4.6942 -1.2078 2.3911
-4.6547 -1.3816 2.3911
-4.6094 -1.5543 2.3911
-4.5585 -1.7257 2.3911
-4.5020 -1.8957 2.3911
-4.4398 -2.0641 2.3911
-4.3720 -2.2307 2.3911
-4.2986 -2.3955 2.3911
-4.2197 -2.5581 2.3911
-4.1354 -2.7184 2.3911
-4.0455 -2.8765 2.3911
-3.9503 -3.0317 2.3911
-3.8497 -3.1841 2.3911
-3.7438 -3.3337 2.3911
-3.6327 -3.4801 2.3911
-3.5164 -3.6232 2.3911
-3.3950 -3.7629 2.3911
-3.2686 -3.8989 2.3911
-3.1373 -4.0310 2.3911
-3.0011 -4.1591 2.3911
-2.8602 -4.2830 2.3911
-2.7147 -4.4026 2.3911
-2.5646 -4.5176 2.3911
-2.4102 -4.6278 2.3911
-2.2514 -4.7332 2.3911
-2.0885 -4.8335 2.3911
-1.9216 -4.9285 2.3911
-1.7509 -5.0181 2.3911
-1.5764 -5.1020 2.3911
-1.3984 -5.1803 2.3911
-1.2170 -5.2526 2.3911
-1.0325 -5.3188 2.3911
-0.8449 -5.3788 2.3911
-0.6546 -5.4323 2.3911
-0.4617 -5.4794 2.3911
-0.2664 -5.5197 2.3911
-0.0690 -5.5532 2.3911
0.1304 -5.5797 2.3911
0.3314 -5.5992 2.3911
0.5338 -5.6115 2.3911
0.7374 -5.6164 2.3911
0.9418 -5.6140 2.3911
1.1469 -5.6041 2.3911
1.3523 -5.5865 2.3911
1.5577 -5.5614 2.3911
1.7628 -5.5285 2.3911
1.9674 -5.4879 2.3911
2.1711 -5.4395 2.3911
2.3736 -5.3834 2.3911
2.5745 -5.3193 2.3911
2.7736 -5.2476 2.3911
2.8569 -4.9703 2.2996
2.9632 -4.7570 2.2387
3.1426 -4.6681 2.2387
3.3190 -4.5721 2.2387
3.4921 -4.4691 2.2387
3.6616 -4.3591 2.2388
3.8272 -4.2423 2.2388
3.9886 -4.1188 2.2388
4.1454 -3.9887 2.2388
4.2973 -3.8523 2.2389
4.4443 -3.7097 2.2390
4.5863 -3.5615 2.2393
4.7226 -3.4073 2.2396
