ply
format ascii 1.0
element vertex 2184
property float32 x
property float32 y
property float32 z
end_header
-4.8625 6.7417 2.3902
-5.1004 6.5613 2.3902
-5.3317 6.3726 2.3902
-5.5562 6.1759 2.3902
-5.7735 5.9715 2.3902
-5.9834 5.7595 2.3902
-6.1857 5.5403 2.3902
-6.3801 5.3141 2.3902
-6.5664 5.0811 2.3902
-6.7443 4.8418 2.3902
-6.9137 4.5963 2.3902
-7.0743 4.3450 2.3902
-7.2259 4.0882 2.3902
-7.3684 3.8262 2.3902
-7.5015 3.5593 2.3902
-7.6251 3.2878 2.3902
-7.7391 3.0122 2.3902
-7.8432 2.7326 2.3902
-7.9374 2.4495 2.3902
-8.0216 2.1632 2.3902
-8.0956 1.8741 2.3902
-8.1594 1.5824 2.3902
-8.2128 1.2887 2.3902
-8.2558 0.9932 2.3902
-8.2884 0.6962 2.3902
-8.3104 0.3983 2.3902
-8.3219 0.0996 2.3902
-8.3228 -0.1993 2.3902
-8.3131 -0.4982 2.3902
-8.2928 -0.7967 2.3902
-8.2619 -1.0944 2.3902
-8.2206 -1.3908 2.3902
-8.1687 -1.6858 2.3902
-8.1063 -1.9788 2.3902
-8.0336 -2.2696 2.3902
-7.9505 -2.5577 2.3902
-7.8573 -2.8428 2.3902
-7.7539 -3.1245 2.3902
-7.6405 -3.4025 2.3902
-7.5173 -3.6764 2.3902
-7.3843 -3.9459 2.3902
-7.2418 -4.2106 2.3902
-7.0898 -4.4703 2.3902
-6.9286 -4.7244 2.3902
-6.7584 -4.9728 2.3902
-6.5793 -5.2151 2.3902
-6.3916 -5.4510 2.3902
-6.1955 -5.6801 2.3902
-5.9912 -5.9022 2.3902
-5.7790 -6.1170 2.3902
-5.5591 -6.3242 2.3902
-5.3319 -6.5235 2.3902
-5.0975 -6.7146 2.3902
-4.8563 -6.8973 2.3902
-4.6085 -7.0714 2.3902
-4.3546 -7.2365 2.3902
-4.0947 -7.3926 2.3902
-3.8292 -7.5393 2.3902
-3.5585 -7.6764 2.3902
-3.2829 -7.8038 2.3902
-3.0028 -7.9213 2.3902
-2.7184 -8.0286 2.3902
-2.4302 -8.1258 2.3902
-2.1385 -8.2125 2.3902
-1.8437 -8.2887 2.3902
-1.5462 -8.3542 2.3902
-1.2464 -8.4090 2.3902
-0.9447 -8.4530 2.3902
-0.6414 -8.4861 2.3902
-0.3369 -8.5082 2.3902
-0.0317 -8.5193 2.3902
0.2738 -8.5193 2.3902
0.5793 -8.5083 2.3902
0.8843 -8.4862 2.3902
1.1885 -8.4531 2.3902
1.4914 -8.4090 2.3902
1.7926 -8.3539 2.3902
2.0918 -8.2879 2.3902
2.3884 -8.2110 2.3902
2.6822 -8.1234 2.3902
2.9727 -8.0251 2.3902
3.2596 -7.9163 2.3902
3.5424 -7.7972 2.3902
3.8208 -7.6678 2.3902
4.0943 -7.5283 2.3902
4.3627 -7.3789 2.3902
4.6256 -7.2198 2.3902
4.8825 -7.0512 2.3902
5.1332 -6.8734 2.3902
5.3773 -6.6865 2.3902
5.6145 -6.4907 2.3902
5.8445 -6.2865 2.3902
6.0668 -6.0740 2.3902
6.2813 -5.8534 2.3902
6.4877 -5.6252 2.3902
6.6856 -5.3896 2.3902
6.8748 -5.1470 2.3902
7.0551 -4.8976 2.3902
7.2262 -4.6417 2.3902
7.3878 -4.3799 2.3902
7.5398 -4.1123 2.3902
7.6819 -3.8394 2.3902
7.8139 -3.5614 2.3902
7.9358 -3.2789 2.3902
8.0472 -2.9921 2.3902
8.1482 -2.7016 2.3902
8.2384 -2.4075 2.3902
8.3179 -2.1104 2.3902
8.3865 -1.8107 2.3902
8.4441 -1.5087 2.3902
8.4907 -1.2049 2.3902
8.5262 -0.8997 2.3902
8.5505 -0.5934 2.3902
8.5637 -0.2866 2.3902
8.5658 0.0205 2.3902
8.5566 0.3273 2.3902
8.5364 0.6335 2.3902
8.5050 0.9386 2.3902
8.4626 1.2423 2.3902
8.4092 1.5441 2.3902
8.3450 1.8437 2.3902
8.2699 2.1407 2.3902
8.1841 2.4346 2.3902
8.0878 2.7251 2.3902
7.9811 3.0118 2.3902
7.8641 3.2943 2.3902
7.7371 3.5722 2.3902
7.6001 3.8453 2.3902
7.4534 4.1131 2.3902
7.2972 4.3752 2.3902
7.1317 4.6315 2.3902
6.9572 4.8815 2.3902
6.7739 5.1249 2.3902
6.5820 5.3613 2.3902
6.3818 5.5907 2.3902
6.1736 5.8125 2.3902
5.9576 6.0265 2.3902
5.6666 6.1591 2.3620
5.3200 6.2157 2.3104
5.0044 6.2903 2.2713
4.7180 6.3878 2.2453
4.4682 6.5271 2.2378
4.2286 6.6791 2.2378
3.9839 6.8224 2.2378
3.7343 6.9567 2.2378
3.4803 7.0818 2.2378
3.2287 7.2127 2.2424
2.9927 7.3853 2.2626
2.7625 7.5888 2.2944
2.5331 7.8208 2.3369
0.9164 3.2190 0.9520
0.8003 3.2500 0.9526
0.6832 3.2769 0.9532
0.5652 3.2995 0.9538
0.4465 3.3179 0.9544
0.3271 3.3319 0.9550
0.2073 3.3417 0.9555
0.0873 3.3470 0.9560
-0.0329 3.3481 0.9566
-0.1531 3.3448 0.9570
-0.2731 3.3371 0.9575
-0.3927 3.3252 0.9580
-0.5118 3.3089 0.9584
-0.6302 3.2883 0.9588
-0.7478 3.2634 0.9592
-0.8645 3.2343 0.9595
-2.4403 7.9709 2.3902
-2.7239 7.8751 2.3902
-3.0038 7.7693 2.3902
-3.2797 7.6538 2.3902
-3.5512 7.5285 2.3902
-3.8181 7.3938 2.3902
-4.0799 7.2498 2.3902
-4.3364 7.0967 2.3902
-4.5873 6.9346 2.3902
-4.8322 6.7637 2.3902
-5.0709 6.5844 2.3902
-5.3030 6.3968 2.3902
-5.5284 6.2011 2.3902
-5.7466 5.9976 2.3902
-5.9575 5.7865 2.3902
-6.1607 5.5682 2.3902
-6.3562 5.3429 2.3902
-6.5434 5.1108 2.3902
-6.7225 4.8722 2.3902
-6.8929 4.6275 2.3902
-7.0546 4.3769 2.3902
-7.2074 4.1207 2.3902
-7.3510 3.8594 2.3902
-7.4853 3.5931 2.3902
-7.6101 3.3222 2.3902
-7.7253 3.0470 2.3902
-7.8307 2.7679 2.3902
-7.9261 2.4853 2.3902
-8.0116 2.1993 2.3902
-8.0869 1.9106 2.3902
-8.1520 1.6192 2.3902
-8.2067 1.3257 2.3902
-8.2510 1.0304 2.3902
-8.2849 0.7336 2.3902
-8.3082 0.4358 2.3902
-8.3210 0.1372 2.3902
-8.3233 -0.1618 2.3902
-8.3149 -0.4607 2.3902
-8.2959 -0.7592 2.3902
-8.2664 -1.0570 2.3902
-8.2264 -1.3536 2.3902
-8.1758 -1.6488 2.3902
-8.1147 -1.9421 2.3902
-8.0433 -2.2331 2.3902
-7.9615 -2.5216 2.3902
-7.8696 -2.8071 2.3902
-7.7674 -3.0893 2.3902
-7.6553 -3.3678 2.3902
-7.5333 -3.6422 2.3902
-7.4016 -3.9123 2.3902
-7.2602 -4.1777 2.3902
-7.1094 -4.4379 2.3902
-6.9494 -4.6928 2.3902
-6.7803 -4.9419 2.3902
-6.6023 -5.1850 2.3902
-6.4157 -5.4217 2.3902
-6.2206 -5.6517 2.3902
-6.0173 -5.8747 2.3902
-5.8061 -6.0904 2.3902
-5.5872 -6.2986 2.3902
-5.3608 -6.4989 2.3902
-5.1273 -6.6910 2.3902
-4.8870 -6.8748 2.3902
-4.6400 -7.0500 2.3902
-4.3868 -7.2163 2.3902
-4.1277 -7.3735 2.3902
-3.8629 -7.5214 2.3902
-3.5928 -7.6597 2.3902
-3.3178 -7.7883 2.3902
-3.0382 -7.9070 2.3902
-2.7543 -8.0157 2.3902
-2.4666 -8.1141 2.3902
-2.1753 -8.2021 2.3902
-1.8809 -8.2797 2.3902
-1.5838 -8.3466 2.3902
-1.2842 -8.4027 2.3902
-0.9827 -8.4481 2.3902
-0.6796 -8.4825 2.3902
-0.3752 -8.5060 2.3902
-0.0701 -8.5185 2.3902
0.2354 -8.5199 2.3902
0.5409 -8.5103 2.3902
0.8460 -8.4896 2.3902
1.1503 -8.4579 2.3902
1.4534 -8.4151 2.3902
1.7549 -8.3614 2.3902
2.0543 -8.2968 2.3902
2.3513 -8.2213 2.3902
2.6455 -8.1350 2.3902
2.9364 -8.0380 2.3902
3.2238 -7.9306 2.3902
3.5071 -7.8127 2.3902
3.7861 -7.6846 2.3902
4.0603 -7.5463 2.3902
4.3293 -7.3982 2.3902
4.5929 -7.2403 2.3902
4.8506 -7.0729 2.3902
5.1021 -6.8962 2.3902
5.3470 -6.7104 2.3902
5.5851 -6.5158 2.3902
5.8160 -6.3127 2.3902
6.0393 -6.1011 2.3902
6.2548 -5.8816 2.3902
6.4622 -5.6543 2.3902
6.6612 -5.4197 2.3902
6.8516 -5.1779 2.3902
7.0330 -4.9293 2.3902
7.2052 -4.6742 2.3902
7.3680 -4.4132 2.3902
7.5212 -4.1462 2.3902
7.6645 -3.8739 2.3902
7.7979 -3.5966 2.3902
7.9210 -3.3147 2.3902
8.0338 -3.0284 2.3902
8.1360 -2.7382 2.3902
8.2277 -2.4446 2.3902
8.3085 -2.1479 2.3902
8.3784 -1.8484 2.3902
8.4375 -1.5468 2.3902
8.4854 -1.2431 2.3902
8.5223 -0.9381 2.3902
8.5481 -0.6319 2.3902
8.5627 -0.3252 2.3902
8.5661 -0.0181 2.3902
8.5584 0.2887 2.3902
8.5395 0.5950 2.3902
8.5096 0.9003 2.3902
8.4685 1.2042 2.3902
8.4165 1.5063 2.3902
8.3536 1.8062 2.3902
8.2799 2.1035 2.3902
8.1955 2.3978 2.3902
8.1005 2.6888 2.3902
7.9951 2.9760 2.3902
7.8794 3.2590 2.3902
7.7536 3.5376 2.3902
7.6178 3.8113 2.3902
7.4724 4.0797 2.3902
7.3174 4.3426 2.3902
7.1530 4.5996 2.3902
6.9796 4.8504 2.3902
6.7974 5.0946 2.3902
6.6066 5.3320 2.3902
6.4074 5.5622 2.3902
6.2002 5.7850 2.3902
5.9852 6.0001 2.3902
5.7120 6.1525 2.3691
5.3607 6.2063 2.3157
5.0424 6.2797 2.2755
4.7528 6.3746 2.2479
4.4979 6.5074 2.2378
4.2590 6.6605 2.2378
4.0149 6.8048 2.2378
3.7660 6.9403 2.2378
3.5124 7.0666 2.2378
3.2589 7.1930 2.2407
3.0219 7.3618 2.2593
2.7916 7.5623 2.2900
2.5622 7.7907 2.3312
0.9309 3.2148 0.9519
0.8150 3.2464 0.9525
0.6980 3.2738 0.9531
0.5801 3.2969 0.9537
0.4614 3.3158 0.9543
0.3422 3.3304 0.9549
0.2224 3.3407 0.9554
0.1024 3.3466 0.9560
-0.0178 3.3482 0.9565
-0.1380 3.3454 0.9570
-0.2580 3.3383 0.9575
-0.3777 3.3269 0.9579
-0.4968 3.3111 0.9583
-0.6154 3.2911 0.9588
-0.7331 3.2668 0.9591
6.8277 -3.9653 2.3902
6.9652 -3.7180 2.3902
7.0935 -3.4660 2.3902
7.2126 -3.2094 2.3902
7.3223 -2.9486 2.3902
7.4224 -2.6841 2.3902
7.5128 -2.4162 2.3902
7.5934 -2.1452 2.3902
7.6640 -1.8715 2.3902
7.7247 -1.5954 2.3902
7.7752 -1.3174 2.3902
7.8157 -1.0377 2.3902
7.8459 -0.7569 2.3902
7.8659 -0.4752 2.3902
7.8756 -0.1930 2.3902
7.8751 0.0893 2.3902
7.8643 0.3713 2.3902
7.8433 0.6527 2.3902
7.8122 0.9328 2.3902
7.7708 1.2118 2.3902
7.7194 1.4891 2.3902
7.6581 1.7640 2.3902
7.5868 2.0363 2.3902
7.5058 2.3059 2.3902
7.4151 2.5723 2.3902
7.3148 2.8351 2.3902
7.2051 3.0941 2.3902
7.0862 3.3487 2.3902
6.9582 3.5988 2.3902
6.8214 3.8440 2.3902
6.6758 4.0840 2.3902
6.5217 4.3185 2.3902
6.3594 4.5471 2.3902
6.1890 4.7697 2.3902
6.0108 4.9858 2.3902
5.8250 5.1953 2.3902
5.6318 5.3979 2.3902
5.4316 5.5932 2.3902
5.2246 5.7812 2.3902
5.0111 5.9615 2.3902
4.7914 6.1339 2.3902
4.5657 6.2983 2.3902
4.3344 6.4543 2.3902
4.0978 6.6019 2.3902
3.8562 6.7408 2.3902
3.6098 6.8709 2.3902
3.3591 6.9920 2.3902
3.1044 7.1041 2.3902
2.8459 7.2068 2.3902
2.5840 7.3003 2.3902
0.9224 2.9370 0.9507
0.8165 2.9684 0.9513
0.7095 2.9960 0.9518
0.6016 3.0197 0.9524
0.4928 3.0395 0.9529
0.3834 3.0554 0.9535
0.2735 3.0673 0.9540
0.1633 3.0752 0.9545
0.0528 3.0791 0.9550
-0.0578 3.0791 0.9554
-0.1683 3.0750 0.9559
-0.2786 3.0670 0.9563
-0.3885 3.0550 0.9567
-0.4979 3.0390 0.9571
-0.6067 3.0190 0.9575
-0.7147 2.9952 0.9578
-0.8217 2.9675 0.9582
-2.3134 7.3215 2.3902
-2.5739 7.2311 2.3902
-2.8310 7.1316 2.3902
-3.0842 7.0230 2.3902
-3.3334 6.9056 2.3902
-3.5782 6.7795 2.3902
-3.8184 6.6448 2.3902
-4.0535 6.5017 2.3902
-4.2834 6.3505 2.3902
-4.5077 6.1912 2.3902
-4.7262 6.0241 2.3902
-4.9387 5.8494 2.3902
-5.1448 5.6673 2.3902
-5.3442 5.4781 2.3902
-5.5371 5.2819 2.3902
-5.7224 5.0791 2.3902
-5.9007 4.8699 2.3902
-6.0714 4.6545 2.3902
-6.2345 4.4332 2.3902
-6.3895 4.2064 2.3902
-6.5365 3.9741 2.3902
-6.6751 3.7368 2.3902
-6.8053 3.4948 2.3902
-6.9269 3.2483 2.3902
-7.0396 2.9976 2.3902
-7.1434 2.7431 2.3902
-7.2382 2.4850 2.3902
-7.3238 2.2237 2.3902
-7.4001 1.9596 2.3902
-7.4670 1.6928 2.3902
-7.5245 1.4238 2.3902
-7.5724 1.1529 2.3902
-7.6107 0.8804 2.3902
-7.6393 0.6066 2.3902
-7.6582 0.3320 2.3902
-7.6674 0.0567 2.3902
-7.6668 -0.2187 2.3902
-7.6565 -0.4941 2.3902
-7.6364 -0.7689 2.3902
-7.6065 -1.0430 2.3902
-7.5669 -1.3160 2.3902
-7.5176 -1.5875 2.3902
-7.4588 -1.8571 2.3902
-7.3904 -2.1246 2.3902
-7.3124 -2.3895 2.3902
-7.2251 -2.6517 2.3902
-7.1285 -2.9107 2.3902
-7.0226 -3.1662 2.3902
-6.9077 -3.4178 2.3902
-6.7839 -3.6654 2.3902
-6.6513 -3.9084 2.3902
-6.5100 -4.1467 2.3902
-6.3602 -4.3800 2.3902
-6.2022 -4.6078 2.3902
-6.0360 -4.8300 2.3902
-5.8620 -5.0462 2.3902
-5.6802 -5.2561 2.3902
-5.4910 -5.4596 2.3902
-5.2945 -5.6562 2.3902
-5.0909 -5.8458 2.3902
-4.8807 -6.0280 2.3902
-4.6639 -6.2028 2.3902
-4.4409 -6.3697 2.3902
-4.2119 -6.5286 2.3902
-3.9773 -6.6792 2.3902
-3.7373 -6.8215 2.3902
-3.4922 -6.9551 2.3902
-3.2424 -7.0798 2.3902
-2.9881 -7.1956 2.3902
-2.7296 -7.3022 2.3902
-2.4674 -7.3995 2.3902
-2.2017 -7.4874 2.3902
-1.9328 -7.5656 2.3902
-1.6612 -7.6342 2.3902
-1.3872 -7.6929 2.3902
-1.1111 -7.7418 2.3902
-0.8333 -7.7806 2.3902
-0.5541 -7.8095 2.3902
-0.2739 -7.8282 2.3902
0.0069 -7.8369 2.3902
0.2879 -7.8353 2.3902
0.5688 -7.8236 2.3902
0.8492 -7.8018 2.3902
1.1288 -7.7697 2.3902
1.4071 -7.7276 2.3902
1.6838 -7.6754 2.3902
1.9586 -7.6132 2.3902
2.2310 -7.5410 2.3902
2.5007 -7.4590 2.3902
2.7674 -7.3672 2.3902
3.0306 -7.2658 2.3902
3.2901 -7.1549 2.3902
3.5454 -7.0346 2.3902
3.7962 -6.9050 2.3902
4.0423 -6.7664 2.3902
4.2832 -6.6189 2.3902
4.5186 -6.4627 2.3902
4.7483 -6.2980 2.3902
4.9718 -6.1251 2.3902
5.1890 -5.9441 2.3902
5.3994 -5.7552 2.3902
5.6029 -5.5589 2.3902
5.7991 -5.3552 2.3902
5.9878 -5.1445 2.3902
6.1687 -4.9271 2.3902
6.3416 -4.7032 2.3902
6.5062 -4.4732 2.3902
6.6623 -4.2373 2.3902
6.8098 -3.9959 2.3902
6.9484 -3.7493 2.3902
7.0779 -3.4979 2.3902
7.1982 -3.2418 2.3902
7.3090 -2.9816 2.3902
7.4103 -2.7176 2.3902
7.5020 -2.4501 2.3902
7.5838 -2.1794 2.3902
7.6557 -1.9060 2.3902
7.7176 -1.6303 2.3902
7.7694 -1.3524 2.3902
7.8111 -1.0730 2.3902
7.8426 -0.7922 2.3902
7.8639 -0.5106 2.3902
7.8749 -0.2285 2.3902
7.8757 0.0538 2.3902
7.8662 0.3359 2.3902
7.8465 0.6174 2.3902
7.8166 0.8978 2.3902
7.7766 1.1769 2.3902
7.7265 1.4540 2.3902
7.6663 1.7295 2.3902
7.5963 2.0022 2.3902
7.5165 2.2722 2.3902
7.4270 2.5390 2.3902
7.3279 2.8023 2.3902
7.2194 3.0617 2.3902
7.1017 3.3170 2.3902
6.9748 3.5676 2.3902
6.8391 3.8135 2.3902
6.6946 4.0542 2.3902
6.5416 4.2893 2.3902
6.3802 4.5187 2.3902
6.2108 4.7421 2.3902
6.0336 4.9590 2.3902
5.8487 5.1693 2.3902
5.6565 5.3728 2.3902
5.4572 5.5691 2.3902
5.2510 5.7580 2.3902
5.0383 5.9393 2.3902
4.8194 6.1127 2.3902
4.5944 6.2781 2.3902
4.3638 6.4352 2.3902
4.1278 6.5838 2.3902
3.8868 6.7238 2.3902
3.6410 6.8551 2.3902
3.3908 6.9773 2.3902
3.1366 7.0905 2.3902
2.8786 7.1944 2.3902
2.6171 7.2890 2.3902
0.9356 2.9328 0.9506
0.8299 2.9647 0.9512
0.7230 2.9927 0.9518
0.6152 3.0169 0.9523
0.5065 3.0372 0.9529
0.3972 3.0536 0.9534
0.2874 3.0660 0.9539
0.1771 3.0744 0.9544
0.0667 3.0789 0.9549
-0.0439 3.0793 0.9554
-0.1544 3.0758 0.9558
-0.2647 3.0682 0.9563
-0.3747 3.0567 0.9567
-0.4842 3.0412 0.9571
-0.5930 3.0218 0.9574
-0.7011 2.9984 0.9578
-0.8083 2.9712 0.9581
-2.2805 7.3322 2.3902
-2.5414 7.2430 2.3902
-2.7989 7.1446 2.3902
-3.0526 7.0372 2.3902
-3.3023 6.9209 2.3902
-3.5477 6.7958 2.3902
-3.7885 6.6622 2.3902
-4.0242 6.5202 2.3902
-4.2548 6.3699 2.3902
-4.4799 6.2116 2.3902
-4.6991 6.0455 2.3902
-4.9123 5.8717 2.3902
-5.1192 5.6906 2.3902
-5.3195 5.5022 2.3902
-5.5132 5.3069 2.3902
-5.6995 5.1050 2.3902
-5.8787 4.8966 2.3902
-6.0504 4.6819 2.3902
-6.2144 4.4614 2.3902
-6.3705 4.2352 2.3902
-6.5185 4.0036 2.3902
-6.6582 3.7669 2.3902
-6.7894 3.5255 2.3902
-6.9121 3.2795 2.3902
-7.0259 3.0293 2.3902
-7.1309 2.7753 2.3902
-7.2268 2.5176 2.3902
-7.3136 2.2567 2.3902
-7.3910 1.9929 2.3902
-7.4591 1.7264 2.3902
-7.5178 1.4577 2.3902
-7.5669 1.1870 2.3902
-7.6064 0.9147 2.3902
-7.6362 0.6411 2.3902
-7.6564 0.3665 2.3902
-7.6668 0.0913 2.3902
-7.6674 -0.1841 2.3902
-7.6583 -0.4595 2.3902
-7.6394 -0.7344 2.3902
-7.6108 -1.0086 2.3902
-7.5724 -1.2817 2.3902
-7.5244 -1.5534 2.3902
-7.4668 -1.8232 2.3902
-7.3995 -2.0911 2.3902
-7.3227 -2.3564 2.3902
-7.2366 -2.6189 2.3902
-7.1411 -2.8783 2.3902
-7.0364 -3.1342 2.3902
-6.9227 -3.3864 2.3902
-6.8000 -3.6345 2.3902
-6.6684 -3.8781 2.3902
-6.5282 -4.1171 2.3902
-6.3795 -4.3509 2.3902
-6.2225 -4.5795 2.3902
-6.0573 -4.8024 2.3902
-5.8843 -5.0194 2.3902
-5.7035 -5.2301 2.3902
-5.5151 -5.4344 2.3902
-5.3195 -5.6319 2.3902
-5.1169 -5.8223 2.3902
-4.9075 -6.0055 2.3902
-4.6915 -6.1812 2.3902
-4.4693 -6.3491 2.3902
-4.2410 -6.5091 2.3902
-4.0071 -6.6608 2.3902
-3.7678 -6.8041 2.3902
-3.5233 -6.9388 2.3902
-3.2740 -7.0646 2.3902
-3.0202 -7.1816 2.3902
-2.7623 -7.2893 2.3902
-2.5005 -7.3878 2.3902
-2.2352 -7.4768 2.3902
-1.9668 -7.5563 2.3902
-1.6955 -7.6261 2.3902
-1.4218 -7.6861 2.3902
-1.1459 -7.7362 2.3902
-0.8683 -7.7763 2.3902
-0.5892 -7.8064 2.3902
-0.3092 -7.8264 2.3902
-0.0285 -7.8363 2.3902
0.2526 -7.8361 2.3902
0.5335 -7.8257 2.3902
0.8140 -7.8051 2.3902
1.0937 -7.7743 2.3902
1.3723 -7.7335 2.3902
1.6492 -7.6825 2.3902
1.9242 -7.6216 2.3902
2.1969 -7.5507 2.3902
2.4670 -7.4699 2.3902
2.7341 -7.3793 2.3902
2.9977 -7.2791 2.3902
3.2577 -7.1693 2.3902
3.5135 -7.0502 2.3902
3.7650 -6.9218 2.3902
4.0116 -6.7843 2.3902
4.2532 -6.6379 2.3902
4.4893 -6.4828 2.3902
4.7197 -6.3192 2.3902
4.9441 -6.1472 2.3902
5.1620 -5.9672 2.3902
5.3733 -5.7794 2.3902
5.5777 -5.5840 2.3902
5.7748 -5.3813 2.3902
5.9645 -5.1714 2.3902
6.1464 -4.9548 2.3902
6.3203 -4.7317 2.3902
6.4860 -4.5024 2.3902
6.6432 -4.2673 2.3902
6.7918 -4.0266 2.3902
6.9315 -3.7805 2.3902
7.0621 -3.5297 2.3902
7.1836 -3.2742 2.3902
7.2956 -3.0146 2.3902
7.3981 -2.7510 2.3902
7.4910 -2.4838 2.3902
7.5740 -2.2136 2.3902
7.6472 -1.9405 2.3902
7.7104 -1.6650 2.3902
7.7635 -1.3874 2.3902
7.8065 -1.1081 2.3902
7.8392 -0.8276 2.3902
7.8618 -0.5460 2.3902
7.8741 -0.2639 2.3902
7.8762 0.0184 2.3902
7.8680 0.3004 2.3902
7.8495 0.5820 2.3902
7.8209 0.8625 2.3902
7.7822 1.1419 2.3902
7.7333 1.4194 2.3902
7.6745 1.6950 2.3902
7.6057 1.9681 2.3902
7.5271 2.2385 2.3902
7.4388 2.5057 2.3902
7.3409 2.7694 2.3902
7.2336 3.0294 2.3902
7.1170 3.2851 2.3902
6.9913 3.5364 2.3902
6.8566 3.7828 2.3902
6.7132 4.0242 2.3902
6.5613 4.2601 2.3902
6.4010 4.4902 2.3902
6.2326 4.7143 2.3902
6.0563 4.9321 2.3902
5.8724 5.1433 2.3902
5.6810 5.3476 2.3902
5.4826 5.5448 2.3902
5.2773 5.7347 2.3902
5.0654 5.9169 2.3902
4.8472 6.0913 2.3902
4.6230 6.2577 2.3902
4.3931 6.4159 2.3902
4.1578 6.5656 2.3902
3.9174 6.7067 2.3902
3.6722 6.8390 2.3902
3.4225 6.9624 2.3902
3.1688 7.0768 2.3902
2.9112 7.1819 2.3902
2.6502 7.2777 2.3902
2.3860 7.3640 2.3902
0.8432 2.9609 0.9511
0.7365 2.9894 0.9517
0.6288 3.0141 0.9523
0.5202 3.0349 0.9528
0.4110 3.0518 0.9533
0.3012 3.0647 0.9539
0.1910 3.0736 0.9544
0.0806 3.0785 0.9549
-0.0300 3.0795 0.9553
-0.1405 3.0764 0.9558
-0.2509 3.0694 0.9562
-0.3609 3.0584 0.9566
-0.4705 3.0434 0.9570
-0.5794 3.0244 0.9574
-0.6876 3.0016 0.9577
-0.7949 2.9748 0.9581
-0.9011 2.9442 0.9584
-2.5088 7.2547 2.3902
-2.7667 7.1575 2.3902
-3.0209 7.0512 2.3902
-3.2712 6.9360 2.3902
-3.5171 6.8120 2.3902
-3.7585 6.6795 2.3902
-3.9949 6.5385 2.3902
-4.2261 6.3892 2.3902
-4.4519 6.2319 2.3902
-4.6719 6.0668 2.3902
-4.8859 5.8940 2.3902
-5.0936 5.7137 2.3902
-5.2947 5.5263 2.3902
-5.4891 5.3319 2.3902
-5.6765 5.1307 2.3902
-5.8566 4.9231 2.3902
-6.0293 4.7092 2.3902
-6.1942 4.4894 2.3902
-6.3513 4.2639 2.3902
-6.5003 4.0330 2.3902
-6.6411 3.7969 2.3902
-6.7734 3.5561 2.3902
-6.8971 3.3106 2.3902
-7.0121 3.0610 2.3902
-7.1182 2.8074 2.3902
-7.2152 2.5502 2.3902
-7.3032 2.2897 2.3902
-7.3818 2.0262 2.3902
-7.4511 1.7601 2.3902
-7.5109 1.4916 2.3902
-7.5612 1.2211 2.3902
-7.6020 0.9490 2.3902
-7.6330 0.6755 2.3902
-7.6544 0.4011 2.3902
-7.6660 0.1260 2.3902
-7.6679 -0.1495 2.3902
-7.6600 -0.4249 2.3902
-7.6423 -0.6999 2.3902
-7.6149 -0.9742 2.3902
-7.5778 -1.2475 2.3902
-7.5310 -1.5194 2.3902
-7.4745 -1.7895 2.3902
-7.4085 -2.0575 2.3902
-7.3329 -2.3232 2.3902
-7.2479 -2.5861 2.3902
-7.1536 -2.8459 2.3902
-7.0501 -3.1023 2.3902
-6.9375 -3.3549 2.3902
-6.8159 -3.6035 2.3902
-6.6854 -3.8478 2.3902
-6.5463 -4.0873 2.3902
-6.3987 -4.3218 2.3902
-6.2427 -4.5511 2.3902
-6.0785 -4.7747 2.3902
-5.9064 -4.9924 2.3902
-5.7266 -5.2040 2.3902
-5.5392 -5.4091 2.3902
-5.3445 -5.6074 2.3902
-5.1427 -5.7988 2.3902
-4.9342 -5.9829 2.3902
-4.7190 -6.1596 2.3902
-4.4975 -6.3285 2.3902
-4.2700 -6.4894 2.3902
-4.0368 -6.6422 2.3902
-3.7981 -6.7865 2.3902
-3.5543 -6.9223 2.3902
-3.3056 -7.0493 2.3902
-3.0524 -7.1674 2.3902
-2.7950 -7.2763 2.3902
-2.5336 -7.3759 2.3902
-2.2688 -7.4662 2.3902
-2.0007 -7.5468 2.3902
-1.7298 -7.6178 2.3902
-1.4563 -7.6791 2.3902
-1.1807 -7.7304 2.3902
-0.9032 -7.7718 2.3902
-0.6244 -7.8032 2.3902
-0.3444 -7.8245 2.3902
-0.0638 -7.8356 2.3902
0.2172 -7.8367 2.3902
0.4982 -7.8275 2.3902
0.7788 -7.8082 2.3902
1.0586 -7.7788 2.3902
1.3373 -7.7392 2.3902
1.6144 -7.6894 2.3902
1.8898 -7.6298 2.3902
2.1628 -7.5601 2.3902
2.4332 -7.4806 2.3902
2.7007 -7.3912 2.3902
2.9648 -7.2922 2.3902
3.2252 -7.1836 2.3902
3.4816 -7.0657 2.3902
3.7336 -6.9384 2.3902
3.9809 -6.8021 2.3902
4.2231 -6.6568 2.3902
4.4600 -6.5028 2.3902
4.6911 -6.3402 2.3902
4.9162 -6.1693 2.3902
5.1350 -5.9903 2.3902
5.3472 -5.8035 2.3902
5.5524 -5.6089 2.3902
5.7505 -5.4071 2.3902
5.9411 -5.1982 2.3902
6.1239 -4.9824 2.3902
6.2989 -4.7601 2.3902
6.4656 -4.5316 2.3902
6.6239 -4.2971 2.3902
6.7736 -4.0571 2.3902
6.9144 -3.8118 2.3902
7.0462 -3.5615 2.3902
7.1688 -3.3066 2.3902
7.2820 -3.0473 2.3902
7.3858 -2.7843 2.3902
7.4799 -2.5176 2.3902
7.5641 -2.2477 2.3902
7.6386 -1.9750 2.3902
7.7030 -1.6997 2.3902
7.7574 -1.4224 2.3902
7.8016 -1.1433 2.3902
7.8357 -0.8629 2.3902
7.8595 -0.5815 2.3902
7.8731 -0.2994 2.3902
7.8765 -0.0170 2.3902
7.8696 0.2650 2.3902
7.8524 0.5467 2.3902
7.8251 0.8274 2.3902
7.7876 1.1069 2.3902
7.7400 1.3847 2.3902
7.6824 1.6604 2.3902
7.6148 1.9341 2.3902
7.5375 2.2046 2.3902
7.4504 2.4723 2.3902
7.3537 2.7365 2.3902
7.2476 2.9969 2.3902
7.1321 3.2532 2.3902
7.0076 3.5049 2.3902
6.8740 3.7521 2.3902
6.7317 3.9942 2.3902
6.5808 4.2308 2.3902
6.4216 4.4616 2.3902
6.2542 4.6865 2.3902
6.0789 4.9051 2.3902
5.8959 5.1171 2.3902
5.7055 5.3223 2.3902
5.5079 5.5205 2.3902
5.3035 5.7112 2.3902
5.0924 5.8944 2.3902
4.8750 6.0699 2.3902
4.6515 6.2373 2.3902
4.4223 6.3965 2.3902
4.1876 6.5472 2.3902
3.9478 6.6895 2.3902
3.7032 6.8229 2.3902
3.4541 6.9474 2.3902
3.2009 7.0629 2.3902
2.9438 7.1692 2.3902
2.6831 7.2661 2.3902
2.4194 7.3537 2.3902
0.8566 2.9570 0.9510
0.7500 2.9861 0.9516
0.6424 3.0112 0.9522
0.5339 3.0325 0.9527
0.4247 3.0499 0.9533
0.3150 3.0633 0.9538
0.2049 3.0727 0.9543
0.0944 3.0781 0.9548
-0.0161 3.0796 0.9553
-0.1266 3.0770 0.9557
-0.2370 3.0705 0.9562
-0.3471 3.0600 0.9566
-0.4567 3.0455 0.9570
-0.5658 3.0270 0.9573
-0.6740 3.0046 0.9577
6.3115 -3.6655 2.3902
6.4386 -3.4370 2.3902
6.5573 -3.2040 2.3902
6.6674 -2.9669 2.3902
6.7688 -2.7259 2.3902
6.8614 -2.4814 2.3902
6.9450 -2.2338 2.3902
7.0195 -1.9833 2.3902
7.0849 -1.7303 2.3902
7.1411 -1.4752 2.3902
7.1879 -1.2182 2.3902
7.2254 -0.9597 2.3902
7.2535 -0.7001 2.3902
7.2721 -0.4397 2.3902
7.2812 -0.1788 2.3902
7.2809 0.0821 2.3902
7.2711 0.3428 2.3902
7.2519 0.6029 2.3902
7.2232 0.8621 2.3902
7.1852 1.1199 2.3902
7.1379 1.3762 2.3902
7.0814 1.6304 2.3902
7.0157 1.8824 2.3902
6.9409 2.1318 2.3902
6.8572 2.3782 2.3902
6.7647 2.6213 2.3902
6.6635 2.8608 2.3902
6.5538 3.0964 2.3902
6.4357 3.3278 2.3902
6.3093 3.5547 2.3902
6.1749 3.7768 2.3902
6.0326 3.9938 2.3902
5.8827 4.2054 2.3902
5.7253 4.4114 2.3902
5.5606 4.6114 2.3902
5.3890 4.8054 2.3902
5.2105 4.9930 2.3902
5.0255 5.1739 2.3902
4.8342 5.3480 2.3902
4.6368 5.5150 2.3902
4.4337 5.6748 2.3902
4.2251 5.8270 2.3902
4.0112 5.9716 2.3902
3.7924 6.1084 2.3902
3.5690 6.2372 2.3902
3.3412 6.3577 2.3902
3.1093 6.4702 2.3902
2.8736 6.5741 2.3902
2.6345 6.6695 2.3902
2.3923 6.7562 2.3902
0.8534 2.7162 0.9500
0.7554 2.7452 0.9505
0.6564 2.7707 0.9510
0.5566 2.7926 0.9515
0.4560 2.8109 0.9521
0.3549 2.8255 0.9525
0.2532 2.8365 0.9530
0.1513 2.8438 0.9535
0.0491 2.8475 0.9539
-0.0532 2.8474 0.9544
-0.1554 2.8437 0.9548
-0.2574 2.8362 0.9552
-0.3590 2.8251 0.9556
-0.4602 2.8103 0.9559
-0.5608 2.7919 0.9563
-0.6607 2.7698 0.9566
-0.7596 2.7442 0.9569
-0.8577 2.7150 0.9572
-2.3830 6.6962 2.3902
-2.6211 6.6042 2.3902
-2.8557 6.5038 2.3902
-3.0866 6.3952 2.3902
-3.3134 6.2785 2.3902
-3.5358 6.1539 2.3902
-3.7537 6.0215 2.3902
-3.9667 5.8815 2.3902
-4.1745 5.7340 2.3902
-4.3770 5.5793 2.3902
-4.5738 5.4176 2.3902
-4.7647 5.2490 2.3902
-4.9495 5.0738 2.3902
-5.1280 4.8921 2.3902
-5.2999 4.7043 2.3902
-5.4651 4.5105 2.3902
-5.6233 4.3110 2.3902
-5.7743 4.1061 2.3902
-5.9179 3.8959 2.3902
-6.0541 3.6808 2.3902
-6.1825 3.4610 2.3902
-6.3030 3.2368 2.3902
-6.4156 3.0084 2.3902
-6.5200 2.7762 2.3902
-6.6161 2.5404 2.3902
-6.7039 2.3014 2.3902
-6.7831 2.0593 2.3902
-6.8537 1.8146 2.3902
-6.9156 1.5675 2.3902
-6.9687 1.3183 2.3902
-7.0130 1.0674 2.3902
-7.0484 0.8150 2.3902
-7.0747 0.5614 2.3902
-7.0921 0.3070 2.3902
-7.1005 0.0521 2.3902
-7.0998 -0.2030 2.3902
-7.0901 -0.4580 2.3902
-7.0713 -0.7125 2.3902
-7.0435 -0.9663 2.3902
-7.0067 -1.2191 2.3902
-6.9609 -1.4704 2.3902
-6.9062 -1.7201 2.3902
-6.8426 -1.9677 2.3902
-6.7703 -2.2130 2.3902
-6.6892 -2.4557 2.3902
-6.5995 -2.6954 2.3902
-6.5013 -2.9318 2.3902
-6.3947 -3.1647 2.3902
-6.2799 -3.3938 2.3902
-6.1569 -3.6187 2.3902
-6.0259 -3.8392 2.3902
-5.8870 -4.0550 2.3902
-5.7405 -4.2657 2.3902
-5.5865 -4.4712 2.3902
-5.4252 -4.6712 2.3902
-5.2568 -4.8654 2.3902
-5.0814 -5.0534 2.3902
-4.8994 -5.2352 2.3902
-4.7108 -5.4105 2.3902
-4.5161 -5.5790 2.3902
-4.3153 -5.7404 2.3902
-4.1088 -5.8947 2.3902
-3.8967 -6.0415 2.3902
-3.6795 -6.1807 2.3902
-3.4573 -6.3120 2.3902
-3.2304 -6.4354 2.3902
-2.9991 -6.5506 2.3902
-2.7637 -6.6574 2.3902
-2.5245 -6.7558 2.3902
-2.2818 -6.8455 2.3902
-2.0360 -6.9265 2.3902
-1.7872 -6.9987 2.3902
-1.5359 -7.0618 2.3902
-1.2824 -7.1159 2.3902
-1.0270 -7.1608 2.3902
-0.7700 -7.1965 2.3902
-0.5118 -7.2229 2.3902
-0.2527 -7.2400 2.3902
0.0070 -7.2478 2.3902
0.2669 -7.2461 2.3902
0.5267 -7.2351 2.3902
0.7859 -7.2146 2.3902
1.0444 -7.1848 2.3902
1.3017 -7.1456 2.3902
1.5576 -7.0972 2.3902
1.8116 -7.0394 2.3902
2.0634 -6.9725 2.3902
2.3127 -6.8965 2.3902
2.5592 -6.8115 2.3902
2.8024 -6.7176 2.3902
3.0422 -6.6149 2.3902
3.2782 -6.5035 2.3902
3.5100 -6.3836 2.3902
3.7374 -6.2553 2.3902
3.9600 -6.1189 2.3902
4.1776 -5.9744 2.3902
4.3898 -5.8221 2.3902
4.5964 -5.6621 2.3902
4.7971 -5.4948 2.3902
4.9915 -5.3202 2.3902
5.1796 -5.1386 2.3902
5.3609 -4.9504 2.3902
5.5352 -4.7556 2.3902
5.7024 -4.5546 2.3902
5.8622 -4.3476 2.3902
6.0144 -4.1350 2.3902
6.1587 -3.9170 2.3902
6.2950 -3.6939 2.3902
6.4231 -3.4659 2.3902
6.5428 -3.2335 2.3902
6.6540 -2.9969 2.3902
6.7565 -2.7564 2.3902
6.8502 -2.5123 2.3902
6.9350 -2.2651 2.3902
7.0107 -2.0149 2.3902
7.0772 -1.7622 2.3902
7.1345 -1.5073 2.3902
7.1826 -1.2506 2.3902
7.2212 -0.9923 2.3902
7.2505 -0.7328 2.3902
7.2703 -0.4724 2.3902
7.2806 -0.2116 2.3902
7.2814 0.0493 2.3902
7.2728 0.3101 2.3902
7.2548 0.5703 2.3902
7.2273 0.8296 2.3902
7.1905 1.0876 2.3902
7.1444 1.3441 2.3902
7.0890 1.5986 2.3902
7.0244 1.8509 2.3902
6.9508 2.1006 2.3902
6.8682 2.3474 2.3902
6.7768 2.5909 2.3902
6.6767 2.8309 2.3902
6.5681 3.0670 2.3902
6.4510 3.2989 2.3902
6.3256 3.5264 2.3902
6.1922 3.7491 2.3902
6.0509 3.9667 2.3902
5.9019 4.1791 2.3902
5.7455 4.3858 2.3902
5.5817 4.5866 2.3902
5.4109 4.7814 2.3902
5.2333 4.9698 2.3902
5.0491 5.1515 2.3902
4.8586 5.3265 2.3902
4.6620 5.4944 2.3902
4.4596 5.6551 2.3902
4.2516 5.8083 2.3902
4.0384 5.9539 2.3902
3.8202 6.0917 2.3902
3.5973 6.2215 2.3902
3.3700 6.3430 2.3902
3.1386 6.4565 2.3902
2.9034 6.5615 2.3902
2.6647 6.6580 2.3902
2.4229 6.7458 2.3902
0.8656 2.7123 0.9499
0.7678 2.7418 0.9504
0.6689 2.7677 0.9510
0.5692 2.7901 0.9515
0.4687 2.8088 0.9520
0.3676 2.8239 0.9525
0.2660 2.8354 0.9530
0.1641 2.8431 0.9534
0.0619 2.8472 0.9539
-0.0403 2.8476 0.9543
-0.1425 2.8443 0.9547
-0.2445 2.8373 0.9551
-0.3463 2.8267 0.9555
-0.4475 2.8124 0.9559
-0.5482 2.7944 0.9562
-0.6481 2.7728 0.9565
-0.7473 2.7476 0.9568
-0.8454 2.7188 0.9571
-2.3528 6.7072 2.3902
-2.5914 6.6162 2.3902
-2.8264 6.5169 2.3902
-3.0578 6.4093 2.3902
-3.2851 6.2936 2.3902
-3.5081 6.1700 2.3902
-3.7266 6.0385 2.3902
-3.9402 5.8995 2.3902
-4.1487 5.7529 2.3902
-4.3518 5.5991 2.3902
-4.5494 5.4383 2.3902
-4.7410 5.2705 2.3902
-4.9267 5.0961 2.3902
-5.1059 4.9153 2.3902
-5.2787 4.7282 2.3902
-5.4447 4.5352 2.3902
-5.6038 4.3364 2.3902
-5.7557 4.1321 2.3902
-5.9003 3.9226 2.3902
-6.0374 3.7081 2.3902
-6.1668 3.4889 2.3902
-6.2883 3.2652 2.3902
-6.4019 3.0373 2.3902
-6.5073 2.8056 2.3902
-6.6045 2.5703 2.3902
-6.6933 2.3316 2.3902
-6.7736 2.0899 2.3902
-6.8453 1.8455 2.3902
-6.9083 1.5987 2.3902
-6.9625 1.3498 2.3902
-7.0079 1.0990 2.3902
-7.0444 0.8468 2.3902
-7.0719 0.5933 2.3902
-7.0905 0.3390 2.3902
-7.0999 0.0842 2.3902
-7.1004 -0.1709 2.3902
-7.0918 -0.4259 2.3902
-7.0742 -0.6806 2.3902
-7.0475 -0.9345 2.3902
-7.0118 -1.1874 2.3902
-6.9671 -1.4389 2.3902
-6.9135 -1.6888 2.3902
-6.8510 -1.9367 2.3902
-6.7798 -2.1823 2.3902
-6.6999 -2.4253 2.3902
-6.6113 -2.6654 2.3902
-6.5141 -2.9023 2.3902
-6.4086 -3.1357 2.3902
-6.2948 -3.3652 2.3902
-6.1728 -3.5907 2.3902
-6.0428 -3.8118 2.3902
-5.9049 -4.0281 2.3902
-5.7594 -4.2395 2.3902
-5.6063 -4.4457 2.3902
-5.4459 -4.6464 2.3902
-5.2783 -4.8413 2.3902
-5.1038 -5.0302 2.3902
-4.9226 -5.2128 2.3902
-4.7349 -5.3888 2.3902
-4.5409 -5.5582 2.3902
-4.3408 -5.7205 2.3902
-4.1350 -5.8757 2.3902
-3.9237 -6.0234 2.3902
-3.7071 -6.1636 2.3902
-3.4855 -6.2959 2.3902
-3.2592 -6.4203 2.3902
-3.0284 -6.5365 2.3902
-2.7935 -6.6444 2.3902
-2.5548 -6.7439 2.3902
-2.3125 -6.8347 2.3902
-2.0670 -6.9168 2.3902
-1.8186 -6.9901 2.3902
-1.5676 -7.0544 2.3902
-1.3144 -7.1096 2.3902
-1.0592 -7.1557 2.3902
-0.8024 -7.1925 2.3902
-0.5443 -7.2201 2.3902
-0.2853 -7.2384 2.3902
-0.0256 -7.2473 2.3902
0.2342 -7.2468 2.3902
0.4940 -7.2370 2.3902
0.7534 -7.2177 2.3902
1.0120 -7.1891 2.3902
1.2695 -7.1511 2.3902
1.5255 -7.1038 2.3902
1.7798 -7.0472 2.3902
2.0319 -6.9814 2.3902
2.2815 -6.9066 2.3902
2.5283 -6.8227 2.3902
2.7721 -6.7299 2.3902
3.0123 -6.6283 2.3902
3.2488 -6.5180 2.3902
3.4811 -6.3991 2.3902
3.7091 -6.2719 2.3902
3.9323 -6.1365 2.3902
4.1506 -5.9930 2.3902
4.3635 -5.8417 2.3902
4.5708 -5.6827 2.3902
4.7722 -5.5162 2.3902
4.9674 -5.3425 2.3902
5.1563 -5.1618 2.3902
5.3385 -4.9744 2.3902
5.5137 -4.7804 2.3902
5.6818 -4.5802 2.3902
5.8425 -4.3740 2.3902
5.9957 -4.1620 2.3902
6.1410 -3.9447 2.3902
6.2783 -3.7222 2.3902
6.4075 -3.4949 2.3902
6.5282 -3.2629 2.3902
6.6405 -3.0268 2.3902
6.7441 -2.7869 2.3902
6.8389 -2.5432 2.3902
6.9248 -2.2963 2.3902
7.0017 -2.0465 2.3902
7.0694 -1.7941 2.3902
7.1279 -1.5395 2.3902
7.1770 -1.2829 2.3902
7.2169 -1.0248 2.3902
7.2473 -0.7655 2.3902
7.2683 -0.5052 2.3902
7.2798 -0.2444 2.3902
7.2819 0.0165 2.3902
7.2744 0.2773 2.3902
7.2576 0.5376 2.3902
7.2313 0.7970 2.3902
7.1956 1.0553 2.3902
7.1507 1.3119 2.3902
7.0964 1.5667 2.3902
7.0330 1.8193 2.3902
6.9606 2.0693 2.3902
6.8791 2.3165 2.3902
6.7888 2.5605 2.3902
6.6898 2.8009 2.3902
6.5822 3.0375 2.3902
6.4661 3.2700 2.3902
6.3418 3.4981 2.3902
6.2094 3.7214 2.3902
6.0691 3.9397 2.3902
5.9211 4.1527 2.3902
5.7655 4.3601 2.3902
5.6027 4.5617 2.3902
5.4327 4.7573 2.3902
5.2560 4.9464 2.3902
5.0726 5.1291 2.3902
4.8828 5.3049 2.3902
4.6870 5.4737 2.3902
4.4853 5.6353 2.3902
4.2780 5.7895 2.3902
4.0655 5.9360 2.3902
3.8479 6.0748 2.3902
3.6256 6.2056 2.3902
3.3988 6.3283 2.3902
3.1679 6.4427 2.3902
2.9332 6.5488 2.3902
2.6949 6.6463 2.3902
2.4534 6.7352 2.3902
0.8778 2.7083 0.9498
0.7801 2.7382 0.9504
0.6814 2.7646 0.9509
0.5818 2.7874 0.9514
0.4814 2.8066 0.9519
0.3804 2.8222 0.9524
0.2788 2.8341 0.9529
0.1769 2.8424 0.9534
0.0748 2.8469 0.9538
-0.0275 2.8478 0.9543
-0.1297 2.8449 0.9547
-0.2317 2.8384 0.9551
-0.3335 2.8282 0.9555
-0.4348 2.8144 0.9558
-0.5356 2.7968 0.9562
-0.6356 2.7757 0.9565
-0.7349 2.7509 0.9568
-0.8331 2.7226 0.9571
-2.3226 6.7180 2.3902
-2.5616 6.6281 2.3902
-2.7971 6.5298 2.3902
-3.0289 6.4233 2.3902
-3.2568 6.3086 2.3902
-3.4803 6.1860 2.3902
-3.6994 6.0555 2.3902
-3.9136 5.9174 2.3902
-4.1228 5.7718 2.3902
-4.3266 5.6189 2.3902
-4.5249 5.4589 2.3902
-4.7173 5.2920 2.3902
-4.9037 5.1184 2.3902
-5.0838 4.9384 2.3902
-5.2573 4.7521 2.3902
-5.4242 4.5598 2.3902
-5.5842 4.3617 2.3902
-5.7370 4.1581 2.3902
-5.8825 3.9492 2.3902
-6.0206 3.7353 2.3902
-6.1509 3.5167 2.3902
-6.2735 3.2935 2.3902
-6.3881 3.0662 2.3902
-6.4945 2.8349 2.3902
-6.5928 2.6000 2.3902
-6.6826 2.3618 2.3902
-6.7640 2.1204 2.3902
-6.8368 1.8764 2.3902
-6.9009 1.6298 2.3902
-6.9562 1.3812 2.3902
-7.0027 1.1306 2.3902
-7.0403 0.8785 2.3902
-7.0690 0.6253 2.3902
-7.0886 0.3710 2.3902
-7.0993 0.1162 2.3902
-7.1008 -0.1389 2.3902
-7.0934 -0.3939 2.3902
-7.0769 -0.6486 2.3902
-7.0513 -0.9026 2.3902
-7.0168 -1.1557 2.3902
-6.9732 -1.4074 2.3902
-6.9208 -1.6575 2.3902
-6.8594 -1.9056 2.3902
-6.7893 -2.1516 2.3902
-6.7104 -2.3949 2.3902
-6.6229 -2.6354 2.3902
-6.5268 -2.8727 2.3902
-6.4223 -3.1066 2.3902
-6.3095 -3.3366 2.3902
-6.1885 -3.5626 2.3902
-6.0595 -3.7842 2.3902
-5.9227 -4.0012 2.3902
-5.7781 -4.2132 2.3902
-5.6259 -4.4201 2.3902
-5.4664 -4.6215 2.3902
-5.2998 -4.8171 2.3902
-5.1261 -5.0068 2.3902
-4.9457 -5.1902 2.3902
-4.7588 -5.3671 2.3902
-4.5656 -5.5373 2.3902
-4.3663 -5.7005 2.3902
-4.1612 -5.8566 2.3902
-3.9505 -6.0053 2.3902
-3.7346 -6.1464 2.3902
-3.5136 -6.2797 2.3902
-3.2878 -6.4051 2.3902
-3.0576 -6.5224 2.3902
-2.8233 -6.6313 2.3902
-2.5850 -6.7319 2.3902
-2.3432 -6.8238 2.3902
-2.0981 -6.9070 2.3902
-1.8500 -6.9814 2.3902
-1.5993 -7.0468 2.3902
-1.3463 -7.1032 2.3902
-1.0913 -7.1504 2.3902
-0.8347 -7.1884 2.3902
-0.5768 -7.2172 2.3902
-0.3179 -7.2366 2.3902
-0.0583 -7.2467 2.3902
0.2016 -7.2474 2.3902
0.4613 -7.2387 2.3902
0.7208 -7.2206 2.3902
0.9796 -7.1932 2.3902
1.2372 -7.1563 2.3902
1.4934 -7.1102 2.3902
1.7479 -7.0548 2.3902
2.0003 -6.9902 2.3902
2.2503 -6.9165 2.3902
2.4975 -6.8337 2.3902
2.7416 -6.7420 2.3902
2.9823 -6.6415 2.3902
3.2193 -6.5323 2.3902
3.4522 -6.4145 2.3902
3.6807 -6.2884 2.3902
3.9046 -6.1539 2.3902
4.1234 -6.0115 2.3902
4.3370 -5.8611 2.3902
4.5450 -5.7031 2.3902
4.7472 -5.5375 2.3902
4.9432 -5.3647 2.3902
5.1329 -5.1849 2.3902
5.3159 -4.9983 2.3902
5.4921 -4.8051 2.3902
5.6611 -4.6057 2.3902
5.8228 -4.4002 2.3902
5.9768 -4.1890 2.3902
6.1231 -3.9722 2.3902
6.2615 -3.7504 2.3902
6.3917 -3.5236 2.3902
6.5135 -3.2923 2.3902
6.6269 -3.0567 2.3902
6.7316 -2.8172 2.3902
6.8275 -2.5740 2.3902
6.9145 -2.3275 2.3902
6.9925 -2.0781 2.3902
7.0614 -1.8260 2.3902
7.1210 -1.5716 2.3902
7.1714 -1.3153 2.3902
7.2124 -1.0573 2.3902
7.2440 -0.7980 2.3902
7.2662 -0.5379 2.3902
7.2789 -0.2772 2.3902
7.2821 -0.0162 2.3902
7.2759 0.2446 2.3902
7.2602 0.5049 2.3902
7.2351 0.7645 2.3902
7.2006 1.0229 2.3902
7.1568 1.2798 2.3902
7.1038 1.5348 2.3902
7.0415 1.7877 2.3902
6.9702 2.0381 2.3902
6.8898 2.2856 2.3902
6.8006 2.5300 2.3902
6.7027 2.7709 2.3902
6.5962 3.0080 2.3902
6.4812 3.2411 2.3902
6.3579 3.4697 2.3902
6.2265 3.6936 2.3902
6.0872 3.9125 2.3902
5.9401 4.1262 2.3902
5.7855 4.3344 2.3902
5.6235 4.5367 2.3902
5.4545 4.7330 2.3902
5.2786 4.9230 2.3902
5.0960 5.1065 2.3902
4.9070 5.2832 2.3902
4.7119 5.4529 2.3902
4.5110 5.6154 2.3902
4.3044 5.7705 2.3902
4.0925 5.9180 2.3902
3.8755 6.0578 2.3902
3.6538 6.1896 2.3902
3.4276 6.3132 2.3902
3.1972 6.4288 2.3902
2.9629 6.5359 2.3902
2.7251 6.6345 2.3902
2.4840 6.7245 2.3902
0.8900 2.7043 0.9497
0.7925 2.7347 0.9503
0.6939 2.7615 0.9508
0.5943 2.7848 0.9514
0.4940 2.8044 0.9519
0.3931 2.8205 0.9524
0.2916 2.8328 0.9528
0.1897 2.8415 0.9533
0.0876 2.8465 0.9538
-0.0146 2.8479 0.9542
-0.1169 2.8455 0.9546
-0.2189 2.8394 0.9550
-0.3207 2.8297 0.9554
-0.4221 2.8163 0.9558
-0.5229 2.7992 0.9561
-0.6231 2.7785 0.9565
5.8618 -3.4043 2.3902
5.9798 -3.1921 2.3902
6.0900 -2.9758 2.3902
6.1923 -2.7556 2.3902
6.2865 -2.5319 2.3902
6.3725 -2.3048 2.3902
6.4502 -2.0749 2.3902
6.5195 -1.8423 2.3902
6.5803 -1.6073 2.3902
6.6326 -1.3704 2.3902
6.6761 -1.1317 2.3902
6.7110 -0.8917 2.3902
6.7372 -0.6506 2.3902
6.7546 -0.4087 2.3902
6.7632 -0.1665 2.3902
6.7630 0.0759 2.3902
6.7540 0.3180 2.3902
6.7363 0.5596 2.3902
6.7098 0.8003 2.3902
6.6747 1.0399 2.3902
6.6309 1.2779 2.3902
6.5785 1.5142 2.3902
6.5177 1.7482 2.3902
6.4484 1.9799 2.3902
6.3708 2.2088 2.3902
6.2851 2.4348 2.3902
6.1913 2.6572 2.3902
6.0895 2.8763 2.3902
5.9799 3.0914 2.3902
5.8627 3.3023 2.3902
5.7380 3.5087 2.3902
5.6059 3.7104 2.3902
5.4668 3.9072 2.3902
5.3207 4.0987 2.3902
5.1679 4.2848 2.3902
5.0085 4.4652 2.3902
4.8428 4.6396 2.3902
4.6710 4.8079 2.3902
4.4934 4.9699 2.3902
4.3102 5.1253 2.3902
4.1215 5.2739 2.3902
3.9277 5.4156 2.3902
3.7291 5.5502 2.3902
3.5259 5.6774 2.3902
3.3182 5.7974 2.3902
3.1066 5.9098 2.3902
2.8911 6.0145 2.3902
2.6721 6.1113 2.3902
2.4499 6.2001 2.3902
0.8832 2.4933 0.9488
0.7932 2.5235 0.9493
0.7021 2.5505 0.9498
0.6102 2.5742 0.9503
0.5174 2.5945 0.9508
0.4240 2.6115 0.9513
0.3300 2.6251 0.9517
0.2355 2.6353 0.9522
0.1408 2.6421 0.9526
0.0458 2.6454 0.9530
-0.0492 2.6453 0.9534
-0.1441 2.6419 0.9538
-0.2389 2.6349 0.9542
-0.3333 2.6246 0.9545
-0.4273 2.6108 0.9549
-0.5208 2.5937 0.9552
-0.6135 2.5732 0.9555
-0.7055 2.5494 0.9558
-0.7966 2.5223 0.9560
-0.8866 2.4919 0.9563
-2.4376 6.1430 2.3902
-2.6559 6.0497 2.3902
-2.8707 5.9488 2.3902
-3.0817 5.8404 2.3902
-3.2888 5.7245 2.3902
-3.4915 5.6014 2.3902
-3.6896 5.4712 2.3902
-3.8831 5.3341 2.3902
-4.0714 5.1903 2.3902
-4.2546 5.0398 2.3902
-4.4323 4.8830 2.3902
-4.6043 4.7201 2.3902
-4.7704 4.5511 2.3902
-4.9303 4.3764 2.3902
-5.0840 4.1961 2.3902
-5.2312 4.0105 2.3902
-5.3717 3.8199 2.3902
-5.5054 3.6243 2.3902
-5.6320 3.4242 2.3902
-5.7515 3.2197 2.3902
-5.8637 3.0111 2.3902
-5.9684 2.7986 2.3902
-6.0655 2.5825 2.3902
-6.1549 2.3632 2.3902
-6.2365 2.1408 2.3902
-6.3101 1.9155 2.3902
-6.3757 1.6878 2.3902
-6.4333 1.4579 2.3902
-6.4826 1.2261 2.3902
-6.5237 0.9926 2.3902
-6.5565 0.7578 2.3902
-6.5810 0.5219 2.3902
-6.5971 0.2852 2.3902
-6.6047 0.0481 2.3902
-6.6040 -0.1892 2.3902
-6.5948 -0.4264 2.3902
-6.5772 -0.6632 2.3902
-6.5512 -0.8993 2.3902
-6.5168 -1.1343 2.3902
-6.4740 -1.3681 2.3902
-6.4230 -1.6003 2.3902
-6.3637 -1.8306 2.3902
-6.2963 -2.0587 2.3902
-6.2206 -2.2844 2.3902
-6.1371 -2.5072 2.3902
-6.0457 -2.7270 2.3902
-5.9464 -2.9436 2.3902
-5.8394 -3.1565 2.3902
-5.7248 -3.3656 2.3902
-5.6028 -3.5705 2.3902
-5.4736 -3.7710 2.3902
-5.3372 -3.9669 2.3902
-5.1938 -4.1578 2.3902
-5.0436 -4.3436 2.3902
-4.8869 -4.5240 2.3902
-4.7237 -4.6987 2.3902
-4.5543 -4.8676 2.3902
-4.3789 -5.0303 2.3902
-4.1977 -5.1868 2.3902
-4.0109 -5.3367 2.3902
-3.8188 -5.4799 2.3902
-3.6215 -5.6162 2.3902
-3.4195 -5.7454 2.3902
-3.2128 -5.8673 2.3902
-3.0018 -5.9817 2.3902
-2.7868 -6.0886 2.3902
-2.5679 -6.1877 2.3902
-2.3455 -6.2789 2.3902
-2.1199 -6.3621 2.3902
-1.8914 -6.4372 2.3902
-1.6601 -6.5040 2.3902
-1.4266 -6.5624 2.3902
-1.1910 -6.6125 2.3902
-0.9536 -6.6540 2.3902
-0.7148 -6.6870 2.3902
-0.4749 -6.7113 2.3902
-0.2341 -6.7270 2.3902
0.0072 -6.7340 2.3902
0.2486 -6.7323 2.3902
0.4899 -6.7218 2.3902
0.7308 -6.7026 2.3902
0.9709 -6.6748 2.3902
1.2099 -6.6382 2.3902
1.4475 -6.5930 2.3902
1.6834 -6.5392 2.3902
1.9172 -6.4769 2.3902
2.1488 -6.4062 2.3902
2.3776 -6.3271 2.3902
2.6036 -6.2397 2.3902
2.8262 -6.1442 2.3902
3.0453 -6.0407 2.3902
3.2606 -5.9292 2.3902
3.4717 -5.8100 2.3902
3.6784 -5.6832 2.3902
3.8804 -5.5489 2.3902
4.0775 -5.4074 2.3902
4.2693 -5.2588 2.3902
4.4556 -5.1033 2.3902
4.6361 -4.9411 2.3902
4.8107 -4.7725 2.3902
4.9790 -4.5976 2.3902
5.1409 -4.4167 2.3902
5.2962 -4.2300 2.3902
5.4445 -4.0378 2.3902
5.5858 -3.8403 2.3902
5.7198 -3.6379 2.3902
5.8464 -3.4307 2.3902
5.9654 -3.2190 2.3902
6.0766 -3.0032 2.3902
6.1799 -2.7834 2.3902
6.2751 -2.5602 2.3902
6.3622 -2.3335 2.3902
6.4409 -2.1039 2.3902
6.5113 -1.8716 2.3902
6.5732 -1.6370 2.3902
6.6265 -1.4002 2.3902
6.6711 -1.1618 2.3902
6.7071 -0.9220 2.3902
6.7344 -0.6810 2.3902
6.7529 -0.4391 2.3902
6.7626 -0.1969 2.3902
6.7635 0.0454 2.3902
6.7556 0.2876 2.3902
6.7390 0.5293 2.3902
6.7136 0.7701 2.3902
6.6796 1.0098 2.3902
6.6369 1.2481 2.3902
6.5856 1.4846 2.3902
6.5258 1.7189 2.3902
6.4576 1.9509 2.3902
6.3810 2.1803 2.3902
6.2963 2.4065 2.3902
6.2035 2.6295 2.3902
6.1027 2.8490 2.3902
5.9941 3.0645 2.3902
5.8778 3.2760 2.3902
5.7540 3.4830 2.3902
5.6229 3.6854 2.3902
5.4847 3.8827 2.3902
5.3394 4.0750 2.3902
5.1874 4.2617 2.3902
5.0289 4.4428 2.3902
4.8640 4.6181 2.3902
4.6930 4.7871 2.3902
4.5161 4.9499 2.3902
4.3335 5.1061 2.3902
4.1455 5.2556 2.3902
3.9524 5.3982 2.3902
3.7543 5.5337 2.3902
3.5516 5.6620 2.3902
3.3446 5.7828 2.3902
3.1334 5.8961 2.3902
2.9184 6.0017 2.3902
2.6998 6.0995 2.3902
2.4780 6.1894 2.3902
0.8944 2.4893 0.9487
0.8045 2.5199 0.9493
0.7136 2.5473 0.9498
0.6218 2.5714 0.9503
0.5291 2.5921 0.9508
0.4357 2.6095 0.9512
0.3418 2.6236 0.9517
0.2474 2.6342 0.9521
0.1527 2.6414 0.9526
0.0578 2.6452 0.9530
-0.0372 2.6455 0.9534
-0.1322 2.6425 0.9538
-0.2270 2.6360 0.9541
-0.3214 2.6261 0.9545
-0.4155 2.6128 0.9548
-0.5091 2.5961 0.9551
-0.6019 2.5760 0.9554
-0.6940 2.5526 0.9557
-0.7852 2.5259 0.9560
-0.8753 2.4959 0.9562
-2.4099 6.1542 2.3902
-2.6286 6.0619 2.3902
-2.8439 5.9619 2.3902
-3.0554 5.8544 2.3902
-3.2631 5.7394 2.3902
-3.4662 5.6173 2.3902
-3.6650 5.4880 2.3902
-3.8590 5.3517 2.3902
-4.0480 5.2087 2.3902
-4.2318 5.0591 2.3902
-4.4102 4.9031 2.3902
-4.5830 4.7409 2.3902
-4.7498 4.5727 2.3902
-4.9106 4.3987 2.3902
-5.0651 4.2191 2.3902
-5.2131 4.0341 2.3902
-5.3544 3.8441 2.3902
-5.4890 3.6492 2.3902
-5.6165 3.4496 2.3902
-5.7369 3.2456 2.3902
-5.8500 3.0375 2.3902
-5.9556 2.8255 2.3902
-6.0537 2.6099 2.3902
-6.1441 2.3909 2.3902
-6.2266 2.1689 2.3902
-6.3013 1.9440 2.3902
-6.3679 1.7166 2.3902
-6.4265 1.4869 2.3902
-6.4769 1.2553 2.3902
-6.5190 1.0220 2.3902
-6.5529 0.7874 2.3902
-6.5784 0.5516 2.3902
-6.5955 0.3150 2.3902
-6.6042 0.0779 2.3902
-6.6045 -0.1594 2.3902
-6.5964 -0.3966 2.3902
-6.5799 -0.6335 2.3902
-6.5549 -0.8696 2.3902
-6.5216 -1.1049 2.3902
-6.4799 -1.3388 2.3902
-6.4299 -1.5712 2.3902
-6.3716 -1.8017 2.3902
-6.3052 -2.0301 2.3902
-6.2307 -2.2561 2.3902
-6.1481 -2.4793 2.3902
-6.0576 -2.6996 2.3902
-5.9593 -2.9165 2.3902
-5.8532 -3.1299 2.3902
-5.7396 -3.3395 2.3902
-5.6186 -3.5450 2.3902
-5.4902 -3.7461 2.3902
-5.3547 -3.9425 2.3902
-5.2122 -4.1341 2.3902
-5.0629 -4.3206 2.3902
-4.9069 -4.5016 2.3902
-4.7445 -4.6771 2.3902
-4.5759 -4.8467 2.3902
-4.4012 -5.0102 2.3902
-4.2207 -5.1675 2.3902
-4.0346 -5.3182 2.3902
-3.8432 -5.4623 2.3902
-3.6466 -5.5994 2.3902
-3.4451 -5.7295 2.3902
-3.2390 -5.8523 2.3902
-3.0286 -5.9678 2.3902
-2.8140 -6.0756 2.3902
-2.5956 -6.1757 2.3902
-2.3737 -6.2679 2.3902
-2.1484 -6.3521 2.3902
-1.9202 -6.4282 2.3902
-1.6893 -6.4960 2.3902
-1.4560 -6.5556 2.3902
-1.2207 -6.6067 2.3902
-0.9835 -6.6493 2.3902
-0.7449 -6.6833 2.3902
-0.5051 -6.7088 2.3902
-0.2644 -6.7255 2.3902
-0.0231 -6.7337 2.3902
0.2182 -6.7329 2.3902
0.4596 -6.7236 2.3902
0.7005 -6.7055 2.3902
0.9407 -6.6787 2.3902
1.1799 -6.6433 2.3902
1.4177 -6.5992 2.3902
1.6538 -6.5465 2.3902
1.8880 -6.4852 2.3902
2.1198 -6.4155 2.3902
2.3490 -6.3375 2.3902
2.5753 -6.2512 2.3902
2.7984 -6.1567 2.3902
3.0180 -6.0541 2.3902
3.2338 -5.9436 2.3902
3.4454 -5.8254 2.3902
3.6527 -5.6995 2.3902
3.8553 -5.5662 2.3902
4.0530 -5.4256 2.3902
4.2455 -5.2778 2.3902
4.4325 -5.1232 2.3902
4.6138 -4.9618 2.3902
4.7891 -4.7940 2.3902
4.9582 -4.6199 2.3902
5.1210 -4.4397 2.3902
5.2770 -4.2538 2.3902
5.4263 -4.0623 2.3902
5.5685 -3.8654 2.3902
5.7034 -3.6636 2.3902
5.8309 -3.4569 2.3902
5.9509 -3.2458 2.3902
6.0630 -3.0305 2.3902
6.1673 -2.8113 2.3902
6.2636 -2.5884 2.3902
6.3517 -2.3622 2.3902
6.4315 -2.1329 2.3902
6.5029 -1.9010 2.3902
6.5658 -1.6666 2.3902
6.6202 -1.4301 2.3902
6.6660 -1.1918 2.3902
6.7031 -0.9522 2.3902
6.7314 -0.7113 2.3902
6.7510 -0.4696 2.3902
6.7618 -0.2274 2.3902
6.7639 0.0150 2.3902
6.7571 0.2572 2.3902
6.7416 0.4989 2.3902
6.7173 0.7399 2.3902
6.6843 0.9798 2.3902
6.6427 1.2182 2.3902
6.5925 1.4549 2.3902
6.5338 1.6896 2.3902
6.4666 1.9219 2.3902
6.3911 2.1516 2.3902
6.3074 2.3783 2.3902
6.2156 2.6017 2.3902
6.1158 2.8216 2.3902
6.0081 3.0377 2.3902
5.8928 3.2497 2.3902
5.7700 3.4572 2.3902
5.6398 3.6602 2.3902
5.5024 3.8582 2.3902
5.3581 4.0511 2.3902
5.2069 4.2386 2.3902
5.0492 4.4204 2.3902
4.8850 4.5964 2.3902
4.7148 4.7663 2.3902
4.5386 4.9298 2.3902
4.3567 5.0869 2.3902
4.1694 5.2372 2.3902
3.9769 5.3807 2.3902
3.7795 5.5171 2.3902
3.5773 5.6463 2.3902
3.3708 5.7680 2.3902
3.1601 5.8823 2.3902
2.9456 5.9889 2.3902
2.7275 6.0877 2.3902
2.5061 6.1785 2.3902
0.9056 2.4852 0.9487
0.8159 2.5162 0.9492
0.7251 2.5440 0.9497
0.6334 2.5685 0.9502
0.5408 2.5897 0.9507
0.4475 2.6075 0.9512
0.3536 2.6220 0.9516
0.2593 2.6330 0.9521
0.1646 2.6407 0.9525
0.0697 2.6449 0.9529
-0.0253 2.6457 0.9533
-0.1202 2.6431 0.9537
-0.2151 2.6370 0.9541
-0.3096 2.6275 0.9544
-0.4037 2.6146 0.9548
-0.4973 2.5983 0.9551
-0.5903 2.5787 0.9554
-0.6825 2.5557 0.9557
-0.7738 2.5294 0.9560
-0.8641 2.4998 0.9562
-2.3822 6.1652 2.3902
-2.6013 6.0739 2.3902
-2.8170 5.9749 2.3902
-3.0291 5.8683 2.3902
-3.2371 5.7543 2.3902
-3.4409 5.6330 2.3902
-3.6403 5.5046 2.3902
-3.8349 5.3692 2.3902
-4.0246 5.2271 2.3902
-4.2090 5.0783 2.3902
-4.3882 4.9230 2.3902
-4.5616 4.7616 2.3902
-4.7292 4.5941 2.3902
-4.8907 4.4208 2.3902
-5.0460 4.2420 2.3902
-5.1948 4.0577 2.3902
-5.3370 3.8683 2.3902
-5.4724 3.6739 2.3902
-5.6009 3.4749 2.3902
-5.7222 3.2715 2.3902
-5.8362 3.0639 2.3902
-5.9428 2.8523 2.3902
-6.0418 2.6372 2.3902
-6.1331 2.4186 2.3902
-6.2167 2.1969 2.3902
-6.2924 1.9724 2.3902
-6.3600 1.7453 2.3902
-6.4196 1.5159 2.3902
-6.4710 1.2845 2.3902
-6.5142 1.0515 2.3902
-6.5491 0.8169 2.3902
-6.5756 0.5813 2.3902
-6.5938 0.3448 2.3902
-6.6036 0.1077 2.3902
-6.6049 -0.1296 2.3902
-6.5979 -0.3668 2.3902
-6.5824 -0.6037 2.3902
-6.5585 -0.8400 2.3902
-6.5262 -1.0754 2.3902
-6.4856 -1.3095 2.3902
-6.4366 -1.5421 2.3902
-6.3794 -1.7729 2.3902
-6.3140 -2.0016 2.3902
-6.2405 -2.2278 2.3902
-6.1590 -2.4514 2.3902
-6.0694 -2.6721 2.3902
-5.9721 -2.8894 2.3902
-5.8670 -3.1033 2.3902
-5.7543 -3.3134 2.3902
-5.6342 -3.5194 2.3902
-5.5067 -3.7210 2.3902
-5.3721 -3.9181 2.3902
-5.2305 -4.1103 2.3902
-5.0820 -4.2974 2.3902
-4.9269 -4.4792 2.3902
-4.7653 -4.6553 2.3902
-4.5974 -4.8257 2.3902
-4.4235 -4.9900 2.3902
-4.2437 -5.1481 2.3902
-4.0583 -5.2996 2.3902
-3.8675 -5.4446 2.3902
-3.6716 -5.5826 2.3902
-3.4707 -5.7136 2.3902
-3.2652 -5.8373 2.3902
-3.0553 -5.9537 2.3902
-2.8412 -6.0624 2.3902
-2.6233 -6.1635 2.3902
-2.4017 -6.2567 2.3902
-2.1769 -6.3419 2.3902
-1.9491 -6.4191 2.3902
-1.7185 -6.4880 2.3902
-1.4855 -6.5485 2.3902
-1.2504 -6.6007 2.3902
-1.0134 -6.6444 2.3902
-0.7749 -6.6795 2.3902
-0.5353 -6.7060 2.3902
-0.2947 -6.7239 2.3902
-0.0535 -6.7331 2.3902
0.1879 -6.7335 2.3902
0.4293 -6.7253 2.3902
0.6703 -6.7083 2.3902
0.9106 -6.6826 2.3902
1.1499 -6.6482 2.3902
1.3879 -6.6052 2.3902
1.6243 -6.5536 2.3902
1.8587 -6.4934 2.3902
2.0908 -6.4248 2.3902
2.3204 -6.3478 2.3902
2.5471 -6.2625 2.3902
2.7706 -6.1690 2.3902
2.9906 -6.0674 2.3902
3.2069 -5.9579 2.3902
3.4191 -5.8407 2.3902
3.6269 -5.7157 2.3902
3.8301 -5.5833 2.3902
4.0284 -5.4436 2.3902
4.2216 -5.2968 2.3902
4.4093 -5.1430 2.3902
4.5913 -4.9825 2.3902
4.7674 -4.8155 2.3902
4.9373 -4.6421 2.3902
5.1009 -4.4627 2.3902
5.2578 -4.2775 2.3902
5.4079 -4.0867 2.3902
5.5510 -3.8905 2.3902
5.6869 -3.6892 2.3902
5.8153 -3.4832 2.3902
5.9362 -3.2726 2.3902
6.0494 -3.0577 2.3902
6.1547 -2.8390 2.3902
6.2519 -2.6166 2.3902
6.3411 -2.3908 2.3902
6.4219 -2.1619 2.3902
6.4944 -1.9303 2.3902
6.5584 -1.6962 2.3902
6.6139 -1.4599 2.3902
6.6607 -1.2219 2.3902
6.6989 -0.9823 2.3902
6.7284 -0.7417 2.3902
6.7490 -0.5000 2.3902
6.7610 -0.2578 2.3902
6.7641 -0.0155 2.3902
6.7584 0.2268 2.3902
6.7440 0.4686 2.3902
6.7208 0.7097 2.3902
6.6890 0.9497 2.3902
6.6484 1.1884 2.3902
6.5993 1.4253 2.3902
6.5416 1.6602 2.3902
6.4755 1.8929 2.3902
6.4011 2.1229 2.3902
6.3184 2.3500 2.3902
6.2276 2.5738 2.3902
6.1288 2.7942 2.3902
6.0221 3.0108 2.3902
5.9077 3.2233 2.3902
5.7858 3.4314 2.3902
5.6566 3.6350 2.3902
5.5201 3.8336 2.3902
5.3766 4.0272 2.3902
5.2263 4.2153 2.3902
5.0693 4.3979 2.3902
4.9060 4.5746 2.3902
4.7365 4.7452 2.3902
4.5611 4.9096 2.3902
4.3799 5.0675 2.3902
4.1932 5.2187 2.3902
4.0014 5.3630 2.3902
3.8045 5.5003 2.3902
3.6030 5.6304 2.3902
3.3970 5.7532 2.3902
3.1868 5.8684 2.3902
2.9728 5.9759 2.3902
2.7551 6.0757 2.3902
2.5341 6.1676 2.3902
0.9168 2.4811 0.9486
0.8272 2.5125 0.9491
0.7366 2.5407 0.9496
0.6449 2.5656 0.9501
0.5525 2.5872 0.9506
0.4593 2.6055 0.9511
0.3655 2.6204 0.9516
0.2712 2.6318 0.9520
0.1765 2.6399 0.9525
0.0817 2.6446 0.9529
-0.0133 2.6458 0.9533
-0.1083 2.6436 0.9537
-0.2032 2.6379 0.9540
-0.2977 2.6289 0.9544
-0.3919 2.6164 0.9547
-0.4856 2.6006 0.9551
-0.5787 2.5813 0.9554
5.4661 -3.1745 2.3902
5.5761 -2.9767 2.3902
5.6789 -2.7750 2.3902
5.7743 -2.5696 2.3902
5.8621 -2.3610 2.3902
5.9424 -2.1494 2.3902
6.0149 -1.9350 2.3902
6.0795 -1.7181 2.3902
6.1363 -1.4991 2.3902
6.1850 -1.2782 2.3902
6.2257 -1.0557 2.3902
6.2583 -0.8318 2.3902
6.2828 -0.6070 2.3902
6.2991 -0.3816 2.3902
6.3072 -0.1557 2.3902
6.3072 0.0703 2.3902
6.2989 0.2962 2.3902
6.2825 0.5215 2.3902
6.2579 0.7460 2.3902
6.2253 0.9694 2.3902
6.1846 1.1914 2.3902
6.1359 1.4117 2.3902
6.0792 1.6301 2.3902
6.0148 1.8462 2.3902
5.9426 2.0598 2.3902
5.8627 2.2705 2.3902
5.7753 2.4782 2.3902
5.6805 2.6825 2.3902
5.5785 2.8832 2.3902
5.4693 3.0800 2.3902
5.3531 3.2726 2.3902
5.2301 3.4609 2.3902
5.1004 3.6445 2.3902
4.9643 3.8233 2.3902
4.8218 3.9971 2.3902
4.6733 4.1654 2.3902
4.5189 4.3283 2.3902
4.3587 4.4855 2.3902
4.1931 4.6367 2.3902
4.0222 4.7818 2.3902
3.8463 4.9207 2.3902
3.6656 5.0531 2.3902
3.4804 5.1788 2.3902
3.2908 5.2978 2.3902
3.0972 5.4098 2.3902
2.8997 5.5148 2.3902
2.6987 5.6127 2.3902
2.4945 5.7032 2.3902
0.9070 2.2945 0.9478
0.8241 2.3257 0.9483
0.7401 2.3539 0.9488
0.6552 2.3790 0.9493
0.5694 2.4011 0.9497
0.4829 2.4200 0.9502
0.3957 2.4359 0.9506
0.3080 2.4485 0.9510
0.2199 2.4580 0.9514
0.1316 2.4643 0.9518
0.0430 2.4675 0.9522
-0.0456 2.4674 0.9526
-0.1342 2.4641 0.9530
-0.2226 2.4577 0.9533
-0.3107 2.4480 0.9536
-0.3984 2.4352 0.9539
-0.4855 2.4192 0.9542
-0.5721 2.4001 0.9545
-0.6579 2.3779 0.9548
-0.7428 2.3526 0.9550
-0.8268 2.3242 0.9552
-2.2756 5.7359 2.3902
-2.4795 5.6489 2.3902
