ply
format ascii 1.0
element vertex 2175
property float32 x
property float32 y
property float32 z
end_header
2.4802 5.5734 2.3931
0.9188 2.2826 0.9647
0.8361 2.3147 0.9643
0.7523 2.3438 0.9639
0.6675 2.3698 0.9634
0.5818 2.3927 0.9630
0.4954 2.4126 0.9624
0.4083 2.4293 0.9619
0.3206 2.4428 0.9613
0.2325 2.4532 0.9608
0.1440 2.4604 0.9601
0.0554 2.4644 0.9595
-0.0333 2.4651 0.9588
-0.1220 2.4627 0.9581
-0.2106 2.4571 0.9574
-0.2989 2.4483 0.9567
-0.3868 2.4363 0.9559
-0.4743 2.4211 0.9552
-0.5611 2.4027 0.9544
-0.6472 2.3813 0.9536
-0.7325 2.3567 0.9528
-0.8169 2.3291 0.9519
-0.9001 2.2985 0.9511
-2.4738 5.7040 2.3931
-2.6798 5.6170 2.3931
-2.8829 5.5227 2.3931
-3.0825 5.4210 2.3931
-3.2786 5.3122 2.3931
-3.4708 5.1963 2.3931
-3.6589 5.0735 2.3931
-3.8427 4.9438 2.3931
-4.0218 4.8076 2.3931
-4.1960 4.6648 2.3931
-4.3651 4.5157 2.3931
-4.5289 4.3605 2.3931
-4.6871 4.1993 2.3931
-4.8395 4.0324 2.3931
-4.9859 3.8599 2.3931
-5.1260 3.6821 2.3931
-5.2598 3.4991 2.3931
-5.3869 3.3113 2.3931
-5.5072 3.1189 2.3931
-5.6205 2.9220 2.3931
-5.7267 2.7210 2.3931
-5.8256 2.5162 2.3931
-5.9170 2.3077 2.3931
-6.0008 2.0958 2.3931
-6.0769 1.8809 2.3931
-6.1452 1.6632 2.3931
-6.2055 1.4431 2.3931
-6.2577 1.2207 2.3931
-6.3018 0.9964 2.3931
-6.3377 0.7706 2.3931
-6.3653 0.5434 2.3931
-6.3846 0.3153 2.3931
-6.3955 0.0865 2.3931
-6.3980 -0.1427 2.3931
-6.3921 -0.3719 2.3931
-6.3778 -0.6008 2.3931
-6.3550 -0.8292 2.3931
-6.3239 -1.0566 2.3931
-6.2845 -1.2828 2.3931
-6.2367 -1.5075 2.3931
-6.1807 -1.7304 2.3931
-6.1165 -1.9510 2.3931
-6.0442 -2.1693 2.3931
-5.9639 -2.3847 2.3931
-5.8757 -2.5971 2.3931
-5.7798 -2.8061 2.3931
-5.6762 -3.0115 2.3931
-5.5651 -3.2129 2.3931
-5.4467 -3.4101 2.3931
-5.3210 -3.6028 2.3931
-5.1884 -3.7908 2.3931
-5.0489 -3.9737 2.3931
-4.9029 -4.1514 2.3931
-4.7503 -4.3235 2.3931
-4.5916 -4.4899 2.3931
-4.4269 -4.6502 2.3931
-4.2565 -4.8044 2.3931
-4.0805 -4.9522 2.3931
-3.8993 -5.0933 2.3931
-3.7130 -5.2277 2.3931
-3.5220 -5.3551 2.3931
-3.3265 -5.4753 2.3931
-3.1268 -5.5882 2.3931
-2.9233 -5.6937 2.3931
-2.7160 -5.7916 2.3931
-2.5054 -5.8818 2.3931
-2.2918 -5.9641 2.3931
-2.0754 -6.0385 2.3931
-1.8564 -6.1050 2.3931
-1.6355 -6.1633 2.3931
-1.4126 -6.2135 2.3931
-1.1882 -6.2554 2.3931
-0.9625 -6.2892 2.3931
-0.7359 -6.3146 2.3931
-0.5087 -6.3318 2.3931
-0.2812 -6.3407 2.3931
-0.0537 -6.3412 2.3931
0.1735 -6.3335 2.3931
0.4002 -6.3176 2.3931
0.6259 -6.2934 2.3931
0.8504 -6.2611 2.3931
1.0735 -6.2208 2.3931
1.2946 -6.1723 2.3931
1.5138 -6.1160 2.3931
1.7305 -6.0518 2.3931
1.9447 -5.9799 2.3931
2.1559 -5.9004 2.3931
2.3639 -5.8134 2.3931
2.5685 -5.7190 2.3931
2.7694 -5.6174 2.3931
2.9663 -5.5087 2.3931
3.1589 -5.3932 2.3931
3.3472 -5.2708 2.3931
3.5308 -5.1420 2.3931
3.7095 -5.0067 2.3931
3.8830 -4.8653 2.3931
4.0513 -4.7178 2.3931
4.2140 -4.5646 2.3931
4.3710 -4.4058 2.3931
4.5221 -4.2416 2.3931
4.6671 -4.0723 2.3931
4.8059 -3.8981 2.3931
4.9383 -3.7192 2.3931
5.0641 -3.5359 2.3931
5.1833 -3.3483 2.3931
5.2955 -3.1568 2.3931
5.4009 -2.9616 2.3931
5.4992 -2.7629 2.3931
5.5903 -2.5610 2.3931
5.6741 -2.3562 2.3931
5.7506 -2.1487 2.3931
5.8196 -1.9387 2.3931
5.8811 -1.7266 2.3931
5.9351 -1.5126 2.3931
5.9814 -1.2970 2.3931
6.0201 -1.0799 2.3931
6.0511 -0.8618 2.3931
6.0743 -0.6429 2.3931
6.0899 -0.4234 2.3931
6.0976 -0.2036 2.3931
6.0977 0.0162 2.3931
6.0900 0.2358 2.3931
6.0746 0.4549 2.3931
6.0515 0.6732 2.3931
6.0208 0.8905 2.3931
5.9824 1.1065 2.3931
5.9366 1.3209 2.3931
5.8832 1.5336 2.3931
5.8225 1.7442 2.3931
5.7544 1.9524 2.3931
5.6790 2.1581 2.3931
5.5965 2.3610 2.3931
5.5069 2.5609 2.3931
5.4104 2.7574 2.3931
5.3071 2.9505 2.3931
5.1971 3.1398 2.3931
5.0805 3.3251 2.3931
4.9575 3.5063 2.3931
4.8282 3.6830 2.3931
4.6928 3.8550 2.3931
4.5514 4.0223 2.3931
4.4042 4.1845 2.3931
4.2514 4.3415 2.3931
4.0932 4.4930 2.3931
3.9296 4.6390 2.3931
3.7611 4.7791 2.3931
3.5876 4.9133 2.3931
3.4095 5.0413 2.3931
3.2270 5.1631 2.3931
3.0402 5.2784 2.3931
2.8494 5.3871 2.3931
2.6547 5.4891 2.3931
2.4566 5.5843 2.3931
0.9090 2.2866 0.9647
0.8262 2.3183 0.9643
0.7423 2.3470 0.9638
0.6574 2.3727 0.9634
0.5717 2.3952 0.9629
0.4851 2.4147 0.9624
0.3979 2.4310 0.9618
0.3102 2.4442 0.9613
0.2220 2.4542 0.9607
0.1336 2.4610 0.9601
0.0449 2.4646 0.9594
-0.0438 2.4650 0.9587
-0.1325 2.4622 0.9581
-0.2211 2.4562 0.9573
-0.3093 2.4470 0.9566
-0.3972 2.4346 0.9559
-0.4846 2.4191 0.9551
-0.5713 2.4004 0.9543
-0.6574 2.3786 0.9535
-0.7425 2.3536 0.9527
-0.8268 2.3257 0.9518
-0.9099 2.2947 0.9510
-2.4983 5.6941 2.3931
-2.7040 5.6062 2.3931
-2.9066 5.5110 2.3931
-3.1059 5.4085 2.3931
-3.3015 5.2989 2.3931
-3.4933 5.1821 2.3931
-3.6809 5.0585 2.3931
-3.8641 4.9281 2.3931
-4.0426 4.7910 2.3931
-4.2163 4.6475 2.3931
-4.3848 4.4977 2.3931
-4.5479 4.3417 2.3931
-4.7054 4.1799 2.3931
-4.8571 4.0123 2.3931
-5.0028 3.8391 2.3931
-5.1422 3.6607 2.3931
-5.2751 3.4772 2.3931
-5.4015 3.2888 2.3931
-5.5210 3.0958 2.3931
-5.6335 2.8985 2.3931
-5.7388 2.6970 2.3931
-5.8368 2.4917 2.3931
-5.9273 2.2828 2.3931
-6.0102 2.0706 2.3931
-6.0854 1.8553 2.3931
-6.1527 1.6373 2.3931
-6.2121 1.4169 2.3931
-6.2633 1.1943 2.3931
-6.3065 0.9698 2.3931
-6.3414 0.7438 2.3931
-6.3680 0.5165 2.3931
-6.3863 0.2882 2.3931
-6.3962 0.0594 2.3931
-6.3977 -0.1698 2.3931
-6.3908 -0.3990 2.3931
-6.3755 -0.6279 2.3931
-6.3518 -0.8561 2.3931
-6.3197 -1.0834 2.3931
-6.2792 -1.3095 2.3931
-6.2305 -1.5340 2.3931
-6.1735 -1.7566 2.3931
-6.1084 -1.9770 2.3931
-6.0351 -2.1949 2.3931
-5.9539 -2.4100 2.3931
-5.8648 -2.6220 2.3931
-5.7679 -2.8306 2.3931
-5.6634 -3.0355 2.3931
-5.5515 -3.2365 2.3931
-5.4322 -3.4332 2.3931
-5.3057 -3.6253 2.3931
-5.1723 -3.8127 2.3931
-5.0320 -3.9950 2.3931
-4.8851 -4.1720 2.3931
-4.7319 -4.3435 2.3931
-4.5725 -4.5091 2.3931
-4.4071 -4.6688 2.3931
-4.2359 -4.8222 2.3931
-4.0593 -4.9692 2.3931
-3.8775 -5.1096 2.3931
-3.6907 -5.2431 2.3931
-3.4991 -5.3697 2.3931
-3.3031 -5.4890 2.3931
-3.1030 -5.6011 2.3931
-2.8989 -5.7057 2.3931
-2.6913 -5.8026 2.3931
-2.4803 -5.8919 2.3931
-2.2663 -5.9733 2.3931
-2.0496 -6.0468 2.3931
-1.8305 -6.1123 2.3931
-1.6092 -6.1696 2.3931
-1.3861 -6.2189 2.3931
-1.1615 -6.2599 2.3931
-0.9357 -6.2928 2.3931
-0.7091 -6.3171 2.3931
-0.4818 -6.3333 2.3931
-0.2543 -6.3412 2.3931
-0.0268 -6.3407 2.3931
0.2004 -6.3321 2.3931
0.4269 -6.3151 2.3931
0.6525 -6.2900 2.3931
0.8768 -6.2568 2.3931
1.0997 -6.2154 2.3931
1.3206 -6.1661 2.3931
1.5395 -6.1088 2.3931
1.7560 -6.0437 2.3931
1.9698 -5.9709 2.3931
2.1807 -5.8905 2.3931
2.3883 -5.8026 2.3931
2.5924 -5.7073 2.3931
2.7928 -5.6049 2.3931
2.9893 -5.4954 2.3931
3.1814 -5.3790 2.3931
3.3692 -5.2559 2.3931
3.5522 -5.1263 2.3931
3.7303 -4.9903 2.3931
3.9032 -4.8481 2.3931
4.0708 -4.7000 2.3931
4.2329 -4.5461 2.3931
4.3892 -4.3867 2.3931
4.5396 -4.2219 2.3931
4.6839 -4.0520 2.3931
4.8219 -3.8772 2.3931
4.9535 -3.6978 2.3931
5.0786 -3.5139 2.3931
5.1969 -3.3259 2.3931
5.3084 -3.1339 2.3931
1.5946 -5.6722 2.3931
1.7954 -5.6061 2.3931
1.9935 -5.5328 2.3931
2.1887 -5.4525 2.3931
2.3807 -5.3653 2.3931
2.5693 -5.2712 2.3931
2.7543 -5.1706 2.3931
2.9353 -5.0634 2.3931
3.1123 -4.9499 2.3931
3.2849 -4.8302 2.3931
3.4530 -4.7045 2.3931
3.6163 -4.5730 2.3931
3.7747 -4.4358 2.3931
3.9279 -4.2932 2.3931
4.0758 -4.1453 2.3931
4.2182 -3.9924 2.3931
4.3550 -3.8345 2.3931
4.4859 -3.6721 2.3931
4.6109 -3.5051 2.3931
4.7298 -3.3340 2.3931
4.8424 -3.1589 2.3931
4.9486 -2.9801 2.3931
5.0483 -2.7977 2.3931
5.1414 -2.6120 2.3931
5.2279 -2.4233 2.3931
5.3075 -2.2317 2.3931
5.3802 -2.0376 2.3931
5.4459 -1.8412 2.3931
5.5047 -1.6427 2.3931
5.5563 -1.4424 2.3931
5.6008 -1.2404 2.3931
5.6381 -1.0372 2.3931
5.6682 -0.8329 2.3931
5.6911 -0.6277 2.3931
5.7067 -0.4220 2.3931
5.7150 -0.2160 2.3931
5.7161 -0.0099 2.3931
5.7099 0.1960 2.3931
5.6965 0.4015 2.3931
5.6758 0.6063 2.3931
5.6480 0.8102 2.3931
5.6130 1.0129 2.3931
5.5709 1.2142 2.3931
5.5218 1.4138 2.3931
5.4657 1.6115 2.3931
5.4028 1.8071 2.3931
5.3330 2.0004 2.3931
5.2564 2.1910 2.3931
5.1733 2.3787 2.3931
5.0836 2.5635 2.3931
4.9875 2.7449 2.3931
4.8850 2.9229 2.3931
4.7764 3.0971 2.3931
4.6618 3.2675 2.3931
4.5412 3.4336 2.3931
4.4148 3.5955 2.3931
4.2829 3.7529 2.3931
4.1455 3.9055 2.3931
4.0027 4.0533 2.3931
3.8549 4.1959 2.3931
3.7021 4.3334 2.3931
3.5445 4.4654 2.3931
3.3823 4.5918 2.3931
3.2157 4.7124 2.3931
3.0450 4.8272 2.3931
2.8702 4.9359 2.3931
2.6917 5.0385 2.3931
2.5096 5.1347 2.3931
2.3241 5.2245 2.3931
0.8595 2.1364 0.9632
0.7821 2.1663 0.9628
0.7037 2.1935 0.9624
0.6243 2.2179 0.9620
0.5441 2.2393 0.9616
0.4632 2.2579 0.9611
0.3817 2.2735 0.9606
0.2996 2.2862 0.9600
0.2171 2.2959 0.9595
0.1343 2.3026 0.9589
0.0514 2.3063 0.9583
-0.0317 2.3071 0.9577
-0.1147 2.3048 0.9571
-0.1976 2.2995 0.9564
-0.2803 2.2912 0.9557
-0.3626 2.2800 0.9550
-0.4444 2.2658 0.9543
-0.5257 2.2486 0.9535
-0.6063 2.2286 0.9528
-0.6861 2.2056 0.9520
-0.7650 2.1797 0.9512
-0.8430 2.1511 0.9504
-0.9199 2.1196 0.9496
-2.5109 5.2596 2.3931
-2.7009 5.1710 2.3931
-2.8877 5.0755 2.3931
-3.0712 4.9733 2.3931
-3.2510 4.8645 2.3931
-3.4269 4.7493 2.3931
-3.5987 4.6276 2.3931
-3.7662 4.4998 2.3931
-3.9291 4.3659 2.3931
-4.0871 4.2261 2.3931
-4.2402 4.0806 2.3931
-4.3880 3.9295 2.3931
-4.5304 3.7730 2.3931
-4.6672 3.6114 2.3931
-4.7981 3.4448 2.3931
-4.9230 3.2735 2.3931
-5.0416 3.0976 2.3931
-5.1540 2.9174 2.3931
-5.2597 2.7330 2.3931
-5.3588 2.5449 2.3931
-5.4510 2.3531 2.3931
-5.5363 2.1579 2.3931
-5.6145 1.9597 2.3931
-5.6854 1.7586 2.3931
-5.7490 1.5549 2.3931
-5.8051 1.3489 2.3931
-5.8537 1.1409 2.3931
-5.8947 0.9311 2.3931
-5.9281 0.7198 2.3931
-5.9537 0.5074 2.3931
-5.9715 0.2940 2.3931
-5.9815 0.0801 2.3931
-5.9837 -0.1342 2.3931
-5.9780 -0.3485 2.3931
-5.9644 -0.5626 2.3931
-5.9430 -0.7760 2.3931
-5.9138 -0.9887 2.3931
-5.8768 -1.2002 2.3931
-5.8320 -1.4102 2.3931
-5.7795 -1.6185 2.3931
-5.7194 -1.8248 2.3931
-5.6517 -2.0288 2.3931
-5.5766 -2.2301 2.3931
-5.4941 -2.4287 2.3931
-5.4044 -2.6241 2.3931
-5.3075 -2.8160 2.3931
-5.2036 -3.0043 2.3931
-5.0929 -3.1887 2.3931
-4.9755 -3.3688 2.3931
-4.8515 -3.5445 2.3931
-4.7212 -3.7155 2.3931
-4.5846 -3.8816 2.3931
-4.4421 -4.0426 2.3931
-4.2938 -4.1982 2.3931
-4.1399 -4.3482 2.3931
-3.9806 -4.4924 2.3931
-3.8161 -4.6306 2.3931
-3.6467 -4.7627 2.3931
-3.4727 -4.8884 2.3931
-3.2942 -5.0076 2.3931
-3.1115 -5.1201 2.3931
-2.9249 -5.2259 2.3931
-2.7346 -5.3246 2.3931
-2.5409 -5.4163 2.3931
-2.3441 -5.5008 2.3931
-2.1443 -5.5780 2.3931
-1.9420 -5.6478 2.3931
-1.7374 -5.7102 2.3931
-1.5308 -5.7649 2.3931
-1.3224 -5.8121 2.3931
-1.1125 -5.8516 2.3931
-0.9015 -5.8834 2.3931
-0.6896 -5.9075 2.3931
-0.4771 -5.9238 2.3931
-0.2643 -5.9324 2.3931
-0.0514 -5.9332 2.3931
0.1611 -5.9263 2.3931
0.3732 -5.9117 2.3931
0.5844 -5.8894 2.3931
0.7945 -5.8594 2.3931
1.0032 -5.8220 2.3931
1.2103 -5.7769 2.3931
1.4155 -5.7245 2.3931
1.6184 -5.6648 2.3931
1.8189 -5.5978 2.3931
2.0167 -5.5237 2.3931
2.2116 -5.4425 2.3931
2.4032 -5.3545 2.3931
2.5914 -5.2597 2.3931
2.7759 -5.1582 2.3931
2.9565 -5.0503 2.3931
3.1329 -4.9361 2.3931
3.3050 -4.8157 2.3931
3.4725 -4.6893 2.3931
3.6353 -4.5571 2.3931
3.7930 -4.4193 2.3931
3.9456 -4.2760 2.3931
4.0929 -4.1275 2.3931
4.2347 -3.9739 2.3931
4.3708 -3.8155 2.3931
4.5010 -3.6525 2.3931
4.6253 -3.4851 2.3931
4.7434 -3.3135 2.3931
4.8553 -3.1380 2.3931
4.9607 -2.9587 2.3931
5.0597 -2.7759 2.3931
5.1520 -2.5899 2.3931
5.2376 -2.4008 2.3931
5.3164 -2.2089 2.3931
5.3883 -2.0145 2.3931
5.4533 -1.8178 2.3931
5.5112 -1.6191 2.3931
5.5620 -1.4186 2.3931
5.6056 -1.2165 2.3931
5.6421 -1.0131 2.3931
5.6713 -0.8087 2.3931
5.6933 -0.6034 2.3931
5.7081 -0.3977 2.3931
5.7155 -0.1916 2.3931
5.7157 0.0145 2.3931
5.7087 0.2204 2.3931
5.6944 0.4258 2.3931
5.6729 0.6305 2.3931
5.6442 0.8342 2.3931
5.6084 1.0368 2.3931
5.5655 1.2379 2.3931
5.5156 1.4373 2.3931
5.4587 1.6348 2.3931
5.3949 1.8301 2.3931
5.3243 2.0230 2.3931
5.2470 2.2133 2.3931
5.1630 2.4008 2.3931
5.0726 2.5851 2.3931
4.9757 2.7662 2.3931
4.8725 2.9437 2.3931
4.7632 3.1175 2.3931
4.6478 3.2873 2.3931
4.5266 3.4530 2.3931
4.3995 3.6144 2.3931
4.2669 3.7712 2.3931
4.1289 3.9233 2.3931
3.9855 4.0704 2.3931
3.8371 4.2125 2.3931
3.6837 4.3493 2.3931
3.5255 4.4806 2.3931
3.3628 4.6063 2.3931
3.1958 4.7263 2.3931
3.0245 4.8404 2.3931
2.8493 4.9484 2.3931
2.6703 5.0502 2.3931
2.4878 5.1457 2.3931
2.3019 5.2347 2.3931
0.8504 2.1400 0.9632
0.7729 2.1697 0.9628
0.6944 2.1966 0.9624
0.6149 2.2206 0.9620
0.5346 2.2417 0.9615
0.4536 2.2599 0.9610
0.3720 2.2752 0.9605
0.2899 2.2875 0.9600
0.2073 2.2968 0.9594
0.1245 2.3032 0.9588
0.0415 2.3066 0.9582
-0.0415 2.3069 0.9576
-0.1245 2.3043 0.9570
-0.2074 2.2987 0.9563
-0.2900 2.2901 0.9556
-0.3723 2.2785 0.9549
-0.4540 2.2639 0.9542
-0.5352 2.2464 0.9534
-0.6158 2.2260 0.9527
-0.6955 2.2027 0.9519
-0.7743 2.1765 0.9511
-0.8521 2.1475 0.9503
-2.3410 5.3321 2.3931
-2.5335 5.2495 2.3931
-2.7232 5.1601 2.3931
-2.9096 5.0638 2.3931
-3.0926 4.9608 2.3931
-3.2720 4.8512 2.3931
-3.4474 4.7352 2.3931
-3.6187 4.6128 2.3931
-3.7857 4.4843 2.3931
-3.9480 4.3497 2.3931
-4.1055 4.2092 2.3931
-4.2580 4.0630 2.3931
-4.4052 3.9113 2.3931
-4.5469 3.7542 2.3931
-4.6829 3.5920 2.3931
-4.8132 3.4248 2.3931
-4.9373 3.2529 2.3931
-5.0553 3.0765 2.3931
-5.1668 2.8958 2.3931
-5.2718 2.7110 2.3931
-5.3701 2.5224 2.3931
-5.4615 2.3302 2.3931
-5.5459 2.1346 2.3931
-5.6232 1.9360 2.3931
-5.6933 1.7346 2.3931
-5.7560 1.5306 2.3931
-5.8113 1.3244 2.3931
-5.8590 1.1161 2.3931
-5.8991 0.9062 2.3931
-5.9315 0.6948 2.3931
-5.9562 0.4822 2.3931
-5.9731 0.2687 2.3931
-5.9822 0.0547 2.3931
-5.9834 -0.1596 2.3931
-5.9768 -0.3739 2.3931
-5.9623 -0.5878 2.3931
-5.9400 -0.8012 2.3931
-5.9098 -1.0137 2.3931
-5.8719 -1.2251 2.3931
-5.8262 -1.4349 2.3931
-5.7728 -1.6430 2.3931
-5.7118 -1.8490 2.3931
-5.6432 -2.0527 2.3931
-5.5672 -2.2538 2.3931
-5.4839 -2.4519 2.3931
-5.3933 -2.6469 2.3931
-5.2956 -2.8385 2.3931
-5.1909 -3.0263 2.3931
-5.0794 -3.2102 2.3931
-4.9612 -3.3898 2.3931
-4.8364 -3.5650 2.3931
-4.7054 -3.7355 2.3931
-4.5681 -3.9010 2.3931
-4.4249 -4.0613 2.3931
-4.2759 -4.2162 2.3931
-4.1213 -4.3655 2.3931
-3.9614 -4.5090 2.3931
-3.7963 -4.6465 2.3931
-3.6264 -4.7779 2.3931
-3.4518 -4.9028 2.3931
-3.2728 -5.0213 2.3931
-3.0897 -5.1330 2.3931
-2.9026 -5.2379 2.3931
-2.7119 -5.3358 2.3931
-2.5178 -5.4267 2.3931
-2.3206 -5.5103 2.3931
-2.1206 -5.5867 2.3931
-1.9180 -5.6556 2.3931
-1.7130 -5.7172 2.3931
-1.5062 -5.7709 2.3931
-1.2977 -5.8172 2.3931
-1.0876 -5.8558 2.3931
-0.8765 -5.8867 2.3931
-0.6645 -5.9098 2.3931
-0.4520 -5.9252 2.3931
-0.2391 -5.9329 2.3931
-0.0263 -5.9328 2.3931
0.1862 -5.9249 2.3931
0.3982 -5.9094 2.3931
0.6093 -5.8862 2.3931
0.8192 -5.8554 2.3931
1.0278 -5.8170 2.3931
1.2346 -5.7711 2.3931
1.4396 -5.7179 2.3931
1.6423 -5.6573 2.3931
1.8425 -5.5894 2.3931
2.0399 -5.5145 2.3931
2.2344 -5.4325 2.3931
2.4256 -5.3436 2.3931
2.6134 -5.2480 2.3931
2.7975 -5.1458 2.3931
2.9776 -5.0371 2.3931
3.1535 -4.9222 2.3931
3.3250 -4.8011 2.3931
3.4920 -4.6740 2.3931
3.6542 -4.5411 2.3931
3.8113 -4.4026 2.3931
3.9633 -4.2587 2.3931
4.1100 -4.1096 2.3931
4.2511 -3.9555 2.3931
4.3865 -3.7965 2.3931
4.5160 -3.6330 2.3931
4.6396 -3.4651 2.3931
4.7570 -3.2930 2.3931
4.8681 -3.1170 2.3931
4.9727 -2.9373 2.3931
1.4957 -5.3254 2.3931
1.6843 -5.2636 2.3931
1.8704 -5.1950 2.3931
2.0537 -5.1199 2.3931
2.2341 -5.0382 2.3931
2.4113 -4.9502 2.3931
2.5851 -4.8559 2.3931
2.7553 -4.7556 2.3931
2.9216 -4.6492 2.3931
3.0838 -4.5370 2.3931
3.2418 -4.4192 2.3931
3.3954 -4.2959 2.3931
3.5443 -4.1673 2.3931
3.6884 -4.0335 2.3931
3.8276 -3.8948 2.3931
3.9616 -3.7513 2.3931
4.0902 -3.6032 2.3931
4.2135 -3.4507 2.3931
4.3311 -3.2940 2.3931
4.4429 -3.1334 2.3931
4.5490 -2.9690 2.3931
4.6490 -2.8011 2.3931
4.7429 -2.6298 2.3931
4.8306 -2.4554 2.3931
4.9120 -2.2782 2.3931
4.9871 -2.0982 2.3931
5.0556 -1.9159 2.3931
5.1176 -1.7313 2.3931
5.1730 -1.5448 2.3931
5.2218 -1.3565 2.3931
5.2638 -1.1668 2.3931
5.2990 -0.9758 2.3931
5.3275 -0.7837 2.3931
5.3491 -0.5909 2.3931
5.3640 -0.3975 2.3931
5.3720 -0.2038 2.3931
5.3731 -0.0100 2.3931
5.3674 0.1836 2.3931
5.3549 0.3768 2.3931
5.3356 0.5694 2.3931
5.3096 0.7611 2.3931
5.2768 0.9517 2.3931
5.2373 1.1410 2.3931
5.1912 1.3287 2.3931
5.1385 1.5147 2.3931
5.0794 1.6986 2.3931
5.0138 1.8803 2.3931
4.9419 2.0596 2.3931
4.8637 2.2362 2.3931
4.7794 2.4099 2.3931
4.6890 2.5806 2.3931
4.5927 2.7479 2.3931
4.4906 2.9118 2.3931
4.3827 3.0720 2.3931
4.2693 3.2282 2.3931
4.1505 3.3805 2.3931
4.0264 3.5284 2.3931
3.8971 3.6719 2.3931
3.7629 3.8108 2.3931
3.6238 3.9449 2.3931
3.4800 4.0741 2.3931
3.3318 4.1982 2.3931
3.1793 4.3169 2.3931
3.0226 4.4303 2.3931
2.8620 4.5381 2.3931
2.6976 4.6403 2.3931
2.5296 4.7366 2.3931
2.3583 4.8269 2.3931
0.8781 1.9747 0.9622
0.8065 2.0054 0.9618
0.7338 2.0335 0.9615
0.6602 2.0591 0.9611
0.5857 2.0819 0.9607
0.5104 2.1020 0.9603
0.4344 2.1195 0.9599
0.3578 2.1341 0.9594
0.2808 2.1460 0.9589
0.2034 2.1551 0.9584
0.1257 2.1614 0.9578
0.0478 2.1649 0.9573
-0.0302 2.1656 0.9567
-0.1082 2.1634 0.9561
-0.1860 2.1585 0.9555
-0.2636 2.1507 0.9548
-0.3408 2.1401 0.9541
-0.4177 2.1268 0.9535
-0.4940 2.1107 0.9528
-0.5696 2.0918 0.9521
-0.6446 2.0703 0.9513
-0.7187 2.0460 0.9506
-0.7919 2.0191 0.9499
-0.8640 1.9896 0.9491
-2.3596 4.9394 2.3931
-2.5379 4.8559 2.3931
-2.7132 4.7660 2.3931
-2.8854 4.6698 2.3931
-3.0541 4.5674 2.3931
-3.2191 4.4589 2.3931
-3.3803 4.3445 2.3931
-3.5373 4.2242 2.3931
-3.6901 4.0983 2.3931
-3.8383 3.9668 2.3931
-3.9818 3.8300 2.3931
-4.1204 3.6880 2.3931
-4.2539 3.5410 2.3931
-4.3820 3.3891 2.3931
-4.5047 3.2326 2.3931
-4.6217 3.0716 2.3931
-4.7328 2.9064 2.3931
-4.8380 2.7371 2.3931
-4.9371 2.5640 2.3931
-5.0298 2.3873 2.3931
-5.1162 2.2072 2.3931
-5.1959 2.0240 2.3931
-5.2690 1.8379 2.3931
-5.3354 1.6492 2.3931
-5.3948 1.4580 2.3931
-5.4473 1.2647 2.3931
-5.4927 1.0695 2.3931
-5.5310 0.8727 2.3931
-5.5621 0.6745 2.3931
-5.5859 0.4752 2.3931
-5.6024 0.2750 2.3931
-5.6116 0.0743 2.3931
-5.6135 -0.1266 2.3931
-5.6080 -0.3276 2.3931
-5.5952 -0.5284 2.3931
-5.5750 -0.7286 2.3931
-5.5474 -0.9280 2.3931
-5.5126 -1.1263 2.3931
-5.4705 -1.3233 2.3931
-5.4212 -1.5186 2.3931
-5.3648 -1.7120 2.3931
-5.3013 -1.9033 2.3931
-5.2308 -2.0921 2.3931
-5.1534 -2.2783 2.3931
-5.0692 -2.4615 2.3931
-4.9783 -2.6415 2.3931
-4.8809 -2.8180 2.3931
-4.7771 -2.9909 2.3931
-4.6669 -3.1599 2.3931
-4.5507 -3.3246 2.3931
-4.4285 -3.4850 2.3931
-4.3005 -3.6408 2.3931
-4.1669 -3.7918 2.3931
-4.0278 -3.9377 2.3931
-3.8835 -4.0784 2.3931
-3.7342 -4.2137 2.3931
-3.5800 -4.3434 2.3931
-3.4212 -4.4673 2.3931
-3.2581 -4.5853 2.3931
-3.0907 -4.6972 2.3931
-2.9195 -4.8029 2.3931
-2.7445 -4.9022 2.3931
-2.5661 -4.9949 2.3931
-2.3845 -5.0811 2.3931
-2.1999 -5.1605 2.3931
-2.0126 -5.2330 2.3931
-1.8229 -5.2987 2.3931
-1.6310 -5.3573 2.3931
-1.4372 -5.4089 2.3931
-1.2418 -5.4534 2.3931
-1.0450 -5.4906 2.3931
-0.8470 -5.5207 2.3931
-0.6482 -5.5435 2.3931
-0.4489 -5.5590 2.3931
-0.2492 -5.5673 2.3931
-0.0495 -5.5683 2.3931
0.1500 -5.5621 2.3931
0.3490 -5.5486 2.3931
0.5473 -5.5279 2.3931
0.7445 -5.5001 2.3931
0.9405 -5.4652 2.3931
1.1349 -5.4232 2.3931
1.3275 -5.3743 2.3931
1.5181 -5.3185 2.3931
1.7064 -5.2558 2.3931
1.8922 -5.1865 2.3931
2.0752 -5.1106 2.3931
2.2553 -5.0282 2.3931
2.4321 -4.9394 2.3931
2.6054 -4.8444 2.3931
2.7751 -4.7433 2.3931
2.9410 -4.6362 2.3931
3.1027 -4.5234 2.3931
3.2602 -4.4049 2.3931
3.4132 -4.2810 2.3931
3.5616 -4.1517 2.3931
3.7052 -4.0174 2.3931
3.8437 -3.8781 2.3931
3.9771 -3.7340 2.3931
4.1051 -3.5854 2.3931
4.2277 -3.4324 2.3931
4.3446 -3.2752 2.3931
4.4558 -3.1142 2.3931
4.5611 -2.9494 2.3931
4.6604 -2.7810 2.3931
4.7536 -2.6093 2.3931
4.8406 -2.4346 2.3931
4.9212 -2.2570 2.3931
4.9955 -2.0768 2.3931
5.0633 -1.8942 2.3931
5.1245 -1.7094 2.3931
5.1791 -1.5226 2.3931
5.2271 -1.3342 2.3931
5.2683 -1.1443 2.3931
5.3028 -0.9531 2.3931
5.3304 -0.7610 2.3931
5.3513 -0.5680 2.3931
5.3653 -0.3746 2.3931
5.3724 -0.1809 2.3931
5.3728 0.0129 2.3931
5.3663 0.2064 2.3931
5.3530 0.3996 2.3931
5.3329 0.5921 2.3931
5.3060 0.7837 2.3931
5.2724 0.9742 2.3931
5.2322 1.1633 2.3931
5.1853 1.3508 2.3931
5.1319 1.5365 2.3931
5.0720 1.7202 2.3931
5.0056 1.9017 2.3931
4.9330 2.0806 2.3931
4.8541 2.2569 2.3931
4.7690 2.4303 2.3931
4.6779 2.6005 2.3931
4.5809 2.7675 2.3931
4.4781 2.9309 2.3931
4.3696 3.0906 2.3931
4.2556 3.2465 2.3931
4.1361 3.3982 2.3931
4.0114 3.5456 2.3931
3.8815 3.6886 2.3931
3.7467 3.8269 2.3931
3.6070 3.9605 2.3931
3.4627 4.0890 2.3931
3.3140 4.2125 2.3931
3.1609 4.3306 2.3931
3.0038 4.4434 2.3931
2.8427 4.5505 2.3931
2.6779 4.6520 2.3931
2.5096 4.7476 2.3931
2.3379 4.8372 2.3931
0.8697 1.9784 0.9621
0.7980 2.0089 0.9618
0.7252 2.0367 0.9615
0.6514 2.0619 0.9611
0.5768 2.0844 0.9607
0.5014 2.1042 0.9603
0.4254 2.1213 0.9598
0.3488 2.1357 0.9593
0.2717 2.1472 0.9588
0.1942 2.1560 0.9583
0.1165 2.1620 0.9578
0.0385 2.1651 0.9572
-0.0394 2.1654 0.9566
-0.1174 2.1630 0.9560
-0.1952 2.1577 0.9554
-0.2727 2.1496 0.9547
-0.3499 2.1387 0.9541
-0.4267 2.1250 0.9534
-0.5029 2.1086 0.9527
-0.5785 2.0894 0.9520
-0.6534 2.0675 0.9513
-0.7274 2.0430 0.9505
-0.8004 2.0157 0.9498
-0.8725 1.9859 0.9490
-2.3808 4.9299 2.3931
-2.5588 4.8456 2.3931
-2.7337 4.7550 2.3931
-2.9055 4.6580 2.3931
-3.0738 4.5549 2.3931
-3.2384 4.4457 2.3931
-3.3990 4.3306 2.3931
-3.5556 4.2096 2.3931
-3.7078 4.0830 2.3931
-3.8555 3.9510 2.3931
-3.9985 3.8135 2.3931
-4.1364 3.6709 2.3931
-4.2693 3.5233 2.3931
-4.3968 3.3708 2.3931
-4.5188 3.2138 2.3931
-4.6351 3.0523 2.3931
-4.7456 2.8866 2.3931
-4.8501 2.7168 2.3931
-4.9484 2.5433 2.3931
-5.0404 2.3662 2.3931
-5.1259 2.1858 2.3931
-5.2049 2.0022 2.3931
-5.2772 1.8158 2.3931
-5.3428 1.6267 2.3931
-5.4014 1.4353 2.3931
-5.4530 1.2417 2.3931
-5.4976 1.0463 2.3931
-5.5350 0.8493 2.3931
-5.5653 0.6510 2.3931
-5.5882 0.4515 2.3931
-5.6039 0.2513 2.3931
-5.6123 0.0506 2.3931
-5.6133 -0.1504 2.3931
-5.6069 -0.3514 2.3931
-5.5932 -0.5521 2.3931
-5.5721 -0.7522 2.3931
-5.5437 -0.9515 2.3931
-5.5080 -1.1497 2.3931
-5.4651 -1.3464 2.3931
-5.4149 -1.5416 2.3931
-5.3576 -1.7347 2.3931
-5.2933 -1.9257 2.3931
-5.2220 -2.1143 2.3931
-5.1438 -2.3001 2.3931
-5.0588 -2.4829 2.3931
-4.9671 -2.6626 2.3931
-4.8690 -2.8387 2.3931
-4.7644 -3.0111 2.3931
-4.6535 -3.1796 2.3931
-4.5366 -3.3438 2.3931
-4.4136 -3.5037 2.3931
-4.2850 -3.6589 2.3931
-4.1507 -3.8093 2.3931
-4.0110 -3.9546 2.3931
-3.8661 -4.0947 2.3931
-3.7162 -4.2293 2.3931
-3.5615 -4.3584 2.3931
-3.4022 -4.4816 2.3931
-3.2385 -4.5989 2.3931
-3.0707 -4.7100 2.3931
-2.8990 -4.8149 2.3931
-2.7236 -4.9135 2.3931
-2.5448 -5.0055 2.3931
-2.3628 -5.0908 2.3931
-2.1779 -5.1694 2.3931
-1.9903 -5.2412 2.3931
-1.8003 -5.3060 2.3931
-1.6082 -5.3638 2.3931
-1.4142 -5.4145 2.3931
-1.2186 -5.4581 2.3931
-1.0216 -5.4946 2.3931
-0.8236 -5.5238 2.3931
-0.6247 -5.5457 2.3931
-0.4253 -5.5604 2.3931
-0.2256 -5.5678 2.3931
-0.0259 -5.5680 2.3931
0.1736 -5.5609 2.3931
0.3725 -5.5465 2.3931
0.5706 -5.5250 2.3931
0.7677 -5.4964 2.3931
0.9635 -5.4606 2.3931
1.1577 -5.4178 2.3931
1.3501 -5.3680 2.3931
1.5405 -5.3114 2.3931
1.7285 -5.2480 2.3931
1.9140 -5.1779 2.3931
2.0967 -5.1012 2.3931
2.2763 -5.0180 2.3931
2.4527 -4.9285 2.3931
2.6257 -4.8328 2.3931
2.7950 -4.7309 2.3931
2.9603 -4.6232 2.3931
3.1216 -4.5097 2.3931
3.2786 -4.3906 2.3931
3.4310 -4.2660 2.3931
3.5788 -4.1361 2.3931
3.7218 -4.0011 2.3931
3.8597 -3.8613 2.3931
3.9925 -3.7167 2.3931
4.1199 -3.5675 2.3931
4.2418 -3.4140 2.3931
4.3581 -3.2564 2.3931
4.4685 -3.0949 2.3931
4.5732 -2.9296 2.3931
4.6717 -2.7609 2.3931
1.4066 -5.0129 2.3931
1.5841 -4.9549 2.3931
1.7594 -4.8906 2.3931
1.9321 -4.8201 2.3931
2.1020 -4.7435 2.3931
2.2689 -4.6608 2.3931
2.4326 -4.5723 2.3931
2.5929 -4.4780 2.3931
2.7496 -4.3781 2.3931
2.9025 -4.2726 2.3931
3.0514 -4.1619 2.3931
3.1962 -4.0460 2.3931
3.3366 -3.9250 2.3931
3.4724 -3.7992 2.3931
3.6036 -3.6687 2.3931
3.7300 -3.5337 2.3931
3.8513 -3.3944 2.3931
3.9676 -3.2509 2.3931
4.0785 -3.1035 2.3931
4.1841 -2.9523 2.3931
4.2841 -2.7976 2.3931
4.3785 -2.6395 2.3931
4.4672 -2.4782 2.3931
4.5500 -2.3140 2.3931
4.6269 -2.1471 2.3931
4.6977 -1.9777 2.3931
4.7625 -1.8059 2.3931
4.8211 -1.6321 2.3931
4.8734 -1.4564 2.3931
4.9195 -1.2790 2.3931
4.9593 -1.1002 2.3931
4.9927 -0.9202 2.3931
5.0196 -0.7393 2.3931
5.0402 -0.5576 2.3931
5.0543 -0.3753 2.3931
5.0619 -0.1928 2.3931
5.0632 -0.0102 2.3931
5.0579 0.1723 2.3931
5.0462 0.3545 2.3931
5.0281 0.5360 2.3931
5.0037 0.7167 2.3931
4.9728 0.8964 2.3931
4.9357 1.0748 2.3931
4.8923 1.2518 2.3931
4.8428 1.4271 2.3931
4.7870 1.6005 2.3931
4.7253 1.7719 2.3931
4.6575 1.9409 2.3931
4.5839 2.1074 2.3931
4.5044 2.2711 2.3931
4.4192 2.4320 2.3931
4.3284 2.5898 2.3931
4.2322 2.7442 2.3931
4.1305 2.8952 2.3931
4.0236 3.0425 2.3931
3.9115 3.1860 2.3931
3.7945 3.3255 2.3931
3.6726 3.4607 2.3931
3.5460 3.5916 2.3931
3.4149 3.7180 2.3931
3.2793 3.8397 2.3931
3.1396 3.9566 2.3931
2.9957 4.0685 2.3931
2.8480 4.1753 2.3931
2.6965 4.2769 2.3931
2.5415 4.3731 2.3931
2.3832 4.4638 2.3931
0.8924 1.8271 0.9612
0.8261 1.8584 0.9609
0.7587 1.8874 0.9606
0.6903 1.9139 0.9603
0.6210 1.9379 0.9600
0.5508 1.9594 0.9596
0.4800 1.9783 0.9592
0.4085 1.9947 0.9588
0.3364 2.0085 0.9583
0.2639 2.0197 0.9578
0.1910 2.0282 0.9574
0.1178 2.0341 0.9569
0.0445 2.0374 0.9563
-0.0289 2.0380 0.9558
-0.1022 2.0360 0.9552
-0.1755 2.0314 0.9546
-0.2485 2.0240 0.9540
-0.3212 2.0141 0.9534
-0.3936 2.0016 0.9527
-0.4654 1.9864 0.9521
-0.5366 1.9687 0.9514
-0.6071 1.9484 0.9507
-0.6769 1.9255 0.9501
-0.7458 1.9002 0.9494
-0.8137 1.8724 0.9486
-0.8806 1.8421 0.9479
-2.3909 4.5718 2.3931
-2.5558 4.4869 2.3931
-2.7178 4.3961 2.3931
-2.8765 4.2995 2.3931
-3.0318 4.1972 2.3931
-3.1833 4.0892 2.3931
-3.3311 3.9758 2.3931
-3.4747 3.8571 2.3931
-3.6141 3.7332 2.3931
-3.7490 3.6043 2.3931
-3.8792 3.4704 2.3931
-4.0047 3.3319 2.3931
-4.1251 3.1888 2.3931
-4.2404 3.0414 2.3931
-4.3503 2.8898 2.3931
-4.4547 2.7342 2.3931
-4.5535 2.5748 2.3931
-4.6465 2.4118 2.3931
-4.7336 2.2455 2.3931
-4.8146 2.0760 2.3931
-4.8895 1.9035 2.3931
-4.9581 1.7284 2.3931
-5.0203 1.5507 2.3931
-5.0761 1.3709 2.3931
-5.1253 1.1890 2.3931
-5.1678 1.0053 2.3931
-5.2036 0.8201 2.3931
-5.2327 0.6337 2.3931
-5.2550 0.4462 2.3931
-5.2704 0.2580 2.3931
-5.2789 0.0692 2.3931
-5.2805 -0.1198 2.3931
-5.2753 -0.3089 2.3931
-5.2631 -0.4976 2.3931
-5.2440 -0.6859 2.3931
-5.2180 -0.8734 2.3931
-5.1851 -1.0599 2.3931
-5.1455 -1.2451 2.3931
-5.0990 -1.4287 2.3931
-5.0459 -1.6106 2.3931
-4.9861 -1.7904 2.3931
-4.9198 -1.9680 2.3931
-4.8469 -2.1430 2.3931
-4.7677 -2.3153 2.3931
-4.6823 -2.4845 2.3931
-4.5907 -2.6505 2.3931
-4.4930 -2.8131 2.3931
-4.3895 -2.9719 2.3931
-4.2802 -3.1269 2.3931
-4.1653 -3.2777 2.3931
-4.0449 -3.4242 2.3931
-3.9193 -3.5662 2.3931
-3.7886 -3.7035 2.3931
-3.6530 -3.8358 2.3931
-3.5126 -3.9631 2.3931
-3.3676 -4.0851 2.3931
-3.2184 -4.2017 2.3931
-3.0650 -4.3127 2.3931
-2.9077 -4.4181 2.3931
-2.7467 -4.5175 2.3931
-2.5822 -4.6110 2.3931
-2.4145 -4.6983 2.3931
-2.2437 -4.7795 2.3931
-2.0702 -4.8543 2.3931
-1.8941 -4.9227 2.3931
-1.7157 -4.9846 2.3931
-1.5353 -5.0399 2.3931
-1.3531 -5.0885 2.3931
-1.1693 -5.1305 2.3931
-0.9841 -5.1657 2.3931
-0.7979 -5.1942 2.3931
-0.6110 -5.2158 2.3931
-0.4234 -5.2306 2.3931
-0.2356 -5.2386 2.3931
-0.0477 -5.2398 2.3931
0.1400 -5.2341 2.3931
0.3273 -5.2217 2.3931
0.5138 -5.2024 2.3931
0.6994 -5.1764 2.3931
0.8839 -5.1438 2.3931
1.0669 -5.1045 2.3931
1.2482 -5.0587 2.3931
1.4277 -5.0064 2.3931
1.6050 -4.9477 2.3931
1.7799 -4.8826 2.3931
1.9523 -4.8114 2.3931
2.1219 -4.7340 2.3931
2.2884 -4.6507 2.3931
2.4517 -4.5614 2.3931
2.6116 -4.4665 2.3931
2.7679 -4.3659 2.3931
2.9203 -4.2598 2.3931
3.0688 -4.1485 2.3931
3.2130 -4.0319 2.3931
3.3529 -3.9104 2.3931
3.4882 -3.7840 2.3931
3.6188 -3.6530 2.3931
3.7446 -3.5175 2.3931
3.8653 -3.3776 2.3931
3.9810 -3.2337 2.3931
4.0913 -3.0858 2.3931
4.1962 -2.9342 2.3931
4.2956 -2.7791 2.3931
4.3893 -2.6206 2.3931
4.4773 -2.4590 2.3931
4.5594 -2.2944 2.3931
4.6356 -2.1272 2.3931
4.7057 -1.9575 2.3931
4.7697 -1.7855 2.3931
4.8276 -1.6114 2.3931
4.8792 -1.4355 2.3931
4.9245 -1.2579 2.3931
4.9636 -1.0790 2.3931
4.9962 -0.8989 2.3931
5.0224 -0.7178 2.3931
5.0421 -0.5359 2.3931
5.0555 -0.3538 2.3931
5.0624 -0.1712 2.3931
5.0629 0.0114 2.3931
5.0569 0.1939 2.3931
5.0444 0.3760 2.3931
5.0256 0.5574 2.3931
5.0003 0.7380 2.3931
4.9688 0.9176 2.3931
4.9309 1.0958 2.3931
4.8868 1.2726 2.3931
4.8365 1.4477 2.3931
4.7801 1.6209 2.3931
4.7176 1.7920 2.3931
4.6491 1.9607 2.3931
4.5748 2.1269 2.3931
4.4946 2.2903 2.3931
4.4088 2.4508 2.3931
4.3173 2.6082 2.3931
4.2204 2.7623 2.3931
4.1181 2.9128 2.3931
4.0106 3.0597 2.3931
3.8980 3.2027 2.3931
3.7803 3.3417 2.3931
3.6579 3.4764 2.3931
3.5308 3.6068 2.3931
3.3991 3.7327 2.3931
3.2630 3.8538 2.3931
3.1228 3.9701 2.3931
2.9785 4.0814 2.3931
2.8303 4.1876 2.3931
2.6784 4.2885 2.3931
2.5230 4.3841 2.3931
2.3643 4.4741 2.3931
0.8846 1.8309 0.9612
0.8182 1.8620 0.9609
0.7507 1.8906 0.9606
0.6821 1.9168 0.9603
0.6127 1.9405 0.9599
0.5425 1.9617 0.9595
0.4715 1.9804 0.9591
0.4000 1.9965 0.9587
0.3278 2.0099 0.9583
0.2553 2.0208 0.9578
0.1823 2.0290 0.9573
0.1092 2.0347 0.9568
0.0358 2.0376 0.9563
-0.0376 2.0379 0.9557
-0.1109 2.0356 0.9551
-0.1841 2.0306 0.9545
-0.2571 2.0230 0.9539
-0.3298 2.0128 0.9533
-0.4021 1.9999 0.9527
-0.4738 1.9844 0.9520
-0.5450 1.9664 0.9513
-0.6154 1.9458 0.9507
-0.6851 1.9227 0.9500
-0.7539 1.8970 0.9493
-0.8217 1.8689 0.9486
-0.8884 1.8384 0.9478
-2.4105 4.5620 2.3931
-2.5751 4.4765 2.3931
-2.7367 4.3850 2.3931
-2.8950 4.2877 2.3931
-3.0499 4.1847 2.3931
-3.2010 4.0761 2.3931
-3.3482 3.9621 2.3931
-3.4914 3.8427 2.3931
-3.6302 3.7182 2.3931
-3.7646 3.5887 2.3931
-3.8943 3.4543 2.3931
-4.0192 3.3152 2.3931
-4.1390 3.1716 2.3931
-4.2536 3.0237 2.3931
-4.3629 2.8716 2.3931
-4.4667 2.7155 2.3931
-4.5648 2.5557 2.3931
-4.6571 2.3923 2.3931
-4.7435 2.2256 2.3931
-4.8238 2.0557 2.3931
-4.8980 1.8829 2.3931
-4.9658 1.7075 2.3931
-5.0273 1.5296 2.3931
-5.0822 1.3495 2.3931
-5.1306 1.1673 2.3931
-5.1724 0.9835 2.3931
-5.2074 0.7982 2.3931
-5.2357 0.6116 2.3931
-5.2572 0.4240 2.3931
-5.2718 0.2357 2.3931
-5.2795 0.0469 2.3931
-5.2803 -0.1422 2.3931
-5.2742 -0.3312 2.3931
-5.2612 -0.5199 2.3931
-5.2412 -0.7081 2.3931
-5.2144 -0.8955 2.3931
-5.1808 -1.0818 2.3931
-5.1403 -1.2669 2.3931
-5.0931 -1.4503 2.3931
-5.0392 -1.6320 2.3931
-4.9786 -1.8116 2.3931
-4.9115 -1.9888 2.3931
-4.8379 -2.1635 2.3931
-4.7580 -2.3354 2.3931
-4.6718 -2.5043 2.3931
-4.5794 -2.6699 2.3931
-4.4811 -2.8321 2.3931
-4.3768 -2.9905 2.3931
-4.2669 -3.1449 2.3931
-4.1513 -3.2953 2.3931
-4.0304 -3.4413 2.3931
-3.9041 -3.5827 2.3931
-3.7728 -3.7194 2.3931
-3.6366 -3.8511 2.3931
-3.4957 -3.9778 2.3931
-3.3502 -4.0992 2.3931
-3.2005 -4.2151 2.3931
-3.0466 -4.3255 2.3931
-2.8889 -4.4301 2.3931
-2.7274 -4.5289 2.3931
-2.5625 -4.6216 2.3931
-2.3944 -4.7082 2.3931
-2.2234 -4.7886 2.3931
-2.0495 -4.8627 2.3931
-1.8731 -4.9303 2.3931
-1.6945 -4.9914 2.3931
-1.5138 -5.0460 2.3931
-1.3314 -5.0938 2.3931
-1.1474 -5.1350 2.3931
-0.9622 -5.1695 2.3931
-0.7759 -5.1971 2.3931
-0.5888 -5.2179 2.3931
-0.4012 -5.2319 2.3931
-0.2134 -5.2391 2.3931
-0.0255 -5.2395 2.3931
0.1622 -5.2330 2.3931
0.3494 -5.2197 2.3931
0.5358 -5.1997 2.3931
0.7213 -5.1729 2.3931
0.9056 -5.1395 2.3931
1.0884 -5.0995 2.3931
1.2696 -5.0529 2.3931
1.4488 -4.9998 2.3931
1.6258 -4.9403 2.3931
1.8005 -4.8745 2.3931
1.9725 -4.8025 2.3931
2.1417 -4.7245 2.3931
2.3079 -4.6404 2.3931
2.4708 -4.5505 2.3931
2.6303 -4.4549 2.3931
2.7861 -4.3536 2.3931
2.9381 -4.2469 2.3931
3.0860 -4.1350 2.3931
3.2298 -4.0178 2.3931
3.3691 -3.8957 2.3931
3.5039 -3.7688 2.3931
3.6339 -3.6372 2.3931
3.7591 -3.5012 2.3931
3.8793 -3.3608 2.3931
3.9943 -3.2164 2.3931
4.1040 -3.0681 2.3931
4.2082 -2.9160 2.3931
4.3069 -2.7605 2.3931
4.4000 -2.6016 2.3931
1.3258 -4.7296 2.3931
1.4934 -4.6751 2.3931
1.6588 -4.6146 2.3931
1.8218 -4.5483 2.3931
1.9821 -4.4762 2.3931
2.1397 -4.3984 2.3931
2.2943 -4.3150 2.3931
2.4456 -4.2262 2.3931
2.5936 -4.1321 2.3931
2.7380 -4.0328 2.3931
2.8787 -3.9284 2.3931
3.0154 -3.8192 2.3931
3.1480 -3.7052 2.3931
3.2764 -3.5866 2.3931
3.4003 -3.4636 2.3931
3.5197 -3.3363 2.3931
3.6344 -3.2049 2.3931
3.7443 -3.0696 2.3931
3.8492 -2.9305 2.3931
3.9490 -2.7879 2.3931
4.0436 -2.6419 2.3931
4.1329 -2.4927 2.3931
4.2167 -2.3406 2.3931
4.2951 -2.1856 2.3931
4.3678 -2.0281 2.3931
4.4349 -1.8681 2.3931
4.4962 -1.7060 2.3931
4.5517 -1.5419 2.3931
4.6012 -1.3760 2.3931
4.6449 -1.2086 2.3931
4.6826 -1.0398 2.3931
4.7142 -0.8698 2.3931
4.7398 -0.6989 2.3931
4.7594 -0.5273 2.3931
4.7728 -0.3552 2.3931
4.7801 -0.1828 2.3931
4.7814 -0.0103 2.3931
4.7765 0.1621 2.3931
4.7656 0.3341 2.3931
4.7486 0.5056 2.3931
4.7256 0.6764 2.3931
4.6965 0.8461 2.3931
4.6615 1.0147 2.3931
4.6206 1.1819 2.3931
4.5738 1.3475 2.3931
4.5212 1.5114 2.3931
4.4629 1.6732 2.3931
4.3989 1.8329 2.3931
4.3294 1.9902 2.3931
4.2543 2.1449 2.3931
4.1739 2.2969 2.3931
4.0881 2.4459 2.3931
3.9972 2.5919 2.3931
3.9011 2.7345 2.3931
3.8001 2.8737 2.3931
3.6942 3.0092 2.3931
3.5837 3.1409 2.3931
3.4685 3.2687 2.3931
3.3489 3.3923 2.3931
3.2249 3.5117 2.3931
3.0969 3.6266 2.3931
2.9648 3.7370 2.3931
2.8289 3.8427 2.3931
2.6893 3.9435 2.3931
2.5461 4.0394 2.3931
2.3997 4.1301 2.3931
0.9029 1.6917 0.9603
0.8415 1.7235 0.9601
0.7789 1.7531 0.9598
0.7154 1.7804 0.9595
0.6508 1.8053 0.9592
0.5854 1.8280 0.9589
0.5192 1.8482 0.9585
0.4524 1.8661 0.9582
0.3849 1.8816 0.9578
0.3169 1.8946 0.9573
0.2485 1.9051 0.9569
0.1797 1.9132 0.9564
0.1107 1.9187 0.9560
0.0416 1.9218 0.9555
-0.0277 1.9224 0.9549
-0.0969 1.9205 0.9544
-0.1660 1.9161 0.9539
-0.2349 1.9092 0.9533
-0.3035 1.8998 0.9527
-0.3717 1.8880 0.9521
-0.4395 1.8737 0.9515
-0.5067 1.8570 0.9508
-0.5732 1.8378 0.9502
-0.6390 1.8163 0.9496
-0.7040 1.7924 0.9489
-0.7681 1.7661 0.9482
-0.8312 1.7376 0.9475
-0.8932 1.7068 0.9468
-2.4131 4.2336 2.3931
-2.5658 4.1478 2.3931
-2.7154 4.0565 2.3931
-2.8618 3.9597 2.3931
-3.0047 3.8577 2.3931
-3.1440 3.7506 2.3931
-3.2794 3.6384 2.3931
-3.4107 3.5214 2.3931
-3.5379 3.3996 2.3931
-3.6606 3.2732 2.3931
-3.7788 3.1424 2.3931
-3.8922 3.0073 2.3931
-4.0008 2.8681 2.3931
-4.1043 2.7250 2.3931
-4.2027 2.5781 2.3931
-4.2957 2.4277 2.3931
-4.3832 2.2739 2.3931
-4.4652 2.1169 2.3931
-4.5415 1.9570 2.3931
-4.6119 1.7943 2.3931
-4.6765 1.6291 2.3931
-4.7350 1.4616 2.3931
-4.7874 1.2919 2.3931
-4.8336 1.1204 2.3931
-4.8736 0.9472 2.3931
-4.9072 0.7726 2.3931
-4.9345 0.5968 2.3931
-4.9554 0.4200 2.3931
-4.9698 0.2425 2.3931
-4.9777 0.0646 2.3931
-4.9791 -0.1137 2.3931
-4.9740 -0.2918 2.3931
-4.9624 -0.4698 2.3931
-4.9443 -0.6473 2.3931
-4.9197 -0.8240 2.3931
-4.8887 -0.9997 2.3931
-4.8512 -1.1743 2.3931
-4.8074 -1.3474 2.3931
-4.7573 -1.5188 2.3931
-4.7009 -1.6883 2.3931
-4.6383 -1.8557 2.3931
-4.5696 -2.0206 2.3931
-4.4950 -2.1830 2.3931
-4.4144 -2.3425 2.3931
-4.3280 -2.4989 2.3931
-4.2360 -2.6522 2.3931
-4.1384 -2.8019 2.3931
-4.0354 -2.9479 2.3931
-3.9271 -3.0901 2.3931
-3.8137 -3.2282 2.3931
-3.6953 -3.3621 2.3931
-3.5721 -3.4915 2.3931
-3.4443 -3.6163 2.3931
-3.3120 -3.7363 2.3931
-3.1757 -3.8509 2.3931
-3.0348 -3.9613 2.3931
-2.8903 -4.0660 2.3931
-2.7420 -4.1654 2.3931
-2.5903 -4.2592 2.3931
-2.4353 -4.3474 2.3931
-2.2772 -4.4298 2.3931
-2.1163 -4.5064 2.3931
-1.9528 -4.5770 2.3931
-1.7868 -4.6416 2.3931
-1.6187 -4.7001 2.3931
-1.4486 -4.7524 2.3931
-1.2768 -4.7984 2.3931
-1.1035 -4.8381 2.3931
-0.9290 -4.8715 2.3931
-0.7535 -4.8985 2.3931
-0.5772 -4.9190 2.3931
-0.4004 -4.9332 2.3931
-0.2233 -4.9409 2.3931
-0.0460 -4.9421 2.3931
0.1310 -4.9370 2.3931
0.3076 -4.9254 2.3931
0.4835 -4.9074 2.3931
0.6586 -4.8831 2.3931
0.8326 -4.8525 2.3931
1.0053 -4.8157 2.3931
1.1764 -4.7726 2.3931
1.3457 -4.7235 2.3931
1.5130 -4.6683 2.3931
1.6782 -4.6071 2.3931
1.8409 -4.5401 2.3931
2.0009 -4.4672 2.3931
2.1581 -4.3888 2.3931
2.3123 -4.3048 2.3931
2.4633 -4.2153 2.3931
2.6109 -4.1206 2.3931
2.7548 -4.0207 2.3931
2.8950 -3.9158 2.3931
3.0313 -3.8059 2.3931
3.1634 -3.6914 2.3931
3.2913 -3.5723 2.3931
3.4147 -3.4487 2.3931
3.5336 -3.3209 2.3931
3.6477 -3.1891 2.3931
3.7570 -3.0533 2.3931
3.8613 -2.9138 2.3931
3.9604 -2.7708 2.3931
4.0544 -2.6244 2.3931
4.1431 -2.4749 2.3931
4.2263 -2.3224 2.3931
4.3040 -2.1671 2.3931
4.3760 -2.0093 2.3931
4.4424 -1.8491 2.3931
4.5030 -1.6867 2.3931
4.5578 -1.5224 2.3931
4.6067 -1.3563 2.3931
4.6497 -1.1887 2.3931
4.6866 -1.0197 2.3931
4.7176 -0.8496 2.3931
4.7425 -0.6787 2.3931
4.7613 -0.5070 2.3931
4.7740 -0.3348 2.3931
4.7806 -0.1624 2.3931
4.7811 0.0101 2.3931
4.7755 0.1825 2.3931
4.7639 0.3544 2.3931
4.7462 0.5259 2.3931
4.7224 0.6965 2.3931
4.6927 0.8661 2.3931
4.6570 1.0345 2.3931
4.6154 1.2016 2.3931
4.5679 1.3670 2.3931
4.5146 1.5306 2.3931
4.4556 1.6922 2.3931
4.3910 1.8516 2.3931
4.3208 2.0086 2.3931
4.2451 2.1630 2.3931
4.1640 2.3147 2.3931
4.0776 2.4634 2.3931
3.9861 2.6089 2.3931
3.8894 2.7511 2.3931
3.7878 2.8899 2.3931
3.6814 3.0250 2.3931
3.5703 3.1563 2.3931
3.4546 3.2835 2.3931
3.3344 3.4067 2.3931
3.2100 3.5255 2.3931
3.0815 3.6399 2.3931
2.9489 3.7498 2.3931
2.8125 3.8549 2.3931
2.6725 3.9551 2.3931
2.5290 4.0504 2.3931
2.3822 4.1405 2.3931
0.8957 1.6956 0.9603
0.8342 1.7271 0.9600
0.7715 1.7564 0.9598
0.7078 1.7834 0.9595
0.6431 1.8081 0.9592
0.5776 1.8305 0.9589
0.5114 1.8505 0.9585
0.4444 1.8681 0.9581
0.3769 1.8832 0.9577
0.3089 1.8959 0.9573
0.2404 1.9062 0.9569
0.1716 1.9140 0.9564
0.1026 1.9192 0.9559
0.0334 1.9220 0.9554
-0.0359 1.9223 0.9549
-0.1051 1.9201 0.9543
-0.1741 1.9154 0.9538
-0.2430 1.9082 0.9532
-0.3116 1.8986 0.9526
-0.3798 1.8864 0.9520
-0.4474 1.8718 0.9514
-0.5146 1.8548 0.9508
-0.5810 1.8354 0.9501
-0.6467 1.8136 0.9495
-0.7116 1.7894 0.9488
-0.7756 1.7629 0.9481
-0.8386 1.7341 0.9474
-0.9004 1.7031 0.9468
-2.4313 4.2238 2.3931
-2.5836 4.1373 2.3931
-2.7329 4.0453 2.3931
-2.8789 3.9479 2.3931
-3.0214 3.8453 2.3931
-3.1602 3.7376 2.3931
-3.2951 3.6248 2.3931
-3.4260 3.5072 2.3931
-3.5526 3.3849 2.3931
-3.6748 3.2580 2.3931
-3.7924 3.1266 2.3931
-3.9053 2.9910 2.3931
-4.0133 2.8514 2.3931
-4.1162 2.7078 2.3931
-4.2139 2.5605 2.3931
-4.3063 2.4097 2.3931
-4.3932 2.2555 2.3931
-4.4745 2.0982 2.3931
-4.5501 1.9379 2.3931
-4.6198 1.7749 2.3931
-4.6837 1.6094 2.3931
-4.7415 1.4416 2.3931
-4.7932 1.2717 2.3931
-4.8386 1.1000 2.3931
-4.8779 0.9266 2.3931
-4.9108 0.7518 2.3931
-4.9373 0.5759 2.3931
-4.9574 0.3990 2.3931
-4.9710 0.2215 2.3931
-4.9782 0.0435 2.3931
-4.9789 -0.1347 2.3931
-4.9730 -0.3129 2.3931
-4.9606 -0.4908 2.3931
-4.9417 -0.6682 2.3931
-4.9164 -0.8448 2.3931
-4.8846 -1.0205 2.3931
-4.8464 -1.1948 2.3931
-4.8018 -1.3678 2.3931
-4.7509 -1.5390 2.3931
-4.6938 -1.7082 2.3931
-4.6305 -1.8753 2.3931
-4.5611 -2.0399 2.3931
-4.4857 -2.2020 2.3931
-4.4045 -2.3611 2.3931
-4.3174 -2.5172 2.3931
-4.2247 -2.6700 2.3931
-4.1265 -2.8193 2.3931
-4.0228 -2.9650 2.3931
-3.9140 -3.1067 2.3931
-3.7999 -3.2443 2.3931
-3.6810 -3.3776 2.3931
-3.5573 -3.5065 2.3931
-3.4289 -3.6307 2.3931
-3.2961 -3.7501 2.3931
-3.1590 -3.8646 2.3931
-3.0179 -3.9740 2.3931
-2.8729 -4.0780 2.3931
-2.7243 -4.1767 2.3931
-2.5722 -4.2699 2.3931
-2.4168 -4.3574 2.3931
-2.2584 -4.4392 2.3931
-2.0971 -4.5151 2.3931
-1.9333 -4.5850 2.3931
-1.7670 -4.6489 2.3931
-1.5987 -4.7066 2.3931
-1.4284 -4.7581 2.3931
-1.2564 -4.8034 2.3931
-1.0830 -4.8424 2.3931
-0.9083 -4.8750 2.3931
-0.7327 -4.9012 2.3931
-0.5563 -4.9210 2.3931
-0.3794 -4.9344 2.3931
-0.2023 -4.9414 2.3931
-0.0251 -4.9419 2.3931
0.1519 -4.9359 2.3931
0.3284 -4.9236 2.3931
0.5043 -4.9049 2.3931
0.6793 -4.8798 2.3931
0.8531 -4.8485 2.3931
1.0256 -4.8109 2.3931
1.1965 -4.7671 2.3931
1.3656 -4.7173 2.3931
1.5327 -4.6613 2.3931
1.6975 -4.5995 2.3931
1.8599 -4.5317 2.3931
2.0197 -4.4583 2.3931
2.1765 -4.3791 2.3931
2.3304 -4.2945 2.3931
2.4809 -4.2044 2.3931
2.6281 -4.1090 2.3931
2.7716 -4.0085 2.3931
2.9114 -3.9030 2.3931
3.0471 -3.7926 2.3931
3.1787 -3.6775 2.3931
3.3061 -3.5579 2.3931
3.4290 -3.4338 2.3931
3.5473 -3.3056 2.3931
3.6609 -3.1732 2.3931
3.7696 -3.0370 2.3931
3.8733 -2.8971 2.3931
3.9718 -2.7537 2.3931
4.0652 -2.6069 2.3931
4.1532 -2.4570 2.3931
1.2522 -4.4713 2.3931
1.4106 -4.4200 2.3931
1.5670 -4.3630 2.3931
1.7212 -4.3004 2.3931
1.8729 -4.2324 2.3931
2.0219 -4.1590 2.3931
2.1681 -4.0803 2.3931
2.3113 -3.9965 2.3931
2.4513 -3.9077 2.3931
2.5879 -3.8139 2.3931
2.7210 -3.7154 2.3931
2.8504 -3.6122 2.3931
2.9760 -3.5045 2.3931
3.0975 -3.3925 2.3931
3.2148 -3.2763 2.3931
3.3279 -3.1560 2.3931
3.4365 -3.0319 2.3931
3.5405 -2.9040 2.3931
3.6399 -2.7726 2.3931
3.7344 -2.6378 2.3931
3.8240 -2.4997 2.3931
3.9086 -2.3587 2.3931
3.9880 -2.2149 2.3931
4.0623 -2.0683 2.3931
4.1312 -1.9194 2.3931
4.1948 -1.7681 2.3931
4.2529 -1.6147 2.3931
4.3055 -1.4595 2.3931
4.3526 -1.3026 2.3931
4.3940 -1.1442 2.3931
4.4298 -0.9845 2.3931
4.4598 -0.8237 2.3931
4.4842 -0.6620 2.3931
4.5028 -0.4996 2.3931
4.5156 -0.3368 2.3931
4.5226 -0.1736 2.3931
4.5239 -0.0104 2.3931
4.5194 0.1528 2.3931
4.5091 0.3156 2.3931
4.4931 0.4779 2.3931
4.4714 0.6395 2.3931
4.4439 0.8001 2.3931
4.4109 0.9597 2.3931
4.3722 1.1180 2.3931
4.3280 1.2747 2.3931
4.2782 1.4298 2.3931
4.2231 1.5830 2.3931
4.1626 1.7342 2.3931
4.0967 1.8831 2.3931
4.0257 2.0295 2.3931
3.9496 2.1734 2.3931
3.8684 2.3145 2.3931
3.7823 2.4526 2.3931
3.6914 2.5876 2.3931
3.5958 2.7193 2.3931
3.4956 2.8476 2.3931
3.3909 2.9723 2.3931
3.2819 3.0932 2.3931
3.1686 3.2102 2.3931
3.0513 3.3231 2.3931
2.9300 3.4318 2.3931
2.8050 3.5363 2.3931
2.6763 3.6362 2.3931
2.5442 3.7316 2.3931
2.4087 3.8223 2.3931
0.9101 1.5669 0.9595
0.8532 1.5990 0.9593
0.7951 1.6291 0.9590
0.7359 1.6570 0.9588
0.6758 1.6828 0.9585
0.6148 1.7064 0.9582
0.5530 1.7278 0.9579
0.4905 1.7469 0.9576
0.4272 1.7638 0.9572
0.3635 1.7784 0.9569
0.2992 1.7907 0.9565
0.2345 1.8007 0.9560
0.1695 1.8083 0.9556
0.1043 1.8135 0.9552
0.0389 1.8165 0.9547
-0.0266 1.8170 0.9542
-0.0920 1.8152 0.9537
-0.1573 1.8110 0.9532
-0.2224 1.8045 0.9526
-0.2873 1.7957 0.9521
-0.3518 1.7845 0.9515
-0.4158 1.7709 0.9509
-0.4794 1.7551 0.9503
-0.5423 1.7370 0.9497
-0.6045 1.7167 0.9491
-0.6659 1.6941 0.9485
-0.7265 1.6693 0.9478
-0.7861 1.6423 0.9472
-0.8447 1.6132 0.9465
-0.9023 1.5820 0.9459
-2.4271 3.9213 2.3931
-2.5685 3.8348 2.3931
-2.7068 3.7432 2.3931
-2.8418 3.6466 2.3931
-2.9734 3.5452 2.3931
-3.1013 3.4390 2.3931
-3.2253 3.3282 2.3931
-3.3454 3.2129 2.3931
-3.4613 3.0934 2.3931
-3.5729 2.9696 2.3931
-3.6800 2.8418 2.3931
-3.7824 2.7101 2.3931
-3.8802 2.5748 2.3931
-3.9730 2.4359 2.3931
-4.0607 2.2937 2.3931
-4.1433 2.1482 2.3931
-4.2207 1.9998 2.3931
-4.2926 1.8486 2.3931
-4.3590 1.6949 2.3931
-4.4199 1.5387 2.3931
-4.4750 1.3803 2.3931
-4.5244 1.2200 2.3931
-4.5680 1.0579 2.3931
-4.6056 0.8942 2.3931
-4.6373 0.7292 2.3931
-4.6629 0.5631 2.3931
-4.6826 0.3961 2.3931
-4.6960 0.2284 2.3931
-4.7034 0.0603 2.3931
-4.7047 -0.1080 2.3931
-4.6998 -0.2764 2.3931
-4.6887 -0.4444 2.3931
-4.6715 -0.6121 2.3931
-4.6482 -0.7790 2.3931
-4.6189 -0.9450 2.3931
-4.5834 -1.1099 2.3931
-4.5420 -1.2734 2.3931
-4.4946 -1.4353 2.3931
-4.4412 -1.5954 2.3931
-4.3821 -1.7534 2.3931
-4.3174 -1.9089 2.3931
-4.2467 -2.0625 2.3931
-4.1706 -2.2132 2.3931
-4.0890 -2.3610 2.3931
-4.0020 -2.5057 2.3931
-3.9099 -2.6471 2.3931
-3.8126 -2.7851 2.3931
-3.7103 -2.9194 2.3931
-3.6032 -3.0498 2.3931
-3.4914 -3.1763 2.3931
-3.3751 -3.2985 2.3931
-3.2544 -3.4164 2.3931
-3.1295 -3.5298 2.3931
-3.0005 -3.6385 2.3931
-2.8677 -3.7425 2.3931
-2.7312 -3.8414 2.3931
-2.5912 -3.9353 2.3931
-2.4479 -4.0240 2.3931
-2.3016 -4.1074 2.3931
-2.1523 -4.1854 2.3931
-2.0003 -4.2578 2.3931
-1.8458 -4.3246 2.3931
-1.6891 -4.3857 2.3931
-1.5303 -4.4411 2.3931
-1.3697 -4.4906 2.3931
-1.2074 -4.5342 2.3931
-1.0437 -4.5718 2.3931
-0.8789 -4.6035 2.3931
-0.7130 -4.6291 2.3931
-0.5465 -4.6487 2.3931
-0.3794 -4.6622 2.3931
-0.2120 -4.6696 2.3931
-0.0446 -4.6710 2.3931
0.1227 -4.6662 2.3931
0.2896 -4.6554 2.3931
0.4559 -4.6386 2.3931
0.6214 -4.6158 2.3931
0.7859 -4.5871 2.3931
0.9491 -4.5524 2.3931
1.1109 -4.5119 2.3931
1.2710 -4.4656 2.3931
1.4292 -4.4135 2.3931
1.5854 -4.3559 2.3931
1.7392 -4.2927 2.3931
1.8906 -4.2240 2.3931
2.0393 -4.1500 2.3931
2.1852 -4.0707 2.3931
2.3280 -3.9863 2.3931
2.4676 -3.8968 2.3931
2.6039 -3.8025 2.3931
2.7365 -3.7034 2.3931
2.8655 -3.5997 2.3931
2.9905 -3.4915 2.3931
3.1116 -3.3790 2.3931
3.2284 -3.2623 2.3931
3.3409 -3.1416 2.3931
3.4490 -3.0169 2.3931
3.5525 -2.8886 2.3931
3.6513 -2.7568 2.3931
3.7452 -2.6216 2.3931
3.8343 -2.4832 2.3931
3.9182 -2.3419 2.3931
3.9971 -2.1977 2.3931
4.0707 -2.0508 2.3931
4.1390 -1.9016 2.3931
4.2020 -1.7501 2.3931
4.2594 -1.5965 2.3931
4.3114 -1.4411 2.3931
4.3578 -1.2840 2.3931
4.3985 -1.1254 2.3931
4.4336 -0.9655 2.3931
4.4630 -0.8046 2.3931
4.4867 -0.6428 2.3931
4.5046 -0.4804 2.3931
4.5167 -0.3175 2.3931
4.5231 -0.1543 2.3931
4.5237 0.0089 2.3931
4.5185 0.1721 2.3931
4.5075 0.3348 2.3931
4.4908 0.4970 2.3931
4.4684 0.6585 2.3931
4.4403 0.8191 2.3931
4.4066 0.9785 2.3931
4.3673 1.1366 2.3931
4.3224 1.2932 2.3931
4.2720 1.4480 2.3931
4.2162 1.6010 2.3931
4.1550 1.7519 2.3931
4.0886 1.9005 2.3931
4.0170 2.0467 2.3931
3.9402 2.1902 2.3931
3.8585 2.3310 2.3931
3.7718 2.4687 2.3931
3.6803 2.6033 2.3931
3.5842 2.7347 2.3931
3.4834 2.8625 2.3931
3.3782 2.9867 2.3931
3.2687 3.1072 2.3931
3.1550 3.2237 2.3931
3.0372 3.3362 2.3931
2.9155 3.4444 2.3931
2.7900 3.5483 2.3931
2.6609 3.6478 2.3931
2.5283 3.7426 2.3931
2.3925 3.8327 2.3931
0.9035 1.5708 0.9594
0.8464 1.6027 0.9592
0.7882 1.6325 0.9590
0.7289 1.6602 0.9588
0.6687 1.6857 0.9585
0.6076 1.7090 0.9582
0.5457 1.7302 0.9579
0.4830 1.7490 0.9575
0.4197 1.7657 0.9572
0.3559 1.7800 0.9568
0.2915 1.7920 0.9564
0.2268 1.8017 0.9560
0.1618 1.8090 0.9556
0.0965 1.8140 0.9551
0.0311 1.8166 0.9546
-0.0343 1.8169 0.9541
-0.0997 1.8148 0.9536
-0.1650 1.8104 0.9531
-0.2301 1.8036 0.9526
-0.2949 1.7945 0.9520
-0.3594 1.7830 0.9514
-0.4234 1.7692 0.9508
-0.4868 1.7531 0.9502
-0.5497 1.7347 0.9496
-0.6118 1.7141 0.9490
-0.6731 1.6912 0.9484
-0.7336 1.6662 0.9477
-0.7931 1.6390 0.9471
-0.8516 1.6097 0.9464
-0.9090 1.5782 0.9458
-2.4440 3.9113 2.3931
-2.5850 3.8242 2.3931
-2.7230 3.7320 2.3931
-2.8576 3.6348 2.3931
-2.9887 3.5328 2.3931
-3.1161 3.4261 2.3931
-3.2397 3.3148 2.3931
-3.3593 3.1990 2.3931
-3.4747 3.0790 2.3931
-3.5858 2.9547 2.3931
-3.6923 2.8264 2.3931
-3.7943 2.6943 2.3931
-3.8914 2.5585 2.3931
-3.9836 2.4192 2.3931
-4.0708 2.2766 2.3931
-4.1528 2.1308 2.3931
-4.2294 1.9821 2.3931
-4.3007 1.8306 2.3931
-4.3665 1.6765 2.3931
-4.4267 1.5201 2.3931
-4.4812 1.3615 2.3931
-4.5299 1.2009 2.3931
-4.5727 1.0386 2.3931
-4.6097 0.8748 2.3931
-4.6406 0.7096 2.3931
-4.6656 0.5434 2.3931
-4.6845 0.3763 2.3931
-4.6972 0.2086 2.3931
-4.7039 0.0404 2.3931
-4.7044 -0.1279 2.3931
-4.6988 -0.2963 2.3931
-4.6870 -0.4643 2.3931
-4.6691 -0.6319 2.3931
-4.6451 -0.7987 2.3931
-4.6150 -0.9646 2.3931
-4.5788 -1.1293 2.3931
-4.5367 -1.2926 2.3931
-4.4885 -1.4543 2.3931
-4.4345 -1.6141 2.3931
-4.3747 -1.7719 2.3931
-4.3092 -1.9275 2.3931
-4.2380 -2.0805 2.3931
-4.1612 -2.2308 2.3931
-4.0790 -2.3783 2.3931
-3.9914 -2.5226 2.3931
-3.8986 -2.6636 2.3931
-3.8007 -2.8011 2.3931
-3.6979 -2.9350 2.3931
-3.5902 -3.0650 2.3931
-3.4779 -3.1909 2.3931
-3.3610 -3.3127 2.3931
-3.2398 -3.4301 2.3931
-3.1144 -3.5429 2.3931
-2.9850 -3.6511 2.3931
-2.8517 -3.7544 2.3931
-2.7148 -3.8528 2.3931
-2.5745 -3.9461 2.3931
-2.4308 -4.0342 2.3931
-2.2841 -4.1169 2.3931
-2.1345 -4.1942 2.3931
-1.9822 -4.2660 2.3931
-1.8274 -4.3321 2.3931
-1.6704 -4.3926 2.3931
-1.5114 -4.4473 2.3931
-1.3506 -4.4961 2.3931
-1.1881 -4.5390 2.3931
-1.0243 -4.5759 2.3931
-0.8593 -4.6068 2.3931
-0.6934 -4.6317 2.3931
-0.5267 -4.6506 2.3931
-0.3596 -4.6634 2.3931
-0.1922 -4.6701 2.3931
-0.0248 -4.6707 2.3931
0.1425 -4.6652 2.3931
0.3093 -4.6538 2.3931
0.4756 -4.6363 2.3931
0.6409 -4.6127 2.3931
0.8053 -4.5833 2.3931
0.9683 -4.5479 2.3931
1.1299 -4.5067 2.3931
1.2898 -4.4597 2.3931
1.4478 -4.4070 2.3931
1.6037 -4.3487 2.3931
1.7573 -4.2848 2.3931
1.9083 -4.2155 2.3931
2.0567 -4.1409 2.3931
2.2022 -4.0610 2.3931
2.3447 -3.9760 2.3931
2.4839 -3.8859 2.3931
2.6197 -3.7911 2.3931
2.7520 -3.6914 2.3931
2.8805 -3.5872 2.3931
3.0051 -3.4785 2.3931
3.1256 -3.3654 2.3931
3.2419 -3.2482 2.3931
3.3540 -3.1270 2.3931
3.4615 -3.0020 2.3931
3.5644 -2.8732 2.3931
3.6626 -2.7410 2.3931
3.7560 -2.6054 2.3931
3.8444 -2.4667 2.3931
3.9278 -2.3250 2.3931
1.1847 -4.2347 2.3931
1.3348 -4.1862 2.3931
1.4829 -4.1324 2.3931
1.6290 -4.0733 2.3931
1.7727 -4.0090 2.3931
1.9139 -3.9396 2.3931
2.0525 -3.8652 2.3931
2.1882 -3.7860 2.3931
2.3209 -3.7020 2.3931
2.4504 -3.6133 2.3931
2.5765 -3.5201 2.3931
