ply
format ascii 1.0
element vertex 2169
property float32 x
property float32 y
property float32 z
end_header
-0.1234 3.3400 0.9777
-0.2433 3.3325 0.9814
-0.3628 3.3206 0.9850
-0.4819 3.3045 0.9886
-0.6003 3.2840 0.9921
-0.7178 3.2593 0.9955
-0.8344 3.2303 0.9989
-2.2698 7.6400 2.3948
-2.5345 7.5266 2.3948
-2.7944 7.4049 2.3948
-3.0493 7.2750 2.3948
-3.2988 7.1371 2.3948
-3.5428 6.9917 2.3948
-3.7812 6.8380 2.3948
-4.0136 6.6777 2.3948
-4.2400 6.5100 2.3948
-4.4601 6.3355 2.3948
-4.6737 6.1543 2.3948
-4.8808 5.9666 2.3948
-5.0812 5.7727 2.3948
-5.2746 5.5728 2.3948
-5.4610 5.3672 2.3948
-5.6402 5.1560 2.3948
-5.8121 4.9395 2.3948
-5.9765 4.7179 2.3948
-6.1335 4.4915 2.3948
-6.2827 4.2604 2.3948
-6.4242 4.0250 2.3948
-6.5578 3.7854 2.3948
-6.6835 3.5419 2.3948
-6.8011 3.2947 2.3948
-6.9106 3.0441 2.3948
-7.0118 2.7902 2.3948
-7.1048 2.5333 2.3948
-7.1893 2.2737 2.3948
-7.2654 2.0115 2.3948
-7.3330 1.7470 2.3948
-7.3921 1.4806 2.3948
-7.4425 1.2123 2.3948
-7.4842 0.9424 2.3948
-7.5173 0.6712 2.3948
-7.5416 0.3989 2.3948
-7.5570 0.1258 2.3948
-7.5637 -0.1479 2.3948
-7.5615 -0.4220 2.3948
-7.5504 -0.6961 2.3948
-7.5304 -0.9701 2.3948
-7.5015 -1.2437 2.3948
-7.4636 -1.5166 2.3948
-7.4169 -1.7887 2.3948
-7.3612 -2.0595 2.3948
-7.2966 -2.3289 2.3948
-7.2231 -2.5967 2.3948
-7.1406 -2.8624 2.3948
-7.0494 -3.1260 2.3948
-6.9492 -3.3870 2.3948
-6.8403 -3.6452 2.3948
-6.7226 -3.9004 2.3948
-6.5963 -4.1523 2.3948
-6.4612 -4.4006 2.3948
-6.3176 -4.6450 2.3948
-6.1655 -4.8852 2.3948
-6.0050 -5.1210 2.3948
-5.8361 -5.3520 2.3948
-5.6590 -5.5780 2.3948
-5.4738 -5.7987 2.3948
-5.2806 -6.0138 2.3948
-5.0795 -6.2230 2.3948
-4.8707 -6.4260 2.3948
-4.6543 -6.6225 2.3948
-4.4305 -6.8123 2.3948
-4.1995 -6.9949 2.3948
-3.9614 -7.1703 2.3948
-3.7165 -7.3380 2.3948
-3.4650 -7.4978 2.3948
-3.2070 -7.6493 2.3948
-2.9428 -7.7924 2.3948
-2.6728 -7.9267 2.3948
-2.3971 -8.0520 2.3948
-2.1160 -8.1680 2.3948
-1.8298 -8.2744 2.3948
-1.5388 -8.3710 2.3948
-1.2435 -8.4576 2.3948
-0.9439 -8.5338 2.3948
-0.6407 -8.5996 2.3948
-0.3340 -8.6545 2.3948
-0.0243 -8.6986 2.3948
0.2881 -8.7314 2.3948
0.6026 -8.7530 2.3948
0.9190 -8.7631 2.3948
1.2367 -8.7615 2.3948
-4.8053 -5.6308 2.3948
-4.6156 -5.8205 2.3948
-4.4189 -6.0042 2.3948
-4.2153 -6.1817 2.3948
-4.0051 -6.3527 2.3948
-3.7883 -6.5170 2.3948
-3.5652 -6.6743 2.3948
-3.3359 -6.8243 2.3948
-3.1008 -6.9667 2.3948
-2.8599 -7.1014 2.3948
-2.6136 -7.2281 2.3948
-2.3620 -7.3465 2.3948
-2.1055 -7.4564 2.3948
-1.8443 -7.5576 2.3948
-1.5787 -7.6497 2.3948
-1.3089 -7.7327 2.3948
-1.0354 -7.8063 2.3948
-0.7583 -7.8703 2.3948
-0.4782 -7.9245 2.3948
-0.1951 -7.9687 2.3948
0.0903 -8.0027 2.3948
0.3779 -8.0264 2.3948
0.6672 -8.0397 2.3948
0.9577 -8.0424 2.3948
1.2493 -8.0343 2.3948
1.5413 -8.0155 2.3948
1.8334 -7.9857 2.3948
2.1252 -7.9450 2.3948
2.4162 -7.8932 2.3948
2.7060 -7.8303 2.3948
2.9941 -7.7564 2.3948
3.2801 -7.6714 2.3948
3.5635 -7.5753 2.3948
3.8439 -7.4682 2.3948
4.1208 -7.3502 2.3948
4.3936 -7.2213 2.3948
4.6621 -7.0816 2.3948
4.9256 -6.9314 2.3948
5.1837 -6.7706 2.3948
5.4360 -6.5996 2.3948
5.6820 -6.4185 2.3948
5.9213 -6.2275 2.3948
6.1533 -6.0270 2.3948
6.3778 -5.8171 2.3948
6.5942 -5.5981 2.3948
6.8022 -5.3704 2.3948
7.0013 -5.1344 2.3948
7.1912 -4.8902 2.3948
7.3715 -4.6384 2.3948
7.5418 -4.3794 2.3948
7.7019 -4.1136 2.3948
7.8514 -3.8412 2.3948
7.9901 -3.5630 2.3948
8.1176 -3.2792 2.3948
8.2337 -2.9905 2.3948
8.3383 -2.6972 2.3948
8.4311 -2.3998 2.3948
8.5119 -2.0990 2.3948
8.5806 -1.7951 2.3948
8.6371 -1.4888 2.3948
8.6813 -1.1806 2.3948
8.7132 -0.8709 2.3948
8.7326 -0.5604 2.3948
8.7396 -0.2495 2.3948
8.7342 0.0612 2.3948
8.7165 0.3711 2.3948
8.6865 0.6798 2.3948
8.6442 0.9867 2.3948
8.5900 1.2913 2.3948
8.5237 1.5931 2.3948
8.4458 1.8917 2.3948
8.3563 2.1863 2.3948
8.2554 2.4767 2.3948
8.1435 2.7625 2.3948
8.0206 3.0430 2.3948
7.8872 3.3181 2.3948
7.7435 3.5867 2.3948
7.5899 3.8498 2.3948
7.4265 4.1056 2.3948
7.2539 4.3544 2.3948
7.0723 4.5958 2.3948
6.8821 4.8293 2.3948
6.6836 5.0549 2.3948
6.4773 5.2720 2.3948
6.2636 5.4806 2.3948
6.0428 5.6803 2.3948
5.8154 5.8710 2.3948
5.5817 6.0524 2.3948
5.3422 6.2244 2.3948
5.0972 6.3869 2.3948
4.8473 6.5396 2.3948
4.5927 6.6825 2.3948
4.3339 6.8155 2.3948
4.0714 6.9384 2.3948
3.8056 7.0513 2.3948
3.5367 7.1540 2.3948
3.2654 7.2466 2.3948
2.9918 7.3291 2.3948
2.7165 7.4013 2.3948
0.9575 2.9292 0.9399
0.8518 2.9609 0.9435
0.7450 2.9888 0.9471
0.6372 3.0129 0.9507
0.5287 3.0330 0.9543
0.4194 3.0492 0.9579
0.3097 3.0615 0.9614
0.1995 3.0698 0.9650
0.0891 3.0741 0.9685
-0.0213 3.0744 0.9719
-0.1318 3.0707 0.9754
-0.2420 3.0630 0.9787
-0.3519 3.0513 0.9821
-0.4612 3.0357 0.9853
-0.5700 3.0162 0.9886
-0.6780 2.9927 0.9917
-0.7850 2.9653 0.9948
-2.1385 7.0421 2.3948
-2.3830 6.9376 2.3948
-2.6231 6.8253 2.3948
-2.8586 6.7053 2.3948
-3.0892 6.5777 2.3948
-3.3147 6.4431 2.3948
-3.5350 6.3013 2.3948
-3.7499 6.1528 2.3948
-3.9592 5.9974 2.3948
-4.1626 5.8359 2.3948
-4.3602 5.6677 2.3948
-4.5517 5.4937 2.3948
-4.7368 5.3138 2.3948
-4.9156 5.1283 2.3948
-5.0878 4.9375 2.3948
-5.2534 4.7413 2.3948
-5.4122 4.5404 2.3948
-5.5640 4.3346 2.3948
-5.7088 4.1243 2.3948
-5.8464 3.9096 2.3948
-5.9768 3.6908 2.3948
-6.0999 3.4682 2.3948
-6.2155 3.2419 2.3948
-6.3235 3.0121 2.3948
-6.4240 2.7792 2.3948
-6.5167 2.5432 2.3948
-6.6017 2.3044 2.3948
-6.6789 2.0631 2.3948
-6.7481 1.8195 2.3948
-6.8093 1.5738 2.3948
-6.8626 1.3262 2.3948
-6.9078 1.0769 2.3948
-6.9448 0.8263 2.3948
-6.9737 0.5744 2.3948
-6.9944 0.3217 2.3948
-7.0069 0.0682 2.3948
-7.0111 -0.1858 2.3948
-7.0070 -0.4400 2.3948
-6.9946 -0.6943 2.3948
-6.9738 -0.9483 2.3948
-6.9448 -1.2018 2.3948
-6.9074 -1.4546 2.3948
-6.8617 -1.7064 2.3948
-6.8077 -1.9570 2.3948
-6.7453 -2.2062 2.3948
-6.6746 -2.4537 2.3948
-6.5957 -2.6992 2.3948
-6.5085 -2.9425 2.3948
-6.4132 -3.1833 2.3948
-6.3096 -3.4214 2.3948
-6.1980 -3.6565 2.3948
-6.0783 -3.8883 2.3948
-5.9506 -4.1167 2.3948
-5.8149 -4.3413 2.3948
-5.6715 -4.5619 2.3948
-5.5202 -4.7781 2.3948
-5.3614 -4.9898 2.3948
-5.1949 -5.1967 2.3948
-5.0210 -5.3984 2.3948
-4.8399 -5.5948 2.3948
-4.6515 -5.7856 2.3948
-4.4561 -5.9704 2.3948
-4.2538 -6.1491 2.3948
-4.0447 -6.3214 2.3948
-3.8291 -6.4869 2.3948
-3.6072 -6.6455 2.3948
-3.3791 -6.7969 2.3948
-3.1450 -6.9408 2.3948
-2.9052 -7.0770 2.3948
-2.6598 -7.2052 2.3948
-2.4092 -7.3251 2.3948
-2.1536 -7.4366 2.3948
-1.8933 -7.5394 2.3948
-1.6284 -7.6333 2.3948
-1.3595 -7.7180 2.3948
-1.0866 -7.7933 2.3948
-0.8102 -7.8591 2.3948
-0.5305 -7.9151 2.3948
-0.2480 -7.9612 2.3948
0.0370 -7.9971 2.3948
0.3242 -8.0228 2.3948
0.6132 -8.0380 2.3948
0.9036 -8.0427 2.3948
1.1949 -8.0367 2.3948
1.4869 -8.0198 2.3948
1.7790 -7.9921 2.3948
2.0709 -7.9534 2.3948
2.3621 -7.9037 2.3948
2.6521 -7.8429 2.3948
2.9406 -7.7710 2.3948
3.2270 -7.6881 2.3948
3.5110 -7.5940 2.3948
3.7919 -7.4890 2.3948
4.0695 -7.3730 2.3948
4.3431 -7.2461 2.3948
4.6124 -7.1084 2.3948
4.8769 -6.9601 2.3948
5.1361 -6.8013 2.3948
5.3895 -6.6322 2.3948
5.6367 -6.4530 2.3948
5.8772 -6.2638 2.3948
6.1107 -6.0650 2.3948
6.3366 -5.8569 2.3948
6.5545 -5.6396 2.3948
6.7641 -5.4135 2.3948
6.9649 -5.1789 2.3948
7.1565 -4.9363 2.3948
7.3386 -4.6859 2.3948
7.5108 -4.4282 2.3948
7.6729 -4.1636 2.3948
7.8244 -3.8924 2.3948
7.9651 -3.6153 2.3948
8.0947 -3.3325 2.3948
8.2130 -3.0446 2.3948
8.3197 -2.7521 2.3948
8.4147 -2.4555 2.3948
8.4977 -2.1553 2.3948
8.5687 -1.8520 2.3948
8.6275 -1.5460 2.3948
8.6740 -1.2381 2.3948
8.7082 -0.9286 2.3948
8.7299 -0.6183 2.3948
8.7392 -0.3074 2.3948
8.7362 0.0034 2.3948
8.7207 0.3135 2.3948
8.6930 0.6224 2.3948
8.6530 0.9297 2.3948
8.6010 1.2347 2.3948
8.5370 1.5371 2.3948
8.4612 1.8361 2.3948
8.3738 2.1317 2.3948
8.2751 2.4229 2.3948
8.1651 2.7096 2.3948
8.0443 2.9912 2.3948
7.9129 3.2675 2.3948
7.7711 3.5375 2.3948
7.6192 3.8013 2.3948
7.4577 4.0587 2.3948
7.2867 4.3087 2.3948
7.1068 4.5514 2.3948
6.9181 4.7864 2.3948
6.7212 5.0134 2.3948
6.5164 5.2322 2.3948
6.3040 5.4424 2.3948
6.0845 5.6438 2.3948
5.8582 5.8362 2.3948
5.6257 6.0193 2.3948
5.3872 6.1931 2.3948
5.1432 6.3574 2.3948
4.8942 6.5119 2.3948
4.6404 6.6567 2.3948
4.3824 6.7915 2.3948
4.1206 6.9163 2.3948
3.8553 7.0310 2.3948
3.5870 7.1357 2.3948
3.3161 7.2302 2.3948
3.0429 7.3145 2.3948
2.7679 7.3887 2.3948
2.4914 7.4527 2.3948
0.8716 2.9553 0.9428
0.7650 2.9839 0.9464
0.6574 3.0087 0.9501
0.5489 3.0296 0.9537
0.4398 3.0465 0.9572
0.3301 3.0595 0.9608
0.2200 3.0685 0.9643
0.1097 3.0736 0.9678
-0.0008 3.0746 0.9713
-0.1112 3.0717 0.9747
-0.2215 3.0647 0.9781
-0.3314 3.0538 0.9814
-0.4409 3.0389 0.9847
-0.5498 3.0201 0.9880
-0.6579 2.9974 0.9911
-0.7652 2.9707 0.9942
-0.8714 2.9402 0.9973
-2.3378 6.9577 2.3948
-2.5787 6.8468 2.3948
-2.8151 6.7282 2.3948
-3.0466 6.6021 2.3948
-3.2731 6.4687 2.3948
-3.4944 6.3283 2.3948
-3.7103 6.1809 2.3948
-3.9207 6.0268 2.3948
-4.1252 5.8663 2.3948
-4.3239 5.6994 2.3948
-4.5165 5.5265 2.3948
-4.7028 5.3477 2.3948
-4.8828 5.1633 2.3948
-5.0563 4.9735 2.3948
-5.2231 4.7784 2.3948
-5.3831 4.5782 2.3948
-5.5362 4.3733 2.3948
-5.6823 4.1638 2.3948
-5.8213 3.9499 2.3948
-5.9531 3.7319 2.3948
-6.0775 3.5100 2.3948
-6.1945 3.2843 2.3948
-6.3040 3.0552 2.3948
-6.4058 2.8228 2.3948
-6.5000 2.5874 2.3948
-6.5865 2.3491 2.3948
-6.6651 2.1083 2.3948
-6.7358 1.8650 2.3948
-6.7985 1.6197 2.3948
-6.8533 1.3724 2.3948
-6.9000 1.1235 2.3948
-6.9385 0.8731 2.3948
-6.9690 0.6214 2.3948
-6.9912 0.3688 2.3948
-7.0052 0.1154 2.3948
-7.0109 -0.1385 2.3948
-7.0084 -0.3927 2.3948
-6.9975 -0.6469 2.3948
-6.9783 -0.9010 2.3948
-6.9508 -1.1546 2.3948
-6.9150 -1.4076 2.3948
-6.8708 -1.6596 2.3948
-6.8183 -1.9105 2.3948
-6.7575 -2.1599 2.3948
-6.6884 -2.4077 2.3948
-6.6110 -2.6536 2.3948
-6.5254 -2.8973 2.3948
-6.4315 -3.1386 2.3948
-6.3295 -3.3772 2.3948
-6.2194 -3.6129 2.3948
-6.1012 -3.8454 2.3948
-5.9749 -4.0745 2.3948
-5.8408 -4.2998 2.3948
-5.6988 -4.5211 2.3948
-5.5490 -4.7382 2.3948
-5.3915 -4.9507 2.3948
-5.2265 -5.1585 2.3948
-5.0540 -5.3612 2.3948
-4.8741 -5.5587 2.3948
-4.6871 -5.7505 2.3948
-4.4930 -5.9365 2.3948
-4.2920 -6.1163 2.3948
-4.0842 -6.2898 2.3948
-3.8698 -6.4566 2.3948
-3.6490 -6.6165 2.3948
-3.4220 -6.7693 2.3948
-3.1890 -6.9146 2.3948
-2.9503 -7.0522 2.3948
-2.7059 -7.1819 2.3948
-2.4563 -7.3034 2.3948
-2.2016 -7.4165 2.3948
-1.9421 -7.5209 2.3948
-1.6781 -7.6165 2.3948
-1.4099 -7.7029 2.3948
-1.1377 -7.7800 2.3948
-0.8619 -7.8476 2.3948
-0.5828 -7.9054 2.3948
-0.3008 -7.9534 2.3948
-0.0163 -7.9912 2.3948
0.2706 -8.0188 2.3948
0.5592 -8.0360 2.3948
0.8494 -8.0426 2.3948
1.1406 -8.0386 2.3948
-4.4563 -5.2292 2.3948
-4.2791 -5.4041 2.3948
-4.0956 -5.5734 2.3948
-3.9057 -5.7367 2.3948
-3.7097 -5.8940 2.3948
-3.5077 -6.0449 2.3948
-3.3000 -6.1892 2.3948
-3.0866 -6.3266 2.3948
-2.8679 -6.4570 2.3948
-2.6440 -6.5801 2.3948
-2.4151 -6.6957 2.3948
-2.1815 -6.8035 2.3948
-1.9435 -6.9034 2.3948
-1.7012 -6.9951 2.3948
-1.4550 -7.0784 2.3948
-1.2051 -7.1532 2.3948
-0.9518 -7.2193 2.3948
-0.6954 -7.2764 2.3948
-0.4362 -7.3244 2.3948
-0.1746 -7.3632 2.3948
0.0891 -7.3926 2.3948
0.3546 -7.4124 2.3948
0.6215 -7.4226 2.3948
0.8895 -7.4230 2.3948
1.1582 -7.4135 2.3948
1.4273 -7.3941 2.3948
1.6962 -7.3646 2.3948
1.9648 -7.3251 2.3948
2.2324 -7.2754 2.3948
2.4989 -7.2156 2.3948
2.7636 -7.1456 2.3948
3.0263 -7.0655 2.3948
3.2865 -6.9753 2.3948
3.5437 -6.8751 2.3948
3.7977 -6.7648 2.3948
4.0479 -6.6447 2.3948
4.2938 -6.5147 2.3948
4.5352 -6.3751 2.3948
4.7716 -6.2260 2.3948
5.0026 -6.0676 2.3948
5.2277 -5.9000 2.3948
5.4466 -5.7234 2.3948
5.6589 -5.5382 2.3948
5.8641 -5.3445 2.3948
6.0619 -5.1426 2.3948
6.2520 -4.9328 2.3948
6.4340 -4.7153 2.3948
6.6075 -4.4907 2.3948
6.7722 -4.2591 2.3948
6.9279 -4.0209 2.3948
7.0742 -3.7765 2.3948
7.2108 -3.5264 2.3948
7.3376 -3.2708 2.3948
7.4542 -3.0103 2.3948
7.5604 -2.7452 2.3948
7.6561 -2.4760 2.3948
7.7411 -2.2030 2.3948
7.8151 -1.9271 2.3948
7.8782 -1.6484 2.3948
7.9302 -1.3674 2.3948
7.9710 -1.0846 2.3948
8.0005 -0.8005 2.3948
8.0187 -0.5156 2.3948
8.0257 -0.2304 2.3948
8.0213 0.0547 2.3948
8.0058 0.3391 2.3948
7.9790 0.6225 2.3948
7.9411 0.9043 2.3948
7.8922 1.1840 2.3948
7.8325 1.4618 2.3948
7.7620 1.7352 2.3948
7.6810 2.0068 2.3948
7.5896 2.2737 2.3948
7.4880 2.5366 2.3948
7.3765 2.7949 2.3948
7.2553 3.0481 2.3948
7.1246 3.2962 2.3948
6.9848 3.5383 2.3948
6.8360 3.7745 2.3948
6.6787 4.0042 2.3948
6.5131 4.2272 2.3948
6.3396 4.4431 2.3948
6.1584 4.6518 2.3948
5.9700 4.8529 2.3948
5.7747 5.0462 2.3948
5.5727 5.2315 2.3948
5.3646 5.4086 2.3948
5.1506 5.5773 2.3948
4.9311 5.7374 2.3948
4.7065 5.8888 2.3948
4.4772 6.0313 2.3948
4.2435 6.1648 2.3948
4.0059 6.2893 2.3948
3.7646 6.4045 2.3948
3.5201 6.5106 2.3948
3.2728 6.6073 2.3948
3.0229 6.6948 2.3948
2.7709 6.7729 2.3948
2.5171 6.8416 2.3948
0.8878 2.7086 0.9400
0.7900 2.7379 0.9433
0.6912 2.7637 0.9466
0.5915 2.7859 0.9500
0.4911 2.8045 0.9533
0.3901 2.8195 0.9566
0.2886 2.8308 0.9599
0.1867 2.8385 0.9632
0.0846 2.8424 0.9664
-0.0176 2.8427 0.9696
-0.1197 2.8393 0.9728
-0.2216 2.8322 0.9759
-0.3232 2.8214 0.9790
-0.4244 2.8069 0.9820
-0.5249 2.7889 0.9850
-0.6248 2.7671 0.9879
-0.7238 2.7418 0.9907
-0.8218 2.7130 0.9935
-2.2086 6.4438 2.3948
-2.4321 6.3407 2.3948
-2.6515 6.2305 2.3948
-2.8664 6.1132 2.3948
-3.0766 5.9891 2.3948
-3.2821 5.8584 2.3948
-3.4825 5.7212 2.3948
-3.6777 5.5777 2.3948
-3.8677 5.4281 2.3948
-4.0520 5.2726 2.3948
-4.2308 5.1113 2.3948
-4.4038 4.9447 2.3948
-4.5708 4.7727 2.3948
-4.7317 4.5956 2.3948
-4.8864 4.4136 2.3948
-5.0347 4.2269 2.3948
-5.1766 4.0356 2.3948
-5.3120 3.8401 2.3948
-5.4406 3.6404 2.3948
-5.5625 3.4369 2.3948
-5.6775 3.2297 2.3948
-5.7856 3.0191 2.3948
-5.8866 2.8052 2.3948
-5.9804 2.5882 2.3948
-6.0670 2.3684 2.3948
-6.1464 2.1460 2.3948
-6.2184 1.9212 2.3948
-6.2830 1.6942 2.3948
-6.3401 1.4653 2.3948
-6.3896 1.2345 2.3948
-6.4316 1.0023 2.3948
-6.4660 0.7687 2.3948
-6.4927 0.5340 2.3948
-6.5118 0.2985 2.3948
-6.5230 0.0623 2.3948
-6.5266 -0.1743 2.3948
-6.5224 -0.4111 2.3948
-6.5103 -0.6479 2.3948
-6.4905 -0.8844 2.3948
-6.4629 -1.1205 2.3948
-6.4274 -1.3558 2.3948
-6.3842 -1.5902 2.3948
-6.3332 -1.8233 2.3948
-6.2744 -2.0551 2.3948
-6.2078 -2.2852 2.3948
-6.1335 -2.5133 2.3948
-6.0515 -2.7394 2.3948
-5.9619 -2.9631 2.3948
-5.8646 -3.1841 2.3948
-5.7598 -3.4023 2.3948
-5.6475 -3.6173 2.3948
-5.5277 -3.8290 2.3948
-5.4006 -4.0371 2.3948
-5.2662 -4.2414 2.3948
-5.1246 -4.4415 2.3948
-4.9760 -4.6373 2.3948
-4.8203 -4.8285 2.3948
-4.6578 -5.0148 2.3948
-4.4885 -5.1960 2.3948
-4.3126 -5.3720 2.3948
-4.1302 -5.5423 2.3948
-3.9415 -5.7068 2.3948
-3.7467 -5.8652 2.3948
-3.5458 -6.0173 2.3948
-3.3391 -6.1628 2.3948
-3.1268 -6.3016 2.3948
-2.9090 -6.4333 2.3948
-2.6861 -6.5578 2.3948
-2.4581 -6.6747 2.3948
-2.2254 -6.7840 2.3948
-1.9881 -6.8854 2.3948
-1.7466 -6.9786 2.3948
-1.5011 -7.0636 2.3948
-1.2519 -7.1400 2.3948
-0.9992 -7.2076 2.3948
-0.7434 -7.2664 2.3948
-0.4847 -7.3162 2.3948
-0.2235 -7.3567 2.3948
0.0398 -7.3878 2.3948
0.3050 -7.4094 2.3948
0.5717 -7.4214 2.3948
0.8395 -7.4236 2.3948
1.1082 -7.4160 2.3948
1.3772 -7.3984 2.3948
1.6462 -7.3708 2.3948
1.9148 -7.3332 2.3948
2.1827 -7.2854 2.3948
2.4494 -7.2275 2.3948
2.7145 -7.1594 2.3948
2.9775 -7.0812 2.3948
3.2382 -6.9929 2.3948
3.4961 -6.8945 2.3948
3.7507 -6.7861 2.3948
4.0016 -6.6678 2.3948
4.2484 -6.5397 2.3948
4.4907 -6.4019 2.3948
4.7280 -6.2545 2.3948
4.9600 -6.0978 2.3948
5.1863 -5.9319 2.3948
5.4063 -5.7570 2.3948
5.6198 -5.5734 2.3948
5.8264 -5.3812 2.3948
6.0256 -5.1808 2.3948
6.2172 -4.9724 2.3948
6.4007 -4.7564 2.3948
6.5758 -4.5330 2.3948
6.7422 -4.3027 2.3948
6.8996 -4.0657 2.3948
7.0477 -3.8225 2.3948
7.1861 -3.5734 2.3948
7.3147 -3.3188 2.3948
7.4332 -3.0592 2.3948
7.5414 -2.7949 2.3948
7.6391 -2.5264 2.3948
7.7260 -2.2542 2.3948
7.8022 -1.9788 2.3948
7.8673 -1.7005 2.3948
7.9213 -1.4199 2.3948
7.9642 -1.1374 2.3948
7.9958 -0.8535 2.3948
8.0162 -0.5688 2.3948
8.0252 -0.2835 2.3948
8.0230 0.0016 2.3948
8.0095 0.2862 2.3948
7.9848 0.5698 2.3948
7.9490 0.8519 2.3948
7.9022 1.1321 2.3948
7.8445 1.4103 2.3948
7.7760 1.6848 2.3948
7.6969 1.9564 2.3948
7.6074 2.2241 2.3948
7.5077 2.4879 2.3948
7.3980 2.7473 2.3948
7.2786 3.0015 2.3948
7.1496 3.2504 2.3948
7.0115 3.4937 2.3948
6.8644 3.7310 2.3948
6.7086 3.9619 2.3948
6.5446 4.1861 2.3948
6.3725 4.4034 2.3948
6.1928 4.6135 2.3948
6.0056 4.8160 2.3948
5.8116 5.0108 2.3948
5.6108 5.1976 2.3948
5.4038 5.3763 2.3948
5.1909 5.5465 2.3948
4.9724 5.7082 2.3948
4.7487 5.8612 2.3948
4.5203 6.0054 2.3948
4.2874 6.1406 2.3948
4.0505 6.2668 2.3948
3.8098 6.3838 2.3948
3.5659 6.4915 2.3948
3.3190 6.5900 2.3948
3.0696 6.6792 2.3948
2.8180 6.7590 2.3948
2.5645 6.8295 2.3948
0.9059 2.7027 0.9393
0.8083 2.7327 0.9427
0.7097 2.7592 0.9460
0.6102 2.7821 0.9494
0.5099 2.8013 0.9527
0.4089 2.8170 0.9560
0.3075 2.8290 0.9593
0.2057 2.8373 0.9625
0.1036 2.8420 0.9658
0.0015 2.8429 0.9690
-0.1007 2.8402 0.9722
-0.2026 2.8338 0.9753
-0.3043 2.8237 0.9784
-0.4056 2.8099 0.9814
-0.5063 2.7925 0.9844
-0.6063 2.7715 0.9873
-0.7054 2.7468 0.9902
-0.8037 2.7186 0.9930
-2.1665 6.4622 2.3948
-2.3908 6.3605 2.3948
-2.6110 6.2516 2.3948
-2.8267 6.1356 2.3948
-3.0378 6.0127 2.3948
-3.2441 5.8832 2.3948
-3.4455 5.7472 2.3948
-3.6418 5.6048 2.3948
-3.8327 5.4564 2.3948
-4.0181 5.3020 2.3948
-4.1980 5.1419 2.3948
-4.3720 4.9761 2.3948
-4.5401 4.8051 2.3948
-4.7022 4.6289 2.3948
-4.8580 4.4478 2.3948
-5.0076 4.2619 2.3948
-5.1507 4.0715 2.3948
-5.2873 3.8768 2.3948
-5.4172 3.6780 2.3948
-5.5403 3.4751 2.3948
-5.6566 3.2686 2.3948
-5.7660 3.0586 2.3948
-5.8683 2.8453 2.3948
-5.9635 2.6288 2.3948
-6.0514 2.4096 2.3948
-6.1322 2.1877 2.3948
-6.2055 1.9633 2.3948
-6.2715 1.7367 2.3948
-6.3300 1.5080 2.3948
-6.3810 1.2776 2.3948
-6.4244 1.0456 2.3948
-6.4602 0.8123 2.3948
-6.4883 0.5778 2.3948
-6.5088 0.3424 2.3948
-6.5215 0.1063 2.3948
-6.5265 -0.1302 2.3948
-6.5237 -0.3670 2.3948
-6.5132 -0.6038 2.3948
-6.4948 -0.8404 2.3948
-6.4686 -1.0766 2.3948
-6.4346 -1.3120 2.3948
-6.3929 -1.5466 2.3948
-6.3433 -1.7800 2.3948
-6.2859 -2.0120 2.3948
-6.2208 -2.2424 2.3948
-6.1479 -2.4710 2.3948
-6.0674 -2.6975 2.3948
-5.9791 -2.9216 2.3948
-5.8833 -3.1431 2.3948
-5.7799 -3.3619 2.3948
-5.6690 -3.5775 2.3948
-5.5506 -3.7899 2.3948
-5.4248 -3.9986 2.3948
-5.2918 -4.2036 2.3948
-5.1516 -4.4045 2.3948
-5.0042 -4.6011 2.3948
-4.8498 -4.7932 2.3948
-4.6886 -4.9805 2.3948
-4.5205 -5.1627 2.3948
-4.3459 -5.3396 2.3948
-4.1647 -5.5110 2.3948
-3.9772 -5.6766 2.3948
-3.7834 -5.8361 2.3948
-3.5837 -5.9894 2.3948
-3.3780 -6.1362 2.3948
-3.1667 -6.2762 2.3948
-2.9500 -6.4093 2.3948
-2.7280 -6.5351 2.3948
-2.5009 -6.6535 2.3948
-2.2691 -6.7643 2.3948
-2.0327 -6.8671 2.3948
-1.7919 -6.9619 2.3948
-1.5471 -7.0484 2.3948
-1.2986 -7.1264 2.3948
-1.0465 -7.1957 2.3948
-0.7912 -7.2562 2.3948
-0.5331 -7.3076 2.3948
-0.2723 -7.3498 2.3948
-0.0094 -7.3827 2.3948
0.2555 -7.4061 2.3948
0.5219 -7.4199 2.3948
0.7896 -7.4240 2.3948
1.0581 -7.4182 2.3948
-4.1495 -4.8764 2.3948
-3.9836 -5.0384 2.3948
-3.8117 -5.1951 2.3948
-3.6340 -5.3463 2.3948
-3.4506 -5.4916 2.3948
-3.2618 -5.6310 2.3948
-3.0676 -5.7641 2.3948
-2.8683 -5.8908 2.3948
-2.6640 -6.0108 2.3948
-2.4551 -6.1239 2.3948
-2.2416 -6.2300 2.3948
-2.0238 -6.3289 2.3948
-1.8019 -6.4202 2.3948
-1.5762 -6.5039 2.3948
-1.3470 -6.5798 2.3948
-1.1144 -6.6477 2.3948
-0.8789 -6.7074 2.3948
-0.6405 -6.7589 2.3948
-0.3998 -6.8018 2.3948
-0.1568 -6.8361 2.3948
0.0880 -6.8617 2.3948
0.3343 -6.8784 2.3948
0.5819 -6.8862 2.3948
0.8303 -6.8849 2.3948
1.0792 -6.8745 2.3948
1.3283 -6.8548 2.3948
1.5773 -6.8259 2.3948
1.8257 -6.7877 2.3948
2.0732 -6.7401 2.3948
2.3195 -6.6832 2.3948
2.5641 -6.6169 2.3948
2.8067 -6.5413 2.3948
3.0469 -6.4564 2.3948
3.2843 -6.3623 2.3948
3.5185 -6.2590 2.3948
3.7492 -6.1467 2.3948
3.9760 -6.0253 2.3948
4.1984 -5.8952 2.3948
4.4162 -5.7563 2.3948
4.6289 -5.6089 2.3948
4.8361 -5.4531 2.3948
5.0376 -5.2891 2.3948
5.2329 -5.1172 2.3948
5.4217 -4.9375 2.3948
5.6037 -4.7504 2.3948
5.7785 -4.5561 2.3948
5.9458 -4.3548 2.3948
6.1054 -4.1469 2.3948
6.2569 -3.9327 2.3948
6.4000 -3.7126 2.3948
6.5345 -3.4867 2.3948
6.6602 -3.2557 2.3948
6.7767 -3.0196 2.3948
6.8840 -2.7791 2.3948
6.9818 -2.5344 2.3948
7.0699 -2.2860 2.3948
7.1481 -2.0342 2.3948
7.2165 -1.7795 2.3948
7.2747 -1.5223 2.3948
7.3227 -1.2630 2.3948
7.3605 -1.0021 2.3948
7.3880 -0.7401 2.3948
7.4052 -0.4772 2.3948
7.4120 -0.2140 2.3948
7.4085 0.0491 2.3948
7.3947 0.3116 2.3948
7.3706 0.5732 2.3948
7.3363 0.8334 2.3948
7.2920 1.0917 2.3948
7.2376 1.3479 2.3948
7.1734 1.6014 2.3948
7.0995 1.8518 2.3948
7.0161 2.0988 2.3948
6.9233 2.3421 2.3948
6.8213 2.5811 2.3948
6.7104 2.8156 2.3948
6.5907 3.0453 2.3948
6.4626 3.2697 2.3948
6.3263 3.4886 2.3948
6.1820 3.7017 2.3948
6.0301 3.9087 2.3948
5.8707 4.1093 2.3948
5.7043 4.3033 2.3948
5.5311 4.4903 2.3948
5.3515 4.6703 2.3948
5.1656 4.8429 2.3948
4.9740 5.0080 2.3948
4.7769 5.1655 2.3948
4.5746 5.3150 2.3948
4.3676 5.4566 2.3948
4.1560 5.5900 2.3948
3.9403 5.7152 2.3948
3.7208 5.8320 2.3948
3.4979 5.9404 2.3948
3.2718 6.0402 2.3948
3.0430 6.1315 2.3948
2.8118 6.2142 2.3948
2.5784 6.2882 2.3948
0.9167 2.4856 0.9369
0.8269 2.5161 0.9400
0.7361 2.5434 0.9431
0.6443 2.5673 0.9462
0.5517 2.5880 0.9493
0.4584 2.6052 0.9524
0.3645 2.6191 0.9555
0.2702 2.6296 0.9585
0.1755 2.6367 0.9616
0.0807 2.6404 0.9646
-0.0143 2.6406 0.9675
-0.1091 2.6374 0.9705
-0.2038 2.6308 0.9734
-0.2982 2.6208 0.9762
-0.3922 2.6074 0.9791
-0.4857 2.5906 0.9818
-0.5784 2.5704 0.9845
-0.6704 2.5469 0.9872
-0.7615 2.5201 0.9898
-0.8516 2.4900 0.9923
-2.2641 5.9144 2.3948
-2.4692 5.8125 2.3948
-2.6702 5.7041 2.3948
-2.8669 5.5892 2.3948
-3.0591 5.4680 2.3948
-3.2467 5.3407 2.3948
-3.4296 5.2075 2.3948
-3.6074 5.0685 2.3948
-3.7802 4.9240 2.3948
-3.9476 4.7740 2.3948
-4.1097 4.6189 2.3948
-4.2663 4.4586 2.3948
-4.4171 4.2937 2.3948
-4.5620 4.1243 2.3948
-4.7013 3.9497 2.3948
-4.8343 3.7716 2.3948
-4.9613 3.5888 2.3948
-5.0819 3.4025 2.3948
-5.1962 3.2124 2.3948
-5.3041 3.0189 2.3948
-5.4054 2.8220 2.3948
-5.5001 2.6221 2.3948
-5.5881 2.4194 2.3948
-5.6693 2.2139 2.3948
-5.7436 2.0059 2.3948
-5.8110 1.7957 2.3948
-5.8715 1.5834 2.3948
-5.9249 1.3693 2.3948
-5.9712 1.1535 2.3948
-6.0104 0.9362 2.3948
-6.0425 0.7178 2.3948
-6.0673 0.4983 2.3948
-6.0849 0.2780 2.3948
-6.0952 0.0571 2.3948
-6.0982 -0.1642 2.3948
-6.0939 -0.3856 2.3948
-6.0823 -0.6070 2.3948
-6.0633 -0.8280 2.3948
-6.0370 -1.0486 2.3948
-6.0034 -1.2685 2.3948
-5.9624 -1.4875 2.3948
-5.9141 -1.7052 2.3948
-5.8585 -1.9216 2.3948
-5.7957 -2.1364 2.3948
-5.7255 -2.3493 2.3948
-5.6482 -2.5602 2.3948
-5.5637 -2.7688 2.3948
-5.4721 -2.9748 2.3948
-5.3735 -3.1781 2.3948
-5.2678 -3.3785 2.3948
-5.1552 -3.5755 2.3948
-5.0357 -3.7692 2.3948
-4.9094 -3.9592 2.3948
-4.7765 -4.1452 2.3948
-4.6369 -4.3271 2.3948
-4.4909 -4.5046 2.3948
-4.3384 -4.6776 2.3948
-4.1798 -4.8456 2.3948
-4.0150 -5.0087 2.3948
-3.8442 -5.1664 2.3948
-3.6675 -5.3186 2.3948
-3.4852 -5.4650 2.3948
-3.2974 -5.6055 2.3948
-3.1041 -5.7398 2.3948
-2.9058 -5.8677 2.3948
-2.7024 -5.9890 2.3948
-2.4943 -6.1034 2.3948
-2.2816 -6.2108 2.3948
-2.0646 -6.3110 2.3948
-1.8435 -6.4038 2.3948
-1.6185 -6.4889 2.3948
-1.3899 -6.5663 2.3948
-1.1580 -6.6357 2.3948
-0.9230 -6.6970 2.3948
-0.6851 -6.7499 2.3948
-0.4448 -6.7944 2.3948
-0.2022 -6.8304 2.3948
0.0423 -6.8576 2.3948
0.2883 -6.8760 2.3948
0.5357 -6.8854 2.3948
0.7839 -6.8858 2.3948
1.0328 -6.8771 2.3948
1.2819 -6.8592 2.3948
1.5309 -6.8320 2.3948
1.7795 -6.7955 2.3948
2.0272 -6.7497 2.3948
2.2737 -6.6945 2.3948
2.5187 -6.6300 2.3948
2.7617 -6.5561 2.3948
3.0024 -6.4729 2.3948
3.2403 -6.3805 2.3948
3.4752 -6.2790 2.3948
3.7066 -6.1683 2.3948
3.9341 -6.0486 2.3948
4.1573 -5.9201 2.3948
4.3760 -5.7828 2.3948
4.5896 -5.6369 2.3948
4.7980 -5.4827 2.3948
5.0005 -5.3202 2.3948
5.1970 -5.1498 2.3948
5.3870 -4.9715 2.3948
5.5703 -4.7858 2.3948
5.7465 -4.5928 2.3948
5.9153 -4.3928 2.3948
6.0763 -4.1861 2.3948
6.2293 -3.9731 2.3948
6.3740 -3.7540 2.3948
6.5101 -3.5292 2.3948
6.6375 -3.2991 2.3948
6.7557 -3.0640 2.3948
6.8647 -2.8242 2.3948
6.9643 -2.5803 2.3948
7.0542 -2.3325 2.3948
7.1343 -2.0813 2.3948
7.2045 -1.8271 2.3948
7.2646 -1.5704 2.3948
7.3145 -1.3115 2.3948
7.3543 -1.0508 2.3948
7.3837 -0.7889 2.3948
7.4028 -0.5262 2.3948
7.4115 -0.2630 2.3948
7.4099 0.0001 2.3948
7.3980 0.2628 2.3948
7.3759 0.5246 2.3948
7.3435 0.7851 2.3948
7.3010 1.0438 2.3948
7.2485 1.3004 2.3948
7.1861 1.5544 2.3948
7.1140 1.8054 2.3948
7.0323 2.0531 2.3948
6.9412 2.2970 2.3948
6.8410 2.5369 2.3948
6.7317 2.7723 2.3948
6.6137 3.0029 2.3948
6.4871 3.2283 2.3948
6.3523 3.4483 2.3948
6.2095 3.6625 2.3948
6.0589 3.8706 2.3948
5.9010 4.0724 2.3948
5.7359 4.2676 2.3948
5.5639 4.4560 2.3948
5.3854 4.6373 2.3948
5.2007 4.8113 2.3948
5.0101 4.9779 2.3948
4.8140 5.1367 2.3948
4.6127 5.2878 2.3948
4.4065 5.4308 2.3948
4.1957 5.5658 2.3948
3.9808 5.6925 2.3948
3.7620 5.8109 2.3948
3.5397 5.9208 2.3948
3.3142 6.0223 2.3948
3.0858 6.1152 2.3948
2.8550 6.1994 2.3948
2.6220 6.2751 2.3948
0.9333 2.4796 0.9363
0.8437 2.5107 0.9394
0.7531 2.5386 0.9425
0.6614 2.5631 0.9456
0.5690 2.5844 0.9487
0.4758 2.6023 0.9518
0.3820 2.6168 0.9549
0.2878 2.6279 0.9580
0.1932 2.6357 0.9610
0.0983 2.6400 0.9640
0.0034 2.6408 0.9670
-0.0915 2.6383 0.9699
-0.1862 2.6323 0.9728
-0.2807 2.6229 0.9757
-0.3747 2.6101 0.9785
-0.4683 2.5940 0.9813
-0.5612 2.5744 0.9840
-0.6534 2.5515 0.9867
-0.7446 2.5253 0.9893
-0.8349 2.4959 0.9918
-2.2255 5.9326 2.3948
-2.4313 5.8320 2.3948
-2.6330 5.7248 2.3948
-2.8306 5.6111 2.3948
-3.0236 5.4910 2.3948
-3.2122 5.3649 2.3948
-3.3959 5.2327 2.3948
-3.5746 5.0949 2.3948
-3.7484 4.9513 2.3948
-3.9169 4.8023 2.3948
-4.0800 4.6482 2.3948
-4.2376 4.4888 2.3948
-4.3895 4.3247 2.3948
-4.5356 4.1558 2.3948
-4.6757 3.9828 2.3948
-4.8099 3.8053 2.3948
-4.9381 3.6231 2.3948
-5.0599 3.4375 2.3948
-5.1754 3.2481 2.3948
-5.2845 3.0552 2.3948
-5.3870 2.8589 2.3948
-5.4830 2.6596 2.3948
-5.5722 2.4573 2.3948
-5.6546 2.2523 2.3948
-5.7303 2.0448 2.3948
-5.7990 1.8350 2.3948
-5.8607 1.6231 2.3948
-5.9155 1.4093 2.3948
-5.9631 1.1938 2.3948
-6.0037 0.9768 2.3948
-6.0370 0.7585 2.3948
-6.0632 0.5392 2.3948
-6.0821 0.3191 2.3948
-6.0938 0.0983 2.3948
-6.0982 -0.1229 2.3948
-6.0952 -0.3443 2.3948
-6.0850 -0.5657 2.3948
-6.0674 -0.7869 2.3948
-6.0424 -1.0076 2.3948
-6.0102 -1.2276 2.3948
-5.9706 -1.4468 2.3948
-5.9236 -1.6648 2.3948
-5.8694 -1.8814 2.3948
-5.8079 -2.0965 2.3948
-5.7391 -2.3098 2.3948
-5.6632 -2.5211 2.3948
-5.5800 -2.7301 2.3948
-5.4897 -2.9367 2.3948
-5.3924 -3.1405 2.3948
-5.2880 -3.3414 2.3948
-5.1767 -3.5391 2.3948
-5.0585 -3.7334 2.3948
-4.9335 -3.9241 2.3948
-4.8017 -4.1109 2.3948
-4.6634 -4.2936 2.3948
-4.5186 -4.4719 2.3948
-4.3673 -4.6457 2.3948
-4.2098 -4.8147 2.3948
-4.0461 -4.9787 2.3948
-3.8764 -5.1374 2.3948
-3.7009 -5.2906 2.3948
-3.5196 -5.4382 2.3948
-3.3327 -5.5798 2.3948
-3.1405 -5.7153 2.3948
-2.9431 -5.8443 2.3948
-2.7407 -5.9669 2.3948
-2.5334 -6.0826 2.3948
-2.3216 -6.1914 2.3948
-2.1054 -6.2929 2.3948
-1.8850 -6.3871 2.3948
-1.6607 -6.4737 2.3948
-1.4328 -6.5525 2.3948
-1.2014 -6.6234 2.3948
-0.9669 -6.6862 2.3948
-0.7296 -6.7407 2.3948
-0.4897 -6.7868 2.3948
-0.2475 -6.8243 2.3948
-0.0034 -6.8532 2.3948
0.2424 -6.8732 2.3948
0.4895 -6.8844 2.3948
0.7376 -6.8864 2.3948
0.9864 -6.8794 2.3948
-3.8777 -4.5636 2.3948
-3.7217 -4.7144 2.3948
-3.5603 -4.8601 2.3948
-3.3934 -5.0006 2.3948
-3.2213 -5.1355 2.3948
-3.0442 -5.2648 2.3948
-2.8621 -5.3882 2.3948
-2.6753 -5.5055 2.3948
-2.4839 -5.6165 2.3948
-2.2882 -5.7211 2.3948
-2.0883 -5.8189 2.3948
-1.8845 -5.9100 2.3948
-1.6770 -5.9940 2.3948
-1.4661 -6.0709 2.3948
-1.2519 -6.1404 2.3948
-1.0346 -6.2025 2.3948
-0.8147 -6.2568 2.3948
-0.5923 -6.3034 2.3948
-0.3677 -6.3421 2.3948
-0.1411 -6.3727 2.3948
0.0870 -6.3952 2.3948
0.3165 -6.4094 2.3948
0.5470 -6.4153 2.3948
0.7783 -6.4127 2.3948
1.0099 -6.4016 2.3948
1.2416 -6.3820 2.3948
1.4730 -6.3538 2.3948
1.7039 -6.3169 2.3948
1.9338 -6.2714 2.3948
2.1625 -6.2172 2.3948
2.3895 -6.1543 2.3948
2.6147 -6.0829 2.3948
2.8374 -6.0028 2.3948
3.0576 -5.9143 2.3948
3.2747 -5.8172 2.3948
3.4885 -5.7118 2.3948
3.6985 -5.5982 2.3948
3.9045 -5.4764 2.3948
4.1061 -5.3465 2.3948
4.3030 -5.2088 2.3948
4.4948 -5.0635 2.3948
4.6811 -4.9106 2.3948
4.8618 -4.7504 2.3948
5.0364 -4.5831 2.3948
5.2047 -4.4089 2.3948
5.3663 -4.2282 2.3948
5.5210 -4.0410 2.3948
5.6685 -3.8478 2.3948
5.8085 -3.6488 2.3948
5.9408 -3.4444 2.3948
6.0651 -3.2347 2.3948
6.1813 -3.0202 2.3948
6.2891 -2.8012 2.3948
6.3882 -2.5781 2.3948
6.4787 -2.3511 2.3948
6.5602 -2.1207 2.3948
6.6327 -1.8873 2.3948
6.6960 -1.6511 2.3948
6.7500 -1.4127 2.3948
6.7946 -1.1723 2.3948
6.8298 -0.9305 2.3948
6.8555 -0.6875 2.3948
6.8717 -0.4438 2.3948
6.8784 -0.1997 2.3948
6.8755 0.0442 2.3948
6.8631 0.2877 2.3948
6.8413 0.5303 2.3948
6.8101 0.7717 2.3948
6.7695 1.0114 2.3948
6.7198 1.2491 2.3948
6.6609 1.4845 2.3948
6.5931 1.7170 2.3948
6.5165 1.9465 2.3948
6.4312 2.1725 2.3948
6.3374 2.3947 2.3948
6.2353 2.6128 2.3948
6.1251 2.8264 2.3948
6.0071 3.0353 2.3948
5.8814 3.2391 2.3948
5.7484 3.4377 2.3948
5.6082 3.6306 2.3948
5.4611 3.8176 2.3948
5.3074 3.9986 2.3948
5.1473 4.1733 2.3948
4.9812 4.3414 2.3948
4.8094 4.5028 2.3948
4.6321 4.6573 2.3948
4.4496 4.8047 2.3948
4.2623 4.9449 2.3948
4.0704 5.0777 2.3948
3.8743 5.2030 2.3948
3.6742 5.3206 2.3948
3.4706 5.4306 2.3948
3.2636 5.5327 2.3948
3.0537 5.6269 2.3948
2.8411 5.7132 2.3948
2.6261 5.7915 2.3948
0.9398 2.2868 0.9343
0.8571 2.3182 0.9372
0.7733 2.3467 0.9401
0.6886 2.3721 0.9430
0.6029 2.3944 0.9458
0.5165 2.4136 0.9487
0.4295 2.4297 0.9516
0.3419 2.4427 0.9545
0.2540 2.4524 0.9573
0.1657 2.4590 0.9602
0.0772 2.4624 0.9630
-0.0114 2.4627 0.9657
-0.0998 2.4597 0.9685
-0.1882 2.4535 0.9712
-0.2762 2.4442 0.9739
-0.3639 2.4317 0.9765
-0.4511 2.4160 0.9791
-0.5376 2.3972 0.9816
-0.6234 2.3752 0.9841
-0.7084 2.3502 0.9865
-0.7924 2.3222 0.9888
-0.8753 2.2911 0.9911
-2.3073 5.4414 2.3948
-2.4959 5.3407 2.3948
-2.6805 5.2339 2.3948
-2.8610 5.1211 2.3948
-3.0372 5.0025 2.3948
-3.2089 4.8783 2.3948
-3.3760 4.7487 2.3948
-3.5383 4.6138 2.3948
-3.6957 4.4738 2.3948
-3.8480 4.3288 2.3948
-3.9952 4.1791 2.3948
-4.1370 4.0247 2.3948
-4.2734 3.8659 2.3948
-4.4043 3.7029 2.3948
-4.5294 3.5359 2.3948
-4.6487 3.3650 2.3948
-4.7623 3.1904 2.3948
-4.8698 3.0123 2.3948
-4.9712 2.8309 2.3948
-5.0665 2.6464 2.3948
-5.1555 2.4589 2.3948
-5.2382 2.2688 2.3948
-5.3145 2.0760 2.3948
-5.3844 1.8810 2.3948
-5.4478 1.6838 2.3948
-5.5045 1.4846 2.3948
-5.5547 1.2837 2.3948
-5.5981 1.0812 2.3948
-5.6348 0.8773 2.3948
-5.6648 0.6723 2.3948
-5.6879 0.4664 2.3948
-5.7042 0.2597 2.3948
-5.7137 0.0525 2.3948
-5.7163 -0.1551 2.3948
-5.7119 -0.3628 2.3948
-5.7007 -0.5704 2.3948
-5.6826 -0.7778 2.3948
-5.6575 -0.9846 2.3948
-5.6255 -1.1908 2.3948
-5.5866 -1.3960 2.3948
-5.5409 -1.6001 2.3948
-5.4882 -1.8028 2.3948
-5.4288 -2.0040 2.3948
-5.3625 -2.2034 2.3948
-5.2894 -2.4008 2.3948
-5.2096 -2.5960 2.3948
-5.1231 -2.7887 2.3948
-5.0300 -2.9789 2.3948
-4.9303 -3.1661 2.3948
-4.8241 -3.3503 2.3948
-4.7115 -3.5312 2.3948
-4.5926 -3.7086 2.3948
-4.4674 -3.8822 2.3948
-4.3360 -4.0519 2.3948
-4.1986 -4.2174 2.3948
-4.0553 -4.3785 2.3948
-3.9061 -4.5350 2.3948
-3.7512 -4.6867 2.3948
-3.5908 -4.8334 2.3948
-3.4249 -4.9748 2.3948
-3.2538 -5.1108 2.3948
-3.0775 -5.2412 2.3948
-2.8963 -5.3657 2.3948
-2.7104 -5.4841 2.3948
-2.5199 -5.5963 2.3948
-2.3250 -5.7021 2.3948
-2.1259 -5.8012 2.3948
-1.9228 -5.8936 2.3948
-1.7160 -5.9789 2.3948
-1.5056 -6.0572 2.3948
-1.2920 -6.1280 2.3948
-1.0753 -6.1915 2.3948
-0.8558 -6.2473 2.3948
-0.6339 -6.2953 2.3948
-0.4096 -6.3355 2.3948
-0.1834 -6.3676 2.3948
0.0444 -6.3916 2.3948
0.2737 -6.4074 2.3948
0.5040 -6.4148 2.3948
0.7352 -6.4138 2.3948
0.9667 -6.4043 2.3948
1.1984 -6.3863 2.3948
1.4300 -6.3597 2.3948
1.6609 -6.3244 2.3948
1.8911 -6.2805 2.3948
2.1200 -6.2279 2.3948
2.3474 -6.1667 2.3948
2.5729 -6.0968 2.3948
2.7961 -6.0184 2.3948
3.0168 -5.9314 2.3948
3.2345 -5.8359 2.3948
3.4489 -5.7321 2.3948
3.6597 -5.6200 2.3948
3.8665 -5.4997 2.3948
4.0689 -5.3713 2.3948
4.2667 -5.2351 2.3948
4.4594 -5.0911 2.3948
4.6469 -4.9396 2.3948
4.8286 -4.7807 2.3948
5.0044 -4.6148 2.3948
5.1738 -4.4419 2.3948
5.3367 -4.2623 2.3948
5.4927 -4.0763 2.3948
5.6416 -3.8843 2.3948
5.7830 -3.6863 2.3948
5.9168 -3.4829 2.3948
6.0426 -3.2741 2.3948
6.1603 -3.0605 2.3948
6.2696 -2.8424 2.3948
6.3704 -2.6199 2.3948
6.4625 -2.3937 2.3948
6.5457 -2.1639 2.3948
6.6199 -1.9310 2.3948
6.6849 -1.6953 2.3948
6.7406 -1.4572 2.3948
6.7870 -1.2172 2.3948
6.8240 -0.9756 2.3948
6.8515 -0.7328 2.3948
6.8694 -0.4892 2.3948
6.8778 -0.2452 2.3948
6.8768 -0.0012 2.3948
6.8661 0.2424 2.3948
6.8461 0.4852 2.3948
6.8166 0.7269 2.3948
6.7778 0.9669 2.3948
6.7297 1.2050 2.3948
6.6726 1.4409 2.3948
6.6064 1.6740 2.3948
6.5314 1.9040 2.3948
6.4477 2.1307 2.3948
6.3555 2.3536 2.3948
6.2549 2.5725 2.3948
6.1463 2.7870 2.3948
6.0297 2.9968 2.3948
5.9054 3.2016 2.3948
5.7737 3.4011 2.3948
5.6348 3.5951 2.3948
5.4890 3.7832 2.3948
5.3365 3.9654 2.3948
5.1776 4.1412 2.3948
5.0126 4.3106 2.3948
4.8418 4.4733 2.3948
4.6655 4.6291 2.3948
4.4840 4.7778 2.3948
4.2975 4.9193 2.3948
4.1064 5.0535 2.3948
3.9111 5.1802 2.3948
3.7117 5.2993 2.3948
3.5087 5.4107 2.3948
3.3024 5.5143 2.3948
3.0930 5.6100 2.3948
2.8808 5.6977 2.3948
2.6663 5.7775 2.3948
0.9551 2.2806 0.9337
0.8726 2.3126 0.9366
0.7890 2.3416 0.9395
0.7044 2.3676 0.9424
0.6189 2.3905 0.9453
0.5327 2.4103 0.9482
0.4458 2.4269 0.9511
0.3583 2.4405 0.9540
0.2704 2.4509 0.9568
0.1821 2.4581 0.9596
0.0937 2.4621 0.9624
0.0051 2.4629 0.9652
-0.0834 2.4605 0.9680
-0.1717 2.4549 0.9707
-0.2599 2.4462 0.9734
-0.3476 2.4342 0.9760
-0.4349 2.4191 0.9786
-0.5215 2.4009 0.9811
-0.6075 2.3796 0.9836
-0.6926 2.3551 0.9860
-0.7768 2.3276 0.9884
-0.8599 2.2971 0.9907
-2.2718 5.4595 2.3948
-2.4611 5.3599 2.3948
-2.6464 5.2542 2.3948
-2.8277 5.1425 2.3948
-3.0047 5.0250 2.3948
-3.1772 4.9019 2.3948
-3.3452 4.7733 2.3948
-3.5084 4.6393 2.3948
-3.6668 4.5002 2.3948
-3.8201 4.3561 2.3948
-3.9682 4.2073 2.3948
-4.1110 4.0538 2.3948
-4.2484 3.8958 2.3948
-4.3803 3.7336 2.3948
-4.5065 3.5673 2.3948
-4.6269 3.3972 2.3948
-4.7416 3.2232 2.3948
-4.8502 3.0457 2.3948
-4.9528 2.8649 2.3948
-5.0492 2.6810 2.3948
-5.1394 2.4941 2.3948
-5.2233 2.3044 2.3948
-5.3008 2.1121 2.3948
-5.3719 1.9175 2.3948
-5.4365 1.7206 2.3948
-5.4945 1.5218 2.3948
-5.5458 1.3212 2.3948
-5.5905 1.1190 2.3948
-5.6285 0.9154 2.3948
-5.6597 0.7106 2.3948
-5.6841 0.5048 2.3948
-5.7017 0.2983 2.3948
-5.7124 0.0911 2.3948
-5.7163 -0.1164 2.3948
-5.7133 -0.3241 2.3948
-5.7033 -0.5318 2.3948
-5.6865 -0.7392 2.3948
-5.6627 -0.9461 2.3948
-5.6320 -1.1524 2.3948
-5.5944 -1.3578 2.3948
-5.5499 -1.5621 2.3948
-5.4985 -1.7651 2.3948
-5.4403 -1.9666 2.3948
-5.3753 -2.1664 2.3948
-5.3035 -2.3642 2.3948
-5.2250 -2.5598 2.3948
-5.1397 -2.7530 2.3948
-5.0478 -2.9437 2.3948
-4.9494 -3.1315 2.3948
-4.8444 -3.3163 2.3948
-4.7330 -3.4978 2.3948
-4.6152 -3.6758 2.3948
-4.4912 -3.8501 2.3948
-4.3609 -4.0206 2.3948
-4.2246 -4.1869 2.3948
-4.0824 -4.3488 2.3948
-3.9343 -4.5062 2.3948
-3.7805 -4.6588 2.3948
-3.6211 -4.8065 2.3948
-3.4562 -4.9489 2.3948
-3.2860 -5.0859 2.3948
-3.1107 -5.2173 2.3948
-2.9304 -5.3429 2.3948
-2.7454 -5.4625 2.3948
-2.5557 -5.5759 2.3948
-2.3616 -5.6829 2.3948
-2.1632 -5.7833 2.3948
-1.9609 -5.8769 2.3948
-1.7548 -5.9636 2.3948
-1.5450 -6.0431 2.3948
-1.3320 -6.1154 2.3948
-1.1159 -6.1802 2.3948
-0.8969 -6.2375 2.3948
-0.6754 -6.2870 2.3948
-0.4516 -6.3286 2.3948
-0.2257 -6.3623 2.3948
0.0019 -6.3878 2.3948
0.2309 -6.4051 2.3948
0.4610 -6.4141 2.3948
0.6921 -6.4146 2.3948
0.9236 -6.4067 2.3948
-3.6348 -4.2842 2.3948
-3.4879 -4.4250 2.3948
-3.3358 -4.5610 2.3948
-3.1787 -4.6920 2.3948
-3.0168 -4.8178 2.3948
-2.8501 -4.9382 2.3948
-2.6789 -5.0530 2.3948
-2.5032 -5.1621 2.3948
-2.3234 -5.2653 2.3948
-2.1396 -5.3623 2.3948
-1.9519 -5.4530 2.3948
-1.7607 -5.5373 2.3948
-1.5660 -5.6150 2.3948
-1.3681 -5.6859 2.3948
-1.1673 -5.7499 2.3948
-0.9637 -5.8069 2.3948
-0.7577 -5.8567 2.3948
-0.5494 -5.8992 2.3948
-0.3392 -5.9342 2.3948
-0.1272 -5.9617 2.3948
0.0862 -5.9816 2.3948
0.3007 -5.9937 2.3948
0.5162 -5.9981 2.3948
0.7322 -5.9946 2.3948
0.9485 -5.9831 2.3948
1.1648 -5.9636 2.3948
1.3808 -5.9362 2.3948
1.5962 -5.9007 2.3948
1.8106 -5.8571 2.3948
2.0238 -5.8055 2.3948
2.2354 -5.7458 2.3948
2.4451 -5.6782 2.3948
2.6526 -5.6025 2.3948
2.8576 -5.5190 2.3948
3.0597 -5.4276 2.3948
3.2586 -5.3285 2.3948
3.4540 -5.2217 2.3948
3.6456 -5.1074 2.3948
3.8330 -4.9856 2.3948
4.0160 -4.8566 2.3948
4.1943 -4.7205 2.3948
4.3675 -4.5774 2.3948
4.5353 -4.4276 2.3948
4.6975 -4.2713 2.3948
4.8538 -4.1086 2.3948
5.0039 -3.9398 2.3948
5.1475 -3.7652 2.3948
5.2845 -3.5849 2.3948
5.4145 -3.3994 2.3948
5.5373 -3.2087 2.3948
5.6528 -3.0133 2.3948
5.7606 -2.8134 2.3948
5.8607 -2.6094 2.3948
5.9529 -2.4015 2.3948
6.0369 -2.1902 2.3948
6.1126 -1.9756 2.3948
6.1800 -1.7583 2.3948
6.2389 -1.5384 2.3948
6.2892 -1.3164 2.3948
6.3309 -1.0927 2.3948
6.3637 -0.8675 2.3948
6.3878 -0.6413 2.3948
6.4031 -0.4144 2.3948
6.4096 -0.1872 2.3948
6.4072 0.0399 2.3948
6.3961 0.2667 2.3948
6.3762 0.4926 2.3948
6.3476 0.7175 2.3948
6.3103 0.9408 2.3948
6.2645 1.1624 2.3948
6.2103 1.3817 2.3948
6.1477 1.5985 2.3948
6.0769 1.8125 2.3948
5.9981 2.0233 2.3948
5.9114 2.2306 2.3948
5.8170 2.4342 2.3948
5.7151 2.6337 2.3948
5.6058 2.8288 2.3948
5.4894 3.0193 2.3948
5.3661 3.2049 2.3948
5.2361 3.3853 2.3948
5.0997 3.5604 2.3948
4.9571 3.7298 2.3948
4.8086 3.8934 2.3948
4.6543 4.0510 2.3948
4.4947 4.2024 2.3948
4.3299 4.3474 2.3948
4.1603 4.4858 2.3948
3.9860 4.6176 2.3948
3.8075 4.7425 2.3948
3.6249 4.8604 2.3948
3.4386 4.9713 2.3948
3.2489 5.0750 2.3948
3.0560 5.1714 2.3948
2.8602 5.2605 2.3948
2.6619 5.3423 2.3948
2.4614 5.4165 2.3948
0.8816 2.1401 0.9347
0.8042 2.1695 0.9374
0.7257 2.1961 0.9401
0.6464 2.2199 0.9428
0.5662 2.2407 0.9455
0.4854 2.2587 0.9482
0.4039 2.2738 0.9509
0.3219 2.2859 0.9536
0.2396 2.2950 0.9563
0.1569 2.3012 0.9589
0.0741 2.3044 0.9615
-0.0088 2.3046 0.9641
-0.0916 2.3018 0.9667
-0.1743 2.2960 0.9692
-0.2567 2.2873 0.9717
-0.3388 2.2755 0.9742
-0.4203 2.2609 0.9766
-0.5013 2.2433 0.9790
-0.5816 2.2227 0.9813
-0.6612 2.1993 0.9835
-0.7398 2.1731 0.9858
-0.8174 2.1440 0.9879
-2.1625 5.1094 2.3948
-2.3399 5.0155 2.3948
-2.5136 4.9158 2.3948
-2.6836 4.8104 2.3948
-2.8494 4.6996 2.3948
-3.0112 4.5835 2.3948
-3.1686 4.4621 2.3948
-3.3215 4.3358 2.3948
-3.4698 4.2046 2.3948
-3.6134 4.0687 2.3948
-3.7521 3.9283 2.3948
-3.8858 3.7835 2.3948
-4.0143 3.6345 2.3948
-4.1377 3.4815 2.3948
-4.2557 3.3246 2.3948
-4.3683 3.1641 2.3948
-4.4753 3.0000 2.3948
-4.5766 2.8326 2.3948
-4.6723 2.6621 2.3948
-4.7621 2.4886 2.3948
-4.8461 2.3124 2.3948
-4.9240 2.1335 2.3948
-4.9960 1.9523 2.3948
-5.0618 1.7688 2.3948
-5.1215 1.5832 2.3948
-5.1749 1.3958 2.3948
-5.2221 1.2068 2.3948
-5.2630 1.0162 2.3948
-5.2975 0.8244 2.3948
-5.3255 0.6315 2.3948
-5.3472 0.4378 2.3948
-5.3624 0.2433 2.3948
-5.3711 0.0483 2.3948
-5.3733 -0.1470 2.3948
-5.3690 -0.3424 2.3948
-5.3582 -0.5377 2.3948
-5.3408 -0.7327 2.3948
-5.3169 -0.9272 2.3948
-5.2865 -1.1210 2.3948
-5.2495 -1.3139 2.3948
-5.2060 -1.5057 2.3948
-5.1561 -1.6962 2.3948
-5.0997 -1.8852 2.3948
-5.0369 -2.0725 2.3948
-4.9677 -2.2579 2.3948
-4.8922 -2.4411 2.3948
-4.8104 -2.6220 2.3948
-4.7223 -2.8004 2.3948
-4.6281 -2.9760 2.3948
-4.5277 -3.1486 2.3948
-4.4214 -3.3182 2.3948
-4.3090 -3.4843 2.3948
-4.1909 -3.6469 2.3948
-4.0669 -3.8057 2.3948
-3.9373 -3.9605 2.3948
-3.8021 -4.1112 2.3948
-3.6615 -4.2574 2.3948
-3.5156 -4.3991 2.3948
-3.3645 -4.5361 2.3948
-3.2084 -4.6680 2.3948
-3.0473 -4.7948 2.3948
-2.8815 -4.9162 2.3948
-2.7111 -5.0321 2.3948
-2.5363 -5.1422 2.3948
-2.3572 -5.2465 2.3948
-2.1741 -5.3447 2.3948
-1.9872 -5.4366 2.3948
-1.7966 -5.5221 2.3948
-1.6025 -5.6010 2.3948
-1.4052 -5.6732 2.3948
-1.2049 -5.7385 2.3948
-1.0018 -5.7968 2.3948
-0.7962 -5.8480 2.3948
-0.5884 -5.8918 2.3948
-0.3785 -5.9282 2.3948
-0.1668 -5.9572 2.3948
0.0463 -5.9785 2.3948
0.2607 -5.9921 2.3948
0.4760 -5.9979 2.3948
0.6919 -5.9958 2.3948
0.9082 -5.9858 2.3948
1.1245 -5.9679 2.3948
1.3406 -5.9419 2.3948
1.5561 -5.9079 2.3948
1.7708 -5.8658 2.3948
1.9842 -5.8157 2.3948
2.1961 -5.7576 2.3948
2.4062 -5.6914 2.3948
2.6141 -5.6172 2.3948
2.8196 -5.5352 2.3948
3.0223 -5.4452 2.3948
3.2218 -5.3475 2.3948
3.4179 -5.2422 2.3948
3.6102 -5.1292 2.3948
3.7984 -5.0088 2.3948
3.9823 -4.8812 2.3948
4.1614 -4.7464 2.3948
4.3356 -4.6046 2.3948
4.5044 -4.4560 2.3948
4.6677 -4.3009 2.3948
4.8251 -4.1394 2.3948
4.9764 -3.9717 2.3948
5.1213 -3.7981 2.3948
5.2595 -3.6189 2.3948
5.3908 -3.4343 2.3948
5.5150 -3.2446 2.3948
5.6318 -3.0500 2.3948
5.7411 -2.8510 2.3948
5.8427 -2.6477 2.3948
5.9363 -2.4405 2.3948
6.0219 -2.2298 2.3948
6.0992 -2.0158 2.3948
6.1681 -1.7989 2.3948
6.2286 -1.5795 2.3948
6.2805 -1.3579 2.3948
6.3238 -1.1345 2.3948
6.3583 -0.9095 2.3948
6.3840 -0.6835 2.3948
6.4010 -0.4567 2.3948
6.4091 -0.2295 2.3948
6.4083 -0.0023 2.3948
6.3988 0.2245 2.3948
6.3805 0.4506 2.3948
6.3535 0.6757 2.3948
6.3179 0.8994 2.3948
6.2737 1.1213 2.3948
6.2210 1.3410 2.3948
6.1600 1.5583 2.3948
6.0907 1.7729 2.3948
6.0134 1.9843 2.3948
5.9282 2.1923 2.3948
5.8352 2.3966 2.3948
5.7346 2.5968 2.3948
5.6267 2.7928 2.3948
5.5116 2.9842 2.3948
5.3896 3.1707 2.3948
5.2608 3.3521 2.3948
5.1256 3.5282 2.3948
4.9841 3.6987 2.3948
4.8367 3.8634 2.3948
4.6835 4.0221 2.3948
4.5248 4.1747 2.3948
4.3610 4.3209 2.3948
4.1922 4.4605 2.3948
4.0188 4.5935 2.3948
3.8410 4.7197 2.3948
3.6592 4.8390 2.3948
3.4736 4.9512 2.3948
3.2845 5.0562 2.3948
3.0921 5.1540 2.3948
2.8969 5.2445 2.3948
2.6991 5.3276 2.3948
2.4989 5.4033 2.3948
0.8959 2.1343 0.9342
0.8187 2.1642 0.9369
0.7404 2.1914 0.9396
0.6612 2.2157 0.9423
0.5812 2.2371 0.9450
0.5005 2.2556 0.9477
0.4191 2.2712 0.9504
0.3372 2.2839 0.9531
0.2549 2.2936 0.9558
0.1723 2.3003 0.9584
0.0895 2.3040 0.9611
0.0067 2.3048 0.9637
-0.0762 2.3025 0.9662
-0.1589 2.2973 0.9688
-0.2414 2.2891 0.9713
-0.3235 2.2779 0.9737
-0.4052 2.2638 0.9762
-0.4863 2.2468 0.9785
-0.5667 2.2268 0.9809
-0.6464 2.2039 0.9831
-0.7252 2.1782 0.9854
-0.8030 2.1496 0.9875
-0.8798 2.1183 0.9896
-2.3071 5.0334 2.3948
-2.4816 4.9348 2.3948
-2.6522 4.8305 2.3948
-2.8189 4.7207 2.3948
-2.9814 4.6055 2.3948
-3.1396 4.4851 2.3948
-3.2933 4.3597 2.3948
-3.4425 4.2294 2.3948
-3.5870 4.0944 2.3948
-3.7266 3.9548 2.3948
-3.8612 3.8108 2.3948
-3.9908 3.6625 2.3948
-4.1151 3.5103 2.3948
-4.2341 3.3541 2.3948
-4.3477 3.1942 2.3948
-4.4558 3.0308 2.3948
-4.5582 2.8641 2.3948
-4.6549 2.6941 2.3948
-4.7458 2.5212 2.3948
-4.8309 2.3454 2.3948
-4.9100 2.1670 2.3948
-4.9830 1.9862 2.3948
-5.0500 1.8031 2.3948
-5.1108 1.6179 2.3948
-5.1654 1.4309 2.3948
-5.2138 1.2421 2.3948
-5.2558 1.0518 2.3948
-5.2915 0.8602 2.3948
-5.3208 0.6676 2.3948
-5.3437 0.4739 2.3948
-5.3601 0.2796 2.3948
-5.3700 0.0847 2.3948
-5.3734 -0.1106 2.3948
-5.3703 -0.3060 2.3948
-5.3607 -0.5013 2.3948
-5.3445 -0.6964 2.3948
-5.3218 -0.8910 2.3948
-5.2926 -1.0849 2.3948
-5.2569 -1.2780 2.3948
-5.2146 -1.4701 2.3948
-5.1659 -1.6608 2.3948
-5.1107 -1.8501 2.3948
-5.0491 -2.0377 2.3948
-4.9811 -2.2235 2.3948
-4.9067 -2.4071 2.3948
-4.8261 -2.5885 2.3948
-4.7392 -2.7673 2.3948
-4.6461 -2.9435 2.3948
-4.5469 -3.1167 2.3948
-4.4416 -3.2868 2.3948
-4.3304 -3.4536 2.3948
-4.2133 -3.6169 2.3948
-4.0904 -3.7764 2.3948
-3.9619 -3.9320 2.3948
-3.8277 -4.0834 2.3948
-3.6881 -4.2306 2.3948
-3.5432 -4.3731 2.3948
-3.3930 -4.5109 2.3948
-3.2378 -4.6438 2.3948
-3.0776 -4.7716 2.3948
-2.9127 -4.8940 2.3948
-2.7431 -5.0109 2.3948
-2.5692 -5.1222 2.3948
-2.3909 -5.2275 2.3948
-2.2085 -5.3269 2.3948
-2.0223 -5.4200 2.3948
-1.8323 -5.5067 2.3948
-1.6389 -5.5868 2.3948
-1.4422 -5.6603 2.3948
-1.2424 -5.7269 2.3948
-1.0399 -5.7865 2.3948
-0.8347 -5.8390 2.3948
-0.6272 -5.8842 2.3948
-0.4177 -5.9220 2.3948
-0.2063 -5.9524 2.3948
0.0065 -5.9751 2.3948
0.2207 -5.9901 2.3948
0.4358 -5.9974 2.3948
0.6517 -5.9968 2.3948
0.8679 -5.9883 2.3948
-3.4162 -4.0328 2.3948
-3.2775 -4.1647 2.3948
-3.1340 -4.2921 2.3948
-2.9857 -4.4147 2.3948
-2.8329 -4.5323 2.3948
-2.6758 -4.6449 2.3948
-2.5143 -4.7521 2.3948
-2.3488 -4.8539 2.3948
-2.1794 -4.9501 2.3948
-2.0063 -5.0404 2.3948
-1.8296 -5.1249 2.3948
-1.6496 -5.2032 2.3948
-1.4665 -5.2753 2.3948
-1.2804 -5.3410 2.3948
-1.0916 -5.4002 2.3948
-0.9003 -5.4528 2.3948
-0.7067 -5.4986 2.3948
-0.5111 -5.5375 2.3948
-0.3137 -5.5695 2.3948
-0.1148 -5.5943 2.3948
0.0854 -5.6120 2.3948
0.2866 -5.6225 2.3948
0.4886 -5.6256 2.3948
0.6911 -5.6213 2.3948
0.8938 -5.6097 2.3948
1.0964 -5.5905 2.3948
1.2986 -5.5639 2.3948
1.5002 -5.5297 2.3948
1.7008 -5.4880 2.3948
1.9003 -5.4388 2.3948
2.0981 -5.3821 2.3948
2.2942 -5.3179 2.3948
2.4881 -5.2463 2.3948
2.6796 -5.1674 2.3948
2.8684 -5.0811 2.3948
3.0542 -4.9877 2.3948
3.2366 -4.8871 2.3948
3.4155 -4.7795 2.3948
3.5904 -4.6650 2.3948
3.7612 -4.5438 2.3948
3.9275 -4.4160 2.3948
4.0890 -4.2817 2.3948
4.2455 -4.1412 2.3948
4.3968 -3.9946 2.3948
4.5425 -3.8422 2.3948
4.6824 -3.6841 2.3948
4.8163 -3.5206 2.3948
4.9440 -3.3518 2.3948
5.0651 -3.1782 2.3948
5.1796 -2.9998 2.3948
5.2872 -2.8171 2.3948
5.3878 -2.6301 2.3948
5.4811 -2.4394 2.3948
5.5670 -2.2451 2.3948
5.6454 -2.0475 2.3948
5.7161 -1.8471 2.3948
5.7790 -1.6439 2.3948
5.8340 -1.4385 2.3948
5.8810 -1.2311 2.3948
5.9199 -1.0221 2.3948
5.9508 -0.8117 2.3948
5.9734 -0.6004 2.3948
5.9879 -0.3884 2.3948
5.9942 -0.1761 2.3948
5.9922 0.0362 2.3948
5.9821 0.2481 2.3948
5.9638 0.4593 2.3948
5.9375 0.6694 2.3948
5.9031 0.8782 2.3948
5.8607 1.0854 2.3948
5.8105 1.2905 2.3948
5.7525 1.4933 2.3948
5.6869 1.6936 2.3948
5.6137 1.8909 2.3948
5.5332 2.0850 2.3948
5.4456 2.2756 2.3948
5.3508 2.4625 2.3948
5.2493 2.6453 2.3948
5.1410 2.8239 2.3948
5.0263 2.9979 2.3948
4.9053 3.1672 2.3948
4.7783 3.3315 2.3948
4.6454 3.4906 2.3948
4.5070 3.6443 2.3948
4.3633 3.7925 2.3948
4.2144 3.9348 2.3948
4.0607 4.0713 2.3948
3.9024 4.2016 2.3948
3.7397 4.3257 2.3948
3.5730 4.4435 2.3948
3.4025 4.5548 2.3948
3.2284 4.6595 2.3948
3.0510 4.7575 2.3948
2.8706 4.8488 2.3948
2.6875 4.9332 2.3948
2.5019 5.0107 2.3948
0.9011 1.9786 0.9325
0.8294 2.0088 0.9350
0.7567 2.0364 0.9376
0.6831 2.0613 0.9401
0.6086 2.0836 0.9427
0.5333 2.1032 0.9452
0.4574 2.1201 0.9478
0.3809 2.1342 0.9503
0.3040 2.1456 0.9528
0.2267 2.1541 0.9553
0.1491 2.1599 0.9578
0.0714 2.1629 0.9603
-0.0065 2.1631 0.9627
-0.0842 2.1605 0.9651
-0.1618 2.1550 0.9675
-0.2392 2.1468 0.9698
-0.3162 2.1358 0.9721
-0.3928 2.1220 0.9744
-0.4689 2.1055 0.9766
-0.5443 2.0863 0.9788
-0.6189 2.0643 0.9809
-0.6927 2.0396 0.9830
-0.7656 2.0124 0.9850
-0.8375 1.9825 0.9870
-2.1994 4.7224 2.3948
-2.3633 4.6291 2.3948
-2.5236 4.5304 2.3948
-2.6802 4.4265 2.3948
-2.8328 4.3175 2.3948
-2.9814 4.2036 2.3948
-3.1258 4.0850 2.3948
-3.2659 3.9617 2.3948
-3.4015 3.8339 2.3948
-3.5326 3.7019 2.3948
-3.6589 3.5657 2.3948
-3.7804 3.4255 2.3948
-3.8969 3.2814 2.3948
-4.0084 3.1337 2.3948
-4.1148 2.9825 2.3948
-4.2160 2.8280 2.3948
-4.3118 2.6703 2.3948
-4.4021 2.5096 2.3948
-4.4871 2.3461 2.3948
-4.5664 2.1799 2.3948
-4.6401 2.0113 2.3948
-4.7080 1.8403 2.3948
-4.7702 1.6673 2.3948
-4.8265 1.4923 2.3948
-4.8770 1.3156 2.3948
-4.9215 1.1373 2.3948
-4.9600 0.9575 2.3948
-4.9925 0.7766 2.3948
-5.0189 0.5947 2.3948
-5.0392 0.4119 2.3948
-5.0534 0.2285 2.3948
-5.0615 0.0446 2.3948
-5.0634 -0.1396 2.3948
-5.0591 -0.3239 2.3948
-5.0487 -0.5080 2.3948
-5.0320 -0.6919 2.3948
-5.0092 -0.8753 2.3948
-4.9802 -1.0579 2.3948
-4.9450 -1.2398 2.3948
-4.9037 -1.4205 2.3948
-4.8562 -1.6000 2.3948
-4.8027 -1.7780 2.3948
-4.7431 -1.9544 2.3948
-4.6774 -2.1289 2.3948
-4.6058 -2.3014 2.3948
-4.5282 -2.4716 2.3948
-4.4448 -2.6394 2.3948
-4.3556 -2.8045 2.3948
-4.2606 -2.9669 2.3948
-4.1599 -3.1262 2.3948
-4.0536 -3.2823 2.3948
-3.9418 -3.4350 2.3948
-3.8246 -3.5840 2.3948
-3.7021 -3.7293 2.3948
-3.5744 -3.8706 2.3948
-3.4415 -4.0077 2.3948
-3.3037 -4.1405 2.3948
-3.1611 -4.2687 2.3948
-3.0137 -4.3922 2.3948
-2.8617 -4.5108 2.3948
-2.7053 -4.6243 2.3948
-2.5447 -4.7325 2.3948
-2.3800 -4.8354 2.3948
-2.2113 -4.9326 2.3948
-2.0388 -5.0241 2.3948
-1.8628 -5.1096 2.3948
-1.6834 -5.1891 2.3948
-1.5008 -5.2624 2.3948
-1.3152 -5.3293 2.3948
-1.1269 -5.3897 2.3948
-0.9361 -5.4435 2.3948
-0.7429 -5.4906 2.3948
-0.5477 -5.5308 2.3948
-0.3506 -5.5641 2.3948
-0.1519 -5.5903 2.3948
0.0480 -5.6093 2.3948
0.2491 -5.6211 2.3948
0.4510 -5.6256 2.3948
0.6534 -5.6227 2.3948
0.8560 -5.6124 2.3948
1.0586 -5.5947 2.3948
1.2610 -5.5694 2.3948
1.4627 -5.5366 2.3948
