ply
format ascii 1.0
element vertex 2182
property float32 x
property float32 y
property float32 z
end_header
5.0880 5.1705 2.3779
4.9355 5.3954 2.3779
4.7752 5.6180 2.3779
4.6073 5.8381 2.3779
4.4315 6.0555 2.3779
4.2478 6.2700 2.3779
4.0561 6.4814 2.3779
3.8564 6.6896 2.3779
3.6484 6.8942 2.3779
3.4323 7.0950 2.3779
3.2078 7.2917 2.3779
2.9750 7.4842 2.3779
2.7337 7.6720 2.3779
2.4839 7.8549 2.3779
2.2255 8.0325 2.3779
0.8457 3.5426 1.0267
0.7187 3.5743 1.0154
0.5906 3.6014 1.0039
0.4616 3.6239 0.9923
0.3318 3.6416 0.9807
0.2015 3.6546 0.9690
0.0708 3.6629 0.9573
-0.0601 3.6664 0.9455
-0.1911 3.6651 0.9337
-0.3220 3.6591 0.9220
-0.4525 3.6484 0.9102
-0.5826 3.6329 0.8985
-0.7121 3.6127 0.8868
-0.8407 3.5878 0.8752
-0.9683 3.5583 0.8637
-1.5194 -9.5643 2.3779
-1.1617 -9.4813 2.3779
-0.8119 -9.3879 2.3779
-0.4701 -9.2848 2.3779
-0.1366 -9.1723 2.3779
0.1888 -9.0510 2.3779
0.5057 -8.9213 2.3779
0.8141 -8.7837 2.3779
1.1140 -8.6386 2.3779
1.4054 -8.4865 2.3779
1.6882 -8.3277 2.3779
1.9624 -8.1626 2.3779
2.2282 -7.9917 2.3779
2.4854 -7.8151 2.3779
2.7341 -7.6334 2.3779
2.9744 -7.4467 2.3779
3.2064 -7.2555 2.3779
3.4300 -7.0599 2.3779
3.6455 -6.8602 2.3779
3.8527 -6.6568 2.3779
4.0519 -6.4498 2.3779
4.2431 -6.2395 2.3779
4.4263 -6.0261 2.3779
4.6017 -5.8098 2.3779
4.7694 -5.5908 2.3779
4.9294 -5.3693 2.3779
5.0818 -5.1455 2.3779
5.2267 -4.9195 2.3779
5.3641 -4.6915 2.3779
5.4942 -4.4616 2.3779
5.6170 -4.2300 2.3779
5.7327 -3.9967 2.3779
5.8411 -3.7620 2.3779
5.9425 -3.5260 2.3779
6.0370 -3.2887 2.3779
6.1244 -3.0503 2.3779
6.2050 -2.8108 2.3779
6.2787 -2.5704 2.3779
6.3456 -2.3292 2.3779
6.4058 -2.0872 2.3779
6.4593 -1.8445 2.3779
6.5061 -1.6013 2.3779
6.5463 -1.3575 2.3779
6.5798 -1.1133 2.3779
6.6068 -0.8688 2.3779
6.6272 -0.6239 2.3779
6.6410 -0.3789 2.3779
6.6483 -0.1337 2.3779
6.6490 0.1115 2.3779
6.6432 0.3568 2.3779
6.6308 0.6020 2.3779
6.6118 0.8470 2.3779
6.5863 1.0918 2.3779
6.5542 1.3363 2.3779
6.5154 1.5804 2.3779
6.4700 1.8242 2.3779
6.4179 2.0673 2.3779
6.3591 2.3099 2.3779
6.2935 2.5518 2.3779
6.2211 2.7929 2.3779
6.1418 3.0331 2.3779
6.0556 3.2724 2.3779
5.9624 3.5106 2.3779
5.8622 3.7476 2.3779
5.7549 3.9833 2.3779
5.6405 4.2176 2.3779
5.5187 4.4503 2.3779
5.3897 4.6814 2.3779
5.2533 4.9107 2.3779
5.1094 5.1380 2.3779
4.9579 5.3632 2.3779
4.7988 5.5861 2.3779
4.6319 5.8065 2.3779
4.4573 6.0243 2.3779
4.2748 6.2393 2.3779
4.0842 6.4512 2.3779
3.8856 6.6598 2.3779
3.6789 6.8649 2.3779
3.4639 7.0663 2.3779
3.2407 7.2637 2.3779
3.0090 7.4567 2.3779
2.7690 7.6452 2.3779
2.5204 7.8288 2.3779
2.2633 8.0073 2.3779
1.9976 8.1801 2.3779
0.7370 3.5701 1.0170
0.6091 3.5978 1.0055
0.4802 3.6209 0.9940
0.3505 3.6393 0.9824
0.2203 3.6530 0.9707
0.0896 3.6620 0.9590
-0.0413 3.6662 0.9472
-0.1723 3.6656 0.9354
-0.3031 3.6603 0.9237
-0.4337 3.6502 0.9119
-0.5639 3.6354 0.9002
-0.6935 3.6159 0.8885
-0.8222 3.5917 0.8769
-0.9500 3.5628 0.8654
-1.5715 -9.5753 2.3779
-1.2128 -9.4939 2.3779
-0.8618 -9.4020 2.3779
-0.5189 -9.3002 2.3779
-0.1841 -9.1890 2.3779
0.1424 -9.0690 2.3779
0.4605 -8.9404 2.3779
0.7702 -8.8040 2.3779
1.0713 -8.6599 2.3779
1.3639 -8.5088 2.3779
1.6480 -8.3510 2.3779
1.9234 -8.1868 2.3779
2.1904 -8.0166 2.3779
2.4488 -7.8409 2.3779
2.6988 -7.6599 2.3779
2.9403 -7.4739 2.3779
3.1735 -7.2833 2.3779
3.3983 -7.0883 2.3779
3.6149 -6.8892 2.3779
3.8234 -6.6863 2.3779
4.0237 -6.4798 2.3779
4.2160 -6.2700 2.3779
4.4004 -6.0570 2.3779
4.5770 -5.8411 2.3779
4.7457 -5.6225 2.3779
4.9068 -5.4014 2.3779
5.0603 -5.1779 2.3779
5.2063 -4.9522 2.3779
5.3449 -4.7245 2.3779
5.4759 -4.4948 2.3779
5.5998 -4.2634 2.3779
5.7165 -4.0304 2.3779
5.8260 -3.7959 2.3779
5.9284 -3.5601 2.3779
6.0238 -3.3230 2.3779
6.1122 -3.0847 2.3779
6.1938 -2.8454 2.3779
-3.7795 -8.8626 2.3779
-3.4191 -8.8765 2.3779
-3.0627 -8.8774 2.3779
-2.7108 -8.8658 2.3779
-2.3639 -8.8421 2.3779
-2.0222 -8.8069 2.3779
-1.6862 -8.7606 2.3779
-1.3560 -8.7037 2.3779
-1.0321 -8.6365 2.3779
-0.7146 -8.5596 2.3779
-0.4038 -8.4734 2.3779
-0.0999 -8.3783 2.3779
0.1972 -8.2748 2.3779
0.4871 -8.1632 2.3779
0.7698 -8.0440 2.3779
1.0452 -7.9175 2.3779
1.3132 -7.7840 2.3779
1.5738 -7.6441 2.3779
1.8269 -7.4980 2.3779
2.0725 -7.3460 2.3779
2.3107 -7.1884 2.3779
2.5413 -7.0256 2.3779
2.7645 -6.8579 2.3779
2.9801 -6.6855 2.3779
3.1884 -6.5087 2.3779
3.3892 -6.3278 2.3779
3.5826 -6.1429 2.3779
3.7688 -5.9544 2.3779
3.9476 -5.7625 2.3779
4.1192 -5.5673 2.3779
4.2836 -5.3691 2.3779
4.4408 -5.1681 2.3779
4.5910 -4.9644 2.3779
4.7342 -4.7582 2.3779
4.8704 -4.5498 2.3779
4.9997 -4.3391 2.3779
5.1221 -4.1265 2.3779
5.2378 -3.9119 2.3779
5.3466 -3.6957 2.3779
5.4488 -3.4779 2.3779
5.5443 -3.2585 2.3779
5.6332 -3.0379 2.3779
5.7156 -2.8159 2.3779
5.7915 -2.5929 2.3779
5.8608 -2.3688 2.3779
5.9237 -2.1438 2.3779
5.9802 -1.9179 2.3779
6.0304 -1.6913 2.3779
6.0741 -1.4640 2.3779
6.1116 -1.2363 2.3779
6.1427 -1.0080 2.3779
6.1676 -0.7794 2.3779
6.1861 -0.5504 2.3779
6.1984 -0.3212 2.3779
6.2044 -0.0919 2.3779
6.2042 0.1374 2.3779
6.1977 0.3668 2.3779
6.1849 0.5960 2.3779
6.1658 0.8251 2.3779
6.1405 1.0539 2.3779
6.1088 1.2823 2.3779
6.0708 1.5103 2.3779
6.0265 1.7378 2.3779
5.9758 1.9647 2.3779
5.9187 2.1908 2.3779
5.8551 2.4162 2.3779
5.7851 2.6406 2.3779
5.7085 2.8641 2.3779
5.6255 3.0864 2.3779
5.5357 3.3075 2.3779
5.4394 3.5273 2.3779
5.3364 3.7456 2.3779
5.2266 3.9623 2.3779
5.1100 4.1773 2.3779
4.9865 4.3905 2.3779
4.8562 4.6017 2.3779
4.7188 4.8107 2.3779
4.5745 5.0174 2.3779
4.4230 5.2216 2.3779
4.2645 5.4231 2.3779
4.0987 5.6218 2.3779
3.9256 5.8174 2.3779
3.7453 6.0098 2.3779
3.5576 6.1988 2.3779
3.3625 6.3840 2.3779
3.1599 6.5653 2.3779
2.9499 6.7424 2.3779
2.7324 6.9151 2.3779
2.5073 7.0830 2.3779
2.2746 7.2460 2.3779
2.0344 7.4036 2.3779
0.7657 3.2380 1.0190
0.6496 3.2669 1.0087
0.5325 3.2917 0.9982
0.4146 3.3121 0.9876
0.2960 3.3283 0.9770
0.1769 3.3402 0.9663
0.0574 3.3477 0.9556
-0.0623 3.3509 0.9448
-0.1820 3.3497 0.9341
-0.3016 3.3443 0.9233
-0.4209 3.3344 0.9126
-0.5398 3.3203 0.9019
-0.6581 3.3018 0.8912
-0.7756 3.2791 0.8806
-0.8923 3.2521 0.8701
-2.7880 8.9094 2.3779
-3.1423 8.9188 2.3779
-3.5010 8.9155 2.3779
-3.8636 8.8990 2.3779
-3.8318 -8.8595 2.3779
-3.4708 -8.8753 2.3779
-3.1138 -8.8780 2.3779
-2.7612 -8.8682 2.3779
-2.4135 -8.8463 2.3779
-2.0711 -8.8127 2.3779
-1.7342 -8.7680 2.3779
-1.4032 -8.7125 2.3779
-1.0784 -8.6468 2.3779
-0.7600 -8.5713 2.3779
-0.4482 -8.4864 2.3779
-0.1432 -8.3926 2.3779
0.1548 -8.2902 2.3779
0.4458 -8.1797 2.3779
0.7295 -8.0616 2.3779
1.0060 -7.9361 2.3779
1.2750 -7.8037 2.3779
1.5367 -7.6646 2.3779
1.7909 -7.5194 2.3779
2.0376 -7.3682 2.3779
2.2768 -7.2114 2.3779
2.5085 -7.0494 2.3779
2.7328 -6.8824 2.3779
2.9495 -6.7106 2.3779
3.1588 -6.5344 2.3779
3.3607 -6.3541 2.3779
3.5552 -6.1698 2.3779
3.7424 -5.9818 2.3779
3.9223 -5.7904 2.3779
4.0949 -5.5956 2.3779
4.2603 -5.3979 2.3779
4.4186 -5.1972 2.3779
4.5698 -4.9939 2.3779
4.7140 -4.7881 2.3779
4.8512 -4.5799 2.3779
4.9815 -4.3696 2.3779
5.1049 -4.1572 2.3779
5.2215 -3.9430 2.3779
5.3314 -3.7269 2.3779
5.4345 -3.5093 2.3779
5.5310 -3.2902 2.3779
5.6208 -3.0697 2.3779
5.7042 -2.8480 2.3779
5.7809 -2.6251 2.3779
5.8512 -2.4011 2.3779
5.9151 -2.1762 2.3779
5.9725 -1.9505 2.3779
6.0235 -1.7240 2.3779
6.0682 -1.4968 2.3779
6.1066 -1.2691 2.3779
6.1386 -1.0409 2.3779
6.1644 -0.8123 2.3779
6.1838 -0.5834 2.3779
6.1970 -0.3543 2.3779
6.2039 -0.1250 2.3779
6.2046 0.1044 2.3779
6.1990 0.3338 2.3779
6.1871 0.5630 2.3779
6.1690 0.7921 2.3779
6.1445 1.0210 2.3779
6.1138 1.2495 2.3779
6.0767 1.4775 2.3779
6.0333 1.7051 2.3779
5.9835 1.9320 2.3779
5.9273 2.1583 2.3779
5.8647 2.3838 2.3779
5.7956 2.6083 2.3779
5.7200 2.8319 2.3779
5.6378 3.0544 2.3779
5.5491 3.2757 2.3779
5.4537 3.4957 2.3779
5.3516 3.7142 2.3779
5.2428 3.9312 2.3779
5.1272 4.1465 2.3779
5.0047 4.3599 2.3779
4.8754 4.5714 2.3779
4.7390 4.7807 2.3779
4.5957 4.9877 2.3779
4.4453 5.1923 2.3779
4.2877 5.3942 2.3779
4.1230 5.5934 2.3779
3.9510 5.7895 2.3779
3.7717 5.9823 2.3779
3.5851 6.1718 2.3779
3.3911 6.3575 2.3779
3.1896 6.5394 2.3779
2.9806 6.7172 2.3779
2.7642 6.8905 2.3779
2.5402 7.0591 2.3779
2.3086 7.2228 2.3779
2.0695 7.3812 2.3779
0.7823 3.2335 1.0205
0.6664 3.2630 1.0102
0.5494 3.2884 0.9997
0.4316 3.3094 0.9891
0.3131 3.3262 0.9785
0.1940 3.3387 0.9678
0.0746 3.3469 0.9571
-0.0450 3.3507 0.9464
-0.1647 3.3502 0.9356
-0.2843 3.3453 0.9249
-0.4037 3.3361 0.9141
-0.5227 3.3226 0.9034
-0.6411 3.3047 0.8927
-0.7587 3.2826 0.8821
-0.8755 3.2562 0.8716
-2.7373 8.9070 2.3779
-3.0909 8.9182 2.3779
-3.4490 8.9167 2.3779
-3.8111 8.9022 2.3779
-3.8841 -8.8562 2.3779
-3.5226 -8.8738 2.3779
-3.1650 -8.8784 2.3779
-2.8118 -8.8704 2.3779
-2.4633 -8.8502 2.3779
-2.1201 -8.8182 2.3779
-1.7824 -8.7751 2.3779
-1.4505 -8.7211 2.3779
-1.1248 -8.6569 2.3779
-0.8054 -8.5827 2.3779
-0.4927 -8.4992 2.3779
-0.1867 -8.4066 2.3779
0.1123 -8.3055 2.3779
0.4043 -8.1962 2.3779
0.6891 -8.0791 2.3779
0.9666 -7.9546 2.3779
1.2367 -7.8232 2.3779
1.4995 -7.6851 2.3779
1.7547 -7.5407 2.3779
2.0025 -7.3903 2.3779
2.2428 -7.2343 2.3779
2.4756 -7.0731 2.3779
2.7009 -6.9067 2.3779
2.9188 -6.7356 2.3779
3.1291 -6.5601 2.3779
3.3321 -6.3803 2.3779
3.5276 -6.1966 2.3779
3.7159 -6.0091 2.3779
3.8968 -5.8181 2.3779
4.0704 -5.6239 2.3779
4.2369 -5.4265 2.3779
4.3963 -5.2263 2.3779
4.5485 -5.0234 2.3779
4.6937 -4.8179 2.3779
4.8319 -4.6101 2.3779
4.9631 -4.4000 2.3779
5.0875 -4.1879 2.3779
5.2051 -3.9739 2.3779
5.3160 -3.7582 2.3779
5.4201 -3.5408 2.3779
5.5175 -3.3219 2.3779
5.6083 -3.1016 2.3779
5.6926 -2.8800 2.3779
5.7703 -2.6572 2.3779
-4.7818 -7.8611 2.3779
-4.4499 -7.9334 2.3779
-4.1188 -7.9924 2.3779
-3.7892 -8.0385 2.3779
-3.4616 -8.0720 2.3779
-3.1364 -8.0933 2.3779
-2.8142 -8.1027 2.3779
-2.4954 -8.1006 2.3779
-2.1804 -8.0873 2.3779
-1.8696 -8.0634 2.3779
-1.5633 -8.0290 2.3779
-1.2618 -7.9847 2.3779
-0.9653 -7.9307 2.3779
-0.6742 -7.8676 2.3779
-0.3887 -7.7956 2.3779
-0.1089 -7.7151 2.3779
0.1649 -7.6266 2.3779
0.4327 -7.5303 2.3779
0.6942 -7.4266 2.3779
0.9494 -7.3158 2.3779
1.1982 -7.1983 2.3779
1.4405 -7.0744 2.3779
1.6762 -6.9445 2.3779
1.9053 -6.8087 2.3779
2.1277 -6.6675 2.3779
2.3434 -6.5210 2.3779
2.5524 -6.3696 2.3779
2.7546 -6.2135 2.3779
2.9501 -6.0530 2.3779
3.1390 -5.8883 2.3779
3.3210 -5.7196 2.3779
3.4964 -5.5472 2.3779
3.6651 -5.3713 2.3779
3.8271 -5.1921 2.3779
3.9825 -5.0097 2.3779
4.1313 -4.8244 2.3779
4.2736 -4.6364 2.3779
4.4093 -4.4458 2.3779
4.5385 -4.2527 2.3779
4.6612 -4.0574 2.3779
4.7776 -3.8600 2.3779
4.8875 -3.6606 2.3779
4.9911 -3.4593 2.3779
5.0884 -3.2564 2.3779
5.1794 -3.0519 2.3779
5.2641 -2.8460 2.3779
5.3427 -2.6387 2.3779
5.4150 -2.4303 2.3779
5.4812 -2.2207 2.3779
5.5413 -2.0101 2.3779
5.5953 -1.7986 2.3779
5.6431 -1.5864 2.3779
5.6849 -1.3734 2.3779
5.7207 -1.1598 2.3779
5.7505 -0.9457 2.3779
5.7742 -0.7313 2.3779
5.7919 -0.5164 2.3779
5.8037 -0.3014 2.3779
5.8094 -0.0862 2.3779
5.8092 0.1291 2.3779
5.8029 0.3443 2.3779
5.7906 0.5594 2.3779
5.7724 0.7743 2.3779
5.7481 0.9889 2.3779
5.7178 1.2031 2.3779
5.6814 1.4169 2.3779
5.6390 1.6300 2.3779
5.5906 1.8425 2.3779
5.5360 2.0542 2.3779
5.4752 2.2650 2.3779
5.4084 2.4749 2.3779
5.3353 2.6837 2.3779
5.2560 2.8913 2.3779
5.1705 3.0975 2.3779
5.0787 3.3023 2.3779
4.9806 3.5056 2.3779
4.8761 3.7072 2.3779
4.7652 3.9070 2.3779
4.6479 4.1048 2.3779
4.5241 4.3005 2.3779
4.3939 4.4939 2.3779
4.2570 4.6849 2.3779
4.1136 4.8733 2.3779
3.9636 5.0589 2.3779
3.8069 5.2416 2.3779
3.6435 5.4211 2.3779
3.4734 5.5973 2.3779
3.2966 5.7700 2.3779
3.1130 5.9389 2.3779
2.9227 6.1038 2.3779
2.7255 6.2644 2.3779
2.5216 6.4206 2.3779
2.3109 6.5720 2.3779
2.0934 6.7185 2.3779
0.8033 2.9481 1.0220
0.6975 2.9786 1.0125
0.5907 3.0052 1.0029
0.4830 3.0279 0.9933
0.3745 3.0467 0.9836
0.2655 3.0616 0.9738
0.1559 3.0724 0.9640
0.0460 3.0794 0.9541
-0.0641 3.0823 0.9442
-0.1742 3.0812 0.9343
-0.2842 3.0761 0.9244
-0.3939 3.0671 0.9146
-0.5033 3.0541 0.9047
-0.6121 3.0371 0.8949
-0.7202 3.0162 0.8851
-0.8275 2.9913 0.8755
-0.9339 2.9626 0.8659
-2.8853 8.1361 2.3779
-3.2093 8.1244 2.3779
-3.5362 8.1007 2.3779
-3.8655 8.0646 2.3779
-4.1966 8.0157 2.3779
-4.5290 7.9537 2.3779
-4.8620 7.8784 2.3779
-5.1952 7.7894 2.3779
-5.5277 7.6864 2.3779
-5.8589 7.5693 2.3779
-6.1880 7.4378 2.3779
-6.1521 -7.4146 2.3779
-5.8237 -7.5445 2.3779
-5.4933 -7.6602 2.3779
-5.1617 -7.7618 2.3779
-4.8296 -7.8496 2.3779
-4.4977 -7.9238 2.3779
-4.1664 -7.9847 2.3779
-3.8366 -8.0326 2.3779
-3.5086 -8.0680 2.3779
-3.1831 -8.0910 2.3779
-2.8604 -8.1021 2.3779
-2.5411 -8.1016 2.3779
-2.2256 -8.0899 2.3779
-1.9141 -8.0675 2.3779
-1.6071 -8.0346 2.3779
-1.3049 -7.9916 2.3779
-1.0077 -7.9391 2.3779
-0.7159 -7.8772 2.3779
-0.4295 -7.8065 2.3779
-0.1489 -7.7272 2.3779
0.1258 -7.6398 2.3779
0.3945 -7.5446 2.3779
0.6570 -7.4419 2.3779
0.9131 -7.3322 2.3779
1.1628 -7.2157 2.3779
1.4060 -7.0927 2.3779
1.6427 -6.9636 2.3779
1.8727 -6.8286 2.3779
2.0961 -6.6881 2.3779
2.3127 -6.5424 2.3779
2.5227 -6.3917 2.3779
2.7259 -6.2363 2.3779
2.9224 -6.0764 2.3779
3.1122 -5.9123 2.3779
3.2952 -5.7442 2.3779
3.4715 -5.5723 2.3779
3.6412 -5.3969 2.3779
3.8042 -5.2181 2.3779
3.9605 -5.0362 2.3779
4.1103 -4.8513 2.3779
4.2535 -4.6636 2.3779
4.3901 -4.4734 2.3779
4.5203 -4.2807 2.3779
4.6440 -4.0857 2.3779
4.7612 -3.8885 2.3779
4.8721 -3.6894 2.3779
4.9766 -3.4884 2.3779
5.0747 -3.2858 2.3779
5.1666 -3.0815 2.3779
5.2523 -2.8758 2.3779
5.3317 -2.6687 2.3779
5.4050 -2.4604 2.3779
5.4720 -2.2509 2.3779
5.5330 -2.0405 2.3779
5.5878 -1.8291 2.3779
5.6366 -1.6170 2.3779
5.6793 -1.4041 2.3779
5.7159 -1.1906 2.3779
5.7466 -0.9766 2.3779
5.7712 -0.7622 2.3779
5.7898 -0.5474 2.3779
5.8023 -0.3324 2.3779
5.8089 -0.1172 2.3779
5.8096 0.0981 2.3779
5.8042 0.3133 2.3779
5.7928 0.5284 2.3779
5.7754 0.7434 2.3779
5.7520 0.9580 2.3779
5.7225 1.1723 2.3779
5.6871 1.3861 2.3779
5.6455 1.5993 2.3779
5.5979 1.8119 2.3779
5.5442 2.0238 2.3779
5.4844 2.2347 2.3779
5.4184 2.4447 2.3779
5.3462 2.6537 2.3779
5.2678 2.8614 2.3779
5.1832 3.0679 2.3779
5.0923 3.2729 2.3779
4.9951 3.4764 2.3779
4.8915 3.6783 2.3779
4.7816 3.8783 2.3779
4.6652 4.0764 2.3779
4.5424 4.2724 2.3779
4.4130 4.4662 2.3779
4.2771 4.6575 2.3779
4.1347 4.8463 2.3779
3.9856 5.0324 2.3779
3.8299 5.2155 2.3779
3.6675 5.3955 2.3779
3.4984 5.5722 2.3779
3.3225 5.7454 2.3779
3.1399 5.9148 2.3779
2.9505 6.0803 2.3779
2.7543 6.2415 2.3779
2.5514 6.3984 2.3779
2.3416 6.5505 2.3779
2.1251 6.6977 2.3779
0.8185 2.9434 1.0233
0.7128 2.9744 1.0139
0.6062 3.0016 1.0043
0.4986 3.0249 0.9947
0.3902 3.0442 0.9850
0.2812 3.0597 0.9752
0.1717 3.0711 0.9654
0.0619 3.0786 0.9555
-0.0482 3.0821 0.9456
-0.1583 3.0816 0.9357
-0.2683 3.0771 0.9259
-0.3781 3.0686 0.9160
-0.4875 3.0562 0.9061
-0.5964 3.0398 0.8963
-0.7047 3.0194 0.8865
-0.8121 2.9952 0.8769
-0.9186 2.9670 0.8672
-2.8389 8.1368 2.3779
-3.1625 8.1268 2.3779
-3.4890 8.1048 2.3779
-3.8179 8.0705 2.3779
-4.1488 8.0235 2.3779
-4.4810 7.9635 2.3779
-4.8140 7.8901 2.3779
-5.1472 7.8030 2.3779
-5.4799 7.7021 2.3779
-5.8113 7.5870 2.3779
-6.1408 7.4576 2.3779
-6.1992 -7.3947 2.3779
-5.8712 -7.5267 2.3779
-5.5410 -7.6444 2.3779
-5.2096 -7.7480 2.3779
-4.8775 -7.8378 2.3779
-4.5454 -7.9139 2.3779
-4.2141 -7.9767 2.3779
-3.8840 -8.0265 2.3779
-3.5557 -8.0636 2.3779
-3.2298 -8.0884 2.3779
-2.9067 -8.1012 2.3779
-2.5869 -8.1023 2.3779
-2.2708 -8.0923 2.3779
-1.9587 -8.0713 2.3779
-1.6511 -8.0399 2.3779
-1.3481 -7.9984 2.3779
-1.0502 -7.9472 2.3779
-0.7575 -7.8867 2.3779
-0.4704 -7.8172 2.3779
-0.1889 -7.7392 2.3779
0.0867 -7.6529 2.3779
0.3562 -7.5588 2.3779
0.6195 -7.4572 2.3779
0.8766 -7.3484 2.3779
1.1272 -7.2328 2.3779
1.3714 -7.1108 2.3779
1.6090 -6.9825 2.3779
1.8400 -6.8484 2.3779
2.0643 -6.7087 2.3779
2.2819 -6.5637 2.3779
2.4929 -6.4137 2.3779
2.6971 -6.2589 2.3779
2.8945 -6.0997 2.3779
3.0852 -5.9362 2.3779
3.2692 -5.7686 2.3779
3.4465 -5.5973 2.3779
3.6172 -5.4224 2.3779
3.7811 -5.2441 2.3779
3.9384 -5.0626 2.3779
4.0891 -4.8781 2.3779
4.2332 -4.6909 2.3779
4.3708 -4.5009 2.3779
4.5019 -4.3086 2.3779
4.6265 -4.1139 2.3779
4.7447 -3.9171 2.3779
4.8565 -3.7182 2.3779
4.9619 -3.5175 2.3779
5.0610 -3.3151 2.3779
5.1538 -3.1110 2.3779
5.2403 -2.9055 2.3779
5.3207 -2.6986 2.3779
5.3948 -2.4905 2.3779
-4.3876 -7.1825 2.3779
-4.0880 -7.2553 2.3779
-3.7885 -7.3160 2.3779
-3.4898 -7.3650 2.3779
-3.1923 -7.4025 2.3779
-2.8965 -7.4287 2.3779
-2.6030 -7.4440 2.3779
-2.3119 -7.4487 2.3779
-2.0239 -7.4431 2.3779
-1.7391 -7.4275 2.3779
-1.4580 -7.4022 2.3779
-1.1809 -7.3675 2.3779
-0.9079 -7.3238 2.3779
-0.6394 -7.2715 2.3779
-0.3757 -7.2107 2.3779
-0.1168 -7.1419 2.3779
0.1370 -7.0653 2.3779
0.3855 -6.9814 2.3779
0.6286 -6.8903 2.3779
0.8662 -6.7924 2.3779
1.0981 -6.6880 2.3779
1.3242 -6.5774 2.3779
1.5445 -6.4609 2.3779
1.7590 -6.3387 2.3779
1.9674 -6.2111 2.3779
2.1698 -6.0783 2.3779
2.3661 -5.9407 2.3779
2.5563 -5.7984 2.3779
2.7404 -5.6518 2.3779
2.9184 -5.5009 2.3779
3.0901 -5.3461 2.3779
3.2558 -5.1875 2.3779
3.4153 -5.0254 2.3779
3.5686 -4.8599 2.3779
3.7158 -4.6913 2.3779
3.8569 -4.5197 2.3779
3.9918 -4.3453 2.3779
4.1207 -4.1682 2.3779
4.2434 -3.9886 2.3779
4.3602 -3.8068 2.3779
4.4708 -3.6227 2.3779
4.5755 -3.4367 2.3779
4.6742 -3.2487 2.3779
4.7669 -3.0590 2.3779
4.8537 -2.8676 2.3779
4.9346 -2.6747 2.3779
5.0095 -2.4805 2.3779
5.0786 -2.2850 2.3779
5.1418 -2.0883 2.3779
5.1993 -1.8906 2.3779
5.2508 -1.6919 2.3779
5.2966 -1.4924 2.3779
5.3366 -1.2922 2.3779
5.3708 -1.0914 2.3779
5.3993 -0.8900 2.3779
5.4220 -0.6882 2.3779
5.4389 -0.4860 2.3779
5.4501 -0.2836 2.3779
5.4556 -0.0810 2.3779
5.4553 0.1216 2.3779
5.4493 0.3241 2.3779
5.4376 0.5266 2.3779
5.4200 0.7288 2.3779
5.3968 0.9307 2.3779
5.3678 1.1322 2.3779
5.3330 1.3332 2.3779
5.2924 1.5336 2.3779
5.2460 1.7332 2.3779
5.1938 1.9321 2.3779
5.1357 2.1300 2.3779
5.0718 2.3268 2.3779
5.0020 2.5226 2.3779
4.9263 2.7171 2.3779
4.8447 2.9102 2.3779
4.7571 3.1018 2.3779
4.6636 3.2918 2.3779
4.5640 3.4800 2.3779
4.4584 3.6664 2.3779
4.3468 3.8507 2.3779
4.2291 4.0328 2.3779
4.1053 4.2126 2.3779
3.9754 4.3899 2.3779
3.8394 4.5646 2.3779
3.6971 4.7364 2.3779
3.5488 4.9053 2.3779
3.3942 5.0709 2.3779
3.2334 5.2332 2.3779
3.0664 5.3918 2.3779
2.8933 5.5468 2.3779
2.7139 5.6977 2.3779
2.5283 5.8443 2.3779
2.3366 5.9865 2.3779
2.1387 6.1241 2.3779
0.8334 2.6950 1.0242
0.7366 2.7267 1.0156
0.6388 2.7548 1.0069
0.5400 2.7794 0.9980
0.4404 2.8004 0.9891
0.3400 2.8177 0.9801
0.2391 2.8315 0.9711
0.1378 2.8415 0.9620
0.0362 2.8479 0.9528
-0.0656 2.8506 0.9437
-0.1674 2.8496 0.9346
-0.2692 2.8449 0.9254
-0.3707 2.8365 0.9163
-0.4718 2.8245 0.9072
-0.5724 2.8088 0.8981
-0.6724 2.7894 0.8891
-0.7717 2.7664 0.8801
-0.8700 2.7399 0.8712
-0.9673 2.7098 0.8624
-2.9621 7.4538 2.3779
-3.2592 7.4253 2.3779
-3.5580 7.3854 2.3779
-3.8578 7.3339 2.3779
-4.1583 7.2705 2.3779
-4.4589 7.1950 2.3779
-4.7589 7.1071 2.3779
-5.0578 7.0067 2.3779
-5.3550 6.8936 2.3779
-5.6498 6.7677 2.3779
-5.9415 6.6289 2.3779
-6.2295 6.4771 2.3779
-6.5129 6.3123 2.3779
-6.7910 6.1345 2.3779
-7.0632 5.9438 2.3779
-7.3285 5.7404 2.3779
-7.5863 5.5243 2.3779
-7.8357 5.2958 2.3779
-8.0759 5.0552 2.3779
-8.3062 4.8029 2.3779
-8.5259 4.5391 2.3779
-8.7076 -4.2649 2.3779
-8.4982 -4.5380 2.3779
-8.2776 -4.8001 2.3779
-8.0464 -5.0508 2.3779
-7.8054 -5.2897 2.3779
-7.5555 -5.5164 2.3779
-7.2973 -5.7308 2.3779
-7.0317 -5.9326 2.3779
-6.7594 -6.1217 2.3779
-6.4813 -6.2978 2.3779
-6.1981 -6.4611 2.3779
-5.9104 -6.6114 2.3779
-5.6191 -6.7488 2.3779
-5.3248 -6.8733 2.3779
-5.0282 -6.9851 2.3779
-4.7300 -7.0843 2.3779
-4.4308 -7.1711 2.3779
-4.1311 -7.2455 2.3779
-3.8316 -7.3080 2.3779
-3.5327 -7.3586 2.3779
-3.2351 -7.3977 2.3779
-2.9390 -7.4256 2.3779
-2.6451 -7.4425 2.3779
-2.3537 -7.4487 2.3779
-2.0652 -7.4445 2.3779
-1.7799 -7.4303 2.3779
-1.4983 -7.4064 2.3779
-1.2206 -7.3730 2.3779
-0.9470 -7.3307 2.3779
-0.6778 -7.2795 2.3779
-0.4134 -7.2200 2.3779
-0.1538 -7.1523 2.3779
0.1008 -7.0768 2.3779
0.3500 -6.9939 2.3779
0.5939 -6.9039 2.3779
0.8323 -6.8069 2.3779
1.0650 -6.7035 2.3779
1.2920 -6.5937 2.3779
1.5132 -6.4780 2.3779
1.7284 -6.3566 2.3779
1.9377 -6.2298 2.3779
2.1410 -6.0978 2.3779
2.3382 -5.9608 2.3779
2.5293 -5.8192 2.3779
2.7143 -5.6732 2.3779
2.8931 -5.5229 2.3779
3.0658 -5.3686 2.3779
3.2323 -5.2106 2.3779
3.3927 -5.0490 2.3779
3.5469 -4.8840 2.3779
3.6950 -4.7158 2.3779
3.8369 -4.5446 2.3779
3.9727 -4.3706 2.3779
4.1025 -4.1939 2.3779
4.2261 -4.0147 2.3779
4.3437 -3.8331 2.3779
4.4553 -3.6494 2.3779
4.5608 -3.4636 2.3779
4.6604 -3.2759 2.3779
4.7539 -3.0864 2.3779
4.8416 -2.8953 2.3779
4.9233 -2.7026 2.3779
4.9991 -2.5086 2.3779
5.0690 -2.3132 2.3779
5.1331 -2.1167 2.3779
5.1913 -1.9191 2.3779
5.2438 -1.7206 2.3779
5.2904 -1.5212 2.3779
5.3312 -1.3211 2.3779
5.3663 -1.1203 2.3779
5.3955 -0.9190 2.3779
5.4191 -0.7173 2.3779
5.4369 -0.5152 2.3779
5.4489 -0.3128 2.3779
5.4552 -0.1102 2.3779
5.4557 0.0924 2.3779
5.4505 0.2950 2.3779
5.4396 0.4974 2.3779
5.4229 0.6997 2.3779
5.4005 0.9017 2.3779
5.3723 1.1032 2.3779
5.3383 1.3043 2.3779
5.2986 1.5047 2.3779
5.2530 1.7045 2.3779
5.2017 1.9035 2.3779
5.1444 2.1015 2.3779
5.0814 2.2985 2.3779
5.0124 2.4945 2.3779
4.9376 2.6891 2.3779
4.8568 2.8825 2.3779
4.7701 3.0743 2.3779
4.6774 3.2645 2.3779
4.5787 3.4530 2.3779
4.4740 3.6397 2.3779
4.3633 3.8243 2.3779
4.2464 4.0067 2.3779
4.1235 4.1869 2.3779
3.9945 4.3645 2.3779
3.8593 4.5396 2.3779
3.7180 4.7119 2.3779
3.5705 4.8811 2.3779
3.4168 5.0472 2.3779
3.2569 5.2100 2.3779
3.0909 5.3692 2.3779
2.9186 5.5247 2.3779
2.7401 5.6762 2.3779
2.5554 5.8235 2.3779
2.3646 5.9664 2.3779
2.1676 6.1046 2.3779
1.9645 6.2379 2.3779
0.7506 2.7223 1.0168
0.6529 2.7510 1.0081
0.5543 2.7761 0.9993
0.4547 2.7976 0.9904
0.3545 2.8155 0.9814
0.2537 2.8297 0.9724
0.1524 2.8403 0.9633
0.0508 2.8472 0.9542
-0.0509 2.8504 0.9450
-0.1528 2.8500 0.9359
-0.2545 2.8458 0.9267
-0.3561 2.8380 0.9176
-0.4572 2.8264 0.9085
-0.5580 2.8112 0.8994
-0.6581 2.7924 0.8904
-0.7574 2.7700 0.8814
-0.8559 2.7439 0.8725
-0.9534 2.7144 0.8637
-2.9195 7.4570 2.3779
-3.2163 7.4301 2.3779
-3.5149 7.3919 2.3779
-3.8146 7.3420 2.3779
-4.1150 7.2804 2.3779
-4.4156 7.2066 2.3779
-4.7157 7.1205 2.3779
-5.0149 7.0220 2.3779
-5.3123 6.9107 2.3779
-5.6075 6.7867 2.3779
-5.8997 6.6497 2.3779
-6.1882 6.4998 2.3779
-6.4724 6.3368 2.3779
-6.7513 6.1609 2.3779
-7.0244 5.9721 2.3779
-7.2907 5.7704 2.3779
-7.5496 5.5562 2.3779
-7.8003 5.3295 2.3779
-8.0419 5.0906 2.3779
-8.2737 4.8399 2.3779
-8.4949 4.5778 2.3779
-8.7048 4.3046 2.3779
-8.7368 -4.2247 2.3779
-8.5291 -4.4993 2.3779
-8.3100 -4.7630 2.3779
-8.0803 -5.0154 2.3779
-7.8407 -5.2560 2.3779
-7.5920 -5.4845 2.3779
-7.3350 -5.7007 2.3779
-7.0704 -5.9043 2.3779
-6.7990 -6.0952 2.3779
-6.5217 -6.2732 2.3779
-6.2391 -6.4384 2.3779
-5.9521 -6.5905 2.3779
-5.6613 -6.7298 2.3779
-5.3674 -6.8562 2.3779
-5.0711 -6.9698 2.3779
-4.7731 -7.0708 2.3779
-4.4739 -7.1593 2.3779
-4.1743 -7.2355 2.3779
-3.8747 -7.2997 2.3779
-3.5757 -7.3520 2.3779
-3.2778 -7.3928 2.3779
-2.9816 -7.4223 2.3779
-2.6873 -7.4407 2.3779
-2.3955 -7.4484 2.3779
-2.1065 -7.4458 2.3779
-1.8208 -7.4330 2.3779
-1.5386 -7.4104 2.3779
-1.2602 -7.3785 2.3779
-0.9861 -7.3373 2.3779
-0.7163 -7.2874 2.3779
-0.4512 -7.2291 2.3779
-0.1909 -7.1625 2.3779
0.0644 -7.0882 2.3779
0.3144 -7.0063 2.3779
0.5591 -6.9173 2.3779
0.7983 -6.8213 2.3779
1.0319 -6.7188 2.3779
1.2597 -6.6099 2.3779
1.4817 -6.4951 2.3779
1.6978 -6.3745 2.3779
1.9079 -6.2484 2.3779
2.1121 -6.1171 2.3779
2.3102 -5.9808 2.3779
2.5021 -5.8399 2.3779
2.6880 -5.6945 2.3779
2.8677 -5.5448 2.3779
3.0413 -5.3911 2.3779
3.2087 -5.2336 2.3779
3.3700 -5.0725 2.3779
3.5251 -4.9079 2.3779
3.6740 -4.7402 2.3779
3.8169 -4.5694 2.3779
3.9536 -4.3958 2.3779
4.0842 -4.2195 2.3779
4.2087 -4.0406 2.3779
4.3272 -3.8594 2.3779
4.4396 -3.6760 2.3779
4.5460 -3.4905 2.3779
4.6464 -3.3030 2.3779
4.7408 -3.1138 2.3779
4.8293 -2.9229 2.3779
4.9119 -2.7305 2.3779
4.9885 -2.5366 2.3779
5.0593 -2.3414 2.3779
-4.0515 -6.6039 2.3779
-3.7788 -6.6760 2.3779
-3.5058 -6.7372 2.3779
-3.2331 -6.7876 2.3779
-2.9611 -6.8275 2.3779
-2.6902 -6.8571 2.3779
-2.4209 -6.8766 2.3779
-2.1536 -6.8862 2.3779
-1.8886 -6.8862 2.3779
-1.6262 -6.8770 2.3779
-1.3668 -6.8586 2.3779
-1.1106 -6.8315 2.3779
-0.8580 -6.7959 2.3779
-0.6091 -6.7521 2.3779
-0.3643 -6.7004 2.3779
-0.1237 -6.6410 2.3779
0.1125 -6.5743 2.3779
0.3442 -6.5004 2.3779
0.5710 -6.4198 2.3779
0.7930 -6.3326 2.3779
1.0100 -6.2391 2.3779
1.2218 -6.1396 2.3779
1.4284 -6.0343 2.3779
1.6297 -5.9236 2.3779
1.8256 -5.8075 2.3779
2.0161 -5.6865 2.3779
2.2010 -5.5606 2.3779
2.3804 -5.4302 2.3779
2.5541 -5.2954 2.3779
2.7222 -5.1565 2.3779
2.8847 -5.0137 2.3779
3.0415 -4.8671 2.3779
3.1926 -4.7170 2.3779
3.3380 -4.5636 2.3779
3.4776 -4.4069 2.3779
3.6116 -4.2473 2.3779
3.7398 -4.0849 2.3779
3.8623 -3.9198 2.3779
3.9792 -3.7521 2.3779
4.0903 -3.5822 2.3779
4.1958 -3.4100 2.3779
4.2955 -3.2357 2.3779
4.3897 -3.0595 2.3779
4.4781 -2.8816 2.3779
4.5610 -2.7019 2.3779
4.6382 -2.5207 2.3779
4.7099 -2.3381 2.3779
4.7759 -2.1542 2.3779
4.8364 -1.9691 2.3779
4.8913 -1.7830 2.3779
4.9406 -1.5958 2.3779
4.9844 -1.4078 2.3779
5.0227 -1.2191 2.3779
5.0554 -1.0297 2.3779
5.0827 -0.8397 2.3779
5.1044 -0.6493 2.3779
5.1206 -0.4586 2.3779
5.1313 -0.2676 2.3779
5.1366 -0.0764 2.3779
5.1363 0.1148 2.3779
5.1305 0.3060 2.3779
5.1192 0.4970 2.3779
5.1024 0.6878 2.3779
5.0802 0.8783 2.3779
5.0523 1.0683 2.3779
5.0190 1.2578 2.3779
4.9801 1.4467 2.3779
4.9357 1.6348 2.3779
4.8857 1.8221 2.3779
4.8301 2.0084 2.3779
4.7690 2.1937 2.3779
4.7023 2.3777 2.3779
4.6299 2.5605 2.3779
4.5519 2.7419 2.3779
4.4683 2.9217 2.3779
4.3790 3.0999 2.3779
4.2841 3.2762 2.3779
4.1834 3.4507 2.3779
4.0771 3.6230 2.3779
3.9650 3.7932 2.3779
3.8472 3.9610 2.3779
3.7236 4.1262 2.3779
3.5944 4.2888 2.3779
3.4593 4.4486 2.3779
3.3185 4.6053 2.3779
3.1720 4.7588 2.3779
3.0197 4.9090 2.3779
2.8617 5.0555 2.3779
2.6980 5.1984 2.3779
2.5286 5.3372 2.3779
2.3534 5.4719 2.3779
2.1727 5.6021 2.3779
1.9864 5.7278 2.3779
0.7683 2.5041 1.0181
0.6784 2.5335 1.0101
0.5875 2.5596 1.0019
0.4957 2.5824 0.9937
0.4031 2.6019 0.9854
0.3099 2.6180 0.9771
0.2162 2.6308 0.9687
0.1220 2.6401 0.9602
0.0276 2.6460 0.9518
-0.0670 2.6485 0.9433
-0.1616 2.6476 0.9348
-0.2561 2.6432 0.9263
-0.3504 2.6354 0.9178
-0.4443 2.6242 0.9093
-0.5378 2.6096 0.9009
-0.6307 2.5916 0.8925
-0.7229 2.5703 0.8842
-0.8143 2.5456 0.8759
-0.9048 2.5177 0.8678
-2.7497 6.8776 2.3779
-3.0217 6.8459 2.3779
-3.2947 6.8038 2.3779
-3.5682 6.7510 2.3779
-3.8420 6.6874 2.3779
-4.1153 6.6127 2.3779
-4.3878 6.5268 2.3779
-4.6588 6.4296 2.3779
-4.9279 6.3209 2.3779
-5.1944 6.2007 2.3779
-5.4576 6.0689 2.3779
-5.7171 5.9255 2.3779
-5.9721 5.7705 2.3779
-6.2221 5.6039 2.3779
-6.4662 5.4259 2.3779
-6.7040 5.2365 2.3779
-6.9346 5.0360 2.3779
-7.1575 4.8247 2.3779
-7.3719 4.6026 2.3779
-7.5773 4.3703 2.3779
-7.7728 4.1279 2.3779
-7.9580 3.8760 2.3779
-8.1321 3.6150 2.3779
-8.2947 3.3454 2.3779
-8.4450 3.0677 2.3779
-8.5827 2.7826 2.3779
-8.7072 2.4906 2.3779
-8.8180 2.1924 2.3779
-8.9148 1.8888 2.3779
-8.9971 1.5804 2.3779
-9.0647 1.2680 2.3779
-9.1173 0.9524 2.3779
-9.1548 0.6344 2.3779
-9.1769 0.3149 2.3779
-9.1836 -0.0055 2.3779
-9.1748 -0.3257 2.3779
-9.1507 -0.6451 2.3779
-9.1112 -0.9628 2.3779
-9.0566 -1.2779 2.3779
-8.9870 -1.5897 2.3779
-8.9028 -1.8974 2.3779
-8.8043 -2.2002 2.3779
-8.6917 -2.4975 2.3779
-8.5657 -2.7884 2.3779
-8.4265 -3.0725 2.3779
-8.2747 -3.3490 2.3779
-8.1109 -3.6173 2.3779
-7.9356 -3.8770 2.3779
-7.7493 -4.1276 2.3779
-7.5529 -4.3685 2.3779
-7.3468 -4.5994 2.3779
-7.1317 -4.8200 2.3779
-6.9083 -5.0300 2.3779
-6.6772 -5.2290 2.3779
-6.4392 -5.4169 2.3779
-6.1949 -5.5935 2.3779
-5.9449 -5.7587 2.3779
-5.6900 -5.9124 2.3779
-5.4307 -6.0545 2.3779
-5.1677 -6.1850 2.3779
-4.9016 -6.3040 2.3779
-4.6331 -6.4116 2.3779
-4.3626 -6.5077 2.3779
-4.0907 -6.5926 2.3779
-3.8181 -6.6663 2.3779
-3.5451 -6.7291 2.3779
-3.2723 -6.7810 2.3779
-3.0002 -6.8224 2.3779
-2.7292 -6.8535 2.3779
-2.4596 -6.8744 2.3779
-2.1920 -6.8854 2.3779
-1.9266 -6.8868 2.3779
-1.6638 -6.8788 2.3779
-1.4039 -6.8618 2.3779
-1.1473 -6.8360 2.3779
-0.8941 -6.8016 2.3779
-0.6447 -6.7589 2.3779
-0.3993 -6.7083 2.3779
-0.1580 -6.6500 2.3779
0.0788 -6.5843 2.3779
0.3111 -6.5115 2.3779
0.5386 -6.4318 2.3779
0.7613 -6.3455 2.3779
0.9790 -6.2529 2.3779
1.1916 -6.1543 2.3779
1.3990 -6.0498 2.3779
1.6011 -5.9398 2.3779
1.7977 -5.8245 2.3779
1.9890 -5.7042 2.3779
2.1747 -5.5790 2.3779
2.3549 -5.4493 2.3779
2.5294 -5.3151 2.3779
2.6984 -5.1768 2.3779
2.8617 -5.0345 2.3779
3.0193 -4.8885 2.3779
3.1712 -4.7389 2.3779
3.3174 -4.5859 2.3779
3.4578 -4.4297 2.3779
3.5926 -4.2705 2.3779
3.7217 -4.1084 2.3779
3.8451 -3.9437 2.3779
3.9627 -3.7764 2.3779
4.0747 -3.6068 2.3779
4.1809 -3.4349 2.3779
4.2815 -3.2609 2.3779
4.3765 -3.0850 2.3779
4.4658 -2.9073 2.3779
4.5494 -2.7279 2.3779
4.6275 -2.5469 2.3779
4.6999 -2.3645 2.3779
4.7668 -2.1808 2.3779
4.8280 -1.9959 2.3779
4.8837 -1.8098 2.3779
4.9339 -1.6228 2.3779
4.9785 -1.4350 2.3779
5.0175 -1.2463 2.3779
5.0511 -1.0570 2.3779
5.0791 -0.8671 2.3779
5.1016 -0.6768 2.3779
5.1186 -0.4861 2.3779
5.1301 -0.2951 2.3779
5.1362 -0.1039 2.3779
5.1367 0.0873 2.3779
5.1317 0.2785 2.3779
5.1212 0.4695 2.3779
5.1052 0.6604 2.3779
5.0837 0.8509 2.3779
5.0567 1.0410 2.3779
5.0241 1.2306 2.3779
4.9861 1.4195 2.3779
4.9424 1.6077 2.3779
4.8932 1.7952 2.3779
4.8385 1.9816 2.3779
4.7782 2.1670 2.3779
4.7122 2.3513 2.3779
4.6407 2.5343 2.3779
4.5635 2.7158 2.3779
4.4807 2.8959 2.3779
4.3922 3.0743 2.3779
4.2981 3.2510 2.3779
4.1983 3.4257 2.3779
4.0927 3.5983 2.3779
3.9815 3.7688 2.3779
3.8645 3.9370 2.3779
3.7418 4.1026 2.3779
3.6133 4.2656 2.3779
3.4791 4.4257 2.3779
3.3392 4.5829 2.3779
3.1935 4.7369 2.3779
3.0420 4.8875 2.3779
2.8848 5.0347 2.3779
2.7219 5.1780 2.3779
2.5533 5.3175 2.3779
2.3790 5.4527 2.3779
2.1991 5.5836 2.3779
2.0135 5.7100 2.3779
0.7812 2.4996 1.0192
0.6914 2.5295 1.0112
0.6006 2.5561 1.0031
0.5090 2.5794 0.9949
0.4165 2.5993 0.9866
0.3234 2.6159 0.9783
0.2297 2.6292 0.9699
0.1356 2.6390 0.9614
0.0412 2.6454 0.9530
-0.0533 2.6484 0.9445
-0.1479 2.6479 0.9360
-0.2425 2.6440 0.9275
-0.3368 2.6367 0.9190
-0.4308 2.6260 0.9105
-0.5244 2.6119 0.9021
-0.6174 2.5944 0.8937
-0.7097 2.5736 0.8854
-0.8012 2.5494 0.8771
-0.8918 2.5219 0.8689
-0.9813 2.4912 0.8608
-2.9824 6.8511 2.3779
-3.2553 6.8105 2.3779
-3.5288 6.7593 2.3779
-3.8026 6.6972 2.3779
-4.0760 6.6242 2.3779
-4.3486 6.5399 2.3779
-4.6199 6.4443 2.3779
-4.8893 6.3373 2.3779
-5.1562 6.2188 2.3779
-5.4199 6.0886 2.3779
-5.6800 5.9469 2.3779
-5.9357 5.7935 2.3779
-6.1864 5.6286 2.3779
-6.4315 5.4522 2.3779
-6.6702 5.2645 2.3779
-6.9019 5.0656 2.3779
-7.1259 4.8558 2.3779
-7.3416 4.6352 2.3779
-7.5482 4.4044 2.3779
-7.7453 4.1634 2.3779
-7.9319 3.9129 2.3779
-8.1077 3.6531 2.3779
-8.2720 3.3848 2.3779
-8.4241 3.1082 2.3779
-8.5637 2.8241 2.3779
-8.6901 2.5331 2.3779
-8.8029 2.2357 2.3779
-8.9017 1.9328 2.3779
-8.9861 1.6251 2.3779
-9.0559 1.3132 2.3779
-9.1107 0.9981 2.3779
-9.1503 0.6804 2.3779
-9.1746 0.3610 2.3779
-9.1835 0.0407 2.3779
-9.1770 -0.2797 2.3779
-9.1551 -0.5992 2.3779
-9.1178 -0.9172 2.3779
-9.0654 -1.2327 2.3779
-8.9980 -1.5450 2.3779
-8.9159 -1.8534 2.3779
-8.8193 -2.1569 2.3779
-8.7088 -2.4550 2.3779
-8.5846 -2.7470 2.3779
-8.4473 -3.0320 2.3779
-8.2973 -3.3096 2.3779
-8.1352 -3.5792 2.3779
-7.9615 -3.8402 2.3779
-7.7768 -4.0921 2.3779
-7.5818 -4.3344 2.3779
-7.3770 -4.5668 2.3779
-7.1632 -4.7889 2.3779
-6.9410 -5.0004 2.3779
-6.7110 -5.2010 2.3779
-6.4739 -5.3905 2.3779
-6.2305 -5.5688 2.3779
-5.9813 -5.7356 2.3779
-5.7270 -5.8909 2.3779
-5.4683 -6.0347 2.3779
-5.2058 -6.1669 2.3779
-4.9401 -6.2876 2.3779
-4.6719 -6.3968 2.3779
-4.4017 -6.4945 2.3779
-4.1300 -6.5810 2.3779
-3.8574 -6.6564 2.3779
-3.5844 -6.7207 2.3779
-3.3116 -6.7742 2.3779
-3.0393 -6.8171 2.3779
-2.7681 -6.8496 2.3779
-2.4983 -6.8720 2.3779
-2.2304 -6.8844 2.3779
-1.9647 -6.8872 2.3779
-1.7015 -6.8806 2.3779
-1.4412 -6.8648 2.3779
-1.1840 -6.8402 2.3779
-0.9304 -6.8070 2.3779
-0.6804 -6.7656 2.3779
-0.4344 -6.7161 2.3779
-0.1926 -6.6589 2.3779
0.0450 -6.5942 2.3779
0.2779 -6.5224 2.3779
0.5062 -6.4437 2.3779
0.7296 -6.3583 2.3779
0.9480 -6.2666 2.3779
1.1613 -6.1688 2.3779
1.3694 -6.0652 2.3779
1.5723 -5.9560 2.3779
1.7697 -5.8415 2.3779
1.9618 -5.7219 2.3779
2.1483 -5.5973 2.3779
2.3293 -5.4682 2.3779
2.5047 -5.3347 2.3779
2.6744 -5.1970 2.3779
2.8385 -5.0552 2.3779
2.9969 -4.9097 2.3779
3.1496 -4.7606 2.3779
3.2967 -4.6081 2.3779
3.4380 -4.4524 2.3779
3.5736 -4.2936 2.3779
3.7035 -4.1320 2.3779
3.8276 -3.9676 2.3779
3.9461 -3.8007 2.3779
4.0589 -3.6314 2.3779
4.1660 -3.4598 2.3779
4.2674 -3.2861 2.3779
4.3631 -3.1105 2.3779
4.4532 -2.9330 2.3779
4.5377 -2.7539 2.3779
4.6166 -2.5731 2.3779
4.6898 -2.3909 2.3779
4.7574 -2.2073 2.3779
-3.7612 -6.1041 2.3779
-3.5114 -6.1750 2.3779
-3.2609 -6.2358 2.3779
-3.0104 -6.2868 2.3779
-2.7602 -6.3281 2.3779
-2.5107 -6.3598 2.3779
-2.2623 -6.3821 2.3779
-2.0154 -6.3954 2.3779
-1.7703 -6.3997 2.3779
-1.5273 -6.3952 2.3779
-1.2868 -6.3823 2.3779
-1.0489 -6.3612 2.3779
-0.8141 -6.3321 2.3779
-0.5824 -6.2952 2.3779
-0.3542 -6.2508 2.3779
-0.1297 -6.1992 2.3779
0.0910 -6.1405 2.3779
0.3076 -6.0751 2.3779
0.5200 -6.0031 2.3779
0.7281 -5.9249 2.3779
0.9318 -5.8406 2.3779
1.1308 -5.7505 2.3779
1.3251 -5.6549 2.3779
1.5146 -5.5539 2.3779
1.6993 -5.4478 2.3779
1.8789 -5.3368 2.3779
2.0535 -5.2211 2.3779
2.2231 -5.1010 2.3779
2.3874 -4.9766 2.3779
2.5466 -4.8481 2.3779
2.7006 -4.7157 2.3779
2.8492 -4.5797 2.3779
2.9926 -4.4401 2.3779
3.1307 -4.2973 2.3779
3.2634 -4.1512 2.3779
3.3908 -4.0022 2.3779
3.5129 -3.8504 2.3779
3.6296 -3.6959 2.3779
3.7409 -3.5389 2.3779
3.8469 -3.3795 2.3779
3.9475 -3.2179 2.3779
4.0427 -3.0542 2.3779
4.1326 -2.8886 2.3779
4.2171 -2.7212 2.3779
4.2963 -2.5521 2.3779
4.3701 -2.3814 2.3779
4.4386 -2.2093 2.3779
4.5018 -2.0358 2.3779
4.5597 -1.8612 2.3779
4.6122 -1.6854 2.3779
4.6595 -1.5087 2.3779
4.7014 -1.3311 2.3779
4.7381 -1.1528 2.3779
4.7694 -0.9737 2.3779
4.7955 -0.7941 2.3779
4.8164 -0.6141 2.3779
4.8319 -0.4337 2.3779
4.8422 -0.2530 2.3779
4.8471 -0.0722 2.3779
4.8469 0.1087 2.3779
4.8413 0.2895 2.3779
4.8305 0.4702 2.3779
4.8144 0.6506 2.3779
4.7930 0.8307 2.3779
4.7663 1.0104 2.3779
4.7343 1.1895 2.3779
4.6971 1.3679 2.3779
4.6545 1.5456 2.3779
4.6066 1.7224 2.3779
4.5534 1.8983 2.3779
4.4949 2.0731 2.3779
4.4310 2.2466 2.3779
4.3618 2.4189 2.3779
4.2872 2.5897 2.3779
4.2073 2.7589 2.3779
4.1219 2.9265 2.3779
4.0313 3.0922 2.3779
3.9352 3.2560 2.3779
3.8337 3.4177 2.3779
3.7269 3.5772 2.3779
3.6146 3.7343 2.3779
3.4970 3.8889 2.3779
3.3740 4.0408 2.3779
3.2456 4.1898 2.3779
3.1118 4.3359 2.3779
2.9726 4.4787 2.3779
2.8281 4.6182 2.3779
2.6783 4.7542 2.3779
2.5232 4.8865 2.3779
2.3628 5.0148 2.3779
2.1972 5.1391 2.3779
2.0264 5.2590 2.3779
0.7938 2.3055 1.0201
0.7110 2.3359 1.0127
0.6271 2.3633 1.0052
0.5423 2.3877 0.9976
0.4567 2.4090 0.9899
0.3704 2.4271 0.9822
0.2834 2.4422 0.9744
0.1960 2.4540 0.9666
0.1082 2.4627 0.9587
0.0201 2.4682 0.9508
-0.0681 2.4705 0.9429
-0.1564 2.4696 0.9349
-0.2446 2.4656 0.9270
-0.3325 2.4583 0.9191
-0.4202 2.4478 0.9112
-0.5074 2.4342 0.9033
-0.5940 2.4175 0.8955
-0.6800 2.3976 0.8878
-0.7653 2.3746 0.8801
-0.8496 2.3485 0.8724
-0.9330 2.3194 0.8649
-2.8154 6.3430 2.3779
-3.0664 6.2997 2.3779
-3.3176 6.2465 2.3779
-3.5686 6.1834 2.3779
-3.8189 6.1102 2.3779
-4.0680 6.0268 2.3779
-4.3155 5.9330 2.3779
-4.5609 5.8289 2.3779
-4.8036 5.7142 2.3779
-5.0431 5.5891 2.3779
-5.2788 5.4535 2.3779
-5.5101 5.3075 2.3779
-5.7366 5.1511 2.3779
-5.9576 4.9845 2.3779
-6.1725 4.8077 2.3779
-6.3807 4.6210 2.3779
-6.5817 4.4246 2.3779
-6.7749 4.2188 2.3779
-6.9597 4.0038 2.3779
-7.1355 3.7800 2.3779
-7.3019 3.5477 2.3779
-7.4582 3.3074 2.3779
-7.6040 3.0595 2.3779
-7.7387 2.8046 2.3779
-7.8620 2.5430 2.3779
-7.9734 2.2755 2.3779
-8.0726 2.0026 2.3779
-8.1591 1.7248 2.3779
-8.2327 1.4429 2.3779
-8.2931 1.1576 2.3779
-8.3401 0.8694 2.3779
-8.3736 0.5791 2.3779
-8.3933 0.2874 2.3779
-8.3993 -0.0049 2.3779
-8.3916 -0.2972 2.3779
-8.3701 -0.5887 2.3779
-8.3349 -0.8787 2.3779
-8.2861 -1.1664 2.3779
-8.2241 -1.4513 2.3779
-8.1489 -1.7326 2.3779
-8.0608 -2.0097 2.3779
-7.9602 -2.2818 2.3779
-7.8474 -2.5485 2.3779
-7.7228 -2.8091 2.3779
-7.5868 -3.0630 2.3779
-7.4399 -3.3099 2.3779
-7.2826 -3.5490 2.3779
-7.1153 -3.7801 2.3779
-6.9387 -4.0028 2.3779
-6.7532 -4.2165 2.3779
-6.5594 -4.4211 2.3779
-6.3579 -4.6163 2.3779
-6.1493 -4.8017 2.3779
-5.9341 -4.9772 2.3779
-5.7129 -5.1426 2.3779
-5.4864 -5.2978 2.3779
-5.2551 -5.4426 2.3779
-5.0195 -5.5770 2.3779
-4.7802 -5.7010 2.3779
-4.5378 -5.8146 2.3779
-4.2928 -5.9177 2.3779
-4.0458 -6.0105 2.3779
-3.7971 -6.0930 2.3779
-3.5474 -6.1654 2.3779
-3.2970 -6.2277 2.3779
-3.0465 -6.2801 2.3779
-2.7962 -6.3227 2.3779
-2.5466 -6.3558 2.3779
-2.2981 -6.3795 2.3779
-2.0509 -6.3940 2.3779
-1.8055 -6.3996 2.3779
-1.5622 -6.3964 2.3779
-1.3213 -6.3847 2.3779
-1.0830 -6.3648 2.3779
-0.8477 -6.3368 2.3779
-0.6156 -6.3010 2.3779
-0.3869 -6.2577 2.3779
-0.1618 -6.2070 2.3779
0.0594 -6.1494 2.3779
0.2766 -6.0849 2.3779
0.4897 -6.0139 2.3779
0.6984 -5.9365 2.3779
0.9027 -5.8531 2.3779
1.1024 -5.7639 2.3779
1.2974 -5.6690 2.3779
1.4877 -5.5688 2.3779
1.6730 -5.4634 2.3779
1.8534 -5.3531 2.3779
2.0287 -5.2381 2.3779
2.1990 -5.1186 2.3779
2.3641 -4.9947 2.3779
2.5240 -4.8668 2.3779
2.6787 -4.7350 2.3779
2.8281 -4.5995 2.3779
2.9723 -4.4604 2.3779
3.1111 -4.3180 2.3779
3.2446 -4.1725 2.3779
3.3728 -4.0239 2.3779
3.4956 -3.8724 2.3779
3.6131 -3.7183 2.3779
3.7252 -3.5616 2.3779
3.8319 -3.4026 2.3779
3.9333 -3.2413 2.3779
4.0293 -3.0780 2.3779
4.1199 -2.9126 2.3779
4.2053 -2.7454 2.3779
4.2852 -2.5765 2.3779
4.3598 -2.4061 2.3779
4.4291 -2.2342 2.3779
4.4930 -2.0609 2.3779
4.5517 -1.8864 2.3779
4.6050 -1.7108 2.3779
4.6530 -1.5342 2.3779
4.6957 -1.3568 2.3779
4.7331 -1.1785 2.3779
4.7653 -0.9996 2.3779
4.7921 -0.8200 2.3779
4.8137 -0.6400 2.3779
4.8300 -0.4597 2.3779
4.8410 -0.2791 2.3779
4.8467 -0.0983 2.3779
4.8472 0.0826 2.3779
4.8424 0.2635 2.3779
4.8324 0.4442 2.3779
4.8170 0.6247 2.3779
4.7964 0.8048 2.3779
4.7705 0.9845 2.3779
4.7393 1.1637 2.3779
4.7027 1.3423 2.3779
4.6609 1.5201 2.3779
4.6138 1.6970 2.3779
4.5614 1.8730 2.3779
4.5036 2.0480 2.3779
4.4405 2.2217 2.3779
4.3721 2.3941 2.3779
4.2983 2.5652 2.3779
4.2191 2.7346 2.3779
4.1346 2.9024 2.3779
4.0447 3.0685 2.3779
3.9494 3.2325 2.3779
3.8487 3.3946 2.3779
3.7426 3.5544 2.3779
3.6311 3.7118 2.3779
3.5143 3.8668 2.3779
3.3920 4.0190 2.3779
3.2644 4.1685 2.3779
3.1314 4.3150 2.3779
2.9930 4.4583 2.3779
2.8493 4.5983 2.3779
2.7002 4.7348 2.3779
2.5459 4.8676 2.3779
2.3862 4.9966 2.3779
2.2214 5.1214 2.3779
2.0513 5.2420 2.3779
0.8057 2.3009 1.0211
0.7230 2.3317 1.0137
0.6393 2.3596 1.0063
0.5546 2.3844 0.9987
0.4691 2.4061 0.9910
0.3828 2.4247 0.9833
0.2960 2.4402 0.9755
0.2086 2.4525 0.9677
0.1208 2.4617 0.9598
0.0328 2.4676 0.9519
-0.0554 2.4704 0.9440
-0.1437 2.4700 0.9361
-0.2319 2.4664 0.9281
-0.3199 2.4595 0.9202
-0.4076 2.4495 0.9123
-0.4948 2.4364 0.9045
-0.5816 2.4201 0.8966
-0.6677 2.4006 0.8889
-0.7530 2.3781 0.8812
-0.8375 2.3524 0.8735
-0.9210 2.3238 0.8660
-2.7793 6.3484 2.3779
-3.0302 6.3065 2.3779
-3.2814 6.2548 2.3779
-3.5325 6.1932 2.3779
-3.7829 6.1214 2.3779
-4.0322 6.0395 2.3779
-4.2800 5.9472 2.3779
-4.5257 5.8445 2.3779
-4.7688 5.7314 2.3779
-5.0088 5.6078 2.3779
-5.2451 5.4737 2.3779
-5.4771 5.3292 2.3779
-5.7043 5.1743 2.3779
-5.9261 5.0091 2.3779
-6.1419 4.8338 2.3779
-6.3512 4.6485 2.3779
-6.5532 4.4535 2.3779
-6.7476 4.2490 2.3779
-6.9336 4.0353 2.3779
-7.1108 3.8128 2.3779
-7.2785 3.5817 2.3779
-7.4363 3.3425 2.3779
-7.5836 3.0957 2.3779
-7.7200 2.8417 2.3779
-7.8450 2.5811 2.3779
-7.9581 2.3144 2.3779
-8.0590 2.0422 2.3779
-8.1474 1.7651 2.3779
-8.2229 1.4838 2.3779
-8.2852 1.1989 2.3779
-8.3342 0.9111 2.3779
-8.3696 0.6210 2.3779
-8.3913 0.3295 2.3779
-8.3993 0.0372 2.3779
-8.3935 -0.2551 2.3779
-8.3740 -0.5467 2.3779
-8.3408 -0.8370 2.3779
-8.2940 -1.1251 2.3779
-8.2338 -1.4105 2.3779
-8.1605 -1.6924 2.3779
-8.0743 -1.9701 2.3779
-7.9755 -2.2430 2.3779
-7.8644 -2.5105 2.3779
-7.7415 -2.7719 2.3779
-7.6071 -3.0269 2.3779
-7.4617 -3.2748 2.3779
-7.3059 -3.5151 2.3779
-7.1400 -3.7474 2.3779
-6.9647 -3.9712 2.3779
-6.7804 -4.1863 2.3779
-6.5878 -4.3922 2.3779
-6.3874 -4.5888 2.3779
-6.1798 -4.7756 2.3779
-5.9655 -4.9525 2.3779
-5.7452 -5.1194 2.3779
-5.5194 -5.2760 2.3779
-5.2887 -5.4224 2.3779
-5.0536 -5.5583 2.3779
-4.8149 -5.6838 2.3779
-4.5729 -5.7989 2.3779
-4.3283 -5.9035 2.3779
-4.0815 -5.9978 2.3779
-3.8330 -6.0818 2.3779
-3.5834 -6.1556 2.3779
-3.3331 -6.2193 2.3779
-3.0826 -6.2731 2.3779
-2.8322 -6.3172 2.3779
-2.5825 -6.3516 2.3779
-2.3338 -6.3766 2.3779
-2.0864 -6.3925 2.3779
-1.8407 -6.3993 2.3779
-1.5971 -6.3974 2.3779
-1.3558 -6.3869 2.3779
-1.1171 -6.3681 2.3779
-0.8814 -6.3413 2.3779
-0.6488 -6.3066 2.3779
-0.4196 -6.2644 2.3779
-0.1940 -6.2148 2.3779
0.0278 -6.1581 2.3779
0.2456 -6.0946 2.3779
0.4593 -6.0245 2.3779
0.6686 -5.9481 2.3779
0.8736 -5.8655 2.3779
1.0739 -5.7771 2.3779
1.2696 -5.6830 2.3779
1.4605 -5.5835 2.3779
1.6466 -5.4789 2.3779
1.8277 -5.3693 2.3779
2.0038 -5.2549 2.3779
2.1748 -5.1360 2.3779
2.3406 -5.0128 2.3779
2.5013 -4.8855 2.3779
2.6567 -4.7542 2.3779
2.8069 -4.6192 2.3779
2.9519 -4.4807 2.3779
3.0915 -4.3388 2.3779
3.2257 -4.1936 2.3779
3.3547 -4.0454 2.3779
3.4783 -3.8944 2.3779
3.5965 -3.7407 2.3779
3.7094 -3.5844 2.3779
3.8169 -3.4257 2.3779
3.9190 -3.2647 2.3779
4.0158 -3.1016 2.3779
4.1072 -2.9365 2.3779
4.1933 -2.7696 2.3779
4.2740 -2.6010 2.3779
4.3494 -2.4307 2.3779
4.4194 -2.2590 2.3779
4.4841 -2.0859 2.3779
-3.5077 -5.6677 2.3779
-3.2776 -5.7369 2.3779
-3.0466 -5.7969 2.3779
-2.8152 -5.8478 2.3779
-2.5839 -5.8897 2.3779
-2.3530 -5.9227 2.3779
-2.1228 -5.9471 2.3779
-1.8937 -5.9629 2.3779
-1.6660 -5.9704 2.3779
-1.4400 -5.9698 2.3779
-1.2160 -5.9612 2.3779
-0.9943 -5.9448 2.3779
-0.7752 -5.9209 2.3779
-0.5587 -5.8897 2.3779
-0.3453 -5.8514 2.3779
-0.1351 -5.8061 2.3779
0.0717 -5.7542 2.3779
0.2750 -5.6959 2.3779
0.4745 -5.6313 2.3779
0.6702 -5.5607 2.3779
0.8618 -5.4842 2.3779
1.0493 -5.4022 2.3779
1.2326 -5.3149 2.3779
1.4114 -5.2223 2.3779
1.5858 -5.1248 2.3779
1.7557 -5.0226 2.3779
1.9209 -4.9158 2.3779
2.0815 -4.8046 2.3779
2.2373 -4.6893 2.3779
2.3882 -4.5699 2.3779
2.5344 -4.4468 2.3779
2.6756 -4.3201 2.3779
2.8119 -4.1899 2.3779
2.9433 -4.0564 2.3779
3.0696 -3.9198 2.3779
3.1909 -3.7803 2.3779
3.3073 -3.6379 2.3779
3.4185 -3.4929 2.3779
3.5247 -3.3454 2.3779
3.6259 -3.1956 2.3779
3.7220 -3.0435 2.3779
3.8130 -2.8894 2.3779
3.8989 -2.7333 2.3779
3.9797 -2.5754 2.3779
4.0555 -2.4158 2.3779
4.1261 -2.2546 2.3779
4.1917 -2.0920 2.3779
4.2522 -1.9280 2.3779
4.3076 -1.7629 2.3779
4.3580 -1.5966 2.3779
4.4033 -1.4293 2.3779
4.4435 -1.2612 2.3779
4.4786 -1.0923 2.3779
4.5087 -0.9227 2.3779
4.5337 -0.7526 2.3779
4.5536 -0.5819 2.3779
4.5685 -0.4110 2.3779
4.5784 -0.2398 2.3779
4.5831 -0.0684 2.3779
4.5829 0.1031 2.3779
4.5775 0.2745 2.3779
4.5671 0.4457 2.3779
4.5516 0.6167 2.3779
4.5311 0.7874 2.3779
4.5055 0.9575 2.3779
4.4748 1.1272 2.3779
4.4391 1.2962 2.3779
4.3983 1.4644 2.3779
4.3524 1.6317 2.3779
4.3014 1.7980 2.3779
4.2453 1.9633 2.3779
4.1841 2.1273 2.3779
4.1178 2.2900 2.3779
4.0464 2.4512 2.3779
3.9699 2.6109 2.3779
3.8884 2.7689 2.3779
3.8017 2.9251 2.3779
3.7099 3.0793 2.3779
3.6130 3.2314 2.3779
3.5110 3.3813 2.3779
3.4039 3.5288 2.3779
3.2917 3.6738 2.3779
3.1745 3.8162 2.3779
3.0522 3.9557 2.3779
2.9248 4.0923 2.3779
2.7925 4.2257 2.3779
2.6551 4.3558 2.3779
2.5128 4.4824 2.3779
2.3656 4.6053 2.3779
2.2135 4.7245 2.3779
2.0566 4.8396 2.3779
0.8141 2.1268 1.0216
0.7376 2.1581 1.0148
0.6601 2.1865 1.0078
0.5816 2.2122 1.0008
0.5022 2.2350 0.9937
0.4221 2.2549 0.9866
0.3412 2.2719 0.9793
0.2599 2.2859 0.9720
0.1780 2.2970 0.9647
0.0958 2.3051 0.9573
0.0134 2.3103 0.9499
-0.0692 2.3124 0.9425
-0.1518 2.3116 0.9351
-0.2343 2.3078 0.9277
-0.3166 2.3010 0.9203
-0.3987 2.2912 0.9129
-0.4803 2.2784 0.9055
-0.5614 2.2627 0.8982
-0.6419 2.2441 0.8909
-0.7217 2.2226 0.8837
-0.8007 2.1982 0.8766
-0.8787 2.1709 0.8695
-0.9557 2.1409 0.8626
-2.8665 5.8581 2.3779
-3.0983 5.8052 2.3779
-3.3297 5.7431 2.3779
-3.5602 5.6718 2.3779
-3.7893 5.5910 2.3779
-4.0167 5.5008 2.3779
-4.2419 5.4011 2.3779
-4.4643 5.2918 2.3779
-4.6835 5.1730 2.3779
-4.8991 5.0447 2.3779
-5.1104 4.9070 2.3779
-5.3171 4.7598 2.3779
-5.5185 4.6035 2.3779
-5.7142 4.4380 2.3779
-5.9036 4.2636 2.3779
-6.0863 4.0805 2.3779
-6.2617 3.8889 2.3779
-6.4293 3.6891 2.3779
-6.5887 3.4814 2.3779
-6.7394 3.2662 2.3779
-6.8809 3.0439 2.3779
-7.0127 2.8148 2.3779
-7.1345 2.5795 2.3779
-7.2459 2.3383 2.3779
-7.3465 2.0918 2.3779
-7.4359 1.8404 2.3779
-7.5140 1.5849 2.3779
-7.5804 1.3257 2.3779
-7.6349 1.0634 2.3779
-7.6772 0.7986 2.3779
-7.7074 0.5319 2.3779
-7.7252 0.2641 2.3779
-7.7307 -0.0044 2.3779
-7.7237 -0.2728 2.3779
-7.7044 -0.5405 2.3779
-7.6727 -0.8069 2.3779
-7.6289 -1.0713 2.3779
-7.5729 -1.3332 2.3779
-7.5052 -1.5919 2.3779
-7.4258 -1.8469 2.3779
-7.3350 -2.0975 2.3779
-7.2332 -2.3433 2.3779
-7.1207 -2.5837 2.3779
-6.9978 -2.8182 2.3779
-6.8650 -3.0464 2.3779
-6.7226 -3.2677 2.3779
-6.5712 -3.4819 2.3779
-6.4110 -3.6885 2.3779
-6.2428 -3.8873 2.3779
-6.0668 -4.0778 2.3779
-5.8837 -4.2598 2.3779
-5.6939 -4.4331 2.3779
-5.4979 -4.5975 2.3779
-5.2963 -4.7528 2.3779
-5.0895 -4.8988 2.3779
-4.8782 -5.0355 2.3779
-4.6627 -5.1628 2.3779
-4.4436 -5.2806 2.3779
-4.2214 -5.3889 2.3779
-3.9966 -5.4877 2.3779
-3.7695 -5.5770 2.3779
-3.5408 -5.6569 2.3779
-3.3107 -5.7275 2.3779
-3.0799 -5.7888 2.3779
-2.8486 -5.8410 2.3779
-2.6172 -5.8842 2.3779
-2.3862 -5.9185 2.3779
-2.1559 -5.9441 2.3779
-1.9266 -5.9612 2.3779
-1.6987 -5.9698 2.3779
-1.4724 -5.9704 2.3779
-1.2482 -5.9629 2.3779
-1.0261 -5.9476 2.3779
-0.8066 -5.9248 2.3779
-0.5897 -5.8946 2.3779
-0.3759 -5.8573 2.3779
-0.1652 -5.8131 2.3779
0.0421 -5.7621 2.3779
0.2459 -5.7047 2.3779
0.4460 -5.6410 2.3779
0.6422 -5.5712 2.3779
0.8345 -5.4956 2.3779
1.0226 -5.4144 2.3779
1.2064 -5.3278 2.3779
1.3859 -5.2360 2.3779
1.5610 -5.1392 2.3779
1.7315 -5.0376 2.3779
1.8974 -4.9314 2.3779
2.0586 -4.8209 2.3779
2.2151 -4.7061 2.3779
2.3668 -4.5874 2.3779
2.5136 -4.4648 2.3779
2.6556 -4.3386 2.3779
2.7926 -4.2088 2.3779
2.9246 -4.0758 2.3779
3.0517 -3.9397 2.3779
3.1738 -3.8005 2.3779
3.2908 -3.6586 2.3779
3.4028 -3.5140 2.3779
3.5097 -3.3668 2.3779
3.6116 -3.2173 2.3779
3.7084 -3.0655 2.3779
3.8002 -2.9117 2.3779
3.8868 -2.7559 2.3779
3.9684 -2.5982 2.3779
4.0448 -2.4389 2.3779
4.1162 -2.2779 2.3779
4.1826 -2.1155 2.3779
4.2438 -1.9517 2.3779
4.2999 -1.7867 2.3779
4.3510 -1.6206 2.3779
4.3970 -1.4535 2.3779
4.4380 -1.2855 2.3779
4.4738 -1.1167 2.3779
4.5046 -0.9472 2.3779
4.5304 -0.7771 2.3779
4.5511 -0.6066 2.3779
4.5667 -0.4356 2.3779
4.5773 -0.2644 2.3779
4.5828 -0.0931 2.3779
4.5832 0.0784 2.3779
4.5786 0.2498 2.3779
4.5689 0.4211 2.3779
4.5542 0.5921 2.3779
4.5344 0.7628 2.3779
4.5095 0.9331 2.3779
4.4796 1.1028 2.3779
4.4445 1.2719 2.3779
4.4044 1.4402 2.3779
4.3593 1.6076 2.3779
4.3090 1.7741 2.3779
4.2537 1.9395 2.3779
4.1932 2.1037 2.3779
4.1277 2.2666 2.3779
4.0570 2.4281 2.3779
3.9813 2.5880 2.3779
3.9004 2.7463 2.3779
3.8145 2.9027 2.3779
3.7234 3.0572 2.3779
3.6272 3.2096 2.3779
3.5260 3.3599 2.3779
3.4196 3.5077 2.3779
3.3082 3.6531 2.3779
3.1917 3.7959 2.3779
3.0701 3.9358 2.3779
2.9435 4.0728 2.3779
2.8118 4.2067 2.3779
2.6752 4.3372 2.3779
2.5337 4.4644 2.3779
2.3871 4.5879 2.3779
2.2357 4.7075 2.3779
2.0795 4.8232 2.3779
0.8250 2.1221 1.0226
0.7487 2.1538 1.0158
0.6714 2.1826 1.0089
0.5930 2.2087 1.0018
0.5137 2.2319 0.9948
0.4337 2.2522 0.9876
0.3529 2.2696 0.9804
0.2716 2.2841 0.9731
0.1898 2.2956 0.9658
0.1077 2.3041 0.9584
0.0253 2.3097 0.9510
-0.0573 2.3123 0.9436
-0.1399 2.3119 0.9362
-0.2224 2.3085 0.9287
-0.3048 2.3021 0.9213
-0.3869 2.2928 0.9139
-0.4686 2.2805 0.9066
-0.5498 2.2652 0.8992
-0.6304 2.2470 0.8920
-0.7103 2.2259 0.8848
-0.7893 2.2019 0.8776
-0.8675 2.1750 0.8705
-0.9446 2.1454 0.8636
-2.8330 5.8649 2.3779
-3.0649 5.8134 2.3779
-3.2964 5.7526 2.3779
-3.5271 5.6826 2.3779
-3.7564 5.6032 2.3779
-3.9841 5.5144 2.3779
-4.2096 5.4160 2.3779
-4.4324 5.3081 2.3779
-4.6522 5.1907 2.3779
-4.8683 5.0638 2.3779
-5.0802 4.9274 2.3779
-5.2876 4.7816 2.3779
-5.4898 4.6266 2.3779
-5.6864 4.4624 2.3779
-5.8767 4.2893 2.3779
-6.0604 4.1074 2.3779
-6.2369 3.9170 2.3779
-6.4057 3.7184 2.3779
-6.5663 3.5118 2.3779
-6.7182 3.2977 2.3779
