ply
format ascii 1.0
element vertex 2177
property float32 x
property float32 y
property float32 z
end_header
4.8792 4.3429 2.3922
4.7184 4.5145 2.3922
4.5518 4.6803 2.3922
4.3795 4.8401 2.3922
4.2016 4.9937 2.3922
4.0183 5.1407 2.3921
3.8299 5.2809 2.3919
3.6361 5.4136 2.3913
3.4376 5.5391 2.3906
3.2347 5.6570 2.3897
3.0277 5.7674 2.3886
2.8169 5.8702 2.3875
2.6027 5.9652 2.3863
2.3852 6.0525 2.3850
0.8784 2.4879 0.9672
0.7883 2.5183 0.9671
0.6973 2.5454 0.9670
0.6053 2.5691 0.9669
0.5125 2.5896 0.9668
0.4190 2.6067 0.9666
0.3249 2.6203 0.9664
0.2304 2.6306 0.9662
0.1356 2.6375 0.9659
0.0406 2.6409 0.9656
-0.0545 2.6409 0.9653
-0.1495 2.6375 0.9649
-0.2443 2.6307 0.9645
-0.3388 2.6204 0.9641
-0.4329 2.6067 0.9636
-0.5265 2.5896 0.9631
-0.6193 2.5692 0.9626
-0.7114 2.5454 0.9621
-0.8025 2.5183 0.9615
-0.8926 2.4880 0.9609
-2.4373 6.0943 2.3844
-2.6581 6.0101 2.3856
-2.8762 5.9183 2.3869
-3.0908 5.8181 2.3880
-3.3022 5.7104 2.3892
-3.5094 5.5945 2.3901
-3.7125 5.4712 2.3910
-3.9109 5.3399 2.3916
-4.1045 5.2011 2.3920
-4.2927 5.0550 2.3922
-4.4754 4.9018 2.3922
-4.6527 4.7420 2.3922
-4.8243 4.5758 2.3922
-4.9899 4.4034 2.3922
-5.1494 4.2252 2.3922
-5.3026 4.0411 2.3922
-5.4492 3.8516 2.3922
-5.5890 3.6568 2.3922
-5.7219 3.4569 2.3922
-5.8476 3.2523 2.3922
-5.9660 3.0431 2.3922
-6.0769 2.8296 2.3922
-6.1802 2.6120 2.3922
-6.2756 2.3908 2.3922
-6.3631 2.1660 2.3922
-6.4424 1.9381 2.3922
-6.5136 1.7073 2.3922
-6.5764 1.4739 2.3922
-6.6308 1.2381 2.3922
-6.6767 1.0004 2.3922
-6.7140 0.7610 2.3922
-6.7426 0.5202 2.3922
-6.7625 0.2784 2.3922
-6.7736 0.0359 2.3922
-6.7759 -0.2071 2.3922
-6.7694 -0.4502 2.3922
-6.7540 -0.6930 2.3922
-6.7298 -0.9353 2.3922
-6.6968 -1.1767 2.3922
-6.6550 -1.4168 2.3922
-6.6045 -1.6555 2.3922
-6.5452 -1.8923 2.3922
-6.4773 -2.1268 2.3922
-6.4009 -2.3589 2.3922
-6.3159 -2.5882 2.3922
-6.2227 -2.8143 2.3922
-6.1211 -3.0369 2.3922
-6.0115 -3.2558 2.3922
-5.8938 -3.4707 2.3922
-5.7684 -3.6811 2.3922
-5.6352 -3.8869 2.3922
-5.4946 -4.0878 2.3922
-5.3466 -4.2834 2.3922
-5.1915 -4.4735 2.3922
-5.0295 -4.6579 2.3922
-4.8608 -4.8362 2.3922
-4.6857 -5.0083 2.3922
-4.5043 -5.1738 2.3922
-4.3169 -5.3326 2.3922
-4.1238 -5.4845 2.3922
-3.9252 -5.6291 2.3922
-3.7215 -5.7664 2.3922
-3.5128 -5.8961 2.3922
-3.2995 -6.0181 2.3922
-3.0819 -6.1321 2.3922
-2.8602 -6.2381 2.3922
-2.6348 -6.3359 2.3922
-2.4060 -6.4253 2.3922
-2.1741 -6.5062 2.3922
-1.9395 -6.5786 2.3922
-1.7023 -6.6423 2.3922
-1.4631 -6.6972 2.3922
-1.2220 -6.7433 2.3922
-0.9795 -6.7805 2.3922
-0.7359 -6.8088 2.3922
-0.4914 -6.8282 2.3922
-0.2465 -6.8385 2.3922
-0.0015 -6.8399 2.3922
0.2433 -6.8324 2.3922
0.4876 -6.8158 2.3922
0.7310 -6.7904 2.3922
0.9732 -6.7561 2.3922
1.2138 -6.7130 2.3922
1.4526 -6.6612 2.3922
1.6892 -6.6007 2.3922
1.9233 -6.5317 2.3922
2.1547 -6.4542 2.3922
2.3829 -6.3692 2.3922
2.6076 -6.2745 2.3922
2.8287 -6.1724 2.3922
3.0458 -6.0625 2.3922
3.2586 -5.9448 2.3922
3.4668 -5.8196 2.3922
3.6702 -5.6870 2.3922
3.8686 -5.5472 2.3922
4.0616 -5.4004 2.3922
4.2490 -5.2468 2.3922
4.4306 -5.0867 2.3922
4.6061 -4.9202 2.3922
4.7754 -4.7477 2.3922
4.9383 -4.5693 2.3922
5.0945 -4.3853 2.3922
5.2438 -4.1959 2.3922
5.3861 -4.0014 2.3922
5.5212 -3.8021 2.3922
5.6489 -3.5982 2.3922
5.7692 -3.3900 2.3922
5.8818 -3.1779 2.3922
5.9866 -2.9620 2.3922
6.0836 -2.7426 2.3922
6.1726 -2.5202 2.3922
6.2254 -2.2845 2.3815
6.2283 -2.0349 2.3552
6.2306 -1.7907 2.3323
6.2323 -1.5511 2.3126
6.2335 -1.3156 2.2960
6.2342 -1.0834 2.2824
6.2344 -0.8539 2.2717
6.2340 -0.6266 2.2638
6.2332 -0.4008 2.2586
6.2318 -0.1763 2.2562
6.2300 0.0478 2.2565
6.2276 0.2720 2.2594
6.2248 0.4965 2.2651
6.2214 0.7221 2.2736
6.2175 0.9494 2.2848
6.2131 1.1787 2.2988
6.2081 1.4109 2.3158
6.2025 1.6463 2.3359
6.1963 1.8857 2.3591
6.1895 2.1297 2.3855
6.1225 2.3563 2.3922
6.0304 2.5736 2.3922
5.9308 2.7874 2.3922
5.8237 2.9975 2.3922
5.7093 3.2036 2.3922
5.5879 3.4054 2.3922
5.4594 3.6028 2.3922
5.3241 3.7955 2.3922
5.1822 3.9832 2.3922
5.0338 4.1658 2.3922
4.8791 4.3430 2.3922
4.7183 4.5146 2.3922
4.5517 4.6804 2.3922
4.3793 4.8402 2.3922
4.2015 4.9938 2.3922
4.0182 5.1408 2.3921
3.8297 5.2810 2.3919
3.6359 5.4137 2.3913
3.4375 5.5391 2.3906
3.2346 5.6571 2.3897
3.0275 5.7675 2.3886
2.8167 5.8702 2.3875
2.6025 5.9653 2.3863
2.3850 6.0525 2.3850
0.8783 2.4880 0.9672
0.7883 2.5183 0.9671
0.6972 2.5454 0.9670
0.6052 2.5691 0.9669
0.5124 2.5896 0.9668
0.4189 2.6067 0.9666
0.3248 2.6204 0.9664
0.2303 2.6306 0.9662
0.1355 2.6375 0.9659
0.0405 2.6409 0.9656
-0.0545 2.6409 0.9653
-0.1496 2.6375 0.9649
-0.2444 2.6307 0.9645
-0.3389 2.6204 0.9641
-0.4330 2.6067 0.9636
-0.5265 2.5896 0.9631
-0.6194 2.5692 0.9626
-0.7114 2.5454 0.9621
-0.8026 2.5183 0.9615
-0.8927 2.4879 0.9609
-2.4374 6.0942 2.3844
-2.6583 6.0100 2.3856
-2.8763 5.9182 2.3869
-3.0910 5.8180 2.3880
-3.3023 5.7104 2.3892
-3.5095 5.5944 2.3901
-3.7127 5.4711 2.3910
-3.9111 5.3398 2.3916
-4.1046 5.2010 2.3920
-4.2928 5.0549 2.3922
-4.4756 4.9017 2.3922
-4.6528 4.7419 2.3922
-4.8244 4.5757 2.3922
-4.9900 4.4033 2.3922
-5.1495 4.2250 2.3922
-5.3027 4.0410 2.3922
-5.4493 3.8515 2.3922
-5.5891 3.6567 2.3922
-5.7220 3.4568 2.3922
-5.8477 3.2521 2.3922
-5.9661 3.0429 2.3922
-6.0770 2.8294 2.3922
-6.1802 2.6119 2.3922
-6.2757 2.3906 2.3922
-6.3631 2.1659 2.3922
-6.4425 1.9380 2.3922
-6.5136 1.7071 2.3922
-6.5765 1.4737 2.3922
-6.6309 1.2380 2.3922
-6.6767 1.0003 2.3922
-6.7140 0.7609 2.3922
-6.7426 0.5201 2.3922
-6.7625 0.2783 2.3922
-6.7736 0.0357 2.3922
-6.7759 -0.2073 2.3922
-6.7694 -0.4503 2.3922
-6.7540 -0.6932 2.3922
-6.7298 -0.9354 2.3922
-6.6968 -1.1768 2.3922
-6.6550 -1.4170 2.3922
-6.6044 -1.6556 2.3922
-6.5452 -1.8924 2.3922
-6.4773 -2.1270 2.3922
-6.4008 -2.3591 2.3922
-6.3159 -2.5883 2.3922
-6.2226 -2.8144 2.3922
-6.1211 -3.0371 2.3922
-6.0114 -3.2560 2.3922
-5.8938 -3.4708 2.3922
-5.7683 -3.6812 2.3922
-5.6351 -3.8870 2.3922
-5.4945 -4.0879 2.3922
-5.3465 -4.2835 2.3922
-5.1914 -4.4736 2.3922
-5.0294 -4.6580 2.3922
-4.8607 -4.8363 2.3922
-4.6855 -5.0084 2.3922
-4.5042 -5.1739 2.3922
-4.3168 -5.3327 2.3922
-4.1237 -5.4846 2.3922
-3.9251 -5.6292 2.3922
-3.7213 -5.7665 2.3922
-3.5127 -5.8962 2.3922
-3.2994 -6.0182 2.3922
-3.0817 -6.1322 2.3922
-2.8601 -6.2382 2.3922
-2.6347 -6.3359 2.3922
-2.4059 -6.4253 2.3922
-2.1740 -6.5063 2.3922
-1.9393 -6.5786 2.3922
-1.7022 -6.6423 2.3922
-1.4629 -6.6972 2.3922
-1.2219 -6.7433 2.3922
-0.9793 -6.7805 2.3922
-0.7357 -6.8088 2.3922
-0.4913 -6.8282 2.3922
-0.2464 -6.8385 2.3922
-0.0022 -6.3755 2.3922
0.2260 -6.3686 2.3922
0.4536 -6.3534 2.3922
0.6805 -6.3299 2.3922
0.9062 -6.2982 2.3922
1.1306 -6.2582 2.3922
1.3532 -6.2102 2.3922
1.5738 -6.1540 2.3922
1.7921 -6.0899 2.3922
2.0078 -6.0180 2.3922
2.2207 -5.9382 2.3922
2.4303 -5.8509 2.3922
2.6365 -5.7560 2.3922
2.8391 -5.6538 2.3922
3.0376 -5.5443 2.3922
3.2320 -5.4278 2.3922
3.4218 -5.3044 2.3922
3.6069 -5.1743 2.3922
3.7871 -5.0377 2.3922
3.9621 -4.8947 2.3922
4.1317 -4.7456 2.3922
4.2957 -4.5906 2.3922
4.4538 -4.4299 2.3922
4.6060 -4.2637 2.3922
4.7519 -4.0923 2.3922
4.8915 -3.9158 2.3922
5.0245 -3.7346 2.3922
5.1509 -3.5488 2.3922
5.2703 -3.3588 2.3922
5.3828 -3.1647 2.3922
5.4882 -2.9669 2.3922
5.5864 -2.7655 2.3922
5.6772 -2.5610 2.3922
5.7605 -2.3534 2.3922
5.8363 -2.1428 2.3922
5.9046 -1.9306 2.3922
5.9651 -1.7158 2.3922
6.0179 -1.4992 2.3922
6.0628 -1.2810 2.3922
6.1000 -1.0614 2.3922
6.1293 -0.8409 2.3922
6.1507 -0.6195 2.3922
6.1642 -0.3978 2.3922
6.1698 -0.1758 2.3922
6.1675 0.0461 2.3922
6.1573 0.2676 2.3922
6.1393 0.4885 2.3922
6.1135 0.7084 2.3922
6.0799 0.9272 2.3922
6.0387 1.1445 2.3922
5.9897 1.3601 2.3922
5.9333 1.5737 2.3922
5.8693 1.7851 2.3922
5.7979 1.9940 2.3922
5.7193 2.2001 2.3922
5.6335 2.4032 2.3922
5.5405 2.6030 2.3922
5.4407 2.7994 2.3922
5.3340 2.9921 2.3922
5.2206 3.1808 2.3922
5.1007 3.3653 2.3922
4.9744 3.5454 2.3922
4.8419 3.7209 2.3922
4.7033 3.8915 2.3922
4.5589 4.0572 2.3922
4.4087 4.2176 2.3922
4.2531 4.3726 2.3922
4.0920 4.5220 2.3922
3.9259 4.6657 2.3922
3.7549 4.8033 2.3922
3.5791 4.9349 2.3922
3.3988 5.0601 2.3922
3.2140 5.1786 2.3920
3.0251 5.2904 2.3918
2.8321 5.3949 2.3914
2.6356 5.4926 2.3909
2.4356 5.5828 2.3902
0.9020 2.2891 0.9654
0.8191 2.3204 0.9654
0.7351 2.3487 0.9654
0.6502 2.3739 0.9653
0.5643 2.3961 0.9652
0.4778 2.4151 0.9651
0.3906 2.4311 0.9649
0.3028 2.4438 0.9647
0.2147 2.4534 0.9645
0.1262 2.4598 0.9642
0.0376 2.4630 0.9640
-0.0511 2.4630 0.9636
-0.1397 2.4598 0.9633
-0.2282 2.4534 0.9629
-0.3163 2.4438 0.9625
-0.4041 2.4310 0.9621
-0.4913 2.4151 0.9616
-0.5780 2.3960 0.9612
-0.6638 2.3739 0.9606
-0.7488 2.3486 0.9601
-0.8329 2.3203 0.9596
-0.9158 2.2889 0.9590
-2.4877 5.6224 2.3899
-2.6909 5.5347 2.3906
-2.8910 5.4395 2.3911
-3.0875 5.3370 2.3916
-3.2803 5.2273 2.3920
-3.4690 5.1102 2.3921
-3.6535 4.9864 2.3922
-3.8333 4.8557 2.3922
-4.0086 4.7186 2.3922
-4.1789 4.5752 2.3922
-4.3442 4.4258 2.3922
-4.5041 4.2704 2.3922
-4.6585 4.1093 2.3922
-4.8071 3.9427 2.3922
-4.9498 3.7707 2.3922
-5.0864 3.5936 2.3922
-5.2167 3.4116 2.3922
-5.3404 3.2249 2.3922
-5.4574 3.0338 2.3922
-5.5676 2.8384 2.3922
-5.6708 2.6390 2.3922
-5.7668 2.4359 2.3922
-5.8555 2.2294 2.3922
-5.9368 2.0196 2.3922
-6.0105 1.8069 2.3922
-6.0766 1.5915 2.3922
-6.1348 1.3736 2.3922
-6.1853 1.1537 2.3922
-6.2277 0.9319 2.3922
-6.2622 0.7086 2.3922
-6.2886 0.4840 2.3922
-6.3068 0.2585 2.3922
-6.3169 0.0323 2.3922
-6.3187 -0.1942 2.3922
-6.3123 -0.4209 2.3922
-6.2977 -0.6473 2.3922
-6.2749 -0.8731 2.3922
-6.2438 -1.0981 2.3922
-6.2046 -1.3220 2.3922
-6.1572 -1.5444 2.3922
-6.1017 -1.7650 2.3922
-6.0382 -1.9836 2.3922
-5.9668 -2.1998 2.3922
-5.8874 -2.4134 2.3922
-5.8003 -2.6241 2.3922
-5.7055 -2.8315 2.3922
-5.6031 -3.0354 2.3922
-5.4933 -3.2355 2.3922
-5.3762 -3.4316 2.3922
-5.2520 -3.6233 2.3922
-5.1208 -3.8103 2.3922
-4.9828 -3.9926 2.3922
-4.8382 -4.1696 2.3922
-4.6872 -4.3413 2.3922
-4.5299 -4.5074 2.3922
-4.3666 -4.6677 2.3922
-4.1976 -4.8219 2.3922
-4.0229 -4.9698 2.3922
-3.8430 -5.1113 2.3922
-3.6580 -5.2460 2.3922
-3.4681 -5.3739 2.3922
-3.2737 -5.4948 2.3922
-3.0749 -5.6084 2.3922
-2.8722 -5.7147 2.3922
-2.6656 -5.8134 2.3922
-2.4556 -5.9046 2.3922
-2.2425 -5.9879 2.3922
-2.0264 -6.0634 2.3922
-1.8078 -6.1309 2.3922
-1.5869 -6.1903 2.3922
-1.3639 -6.2416 2.3922
-1.1393 -6.2847 2.3922
-0.9134 -6.3195 2.3922
-0.6864 -6.3460 2.3922
-0.4586 -6.3642 2.3922
-0.2304 -6.3740 2.3922
-0.0020 -6.3755 2.3922
0.2261 -6.3686 2.3922
0.4538 -6.3534 2.3922
0.6806 -6.3299 2.3922
0.9064 -6.2981 2.3922
1.1307 -6.2582 2.3922
1.3533 -6.2101 2.3922
1.5740 -6.1540 2.3922
1.7923 -6.0899 2.3922
2.0080 -6.0179 2.3922
2.2208 -5.9382 2.3922
2.4305 -5.8508 2.3922
2.6367 -5.7559 2.3922
2.8392 -5.6537 2.3922
3.0377 -5.5442 2.3922
3.2321 -5.4277 2.3922
3.4219 -5.3043 2.3922
3.6070 -5.1742 2.3922
3.7872 -5.0376 2.3922
3.9622 -4.8946 2.3922
4.1318 -4.7455 2.3922
4.2958 -4.5905 2.3922
4.4539 -4.4298 2.3922
4.6061 -4.2636 2.3922
4.7520 -4.0921 2.3922
4.8916 -3.9157 2.3922
5.0246 -3.7344 2.3922
5.1509 -3.5487 2.3922
5.2704 -3.3586 2.3922
5.3829 -3.1646 2.3922
5.4883 -2.9667 2.3922
5.5864 -2.7654 2.3922
5.6772 -2.5608 2.3922
5.7606 -2.3533 2.3922
5.8364 -2.1430 2.3922
5.9046 -1.9305 2.3922
5.9651 -1.7157 2.3922
6.0179 -1.4990 2.3922
6.0629 -1.2808 2.3922
6.1000 -1.0613 2.3922
6.1293 -0.8407 2.3922
6.1507 -0.6194 2.3922
6.1642 -0.3976 2.3922
6.1698 -0.1757 2.3922
6.1675 0.0462 2.3922
6.1573 0.2677 2.3922
6.1393 0.4886 2.3922
6.1135 0.7086 2.3922
6.0799 0.9273 2.3922
6.0386 1.1447 2.3922
5.9897 1.3603 2.3922
5.9332 1.5739 2.3922
5.8693 1.7852 2.3922
5.7979 1.9941 2.3922
5.7192 2.2002 2.3922
5.6334 2.4033 2.3922
5.5405 2.6032 2.3922
5.4406 2.7995 2.3922
5.3339 2.9922 2.3922
5.2205 3.1809 2.3922
5.1006 3.3654 2.3922
4.9743 3.5455 2.3922
4.8418 3.7210 2.3922
4.7032 3.8917 2.3922
4.5588 4.0573 2.3922
4.4086 4.2177 2.3922
4.2529 4.3727 2.3922
4.0919 4.5221 2.3922
3.9258 4.6657 2.3922
3.7547 4.8034 2.3922
3.5789 4.9350 2.3922
3.3986 5.0602 2.3922
3.2138 5.1787 2.3920
3.0250 5.2905 2.3918
2.8320 5.3950 2.3914
2.6355 5.4927 2.3909
2.4355 5.5828 2.3902
0.9020 2.2891 0.9654
0.8191 2.3204 0.9654
0.7351 2.3487 0.9654
0.6501 2.3739 0.9653
0.5643 2.3961 0.9652
0.4777 2.4151 0.9651
0.3905 2.4311 0.9649
0.3028 2.4438 0.9647
0.2146 2.4534 0.9645
0.1262 2.4598 0.9642
0.0376 2.4630 0.9640
-0.0511 2.4630 0.9636
-0.1398 2.4598 0.9633
-0.2282 2.4534 0.9629
-0.3164 2.4438 0.9625
-0.4041 2.4310 0.9621
-0.4914 2.4151 0.9616
-0.5780 2.3960 0.9612
-0.6639 2.3738 0.9606
-0.7489 2.3486 0.9601
-0.8329 2.3203 0.9596
-0.9159 2.2889 0.9590
-2.4879 5.6223 2.3899
-2.6910 5.5346 2.3906
-2.8911 5.4394 2.3911
-3.0876 5.3369 2.3916
-3.2805 5.2272 2.3920
-3.4691 5.1102 2.3921
-3.6536 4.9863 2.3922
-3.8334 4.8556 2.3922
-4.0087 4.7185 2.3922
-4.1790 4.5751 2.3922
-4.3443 4.4257 2.3922
-4.5042 4.2703 2.3922
-4.6586 4.1092 2.3922
-4.8073 3.9426 2.3922
-4.9499 3.7706 2.3922
-5.0865 3.5935 2.3922
-5.2167 3.4115 2.3922
-5.3404 3.2248 2.3922
-5.4575 3.0336 2.3922
-5.5677 2.8383 2.3922
-5.6708 2.6389 2.3922
-5.7668 2.4358 2.3922
-5.8555 2.2292 2.3922
-5.9368 2.0194 2.3922
-6.0105 1.8067 2.3922
-6.0766 1.5913 2.3922
-6.1349 1.3735 2.3922
-6.1853 1.1536 2.3922
-6.2278 0.9318 2.3922
-6.2622 0.7085 2.3922
-6.2886 0.4839 2.3922
-6.3068 0.2584 2.3922
-6.3169 0.0322 2.3922
-6.3187 -0.1944 2.3922
-6.3123 -0.4210 2.3922
-6.2977 -0.6474 2.3922
-6.2749 -0.8732 2.3922
-6.2438 -1.0983 2.3922
-6.2046 -1.3221 2.3922
-6.1572 -1.5445 2.3922
-6.1017 -1.7652 2.3922
-6.0382 -1.9837 2.3922
-5.9667 -2.2000 2.3922
-5.8873 -2.4136 2.3922
-5.8002 -2.6242 2.3922
-5.7054 -2.8316 2.3922
-5.6030 -3.0356 2.3922
-5.4932 -3.2357 2.3922
-5.3761 -3.4317 2.3922
-5.2519 -3.6234 2.3922
-5.1207 -3.8105 2.3922
-4.9827 -3.9927 2.3922
-4.8381 -4.1697 2.3922
-4.6871 -4.3415 2.3922
-4.5298 -4.5076 2.3922
-4.3665 -4.6678 2.3922
-4.1975 -4.8220 2.3922
-4.0228 -4.9699 2.3922
-3.8429 -5.1114 2.3922
-3.6578 -5.2461 2.3922
-3.4680 -5.3740 2.3922
-3.2735 -5.4948 2.3922
-3.0748 -5.6085 2.3922
-2.8720 -5.7147 2.3922
-2.6655 -5.8135 2.3922
-2.4555 -5.9046 2.3922
-2.2423 -5.9880 2.3922
-2.0263 -6.0634 2.3922
-1.8076 -6.1309 2.3922
-1.5867 -6.1903 2.3922
-1.3638 -6.2416 2.3922
-1.1392 -6.2847 2.3922
-0.9132 -6.3195 2.3922
-0.6862 -6.3460 2.3922
-0.4584 -6.3642 2.3922
-0.2302 -6.3740 2.3922
-0.0027 -5.9636 2.3922
0.2107 -5.9573 2.3922
0.4237 -5.9433 2.3922
0.6358 -5.9215 2.3922
0.8470 -5.8920 2.3922
1.0569 -5.8548 2.3922
1.2652 -5.8100 2.3922
1.4716 -5.7577 2.3922
1.6758 -5.6979 2.3922
1.8777 -5.6308 2.3922
2.0769 -5.5564 2.3922
2.2731 -5.4749 2.3922
2.4661 -5.3864 2.3922
2.6557 -5.2909 2.3922
2.8416 -5.1888 2.3922
3.0236 -5.0800 2.3922
3.2014 -4.9647 2.3922
3.3747 -4.8432 2.3922
3.5435 -4.7155 2.3922
3.7074 -4.5819 2.3922
3.8663 -4.4426 2.3922
4.0200 -4.2977 2.3922
4.1682 -4.1475 2.3922
4.3108 -3.9921 2.3922
4.4476 -3.8318 2.3922
4.5785 -3.6668 2.3922
4.7033 -3.4973 2.3922
4.8218 -3.3236 2.3922
4.9339 -3.1458 2.3922
5.0395 -2.9642 2.3922
5.1384 -2.7791 2.3922
5.2305 -2.5907 2.3922
5.3158 -2.3993 2.3922
5.3941 -2.2051 2.3922
5.4654 -2.0083 2.3922
5.5295 -1.8092 2.3922
5.5865 -1.6082 2.3922
5.6362 -1.4053 2.3922
5.6786 -1.2010 2.3922
5.7136 -0.9954 2.3922
5.7413 -0.7887 2.3922
5.7616 -0.5813 2.3922
5.7745 -0.3736 2.3922
5.7800 -0.1657 2.3922
5.7781 0.0421 2.3922
5.7688 0.2498 2.3922
5.7521 0.4567 2.3922
5.7282 0.6628 2.3922
5.6969 0.8678 2.3922
5.6585 1.0715 2.3922
5.6128 1.2736 2.3922
5.5601 1.4739 2.3922
5.5003 1.6720 2.3922
5.4336 1.8678 2.3922
5.3600 2.0611 2.3922
5.2797 2.2515 2.3922
5.1928 2.4389 2.3922
5.0993 2.6230 2.3922
4.9994 2.8037 2.3922
4.8933 2.9806 2.3922
4.7810 3.1537 2.3922
4.6627 3.3226 2.3922
4.5385 3.4872 2.3922
4.4087 3.6472 2.3922
4.2733 3.8026 2.3922
4.1326 3.9530 2.3922
3.9867 4.0984 2.3922
3.8358 4.2385 2.3922
3.6801 4.3732 2.3922
3.5197 4.5023 2.3922
3.3550 4.6257 2.3922
3.1860 4.7431 2.3922
3.0129 4.8546 2.3922
2.8361 4.9599 2.3922
2.6556 5.0588 2.3922
2.4717 5.1511 2.3921
0.9206 2.1102 0.9638
0.8441 2.1423 0.9639
0.7665 2.1716 0.9639
0.6879 2.1980 0.9638
0.6083 2.2216 0.9638
0.5280 2.2424 0.9637
0.4470 2.2602 0.9635
0.3653 2.2751 0.9634
0.2832 2.2870 0.9632
0.2007 2.2960 0.9630
0.1179 2.3019 0.9628
0.0350 2.3049 0.9625
-0.0480 2.3049 0.9622
-0.1310 2.3019 0.9619
-0.2138 2.2959 0.9615
-0.2963 2.2869 0.9612
-0.3785 2.2750 0.9608
-0.4601 2.2601 0.9603
-0.5412 2.2422 0.9599
-0.6216 2.2215 0.9594
-0.7011 2.1978 0.9589
-0.7798 2.1713 0.9584
-0.8575 2.1420 0.9578
-2.3336 5.2719 2.3919
-2.5236 5.1883 2.3920
-2.7106 5.0979 2.3921
-2.8943 5.0009 2.3922
-3.0744 4.8971 2.3922
-3.2508 4.7869 2.3922
-3.4233 4.6704 2.3922
-3.5917 4.5478 2.3922
-3.7557 4.4191 2.3922
-3.9151 4.2846 2.3922
-4.0697 4.1445 2.3922
-4.2193 3.9987 2.3922
-4.3637 3.8477 2.3922
-4.5027 3.6914 2.3922
-4.6362 3.5302 2.3922
-4.7638 3.3642 2.3922
-4.8855 3.1936 2.3922
-5.0012 3.0186 2.3922
-5.1105 2.8395 2.3922
-5.2134 2.6565 2.3922
-5.3098 2.4697 2.3922
-5.3994 2.2794 2.3922
-5.4822 2.0859 2.3922
-5.5580 1.8895 2.3922
-5.6268 1.6902 2.3922
-5.6883 1.4885 2.3922
-5.7426 1.2846 2.3922
-5.7896 1.0787 2.3922
-5.8290 0.8711 2.3922
-5.8610 0.6621 2.3922
-5.8854 0.4519 2.3922
-5.9022 0.2408 2.3922
-5.9114 0.0292 2.3922
-5.9129 -0.1828 2.3922
-5.9067 -0.3949 2.3922
-5.8928 -0.6067 2.3922
-5.8712 -0.8179 2.3922
-5.8419 -1.0284 2.3922
-5.8050 -1.2378 2.3922
-5.7604 -1.4458 2.3922
-5.7083 -1.6521 2.3922
-5.6487 -1.8565 2.3922
-5.5817 -2.0587 2.3922
-5.5073 -2.2584 2.3922
-5.4256 -2.4554 2.3922
-5.3368 -2.6493 2.3922
-5.2409 -2.8400 2.3922
-5.1381 -3.0270 2.3922
-5.0285 -3.2103 2.3922
-4.9122 -3.3895 2.3922
-4.7894 -3.5644 2.3922
-4.6603 -3.7347 2.3922
-4.5250 -3.9002 2.3922
-4.3837 -4.0608 2.3922
-4.2366 -4.2160 2.3922
-4.0838 -4.3658 2.3922
-3.9257 -4.5100 2.3922
-3.7624 -4.6482 2.3922
-3.5941 -4.7805 2.3922
-3.4210 -4.9064 2.3922
-3.2435 -5.0260 2.3922
-3.0617 -5.1390 2.3922
-2.8759 -5.2453 2.3922
-2.6863 -5.3446 2.3922
-2.4932 -5.4370 2.3922
-2.2968 -5.5222 2.3922
-2.0975 -5.6002 2.3922
-1.8955 -5.6708 2.3922
-1.6911 -5.7340 2.3922
-1.4845 -5.7897 2.3922
-1.2761 -5.8377 2.3922
-1.0661 -5.8781 2.3922
-0.8548 -5.9107 2.3922
-0.6425 -5.9356 2.3922
-0.4295 -5.9528 2.3922
-0.2161 -5.9621 2.3922
-0.0025 -5.9636 2.3922
0.2109 -5.9573 2.3922
0.4238 -5.9433 2.3922
0.6360 -5.9215 2.3922
0.8472 -5.8919 2.3922
1.0570 -5.8548 2.3922
1.2653 -5.8100 2.3922
1.4717 -5.7577 2.3922
1.6760 -5.6979 2.3922
1.8778 -5.6308 2.3922
2.0770 -5.5564 2.3922
2.2732 -5.4749 2.3922
2.4663 -5.3863 2.3922
2.6558 -5.2909 2.3922
2.8417 -5.1887 2.3922
3.0237 -5.0799 2.3922
3.2015 -4.9646 2.3922
3.3748 -4.8431 2.3922
3.5436 -4.7154 2.3922
3.7075 -4.5818 2.3922
3.8664 -4.4425 2.3922
4.0201 -4.2976 2.3922
4.1683 -4.1474 2.3922
4.3109 -3.9920 2.3922
4.4477 -3.8317 2.3922
4.5786 -3.6667 2.3922
4.7034 -3.4972 2.3922
4.8219 -3.3234 2.3922
4.9340 -3.1457 2.3922
5.0395 -2.9641 2.3922
5.1384 -2.7790 2.3922
5.2306 -2.5906 2.3922
5.3159 -2.3992 2.3922
5.3942 -2.2049 2.3922
5.4654 -2.0082 2.3922
5.5296 -1.8091 2.3922
5.5865 -1.6080 2.3922
5.6362 -1.4052 2.3922
5.6786 -1.2008 2.3922
5.7136 -0.9952 2.3922
5.7413 -0.7886 2.3922
5.7616 -0.5813 2.3922
5.7745 -0.3735 2.3922
5.7800 -0.1656 2.3922
5.7781 0.0423 2.3922
5.7688 0.2499 2.3922
5.7521 0.4569 2.3922
5.7282 0.6629 2.3922
5.6969 0.8680 2.3922
5.6584 1.0717 2.3922
5.6128 1.2737 2.3922
5.5600 1.4740 2.3922
5.5003 1.6721 2.3922
5.4336 1.8679 2.3922
5.3600 2.0612 2.3922
5.2797 2.2516 2.3922
5.1927 2.4390 2.3922
5.0992 2.6231 2.3922
4.9994 2.8038 2.3922
4.8932 2.9808 2.3922
4.7809 3.1538 2.3922
4.6626 3.3227 2.3922
4.5384 3.4873 2.3922
4.4086 3.6473 2.3922
4.2732 3.8027 2.3922
4.1325 3.9531 2.3922
3.9866 4.0985 2.3922
3.8357 4.2386 2.3922
3.6800 4.3733 2.3922
3.5196 4.5024 2.3922
3.3549 4.6257 2.3922
3.1858 4.7432 2.3922
3.0128 4.8547 2.3922
2.8360 4.9600 2.3922
2.6555 5.0589 2.3922
2.4715 5.1512 2.3921
0.9205 2.1102 0.9638
0.8440 2.1423 0.9639
0.7664 2.1716 0.9639
0.6878 2.1980 0.9638
0.6083 2.2216 0.9638
0.5279 2.2424 0.9637
0.4469 2.2602 0.9635
0.3653 2.2751 0.9634
0.2831 2.2870 0.9632
0.2006 2.2960 0.9630
0.1179 2.3019 0.9628
0.0349 2.3049 0.9625
-0.0481 2.3049 0.9622
-0.1311 2.3019 0.9619
-0.2138 2.2959 0.9615
-0.2964 2.2869 0.9612
-0.3785 2.2750 0.9608
-0.4602 2.2601 0.9603
-0.5412 2.2422 0.9599
-0.6216 2.2215 0.9594
-0.7012 2.1978 0.9589
-0.7799 2.1713 0.9584
-0.8575 2.1420 0.9578
-2.3338 5.2718 2.3919
-2.5238 5.1882 2.3920
-2.7108 5.0979 2.3921
-2.8944 5.0008 2.3922
-3.0745 4.8970 2.3922
-3.2509 4.7868 2.3922
-3.4234 4.6703 2.3922
-3.5918 4.5477 2.3922
-3.7558 4.4190 2.3922
-3.9152 4.2845 2.3922
-4.0698 4.1444 2.3922
-4.2194 3.9986 2.3922
-4.3638 3.8476 2.3922
-4.5028 3.6913 2.3922
-4.6362 3.5301 2.3922
-4.7639 3.3641 2.3922
-4.8856 3.1935 2.3922
-5.0012 3.0185 2.3922
-5.1106 2.8394 2.3922
-5.2135 2.6563 2.3922
-5.3098 2.4696 2.3922
-5.3995 2.2793 2.3922
-5.4822 2.0858 2.3922
-5.5581 1.8893 2.3922
-5.6268 1.6901 2.3922
-5.6884 1.4884 2.3922
-5.7427 1.2845 2.3922
-5.7896 1.0786 2.3922
-5.8291 0.8710 2.3922
-5.8610 0.6619 2.3922
-5.8854 0.4518 2.3922
-5.9022 0.2407 2.3922
-5.9114 0.0290 2.3922
-5.9129 -0.1830 2.3922
-5.9067 -0.3950 2.3922
-5.8928 -0.6068 2.3922
-5.8712 -0.8181 2.3922
-5.8419 -1.0285 2.3922
-5.8050 -1.2379 2.3922
-5.7604 -1.4459 2.3922
-5.7083 -1.6522 2.3922
-5.6487 -1.8567 2.3922
-5.5817 -2.0589 2.3922
-5.5073 -2.2586 2.3922
-5.4256 -2.4555 2.3922
-5.3367 -2.6495 2.3922
-5.2409 -2.8401 2.3922
-5.1380 -3.0272 2.3922
-5.0284 -3.2104 2.3922
-4.9121 -3.3896 2.3922
-4.7893 -3.5645 2.3922
-4.6602 -3.7348 2.3922
-4.5249 -3.9004 2.3922
-4.3836 -4.0609 2.3922
-4.2365 -4.2161 2.3922
-4.0837 -4.3659 2.3922
-3.9256 -4.5101 2.3922
-3.7623 -4.6483 2.3922
-3.5940 -4.7806 2.3922
-3.4209 -4.9065 2.3922
-3.2434 -5.0261 2.3922
-3.0616 -5.1391 2.3922
-2.8757 -5.2453 2.3922
-2.6861 -5.3447 2.3922
-2.4930 -5.4371 2.3922
-2.2967 -5.5223 2.3922
-2.0974 -5.6003 2.3922
-1.8954 -5.6709 2.3922
-1.6909 -5.7341 2.3922
-1.4844 -5.7897 2.3922
-1.2759 -5.8377 2.3922
-1.0659 -5.8781 2.3922
-0.8546 -5.9107 2.3922
-0.6423 -5.9357 2.3922
-0.4293 -5.9528 2.3922
-0.2159 -5.9621 2.3922
-0.0031 -5.5955 2.3922
0.1971 -5.5898 2.3922
0.3969 -5.5767 2.3922
0.5959 -5.5564 2.3922
0.7941 -5.5289 2.3922
0.9910 -5.4941 2.3922
1.1865 -5.4523 2.3922
1.3802 -5.4034 2.3922
1.5719 -5.3475 2.3922
1.7613 -5.2847 2.3922
1.9483 -5.2151 2.3922
2.1325 -5.1387 2.3922
2.3137 -5.0558 2.3922
2.4917 -4.9664 2.3922
2.6663 -4.8707 2.3922
2.8372 -4.7688 2.3922
3.0041 -4.6608 2.3922
3.1670 -4.5469 2.3922
3.3255 -4.4273 2.3922
3.4795 -4.3020 2.3922
3.6288 -4.1714 2.3922
3.7732 -4.0356 2.3922
3.9126 -3.8947 2.3922
4.0466 -3.7490 2.3922
4.1752 -3.5987 2.3922
4.2983 -3.4439 2.3922
4.4156 -3.2849 2.3922
4.5271 -3.1219 2.3922
4.6326 -2.9551 2.3922
4.7319 -2.7847 2.3922
4.8250 -2.6110 2.3922
4.9118 -2.4342 2.3922
4.9921 -2.2545 2.3922
5.0659 -2.0721 2.3922
5.1330 -1.8874 2.3922
5.1935 -1.7005 2.3922
5.2472 -1.5117 2.3922
5.2941 -1.3212 2.3922
5.3341 -1.1292 2.3922
5.3673 -0.9361 2.3922
5.3935 -0.7421 2.3922
5.4128 -0.5473 2.3922
5.4251 -0.3521 2.3922
5.4304 -0.1568 2.3922
5.4288 0.0386 2.3922
5.4203 0.2336 2.3922
5.4049 0.4281 2.3922
5.3825 0.6219 2.3922
5.3534 0.8146 2.3922
5.3174 1.0060 2.3922
5.2746 1.1960 2.3922
5.2252 1.3842 2.3922
5.1692 1.5705 2.3922
5.1066 1.7546 2.3922
5.0376 1.9363 2.3922
4.9623 2.1154 2.3922
4.8807 2.2916 2.3922
4.7929 2.4647 2.3922
4.6991 2.6346 2.3922
4.5994 2.8010 2.3922
4.4939 2.9637 2.3922
4.3828 3.1226 2.3922
4.2662 3.2773 2.3922
4.1442 3.4279 2.3922
4.0170 3.5740 2.3922
3.8847 3.7155 2.3922
3.7476 3.8522 2.3922
3.6058 3.9839 2.3922
3.4594 4.1106 2.3922
3.3087 4.2320 2.3922
3.1538 4.3480 2.3922
2.9949 4.4585 2.3922
2.8322 4.5633 2.3922
2.6659 4.6623 2.3922
2.4963 4.7554 2.3922
2.3234 4.8424 2.3922
0.8640 1.9808 0.9625
0.7922 2.0108 0.9625
0.7194 2.0383 0.9625
0.6456 2.0632 0.9624
0.5709 2.0853 0.9624
0.4955 2.1048 0.9623
0.4194 2.1215 0.9622
0.3427 2.1354 0.9620
0.2656 2.1466 0.9619
0.1882 2.1550 0.9617
0.1105 2.1606 0.9614
0.0326 2.1634 0.9612
-0.0453 2.1634 0.9609
-0.1232 2.1606 0.9606
-0.2009 2.1550 0.9603
-0.2784 2.1466 0.9599
-0.3555 2.1353 0.9596
-0.4322 2.1213 0.9592
-0.5083 2.1046 0.9587
-0.5837 2.0851 0.9583
-0.6585 2.0629 0.9578
-0.7323 2.0380 0.9573
-0.8052 2.0105 0.9568
-0.8771 1.9804 0.9563
-2.3723 4.8751 2.3922
-2.5478 4.7897 2.3922
-2.7202 4.6981 2.3922
-2.8894 4.6004 2.3922
-3.0550 4.4967 2.3922
-3.2170 4.3871 2.3922
-3.3750 4.2717 2.3922
-3.5290 4.1507 2.3922
-3.6786 4.0242 2.3922
-3.8237 3.8923 2.3922
-3.9640 3.7553 2.3922
-4.0995 3.6132 2.3922
-4.2299 3.4663 2.3922
-4.3551 3.3147 2.3922
-4.4748 3.1587 2.3922
-4.5889 2.9983 2.3922
-4.6973 2.8339 2.3922
-4.7998 2.6655 2.3922
-4.8962 2.4935 2.3922
-4.9865 2.3180 2.3922
-5.0705 2.1393 2.3922
-5.1480 1.9575 2.3922
-5.2189 1.7730 2.3922
-5.2833 1.5859 2.3922
-5.3408 1.3964 2.3922
-5.3916 1.2049 2.3922
-5.4354 1.0116 2.3922
-5.4723 0.8167 2.3922
-5.5021 0.6204 2.3922
-5.5248 0.4231 2.3922
-5.5403 0.2250 2.3922
-5.5487 0.0263 2.3922
-5.5499 -0.1726 2.3922
-5.5438 -0.3716 2.3922
-5.5306 -0.5703 2.3922
-5.5101 -0.7686 2.3922
-5.4825 -0.9660 2.3922
-5.4476 -1.1625 2.3922
-5.4057 -1.3576 2.3922
-5.3566 -1.5512 2.3922
-5.3005 -1.7429 2.3922
-5.2375 -1.9326 2.3922
-5.1675 -2.1199 2.3922
-5.0908 -2.3046 2.3922
-5.0073 -2.4865 2.3922
-4.9172 -2.6653 2.3922
-4.8207 -2.8407 2.3922
-4.7177 -3.0126 2.3922
-4.6086 -3.1806 2.3922
-4.4933 -3.3446 2.3922
-4.3721 -3.5043 2.3922
-4.2451 -3.6595 2.3922
-4.1125 -3.8101 2.3922
-3.9745 -3.9556 2.3922
-3.8312 -4.0961 2.3922
-3.6828 -4.2313 2.3922
-3.5296 -4.3609 2.3922
-3.3717 -4.4849 2.3922
-3.2094 -4.6031 2.3922
-3.0428 -4.7152 2.3922
-2.8723 -4.8212 2.3922
-2.6980 -4.9209 2.3922
-2.5202 -5.0141 2.3922
-2.3391 -5.1007 2.3922
-2.1549 -5.1807 2.3922
-1.9680 -5.2539 2.3922
-1.7785 -5.3202 2.3922
-1.5868 -5.3795 2.3922
-1.3930 -5.4317 2.3922
-1.1975 -5.4768 2.3922
-1.0006 -5.5148 2.3922
-0.8024 -5.5455 2.3922
-0.6033 -5.5690 2.3922
-0.4035 -5.5851 2.3922
-0.2033 -5.5940 2.3922
-0.0030 -5.5955 2.3922
0.1972 -5.5898 2.3922
0.3970 -5.5767 2.3922
0.5961 -5.5564 2.3922
0.7942 -5.5289 2.3922
0.9911 -5.4941 2.3922
1.1866 -5.4523 2.3922
1.3803 -5.4033 2.3922
1.5720 -5.3474 2.3922
1.7614 -5.2846 2.3922
1.9484 -5.2150 2.3922
2.1326 -5.1387 2.3922
2.3138 -5.0558 2.3922
2.4919 -4.9664 2.3922
2.6664 -4.8706 2.3922
2.8373 -4.7687 2.3922
3.0042 -4.6607 2.3922
3.1671 -4.5468 2.3922
3.3256 -4.4272 2.3922
3.4796 -4.3020 2.3922
3.6289 -4.1713 2.3922
3.7733 -4.0355 2.3922
3.9126 -3.8946 2.3922
4.0467 -3.7489 2.3922
4.1753 -3.5986 2.3922
4.2984 -3.4438 2.3922
4.4157 -3.2848 2.3922
4.5272 -3.1218 2.3922
4.6326 -2.9550 2.3922
4.7320 -2.7846 2.3922
4.8251 -2.6109 2.3922
4.9118 -2.4340 2.3922
4.9921 -2.2543 2.3922
5.0659 -2.0720 2.3922
5.1330 -1.8873 2.3922
5.1935 -1.7004 2.3922
5.2472 -1.5115 2.3922
5.2941 -1.3210 2.3922
5.3341 -1.1291 2.3922
5.3673 -0.9360 2.3922
5.3935 -0.7419 2.3922
5.4128 -0.5472 2.3922
5.4251 -0.3520 2.3922
5.4304 -0.1566 2.3922
5.4288 0.0387 2.3922
5.4203 0.2337 2.3922
5.4049 0.4282 2.3922
5.3825 0.6220 2.3922
5.3533 0.8147 2.3922
5.3173 1.0062 2.3922
5.2746 1.1961 2.3922
5.2252 1.3844 2.3922
5.1692 1.5706 2.3922
5.1066 1.7547 2.3922
5.0376 1.9364 2.3922
4.9622 2.1155 2.3922
4.8806 2.2917 2.3922
4.7929 2.4648 2.3922
4.6991 2.6347 2.3922
4.5994 2.8011 2.3922
4.4939 2.9638 2.3922
4.3827 3.1227 2.3922
4.2661 3.2774 2.3922
4.1441 3.4280 2.3922
4.0169 3.5741 2.3922
3.8847 3.7156 2.3922
3.7475 3.8523 2.3922
3.6057 3.9840 2.3922
3.4593 4.1107 2.3922
3.3086 4.2321 2.3922
3.1537 4.3481 2.3922
2.9948 4.4586 2.3922
2.8321 4.5634 2.3922
2.6658 4.6624 2.3922
2.4962 4.7554 2.3922
2.3234 4.8425 2.3922
0.8640 1.9808 0.9625
0.7922 2.0109 0.9625
0.7193 2.0383 0.9625
0.6455 2.0632 0.9624
0.5708 2.0853 0.9624
0.4954 2.1048 0.9623
0.4193 2.1215 0.9622
0.3427 2.1355 0.9620
0.2656 2.1466 0.9619
0.1881 2.1550 0.9617
0.1104 2.1607 0.9614
0.0325 2.1634 0.9612
-0.0454 2.1634 0.9609
-0.1233 2.1606 0.9606
-0.2010 2.1550 0.9603
-0.2785 2.1465 0.9599
-0.3556 2.1353 0.9596
-0.4322 2.1213 0.9592
-0.5083 2.1046 0.9587
-0.5838 2.0851 0.9583
-0.6585 2.0629 0.9578
-0.7323 2.0380 0.9573
-0.8052 2.0105 0.9568
-0.8771 1.9803 0.9563
-2.3725 4.8750 2.3922
-2.5479 4.7896 2.3922
-2.7203 4.6981 2.3922
-2.8895 4.6004 2.3922
-3.0551 4.4966 2.3922
-3.2171 4.3870 2.3922
-3.3751 4.2716 2.3922
-3.5291 4.1506 2.3922
-3.6787 4.0241 2.3922
-3.8238 3.8922 2.3922
-3.9641 3.7552 2.3922
-4.0996 3.6131 2.3922
-4.2300 3.4662 2.3922
-4.3552 3.3146 2.3922
-4.4749 3.1586 2.3922
-4.5890 2.9982 2.3922
-4.6974 2.8338 2.3922
-4.7999 2.6654 2.3922
-4.8963 2.4934 2.3922
-4.9866 2.3179 2.3922
-5.0705 2.1392 2.3922
-5.1480 1.9574 2.3922
-5.2190 1.7729 2.3922
-5.2833 1.5857 2.3922
-5.3409 1.3963 2.3922
-5.3916 1.2048 2.3922
-5.4354 1.0115 2.3922
-5.4723 0.8166 2.3922
-5.5021 0.6203 2.3922
-5.5248 0.4230 2.3922
-5.5403 0.2249 2.3922
-5.5487 0.0262 2.3922
-5.5499 -0.1727 2.3922
-5.5438 -0.3717 2.3922
-5.5306 -0.5705 2.3922
-5.5101 -0.7687 2.3922
-5.4825 -0.9662 2.3922
-5.4476 -1.1626 2.3922
-5.4057 -1.3577 2.3922
-5.3566 -1.5513 2.3922
-5.3005 -1.7431 2.3922
-5.2374 -1.9327 2.3922
-5.1675 -2.1200 2.3922
-5.0907 -2.3048 2.3922
-5.0073 -2.4866 2.3922
-4.9172 -2.6654 2.3922
-4.8206 -2.8408 2.3922
-4.7177 -3.0127 2.3922
-4.6085 -3.1807 2.3922
-4.4932 -3.3447 2.3922
-4.3720 -3.5044 2.3922
-4.2450 -3.6596 2.3922
-4.1124 -3.8101 2.3922
-3.9744 -3.9557 2.3922
-3.8311 -4.0962 2.3922
-3.6827 -4.2314 2.3922
-3.5295 -4.3610 2.3922
-3.3716 -4.4850 2.3922
-3.2093 -4.6031 2.3922
-3.0427 -4.7153 2.3922
-2.8722 -4.8213 2.3922
-2.6979 -4.9209 2.3922
-2.5201 -5.0141 2.3922
-2.3389 -5.1008 2.3922
-2.1548 -5.1807 2.3922
-1.9679 -5.2539 2.3922
-1.7784 -5.3202 2.3922
-1.5867 -5.3795 2.3922
-1.3929 -5.4317 2.3922
-1.1974 -5.4769 2.3922
-1.0004 -5.5148 2.3922
-0.8023 -5.5455 2.3922
-0.6031 -5.5690 2.3922
-0.4033 -5.5851 2.3922
-0.2032 -5.5940 2.3922
-0.0035 -5.2643 2.3922
0.1848 -5.2590 2.3922
0.3727 -5.2468 2.3922
0.5600 -5.2279 2.3922
0.7464 -5.2021 2.3922
0.9317 -5.1695 2.3922
1.1156 -5.1303 2.3922
1.2979 -5.0844 2.3922
1.4783 -5.0320 2.3922
1.6566 -4.9730 2.3922
1.8325 -4.9077 2.3922
2.0059 -4.8360 2.3922
2.1765 -4.7581 2.3922
2.3440 -4.6742 2.3922
2.5084 -4.5843 2.3922
2.6693 -4.4885 2.3922
2.8265 -4.3870 2.3922
2.9798 -4.2800 2.3922
3.1292 -4.1676 2.3922
3.2742 -4.0499 2.3922
3.4149 -3.9271 2.3922
3.5509 -3.7994 2.3922
3.6822 -3.6669 2.3922
3.8085 -3.5299 2.3922
3.9297 -3.3885 2.3922
4.0457 -3.2429 2.3922
4.1563 -3.0934 2.3922
4.2614 -2.9400 2.3922
4.3609 -2.7831 2.3922
4.4546 -2.6228 2.3922
4.5424 -2.4593 2.3922
4.6243 -2.2930 2.3922
4.7001 -2.1238 2.3922
4.7697 -1.9522 2.3922
4.8332 -1.7783 2.3922
4.8903 -1.6024 2.3922
4.9410 -1.4246 2.3922
4.9854 -1.2453 2.3922
5.0233 -1.0645 2.3922
5.0547 -0.8827 2.3922
5.0796 -0.6999 2.3922
5.0979 -0.5165 2.3922
5.1097 -0.3327 2.3922
5.1149 -0.1486 2.3922
5.1136 0.0354 2.3922
5.1057 0.2191 2.3922
5.0913 0.4024 2.3922
5.0704 0.5849 2.3922
5.0431 0.7665 2.3922
5.0093 0.9469 2.3922
4.9692 1.1259 2.3922
4.9228 1.3033 2.3922
4.8702 1.4789 2.3922
4.8113 1.6524 2.3922
4.7464 1.8236 2.3922
4.6755 1.9924 2.3922
4.5987 2.1585 2.3922
4.5161 2.3217 2.3922
4.4278 2.4818 2.3922
4.3340 2.6387 2.3922
4.2346 2.7921 2.3922
4.1300 2.9418 2.3922
4.0201 3.0878 2.3922
3.9052 3.2297 2.3922
3.7854 3.3674 2.3922
3.6608 3.5008 2.3922
3.5315 3.6297 2.3922
3.3979 3.7539 2.3922
3.2600 3.8733 2.3922
3.1179 3.9878 2.3922
2.9719 4.0971 2.3922
2.8222 4.2013 2.3922
2.6689 4.3001 2.3922
2.5122 4.3934 2.3922
2.3522 4.4811 2.3922
0.8796 1.8334 0.9612
0.8131 1.8641 0.9612
0.7455 1.8924 0.9612
0.6769 1.9182 0.9612
0.6074 1.9416 0.9612
0.5371 1.9625 0.9611
0.4661 1.9808 0.9610
0.3945 1.9965 0.9609
0.3224 2.0096 0.9608
0.2498 2.0201 0.9606
0.1769 2.0281 0.9605
0.1038 2.0333 0.9602
0.0305 2.0360 0.9600
-0.0429 2.0359 0.9597
-0.1162 2.0333 0.9595
-0.1893 2.0280 0.9592
-0.2623 2.0200 0.9588
-0.3349 2.0095 0.9585
-0.4070 1.9963 0.9581
-0.4786 1.9805 0.9577
-0.5497 1.9622 0.9573
-0.6200 1.9413 0.9568
-0.6895 1.9179 0.9564
-0.7581 1.8920 0.9559
-0.8258 1.8636 0.9554
-0.8923 1.8328 0.9549
-2.4007 4.5112 2.3922
-2.5631 4.4248 2.3922
-2.7223 4.3326 2.3922
-2.8783 4.2348 2.3922
-3.0308 4.1314 2.3922
-3.1795 4.0226 2.3922
-3.3244 3.9084 2.3922
-3.4652 3.7891 2.3922
-3.6017 3.6648 2.3922
-3.7338 3.5356 2.3922
-3.8612 3.4017 2.3922
-3.9839 3.2632 2.3922
-4.1016 3.1204 2.3922
-4.2141 2.9733 2.3922
-4.3214 2.8222 2.3922
-4.4233 2.6673 2.3922
-4.5196 2.5087 2.3922
-4.6103 2.3466 2.3922
-4.6951 2.1813 2.3922
-4.7739 2.0130 2.3922
-4.8467 1.8418 2.3922
-4.9133 1.6680 2.3922
-4.9737 1.4918 2.3922
-5.0277 1.3134 2.3922
-5.0753 1.1331 2.3922
-5.1163 0.9511 2.3922
-5.1508 0.7676 2.3922
-5.1787 0.5829 2.3922
-5.1998 0.3972 2.3922
-5.2143 0.2108 2.3922
-5.2220 0.0238 2.3922
-5.2229 -0.1634 2.3922
-5.2171 -0.3506 2.3922
-5.2045 -0.5376 2.3922
-5.1850 -0.7241 2.3922
-5.1589 -0.9099 2.3922
-5.1259 -1.0947 2.3922
-5.0863 -1.2782 2.3922
-5.0400 -1.4603 2.3922
-4.9871 -1.6407 2.3922
-4.9277 -1.8190 2.3922
-4.8617 -1.9952 2.3922
-4.7894 -2.1689 2.3922
-4.7108 -2.3400 2.3922
-4.6260 -2.5081 2.3922
-4.5350 -2.6731 2.3922
-4.4381 -2.8347 2.3922
-4.3354 -2.9927 2.3922
-4.2269 -3.1469 2.3922
-4.1128 -3.2970 2.3922
-3.9933 -3.4430 2.3922
-3.8685 -3.5845 2.3922
-3.7387 -3.7214 2.3922
-3.6038 -3.8535 2.3922
-3.4643 -3.9805 2.3922
-3.3201 -4.1025 2.3922
-3.1716 -4.2191 2.3922
-3.0190 -4.3302 2.3922
-2.8623 -4.4356 2.3922
-2.7019 -4.5353 2.3922
-2.5380 -4.6290 2.3922
-2.3708 -4.7167 2.3922
-2.2004 -4.7982 2.3922
-2.0273 -4.8734 2.3922
-1.8515 -4.9423 2.3922
-1.6733 -5.0047 2.3922
-1.4930 -5.0605 2.3922
-1.3108 -5.1097 2.3922
-1.1269 -5.1522 2.3922
-0.9417 -5.1879 2.3922
-0.7553 -5.2169 2.3922
-0.5680 -5.2390 2.3922
-0.3801 -5.2543 2.3922
-0.1918 -5.2627 2.3922
-0.0034 -5.2643 2.3922
0.1850 -5.2590 2.3922
0.3729 -5.2468 2.3922
0.5602 -5.2278 2.3922
0.7466 -5.2020 2.3922
0.9318 -5.1695 2.3922
1.1157 -5.1303 2.3922
1.2980 -5.0844 2.3922
1.4784 -5.0319 2.3922
1.6567 -4.9730 2.3922
1.8326 -4.9076 2.3922
2.0060 -4.8360 2.3922
2.1766 -4.7581 2.3922
2.3442 -4.6741 2.3922
2.5085 -4.5842 2.3922
2.6694 -4.4884 2.3922
2.8266 -4.3870 2.3922
2.9799 -4.2799 2.3922
3.1293 -4.1675 2.3922
3.2743 -4.0498 2.3922
3.4150 -3.9270 2.3922
3.5510 -3.7993 2.3922
3.6822 -3.6668 2.3922
3.8086 -3.5298 2.3922
3.9298 -3.3884 2.3922
4.0458 -3.2428 2.3922
4.1564 -3.0933 2.3922
4.2615 -2.9399 2.3922
4.3610 -2.7830 2.3922
4.4547 -2.6227 2.3922
4.5425 -2.4592 2.3922
4.6244 -2.2928 2.3922
4.7001 -2.1237 2.3922
4.7698 -1.9521 2.3922
4.8332 -1.7782 2.3922
4.8903 -1.6023 2.3922
4.9411 -1.4245 2.3922
4.9854 -1.2451 2.3922
5.0233 -1.0644 2.3922
5.0547 -0.8826 2.3922
5.0796 -0.6998 2.3922
5.0979 -0.5164 2.3922
5.1097 -0.3326 2.3922
5.1149 -0.1485 2.3922
5.1136 0.0355 2.3922
5.1057 0.2192 2.3922
5.0913 0.4025 2.3922
5.0704 0.5850 2.3922
5.0431 0.7666 2.3922
5.0093 0.9470 2.3922
4.9692 1.1260 2.3922
4.9228 1.3034 2.3922
4.8701 1.4790 2.3922
4.8113 1.6525 2.3922
4.7464 1.8237 2.3922
4.6755 1.9925 2.3922
4.5987 2.1586 2.3922
4.5161 2.3218 2.3922
4.4278 2.4819 2.3922
4.3339 2.6388 2.3922
4.2346 2.7922 2.3922
4.1299 2.9419 2.3922
4.0200 3.0879 2.3922
3.9051 3.2298 2.3922
3.7853 3.3675 2.3922
3.6607 3.5009 2.3922
3.5315 3.6298 2.3922
3.3978 3.7540 2.3922
3.2599 3.8734 2.3922
3.1178 3.9878 2.3922
2.9718 4.0972 2.3922
2.8221 4.2013 2.3922
2.6688 4.3001 2.3922
2.5121 4.3934 2.3922
2.3521 4.4811 2.3922
0.8796 1.8334 0.9612
0.8131 1.8641 0.9612
0.7454 1.8924 0.9612
0.6769 1.9183 0.9612
0.6074 1.9416 0.9612
0.5371 1.9625 0.9611
0.4661 1.9808 0.9610
0.3945 1.9965 0.9609
0.3223 2.0096 0.9608
0.2498 2.0202 0.9606
0.1769 2.0281 0.9605
0.1037 2.0333 0.9602
0.0304 2.0360 0.9600
-0.0429 2.0359 0.9597
-0.1162 2.0333 0.9595
-0.1894 2.0280 0.9592
-0.2623 2.0200 0.9588
-0.3349 2.0095 0.9585
-0.4071 1.9963 0.9581
-0.4787 1.9805 0.9577
-0.5497 1.9622 0.9573
-0.6200 1.9413 0.9568
-0.6895 1.9179 0.9564
-0.7582 1.8920 0.9559
-0.8258 1.8636 0.9554
-0.8924 1.8328 0.9549
-2.4009 4.5112 2.3922
-2.5632 4.4248 2.3922
-2.7224 4.3326 2.3922
-2.8784 4.2347 2.3922
-3.0309 4.1313 2.3922
-3.1796 4.0225 2.3922
-3.3245 3.9083 2.3922
-3.4653 3.7890 2.3922
-3.6018 3.6647 2.3922
-3.7339 3.5355 2.3922
-3.8613 3.4016 2.3922
-3.9840 3.2631 2.3922
-4.1016 3.1203 2.3922
-4.2142 2.9732 2.3922
-4.3215 2.8221 2.3922
-4.4234 2.6672 2.3922
-4.5197 2.5086 2.3922
-4.6103 2.3465 2.3922
-4.6951 2.1812 2.3922
-4.7740 2.0129 2.3922
-4.8467 1.8417 2.3922
-4.9134 1.6679 2.3922
-4.9737 1.4917 2.3922
-5.0277 1.3133 2.3922
-5.0753 1.1330 2.3922
-5.1163 0.9510 2.3922
-5.1508 0.7675 2.3922
-5.1787 0.5828 2.3922
-5.1999 0.3971 2.3922
-5.2143 0.2106 2.3922
-5.2220 0.0237 2.3922
-5.2229 -0.1635 2.3922
-5.2171 -0.3508 2.3922
-5.2044 -0.5378 2.3922
-5.1850 -0.7243 2.3922
-5.1588 -0.9100 2.3922
-5.1259 -1.0948 2.3922
-5.0863 -1.2784 2.3922
-5.0400 -1.4604 2.3922
-4.9871 -1.6408 2.3922
-4.9276 -1.8192 2.3922
-4.8617 -1.9953 2.3922
-4.7894 -2.1690 2.3922
-4.7107 -2.3401 2.3922
-4.6259 -2.5082 2.3922
-4.5350 -2.6732 2.3922
-4.4381 -2.8348 2.3922
-4.3353 -2.9928 2.3922
-4.2268 -3.1470 2.3922
-4.1127 -3.2971 2.3922
-3.9932 -3.4431 2.3922
-3.8684 -3.5846 2.3922
-3.7386 -3.7215 2.3922
-3.6037 -3.8535 2.3922
-3.4642 -3.9806 2.3922
-3.3200 -4.1026 2.3922
-3.1715 -4.2191 2.3922
-3.0189 -4.3302 2.3922
-2.8622 -4.4357 2.3922
-2.7018 -4.5353 2.3922
-2.5379 -4.6291 2.3922
-2.3707 -4.7167 2.3922
-2.2003 -4.7982 2.3922
-2.0271 -4.8735 2.3922
-1.8513 -4.9423 2.3922
-1.6732 -5.0047 2.3922
-1.4928 -5.0605 2.3922
-1.3106 -5.1097 2.3922
-1.1268 -5.1522 2.3922
-0.9415 -5.1879 2.3922
-0.7551 -5.2169 2.3922
-0.5679 -5.2390 2.3922
-0.3799 -5.2543 2.3922
-0.1917 -5.2627 2.3922
-0.0038 -4.9644 2.3922
0.1737 -4.9594 2.3922
0.3509 -4.9481 2.3922
0.5275 -4.9303 2.3922
0.7033 -4.9061 2.3922
0.8780 -4.8755 2.3922
1.0514 -4.8386 2.3922
1.2233 -4.7955 2.3922
1.3935 -4.7461 2.3922
1.5616 -4.6907 2.3922
1.7276 -4.6292 2.3922
1.8912 -4.5617 2.3922
2.0521 -4.4884 2.3922
2.2102 -4.4094 2.3922
2.3653 -4.3247 2.3922
2.5171 -4.2345 2.3922
2.6655 -4.1389 2.3922
2.8102 -4.0381 2.3922
2.9512 -3.9322 2.3922
3.0881 -3.8213 2.3922
3.2209 -3.7056 2.3922
3.3493 -3.5852 2.3922
3.4733 -3.4604 2.3922
3.5926 -3.3312 2.3922
3.7071 -3.1979 2.3922
3.8167 -3.0607 2.3922
3.9212 -2.9197 2.3922
4.0205 -2.7751 2.3922
4.1145 -2.6271 2.3922
4.2030 -2.4759 2.3922
4.2861 -2.3218 2.3922
4.3635 -2.1648 2.3922
4.4352 -2.0053 2.3922
4.5010 -1.8434 2.3922
4.5611 -1.6793 2.3922
4.6151 -1.5133 2.3922
4.6632 -1.3456 2.3922
4.7052 -1.1763 2.3922
4.7411 -1.0058 2.3922
4.7709 -0.8342 2.3922
4.7946 -0.6617 2.3922
4.8120 -0.4886 2.3922
4.8233 -0.3150 2.3922
4.8284 -0.1413 2.3922
4.8273 0.0325 2.3922
4.8200 0.2059 2.3922
4.8066 0.3790 2.3922
4.7870 0.5513 2.3922
4.7613 0.7228 2.3922
4.7295 0.8932 2.3922
4.6918 1.0622 2.3922
4.6481 1.2298 2.3922
4.5985 1.3956 2.3922
4.5430 1.5595 2.3922
4.4818 1.7212 2.3922
4.4150 1.8806 2.3922
4.3425 2.0375 2.3922
4.2646 2.1917 2.3922
4.1813 2.3430 2.3922
4.0927 2.4912 2.3922
3.9989 2.6361 2.3922
3.9001 2.7776 2.3922
3.7964 2.9154 2.3922
3.6879 3.0495 2.3922
3.5748 3.1797 2.3922
3.4572 3.3057 2.3922
3.3351 3.4274 2.3922
3.2089 3.5448 2.3922
3.0787 3.6576 2.3922
2.9445 3.7657 2.3922
2.8066 3.8691 2.3922
2.6652 3.9674 2.3922
2.5204 4.0607 2.3922
2.3724 4.1489 2.3922
0.8914 1.6981 0.9600
0.8297 1.7293 0.9600
0.7669 1.7583 0.9601
0.7031 1.7850 0.9601
0.6384 1.8094 0.9601
0.5728 1.8314 0.9601
0.5065 1.8511 0.9600
0.4396 1.8683 0.9599
0.3720 1.8831 0.9598
0.3039 1.8955 0.9597
0.2355 1.9055 0.9595
0.1667 1.9129 0.9594
0.0977 1.9179 0.9592
0.0285 1.9204 0.9589
-0.0407 1.9203 0.9587
-0.1098 1.9178 0.9584
-0.1788 1.9128 0.9581
-0.2476 1.9053 0.9578
-0.3161 1.8954 0.9575
-0.3842 1.8829 0.9571
-0.4518 1.8681 0.9568
-0.5188 1.8508 0.9564
-0.5851 1.8310 0.9560
-0.6507 1.8090 0.9555
-0.7154 1.7845 0.9551
-0.7792 1.7578 0.9546
-0.8420 1.7287 0.9541
-0.9037 1.6975 0.9536
-2.4204 4.1766 2.3922
-2.5707 4.0895 2.3922
-2.7178 3.9970 2.3922
-2.8617 3.8992 2.3922
-3.0020 3.7964 2.3922
-3.1387 3.6885 2.3922
-3.2714 3.5758 2.3922
-3.4002 3.4583 2.3922
-3.5248 3.3363 2.3922
-3.6449 3.2098 2.3922
-3.7606 3.0789 2.3922
-3.8715 2.9440 2.3922
-3.9776 2.8051 2.3922
-4.0787 2.6624 2.3922
-4.1747 2.5161 2.3922
-4.2655 2.3664 2.3922
-4.3509 2.2134 2.3922
-4.4307 2.0573 2.3922
-4.5050 1.8984 2.3922
-4.5735 1.7368 2.3922
-4.6362 1.5728 2.3922
-4.6930 1.4065 2.3922
-4.7437 1.2382 2.3922
-4.7885 1.0680 2.3922
-4.8270 0.8963 2.3922
-4.8594 0.7232 2.3922
-4.8855 0.5489 2.3922
-4.9053 0.3737 2.3922
-4.9188 0.1978 2.3922
-4.9259 0.0215 2.3922
-4.9267 -0.1551 2.3922
-4.9210 -0.3317 2.3922
-4.9089 -0.5080 2.3922
-4.8905 -0.6839 2.3922
-4.8657 -0.8590 2.3922
-4.8345 -1.0333 2.3922
-4.7970 -1.2063 2.3922
-4.7532 -1.3780 2.3922
-4.7032 -1.5480 2.3922
-4.6470 -1.7162 2.3922
-4.5848 -1.8823 2.3922
-4.5165 -2.0460 2.3922
-4.4423 -2.2073 2.3922
-4.3622 -2.3657 2.3922
-4.2764 -2.5212 2.3922
-4.1849 -2.6736 2.3922
-4.0880 -2.8225 2.3922
-3.9856 -2.9678 2.3922
-3.8780 -3.1093 2.3922
-3.7653 -3.2469 2.3922
-3.6476 -3.3803 2.3922
-3.5252 -3.5093 2.3922
-3.3980 -3.6338 2.3922
-3.2664 -3.7536 2.3922
-3.1305 -3.8685 2.3922
-2.9905 -3.9784 2.3922
-2.8466 -4.0831 2.3922
-2.6989 -4.1825 2.3922
-2.5477 -4.2764 2.3922
-2.3932 -4.3648 2.3922
-2.2355 -4.4475 2.3922
-2.0749 -4.5243 2.3922
-1.9117 -4.5952 2.3922
-1.7460 -4.6602 2.3922
-1.5780 -4.7190 2.3922
-1.4080 -4.7717 2.3922
-1.2363 -4.8181 2.3922
-1.0629 -4.8582 2.3922
-0.8883 -4.8920 2.3922
-0.7126 -4.9193 2.3922
-0.5360 -4.9403 2.3922
-0.3589 -4.9548 2.3922
-0.1814 -4.9628 2.3922
-0.0037 -4.9644 2.3922
0.1738 -4.9594 2.3922
0.3510 -4.9481 2.3922
0.5276 -4.9303 2.3922
0.7034 -4.9060 2.3922
0.8781 -4.8755 2.3922
1.0515 -4.8386 2.3922
1.2234 -4.7954 2.3922
1.3936 -4.7461 2.3922
1.5618 -4.6906 2.3922
1.7277 -4.6291 2.3922
1.8913 -4.5617 2.3922
2.0522 -4.4884 2.3922
2.2103 -4.4093 2.3922
2.3654 -4.3246 2.3922
2.5172 -4.2344 2.3922
2.6656 -4.1389 2.3922
2.8103 -4.0380 2.3922
2.9512 -3.9321 2.3922
3.0882 -3.8212 2.3922
3.2210 -3.7055 2.3922
3.3494 -3.5851 2.3922
3.4734 -3.4603 2.3922
3.5927 -3.3311 2.3922
3.7072 -3.1979 2.3922
3.8167 -3.0606 2.3922
3.9212 -2.9196 2.3922
4.0205 -2.7750 2.3922
4.1145 -2.6270 2.3922
4.2031 -2.4758 2.3922
4.2861 -2.3217 2.3922
4.3635 -2.1647 2.3922
4.4352 -2.0052 2.3922
4.5011 -1.8433 2.3922
4.5611 -1.6792 2.3922
4.6152 -1.5132 2.3922
4.6632 -1.3455 2.3922
4.7052 -1.1762 2.3922
4.7412 -1.0057 2.3922
4.7710 -0.8340 2.3922
4.7946 -0.6616 2.3922
4.8121 -0.4884 2.3922
4.8233 -0.3149 2.3922
4.8284 -0.1412 2.3922
4.8273 0.0326 2.3922
4.8200 0.2061 2.3922
4.8065 0.3791 2.3922
4.7870 0.5514 2.3922
4.7613 0.7229 2.3922
4.7295 0.8933 2.3922
4.6918 1.0623 2.3922
4.6480 1.2299 2.3922
4.5984 1.3957 2.3922
4.5430 1.5596 2.3922
4.4818 1.7213 2.3922
4.4149 1.8808 2.3922
4.3425 2.0376 2.3922
4.2645 2.1918 2.3922
4.1812 2.3431 2.3922
4.0926 2.4913 2.3922
3.9989 2.6362 2.3922
3.9001 2.7777 2.3922
3.7964 2.9155 2.3922
3.6879 3.0496 2.3922
3.5747 3.1797 2.3922
3.4571 3.3058 2.3922
3.3351 3.4275 2.3922
3.2088 3.5449 2.3922
3.0786 3.6577 2.3922
2.9444 3.7658 2.3922
2.8065 3.8691 2.3922
2.6651 3.9675 2.3922
2.5203 4.0608 2.3922
2.3723 4.1489 2.3922
0.8913 1.6981 0.9600
0.8296 1.7293 0.9600
0.7669 1.7583 0.9601
0.7031 1.7850 0.9601
0.6384 1.8094 0.9601
0.5728 1.8314 0.9601
0.5065 1.8511 0.9600
0.4395 1.8683 0.9599
0.3719 1.8832 0.9598
0.3039 1.8955 0.9597
0.2354 1.9055 0.9595
0.1666 1.9129 0.9594
0.0976 1.9179 0.9592
0.0285 1.9204 0.9589
-0.0407 1.9203 0.9587
-0.1099 1.9178 0.9584
-0.1789 1.9128 0.9581
-0.2477 1.9053 0.9578
-0.3162 1.8954 0.9575
-0.3842 1.8829 0.9571
-0.4518 1.8680 0.9568
-0.5188 1.8507 0.9564
-0.5851 1.8310 0.9560
-0.6507 1.8089 0.9555
-0.7155 1.7845 0.9551
-0.7793 1.7578 0.9546
-0.8421 1.7287 0.9541
-0.9038 1.6974 0.9536
-2.4205 4.1766 2.3922
-2.5708 4.0894 2.3922
-2.7179 3.9969 2.3922
-2.8618 3.8992 2.3922
-3.0021 3.7963 2.3922
-3.1387 3.6884 2.3922
-3.2715 3.5757 2.3922
-3.4003 3.4582 2.3922
-3.5248 3.3362 2.3922
-3.6450 3.2097 2.3922
-3.7606 3.0789 2.3922
-3.8716 2.9439 2.3922
-3.9777 2.8050 2.3922
-4.0788 2.6623 2.3922
-4.1748 2.5160 2.3922
-4.2655 2.3663 2.3922
-4.3509 2.2133 2.3922
-4.4308 2.0572 2.3922
-4.5050 1.8983 2.3922
-4.5735 1.7367 2.3922
-4.6362 1.5727 2.3922
-4.6930 1.4064 2.3922
-4.7438 1.2381 2.3922
-4.7885 1.0679 2.3922
-4.8271 0.8962 2.3922
-4.8594 0.7231 2.3922
-4.8855 0.5488 2.3922
-4.9054 0.3736 2.3922
-4.9188 0.1977 2.3922
-4.9259 0.0214 2.3922
-4.9267 -0.1552 2.3922
-4.9210 -0.3318 2.3922
-4.9089 -0.5081 2.3922
-4.8905 -0.6840 2.3922
-4.8656 -0.8592 2.3922
-4.8344 -1.0334 2.3922
-4.7969 -1.2065 2.3922
-4.7532 -1.3781 2.3922
-4.7032 -1.5482 2.3922
-4.6470 -1.7163 2.3922
-4.5847 -1.8824 2.3922
-4.5164 -2.0461 2.3922
-4.4422 -2.2074 2.3922
-4.3621 -2.3658 2.3922
-4.2763 -2.5213 2.3922
-4.1849 -2.6736 2.3922
-4.0879 -2.8226 2.3922
-3.9856 -2.9679 2.3922
-3.8780 -3.1094 2.3922
-3.7652 -3.2470 2.3922
-3.6476 -3.3804 2.3922
-3.5251 -3.5094 2.3922
-3.3980 -3.6339 2.3922
-3.2664 -3.7536 2.3922
-3.1304 -3.8685 2.3922
-2.9904 -3.9784 2.3922
-2.8465 -4.0831 2.3922
-2.6988 -4.1825 2.3922
-2.5476 -4.2765 2.3922
-2.3931 -4.3648 2.3922
-2.2354 -4.4475 2.3922
-2.0748 -4.5244 2.3922
-1.9116 -4.5953 2.3922
-1.7459 -4.6602 2.3922
-1.5779 -4.7190 2.3922
-1.4079 -4.7717 2.3922
-1.2362 -4.8181 2.3922
-1.0628 -4.8582 2.3922
-0.8882 -4.8920 2.3922
-0.7125 -4.9194 2.3922
-0.5359 -4.9403 2.3922
-0.3588 -4.9548 2.3922
-0.1812 -4.9628 2.3922
-0.0041 -4.6912 2.3922
0.1636 -4.6866 2.3922
0.3310 -4.6760 2.3922
0.4979 -4.6592 2.3922
0.6640 -4.6365 2.3922
0.8291 -4.6077 2.3922
0.9930 -4.5729 2.3922
1.1554 -4.5322 2.3922
1.3162 -4.4857 2.3922
1.4752 -4.4334 2.3922
1.6321 -4.3754 2.3922
1.7867 -4.3118 2.3922
1.9388 -4.2426 2.3922
2.0883 -4.1681 2.3922
2.2349 -4.0881 2.3922
2.3784 -4.0030 2.3922
2.5187 -3.9128 2.3922
2.6556 -3.8176 2.3922
2.7889 -3.7176 2.3922
2.9184 -3.6129 2.3922
3.0440 -3.5036 2.3922
3.1655 -3.3900 2.3922
3.2828 -3.2721 2.3922
3.3957 -3.1501 2.3922
3.5041 -3.0242 2.3922
3.6078 -2.8945 2.3922
3.7067 -2.7613 2.3922
3.8007 -2.6247 2.3922
3.8897 -2.4848 2.3922
3.9736 -2.3420 2.3922
4.0522 -2.1963 2.3922
4.1255 -2.0479 2.3922
4.1934 -1.8972 2.3922
4.2559 -1.7441 2.3922
4.3128 -1.5890 2.3922
4.3640 -1.4321 2.3922
4.4096 -1.2735 2.3922
4.4495 -1.1134 2.3922
4.4836 -0.9522 2.3922
4.5119 -0.7899 2.3922
4.5344 -0.6268 2.3922
4.5511 -0.4630 2.3922
4.5619 -0.2989 2.3922
4.5668 -0.1345 2.3922
4.5659 0.0298 2.3922
4.5591 0.1939 2.3922
4.5465 0.3576 2.3922
4.5281 0.5207 2.3922
4.5039 0.6829 2.3922
4.4740 0.8441 2.3922
4.4384 1.0041 2.3922
4.3971 1.1626 2.3922
4.3503 1.3195 2.3922
4.2979 1.4746 2.3922
4.2401 1.6277 2.3922
4.1769 1.7786 2.3922
4.1084 1.9271 2.3922
4.0348 2.0730 2.3922
3.9560 2.2162 2.3922
3.8722 2.3564 2.3922
3.7836 2.4936 2.3922
3.6902 2.6275 2.3922
3.5921 2.7580 2.3922
3.4894 2.8849 2.3922
3.3824 3.0081 2.3922
3.2711 3.1274 2.3922
3.1557 3.2426 2.3922
3.0362 3.3537 2.3922
2.9130 3.4605 2.3922
2.7860 3.5628 2.3922
2.6556 3.6606 2.3922
2.5218 3.7537 2.3922
2.3847 3.8421 2.3922
0.8997 1.5734 0.9588
0.8425 1.6050 0.9589
0.7841 1.6345 0.9590
0.7248 1.6618 0.9590
0.6645 1.6871 0.9591
0.6033 1.7101 0.9590
0.5413 1.7309 0.9590
0.4786 1.7495 0.9590
0.4153 1.7658 0.9589
0.3514 1.7798 0.9588
0.2871 1.7915 0.9587
0.2224 1.8009 0.9585
0.1574 1.8079 0.9584
0.0921 1.8126 0.9582
0.0268 1.8150 0.9580
-0.0387 1.8149 0.9577
-0.1040 1.8126 0.9575
-0.1693 1.8078 0.9572
-0.2343 1.8007 0.9569
-0.2990 1.7913 0.9566
-0.3634 1.7796 0.9563
-0.4273 1.7655 0.9559
-0.4906 1.7492 0.9555
-0.5533 1.7305 0.9551
-0.6153 1.7097 0.9547
-0.6765 1.6866 0.9543
-0.7368 1.6613 0.9539
-0.7962 1.6338 0.9534
-0.8545 1.6043 0.9529
-0.9118 1.5726 0.9524
-2.4322 3.8674 2.3922
-2.5713 3.7798 2.3922
-2.7073 3.6873 2.3922
-2.8400 3.5899 2.3922
-2.9691 3.4878 2.3922
-3.0946 3.3810 2.3922
-3.2163 3.2698 2.3922
-3.3340 3.1543 2.3922
-3.4476 3.0346 2.3922
-3.5568 2.9108 2.3922
-3.6616 2.7831 2.3922
-3.7618 2.6517 2.3922
-3.8573 2.5166 2.3922
-3.9480 2.3782 2.3922
-4.0337 2.2365 2.3922
-4.1142 2.0918 2.3922
-4.1896 1.9442 2.3922
-4.2597 1.7939 2.3922
-4.3243 1.6411 2.3922
-4.3834 1.4859 2.3922
-4.4370 1.3287 2.3922
-4.4849 1.1695 2.3922
-4.5270 1.0087 2.3922
-4.5633 0.8463 2.3922
-4.5938 0.6827 2.3922
-4.6183 0.5179 2.3922
-4.6369 0.3523 2.3922
-4.6495 0.1861 2.3922
-4.6561 0.0194 2.3922
-4.6567 -0.1475 2.3922
-4.6512 -0.3144 2.3922
-4.6397 -0.4810 2.3922
-4.6221 -0.6472 2.3922
-4.5985 -0.8127 2.3922
-4.5689 -0.9773 2.3922
-4.5334 -1.1409 2.3922
-4.4919 -1.3030 2.3922
-4.4446 -1.4637 2.3922
