ply
format ascii 1.0
element vertex 2168
property float32 x
property float32 y
property float32 z
end_header
7.3269 1.7030 2.3878
7.2450 1.9549 2.3878
7.1526 2.2027 2.3878
7.0502 2.4459 2.3878
6.9379 2.6840 2.3878
6.8161 2.9167 2.3878
6.6851 3.1435 2.3878
6.5451 3.3641 2.3878
6.3967 3.5782 2.3878
6.2401 3.7853 2.3878
6.0758 3.9852 2.3878
5.9040 4.1776 2.3878
5.7253 4.3623 2.3878
5.5401 4.5389 2.3878
5.3487 4.7074 2.3878
5.1516 4.8674 2.3878
4.9492 5.0190 2.3878
4.7420 5.1618 2.3878
4.5304 5.2958 2.3878
4.3147 5.4210 2.3878
4.0954 5.5372 2.3878
3.8730 5.6444 2.3878
3.6478 5.7426 2.3878
3.4202 5.8317 2.3878
3.1907 5.9118 2.3878
2.9596 5.9830 2.3878
2.7273 6.0451 2.3878
0.9407 2.3000 0.9006
0.8577 2.3305 0.9059
0.7736 2.3580 0.9113
0.6885 2.3824 0.9167
0.6026 2.4038 0.9222
0.5160 2.4220 0.9277
0.4288 2.4371 0.9331
0.3411 2.4490 0.9386
0.2531 2.4577 0.9442
0.1647 2.4632 0.9497
0.0762 2.4656 0.9551
-0.0123 2.4647 0.9606
-0.1007 2.4606 0.9660
-0.1890 2.4534 0.9714
-0.2769 2.4429 0.9768
-0.3644 2.4293 0.9821
-0.4513 2.4125 0.9874
-0.5376 2.3926 0.9926
-0.6231 2.3696 0.9977
-0.7078 2.3435 1.0028
-0.7914 2.3143 1.0077
-2.0607 5.3816 2.3878
-2.2419 5.2738 2.3878
-2.4185 5.1608 2.3878
-2.5904 5.0427 2.3878
-2.7576 4.9197 2.3878
-2.9199 4.7919 2.3878
-3.0772 4.6596 2.3878
-3.2296 4.5229 2.3878
-3.3768 4.3820 2.3878
-3.5188 4.2371 2.3878
-3.6555 4.0883 2.3878
-3.7870 3.9359 2.3878
-3.9130 3.7800 2.3878
-4.0336 3.6207 2.3878
-4.1487 3.4583 2.3878
-4.2582 3.2928 2.3878
-4.3622 3.1245 2.3878
-4.4605 2.9536 2.3878
-4.5532 2.7801 2.3878
-4.6402 2.6043 2.3878
-4.7214 2.4265 2.3878
-4.7969 2.2461 2.3878
-4.8666 2.0641 2.3878
-4.9305 1.8804 2.3878
-4.9885 1.6950 2.3878
-5.0406 1.5082 2.3878
-5.0869 1.3201 2.3878
-5.1273 1.1308 2.3878
-5.1618 0.9406 2.3878
-5.1903 0.7494 2.3878
-5.2129 0.5576 2.3878
-5.2295 0.3651 2.3878
-5.2401 0.1722 2.3878
-5.2448 -0.0209 2.3878
-5.2435 -0.2142 2.3878
-5.2361 -0.4075 2.3878
-5.2228 -0.6006 2.3878
-5.2034 -0.7934 2.3878
-5.1781 -0.9858 2.3878
-5.1467 -1.1775 2.3878
-5.1093 -1.3686 2.3878
-5.0659 -1.5586 2.3878
-5.0165 -1.7477 2.3878
-4.9611 -1.9356 2.3878
-4.8997 -2.1221 2.3878
-4.8323 -2.3070 2.3878
-4.7589 -2.4903 2.3878
-4.6796 -2.6717 2.3878
-4.5943 -2.8510 2.3878
-4.5031 -3.0282 2.3878
-4.4060 -3.2031 2.3878
-4.3030 -3.3754 2.3878
-4.1941 -3.5450 2.3878
-4.0795 -3.7117 2.3878
-3.9591 -3.8754 2.3878
-3.8330 -4.0357 2.3878
-3.7012 -4.1927 2.3878
-3.5637 -4.3461 2.3878
-3.4208 -4.4956 2.3878
-3.2723 -4.6411 2.3878
-3.1184 -4.7824 2.3878
-2.9591 -4.9193 2.3878
-2.7946 -5.0515 2.3878
-2.6249 -5.1790 2.3878
-2.4502 -5.3014 2.3878
-2.2705 -5.4186 2.3878
-2.0860 -5.5304 2.3878
-1.8967 -5.6366 2.3878
-1.7029 -5.7368 2.3878
-1.5047 -5.8310 2.3878
-1.3023 -5.9190 2.3878
-1.0957 -6.0004 2.3878
-0.8853 -6.0752 2.3878
-0.6711 -6.1431 2.3878
-0.4535 -6.2039 2.3878
-0.2325 -6.2573 2.3878
-0.0085 -6.3033 2.3878
0.2184 -6.3416 2.3878
0.4478 -6.3720 2.3878
0.6795 -6.3943 2.3878
0.9132 -6.4084 2.3878
1.1486 -6.4141 2.3878
1.3855 -6.4113 2.3878
1.6234 -6.3998 2.3878
1.8621 -6.3794 2.3878
2.1012 -6.3500 2.3878
2.3403 -6.3116 2.3878
2.5791 -6.2641 2.3878
2.8173 -6.2073 2.3878
3.0543 -6.1411 2.3878
3.2898 -6.0657 2.3878
3.5234 -5.9808 2.3878
3.7547 -5.8866 2.3878
3.9832 -5.7829 2.3878
4.2085 -5.6699 2.3878
4.4302 -5.5477 2.3878
4.6477 -5.4162 2.3878
-4.9258 -0.5579 2.3878
-4.9076 -0.7400 2.3878
-4.8836 -0.9217 2.3878
-4.8539 -1.1028 2.3878
-4.8185 -1.2831 2.3878
-4.7774 -1.4627 2.3878
-4.7305 -1.6409 2.3878
-4.6780 -1.8181 2.3878
-4.6197 -1.9940 2.3878
-4.5558 -2.1683 2.3878
-4.4862 -2.3410 2.3878
-4.4109 -2.5119 2.3878
-4.3300 -2.6808 2.3878
-4.2435 -2.8476 2.3878
-4.1515 -3.0121 2.3878
-4.0539 -3.1741 2.3878
-3.9508 -3.3335 2.3878
-3.8422 -3.4901 2.3878
-3.7281 -3.6437 2.3878
-3.6088 -3.7941 2.3878
-3.4840 -3.9412 2.3878
-3.3540 -4.0848 2.3878
-3.2188 -4.2247 2.3878
-3.0785 -4.3608 2.3878
-2.9331 -4.4928 2.3878
-2.7827 -4.6205 2.3878
-2.6275 -4.7438 2.3878
-2.4674 -4.8625 2.3878
-2.3027 -4.9763 2.3878
-2.1334 -5.0852 2.3878
-1.9596 -5.1889 2.3878
-1.7816 -5.2871 2.3878
-1.5993 -5.3798 2.3878
-1.4130 -5.4667 2.3878
-1.2228 -5.5477 2.3878
-1.0288 -5.6225 2.3878
-0.8314 -5.6909 2.3878
-0.6306 -5.7528 2.3878
-0.4266 -5.8080 2.3878
-0.2197 -5.8563 2.3878
-0.0101 -5.8976 2.3878
0.2021 -5.9316 2.3878
0.4165 -5.9582 2.3878
0.6328 -5.9772 2.3878
0.8510 -5.9885 2.3878
1.0705 -5.9920 2.3878
1.2913 -5.9875 2.3878
1.5129 -5.9749 2.3878
1.7350 -5.9540 2.3878
1.9574 -5.9248 2.3878
2.1796 -5.8872 2.3878
2.4014 -5.8411 2.3878
2.6224 -5.7865 2.3878
2.8423 -5.7232 2.3878
3.0606 -5.6513 2.3878
3.2771 -5.5707 2.3878
3.4912 -5.4815 2.3878
3.7026 -5.3837 2.3878
3.9110 -5.2772 2.3878
4.1158 -5.1623 2.3878
4.3169 -5.0389 2.3878
4.5136 -4.9071 2.3878
4.7056 -4.7671 2.3878
4.8926 -4.6191 2.3878
5.0741 -4.4631 2.3878
5.2498 -4.2994 2.3878
5.4191 -4.1283 2.3878
5.5819 -3.9498 2.3878
5.7376 -3.7644 2.3878
5.8860 -3.5722 2.3878
6.0267 -3.3737 2.3878
6.1593 -3.1690 2.3878
6.2836 -2.9585 2.3878
6.3993 -2.7427 2.3878
6.5060 -2.5218 2.3878
6.6035 -2.2964 2.3878
6.6915 -2.0667 2.3878
6.7700 -1.8333 2.3878
6.8386 -1.5965 2.3878
6.8972 -1.3569 2.3878
6.9456 -1.1149 2.3878
6.9838 -0.8709 2.3878
7.0116 -0.6255 2.3878
7.0290 -0.3791 2.3878
7.0360 -0.1322 2.3878
7.0325 0.1147 2.3878
7.0186 0.3612 2.3878
6.9943 0.6066 2.3878
6.9597 0.8506 2.3878
6.9149 1.0927 2.3878
6.8601 1.3324 2.3878
6.7953 1.5692 2.3878
6.7208 1.8028 2.3878
6.6367 2.0327 2.3878
6.5434 2.2584 2.3878
6.4409 2.4797 2.3878
6.3297 2.6960 2.3878
6.2100 2.9070 2.3878
6.0820 3.1124 2.3878
5.9461 3.3119 2.3878
5.8027 3.5051 2.3878
5.6520 3.6918 2.3878
5.4945 3.8716 2.3878
5.3304 4.0445 2.3878
5.1602 4.2100 2.3878
4.9842 4.3681 2.3878
4.8029 4.5186 2.3878
4.6165 4.6612 2.3878
4.4254 4.7959 2.3878
4.2302 4.9226 2.3878
4.0310 5.0411 2.3878
3.8284 5.1514 2.3878
3.6227 5.2534 2.3878
3.4143 5.3471 2.3878
3.2035 5.4324 2.3878
2.9907 5.5094 2.3878
2.7763 5.5781 2.3878
0.9629 2.1204 0.8980
0.8863 2.1518 0.9029
0.8086 2.1804 0.9079
0.7299 2.2062 0.9130
0.6503 2.2291 0.9180
0.5700 2.2492 0.9231
0.4889 2.2663 0.9283
0.4073 2.2805 0.9334
0.3252 2.2917 0.9386
0.2428 2.2999 0.9437
0.1601 2.3052 0.9489
0.0773 2.3075 0.9540
-0.0056 2.3067 0.9591
-0.0883 2.3030 0.9642
-0.1709 2.2963 0.9693
-0.2532 2.2866 0.9743
-0.3351 2.2739 0.9793
-0.4165 2.2583 0.9842
-0.4973 2.2397 0.9890
-0.5774 2.2183 0.9938
-0.6566 2.1939 0.9986
-0.7349 2.1667 1.0032
-0.8122 2.1367 1.0078
-2.0954 4.9628 2.3878
-2.2623 4.8579 2.3878
-2.4249 4.7482 2.3878
-2.5830 4.6337 2.3878
-2.7367 4.5147 2.3878
-2.8857 4.3913 2.3878
-3.0300 4.2637 2.3878
-3.1696 4.1320 2.3878
-3.3043 3.9964 2.3878
-3.4340 3.8571 2.3878
-3.5588 3.7142 2.3878
-3.6785 3.5680 2.3878
-3.7930 3.4185 2.3878
-3.9024 3.2659 2.3878
-4.0066 3.1104 2.3878
-4.1054 2.9522 2.3878
-4.1990 2.7913 2.3878
-4.2872 2.6280 2.3878
-4.3700 2.4624 2.3878
-4.4473 2.2946 2.3878
-4.5192 2.1248 2.3878
-4.5856 1.9532 2.3878
-4.6464 1.7799 2.3878
-4.7017 1.6050 2.3878
-4.7515 1.4287 2.3878
-4.7956 1.2512 2.3878
-4.8341 1.0725 2.3878
-4.8670 0.8928 2.3878
-4.8942 0.7123 2.3878
-4.9157 0.5310 2.3878
-4.9316 0.3493 2.3878
-4.9418 0.1671 2.3878
-4.9462 -0.0154 2.3878
-4.9450 -0.1979 2.3878
-4.9381 -0.3805 2.3878
-4.9254 -0.5629 2.3878
-4.9070 -0.7450 2.3878
-4.8829 -0.9266 2.3878
-4.8530 -1.1077 2.3878
-4.8175 -1.2880 2.3878
-4.7762 -1.4677 2.3878
-4.7292 -1.6458 2.3878
-4.6765 -1.8229 2.3878
-4.6180 -1.9987 2.3878
-4.5539 -2.1731 2.3878
-4.4842 -2.3457 2.3878
-4.4088 -2.5166 2.3878
-4.3277 -2.6854 2.3878
-4.2411 -2.8521 2.3878
-4.1489 -3.0166 2.3878
-4.0511 -3.1785 2.3878
-3.9479 -3.3378 2.3878
-3.8391 -3.4943 2.3878
-3.7250 -3.6478 2.3878
-3.6054 -3.7982 2.3878
-3.4805 -3.9452 2.3878
-3.3504 -4.0887 2.3878
-3.2151 -4.2285 2.3878
-3.0746 -4.3644 2.3878
-2.9291 -4.4963 2.3878
-2.7786 -4.6239 2.3878
-2.6232 -4.7471 2.3878
-2.4630 -4.8656 2.3878
-2.2981 -4.9794 2.3878
-2.1287 -5.0881 2.3878
-1.9548 -5.1916 2.3878
-1.7766 -5.2897 2.3878
-1.5942 -5.3823 2.3878
-1.4078 -5.4690 2.3878
-1.2175 -5.5498 2.3878
-1.0235 -5.6244 2.3878
-0.8259 -5.6927 2.3878
-0.6250 -5.7544 2.3878
-0.4210 -5.8094 2.3878
-0.2140 -5.8575 2.3878
-0.0043 -5.8986 2.3878
0.2079 -5.9324 2.3878
0.4223 -5.9588 2.3878
0.6388 -5.9776 2.3878
0.8569 -5.9887 2.3878
1.0765 -5.9920 2.3878
1.2973 -5.9873 2.3878
1.5189 -5.9744 2.3878
1.7410 -5.9533 2.3878
1.9634 -5.9239 2.3878
2.1857 -5.8861 2.3878
2.4075 -5.8398 2.3878
2.6285 -5.7849 2.3878
2.8483 -5.7214 2.3878
3.0666 -5.6492 2.3878
3.2829 -5.5684 2.3878
3.4970 -5.4790 2.3878
3.7083 -5.3809 2.3878
3.9166 -5.2742 2.3878
4.1214 -5.1590 2.3878
4.3223 -5.0354 2.3878
4.5189 -4.9034 2.3878
4.7108 -4.7632 2.3878
4.8976 -4.6149 2.3878
5.0790 -4.4587 2.3878
5.2545 -4.2948 2.3878
5.4237 -4.1235 2.3878
5.5862 -3.9449 2.3878
5.7418 -3.7592 2.3878
5.8900 -3.5669 2.3878
6.0304 -3.3681 2.3878
6.1628 -3.1633 2.3878
6.2869 -2.9527 2.3878
6.4023 -2.7367 2.3878
6.5087 -2.5157 2.3878
6.6060 -2.2902 2.3878
6.6938 -2.0604 2.3878
6.7720 -1.8269 2.3878
6.8403 -1.5900 2.3878
6.8986 -1.3503 2.3878
6.9468 -1.1082 2.3878
6.9847 -0.8642 2.3878
7.0122 -0.6188 2.3878
7.0294 -0.3723 2.3878
7.0361 -0.1254 2.3878
7.0323 0.1215 2.3878
7.0181 0.3679 2.3878
6.9935 0.6133 2.3878
6.9587 0.8572 2.3878
6.9136 1.0993 2.3878
6.8584 1.3389 2.3878
6.7934 1.5757 2.3878
6.7186 1.8091 2.3878
6.6343 2.0389 2.3878
6.5407 2.2645 2.3878
6.4380 2.4856 2.3878
6.3265 2.7018 2.3878
6.2066 2.9127 2.3878
6.0784 3.1179 2.3878
5.9423 3.3172 2.3878
5.7987 3.5103 2.3878
5.6478 3.6968 2.3878
5.4901 3.8765 2.3878
5.3258 4.0491 2.3878
5.1555 4.2145 2.3878
4.9793 4.3723 2.3878
4.7978 4.5226 2.3878
4.6113 4.6650 2.3878
4.4202 4.7995 2.3878
4.2248 4.9259 2.3878
4.0256 5.0442 2.3878
3.8229 5.1543 2.3878
3.6171 5.2560 2.3878
3.4086 5.3495 2.3878
3.1977 5.4346 2.3878
2.9849 5.5114 2.3878
2.7704 5.5798 2.3878
0.9609 2.1213 0.8981
0.8842 2.1526 0.9031
0.8065 2.1812 0.9081
0.7278 2.2069 0.9131
0.6482 2.2297 0.9182
0.5678 2.2497 0.9233
0.4867 2.2667 0.9284
0.4051 2.2808 0.9335
0.3230 2.2920 0.9387
0.2405 2.3001 0.9438
0.1579 2.3053 0.9490
0.0750 2.3075 0.9541
-0.0078 2.3067 0.9592
-0.0906 2.3029 0.9643
-0.1732 2.2961 0.9694
-0.2555 2.2863 0.9744
-0.3374 2.2735 0.9794
-0.4188 2.2578 0.9843
-0.4995 2.2392 0.9892
-0.5795 2.2176 0.9940
-0.6588 2.1932 0.9987
-0.7370 2.1659 1.0034
-0.8143 2.1358 1.0079
-2.1000 4.9600 2.3878
-2.2668 4.8550 2.3878
-2.4292 4.7451 2.3878
-2.5873 4.6306 2.3878
-2.7408 4.5114 2.3878
-2.8897 4.3879 2.3878
-3.0339 4.2601 2.3878
-3.1733 4.1283 2.3878
-3.3079 3.9927 2.3878
-3.4375 3.8532 2.3878
-3.5621 3.7103 2.3878
-3.6817 3.5639 2.3878
-3.7961 3.4143 2.3878
-3.9053 3.2617 2.3878
-4.0093 3.1061 2.3878
-4.1081 2.9478 2.3878
-4.2015 2.7869 2.3878
-4.2895 2.6235 2.3878
-4.3722 2.4578 2.3878
-4.4494 2.2900 2.3878
-4.5211 2.1202 2.3878
-4.5873 1.9485 2.3878
-4.6480 1.7751 2.3878
-4.7032 1.6002 2.3878
-4.7527 1.4239 2.3878
-4.7967 1.2463 2.3878
-4.8351 1.0676 2.3878
-4.8678 0.8879 2.3878
-4.8948 0.7073 2.3878
-4.9162 0.5261 2.3878
-4.9320 0.3443 2.3878
-4.9420 0.1621 2.3878
-4.9463 -0.0203 2.3878
-4.9449 -0.2029 2.3878
-4.9378 -0.3855 2.3878
-4.9250 -0.5679 2.3878
-4.9064 -0.7500 2.3878
-4.8821 -0.9316 2.3878
-4.8521 -1.1126 2.3878
-4.8164 -1.2929 2.3878
-4.7750 -1.4723 2.3878
-4.7278 -1.6506 2.3878
-4.6749 -1.8278 2.3878
-4.6164 -2.0035 2.3878
-4.5521 -2.1778 2.3878
-4.4822 -2.3504 2.3878
-4.4067 -2.5212 2.3878
-4.3254 -2.6900 2.3878
-4.2387 -2.8567 2.3878
-4.1463 -3.0210 2.3878
-4.0484 -3.1829 2.3878
-3.9450 -3.3421 2.3878
-3.8361 -3.4985 2.3878
-3.7218 -3.6520 2.3878
-3.6021 -3.8022 2.3878
-3.4771 -3.9492 2.3878
-3.3468 -4.0926 2.3878
-3.2113 -4.2323 2.3878
-3.0707 -4.3681 2.3878
-2.9250 -4.4998 2.3878
-2.7744 -4.6273 2.3878
-2.6189 -4.7504 2.3878
-2.4586 -4.8688 2.3878
-2.2936 -4.9824 2.3878
-2.1240 -5.0910 2.3878
-1.9500 -5.1944 2.3878
-1.7717 -5.2923 2.3878
-1.5892 -5.3847 2.3878
-1.4027 -5.4713 2.3878
-1.2123 -5.5519 2.3878
-1.0181 -5.6263 2.3878
-0.8205 -5.6944 2.3878
-0.6195 -5.7560 2.3878
-0.4154 -5.8108 2.3878
-0.2083 -5.8588 2.3878
0.0015 -5.8996 2.3878
0.2137 -5.9332 2.3878
0.4282 -5.9594 2.3878
0.6447 -5.9780 2.3878
0.8629 -5.9889 2.3878
1.0826 -5.9920 2.3878
1.3033 -5.9870 2.3878
1.5250 -5.9740 2.3878
1.7471 -5.9526 2.3878
1.9695 -5.9230 2.3878
2.1917 -5.8849 2.3878
2.4135 -5.8384 2.3878
2.6345 -5.7832 2.3878
2.8543 -5.7195 2.3878
3.0725 -5.6471 2.3878
3.2888 -5.5661 2.3878
3.5028 -5.4764 2.3878
3.7140 -5.3781 2.3878
3.9222 -5.2711 2.3878
4.1269 -5.1557 2.3878
4.3277 -5.0319 2.3878
-4.6546 -0.5287 2.3878
-4.6371 -0.7010 2.3878
-4.6141 -0.8729 2.3878
-4.5857 -1.0442 2.3878
-4.5518 -1.2148 2.3878
-4.5125 -1.3844 2.3878
-4.4677 -1.5531 2.3878
-4.4175 -1.7206 2.3878
-4.3619 -1.8867 2.3878
-4.3009 -2.0514 2.3878
-4.2345 -2.2144 2.3878
-4.1627 -2.3757 2.3878
-4.0856 -2.5351 2.3878
-4.0032 -2.6923 2.3878
-3.9155 -2.8473 2.3878
-3.8226 -2.9999 2.3878
-3.7244 -3.1500 2.3878
-3.6211 -3.2973 2.3878
-3.5127 -3.4417 2.3878
-3.3992 -3.5830 2.3878
-3.2807 -3.7212 2.3878
-3.1573 -3.8559 2.3878
-3.0290 -3.9870 2.3878
-2.8958 -4.1144 2.3878
-2.7580 -4.2379 2.3878
-2.6155 -4.3573 2.3878
-2.4684 -4.4724 2.3878
-2.3169 -4.5830 2.3878
-2.1610 -4.6891 2.3878
-2.0009 -4.7903 2.3878
-1.8367 -4.8866 2.3878
-1.6685 -4.9776 2.3878
-1.4964 -5.0634 2.3878
-1.3206 -5.1436 2.3878
-1.1413 -5.2182 2.3878
-0.9586 -5.2869 2.3878
-0.7726 -5.3495 2.3878
-0.5836 -5.4060 2.3878
-0.3918 -5.4561 2.3878
-0.1973 -5.4997 2.3878
-0.0004 -5.5366 2.3878
0.1987 -5.5666 2.3878
0.3997 -5.5897 2.3878
0.6026 -5.6057 2.3878
0.8069 -5.6144 2.3878
1.0124 -5.6157 2.3878
1.2189 -5.6096 2.3878
1.4260 -5.5959 2.3878
1.6335 -5.5744 2.3878
1.8411 -5.5452 2.3878
2.0485 -5.5081 2.3878
2.2552 -5.4632 2.3878
2.4611 -5.4102 2.3878
2.6658 -5.3493 2.3878
2.8690 -5.2803 2.3878
3.0702 -5.2034 2.3878
3.2692 -5.1184 2.3878
3.4655 -5.0255 2.3878
3.6589 -4.9246 2.3878
3.8489 -4.8159 2.3878
4.0353 -4.6994 2.3878
4.2175 -4.5752 2.3878
4.3954 -4.4435 2.3878
4.5685 -4.3043 2.3878
4.7364 -4.1579 2.3878
4.8987 -4.0045 2.3878
5.0553 -3.8441 2.3878
5.2056 -3.6771 2.3878
5.3495 -3.5038 2.3878
5.4864 -3.3243 2.3878
5.6163 -3.1389 2.3878
5.7386 -2.9480 2.3878
5.8533 -2.7518 2.3878
5.9599 -2.5508 2.3878
6.0583 -2.3451 2.3878
6.1482 -2.1353 2.3878
6.2294 -1.9216 2.3878
6.3017 -1.7045 2.3878
6.3650 -1.4843 2.3878
6.4190 -1.2616 2.3878
6.4638 -1.0367 2.3878
6.4990 -0.8099 2.3878
6.5248 -0.5819 2.3878
6.5410 -0.3530 2.3878
6.5476 -0.1236 2.3878
6.5446 0.1058 2.3878
6.5320 0.3348 2.3878
6.5098 0.5629 2.3878
6.4782 0.7897 2.3878
6.4372 1.0148 2.3878
6.3869 1.2377 2.3878
6.3275 1.4580 2.3878
6.2590 1.6754 2.3878
6.1818 1.8894 2.3878
6.0960 2.0997 2.3878
6.0018 2.3059 2.3878
5.8995 2.5076 2.3878
5.7893 2.7045 2.3878
5.6714 2.8963 2.3878
5.5462 3.0827 2.3878
5.4140 3.2634 2.3878
5.2750 3.4382 2.3878
5.1295 3.6067 2.3878
4.9780 3.7687 2.3878
4.8207 3.9242 2.3878
4.6579 4.0727 2.3878
4.4900 4.2143 2.3878
4.3175 4.3487 2.3878
4.1405 4.4758 2.3878
3.9594 4.5955 2.3878
3.7747 4.7076 2.3878
3.5866 4.8122 2.3878
3.3954 4.9092 2.3878
3.2017 4.9984 2.3878
3.0055 5.0799 2.3878
2.8074 5.1537 2.3878
0.9784 1.9584 0.8959
0.9076 1.9905 0.9005
0.8356 2.0199 0.9052
0.7627 2.0468 0.9098
0.6888 2.0710 0.9146
0.6141 2.0925 0.9193
0.5386 2.1113 0.9241
0.4625 2.1274 0.9289
0.3859 2.1407 0.9338
0.3089 2.1512 0.9386
0.2315 2.1589 0.9434
0.1538 2.1638 0.9483
0.0761 2.1660 0.9531
-0.0017 2.1653 0.9579
-0.0794 2.1618 0.9627
-0.1569 2.1555 0.9674
-0.2342 2.1463 0.9721
-0.3111 2.1344 0.9768
-0.3875 2.1198 0.9814
-0.4634 2.1024 0.9860
-0.5385 2.0822 0.9905
-0.6129 2.0593 0.9950
-0.6864 2.0338 0.9993
-0.7589 2.0056 1.0036
-0.8304 1.9749 1.0078
-2.1254 4.5813 2.3878
-2.2793 4.4789 2.3878
-2.4292 4.3719 2.3878
-2.5748 4.2606 2.3878
-2.7161 4.1450 2.3878
-2.8530 4.0254 2.3878
-2.9853 3.9018 2.3878
-3.1132 3.7745 2.3878
-3.2364 3.6436 2.3878
-3.3549 3.5092 2.3878
-3.4686 3.3716 2.3878
-3.5775 3.2308 2.3878
-3.6815 3.0871 2.3878
-3.7805 2.9405 2.3878
-3.8746 2.7912 2.3878
-3.9636 2.6395 2.3878
-4.0475 2.4853 2.3878
-4.1263 2.3289 2.3878
-4.1999 2.1704 2.3878
-4.2683 2.0100 2.3878
-4.3315 1.8477 2.3878
-4.3894 1.6838 2.3878
-4.4420 1.5184 2.3878
-4.4894 1.3517 2.3878
-4.5313 1.1837 2.3878
-4.5680 1.0146 2.3878
-4.5992 0.8445 2.3878
-4.6251 0.6736 2.3878
-4.6455 0.5021 2.3878
-4.6606 0.3300 2.3878
-4.6702 0.1576 2.3878
-4.6744 -0.0151 2.3878
-4.6731 -0.1880 2.3878
-4.6664 -0.3608 2.3878
-4.6542 -0.5334 2.3878
-4.6365 -0.7057 2.3878
-4.6134 -0.8776 2.3878
-4.5848 -1.0489 2.3878
-4.5508 -1.2194 2.3878
-4.5113 -1.3890 2.3878
-4.4664 -1.5577 2.3878
-4.4161 -1.7251 2.3878
-4.3603 -1.8912 2.3878
-4.2991 -2.0559 2.3878
-4.2326 -2.2189 2.3878
-4.1607 -2.3801 2.3878
-4.0834 -2.5394 2.3878
-4.0009 -2.6966 2.3878
-3.9130 -2.8515 2.3878
-3.8200 -3.0041 2.3878
-3.7217 -3.1540 2.3878
-3.6182 -3.3013 2.3878
-3.5097 -3.4456 2.3878
-3.3961 -3.5868 2.3878
-3.2774 -3.7249 2.3878
-3.1538 -3.8595 2.3878
-3.0254 -3.9905 2.3878
-2.8921 -4.1178 2.3878
-2.7541 -4.2412 2.3878
-2.6115 -4.3605 2.3878
-2.4643 -4.4754 2.3878
-2.3127 -4.5860 2.3878
-2.1567 -4.6919 2.3878
-1.9965 -4.7930 2.3878
-1.8321 -4.8891 2.3878
-1.6638 -4.9801 2.3878
-1.4916 -5.0656 2.3878
-1.3157 -5.1458 2.3878
-1.1363 -5.2201 2.3878
-0.9535 -5.2887 2.3878
-0.7675 -5.3512 2.3878
-0.5784 -5.4075 2.3878
-0.3865 -5.4574 2.3878
-0.1920 -5.5008 2.3878
0.0049 -5.5375 2.3878
0.2041 -5.5674 2.3878
0.4053 -5.5902 2.3878
0.6081 -5.6060 2.3878
0.8125 -5.6145 2.3878
1.0180 -5.6157 2.3878
1.2245 -5.6093 2.3878
1.4317 -5.5954 2.3878
1.6392 -5.5737 2.3878
1.8468 -5.5443 2.3878
2.0541 -5.5070 2.3878
2.2609 -5.4618 2.3878
2.4668 -5.4087 2.3878
2.6714 -5.3475 2.3878
2.8745 -5.2784 2.3878
3.0757 -5.2012 2.3878
3.2746 -5.1160 2.3878
3.4709 -5.0228 2.3878
3.6641 -4.9218 2.3878
3.8541 -4.8128 2.3878
4.0403 -4.6961 2.3878
4.2225 -4.5717 2.3878
4.4002 -4.4398 2.3878
4.5731 -4.3004 2.3878
4.7409 -4.1538 2.3878
4.9031 -4.0002 2.3878
5.0595 -3.8397 2.3878
5.2096 -3.6725 2.3878
5.3533 -3.4990 2.3878
5.4901 -3.3193 2.3878
5.6197 -3.1338 2.3878
5.7419 -2.9427 2.3878
5.8563 -2.7464 2.3878
5.9627 -2.5452 2.3878
6.0609 -2.3394 2.3878
6.1505 -2.1295 2.3878
6.2315 -1.9157 2.3878
6.3036 -1.6985 2.3878
6.3666 -1.4783 2.3878
6.4204 -1.2555 2.3878
6.4648 -1.0305 2.3878
6.4999 -0.8037 2.3878
6.5254 -0.5757 2.3878
6.5413 -0.3467 2.3878
6.5476 -0.1173 2.3878
6.5444 0.1121 2.3878
6.5315 0.3410 2.3878
6.5091 0.5691 2.3878
6.4772 0.7959 2.3878
6.4359 1.0209 2.3878
6.3854 1.2437 2.3878
6.3257 1.4640 2.3878
6.2571 1.6813 2.3878
6.1796 1.8952 2.3878
6.0936 2.1054 2.3878
5.9991 2.3115 2.3878
5.8966 2.5131 2.3878
5.7862 2.7098 2.3878
5.6681 2.9015 2.3878
5.5427 3.0878 2.3878
5.4102 3.2683 2.3878
5.2711 3.4428 2.3878
5.1255 3.6112 2.3878
4.9737 3.7731 2.3878
4.8163 3.9283 2.3878
4.6534 4.0767 2.3878
4.4854 4.2181 2.3878
4.3127 4.3523 2.3878
4.1356 4.4792 2.3878
3.9544 4.5986 2.3878
3.7696 4.7106 2.3878
3.5814 4.8150 2.3878
3.3902 4.9117 2.3878
3.1963 5.0007 2.3878
3.0002 5.0820 2.3878
2.8020 5.1556 2.3878
0.9765 1.9593 0.8960
0.9056 1.9913 0.9006
0.8337 2.0207 0.9053
0.7607 2.0475 0.9100
0.6868 2.0716 0.9147
0.6120 2.0930 0.9195
0.5366 2.1118 0.9243
0.4605 2.1278 0.9291
0.3838 2.1410 0.9339
0.3068 2.1514 0.9387
0.2293 2.1591 0.9436
0.1517 2.1639 0.9484
0.0740 2.1660 0.9532
-0.0038 2.1652 0.9580
-0.0815 2.1616 0.9628
-0.1591 2.1552 0.9676
-0.2363 2.1461 0.9723
-0.3132 2.1341 0.9769
-0.3896 2.1193 0.9816
-0.4654 2.1018 0.9861
-0.5405 2.0816 0.9906
-0.6149 2.0587 0.9951
-0.6884 2.0331 0.9994
-0.7609 2.0048 1.0037
-0.8324 1.9740 1.0079
-2.1297 4.5786 2.3878
-2.2835 4.4760 2.3878
-2.4332 4.3689 2.3878
-2.5787 4.2575 2.3878
-2.7199 4.1418 2.3878
-2.8566 4.0220 2.3878
-2.9889 3.8984 2.3878
-3.1166 3.7710 2.3878
-3.2397 3.6400 2.3878
-3.3581 3.5055 2.3878
-3.4717 3.3678 2.3878
-3.5804 3.2269 2.3878
-3.6842 3.0831 2.3878
-3.7832 2.9365 2.3878
-3.8770 2.7871 2.3878
-3.9659 2.6353 2.3878
-4.0497 2.4811 2.3878
-4.1283 2.3246 2.3878
-4.2018 2.1661 2.3878
-4.2701 2.0056 2.3878
-4.3331 1.8433 2.3878
-4.3909 1.6794 2.3878
-4.4434 1.5139 2.3878
-4.4906 1.3471 2.3878
-4.5324 1.1791 2.3878
-4.5689 1.0099 2.3878
-4.6000 0.8399 2.3878
-4.6257 0.6690 2.3878
-4.6460 0.4974 2.3878
-4.6609 0.3253 2.3878
-4.6704 0.1529 2.3878
-4.6744 -0.0199 2.3878
-4.6730 -0.1927 2.3878
-4.6661 -0.3655 2.3878
-4.6537 -0.5381 2.3878
-4.6359 -0.7104 2.3878
-4.6127 -0.8823 2.3878
-4.5840 -1.0535 2.3878
-4.5498 -1.2240 2.3878
-4.5102 -1.3937 2.3878
-4.4651 -1.5622 2.3878
-4.4146 -1.7297 2.3878
-4.3587 -1.8957 2.3878
-4.2974 -2.0603 2.3878
-4.2307 -2.2233 2.3878
-4.1586 -2.3845 2.3878
-4.0812 -2.5437 2.3878
-3.9986 -2.7008 2.3878
-3.9106 -2.8557 2.3878
-3.8173 -3.0082 2.3878
-3.7189 -3.1581 2.3878
-3.6153 -3.3052 2.3878
-3.5066 -3.4495 2.3878
-3.3929 -3.5907 2.3878
-3.2741 -3.7286 2.3878
-3.1504 -3.8631 2.3878
-3.0218 -3.9941 2.3878
-2.8884 -4.1212 2.3878
-2.7503 -4.2445 2.3878
-2.6075 -4.3637 2.3878
-2.4602 -4.4785 2.3878
-2.3085 -4.5889 2.3878
-2.1524 -4.6947 2.3878
-1.9920 -4.7957 2.3878
-1.8276 -4.8917 2.3878
-1.6592 -4.9825 2.3878
-1.4869 -5.0679 2.3878
-1.3109 -5.1479 2.3878
-1.1314 -5.2221 2.3878
-0.9485 -5.2905 2.3878
-0.7624 -5.3528 2.3878
-0.5732 -5.4089 2.3878
-0.3813 -5.4587 2.3878
-0.1867 -5.5019 2.3878
0.0104 -5.5384 2.3878
0.2096 -5.5681 2.3878
0.4108 -5.5908 2.3878
0.6137 -5.6063 2.3878
0.8180 -5.6147 2.3878
1.0236 -5.6156 2.3878
1.2302 -5.6090 2.3878
1.4373 -5.5949 2.3878
1.6448 -5.5730 2.3878
1.8524 -5.5434 2.3878
2.0598 -5.5059 2.3878
2.2665 -5.4605 2.3878
2.4724 -5.4071 2.3878
2.6770 -5.3457 2.3878
2.8800 -5.2764 2.3878
3.0811 -5.1990 2.3878
3.2800 -5.1136 2.3878
3.4762 -5.0202 2.3878
3.6694 -4.9189 2.3878
3.8592 -4.8097 2.3878
4.0453 -4.6928 2.3878
-4.4063 -0.5019 2.3878
-4.3895 -0.6653 2.3878
-4.3674 -0.8283 2.3878
-4.3402 -0.9908 2.3878
-4.3078 -1.1522 2.3878
-4.2701 -1.3130 2.3878
-4.2273 -1.4727 2.3878
-4.1793 -1.6313 2.3878
-4.1262 -1.7886 2.3878
-4.0679 -1.9445 2.3878
-4.0045 -2.0988 2.3878
-3.9359 -2.2513 2.3878
-3.8624 -2.4019 2.3878
-3.7838 -2.5505 2.3878
-3.7001 -2.6969 2.3878
-3.6115 -2.8410 2.3878
-3.5180 -2.9826 2.3878
-3.4196 -3.1215 2.3878
-3.3163 -3.2576 2.3878
-3.2083 -3.3907 2.3878
-3.0956 -3.5207 2.3878
-2.9782 -3.6474 2.3878
-2.8562 -3.7707 2.3878
-2.7297 -3.8903 2.3878
-2.5987 -4.0062 2.3878
-2.4635 -4.1181 2.3878
-2.3239 -4.2259 2.3878
-2.1802 -4.3294 2.3878
-2.0324 -4.4284 2.3878
-1.8807 -4.5229 2.3878
-1.7252 -4.6126 2.3878
-1.5660 -4.6973 2.3878
-1.4032 -4.7769 2.3878
-1.2371 -4.8513 2.3878
-1.0676 -4.9203 2.3878
-0.8950 -4.9836 2.3878
-0.7195 -5.0412 2.3878
-0.5413 -5.0930 2.3878
-0.3604 -5.1387 2.3878
-0.1772 -5.1782 2.3878
0.0082 -5.2113 2.3878
0.1956 -5.2381 2.3878
0.3847 -5.2582 2.3878
0.5753 -5.2716 2.3878
0.7673 -5.2782 2.3878
0.9602 -5.2778 2.3878
1.1539 -5.2704 2.3878
1.3481 -5.2559 2.3878
1.5426 -5.2342 2.3878
1.7370 -5.2051 2.3878
1.9310 -5.1688 2.3878
2.1245 -5.1250 2.3878
2.3169 -5.0739 2.3878
2.5082 -5.0152 2.3878
2.6979 -4.9491 2.3878
2.8856 -4.8756 2.3878
3.0712 -4.7946 2.3878
3.2542 -4.7063 2.3878
3.4344 -4.6105 2.3878
3.6114 -4.5075 2.3878
3.7848 -4.3974 2.3878
3.9543 -4.2801 2.3878
4.1197 -4.1558 2.3878
4.2805 -4.0247 2.3878
4.4365 -3.8870 2.3878
4.5872 -3.7427 2.3878
4.7325 -3.5921 2.3878
4.8720 -3.4354 2.3878
5.0054 -3.2729 2.3878
5.1324 -3.1046 2.3878
5.2528 -2.9311 2.3878
5.3662 -2.7524 2.3878
5.4724 -2.5689 2.3878
5.5712 -2.3809 2.3878
5.6623 -2.1888 2.3878
5.7456 -1.9928 2.3878
5.8208 -1.7932 2.3878
5.8878 -1.5906 2.3878
5.9464 -1.3852 2.3878
5.9965 -1.1774 2.3878
6.0379 -0.9675 2.3878
6.0707 -0.7561 2.3878
6.0946 -0.5434 2.3878
6.1097 -0.3299 2.3878
6.1160 -0.1160 2.3878
6.1134 0.0979 2.3878
6.1019 0.3115 2.3878
6.0816 0.5243 2.3878
6.0525 0.7359 2.3878
6.0147 0.9459 2.3878
5.9684 1.1539 2.3878
5.9136 1.3597 2.3878
5.8505 1.5627 2.3878
5.7792 1.7627 2.3878
5.7000 1.9592 2.3878
5.6130 2.1520 2.3878
5.5183 2.3407 2.3878
5.4164 2.5251 2.3878
5.3074 2.7048 2.3878
5.1914 2.8795 2.3878
5.0689 3.0490 2.3878
4.9401 3.2130 2.3878
4.8053 3.3713 2.3878
4.6647 3.5237 2.3878
4.5187 3.6699 2.3878
4.3675 3.8099 2.3878
4.2116 3.9434 2.3878
4.0511 4.0703 2.3878
3.8864 4.1904 2.3878
3.7179 4.3037 2.3878
3.5459 4.4101 2.3878
3.3705 4.5094 2.3878
3.1923 4.6016 2.3878
3.0115 4.6866 2.3878
2.8284 4.7645 2.3878
2.6434 4.8352 2.3878
0.9244 1.8432 0.8985
0.8577 1.8734 0.9028
0.7900 1.9011 0.9072
0.7213 1.9263 0.9116
0.6517 1.9491 0.9160
0.5814 1.9693 0.9205
0.5104 1.9870 0.9250
0.4388 2.0021 0.9296
0.3666 2.0147 0.9341
0.2941 2.0245 0.9387
0.2213 2.0318 0.9432
0.1482 2.0365 0.9478
0.0750 2.0384 0.9523
0.0018 2.0378 0.9568
-0.0714 2.0345 0.9613
-0.1443 2.0285 0.9658
-0.2171 2.0200 0.9702
-0.2894 2.0088 0.9746
-0.3614 1.9950 0.9790
-0.4327 1.9786 0.9833
-0.5035 1.9596 0.9875
-0.5735 1.9381 0.9917
-0.6427 1.9141 0.9958
-0.7110 1.8875 0.9998
-0.7782 1.8586 1.0038
-0.8444 1.8272 1.0077
-2.1470 4.2339 2.3878
-2.2891 4.1337 2.3878
-2.4274 4.0292 2.3878
-2.5615 3.9207 2.3878
-2.6916 3.8082 2.3878
-2.8174 3.6920 2.3878
-2.9390 3.5721 2.3878
-3.0561 3.4488 2.3878
-3.1688 3.3222 2.3878
-3.2771 3.1923 2.3878
-3.3807 3.0595 2.3878
-3.4797 2.9237 2.3878
-3.5740 2.7853 2.3878
-3.6636 2.6442 2.3878
-3.7483 2.5007 2.3878
-3.8283 2.3548 2.3878
-3.9034 2.2068 2.3878
-3.9735 2.0568 2.3878
-4.0387 1.9049 2.3878
-4.0990 1.7512 2.3878
-4.1542 1.5960 2.3878
-4.2043 1.4392 2.3878
-4.2494 1.2811 2.3878
-4.2895 1.1219 2.3878
-4.3244 0.9616 2.3878
-4.3541 0.8003 2.3878
-4.3787 0.6383 2.3878
-4.3982 0.4756 2.3878
-4.4125 0.3124 2.3878
-4.4216 0.1489 2.3878
-4.4255 -0.0149 2.3878
-4.4241 -0.1788 2.3878
-4.4176 -0.3427 2.3878
-4.4059 -0.5064 2.3878
-4.3889 -0.6698 2.3878
-4.3668 -0.8327 2.3878
-4.3394 -0.9950 2.3878
-4.3068 -1.1566 2.3878
-4.2690 -1.3174 2.3878
-4.2261 -1.4771 2.3878
-4.1780 -1.6357 2.3878
-4.1247 -1.7929 2.3878
-4.0662 -1.9487 2.3878
-4.0027 -2.1030 2.3878
-3.9340 -2.2554 2.3878
-3.8603 -2.4060 2.3878
-3.7815 -2.5546 2.3878
-3.6978 -2.7009 2.3878
-3.6090 -2.8449 2.3878
-3.5154 -2.9864 2.3878
-3.4168 -3.1253 2.3878
-3.3135 -3.2613 2.3878
-3.2053 -3.3943 2.3878
-3.0924 -3.5242 2.3878
-2.9749 -3.6509 2.3878
-2.8528 -3.7740 2.3878
-2.7262 -3.8935 2.3878
-2.5951 -4.0093 2.3878
-2.4597 -4.1211 2.3878
-2.3200 -4.2287 2.3878
-2.1762 -4.3321 2.3878
-2.0284 -4.4311 2.3878
-1.8765 -4.5254 2.3878
-1.7209 -4.6149 2.3878
-1.5616 -4.6995 2.3878
-1.3988 -4.7790 2.3878
-1.2325 -4.8533 2.3878
-1.0629 -4.9221 2.3878
-0.8903 -4.9853 2.3878
-0.7147 -5.0427 2.3878
-0.5364 -5.0943 2.3878
-0.3555 -5.1398 2.3878
-0.1722 -5.1792 2.3878
0.0133 -5.2122 2.3878
0.2007 -5.2387 2.3878
0.3899 -5.2586 2.3878
0.5805 -5.2719 2.3878
0.7725 -5.2783 2.3878
0.9655 -5.2777 2.3878
1.1592 -5.2701 2.3878
1.3534 -5.2554 2.3878
1.5479 -5.2335 2.3878
1.7423 -5.2043 2.3878
1.9363 -5.1677 2.3878
2.1297 -5.1237 2.3878
2.3222 -5.0724 2.3878
2.5134 -5.0135 2.3878
2.7030 -4.9472 2.3878
2.8907 -4.8735 2.3878
3.0762 -4.7923 2.3878
3.2592 -4.7037 2.3878
3.4393 -4.6078 2.3878
3.6161 -4.5046 2.3878
3.7894 -4.3943 2.3878
3.9589 -4.2768 2.3878
4.1241 -4.1523 2.3878
4.2848 -4.0211 2.3878
4.4406 -3.8831 2.3878
4.5913 -3.7387 2.3878
4.7364 -3.5879 2.3878
4.8758 -3.4311 2.3878
5.0090 -3.2683 2.3878
5.1358 -3.1000 2.3878
5.2560 -2.9263 2.3878
5.3692 -2.7475 2.3878
5.4752 -2.5638 2.3878
5.5738 -2.3757 2.3878
5.6647 -2.1835 2.3878
5.7477 -1.9874 2.3878
5.8227 -1.7878 2.3878
5.8895 -1.5850 2.3878
5.9479 -1.3795 2.3878
5.9977 -1.1717 2.3878
6.0389 -0.9618 2.3878
6.0715 -0.7503 2.3878
6.0952 -0.5376 2.3878
6.1100 -0.3241 2.3878
6.1160 -0.1102 2.3878
6.1132 0.1038 2.3878
6.1014 0.3173 2.3878
6.0809 0.5301 2.3878
6.0516 0.7416 2.3878
6.0136 0.9516 2.3878
5.9670 1.1596 2.3878
5.9120 1.3653 2.3878
5.8487 1.5682 2.3878
5.7772 1.7681 2.3878
5.6977 1.9645 2.3878
5.6105 2.1572 2.3878
5.5157 2.3458 2.3878
5.4135 2.5301 2.3878
5.3043 2.7096 2.3878
5.1882 2.8842 2.3878
5.0655 3.0535 2.3878
4.9365 3.2174 2.3878
4.8015 3.3755 2.3878
4.6608 3.5277 2.3878
4.5146 3.6738 2.3878
4.3633 3.8136 2.3878
4.2073 3.9469 2.3878
4.0467 4.0737 2.3878
3.8819 4.1936 2.3878
3.7133 4.3067 2.3878
3.5411 4.4129 2.3878
3.3657 4.5120 2.3878
3.1874 4.6040 2.3878
3.0065 4.6889 2.3878
2.8234 4.7665 2.3878
2.6383 4.8370 2.3878
0.9225 1.8441 0.8986
0.8558 1.8742 0.9029
0.7881 1.9018 0.9073
0.7194 1.9270 0.9117
0.6498 1.9497 0.9162
0.5795 1.9699 0.9206
0.5084 1.9875 0.9252
0.4368 2.0025 0.9297
0.3647 2.0150 0.9342
0.2921 2.0248 0.9388
0.2193 2.0320 0.9433
0.1462 2.0365 0.9479
0.0730 2.0385 0.9524
-0.0002 2.0377 0.9569
-0.0734 2.0344 0.9614
-0.1463 2.0283 0.9659
-0.2190 2.0197 0.9703
-0.2914 2.0084 0.9747
-0.3633 1.9945 0.9791
-0.4347 1.9781 0.9834
-0.5054 1.9590 0.9876
-0.5754 1.9375 0.9918
-0.6446 1.9134 0.9959
-0.7128 1.8868 1.0000
-0.7801 1.8578 1.0039
-0.8462 1.8263 1.0078
-2.1509 4.2312 2.3878
-2.2930 4.1309 2.3878
-2.4311 4.0263 2.3878
-2.5651 3.9177 2.3878
-2.6951 3.8051 2.3878
-2.8208 3.6888 2.3878
-2.9422 3.5688 2.3878
-3.0593 3.4454 2.3878
-3.1719 3.3187 2.3878
-3.2799 3.1888 2.3878
-3.3834 3.0558 2.3878
-3.4823 2.9200 2.3878
-3.5765 2.7815 2.3878
-3.6659 2.6403 2.3878
-3.7506 2.4967 2.3878
-3.8304 2.3508 2.3878
-3.9053 2.2028 2.3878
-3.9754 2.0527 2.3878
-4.0405 1.9007 2.3878
-4.1005 1.7470 2.3878
-4.1556 1.5917 2.3878
-4.2056 1.4349 2.3878
-4.2506 1.2768 2.3878
-4.2905 1.1175 2.3878
-4.3252 0.9572 2.3878
-4.3549 0.7959 2.3878
-4.3793 0.6339 2.3878
-4.3987 0.4712 2.3878
-4.4128 0.3080 2.3878
-4.4217 0.1444 2.3878
-4.4255 -0.0194 2.3878
-4.4240 -0.1833 2.3878
-4.4174 -0.3472 2.3878
-4.4055 -0.5108 2.3878
-4.3884 -0.6742 2.3878
-4.3661 -0.8371 2.3878
-4.3385 -0.9991 2.3878
-4.3058 -1.1610 2.3878
-4.2679 -1.3217 2.3878
-4.2248 -1.4814 2.3878
-4.1766 -1.6400 2.3878
-4.1231 -1.7972 2.3878
-4.0646 -1.9530 2.3878
-4.0008 -2.1071 2.3878
-3.9321 -2.2596 2.3878
-3.8582 -2.4101 2.3878
-3.7793 -2.5586 2.3878
-3.6954 -2.7049 2.3878
-3.6065 -2.8488 2.3878
-3.5128 -2.9902 2.3878
-3.4141 -3.1290 2.3878
-3.3106 -3.2649 2.3878
-3.2023 -3.3979 2.3878
-3.0893 -3.5277 2.3878
-2.9716 -3.6543 2.3878
-2.8494 -3.7773 2.3878
-2.7226 -3.8967 2.3878
-2.5915 -4.0124 2.3878
-2.4559 -4.1241 2.3878
-2.3162 -4.2316 2.3878
-2.1722 -4.3349 2.3878
-2.0243 -4.4337 2.3878
-1.8724 -4.5279 2.3878
-1.7166 -4.6173 2.3878
-1.5572 -4.7017 2.3878
-1.3942 -4.7811 2.3878
-1.2279 -4.8552 2.3878
-1.0582 -4.9239 2.3878
-0.8855 -4.9869 2.3878
-0.7099 -5.0442 2.3878
-0.5315 -5.0956 2.3878
-0.3505 -5.1410 2.3878
-0.1671 -5.1801 2.3878
0.0184 -5.2130 2.3878
0.2058 -5.2393 2.3878
0.3951 -5.2591 2.3878
0.5858 -5.2721 2.3878
0.7777 -5.2783 2.3878
0.9707 -5.2776 2.3878
1.1645 -5.2698 2.3878
1.3587 -5.2549 2.3878
1.5532 -5.2328 2.3878
1.7476 -5.2034 2.3878
1.9416 -5.1666 2.3878
2.1350 -5.1224 2.3878
2.3274 -5.0709 2.3878
2.5186 -5.0118 2.3878
2.7082 -4.9453 2.3878
2.8958 -4.8714 2.3878
3.0813 -4.7900 2.3878
3.2641 -4.7012 2.3878
3.4441 -4.6051 2.3878
3.6209 -4.5017 2.3878
3.7941 -4.3911 2.3878
-4.1779 -0.4773 2.3878
-4.1618 -0.6325 2.3878
-4.1406 -0.7872 2.3878
-4.1145 -0.9413 2.3878
-4.0834 -1.0948 2.3878
-4.0474 -1.2473 2.3878
-4.0064 -1.3989 2.3878
-3.9605 -1.5494 2.3878
-3.9096 -1.6986 2.3878
-3.8539 -1.8463 2.3878
-3.7933 -1.9925 2.3878
-3.7278 -2.1371 2.3878
-3.6575 -2.2797 2.3878
-3.5824 -2.4204 2.3878
-3.5026 -2.5590 2.3878
-3.4180 -2.6953 2.3878
-3.3288 -2.8291 2.3878
-3.2349 -2.9604 2.3878
-3.1365 -3.0889 2.3878
-3.0335 -3.2146 2.3878
-2.9261 -3.3373 2.3878
-2.8143 -3.4567 2.3878
-2.6981 -3.5728 2.3878
-2.5778 -3.6854 2.3878
-2.4532 -3.7944 2.3878
-2.3246 -3.8996 2.3878
-2.1920 -4.0008 2.3878
-2.0554 -4.0978 2.3878
-1.9151 -4.1909 2.3878
-1.7712 -4.2791 2.3878
-1.6237 -4.3628 2.3878
-1.4727 -4.4419 2.3878
-1.3184 -4.5161 2.3878
-1.1610 -4.5853 2.3878
-1.0006 -4.6493 2.3878
-0.8373 -4.7080 2.3878
-0.6713 -4.7611 2.3878
-0.5028 -4.8087 2.3878
-0.3319 -4.8506 2.3878
-0.1589 -4.8866 2.3878
0.0160 -4.9165 2.3878
0.1928 -4.9404 2.3878
0.3711 -4.9580 2.3878
0.5507 -4.9693 2.3878
0.7314 -4.9741 2.3878
0.9130 -4.9724 2.3878
1.0952 -4.9641 2.3878
1.2778 -4.9490 2.3878
1.4605 -4.9272 2.3878
1.6431 -4.8985 2.3878
1.8252 -4.8630 2.3878
2.0067 -4.8205 2.3878
2.1871 -4.7711 2.3878
2.3664 -4.7147 2.3878
2.5440 -4.6513 2.3878
2.7198 -4.5810 2.3878
2.8934 -4.5038 2.3878
3.0646 -4.4197 2.3878
3.2329 -4.3287 2.3878
3.3983 -4.2310 2.3878
3.5602 -4.1266 2.3878
3.7185 -4.0157 2.3878
3.8728 -3.8983 2.3878
4.0228 -3.7745 2.3878
4.1682 -3.6446 2.3878
4.3087 -3.5086 2.3878
4.4440 -3.3668 2.3878
4.5740 -3.2198 2.3878
4.6982 -3.0671 2.3878
4.8163 -2.9085 2.3878
4.9283 -2.7456 2.3878
5.0338 -2.5778 2.3878
5.1326 -2.4057 2.3878
5.2245 -2.2295 2.3878
5.3092 -2.0494 2.3878
5.3866 -1.8657 2.3878
5.4566 -1.6789 2.3878
5.5189 -1.4891 2.3878
5.5734 -1.2968 2.3878
5.6200 -1.1023 2.3878
5.6586 -0.9059 2.3878
5.6891 -0.7081 2.3878
5.7114 -0.5091 2.3878
5.7256 -0.3094 2.3878
5.7315 -0.1092 2.3878
5.7292 0.0909 2.3878
5.7187 0.2907 2.3878
5.6999 0.4898 2.3878
5.6731 0.6879 2.3878
5.6382 0.8845 2.3878
5.5953 1.0793 2.3878
5.5446 1.2720 2.3878
5.4861 1.4622 2.3878
5.4200 1.6496 2.3878
5.3465 1.8338 2.3878
5.2658 2.0146 2.3878
5.1780 2.1917 2.3878
5.0833 2.3648 2.3878
4.9820 2.5335 2.3878
4.8743 2.6977 2.3878
4.7604 2.8571 2.3878
4.6405 3.0115 2.3878
4.5150 3.1606 2.3878
4.3842 3.3042 2.3878
4.2481 3.4421 2.3878
4.1073 3.5743 2.3878
3.9618 3.7004 2.3878
3.8121 3.8204 2.3878
3.6584 3.9342 2.3878
3.5010 4.0416 2.3878
3.3402 4.1426 2.3878
3.1763 4.2370 2.3878
3.0096 4.3248 2.3878
2.8404 4.4060 2.3878
2.6689 4.4804 2.3878
0.9372 1.7081 0.8967
0.8753 1.7387 0.9008
0.8124 1.7672 0.9049
0.7485 1.7933 0.9090
0.6837 1.8171 0.9132
0.6181 1.8386 0.9174
0.5518 1.8577 0.9216
0.4848 1.8744 0.9258
0.4172 1.8886 0.9301
0.3492 1.9004 0.9344
0.2807 1.9097 0.9387
0.2120 1.9166 0.9430
0.1431 1.9210 0.9473
0.0740 1.9228 0.9516
0.0050 1.9222 0.9558
-0.0641 1.9191 0.9601
-0.1329 1.9135 0.9643
-0.2015 1.9054 0.9685
-0.2698 1.8948 0.9726
-0.3376 1.8818 0.9767
-0.4050 1.8663 0.9808
-0.4717 1.8484 0.9848
-0.5378 1.8281 0.9887
-0.6030 1.8055 0.9926
-0.6675 1.7805 0.9964
-0.7309 1.7532 1.0002
-0.7934 1.7236 1.0038
-0.8547 1.6917 1.0074
-2.1611 3.9157 2.3878
-2.2925 3.8175 2.3878
-2.4201 3.7153 2.3878
-2.5438 3.6093 2.3878
-2.6636 3.4998 2.3878
-2.7793 3.3867 2.3878
-2.8908 3.2703 2.3878
-2.9982 3.1507 2.3878
-3.1013 3.0279 2.3878
-3.2001 2.9023 2.3878
-3.2945 2.7739 2.3878
-3.3844 2.6428 2.3878
-3.4698 2.5092 2.3878
-3.5507 2.3732 2.3878
-3.6270 2.2350 2.3878
-3.6986 2.0947 2.3878
-3.7655 1.9524 2.3878
-3.8278 1.8083 2.3878
-3.8852 1.6625 2.3878
-3.9379 1.5151 2.3878
-3.9858 1.3664 2.3878
-4.0288 1.2163 2.3878
-4.0670 1.0651 2.3878
-4.1003 0.9128 2.3878
-4.1287 0.7597 2.3878
-4.1521 0.6058 2.3878
-4.1707 0.4512 2.3878
-4.1842 0.2962 2.3878
-4.1928 0.1409 2.3878
-4.1965 -0.0147 2.3878
-4.1952 -0.1704 2.3878
-4.1888 -0.3261 2.3878
-4.1775 -0.4815 2.3878
-4.1612 -0.6367 2.3878
-4.1400 -0.7914 2.3878
-4.1137 -0.9455 2.3878
-4.0825 -1.0989 2.3878
-4.0464 -1.2515 2.3878
-4.0052 -1.4031 2.3878
-3.9592 -1.5535 2.3878
-3.9082 -1.7026 2.3878
-3.8523 -1.8503 2.3878
-3.7915 -1.9965 2.3878
-3.7259 -2.1410 2.3878
-3.6555 -2.2836 2.3878
-3.5803 -2.4243 2.3878
-3.5003 -2.5628 2.3878
-3.4156 -2.6990 2.3878
-3.3263 -2.8328 2.3878
-3.2323 -2.9640 2.3878
-3.1337 -3.0924 2.3878
-3.0306 -3.2180 2.3878
-2.9231 -3.3406 2.3878
-2.8112 -3.4599 2.3878
-2.6949 -3.5759 2.3878
-2.5744 -3.6885 2.3878
-2.4498 -3.7973 2.3878
-2.3210 -3.9024 2.3878
-2.1883 -4.0035 2.3878
-2.0517 -4.1004 2.3878
-1.9112 -4.1933 2.3878
-1.7672 -4.2814 2.3878
-1.6196 -4.3650 2.3878
-1.4685 -4.4440 2.3878
-1.3142 -4.5181 2.3878
-1.1567 -4.5871 2.3878
-0.9962 -4.6510 2.3878
-0.8328 -4.7095 2.3878
-0.6667 -4.7625 2.3878
-0.4982 -4.8100 2.3878
-0.3272 -4.8516 2.3878
-0.1542 -4.8875 2.3878
0.0208 -4.9173 2.3878
0.1976 -4.9410 2.3878
0.3760 -4.9584 2.3878
0.5556 -4.9695 2.3878
0.7364 -4.9742 2.3878
0.9180 -4.9723 2.3878
1.1002 -4.9637 2.3878
1.2828 -4.9485 2.3878
1.4655 -4.9265 2.3878
1.6481 -4.8976 2.3878
1.8302 -4.8619 2.3878
2.0116 -4.8192 2.3878
2.1921 -4.7696 2.3878
2.3712 -4.7130 2.3878
2.5488 -4.6495 2.3878
2.7245 -4.5790 2.3878
2.8981 -4.5016 2.3878
3.0692 -4.4173 2.3878
3.2375 -4.3262 2.3878
3.4027 -4.2283 2.3878
3.5646 -4.1237 2.3878
3.7227 -4.0126 2.3878
3.8769 -3.8950 2.3878
4.0268 -3.7710 2.3878
4.1721 -3.6409 2.3878
4.3124 -3.5048 2.3878
4.4477 -3.3629 2.3878
4.5774 -3.2151 2.3878
4.7014 -3.0621 2.3878
4.8195 -2.9042 2.3878
4.9313 -2.7410 2.3878
5.0366 -2.5732 2.3878
5.1352 -2.4010 2.3878
5.2269 -2.2246 2.3878
5.3114 -2.0444 2.3878
5.3887 -1.8607 2.3878
5.4584 -1.6737 2.3878
5.5205 -1.4839 2.3878
5.5747 -1.2915 2.3878
5.6211 -1.0970 2.3878
5.6595 -0.9005 2.3878
5.6898 -0.7027 2.3878
5.7119 -0.5037 2.3878
5.7258 -0.3039 2.3878
5.7315 -0.1038 2.3878
5.7290 0.0964 2.3878
5.7182 0.2962 2.3878
5.6993 0.4953 2.3878
5.6722 0.6933 2.3878
5.6371 0.8898 2.3878
5.5940 1.0846 2.3878
5.5431 1.2772 2.3878
5.4844 1.4673 2.3878
5.4181 1.6546 2.3878
5.3444 1.8388 2.3878
5.2635 2.0195 2.3878
5.1755 2.1965 2.3878
5.0806 2.3695 2.3878
4.9791 2.5381 2.3878
4.8712 2.7022 2.3878
4.7572 2.8614 2.3878
4.6372 3.0156 2.3878
4.5115 3.1645 2.3878
4.3805 3.3080 2.3878
4.2443 3.4458 2.3878
4.1033 3.5778 2.3878
3.9578 3.7038 2.3878
3.8080 3.8236 2.3878
3.6541 3.9372 2.3878
3.4966 4.0445 2.3878
3.3358 4.1452 2.3878
3.1718 4.2395 2.3878
3.0050 4.3271 2.3878
2.8357 4.4081 2.3878
2.6642 4.4823 2.3878
0.9355 1.7089 0.8969
0.8736 1.7395 0.9009
0.8107 1.7679 0.9050
0.7468 1.7940 0.9091
0.6820 1.8177 0.9133
0.6163 1.8391 0.9175
0.5499 1.8582 0.9217
0.4829 1.8748 0.9260
0.4153 1.8890 0.9302
0.3473 1.9007 0.9345
0.2788 1.9100 0.9388
0.2101 1.9167 0.9431
0.1412 1.9210 0.9474
0.0721 1.9228 0.9517
0.0031 1.9222 0.9559
-0.0659 1.9190 0.9602
-0.1348 1.9133 0.9644
-0.2034 1.9051 0.9686
-0.2717 1.8945 0.9727
-0.3395 1.8814 0.9768
-0.4068 1.8659 0.9809
-0.4735 1.8479 0.9849
-0.5396 1.8276 0.9888
-0.6048 1.8048 0.9927
-0.6692 1.7798 0.9965
-0.7327 1.7524 1.0003
-0.7951 1.7227 1.0039
-0.8564 1.6908 1.0075
-2.1647 3.9131 2.3878
-2.2960 3.8147 2.3878
-2.4235 3.7124 2.3878
-2.5471 3.6064 2.3878
-2.6668 3.4967 2.3878
-2.7824 3.3836 2.3878
-2.8938 3.2670 2.3878
-3.0011 3.1473 2.3878
-3.1041 3.0245 2.3878
-3.2027 2.8988 2.3878
-3.2970 2.7703 2.3878
-3.3868 2.6392 2.3878
-3.4721 2.5055 2.3878
-3.5528 2.3695 2.3878
-3.6290 2.2312 2.3878
-3.7005 2.0908 2.3878
-3.7673 1.9485 2.3878
-3.8294 1.8043 2.3878
-3.8867 1.6585 2.3878
-3.9393 1.5111 2.3878
-3.9870 1.3623 2.3878
-4.0299 1.2122 2.3878
-4.0680 1.0609 2.3878
-4.1011 0.9086 2.3878
-4.1294 0.7555 2.3878
-4.1527 0.6016 2.3878
-4.1711 0.4470 2.3878
-4.1845 0.2920 2.3878
-4.1930 0.1366 2.3878
-4.1965 -0.0190 2.3878
-4.1950 -0.1747 2.3878
-4.1886 -0.3303 2.3878
-4.1771 -0.4858 2.3878
-4.1607 -0.6409 2.3878
-4.1393 -0.7956 2.3878
-4.1130 -0.9497 2.3878
-4.0816 -1.1031 2.3878
-4.0453 -1.2556 2.3878
-4.0040 -1.4072 2.3878
-3.9578 -1.5576 2.3878
-3.9067 -1.7067 2.3878
-3.8507 -1.8544 2.3878
-3.7898 -2.0005 2.3878
-3.7241 -2.1449 2.3878
-3.6535 -2.2875 2.3878
-3.5782 -2.4281 2.3878
-3.4981 -2.5665 2.3878
-3.4133 -2.7027 2.3878
-3.3238 -2.8364 2.3878
-3.2296 -2.9675 2.3878
-3.1310 -3.0959 2.3878
-3.0278 -3.2214 2.3878
-2.9201 -3.3439 2.3878
-2.8081 -3.4631 2.3878
-2.6917 -3.5791 2.3878
-2.5711 -3.6915 2.3878
-2.4463 -3.8002 2.3878
-2.3174 -3.9052 2.3878
-2.1846 -4.0062 2.3878
-2.0479 -4.1030 2.3878
-1.9074 -4.1956 2.3878
-1.7632 -4.2837 2.3878
-1.6155 -4.3673 2.3878
-1.4644 -4.4461 2.3878
-1.3099 -4.5201 2.3878
-1.1523 -4.5889 2.3878
-0.9917 -4.6526 2.3878
-0.8283 -4.7110 2.3878
-0.6622 -4.7639 2.3878
-0.4935 -4.8112 2.3878
-0.3226 -4.8527 2.3878
-0.1494 -4.8883 2.3878
0.0256 -4.9180 2.3878
0.2025 -4.9415 2.3878
0.3808 -4.9588 2.3878
0.5605 -4.9697 2.3878
0.7413 -4.9742 2.3878
0.9229 -4.9721 2.3878
1.1052 -4.9634 2.3878
1.2878 -4.9480 2.3878
1.4705 -4.9258 2.3878
1.6530 -4.8967 2.3878
1.8351 -4.8608 2.3878
2.0165 -4.8180 2.3878
2.1970 -4.7682 2.3878
2.3761 -4.7114 2.3878
2.5536 -4.6477 2.3878
2.7293 -4.5770 2.3878
2.9028 -4.4994 2.3878
3.0738 -4.4149 2.3878
3.2421 -4.3236 2.3878
3.4072 -4.2255 2.3878
3.5689 -4.1208 2.3878
-3.9670 -0.4546 2.3878
-3.9514 -0.6021 2.3878
-3.9312 -0.7493 2.3878
-3.9061 -0.8958 2.3878
-3.8763 -1.0417 2.3878
-3.8418 -1.1867 2.3878
-3.8025 -1.3308 2.3878
-3.7585 -1.4737 2.3878
-3.7098 -1.6154 2.3878
-3.6565 -1.7558 2.3878
-3.5985 -1.8946 2.3878
-3.5359 -2.0317 2.3878
-3.4686 -2.1671 2.3878
-3.3968 -2.3005 2.3878
-3.3205 -2.4319 2.3878
-3.2397 -2.5610 2.3878
-3.1545 -2.6878 2.3878
-3.0649 -2.8121 2.3878
-2.9709 -2.9337 2.3878
-2.8726 -3.0527 2.3878
-2.7702 -3.1685 2.3878
-2.6636 -3.2813 2.3878
-2.5529 -3.3910 2.3878
-2.4382 -3.4972 2.3878
-2.3196 -3.5999 2.3878
-2.1971 -3.6990 2.3878
-2.0709 -3.7942 2.3878
-1.9410 -3.8855 2.3878
-1.8076 -3.9727 2.3878
-1.6708 -4.0556 2.3878
-1.5306 -4.1341 2.3878
-1.3872 -4.2081 2.3878
-1.2408 -4.2775 2.3878
-1.0915 -4.3420 2.3878
-0.9393 -4.4015 2.3878
-0.7845 -4.4560 2.3878
-0.6273 -4.5053 2.3878
-0.4677 -4.5492 2.3878
-0.3059 -4.5877 2.3878
-0.1423 -4.6206 2.3878
0.0232 -4.6478 2.3878
0.1902 -4.6692 2.3878
0.3587 -4.6847 2.3878
0.5283 -4.6941 2.3878
0.6988 -4.6975 2.3878
0.8701 -4.6947 2.3878
1.0419 -4.6857 2.3878
1.2140 -4.6703 2.3878
1.3860 -4.6485 2.3878
1.5579 -4.6203 2.3878
1.7293 -4.5856 2.3878
1.8999 -4.5445 2.3878
2.0696 -4.4968 2.3878
2.2379 -4.4426 2.3878
2.4047 -4.3818 2.3878
2.5697 -4.3146 2.3878
2.7326 -4.2409 2.3878
2.8932 -4.1608 2.3878
3.0510 -4.0742 2.3878
3.2059 -3.9814 2.3878
3.3576 -3.8824 2.3878
3.5058 -3.7772 2.3878
3.6502 -3.6660 2.3878
3.7905 -3.5490 2.3878
3.9265 -3.4262 2.3878
4.0578 -3.2978 2.3878
4.1844 -3.1642 2.3878
4.3057 -3.0251 2.3878
4.4217 -2.8810 2.3878
4.5321 -2.7322 2.3878
4.6366 -2.5788 2.3878
4.7351 -2.4210 2.3878
4.8273 -2.2591 2.3878
4.9130 -2.0934 2.3878
4.9921 -1.9242 2.3878
5.0643 -1.7516 2.3878
5.1296 -1.5762 2.3878
5.1877 -1.3980 2.3878
5.2386 -1.2175 2.3878
5.2821 -1.0349 2.3878
5.3181 -0.8507 2.3878
5.3466 -0.6650 2.3878
5.3675 -0.4783 2.3878
5.3808 -0.2909 2.3878
5.3864 -0.1032 2.3878
5.3844 0.0846 2.3878
5.3747 0.2721 2.3878
5.3574 0.4589 2.3878
5.3325 0.6448 2.3878
5.3001 0.8293 2.3878
5.2603 1.0122 2.3878
5.2131 1.1932 2.3878
5.1587 1.3718 2.3878
5.0973 1.5479 2.3878
5.0289 1.7211 2.3878
4.9537 1.8911 2.3878
4.8719 2.0577 2.3878
4.7837 2.2206 2.3878
4.6892 2.3795 2.3878
4.5888 2.5342 2.3878
4.4825 2.6844 2.3878
4.3706 2.8299 2.3878
4.2534 2.9706 2.3878
4.1312 3.1063 2.3878
4.0041 3.2367 2.3878
3.8724 3.3616 2.3878
3.7363 3.4811 2.3878
3.5962 3.5948 2.3878
3.4523 3.7027 2.3878
3.3049 3.8047 2.3878
3.1542 3.9006 2.3878
3.0005 3.9905 2.3878
2.8441 4.0742 2.3878
2.6853 4.1517 2.3878
0.9465 1.5834 0.8953
0.8891 1.6145 0.8991
0.8307 1.6435 0.9029
0.7712 1.6703 0.9067
0.7108 1.6950 0.9106
0.6495 1.7176 0.9146
0.5875 1.7378 0.9186
0.5247 1.7559 0.9226
0.4614 1.7716 0.9266
0.3975 1.7851 0.9306
0.3332 1.7962 0.9347
0.2685 1.8051 0.9387
0.2036 1.8115 0.9428
0.1384 1.8157 0.9469
0.0731 1.8174 0.9509
0.0078 1.8168 0.9549
-0.0574 1.8139 0.9589
-0.1225 1.8086 0.9629
-0.1873 1.8009 0.9669
-0.2519 1.7909 0.9708
-0.3160 1.7786 0.9747
-0.3797 1.7640 0.9785
-0.4428 1.7471 0.9823
-0.5052 1.7279 0.9860
-0.5669 1.7065 0.9897
-0.6278 1.6828 0.9933
-0.6878 1.6570 0.9968
-0.7468 1.6291 1.0003
-0.8048 1.5990 1.0037
-2.0433 3.7154 2.3878
-2.1684 3.6228 2.3878
-2.2900 3.5264 2.3878
-2.4078 3.4264 2.3878
-2.5220 3.3228 2.3878
-2.6322 3.2159 2.3878
-2.7386 3.1058 2.3878
-2.8410 2.9926 2.3878
-2.9394 2.8764 2.3878
-3.0336 2.7574 2.3878
-3.1237 2.6356 2.3878
-3.2095 2.5113 2.3878
-3.2911 2.3846 2.3878
-3.3683 2.2556 2.3878
-3.4411 2.1244 2.3878
-3.5096 1.9912 2.3878
-3.5735 1.8560 2.3878
-3.6329 1.7191 2.3878
-3.6879 1.5806 2.3878
-3.7382 1.4405 2.3878
-3.7839 1.2991 2.3878
-3.8250 1.1564 2.3878
-3.8615 1.0126 2.3878
-3.8933 0.8678 2.3878
-3.9204 0.7221 2.3878
-3.9428 0.5757 2.3878
-3.9604 0.4287 2.3878
-3.9734 0.2813 2.3878
-3.9815 0.1335 2.3878
-3.9849 -0.0146 2.3878
-3.9836 -0.1627 2.3878
-3.9775 -0.3107 2.3878
-3.9666 -0.4586 2.3878
-3.9510 -0.6062 2.3878
-3.9305 -0.7533 2.3878
-3.9054 -0.8998 2.3878
-3.8754 -1.0457 2.3878
-3.8408 -1.1907 2.3878
-3.8014 -1.3347 2.3878
-3.7573 -1.4776 2.3878
-3.7085 -1.6193 2.3878
-3.6550 -1.7596 2.3878
-3.5968 -1.8983 2.3878
-3.5341 -2.0355 2.3878
-3.4667 -2.1708 2.3878
-3.3948 -2.3042 2.3878
-3.3184 -2.4355 2.3878
-3.2375 -2.5645 2.3878
-3.1521 -2.6912 2.3878
-3.0624 -2.8155 2.3878
-2.9683 -2.9370 2.3878
-2.8699 -3.0558 2.3878
-2.7674 -3.1716 2.3878
-2.6606 -3.2844 2.3878
-2.5498 -3.3939 2.3878
-2.4350 -3.5000 2.3878
-2.3163 -3.6027 2.3878
-2.1937 -3.7016 2.3878
-2.0674 -3.7967 2.3878
-1.9374 -3.8879 2.3878
-1.8039 -3.9750 2.3878
-1.6670 -4.0578 2.3878
-1.5267 -4.1362 2.3878
-1.3833 -4.2101 2.3878
-1.2368 -4.2793 2.3878
-1.0873 -4.3437 2.3878
-0.9351 -4.4031 2.3878
-0.7803 -4.4574 2.3878
-0.6229 -4.5066 2.3878
-0.4633 -4.5504 2.3878
-0.3015 -4.5887 2.3878
-0.1378 -4.6214 2.3878
0.0277 -4.6485 2.3878
0.1948 -4.6697 2.3878
0.3633 -4.6850 2.3878
0.5329 -4.6943 2.3878
0.7035 -4.6975 2.3878
0.8748 -4.6945 2.3878
1.0466 -4.6853 2.3878
1.2187 -4.6698 2.3878
1.3907 -4.6478 2.3878
1.5626 -4.6194 2.3878
1.7339 -4.5846 2.3878
1.9046 -4.5433 2.3878
2.0742 -4.4954 2.3878
2.2425 -4.4410 2.3878
2.4093 -4.3801 2.3878
2.5742 -4.3127 2.3878
2.7371 -4.2388 2.3878
2.8975 -4.1585 2.3878
3.0553 -4.0718 2.3878
3.2101 -3.9788 2.3878
3.3617 -3.8796 2.3878
3.5098 -3.7743 2.3878
3.6541 -3.6629 2.3878
3.7943 -3.5457 2.3878
3.9301 -3.4228 2.3878
4.0614 -3.2943 2.3878
4.1878 -3.1606 2.3878
4.3090 -3.0212 2.3878
4.4248 -2.8770 2.3878
4.5350 -2.7281 2.3878
4.6394 -2.5745 2.3878
4.7377 -2.4166 2.3878
4.8297 -2.2546 2.3878
4.9153 -2.0888 2.3878
4.9942 -1.9195 2.3878
5.0662 -1.7469 2.3878
5.1313 -1.5713 2.3878
5.1892 -1.3931 2.3878
5.2399 -1.2125 2.3878
5.2831 -1.0299 2.3878
5.3190 -0.8456 2.3878
5.3473 -0.6599 2.3878
5.3680 -0.4732 2.3878
5.3811 -0.2858 2.3878
5.3865 -0.0980 2.3878
5.3842 0.0897 2.3878
5.3743 0.2772 2.3878
5.3568 0.4640 2.3878
5.3317 0.6499 2.3878
5.2991 0.8344 2.3878
5.2591 1.0172 2.3878
5.2117 1.1981 2.3878
5.1571 1.3767 2.3878
5.0955 1.5527 2.3878
5.0269 1.7258 2.3878
4.9515 1.8957 2.3878
4.8696 2.0622 2.3878
4.7812 2.2250 2.3878
4.6866 2.3838 2.3878
4.5859 2.5383 2.3878
4.4795 2.6884 2.3878
4.3675 2.8339 2.3878
4.2502 2.9744 2.3878
4.1278 3.1099 2.3878
4.0005 3.2401 2.3878
3.8687 3.3650 2.3878
3.7326 3.4842 2.3878
3.5923 3.5978 2.3878
3.4483 3.7056 2.3878
3.3008 3.8074 2.3878
3.1500 3.9032 2.3878
2.9963 3.9929 2.3878
2.8398 4.0764 2.3878
2.6809 4.1537 2.3878
0.9449 1.5843 0.8954
0.8875 1.6153 0.8992
0.8290 1.6442 0.9030
0.7695 1.6710 0.9069
0.7091 1.6957 0.9108
0.6478 1.7181 0.9147
0.5858 1.7384 0.9187
0.5230 1.7563 0.9227
0.4597 1.7720 0.9267
0.3958 1.7854 0.9307
0.3314 1.7965 0.9348
0.2668 1.8053 0.9388
0.2018 1.8117 0.9429
0.1366 1.8157 0.9470
0.0713 1.8174 0.9510
0.0061 1.8168 0.9550
-0.0592 1.8138 0.9591
-0.1243 1.8084 0.9630
-0.1891 1.8007 0.9670
-0.2536 1.7906 0.9709
-0.3178 1.7783 0.9748
-0.3814 1.7636 0.9786
-0.4445 1.7466 0.9824
-0.5069 1.7274 0.9861
-0.5686 1.7059 0.9898
-0.6295 1.6822 0.9934
-0.6894 1.6563 0.9969
-0.7484 1.6283 1.0004
-0.8064 1.5981 1.0038
-2.0468 3.7129 2.3878
-2.1718 3.6202 2.3878
-2.2932 3.5237 2.3878
-2.4110 3.4236 2.3878
-2.5250 3.3200 2.3878
-2.6352 3.2130 2.3878
-2.7415 3.1028 2.3878
-2.8438 2.9895 2.3878
-2.9420 2.8732 2.3878
-3.0361 2.7541 2.3878
-3.1261 2.6323 2.3878
-3.2118 2.5079 2.3878
-3.2933 2.3811 2.3878
-3.3704 2.2520 2.3878
-3.4431 2.1208 2.3878
-3.5114 1.9875 2.3878
-3.5752 1.8523 2.3878
-3.6345 1.7154 2.3878
-3.6893 1.5768 2.3878
-3.7395 1.4367 2.3878
-3.7851 1.2952 2.3878
-3.8261 1.1525 2.3878
-3.8624 1.0086 2.3878
-3.8941 0.8638 2.3878
-3.9211 0.7181 2.3878
-3.9433 0.5717 2.3878
-3.9609 0.4247 2.3878
-3.9737 0.2772 2.3878
-3.9817 0.1294 2.3878
-3.9850 -0.0186 2.3878
-3.9835 -0.1667 2.3878
-3.9773 -0.3148 2.3878
-3.9663 -0.4626 2.3878
-3.9505 -0.6102 2.3878
-3.9299 -0.7573 2.3878
-3.9046 -0.9038 2.3878
-3.8746 -1.0496 2.3878
-3.8398 -1.1946 2.3878
-3.8002 -1.3386 2.3878
-3.7560 -1.4815 2.3878
-3.7070 -1.6231 2.3878
-3.6534 -1.7634 2.3878
-3.5952 -1.9021 2.3878
-3.5323 -2.0392 2.3878
-3.4648 -2.1744 2.3878
-3.3928 -2.3078 2.3878
-3.3162 -2.4390 2.3878
-3.2352 -2.5680 2.3878
-3.1497 -2.6947 2.3878
-3.0599 -2.8188 2.3878
-2.9657 -2.9403 2.3878
-2.8672 -3.0590 2.3878
-2.7645 -3.1748 2.3878
-2.6577 -3.2874 2.3878
-2.5467 -3.3968 2.3878
-2.4318 -3.5029 2.3878
-2.3130 -3.6054 2.3878
-2.1903 -3.7043 2.3878
-2.0639 -3.7993 2.3878
-1.9338 -3.8903 2.3878
-1.8002 -3.9773 2.3878
