ply
format ascii 1.0
element vertex 2174
property float32 x
property float32 y
property float32 z
end_header
-7.2184 1.0635 2.4096
-7.2690 0.8059 2.4096
-7.3104 0.5460 2.4096
-7.3425 0.2843 2.4096
-7.3651 0.0210 2.4096
-7.3781 -0.2435 2.4096
-7.3815 -0.5088 2.4096
-7.3753 -0.7745 2.4096
-7.3593 -1.0405 2.4096
-7.3336 -1.3061 2.4096
-7.2980 -1.5712 2.4096
-7.2527 -1.8353 2.4096
-7.1976 -2.0980 2.4096
-7.1327 -2.3590 2.4096
-7.0580 -2.6179 2.4096
-6.9737 -2.8743 2.4096
-6.8797 -3.1278 2.4096
-6.7763 -3.3781 2.4096
-6.6634 -3.6247 2.4096
-6.5411 -3.8673 2.4096
-6.4097 -4.1056 2.4096
-6.2693 -4.3391 2.4096
-6.1200 -4.5675 2.4096
-5.9620 -4.7904 2.4096
-5.7955 -5.0075 2.4096
-5.6208 -5.2184 2.4096
-5.4380 -5.4228 2.4096
-5.2474 -5.6204 2.4096
-5.0493 -5.8108 2.4096
-4.8439 -5.9938 2.4096
-4.6315 -6.1689 2.4096
-4.4124 -6.3362 2.4096
-4.1870 -6.4949 2.4096
-3.9556 -6.6451 2.4096
-3.7185 -6.7865 2.4096
-3.4760 -6.9189 2.4096
-3.2286 -7.0420 2.4096
-2.9765 -7.1556 2.4096
-2.7202 -7.2595 2.4096
-2.4601 -7.3536 2.4096
-2.1965 -7.4377 2.4096
-1.9299 -7.5117 2.4096
-1.6607 -7.5755 2.4096
-1.3893 -7.6290 2.4096
-1.1160 -7.6720 2.4096
-0.8414 -7.7046 2.4096
-0.5658 -7.7267 2.4096
-0.2897 -7.7382 2.4096
-0.0132 -7.1665 2.4096
0.2422 -7.1581 2.4096
0.4970 -7.1400 2.4096
0.7508 -7.1122 2.4096
1.0031 -7.0749 2.4096
1.2537 -7.0281 2.4096
1.5021 -6.9720 2.4096
1.7480 -6.9065 2.4096
1.9911 -6.8319 2.4096
2.2309 -6.7483 2.4096
2.4671 -6.6558 2.4096
2.6995 -6.5547 2.4096
2.9276 -6.4450 2.4096
3.1512 -6.3270 2.4096
3.3699 -6.2009 2.4096
3.4546 -5.8486 2.3229
3.5518 -5.5504 2.2572
3.7415 -5.4108 2.2572
3.9258 -5.2647 2.2573
4.1049 -5.1128 2.2578
4.2780 -4.9547 2.2583
4.4448 -4.7904 2.2588
4.6053 -4.6204 2.2592
4.7591 -4.4447 2.2596
4.9060 -4.2638 2.2601
5.0460 -4.0779 2.2605
5.1788 -3.8872 2.2609
5.3043 -3.6922 2.2612
5.4224 -3.4930 2.2616
5.5237 -3.2845 2.2581
5.6193 -3.0743 2.2557
5.7146 -2.8654 2.2562
5.8013 -2.6531 2.2564
5.8802 -2.4382 2.2565
5.9511 -2.2210 2.2567
6.0140 -2.0019 2.2569
5.8295 -1.7108 2.1681
6.1158 -1.5587 2.2573
6.1547 -1.3354 2.2575
6.1855 -1.1112 2.2577
6.2083 -0.8865 2.2580
6.2230 -0.6615 2.2582
6.2297 -0.4365 2.2584
5.7035 -0.1941 2.0682
6.2193 0.0121 2.2588
6.2023 0.2352 2.2590
6.1775 0.4572 2.2593
6.1449 0.6778 2.2595
6.1047 0.8968 2.2597
6.0569 1.1138 2.2599
6.0017 1.3287 2.2602
5.9391 1.5411 2.2604
5.8693 1.7509 2.2606
5.7923 1.9578 2.2609
5.7082 2.1616 2.2611
5.6173 2.3620 2.2613
5.5197 2.5589 2.2616
5.4154 2.7520 2.2618
5.3047 2.9411 2.2620
5.1873 3.1258 2.2621
5.0617 3.3048 2.2613
4.9233 3.4741 2.2572
4.7881 3.6445 2.2572
4.6473 3.8100 2.2572
4.5012 3.9704 2.2572
4.3497 4.1255 2.2572
4.1932 4.2751 2.2572
4.0319 4.4192 2.2572
3.8658 4.5575 2.2572
3.6953 4.6900 2.2572
3.5204 4.8164 2.2572
3.3498 4.9489 2.2628
3.3720 5.3918 2.4096
3.1730 5.5068 2.4096
2.9703 5.6149 2.4096
2.7640 5.7159 2.4096
2.5546 5.8099 2.4096
2.3421 5.8966 2.4096
0.8808 2.4749 0.9979
0.7908 2.5053 0.9982
0.6998 2.5325 0.9983
0.6078 2.5564 0.9984
0.5151 2.5770 0.9985
0.4216 2.5942 0.9984
0.3276 2.6080 0.9983
0.2331 2.6184 0.9981
0.1383 2.6254 0.9978
0.0433 2.6290 0.9975
-0.0518 2.6291 0.9971
-0.1468 2.6259 0.9966
-0.2417 2.6191 0.9960
-0.3362 2.6090 0.9954
-0.4303 2.5954 0.9947
-0.5239 2.5785 0.9939
-0.6167 2.5582 0.9931
-0.7088 2.5345 0.9922
-0.8000 2.5076 0.9912
-0.8901 2.4773 0.9902
-2.3853 5.9538 2.4096
-2.6021 5.8714 2.4096
-2.8161 5.7815 2.4096
-3.0272 5.6842 2.4096
-3.2352 5.5795 2.4096
-3.4396 5.4676 2.4096
-3.6403 5.3484 2.4096
-3.8371 5.2223 2.4096
-4.0297 5.0892 2.4096
-4.2179 4.9492 2.4096
-4.4014 4.8026 2.4096
-4.5800 4.6495 2.4096
-4.7535 4.4899 2.4096
-4.9215 4.3241 2.4096
-5.0840 4.1523 2.4096
-5.2406 3.9745 2.4096
-5.3912 3.7911 2.4096
-5.5355 3.6021 2.4096
-5.6733 3.4078 2.4096
-5.8044 3.2083 2.4096
-5.9287 3.0040 2.4096
-6.0459 2.7950 2.4096
-6.1558 2.5816 2.4096
-6.2583 2.3640 2.4096
-6.3532 2.1424 2.4096
-6.4403 1.9172 2.4096
-6.5195 1.6886 2.4096
-6.5905 1.4568 2.4096
-6.6534 1.2221 2.4096
-6.7079 0.9849 2.4096
-6.7539 0.7453 2.4096
-6.7913 0.5039 2.4096
-6.8200 0.2607 2.4096
-6.8400 0.0162 2.4096
-6.8511 -0.2294 2.4096
-6.8533 -0.4756 2.4096
-6.8465 -0.7223 2.4096
-6.8306 -0.9689 2.4096
-6.8058 -1.2153 2.4096
-6.7718 -1.4611 2.4096
-6.7288 -1.7059 2.4096
-6.6767 -1.9493 2.4096
-6.6156 -2.1911 2.4096
-6.5455 -2.4309 2.4096
-6.4665 -2.6683 2.4096
-6.3786 -2.9030 2.4096
-6.2819 -3.1346 2.4096
-6.1765 -3.3628 2.4096
-6.0625 -3.5872 2.4096
-5.9400 -3.8076 2.4096
-5.8092 -4.0235 2.4096
-5.6703 -4.2347 2.4096
-5.5234 -4.4407 2.4096
-5.3687 -4.6414 2.4096
-5.2063 -4.8363 2.4096
-5.0366 -5.0252 2.4096
-4.8597 -5.2077 2.4096
-4.6759 -5.3836 2.4096
-4.4854 -5.5524 2.4096
-4.2885 -5.7144 2.4096
-4.0854 -5.8688 2.4096
-3.8766 -6.0155 2.4096
-3.6622 -6.1542 2.4096
-3.4425 -6.2848 2.4096
-3.2180 -6.4071 2.4096
-2.9888 -6.5207 2.4096
-2.7555 -6.6257 2.4096
-2.5183 -6.7217 2.4096
-2.2775 -6.8087 2.4096
-2.0336 -6.8865 2.4096
-1.7868 -6.9549 2.4096
-1.5377 -7.0140 2.4096
-1.2865 -7.0635 2.4096
-1.0336 -7.1035 2.4096
-0.7795 -7.1338 2.4096
-0.5245 -7.1544 2.4096
-0.2689 -7.1653 2.4096
-0.0132 -7.1665 2.4096
0.2422 -7.1581 2.4096
0.4970 -7.1400 2.4096
0.7507 -7.1122 2.4096
1.0031 -7.0749 2.4096
1.2536 -7.0281 2.4096
1.5021 -6.9720 2.4096
1.7480 -6.9065 2.4096
1.9910 -6.8319 2.4096
2.2308 -6.7483 2.4096
2.4671 -6.6559 2.4096
2.6994 -6.5547 2.4096
2.9276 -6.4450 2.4096
3.1511 -6.3270 2.4096
3.3699 -6.2009 2.4096
3.4546 -5.8487 2.3229
3.5518 -5.5505 2.2572
3.7415 -5.4108 2.2572
3.9257 -5.2647 2.2573
4.1048 -5.1129 2.2578
4.2779 -4.9547 2.2583
4.4448 -4.7905 2.2588
4.6052 -4.6204 2.2592
4.7590 -4.4448 2.2596
4.9060 -4.2638 2.2601
5.0460 -4.0779 2.2605
5.1788 -3.8873 2.2609
5.3043 -3.6922 2.2612
5.4224 -3.4930 2.2616
5.5236 -3.2844 2.2581
5.6193 -3.0743 2.2557
5.7146 -2.8654 2.2562
5.8013 -2.6531 2.2564
5.8801 -2.4383 2.2565
5.9510 -2.2211 2.2567
6.0140 -2.0019 2.2569
5.8295 -1.7108 2.1681
6.1158 -1.5588 2.2573
6.1547 -1.3354 2.2575
6.1855 -1.1112 2.2577
6.2083 -0.8865 2.2580
6.2230 -0.6615 2.2582
6.2297 -0.4366 2.2584
5.7035 -0.1941 2.0682
6.2193 0.0120 2.2588
6.2023 0.2352 2.2590
6.1775 0.4572 2.2593
6.1449 0.6778 2.2595
6.1047 0.8967 2.2597
6.0570 1.1138 2.2599
6.0017 1.3286 2.2602
5.9391 1.5411 2.2604
5.8693 1.7509 2.2606
5.7923 1.9578 2.2609
5.7083 2.1615 2.2611
5.6174 2.3620 2.2613
5.5197 2.5588 2.2616
5.4154 2.7519 2.2618
5.3047 2.9411 2.2620
5.1873 3.1258 2.2621
5.0618 3.3048 2.2613
4.9233 3.4740 2.2572
4.7881 3.6445 2.2572
4.6474 3.8100 2.2572
4.5012 3.9703 2.2572
4.3498 4.1254 2.2572
4.1933 4.2751 2.2572
4.0319 4.4192 2.2572
3.8658 4.5575 2.2572
3.6953 4.6900 2.2572
3.5205 4.8164 2.2572
3.3498 4.9488 2.2627
3.3721 5.3918 2.4096
3.1730 5.5068 2.4096
2.9703 5.6149 2.4096
2.7641 5.7159 2.4096
2.5546 5.8098 2.4096
2.3422 5.8966 2.4096
0.8809 2.4749 0.9979
0.7909 2.5053 0.9982
0.6998 2.5325 0.9983
0.6079 2.5564 0.9984
0.5151 2.5770 0.9985
0.4216 2.5942 0.9984
0.3276 2.6080 0.9983
0.2331 2.6184 0.9981
0.1383 2.6254 0.9978
0.0433 2.6290 0.9975
-0.0518 2.6292 0.9971
-0.1468 2.6259 0.9966
-0.2416 2.6191 0.9960
-0.3362 2.6090 0.9954
-0.4303 2.5954 0.9947
-0.5238 2.5785 0.9939
-0.6167 2.5582 0.9931
-0.7088 2.5345 0.9922
-0.8000 2.5076 0.9912
-0.8901 2.4774 0.9902
-2.3853 5.9538 2.4096
-2.6020 5.8714 2.4096
-2.8161 5.7815 2.4096
-3.0272 5.6842 2.4096
-3.2352 5.5795 2.4096
-3.4396 5.4676 2.4096
-3.6403 5.3485 2.4096
-3.8371 5.2223 2.4096
-4.0297 5.0892 2.4096
-4.2179 4.9493 2.4096
-4.4014 4.8027 2.4096
-4.5800 4.6495 2.4096
-4.7534 4.4900 2.4096
-4.9215 4.3242 2.4096
-5.0839 4.1523 2.4096
-5.2406 3.9746 2.4096
-5.3912 3.7911 2.4096
-5.5354 3.6021 2.4096
-5.6733 3.4078 2.4096
-5.8044 3.2084 2.4096
-5.9287 3.0041 2.4096
-6.0459 2.7951 2.4096
-6.1558 2.5816 2.4096
-6.2583 2.3640 2.4096
-6.3532 2.1425 2.4096
-6.4403 1.9173 2.4096
-6.5194 1.6886 2.4096
-6.5905 1.4568 2.4096
-6.6534 1.2221 2.4096
-6.7079 0.9849 2.4096
-6.7539 0.7454 2.4096
-6.7913 0.5039 2.4096
-6.8200 0.2607 2.4096
-6.8400 0.0162 2.4096
-6.8511 -0.2293 2.4096
-6.8533 -0.4756 2.4096
-6.8465 -0.7222 2.4096
-6.8306 -0.9689 2.4096
-6.8058 -1.2153 2.4096
-6.7718 -1.4611 2.4096
-6.7288 -1.7058 2.4096
-6.6767 -1.9493 2.4096
-6.6156 -2.1911 2.4096
-6.5455 -2.4309 2.4096
-6.4665 -2.6683 2.4096
-6.3786 -2.9029 2.4096
-6.2819 -3.1345 2.4096
-6.1765 -3.3627 2.4096
-6.0625 -3.5872 2.4096
-5.9400 -3.8076 2.4096
-5.8093 -4.0235 2.4096
-5.6703 -4.2346 2.4096
-5.5234 -4.4407 2.4096
-5.3687 -4.6413 2.4096
-5.2064 -4.8363 2.4096
-5.0366 -5.0251 2.4096
-4.8597 -5.2077 2.4096
-4.6759 -5.3836 2.4096
-4.4855 -5.5522 2.4096
-4.2885 -5.7144 2.4096
-4.0855 -5.8687 2.4096
-3.8766 -6.0154 2.4096
-3.6622 -6.1542 2.4096
-3.4426 -6.2848 2.4096
-3.2180 -6.4070 2.4096
-2.9889 -6.5207 2.4096
-2.7555 -6.6257 2.4096
-2.5183 -6.7217 2.4096
-2.2775 -6.8087 2.4096
-2.0336 -6.8865 2.4096
-1.7869 -6.9549 2.4096
-1.5377 -7.0140 2.4096
-1.2866 -7.0635 2.4096
-1.0337 -7.1035 2.4096
-0.7795 -7.1338 2.4096
-0.5245 -7.1544 2.4096
-0.2689 -7.1653 2.4096
-0.0131 -6.6657 2.4096
0.2244 -6.6581 2.4096
0.4613 -6.6416 2.4096
0.6972 -6.6161 2.4096
0.9319 -6.5817 2.4096
1.1650 -6.5386 2.4096
1.3961 -6.4868 2.4096
1.6249 -6.4264 2.4096
1.8510 -6.3574 2.4096
2.0742 -6.2802 2.4096
2.2942 -6.1946 2.4096
2.5105 -6.1012 2.4096
2.7230 -5.9995 2.4096
2.9313 -5.8903 2.4096
3.1351 -5.7735 2.4096
3.3342 -5.6494 2.4096
3.4134 -5.3383 2.3311
3.4820 -5.0396 2.2572
3.6537 -4.9038 2.2572
3.8201 -4.7621 2.2572
3.9816 -4.6152 2.2577
4.1373 -4.4628 2.2581
4.2872 -4.3049 2.2585
4.4308 -4.1418 2.2589
4.5682 -3.9738 2.2593
4.6991 -3.8011 2.2597
4.8233 -3.6239 2.2600
4.9408 -3.4426 2.2604
5.0514 -3.2574 2.2607
5.1550 -3.0686 2.2610
5.2515 -2.8764 2.2613
5.3407 -2.6812 2.2616
5.4188 -2.4814 2.2603
5.4844 -2.2773 2.2569
5.5510 -2.0749 2.2569
5.6106 -1.8707 2.2572
5.6626 -1.6649 2.2574
5.7071 -1.4576 2.2576
5.7441 -1.2493 2.2578
5.7736 -1.0402 2.2580
5.7955 -0.8305 2.2582
5.8100 -0.6205 2.2584
5.8170 -0.4105 2.2586
5.7037 -0.1969 2.2149
5.8087 0.0084 2.2590
5.7935 0.2169 2.2592
5.7710 0.4244 2.2594
5.7412 0.6306 2.2596
5.7043 0.8352 2.2598
5.6603 1.0382 2.2600
5.6093 1.2391 2.2603
5.5513 1.4379 2.2605
5.4866 1.6341 2.2607
5.4151 1.8278 2.2609
5.3371 2.0185 2.2611
5.2526 2.2061 2.2613
5.1617 2.3905 2.2615
5.0646 2.5713 2.2618
4.9619 2.7487 2.2622
4.8519 2.9213 2.2620
4.7266 3.0837 2.2572
4.6059 3.2479 2.2572
4.4798 3.4076 2.2572
4.3484 3.5627 2.2572
4.2119 3.7131 2.2572
4.0704 3.8585 2.2572
3.9242 3.9988 2.2572
3.7734 4.1339 2.2572
3.6182 4.2636 2.2572
3.4587 4.3879 2.2572
3.2952 4.5065 2.2572
3.1278 4.6193 2.2572
3.1565 5.0454 2.4096
2.9702 5.1532 2.4096
2.7804 5.2545 2.4096
2.5874 5.3493 2.4096
2.3914 5.4374 2.4096
0.9042 2.2760 0.9938
0.8214 2.3074 0.9941
0.7374 2.3358 0.9943
0.6525 2.3612 0.9945
0.5667 2.3835 0.9946
0.4801 2.4026 0.9946
0.3930 2.4187 0.9946
0.3052 2.4316 0.9945
0.2171 2.4413 0.9943
0.1287 2.4478 0.9940
0.0401 2.4511 0.9937
-0.0486 2.4512 0.9933
-0.1373 2.4481 0.9929
-0.2257 2.4419 0.9923
-0.3139 2.4324 0.9917
-0.4017 2.4198 0.9911
-0.4889 2.4040 0.9904
-0.5756 2.3850 0.9896
-0.6615 2.3630 0.9887
-0.7465 2.3378 0.9878
-0.8306 2.3096 0.9869
-0.9136 2.2784 0.9858
-2.4357 5.4914 2.4096
-2.6358 5.4068 2.4096
-2.8331 5.3153 2.4096
-3.0274 5.2169 2.4096
-3.2184 5.1118 2.4096
-3.4059 4.9999 2.4096
-3.5897 4.8814 2.4096
-3.7694 4.7564 2.4096
-3.9450 4.6251 2.4096
-4.1161 4.4876 2.4096
-4.2826 4.3439 2.4096
-4.4444 4.1943 2.4096
-4.6010 4.0388 2.4096
-4.7523 3.8778 2.4096
-4.8981 3.7112 2.4096
-5.0382 3.5393 2.4096
-5.1725 3.3623 2.4096
-5.3006 3.1804 2.4096
-5.4224 2.9937 2.4096
-5.5378 2.8025 2.4096
-5.6465 2.6070 2.4096
-5.7485 2.4074 2.4096
-5.8434 2.2039 2.4096
-5.9312 1.9968 2.4096
-6.0117 1.7863 2.4096
-6.0848 1.5727 2.4096
-6.1503 1.3562 2.4096
-6.2081 1.1371 2.4096
-6.2581 0.9156 2.4096
-6.3002 0.6921 2.4096
-6.3343 0.4668 2.4096
-6.3602 0.2400 2.4096
-6.3780 0.0120 2.4096
-6.3875 -0.2169 2.4096
-6.3887 -0.4465 2.4096
-6.3816 -0.6763 2.4096
-6.3660 -0.9061 2.4096
-6.3420 -1.1355 2.4096
-6.3096 -1.3643 2.4096
-6.2688 -1.5922 2.4096
-6.2195 -1.8188 2.4096
-6.1618 -2.0437 2.4096
-6.0958 -2.2668 2.4096
-6.0216 -2.4875 2.4096
-5.9390 -2.7057 2.4096
-5.8484 -2.9211 2.4096
-5.7496 -3.1332 2.4096
-5.6430 -3.3417 2.4096
-5.5285 -3.5465 2.4096
-5.4062 -3.7470 2.4096
-5.2765 -3.9431 2.4096
-5.1393 -4.1345 2.4096
-4.9950 -4.3208 2.4096
-4.8436 -4.5017 2.4096
-4.6853 -4.6771 2.4096
-4.5205 -4.8465 2.4096
-4.3492 -5.0097 2.4096
-4.1718 -5.1666 2.4096
-3.9885 -5.3167 2.4096
-3.7994 -5.4600 2.4096
-3.6051 -5.5961 2.4096
-3.4056 -5.7249 2.4096
-3.2012 -5.8461 2.4096
-2.9924 -5.9595 2.4096
-2.7793 -6.0650 2.4096
-2.5623 -6.1624 2.4096
-2.3417 -6.2516 2.4096
-2.1179 -6.3323 2.4096
-1.8911 -6.4046 2.4096
-1.6618 -6.4682 2.4096
-1.4302 -6.5231 2.4096
-1.1967 -6.5692 2.4096
-0.9617 -6.6064 2.4096
-0.7254 -6.6347 2.4096
-0.4884 -6.6540 2.4096
-0.2508 -6.6644 2.4096
-0.0131 -6.6657 2.4096
0.2243 -6.6581 2.4096
0.4612 -6.6416 2.4096
0.6972 -6.6161 2.4096
0.9319 -6.5817 2.4096
1.1649 -6.5386 2.4096
1.3960 -6.4868 2.4096
1.6248 -6.4264 2.4096
1.8510 -6.3575 2.4096
2.0742 -6.2802 2.4096
2.2941 -6.1947 2.4096
2.5105 -6.1012 2.4096
2.7230 -5.9996 2.4096
2.9312 -5.8903 2.4096
3.1351 -5.7735 2.4096
3.3342 -5.6494 2.4096
3.4134 -5.3384 2.3311
3.4820 -5.0396 2.2572
3.6537 -4.9039 2.2572
3.8201 -4.7621 2.2572
3.9815 -4.6153 2.2577
4.1373 -4.4628 2.2581
4.2871 -4.3049 2.2585
4.4308 -4.1419 2.2589
4.5682 -3.9738 2.2593
4.6991 -3.8011 2.2597
4.8233 -3.6240 2.2600
4.9408 -3.4426 2.2604
5.0514 -3.2574 2.2607
5.1550 -3.0686 2.2610
5.2514 -2.8764 2.2613
5.3407 -2.6812 2.2616
5.4188 -2.4815 2.2603
5.4844 -2.2772 2.2569
5.5510 -2.0749 2.2569
5.6106 -1.8708 2.2572
5.6626 -1.6649 2.2574
5.7071 -1.4577 2.2576
5.7441 -1.2493 2.2578
5.7736 -1.0402 2.2580
5.7955 -0.8305 2.2582
5.8100 -0.6206 2.2584
5.8170 -0.4106 2.2586
5.7037 -0.1969 2.2149
5.8087 0.0084 2.2590
5.7935 0.2169 2.2592
5.7710 0.4243 2.2594
5.7412 0.6305 2.2596
5.7043 0.8352 2.2598
5.6603 1.0381 2.2600
5.6093 1.2391 2.2603
5.5513 1.4378 2.2605
5.4866 1.6341 2.2607
5.4152 1.8277 2.2609
5.3371 2.0185 2.2611
5.2526 2.2061 2.2613
5.1617 2.3904 2.2615
5.0647 2.5713 2.2618
4.9620 2.7486 2.2622
4.8519 2.9213 2.2620
4.7266 3.0836 2.2572
4.6060 3.2478 2.2572
4.4798 3.4076 2.2572
4.3484 3.5627 2.2572
4.2119 3.7131 2.2572
4.0705 3.8585 2.2572
3.9242 3.9988 2.2572
3.7734 4.1339 2.2572
3.6182 4.2636 2.2572
3.4587 4.3878 2.2572
3.2952 4.5064 2.2572
3.1279 4.6193 2.2572
3.1565 5.0454 2.4096
2.9702 5.1532 2.4096
2.7805 5.2545 2.4096
2.5875 5.3493 2.4096
2.3914 5.4374 2.4096
0.9042 2.2760 0.9938
0.8214 2.3074 0.9941
0.7374 2.3358 0.9943
0.6525 2.3612 0.9945
0.5667 2.3835 0.9946
0.4802 2.4026 0.9946
0.3930 2.4187 0.9946
0.3053 2.4316 0.9945
0.2171 2.4413 0.9943
0.1287 2.4478 0.9940
0.0401 2.4511 0.9937
-0.0486 2.4512 0.9933
-0.1372 2.4481 0.9929
-0.2257 2.4419 0.9923
-0.3139 2.4324 0.9917
-0.4017 2.4198 0.9911
-0.4889 2.4040 0.9904
-0.5756 2.3850 0.9896
-0.6615 2.3630 0.9887
-0.7465 2.3378 0.9878
-0.8306 2.3096 0.9869
-0.9136 2.2784 0.9858
-2.4356 5.4914 2.4096
-2.6358 5.4068 2.4096
-2.8331 5.3153 2.4096
-3.0274 5.2170 2.4096
-3.2184 5.1118 2.4096
-3.4058 4.9999 2.4096
-3.5896 4.8814 2.4096
-3.7693 4.7565 2.4096
-3.9449 4.6251 2.4096
-4.1162 4.4876 2.4096
-4.2827 4.3439 2.4096
-4.4444 4.1943 2.4096
-4.6009 4.0389 2.4096
-4.7523 3.8778 2.4096
-4.8981 3.7112 2.4096
-5.0382 3.5393 2.4096
-5.1725 3.3623 2.4096
-5.3005 3.1804 2.4096
-5.4224 2.9938 2.4096
-5.5378 2.8026 2.4096
-5.6465 2.6070 2.4096
-5.7484 2.4074 2.4096
-5.8434 2.2040 2.4096
-5.9312 1.9969 2.4096
-6.0117 1.7864 2.4096
-6.0848 1.5727 2.4096
-6.1503 1.3562 2.4096
-6.2081 1.1371 2.4096
-6.2581 0.9157 2.4096
-6.3002 0.6921 2.4096
-6.3343 0.4668 2.4096
-6.3602 0.2400 2.4096
-6.3780 0.0120 2.4096
-6.3875 -0.2169 2.4096
-6.3887 -0.4464 2.4096
-6.3816 -0.6762 2.4096
-6.3660 -0.9060 2.4096
-6.3420 -1.1355 2.4096
-6.3096 -1.3643 2.4096
-6.2688 -1.5922 2.4096
-6.2195 -1.8187 2.4096
-6.1619 -2.0437 2.4096
-6.0959 -2.2667 2.4096
-6.0216 -2.4875 2.4096
-5.9390 -2.7057 2.4096
-5.8484 -2.9210 2.4096
-5.7497 -3.1331 2.4096
-5.6430 -3.3417 2.4096
-5.5285 -3.5464 2.4096
-5.4063 -3.7470 2.4096
-5.2765 -3.9431 2.4096
-5.1393 -4.1345 2.4096
-4.9950 -4.3208 2.4096
-4.8436 -4.5017 2.4096
-4.6853 -4.6772 2.4096
-4.5205 -4.8465 2.4096
-4.3492 -5.0097 2.4096
-4.1718 -5.1666 2.4096
-3.9885 -5.3167 2.4096
-3.7995 -5.4599 2.4096
-3.6051 -5.5961 2.4096
-3.4056 -5.7248 2.4096
-3.2013 -5.8460 2.4096
-2.9924 -5.9595 2.4096
-2.7793 -6.0650 2.4096
-2.5623 -6.1624 2.4096
-2.3418 -6.2516 2.4096
-2.1179 -6.3323 2.4096
-1.8912 -6.4046 2.4096
-1.6618 -6.4682 2.4096
-1.4302 -6.5231 2.4096
-1.1967 -6.5692 2.4096
-0.9617 -6.6064 2.4096
-0.7255 -6.6347 2.4096
-0.4884 -6.6540 2.4096
-0.2508 -6.6644 2.4096
-0.0130 -6.2237 2.4096
0.2086 -6.2168 2.4096
0.4297 -6.2015 2.4096
0.6500 -6.1780 2.4096
0.8690 -6.1463 2.4096
1.0866 -6.1063 2.4096
1.3024 -6.0583 2.4096
1.5161 -6.0022 2.4096
1.7273 -5.9383 2.4096
1.9358 -5.8665 2.4096
2.1413 -5.7871 2.4096
2.3435 -5.7001 2.4096
2.5421 -5.6058 2.4096
2.7369 -5.5042 2.4096
2.9275 -5.3956 2.4096
3.1137 -5.2801 2.4096
3.2953 -5.1579 2.4096
3.3763 -4.8906 2.3432
3.4131 -4.5848 2.2572
3.5689 -4.4527 2.2572
3.7195 -4.3152 2.2572
3.8652 -4.1728 2.2575
4.0056 -4.0257 2.2579
4.1402 -3.8736 2.2583
4.2690 -3.7170 2.2586
4.3918 -3.5559 2.2590
4.5084 -3.3906 2.2593
4.6187 -3.2215 2.2596
4.7226 -3.0486 2.2599
4.8200 -2.8724 2.2602
4.9107 -2.6929 2.2605
4.9947 -2.5106 2.2608
5.0719 -2.3256 2.2610
5.1422 -2.1383 2.2613
5.2056 -1.9488 2.2615
5.2620 -1.7575 2.2617
5.3110 -1.5645 2.2617
5.3475 -1.3686 2.2594
5.3787 -1.1727 2.2579
5.4067 -0.9770 2.2580
5.4283 -0.7807 2.2583
5.4424 -0.5841 2.2585
5.4496 -0.3874 2.2587
5.4498 -0.1909 2.2589
5.4430 0.0052 2.2591
5.4293 0.2006 2.2593
5.4087 0.3951 2.2595
5.3814 0.5884 2.2597
5.3473 0.7804 2.2599
5.3066 0.9707 2.2601
5.2592 1.1593 2.2603
5.2054 1.3458 2.2605
5.1451 1.5300 2.2607
5.0786 1.7118 2.2609
5.0079 1.8916 2.2621
4.9282 2.0675 2.2619
4.8426 2.2403 2.2617
4.7510 2.4098 2.2616
4.6538 2.5757 2.2614
4.5510 2.7379 2.2611
4.4427 2.8962 2.2609
4.3224 3.0458 2.2572
4.2043 3.1959 2.2572
4.0813 3.3418 2.2572
3.9534 3.4831 2.2572
3.8208 3.6198 2.2572
3.6837 3.7518 2.2572
3.5423 3.8788 2.2572
3.3967 4.0008 2.2572
3.2471 4.1176 2.2572
3.0937 4.2292 2.2572
2.9530 4.3594 2.2697
2.9636 4.7354 2.4096
2.7888 4.8369 2.4096
2.6106 4.9322 2.4096
2.4294 5.0213 2.4096
2.2453 5.1041 2.4096
0.8461 2.1293 0.9904
0.7685 2.1587 0.9907
0.6900 2.1853 0.9909
0.6105 2.2090 0.9911
0.5301 2.2298 0.9911
0.4491 2.2478 0.9912
0.3675 2.2628 0.9911
0.2854 2.2748 0.9910
0.2029 2.2839 0.9909
0.1201 2.2900 0.9906
0.0372 2.2931 0.9903
-0.0458 2.2932 0.9900
-0.1288 2.2903 0.9895
-0.2116 2.2844 0.9891
-0.2941 2.2755 0.9885
-0.3763 2.2637 0.9879
-0.4579 2.2489 0.9872
-0.5390 2.2312 0.9865
-0.6194 2.2105 0.9857
-0.6990 2.1870 0.9848
-0.7777 2.1606 0.9839
-0.8554 2.1314 0.9830
-2.2870 5.1517 2.4096
-2.4747 5.0720 2.4096
-2.6597 4.9858 2.4096
-2.8419 4.8931 2.4096
-3.0208 4.7940 2.4096
-3.1965 4.6886 2.4096
-3.3686 4.5770 2.4096
-3.5370 4.4594 2.4096
-3.7015 4.3358 2.4096
-3.8616 4.2064 2.4096
-4.0174 4.0713 2.4096
-4.1687 3.9305 2.4096
-4.3151 3.7844 2.4096
-4.4566 3.6330 2.4096
-4.5928 3.4765 2.4096
-4.7237 3.3150 2.4096
-4.8490 3.1487 2.4096
-4.9685 2.9779 2.4096
-5.0822 2.8026 2.4096
-5.1897 2.6231 2.4096
-5.2910 2.4396 2.4096
-5.3859 2.2524 2.4096
-5.4742 2.0615 2.4096
-5.5558 1.8673 2.4096
-5.6306 1.6699 2.4096
-5.6984 1.4697 2.4096
-5.7590 1.2668 2.4096
-5.8125 1.0615 2.4096
-5.8586 0.8541 2.4096
-5.8973 0.6448 2.4096
-5.9285 0.4339 2.4096
-5.9521 0.2216 2.4096
-5.9680 0.0082 2.4096
-5.9762 -0.2059 2.4096
-5.9767 -0.4206 2.4096
-5.9693 -0.6355 2.4096
-5.9540 -0.8503 2.4096
-5.9309 -1.0648 2.4096
-5.9000 -1.2786 2.4096
-5.8611 -1.4915 2.4096
-5.8145 -1.7031 2.4096
-5.7600 -1.9132 2.4096
-5.6977 -2.1214 2.4096
-5.6277 -2.3275 2.4096
-5.5500 -2.5312 2.4096
-5.4648 -2.7321 2.4096
-5.3721 -2.9300 2.4096
-5.2719 -3.1246 2.4096
-5.1645 -3.3155 2.4096
-5.0499 -3.5026 2.4096
-4.9283 -3.6854 2.4096
-4.7999 -3.8638 2.4096
-4.6647 -4.0375 2.4096
-4.5230 -4.2061 2.4096
-4.3750 -4.3695 2.4096
-4.2208 -4.5274 2.4096
-4.0607 -4.6796 2.4096
-3.8948 -4.8257 2.4096
-3.7235 -4.9656 2.4096
-3.5469 -5.0991 2.4096
-3.3654 -5.2259 2.4096
-3.1790 -5.3458 2.4096
-2.9882 -5.4588 2.4096
-2.7933 -5.5644 2.4096
-2.5943 -5.6628 2.4096
-2.3918 -5.7536 2.4096
-2.1859 -5.8367 2.4096
-1.9771 -5.9120 2.4096
-1.7654 -5.9793 2.4096
-1.5514 -6.0387 2.4096
-1.3353 -6.0899 2.4096
-1.1175 -6.1330 2.4096
-0.8981 -6.1678 2.4096
-0.6777 -6.1942 2.4096
-0.4565 -6.2124 2.4096
-0.2348 -6.2222 2.4096
-0.0130 -6.2237 2.4096
0.2086 -6.2168 2.4096
0.4297 -6.2016 2.4096
0.6499 -6.1780 2.4096
0.8690 -6.1463 2.4096
1.0866 -6.1063 2.4096
1.3024 -6.0583 2.4096
1.5160 -6.0023 2.4096
1.7273 -5.9383 2.4096
1.9358 -5.8665 2.4096
2.1413 -5.7871 2.4096
2.3435 -5.7001 2.4096
2.5421 -5.6058 2.4096
2.7368 -5.5042 2.4096
2.9274 -5.3956 2.4096
3.1137 -5.2801 2.4096
3.2952 -5.1579 2.4096
3.3763 -4.8906 2.3432
3.4131 -4.5848 2.2572
3.5689 -4.4527 2.2572
3.7195 -4.3152 2.2572
3.8652 -4.1729 2.2575
4.0055 -4.0257 2.2579
4.1402 -3.8737 2.2583
4.2690 -3.7170 2.2586
4.3918 -3.5559 2.2590
4.5084 -3.3907 2.2593
4.6187 -3.2215 2.2596
4.7226 -3.0486 2.2599
4.8200 -2.8724 2.2602
4.9107 -2.6930 2.2605
4.9947 -2.5106 2.2608
5.0719 -2.3257 2.2610
5.1422 -2.1383 2.2613
5.2056 -1.9489 2.2615
5.2620 -1.7575 2.2617
5.3110 -1.5644 2.2617
5.3476 -1.3689 2.2594
5.3787 -1.1728 2.2579
5.4067 -0.9771 2.2580
5.4283 -0.7807 2.2583
5.4424 -0.5841 2.2585
5.4496 -0.3874 2.2587
5.4498 -0.1909 2.2589
5.4430 0.0052 2.2591
5.4293 0.2006 2.2593
5.4088 0.3950 2.2595
5.3814 0.5884 2.2597
5.3473 0.7803 2.2599
5.3066 0.9707 2.2601
5.2592 1.1592 2.2603
5.2054 1.3457 2.2605
5.1451 1.5299 2.2607
5.0786 1.7116 2.2609
5.0079 1.8915 2.2621
4.9282 2.0675 2.2619
4.8426 2.2403 2.2617
4.7511 2.4097 2.2616
4.6538 2.5757 2.2614
4.5510 2.7379 2.2611
4.4427 2.8962 2.2609
4.3224 3.0457 2.2572
4.2043 3.1959 2.2572
4.0813 3.3417 2.2572
3.9534 3.4831 2.2572
3.8208 3.6198 2.2572
3.6837 3.7518 2.2572
3.5423 3.8788 2.2572
3.3967 4.0008 2.2572
3.2471 4.1176 2.2572
3.0937 4.2292 2.2572
2.9530 4.3594 2.2697
2.9636 4.7354 2.4096
2.7888 4.8368 2.4096
2.6107 4.9321 2.4096
2.4294 5.0213 2.4096
2.2453 5.1041 2.4096
0.8461 2.1293 0.9904
0.7686 2.1587 0.9907
0.6900 2.1853 0.9909
0.6105 2.2090 0.9911
0.5302 2.2298 0.9911
0.4492 2.2478 0.9912
0.3675 2.2628 0.9911
0.2854 2.2748 0.9910
0.2029 2.2839 0.9909
0.1202 2.2900 0.9906
0.0372 2.2931 0.9903
-0.0458 2.2932 0.9900
-0.1287 2.2903 0.9895
-0.2115 2.2844 0.9891
-0.2941 2.2756 0.9885
-0.3762 2.2637 0.9879
-0.4579 2.2489 0.9872
-0.5390 2.2312 0.9865
-0.6194 2.2106 0.9857
-0.6990 2.1870 0.9848
-0.7777 2.1606 0.9839
-0.8554 2.1314 0.9830
-2.2870 5.1517 2.4096
-2.4747 5.0720 2.4096
-2.6597 4.9858 2.4096
-2.8418 4.8931 2.4096
-3.0207 4.7940 2.4096
-3.1964 4.6886 2.4096
-3.3686 4.5771 2.4096
-3.5370 4.4594 2.4096
-3.7014 4.3358 2.4096
-3.8616 4.2064 2.4096
-4.0174 4.0713 2.4096
-4.1687 3.9306 2.4096
-4.3151 3.7844 2.4096
-4.4565 3.6330 2.4096
-4.5928 3.4765 2.4096
-4.7237 3.3150 2.4096
-4.8490 3.1487 2.4096
-4.9685 2.9779 2.4096
-5.0822 2.8026 2.4096
-5.1897 2.6232 2.4096
-5.2910 2.4397 2.4096
-5.3859 2.2524 2.4096
-5.4742 2.0615 2.4096
-5.5558 1.8673 2.4096
-5.6306 1.6700 2.4096
-5.6984 1.4697 2.4096
-5.7590 1.2669 2.4096
-5.8125 1.0616 2.4096
-5.8586 0.8542 2.4096
-5.8973 0.6448 2.4096
-5.9285 0.4339 2.4096
-5.9521 0.2216 2.4096
-5.9680 0.0083 2.4096
-5.9762 -0.2059 2.4096
-5.9767 -0.4205 2.4096
-5.9693 -0.6354 2.4096
-5.9540 -0.8503 2.4096
-5.9309 -1.0647 2.4096
-5.9000 -1.2786 2.4096
-5.8612 -1.4914 2.4096
-5.8145 -1.7031 2.4096
-5.7600 -1.9131 2.4096
-5.6977 -2.1214 2.4096
-5.6277 -2.3275 2.4096
-5.5501 -2.5312 2.4096
-5.4648 -2.7321 2.4096
-5.3721 -2.9300 2.4096
-5.2719 -3.1245 2.4096
-5.1645 -3.3155 2.4096
-5.0499 -3.5025 2.4096
-4.9283 -3.6854 2.4096
-4.7999 -3.8638 2.4096
-4.6647 -4.0375 2.4096
-4.5230 -4.2061 2.4096
-4.3750 -4.3695 2.4096
-4.2208 -4.5274 2.4096
-4.0607 -4.6795 2.4096
-3.8949 -4.8257 2.4096
-3.7236 -4.9656 2.4096
-3.5470 -5.0990 2.4096
-3.3654 -5.2259 2.4096
-3.1791 -5.3458 2.4096
-2.9883 -5.4587 2.4096
-2.7933 -5.5644 2.4096
-2.5944 -5.6628 2.4096
-2.3918 -5.7535 2.4096
-2.1860 -5.8366 2.4096
-1.9771 -5.9119 2.4096
-1.7655 -5.9793 2.4096
-1.5515 -6.0387 2.4096
-1.3354 -6.0899 2.4096
-1.1175 -6.1329 2.4096
-0.8982 -6.1678 2.4096
-0.6778 -6.1942 2.4096
-0.4565 -6.2124 2.4096
-0.2349 -6.2222 2.4096
-0.0129 -5.8302 2.4096
0.1946 -5.8239 2.4096
0.4016 -5.8099 2.4096
0.6079 -5.7881 2.4096
0.8131 -5.7586 2.4096
1.0169 -5.7214 2.4096
1.2190 -5.6767 2.4096
1.4192 -5.6245 2.4096
1.6171 -5.5649 2.4096
1.8125 -5.4980 2.4096
2.0052 -5.4240 2.4096
2.1947 -5.3429 2.4096
2.3809 -5.2548 2.4096
2.5636 -5.1600 2.4096
2.7424 -5.0586 2.4096
2.9171 -4.9508 2.4096
3.0875 -4.8367 2.4096
3.2534 -4.7165 2.4096
3.3425 -4.4936 2.3588
3.3476 -4.1800 2.2590
3.4899 -4.0523 2.2595
3.6228 -3.9146 2.2572
3.7543 -3.7765 2.2573
3.8808 -3.6343 2.2577
4.0019 -3.4877 2.2580
4.1174 -3.3370 2.2584
4.2272 -3.1823 2.2587
4.3310 -3.0239 2.2590
4.4289 -2.8621 2.2593
4.5206 -2.6970 2.2595
4.6062 -2.5290 2.2598
4.6855 -2.3582 2.2600
4.7584 -2.1848 2.2603
4.8248 -2.0092 2.2605
4.8848 -1.8316 2.2607
4.9382 -1.6522 2.2609
4.9850 -1.4713 2.2610
5.0252 -1.2890 2.2612
5.0588 -1.1058 2.2613
5.0857 -0.9217 2.2615
5.1060 -0.7370 2.2616
5.1196 -0.5521 2.2616
5.1266 -0.3671 2.2617
5.1269 -0.1822 2.2618
5.1207 0.0023 2.2618
5.1079 0.1862 2.2618
5.0887 0.3692 2.2618
5.0629 0.5511 2.2618
5.0308 0.7317 2.2618
4.9924 0.9108 2.2617
4.9477 1.0882 2.2617
4.8969 1.2636 2.2616
4.8400 1.4369 2.2615
4.7771 1.6078 2.2614
4.7084 1.7761 2.2613
4.6339 1.9417 2.2611
4.5537 2.1044 2.2610
4.4680 2.2640 2.2608
4.3769 2.4202 2.2606
4.2805 2.5730 2.2604
4.1789 2.7221 2.2602
4.0723 2.8675 2.2600
3.9564 3.0054 2.2572
3.8408 3.1429 2.2572
3.7206 3.2761 2.2572
3.5960 3.4050 2.2572
3.4672 3.5294 2.2572
3.3342 3.6491 2.2572
3.1973 3.7642 2.2572
3.0566 3.8743 2.2572
2.9122 3.9795 2.2572
2.9111 4.2959 2.3769
2.7899 4.4563 2.4096
2.6253 4.5519 2.4096
2.4576 4.6417 2.4096
2.2870 4.7258 2.4096
0.8659 1.9678 0.9871
0.7941 1.9980 0.9874
0.7212 2.0256 0.9876
0.6475 2.0505 0.9879
0.5728 2.0727 0.9880
0.4974 2.0923 0.9881
0.4214 2.1091 0.9881
0.3448 2.1232 0.9881
0.2677 2.1345 0.9880
0.1902 2.1430 0.9878
0.1125 2.1487 0.9876
0.0346 2.1516 0.9873
-0.0433 2.1517 0.9870
-0.1212 2.1490 0.9866
-0.1989 2.1435 0.9861
-0.2764 2.1352 0.9856
-0.3535 2.1240 0.9850
-0.4302 2.1102 0.9844
-0.5063 2.0935 0.9837
-0.5818 2.0741 0.9830
-0.6565 2.0520 0.9822
-0.7304 2.0273 0.9813
-0.8033 1.9999 0.9804
-0.8752 1.9698 0.9794
-2.3297 4.7708 2.4096
-2.5036 4.6893 2.4096
-2.6749 4.6017 2.4096
-2.8431 4.5082 2.4096
-3.0082 4.4087 2.4096
-3.1699 4.3034 2.4096
-3.3281 4.1924 2.4096
-3.4824 4.0758 2.4096
-3.6329 3.9537 2.4096
-3.7791 3.8263 2.4096
-3.9210 3.6936 2.4096
-4.0584 3.5559 2.4096
-4.1910 3.4132 2.4096
-4.3187 3.2657 2.4096
-4.4413 3.1136 2.4096
-4.5587 2.9570 2.4096
-4.6706 2.7961 2.4096
-4.7770 2.6311 2.4096
-4.8776 2.4622 2.4096
-4.9723 2.2895 2.4096
-5.0609 2.1134 2.4096
-5.1433 1.9338 2.4096
-5.2195 1.7512 2.4096
-5.2891 1.5657 2.4096
-5.3522 1.3775 2.4096
-5.4086 1.1868 2.4096
-5.4583 0.9939 2.4096
-5.5010 0.7991 2.4096
-5.5367 0.6025 2.4096
-5.5654 0.4044 2.4096
-5.5870 0.2051 2.4096
-5.6013 0.0049 2.4096
-5.6085 -0.1960 2.4096
-5.6083 -0.3974 2.4096
-5.6008 -0.5990 2.4096
-5.5859 -0.8005 2.4096
-5.5637 -1.0016 2.4096
-5.5341 -1.2020 2.4096
-5.4972 -1.4015 2.4096
-5.4529 -1.5998 2.4096
-5.4013 -1.7967 2.4096
-5.3424 -1.9917 2.4096
-5.2763 -2.1848 2.4096
-5.2030 -2.3755 2.4096
-5.1227 -2.5636 2.4096
-5.0353 -2.7488 2.4096
-4.9411 -2.9311 2.4096
-4.8400 -3.1096 2.4096
-4.7323 -3.2847 2.4096
-4.6180 -3.4557 2.4096
-4.4974 -3.6227 2.4096
-4.3705 -3.7851 2.4096
-4.2375 -3.9428 2.4096
-4.0985 -4.0956 2.4096
-3.9539 -4.2433 2.4096
-3.8037 -4.3855 2.4096
-3.6482 -4.5222 2.4096
-3.4876 -4.6530 2.4096
-3.3221 -4.7778 2.4096
-3.1520 -4.8963 2.4096
-2.9774 -5.0085 2.4096
-2.7987 -5.1140 2.4096
-2.6160 -5.2129 2.4096
-2.4298 -5.3048 2.4096
-2.2401 -5.3897 2.4096
-2.0473 -5.4674 2.4096
-1.8517 -5.5379 2.4096
-1.6536 -5.6009 2.4096
-1.4532 -5.6564 2.4096
-1.2509 -5.7044 2.4096
-1.0469 -5.7448 2.4096
-0.8416 -5.7774 2.4096
-0.6353 -5.8023 2.4096
-0.4282 -5.8194 2.4096
-0.2206 -5.8287 2.4096
-0.0129 -5.8302 2.4096
0.1946 -5.8239 2.4096
0.4016 -5.8099 2.4096
0.6079 -5.7881 2.4096
0.8130 -5.7586 2.4096
1.0168 -5.7214 2.4096
1.2190 -5.6767 2.4096
1.4192 -5.6245 2.4096
1.6171 -5.5649 2.4096
1.8125 -5.4981 2.4096
2.0051 -5.4240 2.4096
2.1947 -5.3429 2.4096
2.3809 -5.2549 2.4096
2.5635 -5.1600 2.4096
2.7423 -5.0587 2.4096
2.9170 -4.9508 2.4096
3.0875 -4.8367 2.4096
3.2534 -4.7165 2.4096
3.3425 -4.4936 2.3588
3.3475 -4.1801 2.2590
3.4899 -4.0523 2.2596
3.6228 -3.9146 2.2572
3.7543 -3.7765 2.2573
3.8808 -3.6343 2.2577
4.0019 -3.4877 2.2580
4.1174 -3.3370 2.2584
4.2271 -3.1823 2.2587
4.3310 -3.0240 2.2590
4.4289 -2.8621 2.2593
4.5206 -2.6971 2.2595
4.6062 -2.5290 2.2598
4.6855 -2.3582 2.2600
4.7583 -2.1849 2.2603
4.8248 -2.0093 2.2605
4.8848 -1.8316 2.2607
4.9382 -1.6522 2.2609
4.9850 -1.4713 2.2610
5.0252 -1.2891 2.2612
5.0588 -1.1058 2.2613
5.0857 -0.9217 2.2615
5.1060 -0.7371 2.2616
5.1196 -0.5521 2.2616
5.1266 -0.3671 2.2617
5.1269 -0.1822 2.2618
5.1207 0.0023 2.2618
5.1079 0.1861 2.2618
5.0887 0.3691 2.2618
5.0630 0.5511 2.2618
5.0308 0.7317 2.2618
4.9924 0.9108 2.2617
4.9477 1.0881 2.2617
4.8969 1.2636 2.2616
4.8400 1.4368 2.2615
4.7771 1.6077 2.2614
4.7084 1.7761 2.2613
4.6339 1.9417 2.2611
4.5537 2.1044 2.2610
4.4680 2.2639 2.2608
4.3769 2.4202 2.2606
4.2805 2.5730 2.2604
4.1789 2.7221 2.2602
4.0723 2.8674 2.2600
3.9564 3.0054 2.2572
3.8408 3.1428 2.2572
3.7207 3.2761 2.2572
3.5961 3.4050 2.2572
3.4672 3.5294 2.2572
3.3342 3.6491 2.2572
3.1973 3.7641 2.2572
3.0566 3.8743 2.2572
2.9123 3.9795 2.2572
2.9111 4.2959 2.3769
2.7899 4.4562 2.4096
2.6253 4.5519 2.4096
2.4577 4.6417 2.4096
2.2871 4.7257 2.4096
0.8659 1.9678 0.9871
0.7941 1.9980 0.9874
0.7213 2.0256 0.9876
0.6475 2.0505 0.9879
0.5728 2.0727 0.9880
0.4974 2.0923 0.9881
0.4214 2.1091 0.9881
0.3448 2.1232 0.9881
0.2677 2.1345 0.9880
0.1902 2.1430 0.9878
0.1125 2.1487 0.9876
0.0347 2.1516 0.9873
-0.0433 2.1517 0.9870
-0.1211 2.1490 0.9866
-0.1989 2.1435 0.9861
-0.2764 2.1352 0.9856
-0.3535 2.1240 0.9850
-0.4302 2.1102 0.9844
-0.5063 2.0935 0.9837
-0.5818 2.0741 0.9830
-0.6565 2.0520 0.9822
-0.7304 2.0273 0.9813
-0.8033 1.9999 0.9804
-0.8752 1.9698 0.9794
-2.3297 4.7708 2.4096
-2.5036 4.6893 2.4096
-2.6748 4.6017 2.4096
-2.8431 4.5082 2.4096
-3.0082 4.4087 2.4096
-3.1699 4.3034 2.4096
-3.3281 4.1924 2.4096
-3.4824 4.0758 2.4096
-3.6329 3.9538 2.4096
-3.7791 3.8263 2.4096
-3.9210 3.6937 2.4096
-4.0583 3.5559 2.4096
-4.1910 3.4132 2.4096
-4.3186 3.2657 2.4096
-4.4413 3.1136 2.4096
-4.5587 2.9570 2.4096
-4.6706 2.7961 2.4096
-4.7770 2.6312 2.4096
-4.8775 2.4622 2.4096
-4.9722 2.2896 2.4096
-5.0609 2.1134 2.4096
-5.1433 1.9339 2.4096
-5.2194 1.7512 2.4096
-5.2891 1.5657 2.4096
-5.3522 1.3775 2.4096
-5.4086 1.1868 2.4096
-5.4582 0.9939 2.4096
-5.5010 0.7991 2.4096
-5.5367 0.6025 2.4096
-5.5654 0.4045 2.4096
-5.5870 0.2052 2.4096
-5.6013 0.0049 2.4096
-5.6085 -0.1960 2.4096
-5.6083 -0.3974 2.4096
-5.6008 -0.5990 2.4096
-5.5859 -0.8004 2.4096
-5.5637 -1.0015 2.4096
-5.5341 -1.2020 2.4096
-5.4972 -1.4015 2.4096
-5.4529 -1.5998 2.4096
-5.4013 -1.7966 2.4096
-5.3424 -1.9917 2.4096
-5.2763 -2.1847 2.4096
-5.2030 -2.3754 2.4096
-5.1227 -2.5635 2.4096
-5.0353 -2.7488 2.4096
-4.9411 -2.9309 2.4096
-4.8400 -3.1096 2.4096
-4.7323 -3.2846 2.4096
-4.6181 -3.4557 2.4096
-4.4974 -3.6226 2.4096
-4.3705 -3.7851 2.4096
-4.2375 -3.9428 2.4096
-4.0986 -4.0956 2.4096
-3.9539 -4.2432 2.4096
-3.8038 -4.3855 2.4096
-3.6483 -4.5221 2.4096
-3.4877 -4.6530 2.4096
-3.3222 -4.7777 2.4096
-3.1520 -4.8963 2.4096
-2.9775 -5.0084 2.4096
-2.7987 -5.1140 2.4096
-2.6161 -5.2129 2.4096
-2.4298 -5.3048 2.4096
-2.2401 -5.3897 2.4096
-2.0473 -5.4674 2.4096
-1.8517 -5.5378 2.4096
-1.6536 -5.6009 2.4096
-1.4532 -5.6564 2.4096
-1.2509 -5.7044 2.4096
-1.0470 -5.7447 2.4096
-0.8417 -5.7774 2.4096
-0.6353 -5.8023 2.4096
-0.4282 -5.8194 2.4096
-0.2206 -5.8287 2.4096
-0.0128 -5.4774 2.4096
0.1820 -5.4717 2.4096
0.3765 -5.4586 2.4096
0.5702 -5.4384 2.4096
0.7629 -5.4109 2.4096
0.9543 -5.3762 2.4096
1.1442 -5.3344 2.4096
1.3323 -5.2857 2.4096
1.5183 -5.2300 2.4096
1.7019 -5.1674 2.4096
1.8830 -5.0981 2.4096
2.0611 -5.0222 2.4096
2.2362 -4.9398 2.4096
2.4080 -4.8513 2.4096
2.5761 -4.7561 2.4096
2.7405 -4.6551 2.4096
2.9009 -4.5483 2.4096
3.0570 -4.4356 2.4096
3.2087 -4.3174 2.4096
3.3113 -4.1384 2.3777
3.3069 -3.8431 2.2779
3.4053 -3.6828 2.2572
3.5291 -3.5532 2.2572
3.6478 -3.4193 2.2572
3.7619 -3.2816 2.2575
3.8708 -3.1401 2.2578
3.9743 -2.9950 2.2581
4.0723 -2.8463 2.2584
4.1646 -2.6943 2.2587
4.2513 -2.5393 2.2589
4.3322 -2.3814 2.2592
4.4071 -2.2209 2.2594
4.4761 -2.0581 2.2596
4.5390 -1.8930 2.2598
4.5958 -1.7260 2.2600
4.6465 -1.5574 2.2602
4.6910 -1.3872 2.2603
4.7293 -1.2158 2.2605
4.7614 -1.0434 2.2606
4.7871 -0.8702 2.2607
4.8066 -0.6964 2.2608
4.8199 -0.5223 2.2609
4.8269 -0.3482 2.2610
4.8277 -0.1741 2.2610
4.8223 -0.0003 2.2611
4.8107 0.1729 2.2611
4.7929 0.3453 2.2611
4.7691 0.5167 2.2611
4.7393 0.6869 2.2610
4.7035 0.8557 2.2610
4.6618 1.0229 2.2609
4.6143 1.1884 2.2609
4.5610 1.3517 2.2608
4.5021 1.5130 2.2607
4.4376 1.6718 2.2606
4.3677 1.8280 2.2604
4.2925 1.9815 2.2603
4.2120 2.1321 2.2601
4.1264 2.2796 2.2600
4.0357 2.4238 2.2598
3.9402 2.5646 2.2596
3.8400 2.7019 2.2594
3.7351 2.8354 2.2591
3.6230 2.9628 2.2572
3.5098 3.0886 2.2572
3.3924 3.2104 2.2572
3.2710 3.3279 2.2572
3.1457 3.4411 2.2572
3.0166 3.5497 2.2572
2.8839 3.6538 2.2572
2.8264 3.8606 2.3218
2.7845 4.1075 2.4096
2.6324 4.2032 2.4096
2.4772 4.2936 2.4096
2.3190 4.3785 2.4096
0.8812 1.8204 0.9840
0.8148 1.8512 0.9844
0.7472 1.8796 0.9847
0.6786 1.9056 0.9849
0.6092 1.9290 0.9851
0.5389 1.9500 0.9852
0.4679 1.9684 0.9853
0.3964 1.9842 0.9853
0.3242 1.9974 0.9853
0.2517 2.0080 0.9852
0.1788 2.0160 0.9851
0.1056 2.0214 0.9849
0.0323 2.0241 0.9846
-0.0410 2.0242 0.9843
-0.1143 2.0217 0.9839
-0.1875 2.0165 0.9835
-0.2604 2.0086 0.9830
-0.3330 1.9982 0.9824
-0.4052 1.9851 0.9818
-0.4768 1.9694 0.9812
-0.5479 1.9512 0.9805
-0.6182 1.9304 0.9797
-0.6878 1.9071 0.9789
-0.7564 1.8813 0.9781
-0.8241 1.8530 0.9772
-0.8907 1.8224 0.9762
-2.3624 4.4209 2.4096
-2.5237 4.3380 2.4096
-2.6823 4.2495 2.4096
-2.8378 4.1554 2.4096
-2.9901 4.0558 2.4096
-3.1391 3.9508 2.4096
-3.2844 3.8406 2.4096
-3.4260 3.7252 2.4096
-3.5636 3.6048 2.4096
-3.6971 3.4794 2.4096
-3.8263 3.3493 2.4096
-3.9510 3.2145 2.4096
-4.0710 3.0753 2.4096
-4.1862 2.9316 2.4096
-4.2965 2.7838 2.4096
-4.4016 2.6320 2.4096
-4.5014 2.4763 2.4096
-4.5957 2.3169 2.4096
-4.6845 2.1541 2.4096
-4.7676 1.9879 2.4096
-4.8448 1.8187 2.4096
-4.9160 1.6465 2.4096
-4.9811 1.4716 2.4096
-5.0401 1.2943 2.4096
-5.0927 1.1146 2.4096
-5.1389 0.9330 2.4096
-5.1787 0.7494 2.4096
-5.2118 0.5642 2.4096
-5.2383 0.3779 2.4096
-5.2581 0.1903 2.4096
-5.2712 0.0019 2.4096
-5.2773 -0.1872 2.4096
-5.2767 -0.3766 2.4096
-5.2691 -0.5662 2.4096
-5.2547 -0.7556 2.4096
-5.2333 -0.9447 2.4096
-5.2050 -1.1331 2.4096
-5.1698 -1.3206 2.4096
-5.1277 -1.5070 2.4096
-5.0788 -1.6919 2.4096
-5.0230 -1.8754 2.4096
-4.9605 -2.0565 2.4096
-4.8912 -2.2355 2.4096
-4.8153 -2.4122 2.4096
-4.7329 -2.5860 2.4096
-4.6439 -2.7570 2.4096
-4.5487 -2.9247 2.4096
-4.4471 -3.0890 2.4096
-4.3395 -3.2496 2.4096
-4.2259 -3.4062 2.4096
-4.1064 -3.5585 2.4096
-3.9812 -3.7065 2.4096
-3.8505 -3.8499 2.4096
-3.7145 -3.9884 2.4096
-3.5733 -4.1218 2.4096
-3.4271 -4.2499 2.4096
-3.2761 -4.3726 2.4096
-3.1205 -4.4896 2.4096
-2.9606 -4.6008 2.4096
-2.7966 -4.7059 2.4096
-2.6287 -4.8050 2.4096
-2.4571 -4.8976 2.4096
-2.2822 -4.9839 2.4096
-2.1040 -5.0635 2.4096
-1.9230 -5.1364 2.4096
-1.7393 -5.2025 2.4096
-1.5533 -5.2616 2.4096
-1.3652 -5.3138 2.4096
-1.1752 -5.3588 2.4096
-0.9837 -5.3967 2.4096
-0.7909 -5.4274 2.4096
-0.5972 -5.4509 2.4096
-0.4027 -5.4670 2.4096
-0.2079 -5.4759 2.4096
-0.0129 -5.4774 2.4096
0.1820 -5.4717 2.4096
0.3764 -5.4586 2.4096
0.5701 -5.4384 2.4096
0.7628 -5.4109 2.4096
0.9543 -5.3762 2.4096
1.1442 -5.3344 2.4096
1.3322 -5.2857 2.4096
1.5182 -5.2300 2.4096
1.7019 -5.1674 2.4096
1.8829 -5.0981 2.4096
2.0611 -5.0222 2.4096
2.2362 -4.9398 2.4096
2.4079 -4.8513 2.4096
2.5761 -4.7561 2.4096
2.7405 -4.6551 2.4096
2.9008 -4.5483 2.4096
3.0570 -4.4356 2.4096
3.2087 -4.3174 2.4096
3.3113 -4.1384 2.3777
3.3069 -3.8432 2.2780
3.4053 -3.6829 2.2572
3.5290 -3.5532 2.2572
3.6478 -3.4193 2.2572
3.7618 -3.2816 2.2575
3.8707 -3.1402 2.2578
3.9742 -2.9950 2.2581
4.0722 -2.8463 2.2584
4.1646 -2.6943 2.2587
4.2513 -2.5393 2.2589
4.3321 -2.3814 2.2592
4.4071 -2.2210 2.2594
4.4761 -2.0581 2.2596
4.5390 -1.8930 2.2598
4.5958 -1.7261 2.2600
4.6465 -1.5574 2.2602
4.6910 -1.3872 2.2603
4.7293 -1.2158 2.2605
4.7613 -1.0434 2.2606
4.7871 -0.8702 2.2607
4.8066 -0.6965 2.2608
4.8199 -0.5224 2.2609
4.8269 -0.3482 2.2610
4.8277 -0.1741 2.2610
4.8223 -0.0004 2.2611
4.8107 0.1728 2.2611
4.7929 0.3452 2.2611
4.7691 0.5167 2.2611
4.7393 0.6869 2.2610
4.7035 0.8557 2.2610
4.6618 1.0229 2.2609
4.6143 1.1883 2.2609
4.5610 1.3517 2.2608
4.5021 1.5129 2.2607
4.4377 1.6717 2.2606
4.3678 1.8280 2.2604
4.2925 1.9815 2.2603
4.2120 2.1321 2.2601
4.1264 2.2796 2.2600
4.0358 2.4238 2.2598
3.9403 2.5646 2.2596
3.8400 2.7018 2.2594
3.7351 2.8353 2.2591
3.6231 2.9627 2.2572
3.5099 3.0886 2.2572
3.3925 3.2103 2.2572
3.2710 3.3279 2.2572
3.1457 3.4410 2.2572
3.0166 3.5497 2.2572
2.8839 3.6538 2.2572
2.8264 3.8605 2.3217
2.7846 4.1075 2.4096
2.6325 4.2032 2.4096
2.4772 4.2936 2.4096
2.3190 4.3785 2.4096
0.8813 1.8204 0.9840
0.8148 1.8512 0.9844
0.7472 1.8796 0.9847
0.6786 1.9056 0.9849
0.6092 1.9290 0.9851
0.5389 1.9500 0.9852
0.4680 1.9684 0.9853
0.3964 1.9842 0.9853
0.3242 1.9974 0.9853
0.2517 2.0080 0.9852
0.1788 2.0160 0.9851
0.1056 2.0214 0.9849
0.0324 2.0241 0.9846
-0.0410 2.0242 0.9843
-0.1143 2.0217 0.9839
-0.1875 2.0165 0.9835
-0.2604 2.0086 0.9830
-0.3330 1.9982 0.9824
-0.4052 1.9851 0.9818
-0.4768 1.9694 0.9812
-0.5479 1.9512 0.9805
-0.6182 1.9304 0.9797
-0.6877 1.9071 0.9789
-0.7564 1.8813 0.9781
-0.8241 1.8530 0.9772
-0.8907 1.8224 0.9762
-2.3623 4.4209 2.4096
-2.5237 4.3380 2.4096
-2.6823 4.2495 2.4096
-2.8378 4.1554 2.4096
-2.9901 4.0558 2.4096
-3.1390 3.9509 2.4096
-3.2844 3.8406 2.4096
-3.4260 3.7253 2.4096
-3.5636 3.6048 2.4096
-3.6971 3.4795 2.4096
-3.8262 3.3493 2.4096
-3.9509 3.2146 2.4096
-4.0710 3.0753 2.4096
-4.1862 2.9317 2.4096
-4.2965 2.7838 2.4096
-4.4015 2.6320 2.4096
-4.5013 2.4763 2.4096
-4.5957 2.3170 2.4096
-4.6845 2.1541 2.4096
-4.7676 1.9879 2.4096
-4.8448 1.8187 2.4096
-4.9160 1.6465 2.4096
-4.9811 1.4716 2.4096
-5.0401 1.2943 2.4096
-5.0927 1.1147 2.4096
-5.1389 0.9330 2.4096
-5.1787 0.7495 2.4096
-5.2118 0.5640 2.4096
-5.2383 0.3779 2.4096
-5.2581 0.1904 2.4096
-5.2711 0.0019 2.4096
-5.2773 -0.1871 2.4096
-5.2767 -0.3766 2.4096
-5.2691 -0.5662 2.4096
-5.2547 -0.7556 2.4096
-5.2333 -0.9447 2.4096
-5.2050 -1.1331 2.4096
-5.1698 -1.3206 2.4096
-5.1277 -1.5070 2.4096
-5.0788 -1.6919 2.4096
-5.0230 -1.8754 2.4096
-4.9605 -2.0564 2.4096
-4.8912 -2.2355 2.4096
-4.8153 -2.4121 2.4096
-4.7329 -2.5861 2.4096
-4.6440 -2.7570 2.4096
-4.5487 -2.9247 2.4096
-4.4472 -3.0890 2.4096
-4.3395 -3.2495 2.4096
-4.2259 -3.4061 2.4096
-4.1064 -3.5585 2.4096
-3.9812 -3.7065 2.4096
-3.8505 -3.8498 2.4096
-3.7145 -3.9883 2.4096
-3.5733 -4.1217 2.4096
-3.4271 -4.2499 2.4096
-3.2761 -4.3726 2.4096
-3.1206 -4.4896 2.4096
-2.9607 -4.6008 2.4096
-2.7967 -4.7059 2.4096
-2.6287 -4.8049 2.4096
-2.4572 -4.8976 2.4096
-2.2822 -4.9838 2.4096
-2.1041 -5.0635 2.4096
-1.9230 -5.1364 2.4096
-1.7394 -5.2025 2.4096
-1.5533 -5.2616 2.4096
-1.3652 -5.3138 2.4096
-1.1753 -5.3588 2.4096
-0.9837 -5.3967 2.4096
-0.7910 -5.4274 2.4096
-0.5972 -5.4508 2.4096
-0.4028 -5.4670 2.4096
-0.2079 -5.4759 2.4096
-0.0128 -5.1590 2.4096
0.1707 -5.1537 2.4096
0.3537 -5.1416 2.4096
0.5361 -5.1226 2.4096
0.7176 -5.0969 2.4096
0.8978 -5.0645 2.4096
1.0766 -5.0254 2.4096
1.2538 -4.9797 2.4096
1.4290 -4.9274 2.4096
1.6020 -4.8687 2.4096
1.7726 -4.8037 2.4096
1.9405 -4.7325 2.4096
2.1055 -4.6552 2.4096
2.2674 -4.5719 2.4096
2.4259 -4.4827 2.4096
2.5809 -4.3878 2.4096
2.7322 -4.2874 2.4096
2.8794 -4.1816 2.4096
3.0226 -4.0705 2.4096
3.1613 -3.9544 2.4096
3.2823 -3.8179 2.3998
3.2787 -3.5491 2.3065
3.3254 -3.3513 2.2572
3.4376 -3.2253 2.2572
3.5450 -3.0955 2.2572
3.6475 -2.9620 2.2573
3.7454 -2.8254 2.2576
3.8380 -2.6855 2.2578
3.9254 -2.5424 2.2581
4.0074 -2.3964 2.2583
4.0840 -2.2478 2.2586
4.1550 -2.0966 2.2588
4.2204 -1.9432 2.2590
4.2801 -1.7877 2.2592
4.3340 -1.6304 2.2594
4.3822 -1.4714 2.2595
4.4245 -1.3110 2.2597
4.4610 -1.1494 2.2598
4.4916 -0.9868 2.2600
4.5163 -0.8235 2.2601
4.5351 -0.6596 2.2602
4.5480 -0.4954 2.2602
4.5550 -0.3310 2.2603
4.5561 -0.1667 2.2603
4.5513 -0.0027 2.2604
4.5407 0.1608 2.2604
4.5244 0.3236 2.2604
4.5022 0.4854 2.2604
4.4744 0.6462 2.2604
4.4410 0.8057 2.2603
4.4019 0.9637 2.2603
4.3574 1.1200 2.2602
4.3074 1.2744 2.2601
4.2521 1.4268 2.2600
4.1915 1.5769 2.2599
4.1257 1.7246 2.2598
4.0549 1.8698 2.2597
3.9791 2.0122 2.2595
3.8985 2.1517 2.2594
3.8131 2.2881 2.2592
3.7231 2.4213 2.2590
3.6285 2.5511 2.2588
3.5296 2.6775 2.2586
3.4265 2.8001 2.2584
3.3178 2.9178 2.2572
3.2070 3.0331 2.2572
3.0923 3.1443 2.2572
2.9739 3.2515 2.2572
2.8519 3.3543 2.2572
2.7863 3.5285 2.3066
2.7733 3.7865 2.4096
2.6327 3.8820 2.4096
2.4889 3.9726 2.4096
2.3422 4.0582 2.4096
0.8928 1.6852 0.9812
0.8312 1.7165 0.9816
0.7684 1.7455 0.9819
0.7047 1.7723 0.9822
0.6400 1.7968 0.9824
0.5745 1.8189 0.9826
0.5082 1.8386 0.9827
0.4412 1.8560 0.9828
0.3737 1.8709 0.9828
0.3056 1.8834 0.9828
0.2372 1.8934 0.9827
0.1684 1.9009 0.9826
0.0994 1.9060 0.9824
0.0303 1.9086 0.9821
-0.0389 1.9087 0.9818
-0.1081 1.9062 0.9815
-0.1771 1.9013 0.9811
-0.2459 1.8939 0.9806
-0.3144 1.8841 0.9801
-0.3825 1.8717 0.9795
-0.4501 1.8570 0.9789
-0.5171 1.8397 0.9783
-0.5835 1.8201 0.9775
-0.6491 1.7981 0.9768
-0.7139 1.7738 0.9760
-0.7777 1.7471 0.9751
-0.8405 1.7182 0.9742
-0.9023 1.6870 0.9733
-2.3862 4.0979 2.4096
-2.5359 4.0140 2.4096
-2.6827 3.9248 2.4096
-2.8265 3.8305 2.4096
-2.9671 3.7310 2.4096
-3.1042 3.6266 2.4096
-3.2378 3.5174 2.4096
-3.3676 3.4033 2.4096
-3.4935 3.2846 2.4096
-3.6152 3.1615 2.4096
-3.7328 3.0339 2.4096
-3.8459 2.9021 2.4096
-3.9544 2.7663 2.4096
-4.0582 2.6264 2.4096
-4.1571 2.4829 2.4096
-4.2510 2.3356 2.4096
-4.3397 2.1850 2.4096
-4.4232 2.0310 2.4096
-4.5012 1.8740 2.4096
-4.5738 1.7141 2.4096
-4.6406 1.5514 2.4096
-4.7017 1.3863 2.4096
-4.7569 1.2188 2.4096
-4.8062 1.0492 2.4096
-4.8493 0.8777 2.4096
-4.8864 0.7045 2.4096
-4.9173 0.5298 2.4096
-4.9419 0.3539 2.4096
-4.9601 0.1769 2.4096
-4.9720 -0.0008 2.4096
-4.9774 -0.1791 2.4096
-4.9763 -0.3578 2.4096
-4.9688 -0.5365 2.4096
-4.9548 -0.7150 2.4096
-4.9342 -0.8932 2.4096
-4.9072 -1.0708 2.4096
-4.8736 -1.2474 2.4096
-4.8335 -1.4230 2.4096
-4.7870 -1.5971 2.4096
-4.7341 -1.7697 2.4096
-4.6748 -1.9404 2.4096
-4.6092 -2.1090 2.4096
-4.5374 -2.2753 2.4096
-4.4594 -2.4390 2.4096
-4.3754 -2.5999 2.4096
-4.2854 -2.7577 2.4096
-4.1895 -2.9122 2.4096
-4.0878 -3.0633 2.4096
-3.9806 -3.2106 2.4096
-3.8678 -3.3539 2.4096
-3.7498 -3.4931 2.4096
-3.6265 -3.6279 2.4096
-3.4982 -3.7581 2.4096
-3.3651 -3.8836 2.4096
-3.2273 -4.0041 2.4096
-3.0851 -4.1194 2.4096
-2.9385 -4.2295 2.4096
-2.7879 -4.3340 2.4096
-2.6334 -4.4329 2.4096
-2.4753 -4.5260 2.4096
-2.3137 -4.6131 2.4096
-2.1490 -4.6942 2.4096
-1.9813 -4.7691 2.4096
-1.8108 -4.8377 2.4096
-1.6379 -4.8998 2.4096
-1.4628 -4.9555 2.4096
-1.2857 -5.0046 2.4096
-1.1069 -5.0470 2.4096
-0.9267 -5.0827 2.4096
-0.7452 -5.1116 2.4096
-0.5628 -5.1337 2.4096
-0.3798 -5.1490 2.4096
-0.1964 -5.1574 2.4096
-0.0128 -5.1590 2.4096
0.1706 -5.1537 2.4096
0.3537 -5.1416 2.4096
0.5361 -5.1227 2.4096
0.7175 -5.0969 2.4096
0.8978 -5.0645 2.4096
1.0766 -5.0254 2.4096
1.2538 -4.9797 2.4096
1.4290 -4.9274 2.4096
1.6020 -4.8688 2.4096
1.7725 -4.8038 2.4096
1.9404 -4.7325 2.4096
2.1055 -4.6552 2.4096
2.2673 -4.5719 2.4096
2.4259 -4.4827 2.4096
2.5809 -4.3878 2.4096
2.7321 -4.2874 2.4096
2.8794 -4.1816 2.4096
3.0225 -4.0706 2.4096
3.1613 -3.9544 2.4096
3.2823 -3.8180 2.3998
3.2787 -3.5492 2.3065
3.3254 -3.3513 2.2572
3.4376 -3.2253 2.2572
3.5450 -3.0955 2.2572
3.6475 -2.9621 2.2573
3.7454 -2.8254 2.2576
3.8380 -2.6855 2.2578
3.9254 -2.5424 2.2581
4.0074 -2.3965 2.2583
4.0840 -2.2478 2.2586
4.1550 -2.0967 2.2588
4.2203 -1.9432 2.2590
4.2800 -1.7877 2.2592
4.3340 -1.6304 2.2594
4.3822 -1.4714 2.2595
4.4245 -1.3110 2.2597
4.4610 -1.1494 2.2598
4.4916 -0.9869 2.2600
4.5163 -0.8235 2.2601
4.5351 -0.6596 2.2602
4.5480 -0.4954 2.2602
4.5550 -0.3310 2.2603
4.5561 -0.1667 2.2603
4.5513 -0.0027 2.2604
4.5407 0.1607 2.2604
4.5244 0.3235 2.2604
4.5022 0.4854 2.2604
4.4744 0.6462 2.2604
4.4410 0.8057 2.2603
4.4019 0.9636 2.2603
4.3574 1.1199 2.2602
4.3074 1.2744 2.2601
4.2521 1.4267 2.2600
4.1915 1.5769 2.2599
4.1257 1.7246 2.2598
4.0549 1.8697 2.2597
3.9791 2.0121 2.2595
3.8985 2.1516 2.2594
3.8131 2.2881 2.2592
3.7231 2.4213 2.2590
3.6286 2.5511 2.2588
3.5297 2.6775 2.2586
3.4265 2.8001 2.2584
3.3179 2.9178 2.2572
3.2070 3.0331 2.2572
3.0923 3.1443 2.2572
2.9739 3.2514 2.2572
2.8520 3.3543 2.2572
2.7863 3.5285 2.3066
2.7734 3.7864 2.4096
2.6327 3.8820 2.4096
2.4890 3.9726 2.4096
2.3422 4.0582 2.4096
0.8928 1.6852 0.9812
0.8312 1.7165 0.9816
0.7684 1.7455 0.9819
0.7047 1.7723 0.9822
0.6400 1.7968 0.9824
0.5745 1.8189 0.9826
0.5082 1.8386 0.9827
0.4412 1.8560 0.9828
0.3737 1.8709 0.9828
0.3056 1.8834 0.9828
0.2372 1.8934 0.9827
0.1684 1.9009 0.9826
0.0994 1.9060 0.9824
0.0303 1.9086 0.9821
-0.0389 1.9087 0.9818
-0.1081 1.9062 0.9815
-0.1771 1.9013 0.9811
-0.2459 1.8939 0.9806
-0.3144 1.8841 0.9801
-0.3825 1.8717 0.9795
-0.4501 1.8570 0.9789
-0.5171 1.8398 0.9783
-0.5835 1.8201 0.9775
-0.6491 1.7981 0.9768
-0.7138 1.7738 0.9760
-0.7777 1.7471 0.9751
-0.8405 1.7182 0.9742
-0.9023 1.6870 0.9733
-2.3861 4.0979 2.4096
-2.5358 4.0140 2.4096
-2.6827 3.9249 2.4096
-2.8265 3.8305 2.4096
-2.9670 3.7311 2.4096
-3.1042 3.6267 2.4096
-3.2378 3.5174 2.4096
-3.3676 3.4033 2.4096
-3.4935 3.2847 2.4096
-3.6152 3.1615 2.4096
-3.7327 3.0339 2.4096
-3.8458 2.9022 2.4096
-3.9544 2.7663 2.4096
-4.0582 2.6265 2.4096
-4.1571 2.4829 2.4096
-4.2510 2.3357 2.4096
-4.3397 2.1850 2.4096
-4.4232 2.0311 2.4096
-4.5012 1.8740 2.4096
-4.5737 1.7141 2.4096
-4.6406 1.5515 2.4096
-4.7017 1.3863 2.4096
-4.7569 1.2188 2.4096
-4.8061 1.0492 2.4096
-4.8493 0.8777 2.4096
-4.8864 0.7045 2.4096
-4.9173 0.5298 2.4096
-4.9419 0.3539 2.4096
-4.9601 0.1769 2.4096
-4.9720 -0.0008 2.4096
-4.9774 -0.1791 2.4096
-4.9763 -0.3577 2.4096
-4.9688 -0.5364 2.4096
-4.9548 -0.7150 2.4096
-4.9342 -0.8932 2.4096
-4.9072 -1.0707 2.4096
-4.8736 -1.2474 2.4096
-4.8335 -1.4229 2.4096
-4.7871 -1.5969 2.4096
-4.7341 -1.7697 2.4096
-4.6748 -1.9404 2.4096
-4.6092 -2.1090 2.4096
-4.5374 -2.2753 2.4096
-4.4594 -2.4390 2.4096
-4.3754 -2.5998 2.4096
-4.2854 -2.7577 2.4096
-4.1895 -2.9122 2.4096
-4.0878 -3.0632 2.4096
-3.9806 -3.2106 2.4096
-3.8679 -3.3539 2.4096
-3.7498 -3.4931 2.4096
-3.6265 -3.6279 2.4096
-3.4983 -3.7581 2.4096
-3.3652 -3.8836 2.4096
-3.2274 -4.0041 2.4096
-3.0851 -4.1194 2.4096
-2.9386 -4.2294 2.4096
-2.7879 -4.3340 2.4096
-2.6335 -4.4329 2.4096
-2.4753 -4.5259 2.4096
-2.3138 -4.6131 2.4096
-2.1490 -4.6942 2.4096
-1.9813 -4.7691 2.4096
-1.8109 -4.8377 2.4096
-1.6380 -4.8998 2.4096
-1.4628 -4.9555 2.4096
-1.2857 -5.0046 2.4096
-1.1070 -5.0470 2.4096
-0.9267 -5.0827 2.4096
-0.7452 -5.1116 2.4096
-0.5629 -5.1337 2.4096
-0.3798 -5.1490 2.4096
-0.1964 -5.1574 2.4096
-0.0127 -4.8699 2.4096
0.1604 -4.8650 2.4096
0.3331 -4.8537 2.4096
0.5052 -4.8359 2.4096
0.6764 -4.8118 2.4096
0.8465 -4.7814 2.4096
1.0153 -4.7446 2.4096
1.1825 -4.7017 2.4096
1.3479 -4.6526 2.4096
1.5112 -4.5974 2.4096
1.6723 -4.5363 2.4096
1.8308 -4.4693 2.4096
1.9867 -4.3965 2.4096
2.1396 -4.3181 2.4096
2.2894 -4.2342 2.4096
2.4358 -4.1448 2.4096
2.5787 -4.0503 2.4096
2.7180 -3.9506 2.4096
2.8533 -3.8460 2.4096
2.9845 -3.7366 2.4096
3.1115 -3.6226 2.4096
3.2341 -3.5041 2.4096
3.2520 -3.2804 2.3376
3.2556 -3.0574 2.2636
3.3480 -2.9263 2.2572
3.4450 -2.8004 2.2572
