ply
format ascii 1.0
element vertex 2183
property float32 x
property float32 y
property float32 z
end_header
7.1249 0.9603 2.3915
7.0786 1.2122 2.3915
7.0227 1.4620 2.3915
6.9574 1.7092 2.3915
6.8828 1.9534 2.3915
6.7990 2.1944 2.3915
6.7063 2.4317 2.3915
6.6047 2.6650 2.3915
6.4945 2.8939 2.3915
6.3760 3.1182 2.3915
6.2492 3.3376 2.3915
6.1144 3.5516 2.3915
5.9720 3.7601 2.3915
5.8220 3.9628 2.3915
5.6649 4.1593 2.3915
5.5008 4.3495 2.3915
5.3300 4.5331 2.3915
5.1529 4.7098 2.3915
4.9696 4.8795 2.3915
4.7806 5.0419 2.3915
4.5862 5.1970 2.3915
4.3865 5.3444 2.3915
4.1820 5.4841 2.3915
3.9730 5.6159 2.3915
3.7598 5.7396 2.3915
3.5426 5.8552 2.3915
3.3220 5.9626 2.3915
3.0980 6.0616 2.3915
2.8712 6.1523 2.3915
2.6418 6.2344 2.3915
0.9453 2.4743 0.9381
0.8558 2.5062 0.9404
0.7652 2.5348 0.9428
0.6737 2.5601 0.9452
0.5812 2.5820 0.9475
0.4880 2.6007 0.9499
0.3942 2.6159 0.9522
0.2999 2.6278 0.9545
0.2052 2.6362 0.9569
0.1103 2.6412 0.9591
0.0153 2.6428 0.9614
-0.0798 2.6410 0.9637
-0.1747 2.6357 0.9659
-0.2694 2.6270 0.9680
-0.3637 2.6148 0.9702
-0.4575 2.5993 0.9723
-0.5507 2.5804 0.9744
-0.6431 2.5581 0.9764
-0.7347 2.5325 0.9783
-0.8253 2.5036 0.9803
-2.2182 5.9933 2.3817
-2.4281 5.8976 2.3820
-2.6344 5.7953 2.3826
-2.8368 5.6863 2.3832
-3.0351 5.5706 2.3838
3.7203 5.2215 2.3915
3.5225 5.3382 2.3915
3.3210 5.4474 2.3915
3.1160 5.5489 2.3915
2.9080 5.6428 2.3915
2.6972 5.7288 2.3915
2.4839 5.8070 2.3915
0.8898 2.3054 0.9381
0.8063 2.3353 0.9403
0.7219 2.3622 0.9425
0.6365 2.3860 0.9447
0.5504 2.4067 0.9469
0.4635 2.4243 0.9491
0.3760 2.4388 0.9513
0.2881 2.4501 0.9535
0.1998 2.4582 0.9556
0.1113 2.4631 0.9578
0.0226 2.4648 0.9599
-0.0661 2.4633 0.9620
-0.1546 2.4587 0.9640
-0.2429 2.4508 0.9661
-0.3309 2.4397 0.9681
-0.4185 2.4255 0.9700
-0.5054 2.4081 0.9720
-0.5917 2.3875 0.9738
-0.6772 2.3639 0.9757
-0.7618 2.3372 0.9775
-0.8453 2.3075 0.9792
-2.2581 5.5366 2.3876
-2.4519 5.4413 2.3879
-2.6421 5.3396 2.3882
-2.8283 5.2317 2.3886
-3.0104 5.1175 2.3890
-3.1884 4.9975 2.3894
-3.3618 4.8717 2.3899
-3.5307 4.7401 2.3903
-3.6946 4.6028 2.3906
-3.8536 4.4603 2.3910
-4.0072 4.3123 2.3913
-4.1554 4.1592 2.3914
-4.2980 4.0013 2.3915
-4.4348 3.8385 2.3915
-4.5659 3.6714 2.3915
-4.6911 3.5001 2.3915
-4.8103 3.3248 2.3915
-4.9234 3.1457 2.3915
-5.0303 2.9630 2.3915
-5.1308 2.7769 2.3915
-5.2250 2.5876 2.3915
-5.3126 2.3954 2.3915
-5.3936 2.2004 2.3915
-5.4680 2.0028 2.3915
-5.5357 1.8028 2.3915
-5.5965 1.6007 2.3915
-5.6504 1.3967 2.3915
-5.6975 1.1910 2.3915
-5.7375 0.9838 2.3915
-5.7705 0.7754 2.3915
-5.7965 0.5659 2.3915
-5.8153 0.3556 2.3915
-5.8271 0.1447 2.3915
-5.8317 -0.0666 2.3915
-5.8291 -0.2780 2.3915
-5.8194 -0.4894 2.3915
-5.8025 -0.7005 2.3915
-5.7785 -0.9110 2.3915
-5.7179 -1.1150 2.3793
-5.6484 -1.3154 2.3662
-5.5790 -1.5141 2.3559
-5.5094 -1.7117 2.3483
-5.4396 -1.9084 2.3435
-5.3694 -2.1049 2.3413
-5.2986 -2.3016 2.3418
-5.2269 -2.4990 2.3451
-5.1544 -2.6975 2.3510
-5.0807 -2.8976 2.3598
-5.0057 -3.0998 2.3714
-4.9292 -3.3045 2.3859
-4.8268 -3.4951 2.3915
-4.7064 -3.6742 2.3915
-4.5797 -3.8493 2.3915
-4.4468 -4.0202 2.3915
-4.3078 -4.1867 2.3915
-4.1628 -4.3487 2.3915
-4.0121 -4.5057 2.3915
-3.8556 -4.6578 2.3915
-3.6936 -4.8046 2.3915
-3.5262 -4.9460 2.3915
-3.3537 -5.0817 2.3915
-3.1761 -5.2116 2.3915
-2.9937 -5.3354 2.3915
-2.8066 -5.4530 2.3915
-2.6151 -5.5642 2.3915
-2.4195 -5.6685 2.3915
-2.2197 -5.7665 2.3915
-2.0161 -5.8574 2.3915
-1.8090 -5.9411 2.3915
-1.5986 -6.0176 2.3915
-1.3851 -6.0867 2.3915
-1.1688 -6.1483 2.3915
-0.9499 -6.2022 2.3915
-0.7288 -6.2483 2.3915
-0.5056 -6.2865 2.3915
-0.2807 -6.3167 2.3915
-0.0543 -6.3388 2.3915
0.1732 -6.3527 2.3915
0.4015 -6.3583 2.3915
0.6304 -6.3556 2.3915
0.8596 -6.3446 2.3915
1.0886 -6.3251 2.3915
1.3173 -6.2972 2.3915
1.5453 -6.2608 2.3915
1.7722 -6.2160 2.3915
1.9977 -6.1628 2.3915
2.2216 -6.1011 2.3915
2.4434 -6.0310 2.3915
2.6629 -5.9526 2.3915
2.8796 -5.8659 2.3915
3.0934 -5.7711 2.3915
3.3039 -5.6682 2.3915
3.5106 -5.5572 2.3915
3.7134 -5.4385 2.3915
3.9119 -5.3120 2.3915
4.1058 -5.1779 2.3915
4.2947 -5.0364 2.3915
4.4784 -4.8877 2.3915
4.6566 -4.7320 2.3915
4.8290 -4.5694 2.3915
4.9952 -4.4003 2.3915
5.1551 -4.2247 2.3915
5.3084 -4.0431 2.3915
5.4547 -3.8555 2.3915
5.5940 -3.6624 2.3915
5.7258 -3.4639 2.3915
5.8501 -3.2604 2.3915
5.9666 -3.0522 2.3915
6.0751 -2.8396 2.3915
6.1754 -2.6229 2.3915
6.2675 -2.4024 2.3915
6.3510 -2.1785 2.3915
6.4259 -1.9516 2.3915
6.4921 -1.7219 2.3915
6.5494 -1.4897 2.3915
6.5978 -1.2556 2.3915
6.6372 -1.0199 2.3915
6.6675 -0.7828 2.3915
6.6888 -0.5448 2.3915
6.7008 -0.3062 2.3915
6.7038 -0.0675 2.3915
6.6977 0.1711 2.3915
6.6824 0.4091 2.3915
6.6581 0.6462 2.3915
6.6247 0.8821 2.3915
6.5825 1.1163 2.3915
6.5314 1.3485 2.3915
6.4716 1.5784 2.3915
6.4031 1.8057 2.3915
6.3262 2.0299 2.3915
6.2409 2.2508 2.3915
6.1474 2.4680 2.3915
6.0460 2.6813 2.3915
5.9367 2.8904 2.3915
5.8197 3.0949 2.3915
5.6954 3.2945 2.3915
5.5639 3.4891 2.3915
5.4253 3.6782 2.3915
5.2801 3.8618 2.3915
5.1284 4.0395 2.3915
4.9704 4.2111 2.3915
4.8064 4.3765 2.3915
4.6368 4.5353 2.3915
4.4617 4.6875 2.3915
4.2815 4.8329 2.3915
4.0963 4.9712 2.3915
3.9067 5.1023 2.3915
3.7127 5.2262 2.3915
3.5147 5.3426 2.3915
3.3131 5.4515 2.3915
3.1080 5.5527 2.3915
2.8999 5.6462 2.3915
2.6890 5.7320 2.3915
2.4755 5.8098 2.3915
0.8865 2.3066 0.9382
0.8031 2.3364 0.9404
0.7186 2.3632 0.9426
0.6332 2.3869 0.9448
0.5470 2.4075 0.9470
0.4601 2.4250 0.9492
0.3726 2.4393 0.9514
0.2847 2.4505 0.9535
0.1964 2.4584 0.9557
0.1078 2.4632 0.9578
0.0192 2.4648 0.9600
-0.0695 2.4632 0.9620
-0.1580 2.4584 0.9641
-0.2464 2.4504 0.9661
-0.3343 2.4392 0.9681
-0.4219 2.4248 0.9701
-0.5088 2.4073 0.9720
-0.5951 2.3867 0.9739
-0.6805 2.3629 0.9758
-0.7650 2.3361 0.9776
-0.8486 2.3063 0.9793
-2.2657 5.5330 2.3876
-2.4594 5.4374 2.3879
-2.6494 5.3355 2.3883
-2.8355 5.2273 2.3886
-3.0174 5.1130 2.3890
-3.1952 4.9927 2.3894
-3.3685 4.8667 2.3899
-3.5372 4.7349 2.3903
-3.7009 4.5974 2.3906
-3.8596 4.4546 2.3910
-4.0131 4.3064 2.3913
-4.1610 4.1531 2.3914
-4.3034 3.9950 2.3915
-4.4400 3.8321 2.3915
-4.5709 3.6648 2.3915
-4.6958 3.4934 2.3915
-4.8148 3.3179 2.3915
-4.9277 3.1387 2.3915
-5.0343 2.9558 2.3915
-5.1346 2.7696 2.3915
-5.2285 2.5802 2.3915
-5.3159 2.3879 2.3915
-5.3967 2.1927 2.3915
-5.4708 1.9950 2.3915
-5.5382 1.7950 2.3915
-5.5987 1.5928 2.3915
-5.6524 1.3888 2.3915
-5.6991 1.1830 2.3915
-5.7389 0.9758 2.3915
-5.7717 0.7673 2.3915
-5.7974 0.5578 2.3915
-5.8159 0.3474 2.3915
-5.8274 0.1365 2.3915
-5.8317 -0.0748 2.3915
-5.8289 -0.2863 2.3915
-5.8189 -0.4976 2.3915
-5.8017 -0.7086 2.3915
-5.7774 -0.9191 2.3915
-5.7152 -1.1228 2.3788
-5.6457 -1.3232 2.3657
-5.5763 -1.5218 2.3555
-5.5067 -1.7193 2.3481
-5.4369 -1.9161 2.3433
-5.3667 -2.1126 2.3413
-5.2958 -2.3093 2.3419
-5.2241 -2.5067 2.3452
-5.1516 -2.7052 2.3513
-5.0778 -2.9054 2.3602
-5.0028 -3.1077 2.3719
-4.9263 -3.3125 2.3866
-4.8223 -3.5022 2.3915
-4.7016 -3.6811 2.3915
-4.5747 -3.8560 2.3915
-4.4415 -4.0268 2.3915
-4.3023 -4.1931 2.3915
-4.1571 -4.3548 2.3915
-4.0061 -4.5117 2.3915
-3.8494 -4.6636 2.3915
-3.6872 -4.8102 2.3915
-3.5196 -4.9514 2.3915
-3.3469 -5.0869 2.3915
-3.1691 -5.2165 2.3915
-2.9865 -5.3401 2.3915
-2.7993 -5.4574 2.3915
-2.6076 -5.5683 2.3915
-2.4118 -5.6724 2.3915
-2.2118 -5.7702 2.3915
-2.0082 -5.8608 2.3915
-1.8009 -5.9442 2.3915
-1.5904 -6.0205 2.3915
-1.3768 -6.0893 2.3915
-1.1603 -6.1506 2.3915
-0.9414 -6.2041 2.3915
-0.7201 -6.2499 2.3915
-0.4969 -6.2878 2.3915
-0.2719 -6.3177 2.3915
-0.0455 -6.3395 2.3915
0.1820 -6.3530 2.3915
0.4104 -6.3584 2.3915
0.6393 -6.3554 2.3915
0.8685 -6.3440 2.3915
1.0975 -6.3242 2.3915
1.3262 -6.2959 2.3915
1.5541 -6.2592 2.3915
1.7810 -6.2141 2.3915
2.0064 -6.1605 2.3915
2.2302 -6.0985 2.3915
2.4520 -6.0281 2.3915
2.6713 -5.9494 2.3915
2.8880 -5.8624 2.3915
3.1017 -5.7672 2.3915
3.3120 -5.6640 2.3915
3.5186 -5.5528 2.3915
3.7212 -5.4337 2.3915
3.9195 -5.3069 2.3915
4.1132 -5.1725 2.3915
4.3020 -5.0308 2.3915
4.4855 -4.8818 2.3915
4.6634 -4.7258 2.3915
4.8355 -4.5630 2.3915
5.0016 -4.3936 2.3915
5.1612 -4.2178 2.3915
5.3142 -4.0359 2.3915
5.4603 -3.8481 2.3915
5.5992 -3.6548 2.3915
5.7308 -3.4561 2.3915
5.8548 -3.2524 2.3915
5.9710 -3.0441 2.3915
6.0792 -2.8313 2.3915
6.1792 -2.6144 2.3915
6.2709 -2.3938 2.3915
6.3541 -2.1698 2.3915
6.4286 -1.9427 2.3915
6.4945 -1.7129 2.3915
6.5515 -1.4807 2.3915
6.5995 -1.2465 2.3915
6.6385 -1.0107 2.3915
6.6684 -0.7734 2.3915
6.6894 -0.5355 2.3915
6.7011 -0.2970 2.3915
6.7038 -0.0582 2.3915
6.6972 0.1803 2.3915
6.6816 0.4183 2.3915
6.6569 0.6554 2.3915
6.6233 0.8912 2.3915
6.5807 1.1253 2.3915
6.5292 1.3575 2.3915
6.4691 1.5873 2.3915
6.4003 1.8144 2.3915
6.3230 2.0385 2.3915
6.2374 2.2593 2.3915
6.1436 2.4764 2.3915
6.0419 2.6895 2.3915
5.9323 2.8984 2.3915
5.8151 3.1027 2.3915
5.6904 3.3022 2.3915
5.5586 3.4965 2.3915
5.4198 3.6855 2.3915
5.2743 3.8688 2.3915
5.1223 4.0463 2.3915
4.9641 4.2177 2.3915
4.7999 4.3828 2.3915
4.6301 4.5414 2.3915
4.4548 4.6933 2.3915
4.2744 4.8384 2.3915
4.0891 4.9764 2.3915
3.8992 5.1073 2.3915
3.7051 5.2308 2.3915
3.5070 5.3470 2.3915
3.3052 5.4556 2.3915
3.1000 5.5565 2.3915
2.8917 5.6497 2.3915
2.6807 5.7352 2.3915
2.4672 5.8127 2.3915
0.8833 2.3078 0.9383
0.7998 2.3375 0.9405
0.7153 2.3641 0.9427
0.6299 2.3877 0.9449
0.5436 2.4082 0.9471
0.4567 2.4256 0.9493
0.3692 2.4398 0.9515
0.2812 2.4508 0.9536
0.1929 2.4587 0.9558
0.1044 2.4634 0.9579
0.0157 2.4648 0.9600
-0.0729 2.4631 0.9621
-0.1615 2.4582 0.9642
-0.2498 2.4500 0.9662
-0.3378 2.4387 0.9682
-0.4253 2.4242 0.9702
-0.5122 2.4066 0.9721
-0.5984 2.3858 0.9740
-0.6838 2.3619 0.9758
-0.7683 2.3350 0.9776
-0.8518 2.3050 0.9794
-2.2733 5.5295 2.3876
-2.4666 5.4337 2.3879
-2.6567 5.3315 2.3883
-2.8426 5.2230 2.3886
3.4818 4.8809 2.3915
3.2974 4.9907 2.3915
3.1094 5.0935 2.3915
2.9181 5.1892 2.3915
2.7239 5.2777 2.3915
2.5270 5.3589 2.3915
0.9112 2.1268 0.9362
0.8342 2.1576 0.9383
0.7562 2.1856 0.9403
0.6771 2.2107 0.9424
0.5972 2.2330 0.9445
0.5166 2.2524 0.9465
0.4352 2.2689 0.9486
0.3534 2.2824 0.9506
0.2711 2.2930 0.9527
0.1884 2.3005 0.9547
0.1055 2.3051 0.9567
0.0226 2.3067 0.9587
-0.0604 2.3053 0.9606
-0.1433 2.3009 0.9625
-0.2260 2.2936 0.9645
-0.3083 2.2832 0.9663
-0.3903 2.2699 0.9682
-0.4717 2.2536 0.9700
-0.5524 2.2344 0.9717
-0.6325 2.2123 0.9735
-0.7116 2.1873 0.9751
-0.7898 2.1594 0.9768
-0.8670 2.1288 0.9784
-2.3004 5.1118 2.3906
-2.4791 5.0163 2.3907
-2.6541 4.9150 2.3909
-2.8254 4.8078 2.3911
-2.9925 4.6950 2.3912
-3.1553 4.5764 2.3913
-3.3138 4.4526 2.3914
-3.4677 4.3235 2.3915
-3.6168 4.1893 2.3915
-3.7610 4.0502 2.3915
-3.9002 3.9064 2.3915
-4.0343 3.7581 2.3915
-4.1630 3.6054 2.3915
-4.2864 3.4486 2.3915
-4.4043 3.2878 2.3915
-4.5165 3.1233 2.3915
-4.6230 2.9551 2.3915
-4.7236 2.7836 2.3915
-4.8182 2.6088 2.3915
-4.9069 2.4310 2.3915
-4.9894 2.2504 2.3915
-5.0656 2.0671 2.3915
-5.1356 1.8814 2.3915
-5.1993 1.6936 2.3915
-5.2565 1.5036 2.3915
-5.3072 1.3119 2.3915
-5.3514 1.1186 2.3915
-5.3890 0.9239 2.3915
-5.4200 0.7279 2.3915
-5.4443 0.5311 2.3915
-5.4619 0.3334 2.3915
-5.4728 0.1352 2.3915
-5.4770 -0.0634 2.3915
-5.4744 -0.2621 2.3915
-5.4651 -0.4607 2.3915
-5.4490 -0.6590 2.3915
-5.4261 -0.8567 2.3915
-5.3965 -1.0538 2.3915
-5.3602 -1.2499 2.3915
-5.3171 -1.4448 2.3915
-5.2674 -1.6383 2.3915
-5.2111 -1.8302 2.3915
-5.1481 -2.0203 2.3915
-5.0786 -2.2084 2.3915
-5.0026 -2.3942 2.3915
-4.9201 -2.5775 2.3915
-4.8313 -2.7581 2.3915
-4.7362 -2.9358 2.3915
-4.6349 -3.1104 2.3915
-4.5275 -3.2817 2.3915
-4.4140 -3.4494 2.3915
-4.2946 -3.6133 2.3915
-4.1694 -3.7734 2.3915
-4.0385 -3.9292 2.3915
-3.9021 -4.0807 2.3915
-3.7602 -4.2276 2.3915
-3.6129 -4.3697 2.3915
-3.4606 -4.5069 2.3915
-3.3032 -4.6389 2.3915
-3.1410 -4.7655 2.3915
-2.9741 -4.8867 2.3915
-2.8027 -5.0021 2.3915
-2.6270 -5.1116 2.3915
-2.4472 -5.2151 2.3915
-2.2635 -5.3124 2.3915
-2.0760 -5.4033 2.3915
-1.8851 -5.4876 2.3915
-1.6908 -5.5653 2.3915
-1.4935 -5.6362 2.3915
-1.2934 -5.7001 2.3915
-1.0907 -5.7569 2.3915
-0.8856 -5.8065 2.3915
-0.6785 -5.8488 2.3915
-0.4696 -5.8838 2.3915
-0.2590 -5.9112 2.3915
-0.0472 -5.9310 2.3915
0.1656 -5.9431 2.3915
0.3792 -5.9476 2.3915
0.5932 -5.9442 2.3915
0.8073 -5.9330 2.3915
1.0214 -5.9140 2.3915
1.2350 -5.8871 2.3915
1.4479 -5.8523 2.3915
1.6597 -5.8097 2.3915
1.8703 -5.7591 2.3915
2.0791 -5.7008 2.3915
2.2861 -5.6346 2.3915
2.4908 -5.5607 2.3915
2.6930 -5.4791 2.3915
2.8923 -5.3899 2.3915
3.0885 -5.2931 2.3915
3.2812 -5.1890 2.3915
3.4701 -5.0776 2.3915
3.6550 -4.9590 2.3915
3.8356 -4.8334 2.3915
4.0116 -4.7009 2.3915
4.1826 -4.5617 2.3915
4.3485 -4.4160 2.3915
4.5090 -4.2640 2.3915
4.6637 -4.1058 2.3915
4.8125 -3.9418 2.3915
4.9551 -3.7721 2.3915
5.0913 -3.5969 2.3915
5.2209 -3.4166 2.3915
5.3436 -3.2313 2.3915
5.4593 -3.0414 2.3915
5.5677 -2.8471 2.3915
5.6686 -2.6488 2.3915
5.7620 -2.4466 2.3915
5.8477 -2.2410 2.3915
5.9255 -2.0322 2.3915
5.9952 -1.8205 2.3915
6.0569 -1.6063 2.3915
6.1103 -1.3899 2.3915
6.1555 -1.1716 2.3915
6.1923 -0.9518 2.3915
6.2207 -0.7308 2.3915
6.2406 -0.5089 2.3915
6.2520 -0.2864 2.3915
6.2550 -0.0638 2.3915
6.2495 0.1586 2.3915
6.2355 0.3806 2.3915
6.2132 0.6018 2.3915
6.1824 0.8218 2.3915
6.1434 1.0403 2.3915
6.0961 1.2570 2.3915
6.0407 1.4715 2.3915
5.9773 1.6836 2.3915
5.9060 1.8930 2.3915
5.8269 2.0993 2.3915
5.7402 2.3022 2.3915
5.6461 2.5015 2.3915
5.5446 2.6968 2.3915
5.4360 2.8880 2.3915
5.3205 3.0746 2.3915
5.1983 3.2566 2.3915
5.0695 3.4336 2.3915
4.9345 3.6054 2.3915
4.7933 3.7718 2.3915
4.6463 3.9326 2.3915
4.4938 4.0876 2.3915
4.3358 4.2365 2.3915
4.1728 4.3793 2.3915
4.0049 4.5157 2.3915
3.8324 4.6456 2.3915
3.6556 4.7688 2.3915
3.4747 4.8853 2.3915
3.2901 4.9948 2.3915
3.1020 5.0974 2.3915
2.9106 5.1928 2.3915
2.7164 5.2810 2.3915
2.5193 5.3620 2.3915
0.9083 2.1280 0.9363
0.8312 2.1587 0.9384
0.7531 2.1866 0.9404
0.6740 2.2116 0.9425
0.5941 2.2338 0.9446
0.5134 2.2531 0.9466
0.4321 2.2695 0.9487
0.3502 2.2829 0.9507
0.2678 2.2933 0.9527
0.1852 2.3008 0.9548
0.1023 2.3052 0.9568
0.0193 2.3067 0.9587
-0.0636 2.3052 0.9607
-0.1465 2.3007 0.9626
-0.2292 2.2932 0.9645
-0.3115 2.2827 0.9664
-0.3935 2.2693 0.9682
-0.4748 2.2529 0.9700
-0.5556 2.2336 0.9718
-0.6355 2.2113 0.9735
-0.7147 2.1862 0.9752
-0.7928 2.1583 0.9769
-0.8699 2.1276 0.9784
-2.3074 5.1082 2.3906
-2.4859 5.0125 2.3907
-2.6608 4.9109 2.3909
-2.8320 4.8035 2.3911
-2.9989 4.6905 2.3912
-3.1615 4.5717 2.3913
-3.3198 4.4477 2.3914
-3.4736 4.3184 2.3915
-3.6225 4.1840 2.3915
-3.7665 4.0447 2.3915
-3.9055 3.9007 2.3915
-4.0394 3.7522 2.3915
-4.1679 3.5994 2.3915
-4.2911 3.4424 2.3915
-4.4087 3.2815 2.3915
-4.5207 3.1168 2.3915
-4.6270 2.9485 2.3915
-4.7274 2.7768 2.3915
-4.8218 2.6019 2.3915
-4.9102 2.4240 2.3915
-4.9924 2.2433 2.3915
-5.0685 2.0599 2.3915
-5.1382 1.8742 2.3915
-5.2016 1.6862 2.3915
-5.2586 1.4962 2.3915
-5.3090 1.3044 2.3915
-5.3530 1.1111 2.3915
-5.3903 0.9163 2.3915
-5.4210 0.7203 2.3915
-5.4451 0.5234 2.3915
-5.4625 0.3257 2.3915
-5.4731 0.1275 2.3915
-5.4770 -0.0711 2.3915
-5.4742 -0.2698 2.3915
-5.4646 -0.4684 2.3915
-5.4482 -0.6667 2.3915
-5.4251 -0.8644 2.3915
-5.3952 -1.0614 2.3915
-5.3586 -1.2575 2.3915
-5.3153 -1.4523 2.3915
-5.2653 -1.6458 2.3915
-5.2087 -1.8376 2.3915
-5.1455 -2.0277 2.3915
-5.0758 -2.2156 2.3915
-4.9995 -2.4013 2.3915
-4.9168 -2.5845 2.3915
-4.8278 -2.7650 2.3915
-4.7324 -2.9426 2.3915
-4.6309 -3.1171 2.3915
-4.5232 -3.2883 2.3915
-4.4095 -3.4558 2.3915
-4.2899 -3.6196 2.3915
-4.1645 -3.7795 2.3915
-4.0333 -3.9352 2.3915
-3.8967 -4.0865 2.3915
-3.7545 -4.2332 2.3915
-3.6071 -4.3751 2.3915
-3.4545 -4.5121 2.3915
-3.2970 -4.6439 2.3915
-3.1346 -4.7703 2.3915
-2.9675 -4.8912 2.3915
-2.7960 -5.0065 2.3915
-2.6202 -5.1156 2.3915
-2.4401 -5.2190 2.3915
-2.2563 -5.3160 2.3915
-2.0687 -5.4067 2.3915
-1.8776 -5.4908 2.3915
-1.6832 -5.5682 2.3915
-1.4858 -5.6388 2.3915
-1.2856 -5.7024 2.3915
-1.0828 -5.7590 2.3915
-0.8776 -5.8083 2.3915
-0.6704 -5.8503 2.3915
-0.4614 -5.8850 2.3915
-0.2508 -5.9121 2.3915
-0.0390 -5.9316 2.3915
0.1739 -5.9434 2.3915
0.3875 -5.9476 2.3915
0.6015 -5.9439 2.3915
0.8156 -5.9325 2.3915
1.0297 -5.9131 2.3915
1.2433 -5.8859 2.3915
1.4561 -5.8508 2.3915
1.6679 -5.8079 2.3915
1.8784 -5.7570 2.3915
2.0872 -5.6984 2.3915
2.2941 -5.6319 2.3915
2.4987 -5.5577 2.3915
2.7008 -5.4758 2.3915
2.9000 -5.3863 2.3915
3.0960 -5.2892 2.3915
3.2886 -5.1848 2.3915
3.4774 -5.0731 2.3915
3.6621 -4.9542 2.3915
3.8425 -4.8283 2.3915
4.0183 -4.6956 2.3915
4.1892 -4.5562 2.3915
4.3548 -4.4102 2.3915
4.5151 -4.2579 2.3915
4.6696 -4.0996 2.3915
4.8182 -3.9353 2.3915
4.9606 -3.7654 2.3915
5.0965 -3.5900 2.3915
5.2258 -3.4095 2.3915
5.3482 -3.2240 2.3915
5.4636 -3.0339 2.3915
5.5717 -2.8395 2.3915
5.6724 -2.6410 2.3915
5.7655 -2.4387 2.3915
5.8509 -2.2329 2.3915
5.9283 -2.0240 2.3915
5.9978 -1.8122 2.3915
6.0591 -1.5979 2.3915
6.1122 -1.3815 2.3915
6.1571 -1.1631 2.3915
6.1935 -0.9432 2.3915
6.2216 -0.7222 2.3915
6.2412 -0.5002 2.3915
6.2523 -0.2778 2.3915
6.2549 -0.0552 2.3915
6.2492 0.1670 2.3915
6.2348 0.3892 2.3915
6.2121 0.6103 2.3915
6.1811 0.8303 2.3915
6.1417 1.0487 2.3915
6.0941 1.2654 2.3915
6.0384 1.4798 2.3915
5.9747 1.6918 2.3915
5.9031 1.9011 2.3915
5.8237 2.1072 2.3915
5.7367 2.3100 2.3915
5.6423 2.5091 2.3915
5.5405 2.7043 2.3915
5.4317 2.8953 2.3915
5.3159 3.0818 2.3915
5.1934 3.2636 2.3915
5.0644 3.4404 2.3915
4.9291 3.6120 2.3915
4.7877 3.7782 2.3915
4.6405 3.9388 2.3915
4.4877 4.0935 2.3915
4.3296 4.2422 2.3915
4.1663 4.3847 2.3915
3.9983 4.5209 2.3915
3.8256 4.6505 2.3915
3.6486 4.7735 2.3915
3.4676 4.8897 2.3915
3.2829 4.9990 2.3915
3.0946 5.1012 2.3915
2.9031 5.1963 2.3915
2.7087 5.2843 2.3915
2.5116 5.3650 2.3915
0.9053 2.1293 0.9364
0.8282 2.1599 0.9384
0.7501 2.1876 0.9405
0.6709 2.2126 0.9426
0.5910 2.2346 0.9446
0.5103 2.2538 0.9467
0.4289 2.2700 0.9487
0.3470 2.2833 0.9508
0.2646 2.2937 0.9528
0.1820 2.3010 0.9548
0.0991 2.3054 0.9568
0.0161 2.3067 0.9588
-0.0669 2.3051 0.9608
-0.1497 2.3005 0.9627
-0.2324 2.2929 0.9646
-0.3147 2.2823 0.9665
-0.3966 2.2687 0.9683
-0.4780 2.2522 0.9701
-0.5587 2.2328 0.9719
-0.6386 2.2104 0.9736
-0.7177 2.1852 0.9753
-0.7959 2.1572 0.9769
-0.8729 2.1263 0.9785
-2.3144 5.1046 2.3906
-2.4928 5.0086 2.3907
-2.6676 4.9068 2.3909
3.2689 4.5767 2.3915
3.0962 4.6802 2.3915
2.9203 4.7773 2.3915
2.7412 4.8677 2.3915
2.5593 4.9513 2.3915
0.9281 1.9649 0.9346
0.8569 1.9964 0.9365
0.7846 2.0253 0.9384
0.7112 2.0516 0.9404
0.6370 2.0752 0.9423
0.5620 2.0961 0.9443
0.4863 2.1143 0.9462
0.4099 2.1297 0.9481
0.3331 2.1424 0.9500
0.2558 2.1523 0.9519
0.1782 2.1594 0.9538
0.1004 2.1637 0.9557
0.0225 2.1652 0.9576
-0.0554 2.1639 0.9594
-0.1332 2.1598 0.9612
-0.2108 2.1528 0.9630
-0.2881 2.1431 0.9648
-0.3651 2.1306 0.9665
-0.4415 2.1153 0.9682
-0.5173 2.0973 0.9698
-0.5924 2.0765 0.9715
-0.6667 2.0531 0.9731
-0.7401 2.0269 0.9746
-0.8126 1.9982 0.9761
-0.8839 1.9668 0.9775
-2.3308 4.7221 2.3915
-2.4956 4.6268 2.3915
-2.6569 4.5259 2.3915
-2.8143 4.4197 2.3915
-2.9677 4.3083 2.3915
-3.1170 4.1918 2.3915
-3.2621 4.0704 2.3915
-3.4027 3.9443 2.3915
-3.5387 3.8135 2.3915
-3.6701 3.6783 2.3915
-3.7965 3.5389 2.3915
-3.9180 3.3953 2.3915
-4.0345 3.2477 2.3915
-4.1457 3.0964 2.3915
-4.2516 2.9416 2.3915
-4.3521 2.7832 2.3915
-4.4470 2.6217 2.3915
-4.5364 2.4571 2.3915
-4.6200 2.2897 2.3915
-4.6978 2.1196 2.3915
-4.7698 1.9469 2.3915
-4.8358 1.7720 2.3915
-4.8958 1.5950 2.3915
-4.9498 1.4161 2.3915
-4.9976 1.2354 2.3915
-5.0392 1.0533 2.3915
-5.0746 0.8698 2.3915
-5.1038 0.6852 2.3915
-5.1266 0.4996 2.3915
-5.1431 0.3134 2.3915
-5.1533 0.1266 2.3915
-5.1571 -0.0605 2.3915
-5.1545 -0.2477 2.3915
-5.1455 -0.4348 2.3915
-5.1302 -0.6216 2.3915
-5.1084 -0.8079 2.3915
-5.0803 -0.9934 2.3915
-5.0458 -1.1781 2.3915
-5.0050 -1.3616 2.3915
-4.9579 -1.5438 2.3915
-4.9045 -1.7244 2.3915
-4.8449 -1.9034 2.3915
-4.7791 -2.0803 2.3915
-4.7072 -2.2551 2.3915
-4.6292 -2.4275 2.3915
-4.5453 -2.5974 2.3915
-4.4554 -2.7645 2.3915
-4.3596 -2.9286 2.3915
-4.2581 -3.0895 2.3915
-4.1509 -3.2471 2.3915
-4.0382 -3.4011 2.3915
-3.9200 -3.5513 2.3915
-3.7964 -3.6976 2.3915
-3.6676 -3.8397 2.3915
-3.5338 -3.9775 2.3915
-3.3949 -4.1108 2.3915
-3.2512 -4.2393 2.3915
-3.1029 -4.3630 2.3915
-2.9500 -4.4816 2.3915
-2.7928 -4.5949 2.3915
-2.6313 -4.7029 2.3915
-2.4659 -4.8053 2.3915
-2.2966 -4.9020 2.3915
-2.1236 -4.9928 2.3915
-1.9472 -5.0776 2.3915
-1.7676 -5.1562 2.3915
-1.5849 -5.2285 2.3915
-1.3994 -5.2944 2.3915
-1.2112 -5.3538 2.3915
-1.0207 -5.4064 2.3915
-0.8281 -5.4523 2.3915
-0.6335 -5.4914 2.3915
-0.4373 -5.5234 2.3915
-0.2397 -5.5484 2.3915
-0.0409 -5.5663 2.3915
0.1588 -5.5770 2.3915
0.3591 -5.5805 2.3915
0.5598 -5.5766 2.3915
0.7606 -5.5654 2.3915
0.9613 -5.5469 2.3915
1.1615 -5.5210 2.3915
1.3609 -5.4877 2.3915
1.5594 -5.4471 2.3915
1.7565 -5.3991 2.3915
1.9521 -5.3438 2.3915
2.1459 -5.2812 2.3915
2.3375 -5.2113 2.3915
2.5266 -5.1343 2.3915
2.7131 -5.0502 2.3915
2.8966 -4.9591 2.3915
3.0768 -4.8610 2.3915
3.2534 -4.7562 2.3915
3.4263 -4.6447 2.3915
3.5951 -4.5267 2.3915
3.7595 -4.4022 2.3915
3.9194 -4.2716 2.3915
4.0744 -4.1348 2.3915
4.2243 -3.9922 2.3915
4.3688 -3.8439 2.3915
4.5078 -3.6901 2.3915
4.6410 -3.5311 2.3915
4.7682 -3.3670 2.3915
4.8892 -3.1980 2.3915
5.0038 -3.0245 2.3915
5.1119 -2.8467 2.3915
5.2131 -2.6648 2.3915
5.3074 -2.4792 2.3915
5.3946 -2.2900 2.3915
5.4747 -2.0975 2.3915
5.5473 -1.9021 2.3915
5.6126 -1.7041 2.3915
5.6702 -1.5037 2.3915
5.7202 -1.3012 2.3915
5.7625 -1.0970 2.3915
5.7969 -0.8913 2.3915
5.8236 -0.6845 2.3915
5.8423 -0.4769 2.3915
5.8532 -0.2689 2.3915
5.8561 -0.0606 2.3915
5.8512 0.1476 2.3915
5.8383 0.3553 2.3915
5.8176 0.5623 2.3915
5.7892 0.7682 2.3915
5.7529 0.9727 2.3915
5.7090 1.1756 2.3915
5.6575 1.3765 2.3915
5.5986 1.5751 2.3915
5.5322 1.7712 2.3915
5.4586 1.9645 2.3915
5.3778 2.1546 2.3915
5.2901 2.3414 2.3915
5.1956 2.5245 2.3915
5.0943 2.7037 2.3915
4.9866 2.8788 2.3915
4.8726 3.0496 2.3915
4.7525 3.2157 2.3915
4.6265 3.3770 2.3915
4.4947 3.5333 2.3915
4.3575 3.6843 2.3915
4.2149 3.8300 2.3915
4.0674 3.9700 2.3915
3.9150 4.1043 2.3915
3.7581 4.2327 2.3915
3.5968 4.3550 2.3915
3.4314 4.4711 2.3915
3.2622 4.5808 2.3915
3.0895 4.6841 2.3915
2.9134 4.7809 2.3915
2.7342 4.8710 2.3915
2.5522 4.9544 2.3915
0.9253 1.9662 0.9346
0.8541 1.9976 0.9366
0.7817 2.0264 0.9385
0.7084 2.0525 0.9404
0.6341 2.0760 0.9424
0.5591 2.0968 0.9443
0.4833 2.1149 0.9463
0.4070 2.1303 0.9482
0.3301 2.1428 0.9501
0.2528 2.1526 0.9520
0.1752 2.1596 0.9539
0.0974 2.1638 0.9558
0.0195 2.1652 0.9576
-0.0584 2.1638 0.9595
-0.1362 2.1596 0.9613
-0.2138 2.1525 0.9631
-0.2911 2.1427 0.9648
-0.3680 2.1301 0.9666
-0.4444 2.1147 0.9683
-0.5202 2.0965 0.9699
-0.5953 2.0757 0.9715
-0.6696 2.0521 0.9731
-0.7430 2.0259 0.9747
-0.8154 1.9970 0.9761
-0.8867 1.9656 0.9776
-2.3373 4.7184 2.3915
-2.5020 4.6230 2.3915
-2.6630 4.5219 2.3915
-2.8203 4.4155 2.3915
-2.9736 4.3039 2.3915
-3.1228 4.1872 2.3915
-3.2676 4.0656 2.3915
-3.4081 3.9393 2.3915
-3.5439 3.8084 2.3915
-3.6751 3.6730 2.3915
-3.8014 3.5334 2.3915
-3.9227 3.3896 2.3915
-4.0389 3.2419 2.3915
-4.1499 3.0905 2.3915
-4.2556 2.9355 2.3915
-4.3559 2.7770 2.3915
-4.4506 2.6154 2.3915
-4.5397 2.4507 2.3915
-4.6231 2.2831 2.3915
-4.7007 2.1129 2.3915
-4.7725 1.9402 2.3915
-4.8383 1.7652 2.3915
-4.8980 1.5881 2.3915
-4.9517 1.4091 2.3915
-4.9993 1.2284 2.3915
-5.0407 1.0462 2.3915
-5.0759 0.8626 2.3915
-5.1048 0.6780 2.3915
-5.1274 0.4924 2.3915
-5.1436 0.3061 2.3915
-5.1535 0.1193 2.3915
-5.1571 -0.0678 2.3915
-5.1543 -0.2549 2.3915
-5.1450 -0.4420 2.3915
-5.1294 -0.6288 2.3915
-5.1074 -0.8151 2.3915
-5.0791 -1.0006 2.3915
-5.0443 -1.1852 2.3915
-5.0033 -1.3687 2.3915
-4.9559 -1.5508 2.3915
-4.9023 -1.7314 2.3915
-4.8425 -1.9103 2.3915
-4.7764 -2.0871 2.3915
-4.7043 -2.2619 2.3915
-4.6261 -2.4342 2.3915
-4.5419 -2.6039 2.3915
-4.4517 -2.7709 2.3915
-4.3558 -2.9349 2.3915
-4.2540 -3.0957 2.3915
-4.1466 -3.2532 2.3915
-4.0337 -3.4070 2.3915
-3.9153 -3.5571 2.3915
-3.7915 -3.7033 2.3915
-3.6625 -3.8452 2.3915
-3.5285 -3.9828 2.3915
-3.3894 -4.1159 2.3915
-3.2455 -4.2442 2.3915
-3.0970 -4.3677 2.3915
-2.9440 -4.4860 2.3915
-2.7866 -4.5992 2.3915
-2.6250 -4.7070 2.3915
-2.4593 -4.8092 2.3915
-2.2899 -4.9056 2.3915
-2.1168 -4.9962 2.3915
-1.9403 -5.0808 2.3915
-1.7605 -5.1591 2.3915
-1.5777 -5.2312 2.3915
-1.3921 -5.2968 2.3915
-1.2039 -5.3559 2.3915
-1.0133 -5.4083 2.3915
-0.8206 -5.4540 2.3915
-0.6259 -5.4927 2.3915
-0.4297 -5.5245 2.3915
-0.2320 -5.5493 2.3915
-0.0332 -5.5669 2.3915
0.1666 -5.5773 2.3915
0.3669 -5.5805 2.3915
0.5676 -5.5763 2.3915
0.7685 -5.5649 2.3915
0.9691 -5.5461 2.3915
1.1692 -5.5199 2.3915
1.3687 -5.4863 2.3915
1.5671 -5.4454 2.3915
1.7642 -5.3971 2.3915
1.9597 -5.3415 2.3915
2.1533 -5.2786 2.3915
2.3448 -5.2085 2.3915
2.5339 -5.1312 2.3915
2.7203 -5.0468 2.3915
2.9036 -4.9554 2.3915
3.0837 -4.8571 2.3915
3.2602 -4.7520 2.3915
3.4329 -4.6402 2.3915
3.6016 -4.5219 2.3915
3.7658 -4.3973 2.3915
3.9255 -4.2664 2.3915
4.0803 -4.1294 2.3915
4.2300 -3.9866 2.3915
4.3743 -3.8381 2.3915
4.5131 -3.6841 2.3915
4.6461 -3.5248 2.3915
4.7731 -3.3605 2.3915
4.8938 -3.1914 2.3915
5.0082 -3.0177 2.3915
5.1159 -2.8397 2.3915
5.2169 -2.6577 2.3915
5.3109 -2.4719 2.3915
5.3979 -2.2825 2.3915
5.4776 -2.0900 2.3915
5.5500 -1.8945 2.3915
5.6149 -1.6963 2.3915
5.6723 -1.4958 2.3915
5.7220 -1.2933 2.3915
5.7640 -1.0890 2.3915
5.7981 -0.8833 2.3915
5.8244 -0.6765 2.3915
5.8429 -0.4689 2.3915
5.8534 -0.2608 2.3915
5.8561 -0.0525 2.3915
5.8508 0.1557 2.3915
5.8377 0.3634 2.3915
5.8167 0.5703 2.3915
5.7879 0.7762 2.3915
5.7514 0.9806 2.3915
5.7072 1.1834 2.3915
5.6554 1.3843 2.3915
5.5961 1.5828 2.3915
5.5295 1.7788 2.3915
5.4556 1.9719 2.3915
5.3746 2.1619 2.3915
5.2866 2.3485 2.3915
5.1918 2.5315 2.3915
5.0903 2.7106 2.3915
4.9823 2.8855 2.3915
4.8681 3.0561 2.3915
4.7477 3.2220 2.3915
4.6214 3.3832 2.3915
4.4895 3.5392 2.3915
4.3520 3.6901 2.3915
4.2093 3.8355 2.3915
4.0615 3.9753 2.3915
3.9090 4.1094 2.3915
3.7519 4.2375 2.3915
3.5904 4.3596 2.3915
3.4249 4.4754 2.3915
3.2556 4.5850 2.3915
3.0827 4.6880 2.3915
2.9064 4.7845 2.3915
2.7272 4.8744 2.3915
2.5451 4.9575 2.3915
0.9226 1.9675 0.9347
0.8513 1.9987 0.9366
0.7789 2.0274 0.9386
0.7055 2.0535 0.9405
0.6312 2.0769 0.9425
0.5562 2.0976 0.9444
0.4804 2.1156 0.9463
0.4040 2.1308 0.9483
0.3271 2.1433 0.9502
0.2498 2.1530 0.9521
0.1722 2.1599 0.9540
0.0944 2.1639 0.9559
0.0165 2.1652 0.9577
-0.0614 2.1637 0.9596
-0.1392 2.1593 0.9614
-0.2168 2.1522 0.9631
-0.2941 2.1422 0.9649
-0.3710 2.1295 0.9666
-0.4474 2.1140 0.9683
-0.5231 2.0958 0.9700
-0.5982 2.0748 0.9716
-0.6725 2.0511 0.9732
-0.7458 2.0248 0.9747
-0.8182 1.9958 0.9762
-0.8894 1.9643 0.9777
-2.3437 4.7149 2.3915
-2.5083 4.6191 2.3915
3.0773 4.3031 2.3915
2.9153 4.4009 2.3915
2.7501 4.4927 2.3915
2.5820 4.5782 2.3915
0.9408 1.8173 0.9331
0.8749 1.8493 0.9349
0.8078 1.8789 0.9368
0.7398 1.9061 0.9386
0.6708 1.9308 0.9404
0.6009 1.9530 0.9422
0.5303 1.9727 0.9441
0.4590 1.9898 0.9459
0.3871 2.0043 0.9477
0.3148 2.0163 0.9495
0.2421 2.0256 0.9513
0.1690 2.0323 0.9531
0.0958 2.0363 0.9548
0.0225 2.0377 0.9566
-0.0508 2.0365 0.9583
-0.1241 2.0326 0.9600
-0.1971 2.0260 0.9617
-0.2699 2.0169 0.9634
-0.3423 2.0051 0.9650
-0.4142 1.9907 0.9666
-0.4856 1.9737 0.9681
-0.5563 1.9542 0.9697
-0.6263 1.9321 0.9712
-0.6954 1.9075 0.9726
-0.7635 1.8805 0.9740
-0.8307 1.8510 0.9754
-2.1957 4.4541 2.3915
-2.3514 4.3645 2.3915
-2.5037 4.2697 2.3915
-2.6525 4.1698 2.3915
-2.7975 4.0650 2.3915
-2.9386 3.9553 2.3915
-3.0757 3.8410 2.3915
-3.2086 3.7222 2.3915
-3.3372 3.5990 2.3915
-3.4614 3.4716 2.3915
-3.5810 3.3401 2.3915
-3.6959 3.2047 2.3915
-3.8060 3.0656 2.3915
-3.9112 2.9228 2.3915
-4.0113 2.7767 2.3915
-4.1063 2.6273 2.3915
-4.1961 2.4749 2.3915
-4.2806 2.3195 2.3915
-4.3597 2.1615 2.3915
-4.4333 2.0009 2.3915
-4.5013 1.8379 2.3915
-4.5637 1.6727 2.3915
-4.6204 1.5056 2.3915
-4.6714 1.3366 2.3915
-4.7166 1.1660 2.3915
-4.7559 0.9939 2.3915
-4.7893 0.8207 2.3915
-4.8168 0.6463 2.3915
-4.8383 0.4711 2.3915
-4.8538 0.2952 2.3915
-4.8633 0.1188 2.3915
-4.8668 -0.0578 2.3915
-4.8642 -0.2346 2.3915
-4.8556 -0.4113 2.3915
-4.8409 -0.5876 2.3915
-4.8202 -0.7635 2.3915
-4.7935 -0.9387 2.3915
-4.7607 -1.1130 2.3915
-4.7219 -1.2862 2.3915
-4.6772 -1.4581 2.3915
-4.6266 -1.6286 2.3915
-4.5700 -1.7974 2.3915
-4.5077 -1.9642 2.3915
-4.4395 -2.1291 2.3915
-4.3656 -2.2917 2.3915
-4.2861 -2.4518 2.3915
-4.2009 -2.6093 2.3915
-4.1102 -2.7640 2.3915
-4.0141 -2.9156 2.3915
-3.9127 -3.0640 2.3915
-3.8060 -3.2090 2.3915
-3.6942 -3.3504 2.3915
-3.5773 -3.4880 2.3915
-3.4555 -3.6218 2.3915
-3.3290 -3.7513 2.3915
-3.1977 -3.8767 2.3915
-3.0619 -3.9974 2.3915
-2.9218 -4.1136 2.3915
-2.7774 -4.2249 2.3915
-2.6289 -4.3314 2.3915
-2.4765 -4.4326 2.3915
-2.3203 -4.5287 2.3915
-2.1605 -4.6192 2.3915
-1.9974 -4.7043 2.3915
-1.8310 -4.7836 2.3915
-1.6616 -4.8571 2.3915
-1.4893 -4.9247 2.3915
-1.3144 -4.9862 2.3915
-1.1372 -5.0415 2.3915
-0.9577 -5.0905 2.3915
-0.7762 -5.1331 2.3915
-0.5930 -5.1692 2.3915
-0.4083 -5.1988 2.3915
-0.2223 -5.2217 2.3915
-0.0352 -5.2380 2.3915
0.1527 -5.2474 2.3915
0.3411 -5.2501 2.3915
0.5299 -5.2459 2.3915
0.7187 -5.2348 2.3915
0.9073 -5.2168 2.3915
1.0954 -5.1919 2.3915
1.2828 -5.1600 2.3915
1.4692 -5.1212 2.3915
1.6544 -5.0756 2.3915
1.8380 -5.0231 2.3915
2.0199 -4.9637 2.3915
2.1997 -4.8976 2.3915
2.3773 -4.8247 2.3915
2.5522 -4.7453 2.3915
2.7243 -4.6592 2.3915
2.8934 -4.5668 2.3915
3.0591 -4.4679 2.3915
3.2212 -4.3628 2.3915
3.3794 -4.2516 2.3915
3.5336 -4.1345 2.3915
3.6834 -4.0115 2.3915
3.8287 -3.8828 2.3915
3.9691 -3.7487 2.3915
4.1046 -3.6093 2.3915
4.2348 -3.4647 2.3915
4.3596 -3.3152 2.3915
4.4788 -3.1610 2.3915
4.5922 -3.0023 2.3915
4.6995 -2.8394 2.3915
4.8007 -2.6724 2.3915
4.8956 -2.5016 2.3915
4.9840 -2.3273 2.3915
5.0657 -2.1497 2.3915
5.1407 -1.9691 2.3915
5.2088 -1.7857 2.3915
5.2700 -1.5998 2.3915
5.3240 -1.4118 2.3915
5.3709 -1.2218 2.3915
5.4106 -1.0302 2.3915
5.4430 -0.8372 2.3915
5.4680 -0.6432 2.3915
5.4857 -0.4484 2.3915
5.4960 -0.2531 2.3915
5.4989 -0.0576 2.3915
5.4945 0.1377 2.3915
5.4826 0.3326 2.3915
5.4634 0.5269 2.3915
5.4369 0.7202 2.3915
5.4032 0.9122 2.3915
5.3622 1.1027 2.3915
5.3142 1.2913 2.3915
5.2591 1.4779 2.3915
5.1972 1.6620 2.3915
5.1284 1.8436 2.3915
5.0530 2.0223 2.3915
4.9710 2.1978 2.3915
4.8825 2.3699 2.3915
4.7879 2.5385 2.3915
4.6871 2.7032 2.3915
4.5804 2.8638 2.3915
4.4680 3.0201 2.3915
4.3500 3.1719 2.3915
4.2266 3.3191 2.3915
4.0980 3.4613 2.3915
3.9645 3.5986 2.3915
3.8262 3.7306 2.3915
3.6834 3.8572 2.3915
3.5362 3.9783 2.3915
3.3850 4.0937 2.3915
3.2298 4.2033 2.3915
3.0711 4.3070 2.3915
2.9089 4.4046 2.3915
2.7436 4.4961 2.3915
2.5754 4.5814 2.3915
0.9382 1.8186 0.9332
0.8723 1.8505 0.9350
0.8052 1.8800 0.9368
0.7371 1.9071 0.9387
0.6681 1.9317 0.9405
0.5982 1.9538 0.9423
0.5275 1.9734 0.9441
0.4562 1.9904 0.9459
0.3843 2.0048 0.9478
0.3120 2.0167 0.9496
0.2392 2.0259 0.9514
0.1662 2.0325 0.9531
0.0930 2.0364 0.9549
0.0196 2.0377 0.9567
-0.0537 2.0364 0.9584
-0.1269 2.0324 0.9601
-0.2000 2.0257 0.9618
-0.2727 2.0165 0.9634
-0.3451 2.0046 0.9651
-0.4170 1.9901 0.9666
-0.4884 1.9730 0.9682
-0.5590 1.9534 0.9697
-0.6290 1.9312 0.9712
-0.6980 1.9065 0.9727
-0.7662 1.8794 0.9741
-0.8333 1.8498 0.9754
-2.2018 4.4507 2.3915
-2.3574 4.3609 2.3915
-2.5096 4.2659 2.3915
-2.6582 4.1658 2.3915
-2.8030 4.0608 2.3915
-2.9440 3.9510 2.3915
-3.0809 3.8365 2.3915
-3.2137 3.7175 2.3915
-3.3421 3.5941 2.3915
-3.4661 3.4665 2.3915
-3.5855 3.3349 2.3915
-3.7002 3.1994 2.3915
-3.8102 3.0601 2.3915
-3.9151 2.9172 2.3915
-4.0151 2.7710 2.3915
-4.1099 2.6215 2.3915
-4.1995 2.4689 2.3915
-4.2838 2.3134 2.3915
-4.3626 2.1553 2.3915
-4.4360 1.9946 2.3915
-4.5038 1.8315 2.3915
-4.5660 1.6663 2.3915
-4.6225 1.4990 2.3915
-4.6733 1.3300 2.3915
-4.7182 1.1593 2.3915
-4.7573 0.9872 2.3915
-4.7905 0.8139 2.3915
-4.8177 0.6395 2.3915
-4.8390 0.4643 2.3915
-4.8543 0.2883 2.3915
-4.8636 0.1120 2.3915
-4.8668 -0.0647 2.3915
-4.8641 -0.2413 2.3915
-4.8552 -0.4181 2.3915
-4.8402 -0.5945 2.3915
-4.8193 -0.7703 2.3915
-4.7923 -0.9454 2.3915
-4.7593 -1.1197 2.3915
-4.7203 -1.2929 2.3915
-4.6754 -1.4648 2.3915
-4.6245 -1.6352 2.3915
-4.5677 -1.8039 2.3915
-4.5051 -1.9707 2.3915
-4.4367 -2.1355 2.3915
-4.3626 -2.2979 2.3915
-4.2828 -2.4580 2.3915
-4.1975 -2.6153 2.3915
-4.1066 -2.7699 2.3915
-4.0103 -2.9214 2.3915
-3.9086 -3.0697 2.3915
-3.8018 -3.2145 2.3915
-3.6897 -3.3558 2.3915
-3.5727 -3.4933 2.3915
-3.4507 -3.6269 2.3915
-3.3240 -3.7563 2.3915
-3.1925 -3.8814 2.3915
-3.0566 -4.0020 2.3915
-2.9163 -4.1180 2.3915
-2.7717 -4.2292 2.3915
-2.6230 -4.3354 2.3915
-2.4705 -4.4365 2.3915
-2.3141 -4.5323 2.3915
-2.1542 -4.6227 2.3915
-1.9909 -4.7075 2.3915
-1.8244 -4.7866 2.3915
-1.6549 -4.8599 2.3915
-1.4826 -4.9272 2.3915
-1.3076 -4.9884 2.3915
-1.1302 -5.0435 2.3915
-0.9507 -5.0923 2.3915
-0.7691 -5.1346 2.3915
-0.5859 -5.1705 2.3915
-0.4011 -5.1998 2.3915
-0.2150 -5.2225 2.3915
-0.0279 -5.2385 2.3915
0.1600 -5.2477 2.3915
0.3485 -5.2501 2.3915
0.5372 -5.2456 2.3915
0.7260 -5.2342 2.3915
0.9146 -5.2159 2.3915
1.1027 -5.1907 2.3915
1.2901 -5.1586 2.3915
1.4764 -5.1196 2.3915
1.6615 -5.0737 2.3915
1.8451 -5.0209 2.3915
2.0269 -4.9613 2.3915
2.2067 -4.8949 2.3915
2.3841 -4.8218 2.3915
2.5590 -4.7421 2.3915
2.7310 -4.6558 2.3915
2.8999 -4.5630 2.3915
3.0654 -4.4639 2.3915
3.2274 -4.3586 2.3915
3.3855 -4.2472 2.3915
3.5395 -4.1298 2.3915
3.6891 -4.0066 2.3915
3.8342 -3.8777 2.3915
3.9745 -3.7434 2.3915
4.1098 -3.6037 2.3915
4.2398 -3.4590 2.3915
4.3644 -3.3093 2.3915
4.4833 -3.1549 2.3915
4.5965 -2.9961 2.3915
4.7036 -2.8329 2.3915
4.8045 -2.6658 2.3915
4.8991 -2.4949 2.3915
4.9873 -2.3204 2.3915
5.0687 -2.1427 2.3915
5.1435 -1.9620 2.3915
5.2113 -1.7785 2.3915
5.2722 -1.5926 2.3915
5.3260 -1.4044 2.3915
5.3726 -1.2144 2.3915
5.4120 -1.0227 2.3915
5.4441 -0.8297 2.3915
5.4689 -0.6356 2.3915
5.4863 -0.4408 2.3915
5.4963 -0.2455 2.3915
5.4989 -0.0500 2.3915
5.4941 0.1453 2.3915
5.4820 0.3402 2.3915
5.4625 0.5345 2.3915
5.4357 0.7277 2.3915
5.4017 0.9196 2.3915
5.3605 1.1100 2.3915
5.3122 1.2986 2.3915
5.2569 1.4851 2.3915
5.1946 1.6691 2.3915
5.1256 1.8506 2.3915
5.0499 2.0291 2.3915
4.9676 2.2045 2.3915
4.8790 2.3766 2.3915
4.7841 2.5449 2.3915
4.6831 2.7095 2.3915
4.5762 2.8699 2.3915
4.4635 3.0261 2.3915
4.3453 3.1777 2.3915
4.2217 3.3247 2.3915
4.0929 3.4668 2.3915
3.9592 3.6038 2.3915
3.8207 3.7356 2.3915
3.6777 3.8620 2.3915
3.5304 3.9828 2.3915
3.3790 4.0980 2.3915
3.2237 4.2074 2.3915
3.0648 4.3109 2.3915
2.9026 4.4083 2.3915
2.7371 4.4996 2.3915
2.5688 4.5846 2.3915
0.9357 1.8198 0.9333
0.8697 1.8517 0.9351
0.8026 1.8811 0.9369
0.7344 1.9081 0.9387
0.6654 1.9326 0.9405
0.5954 1.9546 0.9424
0.5248 1.9741 0.9442
0.4534 1.9910 0.9460
0.3815 2.0053 0.9478
0.3092 2.0171 0.9496
0.2364 2.0262 0.9514
0.1634 2.0327 0.9532
0.0901 2.0365 0.9550
0.0168 2.0377 0.9567
-0.0565 2.0363 0.9585
-0.1298 2.0322 0.9602
-0.2028 2.0254 0.9618
-0.2756 2.0161 0.9635
-0.3479 2.0041 0.9651
-0.4198 1.9895 0.9667
-0.4911 1.9723 0.9683
-0.5618 1.9526 0.9698
-0.6317 1.9303 0.9713
-0.7007 1.9055 0.9727
-0.7688 1.8783 0.9741
-0.8359 1.8486 0.9755
-2.2079 4.4473 2.3915
-2.3634 4.3573 2.3915
2.9039 4.0554 2.3915
2.7515 4.1481 2.3915
2.5960 4.2350 2.3915
2.4377 4.3161 2.3915
0.8888 1.7142 0.9336
0.8266 1.7444 0.9353
0.7634 1.7723 0.9370
0.6992 1.7980 0.9387
0.6341 1.8213 0.9404
0.5682 1.8422 0.9422
0.5015 1.8608 0.9439
0.4343 1.8769 0.9456
0.3665 1.8906 0.9473
0.2982 1.9019 0.9490
0.2296 1.9107 0.9507
0.1607 1.9170 0.9524
0.0916 1.9208 0.9541
0.0225 1.9221 0.9557
-0.0467 1.9209 0.9573
-0.1158 1.9172 0.9589
-0.1847 1.9111 0.9605
-0.2534 1.9024 0.9621
-0.3217 1.8913 0.9636
-0.3896 1.8777 0.9651
-0.4569 1.8617 0.9666
-0.5236 1.8433 0.9680
-0.5896 1.8225 0.9695
-0.6548 1.7993 0.9708
-0.7191 1.7738 0.9721
-0.7824 1.7459 0.9734
-0.8448 1.7158 0.9747
-2.2201 4.1257 2.3915
-2.3643 4.0363 2.3915
-2.5050 3.9422 2.3915
-2.6424 3.8433 2.3915
-2.7760 3.7398 2.3915
-2.9058 3.6319 2.3915
-3.0317 3.5198 2.3915
-3.1535 3.4034 2.3915
-3.2711 3.2831 2.3915
-3.3844 3.1588 2.3915
-3.4933 3.0309 2.3915
-3.5976 2.8994 2.3915
-3.6972 2.7645 2.3915
-3.7921 2.6263 2.3915
-3.8821 2.4851 2.3915
-3.9672 2.3409 2.3915
-4.0472 2.1940 2.3915
-4.1222 2.0445 2.3915
-4.1919 1.8926 2.3915
-4.2563 1.7384 2.3915
-4.3155 1.5821 2.3915
-4.3692 1.4240 2.3915
-4.4174 1.2641 2.3915
-4.4602 1.1026 2.3915
-4.4974 0.9398 2.3915
-4.5290 0.7759 2.3915
-4.5550 0.6109 2.3915
-4.5753 0.4451 2.3915
-4.5899 0.2786 2.3915
-4.5988 0.1117 2.3915
-4.6020 -0.0554 2.3915
-4.5994 -0.2227 2.3915
-4.5911 -0.3898 2.3915
-4.5771 -0.5567 2.3915
-4.5574 -0.7231 2.3915
-4.5319 -0.8888 2.3915
-4.5007 -1.0535 2.3915
-4.4638 -1.2174 2.3915
-4.4213 -1.3800 2.3915
-4.3732 -1.5412 2.3915
-4.3195 -1.7007 2.3915
-4.2602 -1.8585 2.3915
-4.1955 -2.0143 2.3915
-4.1254 -2.1679 2.3915
-4.0499 -2.3192 2.3915
-3.9691 -2.4679 2.3915
-3.8831 -2.6140 2.3915
-3.7920 -2.7571 2.3915
-3.6958 -2.8971 2.3915
-3.5947 -3.0340 2.3915
-3.4886 -3.1676 2.3915
-3.3779 -3.2973 2.3915
-3.2625 -3.4234 2.3915
-3.1426 -3.5455 2.3915
-3.0183 -3.6636 2.3915
-2.8898 -3.7774 2.3915
-2.7571 -3.8868 2.3915
-2.6204 -3.9916 2.3915
-2.4799 -4.0918 2.3915
-2.3357 -4.1870 2.3915
-2.1880 -4.2773 2.3915
-2.0369 -4.3624 2.3915
-1.8827 -4.4422 2.3915
-1.7254 -4.5167 2.3915
-1.5653 -4.5856 2.3915
-1.4026 -4.6489 2.3915
-1.2374 -4.7065 2.3915
-1.0700 -4.7582 2.3915
-0.9005 -4.8039 2.3915
-0.7292 -4.8436 2.3915
-0.5563 -4.8772 2.3915
-0.3820 -4.9046 2.3915
-0.2065 -4.9257 2.3915
-0.0300 -4.9405 2.3915
0.1472 -4.9489 2.3915
0.3248 -4.9509 2.3915
0.5027 -4.9464 2.3915
0.6807 -4.9354 2.3915
0.8584 -4.9180 2.3915
1.0356 -4.8940 2.3915
1.2121 -4.8635 2.3915
1.3876 -4.8265 2.3915
1.5620 -4.7830 2.3915
1.7349 -4.7331 2.3915
1.9061 -4.6768 2.3915
2.0753 -4.6141 2.3915
2.2423 -4.5451 2.3915
2.4069 -4.4698 2.3915
2.5688 -4.3884 2.3915
2.7278 -4.3010 2.3915
2.8836 -4.2076 2.3915
3.0360 -4.1083 2.3915
3.1847 -4.0034 2.3915
3.3296 -3.8928 2.3915
3.4704 -3.7768 2.3915
3.6069 -3.6554 2.3915
3.7390 -3.5290 2.3915
3.8662 -3.3975 2.3915
3.9886 -3.2613 2.3915
4.1059 -3.1205 2.3915
4.2178 -2.9752 2.3915
4.3243 -2.8258 2.3915
4.4252 -2.6724 2.3915
4.5202 -2.5152 2.3915
4.6093 -2.3544 2.3915
4.6924 -2.1904 2.3915
4.7692 -2.0232 2.3915
4.8396 -1.8533 2.3915
4.9037 -1.6807 2.3915
4.9611 -1.5058 2.3915
5.0120 -1.3289 2.3915
5.0561 -1.1502 2.3915
5.0934 -0.9699 2.3915
5.1239 -0.7884 2.3915
5.1476 -0.6059 2.3915
5.1643 -0.4226 2.3915
5.1741 -0.2389 2.3915
5.1769 -0.0550 2.3915
5.1729 0.1288 2.3915
5.1619 0.3122 2.3915
5.1440 0.4950 2.3915
5.1193 0.6769 2.3915
5.0877 0.8576 2.3915
5.0494 1.0369 2.3915
5.0045 1.2145 2.3915
4.9529 1.3901 2.3915
4.8949 1.5636 2.3915
4.8305 1.7345 2.3915
4.7597 1.9028 2.3915
4.6829 2.0682 2.3915
4.6000 2.2304 2.3915
4.5112 2.3893 2.3915
4.4166 2.5445 2.3915
4.3165 2.6960 2.3915
4.2109 2.8434 2.3915
4.1002 2.9866 2.3915
3.9843 3.1255 2.3915
3.8635 3.2598 2.3915
3.7381 3.3894 2.3915
3.6081 3.5140 2.3915
3.4739 3.6337 2.3915
3.3355 3.7481 2.3915
3.1933 3.8573 2.3915
3.0474 3.9610 2.3915
2.8981 4.0591 2.3915
2.7455 4.1516 2.3915
2.5899 4.2383 2.3915
2.4315 4.3192 2.3915
0.8864 1.7154 0.9336
0.8242 1.7455 0.9353
0.7609 1.7734 0.9371
0.6967 1.7989 0.9388
0.6315 1.8221 0.9405
0.5656 1.8430 0.9422
0.4989 1.8614 0.9439
0.4316 1.8775 0.9457
0.3638 1.8911 0.9474
0.2956 1.9023 0.9491
0.2269 1.9109 0.9508
0.1580 1.9171 0.9525
0.0889 1.9209 0.9541
0.0198 1.9221 0.9558
-0.0494 1.9208 0.9574
-0.1185 1.9170 0.9590
-0.1874 1.9108 0.9606
-0.2561 1.9020 0.9622
-0.3243 1.8908 0.9637
-0.3922 1.8772 0.9652
-0.4595 1.8611 0.9667
-0.5262 1.8425 0.9681
-0.5921 1.8216 0.9695
-0.6573 1.7983 0.9709
-0.7216 1.7727 0.9722
-0.7849 1.7448 0.9735
-0.8472 1.7146 0.9747
-2.2258 4.1223 2.3915
-2.3698 4.0327 2.3915
-2.5105 3.9384 2.3915
-2.6476 3.8393 2.3915
-2.7811 3.7357 2.3915
-2.9108 3.6277 2.3915
-3.0365 3.5153 2.3915
-3.1582 3.3988 2.3915
-3.2756 3.2783 2.3915
-3.3887 3.1539 2.3915
-3.4974 3.0259 2.3915
-3.6015 2.8942 2.3915
-3.7010 2.7592 2.3915
-3.7957 2.6209 2.3915
-3.8855 2.4796 2.3915
-3.9704 2.3353 2.3915
-4.0503 2.1882 2.3915
-4.1250 2.0386 2.3915
-4.1945 1.8866 2.3915
-4.2587 1.7323 2.3915
-4.3176 1.5760 2.3915
-4.3712 1.4178 2.3915
-4.4192 1.2578 2.3915
-4.4617 1.0963 2.3915
-4.4987 0.9335 2.3915
-4.5301 0.7695 2.3915
-4.5559 0.6044 2.3915
-4.5759 0.4386 2.3915
-4.5903 0.2721 2.3915
-4.5990 0.1052 2.3915
-4.6020 -0.0619 2.3915
-4.5992 -0.2292 2.3915
-4.5907 -0.3963 2.3915
-4.5765 -0.5632 2.3915
-4.5565 -0.7295 2.3915
-4.5308 -0.8952 2.3915
-4.4994 -1.0599 2.3915
-4.4623 -1.2237 2.3915
-4.4196 -1.3863 2.3915
-4.3712 -1.5474 2.3915
-4.3173 -1.7069 2.3915
-4.2578 -1.8646 2.3915
-4.1929 -2.0203 2.3915
-4.1226 -2.1738 2.3915
-4.0468 -2.3250 2.3915
-3.9659 -2.4736 2.3915
-3.8797 -2.6196 2.3915
-3.7883 -2.7626 2.3915
-3.6920 -2.9024 2.3915
-3.5906 -3.0394 2.3915
-3.4845 -3.1726 2.3915
-3.3735 -3.3023 2.3915
-3.2580 -3.4282 2.3915
-3.1379 -3.5502 2.3915
-3.0134 -3.6681 2.3915
-2.8847 -3.7817 2.3915
-2.7519 -3.8910 2.3915
-2.6151 -3.9956 2.3915
-2.4744 -4.0956 2.3915
-2.3301 -4.1906 2.3915
-2.1822 -4.2807 2.3915
-2.0310 -4.3656 2.3915
-1.8766 -4.4452 2.3915
-1.7192 -4.5195 2.3915
-1.5590 -4.5882 2.3915
-1.3962 -4.6513 2.3915
-1.2309 -4.7086 2.3915
-1.0634 -4.7600 2.3915
-0.8939 -4.8056 2.3915
-0.7225 -4.8450 2.3915
-0.5495 -4.8784 2.3915
-0.3752 -4.9055 2.3915
-0.1996 -4.9264 2.3915
-0.0231 -4.9409 2.3915
0.1540 -4.9491 2.3915
0.3317 -4.9508 2.3915
0.5096 -4.9461 2.3915
0.6876 -4.9349 2.3915
0.8653 -4.9172 2.3915
1.0425 -4.8930 2.3915
1.2189 -4.8622 2.3915
1.3944 -4.8249 2.3915
1.5687 -4.7812 2.3915
1.7416 -4.7310 2.3915
1.9127 -4.6745 2.3915
2.0818 -4.6115 2.3915
2.2488 -4.5422 2.3915
2.4132 -4.4668 2.3915
2.5750 -4.3851 2.3915
2.7339 -4.2975 2.3915
2.8895 -4.2038 2.3915
3.0418 -4.1044 2.3915
3.1904 -3.9992 2.3915
3.3352 -3.8884 2.3915
3.4758 -3.7722 2.3915
3.6122 -3.6506 2.3915
3.7440 -3.5240 2.3915
3.8711 -3.3923 2.3915
3.9933 -3.2559 2.3915
4.1103 -3.1149 2.3915
4.2221 -2.9695 2.3915
4.3283 -2.8199 2.3915
4.4290 -2.6663 2.3915
4.5238 -2.5090 2.3915
4.6127 -2.3481 2.3915
4.6955 -2.1839 2.3915
4.7720 -2.0167 2.3915
4.8423 -1.8466 2.3915
4.9060 -1.6740 2.3915
4.9632 -1.4990 2.3915
5.0138 -1.3220 2.3915
5.0577 -1.1432 2.3915
5.0947 -0.9629 2.3915
5.1250 -0.7813 2.3915
5.1484 -0.5988 2.3915
5.1648 -0.4155 2.3915
5.1743 -0.2317 2.3915
5.1769 -0.0479 2.3915
5.1726 0.1359 2.3915
5.1613 0.3193 2.3915
5.1432 0.5021 2.3915
5.1182 0.6839 2.3915
5.0864 0.8646 2.3915
5.0478 1.0438 2.3915
5.0026 1.2213 2.3915
4.9508 1.3969 2.3915
4.8925 1.5702 2.3915
4.8278 1.7411 2.3915
4.7569 1.9093 2.3915
4.6798 2.0746 2.3915
4.5966 2.2367 2.3915
4.5076 2.3954 2.3915
4.4128 2.5505 2.3915
4.3125 2.7018 2.3915
4.2067 2.8490 2.3915
4.0957 2.9921 2.3915
3.9797 3.1308 2.3915
3.8587 3.2649 2.3915
3.7331 3.3943 2.3915
3.6030 3.5188 2.3915
3.4686 3.6382 2.3915
3.3301 3.7525 2.3915
3.1877 3.8614 2.3915
3.0417 3.9649 2.3915
2.8922 4.0628 2.3915
2.7395 4.1551 2.3915
2.5838 4.2416 2.3915
2.4253 4.3222 2.3915
0.8840 1.7166 0.9337
0.8218 1.7467 0.9354
0.7584 1.7744 0.9371
0.6941 1.7999 0.9388
0.6290 1.8230 0.9406
0.5630 1.8437 0.9423
0.4963 1.8621 0.9440
0.4290 1.8781 0.9457
0.3612 1.8916 0.9474
0.2929 1.9026 0.9491
0.2243 1.9112 0.9508
0.1553 1.9173 0.9525
0.0863 1.9210 0.9542
0.0171 1.9221 0.9558
-0.0521 1.9207 0.9575
-0.1212 1.9168 0.9591
-0.1901 1.9105 0.9607
-0.2587 1.9017 0.9622
-0.3270 1.8903 0.9637
-0.3948 1.8766 0.9653
-0.4621 1.8604 0.9667
-0.5287 1.8418 0.9682
-0.5947 1.8208 0.9696
-0.6598 1.7974 0.9709
-0.7240 1.7717 0.9723
-0.7873 1.7437 0.9735
-0.8496 1.7134 0.9748
-2.2314 4.1189 2.3915
2.7461 3.8300 2.3915
2.6023 3.9179 2.3915
2.4557 4.0004 2.3915
0.8992 1.5896 0.9324
0.8414 1.6203 0.9340
0.7826 1.6488 0.9356
0.7229 1.6752 0.9372
0.6621 1.6994 0.9388
0.6006 1.7214 0.9405
0.5383 1.7412 0.9421
0.4753 1.7587 0.9437
0.4117 1.7740 0.9453
0.3476 1.7869 0.9470
0.2831 1.7976 0.9486
0.2182 1.8059 0.9502
0.1531 1.8118 0.9518
0.0878 1.8154 0.9533
0.0224 1.8167 0.9549
-0.0430 1.8156 0.9564
-0.1083 1.8121 0.9580
-0.1734 1.8063 0.9595
-0.2383 1.7981 0.9609
-0.3029 1.7876 0.9624
-0.3671 1.7747 0.9638
-0.4307 1.7596 0.9652
-0.4937 1.7422 0.9666
-0.5561 1.7225 0.9679
-0.6178 1.7006 0.9692
-0.6786 1.6765 0.9704
-0.7385 1.6502 0.9717
-0.7974 1.6217 0.9728
-0.8552 1.5912 0.9740
-2.2366 3.8226 2.3915
-2.3701 3.7337 2.3915
-2.5003 3.6402 2.3915
-2.6270 3.5424 2.3915
-2.7502 3.4404 2.3915
-2.8696 3.3343 2.3915
-2.9852 3.2242 2.3915
-3.0968 3.1103 2.3915
-3.2043 2.9927 2.3915
-3.3076 2.8716 2.3915
-3.4066 2.7471 2.3915
-3.5011 2.6193 2.3915
-3.5912 2.4885 2.3915
-3.6766 2.3547 2.3915
-3.7573 2.2181 2.3915
-3.8333 2.0789 2.3915
-3.9044 1.9372 2.3915
-3.9706 1.7933 2.3915
-4.0317 1.6471 2.3915
-4.0878 1.4990 2.3915
-4.1388 1.3491 2.3915
-4.1845 1.1976 2.3915
-4.2251 1.0445 2.3915
-4.2603 0.8902 2.3915
-4.2903 0.7348 2.3915
-4.3148 0.5784 2.3915
-4.3341 0.4212 2.3915
-4.3479 0.2634 2.3915
-4.3562 0.1052 2.3915
-4.3592 -0.0532 2.3915
-4.3566 -0.2118 2.3915
-4.3487 -0.3702 2.3915
-4.3353 -0.5283 2.3915
-4.3164 -0.6860 2.3915
-4.2921 -0.8430 2.3915
-4.2624 -0.9992 2.3915
-4.2273 -1.1544 2.3915
-4.1868 -1.3084 2.3915
-4.1410 -1.4610 2.3915
-4.0899 -1.6122 2.3915
-4.0336 -1.7615 2.3915
-3.9720 -1.9090 2.3915
-3.9054 -2.0545 2.3915
-3.8336 -2.1977 2.3915
-3.7568 -2.3385 2.3915
-3.6751 -2.4766 2.3915
-3.5886 -2.6121 2.3915
-3.4972 -2.7446 2.3915
-3.4012 -2.8740 2.3915
-3.3006 -3.0001 2.3915
-3.1955 -3.1228 2.3915
-3.0860 -3.2419 2.3915
-2.9722 -3.3573 2.3915
-2.8543 -3.4688 2.3915
-2.7324 -3.5763 2.3915
-2.6066 -3.6795 2.3915
-2.4770 -3.7784 2.3915
-2.3438 -3.8728 2.3915
-2.2072 -3.9626 2.3915
-2.0672 -4.0477 2.3915
-1.9241 -4.1278 2.3915
-1.7780 -4.2030 2.3915
-1.6290 -4.2730 2.3915
-1.4775 -4.3378 2.3915
-1.3234 -4.3973 2.3915
-1.1671 -4.4513 2.3915
-1.0087 -4.4997 2.3915
-0.8483 -4.5425 2.3915
-0.6863 -4.5796 2.3915
-0.5228 -4.6110 2.3915
-0.3580 -4.6364 2.3915
-0.1921 -4.6559 2.3915
-0.0253 -4.6695 2.3915
0.1421 -4.6770 2.3915
0.3100 -4.6784 2.3915
0.4780 -4.6737 2.3915
0.6461 -4.6629 2.3915
0.8138 -4.6460 2.3915
0.9812 -4.6230 2.3915
1.1478 -4.5937 2.3915
1.3135 -4.5584 2.3915
1.4780 -4.5170 2.3915
1.6411 -4.4694 2.3915
1.8025 -4.4159 2.3915
1.9621 -4.3563 2.3915
2.1197 -4.2908 2.3915
2.2748 -4.2195 2.3915
2.4275 -4.1424 2.3915
2.5773 -4.0596 2.3915
2.7241 -3.9711 2.3915
2.8677 -3.8772 2.3915
3.0079 -3.7779 2.3915
3.1444 -3.6734 2.3915
3.2771 -3.5637 2.3915
3.4057 -3.4490 2.3915
3.5300 -3.3296 2.3915
3.6499 -3.2054 2.3915
3.7652 -3.0768 2.3915
3.8756 -2.9438 2.3915
3.9810 -2.8067 2.3915
4.0813 -2.6657 2.3915
4.1763 -2.5209 2.3915
4.2658 -2.3726 2.3915
4.3497 -2.2209 2.3915
4.4279 -2.0662 2.3915
4.5002 -1.9085 2.3915
4.5666 -1.7482 2.3915
4.6269 -1.5855 2.3915
4.6811 -1.4206 2.3915
4.7290 -1.2538 2.3915
4.7706 -1.0853 2.3915
4.8058 -0.9153 2.3915
4.8346 -0.7441 2.3915
4.8569 -0.5720 2.3915
4.8728 -0.3992 2.3915
4.8821 -0.2260 2.3915
4.8849 -0.0526 2.3915
4.8812 0.1207 2.3915
4.8709 0.2937 2.3915
4.8542 0.4661 2.3915
4.8311 0.6376 2.3915
4.8015 0.8081 2.3915
4.7656 0.9772 2.3915
4.7234 1.1448 2.3915
4.6750 1.3105 2.3915
4.6205 1.4742 2.3915
4.5600 1.6355 2.3915
4.4935 1.7944 2.3915
4.4213 1.9506 2.3915
4.3433 2.1037 2.3915
4.2598 2.2538 2.3915
4.1709 2.4004 2.3915
4.0767 2.5435 2.3915
3.9774 2.6828 2.3915
3.8731 2.8182 2.3915
3.7641 2.9495 2.3915
3.6504 3.0766 2.3915
3.5322 3.1991 2.3915
3.4098 3.3171 2.3915
3.2833 3.4304 2.3915
3.1530 3.5388 2.3915
3.0189 3.6422 2.3915
2.8814 3.7404 2.3915
2.7406 3.8335 2.3915
2.5967 3.9212 2.3915
2.4499 4.0035 2.3915
0.8969 1.5909 0.9324
0.8392 1.6214 0.9340
0.7803 1.6498 0.9356
0.7205 1.6762 0.9373
0.6598 1.7003 0.9389
0.5982 1.7222 0.9405
0.5359 1.7419 0.9422
0.4728 1.7594 0.9438
0.4092 1.7745 0.9454
0.3451 1.7874 0.9470
0.2806 1.7979 0.9486
0.2157 1.8061 0.9502
0.1506 1.8120 0.9518
0.0853 1.8155 0.9534
0.0199 1.8167 0.9550
-0.0455 1.8155 0.9565
-0.1108 1.8119 0.9580
-0.1760 1.8060 0.9595
-0.2409 1.7977 0.9610
-0.3054 1.7871 0.9624
-0.3695 1.7742 0.9639
-0.4332 1.7590 0.9653
-0.4962 1.7415 0.9666
-0.5585 1.7217 0.9679
-0.6201 1.6997 0.9692
-0.6809 1.6755 0.9705
-0.7408 1.6491 0.9717
-0.7996 1.6206 0.9729
-0.8574 1.5899 0.9740
-2.2418 3.8192 2.3915
-2.3752 3.7301 2.3915
-2.5053 3.6365 2.3915
-2.6319 3.5385 2.3915
-2.7549 3.4363 2.3915
-2.8742 3.3301 2.3915
-2.9896 3.2199 2.3915
-3.1010 3.1058 2.3915
-3.2084 2.9881 2.3915
-3.3115 2.8668 2.3915
-3.4103 2.7422 2.3915
