ply
format ascii 1.0
element vertex 2179
property float32 x
property float32 y
property float32 z
end_header
5.7299 -2.5543 2.3866
5.8190 -2.3476 2.3866
5.9006 -2.1378 2.3866
5.9746 -1.9253 2.3866
6.0409 -1.7100 2.3866
6.0993 -1.4928 2.3866
6.1499 -1.2731 2.3866
6.1739 -1.0488 2.3795
6.1780 -0.8228 2.3678
6.1815 -0.5986 2.3591
6.1845 -0.3757 2.3534
6.1869 -0.1535 2.3504
6.1888 0.0684 2.3504
6.1902 0.2906 2.3532
6.1910 0.5137 2.3588
6.1914 0.7378 2.3674
6.1911 0.9643 2.3789
6.1728 1.1895 2.3866
6.1263 1.4098 2.3866
6.0718 1.6286 2.3866
6.0094 1.8454 2.3866
5.9393 2.0596 2.3866
5.8614 2.2713 2.3866
5.7760 2.4798 2.3866
5.6831 2.6851 2.3866
5.5827 2.8869 2.3866
5.4752 3.0851 2.3866
5.3606 3.2791 2.3866
5.2390 3.4679 2.3866
5.1107 3.6540 2.3866
4.9758 3.8345 2.3866
4.8344 4.0099 2.3866
4.6868 4.1800 2.3866
4.5332 4.3447 2.3866
4.3737 4.5037 2.3866
4.2087 4.6569 2.3866
4.0382 4.8038 2.3866
3.8626 4.9446 2.3866
3.6820 5.0789 2.3866
3.4967 5.2070 2.3866
3.3070 5.3274 2.3866
3.1130 5.4413 2.3866
2.9152 5.5481 2.3866
2.7136 5.6476 2.3866
2.5086 5.7399 2.3866
0.9073 2.2971 0.9412
0.8244 2.3283 0.9416
0.7403 2.3566 0.9419
0.6554 2.3818 0.9422
0.5695 2.4039 0.9426
0.4830 2.4229 0.9429
0.3957 2.4387 0.9432
0.3080 2.4514 0.9435
0.2198 2.4610 0.9438
0.1314 2.4673 0.9442
0.0428 2.4704 0.9445
-0.0459 2.4704 0.9448
-0.1345 2.4671 0.9451
-0.2230 2.4607 0.9454
-0.3112 2.4510 0.9457
-0.3989 2.4382 0.9460
-0.4862 2.4222 0.9462
-0.5728 2.4031 0.9465
-0.6586 2.3809 0.9468
-0.7436 2.3556 0.9470
-0.8276 2.3272 0.9473
-2.2936 5.7826 2.3866
-2.4989 5.6947 2.3866
-2.7008 5.5994 2.3866
-2.8992 5.4971 2.3866
-3.0937 5.3877 2.3866
-3.2841 5.2714 2.3866
-3.4702 5.1484 2.3866
-3.6517 5.0189 2.3866
-3.8284 4.8830 2.3866
-4.0001 4.7410 2.3866
-4.1665 4.5929 2.3866
-4.3275 4.4389 2.3866
-4.4829 4.2794 2.3866
-4.6324 4.1145 2.3866
-4.7759 3.9443 2.3866
-4.9132 3.7692 2.3866
-5.0441 3.5894 2.3866
-5.1685 3.4050 2.3866
-5.2862 3.2163 2.3866
-5.3970 3.0236 2.3866
-5.5009 2.8271 2.3866
-5.5977 2.6271 2.3866
-5.6873 2.4237 2.3866
-5.7696 2.2174 2.3866
-5.8445 2.0086 2.3866
-5.9117 1.7966 2.3866
-5.9715 1.5825 2.3866
-6.0235 1.3666 2.3866
-6.0679 1.1496 2.3866
-6.1044 0.9303 2.3866
-6.1331 0.7106 2.3866
-6.1540 0.4898 2.3866
-6.1669 0.2679 2.3866
-6.1720 0.0459 2.3866
-6.1692 -0.1753 2.3866
-6.1585 -0.3971 2.3866
-6.1399 -0.6179 2.3866
-6.1134 -0.8383 2.3866
-6.0791 -1.0574 2.3866
-6.0370 -1.2752 2.3866
-5.9872 -1.4915 2.3866
-5.9298 -1.7058 2.3866
-5.8647 -1.9177 2.3866
-5.7922 -2.1275 2.3866
-5.7122 -2.3343 2.3866
-5.6249 -2.5381 2.3866
-5.5304 -2.7391 2.3866
-5.4288 -2.9360 2.3866
-5.3202 -3.1294 2.3866
-5.2048 -3.3189 2.3866
-5.0827 -3.5042 2.3866
-4.9541 -3.6850 2.3866
-4.8191 -3.8612 2.3866
-4.6779 -4.0324 2.3866
-4.5306 -4.1985 2.3866
-4.3776 -4.3593 2.3866
-4.2188 -4.5146 2.3866
-4.0546 -4.6641 2.3866
-3.8851 -4.8078 2.3866
-3.7106 -4.9452 2.3866
-3.5313 -5.0764 2.3866
-3.3474 -5.2012 2.3866
-3.1591 -5.3193 2.3866
-2.9666 -5.4306 2.3866
-2.7703 -5.5351 2.3866
-2.5703 -5.6325 2.3866
-2.3670 -5.7227 2.3866
-2.1605 -5.8056 2.3866
-1.9511 -5.8811 2.3866
-1.7390 -5.9490 2.3866
-1.5247 -6.0094 2.3866
-1.3083 -6.0620 2.3866
-1.0900 -6.1070 2.3866
-0.8703 -6.1440 2.3866
-0.6493 -6.1732 2.3866
-0.4273 -6.1945 2.3866
-0.2046 -6.2078 2.3866
0.0174 -5.8183 2.3866
0.2264 -5.8157 2.3866
0.4352 -5.8056 2.3866
0.6436 -5.7881 2.3866
0.8512 -5.7631 2.3866
1.0579 -5.7306 2.3866
1.2634 -5.6907 2.3866
1.4673 -5.6435 2.3866
1.6695 -5.5890 2.3866
1.8696 -5.5273 2.3866
2.0674 -5.4583 2.3866
2.2627 -5.3823 2.3866
2.4552 -5.2993 2.3866
2.6446 -5.2094 2.3866
2.8307 -5.1127 2.3866
3.0133 -5.0094 2.3866
3.1921 -4.8996 2.3866
3.3669 -4.7833 2.3866
3.5374 -4.6608 2.3866
3.7034 -4.5323 2.3866
3.8647 -4.3977 2.3866
4.0212 -4.2575 2.3866
4.1725 -4.1116 2.3866
4.3185 -3.9604 2.3866
4.4589 -3.8039 2.3866
4.5937 -3.6425 2.3866
4.7226 -3.4763 2.3866
4.8454 -3.3054 2.3866
4.9620 -3.1302 2.3866
5.0723 -2.9510 2.3866
5.1760 -2.7683 2.3866
5.2731 -2.5810 2.3866
5.3633 -2.3908 2.3866
5.4467 -2.1972 2.3866
5.5230 -2.0009 2.3866
5.5922 -1.8019 2.3866
5.6542 -1.6004 2.3866
5.7088 -1.3970 2.3866
5.7561 -1.1915 2.3866
5.7959 -0.9845 2.3866
5.8282 -0.7762 2.3866
5.8530 -0.5667 2.3866
5.8702 -0.3566 2.3866
5.8797 -0.1459 2.3866
5.8817 0.0651 2.3866
5.8760 0.2758 2.3866
5.8627 0.4863 2.3866
5.8418 0.6962 2.3866
5.8133 0.9052 2.3866
5.7773 1.1131 2.3866
5.7337 1.3195 2.3866
5.6828 1.5243 2.3866
5.6244 1.7270 2.3866
5.5588 1.9275 2.3866
5.4859 2.1256 2.3866
5.4060 2.3207 2.3866
5.3190 2.5129 2.3866
5.2252 2.7017 2.3866
5.1246 2.8872 2.3866
5.0173 3.0688 2.3866
4.9036 3.2464 2.3866
4.7835 3.4198 2.3866
4.6573 3.5886 2.3866
4.5250 3.7528 2.3866
4.3869 3.9121 2.3866
4.2432 4.0663 2.3866
4.0940 4.2152 2.3866
3.9396 4.3585 2.3866
3.7800 4.4964 2.3866
3.6158 4.6275 2.3866
3.4467 4.7537 2.3866
3.2734 4.8732 2.3866
3.0958 4.9864 2.3866
2.9144 5.0930 2.3866
2.7292 5.1932 2.3866
2.5406 5.2864 2.3866
0.9260 2.1182 0.9409
0.8495 2.1502 0.9412
0.7719 2.1794 0.9415
0.6932 2.2058 0.9418
0.6137 2.2294 0.9422
0.5333 2.2501 0.9425
0.4523 2.2679 0.9428
0.3706 2.2827 0.9431
0.2885 2.2946 0.9434
0.2060 2.3035 0.9437
0.1232 2.3094 0.9440
0.0403 2.3124 0.9443
-0.0427 2.3123 0.9445
-0.1257 2.3093 0.9448
-0.2085 2.3032 0.9451
-0.2910 2.2942 0.9454
-0.3731 2.2822 0.9456
-0.4548 2.2672 0.9459
-0.5359 2.2493 0.9462
-0.6162 2.2285 0.9464
-0.6958 2.2048 0.9467
-0.7744 2.1783 0.9469
-0.8521 2.1489 0.9471
-2.3394 5.3327 2.3866
-2.5285 5.2437 2.3866
-2.7144 5.1479 2.3866
-2.8966 5.0455 2.3866
-3.0749 4.9367 2.3866
-3.2492 4.8217 2.3866
-3.4193 4.7005 2.3866
-3.5848 4.5733 2.3866
-3.7457 4.4403 2.3866
-3.9016 4.3017 2.3866
-4.0525 4.1576 2.3866
-4.1981 4.0083 2.3866
-4.3382 3.8539 2.3866
-4.4726 3.6946 2.3866
-4.6013 3.5306 2.3866
-4.7240 3.3622 2.3866
-4.8406 3.1895 2.3866
-4.9509 3.0129 2.3866
-5.0548 2.8324 2.3866
-5.1522 2.6484 2.3866
-5.2429 2.4610 2.3866
-5.3269 2.2706 2.3866
-5.4040 2.0773 2.3866
-5.4742 1.8815 2.3866
-5.5373 1.6832 2.3866
-5.5933 1.4829 2.3866
-5.6421 1.2808 2.3866
-5.6837 1.0770 2.3866
-5.7180 0.8716 2.3866
-5.7449 0.6656 2.3866
-5.7645 0.4588 2.3866
-5.7767 0.2511 2.3866
-5.7815 0.0436 2.3866
-5.7789 -0.1641 2.3866
-5.7689 -0.3718 2.3866
-5.7514 -0.5790 2.3866
-5.7267 -0.7853 2.3866
-5.6945 -0.9907 2.3866
-5.6552 -1.1945 2.3866
-5.6085 -1.3971 2.3866
-5.5547 -1.5982 2.3866
-5.4938 -1.7963 2.3866
-5.4258 -1.9926 2.3866
-5.3508 -2.1864 2.3866
-5.2690 -2.3774 2.3866
-5.1805 -2.5654 2.3866
-5.0853 -2.7502 2.3866
-4.9836 -2.9314 2.3866
-4.8754 -3.1089 2.3866
-4.7610 -3.2824 2.3866
-4.6405 -3.4518 2.3866
-4.5140 -3.6168 2.3866
-4.3817 -3.7772 2.3866
-4.2438 -3.9328 2.3866
-4.1003 -4.0834 2.3866
-3.9516 -4.2288 2.3866
-3.7977 -4.3689 2.3866
-3.6390 -4.5033 2.3866
-3.4755 -4.6320 2.3866
-3.3074 -4.7549 2.3866
-3.1351 -4.8717 2.3866
-2.9587 -4.9823 2.3866
-2.7784 -5.0865 2.3866
-2.5945 -5.1843 2.3866
-2.4071 -5.2754 2.3866
-2.2166 -5.3598 2.3866
-2.0232 -5.4374 2.3866
-1.8270 -5.5080 2.3866
-1.6284 -5.5716 2.3866
-1.4277 -5.6280 2.3866
-1.2249 -5.6773 2.3866
-1.0205 -5.7193 2.3866
-0.8147 -5.7539 2.3866
-0.6077 -5.7811 2.3866
-0.3998 -5.8010 2.3866
-0.1913 -5.8134 2.3866
0.0176 -5.8183 2.3866
0.2265 -5.8157 2.3866
0.4353 -5.8056 2.3866
0.6437 -5.7881 2.3866
0.8514 -5.7630 2.3866
1.0580 -5.7306 2.3866
1.2635 -5.6907 2.3866
1.4674 -5.6435 2.3866
1.6696 -5.5890 2.3866
1.8697 -5.5272 2.3866
2.0676 -5.4583 2.3866
2.2628 -5.3822 2.3866
2.4553 -5.2993 2.3866
2.6447 -5.2094 2.3866
2.8309 -5.1127 2.3866
3.0134 -5.0094 2.3866
3.1922 -4.8995 2.3866
3.3670 -4.7833 2.3866
3.5375 -4.6607 2.3866
3.7035 -4.5322 2.3866
3.8648 -4.3977 2.3866
4.0213 -4.2574 2.3866
4.1726 -4.1115 2.3866
4.3186 -3.9603 2.3866
4.4590 -3.8038 2.3866
4.5938 -3.6424 2.3866
4.7227 -3.4761 2.3866
4.8455 -3.3054 2.3866
4.9621 -3.1302 2.3866
5.0724 -2.9509 2.3866
5.1761 -2.7676 2.3866
5.2731 -2.5788 2.3866
5.3634 -2.3906 2.3866
5.4467 -2.1972 2.3866
5.5231 -2.0007 2.3866
5.5922 -1.8017 2.3866
5.6542 -1.6003 2.3866
5.7089 -1.3969 2.3866
5.7561 -1.1914 2.3866
5.7959 -0.9844 2.3866
5.8282 -0.7761 2.3866
5.8530 -0.5667 2.3866
5.8702 -0.3564 2.3866
5.8797 -0.1457 2.3866
5.8817 0.0651 2.3866
5.8760 0.2760 2.3866
5.8627 0.4865 2.3866
5.8418 0.6964 2.3866
5.8133 0.9054 2.3866
5.7772 1.1133 2.3866
5.7337 1.3197 2.3866
5.6827 1.5245 2.3866
5.6244 1.7272 2.3866
5.5587 1.9277 2.3866
5.4859 2.1256 2.3866
5.4059 2.3209 2.3866
5.3190 2.5130 2.3866
5.2251 2.7017 2.3866
5.1245 2.8873 2.3866
5.0172 3.0689 2.3866
4.9035 3.2465 2.3866
4.7834 3.4199 2.3866
4.6572 3.5887 2.3866
4.5249 3.7529 2.3866
4.3868 3.9122 2.3866
4.2431 4.0664 2.3866
4.0939 4.2153 2.3866
3.9395 4.3586 2.3866
3.7799 4.4965 2.3866
3.6156 4.6277 2.3866
3.4466 4.7537 2.3866
3.2733 4.8733 2.3866
3.0957 4.9864 2.3866
2.9142 5.0931 2.3866
2.7291 5.1932 2.3866
2.5404 5.2864 2.3866
0.9259 2.1182 0.9409
0.8494 2.1502 0.9412
0.7718 2.1794 0.9415
0.6932 2.2059 0.9419
0.6136 2.2294 0.9422
0.5333 2.2501 0.9425
0.4522 2.2679 0.9428
0.3706 2.2827 0.9431
0.2885 2.2946 0.9434
0.2059 2.3035 0.9437
0.1232 2.3094 0.9440
0.0402 2.3124 0.9443
-0.0428 2.3123 0.9445
-0.1257 2.3093 0.9448
-0.2085 2.3032 0.9451
-0.2911 2.2942 0.9454
-0.3732 2.2822 0.9456
-0.4549 2.2672 0.9459
-0.5359 2.2493 0.9462
-0.6163 2.2285 0.9464
-0.6958 2.2048 0.9467
-0.7745 2.1783 0.9469
-0.8521 2.1489 0.9471
-2.3395 5.3326 2.3866
-2.5287 5.2436 2.3866
-2.7145 5.1478 2.3866
-2.8967 5.0455 2.3866
-3.0750 4.9367 2.3866
-3.2493 4.8216 2.3866
-3.4194 4.7004 2.3866
-3.5849 4.5732 2.3866
-3.7458 4.4402 2.3866
-3.9017 4.3016 2.3866
-4.0526 4.1575 2.3866
-4.1981 4.0082 2.3866
-4.3383 3.8537 2.3866
-4.4727 3.6944 2.3866
-4.6014 3.5305 2.3866
-4.7241 3.3621 2.3866
-4.8406 3.1894 2.3866
-4.9509 3.0127 2.3866
-5.0549 2.8323 2.3866
-5.1522 2.6482 2.3866
-5.2430 2.4609 2.3866
-5.3269 2.2705 2.3866
-5.4041 2.0772 2.3866
-5.4742 1.8813 2.3866
-5.5373 1.6831 2.3866
-5.5933 1.4828 2.3866
-5.6422 1.2806 2.3866
-5.6837 1.0769 2.3866
-5.7180 0.8713 2.3866
-5.7450 0.6660 2.3866
-5.7645 0.4586 2.3866
-5.7767 0.2510 2.3866
-5.7815 0.0434 2.3866
-5.7789 -0.1643 2.3866
-5.7688 -0.3720 2.3866
-5.7514 -0.5793 2.3866
-5.7267 -0.7853 2.3866
-5.6945 -0.9909 2.3866
-5.6551 -1.1948 2.3866
-5.6085 -1.3971 2.3866
-5.5547 -1.5977 2.3866
-5.4937 -1.7967 2.3866
-5.4257 -1.9927 2.3866
-5.3508 -2.1866 2.3866
-5.2690 -2.3776 2.3866
-5.1804 -2.5656 2.3866
-5.0852 -2.7503 2.3866
-4.9835 -2.9315 2.3866
-4.8754 -3.1090 2.3866
-4.7610 -3.2825 2.3866
-4.6404 -3.4519 2.3866
-4.5139 -3.6170 2.3866
-4.3816 -3.7773 2.3866
-4.2437 -3.9329 2.3866
-4.1002 -4.0835 2.3866
-3.9515 -4.2289 2.3866
-3.7976 -4.3690 2.3866
-3.6388 -4.5034 2.3866
-3.4753 -4.6321 2.3866
-3.3073 -4.7550 2.3866
-3.1350 -4.8718 2.3866
-2.9586 -4.9823 2.3866
-2.7783 -5.0866 2.3866
-2.5944 -5.1843 2.3866
-2.4070 -5.2755 2.3866
-2.2165 -5.3599 2.3866
-2.0231 -5.4374 2.3866
-1.8269 -5.5081 2.3866
-1.6283 -5.5716 2.3866
-1.4275 -5.6281 2.3866
-1.2248 -5.6773 2.3866
-1.0204 -5.7193 2.3866
-0.8146 -5.7539 2.3866
-0.6076 -5.7812 2.3866
-0.3997 -5.8010 2.3866
-0.1912 -5.8134 2.3866
0.0168 -5.4645 2.3866
0.2131 -5.4619 2.3866
0.4092 -5.4524 2.3866
0.6049 -5.4358 2.3866
0.7999 -5.4122 2.3866
0.9940 -5.3817 2.3866
1.1869 -5.3442 2.3866
1.3784 -5.2997 2.3866
1.5682 -5.2484 2.3866
1.7561 -5.1904 2.3866
1.9419 -5.1255 2.3866
2.1252 -5.0541 2.3866
2.3059 -4.9761 2.3866
2.4838 -4.8916 2.3866
2.6585 -4.8007 2.3866
2.8299 -4.7036 2.3866
2.9977 -4.6004 2.3866
3.1618 -4.4912 2.3866
3.3218 -4.3761 2.3866
3.4776 -4.2553 2.3866
3.6291 -4.1289 2.3866
3.7759 -3.9972 2.3866
3.9179 -3.8601 2.3866
4.0549 -3.7183 2.3866
4.1867 -3.5711 2.3866
4.3132 -3.4194 2.3866
4.4341 -3.2635 2.3866
4.5494 -3.1031 2.3866
4.6588 -2.9386 2.3866
4.7622 -2.7702 2.3866
4.8596 -2.5982 2.3866
4.9506 -2.4228 2.3866
5.0353 -2.2441 2.3866
5.1135 -2.0625 2.3866
5.1851 -1.8786 2.3866
5.2500 -1.6912 2.3866
5.3081 -1.5021 2.3866
5.3594 -1.3112 2.3866
5.4037 -1.1184 2.3866
5.4411 -0.9240 2.3866
5.4714 -0.7284 2.3866
5.4946 -0.5319 2.3866
5.5107 -0.3346 2.3866
5.5196 -0.1369 2.3866
5.5214 0.0610 2.3866
5.5161 0.2590 2.3866
5.5036 0.4566 2.3866
5.4839 0.6536 2.3866
5.4572 0.8498 2.3866
5.4233 1.0449 2.3866
5.3825 1.2387 2.3866
5.3346 1.4307 2.3866
5.2799 1.6213 2.3866
5.2183 1.8092 2.3866
5.1499 1.9953 2.3866
5.0748 2.1785 2.3866
4.9932 2.3589 2.3866
4.9052 2.5362 2.3866
4.8107 2.7103 2.3866
4.7101 2.8808 2.3866
4.6034 3.0475 2.3866
4.4907 3.2102 2.3866
4.3722 3.3688 2.3866
4.2481 3.5230 2.3866
4.1185 3.6724 2.3866
3.9836 3.8172 2.3866
3.8436 3.9570 2.3866
3.6986 4.0915 2.3866
3.5489 4.2208 2.3866
3.3947 4.3446 2.3866
3.2361 4.4626 2.3866
3.0734 4.5749 2.3866
2.9068 4.6811 2.3866
2.7364 4.7814 2.3866
2.5626 4.8754 2.3866
2.3856 4.9630 2.3866
0.8695 1.9887 0.9409
0.7977 2.0187 0.9412
0.7248 2.0462 0.9415
0.6510 2.0710 0.9418
0.5763 2.0931 0.9421
0.5009 2.1125 0.9424
0.4248 2.1291 0.9427
0.3481 2.1431 0.9430
0.2710 2.1542 0.9432
0.1936 2.1626 0.9435
0.1158 2.1681 0.9438
0.0380 2.1709 0.9441
-0.0400 2.1708 0.9443
-0.1178 2.1680 0.9446
-0.1955 2.1623 0.9449
-0.2730 2.1538 0.9451
-0.3501 2.1425 0.9454
-0.4268 2.1285 0.9456
-0.5029 2.1117 0.9459
-0.5783 2.0922 0.9461
-0.6530 2.0699 0.9463
-0.7269 2.0450 0.9465
-0.7997 2.0174 0.9468
-0.8716 1.9872 0.9470
-2.3743 4.9248 2.3866
-2.5489 4.8350 2.3866
-2.7200 4.7390 2.3866
-2.8876 4.6368 2.3866
-3.0514 4.5288 2.3866
-3.2111 4.4151 2.3866
-3.3667 4.2957 2.3866
-3.5178 4.1708 2.3866
-3.6644 4.0407 2.3866
-3.8061 3.9054 2.3866
-3.9429 3.7652 2.3866
-4.0746 3.6202 2.3866
-4.2009 3.4706 2.3866
-4.3219 3.3166 2.3866
-4.4372 3.1585 2.3866
-4.5467 2.9963 2.3866
-4.6504 2.8304 2.3866
-4.7481 2.6609 2.3866
-4.8396 2.4881 2.3866
-4.9249 2.3121 2.3866
-5.0039 2.1332 2.3866
-5.0764 1.9517 2.3866
-5.1423 1.7677 2.3866
-5.2017 1.5815 2.3866
-5.2543 1.3933 2.3866
-5.3002 1.2034 2.3866
-5.3393 1.0120 2.3866
-5.3716 0.8193 2.3866
-5.3969 0.6256 2.3866
-5.4154 0.4312 2.3866
-5.4268 0.2363 2.3866
-5.4314 0.0411 2.3866
-5.4289 -0.1542 2.3866
-5.4195 -0.3492 2.3866
-5.4032 -0.5438 2.3866
-5.3799 -0.7376 2.3866
-5.3498 -0.9305 2.3866
-5.3128 -1.1221 2.3866
-5.2689 -1.3124 2.3866
-5.2184 -1.5009 2.3866
-5.1611 -1.6875 2.3866
-5.0972 -1.8720 2.3866
-5.0268 -2.0541 2.3866
-4.9500 -2.2336 2.3866
-4.8668 -2.4102 2.3866
-4.7773 -2.5837 2.3866
-4.6817 -2.7540 2.3866
-4.5801 -2.9207 2.3866
-4.4726 -3.0838 2.3866
-4.3593 -3.2429 2.3866
-4.2405 -3.3979 2.3866
-4.1161 -3.5485 2.3866
-3.9865 -3.6947 2.3866
-3.8517 -3.8362 2.3866
-3.7119 -3.9727 2.3866
-3.5674 -4.1042 2.3866
-3.4182 -4.2305 2.3866
-3.2645 -4.3514 2.3866
-3.1067 -4.4668 2.3866
-2.9447 -4.5764 2.3866
-2.7790 -4.6803 2.3866
-2.6096 -4.7781 2.3866
-2.4368 -4.8699 2.3866
-2.2608 -4.9555 2.3866
-2.0818 -5.0347 2.3866
-1.9000 -5.1075 2.3866
-1.7158 -5.1737 2.3866
-1.5292 -5.2334 2.3866
-1.3406 -5.2864 2.3866
-1.1501 -5.3325 2.3866
-0.9581 -5.3719 2.3866
-0.7648 -5.4043 2.3866
-0.5704 -5.4298 2.3866
-0.3751 -5.4484 2.3866
-0.1793 -5.4599 2.3866
0.0169 -5.4645 2.3866
0.2132 -5.4619 2.3866
0.4093 -5.4524 2.3866
0.6050 -5.4358 2.3866
0.8000 -5.4122 2.3866
0.9941 -5.3817 2.3866
1.1870 -5.3441 2.3866
1.3785 -5.2997 2.3866
1.5683 -5.2484 2.3866
1.7562 -5.1903 2.3866
1.9420 -5.1255 2.3866
2.1253 -5.0540 2.3866
2.3060 -4.9760 2.3866
2.4839 -4.8915 2.3866
2.6586 -4.8007 2.3866
2.8300 -4.7036 2.3866
2.9978 -4.6003 2.3866
3.1619 -4.4911 2.3866
3.3219 -4.3760 2.3866
3.4777 -4.2552 2.3866
3.6292 -4.1289 2.3866
3.7760 -3.9971 2.3866
3.9180 -3.8600 2.3866
4.0550 -3.7180 2.3866
4.1868 -3.5709 2.3866
4.3132 -3.4191 2.3866
4.4342 -3.2633 2.3866
4.5495 -3.1030 2.3866
4.6589 -2.9385 2.3866
4.7623 -2.7701 2.3866
4.8596 -2.5981 2.3866
4.9507 -2.4227 2.3866
5.0354 -2.2441 2.3866
5.1136 -2.0624 2.3866
5.1851 -1.8783 2.3866
5.2500 -1.6909 2.3866
5.3082 -1.5018 2.3866
5.3594 -1.3111 2.3866
5.4037 -1.1182 2.3866
5.4411 -0.9239 2.3866
5.4714 -0.7283 2.3866
5.4946 -0.5318 2.3866
5.5107 -0.3344 2.3866
5.5196 -0.1367 2.3866
5.5214 0.0613 2.3866
5.5161 0.2591 2.3866
5.5035 0.4568 2.3866
5.4839 0.6537 2.3866
5.4571 0.8499 2.3866
5.4233 1.0451 2.3866
5.3824 1.2389 2.3866
5.3346 1.4310 2.3866
5.2798 1.6216 2.3866
5.2182 1.8099 2.3866
5.1498 1.9954 2.3866
5.0748 2.1786 2.3866
4.9932 2.3590 2.3866
4.9051 2.5363 2.3866
4.8107 2.7104 2.3866
4.7100 2.8808 2.3866
4.6033 3.0476 2.3866
4.4906 3.2103 2.3866
4.3721 3.3689 2.3866
4.2480 3.5230 2.3866
4.1184 3.6725 2.3866
3.9835 3.8173 2.3866
3.8435 3.9570 2.3866
3.6985 4.0916 2.3866
3.5488 4.2209 2.3866
3.3946 4.3447 2.3866
3.2360 4.4627 2.3866
3.0733 4.5750 2.3866
2.9066 4.6813 2.3866
2.7363 4.7815 2.3866
2.5625 4.8755 2.3866
2.3854 4.9631 2.3866
0.8695 1.9887 0.9409
0.7976 2.0188 0.9412
0.7248 2.0462 0.9415
0.6509 2.0710 0.9418
0.5763 2.0931 0.9421
0.5008 2.1125 0.9424
0.4247 2.1292 0.9427
0.3481 2.1431 0.9430
0.2710 2.1542 0.9432
0.1935 2.1626 0.9435
0.1158 2.1681 0.9438
0.0379 2.1709 0.9441
-0.0400 2.1708 0.9443
-0.1179 2.1680 0.9446
-0.1956 2.1623 0.9449
-0.2731 2.1538 0.9451
-0.3502 2.1425 0.9454
-0.4268 2.1285 0.9456
-0.5029 2.1117 0.9459
-0.5784 2.0922 0.9461
-0.6531 2.0699 0.9463
-0.7269 2.0450 0.9465
-0.7998 2.0174 0.9468
-0.8716 1.9872 0.9470
-2.3745 4.9248 2.3866
-2.5490 4.8349 2.3866
-2.7201 4.7389 2.3866
-2.8877 4.6368 2.3866
-3.0515 4.5288 2.3866
-3.2112 4.4150 2.3866
-3.3668 4.2956 2.3866
-3.5179 4.1707 2.3866
-3.6645 4.0406 2.3866
-3.8062 3.9053 2.3866
-3.9430 3.7651 2.3866
-4.0747 3.6201 2.3866
-4.2010 3.4705 2.3866
-4.3219 3.3165 2.3866
-4.4372 3.1584 2.3866
-4.5468 2.9962 2.3866
-4.6505 2.8303 2.3866
-4.7481 2.6608 2.3866
-4.8397 2.4879 2.3866
-4.9250 2.3120 2.3866
-5.0039 2.1331 2.3866
-5.0764 1.9515 2.3866
-5.1424 1.7675 2.3866
-5.2017 1.5813 2.3866
-5.2544 1.3932 2.3866
-5.3003 1.2032 2.3866
-5.3394 1.0118 2.3866
-5.3716 0.8192 2.3866
-5.3970 0.6255 2.3866
-5.4154 0.4311 2.3866
-5.4269 0.2361 2.3866
-5.4314 0.0409 2.3866
-5.4289 -0.1543 2.3866
-5.4195 -0.3493 2.3866
-5.4032 -0.5439 2.3866
-5.3799 -0.7377 2.3866
-5.3498 -0.9306 2.3866
-5.3127 -1.1223 2.3866
-5.2689 -1.3125 2.3866
-5.2183 -1.5010 2.3866
-5.1611 -1.6877 2.3866
-5.0972 -1.8721 2.3866
-5.0268 -2.0542 2.3866
-4.9499 -2.2337 2.3866
-4.8667 -2.4103 2.3866
-4.7772 -2.5838 2.3866
-4.6816 -2.7541 2.3866
-4.5800 -2.9208 2.3866
-4.4725 -3.0839 2.3866
-4.3593 -3.2430 2.3866
-4.2404 -3.3980 2.3866
-4.1161 -3.5486 2.3866
-3.9864 -3.6948 2.3866
-3.8516 -3.8362 2.3866
-3.7118 -3.9728 2.3866
-3.5673 -4.1043 2.3866
-3.4181 -4.2306 2.3866
-3.2644 -4.3515 2.3866
-3.1066 -4.4668 2.3866
-2.9446 -4.5765 2.3866
-2.7789 -4.6803 2.3866
-2.6095 -4.7782 2.3866
-2.4367 -4.8700 2.3866
-2.2607 -4.9555 2.3866
-2.0817 -5.0347 2.3866
-1.8999 -5.1075 2.3866
-1.7156 -5.1738 2.3866
-1.5291 -5.2334 2.3866
-1.3404 -5.2864 2.3866
-1.1500 -5.3326 2.3866
-0.9580 -5.3719 2.3866
-0.7647 -5.4043 2.3866
-0.5702 -5.4299 2.3866
-0.3750 -5.4484 2.3866
-0.1791 -5.4599 2.3866
0.0162 -5.1453 2.3866
0.2010 -5.1429 2.3866
0.3857 -5.1339 2.3866
0.5699 -5.1182 2.3866
0.7535 -5.0959 2.3866
0.9363 -5.0670 2.3866
1.1179 -5.0317 2.3866
1.2982 -4.9897 2.3866
1.4769 -4.9413 2.3866
1.6538 -4.8866 2.3866
1.8286 -4.8255 2.3866
2.0012 -4.7581 2.3866
2.1713 -4.6846 2.3866
2.3387 -4.6050 2.3866
2.5032 -4.5194 2.3866
2.6645 -4.4279 2.3866
2.8225 -4.3307 2.3866
2.9768 -4.2278 2.3866
3.1275 -4.1194 2.3866
3.2741 -4.0057 2.3866
3.4166 -3.8866 2.3866
3.5548 -3.7626 2.3866
3.6884 -3.6336 2.3866
3.8173 -3.4998 2.3866
3.9413 -3.3613 2.3866
4.0604 -3.2187 2.3866
4.1741 -3.0713 2.3866
4.2826 -2.9206 2.3866
4.3855 -2.7659 2.3866
4.4829 -2.6074 2.3866
4.5744 -2.4454 2.3866
4.6601 -2.2803 2.3866
4.7397 -2.1121 2.3866
4.8133 -1.9412 2.3866
4.8806 -1.7676 2.3866
4.9417 -1.5918 2.3866
4.9963 -1.4138 2.3866
5.0445 -1.2340 2.3866
5.0862 -1.0525 2.3866
5.1213 -0.8696 2.3866
5.1498 -0.6855 2.3866
5.1716 -0.5005 2.3866
5.1868 -0.3148 2.3866
5.1952 -0.1289 2.3866
5.1968 0.0580 2.3866
5.1918 0.2439 2.3866
5.1800 0.4299 2.3866
5.1615 0.6153 2.3866
5.1363 0.8000 2.3866
5.1045 0.9836 2.3866
5.0660 1.1659 2.3866
5.0210 1.3468 2.3866
4.9694 1.5259 2.3866
4.9115 1.7030 2.3866
4.8471 1.8779 2.3866
4.7765 2.0504 2.3866
4.6997 2.2202 2.3866
4.6168 2.3871 2.3866
4.5280 2.5508 2.3866
4.4333 2.7113 2.3866
4.3329 2.8682 2.3866
4.2268 3.0214 2.3866
4.1154 3.1706 2.3866
3.9986 3.3157 2.3866
3.8766 3.4565 2.3866
3.7497 3.5932 2.3866
3.6179 3.7246 2.3866
3.4815 3.8511 2.3866
3.3407 3.9727 2.3866
3.1955 4.0892 2.3866
3.0463 4.2004 2.3866
2.8932 4.3061 2.3866
2.7364 4.4062 2.3866
2.5761 4.5006 2.3866
2.4125 4.5891 2.3866
0.8852 1.8413 0.9407
0.8186 1.8720 0.9410
0.7510 1.9002 0.9412
0.6824 1.9261 0.9415
0.6129 1.9494 0.9418
0.5426 1.9702 0.9420
0.4716 1.9884 0.9423
0.4000 2.0041 0.9426
0.3278 2.0172 0.9429
0.2553 2.0277 0.9431
0.1824 2.0356 0.9434
0.1092 2.0408 0.9436
0.0359 2.0434 0.9439
-0.0374 2.0433 0.9442
-0.1107 2.0406 0.9444
-0.1839 2.0353 0.9447
-0.2568 2.0273 0.9449
-0.3294 2.0167 0.9451
-0.4015 2.0035 0.9454
-0.4732 1.9877 0.9456
-0.5442 1.9693 0.9458
-0.6145 1.9483 0.9460
-0.6840 1.9249 0.9462
-0.7526 1.8989 0.9464
-0.8202 1.8705 0.9466
-0.8868 1.8397 0.9468
-2.3996 4.5528 2.3866
-2.5608 4.4624 2.3866
-2.7187 4.3663 2.3866
-2.8729 4.2647 2.3866
-3.0234 4.1576 2.3866
-3.1699 4.0453 2.3866
-3.3123 3.9278 2.3866
-3.4503 3.8052 2.3866
-3.5839 3.6779 2.3866
-3.7127 3.5459 2.3866
-3.8368 3.4094 2.3866
-3.9558 3.2686 2.3866
-4.0697 3.1236 2.3866
-4.1784 2.9747 2.3866
-4.2816 2.8220 2.3866
-4.3793 2.6658 2.3866
-4.4714 2.5062 2.3866
-4.5576 2.3434 2.3866
-4.6380 2.1777 2.3866
-4.7124 2.0092 2.3866
-4.7807 1.8383 2.3866
-4.8429 1.6650 2.3866
-4.8988 1.4896 2.3866
-4.9485 1.3124 2.3866
-4.9917 1.1335 2.3866
-5.0286 0.9533 2.3866
-5.0590 0.7718 2.3866
-5.0829 0.5894 2.3866
-5.1003 0.4063 2.3866
-5.1111 0.2226 2.3866
-5.1154 0.0388 2.3866
-5.1131 -0.1451 2.3866
-5.1043 -0.3288 2.3866
-5.0889 -0.5121 2.3866
-5.0670 -0.6946 2.3866
-5.0386 -0.8763 2.3866
-5.0038 -1.0569 2.3866
-4.9625 -1.2360 2.3866
-4.9148 -1.4136 2.3866
-4.8609 -1.5894 2.3866
-4.8007 -1.7632 2.3866
-4.7344 -1.9347 2.3866
-4.6620 -2.1037 2.3866
-4.5836 -2.2701 2.3866
-4.4993 -2.4335 2.3866
-4.4093 -2.5939 2.3866
-4.3135 -2.7509 2.3866
-4.2123 -2.9044 2.3866
-4.1056 -3.0543 2.3866
-3.9936 -3.2003 2.3866
-3.8765 -3.3422 2.3866
-3.7543 -3.4799 2.3866
-3.6274 -3.6130 2.3866
-3.4957 -3.7416 2.3866
-3.3595 -3.8654 2.3866
-3.2189 -3.9843 2.3866
-3.0742 -4.0982 2.3866
-2.9255 -4.2068 2.3866
-2.7730 -4.3100 2.3866
-2.6168 -4.4078 2.3866
-2.4573 -4.4999 2.3866
-2.2945 -4.5863 2.3866
-2.1287 -4.6668 2.3866
-1.9601 -4.7413 2.3866
-1.7889 -4.8099 2.3866
-1.6154 -4.8722 2.3866
-1.4397 -4.9283 2.3866
-1.2620 -4.9781 2.3866
-1.0827 -5.0215 2.3866
-0.9018 -5.0585 2.3866
-0.7198 -5.0890 2.3866
-0.5367 -5.1130 2.3866
-0.3528 -5.1304 2.3866
-0.1684 -5.1412 2.3866
0.0164 -5.1453 2.3866
0.2012 -5.1429 2.3866
0.3858 -5.1338 2.3866
0.5701 -5.1182 2.3866
0.7537 -5.0959 2.3866
0.9364 -5.0670 2.3866
1.1180 -5.0317 2.3866
1.2983 -4.9897 2.3866
1.4770 -4.9413 2.3866
1.6539 -4.8866 2.3866
1.8288 -4.8255 2.3866
2.0013 -4.7581 2.3866
2.1715 -4.6846 2.3866
2.3388 -4.6050 2.3866
2.5033 -4.5194 2.3866
2.6646 -4.4279 2.3866
2.8226 -4.3306 2.3866
2.9769 -4.2278 2.3866
3.1276 -4.1194 2.3866
3.2742 -4.0056 2.3866
3.4167 -3.8866 2.3866
3.5549 -3.7625 2.3866
3.6885 -3.6334 2.3866
3.8174 -3.4997 2.3866
3.9414 -3.3614 2.3866
4.0604 -3.2187 2.3866
4.1742 -3.0713 2.3866
4.2827 -2.9209 2.3866
4.3856 -2.7658 2.3866
4.4829 -2.6073 2.3866
4.5745 -2.4453 2.3866
4.6601 -2.2801 2.3866
4.7398 -2.1120 2.3866
4.8133 -1.9410 2.3866
4.8807 -1.7675 2.3866
4.9417 -1.5917 2.3866
4.9964 -1.4137 2.3866
5.0446 -1.2338 2.3866
5.0863 -1.0523 2.3866
5.1214 -0.8694 2.3866
5.1498 -0.6854 2.3866
5.1717 -0.5004 2.3866
5.1868 -0.3147 2.3866
5.1952 -0.1286 2.3866
5.1968 0.0577 2.3866
5.1918 0.2440 2.3866
5.1800 0.4300 2.3866
5.1615 0.6154 2.3866
5.1363 0.8001 2.3866
5.1044 0.9837 2.3866
5.0660 1.1660 2.3866
5.0209 1.3469 2.3866
4.9694 1.5260 2.3866
4.9114 1.7031 2.3866
4.8471 1.8780 2.3866
4.7765 2.0505 2.3866
4.6997 2.2203 2.3866
4.6168 2.3872 2.3866
4.5279 2.5510 2.3866
4.4332 2.7114 2.3866
4.3328 2.8683 2.3866
4.2268 3.0215 2.3866
4.1153 3.1708 2.3866
3.9985 3.3158 2.3866
3.8765 3.4566 2.3866
3.7496 3.5932 2.3866
3.6178 3.7248 2.3866
3.4815 3.8509 2.3866
3.3406 3.9728 2.3866
3.1954 4.0894 2.3866
3.0462 4.2005 2.3866
2.8931 4.3062 2.3866
2.7363 4.4063 2.3866
2.5760 4.5007 2.3866
2.4124 4.5892 2.3866
0.8852 1.8413 0.9407
0.8186 1.8720 0.9410
0.7510 1.9003 0.9412
0.6824 1.9261 0.9415
0.6129 1.9494 0.9418
0.5426 1.9702 0.9420
0.4716 1.9885 0.9423
0.4000 2.0041 0.9426
0.3278 2.0172 0.9429
0.2552 2.0277 0.9431
0.1823 2.0356 0.9434
0.1092 2.0408 0.9436
0.0359 2.0434 0.9439
-0.0375 2.0433 0.9442
-0.1108 2.0406 0.9444
-0.1839 2.0353 0.9447
-0.2569 2.0273 0.9449
-0.3294 2.0167 0.9451
-0.4016 2.0035 0.9454
-0.4732 1.9876 0.9456
-0.5442 1.9693 0.9458
-0.6145 1.9483 0.9460
-0.6840 1.9249 0.9462
-0.7526 1.8989 0.9464
-0.8202 1.8705 0.9466
-0.8868 1.8397 0.9468
-2.3997 4.5527 2.3866
-2.5609 4.4623 2.3866
-2.7188 4.3663 2.3866
-2.8730 4.2646 2.3866
-3.0235 4.1576 2.3866
-3.1700 4.0452 2.3866
-3.3124 3.9277 2.3866
-3.4504 3.8052 2.3866
-3.5839 3.6778 2.3866
-3.7128 3.5458 2.3866
-3.8368 3.4093 2.3866
-3.9559 3.2685 2.3866
-4.0698 3.1235 2.3866
-4.1785 2.9746 2.3866
-4.2817 2.8219 2.3866
-4.3794 2.6657 2.3866
-4.4714 2.5061 2.3866
-4.5577 2.3433 2.3866
-4.6380 2.1776 2.3866
-4.7124 2.0091 2.3866
-4.7808 1.8382 2.3866
-4.8429 1.6649 2.3866
-4.8989 1.4895 2.3866
-4.9485 1.3123 2.3866
-4.9918 1.1334 2.3866
-5.0286 0.9531 2.3866
-5.0590 0.7717 2.3866
-5.0829 0.5893 2.3866
-5.1003 0.4061 2.3866
-5.1111 0.2225 2.3866
-5.1154 0.0386 2.3866
-5.1131 -0.1452 2.3866
-5.1043 -0.3289 2.3866
-5.0889 -0.5122 2.3866
-5.0670 -0.6947 2.3866
-5.0386 -0.8764 2.3866
-5.0037 -1.0570 2.3866
-4.9625 -1.2361 2.3866
-4.9148 -1.4137 2.3866
-4.8609 -1.5895 2.3866
-4.8007 -1.7633 2.3866
-4.7344 -1.9348 2.3866
-4.6620 -2.1038 2.3866
-4.5836 -2.2702 2.3866
-4.4993 -2.4336 2.3866
-4.4092 -2.5940 2.3866
-4.3135 -2.7510 2.3866
-4.2122 -2.9046 2.3866
-4.1055 -3.0544 2.3866
-3.9935 -3.2004 2.3866
-3.8764 -3.3423 2.3866
-3.7543 -3.4799 2.3866
-3.6273 -3.6131 2.3866
-3.4956 -3.7417 2.3866
-3.3594 -3.8655 2.3866
-3.2189 -3.9844 2.3866
-3.0741 -4.0982 2.3866
-2.9254 -4.2069 2.3866
-2.7729 -4.3101 2.3866
-2.6167 -4.4078 2.3866
-2.4572 -4.5000 2.3866
-2.2944 -4.5863 2.3866
-2.1286 -4.6669 2.3866
-1.9600 -4.7415 2.3866
-1.7888 -4.8099 2.3866
-1.6153 -4.8723 2.3866
-1.4395 -4.9284 2.3866
-1.2619 -4.9781 2.3866
-1.0826 -5.0216 2.3866
-0.9017 -5.0585 2.3866
-0.7196 -5.0890 2.3866
-0.5365 -5.1130 2.3866
-0.3527 -5.1304 2.3866
-0.1683 -5.1412 2.3866
0.0157 -4.8558 2.3866
0.1901 -4.8534 2.3866
0.3644 -4.8448 2.3866
0.5383 -4.8299 2.3866
0.7115 -4.8089 2.3866
0.8840 -4.7816 2.3866
1.0553 -4.7481 2.3866
1.2255 -4.7085 2.3866
1.3941 -4.6628 2.3866
1.5610 -4.6110 2.3866
1.7260 -4.5533 2.3866
1.8888 -4.4897 2.3866
2.0493 -4.4203 2.3866
2.2072 -4.3451 2.3866
2.3623 -4.2643 2.3866
2.5145 -4.1779 2.3866
2.6635 -4.0861 2.3866
2.8092 -3.9890 2.3866
2.9512 -3.8866 2.3866
3.0896 -3.7793 2.3866
3.2240 -3.6669 2.3866
3.3543 -3.5498 2.3866
3.4803 -3.4281 2.3866
3.6019 -3.3018 2.3866
3.7189 -3.1713 2.3866
3.8311 -3.0365 2.3866
3.9384 -2.8977 2.3866
4.0407 -2.7553 2.3866
4.1378 -2.6090 2.3866
4.2295 -2.4586 2.3866
4.3159 -2.3069 2.3866
4.3966 -2.1510 2.3866
4.4717 -1.9924 2.3866
4.5411 -1.8311 2.3866
4.6046 -1.6674 2.3866
4.6621 -1.5015 2.3866
4.7137 -1.3336 2.3866
4.7591 -1.1639 2.3866
4.7984 -0.9927 2.3866
4.8315 -0.8201 2.3866
4.8583 -0.6465 2.3866
4.8789 -0.4720 2.3866
4.8932 -0.2968 2.3866
4.9011 -0.1213 2.3866
4.9026 0.0545 2.3866
4.8978 0.2302 2.3866
4.8867 0.4056 2.3866
4.8692 0.5805 2.3866
4.8455 0.7547 2.3866
4.8154 0.9279 2.3866
4.7791 1.0999 2.3866
4.7367 1.2705 2.3866
4.6881 1.4395 2.3866
4.6334 1.6066 2.3866
4.5727 1.7716 2.3866
4.5061 1.9342 2.3866
4.4337 2.0944 2.3866
4.3555 2.2518 2.3866
4.2717 2.4064 2.3866
4.1824 2.5577 2.3866
4.0877 2.7057 2.3866
3.9877 2.8503 2.3866
3.8825 2.9910 2.3866
3.7724 3.1276 2.3866
3.6574 3.2606 2.3866
3.5377 3.3893 2.3866
3.4134 3.5135 2.3866
3.2847 3.6330 2.3866
3.1519 3.7476 2.3866
3.0150 3.8576 2.3866
2.8742 3.9628 2.3866
2.7298 4.0625 2.3866
2.5819 4.1569 2.3866
2.4307 4.2460 2.3866
0.8970 1.7060 0.9405
0.8353 1.7372 0.9407
0.7725 1.7662 0.9410
0.7087 1.7928 0.9412
0.6440 1.8172 0.9415
0.5784 1.8392 0.9417
0.5121 1.8588 0.9420
0.4451 1.8760 0.9423
0.3775 1.8908 0.9425
0.3095 1.9031 0.9428
0.2410 1.9130 0.9430
0.1722 1.9204 0.9433
0.1032 1.9253 0.9435
0.0340 1.9278 0.9437
-0.0352 1.9277 0.9440
-0.1043 1.9252 0.9442
-0.1733 1.9201 0.9445
-0.2421 1.9126 0.9447
-0.3106 1.9026 0.9449
-0.3787 1.8901 0.9451
-0.4462 1.8752 0.9453
-0.5132 1.8579 0.9455
-0.5795 1.8381 0.9457
-0.6451 1.8160 0.9459
-0.7098 1.7915 0.9461
-0.7736 1.7647 0.9463
-0.8364 1.7356 0.9465
-0.8981 1.7043 0.9467
-2.4164 4.2115 2.3866
-2.5654 4.1209 2.3866
-2.7110 4.0250 2.3866
-2.8530 3.9240 2.3866
-2.9914 3.8180 2.3866
-3.1258 3.7071 2.3866
-3.2561 3.5916 2.3866
-3.3822 3.4714 2.3866
-3.5038 3.3469 2.3866
-3.6209 3.2181 2.3866
-3.7334 3.0852 2.3866
-3.8409 2.9484 2.3866
-3.9435 2.8079 2.3866
-4.0410 2.6638 2.3866
-4.1332 2.5163 2.3866
-4.2202 2.3657 2.3866
-4.3016 2.2121 2.3866
-4.3775 2.0557 2.3866
-4.4478 1.8967 2.3866
-4.5123 1.7353 2.3866
-4.5710 1.5718 2.3866
-4.6239 1.4062 2.3866
-4.6708 1.2390 2.3866
-4.7116 1.0701 2.3866
-4.7465 0.9000 2.3866
-4.7752 0.7287 2.3866
-4.7978 0.5565 2.3866
-4.8142 0.3836 2.3866
-4.8245 0.2103 2.3866
-4.8285 0.0367 2.3866
-4.8264 -0.1369 2.3866
-4.8181 -0.3103 2.3866
-4.8036 -0.4833 2.3866
-4.7829 -0.6556 2.3866
-4.7561 -0.8271 2.3866
-4.7232 -0.9976 2.3866
-4.6842 -1.1667 2.3866
-4.6393 -1.3344 2.3866
-4.5883 -1.5003 2.3866
-4.5315 -1.6643 2.3866
-4.4689 -1.8263 2.3866
-4.4006 -1.9858 2.3866
-4.3265 -2.1428 2.3866
-4.2470 -2.2971 2.3866
-4.1619 -2.4485 2.3866
-4.0716 -2.5967 2.3866
-3.9759 -2.7417 2.3866
-3.8752 -2.8831 2.3866
-3.7695 -3.0209 2.3866
-3.6589 -3.1548 2.3866
-3.5436 -3.2847 2.3866
-3.4237 -3.4104 2.3866
-3.2994 -3.5318 2.3866
-3.1708 -3.6487 2.3866
-3.0381 -3.7609 2.3866
-2.9015 -3.8683 2.3866
-2.7611 -3.9708 2.3866
-2.6171 -4.0682 2.3866
-2.4697 -4.1604 2.3866
-2.3190 -4.2474 2.3866
-2.1654 -4.3288 2.3866
-2.0088 -4.4048 2.3866
-1.8497 -4.4752 2.3866
-1.6881 -4.5397 2.3866
-1.5243 -4.5985 2.3866
-1.3584 -4.6514 2.3866
-1.1907 -4.6984 2.3866
-1.0214 -4.7393 2.3866
-0.8508 -4.7742 2.3866
-0.6789 -4.8029 2.3866
-0.5061 -4.8254 2.3866
-0.3326 -4.8418 2.3866
-0.1585 -4.8519 2.3866
0.0158 -4.8558 2.3866
0.1903 -4.8534 2.3866
0.3645 -4.8448 2.3866
0.5384 -4.8299 2.3866
0.7116 -4.8088 2.3866
0.8841 -4.7815 2.3866
1.0555 -4.7481 2.3866
1.2256 -4.7085 2.3866
1.3942 -4.6627 2.3866
1.5611 -4.6110 2.3866
1.7261 -4.5533 2.3866
1.8889 -4.4896 2.3866
2.0494 -4.4202 2.3866
2.2073 -4.3450 2.3866
2.3624 -4.2642 2.3866
2.5146 -4.1778 2.3866
2.6636 -4.0860 2.3866
2.8092 -3.9889 2.3866
2.9513 -3.8866 2.3866
3.0897 -3.7792 2.3866
3.2241 -3.6669 2.3866
3.3544 -3.5497 2.3866
3.4804 -3.4279 2.3866
3.6020 -3.3017 2.3866
3.7190 -3.1712 2.3866
3.8312 -3.0364 2.3866
3.9385 -2.8977 2.3866
4.0408 -2.7552 2.3866
4.1378 -2.6086 2.3866
4.2296 -2.4596 2.3866
4.3159 -2.3068 2.3866
4.3967 -2.1509 2.3866
4.4718 -1.9923 2.3866
4.5411 -1.8310 2.3866
4.6046 -1.6673 2.3866
4.6622 -1.5014 2.3866
4.7137 -1.3335 2.3866
4.7591 -1.1638 2.3866
4.7984 -0.9926 2.3866
4.8315 -0.8200 2.3866
4.8584 -0.6464 2.3866
4.8789 -0.4719 2.3866
4.8932 -0.2967 2.3866
4.9011 -0.1212 2.3866
4.9026 0.0546 2.3866
4.8978 0.2303 2.3866
4.8867 0.4057 2.3866
4.8692 0.5806 2.3866
4.8455 0.7548 2.3866
4.8154 0.9280 2.3866
4.7791 1.1000 2.3866
4.7366 1.2706 2.3866
4.6880 1.4396 2.3866
4.6333 1.6067 2.3866
4.5726 1.7717 2.3866
4.5060 1.9344 2.3866
4.4336 2.0945 2.3866
4.3554 2.2519 2.3866
4.2716 2.4064 2.3866
4.1823 2.5578 2.3866
4.0876 2.7059 2.3866
3.9876 2.8504 2.3866
3.8825 2.9910 2.3866
3.7723 3.1281 2.3866
3.6573 3.2613 2.3866
3.5376 3.3894 2.3866
3.4133 3.5135 2.3866
3.2847 3.6331 2.3866
3.1518 3.7478 2.3866
3.0149 3.8578 2.3866
2.8741 3.9628 2.3866
2.7297 4.0625 2.3866
2.5818 4.1570 2.3866
2.4306 4.2460 2.3866
0.8970 1.7061 0.9405
0.8353 1.7372 0.9407
0.7725 1.7662 0.9410
0.7087 1.7928 0.9412
0.6439 1.8172 0.9415
0.5784 1.8392 0.9417
0.5120 1.8588 0.9420
0.4451 1.8760 0.9423
0.3775 1.8908 0.9425
0.3094 1.9031 0.9428
0.2409 1.9130 0.9430
0.1722 1.9204 0.9433
0.1031 1.9253 0.9435
0.0340 1.9278 0.9437
-0.0352 1.9277 0.9440
-0.1044 1.9252 0.9442
-0.1734 1.9201 0.9445
-0.2422 1.9126 0.9447
-0.3106 1.9026 0.9449
-0.3787 1.8901 0.9451
-0.4463 1.8752 0.9453
-0.5133 1.8578 0.9455
-0.5796 1.8381 0.9457
-0.6451 1.8160 0.9459
-0.7099 1.7915 0.9461
-0.7737 1.7647 0.9463
-0.8365 1.7356 0.9465
-0.8981 1.7043 0.9467
-2.4165 4.2114 2.3866
-2.5655 4.1208 2.3866
-2.7111 4.0249 2.3866
-2.8531 3.9239 2.3866
-2.9914 3.8179 2.3866
-3.1258 3.7071 2.3866
-3.2562 3.5915 2.3866
-3.3822 3.4714 2.3866
-3.5039 3.3468 2.3866
-3.6210 3.2180 2.3866
-3.7334 3.0851 2.3866
-3.8410 2.9483 2.3866
-3.9436 2.8078 2.3866
-4.0411 2.6637 2.3866
-4.1333 2.5162 2.3866
-4.2202 2.3656 2.3866
-4.3017 2.2120 2.3866
-4.3776 2.0556 2.3866
-4.4478 1.8966 2.3866
-4.5124 1.7352 2.3866
-4.5711 1.5717 2.3866
-4.6239 1.4061 2.3866
-4.6708 1.2389 2.3866
-4.7117 1.0700 2.3866
-4.7465 0.8998 2.3866
-4.7752 0.7286 2.3866
-4.7978 0.5564 2.3866
-4.8142 0.3835 2.3866
-4.8245 0.2102 2.3866
-4.8285 0.0366 2.3866
-4.8264 -0.1370 2.3866
-4.8181 -0.3104 2.3866
-4.8036 -0.4834 2.3866
-4.7829 -0.6557 2.3866
-4.7561 -0.8273 2.3866
-4.7232 -0.9977 2.3866
-4.6842 -1.1668 2.3866
-4.6392 -1.3345 2.3866
-4.5883 -1.5004 2.3866
-4.5315 -1.6644 2.3866
-4.4689 -1.8263 2.3866
-4.4005 -1.9859 2.3866
-4.3265 -2.1429 2.3866
-4.2469 -2.2972 2.3866
-4.1619 -2.4486 2.3866
-4.0715 -2.5968 2.3866
-3.9759 -2.7418 2.3866
-3.8751 -2.8832 2.3866
-3.7694 -3.0210 2.3866
-3.6588 -3.1549 2.3866
-3.5435 -3.2848 2.3866
-3.4236 -3.4105 2.3866
-3.2993 -3.5319 2.3866
-3.1707 -3.6487 2.3866
-3.0380 -3.7610 2.3866
-2.9014 -3.8684 2.3866
-2.7610 -3.9709 2.3866
-2.6170 -4.0683 2.3866
-2.4696 -4.1605 2.3866
-2.3189 -4.2474 2.3866
-2.1653 -4.3289 2.3866
-2.0087 -4.4049 2.3866
-1.8496 -4.4752 2.3866
-1.6880 -4.5398 2.3866
-1.5242 -4.5986 2.3866
-1.3583 -4.6515 2.3866
-1.1906 -4.6984 2.3866
-1.0213 -4.7393 2.3866
-0.8506 -4.7742 2.3866
-0.6788 -4.8029 2.3866
-0.5060 -4.8254 2.3866
-0.3324 -4.8418 2.3866
-0.1584 -4.8519 2.3866
0.0153 -4.5916 2.3866
0.1802 -4.5893 2.3866
0.3450 -4.5811 2.3866
0.5094 -4.5670 2.3866
0.6732 -4.5470 2.3866
0.8362 -4.5211 2.3866
0.9983 -4.4894 2.3866
1.1591 -4.4519 2.3866
1.3185 -4.4087 2.3866
1.4763 -4.3597 2.3866
1.6323 -4.3051 2.3866
1.7862 -4.2449 2.3866
1.9379 -4.1792 2.3866
2.0872 -4.1080 2.3866
2.2339 -4.0316 2.3866
2.3777 -3.9499 2.3866
2.5186 -3.8630 2.3866
2.6562 -3.7711 2.3866
2.7905 -3.6744 2.3866
2.9213 -3.5728 2.3866
3.0483 -3.4666 2.3866
3.1715 -3.3558 2.3866
3.2906 -3.2407 2.3866
3.4055 -3.1213 2.3866
3.5160 -2.9978 2.3866
3.6221 -2.8705 2.3866
3.7235 -2.7393 2.3866
3.8201 -2.6045 2.3866
3.9119 -2.4662 2.3866
3.9986 -2.3250 2.3866
4.0801 -2.1800 2.3866
4.1564 -2.0329 2.3866
4.2274 -1.8830 2.3866
4.2930 -1.7308 2.3866
4.3529 -1.5760 2.3866
4.4073 -1.4192 2.3866
4.4560 -1.2605 2.3866
4.4989 -1.1001 2.3866
4.5360 -0.9382 2.3866
4.5673 -0.7751 2.3866
4.5927 -0.6110 2.3866
4.6121 -0.4460 2.3866
4.6255 -0.2805 2.3866
4.6330 -0.1145 2.3866
4.6344 0.0516 2.3866
4.6299 0.2177 2.3866
4.6194 0.3835 2.3866
4.6028 0.5488 2.3866
4.5804 0.7134 2.3866
4.5520 0.8772 2.3866
4.5177 1.0398 2.3866
4.4775 1.2010 2.3866
4.4316 1.3607 2.3866
4.3799 1.5186 2.3866
4.3225 1.6746 2.3866
4.2596 1.8283 2.3866
4.1911 1.9798 2.3866
4.1173 2.1286 2.3866
4.0381 2.2746 2.3866
3.9537 2.4177 2.3866
3.8642 2.5571 2.3866
3.7697 2.6938 2.3866
3.6703 2.8273 2.3866
3.5662 2.9570 2.3866
3.4575 3.0823 2.3866
3.3443 3.2038 2.3866
3.2269 3.3212 2.3866
3.1053 3.4342 2.3866
2.9798 3.5428 2.3866
2.8504 3.6468 2.3866
2.7173 3.7460 2.3866
2.5808 3.8403 2.3866
2.4410 3.9296 2.3866
0.9054 1.5813 0.9402
0.8481 1.6129 0.9405
0.7898 1.6423 0.9407
0.7304 1.6697 0.9410
0.6701 1.6949 0.9412
0.6089 1.7179 0.9415
0.5469 1.7386 0.9417
0.4842 1.7572 0.9420
0.4209 1.7734 0.9422
0.3570 1.7874 0.9424
0.2927 1.7991 0.9427
0.2280 1.8084 0.9429
0.1629 1.8154 0.9431
0.0977 1.8201 0.9434
0.0323 1.8224 0.9436
-0.0331 1.8223 0.9438
-0.0984 1.8199 0.9441
-0.1637 1.8151 0.9443
-0.2287 1.8080 0.9445
-0.2934 1.7986 0.9447
-0.3578 1.7868 0.9449
-0.4217 1.7727 0.9451
-0.4850 1.7563 0.9453
-0.5477 1.7376 0.9455
-0.6097 1.7167 0.9457
-0.6708 1.6936 0.9459
-0.7312 1.6682 0.9460
-0.7905 1.6407 0.9462
-0.8488 1.6111 0.9464
-0.9061 1.5795 0.9465
-2.4255 3.8969 2.3866
-2.5632 3.8063 2.3866
-2.6976 3.7109 2.3866
-2.8284 3.6106 2.3866
-2.9556 3.5058 2.3866
-3.0788 3.3966 2.3866
-3.1981 3.2830 2.3866
-3.3132 3.1652 2.3866
-3.4240 3.0435 2.3866
-3.5303 2.9178 2.3866
-3.6321 2.7885 2.3866
-3.7292 2.6556 2.3866
-3.8214 2.5194 2.3866
-3.9087 2.3799 2.3866
-3.9909 2.2375 2.3866
-4.0680 2.0922 2.3866
-4.1398 1.9443 2.3866
-4.2063 1.7940 2.3866
-4.2674 1.6414 2.3866
-4.3229 1.4867 2.3866
-4.3729 1.3301 2.3866
-4.4173 1.1719 2.3866
-4.4560 1.0123 2.3866
-4.4889 0.8513 2.3866
-4.5161 0.6893 2.3866
-4.5375 0.5264 2.3866
-4.5531 0.3629 2.3866
-4.5628 0.1990 2.3866
-4.5667 0.0348 2.3866
-4.5647 -0.1294 2.3866
-4.5568 -0.2934 2.3866
-4.5431 -0.4570 2.3866
-4.5235 -0.6200 2.3866
-4.4982 -0.7822 2.3866
-4.4671 -0.9434 2.3866
-4.4302 -1.1034 2.3866
-4.3877 -1.2620 2.3866
-4.3395 -1.4190 2.3866
-4.2858 -1.5741 2.3866
-4.2266 -1.7273 2.3866
-4.1619 -1.8782 2.3866
-4.0919 -2.0267 2.3866
-4.0166 -2.1726 2.3866
-3.9362 -2.3158 2.3866
-3.8507 -2.4560 2.3866
-3.7602 -2.5931 2.3866
-3.6649 -2.7269 2.3866
-3.5649 -2.8572 2.3866
-3.4603 -2.9838 2.3866
-3.3512 -3.1066 2.3866
-3.2378 -3.2255 2.3866
-3.1202 -3.3403 2.3866
-2.9986 -3.4508 2.3866
-2.8730 -3.5569 2.3866
-2.7438 -3.6585 2.3866
-2.6110 -3.7554 2.3866
-2.4748 -3.8475 2.3866
-2.3353 -3.9347 2.3866
-2.1928 -4.0169 2.3866
-2.0475 -4.0939 2.3866
-1.8995 -4.1657 2.3866
-1.7489 -4.2322 2.3866
-1.5961 -4.2932 2.3866
-1.4411 -4.3488 2.3866
-1.2843 -4.3988 2.3866
-1.1257 -4.4431 2.3866
-0.9656 -4.4818 2.3866
-0.8041 -4.5147 2.3866
-0.6416 -4.5418 2.3866
-0.4782 -4.5631 2.3866
-0.3141 -4.5785 2.3866
-0.1495 -4.5880 2.3866
0.0154 -4.5916 2.3866
0.1803 -4.5893 2.3866
0.3451 -4.5811 2.3866
0.5095 -4.5670 2.3866
0.6733 -4.5470 2.3866
0.8363 -4.5211 2.3866
0.9984 -4.4894 2.3866
1.1592 -4.4519 2.3866
1.3186 -4.4086 2.3866
1.4764 -4.3597 2.3866
1.6324 -4.3050 2.3866
1.7863 -4.2448 2.3866
1.9380 -4.1791 2.3866
2.0873 -4.1080 2.3866
2.2340 -4.0315 2.3866
2.3778 -3.9498 2.3866
2.5187 -3.8630 2.3866
2.6563 -3.7711 2.3866
2.7906 -3.6743 2.3866
2.9214 -3.5727 2.3866
3.0484 -3.4665 2.3866
3.1715 -3.3557 2.3866
3.2906 -3.2406 2.3866
3.4055 -3.1212 2.3866
3.5161 -2.9978 2.3866
3.6222 -2.8704 2.3866
3.7235 -2.7391 2.3866
3.8202 -2.6046 2.3866
3.9119 -2.4662 2.3866
3.9986 -2.3249 2.3866
4.0802 -2.1806 2.3866
4.1565 -2.0324 2.3866
4.2274 -1.8825 2.3866
4.2930 -1.7307 2.3866
4.3530 -1.5759 2.3866
4.4073 -1.4191 2.3866
4.4560 -1.2604 2.3866
4.4990 -1.1000 2.3866
4.5361 -0.9381 2.3866
4.5673 -0.7750 2.3866
4.5927 -0.6109 2.3866
4.6121 -0.4459 2.3866
4.6255 -0.2804 2.3866
4.6330 -0.1144 2.3866
4.6344 0.0517 2.3866
4.6299 0.2178 2.3866
4.6193 0.3836 2.3866
4.6028 0.5489 2.3866
4.5803 0.7136 2.3866
4.5519 0.8773 2.3866
4.5176 1.0399 2.3866
4.4775 1.2011 2.3866
4.4315 1.3608 2.3866
4.3798 1.5187 2.3866
4.3225 1.6747 2.3866
4.2595 1.8285 2.3866
4.1911 1.9798 2.3866
4.1172 2.1287 2.3866
4.0380 2.2747 2.3866
3.9536 2.4178 2.3866
3.8641 2.5571 2.3866
3.7695 2.6947 2.3866
3.6702 2.8274 2.3866
3.5661 2.9572 2.3866
3.4574 3.0824 2.3866
3.3443 3.2039 2.3866
3.2268 3.3213 2.3866
3.1052 3.4343 2.3866
2.9797 3.5429 2.3866
2.8503 3.6468 2.3866
2.7172 3.7460 2.3866
2.5807 3.8404 2.3866
2.4409 3.9297 2.3866
0.9053 1.5813 0.9402
0.8481 1.6129 0.9405
0.7898 1.6423 0.9407
0.7304 1.6697 0.9410
0.6701 1.6949 0.9412
0.6089 1.7179 0.9415
0.5469 1.7387 0.9417
0.4842 1.7572 0.9420
0.4209 1.7735 0.9422
0.3570 1.7874 0.9424
0.2926 1.7991 0.9427
0.2279 1.8084 0.9429
0.1629 1.8154 0.9431
0.0977 1.8201 0.9434
0.0323 1.8224 0.9436
-0.0331 1.8223 0.9438
-0.0985 1.8199 0.9441
-0.1637 1.8151 0.9443
-0.2288 1.8080 0.9445
-0.2935 1.7985 0.9447
-0.3578 1.7868 0.9449
-0.4217 1.7727 0.9451
-0.4850 1.7563 0.9453
-0.5477 1.7376 0.9455
-0.6097 1.7167 0.9457
-0.6709 1.6935 0.9459
-0.7312 1.6682 0.9460
-0.7905 1.6407 0.9462
-0.8489 1.6111 0.9464
-0.9061 1.5794 0.9465
-2.4256 3.8969 2.3866
-2.5633 3.8062 2.3866
-2.6977 3.7108 2.3866
-2.8285 3.6106 2.3866
-2.9556 3.5058 2.3866
-3.0789 3.3965 2.3866
-3.1982 3.2829 2.3866
-3.3133 3.1652 2.3866
-3.4241 3.0434 2.3866
-3.5304 2.9177 2.3866
-3.6322 2.7884 2.3866
-3.7292 2.6555 2.3866
-3.8214 2.5193 2.3866
-3.9087 2.3799 2.3866
-3.9910 2.2374 2.3866
-4.0680 2.0922 2.3866
-4.1399 1.9442 2.3866
-4.2063 1.7939 2.3866
-4.2674 1.6413 2.3866
-4.3230 1.4866 2.3866
-4.3730 1.3300 2.3866
-4.4173 1.1718 2.3866
-4.4560 1.0121 2.3866
-4.4890 0.8512 2.3866
-4.5162 0.6892 2.3866
-4.5375 0.5263 2.3866
-4.5531 0.3628 2.3866
-4.5628 0.1989 2.3866
-4.5667 0.0347 2.3866
-4.5647 -0.1295 2.3866
-4.5568 -0.2935 2.3866
-4.5431 -0.4571 2.3866
-4.5235 -0.6201 2.3866
-4.4982 -0.7824 2.3866
-4.4671 -0.9436 2.3866
-4.4302 -1.1036 2.3866
-4.3877 -1.2621 2.3866
-4.3395 -1.4191 2.3866
-4.2858 -1.5742 2.3866
-4.2265 -1.7273 2.3866
-4.1619 -1.8782 2.3866
-4.0918 -2.0268 2.3866
-4.0166 -2.1727 2.3866
-3.9361 -2.3159 2.3866
-3.8506 -2.4561 2.3866
-3.7602 -2.5932 2.3866
-3.6649 -2.7269 2.3866
-3.5648 -2.8572 2.3866
-3.4602 -2.9839 2.3866
-3.3511 -3.1067 2.3866
-3.2377 -3.2256 2.3866
-3.1201 -3.3404 2.3866
-2.9985 -3.4509 2.3866
-2.8729 -3.5570 2.3866
-2.7437 -3.6586 2.3866
-2.6109 -3.7555 2.3866
-2.4747 -3.8476 2.3866
-2.3352 -3.9348 2.3866
-2.1928 -4.0169 2.3866
-2.0474 -4.0940 2.3866
-1.8994 -4.1657 2.3866
-1.7488 -4.2322 2.3866
-1.5960 -4.2933 2.3866
-1.4410 -4.3488 2.3866
-1.2842 -4.3988 2.3866
-1.1256 -4.4431 2.3866
-0.9655 -4.4818 2.3866
-0.8040 -4.5147 2.3866
-0.6415 -4.5418 2.3866
-0.4781 -4.5631 2.3866
-0.3140 -4.5785 2.3866
-0.1494 -4.5880 2.3866
0.0148 -4.3494 2.3866
0.1711 -4.3472 2.3866
0.3271 -4.3393 2.3866
0.4829 -4.3259 2.3866
0.6380 -4.3069 2.3866
0.7925 -4.2824 2.3866
0.9459 -4.2523 2.3866
1.0983 -4.2167 2.3866
1.2493 -4.1757 2.3866
1.3987 -4.1293 2.3866
1.5464 -4.0775 2.3866
1.6922 -4.0204 2.3866
1.8359 -3.9581 2.3866
1.9772 -3.8907 2.3866
2.1161 -3.8183 2.3866
2.2523 -3.7408 2.3866
2.3857 -3.6585 2.3866
2.5161 -3.5715 2.3866
2.6432 -3.4798 2.3866
2.7670 -3.3836 2.3866
2.8873 -3.2829 2.3866
3.0039 -3.1780 2.3866
3.1167 -3.0689 2.3866
3.2255 -2.9559 2.3866
3.3301 -2.8389 2.3866
3.4305 -2.7182 2.3866
3.5265 -2.5940 2.3866
3.6180 -2.4664 2.3866
3.7049 -2.3356 2.3866
3.7870 -2.2018 2.3866
3.8642 -2.0649 2.3866
3.9364 -1.9253 2.3866
4.0036 -1.7831 2.3866
4.0656 -1.6392 2.3866
4.1224 -1.4924 2.3866
4.1738 -1.3438 2.3866
4.2199 -1.1935 2.3866
4.2605 -1.0416 2.3866
4.2957 -0.8883 2.3866
4.3252 -0.7339 2.3866
4.3492 -0.5784 2.3866
4.3676 -0.4222 2.3866
4.3803 -0.2655 2.3866
4.3873 -0.1084 2.3866
4.3887 0.0490 2.3866
4.3844 0.2062 2.3866
4.3744 0.3632 2.3866
4.3588 0.5198 2.3866
4.3375 0.6757 2.3866
4.3106 0.8307 2.3866
4.2781 0.9847 2.3866
4.2401 1.1373 2.3866
4.1966 1.2885 2.3866
4.1476 1.4381 2.3866
4.0933 1.5858 2.3866
4.0338 1.7313 2.3866
3.9689 1.8748 2.3866
3.8990 2.0158 2.3866
3.8240 2.1539 2.3866
3.7441 2.2898 2.3866
3.6593 2.4221 2.3866
3.5699 2.5513 2.3866
3.4758 2.6773 2.3866
3.3773 2.7999 2.3866
3.2743 2.9188 2.3866
3.1672 3.0339 2.3866
3.0560 3.1450 2.3866
2.9409 3.2521 2.3866
2.8220 3.3549 2.3866
2.6995 3.4534 2.3866
2.5736 3.5474 2.3866
2.4443 3.6367 2.3866
0.9107 1.4658 0.9401
0.8576 1.4976 0.9403
0.8034 1.5275 0.9405
0.7481 1.5553 0.9408
0.6919 1.5812 0.9410
0.6348 1.6051 0.9412
0.5768 1.6269 0.9415
0.5181 1.6465 0.9417
0.4587 1.6641 0.9419
0.3988 1.6795 0.9421
0.3383 1.6927 0.9424
0.2773 1.7038 0.9426
0.2160 1.7126 0.9428
0.1544 1.7192 0.9430
0.0927 1.7236 0.9433
0.0308 1.7258 0.9435
-0.0312 1.7257 0.9437
-0.0931 1.7234 0.9439
-0.1549 1.7189 0.9441
-0.2164 1.7122 0.9443
-0.2777 1.7032 0.9445
-0.3387 1.6921 0.9447
-0.3992 1.6787 0.9449
-0.4591 1.6632 0.9451
-0.5185 1.6455 0.9453
-0.5772 1.6257 0.9454
-0.6351 1.6038 0.9456
-0.6922 1.5798 0.9458
-0.7484 1.5538 0.9459
-0.8037 1.5258 0.9461
-0.8579 1.4958 0.9462
-0.9109 1.4638 0.9464
-2.4277 3.6058 2.3866
-2.5550 3.5154 2.3866
-2.6790 3.4205 2.3866
-2.7995 3.3213 2.3866
-2.9163 3.2178 2.3866
-3.0293 3.1102 2.3866
-3.1384 2.9987 2.3866
-3.2434 2.8833 2.3866
-3.3441 2.7644 2.3866
-3.4406 2.6418 2.3866
-3.5326 2.5160 2.3866
-3.6200 2.3869 2.3866
-3.7027 2.2549 2.3866
-3.7806 2.1199 2.3866
-3.8537 1.9823 2.3866
-3.9218 1.8422 2.3866
-3.9848 1.6998 2.3866
-4.0427 1.5552 2.3866
-4.0953 1.4087 2.3866
-4.1427 1.2603 2.3866
-4.1848 1.1105 2.3866
-4.2215 0.9592 2.3866
-4.2527 0.8067 2.3866
-4.2785 0.6532 2.3866
-4.2988 0.4989 2.3866
-4.3136 0.3440 2.3866
-4.3228 0.1887 2.3866
-4.3264 0.0331 2.3866
-4.3246 -0.1225 2.3866
-4.3171 -0.2779 2.3866
-4.3041 -0.4329 2.3866
-4.2856 -0.5874 2.3866
-4.2616 -0.7411 2.3866
-4.2321 -0.8938 2.3866
-4.1972 -1.0454 2.3866
-4.1569 -1.1956 2.3866
-4.1113 -1.3444 2.3866
-4.0604 -1.4914 2.3866
-4.0042 -1.6364 2.3866
-3.9430 -1.7794 2.3866
-3.8766 -1.9202 2.3866
-3.8053 -2.0585 2.3866
-3.7291 -2.1941 2.3866
-3.6480 -2.3270 2.3866
-3.5623 -2.4567 2.3866
-3.4720 -2.5835 2.3866
-3.3772 -2.7069 2.3866
-3.2781 -2.8269 2.3866
-3.1747 -2.9433 2.3866
-3.0673 -3.0559 2.3866
-2.9558 -3.1647 2.3866
-2.8406 -3.2693 2.3866
-2.7216 -3.3699 2.3866
-2.5992 -3.4661 2.3866
-2.4733 -3.5578 2.3866
-2.3442 -3.6451 2.3866
-2.2121 -3.7277 2.3866
-2.0771 -3.8055 2.3866
-1.9394 -3.8784 2.3866
-1.7991 -3.9464 2.3866
-1.6565 -4.0093 2.3866
-1.5117 -4.0671 2.3866
-1.3649 -4.1197 2.3866
-1.2163 -4.1671 2.3866
-1.0660 -4.2090 2.3866
-0.9143 -4.2456 2.3866
-0.7614 -4.2767 2.3866
-0.6074 -4.3024 2.3866
-0.4526 -4.3225 2.3866
-0.2971 -4.3370 2.3866
-0.1412 -4.3460 2.3866
0.0149 -4.3494 2.3866
0.1712 -4.3472 2.3866
0.3272 -4.3393 2.3866
0.4830 -4.3259 2.3866
0.6381 -4.3069 2.3866
0.7926 -4.2824 2.3866
0.9460 -4.2523 2.3866
1.0984 -4.2167 2.3866
1.2494 -4.1757 2.3866
1.3988 -4.1292 2.3866
1.5465 -4.0774 2.3866
1.6923 -4.0204 2.3866
1.8360 -3.9581 2.3866
1.9773 -3.8907 2.3866
2.1162 -3.8182 2.3866
2.2524 -3.7408 2.3866
2.3858 -3.6585 2.3866
2.5161 -3.5714 2.3866
2.6433 -3.4797 2.3866
2.7671 -3.3835 2.3866
2.8874 -3.2829 2.3866
3.0040 -3.1779 2.3866
3.1167 -3.0689 2.3866
3.2255 -2.9558 2.3866
3.3302 -2.8388 2.3866
3.4306 -2.7181 2.3866
3.5266 -2.5939 2.3866
3.6181 -2.4663 2.3866
3.7049 -2.3354 2.3866
3.7870 -2.2016 2.3866
3.8642 -2.0648 2.3866
3.9365 -1.9256 2.3866
4.0036 -1.7834 2.3866
4.0656 -1.6380 2.3866
4.1224 -1.4924 2.3866
4.1738 -1.3433 2.3866
4.2199 -1.1934 2.3866
4.2606 -1.0415 2.3866
4.2957 -0.8882 2.3866
4.3252 -0.7338 2.3866
4.3492 -0.5783 2.3866
4.3676 -0.4221 2.3866
4.3803 -0.2654 2.3866
4.3873 -0.1083 2.3866
4.3887 0.0491 2.3866
4.3844 0.2063 2.3866
4.3744 0.3633 2.3866
4.3588 0.5199 2.3866
4.3375 0.6758 2.3866
4.3106 0.8308 2.3866
4.2781 0.9848 2.3866
4.2401 1.1374 2.3866
4.1965 1.2887 2.3866
4.1476 1.4382 2.3866
4.0933 1.5859 2.3866
4.0337 1.7314 2.3866
3.9689 1.8753 2.3866
3.8989 2.0158 2.3866
3.8240 2.1540 2.3866
3.7440 2.2901 2.3866
3.6593 2.4221 2.3866
3.5698 2.5514 2.3866
3.4757 2.6774 2.3866
3.3772 2.8000 2.3866
3.2743 2.9189 2.3866
3.1672 3.0340 2.3866
3.0560 3.1451 2.3866
2.9409 3.2522 2.3866
2.8220 3.3550 2.3866
2.6995 3.4535 2.3866
2.5735 3.5474 2.3866
2.4443 3.6367 2.3866
0.9106 1.4658 0.9401
0.8575 1.4976 0.9403
0.8033 1.5275 0.9405
0.7481 1.5554 0.9408
0.6919 1.5813 0.9410
0.6347 1.6051 0.9412
0.5768 1.6269 0.9415
0.5181 1.6465 0.9417
0.4587 1.6641 0.9419
0.3987 1.6795 0.9421
0.3382 1.6927 0.9424
0.2773 1.7038 0.9426
0.2160 1.7126 0.9428
0.1544 1.7192 0.9430
0.0926 1.7236 0.9433
0.0307 1.7258 0.9435
-0.0312 1.7257 0.9437
-0.0931 1.7234 0.9439
-0.1549 1.7189 0.9441
-0.2165 1.7122 0.9443
-0.2778 1.7032 0.9445
-0.3387 1.6920 0.9447
-0.3992 1.6787 0.9449
-0.4592 1.6632 0.9451
-0.5185 1.6455 0.9453
-0.5772 1.6257 0.9454
-0.6352 1.6038 0.9456
-0.6923 1.5798 0.9458
-0.7485 1.5538 0.9459
-0.8037 1.5257 0.9461
-0.8579 1.4958 0.9462
-0.9110 1.4638 0.9464
-2.4278 3.6057 2.3866
-2.5551 3.5153 2.3866
-2.6791 3.4204 2.3866
-2.7996 3.3212 2.3866
-2.9164 3.2177 2.3866
-3.0294 3.1101 2.3866
-3.1384 2.9986 2.3866
