ply
format ascii 1.0
element vertex 2179
property float32 x
property float32 y
property float32 z
end_header
-3.6094 6.1295 2.3802
-3.8593 6.0555 2.3802
-4.1081 5.9713 2.3802
-4.3554 5.8769 2.3802
-4.6006 5.7720 2.3802
-4.8431 5.6568 2.3802
-5.0825 5.5310 2.3802
-5.3182 5.3948 2.3802
-5.5495 5.2482 2.3802
-5.7761 5.0912 2.3802
-5.9972 4.9239 2.3802
-6.2124 4.7465 2.3802
-6.4209 4.5591 2.3802
-6.6222 4.3620 2.3802
-6.8157 4.1554 2.3802
-7.0009 3.9395 2.3802
-7.1771 3.7148 2.3802
-7.3439 3.4816 2.3802
-7.5006 3.2403 2.3802
-7.6468 2.9913 2.3802
-7.7820 2.7352 2.3802
-7.9056 2.4724 2.3802
-8.0174 2.2035 2.3802
-8.1168 1.9292 2.3802
-8.2035 1.6500 2.3802
-8.2772 1.3665 2.3802
-8.3376 1.0795 2.3802
-8.3845 0.7896 2.3802
-8.4178 0.4976 2.3802
-8.4372 0.2042 2.3802
-8.4427 -0.0900 2.3802
-8.4342 -0.3841 2.3802
-8.4119 -0.6774 2.3802
-8.3757 -0.9692 2.3802
-8.3258 -1.2588 2.3802
-8.2623 -1.5455 2.3802
-8.1856 -1.8285 2.3802
-8.0957 -2.1072 2.3802
-7.9932 -2.3810 2.3802
-7.8783 -2.6491 2.3802
-7.7514 -2.9111 2.3802
-7.6129 -3.1663 2.3802
-7.4634 -3.4142 2.3802
-7.3033 -3.6544 2.3802
-7.1331 -3.8863 2.3802
-6.9533 -4.1095 2.3802
-6.7646 -4.3237 2.3802
-6.5675 -4.5286 2.3802
-6.3627 -4.7238 2.3802
-6.1506 -4.9090 2.3802
-5.9318 -5.0841 2.3802
-5.7071 -5.2490 2.3802
-5.4770 -5.4033 2.3802
-5.2420 -5.5471 2.3802
-5.0028 -5.6803 2.3802
-4.7599 -5.8029 2.3802
-4.5140 -5.9148 2.3802
-4.2655 -6.0161 2.3802
-4.0150 -6.1068 2.3802
-3.7629 -6.1871 2.3802
-3.5099 -6.2570 2.3802
-3.2564 -6.3167 2.3802
-3.0028 -6.3663 2.3802
-2.7496 -6.4061 2.3802
-2.4972 -6.4361 2.3802
-2.2459 -6.4566 2.3802
-1.9963 -6.4678 2.3802
-1.7486 -6.4699 2.3802
-1.5031 -6.4632 2.3802
-1.2601 -6.4479 2.3802
-1.0201 -6.4242 2.3802
-0.7831 -6.3924 2.3802
-0.5495 -6.3528 2.3802
-0.3195 -6.3056 2.3802
-0.0933 -6.2511 2.3802
0.1289 -6.1895 2.3802
0.3469 -6.1211 2.3802
0.5605 -6.0461 2.3802
0.7696 -5.9648 2.3802
0.9741 -5.8774 2.3802
1.1739 -5.7843 2.3802
1.3688 -5.6855 2.3802
1.5587 -5.5815 2.3802
1.7436 -5.4723 2.3802
1.9233 -5.3583 2.3802
2.0979 -5.2396 2.3802
2.2673 -5.1164 2.3802
2.4313 -4.9891 2.3802
2.5900 -4.8577 2.3802
2.7434 -4.7225 2.3802
2.8913 -4.5837 2.3802
3.0339 -4.4415 2.3802
3.1710 -4.2960 2.3802
3.3026 -4.1474 2.3802
3.4289 -3.9959 2.3802
3.5496 -3.8417 2.3802
3.6649 -3.6849 2.3802
3.7748 -3.5257 2.3802
3.8791 -3.3642 2.3802
3.9781 -3.2006 2.3802
4.0716 -3.0350 2.3802
4.1597 -2.8676 2.3802
4.2423 -2.6984 2.3802
4.3195 -2.5277 2.3802
4.3914 -2.3555 2.3802
4.4578 -2.1820 2.3802
4.5189 -2.0072 2.3802
4.5746 -1.8314 2.3802
4.6250 -1.6546 2.3802
4.6700 -1.4769 2.3802
4.7097 -1.2985 2.3802
4.7441 -1.1194 2.3802
4.7732 -0.9397 2.3802
4.7970 -0.7596 2.3802
4.8155 -0.5791 2.3802
4.8286 -0.3984 2.3802
4.8366 -0.2175 2.3802
4.8392 -0.0367 2.3802
4.8366 0.1442 2.3802
4.8287 0.3250 2.3802
4.8155 0.5054 2.3802
4.7971 0.6855 2.3802
4.7735 0.8652 2.3802
4.7445 1.0443 2.3802
4.7103 1.2228 2.3802
4.6708 1.4006 2.3802
4.6261 1.5775 2.3802
4.5761 1.7534 2.3802
4.5208 1.9282 2.3802
4.4602 2.1019 2.3802
4.3943 2.2743 2.3802
4.3231 2.4453 2.3802
4.2466 2.6148 2.3802
4.1648 2.7827 2.3802
4.0777 2.9487 2.3802
3.9853 3.1129 2.3802
3.8875 3.2751 2.3802
3.7844 3.4351 2.3802
3.6760 3.5929 2.3802
3.5623 3.7482 2.3802
3.4432 3.9009 2.3802
3.3188 4.0509 2.3802
3.1891 4.1980 2.3802
3.0541 4.3420 2.3802
2.9138 4.4828 2.3802
2.7683 4.6202 2.3802
2.6174 4.7541 2.3802
2.4614 4.8842 2.3802
2.3002 5.0104 2.3802
2.1338 5.1324 2.3802
1.9624 5.2501 2.3802
0.7696 2.3113 1.0257
0.6864 2.3409 1.0183
0.6021 2.3675 1.0108
0.5170 2.3911 1.0031
0.4310 2.4115 0.9954
0.3444 2.4288 0.9876
0.2572 2.4430 0.9797
0.1695 2.4540 0.9718
0.0815 2.4618 0.9638
-0.0067 2.4664 0.9558
-0.0951 2.4678 0.9478
-0.1834 2.4660 0.9397
-0.2716 2.4610 0.9317
-0.3596 2.4528 0.9237
-0.4473 2.4414 0.9156
-0.5344 2.4268 0.9076
-0.6210 2.4091 0.8997
-0.7069 2.3883 0.8918
-0.7920 2.3643 0.8839
-0.8761 2.3373 0.8761
-0.9593 2.3073 0.8684
-2.8791 6.2882 2.3802
-3.1296 6.2431 2.3802
-3.3804 6.1883 2.3802
-3.6309 6.1235 2.3802
-3.8808 6.0487 2.3802
-4.1295 5.9636 2.3802
-4.3766 5.8683 2.3802
-4.6216 5.7625 2.3802
-4.8639 5.6463 2.3802
-5.1030 5.5197 2.3802
-5.3383 5.3826 2.3802
-5.5693 5.2350 2.3802
-5.7954 5.0771 2.3802
-6.0160 4.9090 2.3802
-6.2306 4.7307 2.3802
-6.4385 4.5425 2.3802
-6.6392 4.3445 2.3802
-6.8320 4.1371 2.3802
-7.0164 3.9205 2.3802
-7.1919 3.6950 2.3802
-7.3578 3.4611 2.3802
-7.5136 3.2191 2.3802
-7.6589 2.9695 2.3802
-7.7931 2.7127 2.3802
-7.9158 2.4494 2.3802
-8.0264 2.1801 2.3802
-8.1248 1.9053 2.3802
-8.2104 1.6256 2.3802
-8.2829 1.3419 2.3802
-8.3422 1.0546 2.3802
-8.3880 0.7645 2.3802
-8.4200 0.4724 2.3802
-8.4382 0.1788 2.3802
-8.4425 -0.1153 2.3802
-8.4328 -0.4094 2.3802
-8.4093 -0.7026 2.3802
-8.3719 -0.9943 2.3802
-8.3208 -1.2837 2.3802
-8.2562 -1.5701 2.3802
-8.1783 -1.8528 2.3802
-8.0874 -2.1311 2.3802
-7.9838 -2.4044 2.3802
-7.8678 -2.6720 2.3802
-7.7399 -2.9334 2.3802
-7.6005 -3.1880 2.3802
-7.4500 -3.4353 2.3802
-7.2890 -3.6747 2.3802
-7.1179 -3.9059 2.3802
-6.9374 -4.1284 2.3802
-6.7480 -4.3418 2.3802
-6.5502 -4.5458 2.3802
-6.3446 -4.7401 2.3802
-6.1319 -4.9245 2.3802
-5.9127 -5.0988 2.3802
-5.6874 -5.2627 2.3802
-5.4569 -5.4161 2.3802
-5.2215 -5.5590 2.3802
-4.9820 -5.6913 2.3802
-4.7388 -5.8130 2.3802
-4.4926 -5.9239 2.3802
-4.2439 -6.0243 2.3802
-3.9933 -6.1142 2.3802
-3.7411 -6.1935 2.3802
-3.4880 -6.2626 2.3802
-3.2345 -6.3214 2.3802
-2.9809 -6.3702 2.3802
-2.7278 -6.4090 2.3802
-2.4754 -6.4382 2.3802
-2.2243 -6.4579 2.3802
-1.9748 -6.4683 2.3802
-1.7273 -6.4697 2.3802
-1.4820 -6.4622 2.3802
-1.2393 -6.4462 2.3802
-0.9995 -6.4218 2.3802
-0.7628 -6.3893 2.3802
-0.5295 -6.3491 2.3802
-0.2998 -6.3012 2.3802
-0.0740 -6.2461 2.3802
0.1479 -6.1839 2.3802
0.3655 -6.1149 2.3802
0.5787 -6.0393 2.3802
0.7875 -5.9575 2.3802
0.9916 -5.8696 2.3802
1.1909 -5.7760 2.3802
1.3854 -5.6768 2.3802
1.5749 -5.5723 2.3802
1.7593 -5.4627 2.3802
1.9386 -5.3482 2.3802
2.1127 -5.2291 2.3802
2.2816 -5.1056 2.3802
2.4452 -4.9779 2.3802
2.6035 -4.8462 2.3802
2.7563 -4.7107 2.3802
2.9038 -4.5716 2.3802
3.0459 -4.4290 2.3802
3.1826 -4.2833 2.3802
3.3137 -4.1344 2.3802
3.4395 -3.9827 2.3802
3.5598 -3.8283 2.3802
3.6746 -3.6713 2.3802
3.7840 -3.5118 2.3802
3.8879 -3.3502 2.3802
3.9864 -3.1864 2.3802
4.0794 -3.0206 2.3802
4.1670 -2.8530 2.3802
4.2492 -2.6837 2.3802
4.3260 -2.5129 2.3802
4.3973 -2.3406 2.3802
4.4633 -2.1670 2.3802
4.5240 -1.9921 2.3802
4.5792 -1.8162 2.3802
4.6291 -1.6393 2.3802
4.6737 -1.4615 2.3802
4.7129 -1.2830 2.3802
4.7468 -1.1039 2.3802
4.7755 -0.9242 2.3802
4.7988 -0.7440 2.3802
4.8168 -0.5635 2.3802
4.8295 -0.3828 2.3802
4.8370 -0.2019 2.3802
4.8392 -0.0210 2.3802
4.8361 0.1598 2.3802
4.8278 0.3405 2.3802
4.8142 0.5210 2.3802
4.7953 0.7011 2.3802
4.7712 0.8807 2.3802
4.7418 1.0598 2.3802
4.7071 1.2382 2.3802
4.6672 1.4159 2.3802
4.6220 1.5927 2.3802
4.5715 1.7685 2.3802
4.5157 1.9433 2.3802
4.4547 2.1169 2.3802
4.3883 2.2891 2.3802
4.3167 2.4600 2.3802
4.2398 2.6294 2.3802
4.1575 2.7971 2.3802
4.0699 2.9630 2.3802
3.9770 3.1270 2.3802
3.8788 3.2890 2.3802
3.7753 3.4488 2.3802
3.6664 3.6064 2.3802
3.5522 3.7615 2.3802
3.4327 3.9139 2.3802
3.3078 4.0637 2.3802
3.1777 4.2105 2.3802
3.0422 4.3543 2.3802
2.9015 4.4948 2.3802
2.7555 4.6319 2.3802
2.6042 4.7655 2.3802
4.4818 -1.0757 2.3802
4.5102 -0.9056 2.3802
4.5335 -0.7350 2.3802
4.5517 -0.5640 2.3802
4.5649 -0.3927 2.3802
4.5730 -0.2213 2.3802
4.5760 -0.0498 2.3802
4.5740 0.1216 2.3802
4.5669 0.2930 2.3802
4.5548 0.4641 2.3802
4.5376 0.6348 2.3802
4.5154 0.8051 2.3802
4.4881 0.9749 2.3802
4.4558 1.1441 2.3802
4.4184 1.3125 2.3802
4.3760 1.4800 2.3802
4.3285 1.6466 2.3802
4.2760 1.8122 2.3802
4.2184 1.9765 2.3802
4.1558 2.1396 2.3802
4.0881 2.3013 2.3802
4.0154 2.4615 2.3802
3.9376 2.6201 2.3802
3.8547 2.7769 2.3802
3.7668 2.9318 2.3802
3.6739 3.0847 2.3802
3.5759 3.2355 2.3802
3.4728 3.3840 2.3802
3.3648 3.5301 2.3802
3.2517 3.6736 2.3802
3.1336 3.8144 2.3802
3.0105 3.9524 2.3802
2.8825 4.0874 2.3802
2.7495 4.2192 2.3802
2.6115 4.3477 2.3802
2.4687 4.4727 2.3802
2.3210 4.5940 2.3802
2.1686 4.7115 2.3802
2.0113 4.8249 2.3802
0.7983 2.1300 1.0275
0.7216 2.1608 1.0207
0.6438 2.1888 1.0137
0.5650 2.2139 1.0067
0.4853 2.2362 0.9995
0.4049 2.2555 0.9923
0.3239 2.2720 0.9850
0.2423 2.2855 0.9776
0.1603 2.2960 0.9702
0.0779 2.3036 0.9628
-0.0047 2.3081 0.9553
-0.0874 2.3097 0.9478
-0.1700 2.3083 0.9402
-0.2526 2.3038 0.9327
-0.3350 2.2964 0.9252
-0.4171 2.2860 0.9177
-0.4987 2.2726 0.9102
-0.5798 2.2563 0.9027
-0.6602 2.2370 0.8953
-0.7399 2.2149 0.8880
-0.8188 2.1898 0.8807
-0.8967 2.1620 0.8735
-0.9735 2.1313 0.8663
-2.9062 5.8108 2.3802
-3.1377 5.7571 2.3802
-3.3687 5.6942 2.3802
-3.5989 5.6221 2.3802
-3.8278 5.5406 2.3802
-4.0549 5.4497 2.3802
-4.2798 5.3493 2.3802
-4.5021 5.2393 2.3802
-4.7212 5.1199 2.3802
-4.9367 4.9909 2.3802
-5.1480 4.8525 2.3802
-5.3547 4.7047 2.3802
-5.5561 4.5477 2.3802
-5.7519 4.3815 2.3802
-5.9415 4.2063 2.3802
-6.1243 4.0225 2.3802
-6.2999 3.8301 2.3802
-6.4678 3.6295 2.3802
-6.6274 3.4209 2.3802
-6.7783 3.2048 2.3802
-6.9200 2.9815 2.3802
-7.0520 2.7513 2.3802
-7.1740 2.5149 2.3802
-7.2855 2.2725 2.3802
-7.3862 2.0248 2.3802
-7.4757 1.7721 2.3802
-7.5538 1.5152 2.3802
-7.6201 1.2546 2.3802
-7.6744 0.9909 2.3802
-7.7165 0.7246 2.3802
-7.7462 0.4564 2.3802
-7.7636 0.1870 2.3802
-7.7684 -0.0831 2.3802
-7.7606 -0.3530 2.3802
-7.7404 -0.6224 2.3802
-7.7077 -0.8903 2.3802
-7.6626 -1.1563 2.3802
-7.6053 -1.4197 2.3802
-7.5360 -1.6799 2.3802
-7.4549 -1.9363 2.3802
-7.3624 -2.1883 2.3802
-7.2586 -2.4353 2.3802
-7.1439 -2.6768 2.3802
-7.0188 -2.9124 2.3802
-6.8835 -3.1415 2.3802
-6.7386 -3.3636 2.3802
-6.5844 -3.5784 2.3802
-6.4215 -3.7855 2.3802
-6.2504 -3.9846 2.3802
-6.0714 -4.1752 2.3802
-5.8853 -4.3572 2.3802
-5.6923 -4.5303 2.3802
-5.4932 -4.6943 2.3802
-5.2884 -4.8490 2.3802
-5.0785 -4.9943 2.3802
-4.8638 -5.1301 2.3802
-4.6452 -5.2562 2.3802
-4.4229 -5.3727 2.3802
-4.1975 -5.4795 2.3802
-3.9695 -5.5766 2.3802
-3.7394 -5.6641 2.3802
-3.5076 -5.7420 2.3802
-3.2747 -5.8104 2.3802
-3.0410 -5.8693 2.3802
-2.8069 -5.9190 2.3802
-2.5729 -5.9596 2.3802
-2.3394 -5.9911 2.3802
-2.1067 -6.0138 2.3802
-1.8752 -6.0279 2.3802
-1.6452 -6.0335 2.3802
-1.4170 -6.0308 2.3802
-1.1909 -6.0200 2.3802
-0.9672 -6.0014 2.3802
-0.7461 -5.9752 2.3802
-0.5280 -5.9415 2.3802
-0.3129 -5.9007 2.3802
-0.1012 -5.8529 2.3802
0.1070 -5.7984 2.3802
0.3115 -5.7373 2.3802
0.5121 -5.6700 2.3802
0.7087 -5.5967 2.3802
0.9011 -5.5175 2.3802
1.0892 -5.4327 2.3802
1.2730 -5.3425 2.3802
1.4522 -5.2472 2.3802
1.6269 -5.1469 2.3802
1.7968 -5.0419 2.3802
1.9620 -4.9324 2.3802
2.1224 -4.8185 2.3802
2.2779 -4.7005 2.3802
2.4285 -4.5785 2.3802
2.5741 -4.4528 2.3802
2.7146 -4.3235 2.3802
2.8502 -4.1909 2.3802
2.9807 -4.0550 2.3802
3.1060 -3.9161 2.3802
3.2263 -3.7742 2.3802
3.3414 -3.6297 2.3802
3.4514 -3.4826 2.3802
3.5563 -3.3331 2.3802
3.6560 -3.1812 2.3802
3.7505 -3.0273 2.3802
3.8399 -2.8714 2.3802
3.9242 -2.7136 2.3802
4.0033 -2.5541 2.3802
4.0773 -2.3930 2.3802
4.1461 -2.2304 2.3802
4.2098 -2.0665 2.3802
4.2683 -1.9013 2.3802
4.3218 -1.7351 2.3802
4.3701 -1.5678 2.3802
4.4133 -1.3996 2.3802
4.4514 -1.2307 2.3802
4.4845 -1.0611 2.3802
4.5124 -0.8909 2.3802
4.5353 -0.7202 2.3802
4.5531 -0.5492 2.3802
4.5658 -0.3779 2.3802
4.5735 -0.2065 2.3802
4.5760 -0.0350 2.3802
4.5736 0.1364 2.3802
4.5661 0.3077 2.3802
4.5535 0.4788 2.3802
4.5359 0.6495 2.3802
4.5132 0.8198 2.3802
4.4855 0.9895 2.3802
4.4527 1.1586 2.3802
4.4149 1.3270 2.3802
4.3721 1.4944 2.3802
4.3242 1.6609 2.3802
4.2712 1.8264 2.3802
4.2132 1.9907 2.3802
4.1502 2.1536 2.3802
4.0820 2.3152 2.3802
4.0089 2.4752 2.3802
3.9306 2.6337 2.3802
3.8473 2.7903 2.3802
3.7590 2.9450 2.3802
3.6656 3.0978 2.3802
3.5672 3.2484 2.3802
3.4637 3.3967 2.3802
3.3552 3.5426 2.3802
3.2417 3.6859 2.3802
3.1232 3.8265 2.3802
2.9997 3.9642 2.3802
2.8712 4.0989 2.3802
2.7378 4.2304 2.3802
2.5994 4.3586 2.3802
2.4562 4.4833 2.3802
2.3081 4.6043 2.3802
2.1552 4.7214 2.3802
1.9975 4.8345 2.3802
0.7918 2.1328 1.0269
0.7149 2.1633 1.0201
0.6370 2.1910 1.0131
0.5581 2.2159 1.0061
0.4784 2.2380 0.9989
0.3980 2.2571 0.9917
0.3169 2.2733 0.9844
0.2352 2.2865 0.9770
0.1532 2.2968 0.9696
0.0708 2.3041 0.9621
-0.0118 2.3084 0.9546
-0.0945 2.3097 0.9471
-0.1772 2.3080 0.9396
-0.2597 2.3033 0.9321
-0.3421 2.2956 0.9245
-0.4241 2.2850 0.9170
-0.5057 2.2713 0.9095
-0.5867 2.2547 0.9021
-0.6671 2.2352 0.8947
-0.7468 2.2128 0.8873
-0.8256 2.1876 0.8801
-0.9034 2.1594 0.8729
-0.9801 2.1285 0.8657
-2.9262 5.8065 2.3802
-3.1577 5.7520 2.3802
-3.3886 5.6884 2.3802
-3.6187 5.6154 2.3802
-3.8474 5.5331 2.3802
-4.0744 5.4414 2.3802
-4.2991 5.3402 2.3802
-4.5211 5.2294 2.3802
-4.7400 5.1091 2.3802
-4.9551 4.9793 2.3802
-5.1660 4.8401 2.3802
-5.3722 4.6915 2.3802
-5.5733 4.5337 2.3802
-5.7685 4.3667 2.3802
-5.9575 4.1908 2.3802
-6.1398 4.0062 2.3802
-6.3147 3.8131 2.3802
-6.4819 3.6118 2.3802
-6.6408 3.4026 2.3802
-6.7909 3.1858 2.3802
-6.9317 2.9619 2.3802
-7.0629 2.7312 2.3802
-7.1840 2.4942 2.3802
-7.2946 2.2513 2.3802
-7.3944 2.0031 2.3802
-7.4829 1.7501 2.3802
-7.5599 1.4929 2.3802
-7.6252 1.2320 2.3802
-7.6785 0.9680 2.3802
-7.7195 0.7015 2.3802
-7.7482 0.4332 2.3802
-7.7645 0.1637 2.3802
-7.7682 -0.1064 2.3802
-7.7594 -0.3763 2.3802
-7.7380 -0.6455 2.3802
-7.7043 -0.9134 2.3802
-7.6581 -1.1792 2.3802
-7.5998 -1.4423 2.3802
-7.5295 -1.7022 2.3802
-7.4474 -1.9582 2.3802
-7.3539 -2.2098 2.3802
-7.2491 -2.4564 2.3802
-7.1335 -2.6974 2.3802
-7.0075 -2.9324 2.3802
-6.8714 -3.1609 2.3802
-6.7256 -3.3824 2.3802
-6.5707 -3.5966 2.3802
-6.4071 -3.8030 2.3802
-6.2352 -4.0013 2.3802
-6.0556 -4.1913 2.3802
-5.8689 -4.3725 2.3802
-5.6754 -4.5448 2.3802
-5.4758 -4.7080 2.3802
-5.2705 -4.8619 2.3802
-5.0601 -5.0064 2.3802
-4.8451 -5.1413 2.3802
-4.6261 -5.2666 2.3802
-4.4035 -5.3823 2.3802
-4.1779 -5.4882 2.3802
-3.9497 -5.5845 2.3802
-3.7194 -5.6712 2.3802
-3.4876 -5.7483 2.3802
-3.2545 -5.8158 2.3802
-3.0208 -5.8740 2.3802
-2.7867 -5.9229 2.3802
-2.5528 -5.9627 2.3802
-2.3193 -5.9934 2.3802
-2.0867 -6.0154 2.3802
-1.8553 -6.0287 2.3802
-1.6254 -6.0336 2.3802
-1.3974 -6.0302 2.3802
-1.1715 -6.0187 2.3802
-0.9480 -5.9995 2.3802
-0.7272 -5.9726 2.3802
-0.5093 -5.9383 2.3802
-0.2945 -5.8969 2.3802
-0.0831 -5.8485 2.3802
0.1248 -5.7934 2.3802
0.3289 -5.7318 2.3802
0.5292 -5.6639 2.3802
0.7254 -5.5901 2.3802
0.9175 -5.5104 2.3802
1.1053 -5.4251 2.3802
1.2886 -5.3345 2.3802
1.4675 -5.2387 2.3802
1.6417 -5.1380 2.3802
1.8113 -5.0326 2.3802
1.9760 -4.9227 2.3802
2.1360 -4.8085 2.3802
2.2911 -4.6901 2.3802
2.4412 -4.5678 2.3802
2.5864 -4.4418 2.3802
2.7265 -4.3122 2.3802
2.8616 -4.1793 2.3802
2.9917 -4.0431 2.3802
3.1166 -3.9039 2.3802
3.2364 -3.7619 2.3802
3.3511 -3.6171 2.3802
3.4607 -3.4698 2.3802
3.5651 -3.3200 2.3802
3.6643 -3.1680 2.3802
3.7584 -3.0139 2.3802
3.8474 -2.8578 2.3802
3.9312 -2.6999 2.3802
4.0099 -2.5403 2.3802
4.0834 -2.3790 2.3802
4.1518 -2.2163 2.3802
4.2150 -2.0523 2.3802
4.2731 -1.8870 2.3802
4.3261 -1.7207 2.3802
4.3740 -1.5533 2.3802
4.4168 -1.3851 2.3802
4.4545 -1.2161 2.3802
4.4871 -1.0464 2.3802
4.5146 -0.8762 2.3802
4.5370 -0.7055 2.3802
4.5544 -0.5344 2.3802
4.5666 -0.3631 2.3802
4.5739 -0.1917 2.3802
4.5760 -0.0202 2.3802
4.5731 0.1512 2.3802
4.5652 0.3225 2.3802
4.5522 0.4936 2.3802
4.5341 0.6642 2.3802
4.5110 0.8345 2.3802
4.4829 1.0042 2.3802
4.4496 1.1732 2.3802
4.4114 1.3414 2.3802
4.3682 1.5088 2.3802
4.3198 1.6753 2.3802
4.2664 1.8406 2.3802
4.2080 2.0048 2.3802
4.1445 2.1676 2.3802
4.0759 2.3291 2.3802
4.0023 2.4890 2.3802
3.9236 2.6472 2.3802
3.8399 2.8037 2.3802
3.7511 2.9583 2.3802
3.6573 3.1109 2.3802
3.5585 3.2613 2.3802
3.4545 3.4094 2.3802
3.3456 3.5550 2.3802
3.2317 3.6981 2.3802
3.1127 3.8385 2.3802
2.9888 3.9759 2.3802
2.8599 4.1104 2.3802
2.7260 4.2416 2.3802
2.5872 4.3695 2.3802
2.4436 4.4939 2.3802
4.2440 -1.0216 2.3802
4.2712 -0.8601 2.3802
4.2937 -0.6982 2.3802
4.3112 -0.5358 2.3802
4.3239 -0.3732 2.3802
4.3317 -0.2104 2.3802
4.3347 -0.0476 2.3802
4.3328 0.1152 2.3802
4.3260 0.2779 2.3802
4.3144 0.4404 2.3802
4.2980 0.6025 2.3802
4.2767 0.7642 2.3802
4.2506 0.9254 2.3802
4.2195 1.0860 2.3802
4.1837 1.2457 2.3802
4.1431 1.4047 2.3802
4.0976 1.5627 2.3802
4.0473 1.7196 2.3802
3.9921 1.8754 2.3802
3.9321 2.0299 2.3802
3.8673 2.1830 2.3802
3.7976 2.3346 2.3802
3.7231 2.4845 2.3802
3.6439 2.6328 2.3802
3.5598 2.7791 2.3802
3.4709 2.9235 2.3802
3.3772 3.0657 2.3802
3.2788 3.2057 2.3802
3.1755 3.3433 2.3802
3.0676 3.4783 2.3802
2.9549 3.6107 2.3802
2.8375 3.7403 2.3802
2.7155 3.8669 2.3802
2.5888 3.9904 2.3802
2.4575 4.1107 2.3802
2.3216 4.2275 2.3802
2.1812 4.3407 2.3802
2.0364 4.4501 2.3802
0.8153 1.9682 1.0283
0.7443 1.9996 1.0220
0.6722 2.0285 1.0156
0.5991 2.0547 1.0090
0.5252 2.0783 1.0024
0.4504 2.0992 0.9957
0.3749 2.1174 0.9889
0.2988 2.1328 0.9821
0.2222 2.1455 0.9752
0.1452 2.1554 0.9682
0.0679 2.1624 0.9612
-0.0096 2.1667 0.9542
-0.0872 2.1682 0.9471
-0.1649 2.1668 0.9401
-0.2424 2.1627 0.9330
-0.3197 2.1557 0.9259
-0.3968 2.1459 0.9189
-0.4734 2.1334 0.9118
-0.5495 2.1180 0.9048
-0.6251 2.1000 0.8979
-0.6999 2.0792 0.8910
-0.7739 2.0557 0.8841
-0.8470 2.0295 0.8774
-0.9192 2.0007 0.8707
-0.9902 1.9693 0.8641
-2.9424 5.3716 2.3802
-3.1564 5.3101 2.3802
-3.3693 5.2400 2.3802
-3.5809 5.1613 2.3802
-3.7906 5.0739 2.3802
-3.9981 4.9778 2.3802
-4.2028 4.8730 2.3802
-4.4045 4.7594 2.3802
-4.6026 4.6372 2.3802
-4.7967 4.5064 2.3802
-4.9864 4.3670 2.3802
-5.1710 4.2192 2.3802
-5.3504 4.0631 2.3802
-5.5238 3.8990 2.3802
-5.6910 3.7269 2.3802
-5.8513 3.5472 2.3802
-6.0045 3.3600 2.3802
-6.1501 3.1657 2.3802
-6.2875 2.9646 2.3802
-6.4165 2.7571 2.3802
-6.5367 2.5434 2.3802
-6.6476 2.3241 2.3802
-6.7489 2.0995 2.3802
-6.8403 1.8701 2.3802
-6.9216 1.6364 2.3802
-6.9923 1.3988 2.3802
-7.0524 1.1580 2.3802
-7.1016 0.9143 2.3802
-7.1397 0.6684 2.3802
-7.1666 0.4208 2.3802
-7.1822 0.1721 2.3802
-7.1864 -0.0771 2.3802
-7.1793 -0.3263 2.3802
-7.1608 -0.5749 2.3802
-7.1310 -0.8222 2.3802
-7.0900 -1.0679 2.3802
-7.0379 -1.3111 2.3802
-6.9749 -1.5516 2.3802
-6.9012 -1.7886 2.3802
-6.8170 -2.0217 2.3802
-6.7226 -2.2504 2.3802
-6.6182 -2.4741 2.3802
-6.5043 -2.6925 2.3802
-6.3811 -2.9051 2.3802
-6.2490 -3.1115 2.3802
-6.1084 -3.3113 2.3802
-5.9597 -3.5042 2.3802
-5.8034 -3.6898 2.3802
-5.6399 -3.8679 2.3802
-5.4696 -4.0381 2.3802
-5.2931 -4.2003 2.3802
-5.1106 -4.3543 2.3802
-4.9228 -4.4999 2.3802
-4.7302 -4.6369 2.3802
-4.5330 -4.7652 2.3802
-4.3319 -4.8848 2.3802
-4.1273 -4.9955 2.3802
-3.9197 -5.0974 2.3802
-3.7094 -5.1904 2.3802
-3.4970 -5.2746 2.3802
-3.2828 -5.3500 2.3802
-3.0673 -5.4166 2.3802
-2.8508 -5.4745 2.3802
-2.6338 -5.5238 2.3802
-2.4167 -5.5646 2.3802
-2.1997 -5.5970 2.3802
-1.9833 -5.6213 2.3802
-1.7677 -5.6374 2.3802
-1.5533 -5.6456 2.3802
-1.3404 -5.6461 2.3802
-1.1292 -5.6390 2.3802
-0.9201 -5.6245 2.3802
-0.7132 -5.6027 2.3802
-0.5088 -5.5740 2.3802
-0.3071 -5.5385 2.3802
-0.1083 -5.4963 2.3802
0.0873 -5.4478 2.3802
0.2797 -5.3930 2.3802
0.4685 -5.3322 2.3802
0.6538 -5.2657 2.3802
0.8353 -5.1935 2.3802
1.0130 -5.1160 2.3802
1.1866 -5.0332 2.3802
1.3561 -4.9455 2.3802
1.5214 -4.8530 2.3802
1.6824 -4.7559 2.3802
1.8391 -4.6544 2.3802
1.9912 -4.5487 2.3802
2.1389 -4.4390 2.3802
2.2820 -4.3253 2.3802
2.4204 -4.2081 2.3802
2.5542 -4.0873 2.3802
2.6833 -3.9631 2.3802
2.8076 -3.8359 2.3802
2.9271 -3.7056 2.3802
3.0418 -3.5724 2.3802
3.1517 -3.4366 2.3802
3.2568 -3.2982 2.3802
3.3570 -3.1574 2.3802
3.4523 -3.0143 2.3802
3.5428 -2.8691 2.3802
3.6283 -2.7220 2.3802
3.7090 -2.5729 2.3802
3.7848 -2.4222 2.3802
3.8557 -2.2698 2.3802
3.9217 -2.1160 2.3802
3.9827 -1.9608 2.3802
4.0389 -1.8044 2.3802
4.0902 -1.6469 2.3802
4.1366 -1.4883 2.3802
4.1781 -1.3289 2.3802
4.2148 -1.1686 2.3802
4.2465 -1.0077 2.3802
4.2734 -0.8462 2.3802
4.2954 -0.6842 2.3802
4.3125 -0.5218 2.3802
4.3248 -0.3592 2.3802
4.3322 -0.1964 2.3802
4.3347 -0.0335 2.3802
4.3324 0.1293 2.3802
4.3252 0.2920 2.3802
4.3132 0.4544 2.3802
4.2963 0.6165 2.3802
4.2747 0.7781 2.3802
4.2481 0.9393 2.3802
4.2166 1.0998 2.3802
4.1804 1.2595 2.3802
4.1394 1.4184 2.3802
4.0934 1.5763 2.3802
4.0427 1.7331 2.3802
3.9871 1.8888 2.3802
3.9267 2.0431 2.3802
3.8614 2.1961 2.3802
3.7914 2.3476 2.3802
3.7165 2.4974 2.3802
3.6368 2.6455 2.3802
3.5523 2.7917 2.3802
3.4630 2.9358 2.3802
3.3689 3.0779 2.3802
3.2700 3.2177 2.3802
3.1664 3.3550 2.3802
3.0581 3.4899 2.3802
2.9450 3.6220 2.3802
2.8272 3.7514 2.3802
2.7047 3.8777 2.3802
2.5777 4.0010 2.3802
2.4460 4.1209 2.3802
2.3097 4.2374 2.3802
2.1689 4.3503 2.3802
2.0236 4.4594 2.3802
0.8092 1.9710 1.0278
0.7381 2.0022 1.0214
0.6659 2.0309 1.0150
0.5928 2.0569 1.0085
0.5187 2.0802 1.0018
0.4439 2.1009 0.9951
0.3684 2.1188 0.9883
0.2922 2.1340 0.9815
0.2156 2.1464 0.9746
0.1386 2.1561 0.9676
0.0612 2.1629 0.9606
-0.0163 2.1670 0.9536
-0.0939 2.1682 0.9465
-0.1716 2.1666 0.9394
-0.2491 2.1622 0.9324
-0.3264 2.1550 0.9253
-0.4034 2.1449 0.9183
-0.4800 2.1322 0.9112
-0.5561 2.1166 0.9042
-0.6315 2.0983 0.8973
-0.7063 2.0772 0.8904
-0.7803 2.0535 0.8836
-0.8533 2.0271 0.8768
-0.9254 1.9981 0.8701
-0.9963 1.9665 0.8635
-2.9609 5.3666 2.3802
-3.1748 5.3044 2.3802
-3.3877 5.2336 2.3802
-3.5990 5.1541 2.3802
-3.8086 5.0660 2.3802
-4.0158 4.9691 2.3802
-4.2204 4.8635 2.3802
-4.4218 4.7492 2.3802
-4.6195 4.6263 2.3802
-4.8133 4.4947 2.3802
-5.0025 4.3546 2.3802
-5.1867 4.2061 2.3802
-5.3656 4.0493 2.3802
-5.5385 3.8844 2.3802
-5.7051 3.7117 2.3802
-5.8648 3.5313 2.3802
-6.0174 3.3435 2.3802
-6.1623 3.1487 2.3802
-6.2990 2.9470 2.3802
-6.4273 2.7389 2.3802
-6.5466 2.5247 2.3802
-6.6567 2.3049 2.3802
-6.7572 2.0799 2.3802
-6.8477 1.8501 2.3802
-6.9281 1.6161 2.3802
-6.9979 1.3782 2.3802
-7.0571 1.1370 2.3802
-7.1053 0.8932 2.3802
-7.1424 0.6471 2.3802
-7.1684 0.3994 2.3802
-7.1830 0.1506 2.3802
-7.1863 -0.0986 2.3802
-7.1782 -0.3478 2.3802
-7.1587 -0.5963 2.3802
-7.1279 -0.8435 2.3802
-7.0859 -1.0889 2.3802
-7.0329 -1.3320 2.3802
-6.9690 -1.5722 2.3802
-6.8943 -1.8089 2.3802
-6.8092 -2.0416 2.3802
-6.7139 -2.2699 2.3802
-6.6087 -2.4932 2.3802
-6.4940 -2.7111 2.3802
-6.3700 -2.9232 2.3802
-6.2372 -3.1290 2.3802
-6.0959 -3.3282 2.3802
-5.9466 -3.5205 2.3802
-5.7896 -3.7055 2.3802
-5.6255 -3.8829 2.3802
-5.4546 -4.0524 2.3802
-5.2775 -4.2140 2.3802
-5.0946 -4.3672 2.3802
-4.9064 -4.5120 2.3802
-4.7133 -4.6483 2.3802
-4.5158 -4.7759 2.3802
-4.3144 -4.8947 2.3802
-4.1095 -5.0047 2.3802
-3.9016 -5.1058 2.3802
-3.6911 -5.1981 2.3802
-3.4786 -5.2815 2.3802
-3.2642 -5.3561 2.3802
-3.0486 -5.4219 2.3802
-2.8321 -5.4791 2.3802
-2.6151 -5.5276 2.3802
-2.3980 -5.5677 2.3802
-2.1810 -5.5995 2.3802
-1.9647 -5.6230 2.3802
-1.7492 -5.6384 2.3802
-1.5349 -5.6460 2.3802
-1.3221 -5.6458 2.3802
-1.1111 -5.6380 2.3802
-0.9021 -5.6229 2.3802
-0.6954 -5.6005 2.3802
-0.4912 -5.5712 2.3802
-0.2898 -5.5351 2.3802
-0.0913 -5.4924 2.3802
0.1040 -5.4433 2.3802
0.2961 -5.3880 2.3802
0.4847 -5.3267 2.3802
0.6696 -5.2597 2.3802
0.8508 -5.1870 2.3802
1.0281 -5.1090 2.3802
1.2014 -5.0259 2.3802
1.3705 -4.9377 2.3802
1.5355 -4.8448 2.3802
1.6961 -4.7473 2.3802
1.8523 -4.6455 2.3802
2.0041 -4.5394 2.3802
2.1514 -4.4293 2.3802
2.2941 -4.3154 2.3802
2.4321 -4.1978 2.3802
2.5655 -4.0767 2.3802
2.6941 -3.9523 2.3802
2.8181 -3.8247 2.3802
2.9372 -3.6942 2.3802
3.0515 -3.5608 2.3802
3.1610 -3.4247 2.3802
3.2656 -3.2861 2.3802
3.3654 -3.1451 2.3802
3.4603 -3.0019 2.3802
3.5504 -2.8565 2.3802
3.6355 -2.7092 2.3802
3.7157 -2.5600 2.3802
3.7911 -2.4091 2.3802
3.8616 -2.2566 2.3802
3.9271 -2.1027 2.3802
3.9878 -1.9474 2.3802
4.0435 -1.7909 2.3802
4.0944 -1.6332 2.3802
4.1404 -1.4746 2.3802
4.1815 -1.3151 2.3802
4.2177 -1.1547 2.3802
4.2490 -0.9938 2.3802
4.2755 -0.8322 2.3802
4.2970 -0.6702 2.3802
4.3137 -0.5078 2.3802
4.3256 -0.3451 2.3802
4.3326 -0.1823 2.3802
4.3347 -0.0195 2.3802
4.3320 0.1433 2.3802
4.3244 0.3060 2.3802
4.3119 0.4684 2.3802
4.2946 0.6305 2.3802
4.2725 0.7921 2.3802
4.2455 0.9532 2.3802
4.2137 1.1136 2.3802
4.1771 1.2732 2.3802
4.1356 1.4320 2.3802
4.0892 1.5898 2.3802
4.0381 1.7466 2.3802
3.9821 1.9021 2.3802
3.9212 2.0564 2.3802
3.8556 2.2093 2.3802
3.7851 2.3606 2.3802
3.7098 2.5102 2.3802
3.6297 2.6582 2.3802
3.5448 2.8042 2.3802
3.4550 2.9482 2.3802
3.3606 3.0900 2.3802
3.2613 3.2296 2.3802
3.1573 3.3668 2.3802
3.0485 3.5014 2.3802
2.9350 3.6333 2.3802
2.8168 3.7624 2.3802
2.6940 3.8885 2.3802
2.5665 4.0114 2.3802
2.4344 4.1311 2.3802
2.2977 4.2473 2.3802
4.0250 -0.9717 2.3802
4.0512 -0.8182 2.3802
4.0728 -0.6643 2.3802
4.0897 -0.5099 2.3802
4.1019 -0.3553 2.3802
4.1095 -0.2004 2.3802
4.1124 -0.0455 2.3802
4.1106 0.1093 2.3802
4.1041 0.2641 2.3802
4.0930 0.4186 2.3802
4.0773 0.5728 2.3802
4.0569 0.7266 2.3802
4.0318 0.8798 2.3802
4.0021 1.0324 2.3802
3.9677 1.1843 2.3802
3.9287 1.3353 2.3802
3.8850 1.4854 2.3802
3.8368 1.6345 2.3802
3.7840 1.7823 2.3802
3.7263 1.9290 2.3802
3.6642 2.0742 2.3802
3.5975 2.2179 2.3802
3.5261 2.3600 2.3802
3.4502 2.5004 2.3802
3.3696 2.6389 2.3802
3.2846 2.7755 2.3802
3.1949 2.9100 2.3802
3.1008 3.0422 2.3802
3.0021 3.1721 2.3802
2.8989 3.2995 2.3802
2.7913 3.4242 2.3802
2.6792 3.5462 2.3802
2.5628 3.6653 2.3802
2.4419 3.7813 2.3802
2.3168 3.8941 2.3802
2.1873 4.0036 2.3802
2.0537 4.1096 2.3802
0.8281 1.8205 1.0288
0.7624 1.8525 1.0230
0.6955 1.8821 1.0170
0.6277 1.9093 1.0110
0.5589 1.9339 1.0048
0.4893 1.9561 0.9986
0.4189 1.9758 0.9923
0.3479 1.9929 0.9859
0.2762 2.0074 0.9795
0.2041 2.0193 0.9729
0.1317 2.0286 0.9664
0.0589 2.0353 0.9598
-0.0141 2.0393 0.9532
-0.0871 2.0407 0.9465
-0.1602 2.0394 0.9399
-0.2332 2.0355 0.9332
-0.3060 2.0289 0.9266
-0.3785 2.0197 0.9200
-0.4506 2.0079 0.9133
-0.5223 1.9935 0.9068
-0.5934 1.9764 0.9002
-0.6638 1.9569 0.8937
-0.7335 1.9347 0.8873
-0.8023 1.9101 0.8809
-0.8702 1.8830 0.8746
-0.9371 1.8535 0.8684
-2.7684 5.0282 2.3802
-2.9674 4.9682 2.3802
-3.1652 4.9003 2.3802
-3.3616 4.8244 2.3802
-3.5561 4.7405 2.3802
-3.7483 4.6486 2.3802
-3.9378 4.5486 2.3802
-4.1243 4.4406 2.3802
-4.3074 4.3246 2.3802
-4.4865 4.2007 2.3802
-4.6614 4.0691 2.3802
-4.8316 3.9297 2.3802
-4.9967 3.7828 2.3802
-5.1563 3.6285 2.3802
-5.3099 3.4671 2.3802
-5.4572 3.2986 2.3802
-5.5978 3.1235 2.3802
-5.7313 2.9419 2.3802
-5.8573 2.7541 2.3802
-5.9755 2.5605 2.3802
-6.0854 2.3614 2.3802
-6.1869 2.1572 2.3802
-6.2795 1.9482 2.3802
-6.3631 1.7349 2.3802
-6.4373 1.5178 2.3802
-6.5019 1.2972 2.3802
-6.5566 1.0736 2.3802
-6.6015 0.8475 2.3802
-6.6362 0.6194 2.3802
-6.6607 0.3898 2.3802
-6.6748 0.1592 2.3802
-6.6786 -0.0719 2.3802
-6.6720 -0.3029 2.3802
-6.6550 -0.5334 2.3802
-6.6277 -0.7628 2.3802
-6.5902 -0.9906 2.3802
-6.5425 -1.2163 2.3802
-6.4849 -1.4395 2.3802
-6.4174 -1.6595 2.3802
-6.3404 -1.8761 2.3802
-6.2539 -2.0886 2.3802
-6.1584 -2.2968 2.3802
-6.0540 -2.5001 2.3802
-5.9411 -2.6981 2.3802
-5.8200 -2.8906 2.3802
-5.6910 -3.0771 2.3802
-5.5546 -3.2573 2.3802
-5.4111 -3.4310 2.3802
-5.2608 -3.5978 2.3802
-5.1042 -3.7575 2.3802
-4.9417 -3.9100 2.3802
-4.7737 -4.0549 2.3802
-4.6006 -4.1921 2.3802
-4.4229 -4.3215 2.3802
-4.2409 -4.4430 2.3802
-4.0551 -4.5565 2.3802
-3.8658 -4.6618 2.3802
-3.6737 -4.7591 2.3802
-3.4788 -4.8481 2.3802
-3.2819 -4.9290 2.3802
-3.0831 -5.0018 2.3802
-2.8828 -5.0664 2.3802
-2.6816 -5.1230 2.3802
-2.4797 -5.1716 2.3802
-2.2773 -5.2123 2.3802
-2.0750 -5.2452 2.3802
-1.8730 -5.2704 2.3802
-1.6716 -5.2881 2.3802
-1.4711 -5.2983 2.3802
-1.2718 -5.3013 2.3802
-1.0739 -5.2971 2.3802
-0.8777 -5.2859 2.3802
-0.6835 -5.2679 2.3802
-0.4915 -5.2433 2.3802
-0.3018 -5.2122 2.3802
-0.1147 -5.1748 2.3802
0.0696 -5.1314 2.3802
0.2510 -5.0820 2.3802
0.4292 -5.0269 2.3802
0.6042 -4.9662 2.3802
0.7758 -4.9001 2.3802
0.9438 -4.8289 2.3802
1.1082 -4.7527 2.3802
1.2689 -4.6717 2.3802
1.4256 -4.5860 2.3802
1.5784 -4.4959 2.3802
1.7272 -4.4015 2.3802
1.8718 -4.3030 2.3802
2.0122 -4.2006 2.3802
2.1484 -4.0945 2.3802
2.2802 -3.9847 2.3802
2.4077 -3.8715 2.3802
2.5307 -3.7551 2.3802
2.6493 -3.6355 2.3802
2.7634 -3.5130 2.3802
2.8730 -3.3877 2.3802
2.9780 -3.2597 2.3802
3.0785 -3.1292 2.3802
3.1743 -2.9963 2.3802
3.2656 -2.8612 2.3802
3.3522 -2.7240 2.3802
3.4341 -2.5848 2.3802
3.5115 -2.4438 2.3802
3.5841 -2.3010 2.3802
3.6521 -2.1567 2.3802
3.7154 -2.0109 2.3802
3.7740 -1.8637 2.3802
3.8279 -1.7153 2.3802
3.8772 -1.5657 2.3802
3.9218 -1.4152 2.3802
3.9617 -1.2637 2.3802
3.9969 -1.1114 2.3802
4.0274 -0.9585 2.3802
4.0533 -0.8050 2.3802
4.0744 -0.6510 2.3802
4.0909 -0.4966 2.3802
4.1028 -0.3419 2.3802
4.1099 -0.1871 2.3802
4.1124 -0.0322 2.3802
4.1102 0.1227 2.3802
4.1034 0.2774 2.3802
4.0919 0.4319 2.3802
4.0757 0.5861 2.3802
4.0549 0.7398 2.3802
4.0294 0.8930 2.3802
3.9993 1.0456 2.3802
3.9645 1.1974 2.3802
3.9251 1.3483 2.3802
3.8811 1.4983 2.3802
3.8324 1.6473 2.3802
3.7791 1.7951 2.3802
3.7212 1.9415 2.3802
3.6586 2.0866 2.3802
3.5915 2.2302 2.3802
3.5197 2.3722 2.3802
3.4434 2.5124 2.3802
3.3625 2.6508 2.3802
3.2770 2.7872 2.3802
3.1870 2.9215 2.3802
3.0924 3.0535 2.3802
2.9934 3.1832 2.3802
2.8898 3.3103 2.3802
2.7818 3.4349 2.3802
2.6694 3.5566 2.3802
2.5525 3.6754 2.3802
2.4313 3.7912 2.3802
2.3058 3.9037 2.3802
2.1760 4.0129 2.3802
2.0419 4.1185 2.3802
0.8225 1.8233 1.0283
0.7566 1.8551 1.0224
0.6897 1.8845 1.0165
0.6218 1.9115 1.0104
0.5530 1.9360 1.0043
0.4832 1.9579 0.9981
0.4128 1.9774 0.9917
0.3417 1.9942 0.9853
0.2700 2.0085 0.9789
0.1979 2.0202 0.9724
0.1254 2.0293 0.9658
0.0526 2.0357 0.9592
-0.0204 2.0395 0.9526
-0.0935 2.0407 0.9460
-0.1665 2.0391 0.9393
-0.2395 2.0350 0.9327
-0.3123 2.0282 0.9260
-0.3847 2.0188 0.9194
-0.4568 2.0067 0.9128
-0.5284 1.9921 0.9062
-0.5995 1.9749 0.8996
-0.6698 1.9551 0.8932
-0.7394 1.9327 0.8867
-0.8082 1.9079 0.8803
-0.8760 1.8806 0.8741
-0.9428 1.8508 0.8678
-2.7856 5.0233 2.3802
-2.9845 4.9627 2.3802
-3.1823 4.8941 2.3802
-3.3785 4.8175 2.3802
-3.5728 4.7329 2.3802
-3.7648 4.6403 2.3802
-3.9541 4.5396 2.3802
-4.1403 4.4309 2.3802
-4.3230 4.3142 2.3802
-4.5018 4.1897 2.3802
-4.6763 4.0573 2.3802
-4.8461 3.9173 2.3802
-5.0107 3.7698 2.3802
-5.1698 3.6149 2.3802
-5.3229 3.4528 2.3802
-5.4697 3.2838 2.3802
-5.6096 3.1081 2.3802
-5.7425 2.9259 2.3802
-5.8678 2.7376 2.3802
-5.9853 2.5435 2.3802
-6.0945 2.3440 2.3802
-6.1952 2.1393 2.3802
-6.2871 1.9300 2.3802
-6.3699 1.7164 2.3802
-6.4432 1.4989 2.3802
-6.5070 1.2780 2.3802
-6.5609 1.0541 2.3802
-6.6049 0.8279 2.3802
-6.6387 0.5996 2.3802
-6.6623 0.3699 2.3802
-6.6755 0.1393 2.3802
-6.6784 -0.0918 2.3802
-6.6709 -0.3228 2.3802
-6.6531 -0.5532 2.3802
-6.6249 -0.7825 2.3802
-6.5865 -1.0102 2.3802
-6.5379 -1.2357 2.3802
-6.4794 -1.4586 2.3802
-6.4111 -1.6784 2.3802
-6.3333 -1.8946 2.3802
-6.2460 -2.1068 2.3802
-6.1497 -2.3145 2.3802
-6.0446 -2.5174 2.3802
-5.9309 -2.7150 2.3802
-5.8092 -2.9069 2.3802
-5.6796 -3.0929 2.3802
-5.5425 -3.2726 2.3802
-5.3983 -3.4457 2.3802
-5.2475 -3.6119 2.3802
-5.0904 -3.7710 2.3802
-4.9274 -3.9228 2.3802
-4.7589 -4.0670 2.3802
-4.5854 -4.2036 2.3802
-4.4073 -4.3323 2.3802
-4.2250 -4.4531 2.3802
-4.0389 -4.5659 2.3802
-3.8494 -4.6705 2.3802
-3.6569 -4.7671 2.3802
-3.4619 -4.8554 2.3802
-3.2648 -4.9356 2.3802
-3.0658 -5.0077 2.3802
-2.8655 -5.0716 2.3802
-2.6642 -5.1275 2.3802
-2.4622 -5.1754 2.3802
-2.2599 -5.2155 2.3802
-2.0576 -5.2477 2.3802
-1.8556 -5.2723 2.3802
-1.6542 -5.2893 2.3802
-1.4538 -5.2989 2.3802
-1.2546 -5.3012 2.3802
-1.0569 -5.2964 2.3802
-0.8609 -5.2846 2.3802
-0.6668 -5.2660 2.3802
-0.4750 -5.2409 2.3802
-0.2855 -5.2092 2.3802
-0.0987 -5.1713 2.3802
0.0854 -5.1273 2.3802
0.2665 -5.0774 2.3802
0.4444 -5.0218 2.3802
0.6192 -4.9607 2.3802
0.7905 -4.8942 2.3802
0.9582 -4.8225 2.3802
1.1222 -4.7459 2.3802
1.2825 -4.6645 2.3802
1.4390 -4.5784 2.3802
1.5914 -4.4879 2.3802
1.7398 -4.3932 2.3802
1.8841 -4.2944 2.3802
2.0241 -4.1916 2.3802
2.1599 -4.0851 2.3802
2.2914 -3.9751 2.3802
2.4185 -3.8616 2.3802
2.5411 -3.7449 2.3802
2.6594 -3.6251 2.3802
2.7731 -3.5023 2.3802
2.8823 -3.3767 2.3802
2.9869 -3.2485 2.3802
3.0869 -3.1178 2.3802
3.1824 -2.9847 2.3802
3.2732 -2.8494 2.3802
3.3594 -2.7121 2.3802
3.4410 -2.5727 2.3802
3.5179 -2.4315 2.3802
3.5901 -2.2886 2.3802
3.6577 -2.1441 2.3802
3.7206 -1.9982 2.3802
3.7788 -1.8509 2.3802
3.8324 -1.7024 2.3802
3.8812 -1.5528 2.3802
3.9254 -1.4021 2.3802
3.9649 -1.2506 2.3802
3.9997 -1.0983 2.3802
4.0298 -0.9453 2.3802
4.0553 -0.7917 2.3802
4.0760 -0.6376 2.3802
4.0921 -0.4832 2.3802
4.1036 -0.3286 2.3802
4.1103 -0.1737 2.3802
4.1124 -0.0188 2.3802
4.1098 0.1360 2.3802
4.1026 0.2908 2.3802
4.0907 0.4452 2.3802
4.0741 0.5994 2.3802
4.0529 0.7531 2.3802
4.0270 0.9062 2.3802
3.9965 1.0587 2.3802
3.9613 1.2104 2.3802
3.9215 1.3613 2.3802
3.8770 1.5112 2.3802
3.8280 1.6601 2.3802
3.7743 1.8077 2.3802
3.7159 1.9541 2.3802
3.6530 2.0991 2.3802
3.5855 2.2426 2.3802
3.5133 2.3844 2.3802
3.4366 2.5245 2.3802
3.3553 2.6627 2.3802
3.2694 2.7989 2.3802
3.1790 2.9330 2.3802
3.0840 3.0648 2.3802
2.9846 3.1942 2.3802
2.8807 3.3212 2.3802
2.7723 3.4455 2.3802
2.6595 3.5670 2.3802
2.5422 3.6855 2.3802
2.4207 3.8010 2.3802
2.2948 3.9133 2.3802
2.1646 4.0221 2.3802
3.8225 -0.9256 2.3802
3.8478 -0.7795 2.3802
3.8685 -0.6329 2.3802
3.8848 -0.4859 2.3802
3.8966 -0.3387 2.3802
3.9039 -0.1912 2.3802
3.9067 -0.0437 2.3802
3.9050 0.1039 2.3802
3.8989 0.2513 2.3802
3.8882 0.3984 2.3802
3.8731 0.5453 2.3802
3.8535 0.6917 2.3802
3.8295 0.8377 2.3802
3.8009 0.9829 2.3802
3.7679 1.1275 2.3802
3.7306 1.2712 2.3802
3.6886 1.4140 2.3802
3.6423 1.5558 2.3802
3.5915 1.6964 2.3802
3.5363 1.8357 2.3802
3.4767 1.9737 2.3802
3.4127 2.1102 2.3802
3.3442 2.2451 2.3802
3.2714 2.3783 2.3802
3.1943 2.5097 2.3802
3.1128 2.6391 2.3802
3.0270 2.7664 2.3802
2.9368 2.8916 2.3802
2.8424 3.0144 2.3802
2.7437 3.1348 2.3802
2.6408 3.2526 2.3802
2.5337 3.3677 2.3802
2.4224 3.4800 2.3802
2.3071 3.5892 2.3802
2.1876 3.6954 2.3802
2.0641 3.7982 2.3802
1.9367 3.8976 2.3802
0.7764 1.7174 1.0236
0.7144 1.7476 1.0181
0.6514 1.7755 1.0125
0.5874 1.8011 1.0068
0.5225 1.8244 1.0010
0.4568 1.8454 0.9951
0.3904 1.8639 0.9892
0.3233 1.8800 0.9831
0.2558 1.8937 0.9771
0.1877 1.9049 0.9709
0.1194 1.9137 0.9647
0.0507 1.9200 0.9585
-0.0181 1.9237 0.9523
-0.0871 1.9250 0.9460
-0.1560 1.9238 0.9397
-0.2248 1.9201 0.9335
-0.2935 1.9139 0.9272
-0.3619 1.9053 0.9209
-0.4300 1.8941 0.9147
-0.4976 1.8805 0.9085
-0.5646 1.8644 0.9023
-0.6311 1.8460 0.8962
-0.6968 1.8251 0.8901
-0.7617 1.8019 0.8841
-0.8258 1.7763 0.8781
-0.8889 1.7484 0.8723
-0.9510 1.7183 0.8665
-2.7979 4.6618 2.3802
-2.9824 4.5961 2.3802
-3.1654 4.5230 2.3802
-3.3464 4.4424 2.3802
-3.5252 4.3544 2.3802
-3.7013 4.2590 2.3802
-3.8745 4.1562 2.3802
-4.0443 4.0460 2.3802
-4.2104 3.9286 2.3802
-4.3724 3.8040 2.3802
-4.5299 3.6724 2.3802
-4.6826 3.5338 2.3802
-4.8301 3.3885 2.3802
-4.9720 3.2366 2.3802
-5.1079 3.0784 2.3802
-5.2376 2.9140 2.3802
-5.3607 2.7437 2.3802
-5.4767 2.5679 2.3802
-5.5855 2.3867 2.3802
-5.6867 2.2005 2.3802
-5.7800 2.0097 2.3802
-5.8651 1.8147 2.3802
-5.9419 1.6156 2.3802
-6.0100 1.4131 2.3802
-6.0693 1.2075 2.3802
-6.1196 0.9991 2.3802
-6.1607 0.7885 2.3802
-6.1924 0.5762 2.3802
-6.2148 0.3624 2.3802
-6.2278 0.1478 2.3802
-6.2311 -0.0673 2.3802
-6.2250 -0.2823 2.3802
-6.2094 -0.4969 2.3802
-6.1842 -0.7104 2.3802
-6.1497 -0.9225 2.3802
-6.1058 -1.1327 2.3802
-6.0528 -1.3406 2.3802
-5.9907 -1.5457 2.3802
-5.9198 -1.7476 2.3802
-5.8403 -1.9459 2.3802
-5.7524 -2.1402 2.3802
-5.6562 -2.3301 2.3802
-5.5522 -2.5152 2.3802
-5.4407 -2.6953 2.3802
-5.3218 -2.8699 2.3802
-5.1959 -3.0388 2.3802
-5.0635 -3.2018 2.3802
-4.9247 -3.3585 2.3802
-4.7800 -3.5087 2.3802
-4.6298 -3.6522 2.3802
-4.4744 -3.7889 2.3802
-4.3141 -3.9185 2.3802
-4.1495 -4.0409 2.3802
-3.9808 -4.1561 2.3802
-3.8084 -4.2639 2.3802
-3.6327 -4.3642 2.3802
-3.4540 -4.4570 2.3802
-3.2729 -4.5423 2.3802
-3.0895 -4.6200 2.3802
-2.9043 -4.6901 2.3802
-2.7177 -4.7528 2.3802
-2.5299 -4.8079 2.3802
-2.3412 -4.8556 2.3802
-2.1522 -4.8959 2.3802
-1.9629 -4.9289 2.3802
-1.7737 -4.9547 2.3802
-1.5850 -4.9735 2.3802
-1.3969 -4.9852 2.3802
-1.2098 -4.9901 2.3802
-1.0239 -4.9883 2.3802
-0.8395 -4.9798 2.3802
-0.6567 -4.9650 2.3802
-0.4758 -4.9438 2.3802
-0.2970 -4.9165 2.3802
-0.1205 -4.8832 2.3802
0.0535 -4.8441 2.3802
0.2249 -4.7994 2.3802
0.3934 -4.7492 2.3802
0.5591 -4.6936 2.3802
0.7216 -4.6329 2.3802
0.8808 -4.5673 2.3802
1.0368 -4.4968 2.3802
1.1892 -4.4217 2.3802
1.3381 -4.3421 2.3802
1.4833 -4.2582 2.3802
1.6248 -4.1702 2.3802
1.7624 -4.0782 2.3802
1.8962 -3.9824 2.3802
2.0259 -3.8829 2.3802
2.1516 -3.7799 2.3802
2.2732 -3.6736 2.3802
2.3907 -3.5641 2.3802
2.5040 -3.4515 2.3802
2.6130 -3.3360 2.3802
2.7178 -3.2178 2.3802
2.8183 -3.0970 2.3802
2.9144 -2.9737 2.3802
3.0062 -2.8480 2.3802
3.0935 -2.7202 2.3802
3.1765 -2.5902 2.3802
3.2551 -2.4583 2.3802
3.3292 -2.3246 2.3802
3.3989 -2.1892 2.3802
3.4642 -2.0522 2.3802
3.5249 -1.9138 2.3802
3.5812 -1.7739 2.3802
3.6331 -1.6329 2.3802
3.6804 -1.4907 2.3802
3.7232 -1.3476 2.3802
3.7616 -1.2035 2.3802
3.7955 -1.0586 2.3802
3.8248 -0.9130 2.3802
3.8497 -0.7669 2.3802
3.8701 -0.6202 2.3802
3.8860 -0.4732 2.3802
3.8974 -0.3259 2.3802
3.9043 -0.1785 2.3802
3.9067 -0.0309 2.3802
3.9047 0.1166 2.3802
3.8981 0.2640 2.3802
3.8871 0.4111 2.3802
3.8716 0.5580 2.3802
3.8516 0.7044 2.3802
3.8272 0.8502 2.3802
3.7983 0.9955 2.3802
3.7649 1.1399 2.3802
3.7271 1.2836 2.3802
3.6848 1.4263 2.3802
3.6381 1.5680 2.3802
3.5869 1.7085 2.3802
3.5313 1.8477 2.3802
3.4713 1.9856 2.3802
3.4069 2.1219 2.3802
3.3381 2.2567 2.3802
3.2650 2.3897 2.3802
3.1874 2.5209 2.3802
3.1056 2.6502 2.3802
3.0193 2.7773 2.3802
2.9288 2.9023 2.3802
2.8340 3.0249 2.3802
2.7350 3.1451 2.3802
2.6317 3.2627 2.3802
2.5242 3.3775 2.3802
2.4126 3.4895 2.3802
2.2969 3.5985 2.3802
2.1771 3.7044 2.3802
2.0533 3.8069 2.3802
0.8321 1.6879 1.0285
0.7711 1.7201 1.0231
0.7090 1.7501 1.0176
0.6459 1.7778 1.0120
0.5818 1.8032 1.0063
0.5168 1.8263 1.0005
0.4511 1.8470 0.9946
0.3846 1.8654 0.9887
0.3175 1.8813 0.9826
0.2499 1.8948 0.9765
0.1819 1.9058 0.9704
0.1134 1.9143 0.9642
0.0448 1.9204 0.9580
-0.0241 1.9240 0.9517
-0.0930 1.9250 0.9455
-0.1620 1.9236 0.9392
-0.2308 1.9197 0.9329
-0.2994 1.9133 0.9267
-0.3678 1.9044 0.9204
-0.4358 1.8930 0.9142
-0.5034 1.8792 0.9079
-0.5704 1.8629 0.9018
-0.6368 1.8443 0.8956
-0.7024 1.8232 0.8896
-0.7673 1.7998 0.8836
-0.8313 1.7740 0.8776
-0.8943 1.7459 0.8718
-0.9563 1.7156 0.8660
-2.8139 4.6564 2.3802
-2.9983 4.5901 2.3802
-3.1811 4.5163 2.3802
-3.3619 4.4351 2.3802
-3.5405 4.3465 2.3802
-3.7164 4.2504 2.3802
-3.8893 4.1470 2.3802
-4.0588 4.0362 2.3802
-4.2245 3.9181 2.3802
-4.3861 3.7929 2.3802
-4.5433 3.6607 2.3802
-4.6955 3.5215 2.3802
-4.8426 3.3756 2.3802
-4.9840 3.2232 2.3802
-5.1194 3.0644 2.3802
-5.2485 2.8995 2.3802
-5.3709 2.7288 2.3802
-5.4864 2.5524 2.3802
-5.5945 2.3708 2.3802
-5.6950 2.1843 2.3802
-5.7877 1.9931 2.3802
-5.8721 1.7976 2.3802
-5.9481 1.5983 2.3802
-6.0155 1.3955 2.3802
-6.0740 1.1896 2.3802
-6.1235 0.9811 2.3802
-6.1638 0.7703 2.3802
-6.1948 0.5578 2.3802
-6.2163 0.3439 2.3802
-6.2284 0.1292 2.3802
-6.2310 -0.0859 2.3802
-6.2240 -0.3009 2.3802
-6.2076 -0.5153 2.3802
-6.1816 -0.7288 2.3802
-6.1463 -0.9407 2.3802
-6.1016 -1.1508 2.3802
-6.0478 -1.3584 2.3802
-5.9850 -1.5633 2.3802
-5.9133 -1.7649 2.3802
-5.8330 -1.9628 2.3802
-5.7444 -2.1568 2.3802
-5.6476 -2.3463 2.3802
-5.5429 -2.5310 2.3802
-5.4307 -2.7106 2.3802
-5.3112 -2.8847 2.3802
-5.1848 -3.0531 2.3802
-5.0518 -3.2155 2.3802
-4.9125 -3.3717 2.3802
-4.7673 -3.5213 2.3802
-4.6166 -3.6643 2.3802
-4.4607 -3.8003 2.3802
-4.3001 -3.9293 2.3802
-4.1351 -4.0512 2.3802
-3.9660 -4.1657 2.3802
-3.7933 -4.2728 2.3802
-3.6174 -4.3725 2.3802
-3.4385 -4.4647 2.3802
-3.2571 -4.5493 2.3802
-3.0736 -4.6263 2.3802
-2.8883 -4.6958 2.3802
-2.7015 -4.7578 2.3802
-2.5136 -4.8123 2.3802
-2.3249 -4.8594 2.3802
-2.1358 -4.8990 2.3802
-1.9465 -4.9314 2.3802
-1.7574 -4.9566 2.3802
-1.5687 -4.9748 2.3802
-1.3807 -4.9859 2.3802
-1.1937 -4.9902 2.3802
-1.0079 -4.9878 2.3802
-0.8236 -4.9788 2.3802
-0.6410 -4.9634 2.3802
-0.4603 -4.9417 2.3802
-0.2817 -4.9139 2.3802
-0.1054 -4.8801 2.3802
0.0684 -4.8405 2.3802
0.2395 -4.7953 2.3802
0.4079 -4.7446 2.3802
0.5732 -4.6886 2.3802
0.7354 -4.6275 2.3802
0.8944 -4.5614 2.3802
1.0501 -4.4905 2.3802
1.2022 -4.4150 2.3802
1.3508 -4.3350 2.3802
1.4957 -4.2508 2.3802
1.6368 -4.1624 2.3802
1.7742 -4.0701 2.3802
1.9075 -3.9739 2.3802
2.0369 -3.8741 2.3802
2.1623 -3.7709 2.3802
2.2835 -3.6642 2.3802
2.4006 -3.5545 2.3802
2.5135 -3.4416 2.3802
2.6222 -3.3259 2.3802
2.7266 -3.2075 2.3802
2.8267 -3.0864 2.3802
2.9225 -2.9629 2.3802
3.0138 -2.8371 2.3802
3.1009 -2.7090 2.3802
3.1835 -2.5789 2.3802
3.2617 -2.4469 2.3802
3.3354 -2.3130 2.3802
3.4047 -2.1775 2.3802
3.4696 -2.0403 2.3802
3.5300 -1.9017 2.3802
3.5859 -1.7618 2.3802
3.6373 -1.6207 2.3802
3.6843 -1.4784 2.3802
3.7267 -1.3352 2.3802
3.7647 -1.1910 2.3802
3.7982 -1.0461 2.3802
3.8272 -0.9004 2.3802
3.8517 -0.7542 2.3802
3.8716 -0.6076 2.3802
3.8872 -0.4605 2.3802
3.8982 -0.3132 2.3802
3.9047 -0.1657 2.3802
3.9067 -0.0182 2.3802
3.9043 0.1293 2.3802
3.8974 0.2766 2.3802
3.8860 0.4238 2.3802
3.8701 0.5706 2.3802
3.8497 0.7170 2.3802
3.8249 0.8628 2.3802
3.7956 1.0080 2.3802
3.7618 1.1524 2.3802
3.7236 1.2960 2.3802
3.6809 1.4386 2.3802
3.6338 1.5801 2.3802
3.5823 1.7205 2.3802
3.5263 1.8596 2.3802
3.4660 1.9974 2.3802
3.4012 2.1336 2.3802
3.3320 2.2682 2.3802
3.2585 2.4011 2.3802
3.1805 2.5322 2.3802
3.0983 2.6612 2.3802
3.0117 2.7882 2.3802
2.9208 2.9130 2.3802
2.8256 3.0354 2.3802
2.7262 3.1553 2.3802
2.6226 3.2727 2.3802
2.5148 3.3873 2.3802
2.4028 3.4990 2.3802
2.2867 3.6078 2.3802
2.1666 3.7133 2.3802
2.0424 3.8156 2.3802
3.6345 -0.8828 2.3802
3.6589 -0.7436 2.3802
3.6789 -0.6038 2.3802
3.6946 -0.4637 2.3802
3.7059 -0.3232 2.3802
3.7130 -0.1826 2.3802
3.7157 -0.0419 2.3802
3.7141 0.0988 2.3802
3.7082 0.2394 2.3802
3.6981 0.3797 2.3802
3.6835 0.5198 2.3802
3.6647 0.6594 2.3802
3.6416 0.7985 2.3802
3.6142 0.9370 2.3802
3.5825 1.0748 2.3802
3.5466 1.2117 2.3802
3.5063 1.3478 2.3802
3.4618 1.4828 2.3802
3.4131 1.6167 2.3802
3.3601 1.7493 2.3802
3.3028 1.8806 2.3802
3.2414 2.0104 2.3802
3.1757 2.1386 2.3802
3.1059 2.2652 2.3802
3.0319 2.3899 2.3802
2.9537 2.5129 2.3802
2.8715 2.6336 2.3802
2.7851 2.7523 2.3802
2.6947 2.8687 2.3802
2.6002 2.9826 2.3802
2.5017 3.0941 2.3802
2.3992 3.2029 2.3802
2.2929 3.3089 2.3802
2.1826 3.4120 2.3802
2.0685 3.5120 2.3802
1.9506 3.6089 2.3802
0.7868 1.5928 1.0240
0.7293 1.6234 1.0189
0.6707 1.6520 1.0137
0.6111 1.6783 1.0084
0.5506 1.7026 1.0030
0.4892 1.7246 0.9975
0.4271 1.7443 0.9920
0.3643 1.7619 0.9863
0.3010 1.7771 0.9806
0.2371 1.7900 0.9749
0.1728 1.8006 0.9691
0.1081 1.8089 0.9632
0.0432 1.8148 0.9574
-0.0218 1.8184 0.9515
-0.0870 1.8196 0.9455
-0.1522 1.8185 0.9396
-0.2172 1.8150 0.9337
-0.2822 1.8091 0.9277
-0.3468 1.8009 0.9218
-0.4111 1.7904 0.9159
-0.4750 1.7775 0.9101
-0.5384 1.7623 0.9042
-0.6012 1.7449 0.8984
-0.6634 1.7252 0.8927
-0.7248 1.7032 0.8870
-0.7853 1.6790 0.8814
-0.8450 1.6527 0.8758
-0.9036 1.6242 0.8704
-0.9612 1.5936 0.8650
-2.8176 4.3217 2.3802
-2.9886 4.2513 2.3802
-3.1576 4.1740 2.3802
-3.3244 4.0898 2.3802
-3.4887 3.9987 2.3802
-3.6500 3.9008 2.3802
-3.8081 3.7960 2.3802
-3.9627 3.6845 2.3802
-4.1133 3.5665 2.3802
-4.2597 3.4419 2.3802
-4.4015 3.3109 2.3802
-4.5383 3.1738 2.3802
-4.6699 3.0306 2.3802
-4.7959 2.8816 2.3802
-4.9160 2.7269 2.3802
-5.0299 2.5669 2.3802
-5.1373 2.4018 2.3802
-5.2379 2.2318 2.3802
-5.3314 2.0572 2.3802
-5.4176 1.8784 2.3802
-5.4962 1.6957 2.3802
-5.5671 1.5095 2.3802
-5.6299 1.3200 2.3802
-5.6846 1.1277 2.3802
-5.7309 0.9330 2.3802
-5.7688 0.7362 2.3802
-5.7980 0.5377 2.3802
-5.8186 0.3381 2.3802
-5.8305 0.1376 2.3802
-5.8335 -0.0632 2.3802
-5.8278 -0.2641 2.3802
-5.8133 -0.4644 2.3802
-5.7900 -0.6639 2.3802
-5.7581 -0.8620 2.3802
-5.7176 -1.0584 2.3802
-5.6686 -1.2527 2.3802
-5.6112 -1.4445 2.3802
-5.5457 -1.6333 2.3802
-5.4722 -1.8189 2.3802
-5.3909 -2.0008 2.3802
-5.3020 -2.1787 2.3802
-5.2058 -2.3523 2.3802
-5.1025 -2.5212 2.3802
-4.9925 -2.6851 2.3802
-4.8759 -2.8438 2.3802
-4.7531 -2.9971 2.3802
-4.6245 -3.1446 2.3802
-4.4903 -3.2862 2.3802
-4.3508 -3.4216 2.3802
-4.2065 -3.5508 2.3802
-4.0576 -3.6734 2.3802
-3.9044 -3.7895 2.3802
-3.7474 -3.8988 2.3802
-3.5869 -4.0013 2.3802
-3.4232 -4.0969 2.3802
-3.2566 -4.1855 2.3802
-3.0876 -4.2671 2.3802
-2.9163 -4.3417 2.3802
-2.7433 -4.4093 2.3802
-2.5687 -4.4699 2.3802
-2.3929 -4.5235 2.3802
-2.2163 -4.5701 2.3802
-2.0390 -4.6098 2.3802
-1.8614 -4.6427 2.3802
-1.6838 -4.6689 2.3802
-1.5065 -4.6883 2.3802
-1.3297 -4.7012 2.3802
-1.1536 -4.7077 2.3802
-0.9785 -4.7077 2.3802
-0.8047 -4.7016 2.3802
-0.6323 -4.6893 2.3802
-0.4615 -4.6711 2.3802
-0.2927 -4.6470 2.3802
-0.1258 -4.6173 2.3802
0.0388 -4.5820 2.3802
0.2011 -4.5413 2.3802
0.3608 -4.4953 2.3802
0.5178 -4.4443 2.3802
0.6719 -4.3883 2.3802
0.8231 -4.3276 2.3802
0.9712 -4.2622 2.3802
1.1162 -4.1924 2.3802
1.2578 -4.1182 2.3802
1.3960 -4.0399 2.3802
1.5307 -3.9576 2.3802
1.6619 -3.8714 2.3802
1.7894 -3.7815 2.3802
1.9132 -3.6881 2.3802
2.0332 -3.5912 2.3802
2.1493 -3.4911 2.3802
2.2616 -3.3879 2.3802
2.3699 -3.2817 2.3802
2.4742 -3.1727 2.3802
2.5744 -3.0609 2.3802
2.6706 -2.9466 2.3802
2.7627 -2.8299 2.3802
2.8506 -2.7109 2.3802
2.9344 -2.5897 2.3802
3.0140 -2.4664 2.3802
3.0893 -2.3413 2.3802
3.1605 -2.2143 2.3802
3.2274 -2.0856 2.3802
3.2900 -1.9554 2.3802
3.3484 -1.8238 2.3802
3.4025 -1.6908 2.3802
3.4523 -1.5565 2.3802
3.4978 -1.4212 2.3802
3.5390 -1.2848 2.3802
3.5759 -1.1476 2.3802
3.6085 -1.0095 2.3802
3.6368 -0.8708 2.3802
3.6608 -0.7315 2.3802
3.6804 -0.5917 2.3802
3.6957 -0.4515 2.3802
3.7067 -0.3111 2.3802
3.7134 -0.1705 2.3802
3.7157 -0.0298 2.3802
3.7138 0.1109 2.3802
3.7075 0.2515 2.3802
3.6970 0.3918 2.3802
3.6821 0.5318 2.3802
3.6629 0.6714 2.3802
3.6394 0.8105 2.3802
3.6116 0.9489 2.3802
3.5796 1.0866 2.3802
3.5433 1.2235 2.3802
3.5026 1.3595 2.3802
3.4578 1.4944 2.3802
3.4087 1.6282 2.3802
3.3553 1.7607 2.3802
3.2977 1.8918 2.3802
3.2359 2.0215 2.3802
3.1699 2.1496 2.3802
3.0997 2.2760 2.3802
3.0254 2.4006 2.3802
2.9468 2.5233 2.3802
2.8642 2.6439 2.3802
2.7775 2.7624 2.3802
2.6867 2.8786 2.3802
2.5919 2.9924 2.3802
2.4930 3.1036 2.3802
2.3902 3.2122 2.3802
2.2835 3.3179 2.3802
2.1729 3.4208 2.3802
2.0585 3.5205 2.3802
1.9402 3.6171 2.3802
0.7819 1.5955 1.0236
0.7243 1.6260 1.0184
0.6656 1.6543 1.0132
0.6059 1.6805 1.0079
0.5453 1.7045 1.0025
0.4839 1.7264 0.9970
0.4217 1.7459 0.9915
0.3589 1.7633 0.9858
0.2955 1.7783 0.9801
0.2316 1.7910 0.9744
0.1672 1.8014 0.9686
0.1026 1.8095 0.9627
0.0376 1.8152 0.9569
-0.0275 1.8186 0.9510
-0.0926 1.8196 0.9450
-0.1578 1.8183 0.9391
-0.2228 1.8146 0.9332
-0.2877 1.8085 0.9272
-0.3524 1.8001 0.9213
-0.4167 1.7893 0.9154
-0.4805 1.7763 0.9095
-0.5439 1.7609 0.9037
-0.6066 1.7433 0.8979
-0.6687 1.7233 0.8922
-0.7300 1.7012 0.8865
-0.7905 1.6768 0.8809
-0.8501 1.6503 0.8754
-0.9086 1.6216 0.8699
-0.9661 1.5909 0.8645
-2.8324 4.3159 2.3802
-3.0032 4.2449 2.3802
-3.1721 4.1670 2.3802
-3.3387 4.0822 2.3802
-3.5027 3.9905 2.3802
-3.6638 3.8920 2.3802
-3.8216 3.7867 2.3802
-3.9759 3.6746 2.3802
-4.1261 3.5560 2.3802
-4.2721 3.4308 2.3802
-4.4135 3.2993 2.3802
-4.5499 3.1617 2.3802
-4.6810 3.0180 2.3802
-4.8065 2.8684 2.3802
-4.9261 2.7133 2.3802
-5.0394 2.5529 2.3802
-5.1462 2.3873 2.3802
-5.2462 2.2169 2.3802
-5.3391 2.0420 2.3802
-5.4247 1.8628 2.3802
-5.5026 1.6798 2.3802
-5.5728 1.4933 2.3802
-5.6349 1.3035 2.3802
-5.6889 1.1110 2.3802
-5.7345 0.9161 2.3802
-5.7716 0.7191 2.3802
-5.8001 0.5206 2.3802
-5.8200 0.3208 2.3802
-5.8311 0.1203 2.3802
-5.8334 -0.0806 2.3802
-5.8269 -0.2814 2.3802
-5.8116 -0.4817 2.3802
-5.7876 -0.6810 2.3802
-5.7550 -0.8790 2.3802
-5.7137 -1.0753 2.3802
-5.6640 -1.2694 2.3802
-5.6059 -1.4609 2.3802
-5.5397 -1.6495 2.3802
-5.4655 -1.8347 2.3802
-5.3835 -2.0163 2.3802
-5.2940 -2.1938 2.3802
-5.1972 -2.3670 2.3802
-5.0933 -2.5355 2.3802
-4.9827 -2.6990 2.3802
-4.8656 -2.8573 2.3802
-4.7423 -3.0101 2.3802
-4.6131 -3.1571 2.3802
-4.4784 -3.2981 2.3802
-4.3386 -3.4330 2.3802
-4.1938 -3.5616 2.3802
-4.0445 -3.6837 2.3802
-3.8910 -3.7992 2.3802
-3.7337 -3.9079 2.3802
-3.5729 -4.0098 2.3802
-3.4089 -4.1048 2.3802
-3.2421 -4.1928 2.3802
-3.0729 -4.2738 2.3802
-2.9015 -4.3478 2.3802
-2.7283 -4.4148 2.3802
-2.5536 -4.4748 2.3802
-2.3777 -4.5278 2.3802
-2.2010 -4.5738 2.3802
-2.0237 -4.6130 2.3802
-1.8461 -4.6453 2.3802
-1.6685 -4.6708 2.3802
-1.4912 -4.6897 2.3802
-1.3144 -4.7020 2.3802
-1.1384 -4.7079 2.3802
-0.9635 -4.7075 2.3802
-0.7897 -4.7008 2.3802
-0.6175 -4.6880 2.3802
-0.4469 -4.6692 2.3802
-0.2782 -4.6447 2.3802
