ply
format ascii 1.0
element vertex 2170
property float32 x
property float32 y
property float32 z
end_header
4.5614 -4.4847 2.3914
4.7082 -4.3063 2.3913
4.8484 -4.1234 2.3912
4.9820 -3.9362 2.3911
5.1089 -3.7450 2.3910
5.2289 -3.5500 2.3910
5.3420 -3.3515 2.3909
5.4480 -3.1496 2.3908
5.5469 -2.9446 2.3907
5.6387 -2.7368 2.3906
5.7232 -2.5264 2.3906
5.8005 -2.3136 2.3905
5.8704 -2.0986 2.3904
5.9329 -1.8818 2.3903
5.9880 -1.6633 2.3902
6.0357 -1.4434 2.3902
6.0759 -1.2223 2.3901
6.1087 -1.0003 2.3900
6.1339 -0.7775 2.3899
6.1517 -0.5542 2.3899
6.1620 -0.3307 2.3898
6.1648 -0.1071 2.3897
6.1601 0.1163 2.3896
6.1480 0.3393 2.3896
6.1284 0.5616 2.3895
6.1015 0.7830 2.3894
6.0672 1.0033 2.3894
6.0256 1.2223 2.3893
5.9767 1.4398 2.3892
5.9206 1.6555 2.3892
5.8573 1.8692 2.3891
5.7870 2.0807 2.3890
5.7095 2.2899 2.3890
5.6337 2.5001 2.3926
5.5508 2.7082 2.3962
5.4528 2.9096 2.3963
5.3481 3.1078 2.3964
5.2367 3.3025 2.3965
5.1274 3.4994 2.4006
5.0135 3.6948 2.4059
4.8844 3.8803 2.4071
4.7484 4.0612 2.4079
4.6061 4.2376 2.4088
4.4576 4.4095 2.4096
4.3032 4.5764 2.4104
4.1428 4.7383 2.4112
3.9768 4.8950 2.4119
3.8051 5.0462 2.4127
3.6281 5.1917 2.4134
3.4458 5.3314 2.4140
3.2584 5.4651 2.4146
3.0661 5.5925 2.4152
2.8691 5.7135 2.4158
2.6676 5.8279 2.4163
2.4618 5.9355 2.4168
2.2519 6.0362 2.4173
0.8304 2.4975 0.9851
0.7401 2.5269 0.9830
0.6488 2.5530 0.9808
0.5566 2.5758 0.9786
0.4637 2.5952 0.9764
0.3701 2.6113 0.9741
0.2759 2.6240 0.9718
0.1814 2.6333 0.9694
0.0866 2.6392 0.9670
-0.0084 2.6417 0.9645
-0.1034 2.6407 0.9621
-0.1983 2.6363 0.9595
-0.2930 2.6285 0.9570
-0.3873 2.6172 0.9545
-0.4812 2.6026 0.9519
-0.5745 2.5845 0.9493
-0.6670 2.5631 0.9467
-0.7588 2.5384 0.9441
-0.8496 2.5104 0.9415
-2.4189 6.3846 2.4180
-2.6538 6.3122 2.4176
-2.8865 6.2311 2.4172
-3.1166 6.1413 2.4167
-3.3438 6.0428 2.4161
-3.5677 5.9358 2.4155
-3.7880 5.8203 2.4149
-4.0045 5.6964 2.4143
-4.2166 5.5643 2.4136
-4.4242 5.4241 2.4128
-4.6268 5.2759 2.4120
-4.8241 5.1199 2.4112
-5.0158 4.9563 2.4104
-5.2016 4.7853 2.4095
-5.3812 4.6070 2.4085
-5.5542 4.4218 2.4076
-5.7167 4.2270 2.4050
-5.8630 4.0200 2.3988
-6.0143 3.8158 2.3978
-6.1603 3.6072 2.3977
-6.2987 3.3928 2.3976
-6.4290 3.1729 2.3974
-6.5511 2.9479 2.3973
-6.6648 2.7179 2.3972
-6.7697 2.4835 2.3971
-6.8657 2.2448 2.3970
-6.9526 2.0023 2.3969
-7.0303 1.7563 2.3967
-7.0985 1.5072 2.3966
-7.1572 1.2554 2.3965
-7.2062 1.0012 2.3963
-7.2453 0.7451 2.3962
-7.2745 0.4874 2.3961
-7.2938 0.2286 2.3959
-7.3031 -0.0309 2.3958
-7.3022 -0.2907 2.3956
-7.2913 -0.5505 2.3955
-7.2703 -0.8097 2.3954
-7.2393 -1.0681 2.3952
-7.1982 -1.3250 2.3951
-7.1472 -1.5802 2.3949
-7.0863 -1.8332 2.3948
-7.0157 -2.0837 2.3946
-6.9353 -2.3311 2.3945
-6.8455 -2.5753 2.3944
-6.7462 -2.8156 2.3942
-6.6378 -3.0518 2.3941
-6.5204 -3.2835 2.3939
-6.3941 -3.5103 2.3938
-6.2593 -3.7320 2.3937
-6.1161 -3.9480 2.3935
-5.9648 -4.1582 2.3934
-5.8057 -4.3621 2.3933
-5.6391 -4.5596 2.3932
-5.4651 -4.7503 2.3931
-5.2842 -4.9339 2.3929
-5.0967 -5.1102 2.3928
-4.9028 -5.2790 2.3927
-4.7030 -5.4400 2.3926
-4.4974 -5.5930 2.3925
-4.2866 -5.7378 2.3924
-4.0708 -5.8743 2.3923
-3.8513 -6.0036 2.3928
-3.6269 -6.1236 2.3930
-6.7836 -0.0620 2.3957
-6.7813 -0.3032 2.3956
-6.7697 -0.5442 2.3955
-6.7488 -0.7847 2.3953
-6.7186 -1.0243 2.3952
-6.6792 -1.2625 2.3951
-6.6306 -1.4991 2.3949
-6.5729 -1.7337 2.3948
-6.5062 -1.9658 2.3947
-6.4305 -2.1951 2.3945
-6.3461 -2.4213 2.3944
-6.2531 -2.6439 2.3943
-6.1516 -2.8627 2.3941
-6.0418 -3.0774 2.3940
-5.9238 -3.2875 2.3939
-5.7980 -3.4927 2.3938
-5.6644 -3.6928 2.3936
-5.5234 -3.8875 2.3935
-5.3752 -4.0764 2.3934
-5.2200 -4.2593 2.3933
-5.0581 -4.4360 2.3932
-4.8897 -4.6061 2.3931
-4.7153 -4.7695 2.3930
-4.5349 -4.9258 2.3929
-4.3490 -5.0750 2.3928
-4.1579 -5.2168 2.3927
-3.9619 -5.3511 2.3926
-3.7612 -5.4776 2.3925
-3.5584 -5.5997 2.3939
-3.3500 -5.7115 2.3942
-3.1356 -5.8108 2.3928
-2.9198 -5.9053 2.3928
-2.7011 -5.9915 2.3928
-2.4798 -6.0693 2.3928
-2.2561 -6.1387 2.3928
-2.0305 -6.1995 2.3928
-1.8034 -6.2518 2.3928
-1.5749 -6.2955 2.3928
-1.3455 -6.3307 2.3927
-1.1155 -6.3573 2.3927
-0.8852 -6.3754 2.3927
-0.6549 -6.3851 2.3927
-0.4250 -6.3863 2.3926
-0.1958 -6.3791 2.3926
0.0325 -6.3636 2.3926
0.2594 -6.3399 2.3925
0.4848 -6.3081 2.3925
0.7084 -6.2683 2.3924
0.9297 -6.2205 2.3924
1.1487 -6.1650 2.3924
1.3649 -6.1018 2.3923
1.5783 -6.0311 2.3923
1.7884 -5.9531 2.3922
1.9950 -5.8678 2.3921
2.1980 -5.7756 2.3921
2.3971 -5.6764 2.3920
2.5921 -5.5705 2.3920
2.7827 -5.4582 2.3919
2.9688 -5.3395 2.3918
3.1502 -5.2146 2.3918
3.3266 -5.0839 2.3917
3.4980 -4.9473 2.3916
3.6641 -4.8053 2.3916
3.8248 -4.6579 2.3915
3.9799 -4.5054 2.3914
4.1293 -4.3479 2.3914
4.2728 -4.1858 2.3913
4.4104 -4.0192 2.3912
4.5418 -3.8483 2.3911
4.6671 -3.6734 2.3911
4.7861 -3.4946 2.3910
4.8986 -3.3123 2.3909
5.0046 -3.1266 2.3909
5.1041 -2.9377 2.3908
5.1969 -2.7459 2.3907
5.2830 -2.5513 2.3906
5.3622 -2.3543 2.3906
5.4347 -2.1551 2.3905
5.5002 -1.9538 2.3904
5.5589 -1.7507 2.3903
5.6105 -1.5460 2.3903
5.6552 -1.3399 2.3902
5.6928 -1.1327 2.3901
5.7234 -0.9246 2.3900
5.7470 -0.7158 2.3900
5.7635 -0.5065 2.3899
5.7730 -0.2970 2.3898
5.7754 -0.0874 2.3898
5.7708 0.1220 2.3897
5.7591 0.3310 2.3896
5.7405 0.5394 2.3896
5.7149 0.7470 2.3895
5.6824 0.9535 2.3894
5.6430 1.1588 2.3894
5.5967 1.3626 2.3893
5.5437 1.5647 2.3893
5.4839 1.7650 2.3892
5.4174 1.9631 2.3891
5.3493 2.1610 2.3913
5.2782 2.3584 2.3952
5.1939 2.5506 2.3961
5.1015 2.7392 2.3962
5.0027 2.9246 2.3963
4.8976 3.1067 2.3964
4.7864 3.2854 2.3965
4.6733 3.4635 2.3988
4.5592 3.6422 2.4038
4.4348 3.8141 2.4066
4.3007 3.9786 2.4074
4.1609 4.1388 2.4082
4.0154 4.2944 2.4090
3.8645 4.4452 2.4097
3.7082 4.5910 2.4104
3.5468 4.7316 2.4110
3.3803 4.8669 2.4117
3.2089 4.9966 2.4123
3.0329 5.1206 2.4129
2.8522 5.2387 2.4134
2.6673 5.3508 2.4139
2.4782 5.4566 2.4144
2.2851 5.5560 2.4149
0.8506 2.3010 0.9839
0.7674 2.3312 0.9820
0.6831 2.3584 0.9800
0.5978 2.3826 0.9780
0.5118 2.4036 0.9760
0.4250 2.4215 0.9739
0.3377 2.4363 0.9717
0.2499 2.4480 0.9695
0.1616 2.4564 0.9673
0.0732 2.4617 0.9651
-0.0154 2.4637 0.9628
-0.1040 2.4626 0.9605
-0.1925 2.4583 0.9581
-0.2808 2.4508 0.9558
-0.3688 2.4400 0.9534
-0.4563 2.4262 0.9510
-0.5433 2.4091 0.9486
-0.6296 2.3890 0.9462
-0.7151 2.3657 0.9437
-0.7997 2.3394 0.9413
-0.8834 2.3100 0.9389
-2.4913 5.8750 2.4155
-2.7074 5.7978 2.4150
-2.9211 5.7126 2.4146
-3.1320 5.6194 2.4141
-3.3397 5.5183 2.4135
-3.5441 5.4093 2.4129
-3.7447 5.2926 2.4123
-3.9412 5.1683 2.4116
-4.1334 5.0366 2.4109
-4.3209 4.8974 2.4102
-4.5035 4.7511 2.4094
-4.6808 4.5978 2.4086
-4.8525 4.4376 2.4078
-5.0184 4.2709 2.4069
-5.1697 4.0909 2.4021
-5.3153 3.9063 2.3978
-5.4635 3.7228 2.3977
-5.6050 3.5336 2.3976
-5.7395 3.3388 2.3975
-5.8669 3.1387 2.3974
-5.9867 2.9336 2.3973
-6.0989 2.7238 2.3972
-6.2032 2.5096 2.3971
-6.2994 2.2912 2.3970
-6.3873 2.0690 2.3968
-6.4668 1.8434 2.3967
-6.5378 1.6145 2.3966
-6.5999 1.3829 2.3965
-6.6532 1.1488 2.3964
-6.6976 0.9126 2.3962
-6.7328 0.6747 2.3961
-6.7589 0.4353 2.3960
-6.7758 0.1950 2.3959
-6.7835 -0.0459 2.3957
-6.7818 -0.2871 2.3956
-6.7708 -0.5281 2.3955
-6.7505 -0.7687 2.3953
-6.7209 -1.0083 2.3952
-6.6821 -1.2467 2.3951
-6.6341 -1.4834 2.3949
-6.5770 -1.7181 2.3948
-6.5109 -1.9504 2.3947
-6.4359 -2.1799 2.3945
-6.3520 -2.4063 2.3944
-6.2596 -2.6292 2.3943
-6.1586 -2.8483 2.3941
-6.0494 -3.0632 2.3940
-5.9320 -3.2736 2.3939
-5.8066 -3.4792 2.3938
-5.6736 -3.6796 2.3937
-5.5331 -3.8747 2.3935
-5.3853 -4.0640 2.3934
-5.2306 -4.2473 2.3933
-5.0691 -4.4244 2.3932
-4.9012 -4.5950 2.3931
-4.7271 -4.7588 2.3930
-4.5471 -4.9156 2.3929
-4.3616 -5.0653 2.3928
-4.1708 -5.2076 2.3927
-3.9751 -5.3424 2.3926
-3.7747 -5.4694 2.3925
-3.5717 -5.5912 2.3935
-3.3645 -5.7051 2.3946
-3.1498 -5.8042 2.3928
-2.9343 -5.8993 2.3928
-2.7158 -5.9860 2.3928
-2.4946 -6.0644 2.3928
-2.2711 -6.1343 2.3928
-2.0457 -6.1957 2.3928
-1.8186 -6.2485 2.3928
-1.5902 -6.2929 2.3928
-1.3608 -6.3286 2.3927
-1.1308 -6.3558 2.3927
-0.9005 -6.3745 2.3927
-0.6703 -6.3847 2.3927
-0.4403 -6.3864 2.3926
-0.2110 -6.3798 2.3926
0.0173 -6.3649 2.3926
0.2443 -6.3417 2.3925
0.4698 -6.3105 2.3925
0.6935 -6.2712 2.3924
0.9150 -6.2239 2.3924
1.1342 -6.1689 2.3924
1.3506 -6.1063 2.3923
1.5641 -6.0361 2.3923
1.7745 -5.9585 2.3922
1.9814 -5.8737 2.3921
2.1846 -5.7819 2.3921
2.3840 -5.6832 2.3920
2.5792 -5.5778 2.3920
2.7701 -5.4659 2.3919
2.9565 -5.3476 2.3918
3.1382 -5.2232 2.3918
3.3150 -5.0928 2.3917
3.4867 -4.9566 2.3917
3.6532 -4.8149 2.3916
3.8142 -4.6679 2.3915
3.9697 -4.5157 2.3914
4.1195 -4.3586 2.3914
4.2634 -4.1968 2.3913
4.4014 -4.0304 2.3912
4.5333 -3.8598 2.3912
4.6589 -3.6852 2.3911
4.7783 -3.5067 2.3910
4.8913 -3.3246 2.3909
4.9978 -3.1390 2.3909
5.0977 -2.9504 2.3908
5.1909 -2.7587 2.3907
5.2774 -2.5644 2.3906
5.3572 -2.3675 2.3906
5.4301 -2.1684 2.3905
5.4961 -1.9673 2.3904
5.5552 -1.7643 2.3903
5.6073 -1.5597 2.3903
5.6524 -1.3537 2.3902
5.6905 -1.1466 2.3901
5.7216 -0.9385 2.3900
5.7456 -0.7297 2.3900
5.7626 -0.5205 2.3899
5.7726 -0.3110 2.3898
5.7754 -0.1014 2.3898
5.7713 0.1081 2.3897
5.7601 0.3171 2.3896
5.7420 0.5255 2.3896
5.7168 0.7331 2.3895
5.6848 0.9397 2.3894
5.6458 1.1451 2.3894
5.6000 1.3490 2.3893
5.5474 1.5513 2.3893
5.4881 1.7517 2.3892
5.4220 1.9500 2.3891
5.3538 2.1478 2.3911
5.2831 2.3453 2.3949
5.1999 2.5379 2.3961
5.1078 2.7267 2.3962
5.0094 2.9123 2.3963
4.9048 3.0947 2.3964
4.7940 3.2736 2.3965
4.6806 3.4514 2.3984
4.5671 3.6304 2.4035
4.4436 3.8029 2.4066
4.3099 3.9678 2.4074
4.1704 4.1283 2.4082
4.0253 4.2842 2.4089
3.8748 4.4353 2.4096
3.7188 4.5814 2.4103
3.5577 4.7224 2.4110
3.3916 4.8581 2.4116
3.2205 4.9881 2.4122
3.0447 5.1125 2.4128
2.8644 5.2310 2.4134
2.6798 5.3435 2.4139
2.4909 5.4497 2.4144
2.2981 5.5496 2.4149
0.8561 2.2989 0.9840
0.7730 2.3293 0.9821
0.6887 2.3567 0.9801
0.6036 2.3810 0.9781
0.5176 2.4023 0.9761
0.4309 2.4204 0.9740
0.3435 2.4354 0.9719
0.2557 2.4473 0.9697
0.1675 2.4559 0.9675
0.0791 2.4614 0.9652
-0.0095 2.4637 0.9629
-0.0981 2.4628 0.9606
-0.1866 2.4587 0.9583
-0.2749 2.4514 0.9559
-0.3629 2.4409 0.9536
-0.4505 2.4272 0.9512
-0.5375 2.4104 0.9487
-0.6239 2.3904 0.9463
-0.7094 2.3674 0.9439
-0.7941 2.3412 0.9415
-0.8778 2.3121 0.9390
-2.4768 5.8798 2.4155
-2.6931 5.8032 2.4151
-2.9069 5.7185 2.4146
-3.1180 5.6259 2.4141
-3.3260 5.5253 2.4135
-3.5305 5.4168 2.4130
-3.7314 5.3007 2.4123
-3.9282 5.1769 2.4117
-4.1207 5.0456 2.4110
-4.3086 4.9069 2.4103
-4.4915 4.7611 2.4095
-4.6691 4.6082 2.4087
-4.8412 4.4485 2.4079
-5.0075 4.2822 2.4070
-5.1598 4.1031 2.4024
-5.3051 3.9183 2.3978
-5.4538 3.7353 2.3977
-5.5958 3.5464 2.3976
-5.7308 3.3520 2.3975
-5.8586 3.1522 2.3974
-5.9789 2.9475 2.3973
-6.0916 2.7380 2.3972
-6.1965 2.5240 2.3971
-6.2932 2.3059 2.3970
-6.3817 2.0840 2.3969
-6.4618 1.8585 2.3967
-6.5333 1.6299 2.3966
-6.5961 1.3984 2.3965
-6.6500 1.1645 2.3964
-6.6949 0.9284 2.3962
-6.7308 0.6906 2.3961
-6.7575 0.4514 2.3960
-6.7750 0.2111 2.3959
-6.7832 -0.0298 2.3957
-6.7822 -0.2710 2.3956
-6.7718 -0.5121 2.3955
-6.7521 -0.7527 2.3953
-6.7232 -0.9924 2.3952
-6.6850 -1.2308 2.3951
-6.6376 -1.4677 2.3949
-6.5811 -1.7025 2.3948
-6.5156 -1.9350 2.3947
-6.4412 -2.1647 2.3945
-6.3579 -2.3913 2.3944
-6.2660 -2.6144 2.3943
-6.1656 -2.8338 2.3942
-6.0569 -3.0490 2.3940
-5.9400 -3.2597 2.3939
-5.8152 -3.4656 2.3938
-5.6827 -3.6664 2.3937
-5.5427 -3.8618 2.3935
-5.3954 -4.0515 2.3934
-5.2411 -4.2353 2.3933
-5.0801 -4.4128 2.3932
-4.9126 -4.5838 2.3931
-4.7389 -4.7481 2.3930
-4.5593 -4.9054 2.3929
-4.3742 -5.0555 2.3928
-4.1837 -5.1984 2.3927
-3.9883 -5.3336 2.3926
-3.7882 -5.4612 2.3925
-3.5850 -5.5827 2.3932
-3.3784 -5.6977 2.3945
-6.3261 -0.0589 2.3957
-6.3237 -0.2836 2.3956
-6.3127 -0.5082 2.3954
-6.2931 -0.7323 2.3953
-6.2648 -0.9555 2.3952
-6.2280 -1.1775 2.3951
-6.1827 -1.3980 2.3949
-6.1290 -1.6165 2.3948
-6.0668 -1.8328 2.3947
-5.9965 -2.0465 2.3946
-5.9180 -2.2573 2.3944
-5.8314 -2.4649 2.3943
-5.7370 -2.6689 2.3942
-5.6349 -2.8690 2.3941
-5.5253 -3.0650 2.3940
-5.4083 -3.2565 2.3939
-5.2842 -3.4432 2.3937
-5.1531 -3.6249 2.3936
-5.0153 -3.8013 2.3935
-4.8709 -3.9721 2.3934
-4.7204 -4.1371 2.3933
-4.5638 -4.2961 2.3932
-4.4016 -4.4489 2.3931
-4.2338 -4.5952 2.3930
-4.0609 -4.7348 2.3929
-3.8830 -4.8677 2.3929
-3.7005 -4.9935 2.3928
-3.5137 -5.1121 2.3927
-3.3229 -5.2235 2.3926
-3.1293 -5.3290 2.3932
-2.9307 -5.4243 2.3927
-2.7297 -5.5133 2.3927
-2.5259 -5.5945 2.3927
-2.3195 -5.6679 2.3927
-2.1110 -5.7335 2.3926
-1.9006 -5.7912 2.3926
-1.6887 -5.8409 2.3926
-1.4755 -5.8826 2.3926
-1.2614 -5.9164 2.3926
-1.0466 -5.9422 2.3926
-0.8315 -5.9601 2.3925
-0.6163 -5.9701 2.3925
-0.4015 -5.9722 2.3925
-0.1872 -5.9664 2.3925
0.0263 -5.9529 2.3924
0.2386 -5.9317 2.3924
0.4495 -5.9029 2.3924
0.6588 -5.8666 2.3923
0.8661 -5.8229 2.3923
1.0712 -5.7719 2.3922
1.2739 -5.7137 2.3922
1.4738 -5.6484 2.3921
1.6709 -5.5763 2.3921
1.8647 -5.4973 2.3920
2.0552 -5.4117 2.3920
2.2421 -5.3197 2.3919
2.4252 -5.2213 2.3919
2.6042 -5.1168 2.3918
2.7791 -5.0063 2.3918
2.9496 -4.8901 2.3917
3.1155 -4.7681 2.3916
3.2766 -4.6408 2.3916
3.4329 -4.5082 2.3915
3.5841 -4.3706 2.3914
3.7302 -4.2281 2.3914
3.8709 -4.0809 2.3913
4.0061 -3.9293 2.3912
4.1357 -3.7734 2.3912
4.2597 -3.6135 2.3911
4.3778 -3.4497 2.3910
4.4900 -3.2823 2.3910
4.5962 -3.1114 2.3909
4.6963 -2.9373 2.3908
4.7902 -2.7602 2.3908
4.8779 -2.5803 2.3907
4.9592 -2.3978 2.3906
5.0342 -2.2129 2.3906
5.1027 -2.0259 2.3905
5.1647 -1.8369 2.3904
5.2202 -1.6462 2.3903
5.2692 -1.4539 2.3903
5.3115 -1.2603 2.3902
5.3473 -1.0657 2.3901
5.3764 -0.8701 2.3901
5.3988 -0.6738 2.3900
5.4146 -0.4771 2.3899
5.4238 -0.2801 2.3899
5.4263 -0.0831 2.3898
5.4221 0.1138 2.3897
5.4113 0.3103 2.3897
5.3940 0.5063 2.3896
5.3700 0.7014 2.3896
5.3395 0.8956 2.3895
5.3025 1.0887 2.3894
5.2590 1.2803 2.3894
5.2091 1.4704 2.3893
5.1529 1.6587 2.3893
5.0922 1.8457 2.3901
5.0306 2.0329 2.3935
4.9606 2.2173 2.3959
4.8796 2.3972 2.3960
4.7925 2.5743 2.3961
4.6994 2.7486 2.3963
4.6004 2.9197 2.3964
4.4956 3.0875 2.3965
4.3851 3.2518 2.3966
4.2690 3.4124 2.3967
4.1555 3.5761 2.4014
4.0352 3.7356 2.4056
3.9044 3.8866 2.4069
3.7674 4.0323 2.4076
3.6253 4.1735 2.4083
3.4782 4.3100 2.4089
3.3262 4.4415 2.4095
3.1695 4.5680 2.4101
3.0083 4.6893 2.4107
2.8427 4.8051 2.4113
2.6728 4.9154 2.4118
2.4989 5.0199 2.4123
2.3212 5.1185 2.4127
0.8715 2.1224 0.9828
0.7946 2.1535 0.9811
0.7167 2.1817 0.9793
0.6378 2.2072 0.9775
0.5580 2.2297 0.9756
0.4775 2.2494 0.9737
0.3963 2.2662 0.9717
0.3145 2.2800 0.9697
0.2323 2.2909 0.9677
0.1497 2.2988 0.9656
0.0669 2.3037 0.9635
-0.0160 2.3056 0.9614
-0.0989 2.3046 0.9592
-0.1818 2.3005 0.9570
-0.2644 2.2935 0.9548
-0.3468 2.2834 0.9526
-0.4287 2.2705 0.9503
-0.5101 2.2545 0.9481
-0.5909 2.2357 0.9458
-0.6709 2.2139 0.9436
-0.7501 2.1892 0.9413
-0.8284 2.1618 0.9390
-0.9056 2.1315 0.9367
-2.5351 5.4190 2.4132
-2.7345 5.3385 2.4127
-2.9311 5.2506 2.4123
-3.1248 5.1553 2.4117
-3.3153 5.0528 2.4112
-3.5022 4.9430 2.4106
-3.6853 4.8262 2.4100
-3.8643 4.7025 2.4093
-4.0388 4.5719 2.4086
-4.2088 4.4347 2.4079
-4.3737 4.2910 2.4072
-4.5295 4.1373 2.4043
-4.6756 3.9745 2.3993
-4.8221 3.8115 2.3977
-4.9658 3.6453 2.3976
-5.1036 3.4736 2.3975
-5.2350 3.2966 2.3974
-5.3598 3.1144 2.3973
-5.4780 2.9273 2.3972
-5.5892 2.7357 2.3971
-5.6932 2.5397 2.3970
-5.7898 2.3396 2.3969
-5.8790 2.1357 2.3968
-5.9604 1.9283 2.3967
-6.0340 1.7177 2.3966
-6.0996 1.5042 2.3965
-6.1571 1.2881 2.3964
-6.2063 1.0698 2.3963
-6.2472 0.8496 2.3962
-6.2797 0.6277 2.3961
-6.3037 0.4047 2.3959
-6.3191 0.1807 2.3958
-6.3259 -0.0439 2.3957
-6.3241 -0.2686 2.3956
-6.3137 -0.4932 2.3954
-6.2946 -0.7174 2.3953
-6.2670 -0.9406 2.3952
-6.2308 -1.1627 2.3951
-6.1860 -1.3833 2.3949
-6.1328 -1.6020 2.3948
-6.0713 -1.8185 2.3947
-6.0014 -2.0324 2.3946
-5.9234 -2.2434 2.3945
-5.8375 -2.4511 2.3943
-5.7436 -2.6554 2.3942
-5.6420 -2.8558 2.3941
-5.5328 -3.0520 2.3940
-5.4163 -3.2438 2.3939
-5.2927 -3.4309 2.3938
-5.1620 -3.6129 2.3936
-5.0246 -3.7897 2.3935
-4.8808 -3.9609 2.3934
-4.7306 -4.1263 2.3933
-4.5745 -4.2857 2.3932
-4.4126 -4.4389 2.3931
-4.2452 -4.5856 2.3930
-4.0726 -4.7257 2.3929
-3.8950 -4.8590 2.3929
-3.7129 -4.9853 2.3928
-3.5263 -5.1045 2.3927
-3.3358 -5.2163 2.3926
-3.1427 -5.3229 2.3935
-2.9443 -5.4187 2.3929
-2.7432 -5.5076 2.3927
-2.5395 -5.5893 2.3927
-2.3334 -5.6633 2.3927
-2.1250 -5.7294 2.3926
-1.9147 -5.7876 2.3926
-1.7029 -5.8378 2.3926
-1.4898 -5.8801 2.3926
-1.2757 -5.9144 2.3926
-1.0609 -5.9408 2.3926
-0.8458 -5.9592 2.3926
-0.6307 -5.9697 2.3925
-0.4158 -5.9723 2.3925
-0.2015 -5.9670 2.3925
0.0121 -5.9541 2.3924
0.2245 -5.9334 2.3924
0.4355 -5.9051 2.3924
0.6449 -5.8693 2.3923
0.8523 -5.8261 2.3923
1.0576 -5.7755 2.3922
1.2604 -5.7178 2.3922
1.4606 -5.6530 2.3921
1.6578 -5.5813 2.3921
1.8519 -5.5028 2.3920
2.0426 -5.4177 2.3920
2.2297 -5.3260 2.3919
2.4131 -5.2281 2.3919
2.5924 -5.1240 2.3918
2.7676 -5.0139 2.3918
2.9383 -4.8980 2.3917
3.1045 -4.7765 2.3916
3.2660 -4.6495 2.3916
3.4226 -4.5172 2.3915
3.5742 -4.3799 2.3915
3.7206 -4.2377 2.3914
3.8616 -4.0909 2.3913
3.9972 -3.9395 2.3913
4.1273 -3.7839 2.3912
4.2516 -3.6243 2.3911
4.3701 -3.4607 2.3910
4.4827 -3.2935 2.3910
4.5893 -3.1229 2.3909
4.6898 -2.9490 2.3908
4.7841 -2.7721 2.3908
4.8722 -2.5924 2.3907
4.9540 -2.4100 2.3906
5.0294 -2.2253 2.3906
5.0983 -2.0384 2.3905
5.1608 -1.8496 2.3904
5.2167 -1.6589 2.3903
5.2661 -1.4668 2.3903
5.3089 -1.2733 2.3902
5.3451 -1.0787 2.3901
5.3746 -0.8832 2.3901
5.3975 -0.6870 2.3900
5.4138 -0.4903 2.3899
5.4234 -0.2933 2.3899
5.4263 -0.0963 2.3898
5.4226 0.1006 2.3897
5.4123 0.2972 2.3897
5.3953 0.4932 2.3896
5.3718 0.6884 2.3896
5.3418 0.8827 2.3895
5.3052 1.0758 2.3894
5.2621 1.2676 2.3894
5.2127 1.4578 2.3893
5.1568 1.6462 2.3893
5.0960 1.8331 2.3898
5.0348 2.0204 2.3932
4.9658 2.2052 2.3959
4.8852 2.3852 2.3960
4.7985 2.5626 2.3961
4.7058 2.7370 2.3962
4.6072 2.9084 2.3963
4.5028 3.0764 2.3964
4.3927 3.2409 2.3965
4.2769 3.4018 2.3966
4.1633 3.5653 2.4011
4.0434 3.7250 2.4053
3.9133 3.8767 2.4068
3.7767 4.0227 2.4075
3.6349 4.1642 2.4082
3.4881 4.3010 2.4089
3.3365 4.4329 2.4095
3.1801 4.5598 2.4101
3.0192 4.6814 2.4107
2.8539 4.7976 2.4112
2.6843 4.9082 2.4117
2.5107 5.0131 2.4122
2.3331 5.1121 2.4127
0.8766 2.1202 0.9829
0.7998 2.1515 0.9812
0.7219 2.1799 0.9795
0.6431 2.2055 0.9776
0.5634 2.2283 0.9758
0.4829 2.2482 0.9738
0.4017 2.2652 0.9719
0.3200 2.2792 0.9699
0.2378 2.2903 0.9678
0.1552 2.2984 0.9658
0.0724 2.3035 0.9637
-0.0105 2.3056 0.9615
-0.0934 2.3047 0.9594
-0.1763 2.3009 0.9572
-0.2589 2.2940 0.9550
-0.3413 2.2842 0.9527
-0.4233 2.2714 0.9505
-0.5047 2.2557 0.9482
-0.5855 2.2370 0.9460
-0.6656 2.2154 0.9437
-0.7449 2.1910 0.9414
-0.8232 2.1637 0.9392
-0.9005 2.1336 0.9369
-2.5217 5.4241 2.4132
-2.7212 5.3441 2.4128
-2.9181 5.2567 2.4123
-3.1120 5.1619 2.4118
-3.3027 5.0599 2.4112
-3.4898 4.9506 2.4106
-3.6732 4.8343 2.4100
-3.8525 4.7110 2.4094
-4.0273 4.5809 2.4087
-4.1976 4.4441 2.4080
-4.3629 4.3008 2.4072
-4.5195 4.1480 2.4046
-4.6661 3.9856 2.3997
-4.8123 3.8224 2.3977
-4.9564 3.6566 2.3976
-5.0946 3.4853 2.3975
-5.2264 3.3085 2.3974
-5.3517 3.1267 2.3973
-5.4703 2.9400 2.3972
-5.5820 2.7486 2.3971
-5.6865 2.5529 2.3970
-5.7836 2.3530 2.3969
-5.8733 2.1494 2.3968
-5.9552 1.9422 2.3967
-6.0293 1.7318 2.3966
-6.0955 1.5185 2.3965
-6.1535 1.3026 2.3964
-6.2033 1.0844 2.3963
-6.2448 0.8643 2.3962
-6.2778 0.6426 2.3961
-6.3023 0.4196 2.3959
-6.3183 0.1956 2.3958
-6.3257 -0.0289 2.3957
-6.3245 -0.2536 2.3956
-6.3147 -0.4783 2.3955
-6.2962 -0.7024 2.3953
-6.2691 -0.9258 2.3952
-6.2334 -1.1480 2.3951
-6.1893 -1.3686 2.3950
-6.1366 -1.5875 2.3948
-6.0756 -1.8041 2.3947
-6.0063 -2.0182 2.3946
-5.9289 -2.2294 2.3945
-5.8434 -2.4374 2.3943
-5.7501 -2.6419 2.3942
-5.6490 -2.8426 2.3941
-5.5404 -3.0391 2.3940
-5.4243 -3.2312 2.3939
-5.3011 -3.4185 2.3938
-5.1710 -3.6009 2.3937
-5.0340 -3.7780 2.3935
-4.8906 -3.9496 2.3934
-4.7408 -4.1154 2.3933
-4.5851 -4.2753 2.3932
-4.4235 -4.4289 2.3931
-4.2565 -4.5761 2.3930
-4.0842 -4.7166 2.3930
-3.9070 -4.8503 2.3929
-3.7252 -4.9771 2.3928
-3.5389 -5.0967 2.3927
-3.3486 -5.2091 2.3926
-3.1562 -5.3168 2.3938
-5.9199 -0.0561 2.3956
-5.9175 -0.2662 2.3955
-5.9071 -0.4762 2.3954
-5.8886 -0.6858 2.3953
-5.8621 -0.8945 2.3952
-5.8276 -1.1021 2.3951
-5.7852 -1.3082 2.3950
-5.7350 -1.5125 2.3948
-5.6769 -1.7148 2.3947
-5.6112 -1.9147 2.3946
-5.5379 -2.1118 2.3945
-5.4571 -2.3060 2.3944
-5.3691 -2.4968 2.3943
-5.2738 -2.6841 2.3942
-5.1715 -2.8674 2.3941
-5.0623 -3.0467 2.3939
-4.9464 -3.2215 2.3938
-4.8241 -3.3916 2.3937
-4.6955 -3.5568 2.3936
-4.5608 -3.7169 2.3935
-4.4203 -3.8716 2.3934
-4.2742 -4.0207 2.3933
-4.1227 -4.1640 2.3933
-3.9661 -4.3012 2.3932
-3.8046 -4.4323 2.3931
-3.6385 -4.5571 2.3930
-3.4681 -4.6754 2.3929
-3.2936 -4.7869 2.3928
-3.1153 -4.8918 2.3928
-2.9342 -4.9910 2.3934
-2.7495 -5.0827 2.3936
-2.5603 -5.1642 2.3925
-2.3698 -5.2409 2.3925
-2.1768 -5.3104 2.3925
-1.9817 -5.3725 2.3925
-1.7848 -5.4272 2.3925
-1.5865 -5.4745 2.3925
-1.3869 -5.5144 2.3925
-1.1863 -5.5468 2.3925
-0.9851 -5.5718 2.3924
-0.7836 -5.5894 2.3924
-0.5819 -5.5995 2.3924
-0.3805 -5.6023 2.3924
-0.1795 -5.5977 2.3923
0.0208 -5.5858 2.3923
0.2200 -5.5668 2.3923
0.4180 -5.5406 2.3922
0.6145 -5.5073 2.3922
0.8092 -5.4671 2.3922
1.0019 -5.4200 2.3921
1.1923 -5.3661 2.3921
1.3803 -5.3056 2.3920
1.5656 -5.2386 2.3920
1.7479 -5.1652 2.3919
1.9272 -5.0856 2.3919
2.1030 -4.9998 2.3918
2.2754 -4.9081 2.3918
2.4440 -4.8105 2.3917
2.6088 -4.7073 2.3917
2.7694 -4.5986 2.3916
2.9258 -4.4846 2.3916
3.0778 -4.3654 2.3915
3.2252 -4.2413 2.3915
3.3678 -4.1123 2.3914
3.5057 -3.9788 2.3913
3.6385 -3.8408 2.3913
3.7662 -3.6986 2.3912
3.8886 -3.5523 2.3911
4.0057 -3.4021 2.3911
4.1174 -3.2483 2.3910
4.2234 -3.0910 2.3909
4.3239 -2.9305 2.3909
4.4186 -2.7668 2.3908
4.5074 -2.6003 2.3907
4.5904 -2.4311 2.3907
4.6674 -2.2594 2.3906
4.7384 -2.0854 2.3905
4.8034 -1.9094 2.3905
4.8622 -1.7315 2.3904
4.9148 -1.5519 2.3904
4.9613 -1.3709 2.3903
5.0015 -1.1885 2.3902
5.0355 -1.0052 2.3902
5.0632 -0.8209 2.3901
5.0846 -0.6360 2.3900
5.0997 -0.4506 2.3900
5.1086 -0.2650 2.3899
5.1111 -0.0792 2.3898
5.1074 0.1064 2.3898
5.0973 0.2916 2.3897
5.0811 0.4763 2.3897
5.0586 0.6603 2.3896
5.0299 0.8434 2.3896
4.9951 1.0254 2.3895
4.9541 1.2061 2.3894
4.9071 1.3853 2.3894
4.8540 1.5628 2.3893
4.8019 1.7409 2.3927
4.7432 1.9173 2.3959
4.6723 2.0891 2.3959
4.5958 2.2586 2.3960
4.5135 2.4256 2.3961
4.4256 2.5897 2.3962
4.3322 2.7508 2.3963
4.2332 2.9089 2.3964
4.1289 3.0636 2.3965
4.0193 3.2148 2.3966
3.9044 3.3623 2.3967
3.7878 3.5090 2.3988
3.6689 3.6549 2.4029
3.5440 3.7962 2.4064
3.4098 3.9288 2.4070
3.2710 4.0569 2.4076
3.1276 4.1804 2.4082
2.9798 4.2990 2.4088
2.8277 4.4127 2.4093
2.6716 4.5212 2.4098
2.5114 4.6245 2.4103
2.3475 4.7223 2.4107
0.8877 1.9605 0.9818
0.8167 1.9922 0.9803
0.7445 2.0214 0.9786
0.6713 2.0479 0.9770
0.5972 2.0717 0.9753
0.5223 2.0929 0.9735
0.4467 2.1114 0.9717
0.3705 2.1271 0.9699
0.2937 2.1401 0.9680
0.2165 2.1503 0.9661
0.1390 2.1577 0.9641
0.0613 2.1623 0.9621
-0.0165 2.1641 0.9601
-0.0944 2.1631 0.9581
-0.1722 2.1593 0.9560
-0.2498 2.1527 0.9540
-0.3271 2.1433 0.9519
-0.4040 2.1311 0.9498
-0.4804 2.1161 0.9476
-0.5562 2.0984 0.9455
-0.6314 2.0780 0.9434
-0.7057 2.0549 0.9413
-0.7792 2.0291 0.9391
-0.8517 2.0006 0.9370
-0.9231 1.9696 0.9349
-2.5678 5.0046 2.4111
-2.7519 4.9215 2.4107
-2.9331 4.8315 2.4102
-3.1112 4.7348 2.4096
-3.2860 4.6313 2.4091
-3.4572 4.5213 2.4085
-3.6244 4.4048 2.4079
-3.7875 4.2819 2.4072
-3.9444 4.1510 2.4055
-4.0926 4.0103 2.4014
-4.2362 3.8648 2.3976
-4.3810 3.7197 2.3976
-4.5206 3.5690 2.3975
-4.6547 3.4130 2.3974
-4.7831 3.2518 2.3973
-4.9056 3.0856 2.3973
-5.0220 2.9147 2.3972
-5.1320 2.7393 2.3971
-5.2356 2.5596 2.3970
-5.3324 2.3759 2.3969
-5.4223 2.1884 2.3968
-5.5053 1.9974 2.3967
-5.5810 1.8032 2.3966
-5.6494 1.6060 2.3965
-5.7103 1.4062 2.3964
-5.7637 1.2040 2.3963
-5.8094 0.9997 2.3962
-5.8473 0.7936 2.3961
-5.8773 0.5861 2.3960
-5.8995 0.3774 2.3959
-5.9136 0.1679 2.3958
-5.9198 -0.0420 2.3957
-5.9179 -0.2522 2.3955
-5.9080 -0.4622 2.3954
-5.8901 -0.6718 2.3953
-5.8641 -0.8806 2.3952
-5.8302 -1.0883 2.3951
-5.7883 -1.2945 2.3950
-5.7386 -1.4990 2.3948
-5.6811 -1.7014 2.3947
-5.6158 -1.9014 2.3946
-5.5430 -2.0988 2.3945
-5.4628 -2.2931 2.3944
-5.3752 -2.4842 2.3943
-5.2803 -2.6717 2.3942
-5.1785 -2.8553 2.3941
-5.0698 -3.0348 2.3940
-4.9544 -3.2100 2.3938
-4.8325 -3.3804 2.3937
-4.7043 -3.5460 2.3936
-4.5700 -3.7064 2.3935
-4.4299 -3.8614 2.3934
-4.2841 -4.0109 2.3934
-4.1330 -4.1546 2.3933
-3.9767 -4.2923 2.3932
-3.8155 -4.4238 2.3931
-3.6497 -4.5490 2.3930
-3.4796 -4.6677 2.3929
-3.3053 -4.7797 2.3929
-3.1273 -4.8850 2.3928
-2.9461 -4.9841 2.3931
-2.7617 -5.0762 2.3933
-2.5730 -5.1588 2.3925
-2.3826 -5.2360 2.3925
-2.1897 -5.3060 2.3925
-1.9948 -5.3686 2.3925
-1.7980 -5.4238 2.3925
-1.5997 -5.4716 2.3925
-1.4002 -5.5120 2.3925
-1.1997 -5.5449 2.3925
-0.9986 -5.5704 2.3924
-0.7970 -5.5884 2.3924
-0.5954 -5.5991 2.3924
-0.3939 -5.6023 2.3924
-0.1929 -5.5982 2.3923
0.0074 -5.5869 2.3923
0.2067 -5.5683 2.3923
0.4048 -5.5425 2.3923
0.6014 -5.5098 2.3922
0.7962 -5.4700 2.3922
0.9891 -5.4233 2.3921
1.1797 -5.3699 2.3921
1.3678 -5.3099 2.3920
1.5533 -5.2433 2.3920
1.7359 -5.1703 2.3920
1.9153 -5.0911 2.3919
2.0914 -5.0057 2.3919
2.2640 -4.9144 2.3918
2.4329 -4.8172 2.3917
2.5979 -4.7144 2.3917
2.7588 -4.6060 2.3916
2.9155 -4.4924 2.3916
3.0678 -4.3735 2.3915
3.2155 -4.2497 2.3915
3.3585 -4.1211 2.3914
3.4966 -3.9878 2.3913
3.6298 -3.8501 2.3913
3.7578 -3.7082 2.3912
3.8806 -3.5621 2.3911
3.9981 -3.4123 2.3911
4.1101 -3.2587 2.3910
4.2165 -3.1016 2.3909
4.3173 -2.9413 2.3909
4.4124 -2.7778 2.3908
4.5017 -2.6115 2.3908
4.5851 -2.4424 2.3907
4.6625 -2.2709 2.3906
4.7339 -2.0971 2.3906
4.7992 -1.9212 2.3905
4.8584 -1.7434 2.3904
4.9115 -1.5640 2.3904
4.9584 -1.3830 2.3903
4.9990 -1.2007 2.3902
5.0334 -1.0174 2.3902
5.0615 -0.8332 2.3901
5.0834 -0.6483 2.3900
5.0989 -0.4630 2.3900
5.1082 -0.2773 2.3899
5.1111 -0.0916 2.3898
5.1078 0.0940 2.3898
5.0982 0.2792 2.3897
5.0824 0.4640 2.3897
5.0603 0.6481 2.3896
5.0320 0.8312 2.3896
4.9976 1.0133 2.3895
4.9570 1.1941 2.3894
4.9104 1.3733 2.3894
4.8577 1.5510 2.3893
4.8055 1.7290 2.3925
4.7471 1.9055 2.3956
4.6772 2.0777 2.3959
4.6011 2.2474 2.3960
4.5192 2.4145 2.3961
4.4317 2.5788 2.3962
4.3386 2.7402 2.3963
4.2400 2.8984 2.3964
4.1360 3.0534 2.3965
4.0267 3.2048 2.3966
3.9123 3.3526 2.3966
3.7955 3.4991 2.3985
3.6770 3.6453 2.4026
3.5528 3.7872 2.4063
3.4189 3.9201 2.4070
3.2804 4.0485 2.4076
3.1373 4.1723 2.4082
2.9898 4.2913 2.4087
2.8380 4.4053 2.4093
2.6821 4.5142 2.4098
2.5222 4.6178 2.4103
2.3586 4.7160 2.4107
0.8924 1.9583 0.9819
0.8214 1.9902 0.9804
0.7493 2.0195 0.9788
0.6762 2.0462 0.9771
0.6022 2.0702 0.9754
0.5274 2.0916 0.9736
0.4518 2.1103 0.9718
0.3756 2.1262 0.9700
0.2989 2.1393 0.9681
0.2217 2.1497 0.9662
0.1442 2.1573 0.9642
0.0665 2.1621 0.9623
-0.0113 2.1641 0.9603
-0.0892 2.1633 0.9582
-0.1670 2.1597 0.9562
-0.2446 2.1532 0.9541
-0.3219 2.1440 0.9520
-0.3989 2.1320 0.9499
-0.4753 2.1172 0.9478
-0.5512 2.0997 0.9457
-0.6264 2.0794 0.9435
-0.7008 2.0565 0.9414
-0.7743 2.0309 0.9393
-0.8469 2.0026 0.9371
-0.9184 1.9717 0.9350
-2.5555 5.0099 2.4111
-2.7397 4.9272 2.4107
-2.9211 4.8377 2.4102
-3.0994 4.7414 2.4097
-3.2744 4.6384 2.4091
-3.4458 4.5288 2.4085
-3.6134 4.4127 2.4079
-3.7768 4.2903 2.4073
-3.9344 4.1602 2.4057
-4.0830 4.0199 2.4017
-4.2263 3.8743 2.3976
-4.3715 3.7295 2.3976
-4.5114 3.5792 2.3975
-4.6459 3.4236 2.3974
-4.7747 3.2627 2.3974
-4.8976 3.0969 2.3973
-5.0144 2.9263 2.3972
-5.1249 2.7511 2.3971
-5.2289 2.5717 2.3970
-5.3261 2.3883 2.3969
-5.4166 2.2010 2.3968
-5.5000 2.0103 2.3967
-5.5762 1.8163 2.3966
-5.6451 1.6193 2.3965
-5.7065 1.4196 2.3964
-5.7604 1.2175 2.3963
-5.8066 1.0134 2.3962
-5.8450 0.8074 2.3961
-5.8756 0.6000 2.3960
-5.8982 0.3914 2.3959
-5.9129 0.1819 2.3958
-5.9196 -0.0280 2.3957
-5.9183 -0.2382 2.3955
-5.9089 -0.4482 2.3954
-5.8915 -0.6578 2.3953
-5.8661 -0.8667 2.3952
-5.8327 -1.0744 2.3951
-5.7913 -1.2808 2.3950
-5.7421 -1.4854 2.3949
-5.6851 -1.6879 2.3947
-5.6204 -1.8881 2.3946
-5.5481 -2.0857 2.3945
-5.4684 -2.2802 2.3944
-5.3812 -2.4715 2.3943
-5.2869 -2.6593 2.3942
-5.1855 -2.8432 2.3941
-5.0772 -3.0230 2.3940
-4.9623 -3.1984 2.3939
-4.8408 -3.3692 2.3938
-4.7130 -3.5351 2.3936
-4.5792 -3.6958 2.3936
-4.4394 -3.8513 2.3935
-4.2940 -4.0011 2.3934
-4.1432 -4.1452 2.3933
-3.9873 -4.2833 2.3932
-3.8264 -4.4152 2.3931
-3.6609 -4.5408 2.3930
-3.4911 -4.6599 2.3929
-3.3171 -4.7724 2.3929
-3.1393 -4.8782 2.3928
-2.9579 -4.9770 2.3927
-5.5566 -0.0536 2.3956
-5.5542 -0.2507 2.3955
-5.5442 -0.4477 2.3954
-5.5268 -0.6442 2.3953
-5.5019 -0.8399 2.3952
-5.4695 -1.0346 2.3951
-5.4297 -1.2279 2.3950
-5.3826 -1.4196 2.3949
-5.3282 -1.6093 2.3948
-5.2667 -1.7967 2.3946
-5.1980 -1.9817 2.3945
-5.1224 -2.1638 2.3944
-5.0399 -2.3429 2.3943
-4.9507 -2.5186 2.3942
-4.8549 -2.6907 2.3941
-4.7527 -2.8590 2.3940
-4.6442 -3.0231 2.3939
-4.5297 -3.1829 2.3938
-4.4093 -3.3381 2.3937
-4.2833 -3.4885 2.3936
-4.1517 -3.6339 2.3935
-4.0149 -3.7740 2.3935
-3.8730 -3.9088 2.3934
-3.7263 -4.0379 2.3933
-3.5750 -4.1613 2.3932
-3.4194 -4.2788 2.3931
-3.2597 -4.3902 2.3931
-3.0962 -4.4954 2.3930
-2.9291 -4.5943 2.3929
-2.7586 -4.6867 2.3929
-2.5867 -4.7755 2.3943
-2.4101 -4.8544 2.3940
-2.2297 -4.9237 2.3924
-2.0487 -4.9895 2.3924
-1.8656 -5.0484 2.3924
-1.6809 -5.1004 2.3924
-1.4946 -5.1455 2.3924
-1.3072 -5.1836 2.3924
-1.1189 -5.2147 2.3923
-0.9299 -5.2389 2.3923
-0.7405 -5.2560 2.3923
-0.5510 -5.2662 2.3923
-0.3616 -5.2695 2.3923
-0.1726 -5.2659 2.3922
0.0158 -5.2555 2.3922
0.2032 -5.2382 2.3922
0.3896 -5.2143 2.3921
0.5745 -5.1837 2.3921
0.7579 -5.1465 2.3921
0.9394 -5.1028 2.3920
1.1188 -5.0528 2.3920
1.2959 -4.9965 2.3920
1.4706 -4.9341 2.3919
1.6425 -4.8656 2.3919
1.8116 -4.7912 2.3918
1.9775 -4.7110 2.3918
2.1402 -4.6251 2.3917
2.2994 -4.5338 2.3917
2.4549 -4.4371 2.3916
2.6066 -4.3352 2.3916
2.7543 -4.2283 2.3915
2.8979 -4.1164 2.3915
3.0373 -3.9998 2.3914
3.1722 -3.8787 2.3913
3.3025 -3.7532 2.3913
3.4281 -3.6234 2.3912
3.5490 -3.4897 2.3912
3.6649 -3.3520 2.3911
3.7757 -3.2107 2.3910
3.8814 -3.0659 2.3910
3.9819 -2.9178 2.3909
4.0771 -2.7665 2.3909
4.1668 -2.6123 2.3908
4.2511 -2.4553 2.3907
4.3298 -2.2958 2.3907
4.4028 -2.1339 2.3906
4.4702 -1.9698 2.3905
4.5318 -1.8038 2.3905
4.5877 -1.6359 2.3904
4.6377 -1.4664 2.3904
4.6819 -1.2955 2.3903
4.7201 -1.1234 2.3902
4.7525 -0.9502 2.3902
4.7789 -0.7762 2.3901
4.7993 -0.6016 2.3901
4.8138 -0.4265 2.3900
4.8223 -0.2512 2.3899
4.8249 -0.0757 2.3899
4.8215 0.0996 2.3898
4.8122 0.2746 2.3898
4.7969 0.4491 2.3897
4.7757 0.6230 2.3897
4.7487 0.7960 2.3896
4.7158 0.9679 2.3896
4.6771 1.1386 2.3895
4.6327 1.3079 2.3895
4.5869 1.4770 2.3917
4.5363 1.6450 2.3944
4.4774 1.8104 2.3958
4.4105 1.9727 2.3959
4.3381 2.1328 2.3959
4.2603 2.2905 2.3960
4.1771 2.4454 2.3961
4.0886 2.5976 2.3962
3.9950 2.7467 2.3963
3.8963 2.8927 2.3964
3.7925 3.0354 2.3965
3.6839 3.1746 2.3966
3.5705 3.3101 2.3967
3.4524 3.4418 2.3967
3.3342 3.5744 2.4000
3.2114 3.7034 2.4035
3.0833 3.8276 2.4064
2.9477 3.9438 2.4070
2.8079 4.0554 2.4075
2.6642 4.1622 2.4080
2.5166 4.2642 2.4085
2.3653 4.3612 2.4089
2.2105 4.4530 2.4094
0.8341 1.8450 0.9794
0.7672 1.8749 0.9779
0.6993 1.9023 0.9764
0.6304 1.9273 0.9749
0.5607 1.9497 0.9732
0.4902 1.9697 0.9716
0.4190 1.9870 0.9699
0.3473 2.0018 0.9682
0.2750 2.0140 0.9664
0.2024 2.0236 0.9646
0.1294 2.0306 0.9627
0.0562 2.0349 0.9609
-0.0170 2.0366 0.9590
-0.0903 2.0357 0.9571
-0.1635 2.0321 0.9551
-0.2366 2.0259 0.9532
-0.3093 2.0170 0.9512
-0.3817 2.0055 0.9492
-0.4536 1.9914 0.9472
-0.5250 1.9748 0.9452
-0.5957 1.9555 0.9432
-0.6657 1.9338 0.9412
-0.7349 1.9095 0.9392
-0.8031 1.8827 0.9372
-0.8703 1.8535 0.9352
-0.9365 1.8219 0.9332
-2.5908 4.6257 2.4092
-2.7608 4.5405 2.4088
-2.9279 4.4491 2.4083
-3.0918 4.3513 2.4077
-3.2523 4.2474 2.4072
-3.4080 4.1362 2.4059
-3.5565 4.0155 2.4023
-3.6997 3.8885 2.3983
-3.8435 3.7615 2.3975
-3.9838 3.6301 2.3975
-4.1194 3.4934 2.3974
-4.2501 3.3515 2.3974
-4.3756 3.2045 2.3973
-4.4957 3.0528 2.3972
-4.6103 2.8965 2.3971
-4.7191 2.7357 2.3971
-4.8220 2.5708 2.3970
-4.9187 2.4018 2.3969
-5.0092 2.2292 2.3968
-5.0932 2.0530 2.3967
-5.1706 1.8736 2.3966
-5.2412 1.6912 2.3965
-5.3051 1.5060 2.3964
-5.3619 1.3184 2.3963
-5.4116 1.1286 2.3962
-5.4541 0.9369 2.3961
-5.4894 0.7435 2.3960
-5.5173 0.5488 2.3959
-5.5378 0.3531 2.3958
-5.5509 0.1566 2.3957
-5.5565 -0.0404 2.3956
-5.5546 -0.2375 2.3955
-5.5451 -0.4345 2.3954
-5.5282 -0.6311 2.3953
-5.5038 -0.8269 2.3952
-5.4719 -1.0216 2.3951
-5.4326 -1.2150 2.3950
-5.3860 -1.4068 2.3949
-5.3321 -1.5967 2.3948
-5.2710 -1.7843 2.3947
-5.2028 -1.9694 2.3945
-5.1276 -2.1518 2.3944
-5.0456 -2.3310 2.3943
-4.9568 -2.5070 2.3942
-4.8615 -2.6794 2.3941
-4.7597 -2.8479 2.3940
-4.6517 -3.0123 2.3939
-4.5376 -3.1724 2.3938
-4.4175 -3.3279 2.3937
-4.2918 -3.4786 2.3936
-4.1606 -3.6243 2.3936
-4.0242 -3.7648 2.3935
-3.8826 -3.9000 2.3934
-3.7362 -4.0295 2.3933
-3.5853 -4.1533 2.3932
-3.4299 -4.2712 2.3931
-3.2705 -4.3830 2.3931
-3.1072 -4.4886 2.3930
-2.9403 -4.5879 2.3929
-2.7701 -4.6807 2.3929
-2.5987 -4.7705 2.3945
-2.4222 -4.8498 2.3943
-2.2417 -4.9190 2.3924
-2.0608 -4.9853 2.3924
-1.8779 -5.0447 2.3924
-1.6933 -5.0972 2.3924
-1.5071 -5.1427 2.3924
-1.3198 -5.1813 2.3924
-1.1315 -5.2129 2.3923
-0.9425 -5.2375 2.3923
-0.7531 -5.2551 2.3923
-0.5636 -5.2658 2.3923
-0.3742 -5.2695 2.3923
-0.1852 -5.2664 2.3922
0.0032 -5.2564 2.3922
0.1908 -5.2396 2.3922
0.3772 -5.2161 2.3921
0.5622 -5.1859 2.3921
0.7457 -5.1492 2.3921
0.9273 -5.1059 2.3920
1.1069 -5.0563 2.3920
1.2842 -5.0005 2.3920
1.4590 -4.9384 2.3919
1.6312 -4.8703 2.3919
1.8004 -4.7963 2.3918
1.9665 -4.7165 2.3918
2.1294 -4.6311 2.3917
2.2888 -4.5401 2.3917
2.4446 -4.4437 2.3916
2.5966 -4.3422 2.3916
2.7446 -4.2355 2.3915
2.8885 -4.1240 2.3915
3.0281 -4.0078 2.3914
3.1633 -3.8869 2.3913
3.2939 -3.7617 2.3913
3.4199 -3.6322 2.3912
3.5411 -3.4987 2.3912
3.6573 -3.3613 2.3911
3.7685 -3.2202 2.3910
3.8746 -3.0757 2.3910
3.9754 -2.9277 2.3909
4.0709 -2.7767 2.3909
4.1610 -2.6227 2.3908
4.2456 -2.4659 2.3907
4.3247 -2.3065 2.3907
4.3981 -2.1448 2.3906
4.4659 -1.9808 2.3906
4.5279 -1.8149 2.3905
4.5841 -1.6471 2.3904
4.6345 -1.4778 2.3904
4.6791 -1.3070 2.3903
4.7178 -1.1349 2.3902
4.7505 -0.9618 2.3902
4.7773 -0.7879 2.3901
4.7981 -0.6133 2.3901
4.8130 -0.4382 2.3900
4.8219 -0.2629 2.3899
4.8249 -0.0874 2.3899
4.8219 0.0879 2.3898
4.8130 0.2629 2.3898
4.7981 0.4375 2.3897
4.7773 0.6114 2.3897
4.7507 0.7845 2.3896
4.7182 0.9565 2.3896
4.6799 1.1273 2.3895
4.6358 1.2967 2.3895
4.5900 1.4657 2.3915
4.5398 1.6338 2.3942
4.4816 1.7995 2.3958
4.4151 1.9620 2.3958
4.3431 2.1222 2.3959
4.2656 2.2800 2.3960
4.1828 2.4352 2.3961
4.0947 2.5875 2.3962
4.0014 2.7369 2.3963
3.9030 2.8831 2.3964
3.7996 3.0260 2.3965
3.6913 3.1654 2.3966
3.5782 3.3012 2.3967
3.4604 3.4332 2.3967
3.3422 3.5656 2.3998
3.2198 3.6949 2.4033
3.0922 3.8197 2.4064
2.9569 3.9362 2.4069
2.8174 4.0481 2.4075
2.6739 4.1552 2.4080
2.5266 4.2576 2.4085
2.3756 4.3549 2.4089
2.2209 4.4470 2.4093
0.8386 1.8430 0.9795
0.7717 1.8730 0.9780
0.7039 1.9006 0.9765
0.6351 1.9257 0.9750
0.5654 1.9483 0.9733
0.4949 1.9684 0.9717
0.4238 1.9860 0.9700
0.3521 2.0009 0.9683
0.2798 2.0133 0.9665
0.2072 2.0231 0.9647
0.1343 2.0302 0.9629
0.0611 2.0347 0.9610
-0.0121 2.0366 0.9591
-0.0854 2.0358 0.9572
-0.1586 2.0324 0.9553
-0.2317 2.0263 0.9533
-0.3045 2.0177 0.9514
-0.3769 2.0064 0.9494
-0.4489 1.9924 0.9474
-0.5203 1.9759 0.9454
-0.5911 1.9569 0.9434
-0.6611 1.9353 0.9414
-0.7303 1.9112 0.9394
-0.7986 1.8846 0.9373
-0.8659 1.8555 0.9353
-0.9321 1.8241 0.9333
-2.5793 4.6311 2.4092
-2.7496 4.5464 2.4088
-2.9169 4.4554 2.4083
-3.0810 4.3580 2.4078
-3.2417 4.2546 2.4072
-3.3980 4.1440 2.4061
-3.5468 4.0238 2.4026
-3.6903 3.8972 2.3986
-3.8340 3.7701 2.3975
-3.9746 3.6391 2.3975
-4.1105 3.5027 2.3974
-4.2415 3.3611 2.3974
-4.3674 3.2145 2.3973
-4.4879 3.0631 2.3972
-4.6028 2.9070 2.3971
-4.7120 2.7466 2.3971
-4.8153 2.5819 2.3970
-4.9124 2.4132 2.3969
-5.0033 2.2408 2.3968
-5.0878 2.0649 2.3967
-5.1656 1.8857 2.3966
-5.2367 1.7035 2.3965
-5.3010 1.5185 2.3965
-5.3583 1.3310 2.3964
-5.4085 1.1413 2.3963
-5.4515 0.9497 2.3962
-5.4873 0.7565 2.3961
-5.5157 0.5618 2.3959
-5.5367 0.3662 2.3958
-5.5503 0.1697 2.3957
-5.5563 -0.0273 2.3956
-5.5549 -0.2244 2.3955
-5.5460 -0.4214 2.3954
-5.5296 -0.6180 2.3953
-5.5056 -0.8138 2.3952
-5.4743 -1.0087 2.3951
-5.4355 -1.2022 2.3950
-5.3893 -1.3941 2.3949
-5.3359 -1.5841 2.3948
-5.2753 -1.7718 2.3947
-5.2076 -1.9572 2.3946
-5.1329 -2.1397 2.3944
-5.0513 -2.3192 2.3943
-4.9630 -2.4954 2.3942
-4.8680 -2.6680 2.3941
-4.7667 -2.8368 2.3940
-4.6591 -3.0014 2.3939
-4.5454 -3.1618 2.3938
-4.4257 -3.3176 2.3937
-4.3004 -3.4687 2.3936
-4.1696 -3.6148 2.3936
-4.0334 -3.7556 2.3935
-3.8922 -3.8911 2.3934
-3.7461 -4.0210 2.3933
-3.5955 -4.1452 2.3932
-3.4404 -4.2635 2.3931
-3.2813 -4.3757 2.3931
-3.1182 -4.4817 2.3930
-2.9516 -4.5815 2.3929
-2.7816 -4.6747 2.3929
-5.2294 -0.0513 2.3956
-5.2269 -0.2367 2.3955
-5.2175 -0.4219 2.3954
-5.2010 -0.6067 2.3953
-5.1775 -0.7908 2.3952
-5.1470 -0.9738 2.3951
-5.1096 -1.1556 2.3950
-5.0653 -1.3358 2.3949
-5.0142 -1.5142 2.3948
-4.9564 -1.6905 2.3947
-4.8919 -1.8645 2.3946
-4.8209 -2.0358 2.3945
-4.7434 -2.2043 2.3944
-4.6596 -2.3696 2.3943
-4.5697 -2.5315 2.3942
-4.4738 -2.6899 2.3941
-4.3720 -2.8444 2.3940
-4.2645 -2.9948 2.3939
-4.1515 -3.1409 2.3938
-4.0331 -3.2826 2.3937
-3.9095 -3.4196 2.3936
-3.7811 -3.5517 2.3936
-3.6478 -3.6787 2.3935
-3.5101 -3.8005 2.3934
-3.3680 -3.9169 2.3933
-3.2218 -4.0278 2.3933
-3.0718 -4.1330 2.3932
-2.9181 -4.2324 2.3931
-2.7610 -4.3258 2.3930
-2.6008 -4.4132 2.3930
-2.4377 -4.4945 2.3929
-2.2720 -4.5697 2.3930
-2.1038 -4.6384 2.3929
-1.9330 -4.6996 2.3923
-1.7608 -4.7556 2.3923
-1.5869 -4.8051 2.3923
-1.4117 -4.8481 2.3923
-1.2352 -4.8845 2.3923
-1.0579 -4.9144 2.3922
-0.8799 -4.9377 2.3922
-0.7015 -4.9545 2.3922
-0.5229 -4.9647 2.3922
-0.3445 -4.9683 2.3922
-0.1663 -4.9655 2.3921
0.0113 -4.9563 2.3921
0.1881 -4.9406 2.3921
0.3638 -4.9186 2.3921
0.5383 -4.8903 2.3920
0.7113 -4.8558 2.3920
0.8827 -4.8152 2.3919
1.0521 -4.7686 2.3919
1.2194 -4.7161 2.3919
1.3844 -4.6577 2.3918
1.5469 -4.5936 2.3918
1.7066 -4.5239 2.3917
1.8635 -4.4487 2.3917
2.0173 -4.3682 2.3917
2.1679 -4.2824 2.3916
2.3150 -4.1916 2.3916
2.4586 -4.0958 2.3915
2.5985 -3.9952 2.3915
2.7344 -3.8899 2.3914
2.8664 -3.7802 2.3913
2.9941 -3.6661 2.3913
3.1176 -3.5479 2.3912
3.2367 -3.4256 2.3912
3.3512 -3.2995 2.3911
3.4611 -3.1697 2.3911
3.5663 -3.0364 2.3910
3.6665 -2.8997 2.3910
3.7619 -2.7599 2.3909
3.8522 -2.6171 2.3908
3.9374 -2.4714 2.3908
4.0174 -2.3232 2.3907
4.0921 -2.1725 2.3907
4.1615 -2.0195 2.3906
4.2256 -1.8644 2.3905
4.2842 -1.7074 2.3905
4.3373 -1.5487 2.3904
4.3849 -1.3884 2.3904
4.4269 -1.2267 2.3903
4.4633 -1.0639 2.3903
4.4942 -0.9001 2.3902
4.5194 -0.7355 2.3901
4.5389 -0.5702 2.3901
4.5528 -0.4045 2.3900
4.5610 -0.2386 2.3900
4.5636 -0.0725 2.3899
4.5605 0.0934 2.3899
4.5518 0.2591 2.3898
4.5374 0.4243 2.3898
4.5174 0.5889 2.3897
4.4919 0.7527 2.3897
4.4608 0.9154 2.3896
4.4242 1.0770 2.3896
4.3846 1.2380 2.3908
4.3415 1.3982 2.3933
4.2929 1.5571 2.3956
4.2348 1.7128 2.3957
4.1714 1.8665 2.3958
4.1028 2.0180 2.3959
4.0290 2.1671 2.3960
3.9502 2.3137 2.3961
3.8663 2.4576 2.3962
3.7776 2.5987 2.3963
3.6840 2.7368 2.3963
3.5856 2.8717 2.3964
3.4827 3.0032 2.3965
3.3752 3.1313 2.3966
3.2632 3.2558 2.3967
3.1470 3.3765 2.3967
3.0265 3.4932 2.3968
2.9063 3.6113 2.4005
2.7810 3.7245 2.4035
2.6514 3.8333 2.4063
2.5153 3.9341 2.4068
2.3756 4.0302 2.4073
2.2323 4.1215 2.4077
0.8476 1.7100 0.9786
0.7856 1.7404 0.9772
0.7224 1.7685 0.9759
0.6584 1.7944 0.9744
0.5934 1.8179 0.9729
0.5276 1.8391 0.9714
0.4611 1.8579 0.9698
0.3939 1.8743 0.9682
0.3262 1.8882 0.9666
0.2580 1.8997 0.9649
0.1895 1.9088 0.9632
0.1207 1.9153 0.9615
0.0516 1.9194 0.9597
-0.0175 1.9210 0.9580
-0.0866 1.9201 0.9562
-0.1557 1.9167 0.9543
-0.2246 1.9108 0.9525
-0.2932 1.9025 0.9506
-0.3615 1.8916 0.9488
-0.4294 1.8784 0.9469
-0.4967 1.8626 0.9450
-0.5634 1.8445 0.9431
-0.6295 1.8240 0.9412
-0.6947 1.8010 0.9393
-0.7591 1.7758 0.9374
-0.8225 1.7483 0.9355
-0.8849 1.7184 0.9336
-2.4451 4.3581 2.4079
-2.6050 4.2774 2.4075
-2.7622 4.1908 2.4070
-2.9150 4.0965 2.4055
-3.0627 3.9941 2.4024
-3.2056 3.8855 2.3990
-3.3479 3.7749 2.3975
-3.4880 3.6612 2.3975
-3.6240 3.5422 2.3974
-3.7558 3.4181 2.3973
-3.8831 3.2889 2.3973
-4.0058 3.1550 2.3972
-4.1235 3.0163 2.3972
-4.2363 2.8732 2.3971
-4.3437 2.7257 2.3970
-4.4458 2.5742 2.3970
-4.5422 2.4187 2.3969
-4.6329 2.2595 2.3968
-4.7176 2.0968 2.3967
-4.7963 1.9309 2.3966
-4.8688 1.7620 2.3965
-4.9350 1.5902 2.3965
-4.9947 1.4159 2.3964
-5.0478 1.2393 2.3963
-5.0943 1.0607 2.3962
-5.1340 0.8803 2.3961
-5.1670 0.6984 2.3960
-5.1930 0.5152 2.3959
-5.2121 0.3311 2.3958
-5.2242 0.1463 2.3957
-5.2293 -0.0389 2.3956
-5.2273 -0.2243 2.3955
-5.2183 -0.4096 2.3954
-5.2023 -0.5944 2.3953
-5.1793 -0.7785 2.3952
-5.1493 -0.9616 2.3951
-5.1123 -1.1435 2.3950
-5.0685 -1.3238 2.3949
-5.0178 -1.5024 2.3948
-4.9604 -1.6788 2.3947
-4.8964 -1.8530 2.3946
-4.8258 -2.0245 2.3945
-4.7488 -2.1931 2.3944
-4.6654 -2.3587 2.3943
-4.5759 -2.5208 2.3942
-4.4804 -2.6794 2.3941
-4.3790 -2.8342 2.3940
-4.2718 -2.9849 2.3939
-4.1592 -3.1313 2.3938
-4.0411 -3.2733 2.3937
-3.9180 -3.4106 2.3936
-3.7898 -3.5430 2.3936
-3.6569 -3.6704 2.3935
-3.5194 -3.7925 2.3934
-3.3776 -3.9093 2.3933
-3.2317 -4.0206 2.3933
-3.0819 -4.1261 2.3932
-2.9285 -4.2259 2.3931
-2.7716 -4.3197 2.3931
-2.6116 -4.4076 2.3930
-2.4487 -4.4892 2.3929
-2.2834 -4.5654 2.3932
-2.1153 -4.6345 2.3932
-1.9444 -4.6956 2.3923
-1.7723 -4.7521 2.3923
-1.5986 -4.8020 2.3923
-1.4234 -4.8454 2.3923
-1.2470 -4.8823 2.3923
-1.0697 -4.9126 2.3922
-0.8918 -4.9364 2.3922
-0.7134 -4.9535 2.3922
-0.5349 -4.9642 2.3922
-0.3564 -4.9683 2.3922
-0.1782 -4.9659 2.3921
-0.0006 -4.9571 2.3921
0.1763 -4.9418 2.3921
0.3521 -4.9203 2.3921
0.5267 -4.8924 2.3920
0.6999 -4.8583 2.3920
0.8713 -4.8181 2.3920
1.0409 -4.7719 2.3919
1.2083 -4.7197 2.3919
1.3735 -4.6617 2.3918
1.5361 -4.5980 2.3918
1.6961 -4.5287 2.3917
1.8531 -4.4539 2.3917
2.0072 -4.3737 2.3917
2.1580 -4.2883 2.3916
2.3053 -4.1978 2.3916
2.4491 -4.1023 2.3915
2.5892 -4.0020 2.3915
2.7255 -3.8971 2.3914
2.8577 -3.7877 2.3914
2.9857 -3.6739 2.3913
3.1095 -3.5559 2.3912
3.2289 -3.4339 2.3912
3.3437 -3.3080 2.3911
3.4539 -3.1785 2.3911
3.5594 -3.0454 2.3910
3.6600 -2.9089 2.3910
3.7557 -2.7693 2.3909
3.8463 -2.6267 2.3908
3.9318 -2.4812 2.3908
4.0122 -2.3331 2.3907
4.0873 -2.1826 2.3907
4.1571 -2.0297 2.3906
4.2215 -1.8748 2.3905
4.2804 -1.7179 2.3905
4.3339 -1.5593 2.3904
4.3819 -1.3991 2.3904
4.4243 -1.2376 2.3903
4.4611 -1.0748 2.3903
4.4923 -0.9111 2.3902
4.5179 -0.7465 2.3901
4.5378 -0.5813 2.3901
4.5520 -0.4156 2.3900
4.5606 -0.2497 2.3900
4.5636 -0.0836 2.3899
4.5609 0.0824 2.3899
4.5525 0.2481 2.3898
4.5385 0.4133 2.3898
4.5189 0.5779 2.3897
4.4938 0.7417 2.3897
4.4631 0.9046 2.3896
4.4268 1.0663 2.3896
4.3871 1.2271 2.3906
4.3445 1.3876 2.3930
4.2966 1.5467 2.3956
4.2388 1.7025 2.3957
4.1758 1.8563 2.3958
4.1075 2.0079 2.3959
4.0341 2.1572 2.3960
3.9556 2.3040 2.3961
3.8721 2.4481 2.3962
3.7836 2.5894 2.3962
3.6904 2.7277 2.3963
3.5923 2.8628 2.3964
3.4897 2.9946 2.3965
3.3825 3.1229 2.3966
3.2708 3.2476 2.3966
3.1549 3.3685 2.3967
3.0347 3.4855 2.3968
2.9145 3.6036 2.4003
2.7895 3.7171 2.4033
2.6602 3.8262 2.4061
2.5245 3.9275 2.4068
2.3850 4.0239 2.4073
2.2420 4.1155 2.4077
0.8517 1.7078 0.9787
0.7897 1.7384 0.9773
0.7267 1.7667 0.9759
0.6627 1.7927 0.9745
0.5977 1.8164 0.9730
0.5320 1.8377 0.9715
0.4655 1.8567 0.9699
0.3984 1.8732 0.9684
0.3307 1.8874 0.9667
0.2626 1.8990 0.9650
0.1941 1.9082 0.9633
0.1253 1.9150 0.9616
0.0563 1.9192 0.9599
-0.0129 1.9210 0.9581
-0.0820 1.9202 0.9563
-0.1511 1.9170 0.9545
-0.2200 1.9113 0.9526
-0.2886 1.9031 0.9508
-0.3570 1.8924 0.9489
-0.4249 1.8793 0.9470
-0.4922 1.8638 0.9451
-0.5590 1.8458 0.9432
-0.6251 1.8254 0.9413
-0.6904 1.8026 0.9394
-0.7548 1.7776 0.9375
-0.8183 1.7502 0.9356
-0.8807 1.7205 0.9338
-0.9421 1.6886 0.9319
-2.5944 4.2830 2.4075
-2.7517 4.1967 2.4070
-2.9051 4.1031 2.4057
-3.0529 4.0011 2.4027
-3.1962 3.8929 2.3992
-3.3384 3.7823 2.3975
-3.4788 3.6690 2.3975
-3.6151 3.5503 2.3974
-3.7472 3.4265 2.3974
-3.8748 3.2977 2.3973
-3.9977 3.1641 2.3972
-4.1158 3.0257 2.3972
-4.2289 2.8829 2.3971
-4.3367 2.7357 2.3970
-4.4391 2.5844 2.3970
-4.5359 2.4292 2.3969
-4.6270 2.2702 2.3968
-4.7122 2.1078 2.3967
-4.7913 1.9421 2.3966
-4.8642 1.7733 2.3966
-4.9307 1.6018 2.3965
-4.9909 1.4276 2.3964
-5.0445 1.2512 2.3963
-5.0914 1.0727 2.3962
-5.1316 0.8924 2.3961
-5.1650 0.7106 2.3960
-5.1915 0.5275 2.3959
-5.2110 0.3434 2.3958
-5.2236 0.1586 2.3957
-5.2291 -0.0266 2.3956
-5.2277 -0.2120 2.3955
-5.2192 -0.3972 2.3954
-5.2036 -0.5821 2.3953
-5.1810 -0.7662 2.3952
-5.1515 -0.9494 2.3951
-5.1150 -1.1314 2.3950
-5.0716 -1.3119 2.3949
-5.0214 -1.4905 2.3948
-4.9645 -1.6671 2.3947
-4.9009 -1.8414 2.3946
-4.8307 -2.0131 2.3945
-4.7541 -2.1820 2.3944
-4.6712 -2.3477 2.3943
-4.5821 -2.5101 2.3942
-4.4869 -2.6690 2.3941
-4.3859 -2.8240 2.3940
-4.2792 -2.9750 2.3939
-4.1668 -3.1217 2.3938
-4.0492 -3.2640 2.3937
-3.9263 -3.4016 2.3937
-3.7985 -3.5343 2.3936
-3.6659 -3.6620 2.3935
-3.5287 -3.7846 2.3934
-3.3872 -3.9017 2.3933
-3.2415 -4.0133 2.3933
-3.0920 -4.1193 2.3932
-2.9388 -4.2194 2.3931
-2.7822 -4.3137 2.3931
-2.6224 -4.4019 2.3930
-4.9328 -0.0493 2.3956
-4.9304 -0.2240 2.3955
-4.9214 -0.3986 2.3954
-4.9058 -0.5727 2.3953
-4.8836 -0.7462 2.3952
-4.8548 -0.9187 2.3951
-4.8195 -1.0901 2.3950
-4.7778 -1.2599 2.3949
-4.7297 -1.4281 2.3948
-4.6752 -1.5943 2.3947
-4.6145 -1.7583 2.3946
-4.5476 -1.9198 2.3945
-4.4747 -2.0786 2.3944
-4.3959 -2.2345 2.3943
-4.3113 -2.3873 2.3942
-4.2210 -2.5366 2.3942
-4.1252 -2.6823 2.3941
-4.0240 -2.8243 2.3940
-3.9176 -2.9622 2.3939
-3.8062 -3.0959 2.3938
-3.6900 -3.2252 2.3937
-3.5690 -3.3500 2.3937
-3.4436 -3.4700 2.3936
-3.3139 -3.5851 2.3935
-3.1801 -3.6951 2.3934
-3.0425 -3.8000 2.3934
-2.9011 -3.8995 2.3933
-2.7564 -3.9935 2.3932
-2.6084 -4.0820 2.3932
-2.4575 -4.1648 2.3931
-2.3038 -4.2419 2.3931
-2.1486 -4.3152 2.3942
-1.9893 -4.3789 2.3933
-1.8278 -4.4362 2.3922
-1.6655 -4.4895 2.3922
-1.5015 -4.5367 2.3922
-1.3362 -4.5777 2.3922
-1.1698 -4.6125 2.3922
-1.0024 -4.6412 2.3921
-0.8344 -4.6637 2.3921
-0.6660 -4.6800 2.3921
-0.4974 -4.6902 2.3921
-0.3289 -4.6941 2.3921
-0.1606 -4.6920 2.3920
0.0072 -4.6837 2.3920
0.1742 -4.6694 2.3920
0.3403 -4.6492 2.3920
0.5053 -4.6229 2.3919
0.6689 -4.5909 2.3919
0.8310 -4.5530 2.3919
0.9913 -4.5094 2.3918
1.1496 -4.4602 2.3918
1.3058 -4.4055 2.3918
1.4596 -4.3453 2.3917
1.6108 -4.2799 2.3917
1.7594 -4.2092 2.3916
1.9051 -4.1335 2.3916
2.0478 -4.0527 2.3915
2.1873 -3.9672 2.3915
2.3234 -3.8769 2.3915
2.4560 -3.7821 2.3914
2.5849 -3.6829 2.3914
2.7101 -3.5794 2.3913
2.8313 -3.4717 2.3913
2.9485 -3.3601 2.3912
3.0615 -3.2446 2.3911
3.1703 -3.1255 2.3911
3.2746 -3.0028 2.3910
3.3745 -2.8768 2.3910
3.4698 -2.7476 2.3909
3.5604 -2.6153 2.3909
3.6462 -2.4802 2.3908
3.7272 -2.3424 2.3908
3.8033 -2.2021 2.3907
3.8743 -2.0594 2.3907
3.9404 -1.9146 2.3906
4.0013 -1.7677 2.3905
4.0571 -1.6190 2.3905
4.1077 -1.4687 2.3904
4.1530 -1.3168 2.3904
4.1931 -1.1637 2.3903
4.2278 -1.0094 2.3903
4.2572 -0.8542 2.3902
4.2813 -0.6981 2.3902
4.3000 -0.5415 2.3901
4.3133 -0.3844 2.3900
4.3213 -0.2270 2.3900
4.3238 -0.0696 2.3899
4.3210 0.0878 2.3899
4.3128 0.2449 2.3898
4.2993 0.4015 2.3898
4.2804 0.5576 2.3897
4.2562 0.7129 2.3897
4.2268 0.8672 2.3897
4.1931 1.0208 2.3902
4.1579 1.1741 2.3928
4.1172 1.3262 2.3954
4.0674 1.4757 2.3956
4.0122 1.6233 2.3957
3.9520 1.7690 2.3958
3.8869 1.9126 2.3959
3.8169 2.0539 2.3960
3.7420 2.1929 2.3960
3.6624 2.3293 2.3961
3.5781 2.4629 2.3962
3.4892 2.5937 2.3963
3.3959 2.7215 2.3964
3.2981 2.8461 2.3964
3.1960 2.9674 2.3965
3.0898 3.0852 2.3966
2.9794 3.1994 2.3966
2.8651 3.3099 2.3967
2.7469 3.4165 2.3968
2.6254 3.5196 2.3972
2.5028 3.6224 2.4002
2.3761 3.7207 2.4028
2.2455 3.8144 2.4052
0.8575 1.5853 0.9778
0.7999 1.6162 0.9765
0.7413 1.6449 0.9753
0.6816 1.6715 0.9739
0.6210 1.6959 0.9726
0.5596 1.7182 0.9712
0.4974 1.7382 0.9697
0.4345 1.7559 0.9683
0.3710 1.7714 0.9667
0.3070 1.7846 0.9652
0.2426 1.7955 0.9636
0.1778 1.8040 0.9620
0.1127 1.8102 0.9604
0.0475 1.8141 0.9587
