ply
format ascii 1.0
element vertex 2175
property float32 x
property float32 y
property float32 z
end_header
-0.5874 2.3994 0.9469
-0.6732 2.3772 0.9458
-0.7582 2.3518 0.9447
-0.8422 2.3234 0.9436
-2.3467 5.8140 2.3909
-2.5570 5.7334 2.3909
-2.7645 5.6453 2.3909
-2.9689 5.5496 2.3909
-3.1699 5.4464 2.3909
-3.3673 5.3360 2.3909
-3.5608 5.2183 2.3909
-3.7501 5.0935 2.3909
-3.9349 4.9619 2.3909
-4.1150 4.8235 2.3909
-4.2901 4.6784 2.3909
-4.4600 4.5269 2.3909
-4.6245 4.3692 2.3909
-4.7832 4.2055 2.3909
-4.9359 4.0359 2.3909
-5.0825 3.8606 2.3909
-5.2227 3.6799 2.3909
-5.3564 3.4941 2.3909
-5.4832 3.3034 2.3909
-5.6030 3.1080 2.3909
-5.7157 2.9081 2.3909
-5.8210 2.7041 2.3909
-5.9188 2.4962 2.3909
-6.0089 2.2847 2.3909
-6.0913 2.0699 2.3909
-6.1657 1.8520 2.3909
-6.2321 1.6315 2.3909
-6.2903 1.4085 2.3909
-6.3403 1.1834 2.3909
-6.3819 0.9565 2.3909
-6.4152 0.7282 2.3909
-6.4400 0.4986 2.3909
-6.4562 0.2682 2.3909
-6.4640 0.0373 2.3909
-6.4632 -0.1937 2.3909
-6.4538 -0.4247 2.3909
-6.4359 -0.6552 2.3909
-6.4094 -0.8849 2.3909
-6.3745 -1.1135 2.3909
-6.3311 -1.3407 2.3909
-6.2793 -1.5661 2.3909
-6.2191 -1.7894 2.3909
-6.1508 -2.0104 2.3909
-6.0743 -2.2287 2.3909
-5.9898 -2.4439 2.3909
-5.8974 -2.6558 2.3909
-5.7972 -2.8641 2.3909
-5.6894 -3.0685 2.3909
-5.5741 -3.2687 2.3909
-5.4515 -3.4645 2.3909
-5.3219 -3.6555 2.3909
-5.1853 -3.8415 2.3909
-5.0420 -4.0223 2.3909
-4.8921 -4.1976 2.3909
-4.7360 -4.3671 2.3909
-4.5738 -4.5307 2.3909
-4.4058 -4.6880 2.3909
-4.2323 -4.8390 2.3909
-4.0534 -4.9834 2.3909
-3.8694 -5.1210 2.3909
-3.6806 -5.2517 2.3909
-3.4873 -5.3752 2.3909
-3.2897 -5.4915 2.3909
-3.0882 -5.6004 2.3909
-2.8829 -5.7017 2.3909
-2.6743 -5.7953 2.3909
-2.4625 -5.8812 2.3909
-2.2481 -5.9592 2.3909
-2.0310 -6.0293 2.3909
-1.8118 -6.0913 2.3909
-1.5907 -6.1453 2.3909
-1.3679 -6.1911 2.3909
-1.1439 -6.2287 2.3909
-0.9189 -6.2582 2.3909
-0.6932 -6.2794 2.3909
-0.4671 -6.2925 2.3909
-0.2410 -6.2973 2.3909
-0.0162 -5.8908 2.3909
0.1949 -5.8805 2.3909
0.4051 -5.8626 2.3909
0.6144 -5.8371 2.3909
0.8222 -5.8042 2.3909
1.0287 -5.7638 2.3909
1.2335 -5.7161 2.3909
1.4360 -5.6612 2.3909
1.6363 -5.5991 2.3909
1.8340 -5.5299 2.3909
2.0289 -5.4538 2.3909
2.2207 -5.3708 2.3909
2.4093 -5.2811 2.3909
2.5944 -5.1849 2.3909
2.7757 -5.0822 2.3909
2.9532 -4.9733 2.3909
3.1262 -4.8582 2.3909
3.2951 -4.7372 2.3909
3.4594 -4.6104 2.3909
3.6189 -4.4780 2.3909
3.7736 -4.3401 2.3909
3.9230 -4.1970 2.3909
4.0672 -4.0489 2.3909
4.2059 -3.8958 2.3909
4.3391 -3.7382 2.3909
4.4664 -3.5760 2.3909
4.5879 -3.4096 2.3909
4.7034 -3.2392 2.3909
4.8127 -3.0649 2.3909
4.9157 -2.8871 2.3909
5.0123 -2.7058 2.3909
5.1024 -2.5215 2.3909
5.1860 -2.3342 2.3909
5.2629 -2.1442 2.3909
5.3330 -1.9517 2.3909
5.3963 -1.7571 2.3909
5.4528 -1.5604 2.3909
5.5023 -1.3620 2.3909
5.5448 -1.1621 2.3909
5.5802 -0.9609 2.3909
5.6086 -0.7587 2.3909
5.6299 -0.5557 2.3909
5.6441 -0.3521 2.3909
5.6512 -0.1483 2.3909
5.6512 0.0557 2.3909
5.6440 0.2594 2.3909
5.6298 0.4627 2.3909
5.6084 0.6654 2.3909
5.5801 0.8672 2.3909
5.5447 1.0678 2.3909
5.5023 1.2671 2.3909
5.4530 1.4648 2.3909
5.3968 1.6606 2.3909
5.3339 1.8544 2.3909
5.2642 2.0459 2.3909
5.1878 2.2349 2.3909
5.1049 2.4211 2.3909
5.0156 2.6043 2.3909
4.9199 2.7844 2.3909
4.8179 2.9611 2.3909
4.7098 3.1341 2.3909
4.5956 3.3033 2.3909
4.4756 3.4685 2.3909
4.3498 3.6295 2.3909
4.2184 3.7861 2.3909
4.0816 3.9380 2.3909
3.9394 4.0851 2.3909
3.7921 4.2273 2.3909
3.6398 4.3643 2.3909
3.4827 4.4959 2.3909
3.3210 4.6220 2.3909
3.1548 4.7424 2.3909
2.9844 4.8571 2.3909
2.8100 4.9657 2.3909
2.6317 5.0682 2.3909
2.4497 5.1645 2.3909
0.9114 2.1149 0.9623
0.8349 2.1469 0.9616
0.7573 2.1761 0.9609
0.6786 2.2025 0.9601
0.5991 2.2260 0.9594
0.5187 2.2467 0.9586
0.4377 2.2645 0.9578
0.3560 2.2793 0.9569
0.2739 2.2911 0.9560
0.1914 2.3000 0.9552
0.1086 2.3059 0.9543
0.0257 2.3089 0.9533
-0.0573 2.3088 0.9524
-0.1403 2.3057 0.9514
-0.2231 2.2996 0.9505
-0.3056 2.2906 0.9495
-0.3877 2.2786 0.9485
-0.4694 2.2636 0.9475
-0.5504 2.2457 0.9465
-0.6308 2.2248 0.9455
-0.7103 2.2011 0.9445
-0.7889 2.1746 0.9435
-0.8666 2.1452 0.9424
-2.3950 5.3662 2.3909
-2.5891 5.2833 2.3909
-2.7802 5.1933 2.3909
-2.9682 5.0965 2.3909
-3.1527 4.9927 2.3909
-3.3335 4.8823 2.3909
-3.5104 4.7653 2.3909
-3.6830 4.6418 2.3909
-3.8513 4.5119 2.3909
-4.0148 4.3760 2.3909
-4.1735 4.2340 2.3909
-4.3270 4.0862 2.3909
-4.4752 3.9328 2.3909
-4.6178 3.7740 2.3909
-4.7546 3.6098 2.3909
-4.8855 3.4407 2.3909
-5.0101 3.2668 2.3909
-5.1284 3.0883 2.3909
-5.2402 2.9054 2.3909
-5.3453 2.7184 2.3909
-5.4435 2.5276 2.3909
-5.5346 2.3331 2.3909
-5.6187 2.1353 2.3909
-5.6954 1.9344 2.3909
-5.7648 1.7308 2.3909
-5.8266 1.5246 2.3909
-5.8808 1.3161 2.3909
-5.9273 1.1057 2.3909
-5.9661 0.8936 2.3909
-5.9970 0.6802 2.3909
-6.0200 0.4656 2.3909
-6.0351 0.2503 2.3909
-6.0422 0.0346 2.3909
-6.0413 -0.1814 2.3909
-6.0325 -0.3972 2.3909
-6.0157 -0.6126 2.3909
-5.9909 -0.8272 2.3909
-5.9582 -1.0408 2.3909
-5.9176 -1.2531 2.3909
-5.8692 -1.4637 2.3909
-5.8130 -1.6724 2.3909
-5.7492 -1.8789 2.3909
-5.6778 -2.0828 2.3909
-5.5989 -2.2839 2.3909
-5.5126 -2.4820 2.3909
-5.4191 -2.6767 2.3909
-5.3184 -2.8678 2.3909
-5.2108 -3.0549 2.3909
-5.0964 -3.2379 2.3909
-4.9753 -3.4165 2.3909
-4.8478 -3.5905 2.3909
-4.7141 -3.7595 2.3909
-4.5742 -3.9235 2.3909
-4.4284 -4.0820 2.3909
-4.2770 -4.2351 2.3909
-4.1202 -4.3823 2.3909
-3.9581 -4.5237 2.3909
-3.7910 -4.6588 2.3909
-3.6192 -4.7877 2.3909
-3.4429 -4.9101 2.3909
-3.2623 -5.0259 2.3909
-3.0778 -5.1349 2.3909
-2.8895 -5.2369 2.3909
-2.6977 -5.3320 2.3909
-2.5027 -5.4199 2.3909
-2.3049 -5.5005 2.3909
-2.1044 -5.5738 2.3909
-1.9016 -5.6397 2.3909
-1.6966 -5.6980 2.3909
-1.4899 -5.7489 2.3909
-1.2817 -5.7921 2.3909
-1.0721 -5.8277 2.3909
-0.8618 -5.8557 2.3909
-0.6506 -5.8760 2.3909
-0.4391 -5.8886 2.3909
-0.2275 -5.8935 2.3909
-0.0160 -5.8908 2.3909
0.1951 -5.8805 2.3909
0.4051 -5.8626 2.3909
0.6145 -5.8371 2.3909
0.8223 -5.8042 2.3909
1.0289 -5.7638 2.3909
1.2335 -5.7161 2.3909
1.4361 -5.6611 2.3909
1.6365 -5.5990 2.3909
1.8341 -5.5298 2.3909
2.0290 -5.4537 2.3909
2.2208 -5.3707 2.3909
2.4094 -5.2811 2.3909
2.5945 -5.1848 2.3909
2.7758 -5.0822 2.3909
2.9532 -4.9732 2.3909
3.1265 -4.8582 2.3909
3.2952 -4.7372 2.3909
3.4595 -4.6103 2.3909
3.6191 -4.4779 2.3909
3.7737 -4.3401 2.3909
3.9231 -4.1969 2.3909
4.0673 -4.0488 2.3909
4.2060 -3.8957 2.3909
4.3392 -3.7380 2.3909
4.4665 -3.5759 2.3909
4.5880 -3.4095 2.3909
4.7034 -3.2391 2.3909
4.8127 -3.0648 2.3909
4.9157 -2.8870 2.3909
5.0124 -2.7057 2.3909
5.1025 -2.5214 2.3909
5.1861 -2.3341 2.3909
5.2629 -2.1441 2.3909
5.3331 -1.9516 2.3909
5.3964 -1.7569 2.3909
5.4528 -1.5603 2.3909
5.5023 -1.3619 2.3909
5.5448 -1.1620 2.3909
5.5802 -0.9608 2.3909
5.6086 -0.7586 2.3909
5.6299 -0.5556 2.3909
5.6441 -0.3520 2.3909
5.6512 -0.1482 2.3909
5.6512 0.0558 2.3909
5.6440 0.2595 2.3909
5.6298 0.4629 2.3909
5.6084 0.6655 2.3909
5.5800 0.8673 2.3909
5.5446 1.0680 2.3909
5.5022 1.2673 2.3909
5.4529 1.4649 2.3909
5.3968 1.6608 2.3909
5.3338 1.8545 2.3909
5.2641 2.0460 2.3909
5.1878 2.2350 2.3909
5.1049 2.4212 2.3909
5.0155 2.6044 2.3909
4.9198 2.7845 2.3909
4.8178 2.9612 2.3909
4.7097 3.1342 2.3909
4.5955 3.3034 2.3909
4.4755 3.4686 2.3909
4.3497 3.6296 2.3909
4.2183 3.7862 2.3909
4.0815 3.9381 2.3909
3.9393 4.0852 2.3909
3.7920 4.2273 2.3909
3.6397 4.3644 2.3909
3.4826 4.4959 2.3909
3.3209 4.6221 2.3909
3.1547 4.7425 2.3909
2.9843 4.8571 2.3909
2.8099 4.9658 2.3909
2.6315 5.0683 2.3909
2.4496 5.1646 2.3909
0.9113 2.1149 0.9623
0.8348 2.1469 0.9616
0.7572 2.1761 0.9609
0.6786 2.2025 0.9601
0.5990 2.2261 0.9594
0.5187 2.2467 0.9586
0.4376 2.2645 0.9577
0.3560 2.2793 0.9569
0.2738 2.2911 0.9560
0.1913 2.3000 0.9552
0.1085 2.3059 0.9543
0.0256 2.3089 0.9533
-0.0574 2.3088 0.9524
-0.1403 2.3057 0.9514
-0.2231 2.2996 0.9505
-0.3056 2.2906 0.9495
-0.3878 2.2786 0.9485
-0.4694 2.2636 0.9475
-0.5505 2.2457 0.9465
-0.6308 2.2248 0.9455
-0.7104 2.2011 0.9445
-0.7890 2.1745 0.9435
-0.8666 2.1452 0.9424
-2.3952 5.3661 2.3909
-2.5892 5.2832 2.3909
-2.7803 5.1933 2.3909
-2.9683 5.0964 2.3909
-3.1528 4.9927 2.3909
-3.3336 4.8822 2.3909
-3.5105 4.7652 2.3909
-3.6831 4.6417 2.3909
-3.8514 4.5119 2.3909
-4.0149 4.3759 2.3909
-4.1736 4.2339 2.3909
-4.3271 4.0861 2.3909
-4.4753 3.9327 2.3909
-4.6179 3.7739 2.3909
-4.7547 3.6097 2.3909
-4.8855 3.4406 2.3909
-5.0102 3.2667 2.3909
-5.1285 3.0882 2.3909
-5.2403 2.9053 2.3909
-5.3453 2.7183 2.3909
-5.4435 2.5274 2.3909
-5.5347 2.3330 2.3909
-5.6187 2.1352 2.3909
-5.6955 1.9343 2.3909
-5.7648 1.7306 2.3909
-5.8266 1.5244 2.3909
-5.8808 1.3159 2.3909
-5.9273 1.1055 2.3909
-5.9661 0.8935 2.3909
-5.9970 0.6800 2.3909
-6.0200 0.4655 2.3909
-6.0351 0.2502 2.3909
-6.0422 0.0344 2.3909
-6.0413 -0.1815 2.3909
-6.0325 -0.3973 2.3909
-6.0156 -0.6127 2.3909
-5.9909 -0.8273 2.3909
-5.9582 -1.0410 2.3909
-5.9176 -1.2532 2.3909
-5.8692 -1.4638 2.3909
-5.8130 -1.6725 2.3909
-5.7492 -1.8790 2.3909
-5.6777 -2.0829 2.3909
-5.5988 -2.2841 2.3909
-5.5125 -2.4821 2.3909
-5.4190 -2.6768 2.3909
-5.3183 -2.8679 2.3909
-5.2107 -3.0550 2.3909
-5.0963 -3.2380 2.3909
-4.9753 -3.4166 2.3909
-4.8478 -3.5906 2.3909
-4.7140 -3.7596 2.3909
-4.5741 -3.9236 2.3909
-4.4283 -4.0821 2.3909
-4.2769 -4.2352 2.3909
-4.1201 -4.3824 2.3909
-3.9580 -4.5238 2.3909
-3.7909 -4.6589 2.3909
-3.6191 -4.7878 2.3909
-3.4428 -4.9102 2.3909
-3.2622 -5.0260 2.3909
-3.0776 -5.1349 2.3909
-2.8894 -5.2370 2.3909
-2.6976 -5.3320 2.3909
-2.5027 -5.4199 2.3909
-2.3048 -5.5005 2.3909
-2.1041 -5.5738 2.3909
-1.9015 -5.6397 2.3909
-1.6965 -5.6981 2.3909
-1.4898 -5.7489 2.3909
-1.2813 -5.7922 2.3909
-1.0720 -5.8278 2.3909
-0.8616 -5.8557 2.3909
-0.6504 -5.8760 2.3909
-0.4389 -5.8886 2.3909
-0.2273 -5.8935 2.3909
-0.0169 -5.5301 2.3909
0.1812 -5.5207 2.3909
0.3785 -5.5043 2.3909
0.5751 -5.4807 2.3909
0.7704 -5.4501 2.3909
0.9642 -5.4126 2.3909
1.1566 -5.3682 2.3909
1.3468 -5.3169 2.3909
1.5349 -5.2589 2.3909
1.7208 -5.1943 2.3909
1.9040 -5.1231 2.3909
2.0844 -5.0455 2.3909
2.2616 -4.9616 2.3909
2.4356 -4.8715 2.3909
2.6062 -4.7753 2.3909
2.7730 -4.6733 2.3909
2.9359 -4.5654 2.3909
3.0948 -4.4520 2.3909
3.2493 -4.3331 2.3909
3.3994 -4.2089 2.3909
3.5449 -4.0796 2.3909
3.6856 -3.9453 2.3909
3.8213 -3.8062 2.3909
3.9520 -3.6626 2.3909
4.0773 -3.5145 2.3909
4.1973 -3.3623 2.3909
4.3117 -3.2060 2.3909
4.4204 -3.0459 2.3909
4.5234 -2.8822 2.3909
4.6205 -2.7151 2.3909
4.7115 -2.5448 2.3909
4.7965 -2.3715 2.3909
4.8752 -2.1955 2.3909
4.9477 -2.0169 2.3909
5.0139 -1.8360 2.3909
5.0736 -1.6529 2.3909
5.1268 -1.4680 2.3909
5.1735 -1.2815 2.3909
5.2136 -1.0935 2.3909
5.2471 -0.9043 2.3909
5.2740 -0.7141 2.3909
5.2941 -0.5231 2.3909
5.3076 -0.3317 2.3909
5.3143 -0.1399 2.3909
5.3144 0.0519 2.3909
5.3077 0.2436 2.3909
5.2944 0.4349 2.3909
5.2744 0.6256 2.3909
5.2477 0.8154 2.3909
5.2144 1.0041 2.3909
5.1746 1.1916 2.3909
5.1282 1.3776 2.3909
5.0753 1.5618 2.3909
5.0161 1.7441 2.3909
4.9505 1.9242 2.3909
4.8786 2.1020 2.3909
4.8006 2.2771 2.3909
4.7165 2.4495 2.3909
4.6264 2.6188 2.3909
4.5304 2.7850 2.3909
4.4286 2.9477 2.3909
4.3211 3.1068 2.3909
4.2081 3.2621 2.3909
4.0897 3.4134 2.3909
3.9660 3.5606 2.3909
3.8372 3.7034 2.3909
3.7033 3.8416 2.3909
3.5647 3.9752 2.3909
3.4213 4.1038 2.3909
3.2735 4.2275 2.3909
3.1213 4.3459 2.3909
2.9649 4.4590 2.3909
2.8045 4.5666 2.3909
2.6404 4.6686 2.3909
2.4726 4.7647 2.3909
2.3014 4.8550 2.3909
0.8550 1.9854 0.9610
0.7831 2.0154 0.9604
0.7103 2.0428 0.9597
0.6364 2.0676 0.9590
0.5617 2.0897 0.9583
0.4863 2.1091 0.9575
0.4102 2.1257 0.9567
0.3336 2.1396 0.9559
0.2565 2.1508 0.9551
0.1790 2.1591 0.9543
0.1013 2.1646 0.9535
0.0234 2.1674 0.9526
-0.0545 2.1673 0.9517
-0.1324 2.1644 0.9508
-0.2101 2.1587 0.9499
-0.2876 2.1502 0.9490
-0.3647 2.1389 0.9481
-0.4413 2.1249 0.9471
-0.5174 2.1080 0.9462
-0.5928 2.0885 0.9452
-0.6675 2.0662 0.9443
-0.7413 2.0413 0.9433
-0.8142 2.0137 0.9424
-0.8860 1.9835 0.9414
-2.4322 4.9593 2.3909
-2.6115 4.8745 2.3909
-2.7877 4.7833 2.3909
-2.9607 4.6856 2.3909
-3.1302 4.5817 2.3909
-3.2960 4.4716 2.3909
-3.4579 4.3554 2.3909
-3.6155 4.2333 2.3909
-3.7688 4.1055 2.3909
-3.9175 3.9721 2.3909
-4.0613 3.8332 2.3909
-4.2000 3.6891 2.3909
-4.3336 3.5398 2.3909
-4.4617 3.3857 2.3909
-4.5842 3.2269 2.3909
-4.7009 3.0636 2.3909
-4.8116 2.8960 2.3909
-4.9162 2.7244 2.3909
-5.0145 2.5489 2.3909
-5.1064 2.3698 2.3909
-5.1917 2.1874 2.3909
-5.2703 2.0018 2.3909
-5.3420 1.8134 2.3909
-5.4069 1.6224 2.3909
-5.4647 1.4290 2.3909
-5.5153 1.2335 2.3909
-5.5588 1.0362 2.3909
-5.5949 0.8373 2.3909
-5.6238 0.6372 2.3909
-5.6452 0.4361 2.3909
-5.6592 0.2342 2.3909
-5.6658 0.0320 2.3909
-5.6649 -0.1705 2.3909
-5.6566 -0.3728 2.3909
-5.6407 -0.5746 2.3909
-5.6175 -0.7758 2.3909
-5.5868 -0.9761 2.3909
-5.5487 -1.1750 2.3909
-5.5033 -1.3725 2.3909
-5.4507 -1.5681 2.3909
-5.3909 -1.7616 2.3909
-5.3240 -1.9528 2.3909
-5.2500 -2.1414 2.3909
-5.1692 -2.3270 2.3909
-5.0816 -2.5096 2.3909
-4.9873 -2.6887 2.3909
-4.8865 -2.8642 2.3909
-4.7794 -3.0358 2.3909
-4.6660 -3.2033 2.3909
-4.5466 -3.3665 2.3909
-4.4213 -3.5251 2.3909
-4.2903 -3.6789 2.3909
-4.1538 -3.8277 2.3909
-4.0119 -3.9713 2.3909
-3.8650 -4.1095 2.3909
-3.7132 -4.2422 2.3909
-3.5566 -4.3691 2.3909
-3.3957 -4.4902 2.3909
-3.2305 -4.6051 2.3909
-3.0613 -4.7139 2.3909
-2.8883 -4.8163 2.3909
-2.7119 -4.9123 2.3909
-2.5322 -5.0017 2.3909
-2.3494 -5.0844 2.3909
-2.1639 -5.1603 2.3909
-1.9760 -5.2294 2.3909
-1.7858 -5.2915 2.3909
-1.5937 -5.3465 2.3909
-1.3997 -5.3945 2.3909
-1.2043 -5.4354 2.3909
-1.0078 -5.4692 2.3909
-0.8104 -5.4958 2.3909
-0.6122 -5.5151 2.3909
-0.4138 -5.5273 2.3909
-0.2152 -5.5323 2.3909
-0.0168 -5.5301 2.3909
0.1813 -5.5207 2.3909
0.3787 -5.5043 2.3909
0.5752 -5.4807 2.3909
0.7704 -5.4501 2.3909
0.9645 -5.4126 2.3909
1.1566 -5.3681 2.3909
1.3470 -5.3169 2.3909
1.5352 -5.2589 2.3909
1.7210 -5.1942 2.3909
1.9042 -5.1230 2.3909
2.0845 -5.0454 2.3909
2.2618 -4.9615 2.3909
2.4357 -4.8714 2.3909
2.6063 -4.7753 2.3909
2.7731 -4.6732 2.3909
2.9360 -4.5654 2.3909
3.0949 -4.4519 2.3909
3.2494 -4.3330 2.3909
3.3995 -4.2088 2.3909
3.5450 -4.0795 2.3909
3.6857 -3.9452 2.3909
3.8214 -3.8061 2.3909
3.9520 -3.6625 2.3909
4.0774 -3.5144 2.3909
4.1973 -3.3621 2.3909
4.3118 -3.2059 2.3909
4.4205 -3.0458 2.3909
4.5235 -2.8821 2.3909
4.6205 -2.7150 2.3909
4.7116 -2.5447 2.3909
4.7965 -2.3714 2.3909
4.8753 -2.1954 2.3909
4.9478 -2.0168 2.3909
5.0139 -1.8358 2.3909
5.0736 -1.6528 2.3909
5.1269 -1.4679 2.3909
5.1736 -1.2814 2.3909
5.2137 -1.0934 2.3909
5.2471 -0.9041 2.3909
5.2740 -0.7139 2.3909
5.2941 -0.5230 2.3909
5.3076 -0.3315 2.3909
5.3143 -0.1398 2.3909
5.3144 0.0521 2.3909
5.3077 0.2437 2.3909
5.2944 0.4350 2.3909
5.2743 0.6257 2.3909
5.2477 0.8155 2.3909
5.2144 1.0043 2.3909
5.1745 1.1917 2.3909
5.1281 1.3777 2.3909
5.0753 1.5619 2.3909
5.0160 1.7442 2.3909
4.9504 1.9244 2.3909
4.8786 2.1021 2.3909
4.8005 2.2773 2.3909
4.7164 2.4496 2.3909
4.6263 2.6189 2.3909
4.5303 2.7851 2.3909
4.4285 2.9478 2.3909
4.3210 3.1069 2.3909
4.2080 3.2622 2.3909
4.0896 3.4135 2.3909
3.9659 3.5607 2.3909
3.8371 3.7035 2.3909
3.7033 3.8417 2.3909
3.5646 3.9753 2.3909
3.4212 4.1039 2.3909
3.2734 4.2276 2.3909
3.1212 4.3460 2.3909
2.9648 4.4591 2.3909
2.8044 4.5667 2.3909
2.6403 4.6686 2.3909
2.4725 4.7648 2.3909
2.3013 4.8551 2.3909
0.8549 1.9854 0.9610
0.7831 2.0154 0.9604
0.7102 2.0428 0.9597
0.6364 2.0676 0.9590
0.5617 2.0897 0.9583
0.4863 2.1091 0.9575
0.4102 2.1257 0.9567
0.3335 2.1396 0.9559
0.2564 2.1508 0.9551
0.1789 2.1591 0.9543
0.1012 2.1646 0.9535
0.0234 2.1674 0.9526
-0.0546 2.1673 0.9517
-0.1324 2.1644 0.9508
-0.2101 2.1587 0.9499
-0.2876 2.1502 0.9490
-0.3647 2.1389 0.9481
-0.4414 2.1248 0.9471
-0.5174 2.1080 0.9462
-0.5929 2.0885 0.9452
-0.6676 2.0662 0.9443
-0.7414 2.0413 0.9433
-0.8142 2.0137 0.9424
-0.8861 1.9835 0.9414
-2.4323 4.9592 2.3909
-2.6116 4.8745 2.3909
-2.7878 4.7832 2.3909
-2.9608 4.6856 2.3909
-3.1304 4.5816 2.3909
-3.2962 4.4715 2.3909
-3.4580 4.3553 2.3909
-3.6156 4.2332 2.3909
-3.7689 4.1054 2.3909
-3.9176 3.9720 2.3909
-4.0614 3.8331 2.3909
-4.2001 3.6890 2.3909
-4.3337 3.5397 2.3909
-4.4618 3.3856 2.3909
-4.5843 3.2268 2.3909
-4.7010 3.0635 2.3909
-4.8117 2.8959 2.3909
-4.9163 2.7243 2.3909
-5.0146 2.5488 2.3909
-5.1065 2.3697 2.3909
-5.1917 2.1873 2.3909
-5.2703 2.0017 2.3909
-5.3421 1.8133 2.3909
-5.4069 1.6222 2.3909
-5.4647 1.4288 2.3909
-5.5153 1.2333 2.3909
-5.5588 1.0360 2.3909
-5.5950 0.8372 2.3909
-5.6238 0.6371 2.3909
-5.6452 0.4360 2.3909
-5.6592 0.2341 2.3909
-5.6658 0.0318 2.3909
-5.6649 -0.1706 2.3909
-5.6565 -0.3729 2.3909
-5.6407 -0.5748 2.3909
-5.6174 -0.7760 2.3909
-5.5867 -0.9762 2.3909
-5.5487 -1.1751 2.3909
-5.5033 -1.3726 2.3909
-5.4507 -1.5682 2.3909
-5.3908 -1.7617 2.3909
-5.3239 -1.9529 2.3909
-5.2500 -2.1415 2.3909
-5.1691 -2.3272 2.3909
-5.0815 -2.5097 2.3909
-4.9873 -2.6888 2.3909
-4.8865 -2.8643 2.3909
-4.7793 -3.0360 2.3909
-4.6659 -3.2034 2.3909
-4.5465 -3.3666 2.3909
-4.4212 -3.5252 2.3909
-4.2902 -3.6790 2.3909
-4.1537 -3.8278 2.3909
-4.0118 -3.9714 2.3909
-3.8649 -4.1096 2.3909
-3.7131 -4.2423 2.3909
-3.5565 -4.3692 2.3909
-3.3956 -4.4903 2.3909
-3.2304 -4.6052 2.3909
-3.0612 -4.7140 2.3909
-2.8882 -4.8164 2.3909
-2.7118 -4.9124 2.3909
-2.5320 -5.0018 2.3909
-2.3493 -5.0844 2.3909
-2.1638 -5.1604 2.3909
-1.9759 -5.2294 2.3909
-1.7856 -5.2915 2.3909
-1.5936 -5.3466 2.3909
-1.3995 -5.3946 2.3909
-1.2042 -5.4355 2.3909
-1.0077 -5.4692 2.3909
-0.8103 -5.4958 2.3909
-0.6121 -5.5151 2.3909
-0.4137 -5.5273 2.3909
-0.2151 -5.5323 2.3909
-0.0175 -5.2051 2.3909
0.1688 -5.1966 2.3909
0.3547 -5.1814 2.3909
0.5397 -5.1595 2.3909
0.7236 -5.1310 2.3909
0.9061 -5.0960 2.3909
1.0871 -5.0545 2.3909
1.2664 -5.0065 2.3909
1.4437 -4.9521 2.3909
1.6188 -4.8916 2.3909
1.7914 -4.8248 2.3909
1.9613 -4.7520 2.3909
2.1286 -4.6732 2.3909
2.2924 -4.5887 2.3909
2.4531 -4.4984 2.3909
2.6105 -4.4024 2.3909
2.7641 -4.3011 2.3909
2.9138 -4.1945 2.3909
3.0596 -4.0827 2.3909
3.2012 -3.9659 2.3909
3.3385 -3.8442 2.3909
3.4712 -3.7179 2.3909
3.5993 -3.5870 2.3909
3.7225 -3.4518 2.3909
3.8408 -3.3125 2.3909
3.9540 -3.1691 2.3909
4.0621 -3.0220 2.3909
4.1647 -2.8712 2.3909
4.2619 -2.7170 2.3909
4.3536 -2.5596 2.3909
4.4396 -2.3992 2.3909
4.5199 -2.2359 2.3909
4.5943 -2.0701 2.3909
4.6628 -1.9018 2.3909
4.7253 -1.7313 2.3909
4.7817 -1.5588 2.3909
4.8321 -1.3845 2.3909
4.8762 -1.2086 2.3909
4.9142 -1.0314 2.3909
4.9459 -0.8530 2.3909
4.9713 -0.6737 2.3909
4.9904 -0.4937 2.3909
5.0031 -0.3131 2.3909
5.0096 -0.1323 2.3909
5.0097 0.0486 2.3909
5.0035 0.2293 2.3909
4.9909 0.4097 2.3909
4.9721 0.5895 2.3909
4.9470 0.7685 2.3909
4.9156 0.9465 2.3909
4.8780 1.1233 2.3909
4.8343 1.2987 2.3909
4.7845 1.4724 2.3909
4.7286 1.6443 2.3909
4.6667 1.8142 2.3909
4.5989 1.9817 2.3909
4.5253 2.1469 2.3909
4.4459 2.3094 2.3909
4.3609 2.4691 2.3909
4.2703 2.6257 2.3909
4.1742 2.7790 2.3909
4.0728 2.9290 2.3909
3.9662 3.0754 2.3909
3.8544 3.2180 2.3909
3.7377 3.3567 2.3909
3.6161 3.4912 2.3909
3.4899 3.6215 2.3909
3.3590 3.7472 2.3909
3.2238 3.8684 2.3909
3.0843 3.9849 2.3909
2.9407 4.0964 2.3909
2.7932 4.2028 2.3909
2.6419 4.3041 2.3909
2.4871 4.4000 2.3909
2.3289 4.4905 2.3909
0.8707 1.8380 0.9605
0.8041 1.8687 0.9599
0.7365 1.8969 0.9592
0.6679 1.9227 0.9586
0.5984 1.9460 0.9579
0.5281 1.9668 0.9572
0.4571 1.9850 0.9565
0.3855 2.0007 0.9558
0.3133 2.0138 0.9551
0.2407 2.0242 0.9543
0.1678 2.0321 0.9535
0.0947 2.0373 0.9527
0.0214 2.0399 0.9519
-0.0520 2.0398 0.9511
-0.1252 2.0371 0.9502
-0.1984 2.0317 0.9494
-0.2713 2.0237 0.9485
-0.3439 2.0131 0.9477
-0.4160 1.9998 0.9468
-0.4876 1.9840 0.9459
-0.5586 1.9656 0.9450
-0.6289 1.9447 0.9441
-0.6984 1.9212 0.9432
-0.7670 1.8952 0.9423
-0.8346 1.8668 0.9414
-0.9012 1.8360 0.9405
-2.4595 4.5873 2.3909
-2.6252 4.5011 2.3909
-2.7878 4.4090 2.3909
-2.9472 4.3109 2.3909
-3.1030 4.2071 2.3909
-3.2552 4.0976 2.3909
-3.4033 3.9825 2.3909
-3.5473 3.8620 2.3909
-3.6870 3.7363 2.3909
-3.8221 3.6055 2.3909
-3.9524 3.4697 2.3909
-4.0778 3.3292 2.3909
-4.1981 3.1841 2.3909
-4.3132 3.0345 2.3909
-4.4227 2.8808 2.3909
-4.5267 2.7231 2.3909
-4.6248 2.5616 2.3909
-4.7171 2.3964 2.3909
-4.8033 2.2280 2.3909
-4.8833 2.0563 2.3909
-4.9570 1.8818 2.3909
-5.0243 1.7046 2.3909
-5.0851 1.5249 2.3909
-5.1393 1.3430 2.3909
-5.1868 1.1592 2.3909
-5.2275 0.9737 2.3909
-5.2614 0.7867 2.3909
-5.2884 0.5986 2.3909
-5.3084 0.4095 2.3909
-5.3215 0.2198 2.3909
-5.3276 0.0296 2.3909
-5.3267 -0.1607 2.3909
-5.3187 -0.3508 2.3909
-5.3038 -0.5406 2.3909
-5.2819 -0.7297 2.3909
-5.2530 -0.9179 2.3909
-5.2172 -1.1049 2.3909
-5.1746 -1.2905 2.3909
-5.1251 -1.4743 2.3909
-5.0689 -1.6563 2.3909
-5.0060 -1.8360 2.3909
-4.9366 -2.0132 2.3909
-4.8606 -2.1878 2.3909
-4.7783 -2.3594 2.3909
-4.6898 -2.5278 2.3909
-4.5952 -2.6929 2.3909
-4.4945 -2.8542 2.3909
-4.3880 -3.0118 2.3909
-4.2758 -3.1652 2.3909
-4.1582 -3.3144 2.3909
-4.0351 -3.4590 2.3909
-3.9069 -3.5990 2.3909
-3.7736 -3.7342 2.3909
-3.6356 -3.8643 2.3909
-3.4930 -3.9891 2.3909
-3.3459 -4.1086 2.3909
-3.1947 -4.2226 2.3909
-3.0394 -4.3309 2.3909
-2.8805 -4.4333 2.3909
-2.7179 -4.5299 2.3909
-2.5521 -4.6203 2.3909
-2.3832 -4.7046 2.3909
-2.2115 -4.7826 2.3909
-2.0371 -4.8542 2.3909
-1.8604 -4.9194 2.3909
-1.6815 -4.9781 2.3909
-1.5007 -5.0301 2.3909
-1.3185 -5.0755 2.3909
-1.1349 -5.1143 2.3909
-0.9499 -5.1463 2.3909
-0.7642 -5.1716 2.3909
-0.5778 -5.1901 2.3909
-0.3911 -5.2019 2.3909
-0.2042 -5.2069 2.3909
-0.0175 -5.2051 2.3909
0.1690 -5.1966 2.3909
0.3548 -5.1814 2.3909
0.5398 -5.1595 2.3909
0.7237 -5.1310 2.3909
0.9063 -5.0959 2.3909
1.0873 -5.0544 2.3909
1.2666 -5.0064 2.3909
1.4439 -4.9521 2.3909
1.6190 -4.8915 2.3909
1.7915 -4.8248 2.3909
1.9614 -4.7520 2.3909
2.1287 -4.6732 2.3909
2.2925 -4.5886 2.3909
2.4532 -4.4983 2.3909
2.6105 -4.4024 2.3909
2.7642 -4.3011 2.3909
2.9139 -4.1944 2.3909
3.0597 -4.0826 2.3909
3.2013 -3.9658 2.3909
3.3385 -3.8441 2.3909
3.4713 -3.7178 2.3909
3.5993 -3.5869 2.3909
3.7226 -3.4517 2.3909
3.8409 -3.3124 2.3909
3.9541 -3.1690 2.3909
4.0621 -3.0219 2.3909
4.1648 -2.8711 2.3909
4.2620 -2.7169 2.3909
4.3537 -2.5595 2.3909
4.4397 -2.3991 2.3909
4.5199 -2.2358 2.3909
4.5943 -2.0700 2.3909
4.6628 -1.9017 2.3909
4.7253 -1.7312 2.3909
4.7818 -1.5587 2.3909
4.8321 -1.3844 2.3909
4.8762 -1.2085 2.3909
4.9142 -1.0313 2.3909
4.9459 -0.8529 2.3909
4.9713 -0.6736 2.3909
4.9904 -0.4936 2.3909
5.0032 -0.3130 2.3909
5.0096 -0.1322 2.3909
5.0097 0.0487 2.3909
5.0035 0.2294 2.3909
4.9909 0.4098 2.3909
4.9721 0.5896 2.3909
4.9470 0.7686 2.3909
4.9156 0.9466 2.3909
4.8780 1.1235 2.3909
4.8343 1.2988 2.3909
4.7845 1.4725 2.3909
4.7285 1.6444 2.3909
4.6667 1.8143 2.3909
4.5989 1.9819 2.3909
4.5252 2.1470 2.3909
4.4459 2.3095 2.3909
4.3608 2.4692 2.3909
4.2702 2.6258 2.3909
4.1742 2.7791 2.3909
4.0727 2.9291 2.3909
3.9661 3.0755 2.3909
3.8544 3.2181 2.3909
3.7376 3.3568 2.3909
3.6161 3.4913 2.3909
3.4898 3.6215 2.3909
3.3590 3.7473 2.3909
3.2237 3.8685 2.3909
3.0842 3.9849 2.3909
2.9406 4.0964 2.3909
2.7931 4.2029 2.3909
2.6418 4.3041 2.3909
2.4870 4.4001 2.3909
2.3288 4.4905 2.3909
0.8707 1.8380 0.9605
0.8041 1.8687 0.9599
0.7365 1.8969 0.9592
0.6679 1.9227 0.9586
0.5984 1.9460 0.9579
0.5281 1.9668 0.9572
0.4571 1.9850 0.9565
0.3854 2.0007 0.9558
0.3133 2.0138 0.9551
0.2407 2.0243 0.9543
0.1678 2.0321 0.9535
0.0946 2.0373 0.9527
0.0213 2.0399 0.9519
-0.0520 2.0398 0.9511
-0.1253 2.0371 0.9502
-0.1984 2.0317 0.9494
-0.2714 2.0237 0.9485
-0.3439 2.0131 0.9477
-0.4161 1.9998 0.9468
-0.4877 1.9840 0.9459
-0.5587 1.9656 0.9450
-0.6290 1.9446 0.9441
-0.6985 1.9212 0.9432
-0.7671 1.8952 0.9423
-0.8347 1.8668 0.9414
-0.9012 1.8359 0.9405
-2.4596 4.5872 2.3909
-2.6253 4.5011 2.3909
-2.7880 4.4089 2.3909
-2.9473 4.3109 2.3909
-3.1031 4.2070 2.3909
-3.2552 4.0975 2.3909
-3.4034 3.9824 2.3909
-3.5474 3.8619 2.3909
-3.6871 3.7362 2.3909
-3.8222 3.6054 2.3909
-3.9525 3.4696 2.3909
-4.0779 3.3291 2.3909
-4.1982 3.1840 2.3909
-4.3132 3.0344 2.3909
-4.4228 2.8807 2.3909
-4.5267 2.7230 2.3909
-4.6249 2.5615 2.3909
-4.7172 2.3963 2.3909
-4.8034 2.2278 2.3909
-4.8834 2.0562 2.3909
-4.9571 1.8817 2.3909
-5.0244 1.7044 2.3909
-5.0852 1.5248 2.3909
-5.1393 1.3429 2.3909
-5.1868 1.1591 2.3909
-5.2275 0.9736 2.3909
-5.2614 0.7866 2.3909
-5.2884 0.5985 2.3909
-5.3084 0.4094 2.3909
-5.3215 0.2197 2.3909
-5.3276 0.0295 2.3909
-5.3267 -0.1608 2.3909
-5.3187 -0.3509 2.3909
-5.3038 -0.5407 2.3909
-5.2819 -0.7298 2.3909
-5.2530 -0.9180 2.3909
-5.2172 -1.1050 2.3909
-5.1745 -1.2906 2.3909
-5.1251 -1.4745 2.3909
-5.0689 -1.6564 2.3909
-5.0060 -1.8361 2.3909
-4.9365 -2.0134 2.3909
-4.8606 -2.1879 2.3909
-4.7783 -2.3595 2.3909
-4.6897 -2.5280 2.3909
-4.5951 -2.6930 2.3909
-4.4944 -2.8544 2.3909
-4.3879 -3.0119 2.3909
-4.2758 -3.1653 2.3909
-4.1581 -3.3145 2.3909
-4.0350 -3.4591 2.3909
-3.9068 -3.5991 2.3909
-3.7735 -3.7343 2.3909
-3.6355 -3.8643 2.3909
-3.4929 -3.9892 2.3909
-3.3458 -4.1087 2.3909
-3.1946 -4.2227 2.3909
-3.0393 -4.3309 2.3909
-2.8804 -4.4334 2.3909
-2.7178 -4.5299 2.3909
-2.5520 -4.6204 2.3909
-2.3831 -4.7046 2.3909
-2.2111 -4.7826 2.3909
-2.0370 -4.8543 2.3909
-1.8602 -4.9194 2.3909
-1.6814 -4.9781 2.3909
-1.5007 -5.0302 2.3909
-1.3183 -5.0756 2.3909
-1.1348 -5.1143 2.3909
-0.9498 -5.1463 2.3909
-0.7641 -5.1716 2.3909
-0.5777 -5.1901 2.3909
-0.3909 -5.2019 2.3909
-0.2040 -5.2068 2.3909
-0.0181 -4.9105 2.3909
0.1577 -4.9027 2.3909
0.3330 -4.8886 2.3909
0.5076 -4.8682 2.3909
0.6811 -4.8416 2.3909
0.8534 -4.8088 2.3909
1.0244 -4.7698 2.3909
1.1936 -4.7248 2.3909
1.3609 -4.6738 2.3909
1.5262 -4.6169 2.3909
1.6891 -4.5541 2.3909
1.8497 -4.4856 2.3909
2.0075 -4.4115 2.3909
2.1624 -4.3319 2.3909
2.3142 -4.2469 2.3909
2.4628 -4.1566 2.3909
2.6080 -4.0611 2.3909
2.7495 -3.9606 2.3909
2.8873 -3.8552 2.3909
3.0211 -3.7451 2.3909
3.1509 -3.6304 2.3909
3.2764 -3.5113 2.3909
3.3975 -3.3879 2.3909
3.5140 -3.2603 2.3909
3.6259 -3.1288 2.3909
3.7330 -2.9936 2.3909
3.8352 -2.8547 2.3909
3.9323 -2.7124 2.3909
4.0243 -2.5669 2.3909
4.1110 -2.4183 2.3909
4.1924 -2.2668 2.3909
4.2683 -2.1127 2.3909
4.3388 -1.9560 2.3909
4.4036 -1.7971 2.3909
4.4628 -1.6361 2.3909
4.5163 -1.4731 2.3909
4.5639 -1.3085 2.3909
4.6058 -1.1424 2.3909
4.6417 -0.9749 2.3909
4.6718 -0.8064 2.3909
4.6959 -0.6370 2.3909
4.7140 -0.4669 2.3909
4.7262 -0.2963 2.3909
4.7323 -0.1254 2.3909
4.7325 0.0455 2.3909
4.7267 0.2163 2.3909
4.7149 0.3868 2.3909
4.6971 0.5567 2.3909
4.6734 0.7259 2.3909
4.6438 0.8941 2.3909
4.6083 1.0612 2.3909
4.5669 1.2269 2.3909
4.5198 1.3911 2.3909
4.4670 1.5535 2.3909
4.4085 1.7140 2.3909
4.3444 1.8723 2.3909
4.2748 2.0284 2.3909
4.1997 2.1819 2.3909
4.1193 2.3328 2.3909
4.0336 2.4807 2.3909
3.9428 2.6256 2.3909
3.8469 2.7673 2.3909
3.7461 2.9056 2.3909
3.6404 3.0402 2.3909
3.5301 3.1712 2.3909
3.4151 3.2982 2.3909
3.2957 3.4212 2.3909
3.1720 3.5399 2.3909
3.0442 3.6543 2.3909
2.9123 3.7642 2.3909
2.7765 3.8694 2.3909
2.6371 3.9699 2.3909
2.4941 4.0654 2.3909
2.3478 4.1559 2.3909
0.8826 1.7028 0.9599
0.8208 1.7339 0.9594
0.7580 1.7628 0.9588
0.6942 1.7895 0.9582
0.6295 1.8138 0.9576
0.5639 1.8358 0.9570
0.4976 1.8554 0.9563
0.4306 1.8726 0.9557
0.3630 1.8873 0.9550
0.2950 1.8997 0.9543
0.2265 1.9095 0.9536
0.1577 1.9169 0.9528
0.0887 1.9218 0.9521
0.0196 1.9243 0.9513
-0.0496 1.9242 0.9505
-0.1188 1.9216 0.9497
-0.1878 1.9166 0.9489
-0.2566 1.9090 0.9481
-0.3250 1.8990 0.9473
-0.3931 1.8865 0.9465
-0.4607 1.8716 0.9456
-0.5276 1.8542 0.9448
-0.5940 1.8344 0.9439
-0.6595 1.8123 0.9431
-0.7242 1.7878 0.9422
-0.7880 1.7610 0.9414
-0.8508 1.7319 0.9405
-0.9125 1.7006 0.9397
-2.4779 4.2454 2.3909
-2.6312 4.1583 2.3909
-2.7813 4.0656 2.3909
-2.9282 3.9674 2.3909
-3.0715 3.8639 2.3909
-3.2110 3.7552 2.3909
-3.3467 3.6414 2.3909
-3.4782 3.5227 2.3909
-3.6054 3.3992 2.3909
-3.7282 3.2710 2.3909
-3.8463 3.1384 2.3909
-3.9595 3.0015 2.3909
-4.0678 2.8604 2.3909
-4.1709 2.7153 2.3909
-4.2687 2.5666 2.3909
-4.3611 2.4142 2.3909
-4.4479 2.2585 2.3909
-4.5290 2.0996 2.3909
-4.6043 1.9377 2.3909
-4.6736 1.7732 2.3909
-4.7369 1.6061 2.3909
-4.7940 1.4367 2.3909
-4.8450 1.2653 2.3909
-4.8896 1.0920 2.3909
-4.9278 0.9172 2.3909
-4.9596 0.7410 2.3909
-4.9850 0.5637 2.3909
-5.0038 0.3855 2.3909
-5.0160 0.2067 2.3909
-5.0217 0.0275 2.3909
-5.0208 -0.1518 2.3909
-5.0132 -0.3309 2.3909
-4.9991 -0.5098 2.3909
-4.9784 -0.6879 2.3909
-4.9512 -0.8653 2.3909
-4.9175 -1.0415 2.3909
-4.8773 -1.2163 2.3909
-4.8307 -1.3896 2.3909
-4.7777 -1.5610 2.3909
-4.7185 -1.7303 2.3909
-4.6531 -1.8974 2.3909
-4.5816 -2.0619 2.3909
-4.5041 -2.2236 2.3909
-4.4207 -2.3823 2.3909
-4.3316 -2.5379 2.3909
-4.2368 -2.6900 2.3909
-4.1366 -2.8385 2.3909
-4.0309 -2.9831 2.3909
-3.9201 -3.1237 2.3909
-3.8042 -3.2602 2.3909
-3.6835 -3.3922 2.3909
-3.5580 -3.5196 2.3909
-3.4280 -3.6423 2.3909
-3.2937 -3.7601 2.3909
-3.1552 -3.8729 2.3909
-3.0128 -3.9804 2.3909
-2.8666 -4.0826 2.3909
-2.7168 -4.1794 2.3909
-2.5637 -4.2705 2.3909
-2.4075 -4.3560 2.3909
-2.2483 -4.4356 2.3909
-2.0865 -4.5093 2.3909
-1.9222 -4.5770 2.3909
-1.7557 -4.6387 2.3909
-1.5871 -4.6942 2.3909
-1.4168 -4.7435 2.3909
-1.2449 -4.7866 2.3909
-1.0717 -4.8234 2.3909
-0.8975 -4.8538 2.3909
-0.7223 -4.8779 2.3909
-0.5466 -4.8956 2.3909
-0.3705 -4.9069 2.3909
-0.1942 -4.9119 2.3909
-0.0180 -4.9104 2.3909
0.1578 -4.9027 2.3909
0.3332 -4.8886 2.3909
0.5077 -4.8682 2.3909
0.6812 -4.8416 2.3909
0.8536 -4.8088 2.3909
1.0244 -4.7698 2.3909
1.1937 -4.7248 2.3909
1.3611 -4.6738 2.3909
1.5263 -4.6168 2.3909
1.6892 -4.5541 2.3909
1.8498 -4.4856 2.3909
2.0076 -4.4115 2.3909
2.1625 -4.3319 2.3909
2.3143 -4.2468 2.3909
2.4629 -4.1565 2.3909
2.6081 -4.0610 2.3909
2.7496 -3.9605 2.3909
2.8874 -3.8552 2.3909
3.0212 -3.7450 2.3909
3.1510 -3.6303 2.3909
3.2765 -3.5112 2.3909
3.3975 -3.3878 2.3909
3.5141 -3.2602 2.3909
3.6260 -3.1288 2.3909
3.7331 -2.9935 2.3909
3.8352 -2.8546 2.3909
3.9323 -2.7123 2.3909
4.0243 -2.5668 2.3909
4.1111 -2.4182 2.3909
4.1924 -2.2667 2.3909
4.2684 -2.1126 2.3909
4.3388 -1.9559 2.3909
4.4037 -1.7970 2.3909
4.4629 -1.6360 2.3909
4.5163 -1.4730 2.3909
4.5640 -1.3084 2.3909
4.6058 -1.1423 2.3909
4.6418 -0.9748 2.3909
4.6718 -0.8063 2.3909
4.6959 -0.6369 2.3909
4.7140 -0.4668 2.3909
4.7262 -0.2962 2.3909
4.7323 -0.1253 2.3909
4.7325 0.0456 2.3909
4.7267 0.2164 2.3909
4.7149 0.3869 2.3909
4.6971 0.5568 2.3909
4.6734 0.7260 2.3909
4.6437 0.8942 2.3909
4.6082 1.0613 2.3909
4.5669 1.2270 2.3909
4.5198 1.3912 2.3909
4.4670 1.5536 2.3909
4.4084 1.7141 2.3909
4.3444 1.8724 2.3909
4.2747 2.0285 2.3909
4.1997 2.1820 2.3909
4.1193 2.3329 2.3909
4.0336 2.4808 2.3909
3.9427 2.6257 2.3909
3.8469 2.7674 2.3909
3.7460 2.9056 2.3909
3.6404 3.0403 2.3909
3.5300 3.1713 2.3909
3.4150 3.2983 2.3909
3.2956 3.4213 2.3909
3.1719 3.5400 2.3909
3.0441 3.6544 2.3909
2.9122 3.7643 2.3909
2.7764 3.8695 2.3909
2.6370 3.9699 2.3909
2.4940 4.0654 2.3909
2.3477 4.1559 2.3909
0.8825 1.7028 0.9599
0.8208 1.7339 0.9594
0.7580 1.7629 0.9588
0.6942 1.7895 0.9582
0.6295 1.8138 0.9576
0.5639 1.8358 0.9570
0.4976 1.8554 0.9563
0.4306 1.8726 0.9557
0.3630 1.8874 0.9550
0.2949 1.8997 0.9543
0.2265 1.9096 0.9536
0.1577 1.9169 0.9528
0.0887 1.9219 0.9521
0.0195 1.9243 0.9513
-0.0497 1.9242 0.9505
-0.1188 1.9216 0.9497
-0.1878 1.9165 0.9489
-0.2566 1.9090 0.9481
-0.3251 1.8990 0.9473
-0.3931 1.8865 0.9465
-0.4607 1.8715 0.9456
-0.5277 1.8542 0.9448
-0.5940 1.8344 0.9439
-0.6596 1.8123 0.9431
-0.7243 1.7878 0.9422
-0.7880 1.7610 0.9414
-0.8508 1.7319 0.9405
-0.9125 1.7005 0.9397
-2.4780 4.2453 2.3909
-2.6313 4.1582 2.3909
-2.7814 4.0655 2.3909
-2.9283 3.9673 2.3909
-3.0716 3.8639 2.3909
-3.2111 3.7552 2.3909
-3.3468 3.6414 2.3909
-3.4783 3.5226 2.3909
-3.6055 3.3991 2.3909
-3.7283 3.2709 2.3909
-3.8463 3.1383 2.3909
-3.9596 3.0014 2.3909
-4.0679 2.8603 2.3909
-4.1710 2.7153 2.3909
-4.2688 2.5665 2.3909
-4.3612 2.4141 2.3909
-4.4480 2.2584 2.3909
-4.5290 2.0995 2.3909
-4.6043 1.9376 2.3909
-4.6736 1.7731 2.3909
-4.7369 1.6060 2.3909
-4.7941 1.4366 2.3909
-4.8450 1.2652 2.3909
-4.8896 1.0919 2.3909
-4.9279 0.9170 2.3909
-4.9597 0.7409 2.3909
-4.9850 0.5635 2.3909
-5.0038 0.3854 2.3909
-5.0160 0.2066 2.3909
-5.0217 0.0274 2.3909
-5.0208 -0.1519 2.3909
-5.0132 -0.3311 2.3909
-4.9991 -0.5099 2.3909
-4.9784 -0.6881 2.3909
-4.9512 -0.8654 2.3909
-4.9175 -1.0416 2.3909
-4.8772 -1.2164 2.3909
-4.8306 -1.3897 2.3909
-4.7777 -1.5611 2.3909
-4.7185 -1.7305 2.3909
-4.6530 -1.8975 2.3909
-4.5815 -2.0620 2.3909
-4.5040 -2.2237 2.3909
-4.4207 -2.3824 2.3909
-4.3315 -2.5380 2.3909
-4.2368 -2.6901 2.3909
-4.1365 -2.8386 2.3909
-4.0309 -2.9832 2.3909
-3.9200 -3.1238 2.3909
-3.8042 -3.2603 2.3909
-3.6834 -3.3923 2.3909
-3.5579 -3.5197 2.3909
-3.4280 -3.6424 2.3909
-3.2936 -3.7602 2.3909
-3.1551 -3.8730 2.3909
-3.0127 -3.9805 2.3909
-2.8665 -4.0827 2.3909
-2.7167 -4.1794 2.3909
-2.5636 -4.2706 2.3909
-2.4074 -4.3560 2.3909
-2.2482 -4.4356 2.3909
-2.0864 -4.5094 2.3909
-1.9221 -4.5771 2.3909
-1.7555 -4.6387 2.3909
-1.5870 -4.6942 2.3909
-1.4167 -4.7436 2.3909
-1.2448 -4.7866 2.3909
-1.0717 -4.8234 2.3909
-0.8975 -4.8538 2.3909
-0.7222 -4.8779 2.3909
-0.5465 -4.8956 2.3909
-0.3703 -4.9069 2.3909
-0.1941 -4.9119 2.3909
-0.0186 -4.6419 2.3909
0.1476 -4.6347 2.3909
0.3133 -4.6217 2.3909
0.4783 -4.6026 2.3909
0.6424 -4.5777 2.3909
0.8054 -4.5469 2.3909
0.9669 -4.5103 2.3909
1.1270 -4.4679 2.3909
1.2853 -4.4199 2.3909
1.4417 -4.3663 2.3909
1.5959 -4.3071 2.3909
1.7477 -4.2426 2.3909
1.8971 -4.1727 2.3909
2.0437 -4.0975 2.3909
2.1874 -4.0173 2.3909
2.3281 -3.9321 2.3909
2.4655 -3.8419 2.3909
2.5995 -3.7470 2.3909
2.7300 -3.6475 2.3909
2.8567 -3.5435 2.3909
2.9796 -3.4352 2.3909
3.0984 -3.3226 2.3909
3.2131 -3.2059 2.3909
3.3235 -3.0854 2.3909
3.4295 -2.9611 2.3909
3.5310 -2.8332 2.3909
3.6278 -2.7019 2.3909
3.7199 -2.5673 2.3909
3.8070 -2.4297 2.3909
3.8893 -2.2891 2.3909
3.9664 -2.1458 2.3909
4.0384 -2.0000 2.3909
4.1052 -1.8518 2.3909
4.1667 -1.7014 2.3909
4.2228 -1.5490 2.3909
4.2736 -1.3948 2.3909
4.3188 -1.2390 2.3909
4.3585 -1.0818 2.3909
4.3926 -0.9233 2.3909
4.4211 -0.7638 2.3909
4.4440 -0.6034 2.3909
4.4613 -0.4424 2.3909
4.4728 -0.2809 2.3909
4.4787 -0.1191 2.3909
4.4790 0.0427 2.3909
4.4735 0.2044 2.3909
4.4623 0.3658 2.3909
4.4455 0.5267 2.3909
4.4231 0.6869 2.3909
4.3951 0.8461 2.3909
4.3615 1.0043 2.3909
4.3224 1.1612 2.3909
4.2777 1.3166 2.3909
4.2277 1.4704 2.3909
4.1723 1.6224 2.3909
4.1116 1.7723 2.3909
4.0456 1.9200 2.3909
3.9745 2.0654 2.3909
3.8984 2.2081 2.3909
3.8172 2.3482 2.3909
3.7312 2.4853 2.3909
3.6403 2.6194 2.3909
3.5448 2.7502 2.3909
3.4447 2.8777 2.3909
3.3402 3.0016 2.3909
3.2313 3.1218 2.3909
3.1182 3.2381 2.3909
3.0010 3.3504 2.3909
2.8799 3.4586 2.3909
2.7550 3.5625 2.3909
2.6265 3.6620 2.3909
2.4944 3.7569 2.3909
2.3590 3.8472 2.3909
0.8910 1.5780 0.9594
0.8337 1.6096 0.9589
0.7754 1.6390 0.9584
0.7160 1.6663 0.9578
0.6557 1.6915 0.9573
0.5945 1.7145 0.9567
0.5325 1.7353 0.9561
0.4698 1.7538 0.9555
0.4065 1.7700 0.9549
0.3426 1.7840 0.9542
0.2782 1.7956 0.9536
0.2135 1.8050 0.9529
0.1485 1.8120 0.9522
0.0832 1.8166 0.9515
0.0179 1.8189 0.9507
-0.0475 1.8188 0.9500
-0.1129 1.8164 0.9493
-0.1781 1.8116 0.9485
-0.2431 1.8044 0.9477
-0.3079 1.7949 0.9470
-0.3722 1.7831 0.9462
-0.4361 1.7690 0.9454
-0.4994 1.7526 0.9446
-0.5621 1.7339 0.9438
-0.6240 1.7130 0.9430
-0.6852 1.6899 0.9422
-0.7455 1.6645 0.9414
-0.8049 1.6370 0.9405
-0.8632 1.6074 0.9397
-0.9204 1.5757 0.9389
-2.4883 3.9298 2.3909
-2.6302 3.8420 2.3909
-2.7688 3.7490 2.3909
-2.9041 3.6511 2.3909
-3.0359 3.5482 2.3909
-3.1639 3.4405 2.3909
-3.2881 3.3282 2.3909
-3.4081 3.2113 2.3909
-3.5240 3.0901 2.3909
-3.6354 2.9647 2.3909
-3.7422 2.8352 2.3909
-3.8444 2.7018 2.3909
-3.9416 2.5647 2.3909
-4.0339 2.4240 2.3909
-4.1210 2.2800 2.3909
-4.2029 2.1329 2.3909
-4.2793 1.9827 2.3909
-4.3503 1.8298 2.3909
-4.4157 1.6743 2.3909
-4.4753 1.5165 2.3909
-4.5292 1.3565 2.3909
-4.5771 1.1945 2.3909
-4.6192 1.0309 2.3909
-4.6552 0.8657 2.3909
-4.6851 0.6993 2.3909
-4.7090 0.5319 2.3909
-4.7267 0.3636 2.3909
-4.7381 0.1948 2.3909
-4.7434 0.0256 2.3909
-4.7425 -0.1437 2.3909
-4.7354 -0.3129 2.3909
-4.7220 -0.4817 2.3909
-4.7024 -0.6500 2.3909
-4.6767 -0.8174 2.3909
-4.6448 -0.9838 2.3909
-4.6069 -1.1489 2.3909
-4.5629 -1.3125 2.3909
-4.5129 -1.4744 2.3909
-4.4570 -1.6343 2.3909
-4.3952 -1.7920 2.3909
-4.3278 -1.9473 2.3909
-4.2546 -2.1001 2.3909
-4.1760 -2.2500 2.3909
-4.0918 -2.3969 2.3909
-4.0024 -2.5405 2.3909
-3.9078 -2.6808 2.3909
-3.8081 -2.8175 2.3909
-3.7035 -2.9503 2.3909
-3.5942 -3.0792 2.3909
-3.4803 -3.2040 2.3909
-3.3618 -3.3244 2.3909
-3.2392 -3.4404 2.3909
-3.1124 -3.5517 2.3909
-2.9817 -3.6583 2.3909
-2.8472 -3.7600 2.3909
-2.7092 -3.8567 2.3909
-2.5678 -3.9482 2.3909
-2.4233 -4.0344 2.3909
-2.2758 -4.1153 2.3909
-2.1255 -4.1907 2.3909
-1.9727 -4.2605 2.3909
-1.8176 -4.3246 2.3909
-1.6603 -4.3830 2.3909
-1.5011 -4.4357 2.3909
-1.3402 -4.4825 2.3909
-1.1779 -4.5234 2.3909
-1.0143 -4.5583 2.3909
-0.8496 -4.5873 2.3909
-0.6842 -4.6102 2.3909
-0.5181 -4.6272 2.3909
-0.3517 -4.6381 2.3909
-0.1850 -4.6430 2.3909
-0.0185 -4.6419 2.3909
0.1477 -4.6347 2.3909
0.3135 -4.6217 2.3909
0.4784 -4.6026 2.3909
0.6425 -4.5777 2.3909
0.8056 -4.5468 2.3909
0.9670 -4.5102 2.3909
1.1271 -4.4679 2.3909
1.2854 -4.4199 2.3909
1.4418 -4.3662 2.3909
1.5960 -4.3071 2.3909
1.7478 -4.2425 2.3909
1.8972 -4.1726 2.3909
2.0438 -4.0975 2.3909
2.1875 -4.0173 2.3909
2.3282 -3.9320 2.3909
2.4656 -3.8419 2.3909
2.5996 -3.7470 2.3909
2.7300 -3.6475 2.3909
2.8568 -3.5434 2.3909
2.9796 -3.4351 2.3909
3.0985 -3.3225 2.3909
3.2132 -3.2058 2.3909
3.3236 -3.0853 2.3909
3.4296 -2.9610 2.3909
3.5311 -2.8331 2.3909
3.6279 -2.7018 2.3909
3.7199 -2.5672 2.3909
3.8071 -2.4296 2.3909
3.8893 -2.2890 2.3909
3.9665 -2.1457 2.3909
4.0385 -1.9999 2.3909
4.1053 -1.8517 2.3909
4.1668 -1.7013 2.3909
4.2229 -1.5489 2.3909
4.2736 -1.3947 2.3909
4.3188 -1.2389 2.3909
4.3585 -1.0817 2.3909
4.3926 -0.9232 2.3909
4.4212 -0.7637 2.3909
4.4440 -0.6033 2.3909
4.4613 -0.4422 2.3909
4.4729 -0.2808 2.3909
4.4787 -0.1190 2.3909
4.4789 0.0428 2.3909
4.4735 0.2045 2.3909
4.4623 0.3659 2.3909
4.4455 0.5268 2.3909
4.4231 0.6869 2.3909
4.3951 0.8462 2.3909
4.3615 1.0044 2.3909
4.3223 1.1613 2.3909
4.2777 1.3167 2.3909
4.2277 1.4705 2.3909
4.1723 1.6225 2.3909
4.1115 1.7724 2.3909
4.0456 1.9201 2.3909
3.9745 2.0654 2.3909
3.8983 2.2082 2.3909
3.8172 2.3482 2.3909
3.7311 2.4854 2.3909
3.6403 2.6195 2.3909
3.5448 2.7503 2.3909
3.4447 2.8778 2.3909
3.3401 3.0017 2.3909
3.2312 3.1219 2.3909
3.1181 3.2382 2.3909
3.0009 3.3505 2.3909
2.8798 3.4587 2.3909
2.7549 3.5626 2.3909
2.6264 3.6621 2.3909
2.4943 3.7570 2.3909
2.3589 3.8473 2.3909
0.8909 1.5781 0.9594
0.8337 1.6096 0.9589
0.7753 1.6390 0.9584
0.7160 1.6664 0.9578
0.6556 1.6915 0.9573
0.5944 1.7145 0.9567
0.5325 1.7353 0.9561
0.4698 1.7538 0.9555
0.4064 1.7700 0.9549
0.3425 1.7840 0.9542
0.2782 1.7957 0.9536
0.2135 1.8050 0.9529
0.1484 1.8119 0.9522
0.0832 1.8166 0.9515
0.0178 1.8189 0.9507
-0.0476 1.8188 0.9500
-0.1129 1.8164 0.9493
-0.1782 1.8116 0.9485
-0.2432 1.8044 0.9477
-0.3079 1.7949 0.9470
-0.3722 1.7831 0.9462
-0.4361 1.7690 0.9454
-0.4994 1.7526 0.9446
-0.5621 1.7339 0.9438
-0.6241 1.7130 0.9430
-0.6853 1.6898 0.9422
-0.7455 1.6645 0.9414
-0.8049 1.6370 0.9405
-0.8632 1.6074 0.9397
-0.9204 1.5757 0.9389
-2.4884 3.9297 2.3909
-2.6302 3.8419 2.3909
-2.7689 3.7490 2.3909
-2.9042 3.6510 2.3909
-3.0360 3.5481 2.3909
-3.1640 3.4404 2.3909
-3.2881 3.3281 2.3909
-3.4082 3.2113 2.3909
-3.5240 3.0900 2.3909
-3.6355 2.9646 2.3909
-3.7423 2.8351 2.3909
-3.8444 2.7017 2.3909
-3.9417 2.5646 2.3909
-4.0340 2.4240 2.3909
-4.1211 2.2799 2.3909
-4.2029 2.1328 2.3909
-4.2794 1.9826 2.3909
-4.3503 1.8297 2.3909
-4.4157 1.6742 2.3909
-4.4753 1.5164 2.3909
-4.5292 1.3564 2.3909
-4.5772 1.1944 2.3909
-4.6192 1.0308 2.3909
-4.6552 0.8656 2.3909
-4.6852 0.6992 2.3909
-4.7090 0.5318 2.3909
-4.7267 0.3635 2.3909
-4.7381 0.1947 2.3909
-4.7434 0.0255 2.3909
-4.7425 -0.1438 2.3909
-4.7353 -0.3130 2.3909
-4.7220 -0.4818 2.3909
-4.7024 -0.6501 2.3909
-4.6767 -0.8175 2.3909
-4.6448 -0.9839 2.3909
-4.6068 -1.1490 2.3909
-4.5628 -1.3126 2.3909
-4.5128 -1.4745 2.3909
-4.4569 -1.6344 2.3909
-4.3952 -1.7921 2.3909
-4.3277 -1.9474 2.3909
-4.2546 -2.1002 2.3909
-4.1759 -2.2501 2.3909
-4.0918 -2.3970 2.3909
-4.0024 -2.5406 2.3909
-3.9077 -2.6809 2.3909
-3.8081 -2.8175 2.3909
-3.7035 -2.9504 2.3909
-3.5941 -3.0793 2.3909
-3.4802 -3.2040 2.3909
-3.3618 -3.3245 2.3909
-3.2391 -3.4405 2.3909
-3.1123 -3.5518 2.3909
-2.9816 -3.6584 2.3909
-2.8471 -3.7601 2.3909
-2.7091 -3.8568 2.3909
-2.5677 -3.9483 2.3909
-2.4232 -4.0345 2.3909
-2.2757 -4.1153 2.3909
-2.1254 -4.1907 2.3909
-1.9726 -4.2605 2.3909
-1.8175 -4.3247 2.3909
-1.6602 -4.3831 2.3909
-1.5010 -4.4357 2.3909
-1.3401 -4.4825 2.3909
-1.1778 -4.5234 2.3909
-1.0142 -4.5583 2.3909
-0.8495 -4.5873 2.3909
-0.6840 -4.6102 2.3909
-0.5180 -4.6272 2.3909
-0.3516 -4.6381 2.3909
-0.1850 -4.6430 2.3909
-0.0192 -4.3958 2.3909
0.1382 -4.3893 2.3909
0.2952 -4.3770 2.3909
0.4515 -4.3592 2.3909
0.6069 -4.3358 2.3909
0.7613 -4.3068 2.3909
0.9144 -4.2723 2.3909
1.0660 -4.2324 2.3909
1.2160 -4.1871 2.3909
1.3642 -4.1365 2.3909
1.5103 -4.0806 2.3909
1.6543 -4.0196 2.3909
1.7958 -3.9536 2.3909
1.9348 -3.8826 2.3909
2.0711 -3.8067 2.3909
2.2044 -3.7261 2.3909
2.3347 -3.6409 2.3909
2.4618 -3.5511 2.3909
2.5856 -3.4569 2.3909
2.7058 -3.3585 2.3909
2.8223 -3.2559 2.3909
2.9351 -3.1493 2.3909
3.0439 -3.0389 2.3909
3.1487 -2.9248 2.3909
3.2493 -2.8070 2.3909
3.3455 -2.6859 2.3909
3.4374 -2.5615 2.3909
3.5248 -2.4341 2.3909
3.6076 -2.3036 2.3909
3.6856 -2.1705 2.3909
3.7589 -2.0347 2.3909
3.8272 -1.8965 2.3909
3.8907 -1.7560 2.3909
3.9491 -1.6135 2.3909
4.0024 -1.4690 2.3909
4.0506 -1.3229 2.3909
4.0935 -1.1752 2.3909
4.1313 -1.0261 2.3909
4.1637 -0.8758 2.3909
4.1908 -0.7246 2.3909
4.2126 -0.5725 2.3909
4.2290 -0.4198 2.3909
4.2401 -0.2667 2.3909
4.2457 -0.1133 2.3909
4.2459 0.0401 2.3909
4.2408 0.1935 2.3909
4.2303 0.3465 2.3909
4.2143 0.4991 2.3909
4.1931 0.6510 2.3909
4.1665 0.8020 2.3909
4.1347 0.9520 2.3909
4.0976 1.1008 2.3909
4.0553 1.2482 2.3909
4.0078 1.3941 2.3909
3.9552 1.5382 2.3909
3.8976 1.6803 2.3909
3.8351 1.8204 2.3909
3.7676 1.9582 2.3909
3.6953 2.0936 2.3909
3.6183 2.2263 2.3909
3.5367 2.3564 2.3909
3.4505 2.4835 2.3909
3.3599 2.6075 2.3909
3.2649 2.7283 2.3909
3.1657 2.8457 2.3909
3.0624 2.9596 2.3909
2.9551 3.0699 2.3909
2.8439 3.1763 2.3909
2.7290 3.2788 2.3909
2.6105 3.3772 2.3909
2.4886 3.4714 2.3909
2.3633 3.5614 2.3909
0.8963 1.4625 0.9588
0.8432 1.4943 0.9584
0.7890 1.5241 0.9579
0.7337 1.5520 0.9574
0.6775 1.5779 0.9569
0.6204 1.6017 0.9564
0.5624 1.6235 0.9559
0.5037 1.6431 0.9553
0.4443 1.6607 0.9547
0.3843 1.6761 0.9541
0.3238 1.6893 0.9535
0.2629 1.7003 0.9529
0.2016 1.7091 0.9523
0.1400 1.7157 0.9516
0.0782 1.7201 0.9509
0.0163 1.7223 0.9502
-0.0456 1.7222 0.9495
-0.1075 1.7199 0.9488
-0.1693 1.7154 0.9481
-0.2308 1.7086 0.9474
-0.2921 1.6996 0.9466
-0.3530 1.6884 0.9459
-0.4135 1.6751 0.9452
-0.4735 1.6595 0.9444
-0.5329 1.6418 0.9436
-0.5915 1.6220 0.9429
-0.6495 1.6001 0.9421
-0.7066 1.5761 0.9413
-0.7628 1.5501 0.9406
-0.8180 1.5220 0.9398
-0.8722 1.4920 0.9391
-0.9252 1.4601 0.9383
-2.4917 3.6372 2.3909
-2.6229 3.5490 2.3909
-2.7508 3.4561 2.3909
-2.8755 3.3586 2.3909
-2.9966 3.2565 2.3909
-3.1140 3.1501 2.3909
-3.2275 3.0393 2.3909
-3.3370 2.9245 2.3909
-3.4423 2.8057 2.3909
-3.5434 2.6830 2.3909
-3.6399 2.5567 2.3909
-3.7318 2.4268 2.3909
-3.8190 2.2936 2.3909
-3.9013 2.1573 2.3909
-3.9787 2.0180 2.3909
-4.0509 1.8758 2.3909
-4.1179 1.7311 2.3909
-4.1797 1.5839 2.3909
-4.2360 1.4345 2.3909
-4.2869 1.2831 2.3909
-4.3322 1.1298 2.3909
-4.3718 0.9750 2.3909
-4.4058 0.8187 2.3909
-4.4341 0.6613 2.3909
-4.4566 0.5028 2.3909
-4.4732 0.3436 2.3909
-4.4840 0.1839 2.3909
-4.4890 0.0238 2.3909
-4.4880 -0.1363 2.3909
-4.4812 -0.2964 2.3909
-4.4686 -0.4561 2.3909
-4.4500 -0.6153 2.3909
-4.4257 -0.7736 2.3909
-4.3955 -0.9310 2.3909
-4.3596 -1.0872 2.3909
-4.3180 -1.2420 2.3909
-4.2707 -1.3951 2.3909
-4.2178 -1.5464 2.3909
-4.1595 -1.6956 2.3909
-4.0957 -1.8426 2.3909
-4.0265 -1.9871 2.3909
-3.9521 -2.1289 2.3909
-3.8726 -2.2679 2.3909
-3.7880 -2.4039 2.3909
-3.6986 -2.5366 2.3909
-3.6044 -2.6660 2.3909
-3.5055 -2.7917 2.3909
-3.4021 -2.9137 2.3909
-3.2943 -3.0318 2.3909
-3.1824 -3.1458 2.3909
-3.0664 -3.2556 2.3909
-2.9465 -3.3611 2.3909
-2.8229 -3.4621 2.3909
-2.6957 -3.5584 2.3909
-2.5652 -3.6500 2.3909
-2.4315 -3.7367 2.3909
-2.2948 -3.8184 2.3909
-2.1553 -3.8950 2.3909
-2.0131 -3.9665 2.3909
-1.8686 -4.0327 2.3909
-1.7218 -4.0936 2.3909
-1.5730 -4.1490 2.3909
-1.4224 -4.1990 2.3909
-1.2702 -4.2435 2.3909
-1.1165 -4.2823 2.3909
-0.9617 -4.3156 2.3909
-0.8058 -4.3432 2.3909
-0.6492 -4.3651 2.3909
-0.4920 -4.3813 2.3909
-0.3345 -4.3918 2.3909
-0.1767 -4.3967 2.3909
-0.0191 -4.3958 2.3909
0.1384 -4.3892 2.3909
0.2953 -4.3770 2.3909
0.4516 -4.3592 2.3909
0.6070 -4.3358 2.3909
0.7614 -4.3068 2.3909
0.9145 -4.2723 2.3909
1.0661 -4.2323 2.3909
1.2161 -4.1870 2.3909
1.3643 -4.1364 2.3909
1.5104 -4.0806 2.3909
1.6544 -4.0196 2.3909
1.7959 -3.9535 2.3909
1.9349 -3.8825 2.3909
2.0712 -3.8067 2.3909
2.2045 -3.7261 2.3909
2.3348 -3.6408 2.3909
2.4619 -3.5510 2.3909
2.5856 -3.4569 2.3909
2.7059 -3.3584 2.3909
2.8224 -3.2558 2.3909
2.9352 -3.1493 2.3909
3.0440 -3.0388 2.3909
3.1487 -2.9247 2.3909
3.2493 -2.8070 2.3909
3.3456 -2.6858 2.3909
3.4375 -2.5614 2.3909
3.5249 -2.4340 2.3909
3.6076 -2.3036 2.3909
3.6857 -2.1704 2.3909
3.7589 -2.0346 2.3909
3.8273 -1.8964 2.3909
3.8907 -1.7559 2.3909
3.9491 -1.6134 2.3909
4.0024 -1.4689 2.3909
4.0506 -1.3228 2.3909
4.0936 -1.1751 2.3909
4.1313 -1.0260 2.3909
4.1637 -0.8757 2.3909
4.1908 -0.7245 2.3909
4.2126 -0.5724 2.3909
4.2290 -0.4197 2.3909
4.2401 -0.2666 2.3909
4.2457 -0.1132 2.3909
4.2459 0.0402 2.3909
4.2408 0.1936 2.3909
4.2302 0.3466 2.3909
4.2143 0.4992 2.3909
4.1931 0.6511 2.3909
4.1665 0.8021 2.3909
4.1347 0.9521 2.3909
4.0975 1.1009 2.3909
4.0552 1.2483 2.3909
4.0078 1.3942 2.3909
3.9552 1.5383 2.3909
3.8976 1.6804 2.3909
3.8350 1.8205 2.3909
3.7676 1.9583 2.3909
3.6953 2.0937 2.3909
3.6183 2.2264 2.3909
3.5366 2.3565 2.3909
3.4504 2.4836 2.3909
3.3598 2.6076 2.3909
3.2648 2.7284 2.3909
3.1656 2.8458 2.3909
3.0623 2.9597 2.3909
2.9550 3.0699 2.3909
2.8439 3.1764 2.3909
2.7290 3.2789 2.3909
2.6105 3.3773 2.3909
2.4885 3.4715 2.3909
2.3632 3.5614 2.3909
0.8962 1.4625 0.9588
0.8431 1.4943 0.9584
0.7889 1.5242 0.9579
0.7337 1.5520 0.9574
0.6774 1.5779 0.9569
0.6203 1.6017 0.9564
0.5624 1.6235 0.9559
0.5037 1.6432 0.9553
0.4443 1.6607 0.9547
0.3843 1.6761 0.9541
0.3238 1.6893 0.9535
0.2629 1.7003 0.9529
0.2016 1.7091 0.9523
0.1400 1.7157 0.9516
0.0782 1.7201 0.9509
0.0163 1.7223 0.9502
-0.0456 1.7222 0.9495
-0.1075 1.7199 0.9488
-0.1693 1.7154 0.9481
-0.2309 1.7086 0.9474
-0.2922 1.6996 0.9466
-0.3531 1.6884 0.9459
-0.4136 1.6751 0.9452
-0.4735 1.6595 0.9444
-0.5329 1.6418 0.9436
-0.5916 1.6220 0.9429
-0.6495 1.6001 0.9421
-0.7066 1.5761 0.9413
-0.7628 1.5501 0.9406
-0.8180 1.5220 0.9398
-0.8722 1.4920 0.9390
-0.9252 1.4601 0.9383
-2.4918 3.6371 2.3909
-2.6229 3.5489 2.3909
-2.7509 3.4561 2.3909
-2.8755 3.3585 2.3909
-2.9966 3.2564 2.3909
-3.1140 3.1500 2.3909
-3.2276 3.0393 2.3909
-3.3371 2.9244 2.3909
-3.4424 2.8056 2.3909
-3.5434 2.6829 2.3909
-3.6400 2.5566 2.3909
-3.7319 2.4267 2.3909
-3.8191 2.2936 2.3909
-3.9014 2.1572 2.3909
-3.9787 2.0179 2.3909
-4.0510 1.8757 2.3909
-4.1180 1.7310 2.3909
-4.1797 1.5838 2.3909
-4.2360 1.4344 2.3909
-4.2869 1.2830 2.3909
-4.3322 1.1297 2.3909
-4.3719 0.9749 2.3909
-4.4059 0.8186 2.3909
-4.4341 0.6612 2.3909
-4.4566 0.5027 2.3909
-4.4732 0.3435 2.3909
-4.4840 0.1838 2.3909
-4.4890 0.0237 2.3909
-4.4880 -0.1364 2.3909
-4.4812 -0.2965 2.3909
-4.4686 -0.4562 2.3909
-4.4500 -0.6154 2.3909
-4.4257 -0.7737 2.3909
-4.3955 -0.9311 2.3909
-4.3596 -1.0873 2.3909
-4.3179 -1.2421 2.3909
-4.2707 -1.3952 2.3909
-4.2178 -1.5465 2.3909
-4.1594 -1.6957 2.3909
-4.0956 -1.8427 2.3909
-4.0265 -1.9872 2.3909
-3.9521 -2.1290 2.3909
-3.8725 -2.2680 2.3909
-3.7880 -2.4040 2.3909
-3.6985 -2.5367 2.3909
-3.6043 -2.6660 2.3909
-3.5054 -2.7918 2.3909
-3.4020 -2.9138 2.3909
-3.2943 -3.0319 2.3909
-3.1823 -3.1459 2.3909
-3.0663 -3.2557 2.3909
-2.9464 -3.3612 2.3909
-2.8228 -3.4621 2.3909
-2.6957 -3.5585 2.3909
-2.5651 -3.6500 2.3909
-2.4314 -3.7367 2.3909
-2.2947 -3.8184 2.3909
-2.1552 -3.8951 2.3909
-2.0131 -3.9665 2.3909
-1.8685 -4.0328 2.3909
-1.7217 -4.0936 2.3909
-1.5729 -4.1491 2.3909
-1.4223 -4.1990 2.3909
-1.2701 -4.2435 2.3909
-1.1164 -4.2823 2.3909
