ply
format ascii 1.0
element vertex 2178
property float32 x
property float32 y
property float32 z
end_header
4.8744 -4.5133 2.2052
5.0182 -4.3225 2.2002
5.1675 -4.1374 2.2006
5.3093 -3.9468 2.2007
5.4442 -3.7513 2.2009
5.5719 -3.5512 2.2011
5.6923 -3.3468 2.2013
5.8053 -3.1383 2.2014
5.9106 -2.9261 2.2016
5.3804 -2.4271 1.9717
6.0982 -2.4913 2.2020
6.1801 -2.2694 2.2022
6.2541 -2.0448 2.2024
6.3200 -1.8178 2.2026
5.3810 -1.3404 1.8585
6.4273 -1.3578 2.2030
5.3726 -0.9347 1.8299
6.5016 -0.8918 2.2034
6.5262 -0.6573 2.2036
6.5425 -0.4222 2.2039
6.5505 -0.1867 2.2041
6.5501 0.0488 2.2043
6.5413 0.2841 2.2046
6.5242 0.5188 2.2048
5.3644 0.6213 1.8201
6.4652 0.9855 2.2053
6.4231 1.2168 2.2054
6.3712 1.4460 2.2050
6.3114 1.6731 2.2047
6.2435 1.8979 2.2043
6.1676 2.1199 2.2038
5.3786 2.0678 1.9479
5.2839 2.2527 1.9424
5.8890 2.7649 2.2006
5.7841 2.9740 2.2006
5.6719 3.1793 2.2006
5.5525 3.3803 2.2006
5.4261 3.5770 2.2006
5.2929 3.7691 2.2006
5.1530 3.9563 2.2006
5.0067 4.1385 2.2006
4.8540 4.3153 2.2006
4.7151 4.5057 2.2100
4.8441 4.9744 2.3530
4.6618 5.1452 2.3530
4.4736 5.3094 2.3530
4.2798 5.4668 2.3530
4.0805 5.6173 2.3530
3.8760 5.7607 2.3530
3.6665 5.8968 2.3530
3.4524 6.0255 2.3530
3.2338 6.1465 2.3530
3.0111 6.2597 2.3530
2.7845 6.3650 2.3530
2.5543 6.4623 2.3530
2.3208 6.5514 2.3530
0.8523 2.7122 0.9622
0.7543 2.7414 0.9621
0.6553 2.7672 0.9620
0.5555 2.7893 0.9618
0.4549 2.8078 0.9616
0.3537 2.8227 0.9614
0.2520 2.8339 0.9611
0.1499 2.8414 0.9608
0.0477 2.8453 0.9605
-0.0546 2.8454 0.9602
-0.1569 2.8418 0.9599
-0.2590 2.8346 0.9595
-0.3607 2.8237 0.9591
-0.4620 2.8091 0.9587
-0.5627 2.7908 0.9582
-0.6627 2.7689 0.9577
-0.7618 2.7434 0.9573
-0.8599 2.7144 0.9567
-2.3549 6.5994 2.3530
-2.5920 6.5144 2.3530
-2.8261 6.4210 2.3530
-3.0569 6.3193 2.3530
-3.2840 6.2094 2.3530
-3.5072 6.0913 2.3530
-3.7262 5.9653 2.3530
-3.9407 5.8315 2.3530
-4.1504 5.6900 2.3530
-4.3550 5.5411 2.3530
-4.5543 5.3848 2.3530
-4.7480 5.2214 2.3530
-4.9358 5.0510 2.3530
-5.1175 4.8740 2.3530
-5.2929 4.6904 2.3530
-5.4617 4.5005 2.3530
-5.6237 4.3046 2.3530
-5.7786 4.1029 2.3530
-5.9263 3.8955 2.3530
-6.0665 3.6829 2.3530
-6.1991 3.4653 2.3530
-6.3238 3.2428 2.3530
-6.4405 3.0159 2.3530
-6.5490 2.7848 2.3530
-6.6492 2.5498 2.3530
-6.7409 2.3112 2.3530
-6.8240 2.0692 2.3530
-6.8983 1.8243 2.3530
-6.9637 1.5767 2.3530
-7.0202 1.3268 2.3530
-7.0676 1.0749 2.3530
-7.1059 0.8212 2.3530
-7.1350 0.5662 2.3530
-7.1549 0.3102 2.3530
-7.1655 0.0535 2.3530
-7.1667 -0.2035 2.3530
-7.1586 -0.4606 2.3530
-7.1412 -0.7173 2.3530
-7.1144 -0.9733 2.3530
-7.0783 -1.2282 2.3530
-7.0330 -1.4818 2.3530
-6.9784 -1.7337 2.3530
-6.9147 -1.9836 2.3530
-6.8419 -2.2310 2.3530
-6.7601 -2.4757 2.3530
-6.6694 -2.7173 2.3530
-6.5700 -2.9556 2.3530
-6.4618 -3.1901 2.3530
-6.3452 -3.4206 2.3530
-6.2202 -3.6467 2.3530
-6.0870 -3.8682 2.3530
-5.9458 -4.0847 2.3530
-5.7968 -4.2959 2.3530
-5.6401 -4.5016 2.3530
-5.4759 -4.7014 2.3530
-5.3046 -4.8952 2.3530
-5.1263 -5.0826 2.3530
-4.9412 -5.2633 2.3530
-4.7497 -5.4372 2.3530
-4.5519 -5.6040 2.3530
-4.3482 -5.7634 2.3530
-4.1387 -5.9153 2.3530
-3.9239 -6.0594 2.3530
-3.7040 -6.1955 2.3530
-3.4793 -6.3236 2.3530
-3.2500 -6.4433 2.3530
-3.0166 -6.5545 2.3530
-2.7793 -6.6572 2.3530
-2.5384 -6.7511 2.3530
-2.2944 -6.8361 2.3530
-2.0474 -6.9121 2.3530
-1.7979 -6.9791 2.3530
-1.5462 -7.0369 2.3530
-1.2926 -7.0854 2.3530
-1.0375 -7.1247 2.3530
-0.7812 -7.1546 2.3530
-0.5241 -7.1752 2.3530
-0.2665 -7.1864 2.3530
-0.0087 -6.6759 2.3530
0.2305 -6.6690 2.3530
0.4692 -6.6535 2.3530
0.7070 -6.6293 2.3530
0.9437 -6.5966 2.3530
1.1790 -6.5552 2.3530
1.4125 -6.5054 2.3530
1.6439 -6.4472 2.3530
1.8730 -6.3807 2.3530
2.0994 -6.3059 2.3530
2.3228 -6.2230 2.3530
2.5430 -6.1322 2.3530
2.6939 -5.8897 2.2970
2.7800 -5.5432 2.2006
2.9752 -5.4366 2.2007
3.1666 -5.3235 2.2008
3.3541 -5.2044 2.2013
3.5372 -5.0786 2.2018
3.7155 -4.9463 2.2023
3.8888 -4.8077 2.2027
4.0570 -4.6629 2.2031
4.2197 -4.5122 2.2036
4.3769 -4.3558 2.2040
4.5282 -4.1939 2.2044
4.6735 -4.0267 2.2047
4.8126 -3.8544 2.2051
4.9392 -3.6727 2.2027
5.0613 -3.4883 2.2013
5.1802 -3.3026 2.2014
5.2924 -3.1127 2.2016
5.3976 -2.9189 2.2018
5.4958 -2.7217 2.2019
5.3804 -2.4279 2.1207
5.6707 -2.3176 2.2023
5.3848 -1.9781 2.0636
5.8161 -1.9024 2.2027
5.8776 -1.6913 2.2028
5.9315 -1.4783 2.2030
5.9778 -1.2636 2.2032
5.3726 -0.9354 1.9676
6.0473 -0.8302 2.2036
6.0704 -0.6121 2.2038
6.0857 -0.3934 2.2041
6.0933 -0.1743 2.2043
6.0931 0.0448 2.2045
6.0851 0.2637 2.2047
6.0693 0.4820 2.2049
5.3644 0.6208 1.9566
5.3697 0.8180 1.9689
5.9754 1.1314 2.2054
5.9275 1.3448 2.2051
5.8720 1.5561 2.2047
5.8088 1.7652 2.2043
5.3722 1.8460 2.0632
5.3636 2.0616 2.0878
5.2840 2.2523 2.0876
5.4795 2.5722 2.2006
5.3819 2.7669 2.2006
5.2776 2.9579 2.2006
5.1666 3.1451 2.2006
5.0490 3.3282 2.2006
4.9251 3.5070 2.2006
4.7950 3.6812 2.2006
4.6588 3.8508 2.2006
4.5167 4.0154 2.2006
4.3690 4.1749 2.2006
4.5076 4.6288 2.3530
4.3379 4.7877 2.3530
4.1628 4.9405 2.3530
3.9824 5.0870 2.3530
3.7969 5.2271 2.3530
3.6066 5.3605 2.3530
3.4116 5.4872 2.3530
3.2123 5.6069 2.3530
3.0089 5.7194 2.3530
2.8016 5.8248 2.3530
2.5907 5.9227 2.3530
2.3764 6.0132 2.3530
0.8816 2.4892 0.9608
0.7916 2.5197 0.9607
0.7006 2.5469 0.9606
0.6086 2.5707 0.9605
0.5158 2.5913 0.9603
0.4224 2.6085 0.9602
0.3283 2.6223 0.9599
0.2338 2.6327 0.9597
0.1390 2.6397 0.9595
0.0440 2.6432 0.9592
-0.0510 2.6433 0.9589
-0.1460 2.6400 0.9585
-0.2409 2.6333 0.9582
-0.3354 2.6231 0.9578
-0.4295 2.6095 0.9574
-0.5231 2.5926 0.9570
-0.6160 2.5723 0.9566
-0.7081 2.5486 0.9561
-0.7992 2.5216 0.9556
-0.8894 2.4913 0.9551
-2.4115 6.0583 2.3530
-2.6291 5.9712 2.3530
-2.8436 5.8763 2.3530
-3.0547 5.7738 2.3530
-3.2622 5.6638 2.3530
-3.4657 5.5464 2.3530
-3.6650 5.4217 2.3530
-3.8598 5.2900 2.3530
-4.0498 5.1512 2.3530
-4.2350 5.0057 2.3530
-4.4149 4.8536 2.3530
-4.5893 4.6950 2.3530
-4.7580 4.5302 2.3530
-4.9208 4.3593 2.3530
-5.0777 4.1826 2.3530
-5.2279 4.0003 2.3530
-5.3716 3.8126 2.3530
-5.5086 3.6198 2.3530
-5.6387 3.4220 2.3530
-5.7616 3.2196 2.3530
-5.8773 3.0128 2.3530
-5.9855 2.8018 2.3530
-6.0861 2.5869 2.3530
-6.1789 2.3684 2.3530
-6.2639 2.1466 2.3530
-6.3407 1.9217 2.3530
-6.4095 1.6941 2.3530
-6.4701 1.4640 2.3530
-6.5223 1.2318 2.3530
-6.5661 0.9977 2.3530
-6.6014 0.7620 2.3530
-6.6282 0.5252 2.3530
-6.6464 0.2873 2.3530
-6.6559 0.0489 2.3530
-6.6568 -0.1898 2.3530
-6.6491 -0.4286 2.3530
-6.6327 -0.6669 2.3530
-6.6076 -0.9047 2.3530
-6.5739 -1.1414 2.3530
-6.5316 -1.3769 2.3530
-6.4807 -1.6107 2.3530
-6.4214 -1.8427 2.3530
-6.3536 -2.0724 2.3530
-6.2775 -2.2995 2.3530
-6.1932 -2.5238 2.3530
-6.1007 -2.7450 2.3530
-6.0002 -2.9627 2.3530
-5.8918 -3.1766 2.3530
-5.7756 -3.3865 2.3530
-5.6519 -3.5921 2.3530
-5.5207 -3.7930 2.3530
-5.3823 -3.9891 2.3530
-5.2367 -4.1800 2.3530
-5.0843 -4.3657 2.3530
-4.9252 -4.5453 2.3530
-4.7596 -4.7193 2.3530
-4.5878 -4.8870 2.3530
-4.4100 -5.0484 2.3530
-4.2264 -5.2033 2.3530
-4.0372 -5.3513 2.3530
-3.8428 -5.4923 2.3530
-3.6434 -5.6261 2.3530
-3.4393 -5.7524 2.3530
-3.2306 -5.8714 2.3530
-3.0178 -5.9826 2.3530
-2.8011 -6.0860 2.3530
-2.5809 -6.1813 2.3530
-2.3573 -6.2686 2.3530
-2.1307 -6.3476 2.3530
-1.9015 -6.4183 2.3530
-1.6699 -6.4806 2.3530
-1.4362 -6.5344 2.3530
-1.2008 -6.5796 2.3530
-0.9639 -6.6162 2.3530
-0.7260 -6.6442 2.3530
-0.4873 -6.6634 2.3530
-0.2481 -6.6740 2.3530
-0.0087 -6.6759 2.3530
0.2304 -6.6690 2.3530
0.4691 -6.6535 2.3530
0.7070 -6.6293 2.3530
0.9437 -6.5966 2.3530
1.1789 -6.5552 2.3530
1.4125 -6.5054 2.3530
1.6439 -6.4472 2.3530
1.8730 -6.3807 2.3530
2.0994 -6.3059 2.3530
2.3228 -6.2230 2.3530
2.5430 -6.1322 2.3530
2.6939 -5.8898 2.2970
2.7799 -5.5432 2.2006
2.9752 -5.4366 2.2007
3.1665 -5.3236 2.2008
3.3541 -5.2044 2.2013
3.5371 -5.0786 2.2018
3.7155 -4.9463 2.2023
3.8888 -4.8077 2.2027
4.0570 -4.6629 2.2031
4.2197 -4.5123 2.2036
4.3768 -4.3559 2.2040
4.5282 -4.1939 2.2044
4.6735 -4.0267 2.2047
4.8126 -3.8545 2.2051
4.9392 -3.6728 2.2027
5.0613 -3.4887 2.2013
5.1802 -3.3026 2.2014
5.2924 -3.1127 2.2016
5.3976 -2.9190 2.2018
5.4958 -2.7217 2.2019
5.3804 -2.4280 2.1207
5.6707 -2.3176 2.2023
5.3848 -1.9782 2.0636
5.8161 -1.9024 2.2027
5.8776 -1.6914 2.2028
5.9315 -1.4784 2.2030
5.9778 -1.2637 2.2032
5.3726 -0.9355 1.9676
6.0473 -0.8303 2.2036
6.0704 -0.6122 2.2038
6.0857 -0.3934 2.2041
6.0933 -0.1744 2.2043
6.0931 0.0447 2.2045
6.0851 0.2636 2.2047
6.0693 0.4820 2.2049
5.3644 0.6208 1.9566
5.3697 0.8179 1.9689
5.9755 1.1314 2.2054
5.9275 1.3447 2.2051
5.8720 1.5561 2.2047
5.8089 1.7652 2.2043
5.3722 1.8460 2.0632
5.3636 2.0616 2.0877
5.2841 2.2523 2.0876
5.4795 2.5722 2.2006
5.3819 2.7668 2.2006
5.2776 2.9579 2.2006
5.1666 3.1450 2.2006
5.0491 3.3281 2.2006
4.9251 3.5069 2.2006
4.7950 3.6812 2.2006
4.6588 3.8507 2.2006
4.5168 4.0153 2.2006
4.3690 4.1748 2.2006
4.5076 4.6288 2.3530
4.3380 4.7877 2.3530
4.1628 4.9405 2.3530
3.9824 5.0870 2.3530
3.7969 5.2271 2.3530
3.6066 5.3605 2.3530
3.4117 5.4872 2.3530
3.2124 5.6068 2.3530
3.0089 5.7194 2.3530
2.8017 5.8247 2.3530
2.5907 5.9227 2.3530
2.3764 6.0132 2.3530
0.8816 2.4892 0.9608
0.7916 2.5197 0.9607
0.7006 2.5469 0.9606
0.6086 2.5707 0.9605
0.5159 2.5913 0.9603
0.4224 2.6085 0.9602
0.3283 2.6223 0.9599
0.2339 2.6327 0.9597
0.1391 2.6397 0.9595
0.0441 2.6432 0.9592
-0.0510 2.6433 0.9589
-0.1460 2.6400 0.9585
-0.2409 2.6333 0.9582
-0.3354 2.6231 0.9578
-0.4295 2.6095 0.9574
-0.5231 2.5926 0.9570
-0.6159 2.5723 0.9566
-0.7080 2.5486 0.9561
-0.7992 2.5216 0.9556
-0.8893 2.4913 0.9551
-2.4114 6.0583 2.3530
-2.6291 5.9712 2.3530
-2.8436 5.8763 2.3530
-3.0547 5.7738 2.3530
-3.2621 5.6638 2.3530
-3.4656 5.5464 2.3530
-3.6649 5.4218 2.3530
-3.8597 5.2900 2.3530
-4.0498 5.1513 2.3530
-4.2349 5.0057 2.3530
-4.4148 4.8536 2.3530
-4.5892 4.6950 2.3530
-4.7580 4.5302 2.3530
-4.9208 4.3594 2.3530
-5.0777 4.1827 2.3530
-5.2278 4.0004 2.3530
-5.3716 3.8127 2.3530
-5.5086 3.6198 2.3530
-5.6387 3.4221 2.3530
-5.7616 3.2196 2.3530
-5.8773 3.0128 2.3530
-5.9855 2.8018 2.3530
-6.0861 2.5869 2.3530
-6.1789 2.3684 2.3530
-6.2638 2.1466 2.3530
-6.3407 1.9218 2.3530
-6.4095 1.6941 2.3530
-6.4700 1.4641 2.3530
-6.5223 1.2318 2.3530
-6.5661 0.9977 2.3530
-6.6014 0.7621 2.3530
-6.6282 0.5252 2.3530
-6.6464 0.2874 2.3530
-6.6559 0.0489 2.3530
-6.6568 -0.1898 2.3530
-6.6491 -0.4285 2.3530
-6.6327 -0.6669 2.3530
-6.6076 -0.9046 2.3530
-6.5739 -1.1414 2.3530
-6.5316 -1.3768 2.3530
-6.4808 -1.6107 2.3530
-6.4214 -1.8426 2.3530
-6.3536 -2.0723 2.3530
-6.2775 -2.2995 2.3530
-6.1932 -2.5238 2.3530
-6.1007 -2.7449 2.3530
-6.0002 -2.9626 2.3530
-5.8918 -3.1766 2.3530
-5.7757 -3.3865 2.3530
-5.6519 -3.5920 2.3530
-5.5207 -3.7930 2.3530
-5.3823 -3.9890 2.3530
-5.2368 -4.1800 2.3530
-5.0843 -4.3654 2.3530
-4.9252 -4.5453 2.3530
-4.7597 -4.7192 2.3530
-4.5879 -4.8870 2.3530
-4.4100 -5.0484 2.3530
-4.2264 -5.2032 2.3530
-4.0373 -5.3512 2.3530
-3.8429 -5.4923 2.3530
-3.6434 -5.6261 2.3530
-3.4393 -5.7525 2.3530
-3.2307 -5.8714 2.3530
-3.0179 -5.9826 2.3530
-2.8012 -6.0859 2.3530
-2.5809 -6.1813 2.3530
-2.3573 -6.2686 2.3530
-2.1308 -6.3476 2.3530
-1.9015 -6.4183 2.3530
-1.6699 -6.4806 2.3530
-1.4362 -6.5343 2.3530
-1.2008 -6.5796 2.3530
-0.9640 -6.6162 2.3530
-0.7260 -6.6442 2.3530
-0.4873 -6.6634 2.3530
-0.2481 -6.6740 2.3530
-0.0087 -6.2251 2.3530
0.2143 -6.2188 2.3530
0.4369 -6.2045 2.3530
0.6587 -6.1822 2.3530
0.8794 -6.1518 2.3530
1.0988 -6.1134 2.3530
1.3166 -6.0672 2.3530
1.5325 -6.0131 2.3530
1.7461 -5.9512 2.3530
1.9574 -5.8817 2.3530
2.1658 -5.8046 2.3530
2.3712 -5.7201 2.3530
2.5734 -5.6282 2.3530
2.6955 -5.3766 2.2881
2.7746 -5.0718 2.2006
2.9530 -4.9661 2.2007
3.1276 -4.8544 2.2008
3.2984 -4.7372 2.2012
3.4648 -4.6139 2.2017
3.6265 -4.4847 2.2021
3.7835 -4.3498 2.2025
3.9354 -4.2094 2.2029
4.0820 -4.0636 2.2032
4.2233 -3.9127 2.2036
4.3590 -3.7568 2.2040
4.4889 -3.5962 2.2043
4.6129 -3.4311 2.2046
4.7308 -3.2617 2.2049
4.8424 -3.0883 2.2052
4.9413 -2.9073 2.2026
5.0380 -2.7254 2.2021
5.1299 -2.5414 2.2022
5.2151 -2.3542 2.2024
5.2935 -2.1643 2.2026
5.3650 -1.9717 2.2027
5.4296 -1.7768 2.2029
5.4872 -1.5798 2.2031
5.5377 -1.3810 2.2033
5.5811 -1.1805 2.2035
5.3726 -0.9361 2.1077
5.6462 -0.7759 2.2038
5.6680 -0.5723 2.2040
5.6824 -0.3680 2.2042
5.6897 -0.1635 2.2044
5.6896 0.0411 2.2046
5.6822 0.2456 2.2048
5.6677 0.4495 2.2050
5.3644 0.6202 2.0953
5.6169 0.8550 2.2055
5.5802 1.0560 2.2055
5.5356 1.2553 2.2051
5.4836 1.4527 2.2046
5.4234 1.6476 2.2037
5.3560 1.8400 2.2025
5.2802 2.0291 2.2006
5.2022 2.2170 2.2006
5.1177 2.4020 2.2006
5.0267 2.5839 2.2006
4.9293 2.7623 2.2006
4.8256 2.9372 2.2006
4.7159 3.1083 2.2006
4.6002 3.2753 2.2006
4.4787 3.4382 2.2006
4.3515 3.5966 2.2006
4.2188 3.7504 2.2006
4.0808 3.8993 2.2006
4.2103 4.3234 2.3530
4.0518 4.4718 2.3530
3.8882 4.6146 2.3530
3.7197 4.7515 2.3530
3.5464 4.8823 2.3530
3.3686 5.0070 2.3530
3.1865 5.1252 2.3530
3.0003 5.2370 2.3530
2.8102 5.3421 2.3530
2.6166 5.4405 2.3530
2.4195 5.5319 2.3530
0.9050 2.2904 0.9596
0.8222 2.3217 0.9595
0.7382 2.3501 0.9594
0.6533 2.3755 0.9593
0.5675 2.3977 0.9592
0.4809 2.4169 0.9591
0.3938 2.4329 0.9589
0.3060 2.4458 0.9587
0.2179 2.4555 0.9585
0.1295 2.4620 0.9582
0.0408 2.4653 0.9580
-0.0478 2.4654 0.9577
-0.1365 2.4623 0.9574
-0.2249 2.4560 0.9570
-0.3131 2.4465 0.9567
-0.4009 2.4338 0.9563
-0.4882 2.4180 0.9559
-0.5748 2.3991 0.9555
-0.6607 2.3770 0.9551
-0.7457 2.3518 0.9547
-0.8298 2.3236 0.9542
-0.9128 2.2924 0.9537
-2.4552 5.5742 2.3530
-2.6554 5.4854 2.3530
-2.8524 5.3896 2.3530
-3.0459 5.2867 2.3530
-3.2358 5.1769 2.3530
-3.4217 5.0603 2.3530
-3.6034 4.9371 2.3530
-3.7807 4.8074 2.3530
-3.9533 4.6714 2.3530
-4.1211 4.5293 2.3530
-4.2837 4.3811 2.3530
-4.4411 4.2271 2.3530
-4.5928 4.0675 2.3530
-4.7388 3.9024 2.3530
-4.8789 3.7322 2.3530
-5.0129 3.5569 2.3530
-5.1405 3.3768 2.3530
-5.2617 3.1922 2.3530
-5.3762 3.0032 2.3530
-5.4839 2.8101 2.3530
-5.5846 2.6131 2.3530
-5.6782 2.4126 2.3530
-5.7646 2.2086 2.3530
-5.8436 2.0017 2.3530
-5.9151 1.7918 2.3530
-5.9791 1.5795 2.3530
-6.0353 1.3648 2.3530
-6.0838 1.1481 2.3530
-6.1244 0.9298 2.3530
-6.1572 0.7100 2.3530
-6.1820 0.4890 2.3530
-6.1987 0.2672 2.3530
-6.2074 0.0449 2.3530
-6.2081 -0.1777 2.3530
-6.2007 -0.4003 2.3530
-6.1852 -0.6226 2.3530
-6.1616 -0.8442 2.3530
-6.1300 -1.0650 2.3530
-6.0904 -1.2845 2.3530
-6.0429 -1.5025 2.3530
-5.9874 -1.7187 2.3530
-5.9241 -1.9328 2.3530
-5.8530 -2.1445 2.3530
-5.7743 -2.3536 2.3530
-5.6879 -2.5597 2.3530
-5.5942 -2.7626 2.3530
-5.4930 -2.9620 2.3530
-5.3846 -3.1576 2.3530
-5.2692 -3.3492 2.3530
-5.1469 -3.5365 2.3530
-5.0177 -3.7192 2.3530
-4.8820 -3.8971 2.3530
-4.7399 -4.0700 2.3530
-4.5916 -4.2376 2.3530
-4.4372 -4.3997 2.3530
-4.2771 -4.5561 2.3530
-4.1113 -4.7066 2.3530
-3.9401 -4.8509 2.3530
-3.7638 -4.9888 2.3530
-3.5826 -5.1203 2.3530
-3.3967 -5.2450 2.3530
-3.2065 -5.3629 2.3530
-3.0120 -5.4738 2.3530
-2.8137 -5.5775 2.3530
-2.6117 -5.6738 2.3530
-2.4064 -5.7628 2.3530
-2.1980 -5.8442 2.3530
-1.9869 -5.9179 2.3530
-1.7732 -5.9839 2.3530
-1.5573 -6.0421 2.3530
-1.3395 -6.0923 2.3530
-1.1200 -6.1346 2.3530
-0.8992 -6.1689 2.3530
-0.6774 -6.1951 2.3530
-0.4549 -6.2132 2.3530
-0.2319 -6.2232 2.3530
-0.0087 -6.2251 2.3530
0.2143 -6.2188 2.3530
0.4368 -6.2045 2.3530
0.6586 -6.1822 2.3530
0.8794 -6.1518 2.3530
1.0988 -6.1134 2.3530
1.3166 -6.0672 2.3530
1.5324 -6.0131 2.3530
1.7461 -5.9513 2.3530
1.9573 -5.8817 2.3530
2.1658 -5.8046 2.3530
2.3712 -5.7201 2.3530
2.5734 -5.6282 2.3530
2.6955 -5.3767 2.2882
2.7746 -5.0718 2.2006
2.9530 -4.9661 2.2007
3.1275 -4.8544 2.2008
3.2983 -4.7372 2.2012
3.4647 -4.6139 2.2017
3.6265 -4.4847 2.2021
3.7834 -4.3498 2.2025
3.9353 -4.2094 2.2029
4.0820 -4.0636 2.2032
4.2233 -3.9127 2.2036
4.3589 -3.7569 2.2040
4.4889 -3.5963 2.2043
4.6128 -3.4312 2.2046
4.7307 -3.2618 2.2049
4.8424 -3.0883 2.2052
4.9413 -2.9073 2.2026
5.0380 -2.7255 2.2021
5.1299 -2.5414 2.2022
5.2150 -2.3543 2.2024
5.2934 -2.1643 2.2026
5.3650 -1.9717 2.2027
5.4296 -1.7769 2.2029
5.4872 -1.5799 2.2031
5.5377 -1.3810 2.2033
5.5811 -1.1806 2.2035
5.3726 -0.9362 2.1077
5.6462 -0.7760 2.2038
5.6680 -0.5723 2.2040
5.6824 -0.3681 2.2042
5.6896 -0.1635 2.2044
5.6896 0.0411 2.2046
5.6823 0.2455 2.2048
5.6677 0.4495 2.2050
5.3644 0.6202 2.0953
5.6169 0.8550 2.2055
5.5802 1.0560 2.2055
5.5356 1.2553 2.2051
5.4836 1.4527 2.2046
5.4235 1.6476 2.2037
5.3560 1.8400 2.2025
5.2802 2.0290 2.2006
5.2023 2.2170 2.2006
5.1177 2.4020 2.2006
5.0267 2.5838 2.2006
4.9293 2.7623 2.2006
4.8257 2.9372 2.2006
4.7159 3.1082 2.2006
4.6002 3.2753 2.2006
4.4787 3.4381 2.2006
4.3515 3.5965 2.2006
4.2189 3.7503 2.2006
4.0808 3.8993 2.2006
4.2103 4.3233 2.3530
4.0519 4.4718 2.3530
3.8882 4.6146 2.3530
3.7197 4.7515 2.3530
3.5464 4.8823 2.3530
3.3686 5.0069 2.3530
3.1865 5.1252 2.3530
3.0003 5.2370 2.3530
2.8103 5.3421 2.3530
2.6166 5.4405 2.3530
2.4195 5.5319 2.3530
0.9051 2.2903 0.9596
0.8222 2.3217 0.9595
0.7382 2.3501 0.9594
0.6533 2.3755 0.9593
0.5675 2.3977 0.9592
0.4810 2.4169 0.9591
0.3938 2.4329 0.9589
0.3060 2.4458 0.9587
0.2179 2.4555 0.9585
0.1295 2.4620 0.9582
0.0409 2.4653 0.9580
-0.0478 2.4654 0.9577
-0.1364 2.4623 0.9574
-0.2249 2.4560 0.9570
-0.3131 2.4465 0.9567
-0.4009 2.4338 0.9563
-0.4881 2.4180 0.9559
-0.5748 2.3991 0.9555
-0.6607 2.3770 0.9551
-0.7457 2.3518 0.9547
-0.8298 2.3236 0.9542
-0.9128 2.2924 0.9537
-2.4552 5.5742 2.3530
-2.6554 5.4855 2.3530
-2.8524 5.3896 2.3530
-3.0459 5.2867 2.3530
-3.2358 5.1769 2.3530
-3.4217 5.0603 2.3530
-3.6034 4.9371 2.3530
-3.7807 4.8075 2.3530
-3.9533 4.6715 2.3530
-4.1211 4.5293 2.3530
-4.2839 4.3811 2.3530
-4.4411 4.2271 2.3530
-4.5928 4.0675 2.3530
-4.7388 3.9025 2.3530
-4.8789 3.7322 2.3530
-5.0129 3.5569 2.3530
-5.1405 3.3768 2.3530
-5.2617 3.1922 2.3530
-5.3762 3.0032 2.3530
-5.4839 2.8101 2.3530
-5.5846 2.6132 2.3530
-5.6782 2.4126 2.3530
-5.7646 2.2087 2.3530
-5.8436 2.0017 2.3530
-5.9151 1.7919 2.3530
-5.9791 1.5795 2.3530
-6.0353 1.3648 2.3530
-6.0838 1.1482 2.3530
-6.1244 0.9298 2.3530
-6.1572 0.7100 2.3530
-6.1819 0.4891 2.3530
-6.1987 0.2673 2.3530
-6.2074 0.0449 2.3530
-6.2081 -0.1777 2.3530
-6.2007 -0.4003 2.3530
-6.1852 -0.6226 2.3530
-6.1616 -0.8442 2.3530
-6.1301 -1.0649 2.3530
-6.0905 -1.2845 2.3530
-6.0429 -1.5025 2.3530
-5.9874 -1.7187 2.3530
-5.9241 -1.9328 2.3530
-5.8530 -2.1445 2.3530
-5.7743 -2.3536 2.3530
-5.6880 -2.5597 2.3530
-5.5942 -2.7626 2.3530
-5.4930 -2.9620 2.3530
-5.3847 -3.1576 2.3530
-5.2692 -3.3492 2.3530
-5.1469 -3.5365 2.3530
-5.0178 -3.7192 2.3530
-4.8821 -3.8971 2.3530
-4.7399 -4.0700 2.3530
-4.5916 -4.2376 2.3530
-4.4373 -4.3997 2.3530
-4.2771 -4.5561 2.3530
-4.1113 -4.7065 2.3530
-3.9402 -4.8508 2.3530
-3.7639 -4.9888 2.3530
-3.5826 -5.1202 2.3530
-3.3968 -5.2450 2.3530
-3.2065 -5.3629 2.3530
-3.0121 -5.4737 2.3530
-2.8137 -5.5774 2.3530
-2.6118 -5.6738 2.3530
-2.4064 -5.7628 2.3530
-2.1981 -5.8442 2.3530
-1.9869 -5.9179 2.3530
-1.7732 -5.9839 2.3530
-1.5573 -6.0421 2.3530
-1.3395 -6.0923 2.3530
-1.1201 -6.1346 2.3530
-0.8993 -6.1689 2.3530
-0.6775 -6.1951 2.3530
-0.4549 -6.2132 2.3530
-0.2319 -6.2232 2.3530
-0.0087 -5.8250 2.3530
0.2000 -5.8193 2.3530
0.4082 -5.8060 2.3530
0.6157 -5.7853 2.3530
0.8223 -5.7570 2.3530
1.0276 -5.7212 2.3530
1.2315 -5.6781 2.3530
1.4335 -5.6276 2.3530
1.6335 -5.5699 2.3530
1.8312 -5.5050 2.3530
2.0264 -5.4330 2.3530
2.2187 -5.3541 2.3530
2.4079 -5.2683 2.3530
2.5939 -5.1757 2.3530
2.6961 -4.9299 2.2850
2.7636 -4.6490 2.2006
2.9269 -4.5443 2.2007
3.0863 -4.4340 2.2007
3.2421 -4.3187 2.2011
3.3936 -4.1979 2.2015
3.5405 -4.0717 2.2019
3.6828 -3.9404 2.2023
3.8201 -3.8041 2.2026
3.9525 -3.6629 2.2030
4.0795 -3.5171 2.2033
4.2013 -3.3669 2.2036
4.3174 -3.2124 2.2039
4.4279 -3.0539 2.2042
4.5326 -2.8916 2.2045
4.6313 -2.7257 2.2047
4.7239 -2.5564 2.2050
4.8103 -2.3840 2.2052
4.8898 -2.2083 2.2051
4.9574 -2.0277 2.2026
5.0250 -1.8476 2.2029
5.0856 -1.6651 2.2031
5.1397 -1.4806 2.2033
5.1872 -1.2943 2.2035
5.2280 -1.1066 2.2036
5.2620 -0.9176 2.2038
5.2893 -0.7276 2.2040
5.3098 -0.5368 2.2042
5.3235 -0.3454 2.2044
5.3303 -0.1538 2.2046
5.3304 0.0379 2.2047
5.3236 0.2294 2.2049
5.3101 0.4206 2.2051
5.2897 0.6110 2.2053
5.2627 0.8006 2.2055
5.2283 0.9889 2.2055
5.1861 1.1755 2.2049
5.1364 1.3602 2.2040
5.0781 1.5422 2.2021
5.0144 1.7222 2.2006
4.9477 1.9008 2.2006
4.8747 2.0770 2.2006
4.7955 2.2504 2.2006
4.7103 2.4208 2.2006
4.6190 2.5881 2.2006
4.5220 2.7521 2.2006
4.4192 2.9124 2.2006
4.3108 3.0690 2.2006
4.1970 3.2216 2.2006
4.0778 3.3701 2.2006
3.9535 3.5143 2.2006
3.8241 3.6539 2.2006
3.9455 4.0513 2.3530
3.7970 4.1905 2.3530
3.6436 4.3243 2.3530
3.4857 4.4526 2.3530
3.3232 4.5752 2.3530
3.1566 4.6920 2.3530
2.9859 4.8028 2.3530
2.8114 4.9076 2.3530
2.6332 5.0061 2.3530
2.4517 5.0982 2.3530
2.2670 5.1839 2.3530
0.8469 2.1436 0.9584
0.7694 2.1730 0.9583
0.6908 2.1995 0.9583
0.6113 2.2232 0.9582
0.5310 2.2441 0.9581
0.4500 2.2620 0.9579
0.3683 2.2770 0.9577
0.2862 2.2890 0.9576
0.2037 2.2980 0.9574
0.1210 2.3041 0.9571
0.0380 2.3072 0.9569
-0.0450 2.3073 0.9566
-0.1279 2.3044 0.9563
-0.2107 2.2985 0.9560
-0.2933 2.2896 0.9557
-0.3754 2.2778 0.9554
-0.4571 2.2630 0.9550
-0.5382 2.2452 0.9546
-0.6186 2.2245 0.9542
-0.6982 2.2010 0.9538
-0.7769 2.1746 0.9534
-0.8546 2.1453 0.9529
-2.3005 5.2210 2.3530
-2.4879 5.1377 2.3530
-2.6724 5.0477 2.3530
-2.8536 4.9512 2.3530
-3.0313 4.8482 2.3530
-3.2053 4.7388 2.3530
-3.3754 4.6233 2.3530
-3.5413 4.5017 2.3530
-3.7029 4.3742 2.3530
-3.8599 4.2409 2.3530
-4.0120 4.1020 2.3530
-4.1592 3.9576 2.3530
-4.3011 3.8080 2.3530
-4.4377 3.6534 2.3530
-4.5688 3.4938 2.3530
-4.6940 3.3296 2.3530
-4.8134 3.1609 2.3530
-4.9266 2.9879 2.3530
-5.0337 2.8108 2.3530
-5.1343 2.6300 2.3530
-5.2284 2.4455 2.3530
-5.3159 2.2577 2.3530
-5.3966 2.0667 2.3530
-5.4703 1.8729 2.3530
-5.5371 1.6765 2.3530
-5.5967 1.4776 2.3530
-5.6492 1.2767 2.3530
-5.6944 1.0739 2.3530
-5.7323 0.8695 2.3530
-5.7627 0.6637 2.3530
-5.7857 0.4570 2.3530
-5.8013 0.2494 2.3530
-5.8092 0.0413 2.3530
-5.8097 -0.1670 2.3530
-5.8026 -0.3753 2.3530
-5.7880 -0.5833 2.3530
-5.7658 -0.7906 2.3530
-5.7361 -0.9971 2.3530
-5.6989 -1.2025 2.3530
-5.6543 -1.4064 2.3530
-5.6023 -1.6087 2.3530
-5.5429 -1.8090 2.3530
-5.4763 -2.0070 2.3530
-5.4025 -2.2026 2.3530
-5.3217 -2.3955 2.3530
-5.2339 -2.5851 2.3530
-5.1392 -2.7716 2.3530
-5.0377 -2.9546 2.3530
-4.9297 -3.1337 2.3530
-4.8152 -3.3089 2.3530
-4.6944 -3.4798 2.3530
-4.5674 -3.6462 2.3530
-4.4344 -3.8079 2.3530
-4.2956 -3.9647 2.3530
-4.1512 -4.1163 2.3530
-4.0014 -4.2625 2.3530
-3.8463 -4.4033 2.3530
-3.6862 -4.5382 2.3530
-3.5213 -4.6673 2.3530
-3.3518 -4.7903 2.3530
-3.1779 -4.9069 2.3530
-2.9999 -5.0173 2.3530
-2.8181 -5.1210 2.3530
-2.6326 -5.2180 2.3530
-2.4437 -5.3082 2.3530
-2.2516 -5.3915 2.3530
-2.0567 -5.4677 2.3530
-1.8592 -5.5367 2.3530
-1.6593 -5.5985 2.3530
-1.4574 -5.6530 2.3530
-1.2536 -5.7001 2.3530
-1.0484 -5.7398 2.3530
-0.8418 -5.7719 2.3530
-0.6343 -5.7965 2.3530
-0.4261 -5.8136 2.3530
-0.2175 -5.8231 2.3530
-0.0087 -5.8250 2.3530
0.1999 -5.8193 2.3530
0.4082 -5.8060 2.3530
0.6157 -5.7853 2.3530
0.8223 -5.7570 2.3530
1.0276 -5.7212 2.3530
1.2314 -5.6781 2.3530
1.4335 -5.6276 2.3530
1.6335 -5.5699 2.3530
1.8312 -5.5050 2.3530
2.0263 -5.4330 2.3530
2.2186 -5.3541 2.3530
2.4079 -5.2683 2.3530
2.5939 -5.1757 2.3530
2.6961 -4.9299 2.2851
2.7635 -4.6490 2.2006
2.9268 -4.5443 2.2007
3.0863 -4.4340 2.2007
3.2421 -4.3187 2.2011
3.3935 -4.1979 2.2015
3.5405 -4.0718 2.2019
3.6827 -3.9404 2.2023
3.8201 -3.8041 2.2026
3.9524 -3.6629 2.2030
4.0795 -3.5171 2.2033
4.2012 -3.3669 2.2036
4.3174 -3.2124 2.2039
4.4279 -3.0539 2.2042
4.5325 -2.8916 2.2045
4.6312 -2.7257 2.2047
4.7239 -2.5564 2.2050
4.8103 -2.3840 2.2052
4.8898 -2.2082 2.2051
4.9574 -2.0278 2.2026
5.0250 -1.8476 2.2029
5.0856 -1.6651 2.2031
5.1397 -1.4806 2.2033
5.1872 -1.2944 2.2035
5.2280 -1.1066 2.2036
5.2620 -0.9176 2.2038
5.2893 -0.7276 2.2040
5.3098 -0.5368 2.2042
5.3235 -0.3455 2.2044
5.3303 -0.1538 2.2046
5.3304 0.0379 2.2047
5.3236 0.2294 2.2049
5.3101 0.4205 2.2051
5.2897 0.6110 2.2053
5.2627 0.8005 2.2055
5.2283 0.9889 2.2055
5.1861 1.1755 2.2049
5.1364 1.3602 2.2040
5.0781 1.5422 2.2021
5.0144 1.7221 2.2006
4.9477 1.9008 2.2006
4.8747 2.0770 2.2006
4.7955 2.2504 2.2006
4.7103 2.4208 2.2006
4.6191 2.5881 2.2006
4.5220 2.7520 2.2006
4.4192 2.9124 2.2006
4.3108 3.0690 2.2006
4.1970 3.2216 2.2006
4.0778 3.3701 2.2006
3.9535 3.5143 2.2006
3.8241 3.6539 2.2006
3.9455 4.0513 2.3530
3.7970 4.1904 2.3530
3.6437 4.3242 2.3530
3.4857 4.4525 2.3530
3.3233 4.5752 2.3530
3.1566 4.6920 2.3530
2.9859 4.8028 2.3530
2.8114 4.9075 2.3530
2.6333 5.0060 2.3530
2.4518 5.0982 2.3530
2.2671 5.1838 2.3530
0.8469 2.1436 0.9584
0.7694 2.1730 0.9583
0.6908 2.1995 0.9583
0.6113 2.2232 0.9582
0.5310 2.2441 0.9581
0.4500 2.2620 0.9579
0.3683 2.2770 0.9577
0.2862 2.2890 0.9576
0.2037 2.2980 0.9574
0.1210 2.3041 0.9571
0.0380 2.3072 0.9569
-0.0450 2.3073 0.9566
-0.1279 2.3044 0.9563
-0.2107 2.2985 0.9560
-0.2933 2.2896 0.9557
-0.3754 2.2778 0.9554
-0.4571 2.2630 0.9550
-0.5382 2.2452 0.9546
-0.6186 2.2245 0.9542
-0.6982 2.2010 0.9538
-0.7769 2.1746 0.9534
-0.8546 2.1454 0.9529
-2.3004 5.2210 2.3530
-2.4879 5.1377 2.3530
-2.6723 5.0477 2.3530
-2.8535 4.9512 2.3530
-3.0313 4.8482 2.3530
-3.2053 4.7388 2.3530
-3.3754 4.6233 2.3530
-3.5413 4.5017 2.3530
-3.7029 4.3742 2.3530
-3.8599 4.2409 2.3530
-4.0120 4.1020 2.3530
-4.1592 3.9577 2.3530
-4.3011 3.8081 2.3530
-4.4377 3.6534 2.3530
-4.5687 3.4938 2.3530
-4.6940 3.3296 2.3530
-4.8134 3.1609 2.3530
-4.9266 2.9879 2.3530
-5.0337 2.8109 2.3530
-5.1343 2.6300 2.3530
-5.2284 2.4455 2.3530
-5.3159 2.2577 2.3530
-5.3965 2.0668 2.3530
-5.4703 1.8729 2.3530
-5.5371 1.6765 2.3530
-5.5967 1.4777 2.3530
-5.6492 1.2767 2.3530
-5.6944 1.0739 2.3530
-5.7323 0.8695 2.3530
-5.7627 0.6638 2.3530
-5.7857 0.4570 2.3530
-5.8013 0.2494 2.3530
-5.8092 0.0413 2.3530
-5.8097 -0.1670 2.3530
-5.8026 -0.3753 2.3530
-5.7880 -0.5832 2.3530
-5.7658 -0.7906 2.3530
-5.7361 -0.9971 2.3530
-5.6989 -1.2025 2.3530
-5.6543 -1.4064 2.3530
-5.6023 -1.6086 2.3530
-5.5429 -1.8089 2.3530
-5.4763 -2.0070 2.3530
-5.4026 -2.2025 2.3530
-5.3217 -2.3954 2.3530
-5.2339 -2.5851 2.3530
-5.1392 -2.7716 2.3530
-5.0378 -2.9545 2.3530
-4.9297 -3.1337 2.3530
-4.8152 -3.3089 2.3530
-4.6944 -3.4798 2.3530
-4.5674 -3.6462 2.3530
-4.4344 -3.8079 2.3530
-4.2956 -3.9646 2.3530
-4.1512 -4.1162 2.3530
-4.0014 -4.2625 2.3530
-3.8463 -4.4032 2.3530
-3.6862 -4.5382 2.3530
-3.5213 -4.6673 2.3530
-3.3518 -4.7902 2.3530
-3.1780 -4.9069 2.3530
-3.0000 -5.0172 2.3530
-2.8181 -5.1210 2.3530
-2.6326 -5.2180 2.3530
-2.4437 -5.3082 2.3530
-2.2517 -5.3915 2.3530
-2.0568 -5.4677 2.3530
-1.8592 -5.5367 2.3530
-1.6594 -5.5985 2.3530
-1.4574 -5.6530 2.3530
-1.2537 -5.7001 2.3530
-1.0484 -5.7398 2.3530
-0.8419 -5.7719 2.3530
-0.6344 -5.7965 2.3530
-0.4261 -5.8136 2.3530
-0.2175 -5.8231 2.3530
-0.0087 -5.4671 2.3530
0.1871 -5.4619 2.3530
0.3826 -5.4496 2.3530
0.5773 -5.4302 2.3530
0.7712 -5.4038 2.3530
0.9640 -5.3704 2.3530
1.1553 -5.3300 2.3530
1.3450 -5.2828 2.3530
1.5327 -5.2287 2.3530
1.7183 -5.1680 2.3530
1.9016 -5.1005 2.3530
2.0822 -5.0266 2.3530
2.2599 -4.9462 2.3530
2.4345 -4.8594 2.3530
2.6058 -4.7665 2.3530
2.6957 -4.5364 2.2870
2.7474 -4.2669 2.2006
2.8971 -4.1634 2.2006
3.0429 -4.0546 2.2007
3.1851 -3.9412 2.2010
3.3231 -3.8229 2.2014
3.4567 -3.6997 2.2017
3.5857 -3.5718 2.2020
3.7100 -3.4393 2.2024
3.8294 -3.3025 2.2027
3.9438 -3.1615 2.2030
4.0529 -3.0166 2.2033
4.1568 -2.8679 2.2035
4.2551 -2.7155 2.2038
4.3479 -2.5598 2.2040
4.4350 -2.4009 2.2043
4.5163 -2.2391 2.2045
4.5916 -2.0745 2.2047
4.6610 -1.9073 2.2049
4.7243 -1.7378 2.2051
4.7815 -1.5662 2.2052
4.8324 -1.3928 2.2054
4.8770 -1.2176 2.2055
4.9119 -1.0404 2.2040
4.9434 -0.8627 2.2039
4.9692 -0.6842 2.2041
4.9886 -0.5050 2.2043
5.0015 -0.3252 2.2045
5.0081 -0.1451 2.2047
5.0083 0.0350 2.2049
5.0020 0.2150 2.2050
4.9893 0.3946 2.2052
4.9703 0.5736 2.2054
4.9450 0.7517 2.2056
4.9118 0.9285 2.2051
4.8636 1.1019 2.2006
4.8191 1.2757 2.2006
4.7686 1.4478 2.2006
4.7119 1.6179 2.2006
4.6493 1.7858 2.2006
4.5808 1.9514 2.2006
4.5064 2.1144 2.2006
4.4264 2.2746 2.2006
4.3407 2.4319 2.2006
4.2495 2.5859 2.2006
4.1530 2.7367 2.2006
4.0511 2.8839 2.2006
3.9442 3.0274 2.2006
3.8322 3.1669 2.2006
3.7229 3.3092 2.2051
3.6510 3.4883 2.2356
3.7078 3.8072 2.3530
3.5683 3.9380 2.3530
3.4241 4.0638 2.3530
3.2757 4.1844 2.3530
3.1230 4.2996 2.3530
2.9664 4.4094 2.3530
2.8059 4.5135 2.3530
2.6419 4.6120 2.3530
2.4744 4.7045 2.3530
2.3038 4.7911 2.3530
0.8667 1.9821 0.9574
0.7949 2.0122 0.9573
0.7221 2.0398 0.9573
0.6483 2.0647 0.9572
0.5737 2.0869 0.9571
0.4983 2.1065 0.9570
0.4222 2.1233 0.9569
0.3456 2.1374 0.9567
0.2685 2.1486 0.9566
0.1910 2.1571 0.9564
0.1133 2.1628 0.9562
0.0355 2.1657 0.9559
-0.0424 2.1658 0.9557
-0.1203 2.1631 0.9554
-0.1981 2.1575 0.9551
-0.2755 2.1492 0.9548
-0.3527 2.1381 0.9545
-0.4294 2.1242 0.9541
-0.5055 2.1075 0.9538
-0.5810 2.0881 0.9534
-0.6557 2.0660 0.9530
-0.7296 2.0412 0.9526
-0.8025 2.0138 0.9522
-0.8744 1.9837 0.9518
-2.3378 4.8259 2.3530
-2.5110 4.7413 2.3530
-2.6812 4.6504 2.3530
-2.8480 4.5536 2.3530
-3.0114 4.4507 2.3530
-3.1711 4.3421 2.3530
-3.3268 4.2277 2.3530
-3.4785 4.1078 2.3530
-3.6258 3.9825 2.3530
-3.7686 3.8519 2.3530
-3.9067 3.7162 2.3530
-4.0399 3.5756 2.3530
-4.1681 3.4303 2.3530
-4.2909 3.2803 2.3530
-4.4085 3.1260 2.3530
-4.5204 2.9675 2.3530
-4.6266 2.8049 2.3530
-4.7270 2.6386 2.3530
-4.8213 2.4687 2.3530
-4.9095 2.2954 2.3530
-4.9915 2.1190 2.3530
-5.0671 1.9397 2.3530
-5.1362 1.7577 2.3530
-5.1987 1.5732 2.3530
-5.2546 1.3865 2.3530
-5.3037 1.1978 2.3530
-5.3459 1.0074 2.3530
-5.3813 0.8155 2.3530
-5.4098 0.6224 2.3530
-5.4312 0.4283 2.3530
-5.4457 0.2331 2.3530
-5.4530 0.0381 2.3530
-5.4533 -0.1574 2.3530
-5.4465 -0.3529 2.3530
-5.4327 -0.5481 2.3530
-5.4117 -0.7427 2.3530
-5.3837 -0.9364 2.3530
-5.3487 -1.1291 2.3530
-5.3067 -1.3205 2.3530
-5.2578 -1.5103 2.3530
-5.2020 -1.6981 2.3530
-5.1395 -1.8840 2.3530
-5.0702 -2.0675 2.3530
-4.9942 -2.2484 2.3530
-4.9117 -2.4264 2.3530
-4.8228 -2.6014 2.3530
-4.7276 -2.7730 2.3530
-4.6261 -2.9411 2.3530
-4.5186 -3.1054 2.3530
-4.4052 -3.2657 2.3530
-4.2861 -3.4219 2.3530
-4.1613 -3.5736 2.3530
-4.0310 -3.7206 2.3530
-3.8955 -3.8628 2.3530
-3.7549 -4.0001 2.3530
-3.6094 -4.1321 2.3530
-3.4592 -4.2588 2.3530
-3.3044 -4.3798 2.3530
-3.1454 -4.4952 2.3530
-2.9823 -4.6048 2.3530
-2.8153 -4.7082 2.3530
-2.6447 -4.8056 2.3530
-2.4706 -4.8967 2.3530
-2.2934 -4.9813 2.3530
-2.1132 -5.0595 2.3530
-1.9304 -5.1311 2.3530
-1.7451 -5.1959 2.3530
-1.5575 -5.2540 2.3530
-1.3681 -5.3052 2.3530
-1.1769 -5.3494 2.3530
-0.9843 -5.3867 2.3530
-0.7905 -5.4169 2.3530
-0.5958 -5.4401 2.3530
-0.4004 -5.4562 2.3530
-0.2046 -5.4652 2.3530
-0.0087 -5.4671 2.3530
0.1871 -5.4619 2.3530
0.3825 -5.4496 2.3530
0.5773 -5.4302 2.3530
0.7712 -5.4038 2.3530
0.9639 -5.3704 2.3530
1.1553 -5.3300 2.3530
1.3449 -5.2828 2.3530
1.5327 -5.2287 2.3530
1.7183 -5.1680 2.3530
1.9015 -5.1005 2.3530
2.0821 -5.0266 2.3530
2.2599 -4.9461 2.3530
2.4345 -4.8594 2.3530
2.6058 -4.7665 2.3530
2.6957 -4.5364 2.2870
2.7473 -4.2670 2.2006
2.8970 -4.1634 2.2006
3.0429 -4.0546 2.2007
3.1851 -3.9413 2.2010
3.3231 -3.8229 2.2014
3.4567 -3.6997 2.2017
3.5857 -3.5718 2.2020
3.7100 -3.4393 2.2024
3.8294 -3.3025 2.2027
3.9438 -3.1616 2.2030
4.0529 -3.0166 2.2033
4.1567 -2.8679 2.2035
4.2551 -2.7156 2.2038
4.3479 -2.5599 2.2040
4.4350 -2.4010 2.2043
4.5162 -2.2391 2.2045
4.5916 -2.0745 2.2047
4.6610 -1.9073 2.2049
4.7243 -1.7379 2.2051
4.7815 -1.5663 2.2052
4.8324 -1.3928 2.2054
4.8770 -1.2177 2.2055
4.9119 -1.0404 2.2040
4.9434 -0.8628 2.2039
4.9692 -0.6843 2.2041
4.9886 -0.5050 2.2043
5.0015 -0.3252 2.2045
5.0081 -0.1451 2.2047
5.0083 0.0350 2.2049
5.0020 0.2150 2.2050
4.9893 0.3946 2.2052
4.9703 0.5735 2.2054
4.9450 0.7517 2.2056
4.9118 0.9285 2.2051
4.8636 1.1019 2.2006
4.8191 1.2757 2.2006
4.7686 1.4477 2.2006
4.7119 1.6178 2.2006
4.6493 1.7858 2.2006
4.5808 1.9513 2.2006
4.5065 2.1143 2.2006
4.4264 2.2746 2.2006
4.3407 2.4318 2.2006
4.2496 2.5859 2.2006
4.1530 2.7367 2.2006
4.0512 2.8839 2.2006
3.9442 3.0273 2.2006
3.8322 3.1669 2.2006
3.7229 3.3091 2.2051
3.6509 3.4882 2.2356
3.7079 3.8072 2.3530
3.5683 3.9380 2.3530
3.4242 4.0637 2.3530
3.2757 4.1843 2.3530
3.1230 4.2996 2.3530
2.9664 4.4094 2.3530
2.8060 4.5135 2.3530
2.6419 4.6119 2.3530
2.4745 4.7045 2.3530
2.3038 4.7911 2.3530
0.8667 1.9821 0.9574
0.7949 2.0122 0.9573
0.7221 2.0398 0.9573
0.6483 2.0647 0.9572
0.5737 2.0869 0.9571
0.4983 2.1065 0.9570
0.4222 2.1233 0.9569
0.3456 2.1374 0.9567
0.2685 2.1486 0.9566
0.1911 2.1571 0.9564
0.1134 2.1628 0.9562
0.0355 2.1657 0.9559
-0.0424 2.1658 0.9557
-0.1203 2.1631 0.9554
-0.1980 2.1575 0.9551
-0.2755 2.1492 0.9548
-0.3527 2.1381 0.9545
-0.4293 2.1242 0.9541
-0.5055 2.1075 0.9538
-0.5809 2.0881 0.9534
-0.6557 2.0660 0.9530
-0.7296 2.0412 0.9526
-0.8025 2.0138 0.9522
-0.8744 1.9837 0.9518
-2.3378 4.8259 2.3530
-2.5110 4.7413 2.3530
-2.6811 4.6505 2.3530
-2.8480 4.5536 2.3530
-3.0114 4.4507 2.3530
-3.1711 4.3421 2.3530
-3.3267 4.2277 2.3530
-3.4785 4.1078 2.3530
-3.6258 3.9825 2.3530
-3.7686 3.8519 2.3530
-3.9067 3.7162 2.3530
-4.0399 3.5756 2.3530
-4.1680 3.4303 2.3530
-4.2909 3.2803 2.3530
-4.4084 3.1260 2.3530
-4.5203 2.9675 2.3530
-4.6266 2.8050 2.3530
-4.7270 2.6386 2.3530
-4.8213 2.4687 2.3530
-4.9095 2.2955 2.3530
-4.9915 2.1191 2.3530
-5.0671 1.9397 2.3530
-5.1362 1.7577 2.3530
-5.1987 1.5732 2.3530
-5.2545 1.3865 2.3530
-5.3037 1.1978 2.3530
-5.3459 1.0074 2.3530
-5.3813 0.8155 2.3530
-5.4098 0.6224 2.3530
-5.4312 0.4283 2.3530
-5.4456 0.2335 2.3530
-5.4530 0.0381 2.3530
-5.4533 -0.1574 2.3530
-5.4465 -0.3529 2.3530
-5.4327 -0.5480 2.3530
-5.4117 -0.7426 2.3530
-5.3837 -0.9364 2.3530
-5.3487 -1.1291 2.3530
-5.3068 -1.3205 2.3530
-5.2578 -1.5102 2.3530
-5.2021 -1.6981 2.3530
-5.1395 -1.8840 2.3530
-5.0702 -2.0674 2.3530
-4.9942 -2.2483 2.3530
-4.9117 -2.4264 2.3530
-4.8228 -2.6013 2.3530
-4.7276 -2.7730 2.3530
-4.6262 -2.9411 2.3530
-4.5187 -3.1054 2.3530
-4.4053 -3.2657 2.3530
-4.2861 -3.4218 2.3530
-4.1613 -3.5735 2.3530
-4.0311 -3.7206 2.3530
-3.8956 -3.8628 2.3530
-3.7549 -4.0001 2.3530
-3.6094 -4.1321 2.3530
-3.4592 -4.2587 2.3530
-3.3045 -4.3798 2.3530
-3.1454 -4.4952 2.3530
-2.9823 -4.6048 2.3530
-2.8153 -4.7082 2.3530
-2.6447 -4.8056 2.3530
-2.4707 -4.8967 2.3530
-2.2934 -4.9813 2.3530
-2.1133 -5.0595 2.3530
-1.9304 -5.1310 2.3530
-1.7451 -5.1959 2.3530
-1.5576 -5.2539 2.3530
-1.3681 -5.3051 2.3530
-1.1769 -5.3494 2.3530
-0.9843 -5.3867 2.3530
-0.7905 -5.4169 2.3530
-0.5958 -5.4401 2.3530
-0.4004 -5.4562 2.3530
-0.2047 -5.4652 2.3530
-0.0087 -5.1449 2.3530
0.1756 -5.1401 2.3530
0.3595 -5.1286 2.3530
0.5428 -5.1104 2.3530
0.7252 -5.0857 2.3530
0.9066 -5.0543 2.3530
1.0867 -5.0165 2.3530
1.2652 -4.9721 2.3530
1.4419 -4.9214 2.3530
1.6167 -4.8643 2.3530
1.7891 -4.8010 2.3530
1.9592 -4.7315 2.3530
2.1265 -4.6559 2.3530
2.2909 -4.5744 2.3530
2.4522 -4.4870 2.3530
2.6102 -4.3939 2.3530
2.6945 -4.1863 2.2934
2.7266 -3.9195 2.2006
2.8710 -3.8268 2.2061
2.9974 -3.7102 2.2007
3.1272 -3.5987 2.2009
3.2530 -3.4828 2.2012
3.3745 -3.3624 2.2015
3.4916 -3.2378 2.2018
3.6040 -3.1091 2.2021
3.7118 -2.9765 2.2024
3.8146 -2.8401 2.2027
3.9124 -2.7002 2.2029
4.0051 -2.5568 2.2032
4.0925 -2.4103 2.2034
4.1745 -2.2608 2.2036
4.2512 -2.1085 2.2038
4.3222 -1.9535 2.2040
4.3876 -1.7962 2.2042
4.4473 -1.6367 2.2044
4.5012 -1.4752 2.2045
4.5493 -1.3119 2.2047
4.5914 -1.1471 2.2048
4.6276 -0.9809 2.2049
4.6578 -0.8136 2.2050
4.6820 -0.6453 2.2051
4.7001 -0.4764 2.2051
4.7121 -0.3070 2.2052
4.7181 -0.1373 2.2052
4.7180 0.0324 2.2052
4.7118 0.2020 2.2052
4.6996 0.3711 2.2052
4.6813 0.5397 2.2052
4.6570 0.7074 2.2051
4.6175 0.8724 2.2006
4.5815 1.0376 2.2006
4.5397 1.2013 2.2006
4.4921 1.3634 2.2006
4.4388 1.5237 2.2006
4.3799 1.6819 2.2006
4.3154 1.8379 2.2006
4.2454 1.9915 2.2006
4.1700 2.1425 2.2006
4.0894 2.2907 2.2006
4.0035 2.4359 2.2006
3.9125 2.5780 2.2006
3.8166 2.7167 2.2006
3.7159 2.8519 2.2006
3.6104 2.9834 2.2006
3.5003 3.1111 2.2006
3.5724 3.4131 2.3219
3.4932 3.5867 2.3530
3.3617 3.7100 2.3530
3.2259 3.8285 2.3530
3.0860 3.9421 2.3530
2.9422 4.0507 2.3530
2.7946 4.1541 2.3530
2.6434 4.2522 2.3530
2.4888 4.3450 2.3530
2.3310 4.4322 2.3530
0.8821 1.8346 0.9564
0.8156 1.8654 0.9564
0.7480 1.8938 0.9564
0.6795 1.9198 0.9563
0.6100 1.9432 0.9563
0.5398 1.9641 0.9562
0.4688 1.9825 0.9561
0.3972 1.9983 0.9560
0.3251 2.0116 0.9558
0.2525 2.0222 0.9557
0.1796 2.0302 0.9555
0.1065 2.0355 0.9553
0.0332 2.0382 0.9551
-0.0402 2.0383 0.9548
-0.1135 2.0357 0.9546
-0.1866 2.0305 0.9543
-0.2596 2.0227 0.9540
-0.3322 2.0122 0.9537
-0.4043 1.9991 0.9534
-0.4760 1.9834 0.9530
-0.5470 1.9652 0.9527
-0.6174 1.9444 0.9523
-0.6869 1.9210 0.9519
-0.7556 1.8952 0.9516
-0.8232 1.8669 0.9511
-0.8898 1.8362 0.9507
-2.3654 4.4648 2.3530
-2.5255 4.3791 2.3530
-2.6827 4.2878 2.3530
-2.8365 4.1908 2.3530
-2.9868 4.0884 2.3530
-3.1334 3.9806 2.3530
-3.2761 3.8675 2.3530
-3.4147 3.7494 2.3530
-3.5491 3.6264 2.3530
-3.6790 3.4985 2.3530
-3.8043 3.3660 2.3530
-3.9249 3.2291 2.3530
-4.0405 3.0878 2.3530
-4.1510 2.9424 2.3530
-4.2562 2.7931 2.3530
-4.3561 2.6400 2.3530
-4.4505 2.4834 2.3530
-4.5392 2.3233 2.3530
-4.6221 2.1602 2.3530
-4.6991 1.9941 2.3530
-4.7701 1.8252 2.3530
-4.8350 1.6538 2.3530
-4.8938 1.4801 2.3530
-4.9462 1.3044 2.3530
-4.9923 1.1267 2.3530
-5.0320 0.9475 2.3530
-5.0651 0.7669 2.3530
-5.0918 0.5851 2.3530
-5.1119 0.4024 2.3530
-5.1253 0.2190 2.3530
-5.1321 0.0352 2.3530
-5.1323 -0.1488 2.3530
-5.1258 -0.3327 2.3530
-5.1126 -0.5164 2.3530
-5.0928 -0.6995 2.3530
-5.0664 -0.8818 2.3530
-5.0334 -1.0631 2.3530
-4.9938 -1.2431 2.3530
-4.9477 -1.4217 2.3530
-4.8951 -1.5985 2.3530
-4.8361 -1.7733 2.3530
-4.7709 -1.9459 2.3530
-4.6993 -2.1160 2.3530
-4.6217 -2.2835 2.3530
-4.5380 -2.4481 2.3530
-4.4483 -2.6095 2.3530
-4.3529 -2.7677 2.3530
-4.2517 -2.9222 2.3530
-4.1450 -3.0730 2.3530
-4.0328 -3.2199 2.3530
-3.9154 -3.3626 2.3530
-3.7928 -3.5009 2.3530
-3.6653 -3.6347 2.3530
-3.5330 -3.7638 2.3530
-3.3961 -3.8880 2.3530
-3.2548 -4.0072 2.3530
-3.1092 -4.1211 2.3530
-2.9596 -4.2296 2.3530
-2.8062 -4.3327 2.3530
-2.6491 -4.4301 2.3530
-2.4886 -4.5217 2.3530
-2.3249 -4.6074 2.3530
-2.1581 -4.6871 2.3530
-1.9887 -4.7606 2.3530
-1.8166 -4.8280 2.3530
-1.6423 -4.8891 2.3530
-1.4659 -4.9437 2.3530
-1.2876 -4.9919 2.3530
-1.1078 -5.0336 2.3530
-0.9266 -5.0688 2.3530
-0.7443 -5.0973 2.3530
-0.5611 -5.1192 2.3530
-0.3773 -5.1345 2.3530
-0.1930 -5.1430 2.3530
-0.0087 -5.1449 2.3530
0.1755 -5.1401 2.3530
0.3594 -5.1286 2.3530
0.5427 -5.1104 2.3530
0.7252 -5.0857 2.3530
0.9066 -5.0543 2.3530
1.0867 -5.0165 2.3530
1.2652 -4.9721 2.3530
1.4419 -4.9214 2.3530
1.6166 -4.8643 2.3530
1.7891 -4.8010 2.3530
1.9591 -4.7315 2.3530
2.1264 -4.6559 2.3530
2.2909 -4.5744 2.3530
2.4522 -4.4870 2.3530
2.6102 -4.3940 2.3530
2.6945 -4.1864 2.2934
2.7265 -3.9196 2.2006
2.8710 -3.8269 2.2061
2.9974 -3.7102 2.2007
3.1272 -3.5987 2.2009
3.2530 -3.4828 2.2012
3.3745 -3.3624 2.2015
3.4916 -3.2378 2.2018
3.6040 -3.1091 2.2021
3.7117 -2.9765 2.2024
3.8146 -2.8401 2.2027
3.9124 -2.7002 2.2029
4.0050 -2.5569 2.2032
4.0925 -2.4103 2.2034
4.1745 -2.2608 2.2036
4.2511 -2.1085 2.2038
4.3222 -1.9536 2.2040
4.3876 -1.7962 2.2042
4.4473 -1.6367 2.2044
4.5012 -1.4752 2.2045
4.5493 -1.3119 2.2047
4.5914 -1.1471 2.2048
4.6276 -0.9809 2.2049
4.6578 -0.8136 2.2050
4.6820 -0.6454 2.2051
4.7001 -0.4764 2.2051
4.7121 -0.3070 2.2052
4.7181 -0.1373 2.2052
4.7180 0.0324 2.2052
4.7118 0.2019 2.2052
4.6996 0.3711 2.2052
4.6813 0.5396 2.2052
4.6570 0.7074 2.2051
4.6175 0.8724 2.2006
4.5815 1.0375 2.2006
4.5397 1.2013 2.2006
4.4921 1.3634 2.2006
4.4389 1.5237 2.2006
4.3799 1.6819 2.2006
4.3154 1.8379 2.2006
4.2454 1.9915 2.2006
4.1701 2.1425 2.2006
4.0894 2.2907 2.2006
4.0035 2.4359 2.2006
3.9126 2.5779 2.2006
3.8166 2.7167 2.2006
3.7159 2.8519 2.2006
3.6104 2.9834 2.2006
3.5003 3.1111 2.2006
3.5723 3.4130 2.3219
3.4932 3.5867 2.3530
3.3617 3.7099 2.3530
3.2259 3.8285 2.3530
3.0860 3.9421 2.3530
2.9422 4.0507 2.3530
2.7945 4.1541 2.3530
2.6434 4.2522 2.3530
2.4888 4.3450 2.3530
2.3310 4.4321 2.3530
0.8821 1.8346 0.9564
0.8156 1.8654 0.9564
0.7481 1.8938 0.9564
0.6795 1.9198 0.9563
0.6100 1.9432 0.9563
0.5398 1.9641 0.9562
0.4688 1.9825 0.9561
0.3972 1.9983 0.9560
0.3251 2.0116 0.9558
0.2525 2.0222 0.9557
0.1796 2.0302 0.9555
0.1065 2.0355 0.9553
0.0332 2.0382 0.9551
-0.0401 2.0383 0.9548
-0.1134 2.0357 0.9546
-0.1866 2.0305 0.9543
-0.2595 2.0227 0.9540
-0.3321 2.0122 0.9537
-0.4043 1.9991 0.9534
-0.4760 1.9834 0.9530
-0.5470 1.9652 0.9527
-0.6173 1.9444 0.9523
-0.6869 1.9210 0.9519
-0.7555 1.8952 0.9516
-0.8232 1.8669 0.9511
-0.8898 1.8362 0.9507
-2.3654 4.4648 2.3530
-2.5256 4.3791 2.3530
-2.6827 4.2878 2.3530
-2.8364 4.1908 2.3530
-2.9868 4.0884 2.3530
-3.1333 3.9806 2.3530
-3.2760 3.8676 2.3530
-3.4147 3.7495 2.3530
-3.5491 3.6264 2.3530
-3.6790 3.4985 2.3530
-3.8043 3.3661 2.3530
-3.9248 3.2291 2.3530
-4.0404 3.0878 2.3530
-4.1509 2.9425 2.3530
-4.2562 2.7931 2.3530
-4.3561 2.6400 2.3530
-4.4505 2.4834 2.3530
-4.5391 2.3234 2.3530
-4.6220 2.1602 2.3530
-4.6991 1.9941 2.3530
-4.7701 1.8252 2.3530
-4.8350 1.6538 2.3530
-4.8938 1.4802 2.3530
-4.9462 1.3044 2.3530
-4.9923 1.1268 2.3530
-5.0320 0.9475 2.3530
-5.0651 0.7669 2.3530
-5.0918 0.5851 2.3530
-5.1119 0.4024 2.3530
-5.1253 0.2191 2.3530
-5.1321 0.0353 2.3530
-5.1323 -0.1487 2.3530
-5.1258 -0.3327 2.3530
-5.1126 -0.5163 2.3530
-5.0928 -0.6994 2.3530
-5.0664 -0.8818 2.3530
-5.0334 -1.0631 2.3530
-4.9938 -1.2431 2.3530
-4.9477 -1.4216 2.3530
-4.8951 -1.5984 2.3530
-4.8362 -1.7733 2.3530
-4.7709 -1.9459 2.3530
-4.6994 -2.1160 2.3530
-4.6217 -2.2835 2.3530
-4.5380 -2.4481 2.3530
-4.4483 -2.6095 2.3530
-4.3529 -2.7676 2.3530
-4.2517 -2.9222 2.3530
-4.1450 -3.0730 2.3530
-4.0328 -3.2199 2.3530
-3.9154 -3.3626 2.3530
-3.7929 -3.5009 2.3530
-3.6654 -3.6347 2.3530
-3.5331 -3.7638 2.3530
-3.3962 -3.8880 2.3530
-3.2548 -4.0071 2.3530
-3.1093 -4.1211 2.3530
-2.9597 -4.2296 2.3530
-2.8062 -4.3327 2.3530
-2.6491 -4.4300 2.3530
-2.4886 -4.5217 2.3530
-2.3249 -4.6074 2.3530
-2.1582 -4.6871 2.3530
-1.9887 -4.7606 2.3530
-1.8167 -4.8280 2.3530
-1.6423 -4.8890 2.3530
-1.4659 -4.9437 2.3530
-1.2877 -4.9919 2.3530
-1.1078 -5.0336 2.3530
-0.9266 -5.0688 2.3530
-0.7443 -5.0973 2.3530
-0.5611 -5.1192 2.3530
-0.3773 -5.1345 2.3530
-0.1931 -5.1430 2.3530
-0.0087 -4.8529 2.3530
0.1651 -4.8484 2.3530
0.3385 -4.8377 2.3530
0.5114 -4.8206 2.3530
0.6835 -4.7974 2.3530
0.8546 -4.7679 2.3530
1.0245 -4.7323 2.3530
1.1929 -4.6906 2.3530
1.3597 -4.6428 2.3530
1.5245 -4.5891 2.3530
1.6872 -4.5294 2.3530
1.8476 -4.4640 2.3530
2.0055 -4.3928 2.3530
2.1607 -4.3160 2.3530
2.3129 -4.2336 2.3530
2.4620 -4.1459 2.3530
2.6078 -4.0529 2.3530
2.6926 -3.8721 2.3038
2.7140 -3.6187 2.2108
2.8276 -3.5011 2.2006
2.9499 -3.3957 2.2007
3.0683 -3.2861 2.2008
3.1830 -3.1726 2.2011
3.2935 -3.0551 2.2014
3.3997 -2.9338 2.2016
3.5013 -2.8087 2.2019
3.5984 -2.6801 2.2022
3.6908 -2.5481 2.2024
3.7783 -2.4129 2.2026
3.8608 -2.2747 2.2028
3.9383 -2.1337 2.2031
4.0107 -1.9900 2.2033
4.0778 -1.8439 2.2034
4.1396 -1.6954 2.2036
4.1961 -1.5449 2.2038
4.2470 -1.3926 2.2039
4.2924 -1.2385 2.2040
4.3323 -1.0830 2.2041
4.3665 -0.9262 2.2042
4.3951 -0.7683 2.2043
4.4180 -0.6096 2.2044
4.4352 -0.4502 2.2045
4.4467 -0.2903 2.2045
4.4524 -0.1302 2.2045
4.4524 0.0300 2.2045
4.4466 0.1900 2.2045
4.4351 0.3497 2.2045
4.4179 0.5088 2.2045
4.3951 0.6671 2.2044
4.3592 0.8231 2.2006
4.3253 0.9791 2.2006
4.2859 1.1337 2.2006
4.2410 1.2868 2.2006
4.1908 1.4381 2.2006
4.1352 1.5876 2.2006
4.0743 1.7349 2.2006
4.0083 1.8800 2.2006
3.9372 2.0226 2.2006
3.8610 2.1625 2.2006
3.7800 2.2996 2.2006
3.6941 2.4338 2.2006
3.6036 2.5648 2.2006
3.5084 2.6925 2.2006
3.4089 2.8167 2.2006
3.3049 2.9373 2.2006
3.4182 3.2657 2.3530
3.2982 3.3864 2.3530
3.1740 3.5028 2.3530
3.0458 3.6147 2.3530
2.9137 3.7220 2.3530
2.7779 3.8245 2.3530
2.6385 3.9222 2.3530
2.4957 4.0149 2.3530
2.3497 4.1024 2.3530
0.8937 1.6994 0.9555
0.8320 1.7307 0.9556
0.7693 1.7597 0.9556
0.7055 1.7865 0.9555
0.6409 1.8109 0.9555
0.5753 1.8330 0.9554
0.5090 1.8528 0.9553
0.4421 1.8701 0.9552
0.3745 1.8850 0.9551
0.3065 1.8975 0.9550
0.2380 1.9075 0.9548
0.1693 1.9150 0.9547
0.1003 1.9201 0.9545
0.0311 1.9226 0.9543
-0.0381 1.9227 0.9541
-0.1072 1.9203 0.9538
-0.1763 1.9153 0.9536
-0.2451 1.9079 0.9533
-0.3135 1.8981 0.9530
-0.3816 1.8857 0.9527
-0.4492 1.8709 0.9524
-0.5163 1.8537 0.9520
-0.5826 1.8341 0.9517
-0.6482 1.8120 0.9513
-0.7130 1.7877 0.9510
-0.7768 1.7610 0.9506
-0.8397 1.7321 0.9502
-0.9014 1.7008 0.9498
-2.3844 4.1328 2.3530
-2.5326 4.0465 2.3530
-2.6777 3.9549 2.3530
-2.8195 3.8581 2.3530
-2.9578 3.7563 2.3530
-3.0924 3.6495 2.3530
-3.2231 3.5380 2.3530
-3.3499 3.4217 2.3530
-3.4724 3.3010 2.3530
-3.5906 3.1759 2.3530
-3.7042 3.0466 2.3530
-3.8132 2.9132 2.3530
-3.9174 2.7759 2.3530
-4.0166 2.6349 2.3530
-4.1108 2.4904 2.3530
-4.1997 2.3426 2.3530
-4.2833 2.1915 2.3530
-4.3614 2.0375 2.3530
-4.4340 1.8807 2.3530
-4.5009 1.7214 2.3530
-4.5620 1.5596 2.3530
-4.6173 1.3957 2.3530
-4.6667 1.2299 2.3530
-4.7100 1.0623 2.3530
-4.7473 0.8932 2.3530
-4.7785 0.7228 2.3530
-4.8036 0.5513 2.3530
-4.8224 0.3790 2.3530
-4.8350 0.2060 2.3530
-4.8413 0.0326 2.3530
-4.8414 -0.1409 2.3530
-4.8351 -0.3144 2.3530
-4.8226 -0.4876 2.3530
-4.8039 -0.6603 2.3530
-4.7789 -0.8323 2.3530
-4.7476 -1.0033 2.3530
-4.7102 -1.1730 2.3530
-4.6666 -1.3414 2.3530
-4.6170 -1.5081 2.3530
-4.5613 -1.6729 2.3530
-4.4997 -1.8357 2.3530
-4.4322 -1.9961 2.3530
-4.3589 -2.1541 2.3530
-4.2799 -2.3092 2.3530
-4.1954 -2.4614 2.3530
-4.1053 -2.6106 2.3530
-4.0098 -2.7563 2.3530
-3.9092 -2.8985 2.3530
-3.8034 -3.0369 2.3530
-3.6926 -3.1715 2.3530
-3.5771 -3.3019 2.3530
-3.4568 -3.4281 2.3530
-3.3321 -3.5498 2.3530
-3.2030 -3.6669 2.3530
-3.0697 -3.7793 2.3530
-2.9324 -3.8867 2.3530
-2.7914 -3.9891 2.3530
-2.6467 -4.0862 2.3530
-2.4985 -4.1781 2.3530
-2.3472 -4.2645 2.3530
-2.1928 -4.3453 2.3530
-2.0356 -4.4205 2.3530
-1.8758 -4.4899 2.3530
-1.7136 -4.5535 2.3530
-1.5492 -4.6111 2.3530
-1.3829 -4.6627 2.3530
-1.2148 -4.7082 2.3530
-1.0452 -4.7476 2.3530
-0.8743 -4.7808 2.3530
-0.7024 -4.8078 2.3530
-0.5296 -4.8285 2.3530
-0.3563 -4.8429 2.3530
-0.1826 -4.8510 2.3530
-0.0087 -4.8529 2.3530
0.1651 -4.8484 2.3530
0.3385 -4.8377 2.3530
0.5114 -4.8207 2.3530
0.6835 -4.7974 2.3530
0.8546 -4.7679 2.3530
1.0245 -4.7323 2.3530
1.1929 -4.6906 2.3530
1.3596 -4.6428 2.3530
1.5245 -4.5891 2.3530
1.6872 -4.5294 2.3530
1.8476 -4.4640 2.3530
2.0055 -4.3928 2.3530
2.1607 -4.3160 2.3530
2.3129 -4.2337 2.3530
2.4620 -4.1460 2.3530
2.6078 -4.0530 2.3530
2.6926 -3.8722 2.3039
2.7140 -3.6188 2.2108
2.8276 -3.5011 2.2006
2.9498 -3.3957 2.2007
3.0683 -3.2861 2.2008
3.1830 -3.1727 2.2011
3.2935 -3.0552 2.2014
3.3997 -2.9338 2.2016
3.5013 -2.8087 2.2019
3.5984 -2.6801 2.2022
3.6908 -2.5481 2.2024
3.7783 -2.4129 2.2026
3.8608 -2.2747 2.2028
3.9383 -2.1337 2.2031
4.0107 -1.9900 2.2033
4.0778 -1.8439 2.2034
4.1396 -1.6955 2.2036
4.1960 -1.5450 2.2038
4.2470 -1.3926 2.2039
4.2924 -1.2386 2.2040
4.3323 -1.0830 2.2041
4.3665 -0.9262 2.2042
4.3951 -0.7683 2.2043
4.4180 -0.6096 2.2044
4.4352 -0.4502 2.2045
4.4467 -0.2903 2.2045
4.4524 -0.1302 2.2045
4.4524 0.0300 2.2045
4.4466 0.1900 2.2045
4.4351 0.3497 2.2045
4.4180 0.5088 2.2045
4.3951 0.6671 2.2044
4.3592 0.8231 2.2006
4.3253 0.9790 2.2006
4.2859 1.1337 2.2006
4.2411 1.2867 2.2006
4.1908 1.4381 2.2006
4.1352 1.5875 2.2006
4.0743 1.7349 2.2006
4.0083 1.8799 2.2006
3.9372 2.0225 2.2006
3.8610 2.1625 2.2006
3.7800 2.2996 2.2006
3.6941 2.4338 2.2006
3.6036 2.5648 2.2006
3.5085 2.6925 2.2006
3.4089 2.8167 2.2006
3.3049 2.9373 2.2006
3.4182 3.2656 2.3530
3.2982 3.3864 2.3530
3.1741 3.5028 2.3530
3.0458 3.6147 2.3530
2.9137 3.7220 2.3530
2.7779 3.8245 2.3530
2.6385 3.9222 2.3530
2.4957 4.0149 2.3530
2.3497 4.1024 2.3530
0.8937 1.6994 0.9555
0.8321 1.7307 0.9556
0.7693 1.7597 0.9556
0.7056 1.7865 0.9555
0.6409 1.8109 0.9555
0.5753 1.8330 0.9554
0.5091 1.8528 0.9553
0.4421 1.8701 0.9552
0.3745 1.8850 0.9551
0.3065 1.8975 0.9550
0.2380 1.9075 0.9548
0.1693 1.9150 0.9547
0.1003 1.9201 0.9545
0.0311 1.9226 0.9543
-0.0381 1.9227 0.9541
-0.1072 1.9203 0.9538
-0.1762 1.9153 0.9536
-0.2450 1.9079 0.9533
-0.3135 1.8981 0.9530
-0.3816 1.8857 0.9527
-0.4492 1.8709 0.9524
-0.5162 1.8537 0.9520
-0.5826 1.8341 0.9517
-0.6482 1.8121 0.9513
-0.7130 1.7877 0.9510
-0.7768 1.7610 0.9506
-0.8397 1.7321 0.9502
