ply
format ascii 1.0
element vertex 2207
property float32 x
property float32 y
property float32 z
end_header
6.2638 5.7358 -0.0718
6.2656 6.1650 -0.0716
6.2675 6.6260 -0.0717
6.2696 7.1237 -0.0720
6.2718 7.6641 -0.0725
5.3287 -1.2448 -0.1049
9.3269 2.6111 -0.1279
8.4530 3.7397 -0.1073
7.7007 3.7428 -0.0962
7.0510 3.7455 -0.0867
6.4827 3.7479 -0.0785
5.9803 3.7500 -0.0715
5.5873 3.7895 -0.0660
5.5886 4.0906 -0.0653
6.2604 4.9368 -0.0726
6.2620 5.3134 -0.0721
6.2637 5.7137 -0.0718
6.2655 6.1414 -0.0716
6.2674 6.6006 -0.0717
6.2694 7.0962 -0.0720
6.2717 7.6342 -0.0724
5.3260 -1.2549 -0.1050
9.3139 2.5883 -0.1279
8.4964 3.7395 -0.1080
7.7379 3.7426 -0.0967
7.0833 3.7454 -0.0871
6.5112 3.7478 -0.0789
6.0056 3.7499 -0.0718
5.5873 3.7739 -0.0660
5.5885 4.0742 -0.0654
5.5899 4.3908 -0.0648
6.2619 5.2927 -0.0721
6.2636 5.6918 -0.0718
6.2654 6.1179 -0.0717
6.2673 6.5753 -0.0717
6.2693 7.0689 -0.0719
6.2716 7.6044 -0.0724
5.3310 -1.2361 0.0185
9.3341 2.6298 0.0905
8.4154 3.7398 0.1006
7.6684 3.7429 0.0965
7.0228 3.7456 0.0930
6.4578 3.7480 0.0900
5.9581 3.7501 0.0874
5.5874 3.8034 0.0863
5.5887 4.1052 0.0909
6.2605 4.9542 0.1073
6.2621 5.3319 0.1132
6.2638 5.7335 0.1195
6.2655 6.1628 0.1263
6.2675 6.6237 0.1337
6.2695 7.1213 0.1417
6.2718 7.6616 0.1505
5.3283 -1.2462 0.0184
9.3210 2.6069 0.0901
8.4585 3.7396 0.1009
7.7054 3.7428 0.0967
7.0549 3.7455 0.0932
6.4861 3.7479 0.0901
5.9833 3.7500 0.0875
5.5873 3.7877 0.0860
5.5886 4.0888 0.0906
6.2604 4.9348 0.1070
6.2620 5.3112 0.1128
6.2637 5.7115 0.1191
6.2654 6.1392 0.1259
6.2674 6.5983 0.1333
6.2694 7.0938 0.1413
6.2717 7.6316 0.1500
5.3256 -1.2563 0.0183
9.3081 2.5841 0.0897
8.5019 3.7395 0.1011
7.7426 3.7426 0.0969
7.0873 3.7454 0.0934
6.5146 3.7478 0.0903
6.0086 3.7499 0.0876
5.5873 3.7721 0.0858
5.5885 4.0724 0.0904
5.5898 4.3889 0.0952
6.2619 5.2906 0.1125
6.2636 5.6896 0.1188
6.2654 6.1156 0.1255
6.2673 6.5730 0.1329
6.2693 7.0664 0.1408
6.2716 7.6018 0.1495
5.3306 -1.2375 0.1418
9.3168 2.6223 0.3084
8.4208 3.7398 0.3083
7.6730 3.7429 0.2889
7.0267 3.7456 0.2725
6.4612 3.7480 0.2583
5.9610 3.7501 0.2461
5.5874 3.8016 0.2385
5.5887 4.1034 0.2471
6.2605 4.9521 0.2871
6.2621 5.3297 0.2984
6.2637 5.7313 0.3108
6.2655 6.1605 0.3243
6.2675 6.6213 0.3391
6.2695 7.1188 0.3555
6.2718 7.6590 0.3736
5.3279 -1.2476 0.1416
9.3038 2.5995 0.3076
8.4640 3.7396 0.3094
7.7100 3.7428 0.2899
7.0589 3.7455 0.2733
6.4895 3.7479 0.2590
5.9862 3.7500 0.2467
5.5873 3.7859 0.2381
5.5886 4.0870 0.2466
6.2604 4.9327 0.2866
6.2620 5.3090 0.2978
6.2637 5.7093 0.3101
6.2654 6.1369 0.3235
6.2674 6.5959 0.3383
6.2694 7.0913 0.3546
6.2717 7.6291 0.3726
5.3253 -1.2577 0.1415
9.2909 2.5768 0.3068
8.5075 3.7394 0.3106
7.7473 3.7426 0.2908
7.0913 3.7453 0.2741
6.5180 3.7477 0.2597
6.0115 3.7499 0.2473
5.5873 3.7703 0.2377
5.5885 4.0705 0.2461
5.5898 4.3870 0.2553
6.2619 5.2884 0.2972
6.2636 5.6873 0.3094
6.2653 6.1134 0.3228
6.2673 6.5706 0.3375
6.2693 7.0640 0.3536
6.2715 7.5993 0.3716
5.3302 -1.2389 0.2652
9.2967 2.6141 0.5256
8.4263 3.7398 0.5165
7.6776 3.7429 0.4818
7.0306 3.7456 0.4524
6.4646 3.7480 0.4271
5.9640 3.7501 0.4052
5.5874 3.7998 0.3910
5.5886 4.1016 0.4035
6.2605 4.9500 0.4672
6.2621 5.3276 0.4840
6.2637 5.7291 0.5023
6.2655 6.1582 0.5225
6.2675 6.6189 0.5448
6.2695 7.1164 0.5695
6.2718 7.6565 0.5969
5.3276 -1.2490 0.2650
9.2838 2.5914 0.5244
8.4695 3.7396 0.5185
7.7146 3.7427 0.4835
7.0628 3.7455 0.4538
6.4929 3.7478 0.4283
5.9892 3.7500 0.4063
5.5873 3.7841 0.3904
5.5886 4.0851 0.4028
6.2604 4.9306 0.4664
6.2620 5.3069 0.4830
6.2636 5.7071 0.5013
6.2654 6.1346 0.5214
6.2673 6.5935 0.5436
6.2694 7.0889 0.5681
6.2717 7.6265 0.5954
5.3249 -1.2591 0.2649
9.2710 2.5687 0.5232
8.5131 3.7394 0.5205
7.7520 3.7426 0.4852
7.0953 3.7453 0.4553
6.5215 3.7477 0.4296
6.0145 3.7498 0.4074
5.5873 3.7686 0.3897
5.5885 4.0687 0.4021
5.5898 4.3852 0.4157
6.2619 5.2863 0.4821
6.2636 5.6851 0.5003
6.2653 6.1111 0.5203
6.2672 6.5682 0.5423
6.2693 7.0615 0.5667
6.2715 7.5968 0.5939
5.3299 -1.2403 0.3888
9.2766 2.6059 0.7424
8.4318 3.7398 0.7254
7.6822 3.7429 0.6754
7.0345 3.7456 0.6329
6.4679 3.7480 0.5964
5.9669 3.7500 0.5648
5.5874 3.7980 0.5438
5.5886 4.0998 0.5603
6.2605 4.9479 0.6477
6.2621 5.3254 0.6699
6.2637 5.7269 0.6943
6.2655 6.1559 0.7212
6.2674 6.6165 0.7510
6.2695 7.1139 0.7840
6.2718 7.6539 0.8208
5.3272 -1.2504 0.3887
9.2634 2.5831 0.7407
8.4750 3.7396 0.7283
7.7193 3.7427 0.6778
7.0668 3.7455 0.6350
6.4963 3.7478 0.5982
5.9921 3.7499 0.5664
5.5873 3.7824 0.5430
5.5886 4.0833 0.5594
6.2604 4.9285 0.6466
6.2620 5.3047 0.6687
6.2636 5.7049 0.6930
6.2654 6.1323 0.7197
6.2673 6.5912 0.7493
6.2694 7.0864 0.7822
6.2716 7.6240 0.8188
5.3245 -1.2606 0.3886
9.2498 2.5603 0.7390
8.5186 3.7394 0.7313
7.7567 3.7426 0.6803
7.0993 3.7453 0.6371
6.5249 3.7477 0.6000
6.0175 3.7498 0.5679
5.5872 3.7668 0.5421
5.5885 4.0669 0.5585
5.5898 4.3833 0.5764
6.2619 5.2841 0.6675
6.2635 5.6829 0.6916
6.2653 6.1088 0.7182
6.2672 6.5659 0.7477
6.2693 7.0590 0.7803
6.2715 7.5942 0.8167
5.3295 -1.2417 0.5129
9.2555 2.5974 0.9588
8.4373 3.7397 0.9353
7.6868 3.7429 0.8698
7.0385 3.7456 0.8142
6.4713 3.7479 0.7664
5.9699 3.7500 0.7251
5.5874 3.7962 0.6971
5.5886 4.0979 0.7176
6.2605 4.9458 0.8288
6.2620 5.3232 0.8565
6.2637 5.7246 0.8870
6.2655 6.1536 0.9206
6.2674 6.6142 0.9579
6.2695 7.1114 0.9993
6.2718 7.6513 1.0454
5.3268 -1.2519 0.5128
9.2419 2.5745 0.9567
8.4806 3.7395 0.9391
7.7240 3.7427 0.8730
7.0708 3.7454 0.8169
6.4998 3.7478 0.7688
5.9951 3.7499 0.7271
5.5873 3.7806 0.6961
5.5886 4.0815 0.7165
6.2604 4.9264 0.8274
6.2620 5.3026 0.8550
6.2636 5.7026 0.8853
6.2654 6.1300 0.9187
6.2673 6.5888 0.9558
6.2694 7.0839 0.9969
6.2716 7.6214 1.0428
5.3242 -1.2620 0.5126
9.2284 2.5517 0.9545
8.5243 3.7394 0.9430
7.7614 3.7425 0.8763
7.1033 3.7453 0.8197
6.5284 3.7477 0.7712
6.0205 3.7498 0.7292
5.5872 3.7650 0.6951
5.5885 4.0651 0.7153
5.5898 4.3814 0.7376
6.2619 5.2820 0.8534
6.2635 5.6807 0.8836
6.2653 6.1065 0.9169
6.2672 6.5635 0.9537
6.2693 7.0566 0.9946
6.2715 7.5916 1.0403
5.3291 -1.2432 0.6375
9.2339 2.5887 1.1751
8.4428 3.7397 1.1464
7.6915 3.7428 1.0653
7.0425 3.7456 0.9965
6.4748 3.7479 0.9374
5.9728 3.7500 0.8862
5.5874 3.7944 0.8511
5.5886 4.0961 0.8756
6.2605 4.9437 1.0107
6.2620 5.3211 1.0439
6.2637 5.7224 1.0804
6.2655 6.1512 1.1208
6.2674 6.6118 1.1656
6.2695 7.1089 1.2154
6.2718 7.6487 1.2710
5.3264 -1.2533 0.6373
9.2204 2.5659 1.1726
8.4862 3.7395 1.1512
7.7287 3.7427 1.0693
7.0748 3.7454 0.9999
6.5032 3.7478 0.9403
5.9981 3.7499 0.8888
5.5873 3.7788 0.8499
5.5886 4.0796 0.8742
6.2604 4.9243 1.0091
6.2619 5.3004 1.0420
6.2636 5.7004 1.0784
6.2654 6.1277 1.1186
6.2673 6.5864 1.1631
6.2694 7.0815 1.2127
6.2716 7.6188 1.2679
5.3238 -1.2634 0.6372
9.2070 2.5432 1.1700
8.5299 3.7393 1.1559
7.7662 3.7425 1.0733
7.1073 3.7453 1.0033
6.5318 3.7477 0.9433
6.0235 3.7498 0.8914
5.5872 3.7632 0.8487
5.5885 4.0632 0.8729
5.5898 4.3795 0.8995
6.2619 5.2798 1.0402
6.2635 5.6785 1.0764
6.2653 6.1042 1.1163
6.2672 6.5611 1.1606
6.2693 7.0541 1.2099
6.2715 7.5891 1.2648
5.3287 -1.2446 0.7627
9.5752 1.9535 1.4132
9.2124 2.5801 1.3916
9.0225 3.2413 1.4025
8.4484 3.7397 1.3590
7.6962 3.7428 1.2621
7.0465 3.7455 1.1800
6.4782 3.7479 1.1095
5.9758 3.7500 1.0484
5.5874 3.7926 1.0060
5.5886 4.0942 1.0344
6.2604 4.9416 1.1936
6.2620 5.3189 1.2323
6.2637 5.7201 1.2750
6.2655 6.1489 1.3222
6.2674 6.6093 1.3745
6.2695 7.1064 1.4328
5.3261 -1.2547 0.7626
9.5073 1.9207 1.4025
9.1989 2.5574 1.3886
9.0300 3.2246 1.4025
8.4918 3.7395 1.3646
7.7334 3.7427 1.2669
7.0788 3.7454 1.1840
6.5067 3.7478 1.1130
6.0011 3.7499 1.0515
5.5873 3.7770 1.0045
5.5885 4.0778 1.0329
5.5899 4.3950 1.0640
6.2619 5.2982 1.2301
6.2636 5.6981 1.2726
6.2654 6.1253 1.3195
6.2673 6.5840 1.3716
6.2694 7.0790 1.4295
6.2716 7.6162 1.4942
5.3234 -1.2648 0.7624
9.5125 1.9029 1.4025
9.1856 2.5347 1.3856
9.0375 3.2078 1.4025
8.5356 3.7393 1.3703
7.7709 3.7425 1.2717
7.1114 3.7453 1.1881
6.5353 3.7477 1.1165
6.0266 3.7498 1.0545
5.5872 3.7614 1.0031
5.5885 4.0614 1.0313
5.5898 4.3776 1.0623
6.2619 5.2776 1.2280
6.2635 5.6762 1.2702
6.2653 6.1019 1.3169
6.2672 6.5587 1.3687
6.2693 7.0516 1.4263
6.2715 7.5865 1.4906
5.3284 -1.2460 0.8888
9.2905 1.8928 1.5899
8.8090 2.1268 1.5234
8.6719 2.4263 1.5176
8.7132 2.7788 1.5452
8.4540 3.7397 1.5731
7.7009 3.7428 1.4605
7.0505 3.7455 1.3649
6.4817 3.7479 1.2828
5.9789 3.7500 1.2118
5.5873 3.7908 1.1618
5.5886 4.0923 1.1943
6.2604 4.9394 1.3777
6.2620 5.3167 1.4219
6.2637 5.7179 1.4707
6.2655 6.1466 1.5248
6.2674 6.6069 1.5848
6.2695 7.1039 1.6515
5.3257 -1.2561 0.8886
8.8240 2.1125 1.5251
8.6762 2.4096 1.5174
8.7068 2.7584 1.5429
8.4975 3.7395 1.5797
7.7382 3.7426 1.4660
7.0829 3.7454 1.3696
6.5102 3.7478 1.2869
6.0041 3.7499 1.2154
5.5873 3.7751 1.1601
5.5885 4.0759 1.1925
5.5899 4.3930 1.2281
6.2619 5.2960 1.4194
6.2636 5.6959 1.4680
6.2654 6.1230 1.5218
6.2673 6.5816 1.5814
6.2694 7.0765 1.6478
5.3230 -1.2663 0.8884
8.8391 2.0983 1.5268
8.6805 2.3929 1.5171
8.7003 2.7381 1.5406
8.5413 3.7393 1.5863
7.7758 3.7425 1.4716
7.1155 3.7452 1.3743
6.5389 3.7477 1.2910
6.0296 3.7498 1.2189
5.5872 3.7596 1.1585
5.5885 4.0595 1.1907
5.5898 4.3757 1.2261
6.2618 5.2754 1.4170
6.2635 5.6739 1.4653
6.2653 6.0995 1.5188
6.2672 6.5563 1.5781
6.2692 7.0491 1.6441
6.2715 7.5839 1.7178
5.3280 -1.2475 1.0157
8.9427 2.1565 1.7603
8.7788 2.4536 1.7482
8.8534 2.8209 1.7860
8.4597 3.7396 1.7892
7.7057 3.7428 1.6605
7.0546 3.7455 1.5513
6.4852 3.7479 1.4577
5.9819 3.7500 1.3766
5.5873 3.7889 1.3188
5.5886 4.0905 1.3554
6.2604 4.9373 1.5631
6.2620 5.3144 1.6129
6.2637 5.7156 1.6680
6.2655 6.1442 1.7289
6.2674 6.6045 1.7966
6.2695 7.1014 1.8719
5.3253 -1.2576 1.0156
8.9588 2.1423 1.7625
8.7830 2.4367 1.7479
8.8457 2.7999 1.7831
8.5032 3.7395 1.7967
7.7430 3.7426 1.6668
7.0870 3.7454 1.5567
6.5137 3.7478 1.4623
6.0072 3.7499 1.3806
5.5873 3.7733 1.3169
5.5885 4.0740 1.3533
5.5899 4.3911 1.3934
6.2619 5.2938 1.6101
6.2636 5.6936 1.6649
6.2654 6.1207 1.7255
6.2673 6.5791 1.7928
6.2694 7.0739 1.8677
5.3227 -1.2677 1.0154
8.9749 2.1280 1.7646
8.7873 2.4198 1.7476
8.8381 2.7789 1.7803
8.5471 3.7393 1.8042
7.7806 3.7425 1.6732
7.1197 3.7452 1.5622
6.5424 3.7476 1.4670
6.0327 3.7498 1.3847
5.5872 3.7577 1.3151
5.5885 4.0576 1.3513
5.5898 4.3738 1.3912
6.2618 5.2732 1.6074
6.2635 5.6717 1.6618
6.2653 6.0972 1.7221
6.2672 6.5538 1.7890
6.2692 7.0466 1.8635
5.3276 -1.2489 1.1438
9.3752 2.2581 2.0714
8.9861 2.5090 2.0081
8.4654 3.7396 2.0074
7.7105 3.7428 1.8625
7.0587 3.7455 1.7396
6.4887 3.7479 1.6342
5.9850 3.7500 1.5430
5.5873 3.7871 1.4771
5.5886 4.0886 1.5178
6.2604 4.9351 1.7501
6.2620 5.3122 1.8056
6.2637 5.7133 1.8669
6.2655 6.1418 1.9348
6.2674 6.6020 2.0102
6.2695 7.0988 2.0942
5.3249 -1.2590 1.1436
9.3821 2.2408 2.0718
9.0023 2.4950 2.0105
8.5090 3.7394 2.0158
7.7479 3.7426 1.8696
7.0911 3.7453 1.7457
6.5173 3.7477 1.6394
6.0103 3.7499 1.5475
5.5873 3.7715 1.4750
5.5885 4.0721 1.5155
5.5898 4.3892 1.5602
6.2619 5.2916 1.8025
6.2636 5.6913 1.8634
6.2654 6.1183 1.9310
6.2673 6.5767 2.0060
6.2693 7.0714 2.0895
5.3223 -1.2692 1.1434
9.3889 2.2235 2.0721
9.0387 2.4865 2.0173
8.5529 3.7392 2.0243
7.7855 3.7424 1.8768
7.1238 3.7452 1.7518
6.5460 3.7476 1.6447
6.0358 3.7498 1.5521
5.5872 3.7559 1.4730
5.5885 4.0557 1.5133
5.5898 4.3718 1.5577
6.2618 5.2710 1.7994
6.2635 5.6694 1.8600
6.2653 6.0948 1.9272
6.2672 6.5514 2.0018
6.2692 7.0440 2.0848
9.0690 -3.5594 2.2494
9.1749 -3.2264 2.2497
9.2685 -2.8903 2.2500
9.3498 -2.5516 2.2503
5.3272 -1.2504 1.2730
9.4749 -1.8682 2.2510
9.5188 -1.5244 2.2513
9.5502 -1.1798 2.2516
9.5693 -0.8350 2.2519
9.5707 -0.4899 2.2510
9.5674 -0.1460 2.2519
9.5547 0.1972 2.2535
9.5278 0.5392 2.2545
9.4844 0.8792 2.2546
9.4288 1.2168 2.2546
9.3614 1.5516 2.2546
9.2823 1.8832 2.2546
9.1917 2.2113 2.2546
8.9168 2.4871 2.2117
8.9767 2.8550 2.2546
8.8526 3.1699 2.2546
8.7178 3.4798 2.2546
8.5724 3.7843 2.2546
7.7154 3.7427 2.0667
7.0628 3.7455 1.9299
6.4923 3.7478 1.8126
5.9881 3.7500 1.7111
5.5873 3.7852 1.6369
5.5886 4.0867 1.6818
6.2604 4.9329 1.9389
6.2620 5.3099 2.0001
6.2637 5.7109 2.0677
6.2654 6.1394 2.1426
6.3484 6.6848 2.2546
6.0965 6.9005 2.2546
5.8377 7.1071 2.2546
5.5721 7.3045 2.2546
5.2993 7.4911 2.2542
5.0204 7.6676 2.2537
4.7359 7.8342 2.2532
4.4461 7.9908 2.2527
4.1514 8.1371 2.2522
3.8521 8.2731 2.2516
3.5487 8.3985 2.2511
3.2414 8.5134 2.2505
2.9306 8.6177 2.2500
2.6166 8.7111 2.2494
2.3485 8.9794 2.2964
2.1159 9.4699 2.4017
1.7731 9.5371 2.4017
1.4284 9.5925 2.4017
1.0821 9.6361 2.4017
0.7345 9.6678 2.4017
0.3861 9.6876 2.4017
0.0372 9.6956 2.4017
-0.3118 9.6916 2.4017
-0.6605 9.6757 2.4017
-1.0085 9.6479 2.4017
-1.3554 9.6082 2.4017
-1.7009 9.5566 2.4017
9.0630 -3.5770 2.2494
9.1695 -3.2442 2.2497
9.2639 -2.9083 2.2500
9.3458 -2.5697 2.2503
5.3245 -1.2605 1.2728
9.4722 -1.8865 2.2509
9.5168 -1.5427 2.2513
9.5489 -1.1982 2.2516
9.5686 -0.8533 2.2519
9.5709 -0.5083 2.2510
9.5677 -0.1643 2.2518
9.5557 0.1790 2.2534
9.5297 0.5211 2.2545
9.4870 0.8612 2.2546
9.4320 1.1989 2.2546
9.3653 1.5339 2.2546
9.2868 1.8657 2.2546
9.1968 2.1939 2.2546
8.9238 2.4706 2.2121
8.9830 2.8381 2.2546
8.8595 3.1533 2.2546
8.7252 3.4635 2.2546
8.5804 3.7682 2.2546
7.7528 3.7426 2.0746
7.0953 3.7453 1.9367
6.5209 3.7477 1.8184
6.0134 3.7498 1.7161
5.5873 3.7696 1.6347
5.5885 4.0702 1.6793
5.5898 4.3872 1.7285
6.2619 5.2893 1.9967
6.2636 5.6890 2.0639
6.2654 6.1159 2.1384
6.3616 6.6731 2.2546
6.1101 6.8892 2.2546
5.8516 7.0963 2.2546
5.5864 7.2942 2.2546
5.3140 7.4814 2.2542
5.0354 7.6584 2.2537
4.7511 7.8256 2.2532
4.4616 7.9827 2.2527
4.1672 8.1296 2.2522
3.8682 8.2661 2.2517
3.5649 8.3921 2.2511
3.2578 8.5076 2.2506
2.9472 8.6124 2.2500
2.6334 8.7064 2.2495
2.3511 8.9199 2.2822
2.1340 9.4660 2.4017
1.7914 9.5338 2.4017
1.4468 9.5866 2.4017
1.1006 9.6341 2.4017
0.7531 9.6664 2.4017
0.4047 9.6867 2.4017
0.0558 9.6955 2.4017
-0.2932 9.6921 2.4017
-0.6419 9.6768 2.4017
-0.9900 9.6497 2.4017
-1.3370 9.6106 2.4017
-1.6826 9.5597 2.4017
9.1642 -3.2620 2.2497
9.2592 -2.9262 2.2500
9.3418 -2.5878 2.2503
5.3219 -1.2706 1.2726
9.4695 -1.9047 2.2509
9.5147 -1.5610 2.2512
9.5475 -1.2165 2.2515
9.5678 -0.8717 2.2519
9.5708 -0.5266 2.2510
9.5680 -0.1825 2.2517
9.5567 0.1607 2.2533
9.5315 0.5029 2.2545
9.4896 0.8432 2.2546
9.4353 1.1810 2.2546
9.3691 1.5161 2.2546
9.2913 1.8481 2.2546
9.2019 2.1765 2.2546
8.9528 2.4602 2.2178
8.9892 2.8212 2.2546
8.8663 3.1367 2.2546
8.7326 3.4471 2.2546
8.5884 3.7521 2.2546
7.7905 3.7424 2.0826
7.1281 3.7452 1.9435
6.5496 3.7476 1.8243
6.0390 3.7497 1.7212
5.5872 3.7540 1.6324
5.5884 4.0538 1.6768
5.5898 4.3699 1.7257
6.2618 5.2687 1.9933
6.2635 5.6670 2.0602
6.2653 6.0924 2.1343
6.3747 6.6613 2.2546
6.1236 6.8780 2.2546
5.8655 7.0856 2.2546
5.6007 7.2839 2.2546
5.3287 7.4717 2.2543
5.0503 7.6493 2.2538
4.7664 7.8170 2.2533
4.4772 7.9746 2.2527
4.1830 8.1220 2.2522
3.8842 8.2591 2.2517
3.5812 8.3857 2.2512
3.2743 8.5017 2.2506
2.9638 8.6071 2.2501
2.6502 8.7016 2.2495
2.3538 8.8607 2.2682
2.1522 9.4621 2.4017
1.8097 9.5305 2.4017
1.4652 9.5871 2.4017
1.1190 9.6320 2.4017
0.7716 9.6650 2.4017
0.4232 9.6860 2.4017
0.0744 9.6952 2.4017
-0.2746 9.6926 2.4017
-0.6234 9.6779 2.4017
-0.9715 9.6514 2.4017
-1.3186 9.6130 2.4017
-1.6643 9.5627 2.4017
-8.7127 -3.7255 2.4017
-8.5875 -4.0418 2.4017
-8.4506 -4.3539 2.4017
-8.3022 -4.6611 2.4017
-8.1423 -4.9631 2.4017
-7.9712 -5.2595 2.4017
-7.7891 -5.5497 2.4017
-7.5961 -5.8334 2.4017
-7.3925 -6.1101 2.4017
-7.1786 -6.3795 2.4017
-6.9546 -6.6410 2.4017
-6.7207 -6.8944 2.4017
-6.4774 -7.1392 2.4017
-6.2248 -7.3750 2.4017
-5.9634 -7.6015 2.4017
-5.6935 -7.8183 2.4017
-5.4154 -8.0251 2.4017
-5.1295 -8.2215 2.4017
-4.8363 -8.4072 2.4017
-4.5360 -8.5820 2.4017
3.8556 -8.9083 2.4017
4.1685 -8.7573 2.4017
4.4753 -8.5949 2.4017
4.7755 -8.4213 2.4017
5.0688 -8.2367 2.4017
5.3548 -8.0415 2.4017
5.6330 -7.8361 2.4017
5.9031 -7.6206 2.4017
6.1647 -7.3954 2.4017
6.4175 -7.1610 2.4017
6.6611 -6.9177 2.4017
6.8953 -6.6657 2.4017
7.1198 -6.4057 2.4017
7.3342 -6.1378 2.4017
7.5383 -5.8626 2.4017
7.7319 -5.5805 2.4017
7.9147 -5.2918 2.4017
8.0866 -4.9970 2.4017
8.2473 -4.6966 2.4017
8.3967 -4.3909 2.4017
7.9930 -3.8215 2.2493
8.1119 -3.5269 2.2494
8.2199 -3.2287 2.2496
8.3169 -2.9272 2.2498
8.4028 -2.6229 2.2500
8.4778 -2.3162 2.2503
5.3268 -1.2519 1.4036
8.5941 -1.6970 2.2509
8.6353 -1.3854 2.2512
8.6651 -1.0730 2.2515
8.6837 -0.7602 2.2518
8.6853 -0.4471 2.2506
8.6838 -0.1350 2.2515
8.6733 0.1766 2.2529
8.6516 0.4872 2.2543
8.6144 0.7961 2.2546
8.5653 1.1029 2.2546
8.5055 1.4073 2.2546
8.4350 1.7089 2.2546
8.3540 2.0073 2.2546
8.2626 2.3022 2.2546
8.1611 2.5932 2.2546
8.0495 2.8799 2.2546
7.9281 3.1622 2.2546
7.7970 3.4396 2.2546
7.6565 3.7118 2.2546
7.0670 3.7454 2.1225
6.4959 3.7478 1.9931
5.9912 3.7499 1.8812
5.5873 3.7833 1.7985
5.5886 4.0847 1.8475
6.2604 4.9307 2.1297
6.2620 5.3077 2.1966
6.2194 5.6682 2.2546
6.0042 5.8812 2.2546
5.7821 6.0863 2.2546
5.5533 6.2833 2.2546
5.3172 6.4711 2.2542
5.0748 6.6503 2.2538
4.8267 6.8206 2.2534
4.5731 6.9822 2.2529
4.3143 7.1346 2.2525
4.0507 7.2779 2.2520
3.7825 7.4119 2.2515
3.5102 7.5364 2.2510
3.2339 7.6514 2.2505
2.9541 7.7567 2.2500
2.6710 7.8522 2.2495
2.3853 7.9387 2.2493
0.9243 3.5331 0.9913
0.7966 3.5645 0.9918
0.6678 3.5912 0.9922
0.5382 3.6133 0.9925
0.4078 3.6306 0.9927
0.2768 3.6433 0.9929
0.1455 3.6511 0.9930
0.0140 3.6543 0.9930
-0.1176 3.6527 0.9930
-0.2490 3.6463 0.9929
-0.3801 3.6351 0.9928
-0.5108 3.6192 0.9925
-0.6407 3.5986 0.9922
-0.7699 3.5733 0.9919
-0.8980 3.5434 0.9915
-2.4842 8.5039 2.4017
-2.7902 8.4138 2.4017
-3.0932 8.3132 2.4017
-3.3927 8.2021 2.4017
-3.6884 8.0807 2.4017
-3.9800 7.9490 2.4017
-4.2671 7.8073 2.4017
-4.5493 7.6557 2.4017
-4.8265 7.4942 2.4017
-5.0981 7.3231 2.4017
-5.3639 7.1425 2.4017
-5.6236 6.9527 2.4017
-5.8768 6.7537 2.4017
-6.1233 6.5458 2.4017
-6.3626 6.3293 2.4017
-6.5946 6.1043 2.4017
-6.8189 5.8710 2.4017
-7.0352 5.6298 2.4017
-7.2433 5.3808 2.4017
-7.4428 5.1244 2.4017
-7.6335 4.8608 2.4017
-7.8151 4.5903 2.4017
-7.9873 4.3131 2.4017
-8.1500 4.0297 2.4017
-8.3028 3.7403 2.4017
-8.4456 3.4452 2.4017
-8.5781 3.1449 2.4017
-8.7000 2.8395 2.4017
-8.8113 2.5295 2.4017
-8.9117 2.2153 2.4017
-9.0011 1.8972 2.4017
-9.0792 1.5756 2.4017
-9.1459 1.2508 2.4017
-9.2011 0.9234 2.4017
-9.2447 0.5936 2.4017
-9.2764 0.2620 2.4017
-9.2963 -0.0711 2.4017
-9.3043 -0.4053 2.4017
-9.3002 -0.7401 2.4017
-9.2841 -1.0751 2.4017
-9.2559 -1.4099 2.4017
-9.2155 -1.7439 2.4017
-9.1629 -2.0769 2.4017
-9.0982 -2.4082 2.4017
-9.0215 -2.7375 2.4017
-8.9326 -3.0643 2.4017
-8.8318 -3.3881 2.4017
-8.7190 -3.7085 2.4017
-8.5945 -4.0251 2.4017
-8.4582 -4.3374 2.4017
-8.3103 -4.6449 2.4017
-8.1511 -4.9472 2.4017
-7.9806 -5.2439 2.4017
-7.7990 -5.5344 2.4017
-7.6066 -5.8185 2.4017
-7.4036 -6.0956 2.4017
-7.1902 -6.3653 2.4017
-6.9667 -6.6273 2.4017
-6.7334 -6.8811 2.4017
-6.4906 -7.1264 2.4017
-6.2385 -7.3627 2.4017
-5.9775 -7.5897 2.4017
-5.7080 -7.8070 2.4017
-5.4304 -8.0143 2.4017
-5.1449 -8.2113 2.4017
-4.8520 -8.3976 2.4017
-4.5522 -8.5730 2.4017
3.8388 -8.9160 2.4017
4.1520 -8.7657 2.4017
4.4591 -8.6038 2.4017
4.7597 -8.4308 2.4017
5.0534 -8.2468 2.4017
5.3397 -8.0522 2.4017
5.6184 -7.8473 2.4017
5.8889 -7.6323 2.4017
6.1510 -7.4077 2.4017
6.4043 -7.1737 2.4017
6.6484 -6.9308 2.4017
6.8831 -6.6793 2.4017
7.1081 -6.4197 2.4017
7.3230 -6.1522 2.4017
7.5277 -5.8774 2.4017
7.7219 -5.5956 2.4017
7.9053 -5.3073 2.4017
8.0777 -5.0128 2.4017
8.2390 -4.7127 2.4017
8.3890 -4.4073 2.4017
7.9864 -3.8371 2.2493
8.1058 -3.5427 2.2494
8.2145 -3.2447 2.2496
8.3121 -2.9434 2.2498
8.3985 -2.6391 2.2500
8.4741 -2.3326 2.2503
5.3242 -1.2620 1.4034
8.5916 -1.7136 2.2509
8.6333 -1.4020 2.2512
8.6638 -1.0896 2.2515
8.6830 -0.7769 2.2518
8.6853 -0.4637 2.2506
8.6841 -0.1516 2.2514
8.6741 0.1600 2.2528
8.6530 0.4707 2.2543
8.6167 0.7797 2.2546
8.5682 1.0867 2.2546
8.5089 1.3912 2.2546
8.4390 1.6929 2.2546
8.3585 1.9915 2.2546
8.2677 2.2866 2.2546
8.1667 2.5778 2.2546
8.0557 2.8648 2.2546
7.9348 3.1473 2.2546
7.8043 3.4250 2.2546
7.6643 3.6975 2.2546
7.0996 3.7453 2.1300
6.5245 3.7477 1.9996
6.0166 3.7498 1.8867
5.5872 3.7677 1.7960
5.5885 4.0683 1.8448
5.5898 4.3852 1.8986
6.2619 5.2870 2.1929
6.2306 5.6567 2.2546
6.0159 5.8700 2.2546
5.7941 6.0756 2.2546
5.5656 6.2731 2.2546
5.3299 6.4614 2.2543
5.0879 6.6409 2.2538
4.8400 6.8118 2.2534
4.5867 6.9738 2.2529
4.3282 7.1268 2.2525
4.0648 7.2706 2.2520
3.7969 7.4050 2.2515
3.5248 7.5301 2.2511
3.2487 7.6455 2.2506
2.9690 7.7513 2.2501
2.6861 7.8473 2.2496
2.4005 7.9343 2.2493
0.9310 3.5313 0.9913
0.8034 3.5629 0.9918
0.6747 3.5899 0.9921
0.5451 3.6122 0.9925
0.4147 3.6298 0.9927
0.2838 3.6427 0.9929
0.1525 3.6508 0.9930
0.0210 3.6542 0.9930
-0.1106 3.6529 0.9930
-0.2420 3.6467 0.9929
-0.3732 3.6358 0.9928
-0.5038 3.6202 0.9925
-0.6338 3.5999 0.9923
-0.7630 3.5748 0.9919
-0.8912 3.5451 0.9915
-2.4678 8.5084 2.4017
-2.7740 8.4189 2.4017
-3.0771 8.3188 2.4017
-3.3768 8.2083 2.4017
-3.6728 8.0874 2.4017
-3.9646 7.9563 2.4017
-4.2519 7.8151 2.4017
-4.5344 7.6640 2.4017
-4.8118 7.5030 2.4017
-5.0838 7.3325 2.4017
-5.3499 7.1524 2.4017
-5.6099 6.9630 2.4017
-5.8635 6.7645 2.4017
-6.1103 6.5571 2.4017
-6.3501 6.3410 2.4017
-6.5825 6.1164 2.4017
-6.8072 5.8836 2.4017
-7.0239 5.6428 2.4017
-7.2324 5.3942 2.4017
-7.4324 5.1382 2.4017
-7.6235 4.8750 2.4017
-7.8056 4.6048 2.4017
-7.9784 4.3280 2.4017
-8.1416 4.0449 2.4017
-8.2949 3.7558 2.4017
-8.4382 3.4611 2.4017
-8.5713 3.1610 2.4017
-8.6938 2.8559 2.4017
-8.8057 2.5461 2.4017
-8.9067 2.2321 2.4017
-8.9966 1.9142 2.4017
-9.0753 1.5927 2.4017
-9.1427 1.2682 2.4017
-9.1985 0.9409 2.4017
-9.2426 0.6112 2.4017
-9.2750 0.2797 2.4017
-9.2956 -0.0534 2.4017
-9.3042 -0.3875 2.4017
-9.3008 -0.7223 2.4017
-9.2853 -1.0573 2.4017
-9.2577 -1.3921 2.4017
-9.2179 -1.7262 2.4017
-9.1660 -2.0592 2.4017
-9.1020 -2.3906 2.4017
-9.0258 -2.7200 2.4017
-8.9377 -3.0469 2.4017
-8.8375 -3.3709 2.4017
-8.7253 -3.6916 2.4017
-8.6014 -4.0084 2.4017
-8.4657 -4.3209 2.4017
-8.3185 -4.6287 2.4017
-8.1598 -4.9312 2.4017
-7.9899 -5.2282 2.4017
-7.8090 -5.5191 2.4017
-7.6171 -5.8035 2.4017
-7.4147 -6.0810 2.4017
-7.2019 -6.3512 2.4017
-6.9789 -6.6136 2.4017
-6.7461 -6.8678 2.4017
-6.5037 -7.1135 2.4017
-6.2521 -7.3503 2.4017
-5.9916 -7.5778 2.4017
-5.7226 -7.7957 2.4017
-5.4454 -8.0035 2.4017
-5.1603 -8.2011 2.4017
-4.8678 -8.3880 2.4017
-4.5683 -8.5639 2.4017
4.1355 -8.7740 2.4017
4.4429 -8.6127 2.4017
4.7439 -8.4403 2.4017
5.0379 -8.2569 2.4017
5.3247 -8.0628 2.4017
5.6038 -7.8584 2.4017
5.8747 -7.6440 2.4017
6.1373 -7.4198 2.4017
6.3910 -7.1864 2.4017
6.6357 -6.9440 2.4017
6.8709 -6.6929 2.4017
7.0964 -6.4337 2.4017
7.3119 -6.1667 2.4017
7.5171 -5.8922 2.4017
7.7118 -5.6108 2.4017
7.8958 -5.3228 2.4017
8.0688 -5.0286 2.4017
8.2307 -4.7288 2.4017
8.3813 -4.4237 2.4017
7.9798 -3.8526 2.2493
8.0997 -3.5584 2.2494
8.2090 -3.2606 2.2496
8.3071 -2.9595 2.2498
8.3942 -2.6554 2.2500
8.4704 -2.3489 2.2503
5.3215 -1.2721 1.4032
8.5890 -1.7301 2.2509
8.6314 -1.4186 2.2512
8.6625 -1.1063 2.2515
8.6823 -0.7935 2.2518
8.6852 -0.4804 2.2506
8.6843 -0.1682 2.2513
8.6749 0.1434 2.2528
8.6544 0.4542 2.2542
8.6190 0.7633 2.2546
8.5710 1.0704 2.2546
8.5123 1.3750 2.2546
8.4430 1.6769 2.2546
8.3631 1.9757 2.2546
8.2728 2.2709 2.2546
8.1724 2.5624 2.2546
8.0619 2.8496 2.2546
7.9415 3.1324 2.2546
7.8115 3.4103 2.2546
7.6719 3.6831 2.2546
7.1323 3.7452 2.1375
6.5533 3.7476 2.0060
6.0421 3.7497 1.8924
5.5872 3.7521 1.7935
5.5884 4.0519 1.8421
5.5898 4.3679 1.8956
6.2618 5.2664 2.1892
6.2418 5.6451 2.2546
6.0275 5.8589 2.2546
5.8061 6.0648 2.2546
5.5780 6.2628 2.2546
5.3426 6.4516 2.2543
5.1009 6.6316 2.2539
4.8534 6.8029 2.2534
4.6003 6.9654 2.2530
4.3421 7.1188 2.2525
4.0790 7.2631 2.2520
3.8113 7.3981 2.2516
3.5393 7.5236 2.2511
3.2635 7.6396 2.2506
2.9840 7.7459 2.2501
2.7013 7.8425 2.2496
2.4158 7.9299 2.2493
0.9378 3.5295 0.9913
0.8102 3.5613 0.9917
0.6816 3.5886 0.9921
0.5520 3.6111 0.9924
0.4217 3.6290 0.9927
0.2908 3.6421 0.9929
0.1595 3.6505 0.9930
0.0280 3.6542 0.9930
-0.1036 3.6531 0.9930
-0.2350 3.6472 0.9929
-0.3662 3.6365 0.9928
-0.4969 3.6212 0.9926
-0.6269 3.6011 0.9923
-0.7562 3.5763 0.9919
-0.8844 3.5468 0.9915
-2.4514 8.5129 2.4017
-7.9551 -3.4040 2.4017
-7.8397 -3.6923 2.4017
-7.7138 -3.9767 2.4017
-7.5773 -4.2566 2.4017
-7.4304 -4.5317 2.4017
-7.2734 -4.8015 2.4017
-7.1064 -5.0658 2.4017
-6.9295 -5.3239 2.4017
-6.7430 -5.5758 2.4017
-6.5472 -5.8208 2.4017
-6.3422 -6.0587 2.4017
-6.1283 -6.2891 2.4017
-5.9058 -6.5116 2.4017
-5.6750 -6.7260 2.4017
-5.4362 -6.9318 2.4017
-5.1896 -7.1288 2.4017
-4.9358 -7.3167 2.4017
-4.6749 -7.4951 2.4017
-4.4073 -7.6639 2.4017
-4.1334 -7.8226 2.4017
-3.8536 -7.9711 2.4017
-3.5683 -8.1092 2.4017
-3.2779 -8.2365 2.4017
-2.9828 -8.3530 2.4017
-2.6834 -8.4584 2.4017
-2.3801 -8.5526 2.4017
-2.0734 -8.6354 2.4017
-1.7637 -8.7067 2.4017
-1.4515 -8.7663 2.4017
-1.1373 -8.8143 2.4017
-0.8214 -8.8504 2.4017
-0.5043 -8.8746 2.4017
-0.1866 -8.8870 2.4017
0.1314 -8.8874 2.4017
0.4491 -8.8759 2.4017
0.7662 -8.8526 2.4017
1.0820 -8.8174 2.4017
1.3963 -8.7703 2.4017
1.7085 -8.7116 2.4017
2.0182 -8.6413 2.4017
2.3249 -8.5594 2.4017
2.6281 -8.4662 2.4017
2.9276 -8.3617 2.4017
3.2227 -8.2463 2.4017
3.5132 -8.1199 2.4017
3.7985 -7.9829 2.4017
4.0784 -7.8355 2.4017
4.3524 -7.6778 2.4017
4.6201 -7.5103 2.4017
4.8812 -7.3330 2.4017
5.1352 -7.1464 2.4017
5.3820 -6.9506 2.4017
5.6211 -6.7460 2.4017
5.8522 -6.5329 2.4017
6.0750 -6.3116 2.4017
6.2893 -6.0825 2.4017
6.4948 -5.8460 2.4017
6.6912 -5.6023 2.4017
6.8782 -5.3519 2.4017
7.0557 -5.0950 2.4017
7.2235 -4.8322 2.4017
7.3813 -4.5637 2.4017
7.5290 -4.2901 2.4017
7.1799 -3.7570 2.2493
7.2994 -3.4923 2.2494
7.4090 -3.2237 2.2496
7.5087 -2.9517 2.2498
7.5983 -2.6767 2.2500
7.6778 -2.3989 2.2502
7.7470 -2.1189 2.2504
5.3264 -1.2534 1.5357
7.8551 -1.5535 2.2509
7.8938 -1.2688 2.2511
7.9221 -0.9833 2.2514
7.9372 -0.6972 2.2508
7.9420 -0.4111 2.2502
7.9418 -0.1257 2.2511
7.9328 0.1592 2.2525
7.9137 0.4433 2.2538
7.8828 0.7262 2.2546
7.8390 1.0071 2.2546
7.7853 1.2859 2.2546
7.7218 1.5621 2.2546
7.6487 1.8356 2.2546
7.5661 2.1058 2.2546
7.4740 2.3726 2.2546
7.3728 2.6356 2.2546
7.2625 2.8945 2.2546
7.1434 3.1490 2.2546
7.0155 3.3988 2.2546
6.8791 3.6436 2.2546
6.4996 3.7478 2.1760
5.9944 3.7499 2.0535
5.5873 3.7814 1.9619
5.5886 4.0828 2.0152
6.0766 4.7838 2.2546
5.8936 4.9932 2.2546
5.7035 5.1960 2.2546
5.5067 5.3917 2.2546
5.3026 5.5794 2.2542
5.0923 5.7597 2.2538
4.8762 5.9323 2.2535
4.6543 6.0971 2.2531
4.4272 6.2540 2.2527
4.1949 6.4027 2.2522
3.9579 6.5431 2.2518
3.7163 6.6751 2.2514
3.4705 6.7985 2.2510
3.2209 6.9133 2.2505
2.9676 7.0192 2.2501
2.7109 7.1163 2.2496
2.4514 7.2048 2.2493
2.3306 7.7548 2.3943
0.8448 3.2283 0.9870
0.7280 3.2569 0.9874
0.6103 3.2813 0.9878
0.4918 3.3014 0.9881
0.3727 3.3173 0.9883
0.2530 3.3288 0.9884
0.1330 3.3360 0.9885
0.0127 3.3388 0.9886
-0.1075 3.3373 0.9886
-0.2276 3.3315 0.9885
-0.3474 3.3213 0.9883
-0.4668 3.3068 0.9881
-0.5856 3.2879 0.9878
-0.7037 3.2648 0.9875
-0.8208 3.2374 0.9871
-2.2803 7.8034 2.4017
-2.5611 7.7204 2.4017
-2.8391 7.6276 2.4017
-3.1138 7.5253 2.4017
-3.3850 7.4134 2.4017
-3.6524 7.2922 2.4017
-3.9156 7.1617 2.4017
-4.1743 7.0220 2.4017
-4.4282 6.8733 2.4017
-4.6771 6.7158 2.4017
-4.9205 6.5496 2.4017
-5.1583 6.3749 2.4017
-5.3901 6.1919 2.4017
-5.6156 6.0007 2.4017
-5.8346 5.8015 2.4017
-6.0467 5.5946 2.4017
-6.2517 5.3802 2.4017
-6.4493 5.1585 2.4017
-6.6393 4.9297 2.4017
-6.8214 4.6941 2.4017
-6.9954 4.4520 2.4017
-7.1609 4.2036 2.4017
-7.3179 3.9492 2.4017
-7.4660 3.6890 2.4017
-7.6050 3.4235 2.4017
-7.7348 3.1528 2.4017
-7.8551 2.8774 2.4017
-7.9658 2.5974 2.4017
-8.0666 2.3133 2.4017
-8.1574 2.0253 2.4017
-8.2380 1.7339 2.4017
-8.3084 1.4393 2.4017
-8.3683 1.1420 2.4017
-8.4176 0.8423 2.4017
-8.4562 0.5405 2.4017
-8.4841 0.2372 2.4017
-8.5011 -0.0675 2.4017
-8.5072 -0.3731 2.4017
-8.5022 -0.6791 2.4017
-8.4863 -0.9852 2.4017
-8.4592 -1.2910 2.4017
-8.4211 -1.5961 2.4017
-8.3719 -1.9000 2.4017
-8.3117 -2.2025 2.4017
-8.2404 -2.5029 2.4017
-8.1581 -2.8010 2.4017
-8.0649 -3.0964 2.4017
-7.9609 -3.3885 2.4017
-7.8461 -3.6771 2.4017
-7.7207 -3.9617 2.4017
-7.5848 -4.2418 2.4017
-7.4385 -4.5172 2.4017
-7.2820 -4.7873 2.4017
-7.1155 -5.0518 2.4017
-6.9392 -5.3104 2.4017
-6.7532 -5.5625 2.4017
-6.5578 -5.8079 2.4017
-6.3533 -6.0462 2.4017
-6.1399 -6.2770 2.4017
-5.9179 -6.5000 2.4017
-5.6875 -6.7148 2.4017
-5.4491 -6.9211 2.4017
-5.2030 -7.1186 2.4017
-4.9495 -7.3070 2.4017
-4.6889 -7.4859 2.4017
-4.4217 -7.6551 2.4017
-4.1481 -7.8144 2.4017
-3.8687 -7.9635 2.4017
-3.5836 -8.1021 2.4017
-3.2935 -8.2300 2.4017
-2.9986 -8.3471 2.4017
-2.6994 -8.4531 2.4017
-2.3963 -8.5479 2.4017
-2.0898 -8.6313 2.4017
-1.7803 -8.7032 2.4017
-1.4682 -8.7635 2.4017
-1.1540 -8.8120 2.4017
-0.8382 -8.8488 2.4017
-0.5212 -8.8736 2.4017
-0.2035 -8.8866 2.4017
0.1145 -8.8877 2.4017
0.4322 -8.8769 2.4017
0.7493 -8.8541 2.4017
1.0653 -8.8195 2.4017
1.3796 -8.7731 2.4017
1.6919 -8.7150 2.4017
2.0018 -8.6453 2.4017
2.3086 -8.5640 2.4017
2.6121 -8.4714 2.4017
2.9117 -8.3676 2.4017
3.2071 -8.2527 2.4017
3.4979 -8.1269 2.4017
3.7835 -7.9905 2.4017
4.0637 -7.8436 2.4017
4.3380 -7.6865 2.4017
4.6060 -7.5194 2.4017
4.8674 -7.3427 2.4017
5.1219 -7.1565 2.4017
5.3690 -6.9612 2.4017
5.6086 -6.7571 2.4017
5.8401 -6.5444 2.4017
6.0634 -6.3236 2.4017
6.2782 -6.0949 2.4017
6.4841 -5.8588 2.4017
6.6810 -5.6154 2.4017
6.8685 -5.3653 2.4017
7.0465 -5.1089 2.4017
7.2148 -4.8463 2.4017
7.3731 -4.5782 2.4017
7.5214 -4.3047 2.4017
7.1822 -3.7757 2.2521
7.2933 -3.5064 2.2494
7.4034 -3.2381 2.2496
7.5036 -2.9663 2.2498
7.5938 -2.6914 2.2500
7.6738 -2.4138 2.2502
7.7436 -2.1338 2.2504
5.3238 -1.2635 1.5355
7.8527 -1.5686 2.2508
7.8920 -1.2840 2.2511
7.9209 -0.9985 2.2514
7.9372 -0.7124 2.2510
7.9419 -0.4263 2.2502
7.9420 -0.1409 2.2511
7.9336 0.1440 2.2524
7.9150 0.4282 2.2537
7.8848 0.7112 2.2546
7.8416 0.9922 2.2546
7.7884 1.2711 2.2546
7.7254 1.5475 2.2546
7.6528 1.8211 2.2546
7.5707 2.0915 2.2546
7.4792 2.3585 2.2546
7.3784 2.6217 2.2546
7.2686 2.8808 2.2546
7.1499 3.1356 2.2546
7.0225 3.3856 2.2546
6.8866 3.6307 2.2546
6.5282 3.7477 2.1830
6.0198 3.7498 2.0595
5.5872 3.7658 1.9592
5.5885 4.0663 2.0122
5.5898 4.3832 2.0707
5.9035 4.9823 2.2546
5.7138 5.1854 2.2546
5.5174 5.3815 2.2546
5.3136 5.5696 2.2542
5.1037 5.7503 2.2539
4.8878 5.9233 2.2535
4.6663 6.0886 2.2531
4.4394 6.2458 2.2527
4.2074 6.3950 2.2523
3.9706 6.5358 2.2518
3.7293 6.6683 2.2514
3.4837 6.7922 2.2510
3.2342 6.9074 2.2505
2.9811 7.0138 2.2501
2.7247 7.1113 2.2496
2.4653 7.2002 2.2493
2.3330 7.7091 2.3815
0.8509 3.2266 0.9870
0.7343 3.2555 0.9874
0.6166 3.2801 0.9878
0.4982 3.3005 0.9880
0.3790 3.3165 0.9883
0.2594 3.3283 0.9884
0.1394 3.3357 0.9885
0.0191 3.3388 0.9886
-0.1011 3.3375 0.9886
-0.2212 3.3319 0.9885
-0.3411 3.3219 0.9883
-0.4605 3.3076 0.9881
-0.5793 3.2890 0.9879
-0.6974 3.2661 0.9875
-0.8146 3.2390 0.9871
-2.2653 7.8076 2.4017
-2.5463 7.7250 2.4017
-2.8244 7.6328 2.4017
-3.0993 7.5310 2.4017
-3.3707 7.4196 2.4017
-3.6382 7.2989 2.4017
-3.9017 7.1688 2.4017
-4.1606 7.0296 2.4017
-4.4148 6.8815 2.4017
-4.6640 6.7244 2.4017
-4.9077 6.5587 2.4017
-5.1458 6.3844 2.4017
-5.3779 6.2018 2.4017
-5.6038 6.0110 2.4017
-5.8231 5.8123 2.4017
-6.0356 5.6058 2.4017
-6.2410 5.3918 2.4017
-6.4390 5.1704 2.4017
-6.6294 4.9420 2.4017
-6.8119 4.7068 2.4017
-6.9863 4.4650 2.4017
-7.1523 4.2170 2.4017
-7.3097 3.9629 2.4017
-7.4583 3.7030 2.4017
-7.5979 3.4378 2.4017
-7.7281 3.1673 2.4017
-7.8490 2.8921 2.4017
-7.9601 2.6124 2.4017
-8.0615 2.3285 2.4017
-8.1528 2.0407 2.4017
-8.2340 1.7495 2.4017
-8.3049 1.4551 2.4017
-8.3653 1.1579 2.4017
-8.4152 0.8583 2.4017
-8.4544 0.5566 2.4017
-8.4829 0.2533 2.4017
-8.5005 -0.0513 2.4017
-8.5071 -0.3568 2.4017
-8.5028 -0.6628 2.4017
-8.4874 -0.9689 2.4017
-8.4610 -1.2748 2.4017
-8.4234 -1.5799 2.4017
-8.3748 -1.8839 2.4017
-8.3152 -2.1864 2.4017
-8.2444 -2.4870 2.4017
-8.1628 -2.7852 2.4017
-8.0702 -3.0807 2.4017
-7.9667 -3.3731 2.4017
-7.8525 -3.6619 2.4017
-7.7277 -3.9466 2.4017
-7.5923 -4.2270 2.4017
-7.4466 -4.5026 2.4017
-7.2906 -4.7731 2.4017
-7.1246 -5.0379 2.4017
-6.9488 -5.2968 2.4017
-6.7633 -5.5493 2.4017
-6.5685 -5.7950 2.4017
-6.3644 -6.0337 2.4017
-6.1515 -6.2649 2.4017
-5.9299 -6.4883 2.4017
-5.7000 -6.7036 2.4017
-5.4619 -6.9104 2.4017
-5.2163 -7.1083 2.4017
-4.9631 -7.2972 2.4017
-4.7030 -7.4766 2.4017
-4.4361 -7.6464 2.4017
-4.1628 -7.8062 2.4017
-3.8837 -7.9558 2.4017
-3.5989 -8.0950 2.4017
-3.3090 -8.2235 2.4017
-3.0144 -8.3412 2.4017
-2.7154 -8.4478 2.4017
-2.4125 -8.5431 2.4017
-2.1062 -8.6272 2.4017
-1.7968 -8.6997 2.4017
-1.4848 -8.7606 2.4017
-1.1708 -8.8097 2.4017
-0.8551 -8.8471 2.4017
-0.5381 -8.8726 2.4017
-0.2204 -8.8862 2.4017
0.0975 -8.8879 2.4017
0.4153 -8.8777 2.4017
0.7324 -8.8556 2.4017
1.0485 -8.8217 2.4017
1.3629 -8.7759 2.4017
1.6754 -8.7184 2.4017
1.9853 -8.6493 2.4017
2.2924 -8.5687 2.4017
2.5960 -8.4766 2.4017
2.8959 -8.3734 2.4017
3.1915 -8.2591 2.4017
3.4825 -8.1339 2.4017
3.7684 -7.9980 2.4017
4.0489 -7.8517 2.4017
4.3235 -7.6951 2.4017
4.5919 -7.5286 2.4017
4.8537 -7.3523 2.4017
5.1086 -7.1666 2.4017
5.3561 -6.9718 2.4017
5.5960 -6.7681 2.4017
5.8280 -6.5560 2.4017
6.0517 -6.3355 2.4017
6.2669 -6.1073 2.4017
6.4734 -5.8715 2.4017
6.6707 -5.6286 2.4017
6.8588 -5.3788 2.4017
7.0373 -5.1227 2.4017
7.2061 -4.8604 2.4017
7.3650 -4.5926 2.4017
7.5137 -4.3194 2.4017
7.1666 -3.7849 2.2493
7.2872 -3.5206 2.2494
7.3978 -3.2525 2.2496
7.4986 -2.9808 2.2498
7.5892 -2.7061 2.2500
7.6698 -2.4286 2.2502
7.7402 -2.1488 2.2504
5.3211 -1.2736 1.5353
7.8504 -1.5837 2.2508
7.8901 -1.2991 2.2511
7.9196 -1.0137 2.2514
7.9372 -0.7277 2.2512
7.9417 -0.4416 2.2502
7.9421 -0.1561 2.2510
7.9343 0.1289 2.2523
7.9162 0.4131 2.2536
7.8868 0.6962 2.2546
7.8441 0.9773 2.2546
7.7915 1.2563 2.2546
7.7290 1.5329 2.2546
7.6569 1.8066 2.2546
7.5753 2.0772 2.2546
7.4843 2.3444 2.2546
7.3840 2.6078 2.2546
7.2747 2.8671 2.2546
7.1565 3.1221 2.2546
7.0295 3.3725 2.2546
6.8940 3.6178 2.2546
6.5570 3.7476 2.1901
6.0454 3.7497 2.0657
5.5892 3.7516 1.9573
5.5884 4.0500 2.0093
5.5897 4.3659 2.0675
5.9134 4.9713 2.2546
5.7241 5.1747 2.2546
5.5280 5.3712 2.2546
5.3246 5.5598 2.2543
5.1150 5.7408 2.2539
4.8994 5.9143 2.2535
4.6782 6.0800 2.2531
4.4516 6.2377 2.2527
4.2199 6.3873 2.2523
3.9833 6.5286 2.2519
3.7422 6.6615 2.2514
3.4969 6.7858 2.2510
3.2476 6.9015 2.2506
2.9947 7.0084 2.2501
2.7384 7.1064 2.2497
2.4791 7.1957 2.2493
2.3354 7.6639 2.3688
0.8571 3.2250 0.9870
0.7405 3.2541 0.9874
0.6229 3.2789 0.9877
0.5045 3.2995 0.9880
0.3854 3.3158 0.9883
0.2657 3.3278 0.9884
0.1457 3.3354 0.9885
0.0255 3.3387 0.9886
-0.0947 3.3377 0.9886
-0.2148 3.3323 0.9885
-0.3347 3.3226 0.9883
-0.4542 3.3085 0.9881
-0.5730 3.2901 0.9879
-0.6911 3.2675 0.9875
-0.8084 3.2406 0.9872
-2.2503 7.8117 2.4017
-7.3112 -3.1308 2.4017
-7.2044 -3.3954 2.4017
-7.0878 -3.6563 2.4017
-6.9616 -3.9131 2.4017
-6.8260 -4.1653 2.4017
-6.6811 -4.4128 2.4017
-6.5270 -4.6550 2.4017
-6.3639 -4.8917 2.4017
-6.1920 -5.1224 2.4017
-6.0116 -5.3469 2.4017
-5.8229 -5.5649 2.4017
-5.6260 -5.7759 2.4017
-5.4213 -5.9797 2.4017
-5.2090 -6.1760 2.4017
-4.9894 -6.3644 2.4017
-4.7628 -6.5447 2.4017
-4.5295 -6.7167 2.4017
-4.2898 -6.8799 2.4017
-4.0440 -7.0343 2.4017
-3.7925 -7.1796 2.4017
-3.5356 -7.3154 2.4017
-3.2737 -7.4417 2.4017
-3.0071 -7.5582 2.4017
-2.7362 -7.6648 2.4017
-2.4615 -7.7612 2.4017
-2.1832 -7.8473 2.4017
-1.9019 -7.9230 2.4017
-1.6178 -7.9882 2.4017
-1.3314 -8.0428 2.4017
-1.0432 -8.0866 2.4017
-0.7534 -8.1197 2.4017
-0.4626 -8.1419 2.4017
-0.1712 -8.1532 2.4017
0.1204 -8.1536 2.4017
0.4118 -8.1432 2.4017
0.7026 -8.1219 2.4017
0.9924 -8.0897 2.4017
1.2806 -8.0468 2.4017
1.5670 -7.9931 2.4017
1.8511 -7.9289 2.4017
2.1325 -7.8541 2.4017
2.4108 -7.7689 2.4017
2.6856 -7.6734 2.4017
2.9566 -7.5679 2.4017
3.2232 -7.4524 2.4017
3.4853 -7.3271 2.4017
3.7423 -7.1922 2.4017
3.9939 -7.0481 2.4017
4.2399 -6.8948 2.4017
4.4798 -6.7326 2.4017
4.7134 -6.5618 2.4017
4.9403 -6.3826 2.4017
5.1602 -6.1953 2.4017
5.3728 -6.0002 2.4017
5.5779 -5.7976 2.4017
5.7752 -5.5878 2.4017
5.9645 -5.3711 2.4017
6.1455 -5.1478 2.4017
6.3179 -4.9183 2.4017
6.4816 -4.6829 2.4017
6.6364 -4.4419 2.4017
6.7822 -4.1957 2.4017
6.4796 -3.6944 2.2493
6.5986 -3.4550 2.2493
6.7086 -3.2118 2.2493
6.8096 -2.9651 2.2493
6.9037 -2.7161 2.2500
6.9868 -2.4635 2.2501
7.0607 -2.2083 2.2503
7.1252 -1.9510 2.2505
5.3260 -1.2549 1.6694
7.2260 -1.4312 2.2509
7.2622 -1.1694 2.2510
7.2891 -0.9069 2.2513
7.3020 -0.6435 2.2502
7.3085 -0.3805 2.2499
7.3092 -0.1179 2.2508
7.3015 0.1444 2.2521
7.2844 0.4060 2.2533
7.2580 0.6665 2.2545
7.2190 0.9253 2.2546
7.1703 1.1822 2.2546
7.1127 1.4368 2.2546
7.0462 1.6889 2.2546
6.9708 1.9381 2.2546
6.8868 2.1841 2.2546
6.7943 2.4267 2.2546
6.6934 2.6656 2.2546
6.5842 2.9004 2.2546
6.4670 3.1310 2.2546
6.3420 3.3571 2.2546
6.2092 3.5783 2.2546
6.0689 3.7945 2.2546
5.5873 3.7795 2.1275
5.5886 4.0808 2.1850
5.6048 4.4103 2.2546
5.4360 4.6036 2.2545
5.2605 4.7903 2.2541
5.0787 4.9705 2.2538
4.8909 5.1441 2.2535
4.6973 5.3109 2.2531
4.4983 5.4706 2.2528
4.2940 5.6231 2.2524
4.0847 5.7683 2.2520
3.8707 5.9059 2.2517
3.6522 6.0359 2.2513
3.4296 6.1581 2.2509
3.2030 6.2724 2.2505
2.9727 6.3787 2.2501
2.7391 6.4769 2.2497
2.5024 6.5669 2.2493
2.3430 6.8841 2.3285
0.8834 2.9385 0.9829
0.7770 2.9687 0.9834
0.6697 2.9950 0.9837
0.5614 3.0174 0.9840
0.4524 3.0359 0.9843
0.3428 3.0505 0.9845
0.2327 3.0610 0.9846
0.1223 3.0676 0.9847
0.0117 3.0702 0.9848
-0.0989 3.0688 0.9847
-0.2094 3.0634 0.9847
-0.3196 3.0541 0.9845
-0.4294 3.0407 0.9843
-0.5387 3.0234 0.9841
-0.6473 3.0021 0.9838
-0.7550 2.9769 0.9834
-0.8617 2.9479 0.9830
-2.3645 7.1252 2.4017
-2.6210 7.0393 2.4017
-2.8745 6.9445 2.4017
-3.1247 6.8409 2.4017
-3.3713 6.7286 2.4017
-3.6140 6.6078 2.4017
-3.8526 6.4785 2.4017
-4.0867 6.3409 2.4017
-4.3161 6.1951 2.4017
-4.5404 6.0413 2.4017
-4.7595 5.8797 2.4017
-4.9730 5.7103 2.4017
-5.1806 5.5335 2.4017
-5.3822 5.3493 2.4017
-5.5773 5.1580 2.4017
-5.7659 4.9598 2.4017
-5.9477 4.7549 2.4017
-6.1223 4.5435 2.4017
-6.2896 4.3258 2.4017
-6.4493 4.1022 2.4017
-6.6013 3.8728 2.4017
-6.7453 3.6379 2.4017
-6.8811 3.3977 2.4017
-7.0085 3.1527 2.4017
-7.1273 2.9029 2.4017
-7.2373 2.6488 2.4017
-7.3385 2.3905 2.4017
-7.4305 2.1286 2.4017
-7.5133 1.8631 2.4017
-7.5867 1.5945 2.4017
-7.6505 1.3231 2.4017
-7.7048 1.0492 2.4017
-7.7492 0.7731 2.4017
-7.7839 0.4953 2.4017
-7.8086 0.2160 2.4017
-7.8233 -0.0644 2.4017
-7.8279 -0.3456 2.4017
-7.8224 -0.6271 2.4017
-7.8068 -0.9086 2.4017
-7.7810 -1.1898 2.4017
-7.7450 -1.4702 2.4017
-7.6988 -1.7496 2.4017
-7.6425 -2.0274 2.4017
-7.5761 -2.3034 2.4017
-7.4996 -2.5772 2.4017
-7.4130 -2.8484 2.4017
-7.3166 -3.1166 2.4017
-7.2103 -3.3814 2.4017
-7.0943 -3.6425 2.4017
-6.9686 -3.8995 2.4017
-6.8335 -4.1520 2.4017
-6.6890 -4.3997 2.4017
-6.5354 -4.6422 2.4017
-6.3728 -4.8792 2.4017
-6.2014 -5.1103 2.4017
-6.0214 -5.3351 2.4017
-5.8331 -5.5534 2.4017
-5.6367 -5.7648 2.4017
-5.4324 -5.9690 2.4017
-5.2205 -6.1657 2.4017
-5.0013 -6.3546 2.4017
-4.7750 -6.5353 2.4017
-4.5421 -6.7077 2.4017
-4.3027 -6.8715 2.4017
-4.0572 -7.0263 2.4017
-3.8060 -7.1721 2.4017
-3.5494 -7.3084 2.4017
-3.2877 -7.4352 2.4017
-3.0214 -7.5523 2.4017
-2.7507 -7.6593 2.4017
-2.4762 -7.7563 2.4017
-2.1981 -7.8430 2.4017
-1.9169 -7.9193 2.4017
-1.6330 -7.9850 2.4017
-1.3467 -8.0401 2.4017
-1.0585 -8.0846 2.4017
-0.7689 -8.1182 2.4017
-0.4781 -8.1410 2.4017
-0.1867 -8.1529 2.4017
0.1049 -8.1539 2.4017
0.3963 -8.1440 2.4017
0.6872 -8.1233 2.4017
0.9770 -8.0917 2.4017
1.2653 -8.0493 2.4017
1.5518 -7.9963 2.4017
1.8361 -7.9325 2.4017
2.1176 -7.8583 2.4017
2.3961 -7.7737 2.4017
2.6711 -7.6788 2.4017
2.9423 -7.5737 2.4017
3.2092 -7.4588 2.4017
3.4714 -7.3340 2.4017
3.7287 -7.1996 2.4017
3.9807 -7.0560 2.4017
4.2270 -6.9032 2.4017
4.4672 -6.7415 2.4017
4.7011 -6.5711 2.4017
4.9284 -6.3923 2.4017
5.1487 -6.2055 2.4017
5.3617 -6.0108 2.4017
5.5672 -5.8086 2.4017
5.7650 -5.5991 2.4017
5.9546 -5.3828 2.4017
6.1361 -5.1598 2.4017
6.3089 -4.9307 2.4017
6.4731 -4.6956 2.4017
6.6284 -4.4548 2.4017
6.7746 -4.2089 2.4017
6.4730 -3.7070 2.2493
6.5925 -3.4679 2.2493
6.7030 -3.2249 2.2493
6.8045 -2.9783 2.2493
6.8968 -2.7286 2.2493
6.9826 -2.4770 2.2501
7.0570 -2.2220 2.2503
7.1220 -1.9647 2.2505
5.3234 -1.2650 1.6692
7.2238 -1.4451 2.2508
7.2605 -1.1834 2.2510
7.2879 -0.9209 2.2513
7.3013 -0.6575 2.2501
7.3083 -0.3945 2.2499
7.3093 -0.1318 2.2508
7.3021 0.1304 2.2520
7.2855 0.3920 2.2532
7.2596 0.6527 2.2544
7.2213 0.9116 2.2546
7.1732 1.1686 2.2546
7.1160 1.4233 2.2546
7.0499 1.6755 2.2546
6.9751 1.9249 2.2546
6.8915 2.1711 2.2546
6.7994 2.4139 2.2546
6.6990 2.6530 2.2546
6.5903 2.8881 2.2546
6.4735 3.1189 2.2546
6.3488 3.3452 2.2546
6.2164 3.5667 2.2546
6.0765 3.7831 2.2546
5.5872 3.7639 2.1246
5.5885 4.0644 2.1818
5.6135 4.3998 2.2546
5.4452 4.5934 2.2545
5.2700 4.7805 2.2542
5.0885 4.9611 2.2538
4.9010 5.1351 2.2535
4.7078 5.3022 2.2532
4.5090 5.4623 2.2528
4.3050 5.6152 2.2524
4.0960 5.7607 2.2521
3.8822 5.8988 2.2517
3.6640 6.0292 2.2513
3.4415 6.1518 2.2509
3.2151 6.2665 2.2505
2.9850 6.3733 2.2501
2.7516 6.4719 2.2497
2.5190 6.5727 2.2528
2.3450 6.8471 2.3175
0.8890 2.9368 0.9829
0.7827 2.9672 0.9833
0.6754 2.9937 0.9837
0.5672 3.0163 0.9840
0.4582 3.0350 0.9843
0.3486 3.0498 0.9845
0.2385 3.0606 0.9846
0.1281 3.0674 0.9847
0.0176 3.0702 0.9848
-0.0930 3.0690 0.9848
-0.2035 3.0638 0.9847
-0.3138 3.0547 0.9845
-0.4236 3.0415 0.9844
-0.5329 3.0244 0.9841
-0.6415 3.0033 0.9838
-0.7493 2.9784 0.9835
-0.8561 2.9495 0.9830
-2.3508 7.1295 2.4017
-2.6074 7.0441 2.4017
-2.8611 6.9498 2.4017
-3.1115 6.8466 2.4017
-3.3583 6.7348 2.4017
-3.6012 6.6144 2.4017
-3.8400 6.4856 2.4017
-4.0744 6.3484 2.4017
-4.3040 6.2031 2.4017
-4.5286 6.0497 2.4017
-4.7480 5.8885 2.4017
-4.9617 5.7195 2.4017
-5.1697 5.5431 2.4017
-5.3716 5.3593 2.4017
-5.5671 5.1687 2.4017
-5.7561 4.9705 2.4017
-5.9382 4.7660 2.4017
-6.1132 4.5549 2.4017
-6.2809 4.3376 2.4017
-6.4410 4.1142 2.4017
-6.5934 3.8851 2.4017
-6.7378 3.6505 2.4017
-6.8741 3.4106 2.4017
-7.0019 3.1658 2.4017
-7.1212 2.9163 2.4017
-7.2317 2.6624 2.4017
-7.3333 2.4044 2.4017
-7.4258 2.1426 2.4017
-7.5091 1.8773 2.4017
-7.5830 1.6089 2.4017
-7.6474 1.3376 2.4017
-7.7021 1.0638 2.4017
-7.7471 0.7879 2.4017
-7.7823 0.5101 2.4017
-7.8075 0.2309 2.4017
-7.8227 -0.0495 2.4017
-7.8279 -0.3306 2.4017
-7.8230 -0.6121 2.4017
-7.8079 -0.8936 2.4017
-7.7826 -1.1749 2.4017
-7.7472 -1.4553 2.4017
-7.7016 -1.7347 2.4017
-7.6458 -2.0127 2.4017
-7.5799 -2.2888 2.4017
-7.5039 -2.5627 2.4017
-7.4179 -2.8340 2.4017
-7.3220 -3.1024 2.4017
-7.2162 -3.3674 2.4017
-7.1007 -3.6287 2.4017
-6.9755 -3.8859 2.4017
-6.8409 -4.1387 2.4017
-6.6969 -4.3867 2.4017
-6.5438 -4.6295 2.4017
-6.3817 -4.8667 2.4017
-6.2107 -5.0982 2.4017
-6.0312 -5.3233 2.4017
-5.8433 -5.5420 2.4017
-5.6473 -5.7538 2.4017
-5.4434 -5.9583 2.4017
-5.2320 -6.1554 2.4017
-5.0131 -6.3447 2.4017
-4.7872 -6.5259 2.4017
-4.5546 -6.6988 2.4017
-4.3156 -6.8630 2.4017
-4.0704 -7.0183 2.4017
-3.8195 -7.1645 2.4017
-3.5632 -7.3014 2.4017
-3.3018 -7.4287 2.4017
-3.0357 -7.5463 2.4017
-2.7653 -7.6539 2.4017
-2.4909 -7.7514 2.4017
-2.2130 -7.8386 2.4017
-1.9319 -7.9155 2.4017
-1.6482 -7.9818 2.4017
-1.3620 -8.0375 2.4017
-1.0739 -8.0825 2.4017
-0.7843 -8.1167 2.4017
-0.4936 -8.1400 2.4017
-0.2023 -8.1525 2.4017
0.0894 -8.1541 2.4017
0.3808 -8.1448 2.4017
0.6717 -8.1247 2.4017
0.9616 -8.0937 2.4017
1.2500 -8.0519 2.4017
1.5366 -7.9993 2.4017
1.8210 -7.9362 2.4017
2.1027 -7.8625 2.4017
2.3814 -7.7784 2.4017
2.6566 -7.6841 2.4017
2.9279 -7.5796 2.4017
3.1951 -7.4651 2.4017
3.4576 -7.3409 2.4017
3.7152 -7.2071 2.4017
3.9674 -7.0639 2.4017
4.2140 -6.9115 2.4017
4.4546 -6.7503 2.4017
4.6889 -6.5804 2.4017
4.9165 -6.4021 2.4017
5.1371 -6.2156 2.4017
5.3506 -6.0213 2.4017
5.5565 -5.8195 2.4017
5.7546 -5.6104 2.4017
5.9448 -5.3945 2.4017
6.1266 -5.1719 2.4017
6.3000 -4.9430 2.4017
6.4646 -4.7082 2.4017
6.6204 -4.4678 2.4017
6.7671 -4.2221 2.4017
6.4664 -3.7196 2.2493
6.5863 -3.4807 2.2493
6.6974 -3.2379 2.2493
6.7993 -2.9915 2.2493
6.8921 -2.7420 2.2493
6.9784 -2.4905 2.2501
7.0533 -2.2356 2.2503
7.1188 -1.9785 2.2505
5.3207 -1.2751 1.6690
7.2215 -1.4590 2.2508
7.2587 -1.1973 2.2510
7.2867 -0.9349 2.2513
7.3012 -0.6716 2.2503
7.3081 -0.4085 2.2499
7.3095 -0.1458 2.2507
7.3028 0.1165 2.2519
7.2867 0.3781 2.2531
7.2612 0.6389 2.2543
7.2236 0.8979 2.2546
7.1760 1.1549 2.2546
7.1193 1.4098 2.2546
7.0537 1.6622 2.2546
6.9793 1.9117 2.2546
6.8962 2.1581 2.2546
6.8045 2.4011 2.2546
6.7045 2.6403 2.2546
6.5962 2.8756 2.2546
6.4799 3.1067 2.2546
6.3556 3.3332 2.2546
6.2237 3.5550 2.2546
6.0841 3.7717 2.2546
5.5921 3.7516 2.1235
5.5884 4.0480 2.1786
5.6223 4.3893 2.2546
5.4543 4.5833 2.2545
5.2794 4.7707 2.2542
5.0983 4.9517 2.2538
4.9111 5.1260 2.2535
4.7182 5.2935 2.2532
4.5197 5.4539 2.2528
4.3160 5.6072 2.2525
4.1072 5.7532 2.2521
3.8937 5.8916 2.2517
3.6757 6.0224 2.2513
3.4535 6.1455 2.2509
3.2272 6.2606 2.2505
2.9974 6.3678 2.2501
2.7641 6.4668 2.2497
2.5277 6.5576 2.2493
2.3471 6.8104 2.3065
0.8946 2.9351 0.9829
0.7884 2.9657 0.9833
0.6811 2.9924 0.9837
0.5730 3.0152 0.9840
0.4640 3.0341 0.9843
0.3544 3.0491 0.9845
0.2444 3.0601 0.9846
0.1340 3.0671 0.9847
0.0235 3.0701 0.9848
-0.0871 3.0692 0.9848
-0.1977 3.0642 0.9847
-0.3079 3.0552 0.9846
-0.4178 3.0423 0.9844
-0.5271 3.0254 0.9841
-0.6358 3.0046 0.9838
-0.7436 2.9798 0.9835
-0.8504 2.9512 0.9831
-6.7567 -2.8954 2.4017
-6.6573 -3.1397 2.4017
-6.5490 -3.3805 2.4017
-6.4318 -3.6174 2.4017
-6.3059 -3.8501 2.4017
-6.1715 -4.0783 2.4017
-6.0286 -4.3017 2.4017
-5.8775 -4.5199 2.4017
-5.7183 -4.7326 2.4017
-5.5512 -4.9396 2.4017
-5.3765 -5.1404 2.4017
-5.1943 -5.3348 2.4017
-5.0050 -5.5226 2.4017
-4.8087 -5.7034 2.4017
-4.6056 -5.8770 2.4017
-4.3962 -6.0430 2.4017
-4.1806 -6.2014 2.4017
-3.9591 -6.3517 2.4017
-3.7321 -6.4938 2.4017
-3.4998 -6.6275 2.4017
-3.2626 -6.7526 2.4017
-3.0208 -6.8688 2.4017
-2.7747 -6.9760 2.4017
-2.5247 -7.0741 2.4017
-2.2711 -7.1628 2.4017
-2.0143 -7.2421 2.4017
-1.7547 -7.3118 2.4017
-1.4926 -7.3718 2.4017
-1.2284 -7.4220 2.4017
-0.9624 -7.4623 2.4017
-0.6951 -7.4928 2.4017
-0.4269 -7.5132 2.4017
-0.1581 -7.5237 2.4017
0.1110 -7.5241 2.4017
0.3798 -7.5145 2.4017
0.6481 -7.4950 2.4017
0.9154 -7.4654 2.4017
1.1814 -7.4260 2.4017
1.4456 -7.3766 2.4017
1.7078 -7.3176 2.4017
1.9675 -7.2488 2.4017
2.2244 -7.1704 2.4017
2.4780 -7.0826 2.4017
2.7281 -6.9855 2.4017
2.9743 -6.8793 2.4017
3.2163 -6.7641 2.4017
3.4537 -6.6400 2.4017
3.6861 -6.5073 2.4017
3.9134 -6.3662 2.4017
4.1351 -6.2168 2.4017
4.3510 -6.0596 2.4017
4.5607 -5.8946 2.4017
4.7641 -5.7221 2.4017
4.9608 -5.5424 2.4017
5.1506 -5.3557 2.4017
5.3332 -5.1624 2.4017
5.5084 -4.9627 2.4017
5.6761 -4.7569 2.4017
5.8359 -4.5453 2.4017
5.9876 -4.3282 2.4017
6.1312 -4.1060 2.4017
5.8688 -3.6327 2.2493
5.9874 -3.4158 2.2493
6.0980 -3.1950 2.2493
6.2003 -2.9705 2.2493
6.2942 -2.7428 2.2493
6.3798 -2.5120 2.2493
6.4568 -2.2786 2.2493
6.5252 -2.0429 2.2493
6.5850 -1.8051 2.2493
5.3256 -1.2565 1.8051
6.6784 -1.3248 2.2493
6.7121 -1.0829 2.2493
6.7369 -0.8402 2.2493
6.7543 -0.5973 2.2497
6.7615 -0.3540 2.2496
6.7630 -0.1111 2.2506
6.7563 0.1316 2.2517
6.7409 0.3737 2.2528
6.7169 0.6148 2.2539
6.6830 0.8546 2.2546
6.6387 1.0925 2.2546
6.5860 1.3284 2.2546
6.5250 1.5620 2.2546
6.4558 1.7929 2.2546
6.3787 2.0210 2.2546
6.2935 2.2459 2.2546
6.2006 2.4674 2.2546
6.1001 2.6852 2.2546
5.9921 2.8991 2.2546
5.8767 3.1088 2.2546
5.7541 3.3141 2.2546
5.6246 3.5148 2.2546
5.4880 3.7104 2.2545
5.3444 3.9006 2.2543
5.1943 4.0854 2.2540
5.0380 4.2646 2.2537
4.8757 4.4381 2.2535
4.7076 4.6055 2.2532
4.5339 4.7668 2.2528
4.3548 4.9217 2.2525
4.1706 5.0702 2.2522
3.9814 5.2119 2.2519
3.7876 5.3469 2.2515
3.5894 5.4749 2.2512
3.3870 5.5958 2.2508
3.1807 5.7094 2.2504
2.9707 5.8158 2.2501
2.7573 5.9147 2.2497
2.5407 6.0060 2.2493
2.3523 6.1713 2.2790
0.9142 2.6855 0.9793
0.8170 2.7169 0.9798
0.7186 2.7448 0.9802
0.6193 2.7691 0.9805
0.5192 2.7898 0.9808
0.4183 2.8069 0.9810
0.3170 2.8203 0.9812
0.2151 2.8301 0.9814
0.1130 2.8362 0.9815
0.0108 2.8386 0.9815
-0.0915 2.8373 0.9815
-0.1937 2.8323 0.9814
-0.2956 2.8236 0.9813
-0.3972 2.8112 0.9811
-0.4982 2.7952 0.9809
-0.5986 2.7755 0.9806
-0.6983 2.7522 0.9802
-0.7970 2.7254 0.9799
-0.8947 2.6950 0.9794
-2.4316 6.5284 2.4017
-2.6667 6.4402 2.4017
-2.8987 6.3438 2.4017
-3.1273 6.2394 2.4017
