ply
format ascii 1.0
element vertex 2168
property float32 x
property float32 y
property float32 z
end_header
-7.8657 5.6484 2.3990
-8.0688 5.3648 2.3990
-8.2622 5.0743 2.3990
-8.4458 4.7771 2.3990
9.2317 3.1094 2.2487
9.0975 3.4321 2.2490
8.9494 3.7482 2.2486
8.7880 4.0570 2.2477
8.6246 4.3634 2.2490
5.4882 3.0286 1.4615
5.4957 3.2954 1.4971
8.0671 5.2398 2.2519
7.8579 5.5147 2.2519
7.6394 5.7814 2.2519
7.4120 6.0397 2.2519
7.1759 6.2892 2.2519
6.9315 6.5296 2.2519
6.6793 6.7608 2.2519
6.4194 6.9824 2.2519
6.1524 7.1943 2.2519
5.8786 7.3962 2.2519
5.5981 7.5876 2.2518
5.3105 7.7672 2.2513
5.0174 7.9362 2.2508
4.7192 8.0945 2.2502
4.4161 8.2419 2.2497
4.1087 8.3782 2.2491
3.7973 8.5035 2.2486
3.4824 8.6176 2.2480
3.1642 8.7204 2.2475
2.8433 8.8118 2.2469
2.5202 8.8929 2.2466
-2.1904 9.4551 2.3990
-2.5274 9.3630 2.3990
-2.8608 9.2596 2.3990
-3.1903 9.1448 2.3990
-3.5155 9.0190 2.3990
-3.8360 8.8823 2.3990
-4.1515 8.7347 2.3990
-4.4617 8.5765 2.3990
-4.7662 8.4079 2.3990
-5.0647 8.2290 2.3990
-5.3569 8.0401 2.3990
-5.6425 7.8414 2.3990
-5.9211 7.6331 2.3990
-6.1924 7.4154 2.3990
-6.4562 7.1886 2.3990
-6.7122 6.9528 2.3990
-6.9600 6.7085 2.3990
-7.1994 6.4557 2.3990
-7.4302 6.1948 2.3990
-7.6520 5.9261 2.3990
-7.8646 5.6499 2.3990
-8.0678 5.3663 2.3990
-8.2612 5.0758 2.3990
-8.4448 4.7787 2.3990
-8.8732 -1.8473 2.3990
-8.8158 -2.1686 2.3990
-8.7469 -2.4883 2.3990
-8.6668 -2.8058 2.3990
-8.5753 -3.1208 2.3990
-8.4726 -3.4329 2.3990
-8.3587 -3.7417 2.3990
-8.2338 -4.0468 2.3990
-8.0979 -4.3478 2.3990
-7.9511 -4.6443 2.3990
-7.7935 -4.9358 2.3990
-7.6254 -5.2221 2.3990
-7.4469 -5.5026 2.3990
-7.2580 -5.7771 2.3990
-7.0592 -6.0451 2.3990
-6.8505 -6.3063 2.3990
-6.6321 -6.5602 2.3990
-6.4043 -6.8065 2.3990
-6.1674 -7.0448 2.3990
-5.9216 -7.2748 2.3990
-5.6671 -7.4962 2.3990
-5.4046 -7.7083 2.3990
-5.1339 -7.9112 2.3990
-4.8553 -8.1047 2.3990
-4.5697 -8.2879 2.3990
-4.2771 -8.4609 2.3990
-3.9778 -8.6233 2.3990
-3.6723 -8.7749 2.3990
-3.3610 -8.9153 2.3990
-3.0443 -9.0444 2.3990
-2.7225 -9.1620 2.3990
-2.3962 -9.2677 2.3990
-2.0657 -9.3614 2.3990
-1.7316 -9.4429 2.3990
-1.3942 -9.5121 2.3990
-1.0541 -9.5688 2.3990
-0.7117 -9.6129 2.3990
-0.3675 -9.6442 2.3990
-0.0220 -9.6627 2.3990
0.3244 -9.6683 2.3990
0.6710 -9.6610 2.3990
1.0175 -9.6407 2.3990
1.3632 -9.6074 2.3990
8.8322 -4.0253 2.3990
8.9621 -3.7030 2.3990
9.0797 -3.3764 2.3990
9.1850 -3.0459 2.3990
9.2777 -2.7121 2.3990
9.3578 -2.3754 2.3990
9.4252 -2.0363 2.3990
9.4799 -1.6953 2.3990
9.5219 -1.3529 2.3990
9.5511 -1.0097 2.3990
9.5675 -0.6660 2.3990
9.5711 -0.3224 2.3990
9.5621 0.0207 2.3990
9.5405 0.3627 2.3990
8.9281 0.6604 2.2530
8.8595 0.9755 2.2468
8.8052 1.2904 2.2470
8.7394 1.6026 2.2472
8.6625 1.9118 2.2475
8.5745 2.2175 2.2477
8.4755 2.5193 2.2480
8.3657 2.8168 2.2482
8.2453 3.1097 2.2484
8.1146 3.3976 2.2487
7.9734 3.6799 2.2488
7.8169 3.9537 2.2474
5.4887 3.0281 1.6112
5.4936 3.2933 1.6494
7.3148 4.7500 2.2501
7.1298 5.0025 2.2511
6.9351 5.2471 2.2519
6.7297 5.4825 2.2519
6.5165 5.7100 2.2519
6.2957 5.9293 2.2519
6.0676 6.1403 2.2519
5.8325 6.3426 2.2519
5.5906 6.5359 2.2518
5.3416 6.7191 2.2514
5.0867 6.8930 2.2509
4.8263 7.0575 2.2504
4.5607 7.2124 2.2500
4.2904 7.3575 2.2495
4.0156 7.4928 2.2490
3.7367 7.6181 2.2485
3.4541 7.7333 2.2480
3.1681 7.8383 2.2475
2.8791 7.9331 2.2470
2.5876 8.0180 2.2466
2.4499 8.6431 2.3990
0.8698 3.5509 0.9777
0.7416 3.5801 0.9791
0.6123 3.6045 0.9804
0.4823 3.6243 0.9817
0.3515 3.6393 0.9829
0.2204 3.6497 0.9841
0.0889 3.6552 0.9852
-0.0427 3.6560 0.9863
-0.1743 3.6520 0.9873
-0.3056 3.6433 0.9882
-0.4365 3.6298 0.9891
-0.5669 3.6116 0.9899
-0.6965 3.5887 0.9907
-0.8252 3.5611 0.9914
-2.3042 8.5336 2.3990
-2.6083 8.4397 2.3990
-2.9088 8.3355 2.3990
-3.2055 8.2211 2.3990
-3.4978 8.0967 2.3990
-3.7857 7.9623 2.3990
-4.0686 7.8183 2.3990
-4.3464 7.6646 2.3990
-4.6187 7.5016 2.3990
-4.8852 7.3294 2.3990
-5.1456 7.1482 2.3990
-5.3997 6.9582 2.3990
-5.6471 6.7595 2.3990
-5.8875 6.5526 2.3990
-6.1208 6.3374 2.3990
-6.3467 6.1144 2.3990
-6.5648 5.8837 2.3990
-6.7749 5.6456 2.3990
-6.9769 5.4003 2.3990
-7.1704 5.1481 2.3990
-7.3552 4.8893 2.3990
-7.5312 4.6241 2.3990
-7.6980 4.3529 2.3990
-7.8555 4.0760 2.3990
-8.0036 3.7935 2.3990
-8.1419 3.5060 2.3990
-8.2704 3.2135 2.3990
-8.3888 2.9166 2.3990
-8.4970 2.6154 2.3990
-8.5949 2.3104 2.3990
-8.6823 2.0019 2.3990
-8.7590 1.6902 2.3990
-8.8250 1.3756 2.3990
-8.8801 1.0585 2.3990
-8.9242 0.7394 2.3990
-8.9573 0.4185 2.3990
-8.9792 0.0961 2.3990
-8.9899 -0.2272 2.3990
-8.9893 -0.5511 2.3990
-8.9774 -0.8753 2.3990
-8.9542 -1.1994 2.3990
-8.9195 -1.5230 2.3990
-8.8735 -1.8456 2.3990
-8.8161 -2.1670 2.3990
-8.7473 -2.4866 2.3990
-8.6672 -2.8041 2.3990
-8.5758 -3.1192 2.3990
-8.4732 -3.4313 2.3990
-8.3594 -3.7401 2.3990
-8.2345 -4.0452 2.3990
-8.0986 -4.3462 2.3990
-7.9519 -4.6427 2.3990
-7.7944 -4.9343 2.3990
-7.6263 -5.2206 2.3990
-7.4477 -5.5013 2.3990
-7.2591 -5.7757 2.3990
-7.0602 -6.0437 2.3990
-6.8516 -6.3049 2.3990
-6.6333 -6.5589 2.3990
-6.4055 -6.8052 2.3990
-6.1686 -7.0436 2.3990
-5.9229 -7.2736 2.3990
-5.6686 -7.4949 2.3990
-5.4060 -7.7072 2.3990
-5.1353 -7.9102 2.3990
-4.8570 -8.1036 2.3990
-4.5712 -8.2870 2.3990
-4.2786 -8.4600 2.3990
-3.9794 -8.6224 2.3990
-3.6739 -8.7741 2.3990
-3.3627 -8.9146 2.3990
-3.0459 -9.0438 2.3990
-2.7242 -9.1614 2.3990
-2.3979 -9.2672 2.3990
-2.0675 -9.3609 2.3990
-1.7334 -9.4425 2.3990
-1.3960 -9.5118 2.3990
-1.0559 -9.5686 2.3990
-0.7135 -9.6127 2.3990
-0.3693 -9.6441 2.3990
-0.0238 -9.6626 2.3990
0.3225 -9.6683 2.3990
0.6692 -9.6611 2.3990
1.0156 -9.6408 2.3990
1.3614 -9.6076 2.3990
8.8315 -4.0270 2.3990
8.9615 -3.7047 2.3990
9.0791 -3.3781 2.3990
9.1844 -3.0477 2.3990
9.2772 -2.7139 2.3990
9.3574 -2.3772 2.3990
9.4249 -2.0381 2.3990
9.4797 -1.6971 2.3990
9.5217 -1.3548 2.3990
9.5510 -1.0115 2.3990
9.5674 -0.6678 2.3990
9.5712 -0.3242 2.3990
9.5622 0.0189 2.3990
9.5406 0.3608 2.3990
8.9186 0.6580 2.2506
8.8598 0.9739 2.2468
8.8055 1.2887 2.2470
8.7398 1.6010 2.2472
8.6630 1.9102 2.2475
8.5750 2.2159 2.2477
8.4761 2.5177 2.2480
8.3663 2.8153 2.2482
8.2460 3.1082 2.2484
8.1153 3.3961 2.2487
7.9742 3.6784 2.2488
7.8177 3.9523 2.2474
5.4895 3.0273 1.6113
5.4901 3.2898 1.6481
7.3158 4.7486 2.2501
7.1308 5.0012 2.2511
6.9361 5.2459 2.2519
6.7308 5.4813 2.2519
6.5176 5.7088 2.2519
6.2968 5.9282 2.2519
6.0688 6.1392 2.2519
5.8337 6.3416 2.2519
5.5919 6.5349 2.2518
5.3429 6.7182 2.2514
5.0880 6.8921 2.2509
4.8277 7.0567 2.2504
4.5622 7.2116 2.2500
4.2918 7.3568 2.2495
4.0170 7.4921 2.2490
3.7382 7.6174 2.2485
3.4556 7.7327 2.2480
3.1696 7.8378 2.2475
2.8806 7.9326 2.2470
2.5892 8.0176 2.2466
2.4515 8.6427 2.3990
0.8705 3.5508 0.9777
0.7423 3.5799 0.9790
0.6130 3.6044 0.9804
0.4829 3.6242 0.9817
0.3522 3.6393 0.9829
0.2211 3.6496 0.9841
0.0896 3.6552 0.9852
-0.0420 3.6560 0.9863
-0.1736 3.6521 0.9873
-0.3049 3.6434 0.9882
-0.4358 3.6299 0.9891
-0.5662 3.6117 0.9899
-0.6958 3.5888 0.9907
-0.8246 3.5613 0.9914
-2.3026 8.5341 2.3990
-2.6067 8.4402 2.3990
-2.9073 8.3361 2.3990
-3.2039 8.2217 2.3990
-3.4963 8.0973 2.3990
-3.7842 7.9631 2.3990
-4.0671 7.8191 2.3990
-4.3450 7.6655 2.3990
-4.6173 7.5025 2.3990
-4.8838 7.3303 2.3990
-5.1443 7.1492 2.3990
-5.3983 6.9592 2.3990
-5.6458 6.7606 2.3990
-5.8863 6.5537 2.3990
-6.1196 6.3386 2.3990
-6.3455 6.1156 2.3990
-6.5636 5.8849 2.3990
-6.7738 5.6468 2.3990
-6.9758 5.4016 2.3990
-7.1694 5.1494 2.3990
-7.3542 4.8907 2.3990
-7.5303 4.6256 2.3990
-7.6971 4.3544 2.3990
-7.8547 4.0774 2.3990
-8.0028 3.7950 2.3990
-8.1412 3.5075 2.3990
-8.2697 3.2151 2.3990
-8.3882 2.9182 2.3990
-8.4965 2.6170 2.3990
-8.5944 2.3120 2.3990
-8.6818 2.0035 2.3990
-8.7586 1.6918 2.3990
-8.8247 1.3773 2.3990
-8.8798 1.0602 2.3990
-8.9240 0.7411 2.3990
-8.9571 0.4201 2.3990
-8.9791 0.0979 2.3990
-8.9899 -0.2255 2.3990
-8.9894 -0.5494 2.3990
-8.9775 -0.8736 2.3990
-8.9543 -1.1977 2.3990
-8.9198 -1.5213 2.3990
-8.8738 -1.8439 2.3990
-8.8165 -2.1653 2.3990
-8.7477 -2.4849 2.3990
-8.6677 -2.8025 2.3990
-8.5763 -3.1175 2.3990
-8.4737 -3.4296 2.3990
-8.3600 -3.7385 2.3990
-8.2352 -4.0436 2.3990
-8.0993 -4.3446 2.3990
-7.9527 -4.6412 2.3990
-7.7952 -4.9328 2.3990
-7.6272 -5.2191 2.3990
-7.4488 -5.4997 2.3990
-7.2601 -5.7743 2.3990
-7.0613 -6.0423 2.3990
-6.8527 -6.3035 2.3990
-6.6344 -6.5575 2.3990
-6.4066 -6.8040 2.3990
-6.1698 -7.0424 2.3990
-5.9242 -7.2724 2.3990
-5.6700 -7.4937 2.3990
-5.4073 -7.7062 2.3990
-5.1367 -7.9093 2.3990
-4.8584 -8.1026 2.3990
-4.5729 -8.2859 2.3990
-4.2802 -8.4591 2.3990
-3.9810 -8.6216 2.3990
-3.6756 -8.7733 2.3990
-3.3643 -8.9139 2.3990
-3.0476 -9.0431 2.3990
-2.7259 -9.1608 2.3990
-2.3997 -9.2666 2.3990
-2.0692 -9.3605 2.3990
-1.7351 -9.4421 2.3990
-1.3978 -9.5115 2.3990
-1.0577 -9.5683 2.3990
-0.7153 -9.6125 2.3990
-0.3711 -9.6439 2.3990
-0.0256 -9.6626 2.3990
0.3207 -9.6683 2.3990
0.6674 -9.6611 2.3990
1.0138 -9.6410 2.3990
1.3596 -9.6078 2.3990
-8.1282 -1.6945 2.3990
-8.0745 -1.9887 2.3990
-8.0104 -2.2812 2.3990
-7.9359 -2.5717 2.3990
-7.8510 -2.8598 2.3990
-7.7559 -3.1452 2.3990
-7.6505 -3.4274 2.3990
-7.5351 -3.7062 2.3990
-7.4096 -3.9811 2.3990
-7.2742 -4.2518 2.3990
-7.1290 -4.5180 2.3990
-6.9741 -4.7792 2.3990
-6.8098 -5.0351 2.3990
-6.6361 -5.2854 2.3990
-6.4532 -5.5296 2.3990
-6.2615 -5.7676 2.3990
-6.0609 -5.9988 2.3990
-5.8518 -6.2230 2.3990
-5.6344 -6.4399 2.3990
-5.4090 -6.6491 2.3990
-5.1758 -6.8503 2.3990
-4.9351 -7.0432 2.3990
-4.6871 -7.2275 2.3990
-4.4323 -7.4030 2.3990
-4.1708 -7.5692 2.3990
-3.9030 -7.7261 2.3990
-3.6293 -7.8733 2.3990
-3.3500 -8.0106 2.3990
-3.0654 -8.1377 2.3990
-2.7760 -8.2544 2.3990
-2.4822 -8.3606 2.3990
-2.1842 -8.4560 2.3990
-1.8825 -8.5404 2.3990
-1.5775 -8.6138 2.3990
-1.2697 -8.6759 2.3990
-0.9595 -8.7266 2.3990
-0.6472 -8.7658 2.3990
-0.3334 -8.7935 2.3990
-0.0184 -8.8095 2.3990
0.2972 -8.8137 2.3990
0.6131 -8.8063 2.3990
0.9288 -8.7870 2.3990
1.2437 -8.7560 2.3990
1.5576 -8.7132 2.3990
1.8698 -8.6586 2.3990
2.1800 -8.5924 2.3990
2.4877 -8.5145 2.3990
2.7924 -8.4252 2.3990
3.0937 -8.3244 2.3990
3.3912 -8.2124 2.3990
3.6844 -8.0892 2.3990
3.9728 -7.9551 2.3990
4.2561 -7.8102 2.3990
4.5338 -7.6548 2.3990
4.8056 -7.4889 2.3990
5.0709 -7.3130 2.3990
5.3295 -7.1273 2.3990
5.5809 -6.9319 2.3990
5.8248 -6.7273 2.3990
6.0608 -6.5136 2.3990
6.2885 -6.2913 2.3990
6.5078 -6.0606 2.3990
6.7181 -5.8219 2.3990
6.9193 -5.5756 2.3990
7.1110 -5.3220 2.3990
7.2930 -5.0616 2.3990
7.4650 -4.7946 2.3990
7.6268 -4.5215 2.3990
7.7782 -4.2427 2.3990
7.9190 -3.9586 2.3990
8.0489 -3.6697 2.3990
8.1679 -3.3764 2.3990
8.2758 -3.0790 2.3990
8.3725 -2.7781 2.3990
8.4578 -2.4741 2.3990
8.5316 -2.1674 2.3990
8.5940 -1.8585 2.3990
8.6448 -1.5478 2.3990
8.6840 -1.2358 2.3990
8.7116 -0.9229 2.3990
8.7276 -0.6095 2.3990
8.7320 -0.2962 2.3990
8.7248 0.0167 2.3990
8.7062 0.3288 2.3990
8.1249 0.5989 2.2466
8.0867 0.8883 2.2467
8.0381 1.1758 2.2469
7.9791 1.4610 2.2471
7.9098 1.7434 2.2473
7.8303 2.0227 2.2475
7.7408 2.2985 2.2477
7.6415 2.5705 2.2479
7.5325 2.8384 2.2480
7.4140 3.1017 2.2482
7.2863 3.3602 2.2484
7.1495 3.6135 2.2486
5.4900 3.0267 1.7627
5.4880 3.2877 1.8019
6.6830 4.3368 2.2478
6.5147 4.5680 2.2488
6.3383 4.7926 2.2497
6.1540 5.0104 2.2506
5.9623 5.2212 2.2515
5.7621 5.4235 2.2519
5.5538 5.6170 2.2517
5.3386 5.8020 2.2514
5.1173 5.9790 2.2510
4.8902 6.1476 2.2506
4.6576 6.3078 2.2501
4.4200 6.4594 2.2497
4.1775 6.6022 2.2493
3.9305 6.7361 2.2488
3.6794 6.8610 2.2484
3.4245 6.9768 2.2479
3.1660 7.0833 2.2475
2.9044 7.1806 2.2470
2.6472 7.2883 2.2527
2.4734 7.6576 2.3411
0.9118 3.2139 0.9732
0.7956 3.2447 0.9745
0.6784 3.2713 0.9758
0.5603 3.2936 0.9770
0.4414 3.3117 0.9782
0.3219 3.3254 0.9793
0.2020 3.3348 0.9804
0.0819 3.3398 0.9814
-0.0384 3.3406 0.9824
-0.1587 3.3369 0.9833
-0.2787 3.3289 0.9842
-0.3983 3.3166 0.9850
-0.5175 3.2999 0.9857
-0.6360 3.2790 0.9864
-0.7536 3.2538 0.9871
-0.8702 3.2243 0.9876
-2.3930 7.7459 2.3990
-2.6690 7.6506 2.3990
-2.9415 7.5459 2.3990
-3.2100 7.4319 2.3990
-3.4744 7.3088 2.3990
-3.7343 7.1767 2.3990
-3.9894 7.0357 2.3990
-4.2395 6.8862 2.3990
-4.4842 6.7281 2.3990
-4.7234 6.5617 2.3990
-4.9567 6.3873 2.3990
-5.1838 6.2049 2.3990
-5.4046 6.0147 2.3990
-5.6187 5.8171 2.3990
-5.8260 5.6122 2.3990
-6.0261 5.4003 2.3990
-6.2189 5.1815 2.3990
-6.4041 4.9561 2.3990
-6.5815 4.7244 2.3990
-6.7509 4.4866 2.3990
-6.9121 4.2430 2.3990
-7.0648 3.9938 2.3990
-7.2091 3.7393 2.3990
-7.3445 3.4799 2.3990
-7.4710 3.2157 2.3990
-7.5884 2.9471 2.3990
-7.6965 2.6744 2.3990
-7.7952 2.3979 2.3990
-7.8843 2.1178 2.3990
-7.9638 1.8346 2.3990
-8.0335 1.5485 2.3990
-8.0932 1.2598 2.3990
-8.1430 0.9689 2.3990
-8.1826 0.6761 2.3990
-8.2120 0.3817 2.3990
-8.2312 0.0862 2.3990
-8.2401 -0.2103 2.3990
-8.2386 -0.5072 2.3990
-8.2267 -0.8043 2.3990
-8.2044 -1.1012 2.3990
-8.1717 -1.3976 2.3990
-8.1285 -1.6930 2.3990
-8.0748 -1.9871 2.3990
-8.0107 -2.2797 2.3990
-7.9363 -2.5702 2.3990
-7.8515 -2.8583 2.3990
-7.7564 -3.1437 2.3990
-7.6511 -3.4259 2.3990
-7.5357 -3.7047 2.3990
-7.4103 -3.9797 2.3990
-7.2749 -4.2504 2.3990
-7.1298 -4.5166 2.3990
-6.9750 -4.7778 2.3990
-6.8107 -5.0338 2.3990
-6.6370 -5.2841 2.3990
-6.4542 -5.5284 2.3990
-6.2625 -5.7663 2.3990
-6.0620 -5.9976 2.3990
-5.8529 -6.2218 2.3990
-5.6356 -6.4387 2.3990
-5.4102 -6.6480 2.3990
-5.1771 -6.8492 2.3990
-4.9364 -7.0422 2.3990
-4.6884 -7.2266 2.3990
-4.4336 -7.4020 2.3990
-4.1722 -7.5684 2.3990
-3.9044 -7.7253 2.3990
-3.6308 -7.8726 2.3990
-3.3515 -8.0099 2.3990
-3.0670 -8.1370 2.3990
-2.7776 -8.2538 2.3990
-2.4837 -8.3600 2.3990
-2.1858 -8.4555 2.3990
-1.8841 -8.5400 2.3990
-1.5792 -8.6134 2.3990
-1.2714 -8.6756 2.3990
-0.9611 -8.7264 2.3990
-0.6489 -8.7657 2.3990
-0.3350 -8.7934 2.3990
-0.0201 -8.8094 2.3990
0.2956 -8.8138 2.3990
0.6114 -8.8063 2.3990
0.9271 -8.7871 2.3990
1.2421 -8.7562 2.3990
1.5559 -8.7134 2.3990
1.8682 -8.6589 2.3990
2.1784 -8.5928 2.3990
2.4861 -8.5150 2.3990
2.7908 -8.4257 2.3990
3.0922 -8.3250 2.3990
3.3896 -8.2130 2.3990
3.6828 -8.0899 2.3990
3.9713 -7.9559 2.3990
4.2546 -7.8110 2.3990
4.5324 -7.6556 2.3990
4.8042 -7.4899 2.3990
5.0695 -7.3140 2.3990
5.3281 -7.1283 2.3990
5.5796 -6.9329 2.3990
5.8235 -6.7284 2.3990
6.0595 -6.5148 2.3990
6.2874 -6.2925 2.3990
6.5066 -6.0618 2.3990
6.7170 -5.8232 2.3990
6.9182 -5.5769 2.3990
7.1100 -5.3234 2.3990
7.2921 -5.0629 2.3990
7.4641 -4.7960 2.3990
7.6260 -4.5229 2.3990
7.7774 -4.2442 2.3990
7.9183 -3.9601 2.3990
8.0483 -3.6713 2.3990
8.1673 -3.3779 2.3990
8.2753 -3.0806 2.3990
8.3720 -2.7797 2.3990
8.4573 -2.4757 2.3990
8.5313 -2.1690 2.3990
8.5937 -1.8601 2.3990
8.6445 -1.5494 2.3990
8.6838 -1.2374 2.3990
8.7115 -0.9245 2.3990
8.7275 -0.6112 2.3990
8.7320 -0.2978 2.3990
8.7249 0.0151 2.3990
8.7063 0.3271 2.3990
8.1251 0.5974 2.2466
8.0869 0.8868 2.2467
8.0384 1.1743 2.2469
7.9794 1.4594 2.2471
7.9102 1.7419 2.2473
7.8308 2.0212 2.2475
7.7413 2.2971 2.2477
7.6420 2.5691 2.2479
7.5331 2.8369 2.2480
7.4147 3.1003 2.2482
7.2870 3.3588 2.2484
7.1502 3.6122 2.2486
5.4909 3.0259 1.7628
5.4844 3.2841 1.8005
6.6839 4.3356 2.2478
6.5156 4.5668 2.2488
6.3392 4.7914 2.2497
6.1550 5.0093 2.2506
5.9633 5.2201 2.2515
5.7632 5.4225 2.2519
5.5549 5.6160 2.2517
5.3397 5.8011 2.2514
5.1184 5.9780 2.2510
4.8914 6.1467 2.2506
4.6589 6.3070 2.2501
4.4212 6.4586 2.2497
4.1788 6.6014 2.2493
3.9319 6.7354 2.2488
3.6808 6.8604 2.2484
3.4258 6.9762 2.2479
3.1674 7.0828 2.2475
2.9058 7.1801 2.2470
2.6478 7.2857 2.2520
2.4736 7.6532 2.3399
0.9124 3.2138 0.9732
0.7963 3.2446 0.9745
0.6790 3.2712 0.9758
0.5609 3.2935 0.9770
0.4420 3.3116 0.9782
0.3225 3.3253 0.9793
0.2027 3.3347 0.9804
0.0825 3.3398 0.9814
-0.0378 3.3406 0.9824
-0.1580 3.3369 0.9833
-0.2780 3.3290 0.9842
-0.3977 3.3167 0.9850
-0.5169 3.3000 0.9857
-0.6353 3.2791 0.9864
-0.7530 3.2539 0.9871
-0.8696 3.2245 0.9876
-2.3916 7.7464 2.3990
-2.6676 7.6511 2.3990
-2.9400 7.5464 2.3990
-3.2086 7.4325 2.3990
-3.4730 7.3094 2.3990
-3.7329 7.1774 2.3990
-3.9881 7.0365 2.3990
-4.2382 6.8870 2.3990
-4.4830 6.7290 2.3990
-4.7221 6.5626 2.3990
-4.9555 6.3882 2.3990
-5.1826 6.2058 2.3990
-5.4034 6.0158 2.3990
-5.6176 5.8182 2.3990
-5.8249 5.6133 2.3990
-6.0251 5.4014 2.3990
-6.2179 5.1826 2.3990
-6.4031 4.9573 2.3990
-6.5806 4.7256 2.3990
-6.7500 4.4879 2.3990
-6.9113 4.2443 2.3990
-7.0641 3.9951 2.3990
-7.2084 3.7407 2.3990
-7.3438 3.4813 2.3990
-7.4704 3.2171 2.3990
-7.5878 2.9486 2.3990
-7.6959 2.6759 2.3990
-7.7947 2.3993 2.3990
-7.8839 2.1193 2.3990
-7.9634 1.8361 2.3990
-8.0331 1.5500 2.3990
-8.0929 1.2613 2.3990
-8.1427 0.9704 2.3990
-8.1824 0.6776 2.3990
-8.2119 0.3833 2.3990
-8.2312 0.0877 2.3990
-8.2401 -0.2087 2.3990
-8.2387 -0.5056 2.3990
-8.2268 -0.8027 2.3990
-8.2046 -1.0996 2.3990
-8.1719 -1.3960 2.3990
-8.1287 -1.6914 2.3990
-8.0751 -1.9856 2.3990
-8.0111 -2.2781 2.3990
-7.9367 -2.5686 2.3990
-7.8520 -2.8568 2.3990
-7.7569 -3.1422 2.3990
-7.6517 -3.4245 2.3990
-7.5363 -3.7033 2.3990
-7.4109 -3.9782 2.3990
-7.2756 -4.2490 2.3990
-7.1305 -4.5152 2.3990
-6.9758 -4.7765 2.3990
-6.8115 -5.0324 2.3990
-6.6380 -5.2828 2.3990
-6.4552 -5.5271 2.3990
-6.2635 -5.7651 2.3990
-6.0631 -5.9964 2.3990
-5.8541 -6.2207 2.3990
-5.6368 -6.4376 2.3990
-5.4114 -6.6469 2.3990
-5.1783 -6.8482 2.3990
-4.9377 -7.0412 2.3990
-4.6898 -7.2256 2.3990
-4.4350 -7.4012 2.3990
-4.1736 -7.5675 2.3990
-3.9058 -7.7245 2.3990
-3.6322 -7.8718 2.3990
-3.3530 -8.0092 2.3990
-3.0685 -8.1364 2.3990
-2.7791 -8.2532 2.3990
-2.4853 -8.3595 2.3990
-2.1873 -8.4550 2.3990
-1.8857 -8.5396 2.3990
-1.5808 -8.6131 2.3990
-1.2730 -8.6753 2.3990
-0.9627 -8.7261 2.3990
-0.6505 -8.7655 2.3990
-0.3367 -8.7932 2.3990
-0.0217 -8.8094 2.3990
0.2939 -8.8138 2.3990
0.6098 -8.8064 2.3990
0.9254 -8.7873 2.3990
1.2404 -8.7564 2.3990
1.5543 -8.7137 2.3990
1.8665 -8.6592 2.3990
2.1767 -8.5931 2.3990
2.4845 -8.5154 2.3990
2.7892 -8.4262 2.3990
3.0906 -8.3256 2.3990
3.3881 -8.2136 2.3990
3.6813 -8.0906 2.3990
3.9698 -7.9566 2.3990
4.2532 -7.8118 2.3990
4.5309 -7.6565 2.3990
4.8027 -7.4907 2.3990
5.0682 -7.3149 2.3990
5.3268 -7.1293 2.3990
5.5783 -6.9340 2.3990
5.8223 -6.7295 2.3990
6.0583 -6.5159 2.3990
6.2862 -6.2937 2.3990
6.5055 -6.0631 2.3990
6.7159 -5.8245 2.3990
6.9172 -5.5783 2.3990
7.1090 -5.3247 2.3990
7.2911 -5.0644 2.3990
-7.4909 -1.5639 2.3990
-7.4406 -1.8348 2.3990
-7.3806 -2.1041 2.3990
-7.3111 -2.3716 2.3990
-7.2321 -2.6368 2.3990
-7.1436 -2.8993 2.3990
-7.0457 -3.1590 2.3990
-6.9385 -3.4154 2.3990
-6.8220 -3.6681 2.3990
-6.6965 -3.9169 2.3990
-6.5620 -4.1615 2.3990
-6.4186 -4.4014 2.3990
-6.2665 -4.6364 2.3990
-6.1059 -4.8662 2.3990
-5.9369 -5.0903 2.3990
-5.7596 -5.3086 2.3990
-5.5744 -5.5206 2.3990
-5.3814 -5.7262 2.3990
-5.1807 -5.9249 2.3990
-4.9728 -6.1165 2.3990
-4.7577 -6.3008 2.3990
-4.5358 -6.4774 2.3990
-4.3073 -6.6460 2.3990
-4.0725 -6.8065 2.3990
-3.8317 -6.9585 2.3990
-3.5852 -7.1018 2.3990
-3.3333 -7.2362 2.3990
-3.0763 -7.3615 2.3990
-2.8145 -7.4774 2.3990
-2.5484 -7.5838 2.3990
-2.2782 -7.6805 2.3990
-2.0043 -7.7673 2.3990
-1.7271 -7.8440 2.3990
-1.4469 -7.9106 2.3990
-1.1642 -7.9668 2.3990
-0.8793 -8.0126 2.3990
-0.5926 -8.0479 2.3990
-0.3045 -8.0726 2.3990
-0.0154 -8.0866 2.3990
0.2743 -8.0899 2.3990
0.5641 -8.0824 2.3990
0.8536 -8.0641 2.3990
1.1426 -8.0351 2.3990
1.4304 -7.9953 2.3990
1.7167 -7.9448 2.3990
2.0012 -7.8836 2.3990
2.2833 -7.8118 2.3990
2.5627 -7.7295 2.3990
2.8389 -7.6367 2.3990
3.1116 -7.5337 2.3990
3.3804 -7.4205 2.3990
3.6448 -7.2973 2.3990
3.9045 -7.1643 2.3990
4.1591 -7.0216 2.3990
4.4083 -6.8695 2.3990
4.6515 -6.7081 2.3990
4.8886 -6.5377 2.3990
5.1192 -6.3585 2.3990
5.3429 -6.1710 2.3990
5.5593 -5.9751 2.3990
5.7683 -5.7713 2.3990
5.9695 -5.5600 2.3990
6.1625 -5.3412 2.3990
6.3472 -5.1154 2.3990
6.5233 -4.8830 2.3990
6.6905 -4.6443 2.3990
6.8485 -4.3999 2.3990
6.9973 -4.1494 2.3990
7.1366 -3.8939 2.3990
7.2661 -3.6335 2.3990
7.3858 -3.3687 2.3990
7.4955 -3.0998 2.3990
7.5950 -2.8271 2.3990
7.6843 -2.5512 2.3990
7.7632 -2.2724 2.3990
7.8316 -1.9912 2.3990
7.8895 -1.7078 2.3990
7.9368 -1.4228 2.3990
7.9736 -1.1364 2.3990
7.9997 -0.8493 2.3990
8.0152 -0.5616 2.3990
8.0200 -0.2739 2.3990
8.0143 0.0134 2.3990
7.9980 0.3000 2.3990
7.4649 0.5483 2.2466
7.4304 0.8142 2.2466
7.3866 1.0785 2.2468
7.3332 1.3406 2.2470
7.2703 1.6003 2.2472
7.1981 1.8572 2.2474
7.1167 2.1109 2.2475
7.0262 2.3613 2.2477
6.9227 2.6062 2.2466
6.8142 2.8483 2.2466
6.6971 3.0860 2.2466
6.5716 3.3189 2.2466
5.4914 3.0253 1.9162
5.4822 3.2820 1.9560
6.1474 3.9866 2.2466
5.9908 4.1979 2.2466
5.8269 4.4031 2.2466
5.6560 4.6020 2.2466
5.4784 4.7945 2.2466
5.2943 4.9801 2.2466
5.1139 5.1689 2.2510
4.9165 5.3400 2.2506
4.7133 5.5036 2.2502
4.5048 5.6597 2.2499
4.2913 5.8080 2.2495
4.0729 5.9484 2.2491
3.8500 6.0808 2.2487
3.6230 6.2050 2.2483
3.3920 6.3209 2.2479
3.1575 6.4284 2.2475
2.9197 6.5274 2.2470
2.6789 6.6178 2.2466
2.4782 6.8174 2.2856
2.3389 7.2348 2.3990
0.8393 2.9557 0.9706
0.7325 2.9840 0.9718
0.6246 3.0084 0.9730
0.5159 3.0289 0.9741
0.4066 3.0455 0.9752
0.2967 3.0581 0.9762
0.1864 3.0667 0.9772
0.0759 3.0713 0.9782
-0.0348 3.0720 0.9791
-0.1454 3.0686 0.9799
-0.2558 3.0612 0.9807
-0.3658 3.0499 0.9815
-0.4754 3.0346 0.9822
-0.5844 3.0153 0.9828
-0.6926 2.9921 0.9834
-0.7999 2.9650 0.9839
-2.2082 7.1503 2.3990
-2.4631 7.0625 2.3990
-2.7148 6.9661 2.3990
-2.9628 6.8610 2.3990
-3.2070 6.7475 2.3990
-3.4471 6.6256 2.3990
-3.6828 6.4956 2.3990
-3.9138 6.3576 2.3990
-4.1399 6.2117 2.3990
-4.3607 6.0580 2.3990
-4.5762 5.8969 2.3990
-4.7860 5.7284 2.3990
-4.9898 5.5528 2.3990
-5.1875 5.3703 2.3990
-5.3788 5.1809 2.3990
-5.5635 4.9851 2.3990
-5.7414 4.7829 2.3990
-5.9122 4.5747 2.3990
-6.0758 4.3606 2.3990
-6.2320 4.1408 2.3990
-6.3806 3.9158 2.3990
-6.5214 3.6855 2.3990
-6.6542 3.4504 2.3990
-6.7789 3.2107 2.3990
-6.8953 2.9667 2.3990
-7.0032 2.7186 2.3990
-7.1026 2.4667 2.3990
-7.1932 2.2113 2.3990
-7.2749 1.9527 2.3990
-7.3477 1.6911 2.3990
-7.4114 1.4270 2.3990
-7.4660 1.1605 2.3990
-7.5112 0.8920 2.3990
-7.5471 0.6218 2.3990
-7.5736 0.3502 2.3990
-7.5906 0.0776 2.3990
-7.5980 -0.1958 2.3990
-7.5959 -0.4696 2.3990
-7.5842 -0.7435 2.3990
-7.5628 -1.0172 2.3990
-7.5318 -1.2903 2.3990
-7.4911 -1.5624 2.3990
-7.4409 -1.8334 2.3990
-7.3810 -2.1027 2.3990
-7.3115 -2.3702 2.3990
-7.2325 -2.6354 2.3990
-7.1441 -2.8980 2.3990
-7.0462 -3.1576 2.3990
-6.9391 -3.4140 2.3990
-6.8227 -3.6668 2.3990
-6.6972 -3.9156 2.3990
-6.5627 -4.1602 2.3990
-6.4194 -4.4002 2.3990
-6.2674 -4.6352 2.3990
-6.1068 -4.8650 2.3990
-5.9378 -5.0892 2.3990
-5.7606 -5.3074 2.3990
-5.5754 -5.5195 2.3990
-5.3824 -5.7251 2.3990
-5.1818 -5.9239 2.3990
-4.9739 -6.1156 2.3990
-4.7589 -6.2998 2.3990
-4.5370 -6.4765 2.3990
-4.3085 -6.6452 2.3990
-4.0738 -6.8056 2.3990
-3.8330 -6.9577 2.3990
-3.5865 -7.1011 2.3990
-3.3346 -7.2355 2.3990
-3.0776 -7.3609 2.3990
-2.8159 -7.4768 2.3990
-2.5498 -7.5833 2.3990
-2.2796 -7.6800 2.3990
-2.0058 -7.7669 2.3990
-1.7285 -7.8437 2.3990
-1.4484 -7.9103 2.3990
-1.1657 -7.9666 2.3990
-0.8808 -8.0124 2.3990
-0.5941 -8.0478 2.3990
-0.3060 -8.0725 2.3990
-0.0169 -8.0865 2.3990
0.2727 -8.0899 2.3990
0.5625 -8.0824 2.3990
0.8521 -8.0643 2.3990
1.1410 -8.0353 2.3990
1.4289 -7.9955 2.3990
1.7152 -7.9451 2.3990
1.9997 -7.8839 2.3990
2.2818 -7.8122 2.3990
2.5612 -7.7299 2.3990
2.8375 -7.6373 2.3990
3.1102 -7.5343 2.3990
3.3790 -7.4211 2.3990
3.6434 -7.2980 2.3990
3.9032 -7.1650 2.3990
4.1578 -7.0224 2.3990
4.4070 -6.8703 2.3990
4.6503 -6.7090 2.3990
4.8874 -6.5386 2.3990
5.1180 -6.3595 2.3990
5.3417 -6.1719 2.3990
5.5582 -5.9762 2.3990
5.7672 -5.7724 2.3990
5.9684 -5.5611 2.3990
6.1615 -5.3423 2.3990
6.3463 -5.1166 2.3990
6.5224 -4.8843 2.3990
6.6896 -4.6456 2.3990
6.8477 -4.4010 2.3990
6.9966 -4.1507 2.3990
7.1359 -3.8952 2.3990
7.2655 -3.6349 2.3990
7.3852 -3.3701 2.3990
7.4949 -3.1012 2.3990
7.5945 -2.8286 2.3990
7.6838 -2.5527 2.3990
7.7628 -2.2739 2.3990
7.8313 -1.9927 2.3990
7.8892 -1.7093 2.3990
7.9366 -1.4243 2.3990
7.9734 -1.1380 2.3990
7.9996 -0.8508 2.3990
8.0151 -0.5631 2.3990
8.0200 -0.2755 2.3990
8.0144 0.0119 2.3990
7.9981 0.2985 2.3990
7.4651 0.5469 2.2466
7.4306 0.8129 2.2466
7.3869 1.0771 2.2468
7.3335 1.3392 2.2470
7.2707 1.5989 2.2472
7.1985 1.8558 2.2474
7.1171 2.1096 2.2475
7.0267 2.3599 2.2477
6.9233 2.6049 2.2466
6.8147 2.8471 2.2466
6.6977 3.0848 2.2466
6.5723 3.3177 2.2466
5.4923 3.0245 1.9163
5.4787 3.2784 1.9545
6.1482 3.9855 2.2466
5.9916 4.1968 2.2466
5.8278 4.4020 2.2466
5.6569 4.6010 2.2466
5.4794 4.7935 2.2466
5.2953 4.9791 2.2466
5.1149 5.1680 2.2510
4.9175 5.3391 2.2506
4.7144 5.5028 2.2503
4.5059 5.6589 2.2499
4.2924 5.8073 2.2495
4.0741 5.9477 2.2491
3.8512 6.0801 2.2487
3.6242 6.2043 2.2483
3.3933 6.3203 2.2479
3.1587 6.4278 2.2475
2.9209 6.5269 2.2471
2.6801 6.6174 2.2466
2.4783 6.8138 2.2846
2.3403 7.2344 2.3990
0.8399 2.9555 0.9706
0.7330 2.9838 0.9718
0.6252 3.0083 0.9730
0.5165 3.0288 0.9741
0.4072 3.0454 0.9752
0.2973 3.0580 0.9762
0.1870 3.0667 0.9772
0.0764 3.0713 0.9782
-0.0342 3.0720 0.9791
-0.1448 3.0686 0.9799
-0.2552 3.0613 0.9807
-0.3653 3.0500 0.9815
-0.4748 3.0347 0.9822
-0.5838 3.0154 0.9828
-0.6920 2.9922 0.9834
-0.7993 2.9652 0.9839
-2.2068 7.1507 2.3990
-2.4618 7.0630 2.3990
-2.7135 6.9666 2.3990
-2.9615 6.8616 2.3990
-3.2058 6.7481 2.3990
-3.4459 6.6263 2.3990
-3.6816 6.4963 2.3990
-3.9126 6.3583 2.3990
-4.1387 6.2124 2.3990
-4.3596 6.0589 2.3990
-4.5751 5.8978 2.3990
-4.7849 5.7293 2.3990
-4.9887 5.5538 2.3990
-5.1864 5.3712 2.3990
-5.3778 5.1820 2.3990
-5.5625 4.9861 2.3990
-5.7405 4.7840 2.3990
-5.9113 4.5758 2.3990
-6.0750 4.3617 2.3990
-6.2312 4.1420 2.3990
-6.3798 3.9169 2.3990
-6.5207 3.6867 2.3990
-6.6536 3.4517 2.3990
-6.7783 3.2120 2.3990
-6.8947 2.9680 2.3990
-7.0027 2.7199 2.3990
-7.1021 2.4680 2.3990
-7.1927 2.2126 2.3990
-7.2745 1.9540 2.3990
-7.3474 1.6925 2.3990
-7.4111 1.4284 2.3990
-7.4657 1.1619 2.3990
-7.5110 0.8934 2.3990
-7.5470 0.6232 2.3990
-7.5735 0.3517 2.3990
-7.5905 0.0790 2.3990
-7.5980 -0.1943 2.3990
-7.5960 -0.4682 2.3990
-7.5843 -0.7421 2.3990
-7.5630 -1.0157 2.3990
-7.5320 -1.2888 2.3990
-7.4914 -1.5610 2.3990
-7.4411 -1.8319 2.3990
-7.3813 -2.1013 2.3990
-7.3119 -2.3688 2.3990
-7.2329 -2.6340 2.3990
-7.1445 -2.8966 2.3990
-7.0468 -3.1563 2.3990
-6.9396 -3.4127 2.3990
-6.8233 -3.6655 2.3990
-6.6979 -3.9143 2.3990
-6.5634 -4.1589 2.3990
-6.4202 -4.3989 2.3990
-6.2682 -4.6340 2.3990
-6.1076 -4.8638 2.3990
-5.9387 -5.0880 2.3990
-5.7615 -5.3063 2.3990
-5.5764 -5.5184 2.3990
-5.3834 -5.7240 2.3990
-5.1829 -5.9229 2.3990
-4.9750 -6.1146 2.3990
-4.7600 -6.2989 2.3990
-4.5382 -6.4755 2.3990
-4.3097 -6.6443 2.3990
-4.0750 -6.8048 2.3990
-3.8343 -6.9569 2.3990
-3.5878 -7.1004 2.3990
-3.3359 -7.2348 2.3990
-3.0790 -7.3602 2.3990
-2.8173 -7.4763 2.3990
-2.5512 -7.5828 2.3990
-2.2810 -7.6795 2.3990
-2.0072 -7.7664 2.3990
-1.7300 -7.8433 2.3990
-1.4499 -7.9099 2.3990
-1.1672 -7.9663 2.3990
-0.8823 -8.0122 2.3990
-0.5956 -8.0476 2.3990
-0.3075 -8.0724 2.3990
-0.0184 -8.0865 2.3990
0.2712 -8.0899 2.3990
0.5610 -8.0825 2.3990
0.8506 -8.0644 2.3990
1.1395 -8.0355 2.3990
1.4274 -7.9958 2.3990
1.7137 -7.9454 2.3990
1.9982 -7.8843 2.3990
2.2803 -7.8126 2.3990
2.5597 -7.7304 2.3990
2.8360 -7.6378 2.3990
3.1088 -7.5349 2.3990
3.3776 -7.4218 2.3990
3.6420 -7.2987 2.3990
3.9018 -7.1657 2.3990
4.1565 -7.0231 2.3990
4.4057 -6.8711 2.3990
4.6490 -6.7099 2.3990
4.8862 -6.5395 2.3990
5.1168 -6.3605 2.3990
5.3406 -6.1730 2.3990
5.5571 -5.9772 2.3990
5.7661 -5.7735 2.3990
5.9674 -5.5622 2.3990
6.1605 -5.3435 2.3990
6.3453 -5.1179 2.3990
6.5215 -4.8855 2.3990
6.6887 -4.6469 2.3990
-6.9390 -1.4507 2.3990
-6.8917 -1.7016 2.3990
-6.8355 -1.9509 2.3990
-6.7705 -2.1984 2.3990
-6.6966 -2.4438 2.3990
-6.6139 -2.6867 2.3990
-6.5226 -2.9268 2.3990
-6.4226 -3.1639 2.3990
-6.3142 -3.3976 2.3990
-6.1973 -3.6275 2.3990
-6.0721 -3.8535 2.3990
-5.9388 -4.0751 2.3990
-5.7974 -4.2921 2.3990
-5.6481 -4.5042 2.3990
-5.4911 -4.7111 2.3990
-5.3266 -4.9125 2.3990
-5.1546 -5.1081 2.3990
-4.9755 -5.2976 2.3990
-4.7895 -5.4808 2.3990
-4.5967 -5.6574 2.3990
-4.3973 -5.8272 2.3990
-4.1917 -5.9898 2.3990
-3.9800 -6.1450 2.3990
-3.7626 -6.2927 2.3990
-3.5397 -6.4325 2.3990
-3.3115 -6.5643 2.3990
-3.0784 -6.6878 2.3990
-2.8407 -6.8029 2.3990
-2.5986 -6.9093 2.3990
-2.3525 -7.0069 2.3990
-2.1027 -7.0956 2.3990
-1.8496 -7.1751 2.3990
-1.5935 -7.2453 2.3990
-1.3346 -7.3061 2.3990
-1.0735 -7.3574 2.3990
-0.8103 -7.3991 2.3990
-0.5456 -7.4311 2.3990
-0.2796 -7.4533 2.3990
-0.0128 -7.4657 2.3990
0.2545 -7.4682 2.3990
0.5220 -7.4608 2.3990
0.7892 -7.4435 2.3990
1.0557 -7.4163 2.3990
1.3212 -7.3792 2.3990
1.5854 -7.3322 2.3990
1.8477 -7.2754 2.3990
2.1079 -7.2088 2.3990
2.3656 -7.1326 2.3990
2.6203 -7.0468 2.3990
2.8718 -6.9515 2.3990
3.1197 -6.8469 2.3990
3.3635 -6.7331 2.3990
3.6030 -6.6103 2.3990
3.8378 -6.4785 2.3990
4.0675 -6.3381 2.3990
4.2919 -6.1892 2.3990
4.5106 -6.0321 2.3990
4.7232 -5.8669 2.3990
4.9296 -5.6938 2.3990
5.1293 -5.5132 2.3990
5.3221 -5.3253 2.3990
5.5078 -5.1304 2.3990
5.6860 -4.9288 2.3990
5.8565 -4.7207 2.3990
6.0191 -4.5064 2.3990
6.1735 -4.2864 2.3990
6.3196 -4.0608 2.3990
6.4572 -3.8301 2.3990
6.5859 -3.5945 2.3990
6.7058 -3.3545 2.3990
6.8166 -3.1103 2.3990
6.9182 -2.8623 2.3990
7.0105 -2.6109 2.3990
7.0933 -2.3564 2.3990
7.1666 -2.0993 2.3990
7.2303 -1.8398 2.3990
7.2843 -1.5783 2.3990
7.3285 -1.3153 2.3990
7.3631 -1.0511 2.3990
7.3878 -0.7860 2.3990
7.4027 -0.5205 2.3990
7.4078 -0.2548 2.3990
7.4032 0.0105 2.3990
7.3889 0.2753 2.3990
6.9662 0.5098 2.2691
6.8656 0.7505 2.2466
6.8252 0.9946 2.2466
6.7760 1.2368 2.2466
6.7181 1.4767 2.2466
6.6515 1.7141 2.2466
6.5765 1.9486 2.2466
6.4930 2.1800 2.2466
6.4014 2.4078 2.2466
6.3017 2.6319 2.2466
6.1941 2.8520 2.2466
6.0788 3.0677 2.2466
5.4929 3.0239 2.0719
5.4764 3.2762 2.1118
5.6884 3.6864 2.2466
5.5441 3.8823 2.2466
5.3930 4.0726 2.2466
5.2355 4.2571 2.2466
5.0716 4.4357 2.2466
4.9018 4.6080 2.2466
4.7261 4.7740 2.2466
4.5448 4.9333 2.2466
4.3642 5.0929 2.2496
4.1717 5.2379 2.2493
3.9745 5.3759 2.2489
3.7727 5.5065 2.2486
3.5668 5.6297 2.2482
3.3569 5.7454 2.2478
3.1433 5.8534 2.2475
2.9264 5.9536 2.2471
2.7063 6.0460 2.2467
2.4888 6.1436 2.2511
2.4120 6.6300 2.3990
0.8747 2.7032 0.9673
0.7768 2.7329 0.9684
0.6780 2.7590 0.9695
0.5782 2.7816 0.9706
0.4777 2.8005 0.9717
0.3766 2.8158 0.9726
0.2749 2.8275 0.9736
0.1729 2.8354 0.9745
0.0707 2.8397 0.9754
-0.0316 2.8403 0.9762
-0.1339 2.8372 0.9770
-0.2360 2.8304 0.9777
-0.3378 2.8199 0.9784
-0.4391 2.8057 0.9791
-0.5399 2.7879 0.9797
-0.6400 2.7664 0.9802
-0.7392 2.7414 0.9807
-0.8374 2.7127 0.9811
-2.2842 6.5516 2.3990
-2.5178 6.4623 2.3990
-2.7481 6.3650 2.3990
-2.9748 6.2598 2.3990
-3.1976 6.1468 2.3990
-3.4164 6.0263 2.3990
-3.6308 5.8982 2.3990
-3.8406 5.7629 2.3990
-4.0456 5.6203 2.3990
-4.2455 5.4708 2.3990
-4.4402 5.3144 2.3990
-4.6293 5.1514 2.3990
-4.8128 4.9819 2.3990
-4.9902 4.8062 2.3990
-5.1615 4.6244 2.3990
-5.3265 4.4367 2.3990
-5.4849 4.2433 2.3990
-5.6366 4.0445 2.3990
-5.7813 3.8405 2.3990
-5.9190 3.6315 2.3990
-6.0494 3.4178 2.3990
-6.1723 3.1995 2.3990
-6.2877 2.9770 2.3990
-6.3954 2.7504 2.3990
-6.4952 2.5201 2.3990
-6.5869 2.2863 2.3990
-6.6706 2.0493 2.3990
-6.7460 1.8093 2.3990
-6.8131 1.5666 2.3990
-6.8717 1.3216 2.3990
-6.9218 1.0744 2.3990
-6.9633 0.8253 2.3990
-6.9960 0.5748 2.3990
-7.0200 0.3229 2.3990
-7.0352 0.0702 2.3990
-7.0415 -0.1832 2.3990
-7.0389 -0.4370 2.3990
-7.0274 -0.6908 2.3990
-7.0070 -0.9443 2.3990
-6.9776 -1.1973 2.3990
-6.9393 -1.4494 2.3990
-6.8920 -1.7002 2.3990
-6.8358 -1.9496 2.3990
-6.7708 -2.1971 2.3990
-6.6970 -2.4425 2.3990
-6.6144 -2.6854 2.3990
-6.5231 -2.9256 2.3990
-6.4232 -3.1627 2.3990
-6.3148 -3.3963 2.3990
-6.1979 -3.6263 2.3990
-6.0728 -3.8523 2.3990
-5.9395 -4.0739 2.3990
-5.7981 -4.2910 2.3990
-5.6489 -4.5031 2.3990
-5.4919 -4.7100 2.3990
-5.3274 -4.9114 2.3990
-5.1556 -5.1071 2.3990
-4.9765 -5.2966 2.3990
-4.7905 -5.4799 2.3990
-4.5977 -5.6565 2.3990
-4.3984 -5.8263 2.3990
-4.1928 -5.9889 2.3990
-3.9812 -6.1442 2.3990
-3.7638 -6.2919 2.3990
-3.5409 -6.4318 2.3990
-3.3127 -6.5636 2.3990
-3.0797 -6.6872 2.3990
-2.8419 -6.8023 2.3990
-2.5999 -6.9088 2.3990
-2.3538 -7.0064 2.3990
-2.1041 -7.0951 2.3990
-1.8510 -7.1747 2.3990
-1.5948 -7.2450 2.3990
-1.3360 -7.3058 2.3990
-1.0749 -7.3572 2.3990
-0.8117 -7.3989 2.3990
-0.5470 -7.4310 2.3990
-0.2811 -7.4533 2.3990
-0.0142 -7.4657 2.3990
0.2531 -7.4682 2.3990
0.5206 -7.4609 2.3990
0.7877 -7.4436 2.3990
1.0543 -7.4165 2.3990
1.3198 -7.3794 2.3990
1.5840 -7.3325 2.3990
1.8463 -7.2757 2.3990
2.1065 -7.2092 2.3990
2.3642 -7.1330 2.3990
2.6190 -7.0473 2.3990
2.8705 -6.9521 2.3990
3.1184 -6.8475 2.3990
3.3622 -6.7337 2.3990
3.6017 -6.6110 2.3990
3.8365 -6.4793 2.3990
4.0663 -6.3389 2.3990
4.2907 -6.1901 2.3990
4.5094 -6.0329 2.3990
4.7221 -5.8678 2.3990
4.9285 -5.6948 2.3990
5.1283 -5.5142 2.3990
5.3211 -5.3263 2.3990
5.5068 -5.1315 2.3990
5.6851 -4.9299 2.3990
5.8556 -4.7218 2.3990
6.0183 -4.5076 2.3990
6.1728 -4.2876 2.3990
6.3189 -4.0620 2.3990
6.4565 -3.8313 2.3990
6.5853 -3.5958 2.3990
6.7052 -3.3558 2.3990
6.8161 -3.1116 2.3990
6.9177 -2.8636 2.3990
7.0100 -2.6122 2.3990
7.0929 -2.3578 2.3990
7.1662 -2.1006 2.3990
7.2300 -1.8412 2.3990
7.2840 -1.5797 2.3990
7.3283 -1.3167 2.3990
7.3629 -1.0525 2.3990
7.3877 -0.7874 2.3990
7.4026 -0.5219 2.3990
7.4078 -0.2562 2.3990
7.4033 0.0091 2.3990
7.3890 0.2739 2.3990
6.9734 0.5090 2.2714
6.8657 0.7492 2.2466
6.8254 0.9933 2.2466
6.7763 1.2355 2.2466
6.7184 1.4755 2.2466
6.6519 1.7129 2.2466
6.5769 1.9474 2.2466
6.4935 2.1787 2.2466
6.4019 2.4066 2.2466
6.3023 2.6307 2.2466
6.1947 2.8508 2.2466
6.0795 3.0666 2.2466
5.4937 3.0230 2.0720
5.4729 3.2726 2.1102
5.6891 3.6853 2.2466
5.5448 3.8813 2.2466
5.3938 4.0716 2.2466
5.2363 4.2562 2.2466
5.0725 4.4348 2.2466
4.9027 4.6071 2.2466
4.7270 4.7731 2.2466
4.5458 4.9325 2.2466
4.3652 5.0921 2.2496
4.1728 5.2372 2.2493
3.9755 5.3752 2.2489
3.7738 5.5058 2.2486
3.5679 5.6291 2.2482
3.3580 5.7448 2.2478
3.1444 5.8528 2.2475
2.9275 5.9531 2.2471
2.7075 6.0455 2.2467
2.4894 6.1417 2.2505
2.4133 6.6296 2.3990
0.8752 2.7030 0.9673
0.7773 2.7327 0.9684
0.6785 2.7589 0.9695
0.5787 2.7815 0.9706
0.4782 2.8004 0.9716
0.3771 2.8158 0.9726
0.2755 2.8274 0.9736
0.1735 2.8354 0.9745
0.0712 2.8397 0.9754
-0.0311 2.8403 0.9762
-0.1334 2.8372 0.9770
-0.2355 2.8304 0.9777
-0.3373 2.8199 0.9784
-0.4386 2.8058 0.9791
-0.5394 2.7880 0.9797
-0.6394 2.7665 0.9802
-0.7387 2.7415 0.9807
-0.8369 2.7129 0.9811
-2.2830 6.5521 2.3990
-2.5166 6.4628 2.3990
-2.7469 6.3655 2.3990
-2.9736 6.2604 2.3990
-3.1964 6.1475 2.3990
-3.4152 6.0269 2.3990
-3.6297 5.8989 2.3990
-3.8395 5.7636 2.3990
-4.0445 5.6211 2.3990
-4.2445 5.4716 2.3990
-4.4392 5.3153 2.3990
-4.6283 5.1523 2.3990
-4.8118 4.9829 2.3990
-4.9893 4.8071 2.3990
-5.1606 4.6253 2.3990
-5.3256 4.4377 2.3990
-5.4841 4.2443 2.3990
-5.6358 4.0456 2.3990
-5.7806 3.8416 2.3990
-5.9183 3.6326 2.3990
-6.0487 3.4189 2.3990
-6.1717 3.2006 2.3990
-6.2871 2.9781 2.3990
-6.3948 2.7516 2.3990
-6.4947 2.5213 2.3990
-6.5865 2.2876 2.3990
-6.6702 2.0505 2.3990
-6.7456 1.8106 2.3990
-6.8128 1.5679 2.3990
-6.8714 1.3229 2.3990
-6.9216 1.0757 2.3990
-6.9631 0.8266 2.3990
-6.9959 0.5761 2.3990
-7.0199 0.3243 2.3990
-7.0351 0.0715 2.3990
-7.0415 -0.1819 2.3990
-7.0390 -0.4357 2.3990
-7.0275 -0.6895 2.3990
-7.0071 -0.9430 2.3990
-6.9778 -1.1960 2.3990
-6.9395 -1.4481 2.3990
-6.8923 -1.6989 2.3990
-6.8362 -1.9483 2.3990
-6.7712 -2.1958 2.3990
-6.6974 -2.4412 2.3990
-6.6148 -2.6842 2.3990
-6.5236 -2.9243 2.3990
-6.4237 -3.1614 2.3990
-6.3154 -3.3951 2.3990
-6.1986 -3.6251 2.3990
-6.0735 -3.8511 2.3990
-5.9402 -4.0728 2.3990
-5.7989 -4.2898 2.3990
-5.6497 -4.5020 2.3990
-5.4928 -4.7089 2.3990
-5.3283 -4.9104 2.3990
-5.1565 -5.1060 2.3990
-4.9775 -5.2957 2.3990
-4.7915 -5.4789 2.3990
-4.5987 -5.6556 2.3990
-4.3995 -5.8254 2.3990
-4.1939 -5.9881 2.3990
-3.9823 -6.1434 2.3990
-3.7649 -6.2912 2.3990
-3.5421 -6.4311 2.3990
-3.3139 -6.5630 2.3990
-3.0809 -6.6866 2.3990
-2.8432 -6.8017 2.3990
-2.6012 -6.9083 2.3990
-2.3551 -7.0060 2.3990
-2.1054 -7.0947 2.3990
-1.8523 -7.1743 2.3990
-1.5962 -7.2446 2.3990
-1.3374 -7.3055 2.3990
-1.0762 -7.3570 2.3990
-0.8131 -7.3988 2.3990
-0.5484 -7.4308 2.3990
-0.2825 -7.4532 2.3990
-0.0156 -7.4657 2.3990
0.2517 -7.4683 2.3990
0.5192 -7.4610 2.3990
0.7863 -7.4438 2.3990
1.0529 -7.4166 2.3990
1.3184 -7.3796 2.3990
1.5826 -7.3327 2.3990
1.8450 -7.2760 2.3990
2.1052 -7.2096 2.3990
2.3629 -7.1335 2.3990
2.6177 -7.0477 2.3990
2.8692 -6.9526 2.3990
3.1171 -6.8481 2.3990
3.3609 -6.7344 2.3990
3.6005 -6.6116 2.3990
3.8353 -6.4800 2.3990
4.0651 -6.3397 2.3990
4.2896 -6.1909 2.3990
4.5083 -6.0338 2.3990
4.7210 -5.8686 2.3990
4.9274 -5.6957 2.3990
5.1272 -5.5151 2.3990
5.3201 -5.3274 2.3990
5.5058 -5.1326 2.3990
5.6841 -4.9310 2.3990
5.8548 -4.7229 2.3990
6.0174 -4.5087 2.3990
6.1720 -4.2888 2.3990
-6.4561 -1.3517 2.3990
-6.4115 -1.5850 2.3990
-6.3586 -1.8168 2.3990
-6.2975 -2.0469 2.3990
-6.2282 -2.2750 2.3990
-6.1508 -2.5008 2.3990
-6.0653 -2.7239 2.3990
-5.9718 -2.9441 2.3990
-5.8704 -3.1611 2.3990
-5.7611 -3.3747 2.3990
-5.6442 -3.5844 2.3990
-5.5197 -3.7901 2.3990
-5.3877 -3.9915 2.3990
-5.2485 -4.1882 2.3990
-5.1021 -4.3801 2.3990
-4.9487 -4.5668 2.3990
-4.7884 -4.7482 2.3990
-4.6216 -4.9238 2.3990
-4.4483 -5.0935 2.3990
-4.2687 -5.2571 2.3990
-4.0832 -5.4143 2.3990
-3.8918 -5.5648 2.3990
-3.6949 -5.7085 2.3990
-3.4926 -5.8451 2.3990
-3.2853 -5.9744 2.3990
-3.0732 -6.0962 2.3990
-2.8565 -6.2103 2.3990
-2.6356 -6.3166 2.3990
-2.4107 -6.4149 2.3990
-2.1821 -6.5049 2.3990
-1.9501 -6.5867 2.3990
-1.7151 -6.6599 2.3990
-1.4772 -6.7246 2.3990
-1.2370 -6.7805 2.3990
-0.9946 -6.8276 2.3990
-0.7504 -6.8658 2.3990
-0.5048 -6.8950 2.3990
-0.2581 -6.9152 2.3990
-0.0106 -6.9262 2.3990
0.2374 -6.9281 2.3990
0.4854 -6.9209 2.3990
0.7331 -6.9044 2.3990
0.9803 -6.8788 2.3990
1.2264 -6.8441 2.3990
1.4713 -6.8002 2.3990
1.7145 -6.7473 2.3990
1.9556 -6.6853 2.3990
2.1944 -6.6144 2.3990
2.4306 -6.5346 2.3990
2.6636 -6.4461 2.3990
2.8933 -6.3490 2.3990
3.1193 -6.2434 2.3990
3.3413 -6.1293 2.3990
3.5589 -6.0072 2.3990
3.7718 -5.8770 2.3990
3.9798 -5.7389 2.3990
4.1824 -5.5932 2.3990
4.3796 -5.4401 2.3990
4.5709 -5.2797 2.3990
4.7560 -5.1124 2.3990
4.9349 -4.9383 2.3990
5.1070 -4.7577 2.3990
5.2723 -4.5709 2.3990
5.4305 -4.3780 2.3990
5.5814 -4.1795 2.3990
5.7248 -3.9756 2.3990
5.8604 -3.7667 2.3990
5.9881 -3.5529 2.3990
6.1078 -3.3346 2.3990
6.2192 -3.1121 2.3990
6.3222 -2.8858 2.3990
6.4168 -2.6561 2.3990
6.5027 -2.4230 2.3990
6.5799 -2.1872 2.3990
6.6482 -1.9488 2.3990
6.7077 -1.7082 2.3990
6.7582 -1.4658 2.3990
6.7997 -1.2219 2.3990
6.8322 -0.9768 2.3990
6.8557 -0.7310 2.3990
6.8700 -0.4847 2.3990
6.8753 -0.2382 2.3990
6.8716 0.0081 2.3990
6.8588 0.2538 2.3990
6.8043 0.4962 2.3874
6.3741 0.6950 2.2466
6.3372 0.9217 2.2466
6.2921 1.1466 2.2466
6.2388 1.3695 2.2466
6.1776 1.5901 2.2466
6.1085 1.8080 2.2466
6.0316 2.0230 2.2466
5.9470 2.2348 2.2466
5.8550 2.4432 2.2466
5.7556 2.6479 2.2466
5.6490 2.8486 2.2466
5.4943 3.0225 2.2299
5.4149 3.2371 2.2466
5.2877 3.4244 2.2466
5.1541 3.6068 2.2466
5.0142 3.7840 2.2466
4.8682 3.9560 2.2466
4.7164 4.1223 2.2466
4.5589 4.2830 2.2466
4.3959 4.4377 2.2466
4.2278 4.5863 2.2466
4.0546 4.7286 2.2466
3.8768 4.8646 2.2466
3.6945 4.9940 2.2466
3.5103 5.1201 2.2481
3.3191 5.2353 2.2478
3.1241 5.3434 2.2474
2.9257 5.4444 2.2471
2.7241 5.5382 2.2467
2.5199 5.6252 2.2466
2.4549 6.0551 2.3843
0.9030 2.4801 0.9643
0.8132 2.5110 0.9654
0.7223 2.5385 0.9665
0.6304 2.5628 0.9675
0.5377 2.5838 0.9685
0.4443 2.6013 0.9695
0.3504 2.6155 0.9704
0.2559 2.6264 0.9713
0.1612 2.6337 0.9722
0.0662 2.6377 0.9730
-0.0289 2.6382 0.9737
-0.1239 2.6353 0.9745
-0.2188 2.6290 0.9751
-0.3133 2.6192 0.9758
-0.4075 2.6061 0.9764
-0.5011 2.5895 0.9769
-0.5941 2.5696 0.9774
-0.6863 2.5463 0.9779
-0.7775 2.5197 0.9783
-0.8678 2.4898 0.9787
-2.3449 6.0202 2.3990
-2.5596 5.9296 2.3990
-2.7709 5.8317 2.3990
-2.9786 5.7265 2.3990
-3.1825 5.6142 2.3990
-3.3823 5.4950 2.3990
-3.5779 5.3689 2.3990
-3.7689 5.2361 2.3990
-3.9553 5.0967 2.3990
-4.1367 4.9510 2.3990
-4.3129 4.7990 2.3990
-4.4838 4.6411 2.3990
-4.6491 4.4772 2.3990
-4.8087 4.3077 2.3990
-4.9623 4.1327 2.3990
-5.1098 3.9524 2.3990
-5.2510 3.7671 2.3990
-5.3857 3.5769 2.3990
-5.5138 3.3821 2.3990
-5.6351 3.1828 2.3990
-5.7495 2.9793 2.3990
-5.8568 2.7719 2.3990
-5.9568 2.5607 2.3990
-6.0495 2.3460 2.3990
-6.1347 2.1281 2.3990
-6.2123 1.9072 2.3990
-6.2822 1.6836 2.3990
-6.3443 1.4575 2.3990
-6.3986 1.2291 2.3990
-6.4448 0.9989 2.3990
-6.4830 0.7669 2.3990
-6.5131 0.5335 2.3990
-6.5350 0.2990 2.3990
-6.5486 0.0637 2.3990
-6.5540 -0.1722 2.3990
-6.5511 -0.4085 2.3990
-6.5399 -0.6447 2.3990
-6.5204 -0.8806 2.3990
-6.4925 -1.1159 2.3990
-6.4563 -1.3504 2.3990
-6.4117 -1.5837 2.3990
-6.3589 -1.8156 2.3990
-6.2979 -2.0457 2.3990
-6.2286 -2.2738 2.3990
-6.1512 -2.4996 2.3990
-6.0658 -2.7227 2.3990
-5.9723 -2.9430 2.3990
-5.8709 -3.1600 2.3990
-5.7617 -3.3735 2.3990
-5.6448 -3.5833 2.3990
-5.5204 -3.7890 2.3990
-5.3885 -3.9904 2.3990
-5.2492 -4.1872 2.3990
-5.1028 -4.3791 2.3990
-4.9495 -4.5659 2.3990
-4.7893 -4.7472 2.3990
-4.6225 -4.9229 2.3990
-4.4492 -5.0927 2.3990
-4.2697 -5.2563 2.3990
-4.0842 -5.4135 2.3990
-3.8928 -5.5640 2.3990
-3.6959 -5.7077 2.3990
-3.4937 -5.8444 2.3990
-3.2864 -5.9737 2.3990
-3.0743 -6.0956 2.3990
-2.8577 -6.2097 2.3990
-2.6368 -6.3161 2.3990
-2.4119 -6.4144 2.3990
-2.1833 -6.5045 2.3990
-1.9513 -6.5862 2.3990
-1.7163 -6.6595 2.3990
-1.4785 -6.7242 2.3990
-1.2382 -6.7802 2.3990
-0.9959 -6.8274 2.3990
-0.7517 -6.8656 2.3990
-0.5061 -6.8949 2.3990
-0.2594 -6.9151 2.3990
-0.0119 -6.9262 2.3990
0.2361 -6.9281 2.3990
0.4841 -6.9209 2.3990
0.7318 -6.9045 2.3990
0.9790 -6.8790 2.3990
1.2251 -6.8443 2.3990
1.4700 -6.8005 2.3990
1.7132 -6.7476 2.3990
1.9544 -6.6856 2.3990
2.1932 -6.6148 2.3990
2.4293 -6.5351 2.3990
2.6624 -6.4466 2.3990
2.8921 -6.3495 2.3990
3.1181 -6.2440 2.3990
3.3401 -6.1298 2.3990
3.5577 -6.0079 2.3990
3.7707 -5.8777 2.3990
3.9787 -5.7397 2.3990
4.1814 -5.5940 2.3990
4.3786 -5.4409 2.3990
4.5699 -5.2806 2.3990
4.7551 -5.1133 2.3990
4.9339 -4.9392 2.3990
5.1061 -4.7586 2.3990
5.2715 -4.5718 2.3990
5.4297 -4.3791 2.3990
5.5806 -4.1806 2.3990
5.7240 -3.9767 2.3990
5.8597 -3.7678 2.3990
5.9875 -3.5541 2.3990
6.1072 -3.3357 2.3990
6.2186 -3.1133 2.3990
6.3217 -2.8870 2.3990
6.4163 -2.6573 2.3990
6.5022 -2.4243 2.3990
6.5795 -2.1884 2.3990
6.6479 -1.9500 2.3990
6.7074 -1.7095 2.3990
6.7580 -1.4671 2.3990
6.7996 -1.2232 2.3990
6.8321 -0.9781 2.3990
6.8556 -0.7323 2.3990
6.8700 -0.4859 2.3990
6.8753 -0.2395 2.3990
6.8716 0.0068 2.3990
6.8589 0.2525 2.3990
6.8111 0.4954 2.3898
6.3743 0.6938 2.2466
6.3374 0.9205 2.2466
6.2923 1.1454 2.2466
6.2391 1.3683 2.2466
6.1779 1.5889 2.2466
6.1089 1.8068 2.2466
6.0320 2.0219 2.2466
5.9475 2.2337 2.2466
5.8555 2.4421 2.2466
5.7561 2.6468 2.2466
5.6496 2.8475 2.2466
5.4952 3.0216 2.2300
5.4155 3.2361 2.2466
5.2884 3.4234 2.2466
5.1548 3.6058 2.2466
5.0150 3.7831 2.2466
4.8690 3.9551 2.2466
4.7172 4.1215 2.2466
4.5597 4.2821 2.2466
4.3968 4.4369 2.2466
4.2287 4.5855 2.2466
4.0556 4.7279 2.2466
3.8778 4.8639 2.2466
3.6954 4.9933 2.2466
3.5113 5.1195 2.2481
3.3201 5.2347 2.2478
3.1251 5.3428 2.2474
2.9268 5.4439 2.2471
2.7252 5.5377 2.2467
2.5210 5.6248 2.2466
2.4550 6.0522 2.3833
0.9035 2.4800 0.9643
0.8137 2.5108 0.9654
0.7228 2.5384 0.9665
0.6309 2.5627 0.9675
0.5382 2.5837 0.9685
0.4448 2.6013 0.9695
0.3509 2.6155 0.9704
0.2564 2.6263 0.9713
0.1617 2.6337 0.9722
0.0667 2.6377 0.9730
-0.0284 2.6382 0.9737
-0.1234 2.6353 0.9745
-0.2183 2.6290 0.9751
-0.3128 2.6193 0.9758
-0.4070 2.6061 0.9764
-0.5006 2.5896 0.9769
-0.5936 2.5697 0.9774
-0.6858 2.5464 0.9779
-0.7771 2.5198 0.9783
-0.8673 2.4900 0.9787
-2.3438 6.0206 2.3990
-2.5584 5.9301 2.3990
-2.7698 5.8322 2.3990
-2.9775 5.7271 2.3990
-3.1814 5.6149 2.3990
-3.3813 5.4956 2.3990
-3.5769 5.3696 2.3990
-3.7679 5.2368 2.3990
-3.9543 5.0975 2.3990
-4.1358 4.9518 2.3990
-4.3120 4.7999 2.3990
-4.4829 4.6419 2.3990
-4.6483 4.4781 2.3990
-4.8078 4.3086 2.3990
-4.9615 4.1336 2.3990
-5.1090 3.9534 2.3990
-5.2503 3.7681 2.3990
-5.3850 3.5779 2.3990
-5.5132 3.3831 2.3990
-5.6345 3.1838 2.3990
-5.7489 2.9804 2.3990
-5.8562 2.7730 2.3990
-5.9563 2.5618 2.3990
-6.0490 2.3472 2.3990
-6.1343 2.1293 2.3990
-6.2119 1.9084 2.3990
-6.2819 1.6848 2.3990
-6.3440 1.4587 2.3990
-6.3983 1.2304 2.3990
-6.4446 1.0001 2.3990
-6.4828 0.7681 2.3990
-6.5129 0.5348 2.3990
-6.5349 0.3003 2.3990
-6.5486 0.0649 2.3990
-6.5540 -0.1710 2.3990
-6.5512 -0.4072 2.3990
-6.5400 -0.6434 2.3990
-6.5205 -0.8794 2.3990
-6.4926 -1.1147 2.3990
-6.4565 -1.3492 2.3990
-6.4120 -1.5825 2.3990
-6.3592 -1.8144 2.3990
-6.2982 -2.0445 2.3990
-6.2290 -2.2726 2.3990
-6.1517 -2.4984 2.3990
-6.0662 -2.7216 2.3990
-5.9728 -2.9418 2.3990
-5.8715 -3.1588 2.3990
-5.7623 -3.3724 2.3990
-5.6455 -3.5822 2.3990
-5.5210 -3.7880 2.3990
-5.3892 -3.9894 2.3990
-5.2500 -4.1862 2.3990
-5.1036 -4.3781 2.3990
-4.9503 -4.5649 2.3990
-4.7902 -4.7463 2.3990
-4.6234 -4.9220 2.3990
-4.4501 -5.0918 2.3990
-4.2707 -5.2554 2.3990
-4.0852 -5.4126 2.3990
-3.8939 -5.5633 2.3990
-3.6970 -5.7070 2.3990
-3.4948 -5.8437 2.3990
-3.2875 -5.9730 2.3990
-3.0754 -6.0949 2.3990
-2.8588 -6.2092 2.3990
-2.6379 -6.3155 2.3990
-2.4131 -6.4139 2.3990
-2.1845 -6.5040 2.3990
-1.9526 -6.5858 2.3990
-1.7176 -6.6592 2.3990
-1.4798 -6.7239 2.3990
-1.2395 -6.7799 2.3990
-0.9972 -6.8271 2.3990
-0.7530 -6.8654 2.3990
-0.5074 -6.8947 2.3990
-0.2607 -6.9150 2.3990
-0.0132 -6.9261 2.3990
0.2348 -6.9281 2.3990
0.4828 -6.9210 2.3990
0.7305 -6.9047 2.3990
0.9777 -6.8792 2.3990
1.2238 -6.8445 2.3990
1.4687 -6.8007 2.3990
1.7119 -6.7479 2.3990
1.9531 -6.6860 2.3990
2.1919 -6.6152 2.3990
2.4281 -6.5355 2.3990
2.6612 -6.4471 2.3990
2.8909 -6.3501 2.3990
3.1169 -6.2445 2.3990
3.3389 -6.1306 2.3990
3.5566 -6.0085 2.3990
3.7696 -5.8784 2.3990
3.9776 -5.7405 2.3990
4.1803 -5.5948 2.3990
4.3775 -5.4418 2.3990
4.5689 -5.2815 2.3990
4.7541 -5.1142 2.3990
4.9330 -4.9401 2.3990
5.1052 -4.7596 2.3990
5.2706 -4.5728 2.3990
5.4289 -4.3801 2.3990
5.5799 -4.1816 2.3990
5.7233 -3.9778 2.3990
-6.0294 -1.2642 2.3990
-5.9873 -1.4820 2.3990
-5.9375 -1.6984 2.3990
-5.8800 -1.9132 2.3990
-5.8148 -2.1260 2.3990
-5.7420 -2.3367 2.3990
-5.6617 -2.5448 2.3990
-5.5740 -2.7502 2.3990
-5.4788 -2.9525 2.3990
-5.3764 -3.1516 2.3990
-5.2668 -3.3471 2.3990
-5.1502 -3.5388 2.3990
-5.0266 -3.7264 2.3990
-4.8962 -3.9097 2.3990
-4.7592 -4.0884 2.3990
-4.6157 -4.2623 2.3990
-4.4658 -4.4311 2.3990
-4.3098 -4.5946 2.3990
-4.1478 -4.7525 2.3990
-3.9800 -4.9047 2.3990
-3.8066 -5.0508 2.3990
-3.6279 -5.1908 2.3990
-3.4440 -5.3243 2.3990
-3.2551 -5.4512 2.3990
-3.0616 -5.5713 2.3990
-2.8636 -5.6845 2.3990
-2.6614 -5.7904 2.3990
-2.4553 -5.8890 2.3990
-2.2455 -5.9802 2.3990
-2.0323 -6.0637 2.3990
-1.8160 -6.1394 2.3990
-1.5968 -6.2072 2.3990
-1.3751 -6.2670 2.3990
-1.1512 -6.3187 2.3990
-0.9253 -6.3622 2.3990
-0.6978 -6.3974 2.3990
-0.4690 -6.4242 2.3990
-0.2391 -6.4426 2.3990
-0.0086 -6.4526 2.3990
0.2223 -6.4540 2.3990
0.4533 -6.4469 2.3990
0.6840 -6.4313 2.3990
0.9141 -6.4072 2.3990
1.1433 -6.3746 2.3990
1.3712 -6.3335 2.3990
1.5976 -6.2839 2.3990
1.8221 -6.2260 2.3990
2.0443 -6.1598 2.3990
2.2641 -6.0854 2.3990
2.4810 -6.0029 2.3990
2.6948 -5.9123 2.3990
2.9051 -5.8139 2.3990
3.1117 -5.7077 2.3990
3.3143 -5.5939 2.3990
3.5124 -5.4726 2.3990
3.7060 -5.3441 2.3990
3.8947 -5.2084 2.3990
4.0782 -5.0659 2.3990
4.2563 -4.9166 2.3990
4.4287 -4.7608 2.3990
4.5952 -4.5988 2.3990
4.7556 -4.4308 2.3990
4.9095 -4.2569 2.3990
5.0569 -4.0775 2.3990
5.1975 -3.8928 2.3990
5.3311 -3.7030 2.3990
5.4576 -3.5085 2.3990
5.5767 -3.3096 2.3990
5.6883 -3.1065 2.3990
5.7922 -2.8995 2.3990
5.8884 -2.6889 2.3990
5.9767 -2.4750 2.3990
6.0570 -2.2582 2.3990
6.1292 -2.0386 2.3990
6.1932 -1.8167 2.3990
6.2489 -1.5927 2.3990
6.2963 -1.3670 2.3990
6.3354 -1.1399 2.3990
6.3660 -0.9117 2.3990
6.3882 -0.6827 2.3990
6.4020 -0.4532 2.3990
6.4074 -0.2236 2.3990
6.4044 0.0059 2.3990
6.3929 0.2348 2.3990
6.3732 0.4630 2.3990
5.9667 0.6489 2.2559
5.9081 0.8576 2.2466
5.8665 1.0673 2.2466
5.8173 1.2752 2.2466
5.7607 1.4809 2.2466
5.6967 1.6842 2.2466
5.6254 1.8849 2.2466
5.5470 2.0826 2.2466
5.4617 2.2771 2.2466
5.3694 2.4682 2.2466
5.2704 2.6556 2.2466
5.1649 2.8391 2.2466
5.0529 3.0185 2.2466
4.9347 3.1935 2.2466
4.8104 3.3640 2.2466
4.6803 3.5297 2.2466
4.5444 3.6904 2.2466
4.4031 3.8460 2.2466
4.2564 3.9963 2.2466
4.1047 4.1410 2.2466
3.9480 4.2801 2.2466
3.7867 4.4134 2.2466
3.6210 4.5407 2.2466
3.4510 4.6618 2.2466
