ply
format ascii 1.0
element vertex 2173
property float32 x
property float32 y
property float32 z
end_header
2.2192 6.1844 2.3892
0.8568 2.6895 1.0195
0.7598 2.7211 1.0135
0.6618 2.7492 1.0073
0.5629 2.7737 1.0011
0.4631 2.7947 0.9948
0.3626 2.8120 0.9884
0.2616 2.8257 0.9820
0.1601 2.8357 0.9755
0.0583 2.8421 0.9690
-0.0437 2.8448 0.9624
-0.1457 2.8437 0.9558
-0.2475 2.8390 0.9491
-0.3492 2.8307 0.9425
-0.4505 2.8186 0.9358
-0.5512 2.8029 0.9292
-0.6514 2.7835 0.9225
-0.7508 2.7606 0.9159
-0.8493 2.7340 0.9093
-0.9467 2.7039 0.9028
-2.7803 7.1182 2.3892
-3.0556 7.0702 2.3892
-3.3309 7.0119 2.3892
-3.6057 6.9429 2.3892
-3.8796 6.8633 2.3892
-4.1522 6.7729 2.3892
-4.4230 6.6716 2.3892
-4.6914 6.5593 2.3892
-4.9570 6.4362 2.3892
-5.2192 6.3020 2.3892
-5.4775 6.1569 2.3892
-5.7315 6.0008 2.3892
-5.9804 5.8340 2.3892
-6.2239 5.6563 2.3892
-6.4612 5.4681 2.3892
-6.6919 5.2693 2.3892
-6.9155 5.0605 2.3892
-7.1312 4.8416 2.3892
-7.3387 4.6130 2.3892
-7.5372 4.3749 2.3892
-7.7264 4.1277 2.3892
-7.9057 3.8718 2.3892
-8.0745 3.6075 2.3892
-8.2324 3.3356 2.3892
-8.3790 3.0561 2.3892
-8.5137 2.7698 2.3892
-8.6361 2.4771 2.3892
-8.7460 2.1786 2.3892
-8.7972 1.8653 2.3768
-8.7822 1.5414 2.3506
-8.7669 1.2226 2.3282
-8.7511 0.9079 2.3096
-8.7348 0.5967 2.2946
-8.7180 0.2880 2.2832
-8.7007 -0.0187 2.2752
-8.6828 -0.3242 2.2707
-8.6644 -0.6289 2.2696
-8.6453 -0.9344 2.2719
-8.6255 -1.2404 2.2777
-8.6049 -1.5481 2.2869
-8.5836 -1.8581 2.2996
-8.5614 -2.1711 2.3159
-8.5383 -2.4880 2.3359
-8.5142 -2.8094 2.3597
-8.4890 -3.1362 2.3875
-8.3570 -3.4263 2.3892
-8.2067 -3.7069 2.3892
-8.0445 -3.9804 2.3892
-7.8711 -4.2459 2.3892
-7.6868 -4.5028 2.3892
-7.4921 -4.7513 2.3892
-7.2877 -4.9896 2.3892
-7.0740 -5.2186 2.3892
-6.8516 -5.4375 2.3892
-6.6210 -5.6461 2.3892
-6.3829 -5.8440 2.3892
-6.1378 -6.0311 2.3892
-5.8864 -6.2072 2.3892
-5.6291 -6.3720 2.3892
-5.3667 -6.5255 2.3892
-5.0997 -6.6673 2.3892
-4.8286 -6.7979 2.3892
-4.5540 -6.9171 2.3892
-4.2766 -7.0246 2.3892
-3.9968 -7.1206 2.3892
-3.7151 -7.2051 2.3892
-3.4322 -7.2784 2.3892
-3.1485 -7.3403 2.3892
-2.8645 -7.3911 2.3892
-2.5807 -7.4310 2.3892
-2.2974 -7.4600 2.3892
-2.0153 -7.4784 2.3892
-1.7346 -7.4864 2.3892
-1.4557 -7.4842 2.3892
-1.1791 -7.4719 2.3892
-0.9050 -7.4498 2.3892
-0.6339 -7.4183 2.3892
-0.3661 -7.3774 2.3892
-0.1018 -7.3275 2.3892
0.1587 -7.2688 2.3892
0.4152 -7.2016 2.3892
0.6672 -7.1262 2.3892
0.9148 -7.0428 2.3892
1.1575 -6.9517 2.3892
1.3953 -6.8531 2.3892
1.6280 -6.7474 2.3892
1.8553 -6.6348 2.3892
2.0772 -6.5155 2.3892
2.2934 -6.3899 2.3892
2.5040 -6.2581 2.3892
2.7087 -6.1205 2.3892
2.9074 -5.9772 2.3892
3.1001 -5.8286 2.3892
3.2866 -5.6749 2.3892
3.4670 -5.5163 2.3892
3.6411 -5.3531 2.3892
3.8088 -5.1854 2.3892
3.9702 -5.0136 2.3892
4.1252 -4.8378 2.3892
4.2737 -4.6582 2.3892
4.4157 -4.4752 2.3892
4.5512 -4.2891 2.3892
4.6800 -4.0992 2.3892
4.8024 -3.9067 2.3892
4.9182 -3.7114 2.3892
5.0274 -3.5137 2.3892
5.1299 -3.3135 2.3892
5.2259 -3.1111 2.3892
5.3153 -2.9068 2.3892
5.3981 -2.7005 2.3892
5.4743 -2.4927 2.3892
5.5439 -2.2833 2.3892
5.6069 -2.0725 2.3892
5.6634 -1.8606 2.3892
5.7132 -1.6476 2.3892
5.7565 -1.4337 2.3892
5.7932 -1.2191 2.3892
5.8234 -1.0039 2.3892
5.8471 -0.7883 2.3892
5.8642 -0.5724 2.3892
5.8748 -0.3563 2.3892
5.8789 -0.1403 2.3892
5.8765 0.0757 2.3892
5.8677 0.2914 2.3892
5.8523 0.5066 2.3892
5.8306 0.7213 2.3892
5.8023 0.9353 2.3892
5.7677 1.1485 2.3892
5.7266 1.3606 2.3892
5.6791 1.5717 2.3892
5.6253 1.7815 2.3892
5.5650 1.9899 2.3892
5.4984 2.1968 2.3892
5.4254 2.4020 2.3892
5.3461 2.6053 2.3892
5.2605 2.8066 2.3892
5.1685 3.0058 2.3892
5.0703 3.2027 2.3892
4.9658 3.3971 2.3892
4.8551 3.5889 2.3892
4.7382 3.7779 2.3892
4.6150 3.9640 2.3892
4.4857 4.1470 2.3892
4.3503 4.3266 2.3892
4.2088 4.5028 2.3892
4.0612 4.6754 2.3892
3.9076 4.8441 2.3892
3.7480 5.0088 2.3892
3.5826 5.1694 2.3892
3.4111 5.3259 2.3892
3.2341 5.4770 2.3892
3.0512 5.6236 2.3892
2.8627 5.7653 2.3892
2.6686 5.9018 2.3892
2.4690 6.0328 2.3892
2.2640 6.1582 2.3892
2.0537 6.2777 2.3892
0.7808 2.7146 1.0148
0.6830 2.7434 1.0087
0.5842 2.7687 1.0025
0.4846 2.7905 0.9962
0.3843 2.8086 0.9898
0.2833 2.8231 0.9834
0.1819 2.8339 0.9769
0.0802 2.8410 0.9704
-0.0217 2.8445 0.9638
-0.1237 2.8443 0.9572
-0.2256 2.8404 0.9506
-0.3273 2.8328 0.9439
-0.4287 2.8215 0.9373
-0.5296 2.8066 0.9306
-0.6299 2.7880 0.9240
-0.7294 2.7658 0.9173
-0.8281 2.7400 0.9108
-0.9258 2.7107 0.9042
-2.7211 7.1271 2.3892
-2.9964 7.0814 2.3892
-3.2717 7.0253 2.3892
-3.5466 6.9587 2.3892
-3.8208 6.8813 2.3892
-4.0937 6.7932 2.3892
-4.3649 6.6943 2.3892
-4.6338 6.5844 2.3892
-4.9001 6.4636 2.3892
-5.1631 6.3318 2.3892
-5.4223 6.1890 2.3892
-5.6772 6.0353 2.3892
-5.9273 5.8708 2.3892
-6.1720 5.6955 2.3892
-6.4107 5.5095 2.3892
-6.6429 5.3131 2.3892
-6.8680 5.1064 2.3892
-7.0855 4.8896 2.3892
-7.2947 4.6630 2.3892
-7.4953 4.4269 2.3892
-7.6865 4.1817 2.3892
-7.8680 3.9276 2.3892
-8.0391 3.6651 2.3892
-8.1994 3.3947 2.3892
-8.3484 3.1168 2.3892
-8.4857 2.8319 2.3892
-8.6108 2.5406 2.3892
-8.7234 2.2433 2.3892
-8.8004 1.9356 2.3830
-8.7855 1.6106 2.3559
-8.7702 1.2908 2.3327
-8.7545 0.9753 2.3133
-8.7383 0.6634 2.2975
-8.7217 0.3543 2.2853
-8.7045 0.0472 2.2766
-8.6867 -0.2585 2.2714
-8.6684 -0.5639 2.2696
-8.6494 -0.8686 2.2711
-8.6298 -1.1744 2.2761
-8.6094 -1.4817 2.2846
-8.5882 -1.7911 2.2965
-8.5662 -2.1034 2.3121
-8.5433 -2.4194 2.3312
-8.5195 -2.7398 2.3542
-5.5634 5.3321 2.3892
-5.7834 5.1640 2.3892
-5.9976 4.9864 2.3892
-6.2055 4.7996 2.3892
-6.4065 4.6035 2.3892
-6.6001 4.3982 2.3892
-6.7861 4.1851 2.3892
-6.9637 3.9632 2.3892
-7.1325 3.7332 2.3892
-7.2921 3.4957 2.3892
-7.4421 3.2508 2.3892
-7.5821 2.9990 2.3892
-7.7116 2.7408 2.3892
-7.8302 2.4766 2.3892
-7.9377 2.2069 2.3892
-8.0338 1.9323 2.3892
-8.1180 1.6532 2.3892
-8.1901 1.3703 2.3892
-8.2500 1.0844 2.3892
-8.2974 0.7950 2.3892
-8.3321 0.5038 2.3892
-8.3541 0.2113 2.3892
-8.3633 -0.0823 2.3892
-8.3595 -0.3761 2.3892
-8.3428 -0.6695 2.3892
-8.3132 -0.9619 2.3892
-8.2708 -1.2527 2.3892
-8.2157 -1.5409 2.3892
-8.1480 -1.8266 2.3892
-8.0680 -2.1085 2.3892
-7.9757 -2.3868 2.3892
-7.8716 -2.6602 2.3892
-7.7558 -2.9286 2.3892
-7.6287 -3.1911 2.3892
-7.4906 -3.4477 2.3892
-7.3419 -3.6968 2.3892
-7.1831 -3.9392 2.3892
-7.0144 -4.1740 2.3892
-6.8364 -4.4007 2.3892
-6.6496 -4.6191 2.3892
-6.4543 -4.8288 2.3892
-6.2512 -5.0294 2.3892
-6.0406 -5.2207 2.3892
-5.8231 -5.4025 2.3892
-5.5992 -5.5745 2.3892
-5.3695 -5.7369 2.3892
-5.1344 -5.8884 2.3892
-4.8944 -6.0311 2.3892
-4.6503 -6.1613 2.3892
-4.4023 -6.2823 2.3892
-4.1510 -6.3927 2.3892
-3.8970 -6.4927 2.3892
-3.6406 -6.5823 2.3892
-3.3824 -6.6615 2.3892
-3.1228 -6.7303 2.3892
-2.8624 -6.7888 2.3892
-2.6015 -6.8372 2.3892
-2.3405 -6.8755 2.3892
-2.0800 -6.9039 2.3892
-1.8202 -6.9225 2.3892
-1.5615 -6.9315 2.3892
-1.3044 -6.9311 2.3892
-1.0492 -6.9214 2.3892
-0.7961 -6.9027 2.3892
-0.5456 -6.8751 2.3892
-0.2979 -6.8389 2.3892
-0.0532 -6.7943 2.3892
0.1880 -6.7415 2.3892
0.4257 -6.6808 2.3892
0.6595 -6.6123 2.3892
0.8893 -6.5364 2.3892
1.1148 -6.4532 2.3892
1.3359 -6.3629 2.3892
1.5523 -6.2660 2.3892
1.7639 -6.1624 2.3892
1.9706 -6.0526 2.3892
2.1721 -5.9368 2.3892
2.3685 -5.8151 2.3892
2.5595 -5.6878 2.3892
2.7450 -5.5552 2.3892
2.9250 -5.4175 2.3892
3.0993 -5.2748 2.3892
3.2680 -5.1275 2.3892
3.4308 -4.9757 2.3892
3.5878 -4.8197 2.3892
3.7388 -4.6596 2.3892
3.8839 -4.4957 2.3892
4.0230 -4.3282 2.3892
4.1560 -4.1572 2.3892
4.2829 -3.9830 2.3892
4.4038 -3.8062 2.3892
4.5183 -3.6256 2.3892
4.6268 -3.4429 2.3892
4.7291 -3.2574 2.3892
4.8252 -3.0700 2.3892
4.9150 -2.8803 2.3892
4.9987 -2.6886 2.3892
5.0761 -2.4951 2.3892
5.1472 -2.3000 2.3892
5.2122 -2.1033 2.3892
5.2709 -1.9054 2.3892
5.3233 -1.7063 2.3892
5.3696 -1.5061 2.3892
5.4096 -1.3051 2.3892
5.4434 -1.1034 2.3892
5.4709 -0.9011 2.3892
5.4923 -0.6983 2.3892
5.5074 -0.4953 2.3892
5.5164 -0.2921 2.3892
5.5192 -0.0890 2.3892
5.5158 0.1141 2.3892
5.5063 0.3168 2.3892
5.4905 0.5191 2.3892
5.4687 0.7209 2.3892
5.4407 0.9220 2.3892
5.4067 1.1222 2.3892
5.3665 1.3215 2.3892
5.3202 1.5196 2.3892
5.2679 1.7165 2.3892
5.2095 1.9120 2.3892
5.1450 2.1059 2.3892
5.0746 2.2982 2.3892
4.9981 2.4886 2.3892
4.9157 2.6770 2.3892
4.8273 2.8633 2.3892
4.7329 3.0473 2.3892
4.6327 3.2288 2.3892
4.5266 3.4078 2.3892
4.4146 3.5840 2.3892
4.2968 3.7573 2.3892
4.1733 3.9275 2.3892
4.0439 4.0945 2.3892
3.9089 4.2580 2.3892
3.7683 4.4180 2.3892
3.6220 4.5742 2.3892
3.4702 4.7264 2.3892
3.3128 4.8745 2.3892
3.1501 5.0183 2.3892
2.9820 5.1576 2.3892
2.8086 5.2922 2.3892
2.6301 5.4220 2.3892
2.4464 5.5466 2.3892
2.2577 5.6660 2.3892
2.0641 5.7799 2.3892
0.7917 2.4985 1.0138
0.7017 2.5279 1.0082
0.6106 2.5540 1.0025
0.5186 2.5768 0.9967
0.4259 2.5962 0.9909
0.3326 2.6123 0.9850
0.2387 2.6250 0.9790
0.1444 2.6343 0.9729
0.0498 2.6402 0.9669
-0.0449 2.6427 0.9607
-0.1397 2.6417 0.9546
-0.2343 2.6374 0.9484
-0.3288 2.6296 0.9422
-0.4229 2.6183 0.9361
-0.5165 2.6037 0.9299
-0.6095 2.5858 0.9237
-0.7019 2.5644 0.9176
-0.7934 2.5398 0.9115
-0.8839 2.5118 0.9054
-2.5860 6.5901 2.3892
-2.8395 6.5422 2.3892
-3.0926 6.4847 2.3892
-3.3451 6.4175 2.3892
-3.5965 6.3405 2.3892
-3.8464 6.2536 2.3892
-4.0943 6.1568 2.3892
-4.3399 6.0500 2.3892
-4.5826 5.9332 2.3892
-4.8219 5.8065 2.3892
-5.0575 5.6698 2.3892
-5.2888 5.5233 2.3892
-5.5153 5.3670 2.3892
-5.7365 5.2010 2.3892
-5.9520 5.0255 2.3892
-6.1613 4.8406 2.3892
-6.3638 4.6465 2.3892
-6.5591 4.4434 2.3892
-6.7467 4.2312 2.3892
-6.9261 4.0116 2.3892
-7.0969 3.7834 2.3892
-7.2586 3.5474 2.3892
-7.4107 3.3041 2.3892
-7.5528 3.0538 2.3892
-7.6846 2.7969 2.3892
-7.8056 2.5340 2.3892
-7.9154 2.2628 2.3892
-8.0141 1.9918 2.3892
-8.1009 1.7137 2.3892
-8.1756 1.4315 2.3892
-8.2382 1.1458 2.3892
-8.2883 0.8576 2.3892
-8.3257 0.5666 2.3892
-8.3505 0.2743 2.3892
-8.3624 -0.0190 2.3892
-8.3614 -0.3128 2.3892
-8.3475 -0.6062 2.3892
-8.3206 -0.8991 2.3892
-8.2810 -1.1902 2.3892
-8.2286 -1.4792 2.3892
-8.1636 -1.7654 2.3892
-8.0862 -2.0483 2.3892
-7.9966 -2.3273 2.3892
-7.8950 -2.6018 2.3892
-7.7817 -2.8713 2.3892
-7.6570 -3.1350 2.3892
-7.5212 -3.3929 2.3892
-7.3748 -3.6437 2.3892
-7.2181 -3.8876 2.3892
-7.0515 -4.1241 2.3892
-6.8755 -4.3526 2.3892
-6.6905 -4.5729 2.3892
-6.4970 -4.7844 2.3892
-6.2955 -4.9870 2.3892
-6.0865 -5.1804 2.3892
-5.8705 -5.3642 2.3892
-5.6479 -5.5383 2.3892
-5.4193 -5.7031 2.3892
-5.1855 -5.8564 2.3892
-4.9465 -6.0006 2.3892
-4.7032 -6.1339 2.3892
-4.4560 -6.2571 2.3892
-4.2054 -6.3698 2.3892
-3.9519 -6.4721 2.3892
-3.6959 -6.5639 2.3892
-3.4381 -6.6453 2.3892
-3.1788 -6.7163 2.3892
-2.9185 -6.7771 2.3892
-2.6576 -6.8276 2.3892
-2.3967 -6.8681 2.3892
-2.1360 -6.8986 2.3892
-1.8760 -6.9193 2.3892
-1.6171 -6.9304 2.3892
-1.3596 -6.9320 2.3892
-1.1040 -6.9243 2.3892
-0.8504 -6.9075 2.3892
-0.5993 -6.8818 2.3892
-0.3509 -6.8474 2.3892
-0.1056 -6.8046 2.3892
0.1364 -6.7536 2.3892
0.3749 -6.6945 2.3892
0.6096 -6.6277 2.3892
0.8402 -6.5533 2.3892
1.0667 -6.4717 2.3892
1.2887 -6.3829 2.3892
1.5061 -6.2874 2.3892
1.7188 -6.1853 2.3892
1.9265 -6.0768 2.3892
2.1292 -5.9622 2.3892
2.3266 -5.8418 2.3892
2.5188 -5.7157 2.3892
2.7055 -5.5842 2.3892
2.8867 -5.4475 2.3892
3.0623 -5.3059 2.3892
3.2322 -5.1596 2.3892
3.3963 -5.0087 2.3892
3.5545 -4.8536 2.3892
3.7068 -4.6944 2.3892
3.8532 -4.5313 2.3892
3.9936 -4.3645 2.3892
4.1279 -4.1943 2.3892
4.2561 -4.0208 2.3892
4.3782 -3.8441 2.3892
4.4942 -3.6647 2.3892
4.6040 -3.4824 2.3892
4.7076 -3.2977 2.3892
4.8050 -3.1106 2.3892
4.8962 -2.9214 2.3892
4.9812 -2.7300 2.3892
5.0599 -2.5369 2.3892
5.1325 -2.3421 2.3892
5.1987 -2.1458 2.3892
5.2588 -1.9481 2.3892
5.3126 -1.7492 2.3892
5.3602 -1.5493 2.3892
5.4015 -1.3484 2.3892
5.4366 -1.1468 2.3892
5.4655 -0.9446 2.3892
5.4882 -0.7420 2.3892
5.5047 -0.5390 2.3892
5.5150 -0.3359 2.3892
5.5191 -0.1327 2.3892
5.5171 0.0704 2.3892
5.5088 0.2732 2.3892
5.4944 0.4756 2.3892
5.4739 0.6775 2.3892
5.4473 0.8788 2.3892
5.4145 1.0792 2.3892
5.3756 1.2787 2.3892
5.3307 1.4771 2.3892
5.2796 1.6742 2.3892
5.2225 1.8700 2.3892
5.1594 2.0643 2.3892
5.0902 2.2569 2.3892
5.0151 2.4477 2.3892
4.9339 2.6366 2.3892
4.8468 2.8234 2.3892
4.7538 3.0079 2.3892
4.6548 3.1900 2.3892
4.5499 3.3695 2.3892
4.4392 3.5463 2.3892
4.3227 3.7203 2.3892
4.2003 3.8911 2.3892
4.0723 4.0588 2.3892
3.9385 4.2231 2.3892
3.7990 4.3838 2.3892
3.6539 4.5409 2.3892
3.5033 4.6940 2.3892
3.3472 4.8430 2.3892
3.1856 4.9877 2.3892
3.0186 5.1280 2.3892
2.8464 5.2637 2.3892
2.6689 5.3945 2.3892
2.4864 5.5202 2.3892
2.2987 5.6408 2.3892
2.1062 5.7558 2.3892
0.8110 2.4918 1.0150
0.7211 2.5218 1.0094
0.6303 2.5486 1.0037
0.5385 2.5721 0.9980
0.4459 2.5923 0.9921
0.3527 2.6091 0.9862
0.2589 2.6226 0.9803
0.1647 2.6326 0.9742
0.0702 2.6392 0.9682
-0.0245 2.6424 0.9621
-0.1193 2.6422 0.9559
-0.2140 2.6386 0.9498
-0.3085 2.6315 0.9436
-0.4026 2.6210 0.9374
-0.4964 2.6072 0.9312
-0.5896 2.5899 0.9250
-0.6821 2.5693 0.9189
-0.7738 2.5454 0.9128
-0.8645 2.5181 0.9067
-0.9542 2.4876 0.9006
-2.7849 6.5533 2.3892
-3.0382 6.4979 2.3892
-3.2909 6.4328 2.3892
-3.5425 6.3579 2.3892
-3.7928 6.2731 2.3892
-4.0412 6.1784 2.3892
-4.2873 6.0738 2.3892
-4.5306 5.9592 2.3892
-4.7707 5.8346 2.3892
-5.0071 5.7001 2.3892
-5.2394 5.5557 2.3892
-5.4669 5.4014 2.3892
-5.6894 5.2375 2.3892
-5.9062 5.0640 2.3892
-6.1168 4.8812 2.3892
-6.3208 4.6890 2.3892
-6.5177 4.4878 2.3892
-6.7070 4.2779 2.3892
-6.8882 4.0597 2.3892
-7.0609 3.8332 2.3892
-7.2246 3.5988 2.3892
-7.3788 3.3571 2.3892
-7.5231 3.1082 2.3892
-7.6571 2.8527 2.3892
-7.7805 2.5911 2.3892
-7.8929 2.3237 2.3892
-7.9939 2.0511 2.3892
-8.0832 1.7739 2.3892
-8.1606 1.4925 2.3892
-8.2257 1.2076 2.3892
-8.2785 0.9199 2.3892
-8.3187 0.6294 2.3892
-8.3462 0.3372 2.3892
-8.3609 0.0440 2.3892
-8.3627 -0.2497 2.3892
-8.3516 -0.5432 2.3892
-8.3275 -0.8363 2.3892
-8.2906 -1.1277 2.3892
-8.2410 -1.4172 2.3892
-8.1787 -1.7041 2.3892
-8.1039 -1.9875 2.3892
-8.0169 -2.2676 2.3892
-7.9179 -2.5431 2.3892
-5.1570 4.9304 2.3892
-5.3583 4.7729 2.3892
-5.5541 4.6069 2.3892
-5.7439 4.4324 2.3892
-5.9273 4.2496 2.3892
-6.1039 4.0589 2.3892
-6.2732 3.8603 2.3892
-6.4349 3.6544 2.3892
-6.5884 3.4410 2.3892
-6.7335 3.2210 2.3892
-6.8697 2.9944 2.3892
-6.9967 2.7616 2.3892
-7.1141 2.5230 2.3892
-7.2216 2.2792 2.3892
-7.3189 2.0304 2.3892
-7.4057 1.7772 2.3892
-7.4818 1.5201 2.3892
-7.5469 1.2595 2.3892
-7.6008 0.9960 2.3892
-7.6435 0.7301 2.3892
-7.6746 0.4623 2.3892
-7.6942 0.1925 2.3892
-7.7021 -0.0767 2.3892
-7.6984 -0.3468 2.3892
-7.6829 -0.6165 2.3892
-7.6558 -0.8853 2.3892
-7.6170 -1.1533 2.3892
-7.5668 -1.4180 2.3892
-7.5051 -1.6807 2.3892
-7.4322 -1.9404 2.3892
-7.3483 -2.1964 2.3892
-7.2535 -2.4482 2.3892
-7.1482 -2.6954 2.3892
-7.0325 -2.9375 2.3892
-6.9069 -3.1740 2.3892
-6.7715 -3.4044 2.3892
-6.6269 -3.6285 2.3892
-6.4733 -3.8457 2.3892
-6.3111 -4.0557 2.3892
-6.1407 -4.2582 2.3892
-5.9626 -4.4529 2.3892
-5.7772 -4.6394 2.3892
-5.5849 -4.8175 2.3892
-5.3861 -4.9874 2.3892
-5.1814 -5.1479 2.3892
-4.9712 -5.2995 2.3892
-4.7559 -5.4417 2.3892
-4.5361 -5.5748 2.3892
-4.3121 -5.6986 2.3892
-4.0844 -5.8129 2.3892
-3.8535 -5.9177 2.3892
-3.6199 -6.0129 2.3892
-3.3840 -6.0986 2.3892
-3.1461 -6.1747 2.3892
-2.9068 -6.2413 2.3892
-2.6665 -6.2985 2.3892
-2.4255 -6.3463 2.3892
-2.1843 -6.3848 2.3892
-1.9432 -6.4142 2.3892
-1.7026 -6.4345 2.3892
-1.4629 -6.4459 2.3892
-1.2243 -6.4485 2.3892
-0.9872 -6.4424 2.3892
-0.7520 -6.4280 2.3892
-0.5189 -6.4053 2.3892
-0.2882 -6.3744 2.3892
-0.0602 -6.3357 2.3892
0.1649 -6.2893 2.3892
0.3869 -6.2354 2.3892
0.6054 -6.1741 2.3892
0.8203 -6.1058 2.3892
1.0315 -6.0306 2.3892
1.2386 -5.9488 2.3892
1.4415 -5.8606 2.3892
1.6402 -5.7661 2.3892
1.8343 -5.6656 2.3892
2.0238 -5.5593 2.3892
2.2085 -5.4474 2.3892
2.3883 -5.3302 2.3892
2.5631 -5.2078 2.3892
2.7328 -5.0804 2.3892
2.8974 -4.9484 2.3892
3.0566 -4.8118 2.3892
3.2105 -4.6708 2.3892
3.3589 -4.5258 2.3892
3.5018 -4.3768 2.3892
3.6392 -4.2241 2.3892
3.7709 -4.0679 2.3892
3.8970 -3.9082 2.3892
4.0173 -3.7455 2.3892
4.1320 -3.5797 2.3892
4.2408 -3.4112 2.3892
4.3439 -3.2400 2.3892
4.4411 -3.0664 2.3892
4.5325 -2.8904 2.3892
4.6180 -2.7124 2.3892
4.6976 -2.5324 2.3892
4.7714 -2.3506 2.3892
4.8392 -2.1671 2.3892
4.9011 -1.9822 2.3892
4.9571 -1.7960 2.3892
5.0072 -1.6086 2.3892
5.0514 -1.4201 2.3892
5.0896 -1.2308 2.3892
5.1220 -1.0408 2.3892
5.1484 -0.8502 2.3892
5.1689 -0.6591 2.3892
5.1835 -0.4677 2.3892
5.1922 -0.2762 2.3892
5.1950 -0.0846 2.3892
5.1920 0.1068 2.3892
5.1830 0.2980 2.3892
5.1683 0.4887 2.3892
5.1476 0.6790 2.3892
5.1211 0.8686 2.3892
5.0888 1.0573 2.3892
5.0507 1.2451 2.3892
5.0068 1.4319 2.3892
4.9571 1.6174 2.3892
4.9017 1.8015 2.3892
4.8405 1.9842 2.3892
4.7736 2.1652 2.3892
4.7010 2.3443 2.3892
4.6228 2.5216 2.3892
4.5388 2.6968 2.3892
4.4493 2.8697 2.3892
4.3542 3.0403 2.3892
4.2535 3.2083 2.3892
4.1473 3.3736 2.3892
4.0356 3.5361 2.3892
3.9185 3.6956 2.3892
3.7959 3.8519 2.3892
3.6680 4.0049 2.3892
3.5348 4.1544 2.3892
3.3964 4.3003 2.3892
3.2528 4.4423 2.3892
3.1040 4.5803 2.3892
2.9502 4.7141 2.3892
2.7915 4.8436 2.3892
2.6278 4.9686 2.3892
2.4593 5.0888 2.3892
2.2861 5.2042 2.3892
2.1083 5.3145 2.3892
0.8174 2.3000 1.0139
0.7344 2.3304 1.0088
0.6504 2.3577 1.0036
0.5655 2.3821 0.9983
0.4797 2.4033 0.9929
0.3932 2.4214 0.9874
0.3061 2.4364 0.9819
0.2185 2.4483 0.9763
0.1306 2.4569 0.9707
0.0423 2.4624 0.9650
-0.0460 2.4647 0.9593
-0.1344 2.4638 0.9536
-0.2227 2.4597 0.9478
-0.3108 2.4524 0.9420
-0.3985 2.4420 0.9363
-0.4859 2.4284 0.9305
-0.5727 2.4116 0.9248
-0.6588 2.3917 0.9190
-0.7442 2.3687 0.9133
-0.8286 2.3426 0.9076
-0.9121 2.3135 0.9020
-2.6505 6.0806 2.3892
-2.8845 6.0243 2.3892
-3.1178 5.9591 2.3892
-3.3498 5.8848 2.3892
-3.5801 5.8014 2.3892
-3.8085 5.7089 2.3892
-4.0344 5.6073 2.3892
-4.2575 5.4966 2.3892
-4.4773 5.3767 2.3892
-4.6935 5.2478 2.3892
-4.9055 5.1099 2.3892
-5.1130 4.9631 2.3892
-5.3154 4.8075 2.3892
-5.5124 4.6433 2.3892
-5.7036 4.4706 2.3892
-5.8884 4.2896 2.3892
-6.0665 4.1006 2.3892
-6.2374 3.9037 2.3892
-6.4007 3.6988 2.3892
-6.5560 3.4871 2.3892
-6.7030 3.2689 2.3892
-6.8411 3.0437 2.3892
-6.9701 2.8122 2.3892
-7.0896 2.5748 2.3892
-7.1993 2.3321 2.3892
-7.2988 2.0843 2.3892
-7.3879 1.8320 2.3892
-7.4663 1.5757 2.3892
-7.5338 1.3159 2.3892
-7.5902 1.0529 2.3892
-7.6353 0.7875 2.3892
-7.6689 0.5200 2.3892
-7.6910 0.2512 2.3892
-7.7014 -0.0186 2.3892
-7.7002 -0.2887 2.3892
-7.6872 -0.5585 2.3892
-7.6626 -0.8276 2.3892
-7.6263 -1.0961 2.3892
-7.5786 -1.3611 2.3892
-7.5193 -1.6244 2.3892
-7.4489 -1.8848 2.3892
-7.3673 -2.1416 2.3892
-7.2748 -2.3944 2.3892
-7.1717 -2.6426 2.3892
-7.0583 -2.8858 2.3892
-6.9348 -3.1236 2.3892
-6.8015 -3.3554 2.3892
-6.6588 -3.5808 2.3892
-6.5071 -3.7995 2.3892
-6.3467 -4.0111 2.3892
-6.1781 -4.2153 2.3892
-6.0016 -4.4116 2.3892
-5.8177 -4.5999 2.3892
-5.6268 -4.7799 2.3892
-5.4294 -4.9515 2.3892
-5.2260 -5.1138 2.3892
-5.0169 -5.2674 2.3892
-4.8027 -5.4118 2.3892
-4.5837 -5.5470 2.3892
-4.3606 -5.6728 2.3892
-4.1337 -5.7891 2.3892
-3.9035 -5.8959 2.3892
-3.6704 -5.9932 2.3892
-3.4349 -6.0810 2.3892
-3.1975 -6.1591 2.3892
-2.9584 -6.2278 2.3892
-2.7183 -6.2870 2.3892
-2.4774 -6.3368 2.3892
-2.2362 -6.3773 2.3892
-1.9951 -6.4086 2.3892
-1.7543 -6.4309 2.3892
-1.5144 -6.4442 2.3892
-1.2755 -6.4486 2.3892
-1.0381 -6.4445 2.3892
-0.8025 -6.4318 2.3892
-0.5689 -6.4108 2.3892
-0.3376 -6.3817 2.3892
-0.1090 -6.3447 2.3892
0.1167 -6.2999 2.3892
0.3394 -6.2476 2.3892
0.5587 -6.1879 2.3892
0.7744 -6.1211 2.3892
0.9864 -6.0474 2.3892
1.1943 -5.9670 2.3892
1.3982 -5.8801 2.3892
1.5978 -5.7869 2.3892
1.7929 -5.6877 2.3892
1.9834 -5.5826 2.3892
2.1691 -5.4719 2.3892
2.3500 -5.3558 2.3892
2.5259 -5.2345 2.3892
2.6968 -5.1082 2.3892
2.8624 -4.9772 2.3892
3.0228 -4.8415 2.3892
3.1778 -4.7015 2.3892
3.3274 -4.5573 2.3892
3.4715 -4.4092 2.3892
3.6101 -4.2573 2.3892
3.7430 -4.1018 2.3892
3.8703 -3.9429 2.3892
3.9919 -3.7806 2.3892
4.1078 -3.6157 2.3892
4.2179 -3.4477 2.3892
4.3222 -3.2770 2.3892
4.4207 -3.1039 2.3892
4.5133 -2.9285 2.3892
4.6001 -2.7509 2.3892
4.6810 -2.5713 2.3892
4.7560 -2.3899 2.3892
4.8251 -2.2068 2.3892
4.8883 -2.0222 2.3892
4.9456 -1.8362 2.3892
4.9969 -1.6490 2.3892
5.0424 -1.4608 2.3892
5.0819 -1.2716 2.3892
5.1155 -1.0818 2.3892
5.1432 -0.8912 2.3892
5.1650 -0.7003 2.3892
5.1809 -0.5089 2.3892
5.1908 -0.3174 2.3892
5.1949 -0.1259 2.3892
5.1931 0.0656 2.3892
5.1855 0.2568 2.3892
5.1719 0.4477 2.3892
5.1525 0.6381 2.3892
5.1273 0.8278 2.3892
5.0963 1.0168 2.3892
5.0594 1.2048 2.3892
5.0168 1.3918 2.3892
4.9683 1.5776 2.3892
4.9141 1.7620 2.3892
4.8542 1.9450 2.3892
4.7885 2.1264 2.3892
4.7171 2.3059 2.3892
4.6401 2.4836 2.3892
4.5574 2.6592 2.3892
4.4691 2.8327 2.3892
4.3751 3.0038 2.3892
4.2756 3.1723 2.3892
4.1706 3.3383 2.3892
4.0601 3.5014 2.3892
3.9441 3.6615 2.3892
3.8228 3.8185 2.3892
3.6960 3.9723 2.3892
3.5640 4.1225 2.3892
3.4266 4.2692 2.3892
3.2841 4.4120 2.3892
3.1365 4.5509 2.3892
2.9838 4.6857 2.3892
2.8260 4.8161 2.3892
2.6634 4.9421 2.3892
2.4960 5.0634 2.3892
2.3238 5.1798 2.3892
2.1470 5.2912 2.3892
0.8351 2.2931 1.0150
0.7524 2.3241 1.0099
0.6686 2.3521 1.0047
0.5838 2.3771 0.9994
0.4982 2.3990 0.9940
0.4119 2.4178 0.9886
0.3249 2.4335 0.9831
0.2374 2.4460 0.9775
0.1495 2.4553 0.9719
0.0613 2.4615 0.9662
-0.0270 2.4645 0.9605
-0.1154 2.4643 0.9548
-0.2037 2.4609 0.9490
-0.2918 2.4543 0.9433
-0.3797 2.4445 0.9375
-0.4671 2.4316 0.9317
-0.5541 2.4155 0.9260
-0.6403 2.3962 0.9203
-0.7259 2.3739 0.9145
-0.8105 2.3485 0.9089
-0.8942 2.3201 0.9032
-2.6000 6.0915 2.3892
-2.8342 6.0372 2.3892
-3.0677 5.9739 2.3892
-3.3000 5.9015 2.3892
-3.5307 5.8201 2.3892
-3.7595 5.7296 2.3892
-3.9860 5.6299 2.3892
-4.2097 5.5211 2.3892
-4.4303 5.4033 2.3892
-4.6473 5.2763 2.3892
-4.8602 5.1403 2.3892
-5.0687 4.9954 2.3892
-5.2723 4.8417 2.3892
-5.4705 4.6794 2.3892
-5.6630 4.5085 2.3892
-5.8492 4.3293 2.3892
-6.0288 4.1420 2.3892
-6.2013 3.9467 2.3892
-6.3662 3.7435 2.3892
-6.5233 3.5334 2.3892
-6.6721 3.3165 2.3892
-6.8122 3.0927 2.3892
-6.9432 2.8625 2.3892
-7.0647 2.6264 2.3892
-7.1765 2.3847 2.3892
-7.2782 2.1380 2.3892
-7.3696 1.8867 2.3892
-7.4503 1.6312 2.3892
-7.5202 1.3720 2.3892
-7.5790 1.1097 2.3892
-7.6265 0.8448 2.3892
-7.6626 0.5777 2.3892
-7.6872 0.3091 2.3892
-7.7001 0.0391 2.3892
-7.7014 -0.2306 2.3892
-7.6910 -0.5005 2.3892
-7.6689 -0.7698 2.3892
-7.6351 -1.0377 2.3892
-7.5898 -1.3041 2.3892
-7.5331 -1.5680 2.3892
-7.4650 -1.8290 2.3892
-7.3858 -2.0867 2.3892
-7.2956 -2.3403 2.3892
-4.8017 4.5792 2.3892
-4.9870 4.4313 2.3892
-5.1670 4.2756 2.3892
-5.3414 4.1121 2.3892
-5.5098 3.9412 2.3892
-5.6718 3.7630 2.3892
-5.8270 3.5778 2.3892
-5.9750 3.3857 2.3892
-6.1156 3.1872 2.3892
-6.2482 2.9819 2.3892
-6.3727 2.7717 2.3892
-6.4887 2.5552 2.3892
-6.5959 2.3341 2.3892
-6.6940 2.1080 2.3892
-6.7827 1.8774 2.3892
-6.8617 1.6429 2.3892
-6.9310 1.4048 2.3892
-6.9902 1.1636 2.3892
-7.0392 0.9199 2.3892
-7.0778 0.6739 2.3892
-7.1060 0.4263 2.3892
-7.1236 0.1775 2.3892
-7.1305 -0.0719 2.3892
-7.1268 -0.3215 2.3892
-7.1125 -0.5708 2.3892
-7.0874 -0.8193 2.3892
-7.0518 -1.0664 2.3892
-7.0057 -1.3117 2.3892
-6.9491 -1.5546 2.3892
-6.8823 -1.7947 2.3892
-6.8055 -2.0316 2.3892
-6.7187 -2.2647 2.3892
-6.6222 -2.4936 2.3892
-6.5163 -2.7179 2.3892
-6.4012 -2.9372 2.3892
-6.2772 -3.1510 2.3892
-6.1446 -3.3591 2.3892
-6.0038 -3.5609 2.3892
-5.8551 -3.7562 2.3892
-5.6988 -3.9448 2.3892
-5.5353 -4.1266 2.3892
-5.3650 -4.3006 2.3892
-5.1884 -4.4665 2.3892
-5.0057 -4.6252 2.3892
-4.8174 -4.7757 2.3892
-4.6239 -4.9180 2.3892
-4.4256 -5.0519 2.3892
-4.2230 -5.1774 2.3892
-4.0164 -5.2942 2.3892
-3.8063 -5.4024 2.3892
-3.5931 -5.5019 2.3892
-3.3772 -5.5925 2.3892
-3.1590 -5.6744 2.3892
-2.9388 -5.7475 2.3892
-2.7172 -5.8119 2.3892
-2.4943 -5.8675 2.3892
-2.2707 -5.9144 2.3892
-2.0467 -5.9528 2.3892
-1.8227 -5.9826 2.3892
-1.5989 -6.0040 2.3892
-1.3757 -6.0171 2.3892
-1.1535 -6.0219 2.3892
-0.9325 -6.0188 2.3892
-0.7130 -6.0077 2.3892
-0.4953 -5.9889 2.3892
-0.2796 -5.9625 2.3892
-0.0663 -5.9286 2.3892
0.1444 -5.8875 2.3892
0.3523 -5.8393 2.3892
0.5572 -5.7843 2.3892
0.7589 -5.7225 2.3892
0.9572 -5.6541 2.3892
1.1518 -5.5795 2.3892
1.3427 -5.4987 2.3892
1.5296 -5.4120 2.3892
1.7125 -5.3196 2.3892
1.8910 -5.2216 2.3892
2.0653 -5.1182 2.3892
2.2350 -5.0097 2.3892
2.4001 -4.8963 2.3892
2.5605 -4.7781 2.3892
2.7161 -4.6553 2.3892
2.8667 -4.5282 2.3892
3.0124 -4.3968 2.3892
3.1530 -4.2615 2.3892
3.2885 -4.1224 2.3892
3.4188 -3.9796 2.3892
3.5438 -3.8334 2.3892
3.6635 -3.6839 2.3892
3.7779 -3.5313 2.3892
3.8869 -3.3759 2.3892
3.9904 -3.2177 2.3892
4.0884 -3.0568 2.3892
4.1810 -2.8934 2.3892
4.2680 -2.7281 2.3892
4.3495 -2.5606 2.3892
4.4253 -2.3907 2.3892
4.4957 -2.2198 2.3892
4.5605 -2.0470 2.3892
4.6196 -1.8726 2.3892
4.6731 -1.6969 2.3892
4.7209 -1.5201 2.3892
4.7632 -1.3423 2.3892
4.7998 -1.1636 2.3892
4.8307 -0.9841 2.3892
4.8561 -0.8041 2.3892
4.8758 -0.6235 2.3892
4.8899 -0.4427 2.3892
4.8983 -0.2617 2.3892
4.9011 -0.0807 2.3892
4.8984 0.1002 2.3892
4.8900 0.2809 2.3892
4.8760 0.4612 2.3892
4.8565 0.6410 2.3892
4.8314 0.8201 2.3892
4.8007 0.9985 2.3892
4.7645 1.1760 2.3892
4.7228 1.3524 2.3892
4.6755 1.5276 2.3892
4.6228 1.7015 2.3892
4.5646 1.8739 2.3892
4.5010 2.0447 2.3892
4.4320 2.2137 2.3892
4.3575 2.3809 2.3892
4.2778 2.5460 2.3892
4.1926 2.7090 2.3892
4.1022 2.8696 2.3892
4.0065 3.0278 2.3892
3.9056 3.1834 2.3892
3.7995 3.3362 2.3892
3.6883 3.4860 2.3892
3.5720 3.6328 2.3892
3.4506 3.7763 2.3892
3.3243 3.9165 2.3892
3.1930 4.0532 2.3892
3.0568 4.1861 2.3892
2.9159 4.3152 2.3892
2.7703 4.4402 2.3892
2.6200 4.5610 2.3892
2.4651 4.6775 2.3892
2.3058 4.7894 2.3892
2.1421 4.8966 2.3892
0.8378 2.1213 1.0139
0.7612 2.1525 1.0092
0.6835 2.1810 1.0044
0.6049 2.2066 0.9995
0.5254 2.2293 0.9945
0.4451 2.2492 0.9894
0.3641 2.2661 0.9843
0.2826 2.2802 0.9791
0.2006 2.2912 0.9739
0.1183 2.2993 0.9686
0.0357 2.3045 0.9633
-0.0470 2.3066 0.9580
-0.1297 2.3058 0.9526
-0.2124 2.3019 0.9473
-0.2948 2.2951 0.9419
-0.3770 2.2853 0.9365
-0.4587 2.2726 0.9311
-0.5399 2.2569 0.9257
-0.6206 2.2383 0.9203
-0.7004 2.2167 0.9150
-0.7795 2.1923 0.9097
-0.8576 2.1651 0.9044
-0.9347 2.1351 0.8992
-2.7011 5.6183 2.3892
-2.9175 5.5552 2.3892
-3.1325 5.4837 2.3892
-3.3459 5.4038 2.3892
-3.5573 5.3154 2.3892
-3.7662 5.2187 2.3892
-3.9724 5.1135 2.3892
-4.1753 5.0000 2.3892
-4.3747 4.8782 2.3892
-4.5701 4.7482 2.3892
-4.7612 4.6100 2.3892
-4.9475 4.4638 2.3892
-5.1287 4.3097 2.3892
-5.3044 4.1479 2.3892
-5.4741 3.9786 2.3892
-5.6375 3.8020 2.3892
-5.7942 3.6182 2.3892
-5.9438 3.4276 2.3892
-6.0860 3.2304 2.3892
-6.2203 3.0267 2.3892
-6.3467 2.8175 2.3892
-6.4645 2.6025 2.3892
-6.5736 2.3822 2.3892
-6.6736 2.1570 2.3892
-6.7644 1.9274 2.3892
-6.8455 1.6937 2.3892
-6.9169 1.4563 2.3892
-6.9783 1.2158 2.3892
-7.0295 0.9725 2.3892
-7.0704 0.7270 2.3892
-7.1008 0.4797 2.3892
-7.1207 0.2311 2.3892
-7.1299 -0.0182 2.3892
-7.1285 -0.2678 2.3892
-7.1164 -0.5172 2.3892
-7.0937 -0.7659 2.3892
-7.0604 -1.0133 2.3892
-7.0165 -1.2590 2.3892
-6.9622 -1.5025 2.3892
-6.8976 -1.7433 2.3892
-6.8229 -1.9809 2.3892
-6.7382 -2.2149 2.3892
-6.6438 -2.4447 2.3892
-6.5399 -2.6701 2.3892
-6.4267 -2.8904 2.3892
-6.3046 -3.1055 2.3892
-6.1739 -3.3148 2.3892
-6.0348 -3.5180 2.3892
-5.8878 -3.7148 2.3892
-5.7331 -3.9048 2.3892
-5.5711 -4.0878 2.3892
-5.4023 -4.2634 2.3892
-5.2269 -4.4314 2.3892
-5.0454 -4.5921 2.3892
-4.8584 -4.7440 2.3892
-4.6660 -4.8881 2.3892
-4.4687 -5.0238 2.3892
-4.2670 -5.1511 2.3892
-4.0612 -5.2698 2.3892
-3.8518 -5.3799 2.3892
-3.6393 -5.4812 2.3892
-3.4239 -5.5738 2.3892
-3.2061 -5.6576 2.3892
-2.9864 -5.7325 2.3892
-2.7650 -5.7988 2.3892
-2.5424 -5.8563 2.3892
-2.3189 -5.9051 2.3892
-2.0950 -5.9452 2.3892
-1.8709 -5.9769 2.3892
-1.6470 -6.0001 2.3892
-1.4237 -6.0149 2.3892
-1.2012 -6.0216 2.3892
-0.9799 -6.0201 2.3892
-0.7601 -6.0108 2.3892
-0.5420 -5.9936 2.3892
-0.3259 -5.9688 2.3892
-0.1120 -5.9366 2.3892
0.0993 -5.8970 2.3892
0.3078 -5.8503 2.3892
0.5134 -5.7967 2.3892
0.7158 -5.7363 2.3892
0.9148 -5.6693 2.3892
1.1102 -5.5961 2.3892
1.3019 -5.5166 2.3892
1.4897 -5.4312 2.3892
1.6735 -5.3399 2.3892
1.8530 -5.2431 2.3892
2.0281 -5.1409 2.3892
2.1988 -5.0335 2.3892
2.3649 -4.9211 2.3892
2.5264 -4.8039 2.3892
2.6830 -4.6821 2.3892
2.8347 -4.5559 2.3892
2.9815 -4.4254 2.3892
3.1232 -4.2910 2.3892
3.2598 -4.1526 2.3892
3.3912 -4.0106 2.3892
3.5174 -3.8651 2.3892
3.6382 -3.7164 2.3892
3.7537 -3.5644 2.3892
3.8639 -3.4096 2.3892
3.9686 -3.2519 2.3892
4.0678 -3.0916 2.3892
4.1615 -2.9289 2.3892
4.2498 -2.7639 2.3892
4.3324 -2.5968 2.3892
4.4095 -2.4277 2.3892
4.4811 -2.2568 2.3892
4.5470 -2.0843 2.3892
4.6073 -1.9103 2.3892
4.6620 -1.7349 2.3892
4.7111 -1.5583 2.3892
4.7546 -1.3806 2.3892
4.7924 -1.2021 2.3892
4.8246 -1.0228 2.3892
4.8511 -0.8429 2.3892
4.8720 -0.6624 2.3892
4.8873 -0.4817 2.3892
4.8970 -0.3007 2.3892
4.9010 -0.1197 2.3892
4.8994 0.0613 2.3892
4.8923 0.2420 2.3892
4.8795 0.4224 2.3892
4.8612 0.6023 2.3892
4.8372 0.7816 2.3892
4.8078 0.9602 2.3892
4.7728 1.1379 2.3892
4.7322 1.3145 2.3892
4.6862 1.4900 2.3892
4.6346 1.6641 2.3892
4.5776 1.8369 2.3892
4.5152 2.0081 2.3892
4.4473 2.1775 2.3892
4.3740 2.3451 2.3892
4.2954 2.5107 2.3892
4.2114 2.6741 2.3892
4.1221 2.8353 2.3892
4.0276 2.9940 2.3892
3.9278 3.1501 2.3892
3.8228 3.3035 2.3892
3.7127 3.4540 2.3892
3.5974 3.6015 2.3892
3.4771 3.7458 2.3892
3.3519 3.8867 2.3892
3.2216 4.0241 2.3892
3.0865 4.1579 2.3892
2.9466 4.2878 2.3892
2.8020 4.4136 2.3892
2.6527 4.5354 2.3892
2.4988 4.6528 2.3892
2.3405 4.7657 2.3892
2.1777 4.8739 2.3892
0.8541 2.1143 1.0149
0.7778 2.1461 1.0102
0.7003 2.1751 1.0054
0.6219 2.2013 1.0005
0.5425 2.2247 0.9956
0.4624 2.2452 0.9905
0.3816 2.2627 0.9854
0.3002 2.2774 0.9803
0.2183 2.2891 0.9750
0.1360 2.2979 0.9698
0.0535 2.3036 0.9645
-0.0292 2.3064 0.9592
-0.1119 2.3062 0.9538
-0.1946 2.3030 0.9484
-0.2771 2.2968 0.9430
-0.3593 2.2877 0.9376
-0.4412 2.2756 0.9322
-0.5225 2.2605 0.9268
-0.6033 2.2425 0.9215
-0.6833 2.2216 0.9161
-0.7626 2.1978 0.9108
-0.8409 2.1712 0.9055
-0.9182 2.1418 0.9003
-2.6544 5.6308 2.3892
-2.8710 5.5695 2.3892
-3.0864 5.4998 2.3892
-3.3002 5.4217 2.3892
-3.5120 5.3351 2.3892
-3.7215 5.2402 2.3892
-3.9283 5.1369 2.3892
-4.1319 5.0252 2.3892
-4.3321 4.9051 2.3892
-4.5284 4.7769 2.3892
-4.7205 4.6404 2.3892
-4.9079 4.4959 2.3892
-5.0902 4.3436 2.3892
-5.2670 4.1834 2.3892
-5.4381 4.0157 2.3892
-5.6028 3.8406 2.3892
-5.7610 3.6584 2.3892
-5.9122 3.4692 2.3892
-6.0560 3.2734 2.3892
-6.1921 3.0713 2.3892
-6.3202 2.8632 2.3892
-6.4399 2.6491 2.3892
-6.5509 2.4301 2.3892
-6.6529 2.2059 2.3892
-6.7456 1.9772 2.3892
-6.8289 1.7443 2.3892
-6.9024 1.5077 2.3892
-6.9659 1.2678 2.3892
-7.0193 1.0251 2.3892
-7.0625 0.7800 2.3892
-7.0951 0.5331 2.3892
-7.1173 0.2847 2.3892
-7.1288 0.0355 2.3892
-7.1297 -0.2141 2.3892
-7.1199 -0.4636 2.3892
-7.0995 -0.7125 2.3892
-7.0684 -0.9602 2.3892
-7.0268 -1.2063 2.3892
-6.9747 -1.4503 2.3892
-6.9123 -1.6917 2.3892
-6.8398 -1.9301 2.3892
-6.7572 -2.1649 2.3892
-4.4883 4.2693 2.3892
-4.6596 4.1301 2.3892
-4.8259 3.9836 2.3892
-4.9869 3.8301 2.3892
-5.1423 3.6698 2.3892
-5.2917 3.5028 2.3892
-5.4347 3.3294 2.3892
-5.5711 3.1498 2.3892
-5.7004 2.9642 2.3892
-5.8225 2.7730 2.3892
-5.9369 2.5765 2.3892
-6.0435 2.3749 2.3892
-6.1418 2.1686 2.3892
-6.2318 1.9578 2.3892
-6.3131 1.7430 2.3892
-6.3855 1.5246 2.3892
-6.4490 1.3039 2.3892
-6.5032 1.0798 2.3892
-6.5480 0.8532 2.3892
-6.5832 0.6248 2.3892
-6.6089 0.3949 2.3892
-6.6248 0.1639 2.3892
-6.6309 -0.0677 2.3892
-6.6273 -0.2994 2.3892
-6.6139 -0.5309 2.3892
-6.5907 -0.7615 2.3892
-6.5578 -0.9909 2.3892
-6.5152 -1.2187 2.3892
-6.4631 -1.4443 2.3892
-6.4016 -1.6674 2.3892
-6.3307 -1.8875 2.3892
-6.2508 -2.1042 2.3892
-6.1620 -2.3171 2.3892
-6.0644 -2.5258 2.3892
-5.9584 -2.7299 2.3892
-5.8442 -2.9291 2.3892
-5.7221 -3.1232 2.3892
-5.5923 -3.3111 2.3892
-5.4552 -3.4937 2.3892
-5.3111 -3.6697 2.3892
-5.1602 -3.8398 2.3892
-5.0031 -4.0023 2.3892
-4.8399 -4.1583 2.3892
-4.6711 -4.3070 2.3892
-4.4971 -4.4484 2.3892
-4.3181 -4.5823 2.3892
-4.1346 -4.7085 2.3892
-3.9470 -4.8270 2.3892
-3.7556 -4.9375 2.3892
-3.5609 -5.0400 2.3892
-3.3631 -5.1345 2.3892
-3.1626 -5.2209 2.3892
-2.9599 -5.2992 2.3892
-2.7553 -5.3693 2.3892
-2.5491 -5.4313 2.3892
-2.3417 -5.4853 2.3892
-2.1334 -5.5311 2.3892
-1.9246 -5.5690 2.3892
-1.7156 -5.5989 2.3892
-1.5067 -5.6210 2.3892
-1.2982 -5.6353 2.3892
-1.0904 -5.6419 2.3892
-0.8836 -5.6410 2.3892
-0.6781 -5.6327 2.3892
-0.4741 -5.6171 2.3892
-0.2720 -5.5944 2.3892
-0.0718 -5.5646 2.3892
0.1260 -5.5279 2.3892
0.3214 -5.4846 2.3892
0.5140 -5.4348 2.3892
0.7038 -5.3786 2.3892
0.8905 -5.3162 2.3892
1.0739 -5.2477 2.3892
1.2538 -5.1735 2.3892
1.4302 -5.0935 2.3892
1.6028 -5.0081 2.3892
1.7715 -4.9174 2.3892
1.9362 -4.8216 2.3892
2.0967 -4.7207 2.3892
2.2530 -4.6152 2.3892
2.4048 -4.5051 2.3892
2.5523 -4.3906 2.3892
2.6951 -4.2718 2.3892
2.8333 -4.1490 2.3892
2.9668 -4.0223 2.3892
3.0954 -3.8920 2.3892
3.2192 -3.7581 2.3892
3.3380 -3.6209 2.3892
3.4519 -3.4805 2.3892
3.5607 -3.3371 2.3892
3.6644 -3.1908 2.3892
3.7630 -3.0419 2.3892
3.8564 -2.8905 2.3892
3.9446 -2.7365 2.3892
4.0276 -2.5806 2.3892
4.1054 -2.4224 2.3892
4.1778 -2.2626 2.3892
4.2450 -2.1009 2.3892
4.3068 -1.9376 2.3892
4.3633 -1.7728 2.3892
4.4144 -1.6068 2.3892
4.4602 -1.4396 2.3892
4.5006 -1.2713 2.3892
4.5357 -1.1023 2.3892
4.5654 -0.9324 2.3892
4.5897 -0.7620 2.3892
4.6086 -0.5911 2.3892
4.6222 -0.4199 2.3892
4.6304 -0.2486 2.3892
4.6332 -0.0772 2.3892
4.6307 0.0942 2.3892
4.6228 0.2653 2.3892
4.6096 0.4361 2.3892
4.5911 0.6064 2.3892
4.5672 0.7760 2.3892
4.5380 0.9449 2.3892
4.5036 1.1129 2.3892
4.4639 1.2799 2.3892
4.4189 1.4457 2.3892
4.3687 1.6103 2.3892
4.3133 1.7734 2.3892
4.2527 1.9349 2.3892
4.1869 2.0948 2.3892
4.1160 2.2528 2.3892
4.0401 2.4088 2.3892
3.9590 2.5628 2.3892
3.8729 2.7144 2.3892
3.7818 2.8637 2.3892
3.6858 3.0104 2.3892
3.5849 3.1544 2.3892
3.4791 3.2956 2.3892
3.3685 3.4338 2.3892
3.2531 3.5689 2.3892
3.1331 3.7006 2.3892
3.0084 3.8291 2.3892
2.8791 3.9538 2.3892
2.7453 4.0749 2.3892
2.6072 4.1920 2.3892
2.4646 4.3051 2.3892
2.3179 4.4139 2.3892
2.1669 4.5184 2.3892
0.8536 1.9594 1.0137
0.7828 1.9913 1.0093
0.7109 2.0206 1.0049
0.6380 2.0472 1.0004
0.5641 2.0713 0.9958
0.4895 2.0926 0.9911
0.4141 2.1112 0.9864
0.3381 2.1272 0.9816
0.2615 2.1403 0.9767
0.1846 2.1507 0.9718
0.1073 2.1583 0.9668
0.0298 2.1631 0.9619
-0.0479 2.1651 0.9568
-0.1255 2.1643 0.9518
-0.2031 2.1607 0.9468
-0.2805 2.1543 0.9417
-0.3576 2.1451 0.9366
-0.4344 2.1331 0.9316
-0.5106 2.1184 0.9265
-0.5863 2.1009 0.9215
-0.6613 2.0807 0.9165
-0.7355 2.0578 0.9115
-0.8089 2.0323 0.9065
-0.8813 2.0041 0.9016
-0.9526 1.9733 0.8968
-2.7395 5.1963 2.3892
-2.9397 5.1275 2.3892
-3.1382 5.0510 2.3892
-3.3346 4.9666 2.3892
-3.5287 4.8744 2.3892
-3.7200 4.7745 2.3892
-3.9082 4.6669 2.3892
-4.0930 4.5516 2.3892
-4.2740 4.4287 2.3892
-4.4508 4.2984 2.3892
-4.6231 4.1607 2.3892
-4.7905 4.0157 2.3892
-4.9527 3.8637 2.3892
-5.1094 3.7049 2.3892
-5.2600 3.5393 2.3892
-5.4045 3.3672 2.3892
-5.5423 3.1889 2.3892
-5.6732 3.0046 2.3892
-5.7968 2.8146 2.3892
-5.9129 2.6192 2.3892
-6.0212 2.4187 2.3892
-6.1214 2.2135 2.3892
-6.2132 2.0036 2.3892
-6.2964 1.7900 2.3892
-6.3708 1.5724 2.3892
-6.4362 1.3518 2.3892
-6.4923 1.1282 2.3892
-6.5391 0.9022 2.3892
-6.5764 0.6741 2.3892
-6.6042 0.4445 2.3892
-6.6222 0.2136 2.3892
-6.6304 -0.0178 2.3892
-6.6289 -0.2496 2.3892
-6.6176 -0.4811 2.3892
-6.5965 -0.7120 2.3892
-6.5657 -0.9417 2.3892
-6.5252 -1.1698 2.3892
-6.4751 -1.3960 2.3892
-6.4156 -1.6196 2.3892
-6.3468 -1.8404 2.3892
-6.2688 -2.0579 2.3892
-6.1818 -2.2716 2.3892
-6.0862 -2.4813 2.3892
-5.9820 -2.6864 2.3892
-5.8695 -2.8867 2.3892
-5.7490 -3.0819 2.3892
-5.6209 -3.2713 2.3892
-5.4852 -3.4553 2.3892
-5.3426 -3.6328 2.3892
-5.1933 -3.8034 2.3892
-5.0374 -3.9678 2.3892
-4.8755 -4.1253 2.3892
-4.7079 -4.2756 2.3892
-4.5350 -4.4186 2.3892
-4.3570 -4.5542 2.3892
-4.1745 -4.6820 2.3892
-3.9877 -4.8021 2.3892
-3.7971 -4.9144 2.3892
-3.6031 -5.0186 2.3892
-3.4059 -5.1148 2.3892
-3.2060 -5.2030 2.3892
-3.0037 -5.2830 2.3892
-2.7995 -5.3549 2.3892
-2.5936 -5.4187 2.3892
-2.3864 -5.4743 2.3892
-2.1783 -5.5219 2.3892
-1.9695 -5.5615 2.3892
-1.7605 -5.5931 2.3892
-1.5516 -5.6169 2.3892
-1.3430 -5.6329 2.3892
-1.1350 -5.6412 2.3892
-0.9280 -5.6419 2.3892
-0.7222 -5.6351 2.3892
-0.5179 -5.6211 2.3892
-0.3153 -5.5999 2.3892
-0.1147 -5.5716 2.3892
0.0836 -5.5364 2.3892
0.2796 -5.4945 2.3892
0.4728 -5.4461 2.3892
0.6632 -5.3912 2.3892
0.8506 -5.3301 2.3892
1.0347 -5.2630 2.3892
1.2154 -5.1899 2.3892
1.3925 -5.1112 2.3892
1.5660 -5.0270 2.3892
1.7355 -4.9374 2.3892
1.9011 -4.8426 2.3892
2.0625 -4.7429 2.3892
2.2197 -4.6383 2.3892
2.3725 -4.5292 2.3892
2.5209 -4.4156 2.3892
2.6648 -4.2977 2.3892
2.8040 -4.1758 2.3892
2.9384 -4.0499 2.3892
3.0681 -3.9204 2.3892
3.1930 -3.7872 2.3892
3.3129 -3.6507 2.3892
3.4278 -3.5110 2.3892
3.5377 -3.3682 2.3892
3.6425 -3.2226 2.3892
3.7422 -3.0739 2.3892
3.8368 -2.9233 2.3892
3.9261 -2.7699 2.3892
4.0102 -2.6144 2.3892
4.0891 -2.4567 2.3892
4.1627 -2.2972 2.3892
4.2309 -2.1356 2.3892
4.2939 -1.9725 2.3892
4.3516 -1.8084 2.3892
4.4039 -1.6426 2.3892
4.4508 -1.4756 2.3892
4.4924 -1.3076 2.3892
4.5286 -1.1387 2.3892
4.5595 -0.9690 2.3892
4.5849 -0.7988 2.3892
4.6050 -0.6280 2.3892
4.6197 -0.4568 2.3892
4.6291 -0.2855 2.3892
4.6331 -0.1140 2.3892
4.6317 0.0573 2.3892
4.6250 0.2285 2.3892
4.6129 0.3994 2.3892
4.5955 0.5697 2.3892
4.5728 0.7395 2.3892
4.5448 0.9086 2.3892
4.5114 1.0768 2.3892
4.4728 1.2440 2.3892
4.4290 1.4101 2.3892
4.3799 1.5750 2.3892
4.3256 1.7384 2.3892
4.2662 1.9003 2.3892
4.2015 2.0606 2.3892
4.1317 2.2189 2.3892
4.0568 2.3754 2.3892
3.9769 2.5298 2.3892
3.8919 2.6820 2.3892
3.8019 2.8318 2.3892
3.7069 2.9790 2.3892
3.6070 3.1237 2.3892
3.5023 3.2655 2.3892
3.3927 3.4043 2.3892
3.2784 3.5400 2.3892
3.1593 3.6726 2.3892
3.0356 3.8017 2.3892
2.9073 3.9273 2.3892
2.7745 4.0491 2.3892
2.6373 4.1671 2.3892
2.4957 4.2811 2.3892
2.3498 4.3909 2.3892
2.1998 4.4963 2.3892
2.0456 4.5972 2.3892
0.7981 1.9846 1.0103
0.7265 2.0145 1.0058
0.6537 2.0417 1.0013
0.5801 2.0663 0.9968
0.5056 2.0882 0.9921
0.4304 2.1075 0.9874
0.3545 2.1240 0.9826
0.2781 2.1377 0.9777
0.2012 2.1487 0.9729
0.1239 2.1569 0.9679
0.0465 2.1623 0.9629
-0.0311 2.1649 0.9579
-0.1088 2.1647 0.9529
-0.1864 2.1617 0.9478
-0.2639 2.1559 0.9428
-0.3411 2.1473 0.9377
-0.4179 2.1360 0.9327
-0.4943 2.1218 0.9276
-0.5701 2.1049 0.9226
-0.6452 2.0853 0.9175
-0.7196 2.0630 0.9125
-0.7932 2.0380 0.9076
-0.8658 2.0104 0.9027
-0.9373 1.9801 0.8978
-2.6962 5.2101 2.3892
-2.8967 5.1430 2.3892
-3.0956 5.0681 2.3892
-3.2925 4.9854 2.3892
-3.4871 4.8949 2.3892
-3.6791 4.7967 2.3892
-3.8680 4.6907 2.3892
-4.0535 4.5770 2.3892
-4.2354 4.4558 2.3892
-4.4131 4.3271 2.3892
-4.5864 4.1909 2.3892
-4.7549 4.0475 2.3892
-4.9183 3.8971 2.3892
-5.0761 3.7396 2.3892
-5.2281 3.5755 2.3892
-5.3739 3.4048 2.3892
-5.5132 3.2278 2.3892
-5.6456 3.0448 2.3892
-5.7708 2.8560 2.3892
-5.8886 2.6617 2.3892
-5.9986 2.4623 2.3892
-6.1005 2.2576 2.3892
-6.1941 2.0490 2.3892
-6.2792 1.8363 2.3892
-6.3555 1.6194 2.3892
-6.4229 1.3996 2.3892
-6.4810 1.1766 2.3892
-6.5299 0.9510 2.3892
-6.5692 0.7233 2.3892
-6.5990 0.4940 2.3892
-6.6191 0.2634 2.3892
-6.6295 0.0320 2.3892
-6.6301 -0.1997 2.3892
-6.6209 -0.4313 2.3892
-6.6019 -0.6623 2.3892
-6.5731 -0.8923 2.3892
-6.5347 -1.1209 2.3892
-6.4867 -1.3475 2.3892
-6.4292 -1.5717 2.3892
-6.3624 -1.7932 2.3892
-6.2863 -2.0114 2.3892
-4.2094 3.9936 2.3892
-4.3684 3.8622 2.3892
-4.5228 3.7242 2.3892
-4.6721 3.5796 2.3892
-4.8161 3.4288 2.3892
-4.9544 3.2719 2.3892
-5.0869 3.1091 2.3892
-5.2130 2.9406 2.3892
-5.3326 2.7667 2.3892
-5.4454 2.5876 2.3892
-5.5512 2.4037 2.3892
-5.6495 2.2151 2.3892
-5.7403 2.0223 2.3892
-5.8233 1.8255 2.3892
-5.8983 1.6251 2.3892
-5.9650 1.4212 2.3892
-6.0233 1.2147 2.3892
-6.0732 1.0059 2.3892
-6.1143 0.7943 2.3892
-6.1466 0.5813 2.3892
-6.1702 0.3674 2.3892
-6.1846 0.1516 2.3892
-6.1901 -0.0645 2.3892
-6.1866 -0.2799 2.3892
-6.1740 -0.4956 2.3892
-6.1525 -0.7106 2.3892
-6.1219 -0.9244 2.3892
-6.0825 -1.1367 2.3892
-6.0342 -1.3470 2.3892
-5.9772 -1.5553 2.3892
-5.9117 -1.7602 2.3892
-5.8377 -1.9626 2.3892
-5.7555 -2.1615 2.3892
-5.6653 -2.3560 2.3892
-5.5672 -2.5468 2.3892
-5.4615 -2.7331 2.3892
-5.3483 -2.9150 2.3892
-5.2283 -3.0904 2.3892
-5.1013 -3.2612 2.3892
-4.9678 -3.4263 2.3892
-4.8280 -3.5854 2.3892
-4.6823 -3.7383 2.3892
-4.5310 -3.8849 2.3892
-4.3744 -4.0248 2.3892
-4.2128 -4.1580 2.3892
-4.0466 -4.2842 2.3892
-3.8761 -4.4034 2.3892
-3.7017 -4.5154 2.3892
-3.5236 -4.6201 2.3892
-3.3423 -4.7174 2.3892
-3.1581 -4.8073 2.3892
-2.9714 -4.8896 2.3892
-2.7823 -4.9644 2.3892
-2.5914 -5.0317 2.3892
-2.3989 -5.0915 2.3892
-2.2052 -5.1437 2.3892
-2.0105 -5.1883 2.3892
-1.8152 -5.2255 2.3892
-1.6196 -5.2553 2.3892
-1.4240 -5.2778 2.3892
-1.2286 -5.2929 2.3892
-1.0338 -5.3009 2.3892
-0.8397 -5.3018 2.3892
-0.6468 -5.2957 2.3892
-0.4552 -5.2827 2.3892
-0.2651 -5.2630 2.3892
-0.0768 -5.2367 2.3892
0.1095 -5.2039 2.3892
0.2935 -5.1648 2.3892
0.4751 -5.1194 2.3892
0.6541 -5.0681 2.3892
0.8302 -5.0108 2.3892
1.0034 -4.9478 2.3892
1.1735 -4.8792 2.3892
1.3402 -4.8052 2.3892
1.5035 -4.7260 2.3892
1.6632 -4.6417 2.3892
1.8191 -4.5525 2.3892
1.9712 -4.4586 2.3892
2.1194 -4.3600 2.3892
2.2635 -4.2571 2.3892
2.4034 -4.1499 2.3892
2.5391 -4.0387 2.3892
2.6704 -3.9236 2.3892
2.7972 -3.8047 2.3892
2.9196 -3.6822 2.3892
3.0373 -3.5563 2.3892
3.1505 -3.4272 2.3892
3.2589 -3.2950 2.3892
3.3626 -3.1599 2.3892
3.4614 -3.0220 2.3892
3.5554 -2.8815 2.3892
3.6446 -2.7385 2.3892
3.7288 -2.5933 2.3892
3.8080 -2.4458 2.3892
3.8822 -2.2964 2.3892
3.9514 -2.1449 2.3892
4.0156 -1.9921 2.3892
4.0747 -1.8375 2.3892
4.1288 -1.6815 2.3892
4.1777 -1.5242 2.3892
4.2216 -1.3658 2.3892
4.2603 -1.2067 2.3892
4.2939 -1.0461 2.3892
4.3224 -0.8851 2.3892
4.3457 -0.7235 2.3892
4.3639 -0.5616 2.3892
4.3770 -0.3991 2.3892
4.3849 -0.2365 2.3892
4.3877 -0.0739 2.3892
4.3854 0.0887 2.3892
4.3780 0.2510 2.3892
4.3655 0.4131 2.3892
4.3478 0.5746 2.3892
4.3251 0.7355 2.3892
4.2974 0.8958 2.3892
4.2645 1.0551 2.3892
4.2267 1.2135 2.3892
4.1838 1.3708 2.3892
4.1359 1.5267 2.3892
4.0831 1.6813 2.3892
4.0253 1.8344 2.3892
3.9626 1.9859 2.3892
3.8950 2.1355 2.3892
3.8225 2.2833 2.3892
3.7453 2.4289 2.3892
3.6632 2.5724 2.3892
3.5764 2.7136 2.3892
3.4849 2.8523 2.3892
3.3887 2.9883 2.3892
3.2880 3.1216 2.3892
3.1827 3.2521 2.3892
3.0728 3.3795 2.3892
2.9586 3.5037 2.3892
2.8400 3.6246 2.3892
2.7170 3.7420 2.3892
2.5899 3.8558 2.3892
2.4586 3.9658 2.3892
2.3232 4.0720 2.3892
2.1838 4.1740 2.3892
2.0406 4.2719 2.3892
0.7999 1.8441 1.0093
0.7332 1.8741 1.0052
0.6655 1.9016 1.0010
0.5969 1.9267 0.9968
0.5274 1.9493 0.9924
0.4571 1.9694 0.9880
0.3862 1.9869 0.9836
0.3146 2.0019 0.9791
0.2426 2.0143 0.9745
0.1701 2.0241 0.9699
0.0974 2.0312 0.9652
0.0244 2.0357 0.9605
-0.0486 2.0376 0.9558
-0.1217 2.0368 0.9511
-0.1948 2.0335 0.9463
-0.2676 2.0274 0.9415
-0.3402 2.0188 0.9368
-0.4125 2.0075 0.9320
-0.4842 1.9936 0.9273
-0.5555 1.9772 0.9225
-0.6261 1.9582 0.9178
-0.6959 1.9366 0.9131
-0.7650 1.9125 0.9084
-0.8331 1.8860 0.9038
-0.9002 1.8570 0.8992
-0.9663 1.8257 0.8947
-2.7672 4.8089 2.3892
-2.9525 4.7356 2.3892
-3.1357 4.6549 2.3892
-3.3166 4.5671 2.3892
-3.4948 4.4720 2.3892
-3.6700 4.3698 2.3892
-3.8420 4.2605 2.3892
-4.0102 4.1442 2.3892
-4.1746 4.0210 2.3892
-4.3346 3.8911 2.3892
-4.4899 3.7544 2.3892
-4.6404 3.6113 2.3892
-4.7856 3.4618 2.3892
-4.9252 3.3062 2.3892
-5.0589 3.1446 2.3892
-5.1864 2.9774 2.3892
-5.3075 2.8046 2.3892
-5.4217 2.6266 2.3892
-5.5290 2.4437 2.3892
-5.6290 2.2561 2.3892
-5.7214 2.0641 2.3892
-5.8061 1.8682 2.3892
-5.8828 1.6685 2.3892
-5.9513 1.4655 2.3892
-6.0115 1.2594 2.3892
-6.0632 1.0509 2.3892
-6.1062 0.8401 2.3892
-6.1405 0.6275 2.3892
-6.1658 0.4132 2.3892
-6.1822 0.1979 2.3892
-6.1897 -0.0175 2.3892
-6.1881 -0.2335 2.3892
-6.1775 -0.4492 2.3892
-6.1579 -0.6643 2.3892
-6.1292 -0.8785 2.3892
-6.0917 -1.0911 2.3892
-6.0453 -1.3019 2.3892
-5.9902 -1.5108 2.3892
-5.9265 -1.7164 2.3892
-5.8543 -1.9195 2.3892
-5.7739 -2.1190 2.3892
-5.6854 -2.3147 2.3892
-5.5890 -2.5059 2.3892
-5.4849 -2.6935 2.3892
-5.3733 -2.8762 2.3892
-5.2547 -3.0530 2.3892
-5.1292 -3.2249 2.3892
-4.9971 -3.3912 2.3892
-4.8586 -3.5517 2.3892
-4.7141 -3.7059 2.3892
-4.5640 -3.8539 2.3892
-4.4085 -3.9953 2.3892
-4.2480 -4.1299 2.3892
-4.0827 -4.2577 2.3892
-3.9131 -4.3784 2.3892
-3.7395 -4.4919 2.3892
-3.5622 -4.5982 2.3892
-3.3816 -4.6971 2.3892
-3.1980 -4.7886 2.3892
-3.0118 -4.8725 2.3892
-2.8232 -4.9490 2.3892
-2.6327 -5.0179 2.3892
-2.4405 -5.0792 2.3892
-2.2470 -5.1330 2.3892
-2.0525 -5.1793 2.3892
-1.8573 -5.2182 2.3892
-1.6617 -5.2495 2.3892
-1.4661 -5.2736 2.3892
-1.2706 -5.2903 2.3892
-1.0756 -5.2998 2.3892
-0.8814 -5.3022 2.3892
-0.6882 -5.2976 2.3892
-0.4963 -5.2861 2.3892
-0.3058 -5.2679 2.3892
-0.1172 -5.2429 2.3892
0.0695 -5.2115 2.3892
0.2541 -5.1737 2.3892
0.4362 -5.1297 2.3892
0.6158 -5.0796 2.3892
0.7926 -5.0236 2.3892
0.9664 -4.9618 2.3892
1.1371 -4.8944 2.3892
1.3046 -4.8216 2.3892
1.4686 -4.7435 2.3892
1.6291 -4.6603 2.3892
1.7859 -4.5721 2.3892
1.9388 -4.4792 2.3892
2.0879 -4.3816 2.3892
2.2328 -4.2796 2.3892
2.3736 -4.1734 2.3892
2.5102 -4.0630 2.3892
2.6425 -3.9487 2.3892
2.7703 -3.8306 2.3892
2.8936 -3.7089 2.3892
3.0124 -3.5837 2.3892
3.1265 -3.4553 2.3892
3.2360 -3.3237 2.3892
3.3407 -3.1892 2.3892
3.4406 -3.0519 2.3892
3.5356 -2.9120 2.3892
3.6258 -2.7695 2.3892
3.7111 -2.6247 2.3892
3.7914 -2.4777 2.3892
3.8667 -2.3286 2.3892
3.9370 -2.1778 2.3892
4.0022 -2.0252 2.3892
4.0624 -1.8709 2.3892
4.1176 -1.7152 2.3892
4.1676 -1.5582 2.3892
4.2125 -1.3996 2.3892
4.2524 -1.2408 2.3892
4.2871 -1.0807 2.3892
4.3167 -0.9198 2.3892
4.3411 -0.7583 2.3892
4.3604 -0.5964 2.3892
4.3746 -0.4341 2.3892
4.3836 -0.2715 2.3892
4.3876 -0.1089 2.3892
4.3863 0.0537 2.3892
4.3800 0.2161 2.3892
4.3686 0.3782 2.3892
4.3521 0.5399 2.3892
4.3304 0.7010 2.3892
4.3038 0.8613 2.3892
4.2720 1.0209 2.3892
4.2352 1.1795 2.3892
4.1934 1.3370 2.3892
4.1466 1.4933 2.3892
4.0949 1.6482 2.3892
4.0381 1.8016 2.3892
3.9765 1.9534 2.3892
3.9099 2.1035 2.3892
3.8385 2.2519 2.3892
3.7623 2.3978 2.3892
3.6813 2.5417 2.3892
3.5955 2.6834 2.3892
3.5050 2.8226 2.3892
3.4098 2.9593 2.3892
3.3101 3.0932 2.3892
3.2057 3.2241 2.3892
3.0969 3.3523 2.3892
2.9836 3.4772 2.3892
2.8659 3.5988 2.3892
2.7439 3.7170 2.3892
2.6176 3.8316 2.3892
2.4872 3.9425 2.3892
2.3527 4.0495 2.3892
2.2142 4.1524 2.3892
2.0717 4.2512 2.3892
0.8141 1.8373 1.0101
0.7477 1.8678 1.0061
0.6802 1.8959 1.0019
0.6118 1.9215 0.9977
0.5424 1.9447 0.9934
0.4723 1.9653 0.9890
0.4015 1.9834 0.9845
0.3301 1.9989 0.9800
0.2581 2.0118 0.9755
0.1858 2.0222 0.9709
0.1131 2.0299 0.9662
0.0401 2.0350 0.9615
-0.0329 2.0374 0.9568
-0.1060 2.0372 0.9521
-0.1791 2.0344 0.9473
-0.2520 2.0289 0.9426
-0.3246 2.0209 0.9378
-0.3969 2.0101 0.9330
-0.4688 1.9968 0.9283
-0.5402 1.9809 0.9235
-0.6109 1.9625 0.9188
-0.6810 1.9415 0.9141
-0.7502 1.9179 0.9094
-0.8185 1.8919 0.9048
-0.8859 1.8635 0.9002
-0.9521 1.8326 0.8957
-2.7271 4.8238 2.3892
-2.9127 4.7520 2.3892
-3.0964 4.6729 2.3892
-3.2779 4.5866 2.3892
-3.4567 4.4931 2.3892
-3.6326 4.3924 2.3892
-3.8053 4.2846 2.3892
-3.9743 4.1699 2.3892
-4.1395 4.0481 2.3892
-4.3005 3.9196 2.3892
-4.4569 3.7844 2.3892
-4.6084 3.6426 2.3892
-4.7548 3.4945 2.3892
-4.8956 3.3402 2.3892
-5.0306 3.1799 2.3892
-5.1595 3.0138 2.3892
-5.2820 2.8422 2.3892
-5.3977 2.6653 2.3892
-5.5065 2.4835 2.3892
-5.6081 2.2968 2.3892
-5.7022 2.1058 2.3892
-5.7886 1.9107 2.3892
-5.8670 1.7118 2.3892
-5.9373 1.5094 2.3892
-5.9993 1.3042 2.3892
-6.0528 1.0958 2.3892
-6.0977 0.8856 2.3892
-6.1338 0.6733 2.3892
-6.1611 0.4593 2.3892
-6.1795 0.2444 2.3892
-6.1888 0.0281 2.3892
-6.1892 -0.1870 2.3892
-6.1806 -0.4028 2.3892
-6.1629 -0.6181 2.3892
-6.1362 -0.8325 2.3892
-6.1005 -1.0455 2.3892
-6.0560 -1.2567 2.3892
-6.0028 -1.4660 2.3892
-5.9409 -1.6725 2.3892
-5.8706 -1.8761 2.3892
-3.9593 3.7465 2.3892
-4.1075 3.6222 2.3892
-4.2513 3.4919 2.3892
-4.3903 3.3555 2.3892
-4.5243 3.2133 2.3892
-4.6529 3.0655 2.3892
-4.7760 2.9123 2.3892
-4.8932 2.7538 2.3892
-5.0043 2.5904 2.3892
-5.1089 2.4222 2.3892
-5.2070 2.2495 2.3892
-5.2982 2.0726 2.3892
-5.3823 1.8918 2.3892
-5.4592 1.7074 2.3892
-5.5286 1.5196 2.3892
-5.5904 1.3289 2.3892
-5.6443 1.1355 2.3892
-5.6903 0.9398 2.3892
-5.7283 0.7421 2.3892
-5.7581 0.5429 2.3892
-5.7797 0.3424 2.3892
-5.7930 0.1409 2.3892
-5.7978 -0.0617 2.3892
-5.7945 -0.2627 2.3892
