ply
format ascii 1.0
element vertex 2167
property float32 x
property float32 y
property float32 z
end_header
-5.6861 -2.4439 2.3950
-5.5950 -2.6444 2.3950
-5.4964 -2.8413 2.3950
-5.3905 -3.0343 2.3950
-5.2774 -3.2232 2.3950
-5.1574 -3.4076 2.3950
-5.0305 -3.5873 2.3950
-4.8971 -3.7621 2.3950
-4.7572 -3.9316 2.3950
-4.6112 -4.0957 2.3950
-4.4591 -4.2540 2.3950
-4.3003 -4.4054 2.3943
-4.1340 -4.5483 2.3926
-3.9600 -4.6816 2.3892
-3.7810 -4.8072 2.3854
-3.6022 -4.9317 2.3845
-3.4192 -5.0494 2.3836
-3.2322 -5.1601 2.3828
-3.0414 -5.2637 2.3820
-2.8473 -5.3601 2.3812
-2.6500 -5.4491 2.3805
-2.4499 -5.5307 2.3798
-2.2473 -5.6048 2.3791
-2.0414 -5.6687 2.3773
-1.8326 -5.7214 2.3741
-1.6224 -5.7659 2.3708
-1.4125 -5.8073 2.3694
-1.2023 -5.8440 2.3694
-0.9911 -5.8730 2.3693
-0.7794 -5.8942 2.3692
-0.5674 -5.9077 2.3692
-0.3553 -5.9133 2.3691
-0.1435 -5.9113 2.3690
0.0678 -5.9015 2.3690
0.2782 -5.8841 2.3689
0.4875 -5.8592 2.3689
0.6955 -5.8267 2.3688
0.9017 -5.7868 2.3688
1.1061 -5.7395 2.3688
1.3083 -5.6850 2.3687
1.5081 -5.6234 2.3687
1.7052 -5.5548 2.3687
1.8993 -5.4793 2.3687
2.0903 -5.3970 2.3687
2.2780 -5.3081 2.3686
2.4620 -5.2127 2.3686
2.6423 -5.1111 2.3686
2.8185 -5.0032 2.3686
2.9904 -4.8894 2.3686
3.1580 -4.7697 2.3687
3.3209 -4.6444 2.3687
3.4791 -4.5136 2.3687
3.6323 -4.3776 2.3687
3.7804 -4.2365 2.3687
3.9232 -4.0905 2.3688
4.0606 -3.9398 2.3688
4.1968 -3.7886 2.3713
4.3285 -3.6336 2.3744
4.4548 -3.4740 2.3774
4.5718 -3.3077 2.3787
4.6817 -3.1368 2.3793
4.7854 -2.9623 2.3800
4.8830 -2.7845 2.3806
4.9743 -2.6037 2.3813
5.0592 -2.4200 2.3821
5.1377 -2.2336 2.3828
5.2097 -2.0449 2.3836
5.2751 -1.8539 2.3844
5.3338 -1.6609 2.3852
5.3858 -1.4662 2.3860
5.4424 -1.2726 2.3918
5.4847 -1.0753 2.3943
5.5159 -0.8759 2.3950
5.5388 -0.6756 2.3950
5.5547 -0.4747 2.3950
5.5637 -0.2736 2.3950
5.5657 -0.0724 2.3950
5.5609 0.1286 2.3950
5.5492 0.3292 2.3950
5.5306 0.5292 2.3950
5.5052 0.7284 2.3950
5.4729 0.9264 2.3950
5.4339 1.1232 2.3950
5.3882 1.3185 2.3950
5.3359 1.5121 2.3950
5.2770 1.7037 2.3950
5.2115 1.8931 2.3950
5.1396 2.0802 2.3950
5.0613 2.2648 2.3950
4.9768 2.4465 2.3950
4.8860 2.6253 2.3950
4.7892 2.8009 2.3950
4.6864 2.9731 2.3950
4.5777 3.1418 2.3950
4.4632 3.3067 2.3950
4.3431 3.4676 2.3950
4.2175 3.6245 2.3950
4.0865 3.7770 2.3950
3.9502 3.9249 2.3950
3.8089 4.0682 2.3950
3.6626 4.2067 2.3950
3.5115 4.3401 2.3950
3.3558 4.4684 2.3950
3.1956 4.5914 2.3950
3.0312 4.7088 2.3950
2.8626 4.8206 2.3950
2.6900 4.9267 2.3950
2.5137 5.0268 2.3950
2.3338 5.1209 2.3950
0.8767 2.1233 0.9763
0.7998 2.1542 0.9752
0.7219 2.1823 0.9741
0.6430 2.2076 0.9730
0.5633 2.2301 0.9718
0.4827 2.2497 0.9706
0.4016 2.2663 0.9693
0.3198 2.2800 0.9680
0.2376 2.2908 0.9667
0.1551 2.2986 0.9653
0.0724 2.3034 0.9639
-0.0105 2.3052 0.9624
-0.0934 2.3041 0.9610
-0.1762 2.2999 0.9595
-0.2588 2.2928 0.9580
-0.3410 2.2827 0.9565
-0.4229 2.2696 0.9549
-0.5042 2.2536 0.9533
-0.5849 2.2347 0.9518
-0.6649 2.2129 0.9502
-0.7441 2.1882 0.9485
-0.8222 2.1606 0.9469
-0.8994 2.1303 0.9453
-2.4755 5.3227 2.3950
-2.6699 5.2409 2.3950
-2.8615 5.1520 2.3950
-3.0501 5.0562 2.3950
-3.2354 4.9534 2.3950
-3.4172 4.8439 2.3950
-3.5952 4.7276 2.3950
-3.7692 4.6047 2.3950
-3.9389 4.4755 2.3950
-4.1040 4.3399 2.3950
-4.2643 4.1982 2.3950
-4.4196 4.0505 2.3950
-4.5696 3.8970 2.3950
-4.7142 3.7378 2.3950
-4.8530 3.5733 2.3950
-4.9858 3.4035 2.3950
-5.1125 3.2287 2.3950
-5.2329 3.0491 2.3950
-5.3467 2.8650 2.3950
-5.4537 2.6765 2.3950
-5.5538 2.4840 2.3950
-5.6469 2.2877 2.3950
-5.7327 2.0878 2.3950
-5.8111 1.8846 2.3950
-5.8820 1.6784 2.3950
-5.9453 1.4696 2.3950
-6.0007 1.2583 2.3950
-6.0483 1.0449 2.3950
-6.0879 0.8297 2.3950
-6.1195 0.6129 2.3950
-6.1430 0.3950 2.3950
-6.1583 0.1762 2.3950
-6.1654 -0.0432 2.3950
-6.1643 -0.2628 2.3950
-6.1549 -0.4823 2.3950
-6.1373 -0.7014 2.3950
-6.1115 -0.9199 2.3950
-6.0774 -1.1372 2.3950
-6.0352 -1.3532 2.3950
-5.9849 -1.5676 2.3950
-5.9266 -1.7799 2.3950
-5.8602 -1.9899 2.3950
-5.7861 -2.1973 2.3950
-5.7042 -2.4017 2.3950
-5.6146 -2.6029 2.3950
-5.5176 -2.8006 2.3950
-5.4132 -2.9945 2.3950
-5.3016 -3.1842 2.3950
-5.1830 -3.3696 2.3950
-5.0575 -3.5503 2.3950
-4.9254 -3.7261 2.3950
-4.7868 -3.8967 2.3950
-4.6421 -4.0620 2.3950
-4.4913 -4.2216 2.3950
-4.3339 -4.3745 2.3946
-4.1693 -4.5194 2.3931
-3.9970 -4.6548 2.3901
-3.8177 -4.7804 2.3855
-3.6398 -4.9064 2.3847
-3.4576 -5.0255 2.3838
-3.2714 -5.1377 2.3830
-3.0814 -5.2427 2.3822
-2.8880 -5.3406 2.3814
-2.6914 -5.4312 2.3806
-2.4918 -5.5143 2.3799
-2.2896 -5.5900 2.3792
-2.0847 -5.6569 2.3780
-1.8762 -5.7111 2.3748
-1.6663 -5.7573 2.3715
-1.4561 -5.7986 2.3695
-1.2461 -5.8370 2.3694
-1.0351 -5.8676 2.3693
-0.8235 -5.8905 2.3692
-4.6054 3.2836 2.3950
-4.7272 3.1221 2.3950
-4.8431 2.9561 2.3950
-4.9530 2.7857 2.3950
-5.0566 2.6112 2.3950
-5.1538 2.4327 2.3950
-5.2445 2.2506 2.3950
-5.3285 2.0650 2.3950
-5.4057 1.8762 2.3950
-5.4758 1.6846 2.3950
-5.5389 1.4902 2.3950
-5.5948 1.2935 2.3950
-5.6433 1.0946 2.3950
-5.6845 0.8939 2.3950
-5.7182 0.6917 2.3950
-5.7443 0.4881 2.3950
-5.7628 0.2836 2.3950
-5.7737 0.0785 2.3950
-5.7769 -0.1271 2.3950
-5.7724 -0.3328 2.3950
-5.7603 -0.5382 2.3950
-5.7404 -0.7431 2.3950
-5.7128 -0.9473 2.3950
-5.6777 -1.1503 2.3950
-5.6349 -1.3519 2.3950
-5.5845 -1.5518 2.3950
-5.5267 -1.7497 2.3950
-5.4616 -1.9453 2.3950
-5.3891 -2.1384 2.3950
-5.3094 -2.3286 2.3950
-5.2226 -2.5157 2.3950
-5.1290 -2.6993 2.3950
-5.0285 -2.8793 2.3950
-4.9213 -3.0553 2.3950
-4.8077 -3.2272 2.3950
-4.6877 -3.3946 2.3950
-4.5616 -3.5573 2.3950
-4.4295 -3.7152 2.3950
-4.2918 -3.8679 2.3950
-4.1484 -4.0152 2.3950
-3.9993 -4.1566 2.3947
-3.8436 -4.2904 2.3935
-3.6812 -4.4158 2.3909
-3.5118 -4.5313 2.3865
-3.3433 -4.6465 2.3854
-3.1712 -4.7559 2.3846
-2.9954 -4.8587 2.3838
-2.8162 -4.9548 2.3831
-2.6338 -5.0442 2.3824
-2.4485 -5.1267 2.3817
-2.2606 -5.2022 2.3810
-2.0703 -5.2707 2.3804
-1.8778 -5.3321 2.3797
-1.6836 -5.3864 2.3792
-1.4878 -5.4334 2.3786
-1.2895 -5.4684 2.3759
-1.0907 -5.4964 2.3735
-0.8911 -5.5167 2.3709
-0.6922 -5.5323 2.3694
-0.4934 -5.5439 2.3693
-0.2945 -5.5482 2.3693
-0.0959 -5.5453 2.3692
0.1021 -5.5352 2.3692
0.2994 -5.5180 2.3691
0.4956 -5.4936 2.3691
0.6905 -5.4623 2.3690
0.8839 -5.4239 2.3690
1.0754 -5.3787 2.3690
1.2649 -5.3267 2.3689
1.4521 -5.2680 2.3689
1.6367 -5.2028 2.3689
1.8187 -5.1311 2.3689
1.9976 -5.0530 2.3688
2.1734 -4.9688 2.3688
2.3458 -4.8784 2.3688
2.5146 -4.7822 2.3688
2.6796 -4.6801 2.3688
2.8406 -4.5725 2.3688
2.9975 -4.4594 2.3688
3.1500 -4.3409 2.3689
3.2980 -4.2174 2.3689
3.4425 -4.0907 2.3699
3.5849 -3.9613 2.3723
3.7224 -3.8270 2.3747
3.8551 -3.6881 2.3771
3.9810 -3.5433 2.3785
4.1001 -3.3929 2.3791
4.2138 -3.2386 2.3796
4.3219 -3.0806 2.3802
4.4244 -2.9192 2.3808
4.5211 -2.7545 2.3814
4.6120 -2.5867 2.3820
4.6970 -2.4161 2.3827
4.7759 -2.2427 2.3834
4.8488 -2.0669 2.3841
4.9154 -1.8889 2.3848
4.9759 -1.7087 2.3856
5.0301 -1.5268 2.3863
5.0787 -1.3433 2.3875
5.1303 -1.1605 2.3930
5.1675 -0.9743 2.3947
5.1949 -0.7863 2.3950
5.2153 -0.5977 2.3950
5.2291 -0.4085 2.3950
5.2365 -0.2191 2.3950
5.2372 -0.0297 2.3950
5.2315 0.1595 2.3950
5.2193 0.3483 2.3950
5.2006 0.5364 2.3950
5.1754 0.7238 2.3950
5.1438 0.9101 2.3950
5.1059 1.0951 2.3950
5.0616 1.2787 2.3950
5.0111 1.4606 2.3950
4.9543 1.6406 2.3950
4.8914 1.8186 2.3950
4.8225 1.9943 2.3950
4.7475 2.1676 2.3950
4.6666 2.3381 2.3950
4.5799 2.5058 2.3950
4.4875 2.6705 2.3950
4.3895 2.8319 2.3950
4.2859 2.9900 2.3950
4.1769 3.1444 2.3950
4.0626 3.2951 2.3950
3.9431 3.4417 2.3950
3.8186 3.5843 2.3950
3.6892 3.7226 2.3950
3.5550 3.8565 2.3950
3.4162 3.9857 2.3950
3.2729 4.1101 2.3950
3.1253 4.2296 2.3950
2.9735 4.3441 2.3950
2.8177 4.4533 2.3950
2.6580 4.5572 2.3950
2.4947 4.6556 2.3950
2.3280 4.7483 2.3950
0.8784 1.9682 0.9749
0.8071 1.9993 0.9739
0.7347 2.0277 0.9729
0.6614 2.0536 0.9719
0.5871 2.0768 0.9708
0.5121 2.0973 0.9697
0.4363 2.1151 0.9685
0.3600 2.1301 0.9673
0.2832 2.1424 0.9661
0.2060 2.1519 0.9648
0.1284 2.1587 0.9635
0.0507 2.1626 0.9622
-0.0271 2.1637 0.9609
-0.1049 2.1621 0.9595
-0.1826 2.1576 0.9581
-0.2601 2.1503 0.9567
-0.3372 2.1402 0.9552
-0.4140 2.1274 0.9538
-0.4902 2.1118 0.9523
-0.5659 2.0935 0.9508
-0.6408 2.0724 0.9493
-0.7149 2.0487 0.9478
-0.7881 2.0223 0.9462
-0.8603 1.9933 0.9447
-0.9314 1.9617 0.9432
-2.5469 4.9025 2.3950
-2.7259 4.8172 2.3950
-2.9020 4.7254 2.3950
-3.0750 4.6271 2.3950
-3.2446 4.5225 2.3950
-3.4106 4.4116 2.3950
-3.5726 4.2947 2.3950
-3.7306 4.1717 2.3950
-3.8842 4.0429 2.3950
-4.0332 3.9084 2.3950
-4.1775 3.7683 2.3950
-4.3167 3.6229 2.3950
-4.4508 3.4723 2.3950
-4.5793 3.3166 2.3950
-4.7023 3.1561 2.3950
-4.8195 2.9910 2.3950
-4.9306 2.8215 2.3950
-5.0355 2.6478 2.3950
-5.1341 2.4702 2.3950
-5.2262 2.2888 2.3950
-5.3116 2.1039 2.3950
-5.3902 1.9158 2.3950
-5.4618 1.7247 2.3950
-5.5264 1.5309 2.3950
-5.5837 1.3346 2.3950
-5.6338 1.1362 2.3950
-5.6765 0.9358 2.3950
-5.7118 0.7339 2.3950
-5.7395 0.5306 2.3950
-5.7596 0.3263 2.3950
-5.7721 0.1212 2.3950
-5.7769 -0.0843 2.3950
-5.7740 -0.2900 2.3950
-5.7634 -0.4955 2.3950
-5.7452 -0.7005 2.3950
-5.7192 -0.9049 2.3950
-5.6856 -1.1081 2.3950
-5.6444 -1.3101 2.3950
-5.5956 -1.5103 2.3950
-5.5394 -1.7087 2.3950
-5.4757 -1.9048 2.3950
-5.4048 -2.0984 2.3950
-5.3266 -2.2892 2.3950
-5.2413 -2.4770 2.3950
-5.1490 -2.6614 2.3950
-5.0499 -2.8421 2.3950
-4.9441 -3.0190 2.3950
-4.8318 -3.1918 2.3950
-4.7132 -3.3601 2.3950
-4.5883 -3.5239 2.3950
-4.4575 -3.6827 2.3950
-4.3209 -3.8365 2.3950
-4.1787 -3.9850 2.3950
-4.0309 -4.1277 2.3948
-3.8766 -4.2632 2.3938
-3.7156 -4.3905 2.3916
-3.5477 -4.5081 2.3876
-3.3786 -4.6229 2.3856
-3.2073 -4.7336 2.3848
-3.0323 -4.8378 2.3840
-2.8538 -4.9353 2.3832
-2.6720 -5.0261 2.3825
-2.4873 -5.1101 2.3818
-2.2999 -5.1871 2.3811
-2.1101 -5.2570 2.3805
-1.9181 -5.3199 2.3799
-1.7242 -5.3757 2.3793
-1.5287 -5.4243 2.3787
-1.3309 -5.4617 2.3765
-1.1320 -5.4911 2.3740
-0.9329 -5.5131 2.3714
-0.7336 -5.5289 2.3694
-0.5348 -5.5420 2.3693
-0.3359 -5.5479 2.3693
-0.1372 -5.5465 2.3692
0.0610 -5.5379 2.3692
0.2584 -5.5222 2.3691
0.4549 -5.4993 2.3691
0.6501 -5.4694 2.3690
0.8438 -5.4325 2.3690
1.0357 -5.3887 2.3690
1.2256 -5.3381 2.3689
1.4133 -5.2808 2.3689
1.5985 -5.2169 2.3689
1.7810 -5.1465 2.3689
1.9606 -5.0698 2.3688
2.1371 -4.9868 2.3688
2.3102 -4.8977 2.3688
2.4797 -4.8027 2.3688
2.6455 -4.7018 2.3688
2.8074 -4.5954 2.3688
2.9652 -4.4834 2.3688
3.1186 -4.3660 2.3689
3.2676 -4.2435 2.3689
3.4128 -4.1170 2.3694
3.5557 -3.9886 2.3718
3.6942 -3.8553 2.3742
3.8278 -3.7174 2.3766
3.9556 -3.5740 2.3784
4.0757 -3.4245 2.3789
4.1905 -3.2710 2.3795
4.2999 -3.1138 2.3800
4.4035 -2.9531 2.3806
4.5015 -2.7891 2.3812
4.5936 -2.6219 2.3819
4.6798 -2.4518 2.3825
4.7600 -2.2790 2.3832
4.8341 -2.1037 2.3839
4.9021 -1.9261 2.3847
4.9638 -1.7464 2.3854
5.0193 -1.5648 2.3862
5.0685 -1.3815 2.3870
5.1211 -1.1990 2.3923
5.1605 -1.0132 2.3945
5.1898 -0.8255 2.3950
5.2116 -0.6370 2.3950
5.2268 -0.4479 2.3950
5.2355 -0.2586 2.3950
5.2376 -0.0692 2.3950
5.2332 0.1201 2.3950
5.2224 0.3090 2.3950
5.2050 0.4973 2.3950
5.1812 0.6848 2.3950
5.1509 0.8714 2.3950
5.1143 1.0567 2.3950
5.0714 1.2406 2.3950
5.0221 1.4229 2.3950
4.9667 1.6033 2.3950
4.9050 1.7817 2.3950
4.8373 1.9579 2.3950
4.7636 2.1317 2.3950
4.6839 2.3028 2.3950
4.5984 2.4712 2.3950
4.5072 2.6365 2.3950
4.4103 2.7986 2.3950
4.3079 2.9573 2.3950
4.2000 3.1126 2.3950
4.0868 3.2640 2.3950
3.9684 3.4116 2.3950
3.8450 3.5550 2.3950
3.7166 3.6942 2.3950
3.5833 3.8290 2.3950
3.4455 3.9591 2.3950
3.3031 4.0846 2.3950
3.1564 4.2052 2.3950
3.0054 4.3207 2.3950
2.8504 4.4310 2.3950
2.6916 4.5360 2.3950
2.5290 4.6355 2.3950
2.3630 4.7294 2.3950
0.8931 1.9614 0.9751
0.8220 1.9930 0.9741
0.7499 2.0220 0.9731
0.6767 2.0484 0.9721
0.6026 2.0722 0.9710
0.5278 2.0932 0.9699
0.4522 2.1116 0.9688
0.3760 2.1272 0.9676
0.2992 2.1401 0.9663
0.2221 2.1502 0.9651
0.1446 2.1575 0.9638
0.0669 2.1620 0.9625
-0.0109 2.1637 0.9611
-0.0887 2.1626 0.9598
-0.1664 2.1587 0.9584
-0.2439 2.1520 0.9570
-0.3212 2.1426 0.9555
-0.3980 2.1303 0.9541
-0.4744 2.1153 0.9526
-0.5502 2.0975 0.9511
-0.6253 2.0770 0.9496
-0.6995 2.0538 0.9481
-0.7729 2.0280 0.9466
-0.8454 1.9995 0.9450
-0.9167 1.9685 0.9435
-2.5092 4.9194 2.3950
-2.6889 4.8355 2.3950
-2.8656 4.7450 2.3950
-3.0393 4.6481 2.3950
-3.2096 4.5448 2.3950
-3.3763 4.4352 2.3950
-3.5392 4.3195 2.3950
-3.6980 4.1978 2.3950
-3.8526 4.0702 2.3950
-4.0026 3.9369 2.3950
-4.1479 3.7979 2.3950
-4.2882 3.6536 2.3950
-4.4233 3.5041 2.3950
-4.5530 3.3494 2.3950
-4.6772 3.1899 2.3950
-4.7956 3.0258 2.3950
-4.9080 2.8572 2.3950
-5.0142 2.6843 2.3950
-5.1141 2.5075 2.3950
-5.2076 2.3268 2.3950
-5.2944 2.1427 2.3950
-5.3744 1.9552 2.3950
-5.4475 1.7647 2.3950
-5.5135 1.5714 2.3950
-5.5724 1.3757 2.3950
-5.6240 1.1777 2.3950
-5.6682 0.9777 2.3950
-5.7050 0.7761 2.3950
-5.7343 0.5730 2.3950
-5.7560 0.3689 2.3950
-5.7701 0.1640 2.3950
-5.7765 -0.0415 2.3950
-5.7752 -0.2471 2.3950
-5.7663 -0.4527 2.3950
-5.7496 -0.6579 2.3950
-5.7252 -0.8624 2.3950
-5.6932 -1.0659 2.3950
-5.6536 -1.2681 2.3950
-5.6064 -1.4688 2.3950
-5.5517 -1.6676 2.3950
-5.4896 -1.8642 2.3950
-5.4201 -2.0583 2.3950
-5.3434 -2.2498 2.3950
-5.2596 -2.4382 2.3950
-5.1688 -2.6233 2.3950
-5.0711 -2.8048 2.3950
-4.9667 -2.9825 2.3950
-4.8558 -3.1561 2.3950
-4.7384 -3.3254 2.3950
-4.6148 -3.4902 2.3950
-4.4852 -3.6501 2.3950
-4.3498 -3.8049 2.3950
-4.2088 -3.9545 2.3950
-4.0622 -4.0985 2.3949
-3.9093 -4.2357 2.3941
-3.7497 -4.3647 2.3922
-3.5833 -4.4846 2.3886
-3.4138 -4.5991 2.3857
-3.2433 -4.7111 2.3849
-3.0691 -4.8167 2.3841
-2.8912 -4.9156 2.3834
-2.7101 -5.0078 2.3826
-2.5260 -5.0932 2.3819
-2.3391 -5.1716 2.3813
-2.1498 -5.2430 2.3806
-1.9582 -5.3074 2.3800
-1.7647 -5.3647 2.3794
-1.5696 -5.4148 2.3789
-1.3721 -5.4547 2.3770
-1.1735 -5.4856 2.3745
-0.9744 -5.5091 2.3720
-0.7750 -5.5253 2.3694
-4.3325 3.0862 2.3950
-4.4466 2.9341 2.3950
-4.5552 2.7778 2.3950
-4.6581 2.6174 2.3950
-4.7552 2.4532 2.3950
-4.8462 2.2853 2.3950
-4.9311 2.1140 2.3950
-5.0097 1.9394 2.3950
-5.0819 1.7619 2.3950
-5.1475 1.5817 2.3950
-5.2064 1.3990 2.3950
-5.2586 1.2141 2.3950
-5.3039 1.0273 2.3950
-5.3423 0.8387 2.3950
-5.3737 0.6487 2.3950
-5.3980 0.4575 2.3950
-5.4152 0.2654 2.3950
-5.4252 0.0727 2.3950
-5.4280 -0.1204 2.3950
-5.4236 -0.3135 2.3950
-5.4120 -0.5065 2.3950
-5.3932 -0.6989 2.3950
-5.3672 -0.8906 2.3950
-5.3341 -1.0812 2.3950
-5.2938 -1.2705 2.3950
-5.2465 -1.4582 2.3950
-5.1922 -1.6440 2.3950
-5.1309 -1.8277 2.3950
-5.0629 -2.0089 2.3950
-4.9881 -2.1875 2.3950
-4.9066 -2.3632 2.3950
-4.8187 -2.5357 2.3950
-4.7244 -2.7047 2.3950
-4.6239 -2.8701 2.3950
-4.5172 -3.0315 2.3950
-4.4047 -3.1888 2.3950
-4.2864 -3.3417 2.3950
-4.1625 -3.4900 2.3950
-4.0332 -3.6336 2.3950
-3.8988 -3.7721 2.3950
-3.7593 -3.9054 2.3949
-3.6141 -4.0324 2.3943
-3.4630 -4.1519 2.3927
-3.3059 -4.2633 2.3897
-3.1446 -4.3678 2.3864
-2.9831 -4.4709 2.3856
-2.8181 -4.5679 2.3849
-2.6499 -4.6586 2.3842
-2.4786 -4.7430 2.3835
-2.3046 -4.8210 2.3829
-2.1281 -4.8924 2.3822
-1.9493 -4.9572 2.3816
-1.7685 -5.0154 2.3811
-1.5860 -5.0669 2.3805
-1.4020 -5.1117 2.3800
-1.2167 -5.1497 2.3795
-1.0304 -5.1808 2.3791
-0.8434 -5.2052 2.3786
-0.6555 -5.2197 2.3769
-0.4676 -5.2272 2.3750
-0.2800 -5.2281 2.3733
-0.0928 -5.2223 2.3717
0.0936 -5.2102 2.3702
0.2792 -5.1925 2.3693
0.4638 -5.1700 2.3692
0.6473 -5.1410 2.3692
0.8293 -5.1054 2.3692
1.0096 -5.0633 2.3691
1.1881 -5.0148 2.3691
1.3644 -4.9601 2.3691
1.5384 -4.8991 2.3690
1.7099 -4.8320 2.3690
1.8785 -4.7590 2.3690
2.0442 -4.6801 2.3690
2.2068 -4.5954 2.3690
2.3660 -4.5052 2.3690
2.5223 -4.4106 2.3696
2.6758 -4.3121 2.3710
2.8257 -4.2085 2.3725
2.9719 -4.0999 2.3742
3.1141 -3.9865 2.3759
3.2524 -3.8683 2.3777
3.3850 -3.7439 2.3786
3.5121 -3.6143 2.3790
3.6346 -3.4806 2.3794
3.7522 -3.3428 2.3799
3.8648 -3.2011 2.3804
3.9723 -3.0558 2.3809
4.0745 -2.9070 2.3814
4.1714 -2.7549 2.3820
4.2629 -2.5996 2.3825
4.3489 -2.4415 2.3831
4.4293 -2.2806 2.3838
4.5040 -2.1171 2.3844
4.5729 -1.9513 2.3851
4.6360 -1.7834 2.3858
4.6933 -1.6135 2.3865
4.7446 -1.4418 2.3872
4.7906 -1.2687 2.3883
4.8386 -1.0961 2.3933
4.8734 -0.9202 2.3948
4.8993 -0.7429 2.3950
4.9187 -0.5649 2.3950
4.9320 -0.3864 2.3950
4.9391 -0.2077 2.3950
4.9400 -0.0290 2.3950
4.9347 0.1495 2.3950
4.9233 0.3277 2.3950
4.9058 0.5053 2.3950
4.8821 0.6821 2.3950
4.8524 0.8580 2.3950
4.8167 1.0326 2.3950
4.7750 1.2059 2.3950
4.7273 1.3776 2.3950
4.6738 1.5476 2.3950
4.6144 1.7156 2.3950
4.5493 1.8814 2.3950
4.4786 2.0449 2.3950
4.4022 2.2059 2.3950
4.3203 2.3642 2.3950
4.2330 2.5196 2.3950
4.1404 2.6719 2.3950
4.0426 2.8210 2.3950
3.9396 2.9667 2.3950
3.8317 3.1088 2.3950
3.7188 3.2471 2.3950
3.6012 3.3816 2.3950
3.4790 3.5120 2.3950
3.3522 3.6381 2.3950
3.2211 3.7599 2.3950
3.0858 3.8772 2.3950
2.9463 3.9898 2.3950
2.8030 4.0976 2.3950
2.6559 4.2004 2.3950
2.5051 4.2982 2.3950
2.3509 4.3908 2.3950
0.8918 1.8207 0.9738
0.8258 1.8523 0.9729
0.7587 1.8815 0.9720
0.6906 1.9083 0.9710
0.6215 1.9326 0.9701
0.5516 1.9544 0.9690
0.4810 1.9737 0.9680
0.4097 1.9905 0.9669
0.3379 2.0046 0.9658
0.2656 2.0162 0.9646
0.1929 2.0251 0.9634
0.1199 2.0315 0.9622
0.0468 2.0352 0.9610
-0.0265 2.0362 0.9597
-0.0997 2.0346 0.9584
-0.1728 2.0304 0.9571
-0.2458 2.0236 0.9557
-0.3184 2.0141 0.9544
-0.3907 2.0020 0.9530
-0.4624 1.9873 0.9516
-0.5336 1.9701 0.9502
-0.6041 1.9502 0.9488
-0.6739 1.9279 0.9474
-0.7428 1.9031 0.9459
-0.8108 1.8758 0.9445
-0.8777 1.8460 0.9430
-2.3999 4.6137 2.3950
-2.5682 4.5330 2.3950
-2.7337 4.4461 2.3950
-2.8962 4.3532 2.3950
-3.0555 4.2544 2.3950
-3.2114 4.1497 2.3950
-3.3636 4.0393 2.3950
-3.5118 3.9232 2.3950
-3.6560 3.8017 2.3950
-3.7959 3.6749 2.3950
-3.9312 3.5429 2.3950
-4.0618 3.4058 2.3950
-4.1875 3.2639 2.3950
-4.3080 3.1172 2.3950
-4.4233 2.9661 2.3950
-4.5331 2.8107 2.3950
-4.6372 2.6512 2.3950
-4.7355 2.4877 2.3950
-4.8278 2.3205 2.3950
-4.9140 2.1499 2.3950
-4.9939 1.9760 2.3950
-5.0674 1.7991 2.3950
-5.1344 1.6195 2.3950
-5.1947 1.4373 2.3950
-5.2483 1.2528 2.3950
-5.2951 1.0663 2.3950
-5.3349 0.8781 2.3950
-5.3677 0.6883 2.3950
-5.3935 0.4974 2.3950
-5.4122 0.3054 2.3950
-5.4237 0.1128 2.3950
-5.4280 -0.0802 2.3950
-5.4251 -0.2733 2.3950
-5.4150 -0.4663 2.3950
-5.3977 -0.6589 2.3950
-5.3732 -0.8507 2.3950
-5.3416 -1.0416 2.3950
-5.3028 -1.2312 2.3950
-5.2569 -1.4192 2.3950
-5.2041 -1.6055 2.3950
-5.1443 -1.7896 2.3950
-5.0776 -1.9714 2.3950
-5.0042 -2.1506 2.3950
-4.9241 -2.3269 2.3950
-4.8375 -2.5000 2.3950
-4.7446 -2.6698 2.3950
-4.6453 -2.8360 2.3950
-4.5399 -2.9982 2.3950
-4.4286 -3.1564 2.3950
-4.3115 -3.3102 2.3950
-4.1887 -3.4595 2.3950
-4.0606 -3.6041 2.3950
-3.9272 -3.7437 2.3950
-3.7888 -3.8781 2.3950
-3.6448 -4.0065 2.3945
-3.4950 -4.1278 2.3932
-3.3392 -4.2410 2.3905
-3.1777 -4.3456 2.3865
-3.0170 -4.4500 2.3858
-2.8527 -4.5482 2.3851
-2.6852 -4.6403 2.3843
-2.5145 -4.7260 2.3837
-2.3411 -4.8053 2.3830
-2.1650 -4.8781 2.3824
-1.9867 -4.9443 2.3818
-1.8063 -5.0039 2.3812
-1.6241 -5.0568 2.3806
-1.4404 -5.1029 2.3801
-1.2553 -5.1423 2.3796
-1.0693 -5.1749 2.3792
-0.8824 -5.2007 2.3787
-0.6947 -5.2173 2.3773
-0.5067 -5.2261 2.3754
-0.3190 -5.2285 2.3737
-0.1318 -5.2241 2.3720
0.0549 -5.2132 2.3705
0.2406 -5.1963 2.3693
0.4255 -5.1753 2.3692
0.6092 -5.1476 2.3692
0.7915 -5.1133 2.3692
0.9723 -5.0726 2.3691
1.1511 -5.0255 2.3691
1.3279 -4.9720 2.3691
1.5024 -4.9123 2.3691
1.6744 -4.8465 2.3690
1.8436 -4.7747 2.3690
2.0100 -4.6970 2.3690
2.1732 -4.6135 2.3690
2.3331 -4.5244 2.3690
2.4899 -4.4305 2.3694
2.6441 -4.3330 2.3707
2.7948 -4.2305 2.3722
2.9419 -4.1229 2.3738
3.0849 -4.0104 2.3755
3.2239 -3.8933 2.3773
3.3578 -3.7703 2.3785
3.4860 -3.6417 2.3789
3.6095 -3.5087 2.3793
3.7281 -3.3718 2.3798
3.8418 -3.2309 2.3802
3.9503 -3.0863 2.3808
4.0537 -2.9382 2.3813
4.1517 -2.7868 2.3818
4.2443 -2.6322 2.3824
4.3315 -2.4746 2.3830
4.4130 -2.3143 2.3836
4.4889 -2.1514 2.3843
4.5590 -1.9860 2.3849
4.6234 -1.8185 2.3856
4.6819 -1.6490 2.3863
4.7344 -1.4777 2.3871
4.7810 -1.3047 2.3878
4.8299 -1.1324 2.3927
4.8669 -0.9570 2.3947
4.8945 -0.7799 2.3950
4.9152 -0.6020 2.3950
4.9297 -0.4236 2.3950
4.9381 -0.2449 2.3950
4.9403 -0.0662 2.3950
4.9363 0.1124 2.3950
4.9262 0.2907 2.3950
4.9099 0.4684 2.3950
4.8876 0.6454 2.3950
4.8591 0.8215 2.3950
4.8246 0.9964 2.3950
4.7841 1.1700 2.3950
4.7377 1.3420 2.3950
4.6854 1.5124 2.3950
4.6273 1.6808 2.3950
4.5633 1.8471 2.3950
4.4938 2.0111 2.3950
4.4185 2.1726 2.3950
4.3378 2.3314 2.3950
4.2516 2.4875 2.3950
4.1601 2.6404 2.3950
4.0634 2.7902 2.3950
3.9615 2.9366 2.3950
3.8546 3.0795 2.3950
3.7427 3.2187 2.3950
3.6261 3.3539 2.3950
3.5048 3.4852 2.3950
3.3790 3.6122 2.3950
3.2488 3.7350 2.3950
3.1143 3.8532 2.3950
2.9757 3.9667 2.3950
2.8331 4.0756 2.3950
2.6868 4.1794 2.3950
2.5368 4.2783 2.3950
2.3833 4.3719 2.3950
0.9054 1.8138 0.9739
0.8397 1.8459 0.9731
0.7728 1.8756 0.9722
0.7049 1.9029 0.9712
0.6360 1.9278 0.9703
0.5663 1.9501 0.9693
0.4958 1.9699 0.9682
0.4246 1.9872 0.9671
0.3529 2.0019 0.9660
0.2807 2.0140 0.9649
0.2080 2.0235 0.9637
0.1351 2.0304 0.9625
0.0620 2.0346 0.9612
-0.0112 2.0362 0.9600
-0.0845 2.0352 0.9587
-0.1576 2.0315 0.9574
-0.2306 2.0252 0.9560
-0.3033 2.0163 0.9547
-0.3756 2.0047 0.9533
-0.4475 1.9906 0.9519
-0.5188 1.9739 0.9505
-0.5895 1.9546 0.9491
-0.6594 1.9328 0.9477
-0.7285 1.9084 0.9462
-0.7967 1.8816 0.9448
-0.8639 1.8524 0.9433
-0.9299 1.8208 0.9419
-2.5333 4.5503 2.3950
-2.6995 4.4647 2.3950
-2.8626 4.3731 2.3950
-3.0226 4.2754 2.3950
-3.1792 4.1720 2.3950
-3.3322 4.0627 2.3950
-3.4813 3.9479 2.3950
-3.6264 3.8275 2.3950
-3.7671 3.7017 2.3950
-3.9034 3.5708 2.3950
-4.0350 3.4347 2.3950
-4.1617 3.2938 2.3950
-4.2834 3.1482 2.3950
-4.3998 2.9980 2.3950
-4.5107 2.8434 2.3950
-4.6160 2.6847 2.3950
-4.7155 2.5220 2.3950
-4.8091 2.3556 2.3950
-4.8965 2.1857 2.3950
-4.9778 2.0125 2.3950
-5.0526 1.8362 2.3950
-5.1210 1.6571 2.3950
-5.1827 1.4754 2.3950
-5.2377 1.2914 2.3950
-5.2859 1.1053 2.3950
-5.3272 0.9174 2.3950
-5.3615 0.7279 2.3950
-5.3887 0.5372 2.3950
-5.4089 0.3455 2.3950
-5.4219 0.1530 2.3950
-5.4277 -0.0400 2.3950
-5.4263 -0.2331 2.3950
-5.4177 -0.4262 2.3950
-5.4019 -0.6188 2.3950
-5.3789 -0.8109 2.3950
-5.3487 -1.0019 2.3950
-5.3114 -1.1918 2.3950
-5.2671 -1.3802 2.3950
-5.2156 -1.5669 2.3950
-5.1573 -1.7515 2.3950
-5.0920 -1.9338 2.3950
-5.0200 -2.1135 2.3950
-4.9413 -2.2904 2.3950
-4.8561 -2.4643 2.3950
-4.7644 -2.6348 2.3950
-4.6665 -2.8017 2.3950
-4.5624 -2.9648 2.3950
-4.4523 -3.1238 2.3950
-4.3363 -3.2786 2.3950
-4.2148 -3.4288 2.3950
-4.0877 -3.5744 2.3950
-3.9554 -3.7150 2.3950
-3.8180 -3.8506 2.3950
-3.6753 -3.9804 2.3947
-3.5267 -4.1031 2.3935
-3.3721 -4.2180 2.3912
-3.2113 -4.3238 2.3871
-3.0508 -4.4287 2.3859
-2.8872 -4.5283 2.3852
-2.7203 -4.6216 2.3845
-2.5503 -4.7087 2.3838
-2.3774 -4.7893 2.3831
-2.2019 -4.8635 2.3825
-2.0240 -4.9311 2.3819
-1.8440 -4.9920 2.3813
-1.6622 -5.0463 2.3807
-1.4787 -5.0939 2.3802
-1.2939 -5.1347 2.3797
-1.1081 -5.1687 2.3793
-0.9214 -5.1959 2.3788
-0.7338 -5.2147 2.3777
-4.0856 2.9075 2.3950
-4.1928 2.7640 2.3950
-4.2948 2.6166 2.3950
-4.3915 2.4653 2.3950
-4.4827 2.3103 2.3950
-4.5682 2.1520 2.3950
-4.6478 1.9905 2.3950
-4.7216 1.8259 2.3950
-4.7893 1.6586 2.3950
-4.8508 1.4888 2.3950
-4.9061 1.3167 2.3950
-4.9549 1.1425 2.3950
-4.9974 0.9664 2.3950
-5.0333 0.7888 2.3950
-5.0626 0.6098 2.3950
-5.0853 0.4298 2.3950
-5.1012 0.2489 2.3950
-5.1105 0.0674 2.3950
-5.1130 -0.1143 2.3950
-5.1087 -0.2962 2.3950
-5.0976 -0.4778 2.3950
-5.0798 -0.6589 2.3950
-5.0552 -0.8394 2.3950
-5.0240 -1.0188 2.3950
-4.9860 -1.1970 2.3950
-4.9414 -1.3737 2.3950
-4.8902 -1.5486 2.3950
-4.8325 -1.7215 2.3950
-4.7685 -1.8921 2.3950
-4.6981 -2.0602 2.3950
-4.6214 -2.2256 2.3950
-4.5387 -2.3880 2.3950
-4.4500 -2.5471 2.3950
-4.3554 -2.7028 2.3950
-4.2551 -2.8549 2.3950
-4.1492 -3.0030 2.3950
-4.0379 -3.1470 2.3950
-3.9214 -3.2868 2.3950
-3.7998 -3.4220 2.3950
-3.6734 -3.5526 2.3950
-3.5422 -3.6783 2.3950
-3.4063 -3.7987 2.3948
-3.2650 -3.9126 2.3939
-3.1185 -4.0194 2.3919
-2.9665 -4.1180 2.3885
-2.8130 -4.2133 2.3866
-2.6578 -4.3049 2.3859
-2.4994 -4.3907 2.3852
-2.3382 -4.4706 2.3846
-2.1744 -4.5444 2.3840
-2.0082 -4.6121 2.3834
-1.8398 -4.6736 2.3828
-1.6696 -4.7288 2.3823
-1.4976 -4.7777 2.3817
-1.3242 -4.8203 2.3813
-1.1496 -4.8565 2.3808
-0.9741 -4.8863 2.3804
-0.7978 -4.9097 2.3800
-0.6211 -4.9267 2.3796
-0.4441 -4.9372 2.3793
-0.2670 -4.9414 2.3789
-0.0902 -4.9392 2.3787
0.0861 -4.9296 2.3779
0.2617 -4.9128 2.3768
0.4362 -4.8902 2.3758
0.6096 -4.8616 2.3751
0.7815 -4.8272 2.3745
0.9520 -4.7869 2.3740
1.1206 -4.7410 2.3737
1.2873 -4.6894 2.3736
1.4520 -4.6323 2.3736
1.6143 -4.5697 2.3738
1.7743 -4.5017 2.3742
1.9315 -4.4285 2.3747
2.0861 -4.3500 2.3754
2.2377 -4.2665 2.3763
2.3863 -4.1780 2.3773
2.5316 -4.0845 2.3784
2.6724 -3.9846 2.3786
2.8094 -3.8799 2.3789
2.9424 -3.7706 2.3792
3.0714 -3.6568 2.3795
3.1962 -3.5387 2.3799
3.3166 -3.4165 2.3802
3.4326 -3.2903 2.3806
3.5439 -3.1603 2.3811
3.6506 -3.0266 2.3815
3.7524 -2.8894 2.3820
3.8493 -2.7489 2.3825
3.9411 -2.6052 2.3830
4.0278 -2.4586 2.3836
4.1093 -2.3092 2.3842
4.1855 -2.1572 2.3847
4.2563 -2.0027 2.3854
4.3216 -1.8460 2.3860
4.3815 -1.6873 2.3866
4.4358 -1.5267 2.3873
4.4844 -1.3644 2.3880
4.5280 -1.2007 2.3890
4.5729 -1.0373 2.3937
4.6054 -0.8710 2.3949
4.6300 -0.7034 2.3950
4.6486 -0.5351 2.3950
4.6613 -0.3663 2.3950
4.6681 -0.1974 2.3950
4.6691 -0.0283 2.3950
4.6643 0.1405 2.3950
4.6536 0.3090 2.3950
4.6371 0.4770 2.3950
4.6148 0.6442 2.3950
4.5868 0.8105 2.3950
4.5531 0.9757 2.3950
4.5137 1.1396 2.3950
4.4686 1.3020 2.3950
4.4180 1.4628 2.3950
4.3619 1.6216 2.3950
4.3003 1.7785 2.3950
4.2334 1.9331 2.3950
4.1612 2.0854 2.3950
4.0837 2.2350 2.3950
4.0011 2.3820 2.3950
3.9134 2.5260 2.3950
3.8209 2.6670 2.3950
3.7234 2.8047 2.3950
3.6212 2.9390 2.3950
3.5144 3.0698 2.3950
3.4031 3.1969 2.3950
3.2874 3.3201 2.3950
3.1675 3.4393 2.3950
3.0434 3.5543 2.3950
2.9153 3.6650 2.3950
2.7833 3.7713 2.3950
2.6477 3.8731 2.3950
2.5085 3.9701 2.3950
2.3659 4.0624 2.3950
0.9016 1.6853 0.9727
0.8405 1.7173 0.9719
0.7782 1.7472 0.9711
0.7148 1.7747 0.9702
0.6506 1.8000 0.9693
0.5854 1.8229 0.9684
0.5195 1.8435 0.9675
0.4528 1.8617 0.9665
0.3856 1.8775 0.9654
0.3178 1.8908 0.9644
0.2496 1.9017 0.9633
0.1810 1.9102 0.9622
0.1122 1.9161 0.9610
0.0432 1.9196 0.9598
-0.0259 1.9206 0.9586
-0.0950 1.9191 0.9574
-0.1640 1.9151 0.9562
-0.2328 1.9087 0.9549
-0.3013 1.8997 0.9536
-0.3695 1.8883 0.9523
-0.4372 1.8745 0.9510
-0.5044 1.8582 0.9497
-0.5709 1.8395 0.9484
-0.6367 1.8184 0.9470
-0.7017 1.7950 0.9457
-0.7658 1.7692 0.9443
-0.8290 1.7412 0.9429
-0.8911 1.7109 0.9416
-2.4251 4.2753 2.3950
-2.5811 4.1930 2.3950
-2.7342 4.1050 2.3950
-2.8842 4.0115 2.3950
-3.0309 3.9124 2.3950
-3.1742 3.8079 2.3950
-3.3137 3.6982 2.3950
-3.4494 3.5834 2.3950
-3.5810 3.4635 2.3950
-3.7083 3.3388 2.3950
-3.8311 3.2093 2.3950
-3.9493 3.0753 2.3950
-4.0626 2.9369 2.3950
-4.1709 2.7942 2.3950
-4.2740 2.6476 2.3950
-4.3719 2.4971 2.3950
-4.4642 2.3429 2.3950
-4.5508 2.1852 2.3950
-4.6317 2.0244 2.3950
-4.7067 1.8604 2.3950
-4.7757 1.6937 2.3950
-4.8385 1.5244 2.3950
-4.8951 1.3527 2.3950
-4.9453 1.1789 2.3950
-4.9891 1.0032 2.3950
-5.0263 0.8259 2.3950
-5.0570 0.6472 2.3950
-5.0811 0.4673 2.3950
-5.0985 0.2866 2.3950
-5.1091 0.1052 2.3950
-5.1130 -0.0765 2.3950
-5.1101 -0.2583 2.3950
-5.1005 -0.4400 2.3950
-5.0841 -0.6213 2.3950
-5.0609 -0.8019 2.3950
-5.0310 -0.9815 2.3950
-4.9944 -1.1600 2.3950
-4.9512 -1.3370 2.3950
-4.9014 -1.5123 2.3950
-4.8451 -1.6857 2.3950
-4.7823 -1.8568 2.3950
-4.7132 -2.0255 2.3950
-4.6379 -2.1914 2.3950
-4.5564 -2.3544 2.3950
-4.4689 -2.5143 2.3950
-4.3755 -2.6707 2.3950
-4.2764 -2.8235 2.3950
-4.1717 -2.9725 2.3950
-4.0615 -3.1174 2.3950
-3.9461 -3.2580 2.3950
-3.8256 -3.3942 2.3950
-3.7001 -3.5258 2.3950
-3.5699 -3.6525 2.3950
-3.4350 -3.7741 2.3949
-3.2949 -3.8895 2.3942
-3.1495 -3.9978 2.3924
-2.9986 -4.0982 2.3894
-2.8449 -4.1935 2.3867
-2.6904 -4.2863 2.3860
-2.5326 -4.3734 2.3853
-2.3720 -4.4545 2.3847
-2.2087 -4.5295 2.3841
-2.0430 -4.5985 2.3835
-1.8751 -4.6613 2.3829
-1.7052 -4.7178 2.3824
-1.5335 -4.7680 2.3818
-1.3604 -4.8120 2.3814
-1.1861 -4.8495 2.3809
-1.0107 -4.8806 2.3805
-0.8346 -4.9053 2.3800
-0.6579 -4.9237 2.3797
-0.4809 -4.9356 2.3793
-0.3039 -4.9410 2.3790
-0.1270 -4.9402 2.3787
0.0495 -4.9323 2.3782
0.2252 -4.9168 2.3770
0.4000 -4.8954 2.3760
0.5736 -4.8680 2.3752
0.7458 -4.8348 2.3746
0.9166 -4.7958 2.3741
1.0857 -4.7510 2.3738
1.2528 -4.7006 2.3736
1.4178 -4.6447 2.3736
1.5807 -4.5832 2.3738
1.7411 -4.5163 2.3741
1.8990 -4.4442 2.3746
2.0541 -4.3668 2.3753
2.2064 -4.2843 2.3761
2.3556 -4.1968 2.3770
2.5017 -4.1044 2.3782
2.6434 -4.0057 2.3786
2.7812 -3.9021 2.3788
2.9151 -3.7937 2.3791
3.0449 -3.6809 2.3794
3.1706 -3.5637 2.3798
3.2919 -3.4423 2.3802
3.4088 -3.3169 2.3806
3.5212 -3.1877 2.3810
3.6288 -3.0547 2.3814
3.7316 -2.9182 2.3819
3.8295 -2.7784 2.3824
3.9224 -2.6354 2.3829
4.0102 -2.4894 2.3835
4.0927 -2.3405 2.3840
4.1700 -2.1890 2.3846
4.2420 -2.0351 2.3852
4.3085 -1.8788 2.3859
4.3695 -1.7205 2.3865
4.4249 -1.5602 2.3872
4.4748 -1.3983 2.3879
4.5190 -1.2348 2.3886
4.5647 -1.0717 2.3931
4.5994 -0.9058 2.3948
4.6254 -0.7383 2.3950
4.6452 -0.5701 2.3950
4.6591 -0.4015 2.3950
4.6672 -0.2325 2.3950
4.6694 -0.0635 2.3950
4.6658 0.1054 2.3950
4.6563 0.2740 2.3950
4.6410 0.4421 2.3950
4.6200 0.6095 2.3950
4.5931 0.7760 2.3950
4.5606 0.9414 2.3950
4.5223 1.1056 2.3950
4.4785 1.2683 2.3950
4.4290 1.4294 2.3950
4.3741 1.5887 2.3950
4.3136 1.7460 2.3950
4.2478 1.9011 2.3950
4.1766 2.0539 2.3950
4.1002 2.2041 2.3950
4.0187 2.3516 2.3950
3.9321 2.4963 2.3950
3.8405 2.6379 2.3950
3.7441 2.7763 2.3950
3.6429 2.9114 2.3950
3.5371 3.0429 2.3950
3.4267 3.1707 2.3950
3.3119 3.2947 2.3950
3.1928 3.4148 2.3950
3.0695 3.5307 2.3950
2.9423 3.6423 2.3950
2.8111 3.7496 2.3950
2.6762 3.8523 2.3950
2.5377 3.9503 2.3950
2.3958 4.0436 2.3950
2.2506 4.1319 2.3950
0.8533 1.7109 0.9721
0.7912 1.7411 0.9713
0.7281 1.7692 0.9704
0.6640 1.7949 0.9695
0.5991 1.8183 0.9686
0.5333 1.8394 0.9677
0.4668 1.8581 0.9667
0.3996 1.8744 0.9656
0.3320 1.8882 0.9646
0.2638 1.8997 0.9635
0.1953 1.9086 0.9624
0.1265 1.9151 0.9612
0.0575 1.9191 0.9601
-0.0115 1.9206 0.9589
-0.0806 1.9196 0.9577
-0.1497 1.9162 0.9564
-0.2185 1.9102 0.9552
-0.2871 1.9018 0.9539
-0.3553 1.8909 0.9526
-0.4231 1.8775 0.9513
-0.4904 1.8618 0.9500
-0.5571 1.8436 0.9486
-0.6231 1.8230 0.9473
-0.6882 1.8001 0.9459
-0.7526 1.7748 0.9446
-0.8159 1.7472 0.9432
-0.8782 1.7174 0.9419
-2.3923 4.2917 2.3950
-2.5488 4.2106 2.3950
-2.7025 4.1238 2.3950
-2.8532 4.0314 2.3950
-3.0006 3.9335 2.3950
-3.1446 3.8301 2.3950
-3.2850 3.7215 2.3950
-3.4215 3.6077 2.3950
-3.5539 3.4889 2.3950
-3.6821 3.3651 2.3950
-3.8059 3.2366 2.3950
-3.9251 3.1036 2.3950
-4.0394 2.9661 2.3950
-4.1488 2.8243 2.3950
-4.2530 2.6785 2.3950
-4.3519 2.5287 2.3950
-4.4454 2.3753 2.3950
-4.5333 2.2183 2.3950
-4.6154 2.0581 2.3950
-4.6916 1.8948 2.3950
-4.7618 1.7286 2.3950
-4.8259 1.5598 2.3950
-4.8838 1.3886 2.3950
-4.9354 1.2152 2.3950
-4.9805 1.0399 2.3950
-5.0191 0.8629 2.3950
-5.0512 0.6845 2.3950
-5.0766 0.5048 2.3950
-5.0954 0.3243 2.3950
-5.1075 0.1430 2.3950
-5.1128 -0.0386 2.3950
-5.1113 -0.2205 2.3950
-5.1031 -0.4022 2.3950
-5.0881 -0.5836 2.3950
-5.0663 -0.7643 2.3950
-5.0378 -0.9442 2.3950
-5.0026 -1.1230 2.3950
-4.9608 -1.3003 2.3950
-4.9123 -1.4760 2.3950
-4.8573 -1.6497 2.3950
-4.7959 -1.8213 2.3950
-4.7281 -1.9906 2.3950
-4.6541 -2.1571 2.3950
-4.5739 -2.3208 2.3950
-4.4876 -2.4813 2.3950
-4.3955 -2.6384 2.3950
-4.2975 -2.7920 2.3950
-4.1940 -2.9418 2.3950
-4.0849 -3.0876 2.3950
-3.9706 -3.2291 2.3950
-3.8511 -3.3663 2.3950
-3.7266 -3.4988 2.3950
-3.5974 -3.6265 2.3950
-3.4635 -3.7492 2.3949
-3.3245 -3.8660 2.3944
-3.1802 -3.9758 2.3929
-3.0305 -4.0780 2.3901
-2.8767 -4.1734 2.3869
-2.7228 -4.2675 2.3862
-2.5657 -4.3557 2.3855
-2.4057 -4.4381 2.3848
-2.2429 -4.5144 2.3842
-2.0777 -4.5846 2.3836
-1.9102 -4.6487 2.3830
-1.7407 -4.7066 2.3825
-1.5694 -4.7581 2.3819
-1.3966 -4.8033 2.3815
-1.2225 -4.8422 2.3810
-1.0473 -4.8747 2.3805
-0.8713 -4.9007 2.3801
-0.6947 -4.9204 2.3797
-3.8609 2.7450 2.3950
-3.9619 2.6093 2.3950
-4.0580 2.4699 2.3950
-4.1490 2.3268 2.3950
-4.2348 2.1804 2.3950
-4.3153 2.0308 2.3950
-4.3903 1.8782 2.3950
-4.4596 1.7228 2.3950
-4.5233 1.5647 2.3950
-4.5811 1.4044 2.3950
-4.6331 1.2418 2.3950
-4.6790 1.0773 2.3950
-4.7188 0.9111 2.3950
-4.7525 0.7435 2.3950
-4.7800 0.5745 2.3950
-4.8012 0.4046 2.3950
-4.8161 0.2339 2.3950
-4.8247 0.0627 2.3950
-4.8269 -0.1088 2.3950
-4.8227 -0.2804 2.3950
-4.8121 -0.4518 2.3950
-4.7952 -0.6227 2.3950
-4.7720 -0.7929 2.3950
-4.7424 -0.9622 2.3950
-4.7065 -1.1303 2.3950
-4.6643 -1.2969 2.3950
-4.6160 -1.4619 2.3950
-4.5616 -1.6251 2.3950
-4.5012 -1.7860 2.3950
-4.4347 -1.9447 2.3950
-4.3625 -2.1007 2.3950
-4.2844 -2.2539 2.3950
-4.2008 -2.4041 2.3950
-4.1116 -2.5510 2.3950
-4.0170 -2.6945 2.3950
-3.9172 -2.8343 2.3950
-3.8123 -2.9703 2.3950
-3.7025 -3.1022 2.3950
-3.5878 -3.2299 2.3950
-3.4686 -3.3532 2.3950
-3.3450 -3.4719 2.3950
-3.2170 -3.5859 2.3950
-3.0845 -3.6943 2.3945
-2.9473 -3.7965 2.3934
-2.8052 -3.8916 2.3911
-2.6584 -3.9790 2.3874
-2.5119 -4.0658 2.3868
-2.3626 -4.1471 2.3861
-2.2105 -4.2228 2.3855
-2.0559 -4.2927 2.3849
-1.8991 -4.3570 2.3844
-1.7402 -4.4153 2.3838
-1.5795 -4.4678 2.3833
-1.4172 -4.5144 2.3828
-1.2535 -4.5549 2.3824
-1.0886 -4.5895 2.3820
-0.9228 -4.6180 2.3815
-0.7563 -4.6405 2.3812
-0.5893 -4.6569 2.3808
-0.4221 -4.6672 2.3805
-0.2548 -4.6715 2.3802
-0.0876 -4.6698 2.3799
0.0791 -4.6620 2.3797
0.2452 -4.6484 2.3795
0.4105 -4.6287 2.3793
0.5747 -4.6033 2.3792
0.7377 -4.5719 2.3790
0.8993 -4.5349 2.3789
1.0593 -4.4921 2.3789
1.2173 -4.4438 2.3788
1.3734 -4.3899 2.3788
1.5272 -4.3306 2.3789
1.6786 -4.2660 2.3789
1.8275 -4.1961 2.3790
1.9736 -4.1211 2.3791
2.1167 -4.0411 2.3793
2.2568 -3.9562 2.3794
2.3936 -3.8665 2.3796
2.5270 -3.7722 2.3799
2.6569 -3.6734 2.3801
2.7830 -3.5701 2.3804
2.9053 -3.4627 2.3807
3.0236 -3.3511 2.3810
3.1378 -3.2356 2.3814
3.2478 -3.1163 2.3818
3.3534 -2.9933 2.3822
3.4546 -2.8669 2.3826
3.5512 -2.7371 2.3831
3.6431 -2.6042 2.3835
3.7302 -2.4683 2.3840
3.8125 -2.3295 2.3845
3.8899 -2.1881 2.3851
3.9622 -2.0442 2.3856
4.0294 -1.8979 2.3862
4.0915 -1.7496 2.3868
4.1484 -1.5993 2.3874
4.1999 -1.4472 2.3881
4.2462 -1.2934 2.3887
4.2875 -1.1384 2.3897
4.3294 -0.9835 2.3939
4.3600 -0.8259 2.3949
4.3834 -0.6671 2.3950
4.4012 -0.5077 2.3950
4.4133 -0.3479 2.3950
4.4200 -0.1878 2.3950
4.4210 -0.0277 2.3950
4.4166 0.1322 2.3950
4.4065 0.2919 2.3950
4.3910 0.4510 2.3950
4.3700 0.6095 2.3950
4.3435 0.7670 2.3950
4.3116 0.9236 2.3950
4.2743 1.0789 2.3950
4.2317 1.2327 2.3950
4.1838 1.3850 2.3950
4.1306 1.5356 2.3950
4.0723 1.6842 2.3950
4.0088 1.8307 2.3950
3.9403 1.9749 2.3950
3.8669 2.1167 2.3950
3.7886 2.2559 2.3950
3.7055 2.3924 2.3950
3.6177 2.5259 2.3950
3.5254 2.6563 2.3950
3.4285 2.7835 2.3950
3.3272 2.9074 2.3950
3.2217 3.0277 2.3950
3.1120 3.1443 2.3950
2.9983 3.2571 2.3950
2.8806 3.3660 2.3950
2.7592 3.4707 2.3950
2.6341 3.5713 2.3950
2.5055 3.6675 2.3950
2.3736 3.7593 2.3950
2.2384 3.8465 2.3950
0.8514 1.5929 0.9710
0.7936 1.6231 0.9702
0.7347 1.6513 0.9694
0.6749 1.6774 0.9686
0.6141 1.7012 0.9678
0.5525 1.7229 0.9669
0.4902 1.7423 0.9660
0.4272 1.7595 0.9651
0.3636 1.7744 0.9641
0.2995 1.7871 0.9631
0.2350 1.7974 0.9621
0.1702 1.8053 0.9610
0.1051 1.8110 0.9599
0.0399 1.8142 0.9588
-0.0254 1.8152 0.9577
-0.0907 1.8138 0.9565
-0.1560 1.8100 0.9553
-0.2210 1.8039 0.9541
-0.2858 1.7954 0.9529
-0.3502 1.7847 0.9517
-0.4142 1.7716 0.9505
-0.4777 1.7562 0.9492
-0.5406 1.7385 0.9480
-0.6028 1.7186 0.9467
-0.6643 1.6964 0.9454
-0.7249 1.6721 0.9441
-0.7846 1.6456 0.9428
-0.8433 1.6169 0.9415
-0.9009 1.5862 0.9402
-2.4420 3.9623 2.3950
-2.5865 3.8788 2.3950
-2.7280 3.7901 2.3950
-2.8665 3.6962 2.3950
-3.0017 3.5972 2.3950
-3.1333 3.4933 2.3950
-3.2613 3.3845 2.3950
-3.3853 3.2710 2.3950
-3.5053 3.1530 2.3950
-3.6211 3.0305 2.3950
-3.7325 2.9037 2.3950
-3.8392 2.7728 2.3950
-3.9413 2.6379 2.3950
-4.0384 2.4992 2.3950
-4.1305 2.3569 2.3950
-4.2174 2.2112 2.3950
-4.2990 2.0622 2.3950
-4.3751 1.9102 2.3950
-4.4457 1.7554 2.3950
-4.5105 1.5979 2.3950
-4.5696 1.4379 2.3950
-4.6227 1.2758 2.3950
-4.6699 1.1117 2.3950
-4.7110 0.9459 2.3950
-4.7460 0.7785 2.3950
-4.7748 0.6098 2.3950
-4.7973 0.4401 2.3950
-4.8135 0.2695 2.3950
-4.8234 0.0984 2.3950
-4.8269 -0.0731 2.3950
-4.8241 -0.2447 2.3950
-4.8149 -0.4161 2.3950
-4.7993 -0.5871 2.3950
-4.7773 -0.7575 2.3950
-4.7490 -0.9270 2.3950
-4.7145 -1.0954 2.3950
-4.6736 -1.2624 2.3950
-4.6266 -1.4277 2.3950
-4.5735 -1.5913 2.3950
-4.5142 -1.7527 2.3950
-4.4491 -1.9118 2.3950
-4.3780 -2.0684 2.3950
-4.3011 -2.2222 2.3950
-4.2186 -2.3731 2.3950
-4.1306 -2.5207 2.3950
-4.0372 -2.6649 2.3950
-3.9384 -2.8055 2.3950
-3.8346 -2.9423 2.3950
-3.7257 -3.0751 2.3950
-3.6121 -3.2036 2.3950
-3.4938 -3.3279 2.3950
-3.3711 -3.4476 2.3950
-3.2440 -3.5625 2.3950
-3.1125 -3.6723 2.3947
-2.9762 -3.7758 2.3937
-2.8351 -3.8724 2.3916
-2.6892 -3.9613 2.3882
-2.5427 -4.0482 2.3869
-2.3939 -4.1306 2.3863
-2.2424 -4.2075 2.3857
-2.0883 -4.2786 2.3851
-1.9319 -4.3441 2.3845
-1.7735 -4.4037 2.3840
-1.6131 -4.4574 2.3834
-1.4511 -4.5052 2.3829
-1.2876 -4.5470 2.3825
-1.1230 -4.5828 2.3820
-0.9574 -4.6126 2.3816
-0.7910 -4.6363 2.3812
-0.6241 -4.6539 2.3809
-0.4569 -4.6655 2.3806
-0.2896 -4.6711 2.3803
-0.1224 -4.6706 2.3800
0.0444 -4.6641 2.3797
0.2107 -4.6517 2.3795
0.3761 -4.6333 2.3793
0.5406 -4.6090 2.3792
0.7039 -4.5789 2.3791
0.8658 -4.5431 2.3790
1.0261 -4.5015 2.3789
1.1846 -4.4543 2.3788
1.3411 -4.4016 2.3788
1.4954 -4.3434 2.3789
1.6473 -4.2799 2.3789
1.7967 -4.2111 2.3790
1.9434 -4.1372 2.3791
2.0872 -4.0582 2.3792
2.2279 -3.9743 2.3794
2.3654 -3.8856 2.3796
2.4995 -3.7922 2.3798
2.6301 -3.6943 2.3801
2.7571 -3.5920 2.3803
2.8802 -3.4854 2.3806
2.9993 -3.3747 2.3810
3.1144 -3.2600 2.3813
3.2253 -3.1414 2.3817
3.3318 -3.0192 2.3821
3.4339 -2.8935 2.3825
3.5314 -2.7644 2.3830
3.6243 -2.6321 2.3834
3.7125 -2.4968 2.3839
3.7958 -2.3586 2.3844
3.8742 -2.2177 2.3850
3.9476 -2.0743 2.3855
4.0159 -1.9286 2.3861
4.0790 -1.7806 2.3867
4.1370 -1.6307 2.3873
4.1896 -1.4790 2.3879
4.2370 -1.3256 2.3886
4.2790 -1.1707 2.3892
4.3219 -1.0161 2.3934
4.3544 -0.8589 2.3949
4.3790 -0.7003 2.3950
4.3979 -0.5410 2.3950
4.4113 -0.3812 2.3950
4.4190 -0.2212 2.3950
4.4213 -0.0611 2.3950
4.4179 0.0989 2.3950
4.4091 0.2587 2.3950
4.3947 0.4179 2.3950
4.3748 0.5765 2.3950
4.3495 0.7343 2.3950
4.3187 0.8911 2.3950
4.2825 1.0466 2.3950
4.2410 1.2008 2.3950
4.1942 1.3535 2.3950
4.1421 1.5044 2.3950
4.0848 1.6534 2.3950
4.0224 1.8004 2.3950
3.9550 1.9451 2.3950
3.8826 2.0874 2.3950
3.8053 2.2272 2.3950
3.7232 2.3642 2.3950
3.6364 2.4983 2.3950
3.5450 2.6294 2.3950
3.4490 2.7573 2.3950
3.3487 2.8819 2.3950
3.2440 3.0029 2.3950
3.1352 3.1203 2.3950
3.0223 3.2339 2.3950
2.9054 3.3436 2.3950
2.7848 3.4493 2.3950
2.6604 3.5507 2.3950
2.5326 3.6479 2.3950
2.4013 3.7406 2.3950
2.2668 3.8287 2.3950
0.8633 1.5863 0.9711
0.8057 1.6170 0.9704
0.7471 1.6456 0.9696
0.6874 1.6721 0.9688
0.6268 1.6964 0.9680
0.5654 1.7186 0.9671
0.5032 1.7385 0.9662
0.4403 1.7561 0.9653
0.3769 1.7715 0.9643
0.3129 1.7846 0.9633
0.2485 1.7954 0.9623
0.1837 1.8039 0.9612
0.1187 1.8100 0.9601
0.0535 1.8138 0.9590
-0.0118 1.8152 0.9579
-0.0772 1.8143 0.9568
-0.1424 1.8110 0.9556
-0.2075 1.8054 0.9544
-0.2723 1.7974 0.9532
-0.3368 1.7871 0.9520
-0.4009 1.7745 0.9507
-0.4645 1.7596 0.9495
-0.5275 1.7424 0.9482
-0.5899 1.7229 0.9469
-0.6515 1.7012 0.9457
-0.7123 1.6773 0.9444
-0.7722 1.6513 0.9431
-0.8311 1.6231 0.9418
-0.8890 1.5928 0.9405
-2.4115 3.9790 2.3950
-2.5566 3.8966 2.3950
-2.6988 3.8090 2.3950
-2.8379 3.7162 2.3950
-2.9738 3.6182 2.3950
-3.1062 3.5153 2.3950
-3.2349 3.4076 2.3950
-3.3598 3.2950 2.3950
-3.4807 3.1779 2.3950
-3.5974 3.0563 2.3950
-3.7096 2.9304 2.3950
-3.8174 2.8003 2.3950
-3.9204 2.6663 2.3950
-4.0186 2.5284 2.3950
-4.1117 2.3868 2.3950
-4.1997 2.2418 2.3950
-4.2824 2.0935 2.3950
-4.3597 1.9421 2.3950
-4.4314 1.7878 2.3950
-4.4975 1.6308 2.3950
-4.5578 1.4714 2.3950
-4.6122 1.3098 2.3950
-4.6606 1.1460 2.3950
-4.7030 0.9805 2.3950
-4.7392 0.8134 2.3950
-4.7693 0.6450 2.3950
-4.7931 0.4755 2.3950
-4.8107 0.3051 2.3950
-4.8219 0.1340 2.3950
-4.8267 -0.0374 2.3950
-4.8252 -0.2090 2.3950
-4.8173 -0.3804 2.3950
-4.8030 -0.5516 2.3950
-4.7824 -0.7221 2.3950
-4.7554 -0.8918 2.3950
-4.7222 -1.0604 2.3950
-4.6826 -1.2277 2.3950
-4.6369 -1.3934 2.3950
-4.5850 -1.5574 2.3950
-4.5271 -1.7193 2.3950
-4.4631 -1.8789 2.3950
-4.3933 -2.0360 2.3950
-4.3176 -2.1904 2.3950
-4.2363 -2.3419 2.3950
-4.1494 -2.4902 2.3950
-4.0571 -2.6352 2.3950
-3.9594 -2.7765 2.3950
-3.8566 -2.9141 2.3950
-3.7488 -3.0478 2.3950
-3.6361 -3.1772 2.3950
-3.5188 -3.3024 2.3950
-3.3970 -3.4230 2.3950
-3.2708 -3.5390 2.3950
-3.1403 -3.6499 2.3948
-3.0050 -3.7547 2.3940
-2.8649 -3.8529 2.3922
-2.7201 -3.9436 2.3891
-2.5733 -4.0303 2.3870
-2.4251 -4.1139 2.3864
-2.2741 -4.1919 2.3858
-2.1206 -4.2643 2.3852
-1.9647 -4.3309 2.3846
-1.8066 -4.3917 2.3841
-1.6466 -4.4467 2.3835
-1.4849 -4.4957 2.3830
-1.3218 -4.5388 2.3826
-1.1574 -4.5758 2.3821
-0.9919 -4.6069 2.3817
-0.8257 -4.6318 2.3813
-0.6589 -4.6508 2.3810
-3.6553 2.5963 2.3950
-3.7507 2.4678 2.3950
-3.8414 2.3357 2.3950
-3.9273 2.2003 2.3950
-4.0082 2.0616 2.3950
-4.0841 1.9200 2.3950
-4.1548 1.7756 2.3950
-4.2202 1.6285 2.3950
-4.2802 1.4789 2.3950
-4.3347 1.3272 2.3950
-4.3836 1.1734 2.3950
-4.4269 1.0178 2.3950
-4.4644 0.8606 2.3950
-4.4960 0.7020 2.3950
-4.5218 0.5423 2.3950
-4.5417 0.3816 2.3950
-4.5557 0.2202 2.3950
-4.5636 0.0583 2.3950
-4.5656 -0.1038 2.3950
-4.5616 -0.2660 2.3950
-4.5515 -0.4280 2.3950
-4.5354 -0.5895 2.3950
-4.5133 -0.7504 2.3950
-4.4853 -0.9104 2.3950
-4.4513 -1.0693 2.3950
-4.4114 -1.2269 2.3950
-4.3658 -1.3828 2.3950
-4.3143 -1.5370 2.3950
-4.2571 -1.6892 2.3950
-4.1944 -1.8391 2.3950
-4.1261 -1.9866 2.3950
-4.0523 -2.1315 2.3950
-3.9733 -2.2735 2.3950
-3.8890 -2.4124 2.3950
-3.7997 -2.5480 2.3950
-3.7054 -2.6803 2.3950
-3.6063 -2.8088 2.3950
-3.5026 -2.9336 2.3950
-3.3943 -3.0544 2.3950
-3.2816 -3.1711 2.3950
-3.1648 -3.2834 2.3950
-3.0440 -3.3913 2.3950
-2.9192 -3.4944 2.3949
-2.7902 -3.5921 2.3943
-2.6568 -3.6834 2.3928
-2.5191 -3.7680 2.3902
-2.3786 -3.8471 2.3876
-2.2374 -3.9242 2.3870
-2.0937 -3.9961 2.3864
-1.9476 -4.0625 2.3859
-1.7993 -4.1236 2.3853
-1.6491 -4.1791 2.3848
-1.4971 -4.2290 2.3843
-1.3435 -4.2734 2.3839
-1.1887 -4.3121 2.3834
-1.0327 -4.3451 2.3830
-0.8758 -4.3723 2.3826
-0.7183 -4.3939 2.3823
-0.5602 -4.4097 2.3819
-0.4019 -4.4199 2.3816
-0.2435 -4.4242 2.3813
-0.0853 -4.4229 2.3811
0.0726 -4.4159 2.3809
0.2299 -4.4033 2.3807
0.3865 -4.3850 2.3805
0.5421 -4.3612 2.3803
0.6966 -4.3318 2.3802
0.8497 -4.2970 2.3801
1.0013 -4.2569 2.3801
1.1511 -4.2113 2.3801
1.2991 -4.1606 2.3800
1.4449 -4.1047 2.3801
1.5886 -4.0437 2.3801
1.7297 -3.9778 2.3802
1.8683 -3.9070 2.3803
2.0041 -3.8314 2.3804
2.1371 -3.7511 2.3806
2.2669 -3.6663 2.3808
2.3935 -3.5771 2.3810
2.5168 -3.4836 2.3812
2.6365 -3.3860 2.3815
2.7527 -3.2843 2.3818
2.8650 -3.1787 2.3821
2.9735 -3.0693 2.3824
3.0779 -2.9563 2.3828
3.1783 -2.8398 2.3832
3.2744 -2.7200 2.3836
3.3662 -2.5971 2.3840
3.4535 -2.4711 2.3845
3.5363 -2.3423 2.3849
3.6146 -2.2107 2.3854
3.6881 -2.0767 2.3859
3.7568 -1.9402 2.3865
3.8208 -1.8016 2.3870
3.8798 -1.6609 2.3876
3.9339 -1.5183 2.3882
3.9829 -1.3740 2.3888
4.0269 -1.2282 2.3894
4.0662 -1.0811 2.3903
4.1055 -0.9340 2.3942
4.1344 -0.7844 2.3950
4.1566 -0.6338 2.3950
4.1735 -0.4826 2.3950
4.1852 -0.3310 2.3950
4.1916 -0.1791 2.3950
4.1928 -0.0272 2.3950
4.1886 0.1246 2.3950
4.1792 0.2761 2.3950
4.1645 0.4271 2.3950
4.1447 0.5775 2.3950
4.1196 0.7270 2.3950
4.0894 0.8756 2.3950
4.0540 1.0229 2.3950
4.0136 1.1690 2.3950
3.9681 1.3135 2.3950
3.9177 1.4564 2.3950
3.8623 1.5974 2.3950
3.8021 1.7364 2.3950
3.7371 1.8733 2.3950
3.6674 2.0079 2.3950
3.5931 2.1399 2.3950
3.5142 2.2694 2.3950
3.4308 2.3961 2.3950
3.3431 2.5198 2.3950
3.2511 2.6404 2.3950
3.1550 2.7579 2.3950
3.0548 2.8720 2.3950
2.9506 2.9826 2.3950
2.8426 3.0895 2.3950
2.7309 3.1927 2.3950
2.6156 3.2920 2.3950
2.4968 3.3873 2.3950
2.3748 3.4785 2.3950
2.2495 3.5654 2.3950
0.8591 1.4775 0.9700
0.8054 1.5081 0.9694
0.7507 1.5368 0.9687
0.6949 1.5635 0.9679
0.6382 1.5881 0.9672
0.5806 1.6107 0.9664
0.5223 1.6312 0.9655
0.4633 1.6496 0.9647
0.4036 1.6659 0.9638
0.3434 1.6800 0.9629
0.2827 1.6920 0.9619
0.2217 1.7017 0.9609
0.1603 1.7093 0.9599
0.0986 1.7146 0.9589
0.0369 1.7177 0.9579
-0.0250 1.7186 0.9568
-0.0868 1.7172 0.9557
-0.1486 1.7137 0.9546
-0.2102 1.7079 0.9534
-0.2715 1.6999 0.9523
-0.3325 1.6897 0.9511
-0.3931 1.6773 0.9500
-0.4533 1.6627 0.9488
-0.5128 1.6460 0.9476
-0.5717 1.6271 0.9464
-0.6299 1.6061 0.9452
-0.6873 1.5831 0.9440
-0.7439 1.5580 0.9427
-0.7995 1.5309 0.9415
-0.8540 1.5018 0.9403
-0.9075 1.4707 0.9391
-2.4512 3.6716 2.3950
-2.5850 3.5873 2.3950
-2.7160 3.4982 2.3950
-2.8437 3.4043 2.3950
-2.9681 3.3057 2.3950
-3.0890 3.2025 2.3950
-3.2062 3.0949 2.3950
-3.3196 2.9829 2.3950
-3.4290 2.8668 2.3950
-3.5341 2.7467 2.3950
-3.6349 2.6226 2.3950
-3.7312 2.4948 2.3950
-3.8229 2.3635 2.3950
-3.9098 2.2287 2.3950
-3.9918 2.0908 2.3950
-4.0687 1.9497 2.3950
-4.1405 1.8059 2.3950
-4.2071 1.6593 2.3950
-4.2682 1.5103 2.3950
-4.3238 1.3590 2.3950
-4.3739 1.2056 2.3950
-4.4183 1.0504 2.3950
-4.4570 0.8935 2.3950
-4.4899 0.7352 2.3950
-4.5170 0.5756 2.3950
-4.5381 0.4151 2.3950
-4.5533 0.2539 2.3950
-4.5625 0.0921 2.3950
-4.5657 -0.0700 2.3950
-4.5629 -0.2322 2.3950
-4.5541 -0.3943 2.3950
-4.5392 -0.5559 2.3950
-4.5184 -0.7170 2.3950
-4.4916 -0.8772 2.3950
-4.4589 -1.0364 2.3950
-4.4202 -1.1942 2.3950
-4.3757 -1.3505 2.3950
-4.3255 -1.5051 2.3950
-4.2695 -1.6577 2.3950
-4.2079 -1.8081 2.3950
-4.1407 -1.9561 2.3950
-4.0681 -2.1016 2.3950
-3.9902 -2.2441 2.3950
-3.9070 -2.3837 2.3950
-3.8187 -2.5201 2.3950
-3.7254 -2.6530 2.3950
-3.6273 -2.7824 2.3950
-3.5245 -2.9080 2.3950
-3.4172 -3.0296 2.3950
-3.3054 -3.1471 2.3950
-3.1895 -3.2604 2.3950
-3.0695 -3.3692 2.3950
-2.9455 -3.4734 2.3949
-2.8174 -3.5722 2.3944
-2.6849 -3.6649 2.3932
-2.5482 -3.7510 2.3909
-2.4076 -3.8304 2.3877
-2.2670 -3.9086 2.3871
-2.1238 -3.9816 2.3865
-1.9782 -4.0491 2.3860
-1.8303 -4.1113 2.3854
-1.6805 -4.1680 2.3849
-1.5288 -4.2191 2.3844
-1.3756 -4.2646 2.3840
-1.2210 -4.3045 2.3835
-1.0653 -4.3387 2.3831
-0.9085 -4.3671 2.3827
-0.7511 -4.3899 2.3823
-0.5931 -4.4069 2.3820
-0.4349 -4.4182 2.3817
-0.2765 -4.4238 2.3814
-0.1182 -4.4237 2.3811
0.0398 -4.4178 2.3809
0.1972 -4.4064 2.3807
0.3540 -4.3893 2.3805
0.5098 -4.3666 2.3804
0.6645 -4.3384 2.3803
0.8179 -4.3047 2.3802
0.9698 -4.2657 2.3801
1.1201 -4.2213 2.3801
1.2684 -4.1716 2.3800
1.4148 -4.1168 2.3801
1.5588 -4.0568 2.3801
1.7006 -3.9919 2.3802
1.8397 -3.9221 2.3803
1.9761 -3.8475 2.3804
2.1096 -3.7682 2.3806
2.2401 -3.6844 2.3807
2.3674 -3.5961 2.3810
2.4914 -3.5035 2.3812
2.6119 -3.4066 2.3814
2.7288 -3.3058 2.3817
2.8419 -3.2010 2.3820
2.9512 -3.0924 2.3824
3.0565 -2.9801 2.3827
3.1577 -2.8644 2.3831
3.2547 -2.7452 2.3835
3.3474 -2.6229 2.3839
3.4357 -2.4976 2.3844
3.5195 -2.3693 2.3848
3.5987 -2.2383 2.3853
3.6732 -2.1048 2.3858
3.7429 -1.9688 2.3864
3.8079 -1.8306 2.3869
3.8679 -1.6903 2.3875
3.9230 -1.5481 2.3881
3.9731 -1.4042 2.3887
4.0182 -1.2587 2.3893
4.0581 -1.1118 2.3899
4.0984 -0.9649 2.3937
4.1290 -0.8157 2.3949
4.1524 -0.6652 2.3950
4.1705 -0.5141 2.3950
4.1832 -0.3626 2.3950
4.1907 -0.2107 2.3950
4.1930 -0.0588 2.3950
4.1899 0.0930 2.3950
4.1816 0.2446 2.3950
4.1680 0.3957 2.3950
4.1492 0.5462 2.3950
4.1252 0.6960 2.3950
4.0961 0.8447 2.3950
4.0618 0.9924 2.3950
4.0224 1.1387 2.3950
3.9780 1.2836 2.3950
3.9286 1.4268 2.3950
3.8742 1.5682 2.3950
3.8150 1.7077 2.3950
3.7510 1.8450 2.3950
3.6823 1.9801 2.3950
3.6089 2.1127 2.3950
3.5310 2.2427 2.3950
3.4485 2.3699 2.3950
3.3617 2.4943 2.3950
3.2706 2.6156 2.3950
3.1753 2.7337 2.3950
3.0760 2.8485 2.3950
2.9726 2.9598 2.3950
2.8654 3.0676 2.3950
2.7544 3.1715 2.3950
2.6399 3.2717 2.3950
2.5218 3.3678 2.3950
2.4004 3.4599 2.3950
2.2758 3.5477 2.3950
0.8702 1.4709 0.9702
0.8167 1.5019 0.9695
0.7621 1.5310 0.9688
0.7066 1.5581 0.9681
0.6501 1.5832 0.9673
0.5927 1.6062 0.9665
0.5345 1.6271 0.9657
0.4756 1.6460 0.9649
0.4161 1.6627 0.9640
0.3560 1.6773 0.9631
0.2954 1.6897 0.9621
0.2344 1.6999 0.9611
0.1731 1.7079 0.9601
0.1115 1.7137 0.9591
0.0497 1.7172 0.9581
-0.0121 1.7186 0.9570
-0.0740 1.7177 0.9559
