ply
format ascii 1.0
element vertex 2177
property float32 x
property float32 y
property float32 z
end_header
-2.1162 -7.0707 2.3899
-1.8575 -7.1260 2.3899
-1.5976 -7.1718 2.3899
-1.3366 -7.2079 2.3899
-1.0751 -7.2345 2.3899
-0.8133 -7.2516 2.3899
-0.5516 -7.2591 2.3899
-0.2903 -7.2571 2.3899
-0.0298 -7.2458 2.3899
0.2295 -7.2251 2.3899
0.4874 -7.1952 2.3899
0.7435 -7.1561 2.3899
0.9975 -7.1080 2.3899
1.2491 -7.0510 2.3899
1.4979 -6.9852 2.3899
1.7438 -6.9108 2.3899
1.9863 -6.8278 2.3899
2.2252 -6.7365 2.3899
2.4603 -6.6371 2.3899
2.6912 -6.5296 2.3899
2.9178 -6.4143 2.3899
3.1397 -6.2914 2.3899
3.3567 -6.1610 2.3899
3.5686 -6.0233 2.3899
3.7751 -5.8787 2.3899
3.9761 -5.7272 2.3899
4.1714 -5.5691 2.3899
4.3606 -5.4046 2.3899
4.5437 -5.2340 2.3899
4.7205 -5.0573 2.3899
4.8908 -4.8751 2.3899
5.0544 -4.6874 2.3899
5.2112 -4.4944 2.3899
5.3610 -4.2965 2.3899
5.5037 -4.0938 2.3899
5.6391 -3.8867 2.3899
5.7672 -3.6753 2.3899
5.8878 -3.4599 2.3899
6.0008 -3.2409 2.3899
6.1061 -3.0183 2.3899
6.2037 -2.7926 2.3899
6.2933 -2.5639 2.3899
6.3751 -2.3325 2.3899
6.4488 -2.0987 2.3899
6.5145 -1.8628 2.3899
6.5721 -1.6249 2.3899
6.6215 -1.3854 2.3899
6.6627 -1.1445 2.3899
6.6957 -0.9025 2.3899
6.7204 -0.6596 2.3899
6.7369 -0.4162 2.3899
6.7451 -0.1724 2.3899
6.7451 0.0715 2.3899
6.7367 0.3151 2.3899
6.7202 0.5583 2.3899
6.6953 0.8008 2.3899
6.6623 1.0422 2.3899
6.6212 1.2825 2.3899
6.5718 1.5212 2.3899
6.5144 1.7582 2.3899
6.4490 1.9932 2.3899
6.3756 2.2260 2.3899
6.2944 2.4562 2.3899
6.2053 2.6836 2.3899
6.1085 2.9080 2.3899
6.0040 3.1292 2.3899
5.8920 3.3468 2.3899
5.7725 3.5606 2.3899
5.6458 3.7705 2.3899
5.5118 3.9761 2.3899
5.3707 4.1773 2.3899
5.2227 4.3737 2.3899
5.0679 4.5652 2.3899
4.9064 4.7514 2.3899
4.7385 4.9323 2.3899
4.5642 5.1076 2.3899
4.3837 5.2770 2.3899
4.1973 5.4404 2.3899
4.0050 5.5974 2.3899
3.8071 5.7480 2.3899
3.6039 5.8920 2.3899
3.3954 6.0290 2.3899
3.1819 6.1590 2.3899
2.9637 6.2817 2.3899
2.7410 6.3969 2.3899
2.5139 6.5046 2.3899
2.2828 6.6044 2.3899
0.8307 2.7163 0.9694
0.7327 2.7454 0.9677
0.6337 2.7708 0.9659
0.5338 2.7928 0.9641
0.4332 2.8110 0.9623
0.3319 2.8257 0.9604
0.2302 2.8367 0.9585
0.1282 2.8439 0.9566
0.0260 2.8475 0.9546
-0.0763 2.8474 0.9527
-0.1786 2.8436 0.9507
-0.2806 2.8362 0.9487
-0.3823 2.8250 0.9467
-0.4836 2.8102 0.9447
-0.5842 2.7917 0.9427
-0.6841 2.7695 0.9407
-0.7831 2.7438 0.9387
-0.8812 2.7146 0.9367
-2.5008 6.8568 2.3899
-2.7512 6.7785 2.3899
-2.9992 6.6910 2.3899
-3.2443 6.5943 2.3899
-3.4862 6.4885 2.3899
-3.7245 6.3737 2.3899
-3.9590 6.2500 2.3899
-4.1891 6.1175 2.3899
-4.4147 5.9764 2.3899
-4.6353 5.8268 2.3899
-4.8507 5.6689 2.3899
-5.0604 5.5028 2.3899
-5.2642 5.3287 2.3899
-5.4617 5.1469 2.3899
-5.6525 4.9575 2.3899
-5.8365 4.7609 2.3899
-6.0133 4.5572 2.3899
-6.1826 4.3467 2.3899
-6.3441 4.1298 2.3899
-6.4976 3.9066 2.3899
-6.6427 3.6775 2.3899
-6.7793 3.4428 2.3899
-6.9071 3.2028 2.3899
-7.0259 2.9579 2.3899
-7.1354 2.7084 2.3899
-7.2355 2.4548 2.3899
-7.3261 2.1972 2.3899
-7.4068 1.9362 2.3899
-7.4777 1.6722 2.3899
-7.5384 1.4054 2.3899
-7.5891 1.1363 2.3899
-7.6294 0.8654 2.3899
-7.6595 0.5930 2.3899
-7.6791 0.3195 2.3899
-7.6883 0.0454 2.3899
-7.6871 -0.2289 2.3899
-7.6754 -0.5031 2.3899
-7.6532 -0.7766 2.3899
-7.6206 -1.0491 2.3899
-7.5776 -1.3201 2.3899
-7.5243 -1.5893 2.3899
-7.4608 -1.8561 2.3899
-7.3872 -2.1203 2.3899
-7.3036 -2.3814 2.3899
-7.2102 -2.6391 2.3899
-7.1070 -2.8928 2.3899
-6.9943 -3.1423 2.3899
-6.8723 -3.3872 2.3899
-6.7412 -3.6271 2.3899
-6.6012 -3.8617 2.3899
-6.4525 -4.0906 2.3899
-6.2954 -4.3134 2.3899
-6.1301 -4.5300 2.3899
-5.9569 -4.7399 2.3899
-5.7762 -4.9430 2.3899
-5.5881 -5.1388 2.3899
-5.3930 -5.3272 2.3899
-5.1913 -5.5079 2.3899
-4.9832 -5.6806 2.3899
-4.7690 -5.8452 2.3899
-4.5492 -6.0014 2.3899
-4.3241 -6.1491 2.3899
-4.0940 -6.2881 2.3899
-3.8592 -6.4182 2.3899
-3.6202 -6.5392 2.3899
-3.3772 -6.6512 2.3899
-3.1308 -6.7539 2.3899
-2.8811 -6.8472 2.3899
-2.6287 -6.9312 2.3899
-2.3738 -7.0056 2.3899
-2.1169 -7.0705 2.3899
-1.8582 -7.1259 2.3899
-1.5983 -7.1717 2.3899
-1.3373 -7.2078 2.3899
-1.0758 -7.2345 2.3899
-0.8139 -7.2515 2.3899
-0.5522 -7.2591 2.3899
-0.2910 -7.2571 2.3899
-0.0304 -6.7322 2.3899
0.2106 -6.7140 2.3899
0.4503 -6.6872 2.3899
0.6884 -6.6519 2.3899
0.9247 -6.6082 2.3899
1.1587 -6.5561 2.3899
1.3903 -6.4959 2.3899
1.6191 -6.4276 2.3899
1.8450 -6.3513 2.3899
2.0675 -6.2673 2.3899
2.2865 -6.1756 2.3899
2.5017 -6.0764 2.3899
2.7129 -5.9699 2.3899
2.9198 -5.8563 2.3899
3.1223 -5.7357 2.3899
3.3200 -5.6083 2.3899
3.5127 -5.4743 2.3899
3.7004 -5.3339 2.3899
3.8826 -5.1873 2.3899
4.0594 -5.0346 2.3899
4.2305 -4.8762 2.3899
4.3957 -4.7122 2.3899
4.5548 -4.5429 2.3899
4.7078 -4.3684 2.3899
4.8544 -4.1890 2.3899
4.9945 -4.0049 2.3899
5.1280 -3.8163 2.3899
5.2547 -3.6235 2.3899
5.3746 -3.4268 2.3899
5.4875 -3.2262 2.3899
5.5933 -3.0222 2.3899
5.6919 -2.8148 2.3899
5.7833 -2.6045 2.3899
5.8673 -2.3913 2.3899
5.9439 -2.1757 2.3899
6.0131 -1.9577 2.3899
6.0747 -1.7376 2.3899
6.1287 -1.5158 2.3899
6.1750 -1.2924 2.3899
6.2137 -1.0676 2.3899
6.2447 -0.8419 2.3899
6.2680 -0.6153 2.3899
6.2835 -0.3881 2.3899
6.2912 -0.1606 2.3899
6.2913 0.0669 2.3899
6.2836 0.2943 2.3899
6.2681 0.5212 2.3899
6.2449 0.7475 2.3899
6.2141 0.9729 2.3899
6.1756 1.1970 2.3899
6.1295 1.4198 2.3899
6.0758 1.6410 2.3899
6.0146 1.8602 2.3899
5.9459 2.0773 2.3899
5.8699 2.2920 2.3899
5.7865 2.5041 2.3899
5.6959 2.7134 2.3899
5.5982 2.9196 2.3899
5.4934 3.1225 2.3899
5.3817 3.3218 2.3899
5.2631 3.5174 2.3899
5.1377 3.7089 2.3899
5.0058 3.8963 2.3899
4.8674 4.0792 2.3899
4.7226 4.2574 2.3899
4.5717 4.4308 2.3899
4.4147 4.5990 2.3899
4.2517 4.7620 2.3899
4.0831 4.9195 2.3899
3.9089 5.0713 2.3899
3.7292 5.2172 2.3899
3.5444 5.3569 2.3899
3.3546 5.4905 2.3899
3.1600 5.6175 2.3899
2.9607 5.7379 2.3899
2.7571 5.8515 2.3899
2.5492 5.9582 2.3899
2.3375 6.0577 2.3899
0.8604 2.4935 0.9690
0.7703 2.5237 0.9674
0.6792 2.5507 0.9658
0.5872 2.5744 0.9641
0.4944 2.5947 0.9625
0.4009 2.6117 0.9607
0.3069 2.6252 0.9590
0.2124 2.6354 0.9572
0.1176 2.6422 0.9555
0.0226 2.6455 0.9537
-0.0725 2.6454 0.9518
-0.1675 2.6418 0.9500
-0.2623 2.6349 0.9482
-0.3568 2.6245 0.9463
-0.4508 2.6107 0.9445
-0.5443 2.5935 0.9426
-0.6371 2.5729 0.9407
-0.7291 2.5490 0.9389
-0.8202 2.5218 0.9370
-0.9103 2.4914 0.9351
-2.5585 6.2933 2.3899
-2.7883 6.2111 2.3899
-3.0154 6.1204 2.3899
-3.2395 6.0213 2.3899
-3.4602 5.9138 2.3899
-3.6772 5.7982 2.3899
-3.8902 5.6745 2.3899
-4.0989 5.5428 2.3899
-4.3029 5.4032 2.3899
-4.5020 5.2560 2.3899
-4.6959 5.1013 2.3899
-4.8842 4.9393 2.3899
-5.0666 4.7701 2.3899
-5.2429 4.5940 2.3899
-5.4128 4.4112 2.3899
-5.5760 4.2219 2.3899
-5.7322 4.0264 2.3899
-5.8812 3.8249 2.3899
-6.0227 3.6178 2.3899
-6.1565 3.4052 2.3899
-6.2824 3.1875 2.3899
-6.4002 2.9650 2.3899
-6.5096 2.7380 2.3899
-6.6105 2.5068 2.3899
-6.7027 2.2717 2.3899
-6.7860 2.0331 2.3899
-6.8603 1.7914 2.3899
-6.9254 1.5468 2.3899
-6.9813 1.2998 2.3899
-7.0278 1.0507 2.3899
-7.0649 0.7999 2.3899
-7.0924 0.5477 2.3899
-7.1104 0.2946 2.3899
-7.1187 0.0409 2.3899
-7.1174 -0.2129 2.3899
-7.1064 -0.4666 2.3899
-7.0858 -0.7197 2.3899
-7.0556 -0.9719 2.3899
-7.0159 -1.2227 2.3899
-6.9666 -1.4718 2.3899
-6.9080 -1.7188 2.3899
-6.8400 -1.9634 2.3899
-6.7628 -2.2051 2.3899
-6.6765 -2.4436 2.3899
-6.5813 -2.6786 2.3899
-6.4773 -2.9096 2.3899
-6.3647 -3.1364 2.3899
-6.2437 -3.3587 2.3899
-6.1144 -3.5761 2.3899
-5.9771 -3.7882 2.3899
-5.8321 -3.9948 2.3899
-5.6795 -4.1957 2.3899
-5.5196 -4.3905 2.3899
-5.3526 -4.5789 2.3899
-5.1789 -4.7607 2.3899
-4.9987 -4.9356 2.3899
-4.8123 -5.1035 2.3899
-4.6200 -5.2641 2.3899
-4.4221 -5.4172 2.3899
-4.2188 -5.5626 2.3899
-4.0106 -5.7001 2.3899
-3.7978 -5.8296 2.3899
-3.5806 -5.9509 2.3899
-3.3595 -6.0639 2.3899
-3.1346 -6.1685 2.3899
-2.9064 -6.2646 2.3899
-2.6752 -6.3520 2.3899
-2.4414 -6.4307 2.3899
-2.2053 -6.5007 2.3899
-1.9671 -6.5618 2.3899
-1.7274 -6.6141 2.3899
-1.4863 -6.6575 2.3899
-1.2442 -6.6921 2.3899
-1.0016 -6.7178 2.3899
-0.7586 -6.7346 2.3899
-0.5156 -6.7426 2.3899
-0.2730 -6.7418 2.3899
-0.0310 -6.7323 2.3899
0.2100 -6.7141 2.3899
0.4497 -6.6873 2.3899
0.6878 -6.6520 2.3899
0.9240 -6.6083 2.3899
1.1581 -6.5563 2.3899
1.3897 -6.4960 2.3899
1.6185 -6.4278 2.3899
1.8444 -6.3515 2.3899
2.0669 -6.2675 2.3899
2.2859 -6.1759 2.3899
2.5012 -6.0767 2.3899
2.7124 -5.9702 2.3899
2.9193 -5.8566 2.3899
3.1217 -5.7360 2.3899
3.3194 -5.6086 2.3899
3.5122 -5.4747 2.3899
3.6998 -5.3343 2.3899
3.8822 -5.1876 2.3899
4.0590 -5.0351 2.3899
4.2300 -4.8767 2.3899
4.3952 -4.7127 2.3899
4.5544 -4.5433 2.3899
4.7074 -4.3689 2.3899
4.8540 -4.1895 2.3899
4.9941 -4.0054 2.3899
5.1277 -3.8168 2.3899
5.2544 -3.6241 2.3899
5.3743 -3.4273 2.3899
5.4872 -3.2268 2.3899
5.5930 -3.0227 2.3899
5.6917 -2.8154 2.3899
5.7831 -2.6051 2.3899
5.8671 -2.3919 2.3899
5.9437 -2.1762 2.3899
6.0129 -1.9582 2.3899
6.0745 -1.7382 2.3899
6.1285 -1.5164 2.3899
6.1749 -1.2930 2.3899
6.2136 -1.0682 2.3899
6.2446 -0.8425 2.3899
6.2679 -0.6159 2.3899
6.2834 -0.3887 2.3899
6.2912 -0.1612 2.3899
6.2913 0.0663 2.3899
6.2836 0.2937 2.3899
6.2682 0.5206 2.3899
6.2450 0.7469 2.3899
6.2142 0.9723 2.3899
6.1757 1.1965 2.3899
6.1296 1.4192 2.3899
6.0760 1.6404 2.3899
6.0148 1.8596 2.3899
5.9461 2.0767 2.3899
5.8701 2.2915 2.3899
5.7868 2.5036 2.3899
5.6962 2.7129 2.3899
5.5985 2.9191 2.3899
5.4937 3.1219 2.3899
5.3820 3.3213 2.3899
5.2634 3.5169 2.3899
5.1381 3.7084 2.3899
5.0062 3.8958 2.3899
4.8678 4.0787 2.3899
4.7230 4.2569 2.3899
4.5721 4.4303 2.3899
4.4151 4.5986 2.3899
4.2522 4.7616 2.3899
4.0835 4.9191 2.3899
3.9093 5.0709 2.3899
3.7297 5.2168 2.3899
3.5449 5.3566 2.3899
3.3551 5.4901 2.3899
3.1605 5.6172 2.3899
2.9612 5.7376 2.3899
2.7576 5.8513 2.3899
2.5498 5.9579 2.3899
2.3380 6.0574 2.3899
0.8606 2.4934 0.9690
0.7706 2.5237 0.9674
0.6795 2.5506 0.9658
0.5875 2.5743 0.9641
0.4947 2.5947 0.9625
0.4012 2.6116 0.9608
0.3071 2.6252 0.9590
0.2126 2.6354 0.9573
0.1178 2.6422 0.9555
0.0228 2.6455 0.9537
-0.0722 2.6454 0.9519
-0.1672 2.6419 0.9500
-0.2620 2.6349 0.9482
-0.3565 2.6245 0.9463
-0.4506 2.6107 0.9445
-0.5441 2.5935 0.9426
-0.6369 2.5730 0.9407
-0.7289 2.5491 0.9389
-0.8200 2.5219 0.9370
-0.9100 2.4914 0.9352
-2.5579 6.2935 2.3899
-2.7877 6.2113 2.3899
-3.0148 6.1206 2.3899
-3.2389 6.0216 2.3899
-3.4596 5.9141 2.3899
-3.6766 5.7985 2.3899
-3.8897 5.6748 2.3899
-4.0983 5.5431 2.3899
-4.3024 5.4036 2.3899
-4.5015 5.2564 2.3899
-4.6954 5.1017 2.3899
-4.8837 4.9397 2.3899
-5.0661 4.7705 2.3899
-5.2424 4.5945 2.3899
-5.4123 4.4117 2.3899
-5.5755 4.2224 2.3899
-5.7318 4.0269 2.3899
-5.8808 3.8255 2.3899
-6.0223 3.6184 2.3899
-6.1562 3.4058 2.3899
-6.2821 3.1881 2.3899
-6.3999 2.9656 2.3899
-6.5093 2.7386 2.3899
-6.6103 2.5074 2.3899
-6.7025 2.2723 2.3899
-6.7858 2.0337 2.3899
-6.8601 1.7920 2.3899
-6.9253 1.5475 2.3899
-6.9812 1.3005 2.3899
-7.0277 1.0514 2.3899
-7.0648 0.8006 2.3899
-7.0923 0.5484 2.3899
-7.1103 0.2953 2.3899
-7.1187 0.0416 2.3899
-7.1174 -0.2123 2.3899
-7.1064 -0.4660 2.3899
-7.0859 -0.7191 2.3899
-7.0557 -0.9712 2.3899
-7.0160 -1.2221 2.3899
-6.9668 -1.4712 2.3899
-6.9081 -1.7182 2.3899
-6.8402 -1.9627 2.3899
-6.7630 -2.2044 2.3899
-6.6767 -2.4430 2.3899
-6.5816 -2.6779 2.3899
-6.4776 -2.9090 2.3899
-6.3650 -3.1358 2.3899
-6.2440 -3.3581 2.3899
-6.1148 -3.5755 2.3899
-5.9775 -3.7876 2.3899
-5.8325 -3.9943 2.3899
-5.6799 -4.1952 2.3899
-5.5200 -4.3899 2.3899
-5.3531 -4.5784 2.3899
-5.1794 -4.7602 2.3899
-4.9992 -4.9352 2.3899
-4.8128 -5.1031 2.3899
-4.6205 -5.2637 2.3899
-4.4226 -5.4168 2.3899
-4.2194 -5.5622 2.3899
-4.0112 -5.6997 2.3899
-3.7984 -5.8292 2.3899
-3.5812 -5.9506 2.3899
-3.3600 -6.0636 2.3899
-3.1352 -6.1682 2.3899
-2.9070 -6.2643 2.3899
-2.6759 -6.3518 2.3899
-2.4420 -6.4305 2.3899
-2.2059 -6.5005 2.3899
-1.9678 -6.5617 2.3899
-1.7280 -6.6140 2.3899
-1.4869 -6.6574 2.3899
-1.2449 -6.6920 2.3899
-1.0022 -6.7177 2.3899
-0.7592 -6.7346 2.3899
-0.5163 -6.7426 2.3899
-0.2736 -6.7418 2.3899
-0.0315 -6.2800 2.3899
0.1934 -6.2639 2.3899
0.4170 -6.2397 2.3899
0.6393 -6.2075 2.3899
0.8598 -6.1675 2.3899
1.0784 -6.1198 2.3899
1.2947 -6.0643 2.3899
1.5086 -6.0013 2.3899
1.7196 -5.9309 2.3899
1.9277 -5.8532 2.3899
2.1325 -5.7683 2.3899
2.3338 -5.6764 2.3899
2.5314 -5.5776 2.3899
2.7250 -5.4721 2.3899
2.9145 -5.3600 2.3899
3.0996 -5.2416 2.3899
3.2801 -5.1169 2.3899
3.4559 -4.9863 2.3899
3.6267 -4.8497 2.3899
3.7924 -4.7076 2.3899
3.9527 -4.5599 2.3899
4.1076 -4.4070 2.3899
4.2569 -4.2491 2.3899
4.4003 -4.0863 2.3899
4.5379 -3.9188 2.3899
4.6694 -3.7470 2.3899
4.7947 -3.5708 2.3899
4.9137 -3.3908 2.3899
5.0262 -3.2069 2.3899
5.1322 -3.0195 2.3899
5.2316 -2.8287 2.3899
5.3243 -2.6349 2.3899
5.4102 -2.4381 2.3899
5.4891 -2.2388 2.3899
5.5612 -2.0370 2.3899
5.6262 -1.8330 2.3899
5.6841 -1.6271 2.3899
5.7349 -1.4195 2.3899
5.7785 -1.2104 2.3899
5.8150 -1.0000 2.3899
5.8442 -0.7886 2.3899
5.8661 -0.5765 2.3899
5.8808 -0.3638 2.3899
5.8882 -0.1508 2.3899
5.8883 0.0623 2.3899
5.8811 0.2752 2.3899
5.8667 0.4878 2.3899
5.8450 0.6996 2.3899
5.8161 0.9107 2.3899
5.7800 1.1206 2.3899
5.7368 1.3292 2.3899
5.6864 1.5363 2.3899
5.6290 1.7415 2.3899
5.5646 1.9448 2.3899
5.4932 2.1458 2.3899
5.4150 2.3443 2.3899
5.3300 2.5402 2.3899
5.2383 2.7331 2.3899
5.1399 2.9229 2.3899
5.0351 3.1094 2.3899
4.9238 3.2923 2.3899
4.8062 3.4714 2.3899
4.6824 3.6465 2.3899
4.5526 3.8175 2.3899
4.4168 3.9840 2.3899
4.2752 4.1460 2.3899
4.1279 4.3031 2.3899
3.9751 4.4553 2.3899
3.8170 4.6022 2.3899
3.6537 4.7438 2.3899
3.4854 4.8799 2.3899
3.3122 5.0101 2.3899
3.1343 5.1345 2.3899
2.9520 5.2528 2.3899
2.7654 5.3649 2.3899
2.5747 5.4706 2.3899
2.3801 5.5697 2.3899
0.8843 2.2947 0.9686
0.8014 2.3259 0.9671
0.7174 2.3541 0.9656
0.6324 2.3792 0.9641
0.5465 2.4013 0.9626
0.4600 2.4202 0.9610
0.3727 2.4360 0.9594
0.2850 2.4487 0.9578
0.1969 2.4582 0.9562
0.1084 2.4644 0.9545
0.0198 2.4675 0.9528
-0.0688 2.4674 0.9511
-0.1574 2.4641 0.9494
-0.2459 2.4576 0.9477
-0.3340 2.4479 0.9460
-0.4218 2.4350 0.9442
-0.5090 2.4190 0.9425
-0.5955 2.3998 0.9408
-0.6814 2.3775 0.9390
-0.7663 2.3522 0.9373
-0.8503 2.3238 0.9355
-2.3884 5.8667 2.3899
-2.6023 5.7892 2.3899
-2.8136 5.7040 2.3899
-3.0221 5.6109 2.3899
-3.2273 5.5101 2.3899
-3.4291 5.4016 2.3899
-3.6271 5.2857 2.3899
-3.8211 5.1624 2.3899
-4.0106 5.0318 2.3899
-4.1956 4.8941 2.3899
-4.3756 4.7495 2.3899
-4.5504 4.5981 2.3899
-4.7197 4.4401 2.3899
-4.8833 4.2757 2.3899
-5.0409 4.1051 2.3899
-5.1923 3.9286 2.3899
-5.3372 3.7463 2.3899
-5.4753 3.5585 2.3899
-5.6065 3.3654 2.3899
-5.7305 3.1674 2.3899
-5.8471 2.9646 2.3899
-5.9562 2.7574 2.3899
-6.0575 2.5461 2.3899
-6.1509 2.3309 2.3899
-6.2362 2.1121 2.3899
-6.3133 1.8901 2.3899
-6.3821 1.6652 2.3899
-6.4423 1.4378 2.3899
-6.4940 1.2081 2.3899
-6.5369 0.9764 2.3899
-6.5712 0.7432 2.3899
-6.5965 0.5088 2.3899
-6.6130 0.2735 2.3899
-6.6207 0.0377 2.3899
-6.6193 -0.1983 2.3899
-6.6091 -0.4341 2.3899
-6.5899 -0.6694 2.3899
-6.5618 -0.9038 2.3899
-6.5249 -1.1370 2.3899
-6.4792 -1.3685 2.3899
-6.4248 -1.5982 2.3899
-6.3617 -1.8255 2.3899
-6.2901 -2.0503 2.3899
-6.2101 -2.2721 2.3899
-6.1218 -2.4906 2.3899
-6.0254 -2.7055 2.3899
-5.9210 -2.9166 2.3899
-5.8088 -3.1234 2.3899
-5.6889 -3.3257 2.3899
-5.5616 -3.5231 2.3899
-5.4270 -3.7156 2.3899
-5.2855 -3.9026 2.3899
-5.1371 -4.0840 2.3899
-4.9823 -4.2596 2.3899
-4.8211 -4.4291 2.3899
-4.6538 -4.5923 2.3899
-4.4808 -4.7489 2.3899
-4.3023 -4.8988 2.3899
-4.1185 -5.0417 2.3899
-3.9298 -5.1775 2.3899
-3.7364 -5.3061 2.3899
-3.5387 -5.4272 2.3899
-3.3368 -5.5407 2.3899
-3.1313 -5.6466 2.3899
-2.9222 -5.7446 2.3899
-2.7101 -5.8348 2.3899
-2.4950 -5.9169 2.3899
-2.2775 -5.9910 2.3899
-2.0578 -6.0569 2.3899
-1.8362 -6.1147 2.3899
-1.6129 -6.1642 2.3899
-1.3885 -6.2055 2.3899
-1.1630 -6.2385 2.3899
-0.9369 -6.2632 2.3899
-0.7105 -6.2797 2.3899
-0.4840 -6.2880 2.3899
-0.2577 -6.2881 2.3899
-0.0321 -6.2801 2.3899
0.1927 -6.2639 2.3899
0.4164 -6.2397 2.3899
0.6387 -6.2076 2.3899
0.8592 -6.1677 2.3899
1.0778 -6.1199 2.3899
1.2942 -6.0645 2.3899
1.5080 -6.0015 2.3899
1.7191 -5.9311 2.3899
1.9272 -5.8534 2.3899
2.1320 -5.7685 2.3899
2.3333 -5.6766 2.3899
2.5309 -5.5779 2.3899
2.7245 -5.4724 2.3899
2.9140 -5.3603 2.3899
3.0991 -5.2419 2.3899
3.2797 -5.1173 2.3899
3.4554 -4.9866 2.3899
3.6263 -4.8501 2.3899
3.7919 -4.7079 2.3899
3.9523 -4.5603 2.3899
4.1072 -4.4074 2.3899
4.2565 -4.2495 2.3899
4.4000 -4.0867 2.3899
4.5375 -3.9193 2.3899
4.6690 -3.7475 2.3899
4.7943 -3.5713 2.3899
4.9133 -3.3912 2.3899
5.0259 -3.2074 2.3899
5.1320 -3.0200 2.3899
5.2314 -2.8292 2.3899
5.3241 -2.6354 2.3899
5.4099 -2.4387 2.3899
5.4889 -2.2393 2.3899
5.5610 -2.0375 2.3899
5.6260 -1.8336 2.3899
5.6840 -1.6277 2.3899
5.7348 -1.4200 2.3899
5.7784 -1.2109 2.3899
5.8149 -1.0006 2.3899
5.8441 -0.7892 2.3899
5.8661 -0.5770 2.3899
5.8808 -0.3643 2.3899
5.8882 -0.1513 2.3899
5.8883 0.0617 2.3899
5.8812 0.2747 2.3899
5.8667 0.4872 2.3899
5.8451 0.6991 2.3899
5.8162 0.9101 2.3899
5.7801 1.1200 2.3899
5.7369 1.3286 2.3899
5.6866 1.5357 2.3899
5.6292 1.7410 2.3899
5.5648 1.9442 2.3899
5.4934 2.1452 2.3899
5.4152 2.3438 2.3899
5.3302 2.5396 2.3899
5.2385 2.7326 2.3899
5.1402 2.9224 2.3899
5.0353 3.1089 2.3899
4.9241 3.2918 2.3899
4.8065 3.4709 2.3899
4.6827 3.6461 2.3899
4.5529 3.8170 2.3899
4.4171 3.9836 2.3899
4.2756 4.1455 2.3899
4.1283 4.3027 2.3899
3.9756 4.4549 2.3899
3.8175 4.6018 2.3899
3.6541 4.7434 2.3899
3.4858 4.8795 2.3899
3.3127 5.0098 2.3899
3.1348 5.1342 2.3899
2.9525 5.2525 2.3899
2.7659 5.3646 2.3899
2.5752 5.4703 2.3899
2.3807 5.5694 2.3899
0.8845 2.2946 0.9686
0.8016 2.3258 0.9671
0.7176 2.3540 0.9656
0.6326 2.3791 0.9641
0.5468 2.4012 0.9626
0.4602 2.4202 0.9610
0.3730 2.4360 0.9594
0.2852 2.4486 0.9578
0.1971 2.4581 0.9562
0.1087 2.4644 0.9545
0.0201 2.4675 0.9528
-0.0686 2.4674 0.9511
-0.1572 2.4641 0.9494
-0.2456 2.4576 0.9477
-0.3338 2.4479 0.9460
-0.4215 2.4351 0.9442
-0.5087 2.4190 0.9425
-0.5953 2.3999 0.9408
-0.6811 2.3776 0.9390
-0.7661 2.3522 0.9373
-0.8501 2.3238 0.9355
-2.3878 5.8669 2.3899
-2.6017 5.7895 2.3899
-2.8131 5.7042 2.3899
-3.0215 5.6111 2.3899
-3.2268 5.5103 2.3899
-3.4286 5.4019 2.3899
-3.6266 5.2860 2.3899
-3.8206 5.1627 2.3899
-4.0101 5.0321 2.3899
-4.1951 4.8945 2.3899
-4.3751 4.7499 2.3899
-4.5499 4.5985 2.3899
-4.7193 4.4405 2.3899
-4.8829 4.2761 2.3899
-5.0405 4.1056 2.3899
-5.1919 3.9290 2.3899
-5.3368 3.7468 2.3899
-5.4749 3.5590 2.3899
-5.6061 3.3660 2.3899
-5.7301 3.1679 2.3899
-5.8468 2.9652 2.3899
-5.9559 2.7580 2.3899
-6.0573 2.5466 2.3899
-6.1507 2.3314 2.3899
-6.2360 2.1127 2.3899
-6.3132 1.8907 2.3899
-6.3819 1.6658 2.3899
-6.4422 1.4384 2.3899
-6.4939 1.2087 2.3899
-6.5368 0.9770 2.3899
-6.5711 0.7438 2.3899
-6.5965 0.5094 2.3899
-6.6130 0.2741 2.3899
-6.6206 0.0383 2.3899
-6.6193 -0.1977 2.3899
-6.6091 -0.4335 2.3899
-6.5900 -0.6688 2.3899
-6.5619 -0.9032 2.3899
-6.5250 -1.1364 2.3899
-6.4794 -1.3679 2.3899
-6.4249 -1.5976 2.3899
-6.3619 -1.8249 2.3899
-6.2903 -2.0497 2.3899
-6.2104 -2.2715 2.3899
-6.1221 -2.4900 2.3899
-6.0257 -2.7050 2.3899
-5.9213 -2.9160 2.3899
-5.8091 -3.1228 2.3899
-5.6892 -3.3251 2.3899
-5.5619 -3.5226 2.3899
-5.4274 -3.7150 2.3899
-5.2859 -3.9021 2.3899
-5.1376 -4.0836 2.3899
-4.9827 -4.2592 2.3899
-4.8215 -4.4287 2.3899
-4.6543 -4.5918 2.3899
-4.4813 -4.7485 2.3899
-4.3027 -4.8984 2.3899
-4.1190 -5.0413 2.3899
-3.9303 -5.1772 2.3899
-3.7369 -5.3057 2.3899
-3.5392 -5.4269 2.3899
-3.3374 -5.5405 2.3899
-3.1318 -5.6463 2.3899
-2.9228 -5.7444 2.3899
-2.7106 -5.8345 2.3899
-2.4956 -5.9167 2.3899
-2.2781 -5.9908 2.3899
-2.0584 -6.0567 2.3899
-1.8368 -6.1145 2.3899
-1.6136 -6.1641 2.3899
-1.3891 -6.2053 2.3899
-1.1636 -6.2384 2.3899
-0.9375 -6.2632 2.3899
-0.7111 -6.2797 2.3899
-0.4846 -6.2880 2.3899
-0.2583 -6.2881 2.3899
-0.0324 -5.8783 2.3899
0.1780 -5.8639 2.3899
0.3874 -5.8419 2.3899
0.5956 -5.8125 2.3899
0.8022 -5.7758 2.3899
1.0070 -5.7317 2.3899
1.2097 -5.6804 2.3899
1.4102 -5.6221 2.3899
1.6081 -5.5568 2.3899
1.8032 -5.4846 2.3899
1.9954 -5.4056 2.3899
2.1842 -5.3201 2.3899
2.3697 -5.2281 2.3899
2.5514 -5.1297 2.3899
2.7293 -5.0252 2.3899
2.9032 -4.9147 2.3899
3.0728 -4.7983 2.3899
3.2379 -4.6763 2.3899
3.3984 -4.5487 2.3899
3.5541 -4.4157 2.3899
3.7049 -4.2777 2.3899
3.8505 -4.1346 2.3899
3.9909 -3.9868 2.3899
4.1258 -3.8344 2.3899
4.2553 -3.6776 2.3899
4.3790 -3.5166 2.3899
4.4969 -3.3516 2.3899
4.6089 -3.1828 2.3899
4.7149 -3.0104 2.3899
4.8147 -2.8347 2.3899
4.9083 -2.6558 2.3899
4.9956 -2.4740 2.3899
5.0765 -2.2894 2.3899
5.1510 -2.1023 2.3899
5.2189 -1.9130 2.3899
5.2801 -1.7216 2.3899
5.3348 -1.5283 2.3899
5.3827 -1.3333 2.3899
5.4239 -1.1370 2.3899
5.4583 -0.9395 2.3899
5.4858 -0.7410 2.3899
5.5066 -0.5417 2.3899
5.5205 -0.3420 2.3899
5.5275 -0.1419 2.3899
5.5277 0.0582 2.3899
5.5210 0.2582 2.3899
5.5075 0.4578 2.3899
5.4871 0.6568 2.3899
5.4600 0.8550 2.3899
5.4260 1.0522 2.3899
5.3854 1.2481 2.3899
5.3380 1.4426 2.3899
5.2840 1.6353 2.3899
5.2234 1.8262 2.3899
5.1562 2.0149 2.3899
5.0826 2.2013 2.3899
5.0026 2.3851 2.3899
4.9163 2.5662 2.3899
4.8237 2.7444 2.3899
4.7251 2.9194 2.3899
4.6204 3.0910 2.3899
4.5097 3.2590 2.3899
4.3933 3.4232 2.3899
4.2711 3.5835 2.3899
4.1433 3.7396 2.3899
4.0102 3.8914 2.3899
3.8717 4.0387 2.3899
3.7280 4.1812 2.3899
3.5794 4.3188 2.3899
3.4258 4.4513 2.3899
3.2676 4.5786 2.3899
3.1048 4.7005 2.3899
2.9377 4.8168 2.3899
2.7664 4.9274 2.3899
2.5911 5.0320 2.3899
2.4120 5.1307 2.3899
0.9031 2.1158 0.9681
0.8265 2.1478 0.9668
0.7489 2.1770 0.9654
0.6703 2.2033 0.9641
0.5907 2.2269 0.9626
0.5104 2.2475 0.9612
0.4293 2.2652 0.9597
0.3477 2.2800 0.9582
0.2656 2.2918 0.9567
0.1831 2.3007 0.9552
0.1003 2.3066 0.9536
0.0174 2.3095 0.9521
-0.0656 2.3094 0.9505
-0.1486 2.3062 0.9489
-0.2313 2.3002 0.9473
-0.3138 2.2911 0.9456
-0.3959 2.2790 0.9440
-0.4776 2.2640 0.9424
-0.5586 2.2461 0.9408
-0.6389 2.2252 0.9391
-0.7184 2.2015 0.9375
-0.7971 2.1749 0.9359
-0.8747 2.1455 0.9343
-2.4372 5.4151 2.3899
-2.6347 5.3346 2.3899
-2.8293 5.2470 2.3899
-3.0209 5.1521 2.3899
-3.2092 5.0501 2.3899
-3.3940 4.9412 2.3899
-3.5749 4.8254 2.3899
-3.7518 4.7028 2.3899
-3.9242 4.5737 2.3899
-4.0920 4.4380 2.3899
-4.2550 4.2961 2.3899
-4.4128 4.1481 2.3899
-4.5652 3.9941 2.3899
-4.7120 3.8344 2.3899
-4.8530 3.6691 2.3899
-4.9878 3.4986 2.3899
-5.1164 3.3229 2.3899
-5.2385 3.1423 2.3899
-5.3539 2.9572 2.3899
-5.4625 2.7676 2.3899
-5.5639 2.5740 2.3899
-5.6582 2.3765 2.3899
-5.7450 2.1755 2.3899
-5.8243 1.9712 2.3899
-5.8960 1.7639 2.3899
-5.9598 1.5539 2.3899
-6.0158 1.3415 2.3899
-6.0637 1.1271 2.3899
-6.1036 0.9109 2.3899
-6.1354 0.6932 2.3899
-6.1589 0.4744 2.3899
-6.1741 0.2548 2.3899
-6.1811 0.0348 2.3899
-6.1798 -0.1854 2.3899
-6.1702 -0.4055 2.3899
-6.1523 -0.6250 2.3899
-6.1261 -0.8437 2.3899
-6.0917 -1.0613 2.3899
-6.0491 -1.2774 2.3899
-5.9984 -1.4917 2.3899
-5.9396 -1.7039 2.3899
-5.8730 -1.9137 2.3899
-5.7985 -2.1207 2.3899
-5.7163 -2.3247 2.3899
-5.6265 -2.5254 2.3899
-5.5292 -2.7224 2.3899
-5.4247 -2.9156 2.3899
-5.3131 -3.1045 2.3899
-5.1946 -3.2891 2.3899
-5.0693 -3.4689 2.3899
-4.9374 -3.6437 2.3899
-4.7993 -3.8133 2.3899
-4.6550 -3.9775 2.3899
-4.5048 -4.1361 2.3899
-4.3490 -4.2888 2.3899
-4.1877 -4.4354 2.3899
-4.0213 -4.5757 2.3899
-3.8500 -4.7096 2.3899
-3.6741 -4.8369 2.3899
-3.4937 -4.9575 2.3899
-3.3093 -5.0711 2.3899
-3.1211 -5.1777 2.3899
-2.9293 -5.2772 2.3899
-2.7342 -5.3693 2.3899
-2.5362 -5.4541 2.3899
-2.3354 -5.5315 2.3899
-2.1323 -5.6014 2.3899
-1.9271 -5.6636 2.3899
-1.7201 -5.7182 2.3899
-1.5115 -5.7652 2.3899
-1.3017 -5.8045 2.3899
-1.0909 -5.8360 2.3899
-0.8795 -5.8599 2.3899
-0.6678 -5.8760 2.3899
-0.4559 -5.8844 2.3899
-0.2442 -5.8852 2.3899
-0.0330 -5.8784 2.3899
0.1774 -5.8640 2.3899
0.3869 -5.8420 2.3899
0.5950 -5.8126 2.3899
0.8016 -5.7759 2.3899
1.0064 -5.7318 2.3899
1.2092 -5.6806 2.3899
1.4097 -5.6223 2.3899
1.6076 -5.5569 2.3899
1.8027 -5.4848 2.3899
1.9948 -5.4059 2.3899
2.1837 -5.3203 2.3899
2.3692 -5.2283 2.3899
2.5509 -5.1300 2.3899
2.7289 -5.0255 2.3899
2.9027 -4.9150 2.3899
3.0723 -4.7986 2.3899
3.2375 -4.6766 2.3899
3.3980 -4.5490 2.3899
3.5537 -4.4161 2.3899
3.7045 -4.2780 2.3899
3.8501 -4.1350 2.3899
3.9905 -3.9872 2.3899
4.1255 -3.8348 2.3899
4.2549 -3.6780 2.3899
4.3787 -3.5170 2.3899
4.4966 -3.3520 2.3899
4.6086 -3.1832 2.3899
4.7146 -3.0109 2.3899
4.8145 -2.8352 2.3899
4.9081 -2.6563 2.3899
4.9954 -2.4745 2.3899
5.0763 -2.2899 2.3899
5.1508 -2.1029 2.3899
5.2187 -1.9135 2.3899
5.2800 -1.7221 2.3899
5.3346 -1.5288 2.3899
5.3826 -1.3339 2.3899
5.4238 -1.1375 2.3899
5.4582 -0.9400 2.3899
5.4858 -0.7415 2.3899
5.5065 -0.5423 2.3899
5.5204 -0.3425 2.3899
5.5275 -0.1425 2.3899
5.5277 0.0577 2.3899
5.5210 0.2576 2.3899
5.5075 0.4573 2.3899
5.4872 0.6563 2.3899
5.4601 0.8545 2.3899
5.4262 1.0517 2.3899
5.3855 1.2476 2.3899
5.3381 1.4420 2.3899
5.2841 1.6348 2.3899
5.2235 1.8257 2.3899
5.1564 2.0144 2.3899
5.0828 2.2008 2.3899
5.0028 2.3847 2.3899
4.9165 2.5658 2.3899
4.8240 2.7439 2.3899
4.7253 2.9189 2.3899
4.6206 3.0905 2.3899
4.5100 3.2585 2.3899
4.3936 3.4228 2.3899
4.2714 3.5831 2.3899
4.1437 3.7392 2.3899
4.0105 3.8910 2.3899
3.8721 4.0383 2.3899
3.7284 4.1808 2.3899
3.5798 4.3184 2.3899
3.4262 4.4510 2.3899
3.2680 4.5783 2.3899
3.1053 4.7002 2.3899
2.9381 4.8165 2.3899
2.7669 4.9271 2.3899
2.5916 5.0318 2.3899
2.4125 5.1304 2.3899
0.9033 2.1157 0.9681
0.8267 2.1477 0.9668
0.7491 2.1769 0.9655
0.6705 2.2033 0.9641
0.5910 2.2268 0.9627
0.5106 2.2474 0.9612
0.4296 2.2652 0.9597
0.3479 2.2800 0.9582
0.2658 2.2918 0.9567
0.1833 2.3007 0.9552
0.1005 2.3066 0.9536
0.0176 2.3095 0.9521
-0.0654 2.3094 0.9505
-0.1483 2.3063 0.9489
-0.2311 2.3002 0.9473
-0.3136 2.2911 0.9457
-0.3957 2.2791 0.9440
-0.4773 2.2641 0.9424
-0.5584 2.2461 0.9408
-0.6387 2.2253 0.9391
-0.7182 2.2015 0.9375
-0.7969 2.1749 0.9359
-0.8745 2.1455 0.9343
-2.4367 5.4153 2.3899
-2.6341 5.3349 2.3899
-2.8288 5.2472 2.3899
-3.0204 5.1524 2.3899
-3.2088 5.0504 2.3899
-3.3935 4.9415 2.3899
-3.5745 4.8257 2.3899
-3.7513 4.7032 2.3899
-3.9238 4.5740 2.3899
-4.0916 4.4384 2.3899
-4.2546 4.2965 2.3899
-4.4124 4.1485 2.3899
-4.5648 3.9945 2.3899
-4.7116 3.8348 2.3899
-4.8526 3.6696 2.3899
-4.9875 3.4990 2.3899
-5.1161 3.3234 2.3899
-5.2382 3.1428 2.3899
-5.3536 2.9577 2.3899
-5.4622 2.7681 2.3899
-5.5637 2.5745 2.3899
-5.6579 2.3770 2.3899
-5.7448 2.1760 2.3899
-5.8241 1.9717 2.3899
-5.8958 1.7644 2.3899
-5.9597 1.5545 2.3899
-6.0156 1.3421 2.3899
-6.0636 1.1277 2.3899
-6.1035 0.9114 2.3899
-6.1353 0.6938 2.3899
-6.1588 0.4750 2.3899
-6.1741 0.2554 2.3899
-6.1811 0.0354 2.3899
-6.1798 -0.1848 2.3899
-6.1702 -0.4049 2.3899
-6.1523 -0.6244 2.3899
-6.1262 -0.8432 2.3899
-6.0918 -1.0607 2.3899
-6.0492 -1.2768 2.3899
-5.9985 -1.4911 2.3899
-5.9398 -1.7033 2.3899
-5.8732 -1.9131 2.3899
-5.7987 -2.1201 2.3899
-5.7165 -2.3242 2.3899
-5.6267 -2.5248 2.3899
-5.5295 -2.7219 2.3899
-5.4250 -2.9151 2.3899
-5.3134 -3.1040 2.3899
-5.1949 -3.2886 2.3899
-5.0696 -3.4684 2.3899
-4.9378 -3.6432 2.3899
-4.7997 -3.8129 2.3899
-4.6554 -3.9771 2.3899
-4.5052 -4.1357 2.3899
-4.3494 -4.2884 2.3899
-4.1882 -4.4350 2.3899
-4.0218 -4.5754 2.3899
-3.8505 -4.7093 2.3899
-3.6745 -4.8366 2.3899
-3.4942 -4.9572 2.3899
-3.3098 -5.0708 2.3899
-3.1216 -5.1774 2.3899
-2.9298 -5.2769 2.3899
-2.7347 -5.3691 2.3899
-2.5367 -5.4539 2.3899
-2.3360 -5.5313 2.3899
-2.1328 -5.6012 2.3899
-1.9276 -5.6635 2.3899
-1.7206 -5.7181 2.3899
-1.5120 -5.7651 2.3899
-1.3022 -5.8044 2.3899
-1.0915 -5.8359 2.3899
-0.8801 -5.8598 2.3899
-0.6683 -5.8760 2.3899
-0.4565 -5.8844 2.3899
-0.2448 -5.8852 2.3899
-0.0333 -5.5188 2.3899
0.1643 -5.5058 2.3899
0.3609 -5.4858 2.3899
0.5564 -5.4588 2.3899
0.7506 -5.4248 2.3899
0.9430 -5.3840 2.3899
1.1336 -5.3364 2.3899
1.3220 -5.2821 2.3899
1.5081 -5.2213 2.3899
1.6916 -5.1540 2.3899
1.8723 -5.0803 2.3899
2.0500 -5.0004 2.3899
2.2245 -4.9144 2.3899
2.3956 -4.8225 2.3899
2.5631 -4.7247 2.3899
2.7268 -4.6212 2.3899
2.8865 -4.5122 2.3899
3.0421 -4.3978 2.3899
3.1933 -4.2782 2.3899
3.3400 -4.1535 2.3899
3.4821 -4.0240 2.3899
3.6194 -3.8898 2.3899
3.7517 -3.7510 2.3899
3.8790 -3.6079 2.3899
4.0011 -3.4606 2.3899
4.1178 -3.3093 2.3899
4.2290 -3.1543 2.3899
4.3347 -2.9957 2.3899
4.4347 -2.8336 2.3899
4.5290 -2.6684 2.3899
4.6174 -2.5002 2.3899
4.6998 -2.3291 2.3899
4.7762 -2.1555 2.3899
4.8465 -1.9795 2.3899
4.9106 -1.8013 2.3899
4.9685 -1.6212 2.3899
5.0202 -1.4392 2.3899
5.0655 -1.2558 2.3899
5.1044 -1.0709 2.3899
5.1369 -0.8850 2.3899
5.1630 -0.6981 2.3899
5.1827 -0.5105 2.3899
5.1959 -0.3224 2.3899
5.2026 -0.1340 2.3899
5.2028 0.0545 2.3899
5.1966 0.2428 2.3899
5.1838 0.4308 2.3899
5.1647 0.6182 2.3899
5.1391 0.8049 2.3899
5.1071 0.9906 2.3899
5.0688 1.1750 2.3899
5.0241 1.3581 2.3899
4.9732 1.5396 2.3899
4.9160 1.7193 2.3899
4.8526 1.8970 2.3899
4.7832 2.0725 2.3899
4.7077 2.2455 2.3899
4.6263 2.4160 2.3899
4.5390 2.5836 2.3899
4.4459 2.7482 2.3899
4.3471 2.9097 2.3899
4.2428 3.0677 2.3899
4.1329 3.2222 2.3899
4.0177 3.3729 2.3899
3.8973 3.5197 2.3899
3.7717 3.6623 2.3899
3.6411 3.8007 2.3899
3.5057 3.9346 2.3899
3.3656 4.0638 2.3899
3.2208 4.1883 2.3899
3.0717 4.3077 2.3899
2.9184 4.4221 2.3899
2.7609 4.5311 2.3899
2.5996 4.6348 2.3899
2.4344 4.7329 2.3899
2.2658 4.8252 2.3899
0.8467 1.9863 0.9665
0.7749 2.0163 0.9652
0.7020 2.0437 0.9640
0.6282 2.0684 0.9627
0.5535 2.0905 0.9613
0.4780 2.1098 0.9600
0.4019 2.1265 0.9586
0.3253 2.1403 0.9572
0.2482 2.1514 0.9558
0.1707 2.1598 0.9543
0.0930 2.1653 0.9529
0.0152 2.1680 0.9514
-0.0627 2.1679 0.9499
-0.1406 2.1649 0.9484
-0.2183 2.1592 0.9469
-0.2957 2.1507 0.9454
-0.3728 2.1394 0.9438
-0.4495 2.1253 0.9423
-0.5255 2.1084 0.9408
-0.6009 2.0889 0.9393
-0.6756 2.0666 0.9377
-0.7494 2.0416 0.9362
-0.8223 2.0140 0.9347
-0.8941 1.9838 0.9332
-2.4747 5.0045 2.3899
-2.6570 4.9218 2.3899
-2.8365 4.8323 2.3899
-3.0129 4.7362 2.3899
-3.1858 4.6336 2.3899
-3.3552 4.5245 2.3899
-3.5207 4.4092 2.3899
-3.6820 4.2876 2.3899
-3.8390 4.1601 2.3899
-3.9914 4.0267 2.3899
-4.1390 3.8876 2.3899
-4.2815 3.7430 2.3899
-4.4187 3.5930 2.3899
-4.5504 3.4378 2.3899
-4.6765 3.2777 2.3899
-4.7966 3.1129 2.3899
-4.9107 2.9435 2.3899
-5.0184 2.7699 2.3899
-5.1198 2.5922 2.3899
-5.2145 2.4106 2.3899
-5.3025 2.2255 2.3899
-5.3835 2.0371 2.3899
-5.4575 1.8457 2.3899
-5.5243 1.6515 2.3899
-5.5839 1.4547 2.3899
-5.6361 1.2558 2.3899
-5.6808 1.0550 2.3899
-5.7180 0.8525 2.3899
-5.7475 0.6487 2.3899
-5.7694 0.4438 2.3899
-5.7835 0.2383 2.3899
-5.7900 0.0322 2.3899
-5.7887 -0.1740 2.3899
-5.7796 -0.3800 2.3899
-5.7628 -0.5855 2.3899
-5.7383 -0.7903 2.3899
-5.7061 -0.9940 2.3899
-5.6663 -1.1963 2.3899
-5.6189 -1.3969 2.3899
-5.5640 -1.5956 2.3899
-5.5017 -1.7921 2.3899
-5.4321 -1.9860 2.3899
-5.3553 -2.1770 2.3899
-5.2713 -2.3650 2.3899
-5.1805 -2.5496 2.3899
-5.0829 -2.7306 2.3899
-4.9785 -2.9077 2.3899
-4.8678 -3.0806 2.3899
-4.7507 -3.2492 2.3899
-4.6275 -3.4131 2.3899
-4.4983 -3.5722 2.3899
-4.3634 -3.7262 2.3899
-4.2230 -3.8750 2.3899
-4.0773 -4.0183 2.3899
-3.9265 -4.1559 2.3899
-3.7709 -4.2878 2.3899
-3.6107 -4.4136 2.3899
-3.4461 -4.5332 2.3899
-3.2773 -4.6466 2.3899
-3.1047 -4.7535 2.3899
-2.9285 -4.8538 2.3899
-2.7490 -4.9475 2.3899
-2.5664 -5.0344 2.3899
-2.3809 -5.1143 2.3899
-2.1929 -5.1874 2.3899
-2.0026 -5.2534 2.3899
-1.8103 -5.3123 2.3899
-1.6163 -5.3641 2.3899
-1.4208 -5.4087 2.3899
-1.2241 -5.4460 2.3899
-1.0265 -5.4762 2.3899
-0.8282 -5.4992 2.3899
-0.6295 -5.5149 2.3899
-0.4308 -5.5234 2.3899
-0.2321 -5.5247 2.3899
-0.0339 -5.5188 2.3899
0.1637 -5.5059 2.3899
0.3604 -5.4859 2.3899
0.5559 -5.4589 2.3899
0.7500 -5.4249 2.3899
0.9425 -5.3841 2.3899
1.1331 -5.3365 2.3899
1.3215 -5.2823 2.3899
1.5076 -5.2215 2.3899
1.6911 -5.1542 2.3899
1.8718 -5.0805 2.3899
2.0496 -5.0006 2.3899
2.2241 -4.9147 2.3899
2.3952 -4.8227 2.3899
2.5627 -4.7249 2.3899
2.7264 -4.6215 2.3899
2.8861 -4.5125 2.3899
3.0416 -4.3981 2.3899
3.1929 -4.2785 2.3899
3.3396 -4.1539 2.3899
3.4817 -4.0243 2.3899
3.6190 -3.8901 2.3899
3.7514 -3.7514 2.3899
3.8787 -3.6083 2.3899
4.0007 -3.4610 2.3899
4.1175 -3.3097 2.3899
4.2287 -3.1547 2.3899
4.3345 -2.9961 2.3899
4.4345 -2.8341 2.3899
4.5287 -2.6688 2.3899
4.6171 -2.5006 2.3899
4.6996 -2.3296 2.3899
4.7760 -2.1560 2.3899
4.8463 -1.9800 2.3899
4.9105 -1.8018 2.3899
4.9684 -1.6217 2.3899
5.0200 -1.4397 2.3899
5.0653 -1.2562 2.3899
5.1043 -1.0714 2.3899
5.1368 -0.8855 2.3899
5.1630 -0.6986 2.3899
5.1826 -0.5110 2.3899
5.1958 -0.3229 2.3899
5.2026 -0.1345 2.3899
5.2028 0.0540 2.3899
5.1966 0.2423 2.3899
5.1839 0.4303 2.3899
5.1648 0.6177 2.3899
5.1392 0.8044 2.3899
5.1072 0.9901 2.3899
5.0689 1.1746 2.3899
5.0242 1.3577 2.3899
4.9733 1.5392 2.3899
4.9161 1.7189 2.3899
4.8528 1.8965 2.3899
4.7834 2.0720 2.3899
4.7079 2.2451 2.3899
4.6265 2.4155 2.3899
4.5392 2.5832 2.3899
4.4462 2.7478 2.3899
4.3474 2.9093 2.3899
4.2430 3.0673 2.3899
4.1332 3.2218 2.3899
4.0180 3.3725 2.3899
3.8976 3.5193 2.3899
3.7720 3.6620 2.3899
3.6415 3.8003 2.3899
3.5061 3.9342 2.3899
3.3659 4.0635 2.3899
3.2212 4.1879 2.3899
3.0721 4.3074 2.3899
2.9188 4.4218 2.3899
2.7613 4.5309 2.3899
2.6000 4.6345 2.3899
2.4349 4.7326 2.3899
2.2662 4.8250 2.3899
0.8469 1.9862 0.9665
0.7751 2.0162 0.9652
0.7022 2.0436 0.9640
0.6284 2.0684 0.9627
0.5537 2.0904 0.9613
0.4782 2.1098 0.9600
0.4021 2.1264 0.9586
0.3255 2.1403 0.9572
0.2484 2.1514 0.9558
0.1709 2.1597 0.9543
0.0932 2.1653 0.9529
0.0154 2.1680 0.9514
-0.0625 2.1679 0.9499
-0.1404 2.1650 0.9484
-0.2181 2.1592 0.9469
-0.2955 2.1507 0.9454
-0.3726 2.1394 0.9438
-0.4492 2.1253 0.9423
-0.5253 2.1085 0.9408
-0.6007 2.0889 0.9393
-0.6754 2.0666 0.9377
-0.7492 2.0417 0.9362
-0.8221 2.0141 0.9347
-0.8939 1.9839 0.9332
-2.4742 5.0047 2.3899
-2.6565 4.9220 2.3899
-2.8360 4.8325 2.3899
-3.0124 4.7365 2.3899
-3.1854 4.6338 2.3899
-3.3548 4.5248 2.3899
-3.5202 4.4095 2.3899
-3.6816 4.2880 2.3899
-3.8386 4.1605 2.3899
-3.9910 4.0271 2.3899
-4.1386 3.8880 2.3899
-4.2811 3.7434 2.3899
-4.4183 3.5934 2.3899
-4.5501 3.4383 2.3899
-4.6762 3.2782 2.3899
-4.7963 3.1134 2.3899
-4.9104 2.9440 2.3899
-5.0182 2.7704 2.3899
-5.1195 2.5926 2.3899
-5.2142 2.4111 2.3899
-5.3022 2.2260 2.3899
-5.3833 2.0376 2.3899
-5.4573 1.8462 2.3899
-5.5242 1.6520 2.3899
-5.5838 1.4553 2.3899
-5.6359 1.2564 2.3899
-5.6807 1.0555 2.3899
-5.7179 0.8531 2.3899
-5.7474 0.6492 2.3899
-5.7693 0.4444 2.3899
-5.7835 0.2388 2.3899
-5.7900 0.0328 2.3899
-5.7887 -0.1734 2.3899
-5.7797 -0.3794 2.3899
-5.7629 -0.5850 2.3899
-5.7384 -0.7897 2.3899
-5.7062 -0.9934 2.3899
-5.6664 -1.1957 2.3899
-5.6190 -1.3964 2.3899
-5.5642 -1.5951 2.3899
-5.5019 -1.7915 2.3899
-5.4323 -1.9854 2.3899
-5.3555 -2.1765 2.3899
-5.2716 -2.3645 2.3899
-5.1808 -2.5491 2.3899
-5.0831 -2.7301 2.3899
-4.9788 -2.9072 2.3899
-4.8681 -3.0801 2.3899
-4.7510 -3.2487 2.3899
-4.6278 -3.4127 2.3899
-4.4987 -3.5718 2.3899
-4.3638 -3.7258 2.3899
-4.2234 -3.8746 2.3899
-4.0777 -4.0179 2.3899
-3.9269 -4.1556 2.3899
-3.7713 -4.2874 2.3899
-3.6111 -4.4132 2.3899
-3.4465 -4.5329 2.3899
-3.2778 -4.6463 2.3899
-3.1052 -4.7532 2.3899
-2.9290 -4.8536 2.3899
-2.7495 -4.9472 2.3899
-2.5668 -5.0341 2.3899
-2.3814 -5.1141 2.3899
-2.1934 -5.1872 2.3899
-2.0031 -5.2532 2.3899
-1.8108 -5.3121 2.3899
-1.6168 -5.3639 2.3899
-1.4213 -5.4085 2.3899
-1.2246 -5.4460 2.3899
-1.0270 -5.4761 2.3899
-0.8287 -5.4991 2.3899
-0.6301 -5.5148 2.3899
-0.4313 -5.5234 2.3899
-0.2326 -5.5247 2.3899
-0.0341 -5.1948 2.3899
0.1519 -5.1831 2.3899
0.3371 -5.1648 2.3899
0.5212 -5.1398 2.3899
0.7040 -5.1083 2.3899
0.8853 -5.0703 2.3899
1.0648 -5.0260 2.3899
1.2424 -4.9753 2.3899
1.4178 -4.9185 2.3899
1.5908 -4.8555 2.3899
1.7612 -4.7866 2.3899
1.9288 -4.7117 2.3899
2.0935 -4.6311 2.3899
2.2549 -4.5448 2.3899
2.4129 -4.4531 2.3899
2.5674 -4.3559 2.3899
2.7182 -4.2535 2.3899
2.8650 -4.1460 2.3899
3.0078 -4.0336 2.3899
3.1464 -3.9164 2.3899
3.2806 -3.7945 2.3899
3.4103 -3.6682 2.3899
3.5354 -3.5376 2.3899
3.6556 -3.4029 2.3899
3.7710 -3.2642 2.3899
3.8813 -3.1218 2.3899
3.9865 -2.9757 2.3899
4.0865 -2.8262 2.3899
4.1811 -2.6735 2.3899
4.2702 -2.5178 2.3899
4.3538 -2.3592 2.3899
4.4318 -2.1980 2.3899
4.5041 -2.0342 2.3899
4.5706 -1.8682 2.3899
4.6314 -1.7002 2.3899
4.6862 -1.5302 2.3899
4.7351 -1.3586 2.3899
4.7780 -1.1854 2.3899
4.8149 -1.0110 2.3899
4.8457 -0.8355 2.3899
4.8704 -0.6592 2.3899
4.8891 -0.4821 2.3899
4.9016 -0.3046 2.3899
4.9080 -0.1268 2.3899
4.9083 0.0511 2.3899
4.9024 0.2289 2.3899
4.8905 0.4063 2.3899
4.8724 0.5832 2.3899
4.8482 0.7594 2.3899
4.8180 0.9347 2.3899
4.7818 1.1088 2.3899
4.7396 1.2816 2.3899
4.6914 1.4529 2.3899
4.6374 1.6225 2.3899
4.5775 1.7902 2.3899
4.5118 1.9557 2.3899
4.4405 2.1190 2.3899
4.3635 2.2798 2.3899
4.2810 2.4379 2.3899
4.1930 2.5932 2.3899
4.0996 2.7454 2.3899
4.0009 2.8945 2.3899
3.8971 3.0401 2.3899
3.7882 3.1822 2.3899
3.6744 3.3205 2.3899
3.5557 3.4549 2.3899
3.4323 3.5852 2.3899
3.3044 3.7113 2.3899
3.1720 3.8330 2.3899
3.0353 3.9501 2.3899
2.8945 4.0626 2.3899
2.7496 4.1701 2.3899
2.6010 4.2727 2.3899
2.4486 4.3701 2.3899
2.2928 4.4623 2.3899
0.8625 1.8389 0.9661
0.7959 1.8696 0.9650
0.7283 1.8978 0.9638
0.6597 1.9235 0.9626
0.5902 1.9468 0.9614
0.5199 1.9676 0.9601
0.4489 1.9858 0.9589
0.3773 2.0014 0.9576
0.3051 2.0145 0.9562
0.2325 2.0249 0.9549
0.1596 2.0327 0.9535
0.0865 2.0379 0.9522
0.0132 2.0405 0.9508
-0.0601 2.0404 0.9494
-0.1334 2.0376 0.9480
-0.2065 2.0322 0.9465
-0.2794 2.0242 0.9451
-0.3520 2.0135 0.9437
-0.4241 2.0003 0.9422
-0.4957 1.9844 0.9408
-0.5667 1.9660 0.9394
-0.6370 1.9450 0.9379
-0.7065 1.9215 0.9365
-0.7750 1.8955 0.9351
-0.8426 1.8671 0.9336
-0.9091 1.8362 0.9322
-2.5020 4.6291 2.3899
-2.6706 4.5446 2.3899
-2.8362 4.4538 2.3899
-2.9986 4.3569 2.3899
-3.1576 4.2539 2.3899
-3.3129 4.1451 2.3899
-3.4643 4.0305 2.3899
-3.6116 3.9103 2.3899
-3.7546 3.7846 2.3899
-3.8930 3.6536 2.3899
-4.0266 3.5174 2.3899
-4.1553 3.3762 2.3899
-4.2788 3.2301 2.3899
-4.3969 3.0795 2.3899
-4.5095 2.9244 2.3899
-4.6164 2.7651 2.3899
-4.7173 2.6018 2.3899
-4.8123 2.4347 2.3899
-4.9010 2.2640 2.3899
-4.9833 2.0901 2.3899
-5.0592 1.9130 2.3899
-5.1285 1.7331 2.3899
-5.1910 1.5506 2.3899
-5.2468 1.3658 2.3899
-5.2956 1.1790 2.3899
-5.3374 0.9903 2.3899
-5.3721 0.8002 2.3899
-5.3997 0.6088 2.3899
-5.4202 0.4164 2.3899
-5.4334 0.2234 2.3899
-5.4393 0.0299 2.3899
-5.4381 -0.1637 2.3899
-5.4295 -0.3571 2.3899
-5.4137 -0.5501 2.3899
-5.3907 -0.7423 2.3899
-5.3605 -0.9336 2.3899
-5.3231 -1.1236 2.3899
-5.2787 -1.3120 2.3899
-5.2272 -1.4986 2.3899
-5.1688 -1.6830 2.3899
-5.1036 -1.8652 2.3899
-5.0316 -2.0446 2.3899
-4.9529 -2.2212 2.3899
-4.8678 -2.3946 2.3899
-4.7762 -2.5647 2.3899
-4.6785 -2.7311 2.3899
-4.5746 -2.8936 2.3899
-4.4649 -3.0521 2.3899
-4.3493 -3.2062 2.3899
-4.2283 -3.3558 2.3899
-4.1018 -3.5007 2.3899
-3.9701 -3.6407 2.3899
-3.8335 -3.7755 2.3899
-3.6920 -3.9051 2.3899
-3.5460 -4.0292 2.3899
-3.3957 -4.1477 2.3899
-3.2413 -4.2605 2.3899
-3.0829 -4.3673 2.3899
-2.9209 -4.4681 2.3899
-2.7555 -4.5628 2.3899
-2.5870 -4.6512 2.3899
-2.4155 -4.7332 2.3899
-2.2413 -4.8089 2.3899
-2.0647 -4.8779 2.3899
-1.8860 -4.9404 2.3899
-1.7053 -4.9963 2.3899
-1.5230 -5.0454 2.3899
-1.3392 -5.0878 2.3899
-1.1543 -5.1234 2.3899
-0.9685 -5.1523 2.3899
-0.7820 -5.1744 2.3899
-0.5951 -5.1896 2.3899
-0.4081 -5.1981 2.3899
-0.2212 -5.1999 2.3899
-0.0346 -5.1949 2.3899
0.1514 -5.1832 2.3899
0.3366 -5.1648 2.3899
0.5207 -5.1399 2.3899
0.7035 -5.1084 2.3899
0.8848 -5.0704 2.3899
1.0644 -5.0261 2.3899
1.2420 -4.9755 2.3899
1.4174 -4.9187 2.3899
1.5904 -4.8557 2.3899
1.7608 -4.7868 2.3899
1.9284 -4.7119 2.3899
2.0930 -4.6313 2.3899
2.2544 -4.5451 2.3899
2.4125 -4.4533 2.3899
2.5670 -4.3562 2.3899
2.7178 -4.2538 2.3899
2.8646 -4.1463 2.3899
3.0074 -4.0339 2.3899
3.1460 -3.9167 2.3899
3.2803 -3.7949 2.3899
3.4100 -3.6686 2.3899
3.5350 -3.5380 2.3899
3.6553 -3.4033 2.3899
3.7707 -3.2646 2.3899
3.8811 -3.1222 2.3899
3.9862 -2.9761 2.3899
4.0862 -2.8266 2.3899
4.1808 -2.6740 2.3899
4.2700 -2.5182 2.3899
4.3536 -2.3596 2.3899
4.4316 -2.1984 2.3899
4.5039 -2.0347 2.3899
4.5705 -1.8687 2.3899
4.6312 -1.7006 2.3899
4.6860 -1.5307 2.3899
4.7349 -1.3590 2.3899
4.7779 -1.1859 2.3899
4.8148 -1.0115 2.3899
4.8456 -0.8360 2.3899
4.8704 -0.6596 2.3899
4.8890 -0.4826 2.3899
4.9016 -0.3051 2.3899
4.9080 -0.1272 2.3899
4.9083 0.0506 2.3899
4.9025 0.2284 2.3899
4.8905 0.4059 2.3899
4.8724 0.5828 2.3899
4.8483 0.7589 2.3899
4.8181 0.9342 2.3899
4.7819 1.1083 2.3899
4.7397 1.2812 2.3899
4.6915 1.4525 2.3899
4.6375 1.6220 2.3899
4.5776 1.7897 2.3899
4.5120 1.9553 2.3899
4.4407 2.1186 2.3899
4.3637 2.2794 2.3899
4.2812 2.4375 2.3899
4.1932 2.5928 2.3899
4.0998 2.7450 2.3899
4.0012 2.8941 2.3899
3.8974 3.0397 2.3899
3.7885 3.1818 2.3899
3.6747 3.3201 2.3899
3.5560 3.4545 2.3899
3.4327 3.5849 2.3899
3.3047 3.7110 2.3899
3.1724 3.8327 2.3899
3.0357 3.9498 2.3899
2.8949 4.0623 2.3899
2.7500 4.1698 2.3899
2.6014 4.2724 2.3899
2.4490 4.3699 2.3899
2.2932 4.4621 2.3899
0.8627 1.8388 0.9661
0.7961 1.8695 0.9650
0.7285 1.8977 0.9638
0.6599 1.9235 0.9626
0.5904 1.9468 0.9614
0.5201 1.9675 0.9601
0.4491 1.9858 0.9589
0.3774 2.0014 0.9576
0.3053 2.0145 0.9562
0.2327 2.0249 0.9549
0.1598 2.0327 0.9535
0.0867 2.0379 0.9522
0.0134 2.0405 0.9508
-0.0599 2.0404 0.9494
-0.1332 2.0376 0.9480
-0.2063 2.0322 0.9465
-0.2792 2.0242 0.9451
-0.3518 2.0136 0.9437
-0.4239 2.0003 0.9422
-0.4955 1.9845 0.9408
-0.5665 1.9661 0.9394
-0.6368 1.9451 0.9379
-0.7063 1.9216 0.9365
-0.7748 1.8956 0.9351
-0.8424 1.8672 0.9336
-0.9090 1.8363 0.9322
-2.5015 4.6294 2.3899
-2.6701 4.5448 2.3899
-2.8358 4.4540 2.3899
-2.9982 4.3571 2.3899
-3.1572 4.2542 2.3899
-3.3125 4.1454 2.3899
-3.4639 4.0309 2.3899
-3.6113 3.9107 2.3899
-3.7542 3.7850 2.3899
-3.8926 3.6539 2.3899
-4.0263 3.5177 2.3899
-4.1550 3.3766 2.3899
-4.2785 3.2305 2.3899
-4.3966 3.0799 2.3899
-4.5092 2.9248 2.3899
-4.6161 2.7655 2.3899
-4.7171 2.6022 2.3899
-4.8120 2.4351 2.3899
-4.9007 2.2645 2.3899
-4.9831 2.0905 2.3899
-5.0590 1.9135 2.3899
-5.1283 1.7336 2.3899
-5.1909 1.5511 2.3899
-5.2466 1.3663 2.3899
-5.2954 1.1795 2.3899
-5.3373 0.9909 2.3899
-5.3720 0.8007 2.3899
-5.3997 0.6093 2.3899
-5.4201 0.4169 2.3899
-5.4334 0.2239 2.3899
-5.4393 0.0304 2.3899
-5.4381 -0.1632 2.3899
-5.4296 -0.3566 2.3899
-5.4138 -0.5496 2.3899
-5.3908 -0.7418 2.3899
-5.3606 -0.9331 2.3899
-5.3232 -1.1231 2.3899
-5.2788 -1.3115 2.3899
-5.2274 -1.4981 2.3899
-5.1690 -1.6826 2.3899
-5.1037 -1.8647 2.3899
-5.0318 -2.0441 2.3899
-4.9532 -2.2207 2.3899
-4.8680 -2.3942 2.3899
-4.7765 -2.5642 2.3899
-4.6787 -2.7306 2.3899
-4.5749 -2.8932 2.3899
-4.4651 -3.0516 2.3899
-4.3496 -3.2058 2.3899
-4.2286 -3.3554 2.3899
-4.1021 -3.5003 2.3899
-3.9705 -3.6403 2.3899
-3.8338 -3.7752 2.3899
-3.6924 -3.9047 2.3899
-3.5464 -4.0289 2.3899
-3.3961 -4.1474 2.3899
-3.2417 -4.2602 2.3899
-3.0833 -4.3670 2.3899
-2.9214 -4.4679 2.3899
-2.7560 -4.5625 2.3899
-2.5874 -4.6510 2.3899
-2.4160 -4.7330 2.3899
-2.2418 -4.8087 2.3899
-2.0652 -4.8778 2.3899
-1.8865 -4.9403 2.3899
-1.7058 -4.9961 2.3899
-1.5235 -5.0453 2.3899
-1.3397 -5.0877 2.3899
-1.1548 -5.1234 2.3899
-0.9690 -5.1522 2.3899
-0.7825 -5.1743 2.3899
-0.5956 -5.1896 2.3899
-0.4086 -5.1981 2.3899
-0.2217 -5.1999 2.3899
-0.0348 -4.9011 2.3899
0.1407 -4.8905 2.3899
0.3154 -4.8736 2.3899
0.4892 -4.8504 2.3899
0.6617 -4.8211 2.3899
0.8329 -4.7857 2.3899
1.0025 -4.7442 2.3899
1.1702 -4.6968 2.3899
1.3359 -4.6436 2.3899
1.4993 -4.5845 2.3899
1.6604 -4.5198 2.3899
1.8188 -4.4495 2.3899
1.9744 -4.3737 2.3899
2.1270 -4.2926 2.3899
2.2764 -4.2062 2.3899
2.4225 -4.1148 2.3899
2.5651 -4.0184 2.3899
2.7040 -3.9171 2.3899
2.8391 -3.8112 2.3899
2.9703 -3.7007 2.3899
3.0973 -3.5858 2.3899
3.2201 -3.4667 2.3899
3.3385 -3.3435 2.3899
3.4524 -3.2164 2.3899
3.5616 -3.0855 2.3899
3.6661 -2.9510 2.3899
3.7657 -2.8131 2.3899
3.8604 -2.6720 2.3899
3.9501 -2.5278 2.3899
4.0345 -2.3807 2.3899
4.1138 -2.2308 2.3899
4.1877 -2.0785 2.3899
4.2562 -1.9237 2.3899
4.3193 -1.7669 2.3899
4.3769 -1.6080 2.3899
4.4289 -1.4473 2.3899
4.4753 -1.2851 2.3899
4.5160 -1.1214 2.3899
4.5510 -0.9565 2.3899
4.5803 -0.7905 2.3899
4.6038 -0.6237 2.3899
4.6215 -0.4563 2.3899
4.6334 -0.2884 2.3899
4.6395 -0.1202 2.3899
4.6398 0.0481 2.3899
4.6343 0.2162 2.3899
4.6230 0.3840 2.3899
4.6059 0.5513 2.3899
4.5831 0.7180 2.3899
4.5545 0.8837 2.3899
4.5202 1.0484 2.3899
4.4802 1.2119 2.3899
4.4346 1.3739 2.3899
4.3834 1.5342 2.3899
4.3267 1.6928 2.3899
4.2645 1.8493 2.3899
4.1969 2.0037 2.3899
4.1240 2.1557 2.3899
4.0458 2.3052 2.3899
3.9625 2.4519 2.3899
3.8740 2.5958 2.3899
3.7806 2.7366 2.3899
3.6823 2.8742 2.3899
3.5792 3.0084 2.3899
3.4714 3.1390 2.3899
3.3590 3.2660 2.3899
3.2422 3.3890 2.3899
3.1211 3.5080 2.3899
2.9958 3.6229 2.3899
2.8664 3.7334 2.3899
2.7331 3.8394 2.3899
2.5961 3.9408 2.3899
2.4554 4.0375 2.3899
2.3113 4.1293 2.3899
0.8744 1.7037 0.9657
0.8127 1.7348 0.9647
0.7499 1.7637 0.9636
0.6861 1.7903 0.9625
0.6213 1.8146 0.9614
0.5558 1.8366 0.9602
0.4894 1.8562 0.9590
0.4224 1.8733 0.9578
0.3549 1.8881 0.9566
0.2868 1.9004 0.9554
0.2183 1.9102 0.9541
0.1496 1.9176 0.9528
0.0806 1.9225 0.9515
0.0114 1.9249 0.9502
-0.0578 1.9248 0.9489
-0.1269 1.9222 0.9476
-0.1959 1.9171 0.9462
-0.2647 1.9095 0.9449
-0.3331 1.8995 0.9435
-0.4012 1.8869 0.9422
-0.4687 1.8720 0.9408
-0.5357 1.8546 0.9394
-0.6020 1.8348 0.9381
-0.6675 1.8126 0.9367
-0.7322 1.7881 0.9354
-0.7960 1.7613 0.9341
-0.8587 1.7322 0.9327
-0.9204 1.7008 0.9314
-2.5203 4.2841 2.3899
-2.6763 4.1981 2.3899
-2.8292 4.1064 2.3899
-2.9788 4.0091 2.3899
-3.1249 3.9063 2.3899
-3.2674 3.7980 2.3899
-3.4060 3.6844 2.3899
-3.5404 3.5657 2.3899
-3.6706 3.4420 2.3899
-3.7962 3.3134 2.3899
-3.9172 3.1802 2.3899
-4.0333 3.0424 2.3899
-4.1443 2.9003 2.3899
-4.2501 2.7541 2.3899
-4.3505 2.6039 2.3899
-4.4453 2.4499 2.3899
-4.5345 2.2925 2.3899
-4.6178 2.1316 2.3899
-4.6951 1.9677 2.3899
-4.7664 1.8009 2.3899
-4.8314 1.6315 2.3899
-4.8901 1.4596 2.3899
-4.9424 1.2856 2.3899
-4.9882 1.1096 2.3899
-5.0274 0.9320 2.3899
-5.0600 0.7530 2.3899
-5.0858 0.5728 2.3899
-5.1050 0.3917 2.3899
-5.1173 0.2099 2.3899
-5.1229 0.0278 2.3899
-5.1216 -0.1544 2.3899
-5.1136 -0.3365 2.3899
-5.0987 -0.5181 2.3899
-5.0770 -0.6991 2.3899
-5.0486 -0.8791 2.3899
-5.0135 -1.0580 2.3899
-4.9717 -1.2353 2.3899
-4.9233 -1.4110 2.3899
-4.8684 -1.5847 2.3899
-4.8071 -1.7561 2.3899
-4.7394 -1.9251 2.3899
-4.6655 -2.0914 2.3899
-4.5855 -2.2547 2.3899
-4.4994 -2.4149 2.3899
-4.4075 -2.5716 2.3899
-4.3099 -2.7248 2.3899
-4.2068 -2.8741 2.3899
-4.0982 -3.0194 2.3899
-3.9843 -3.1604 2.3899
-3.8654 -3.2970 2.3899
-3.7416 -3.4290 2.3899
-3.6131 -3.5562 2.3899
-3.4801 -3.6784 2.3899
-3.3428 -3.7955 2.3899
-3.2014 -3.9074 2.3899
-3.0561 -4.0139 2.3899
-2.9072 -4.1148 2.3899
-2.7548 -4.2101 2.3899
-2.5991 -4.2996 2.3899
-2.4404 -4.3832 2.3899
-2.2790 -4.4608 2.3899
-2.1150 -4.5324 2.3899
-1.9488 -4.5979 2.3899
-1.7804 -4.6572 2.3899
-1.6102 -4.7102 2.3899
-1.4385 -4.7569 2.3899
-1.2653 -4.7973 2.3899
-1.0911 -4.8313 2.3899
-0.9159 -4.8589 2.3899
-0.7402 -4.8801 2.3899
-0.5640 -4.8949 2.3899
-0.3876 -4.9034 2.3899
-0.2113 -4.9054 2.3899
-0.0353 -4.9011 2.3899
0.1402 -4.8905 2.3899
0.3149 -4.8736 2.3899
0.4887 -4.8505 2.3899
0.6613 -4.8212 2.3899
0.8325 -4.7858 2.3899
1.0020 -4.7444 2.3899
1.1697 -4.6970 2.3899
1.3354 -4.6437 2.3899
1.4989 -4.5847 2.3899
1.6599 -4.5200 2.3899
1.8183 -4.4497 2.3899
1.9739 -4.3739 2.3899
2.1266 -4.2928 2.3899
2.2760 -4.2065 2.3899
2.4221 -4.1150 2.3899
2.5647 -4.0186 2.3899
2.7037 -3.9174 2.3899
2.8388 -3.8115 2.3899
2.9699 -3.7010 2.3899
3.0970 -3.5861 2.3899
3.2198 -3.4670 2.3899
3.3382 -3.3438 2.3899
3.4521 -3.2167 2.3899
3.5613 -3.0858 2.3899
3.6658 -2.9514 2.3899
3.7655 -2.8135 2.3899
3.8602 -2.6724 2.3899
3.9498 -2.5282 2.3899
4.0343 -2.3811 2.3899
4.1136 -2.2312 2.3899
4.1875 -2.0789 2.3899
4.2561 -1.9242 2.3899
4.3192 -1.7673 2.3899
4.3768 -1.6084 2.3899
4.4288 -1.4478 2.3899
4.4752 -1.2855 2.3899
4.5159 -1.1218 2.3899
4.5509 -0.9569 2.3899
4.5802 -0.7910 2.3899
4.6037 -0.6242 2.3899
4.6214 -0.4567 2.3899
4.6334 -0.2888 2.3899
4.6395 -0.1206 2.3899
4.6398 0.0476 2.3899
4.6343 0.2157 2.3899
4.6230 0.3836 2.3899
4.6060 0.5509 2.3899
4.5831 0.7175 2.3899
4.5545 0.8833 2.3899
4.5203 1.0480 2.3899
4.4803 1.2114 2.3899
4.4347 1.3734 2.3899
4.3835 1.5338 2.3899
4.3268 1.6923 2.3899
4.2647 1.8489 2.3899
4.1971 2.0033 2.3899
4.1242 2.1553 2.3899
4.0460 2.3048 2.3899
3.9627 2.4515 2.3899
3.8743 2.5954 2.3899
3.7809 2.7362 2.3899
3.6826 2.8738 2.3899
3.5795 3.0081 2.3899
3.4717 3.1387 2.3899
3.3593 3.2656 2.3899
3.2426 3.3887 2.3899
3.1214 3.5077 2.3899
2.9961 3.6226 2.3899
