ply
format ascii 1.0
element vertex 2179
property float32 x
property float32 y
property float32 z
end_header
6.2256 -5.3387 2.2480
6.3947 -5.0978 2.2419
6.5722 -4.8648 2.2419
6.7410 -4.6255 2.2420
6.9008 -4.3801 2.2420
7.0513 -4.1290 2.2420
7.1925 -3.8726 2.2421
7.3240 -3.6113 2.2421
7.4457 -3.3453 2.2421
7.5575 -3.0751 2.2421
7.6592 -2.8012 2.2421
7.7507 -2.5237 2.2422
7.8318 -2.2432 2.2422
7.9026 -1.9601 2.2422
7.9628 -1.6747 2.2422
8.0124 -1.3874 2.2422
8.0514 -1.0987 2.2422
8.0799 -0.8089 2.2423
8.0978 -0.5185 2.2423
8.1049 -0.2278 2.2424
8.1012 0.0627 2.2424
8.0868 0.3527 2.2424
8.0618 0.6418 2.2423
8.0261 0.9294 2.2422
7.9800 1.2153 2.2422
7.9238 1.4991 2.2422
7.8572 1.7806 2.2422
7.7805 2.0590 2.2422
7.6938 2.3343 2.2421
7.5973 2.6060 2.2421
7.4910 2.8737 2.2421
7.3751 3.1371 2.2421
7.2500 3.3959 2.2421
7.1156 3.6497 2.2420
6.9723 3.8982 2.2420
6.8203 4.1412 2.2420
6.6597 4.3782 2.2419
6.4970 4.6134 2.2440
6.3402 4.8534 2.2512
6.3278 5.2145 2.3144
6.3190 5.5999 2.3859
6.1284 5.8370 2.3943
5.9082 6.0461 2.3943
5.6808 6.2472 2.3943
5.4467 6.4398 2.3943
5.2060 6.6236 2.3943
4.9592 6.7986 2.3943
4.7066 6.9645 2.3943
4.4485 7.1211 2.3943
4.1852 7.2682 2.3943
3.9172 7.4058 2.3943
3.6447 7.5337 2.3943
3.3681 7.6516 2.3943
3.0878 7.7594 2.3943
2.8041 7.8573 2.3943
2.5174 7.9449 2.3943
0.8949 3.2222 0.9617
0.7786 3.2524 0.9627
0.6612 3.2785 0.9636
0.5430 3.3002 0.9646
0.4240 3.3177 0.9655
0.3044 3.3309 0.9663
0.1845 3.3397 0.9672
0.0643 3.3442 0.9679
-0.0560 3.3443 0.9687
-0.1762 3.3401 0.9694
-0.2962 3.3315 0.9701
-0.4158 3.3186 0.9708
-0.5349 3.3014 0.9714
-0.6532 3.2799 0.9720
-0.7708 3.2541 0.9725
-0.8873 3.2241 0.9730
-2.4659 7.8457 2.3943
-2.7452 7.7481 2.3943
-3.0208 7.6408 2.3943
-3.2923 7.5240 2.3943
-3.5595 7.3978 2.3943
-3.8220 7.2624 2.3943
-4.0796 7.1180 2.3943
-4.3319 6.9647 2.3943
-4.5786 6.8028 2.3943
-4.8195 6.6324 2.3943
-5.0543 6.4537 2.3943
-5.2826 6.2670 2.3943
-5.5043 6.0723 2.3943
-5.7191 5.8702 2.3943
-5.9266 5.6607 2.3943
-6.1268 5.4440 2.3943
-6.3192 5.2205 2.3943
-6.5039 4.9903 2.3943
-6.6803 4.7539 2.3943
-6.8484 4.5115 2.3943
-7.0081 4.2630 2.3943
-7.1590 4.0094 2.3943
-7.3010 3.7504 2.3943
-7.4339 3.4866 2.3943
-7.5575 3.2182 2.3943
-7.6718 2.9455 2.3943
-7.7765 2.6689 2.3943
-7.8715 2.3886 2.3943
-7.9567 2.1051 2.3943
-8.0319 1.8186 2.3943
-8.0971 1.5295 2.3943
-8.1522 1.2380 2.3943
-8.1970 0.9447 2.3943
-8.2316 0.6498 2.3943
-8.2558 0.3536 2.3943
-8.2696 0.0566 2.3943
-8.2729 -0.2410 2.3943
-8.2658 -0.5387 2.3943
-8.2482 -0.8363 2.3943
-8.2201 -1.1333 2.3943
-8.1815 -1.4293 2.3943
-8.1325 -1.7241 2.3943
-8.0730 -2.0172 2.3943
-8.0031 -2.3083 2.3943
-7.9230 -2.5972 2.3943
-7.8325 -2.8827 2.3943
-7.7319 -3.1657 2.3943
-7.6212 -3.4452 2.3943
-7.5005 -3.7207 2.3943
-7.3700 -3.9920 2.3943
-7.2298 -4.2588 2.3943
-7.0800 -4.5207 2.3943
-6.9209 -4.7774 2.3943
-6.7525 -5.0285 2.3943
-6.5750 -5.2737 2.3943
-6.3887 -5.5126 2.3943
-6.1937 -5.7450 2.3943
-5.9904 -5.9704 2.3943
-5.7788 -6.1887 2.3943
-5.5594 -6.3994 2.3943
-5.3322 -6.6024 2.3943
-5.0977 -6.7972 2.3943
-4.8560 -6.9837 2.3943
-4.6075 -7.1615 2.3943
-4.3525 -7.3304 2.3943
-4.0913 -7.4901 2.3943
-3.8242 -7.6405 2.3943
-3.5516 -7.7812 2.3943
-3.2737 -7.9121 2.3943
-2.9910 -8.0329 2.3943
-2.7039 -8.1435 2.3943
-2.4126 -8.2437 2.3943
-2.1177 -8.3332 2.3943
-1.8193 -8.4121 2.3943
-1.5181 -8.4801 2.3943
-1.2143 -8.5371 2.3943
-0.9083 -8.5830 2.3943
-0.6006 -8.6177 2.3943
-0.2916 -8.6412 2.3943
0.0182 -8.6533 2.3943
0.3286 -8.6541 2.3943
0.6390 -8.6435 2.3943
0.9490 -8.6215 2.3943
1.2582 -8.5880 2.3943
1.5661 -8.5433 2.3943
1.8724 -8.4872 2.3943
2.1766 -8.4198 2.3943
2.4782 -8.3412 2.3943
2.7769 -8.2515 2.3943
3.0722 -8.1508 2.3943
3.3638 -8.0393 2.3943
3.6511 -7.9170 2.3943
3.9339 -7.7841 2.3943
4.2116 -7.6408 2.3943
4.4839 -7.4874 2.3943
4.7504 -7.3239 2.3943
5.0108 -7.1507 2.3943
5.2646 -6.9679 2.3943
5.5116 -6.7758 2.3943
5.7512 -6.5747 2.3943
5.9833 -6.3649 2.3943
6.1838 -6.1231 2.3851
6.2021 -5.7161 2.3118
6.2257 -5.3384 2.2480
6.3948 -5.0976 2.2419
6.5723 -4.8647 2.2419
6.7411 -4.6253 2.2420
6.9009 -4.3799 2.2420
7.0514 -4.1289 2.2420
7.1926 -3.8725 2.2421
7.3241 -3.6111 2.2421
7.4458 -3.3451 2.2421
7.5576 -3.0750 2.2421
7.6593 -2.8010 2.2421
7.7508 -2.5235 2.2422
7.8319 -2.2430 2.2422
7.9026 -1.9599 2.2422
7.9628 -1.6745 2.2422
8.0124 -1.3872 2.2422
8.0514 -1.0985 2.2422
8.0799 -0.8087 2.2423
8.0978 -0.5183 2.2423
8.1049 -0.2276 2.2424
8.1012 0.0629 2.2424
8.0868 0.3529 2.2424
8.0617 0.6419 2.2423
8.0260 0.9296 2.2422
7.9800 1.2155 2.2422
7.9237 1.4993 2.2422
7.8572 1.7807 2.2422
7.7805 2.0592 2.2422
7.6938 2.3345 2.2421
7.5972 2.6061 2.2421
7.4909 2.8738 2.2421
7.3751 3.1373 2.2421
7.2499 3.3960 2.2421
7.1155 3.6499 2.2420
6.9722 3.8984 2.2420
6.8202 4.1413 2.2420
6.6596 4.3783 2.2419
6.4970 4.6136 2.2440
6.3402 4.8536 2.2512
6.3278 5.2147 2.3144
6.3190 5.6002 2.3860
6.1283 5.8370 2.3943
5.9080 6.0463 2.3943
5.6807 6.2473 2.3943
5.4465 6.4399 2.3943
5.2059 6.6237 2.3943
4.9591 6.7987 2.3943
4.7064 6.9646 2.3943
4.4483 7.1212 2.3943
4.1851 7.2683 2.3943
3.9170 7.4059 2.3943
3.6445 7.5337 2.3943
3.3680 7.6515 2.3943
3.0876 7.7595 2.3943
2.8039 7.8573 2.3943
2.5172 7.9450 2.3943
0.8948 3.2222 0.9617
0.7785 3.2525 0.9627
0.6611 3.2785 0.9636
0.5429 3.3002 0.9646
0.4239 3.3177 0.9655
0.3044 3.3309 0.9663
0.1844 3.3397 0.9672
0.0642 3.3442 0.9679
-0.0561 3.3443 0.9687
-0.1763 3.3401 0.9694
-0.2963 3.3315 0.9701
-0.4159 3.3186 0.9708
-0.5350 3.3014 0.9714
-0.6533 3.2799 0.9720
-0.7708 3.2541 0.9725
-0.8873 3.2241 0.9730
-2.4661 7.8457 2.3943
-2.7454 7.7480 2.3943
-3.0210 7.6407 2.3943
-3.2925 7.5239 2.3943
-3.5597 7.3977 2.3943
-3.8222 7.2623 2.3943
-4.0798 7.1179 2.3943
-4.3321 6.9646 2.3943
-4.5788 6.8027 2.3943
-4.8197 6.6323 2.3943
-5.0544 6.4536 2.3943
-5.2828 6.2669 2.3943
-5.5045 6.0722 2.3943
-5.7192 5.8701 2.3943
-5.9267 5.6605 2.3943
-6.1269 5.4438 2.3943
-6.3194 5.2203 2.3943
-6.5040 4.9901 2.3943
-6.6804 4.7538 2.3943
-6.8486 4.5112 2.3943
-7.0081 4.2632 2.3943
-7.1591 4.0091 2.3943
-7.3011 3.7502 2.3943
-7.4340 3.4864 2.3943
-7.5576 3.2180 2.3943
-7.6719 2.9453 2.3943
-7.7765 2.6687 2.3943
-7.8715 2.3884 2.3943
-7.9567 2.1049 2.3943
-8.0320 1.8184 2.3943
-8.0972 1.5293 2.3943
-8.1522 1.2379 2.3943
-8.1971 0.9445 2.3943
-8.2316 0.6496 2.3943
-8.2558 0.3534 2.3943
-8.2696 0.0564 2.3943
-8.2729 -0.2412 2.3943
-8.2658 -0.5389 2.3943
-8.2482 -0.8365 2.3943
-8.2201 -1.1334 2.3943
-8.1815 -1.4295 2.3943
-8.1324 -1.7243 2.3943
-8.0730 -2.0174 2.3943
-8.0031 -2.3085 2.3943
-7.9229 -2.5973 2.3943
-7.8324 -2.8830 2.3943
-7.7318 -3.1661 2.3943
-7.6211 -3.4453 2.3943
-7.5005 -3.7208 2.3943
-7.3700 -3.9923 2.3943
-7.2297 -4.2590 2.3943
-7.0799 -4.5209 2.3943
-6.9207 -4.7776 2.3943
-6.7523 -5.0287 2.3943
-6.5749 -5.2739 2.3943
-6.3885 -5.5128 2.3943
-6.1936 -5.7451 2.3943
-5.9902 -5.9706 2.3943
-5.7787 -6.1888 2.3943
-5.5592 -6.3996 2.3943
-5.3320 -6.6025 2.3943
-5.0975 -6.7973 2.3943
-4.8558 -6.9838 2.3943
-4.6073 -7.1616 2.3943
-4.3523 -7.3305 2.3943
-4.0911 -7.4902 2.3943
-3.8240 -7.6406 2.3943
-3.5514 -7.7813 2.3943
-3.2735 -7.9122 2.3943
-2.9909 -8.0330 2.3943
-2.7037 -8.1435 2.3943
-2.4125 -8.2437 2.3943
-2.1175 -8.3333 2.3943
-1.8191 -8.4122 2.3943
-1.5179 -8.4801 2.3943
-1.2141 -8.5371 2.3943
-0.9081 -8.5830 2.3943
-0.6004 -8.6177 2.3943
-0.2914 -8.6412 2.3943
0.0177 -7.9521 2.3943
0.3029 -7.9523 2.3943
0.5880 -7.9421 2.3943
0.8728 -7.9214 2.3943
1.1567 -7.8903 2.3943
1.4396 -7.8488 2.3943
1.7208 -7.7968 2.3943
2.0001 -7.7346 2.3943
2.2771 -7.6621 2.3943
2.5513 -7.5794 2.3943
2.8224 -7.4867 2.3943
3.0901 -7.3840 2.3943
3.3538 -7.2715 2.3943
3.6134 -7.1492 2.3943
3.8683 -7.0175 2.3943
4.1183 -6.8764 2.3943
4.3629 -6.7262 2.3943
4.6019 -6.5670 2.3943
4.8349 -6.3989 2.3943
5.0616 -6.2227 2.3943
5.2816 -6.0380 2.3943
5.4947 -5.8453 2.3943
5.7006 -5.6449 2.3943
5.8989 -5.4370 2.3943
6.0894 -5.2220 2.3943
6.2007 -4.9434 2.3672
6.2155 -4.6011 2.3087
6.2298 -4.2751 2.2561
6.3372 -4.0228 2.2419
6.4756 -3.7923 2.2419
6.6053 -3.5570 2.2419
6.7263 -3.3171 2.2420
6.8383 -3.0730 2.2420
6.9412 -2.8250 2.2420
7.0348 -2.5735 2.2420
7.1191 -2.3188 2.2420
7.1939 -2.0613 2.2421
7.2592 -1.8013 2.2421
7.3148 -1.5392 2.2421
7.3607 -1.2755 2.2421
7.3970 -1.0103 2.2421
7.4234 -0.7442 2.2421
7.4400 -0.4774 2.2421
7.4469 -0.2104 2.2421
7.4440 0.0566 2.2421
7.4313 0.3230 2.2421
7.4089 0.5886 2.2421
7.3768 0.8530 2.2421
7.3351 1.1159 2.2421
7.2839 1.3769 2.2421
7.2233 1.6356 2.2421
7.1533 1.8917 2.2420
7.0742 2.1449 2.2420
6.9859 2.3948 2.2420
6.8887 2.6412 2.2420
6.7828 2.8836 2.2420
6.6682 3.1218 2.2419
6.5452 3.3555 2.2419
6.4140 3.5844 2.2419
6.3222 3.8372 2.2589
6.3162 4.1505 2.3109
6.3094 4.4782 2.3682
6.2058 4.7486 2.3943
6.0250 4.9629 2.3943
5.8368 5.1704 2.3943
5.6414 5.3708 2.3943
5.4392 5.5639 2.3943
5.2304 5.7494 2.3943
5.0152 5.9272 2.3943
4.7941 6.0970 2.3943
4.5673 6.2586 2.3943
4.3350 6.4119 2.3943
4.0977 6.5566 2.3943
3.8556 6.6926 2.3943
3.6090 6.8200 2.3943
3.3583 6.9381 2.3943
3.1038 7.0473 2.3943
2.8458 7.1472 2.3943
2.5846 7.2380 2.3943
0.9296 2.9319 0.9591
0.8237 2.9636 0.9600
0.7166 2.9914 0.9609
0.6087 3.0153 0.9618
0.4999 3.0353 0.9627
0.3904 3.0513 0.9635
0.2805 3.0634 0.9643
0.1701 3.0715 0.9651
0.0596 3.0756 0.9658
-0.0511 3.0757 0.9665
-0.1616 3.0718 0.9672
-0.2720 3.0640 0.9678
-0.3820 3.0521 0.9684
-0.4915 3.0362 0.9690
-0.6004 3.0165 0.9695
-0.7085 2.9927 0.9700
-0.8157 2.9651 0.9705
-2.2732 7.2348 2.3943
-2.5308 7.1450 2.3943
-2.7851 7.0463 2.3943
-3.0356 6.9387 2.3943
-3.2821 6.8225 2.3943
-3.5244 6.6978 2.3943
-3.7620 6.5648 2.3943
-3.9948 6.4235 2.3943
-4.2225 6.2742 2.3943
-4.4448 6.1171 2.3943
-4.6614 5.9523 2.3943
-4.8721 5.7801 2.3943
-5.0766 5.6006 2.3943
-5.2747 5.4142 2.3943
-5.4662 5.2209 2.3943
-5.6508 5.0210 2.3943
-5.8284 4.8147 2.3943
-5.9986 4.6024 2.3943
-6.1613 4.3842 2.3943
-6.3163 4.1606 2.3943
-6.4634 3.9314 2.3943
-6.6025 3.6972 2.3943
-6.7333 3.4582 2.3943
-6.8557 3.2149 2.3943
-6.9696 2.9672 2.3943
-7.0747 2.7156 2.3943
-7.1711 2.4604 2.3943
-7.2584 2.2018 2.3943
-7.3367 1.9401 2.3943
-7.4058 1.6759 2.3943
-7.4656 1.4094 2.3943
-7.5160 1.1406 2.3943
-7.5570 0.8699 2.3943
-7.5885 0.5979 2.3943
-7.6104 0.3249 2.3943
-7.6227 0.0511 2.3943
-7.6253 -0.2231 2.3943
-7.6183 -0.4977 2.3943
-7.6016 -0.7718 2.3943
-7.5752 -1.0457 2.3943
-7.5391 -1.3186 2.3943
-7.4934 -1.5899 2.3943
-7.4381 -1.8599 2.3943
-7.3732 -2.1280 2.3943
-7.2988 -2.3939 2.3943
-7.2149 -2.6571 2.3943
-7.1217 -2.9175 2.3943
-7.0191 -3.1746 2.3943
-6.9075 -3.4281 2.3943
-6.7867 -3.6778 2.3943
-6.6570 -3.9232 2.3943
-6.5186 -4.1641 2.3943
-6.3715 -4.4001 2.3943
-6.2159 -4.6309 2.3943
-6.0520 -4.8562 2.3943
-5.8800 -5.0758 2.3943
-5.7000 -5.2892 2.3943
-5.5124 -5.4963 2.3943
-5.3172 -5.6967 2.3943
-5.1148 -5.8902 2.3943
-4.9054 -6.0764 2.3943
-4.6891 -6.2551 2.3943
-4.4664 -6.4262 2.3943
-4.2374 -6.5892 2.3943
-4.0025 -6.7440 2.3943
-3.7619 -6.8904 2.3943
-3.5160 -7.0281 2.3943
-3.2650 -7.1569 2.3943
-3.0092 -7.2767 2.3943
-2.7491 -7.3872 2.3943
-2.4848 -7.4883 2.3943
-2.2169 -7.5799 2.3943
-1.9456 -7.6616 2.3943
-1.6712 -7.7336 2.3943
-1.3942 -7.7955 2.3943
-1.1148 -7.8473 2.3943
-0.8336 -7.8890 2.3943
-0.5508 -7.9204 2.3943
-0.2668 -7.9414 2.3943
0.0179 -7.9521 2.3943
0.3030 -7.9523 2.3943
0.5882 -7.9421 2.3943
0.8729 -7.9214 2.3943
1.1569 -7.8903 2.3943
1.4397 -7.8487 2.3943
1.7210 -7.7968 2.3943
2.0003 -7.7346 2.3943
2.2772 -7.6621 2.3943
2.5515 -7.5794 2.3943
2.8226 -7.4866 2.3943
3.0902 -7.3839 2.3943
3.3540 -7.2714 2.3943
3.6135 -7.1492 2.3943
3.8685 -7.0174 2.3943
4.1184 -6.8763 2.3943
4.3631 -6.7261 2.3943
4.6021 -6.5669 2.3943
4.8351 -6.3988 2.3943
5.0617 -6.2226 2.3943
5.2818 -6.0379 2.3943
5.4949 -5.8452 2.3943
5.7007 -5.6447 2.3943
5.8990 -5.4369 2.3943
6.0895 -5.2218 2.3943
6.2007 -4.9432 2.3671
6.2155 -4.6008 2.3087
6.2298 -4.2749 2.2561
6.3373 -4.0227 2.2419
6.4757 -3.7922 2.2419
6.6054 -3.5569 2.2419
6.7264 -3.3170 2.2420
6.8383 -3.0728 2.2420
6.9412 -2.8248 2.2420
7.0349 -2.5733 2.2420
7.1191 -2.3186 2.2420
7.1939 -2.0611 2.2421
7.2592 -1.8011 2.2421
7.3148 -1.5391 2.2421
7.3608 -1.2753 2.2421
7.3970 -1.0101 2.2421
7.4234 -0.7440 2.2421
7.4400 -0.4772 2.2421
7.4469 -0.2102 2.2421
7.4440 0.0567 2.2421
7.4313 0.3232 2.2421
7.4088 0.5888 2.2421
7.3768 0.8532 2.2421
7.3351 1.1161 2.2421
7.2839 1.3770 2.2421
7.2232 1.6358 2.2421
7.1533 1.8919 2.2420
7.0741 2.1451 2.2420
6.9859 2.3950 2.2420
6.8887 2.6413 2.2420
6.7827 2.8838 2.2420
6.6682 3.1220 2.2419
6.5451 3.3557 2.2419
6.4139 3.5846 2.2419
6.3222 3.8374 2.2589
6.3162 4.1507 2.3109
6.3094 4.4784 2.3682
6.2057 4.7487 2.3943
6.0249 4.9630 2.3943
5.8367 5.1707 2.3943
5.6413 5.3710 2.3943
5.4391 5.5640 2.3943
5.2302 5.7496 2.3943
5.0151 5.9273 2.3943
4.7940 6.0971 2.3943
4.5671 6.2587 2.3943
4.3349 6.4120 2.3943
4.0975 6.5567 2.3943
3.8554 6.6927 2.3943
3.6088 6.8199 2.3943
3.3581 6.9382 2.3943
3.1036 7.0474 2.3943
2.8456 7.1473 2.3943
2.5844 7.2380 2.3943
0.9295 2.9320 0.9591
0.8236 2.9636 0.9600
0.7166 2.9914 0.9609
0.6086 3.0153 0.9618
0.4998 3.0353 0.9627
0.3904 3.0513 0.9635
0.2804 3.0634 0.9643
0.1701 3.0715 0.9651
0.0595 3.0756 0.9658
-0.0511 3.0757 0.9665
-0.1617 3.0718 0.9672
-0.2721 3.0640 0.9678
-0.3821 3.0521 0.9684
-0.4916 3.0362 0.9690
-0.6005 3.0164 0.9695
-0.7086 2.9927 0.9700
-0.8157 2.9651 0.9705
-2.2733 7.2347 2.3943
-2.5310 7.1449 2.3943
-2.7852 7.0462 2.3943
-3.0358 6.9387 2.3943
-3.2823 6.8225 2.3943
-3.5245 6.6978 2.3943
-3.7622 6.5647 2.3943
-3.9950 6.4234 2.3943
-4.2227 6.2741 2.3943
-4.4449 6.1170 2.3943
-4.6615 5.9522 2.3943
-4.8722 5.7800 2.3943
-5.0767 5.6005 2.3943
-5.2749 5.4140 2.3943
-5.4663 5.2207 2.3943
-5.6509 5.0209 2.3943
-5.8285 4.8145 2.3943
-5.9987 4.6023 2.3943
-6.1614 4.3840 2.3943
-6.3164 4.1604 2.3943
-6.4635 3.9312 2.3943
-6.6026 3.6971 2.3943
-6.7334 3.4581 2.3943
-6.8558 3.2147 2.3943
-6.9697 2.9670 2.3943
-7.0748 2.7154 2.3943
-7.1711 2.4602 2.3943
-7.2584 2.2018 2.3943
-7.3367 1.9401 2.3943
-7.4058 1.6757 2.3943
-7.4656 1.4089 2.3943
-7.5160 1.1402 2.3943
-7.5570 0.8696 2.3943
-7.5885 0.5980 2.3943
-7.6104 0.3247 2.3943
-7.6227 0.0508 2.3943
-7.6253 -0.2234 2.3943
-7.6183 -0.4978 2.3943
-7.6016 -0.7723 2.3943
-7.5752 -1.0459 2.3943
-7.5391 -1.3185 2.3943
-7.4934 -1.5902 2.3943
-7.4380 -1.8601 2.3943
-7.3731 -2.1281 2.3943
-7.2987 -2.3940 2.3943
-7.2148 -2.6572 2.3943
-7.1216 -2.9176 2.3943
-7.0191 -3.1747 2.3943
-6.9074 -3.4283 2.3943
-6.7866 -3.6779 2.3943
-6.6570 -3.9233 2.3943
-6.5185 -4.1642 2.3943
-6.3714 -4.4002 2.3943
-6.2158 -4.6310 2.3943
-6.0519 -4.8564 2.3943
-5.8799 -5.0759 2.3943
-5.6999 -5.2894 2.3943
-5.5122 -5.4964 2.3943
-5.3171 -5.6968 2.3943
-5.1147 -5.8903 2.3943
-4.9052 -6.0765 2.3943
-4.6890 -6.2553 2.3943
-4.4663 -6.4263 2.3943
-4.2373 -6.5893 2.3943
-4.0024 -6.7441 2.3943
-3.7618 -6.8905 2.3943
-3.5158 -7.0282 2.3943
-3.2648 -7.1570 2.3943
-3.0090 -7.2768 2.3943
-2.7489 -7.3873 2.3943
-2.4847 -7.4884 2.3943
-2.2167 -7.5799 2.3943
-1.9454 -7.6617 2.3943
-1.6710 -7.7336 2.3943
-1.3940 -7.7955 2.3943
-1.1147 -7.8474 2.3943
-0.8334 -7.8890 2.3943
-0.5506 -7.9204 2.3943
-0.2667 -7.9414 2.3943
0.0174 -7.3484 2.3943
0.2809 -7.3482 2.3943
0.5443 -7.3384 2.3943
0.8073 -7.3190 2.3943
1.0696 -7.2899 2.3943
1.3308 -7.2512 2.3943
1.5906 -7.2030 2.3943
1.8485 -7.1452 2.3943
2.1042 -7.0780 2.3943
2.3574 -7.0014 2.3943
2.6078 -6.9155 2.3943
2.8548 -6.8204 2.3943
3.0984 -6.7163 2.3943
3.3380 -6.6033 2.3943
3.5733 -6.4815 2.3943
3.8041 -6.3511 2.3943
4.0299 -6.2122 2.3943
4.2506 -6.0651 2.3943
4.4657 -5.9101 2.3943
4.6749 -5.7471 2.3943
4.8781 -5.5765 2.3943
5.0748 -5.3986 2.3943
5.2649 -5.2135 2.3943
5.4480 -5.0215 2.3943
5.6239 -4.8230 2.3943
5.7924 -4.6181 2.3943
5.9532 -4.4072 2.3943
6.1061 -4.1905 2.3943
6.2101 -3.9425 2.3787
6.2222 -3.6444 2.3324
6.2332 -3.3571 2.2906
6.2458 -3.0807 2.2539
6.3160 -2.8389 2.2419
6.4145 -2.6113 2.2431
6.4978 -2.3777 2.2419
6.5759 -2.1425 2.2419
6.6452 -1.9048 2.2419
6.7058 -1.6647 2.2420
6.7574 -1.4228 2.2420
6.8001 -1.1792 2.2420
6.8339 -0.9343 2.2420
6.8586 -0.6885 2.2420
6.8744 -0.4420 2.2420
6.8810 -0.1954 2.2420
6.8787 0.0512 2.2420
6.8673 0.2974 2.2420
6.8470 0.5429 2.2420
6.8178 0.7873 2.2420
6.7797 1.0302 2.2420
6.7328 1.2715 2.2420
6.6772 1.5107 2.2419
6.6129 1.7475 2.2419
6.5402 1.9817 2.2419
6.4683 2.2160 2.2451
6.3697 2.4408 2.2419
6.3107 2.6815 2.2556
6.3057 2.9506 2.2924
6.3013 3.2289 2.3337
6.2962 3.5169 2.3793
6.1989 3.7605 2.3943
6.0541 3.9765 2.3943
5.9016 4.1870 2.3943
5.7419 4.3917 2.3943
5.5750 4.5903 2.3943
5.4013 4.7826 2.3943
5.2209 4.9684 2.3943
5.0342 5.1475 2.3943
4.8413 5.3195 2.3943
4.6425 5.4844 2.3943
4.4382 5.6420 2.3943
4.2285 5.7920 2.3943
4.0139 5.9342 2.3943
3.7944 6.0686 2.3943
3.5706 6.1949 2.3943
3.3425 6.3132 2.3943
3.1106 6.4232 2.3943
2.8751 6.5247 2.3943
2.6364 6.6177 2.3943
2.3947 6.7021 2.3943
0.8602 2.7113 0.9578
0.7622 2.7405 0.9586
0.6632 2.7662 0.9595
0.5633 2.7883 0.9603
0.4627 2.8067 0.9611
0.3615 2.8215 0.9618
0.2598 2.8327 0.9626
0.1578 2.8402 0.9633
0.0555 2.8440 0.9639
-0.0468 2.8441 0.9646
-0.1491 2.8405 0.9652
-0.2511 2.8332 0.9658
-0.3529 2.8222 0.9664
-0.4542 2.8075 0.9669
-0.5549 2.7892 0.9674
-0.6548 2.7673 0.9678
-0.7539 2.7418 0.9683
-0.8520 2.7127 0.9686
-2.3450 6.6222 2.3943
-2.5807 6.5308 2.3943
-2.8130 6.4313 2.3943
-3.0417 6.3238 2.3943
-3.2663 6.2083 2.3943
-3.4867 6.0851 2.3943
-3.7026 5.9542 2.3943
-3.9137 5.8159 2.3943
-4.1198 5.6703 2.3943
-4.3207 5.5176 2.3943
-4.5161 5.3579 2.3943
-4.7057 5.1916 2.3943
-4.8894 5.0187 2.3943
-5.0669 4.8394 2.3943
-5.2381 4.6541 2.3943
-5.4026 4.4629 2.3943
-5.5604 4.2660 2.3943
-5.7112 4.0637 2.3943
-5.8549 3.8562 2.3943
-5.9912 3.6437 2.3943
-6.1200 3.4265 2.3943
-6.2411 3.2050 2.3943
-6.3545 2.9792 2.3943
-6.4599 2.7496 2.3943
-6.5572 2.5163 2.3943
-6.6463 2.2796 2.3943
-6.7270 2.0399 2.3943
-6.7993 1.7973 2.3943
-6.8631 1.5523 2.3943
-6.9183 1.3051 2.3943
-6.9648 1.0559 2.3943
-7.0024 0.8053 2.3943
-7.0313 0.5531 2.3943
-7.0513 0.3001 2.3943
-7.0623 0.0463 2.3943
-7.0644 -0.2080 2.3943
-7.0575 -0.4622 2.3943
-7.0417 -0.7162 2.3943
-7.0168 -0.9698 2.3943
-6.9830 -1.2224 2.3943
-6.9403 -1.4738 2.3943
-6.8886 -1.7238 2.3943
-6.8281 -1.9720 2.3943
-6.7587 -2.2181 2.3943
-6.6806 -2.4618 2.3943
-6.5938 -2.7027 2.3943
-6.4985 -2.9406 2.3943
-6.3946 -3.1752 2.3943
-6.2824 -3.4061 2.3943
-6.1619 -3.6331 2.3943
-6.0333 -3.8558 2.3943
-5.8967 -4.0740 2.3943
-5.7523 -4.2873 2.3943
-5.6002 -4.4956 2.3943
-5.4406 -4.6984 2.3943
-5.2737 -4.8956 2.3943
-5.0996 -5.0869 2.3943
-4.9187 -5.2719 2.3943
-4.7311 -5.4505 2.3943
-4.5369 -5.6224 2.3943
-4.3366 -5.7874 2.3943
-4.1303 -5.9451 2.3943
-3.9182 -6.0955 2.3943
-3.7006 -6.2382 2.3943
-3.4779 -6.3731 2.3943
-3.2502 -6.5000 2.3943
-3.0179 -6.6187 2.3943
-2.7812 -6.7290 2.3943
-2.5405 -6.8307 2.3943
-2.2961 -6.9237 2.3943
-2.0482 -7.0079 2.3943
-1.7973 -7.0830 2.3943
-1.5436 -7.1490 2.3943
-1.2874 -7.2058 2.3943
-1.0292 -7.2533 2.3943
-0.7693 -7.2914 2.3943
-0.5079 -7.3199 2.3943
-0.2455 -7.3390 2.3943
0.0176 -7.3484 2.3943
0.2811 -7.3482 2.3943
0.5445 -7.3384 2.3943
0.8075 -7.3190 2.3943
1.0698 -7.2899 2.3943
1.3310 -7.2512 2.3943
1.5907 -7.2029 2.3943
1.8487 -7.1452 2.3943
2.1044 -7.0779 2.3943
2.3576 -7.0013 2.3943
2.6079 -6.9154 2.3943
2.8550 -6.8203 2.3943
3.0985 -6.7162 2.3943
3.3381 -6.6032 2.3943
3.5735 -6.4814 2.3943
3.8042 -6.3510 2.3943
4.0301 -6.2121 2.3943
4.2507 -6.0651 2.3943
4.4658 -5.9099 2.3943
4.6751 -5.7470 2.3943
4.8782 -5.5764 2.3943
5.0749 -5.3984 2.3943
5.2650 -5.2133 2.3943
5.4481 -5.0214 2.3943
5.6240 -4.8229 2.3943
5.7925 -4.6180 2.3943
5.9533 -4.4070 2.3943
6.1062 -4.1904 2.3943
6.2102 -3.9423 2.3787
6.2222 -3.6442 2.3323
6.2332 -3.3569 2.2906
6.2458 -3.0805 2.2539
6.3161 -2.8387 2.2419
6.4145 -2.6111 2.2431
6.4979 -2.3775 2.2419
6.5759 -2.1424 2.2419
6.6453 -1.9046 2.2419
6.7058 -1.6646 2.2420
6.7575 -1.4226 2.2420
6.8002 -1.1790 2.2420
6.8339 -0.9341 2.2420
6.8587 -0.6883 2.2420
6.8744 -0.4419 2.2420
6.8810 -0.1952 2.2420
6.8787 0.0514 2.2420
6.8673 0.2976 2.2420
6.8470 0.5430 2.2420
6.8178 0.7874 2.2420
6.7797 1.0304 2.2420
6.7328 1.2717 2.2420
6.6771 1.5109 2.2419
6.6129 1.7477 2.2419
6.5402 1.9818 2.2419
6.4682 2.2162 2.2451
6.3697 2.4409 2.2419
6.3107 2.6816 2.2557
6.3057 2.9508 2.2924
6.3013 3.2291 2.3337
6.2962 3.5171 2.3793
6.1988 3.7606 2.3943
6.0540 3.9767 2.3943
5.9015 4.1871 2.3943
5.7418 4.3918 2.3943
5.5749 4.5904 2.3943
5.4012 4.7828 2.3943
5.2208 4.9685 2.3943
5.0340 5.1476 2.3943
4.8412 5.3196 2.3943
4.6424 5.4845 2.3943
4.4381 5.6421 2.3943
4.2284 5.7921 2.3943
4.0137 5.9343 2.3943
3.7943 6.0687 2.3943
3.5704 6.1951 2.3943
3.3423 6.3133 2.3943
3.1104 6.4233 2.3943
2.8750 6.5248 2.3943
2.6362 6.6178 2.3943
2.3945 6.7022 2.3943
0.8601 2.7113 0.9578
0.7621 2.7405 0.9586
0.6631 2.7662 0.9595
0.5633 2.7883 0.9603
0.4627 2.8067 0.9611
0.3614 2.8216 0.9618
0.2597 2.8327 0.9626
0.1577 2.8402 0.9633
0.0555 2.8440 0.9639
-0.0469 2.8441 0.9646
-0.1491 2.8405 0.9652
-0.2512 2.8332 0.9658
-0.3529 2.8222 0.9664
-0.4542 2.8075 0.9669
-0.5549 2.7892 0.9674
-0.6549 2.7673 0.9678
-0.7540 2.7417 0.9683
-0.8521 2.7126 0.9686
-2.3451 6.6221 2.3943
-2.5809 6.5308 2.3943
-2.8132 6.4313 2.3943
-3.0418 6.3237 2.3943
-3.2664 6.2082 2.3943
-3.4868 6.0850 2.3943
-3.7027 5.9541 2.3943
-3.9138 5.8158 2.3943
-4.1200 5.6702 2.3943
-4.3208 5.5175 2.3943
-4.5162 5.3578 2.3943
-4.7058 5.1914 2.3943
-4.8895 5.0185 2.3943
-5.0670 4.8393 2.3943
-5.2382 4.6540 2.3943
-5.4027 4.4628 2.3943
-5.5605 4.2659 2.3943
-5.7113 4.0635 2.3943
-5.8550 3.8560 2.3943
-5.9913 3.6435 2.3943
-6.1201 3.4264 2.3943
-6.2412 3.2048 2.3943
-6.3546 2.9790 2.3943
-6.4599 2.7495 2.3943
-6.5572 2.5161 2.3943
-6.6463 2.2795 2.3943
-6.7271 2.0398 2.3943
-6.7994 1.7972 2.3943
-6.8632 1.5521 2.3943
-6.9183 1.3050 2.3943
-6.9648 1.0559 2.3943
-7.0025 0.8050 2.3943
-7.0313 0.5530 2.3943
-7.0513 0.2998 2.3943
-7.0623 0.0461 2.3943
-7.0644 -0.2081 2.3943
-7.0575 -0.4623 2.3943
-7.0417 -0.7165 2.3943
-7.0168 -0.9699 2.3943
-6.9830 -1.2226 2.3943
-6.9402 -1.4740 2.3943
-6.8886 -1.7240 2.3943
-6.8280 -1.9722 2.3943
-6.7587 -2.2183 2.3943
-6.6805 -2.4619 2.3943
-6.5938 -2.7029 2.3943
-6.4984 -2.9408 2.3943
-6.3945 -3.1753 2.3943
-6.2823 -3.4063 2.3943
-6.1618 -3.6332 2.3943
-6.0332 -3.8559 2.3943
-5.8966 -4.0741 2.3943
-5.7522 -4.2875 2.3943
-5.6001 -4.4957 2.3943
-5.4405 -4.6986 2.3943
-5.2735 -4.8957 2.3943
-5.0995 -5.0870 2.3943
-4.9186 -5.2720 2.3943
-4.7309 -5.4506 2.3943
-4.5368 -5.6225 2.3943
-4.3365 -5.7875 2.3943
-4.1301 -5.9452 2.3943
-3.9181 -6.0956 2.3943
-3.7005 -6.2383 2.3943
-3.4777 -6.3732 2.3943
-3.2501 -6.5001 2.3943
-3.0177 -6.6188 2.3943
-2.7811 -6.7291 2.3943
-2.5403 -6.8308 2.3943
-2.2959 -6.9238 2.3943
-2.0481 -7.0079 2.3943
-1.7971 -7.0831 2.3943
-1.5434 -7.1491 2.3943
-1.2873 -7.2059 2.3943
-1.0291 -7.2533 2.3943
-0.7691 -7.2914 2.3943
-0.5077 -7.3200 2.3943
-0.2453 -7.3390 2.3943
0.0172 -6.8228 2.3943
0.2618 -6.8224 2.3943
0.5063 -6.8130 2.3943
0.7504 -6.7946 2.3943
0.9938 -6.7674 2.3943
1.2362 -6.7312 2.3943
1.4772 -6.6862 2.3943
1.7166 -6.6323 2.3943
1.9538 -6.5697 2.3943
2.1888 -6.4984 2.3943
2.4210 -6.4185 2.3943
2.6502 -6.3301 2.3943
2.8761 -6.2334 2.3943
3.0984 -6.1284 2.3943
3.3167 -6.0152 2.3943
3.5308 -5.8941 2.3943
3.7403 -5.7652 2.3943
3.9450 -5.6287 2.3943
4.1445 -5.4847 2.3943
4.3386 -5.3334 2.3943
4.5271 -5.1751 2.3943
4.7097 -5.0101 2.3943
4.8860 -4.8383 2.3943
5.0559 -4.6602 2.3943
5.2191 -4.4760 2.3943
5.3755 -4.2859 2.3943
5.5247 -4.0903 2.3943
5.6667 -3.8893 2.3943
5.8011 -3.6832 2.3943
5.9279 -3.4724 2.3943
6.0468 -3.2572 2.3943
6.1577 -3.0377 2.3943
6.2231 -2.7977 2.3800
6.2321 -2.5376 2.3480
6.2402 -2.2841 2.3197
6.2477 -2.0363 2.2949
6.2545 -1.7935 2.2733
6.2619 -1.5553 2.2554
6.2767 -1.3223 2.2434
6.3124 -1.0954 2.2419
6.3439 -0.8681 2.2419
6.3671 -0.6400 2.2419
6.3820 -0.4113 2.2419
6.3885 -0.1823 2.2419
6.3866 0.0466 2.2419
6.3764 0.2752 2.2419
6.3578 0.5031 2.2419
6.3310 0.7300 2.2419
6.3023 0.9566 2.2441
6.2928 1.1873 2.2562
6.2914 1.4222 2.2744
6.2902 1.6610 2.2959
6.2884 1.9041 2.3206
6.2861 2.1523 2.3487
6.2832 2.4062 2.3804
6.2235 2.6430 2.3943
6.1192 2.8618 2.3943
6.0072 3.0767 2.3943
5.8877 3.2872 2.3943
5.7607 3.4930 2.3943
5.6264 3.6940 2.3943
5.4852 3.8898 2.3943
5.3370 4.0803 2.3943
5.1823 4.2651 2.3943
5.0211 4.4442 2.3943
4.8538 4.6171 2.3943
4.6805 4.7838 2.3943
4.5015 4.9441 2.3943
4.3170 5.0977 2.3943
4.1273 5.2445 2.3943
3.9327 5.3843 2.3943
3.7333 5.5170 2.3943
3.5294 5.6423 2.3943
3.3215 5.7601 2.3943
3.1096 5.8705 2.3943
2.8941 5.9730 2.3943
2.6752 6.0678 2.3943
2.4533 6.1547 2.3943
0.8896 2.4883 0.9558
0.7996 2.5187 0.9566
0.7086 2.5459 0.9574
0.6166 2.5697 0.9582
0.5238 2.5902 0.9589
0.4303 2.6074 0.9597
0.3363 2.6211 0.9604
0.2418 2.6315 0.9610
0.1470 2.6384 0.9617
0.0520 2.6419 0.9623
-0.0431 2.6420 0.9629
-0.1381 2.6386 0.9635
-0.2329 2.6319 0.9641
-0.3275 2.6216 0.9646
-0.4216 2.6080 0.9651
-0.5151 2.5910 0.9655
-0.6080 2.5706 0.9659
-0.7001 2.5469 0.9663
-0.7912 2.5199 0.9667
-0.8813 2.4896 0.9670
-2.4017 6.0793 2.3943
-2.6181 5.9868 2.3943
-2.8310 5.8868 2.3943
-3.0402 5.7794 2.3943
-3.2454 5.6647 2.3943
-3.4465 5.5430 2.3943
-3.6431 5.4142 2.3943
-3.8351 5.2787 2.3943
-4.0221 5.1366 2.3943
-4.2041 4.9880 2.3943
-4.3807 4.8331 2.3943
-4.5517 4.6721 2.3943
-4.7170 4.5052 2.3943
-4.8764 4.3326 2.3943
-5.0296 4.1545 2.3943
-5.1765 3.9712 2.3943
-5.3168 3.7828 2.3943
-5.4505 3.5895 2.3943
-5.5774 3.3916 2.3943
-5.6972 3.1894 2.3943
-5.8099 2.9831 2.3943
-5.9153 2.7728 2.3943
-6.0133 2.5590 2.3943
-6.1037 2.3417 2.3943
-6.1865 2.1213 2.3943
-6.2615 1.8981 2.3943
-6.3287 1.6722 2.3943
-6.3878 1.4442 2.3943
-6.4390 1.2139 2.3943
-6.4820 0.9819 2.3943
-6.5169 0.7485 2.3943
-6.5434 0.5138 2.3943
-6.5618 0.2783 2.3943
-6.5718 0.0421 2.3943
-6.5734 -0.1945 2.3943
-6.5667 -0.4311 2.3943
-6.5517 -0.6675 2.3943
-6.5282 -0.9033 2.3943
-6.4964 -1.1384 2.3943
-6.4563 -1.3722 2.3943
-6.4079 -1.6048 2.3943
-6.3513 -1.8356 2.3943
-6.2864 -2.0644 2.3943
-6.2134 -2.2910 2.3943
-6.1323 -2.5149 2.3943
-6.0433 -2.7361 2.3943
-5.9463 -2.9541 2.3943
-5.8416 -3.1687 2.3943
-5.7292 -3.3795 2.3943
-5.6092 -3.5864 2.3943
-5.4819 -3.7891 2.3943
-5.3473 -3.9872 2.3943
-5.2055 -4.1806 2.3943
-5.0568 -4.3689 2.3943
-4.9013 -4.5519 2.3943
-4.7393 -4.7294 2.3943
-4.5708 -4.9011 2.3943
-4.3961 -5.0668 2.3943
-4.2154 -5.2262 2.3943
-4.0290 -5.3791 2.3943
-3.8370 -5.5254 2.3943
-3.6397 -5.6648 2.3943
-3.4373 -5.7971 2.3943
-3.2302 -5.9220 2.3943
-3.0184 -6.0396 2.3943
-2.8024 -6.1494 2.3943
-2.5824 -6.2515 2.3943
-2.3587 -6.3456 2.3943
-2.1315 -6.4316 2.3943
-1.9012 -6.5094 2.3943
-1.6681 -6.5788 2.3943
-1.4324 -6.6398 2.3943
-1.1945 -6.6921 2.3943
-0.9547 -6.7359 2.3943
-0.7132 -6.7709 2.3943
-0.4705 -6.7970 2.3943
-0.2269 -6.8144 2.3943
0.0174 -6.8228 2.3943
0.2619 -6.8224 2.3943
0.5064 -6.8130 2.3943
0.7506 -6.7946 2.3943
0.9940 -6.7673 2.3943
1.2364 -6.7312 2.3943
1.4774 -6.6861 2.3943
1.7167 -6.6323 2.3943
1.9540 -6.5697 2.3943
2.1889 -6.4984 2.3943
2.4211 -6.4185 2.3943
2.6504 -6.3301 2.3943
2.8763 -6.2333 2.3943
3.0985 -6.1283 2.3943
3.3168 -6.0152 2.3943
3.5309 -5.8940 2.3943
3.7404 -5.7651 2.3943
3.9451 -5.6286 2.3943
4.1446 -5.4846 2.3943
4.3388 -5.3333 2.3943
4.5272 -5.1751 2.3943
4.7098 -5.0100 2.3943
4.8861 -4.8382 2.3943
5.0560 -4.6601 2.3943
5.2192 -4.4759 2.3943
5.3756 -4.2858 2.3943
5.5248 -4.0901 2.3943
5.6668 -3.8891 2.3943
5.8012 -3.6831 2.3943
5.9280 -3.4723 2.3943
6.0469 -3.2570 2.3943
6.1578 -3.0376 2.3943
6.2231 -2.7975 2.3800
6.2321 -2.5374 2.3480
6.2402 -2.2839 2.3197
6.2477 -2.0361 2.2949
6.2545 -1.7933 2.2733
6.2619 -1.5551 2.2554
6.2767 -1.3221 2.2434
6.3124 -1.0952 2.2419
6.3439 -0.8680 2.2419
6.3671 -0.6398 2.2419
6.3820 -0.4111 2.2419
6.3885 -0.1823 2.2419
6.3866 0.0468 2.2419
6.3764 0.2753 2.2419
6.3578 0.5032 2.2419
6.3310 0.7301 2.2419
6.3023 0.9568 2.2441
6.2928 1.1874 2.2563
6.2914 1.4224 2.2744
6.2902 1.6612 2.2959
6.2884 1.9043 2.3206
6.2861 2.1525 2.3488
6.2832 2.4064 2.3805
6.2234 2.6431 2.3943
6.1192 2.8618 2.3943
6.0072 3.0768 2.3943
5.8876 3.2873 2.3943
5.7606 3.4931 2.3943
5.6263 3.6941 2.3943
5.4851 3.8899 2.3943
5.3369 4.0804 2.3943
5.1822 4.2652 2.3943
5.0210 4.4443 2.3943
4.8537 4.6172 2.3943
4.6804 4.7839 2.3943
4.5014 4.9442 2.3943
4.3169 5.0978 2.3943
4.1272 5.2446 2.3943
3.9325 5.3844 2.3943
3.7331 5.5170 2.3943
3.5293 5.6424 2.3943
3.3213 5.7602 2.3943
3.1094 5.8705 2.3943
2.8939 5.9731 2.3943
2.6750 6.0679 2.3943
2.4531 6.1548 2.3943
0.8896 2.4884 0.9558
0.7996 2.5188 0.9566
0.7085 2.5459 0.9574
0.6165 2.5697 0.9582
0.5237 2.5902 0.9589
0.4303 2.6074 0.9597
0.3362 2.6211 0.9604
0.2417 2.6315 0.9610
0.1469 2.6384 0.9617
0.0519 2.6419 0.9623
-0.0431 2.6420 0.9629
-0.1382 2.6386 0.9635
-0.2330 2.6319 0.9641
-0.3275 2.6216 0.9646
-0.4216 2.6080 0.9651
-0.5152 2.5910 0.9655
-0.6080 2.5706 0.9659
-0.7001 2.5469 0.9663
-0.7913 2.5199 0.9667
-0.8814 2.4896 0.9670
-2.4018 6.0792 2.3943
-2.6182 5.9867 2.3943
-2.8311 5.8867 2.3943
-3.0403 5.7793 2.3943
-3.2456 5.6646 2.3943
-3.4466 5.5429 2.3943
-3.6432 5.4141 2.3943
-3.8352 5.2786 2.3943
-4.0223 5.1365 2.3943
-4.2042 4.9879 2.3943
-4.3808 4.8330 2.3943
-4.5518 4.6720 2.3943
-4.7171 4.5051 2.3943
-4.8765 4.3325 2.3943
-5.0297 4.1544 2.3943
-5.1766 3.9711 2.3943
-5.3169 3.7826 2.3943
-5.4506 3.5893 2.3943
-5.5774 3.3915 2.3943
-5.6973 3.1893 2.3943
-5.8100 2.9829 2.3943
-5.9154 2.7727 2.3943
-6.0134 2.5588 2.3943
-6.1038 2.3415 2.3943
-6.1866 2.1212 2.3943
-6.2616 1.8979 2.3943
-6.3287 1.6721 2.3943
-6.3879 1.4439 2.3943
-6.4390 1.2137 2.3943
-6.4820 0.9818 2.3943
-6.5169 0.7483 2.3943
-6.5435 0.5137 2.3943
-6.5618 0.2781 2.3943
-6.5718 0.0419 2.3943
-6.5734 -0.1946 2.3943
-6.5667 -0.4313 2.3943
-6.5516 -0.6676 2.3943
-6.5282 -0.9035 2.3943
-6.4964 -1.1385 2.3943
-6.4563 -1.3724 2.3943
-6.4079 -1.6049 2.3943
-6.3512 -1.8358 2.3943
-6.2863 -2.0646 2.3943
-6.2133 -2.2911 2.3943
-6.1323 -2.5151 2.3943
-6.0432 -2.7362 2.3943
-5.9463 -2.9542 2.3943
-5.8415 -3.1688 2.3943
-5.7291 -3.3797 2.3943
-5.6092 -3.5865 2.3943
-5.4818 -3.7892 2.3943
-5.3472 -3.9873 2.3943
-5.2054 -4.1807 2.3943
-5.0567 -4.3690 2.3943
-4.9012 -4.5520 2.3943
-4.7391 -4.7295 2.3943
-4.5707 -4.9012 2.3943
-4.3960 -5.0669 2.3943
-4.2153 -5.2263 2.3943
-4.0289 -5.3792 2.3943
-3.8369 -5.5255 2.3943
-3.6396 -5.6649 2.3943
-3.4372 -5.7972 2.3943
-3.2300 -5.9221 2.3943
-3.0183 -6.0396 2.3943
-2.8023 -6.1495 2.3943
-2.5823 -6.2516 2.3943
-2.3586 -6.3457 2.3943
-2.1314 -6.4317 2.3943
-1.9011 -6.5095 2.3943
-1.6679 -6.5789 2.3943
-1.4322 -6.6398 2.3943
-1.1943 -6.6922 2.3943
-0.9545 -6.7359 2.3943
-0.7131 -6.7709 2.3943
-0.4704 -6.7971 2.3943
-0.2267 -6.8144 2.3943
0.0170 -6.3606 2.3943
0.2449 -6.3600 2.3943
0.4728 -6.3510 2.3943
0.7003 -6.3336 2.3943
0.9272 -6.3080 2.3943
1.1530 -6.2741 2.3943
1.3776 -6.2319 2.3943
1.6006 -6.1815 2.3943
1.8217 -6.1230 2.3943
2.0405 -6.0564 2.3943
2.2569 -5.9818 2.3943
2.4704 -5.8993 2.3943
2.6808 -5.8090 2.3943
2.8879 -5.7111 2.3943
3.0913 -5.6056 2.3943
3.2907 -5.4927 2.3943
3.4858 -5.3725 2.3943
3.6765 -5.2452 2.3943
3.8624 -5.1110 2.3943
4.0432 -4.9701 2.3943
4.2188 -4.8225 2.3943
4.3888 -4.6687 2.3943
4.5531 -4.5087 2.3943
4.7114 -4.3428 2.3943
4.8636 -4.1712 2.3943
5.0093 -3.9941 2.3943
5.1483 -3.8119 2.3943
5.2806 -3.6246 2.3943
5.4060 -3.4327 2.3943
5.5241 -3.2363 2.3943
5.6350 -3.0358 2.3943
5.7384 -2.8314 2.3943
5.8343 -2.6234 2.3943
5.9224 -2.4121 2.3943
6.0027 -2.1977 2.3943
6.0751 -1.9807 2.3943
6.1395 -1.7612 2.3943
6.1957 -1.5396 2.3943
6.2380 -1.3149 2.3921
6.2431 -1.0841 2.3788
6.2477 -0.8558 2.3686
6.2516 -0.6292 2.3614
6.2550 -0.4040 2.3571
6.2579 -0.1795 2.3557
6.2602 0.0447 2.3572
6.2620 0.2693 2.3615
6.2632 0.4946 2.3688
6.2640 0.7212 2.3790
6.2642 0.9497 2.3922
6.2270 1.1737 2.3943
6.1763 1.3950 2.3943
6.1175 1.6142 2.3943
6.0510 1.8310 2.3943
5.9766 2.0450 2.3943
5.8946 2.2561 2.3943
5.8051 2.4638 2.3943
5.7082 2.6682 2.3943
5.6041 2.8688 2.3943
5.4928 3.0652 2.3943
5.3746 3.2573 2.3943
5.2497 3.4451 2.3943
5.1182 3.6280 2.3943
4.9803 3.8059 2.3943
4.8362 3.9786 2.3943
4.6861 4.1458 2.3943
4.5302 4.3075 2.3943
4.3688 4.4633 2.3943
4.2020 4.6131 2.3943
4.0300 4.7567 2.3943
3.8532 4.8941 2.3943
3.6717 5.0248 2.3943
3.4858 5.1488 2.3943
3.2957 5.2661 2.3943
3.1017 5.3764 2.3943
2.9040 5.4797 2.3943
2.7030 5.5758 2.3943
2.4988 5.6646 2.3943
0.9131 2.2895 0.9540
0.8302 2.3208 0.9548
0.7463 2.3492 0.9556
0.6613 2.3745 0.9563
0.5755 2.3967 0.9570
0.4890 2.4158 0.9577
0.4018 2.4318 0.9584
0.3141 2.4446 0.9591
0.2259 2.4543 0.9597
0.1375 2.4607 0.9603
0.0489 2.4640 0.9609
-0.0398 2.4640 0.9615
-0.1284 2.4609 0.9620
-0.2169 2.4546 0.9625
-0.3051 2.4450 0.9630
-0.3929 2.4323 0.9635
-0.4801 2.4165 0.9639
-0.5667 2.3975 0.9643
-0.6526 2.3753 0.9646
-0.7377 2.3501 0.9650
-0.8217 2.3219 0.9653
-0.9047 2.2906 0.9656
-2.4457 5.5937 2.3943
-2.6447 5.5004 2.3943
-2.8402 5.4001 2.3943
-3.0321 5.2930 2.3943
-3.2200 5.1793 2.3943
-3.4038 5.0591 2.3943
-3.5833 4.9325 2.3943
-3.7581 4.7996 2.3943
-3.9282 4.6608 2.3943
-4.0932 4.5160 2.3943
-4.2531 4.3656 2.3943
-4.4076 4.2096 2.3943
-4.5565 4.0483 2.3943
-4.6997 3.8819 2.3943
-4.8369 3.7105 2.3943
-4.9681 3.5344 2.3943
-5.0930 3.3537 2.3943
-5.2114 3.1688 2.3943
-5.3234 2.9797 2.3943
-5.4286 2.7868 2.3943
-5.5270 2.5903 2.3943
-5.6185 2.3904 2.3943
-5.7029 2.1873 2.3943
-5.7801 1.9813 2.3943
-5.8500 1.7727 2.3943
-5.9126 1.5617 2.3943
-5.9678 1.3484 2.3943
-6.0154 1.1333 2.3943
-6.0553 0.9165 2.3943
-6.0877 0.6984 2.3943
-6.1123 0.4791 2.3943
-6.1292 0.2590 2.3943
-6.1384 0.0384 2.3943
-6.1397 -0.1826 2.3943
-6.1332 -0.4036 2.3943
-6.1188 -0.6244 2.3943
-6.0967 -0.8447 2.3943
-6.0667 -1.0642 2.3943
-6.0290 -1.2826 2.3943
-5.9835 -1.4996 2.3943
-5.9303 -1.7151 2.3943
-5.8694 -1.9288 2.3943
-5.8010 -2.1402 2.3943
-5.7250 -2.3492 2.3943
-5.6415 -2.5556 2.3943
-5.5507 -2.7590 2.3943
-5.4527 -2.9591 2.3943
-5.3474 -3.1558 2.3943
-5.2352 -3.3488 2.3943
-5.1160 -3.5378 2.3943
-4.9901 -3.7225 2.3943
-4.8575 -3.9028 2.3943
-4.7185 -4.0783 2.3943
-4.5731 -4.2489 2.3943
-4.4216 -4.4143 2.3943
-4.2641 -4.5742 2.3943
-4.1009 -4.7286 2.3943
-3.9321 -4.8771 2.3943
-3.7579 -5.0195 2.3943
-3.5786 -5.1557 2.3943
-3.3944 -5.2854 2.3943
-3.2054 -5.4085 2.3943
-3.0120 -5.5248 2.3943
-2.8144 -5.6341 2.3943
-2.6128 -5.7363 2.3943
-2.4074 -5.8311 2.3943
-2.1987 -5.9186 2.3943
-1.9867 -5.9985 2.3943
-1.7719 -6.0707 2.3943
-1.5544 -6.1351 2.3943
-1.3346 -6.1917 2.3943
-1.1127 -6.2402 2.3943
-0.8890 -6.2807 2.3943
-0.6639 -6.3130 2.3943
-0.4377 -6.3371 2.3943
-0.2105 -6.3530 2.3943
0.0171 -6.3606 2.3943
0.2451 -6.3600 2.3943
0.4730 -6.3509 2.3943
0.7005 -6.3336 2.3943
0.9273 -6.3080 2.3943
1.1532 -6.2740 2.3943
1.3778 -6.2319 2.3943
1.6007 -6.1815 2.3943
1.8218 -6.1230 2.3943
2.0407 -6.0564 2.3943
2.2570 -5.9818 2.3943
2.4705 -5.8993 2.3943
2.6810 -5.8090 2.3943
2.8880 -5.7110 2.3943
3.0914 -5.6055 2.3943
3.2908 -5.4926 2.3943
3.4860 -5.3724 2.3943
3.6766 -5.2451 2.3943
3.8625 -5.1109 2.3943
4.0433 -4.9700 2.3943
4.2189 -4.8224 2.3943
4.3889 -4.6686 2.3943
4.5532 -4.5086 2.3943
4.7115 -4.3427 2.3943
4.8636 -4.1711 2.3943
5.0093 -3.9940 2.3943
5.1484 -3.8117 2.3943
5.2807 -3.6246 2.3943
5.4060 -3.4326 2.3943
5.5242 -3.2362 2.3943
5.6351 -3.0357 2.3943
5.7385 -2.8313 2.3943
5.8343 -2.6233 2.3943
5.9225 -2.4119 2.3943
6.0028 -2.1976 2.3943
6.0751 -1.9805 2.3943
6.1395 -1.7611 2.3943
6.1958 -1.5394 2.3943
6.2380 -1.3148 2.3921
6.2431 -1.0840 2.3788
6.2477 -0.8556 2.3686
6.2516 -0.6291 2.3614
6.2550 -0.4038 2.3571
6.2579 -0.1794 2.3557
6.2602 0.0449 2.3572
6.2620 0.2694 2.3615
6.2632 0.4947 2.3688
6.2640 0.7214 2.3790
6.2642 0.9499 2.3922
6.2270 1.1739 2.3943
6.1762 1.3952 2.3943
6.1175 1.6144 2.3943
6.0509 1.8311 2.3943
5.9766 2.0452 2.3943
5.8946 2.2563 2.3943
5.8050 2.4639 2.3943
5.7081 2.6684 2.3943
5.6040 2.8689 2.3943
5.4927 3.0654 2.3943
5.3746 3.2576 2.3943
5.2496 3.4452 2.3943
5.1181 3.6281 2.3943
4.9802 3.8060 2.3943
4.8361 3.9787 2.3943
4.6860 4.1459 2.3943
4.5301 4.3076 2.3943
4.3687 4.4634 2.3943
4.2018 4.6132 2.3943
4.0299 4.7568 2.3943
3.8531 4.8940 2.3943
3.6716 5.0249 2.3943
3.4856 5.1489 2.3943
3.2956 5.2662 2.3943
3.1016 5.3765 2.3943
2.9039 5.4798 2.3943
2.7028 5.5758 2.3943
2.4986 5.6646 2.3943
0.9131 2.2895 0.9540
0.8302 2.3208 0.9548
0.7462 2.3492 0.9556
0.6613 2.3745 0.9563
0.5755 2.3967 0.9570
0.4889 2.4158 0.9577
0.4017 2.4318 0.9584
0.3140 2.4446 0.9591
0.2259 2.4543 0.9597
0.1374 2.4607 0.9603
0.0488 2.4640 0.9609
-0.0399 2.4640 0.9615
-0.1285 2.4609 0.9620
-0.2170 2.4546 0.9625
-0.3051 2.4450 0.9630
-0.3929 2.4323 0.9635
-0.4802 2.4165 0.9639
-0.5668 2.3975 0.9643
-0.6527 2.3753 0.9646
-0.7377 2.3501 0.9650
-0.8218 2.3219 0.9653
-0.9048 2.2906 0.9656
-2.4458 5.5937 2.3943
-2.6448 5.5003 2.3943
-2.8404 5.4000 2.3943
-3.0322 5.2930 2.3943
-3.2202 5.1792 2.3943
-3.4039 5.0590 2.3943
-3.5834 4.9324 2.3943
-3.7582 4.7996 2.3943
-3.9283 4.6607 2.3943
-4.0933 4.5159 2.3943
-4.2532 4.3655 2.3943
-4.4077 4.2095 2.3943
-4.5566 4.0482 2.3943
-4.6998 3.8818 2.3943
-4.8370 3.7104 2.3943
-4.9681 3.5342 2.3943
-5.0930 3.3536 2.3943
-5.2115 3.1686 2.3943
-5.3234 2.9796 2.3943
-5.4287 2.7867 2.3943
-5.5271 2.5902 2.3943
-5.6185 2.3903 2.3943
-5.7029 2.1872 2.3943
-5.7802 1.9812 2.3943
-5.8501 1.7725 2.3943
-5.9127 1.5615 2.3943
-5.9678 1.3482 2.3943
-6.0154 1.1331 2.3943
-6.0554 0.9164 2.3943
-6.0877 0.6982 2.3943
-6.1123 0.4790 2.3943
-6.1292 0.2589 2.3943
-6.1384 0.0382 2.3943
-6.1397 -0.1827 2.3943
-6.1331 -0.4037 2.3943
-6.1188 -0.6246 2.3943
-6.0967 -0.8448 2.3943
-6.0667 -1.0643 2.3943
-6.0289 -1.2827 2.3943
-5.9834 -1.4998 2.3943
-5.9302 -1.7153 2.3943
-5.8694 -1.9289 2.3943
-5.8009 -2.1403 2.3943
-5.7249 -2.3493 2.3943
-5.6415 -2.5557 2.3943
-5.5507 -2.7591 2.3943
-5.4526 -2.9593 2.3943
-5.3474 -3.1560 2.3943
-5.2351 -3.3489 2.3943
-5.1159 -3.5379 2.3943
-4.9900 -3.7226 2.3943
-4.8574 -3.9029 2.3943
-4.7184 -4.0784 2.3943
-4.5730 -4.2490 2.3943
-4.4215 -4.4144 2.3943
-4.2640 -4.5743 2.3943
-4.1008 -4.7287 2.3943
-3.9320 -4.8772 2.3943
-3.7578 -5.0196 2.3943
-3.5785 -5.1558 2.3943
-3.3942 -5.2855 2.3943
-3.2053 -5.4086 2.3943
-3.0119 -5.5248 2.3943
-2.8142 -5.6342 2.3943
-2.6126 -5.7363 2.3943
-2.4073 -5.8312 2.3943
-2.1985 -5.9187 2.3943
-1.9866 -5.9985 2.3943
-1.7717 -6.0708 2.3943
-1.5542 -6.1352 2.3943
-1.3344 -6.1917 2.3943
-1.1125 -6.2402 2.3943
-0.8889 -6.2807 2.3943
-0.6638 -6.3130 2.3943
-0.4375 -6.3372 2.3943
-0.2104 -6.3530 2.3943
0.0168 -5.9507 2.3943
0.2300 -5.9498 2.3943
0.4432 -5.9412 2.3943
0.6559 -5.9248 2.3943
0.8681 -5.9006 2.3943
1.0793 -5.8687 2.3943
1.2893 -5.8291 2.3943
1.4978 -5.7818 2.3943
1.7045 -5.7270 2.3943
1.9091 -5.6646 2.3943
2.1114 -5.5947 2.3943
2.3110 -5.5174 2.3943
2.5077 -5.4329 2.3943
2.7013 -5.3412 2.3943
2.8914 -5.2425 2.3943
3.0778 -5.1368 2.3943
3.2603 -5.0244 2.3943
3.4385 -4.9053 2.3943
3.6123 -4.7798 2.3943
3.7814 -4.6480 2.3943
3.9455 -4.5100 2.3943
4.1045 -4.3662 2.3943
4.2581 -4.2166 2.3943
4.4061 -4.0614 2.3943
4.5484 -3.9010 2.3943
4.6846 -3.7355 2.3943
4.8147 -3.5651 2.3943
4.9385 -3.3901 2.3943
5.0557 -3.2106 2.3943
5.1663 -3.0271 2.3943
5.2700 -2.8396 2.3943
5.3668 -2.6485 2.3943
5.4565 -2.4540 2.3943
5.5391 -2.2565 2.3943
5.6143 -2.0561 2.3943
5.6821 -1.8531 2.3943
5.7424 -1.6479 2.3943
5.7952 -1.4407 2.3943
5.8403 -1.2318 2.3943
5.8778 -1.0215 2.3943
5.9076 -0.8100 2.3943
5.9296 -0.5976 2.3943
5.9438 -0.3847 2.3943
5.9503 -0.1716 2.3943
5.9490 0.0416 2.3943
5.9400 0.2545 2.3943
5.9232 0.4667 2.3943
5.8987 0.6781 2.3943
5.8666 0.8884 2.3943
5.8269 1.0972 2.3943
5.7797 1.3043 2.3943
5.7250 1.5095 2.3943
5.6629 1.7124 2.3943
5.5936 1.9128 2.3943
5.5171 2.1104 2.3943
5.4336 2.3050 2.3943
5.3432 2.4962 2.3943
5.2460 2.6841 2.3943
5.1421 2.8681 2.3943
5.0317 3.0481 2.3943
4.9150 3.2239 2.3943
4.7922 3.3953 2.3943
4.6633 3.5620 2.3943
4.5286 3.7239 2.3943
4.3883 3.8807 2.3943
4.2426 4.0322 2.3943
4.0916 4.1783 2.3943
3.9356 4.3186 2.3943
3.7748 4.4535 2.3943
3.6094 4.5823 2.3943
3.4396 4.7050 2.3943
3.2656 4.8215 2.3943
3.0877 4.9315 2.3943
2.9062 5.0351 2.3943
2.7212 5.1321 2.3943
2.5329 5.2223 2.3943
0.9315 2.1106 0.9524
0.8551 2.1427 0.9532
0.7775 2.1720 0.9539
0.6989 2.1985 0.9546
0.6194 2.2222 0.9553
0.5391 2.2430 0.9560
0.4580 2.2609 0.9567
0.3764 2.2758 0.9573
0.2943 2.2878 0.9579
0.2118 2.2968 0.9585
0.1290 2.3029 0.9591
0.0461 2.3059 0.9596
-0.0369 2.3060 0.9602
-0.1199 2.3030 0.9607
-0.2027 2.2971 0.9612
-0.2852 2.2882 0.9616
-0.3673 2.2763 0.9620
-0.4490 2.2614 0.9624
-0.5301 2.2436 0.9628
-0.6105 2.2229 0.9631
-0.6901 2.1993 0.9635
-0.7688 2.1729 0.9637
-0.8464 2.1436 0.9640
-2.2920 5.2434 2.3943
-2.4786 5.1559 2.3943
-2.6620 5.0620 2.3943
-2.8419 4.9617 2.3943
-3.0181 4.8551 2.3943
-3.1905 4.7424 2.3943
-3.3588 4.6238 2.3943
-3.5227 4.4993 2.3943
-3.6822 4.3691 2.3943
-3.8370 4.2334 2.3943
-3.9869 4.0923 2.3943
-4.1317 3.9461 2.3943
-4.2713 3.7948 2.3943
-4.4056 3.6388 2.3943
-4.5342 3.4780 2.3943
-4.6571 3.3129 2.3943
-4.7742 3.1435 2.3943
-4.8852 2.9701 2.3943
-4.9901 2.7928 2.3943
-5.0887 2.6119 2.3943
-5.1809 2.4276 2.3943
-5.2665 2.2402 2.3943
-5.3456 2.0497 2.3943
-5.4178 1.8566 2.3943
-5.4833 1.6609 2.3943
-5.5418 1.4631 2.3943
-5.5934 1.2631 2.3943
-5.6379 1.0614 2.3943
-5.6752 0.8582 2.3943
-5.7053 0.6537 2.3943
-5.7283 0.4482 2.3943
-5.7439 0.2419 2.3943
-5.7523 0.0350 2.3943
-5.7533 -0.1720 2.3943
-5.7470 -0.3792 2.3943
-5.7333 -0.5860 2.3943
-5.7124 -0.7924 2.3943
-5.6841 -0.9981 2.3943
-5.6485 -1.2027 2.3943
-5.6056 -1.4061 2.3943
-5.5555 -1.6079 2.3943
-5.4983 -1.8080 2.3943
-5.4339 -2.0060 2.3943
-5.3624 -2.2017 2.3943
-5.2840 -2.3949 2.3943
-5.1987 -2.5853 2.3943
-5.1066 -2.7727 2.3943
-5.0078 -2.9568 2.3943
-4.9024 -3.1374 2.3943
-4.7906 -3.3143 2.3943
-4.6724 -3.4871 2.3943
-4.5480 -3.6557 2.3943
-4.4176 -3.8200 2.3943
-4.2813 -3.9795 2.3943
-4.1392 -4.1341 2.3943
-3.9916 -4.2837 2.3943
-3.8385 -4.4280 2.3943
-3.6803 -4.5668 2.3943
-3.5171 -4.6999 2.3943
-3.3491 -4.8271 2.3943
-3.1764 -4.9483 2.3943
-2.9994 -5.0633 2.3943
-2.8182 -5.1719 2.3943
-2.6331 -5.2740 2.3943
-2.4443 -5.3693 2.3943
-2.2520 -5.4579 2.3943
-2.0566 -5.5395 2.3943
-1.8582 -5.6140 2.3943
-1.6570 -5.6813 2.3943
-1.4535 -5.7413 2.3943
-1.2477 -5.7940 2.3943
-1.0401 -5.8391 2.3943
-0.8308 -5.8768 2.3943
-0.6202 -5.9068 2.3943
-0.4085 -5.9291 2.3943
-0.1960 -5.9438 2.3943
0.0169 -5.9507 2.3943
0.2302 -5.9498 2.3943
0.4433 -5.9412 2.3943
0.6561 -5.9248 2.3943
0.8682 -5.9006 2.3943
1.0794 -5.8687 2.3943
1.2894 -5.8291 2.3943
1.4979 -5.7818 2.3943
1.7046 -5.7269 2.3943
1.9092 -5.6645 2.3943
2.1115 -5.5946 2.3943
2.3111 -5.5174 2.3943
2.5079 -5.4328 2.3943
2.7014 -5.3411 2.3943
2.8915 -5.2424 2.3943
3.0780 -5.1367 2.3943
3.2604 -5.0243 2.3943
3.4386 -4.9052 2.3943
3.6124 -4.7797 2.3943
3.7815 -4.6479 2.3943
3.9456 -4.5099 2.3943
4.1046 -4.3661 2.3943
4.2582 -4.2164 2.3943
4.4062 -4.0613 2.3943
4.5485 -3.9010 2.3943
4.6847 -3.7354 2.3943
4.8148 -3.5650 2.3943
4.9386 -3.3899 2.3943
5.0558 -3.2105 2.3943
5.1663 -3.0269 2.3943
5.2701 -2.8395 2.3943
5.3669 -2.6484 2.3943
5.4566 -2.4539 2.3943
5.5391 -2.2564 2.3943
5.6143 -2.0560 2.3943
5.6821 -1.8530 2.3943
5.7424 -1.6478 2.3943
5.7952 -1.4406 2.3943
5.8404 -1.2317 2.3943
5.8778 -1.0213 2.3943
5.9076 -0.8098 2.3943
5.9296 -0.5975 2.3943
5.9438 -0.3846 2.3943
5.9503 -0.1714 2.3943
5.9490 0.0417 2.3943
5.9400 0.2546 2.3943
5.9232 0.4669 2.3943
5.8987 0.6783 2.3943
5.8666 0.8885 2.3943
5.8269 1.0973 2.3943
5.7796 1.3046 2.3943
5.7249 1.5096 2.3943
5.6629 1.7125 2.3943
5.5936 1.9129 2.3943
5.5171 2.1105 2.3943
5.4336 2.3051 2.3943
5.3431 2.4964 2.3943
5.2459 2.6842 2.3943
5.1420 2.8682 2.3943
5.0317 3.0482 2.3943
4.9150 3.2241 2.3943
4.7921 3.3954 2.3943
4.6632 3.5621 2.3943
4.5286 3.7240 2.3943
4.3882 3.8808 2.3943
4.2425 4.0323 2.3943
4.0915 4.1784 2.3943
3.9355 4.3188 2.3943
3.7747 4.4537 2.3943
3.6093 4.5823 2.3943
3.4395 4.7050 2.3943
3.2655 4.8215 2.3943
3.0876 4.9316 2.3943
2.9061 5.0352 2.3943
2.7210 5.1322 2.3943
2.5328 5.2224 2.3943
0.9315 2.1106 0.9524
0.8550 2.1427 0.9532
0.7774 2.1720 0.9539
0.6988 2.1986 0.9546
0.6193 2.2222 0.9553
0.5390 2.2430 0.9560
0.4580 2.2609 0.9567
0.3764 2.2758 0.9573
0.2943 2.2878 0.9579
0.2118 2.2968 0.9585
0.1290 2.3029 0.9591
0.0460 2.3059 0.9596
-0.0370 2.3060 0.9602
-0.1199 2.3030 0.9607
-0.2027 2.2971 0.9612
-0.2852 2.2882 0.9616
-0.3674 2.2763 0.9620
-0.4491 2.2614 0.9624
-0.5302 2.2436 0.9628
-0.6105 2.2229 0.9631
-0.6901 2.1993 0.9635
-0.7688 2.1729 0.9637
-0.8465 2.1436 0.9640
-2.2921 5.2433 2.3943
-2.4787 5.1559 2.3943
-2.6621 5.0619 2.3943
-2.8420 4.9616 2.3943
-3.0183 4.8550 2.3943
-3.1906 4.7423 2.3943
-3.3589 4.6237 2.3943
-3.5228 4.4992 2.3943
-3.6823 4.3690 2.3943
-3.8371 4.2333 2.3943
-3.9870 4.0922 2.3943
-4.1318 3.9460 2.3943
-4.2714 3.7947 2.3943
-4.4056 3.6387 2.3943
-4.5343 3.4779 2.3943
-4.6572 3.3128 2.3943
-4.7743 3.1434 2.3943
-4.8853 2.9699 2.3943
-4.9902 2.7927 2.3943
-5.0888 2.6118 2.3943
-5.1809 2.4275 2.3943
-5.2666 2.2400 2.3943
-5.3456 2.0496 2.3943
-5.4179 1.8564 2.3943
-5.4833 1.6608 2.3943
-5.5419 1.4629 2.3943
-5.5934 1.2630 2.3943
-5.6379 1.0613 2.3943
-5.6752 0.8581 2.3943
-5.7054 0.6536 2.3943
-5.7283 0.4481 2.3943
-5.7439 0.2418 2.3943
-5.7523 0.0349 2.3943
-5.7533 -0.1722 2.3943
-5.7470 -0.3793 2.3943
-5.7333 -0.5862 2.3943
-5.7123 -0.7926 2.3943
-5.6840 -0.9982 2.3943
-5.6485 -1.2029 2.3943
-5.6056 -1.4062 2.3943
-5.5555 -1.6080 2.3943
-5.4982 -1.8081 2.3943
-5.4338 -2.0061 2.3943
-5.3624 -2.2019 2.3943
-5.2840 -2.3950 2.3943
-5.1987 -2.5854 2.3943
-5.1066 -2.7728 2.3943
-5.0078 -2.9569 2.3943
-4.9024 -3.1375 2.3943
-4.7905 -3.3144 2.3943
-4.6723 -3.4872 2.3943
-4.5480 -3.6559 2.3943
-4.4175 -3.8201 2.3943
-4.2812 -3.9796 2.3943
-4.1391 -4.1343 2.3943
-3.9915 -4.2838 2.3943
-3.8384 -4.4281 2.3943
-3.6802 -4.5669 2.3943
-3.5170 -4.7000 2.3943
-3.3489 -4.8272 2.3943
-3.1763 -4.9484 2.3943
-2.9993 -5.0634 2.3943
-2.8181 -5.1720 2.3943
-2.6330 -5.2740 2.3943
-2.4442 -5.3694 2.3943
-2.2519 -5.4579 2.3943
-2.0565 -5.5395 2.3943
-1.8580 -5.6140 2.3943
-1.6569 -5.6813 2.3943
-1.4533 -5.7414 2.3943
-1.2476 -5.7940 2.3943
-1.0400 -5.8392 2.3943
-0.8307 -5.8768 2.3943
-0.6201 -5.9068 2.3943
-0.4084 -5.9291 2.3943
-0.1959 -5.9438 2.3943
0.0166 -5.5841 2.3943
0.2167 -5.5831 2.3943
0.4166 -5.5749 2.3943
0.6163 -5.5593 2.3943
0.8153 -5.5365 2.3943
1.0134 -5.5064 2.3943
1.2104 -5.4691 2.3943
1.4059 -5.4247 2.3943
1.5998 -5.3731 2.3943
1.7917 -5.3144 2.3943
1.9814 -5.2488 2.3943
2.1686 -5.1762 2.3943
2.3531 -5.0968 2.3943
2.5346 -5.0108 2.3943
2.7129 -4.9181 2.3943
2.8877 -4.8189 2.3943
3.0588 -4.7134 2.3943
3.2260 -4.6017 2.3943
3.3889 -4.4840 2.3943
3.5475 -4.3603 2.3943
3.7014 -4.2309 2.3943
3.8505 -4.0959 2.3943
3.9946 -3.9556 2.3943
4.1334 -3.8101 2.3943
4.2669 -3.6597 2.3943
4.3947 -3.5045 2.3943
4.5167 -3.3446 2.3943
4.6328 -3.1805 2.3943
4.7428 -3.0122 2.3943
4.8466 -2.8401 2.3943
4.9439 -2.6643 2.3943
5.0348 -2.4851 2.3943
5.1190 -2.3027 2.3943
5.1965 -2.1175 2.3943
5.2672 -1.9295 2.3943
5.3309 -1.7392 2.3943
5.3876 -1.5468 2.3943
5.4372 -1.3524 2.3943
5.4797 -1.1564 2.3943
5.5150 -0.9591 2.3943
5.5431 -0.7607 2.3943
5.5639 -0.5616 2.3943
5.5774 -0.3618 2.3943
5.5837 -0.1618 2.3943
5.5827 0.0382 2.3943
5.5744 0.2379 2.3943
5.5588 0.4371 2.3943
5.5360 0.6355 2.3943
5.5061 0.8328 2.3943
5.4690 1.0288 2.3943
5.4249 1.2232 2.3943
5.3738 1.4158 2.3943
5.3158 1.6063 2.3943
5.2509 1.7944 2.3943
5.1794 1.9800 2.3943
5.1012 2.1627 2.3943
5.0165 2.3424 2.3943
4.9255 2.5188 2.3943
4.8282 2.6917 2.3943
4.7248 2.8608 2.3943
4.6154 3.0260 2.3943
4.5003 3.1870 2.3943
4.3795 3.3437 2.3943
4.2532 3.4958 2.3943
4.1217 3.6432 2.3943
3.9850 3.7857 2.3943
3.8434 3.9232 2.3943
3.6970 4.0553 2.3943
3.5462 4.1819 2.3943
3.3909 4.3031 2.3943
3.2316 4.4185 2.3943
3.0683 4.5280 2.3943
2.9014 4.6317 2.3943
2.7309 4.7292 2.3943
2.5572 4.8205 2.3943
2.3805 4.9054 2.3943
0.8749 1.9812 0.9518
0.8031 2.0113 0.9525
0.7303 2.0388 0.9531
0.6565 2.0637 0.9538
0.5818 2.0859 0.9545
0.5064 2.1054 0.9551
0.4304 2.1222 0.9557
0.3537 2.1362 0.9563
0.2766 2.1475 0.9569
0.1992 2.1559 0.9575
0.1215 2.1616 0.9580
0.0436 2.1644 0.9585
-0.0343 2.1645 0.9590
-0.1122 2.1617 0.9595
-0.1899 2.1561 0.9599
-0.2674 2.1478 0.9604
-0.3445 2.1366 0.9607
-0.4212 2.1227 0.9611
-0.4973 2.1060 0.9615
-0.5728 2.0865 0.9618
-0.6475 2.0644 0.9621
-0.7214 2.0396 0.9624
-0.7943 2.0121 0.9626
-0.8662 1.9820 0.9628
-2.3295 4.8467 2.3943
-2.5019 4.7584 2.3943
-2.6711 4.6642 2.3943
