ply
format ascii 1.0
element vertex 2178
property float32 x
property float32 y
property float32 z
end_header
5.5698 -6.3837 2.3887
5.7945 -6.1789 2.3887
6.0117 -5.9662 2.3887
6.2211 -5.7458 2.3887
6.4224 -5.5181 2.3887
6.6152 -5.2833 2.3887
6.7996 -5.0417 2.3887
6.9750 -4.7937 2.3887
7.1414 -4.5395 2.3887
7.2986 -4.2796 2.3887
7.4462 -4.0143 2.3887
7.5842 -3.7438 2.3887
7.7123 -3.4686 2.3887
7.8304 -3.1890 2.3887
7.9385 -2.9054 2.3887
8.0361 -2.6181 2.3887
8.1234 -2.3276 2.3887
8.2002 -2.0341 2.3887
8.2664 -1.7382 2.3887
8.3219 -1.4401 2.3887
8.3667 -1.1403 2.3887
8.4006 -0.8390 2.3887
8.4237 -0.5369 2.3887
8.4359 -0.2341 2.3887
8.4373 0.0688 2.3887
8.4278 0.3716 2.3887
8.4074 0.6738 2.3887
8.3762 0.9749 2.3887
8.3342 1.2747 2.3887
8.2815 1.5728 2.3887
8.2182 1.8687 2.3887
8.1443 2.1622 2.3887
8.0599 2.4527 2.3887
7.9652 2.7400 2.3887
7.8603 3.0236 2.3887
7.7453 3.3033 2.3887
7.6204 3.5786 2.3887
7.4857 3.8492 2.3887
7.3415 4.1148 2.3887
7.1878 4.3750 2.3887
7.0250 4.6295 2.3887
6.8531 4.8780 2.3887
6.6726 5.1201 2.3887
6.4835 5.3555 2.3887
6.2861 5.5841 2.3887
6.0807 5.8053 2.3887
5.8675 6.0191 2.3887
5.6469 6.2251 2.3887
5.4190 6.4230 2.3887
5.1843 6.6127 2.3887
4.9429 6.7938 2.3887
4.6953 6.9661 2.3887
4.4416 7.1295 2.3887
4.1824 7.2837 2.3887
3.9178 7.4285 2.3887
3.6482 7.5637 2.3887
3.3740 7.6892 2.3887
3.0954 7.8048 2.3887
2.8130 7.9104 2.3887
2.5270 8.0059 2.3887
0.8921 3.2257 0.9523
0.7758 3.2561 0.9525
0.6585 3.2822 0.9526
0.5402 3.3041 0.9528
0.4213 3.3217 0.9529
0.3018 3.3349 0.9530
0.1818 3.3439 0.9531
0.0616 3.3485 0.9531
-0.0587 3.3487 0.9532
-0.1789 3.3446 0.9532
-0.2989 3.3362 0.9533
-0.4185 3.3234 0.9533
-0.5376 3.3063 0.9533
-0.6560 3.2849 0.9532
-0.7735 3.2592 0.9532
-0.8900 3.2293 0.9531
-2.5198 8.0081 2.3887
-2.8059 7.9129 2.3887
-3.0885 7.8076 2.3887
-3.3671 7.6922 2.3887
-3.6414 7.5669 2.3887
-3.9111 7.4319 2.3887
-4.1758 7.2873 2.3887
-4.4353 7.1334 2.3887
-4.6890 6.9703 2.3887
-4.9368 6.7981 2.3887
-5.1784 6.6172 2.3887
-5.4132 6.4278 2.3887
-5.6413 6.2301 2.3887
-5.8621 6.0243 2.3887
-6.0754 5.8107 2.3887
-6.2810 5.5896 2.3887
-6.4786 5.3614 2.3887
-6.6679 5.1260 2.3887
-6.8487 4.8840 2.3887
-7.0208 4.6357 2.3887
-7.1838 4.3813 2.3887
-7.3377 4.1213 2.3887
-7.4822 3.8558 2.3887
-7.6171 3.5853 2.3887
-7.7423 3.3101 2.3887
-7.8575 3.0305 2.3887
-7.9627 2.7470 2.3887
-8.0576 2.4598 2.3887
-8.1422 2.1694 2.3887
-8.2164 1.8760 2.3887
-8.2800 1.5801 2.3887
-8.3330 1.2822 2.3887
-8.3752 0.9824 2.3887
-8.4067 0.6813 2.3887
-8.4273 0.3790 2.3887
-8.4371 0.0763 2.3887
-8.4360 -0.2267 2.3887
-8.4241 -0.5294 2.3887
-8.4012 -0.8316 2.3887
-8.3676 -1.1328 2.3887
-8.3231 -1.4327 2.3887
-8.2679 -1.7308 2.3887
-8.2019 -2.0269 2.3887
-8.1254 -2.3204 2.3887
-8.0384 -2.6110 2.3887
-7.9409 -2.8983 2.3887
-7.8332 -3.1820 2.3887
-7.7153 -3.4617 2.3887
-7.5874 -3.7370 2.3887
-7.4497 -4.0076 2.3887
-7.3023 -4.2731 2.3887
-7.1454 -4.5332 2.3887
-6.9792 -4.7874 2.3887
-6.8040 -5.0356 2.3887
-6.6199 -5.2773 2.3887
-6.4272 -5.5123 2.3887
-6.2261 -5.7402 2.3887
-6.0170 -5.9608 2.3887
-5.8000 -6.1737 2.3887
-5.5754 -6.3787 2.3887
-5.3436 -6.5755 2.3887
-5.1048 -6.7638 2.3887
-4.8593 -6.9434 2.3887
-4.6075 -7.1141 2.3887
-4.3497 -7.2756 2.3887
-4.0863 -7.4277 2.3887
-3.8174 -7.5702 2.3887
-3.5436 -7.7029 2.3887
-3.2652 -7.8257 2.3887
-2.9825 -7.9384 2.3887
-2.6959 -8.0409 2.3887
-2.4058 -8.1329 2.3887
-2.1125 -8.2144 2.3887
-1.8165 -8.2853 2.3887
-1.5181 -8.3454 2.3887
-1.2177 -8.3948 2.3887
-0.9157 -8.4333 2.3887
-0.6125 -8.4609 2.3887
-0.3086 -8.4775 2.3887
-0.0042 -8.4831 2.3887
0.3002 -8.4778 2.3887
0.6042 -8.4615 2.3887
0.9074 -8.4342 2.3887
1.2094 -8.3960 2.3887
1.5099 -8.3469 2.3887
1.8083 -8.2871 2.3887
2.1044 -8.2165 2.3887
2.3978 -8.1353 2.3887
2.6880 -8.0435 2.3887
2.9747 -7.9414 2.3887
3.2575 -7.8290 2.3887
3.5361 -7.7065 2.3887
3.8100 -7.5740 2.3887
4.0789 -7.4317 2.3887
4.3426 -7.2799 2.3887
4.6006 -7.1187 2.3887
4.8525 -6.9482 2.3887
5.0982 -6.7689 2.3887
5.3371 -6.5808 2.3887
5.5692 -6.3843 2.3887
5.7939 -6.1795 2.3887
6.0111 -5.9667 2.3887
6.2205 -5.7464 2.3887
6.4218 -5.5187 2.3887
6.6147 -5.2839 2.3887
6.7991 -5.0424 2.3887
6.9746 -4.7944 2.3887
7.1410 -4.5402 2.3887
7.2981 -4.2803 2.3887
7.4458 -4.0150 2.3887
7.5838 -3.7445 2.3887
7.7120 -3.4693 2.3887
7.8302 -3.1898 2.3887
7.9382 -2.9062 2.3887
8.0359 -2.6189 2.3887
8.1232 -2.3284 2.3887
8.2001 -2.0349 2.3887
8.2663 -1.7390 2.3887
8.3218 -1.4409 2.3887
8.3666 -1.1411 2.3887
8.4005 -0.8399 2.3887
8.4237 -0.5377 2.3887
8.4359 -0.2349 2.3887
8.4373 0.0680 2.3887
8.4278 0.3708 2.3887
8.4074 0.6730 2.3887
8.3763 0.9741 2.3887
8.3343 1.2739 2.3887
8.2817 1.5720 2.3887
8.2184 1.8680 2.3887
8.1445 2.1614 2.3887
8.0601 2.4519 2.3887
7.9655 2.7392 2.3887
7.8606 3.0229 2.3887
7.7456 3.3025 2.3887
7.6207 3.5778 2.3887
7.4861 3.8485 2.3887
7.3419 4.1141 2.3887
7.1882 4.3743 2.3887
7.0254 4.6288 2.3887
6.8536 4.8773 2.3887
6.6730 5.1194 2.3887
6.4840 5.3549 2.3887
6.2866 5.5835 2.3887
6.0812 5.8048 2.3887
5.8681 6.0186 2.3887
5.6475 6.2246 2.3887
5.4196 6.4225 2.3887
5.1849 6.6122 2.3887
4.9436 6.7933 2.3887
4.6959 6.9657 2.3887
4.4423 7.1291 2.3887
4.1831 7.2833 2.3887
3.9185 7.4281 2.3887
3.6489 7.5634 2.3887
3.3747 7.6889 2.3887
3.0962 7.8045 2.3887
2.8137 7.9102 2.3887
2.5277 8.0056 2.3887
0.8925 3.2256 0.9523
0.7761 3.2560 0.9525
0.6588 3.2822 0.9526
0.5406 3.3040 0.9528
0.4216 3.3216 0.9529
0.3021 3.3349 0.9530
0.1821 3.3439 0.9531
0.0620 3.3485 0.9531
-0.0583 3.3487 0.9532
-0.1786 3.3446 0.9532
-0.2986 3.3362 0.9533
-0.4182 3.3234 0.9533
-0.5373 3.3063 0.9533
-0.6557 3.2849 0.9532
-0.7732 3.2593 0.9532
-0.8897 3.2294 0.9531
-2.5191 8.0083 2.3887
-2.8052 7.9132 2.3887
-3.0877 7.8078 2.3887
-3.3664 7.6925 2.3887
-3.6407 7.5673 2.3887
-3.9103 7.4319 2.3887
-4.1751 7.2877 2.3887
-4.4346 7.1338 2.3887
-4.6884 6.9707 2.3887
-4.9362 6.7986 2.3887
-5.1777 6.6177 2.3887
-5.4126 6.4283 2.3887
-5.6407 6.2306 2.3887
-5.8615 6.0248 2.3887
-6.0749 5.8113 2.3887
-6.2805 5.5902 2.3887
-6.4781 5.3619 2.3887
-6.6674 5.1266 2.3887
-6.8483 4.8846 2.3887
-7.0203 4.6364 2.3887
-7.1834 4.3820 2.3887
-7.3373 4.1220 2.3887
-7.4818 3.8565 2.3887
-7.6168 3.5860 2.3887
-7.7420 3.3108 2.3887
-7.8572 3.0313 2.3887
-7.9624 2.7478 2.3887
-8.0574 2.4606 2.3887
-8.1420 2.1701 2.3887
-8.2162 1.8768 2.3887
-8.2798 1.5809 2.3887
-8.3328 1.2830 2.3887
-8.3751 0.9831 2.3887
-8.4066 0.6820 2.3887
-8.4273 0.3799 2.3887
-8.4371 0.0772 2.3887
-8.4360 -0.2258 2.3887
-8.4241 -0.5285 2.3887
-8.4013 -0.8307 2.3887
-8.3677 -1.1320 2.3887
-8.3232 -1.4319 2.3887
-8.2680 -1.7300 2.3887
-8.2021 -2.0261 2.3887
-8.1256 -2.3196 2.3887
-8.0386 -2.6102 2.3887
-7.9412 -2.8976 2.3887
-7.8335 -3.1813 2.3887
-7.7156 -3.4610 2.3887
-7.5878 -3.7363 2.3887
-7.4501 -4.0069 2.3887
-7.3027 -4.2724 2.3887
-7.1458 -4.5325 2.3887
-6.9797 -4.7868 2.3887
-6.8044 -5.0350 2.3887
-6.6204 -5.2767 2.3887
-6.4277 -5.5117 2.3887
-6.2267 -5.7397 2.3887
-6.0175 -5.9602 2.3887
-5.8005 -6.1732 2.3887
-5.5760 -6.3782 2.3887
-5.3442 -6.5750 2.3887
-5.1054 -6.7633 2.3887
-4.8600 -6.9429 2.3887
-4.6082 -7.1136 2.3887
-4.3504 -7.2751 2.3887
-4.0870 -7.4273 2.3887
-3.8181 -7.5698 2.3887
-3.5444 -7.7026 2.3887
-3.2659 -7.8254 2.3887
-2.9833 -7.9382 2.3887
-2.6967 -8.0406 2.3887
-2.4066 -8.1327 2.3887
-2.1133 -8.2142 2.3887
-1.8173 -8.2851 2.3887
-1.5189 -8.3453 2.3887
-1.2185 -8.3947 2.3887
-0.9165 -8.4332 2.3887
-0.6134 -8.4608 2.3887
-0.3094 -8.4775 2.3887
-0.0031 -7.8050 2.3887
0.2769 -7.8001 2.3887
0.5566 -7.7850 2.3887
0.8356 -7.7599 2.3887
1.1135 -7.7248 2.3887
1.3899 -7.6796 2.3887
1.6645 -7.6245 2.3887
1.9369 -7.5596 2.3887
2.2068 -7.4849 2.3887
2.4738 -7.4005 2.3887
2.7376 -7.3065 2.3887
2.9978 -7.2031 2.3887
3.2541 -7.0904 2.3887
3.5061 -6.9685 2.3887
3.7536 -6.8377 2.3887
3.9962 -6.6980 2.3887
4.2335 -6.5496 2.3887
4.4654 -6.3929 2.3887
4.6914 -6.2279 2.3887
4.9113 -6.0549 2.3887
5.1248 -5.8740 2.3887
5.3317 -5.6857 2.3887
5.5316 -5.4900 2.3887
5.7243 -5.2873 2.3887
5.9096 -5.0778 2.3887
6.0871 -4.8618 2.3887
6.2568 -4.6395 2.3887
6.4183 -4.4114 2.3887
6.5715 -4.1776 2.3887
6.7162 -3.9384 2.3887
6.8521 -3.6943 2.3887
6.9792 -3.4454 2.3887
7.0972 -3.1922 2.3887
7.2060 -2.9350 2.3887
7.3055 -2.6740 2.3887
7.3955 -2.4097 2.3887
7.4760 -2.1423 2.3887
7.5467 -1.8723 2.3887
7.6077 -1.6000 2.3887
7.6589 -1.3256 2.3887
7.7002 -1.0497 2.3887
7.7315 -0.7725 2.3887
7.7529 -0.4944 2.3887
7.7643 -0.2157 2.3887
7.7656 0.0631 2.3887
7.7570 0.3417 2.3887
7.7383 0.6199 2.3887
7.7097 0.8971 2.3887
7.6712 1.1731 2.3887
7.6228 1.4474 2.3887
7.5646 1.7199 2.3887
7.4967 1.9900 2.3887
7.4191 2.2574 2.3887
7.3321 2.5219 2.3887
7.2356 2.7830 2.3887
7.1298 3.0405 2.3887
7.0149 3.2940 2.3887
6.8910 3.5431 2.3887
6.7583 3.7877 2.3887
6.6170 4.0272 2.3887
6.4671 4.2616 2.3887
6.3090 4.4904 2.3887
6.1428 4.7133 2.3887
5.9688 4.9302 2.3887
5.7872 5.1406 2.3887
5.5981 5.3444 2.3887
5.4019 5.5412 2.3887
5.1988 5.7310 2.3887
4.9891 5.9132 2.3887
4.7730 6.0879 2.3887
4.5509 6.2547 2.3887
4.3229 6.4134 2.3887
4.0894 6.5639 2.3887
3.8507 6.7058 2.3887
3.6071 6.8392 2.3887
3.3589 6.9638 2.3887
3.1065 7.0794 2.3887
2.8500 7.1859 2.3887
2.5900 7.2831 2.3887
0.9266 2.9354 0.9513
0.8207 2.9672 0.9514
0.7137 2.9951 0.9516
0.6057 3.0191 0.9517
0.4969 3.0392 0.9518
0.3875 3.0553 0.9520
0.2776 3.0675 0.9520
0.1672 3.0757 0.9521
0.0567 3.0799 0.9522
-0.0539 3.0801 0.9522
-0.1645 3.0763 0.9523
-0.2749 3.0686 0.9523
-0.3849 3.0568 0.9523
-0.4945 3.0410 0.9523
-0.6034 3.0213 0.9523
-0.7115 2.9977 0.9522
-0.8187 2.9702 0.9522
-2.3201 7.3731 2.3887
-2.5835 7.2854 2.3887
-2.8436 7.1884 2.3887
-3.1002 7.0821 2.3887
-3.3527 6.9667 2.3887
-3.6010 6.8424 2.3887
-3.8447 6.7092 2.3887
-4.0836 6.5674 2.3887
-4.3171 6.4172 2.3887
-4.5453 6.2587 2.3887
-4.7676 6.0921 2.3887
-4.9838 5.9176 2.3887
-5.1937 5.7355 2.3887
-5.3970 5.5460 2.3887
-5.5933 5.3493 2.3887
-5.7825 5.1457 2.3887
-5.9644 4.9354 2.3887
-6.1386 4.7188 2.3887
-6.3050 4.4959 2.3887
-6.4633 4.2673 2.3887
-6.6133 4.0331 2.3887
-6.7549 3.7936 2.3887
-6.8878 3.5492 2.3887
-7.0119 3.3002 2.3887
-7.1271 3.0466 2.3887
-7.2330 2.7894 2.3887
-7.3297 2.5284 2.3887
-7.4170 2.2640 2.3887
-7.4948 1.9966 2.3887
-7.5630 1.7266 2.3887
-7.6215 1.4526 2.3887
-7.6701 1.1799 2.3887
-7.7088 0.9039 2.3887
-7.7377 0.6268 2.3887
-7.7566 0.3486 2.3887
-7.7655 0.0700 2.3887
-7.7644 -0.2088 2.3887
-7.7533 -0.4875 2.3887
-7.7321 -0.7656 2.3887
-7.7010 -1.0428 2.3887
-7.6600 -1.3188 2.3887
-7.6090 -1.5927 2.3887
-7.5483 -1.8658 2.3887
-7.4778 -2.1357 2.3887
-7.3976 -2.4031 2.3887
-7.3078 -2.6675 2.3887
-7.2085 -2.9285 2.3887
-7.1000 -3.1859 2.3887
-6.9822 -3.4392 2.3887
-6.8553 -3.6882 2.3887
-6.7196 -3.9324 2.3887
-6.5752 -4.1717 2.3887
-6.4222 -4.4056 2.3887
-6.2609 -4.6339 2.3887
-6.0914 -4.8563 2.3887
-5.9140 -5.0725 2.3887
-5.7290 -5.2821 2.3887
-5.5364 -5.4850 2.3887
-5.3367 -5.6809 2.3887
-5.1300 -5.8694 2.3887
-4.9167 -6.0504 2.3887
-4.6969 -6.2237 2.3887
-4.4710 -6.3889 2.3887
-4.2393 -6.5458 2.3887
-4.0021 -6.6944 2.3887
-3.7597 -6.8343 2.3887
-3.5123 -6.9654 2.3887
-3.2604 -7.0875 2.3887
-3.0042 -7.2004 2.3887
-2.7441 -7.3040 2.3887
-2.4804 -7.3982 2.3887
-2.2134 -7.4829 2.3887
-1.9436 -7.5578 2.3887
-1.6712 -7.6230 2.3887
-1.3967 -7.6784 2.3887
-1.1203 -7.7238 2.3887
-0.8425 -7.7592 2.3887
-0.5636 -7.7845 2.3887
-0.2839 -7.7998 2.3887
-0.0038 -7.8050 2.3887
0.2762 -7.8001 2.3887
0.5559 -7.7851 2.3887
0.8348 -7.7600 2.3887
1.1127 -7.7249 2.3887
1.3891 -7.6798 2.3887
1.6637 -7.6247 2.3887
1.9362 -7.5598 2.3887
2.2061 -7.4851 2.3887
2.4731 -7.4007 2.3887
2.7369 -7.3068 2.3887
2.9971 -7.2034 2.3887
3.2534 -7.0907 2.3887
3.5054 -6.9689 2.3887
3.7529 -6.8380 2.3887
3.9955 -6.6984 2.3887
4.2329 -6.5500 2.3887
4.4648 -6.3933 2.3887
4.6908 -6.2283 2.3887
4.9107 -6.0553 2.3887
5.1243 -5.8745 2.3887
5.3311 -5.6862 2.3887
5.5311 -5.4905 2.3887
5.7238 -5.2878 2.3887
5.9091 -5.0784 2.3887
6.0867 -4.8623 2.3887
6.2564 -4.6401 2.3887
6.4179 -4.4120 2.3887
6.5711 -4.1782 2.3887
6.7158 -3.9391 2.3887
6.8518 -3.6949 2.3887
6.9789 -3.4461 2.3887
7.0969 -3.1929 2.3887
7.2057 -2.9357 2.3887
7.3052 -2.6747 2.3887
7.3953 -2.4104 2.3887
7.4757 -2.1431 2.3887
7.5466 -1.8730 2.3887
7.6076 -1.6007 2.3887
7.6588 -1.3264 2.3887
7.7001 -1.0504 2.3887
7.7315 -0.7732 2.3887
7.7529 -0.4951 2.3887
7.7643 -0.2165 2.3887
7.7656 0.0623 2.3887
7.7570 0.3410 2.3887
7.7384 0.6191 2.3887
7.7098 0.8963 2.3887
7.6713 1.1723 2.3887
7.6229 1.4467 2.3887
7.5648 1.7192 2.3887
7.4969 1.9893 2.3887
7.4194 2.2567 2.3887
7.3323 2.5212 2.3887
7.2359 2.7823 2.3887
7.1301 3.0398 2.3887
7.0153 3.2933 2.3887
6.8914 3.5425 2.3887
6.7587 3.7870 2.3887
6.6174 4.0266 2.3887
6.4675 4.2610 2.3887
6.3095 4.4898 2.3887
6.1433 4.7127 2.3887
5.9693 4.9296 2.3887
5.7877 5.1401 2.3887
5.5986 5.3439 2.3887
5.4025 5.5407 2.3887
5.1994 5.7304 2.3887
4.9897 5.9127 2.3887
4.7736 6.0874 2.3887
4.5515 6.2542 2.3887
4.3235 6.4130 2.3887
4.0900 6.5635 2.3887
3.8514 6.7055 2.3887
3.6078 6.8389 2.3887
3.3596 6.9634 2.3887
3.1072 7.0791 2.3887
2.8508 7.1856 2.3887
2.5907 7.2829 2.3887
0.9269 2.9354 0.9513
0.8209 2.9671 0.9514
0.7139 2.9950 0.9516
0.6060 3.0190 0.9517
0.4972 3.0391 0.9518
0.3878 3.0553 0.9520
0.2779 3.0675 0.9520
0.1675 3.0757 0.9521
0.0570 3.0799 0.9522
-0.0537 3.0801 0.9522
-0.1642 3.0763 0.9523
-0.2746 3.0686 0.9523
-0.3846 3.0568 0.9523
-0.4942 3.0411 0.9523
-0.6031 3.0214 0.9523
-0.7112 2.9978 0.9522
-0.8184 2.9703 0.9522
-2.3194 7.3733 2.3887
-2.5828 7.2856 2.3887
-2.8429 7.1886 2.3887
-3.0995 7.0824 2.3887
-3.3521 6.9671 2.3887
-3.6004 6.8427 2.3887
-3.8441 6.7096 2.3887
-4.0829 6.5678 2.3887
-4.3165 6.4176 2.3887
-4.5447 6.2591 2.3887
-4.7670 6.0925 2.3887
-4.9832 5.9181 2.3887
-5.1931 5.7360 2.3887
-5.3964 5.5465 2.3887
-5.5928 5.3498 2.3887
-5.7820 5.1463 2.3887
-5.9639 4.9360 2.3887
-6.1381 4.7193 2.3887
-6.3045 4.4965 2.3887
-6.4628 4.2679 2.3887
-6.6129 4.0337 2.3887
-6.7545 3.7943 2.3887
-6.8875 3.5499 2.3887
-7.0116 3.3009 2.3887
-7.1267 3.0475 2.3887
-7.2328 2.7901 2.3887
-7.3295 2.5291 2.3887
-7.4168 2.2647 2.3887
-7.4946 1.9973 2.3887
-7.5628 1.7273 2.3887
-7.6213 1.4545 2.3887
-7.6699 1.1806 2.3887
-7.7087 0.9047 2.3887
-7.7376 0.6275 2.3887
-7.7565 0.3494 2.3887
-7.7655 0.0707 2.3887
-7.7644 -0.2081 2.3887
-7.7533 -0.4867 2.3887
-7.7322 -0.7649 2.3887
-7.7011 -1.0421 2.3887
-7.6601 -1.3181 2.3887
-7.6092 -1.5920 2.3887
-7.5485 -1.8651 2.3887
-7.4780 -2.1349 2.3887
-7.3978 -2.4024 2.3887
-7.3080 -2.6668 2.3887
-7.2088 -2.9279 2.3887
-7.1003 -3.1852 2.3887
-6.9825 -3.4385 2.3887
-6.8557 -3.6875 2.3887
-6.7200 -3.9318 2.3887
-6.5756 -4.1710 2.3887
-6.4226 -4.4050 2.3887
-6.2613 -4.6333 2.3887
-6.0919 -4.8557 2.3887
-5.9145 -5.0719 2.3887
-5.7295 -5.2816 2.3887
-5.5370 -5.4845 2.3887
-5.3372 -5.6804 2.3887
-5.1306 -5.8689 2.3887
-4.9173 -6.0500 2.3887
-4.6975 -6.2232 2.3887
-4.4717 -6.3884 2.3887
-4.2400 -6.5454 2.3887
-4.0027 -6.6940 2.3887
-3.7603 -6.8339 2.3887
-3.5130 -6.9650 2.3887
-3.2610 -7.0871 2.3887
-3.0049 -7.2001 2.3887
-2.7447 -7.3038 2.3887
-2.4811 -7.3980 2.3887
-2.2141 -7.4827 2.3887
-1.9443 -7.5577 2.3887
-1.6720 -7.6229 2.3887
-1.3974 -7.6782 2.3887
-1.1211 -7.7236 2.3887
-0.8432 -7.7591 2.3887
-0.5643 -7.7845 2.3887
-0.2846 -7.7998 2.3887
-0.0029 -7.2198 2.3887
0.2562 -7.2153 2.3887
0.5149 -7.2014 2.3887
0.7729 -7.1782 2.3887
1.0299 -7.1457 2.3887
1.2856 -7.1039 2.3887
1.5396 -7.0530 2.3887
1.7916 -6.9929 2.3887
2.0413 -6.9238 2.3887
2.2883 -6.8458 2.3887
2.5323 -6.7589 2.3887
2.7730 -6.6633 2.3887
3.0101 -6.5590 2.3887
3.2433 -6.4463 2.3887
3.4722 -6.3253 2.3887
3.6966 -6.1961 2.3887
3.9162 -6.0590 2.3887
4.1307 -5.9140 2.3887
4.3398 -5.7614 2.3887
4.5433 -5.6014 2.3887
4.7409 -5.4342 2.3887
4.9323 -5.2600 2.3887
5.1172 -5.0790 2.3887
5.2955 -4.8915 2.3887
5.4670 -4.6977 2.3887
5.6313 -4.4979 2.3887
5.7883 -4.2924 2.3887
5.9378 -4.0813 2.3887
6.0796 -3.8651 2.3887
6.2135 -3.6439 2.3887
6.3393 -3.4181 2.3887
6.4570 -3.1879 2.3887
6.5662 -2.9536 2.3887
6.6669 -2.7157 2.3887
6.7591 -2.4743 2.3887
6.8424 -2.2297 2.3887
6.9169 -1.9824 2.3887
6.9825 -1.7326 2.3887
7.0390 -1.4806 2.3887
7.0865 -1.2268 2.3887
7.1248 -0.9715 2.3887
7.1538 -0.7150 2.3887
7.1737 -0.4577 2.3887
7.1843 -0.1999 2.3887
7.1856 0.0581 2.3887
7.1777 0.3160 2.3887
7.1606 0.5733 2.3887
7.1342 0.8299 2.3887
7.0986 1.0853 2.3887
7.0539 1.3392 2.3887
7.0001 1.5913 2.3887
6.9374 1.8412 2.3887
6.8657 2.0888 2.3887
6.7852 2.3335 2.3887
6.6960 2.5752 2.3887
6.5982 2.8135 2.3887
6.4919 3.0481 2.3887
6.3773 3.2788 2.3887
6.2546 3.5051 2.3887
6.1238 3.7269 2.3887
5.9852 3.9438 2.3887
5.8389 4.1556 2.3887
5.6852 4.3620 2.3887
5.5242 4.5627 2.3887
5.3561 4.7575 2.3887
5.1812 4.9461 2.3887
4.9997 5.1284 2.3887
4.8117 5.3040 2.3887
4.6177 5.4727 2.3887
4.4177 5.6344 2.3887
4.2121 5.7888 2.3887
4.0011 5.9358 2.3887
3.7851 6.0752 2.3887
3.5642 6.2066 2.3887
3.3387 6.3300 2.3887
3.1090 6.4454 2.3887
2.8753 6.5524 2.3887
2.6380 6.6510 2.3887
2.3973 6.7410 2.3887
0.8570 2.7148 0.9505
0.7590 2.7441 0.9507
0.6600 2.7699 0.9508
0.5602 2.7921 0.9509
0.4596 2.8106 0.9510
0.3584 2.8256 0.9511
0.2567 2.8368 0.9512
0.1547 2.8444 0.9513
0.0524 2.8483 0.9514
-0.0499 2.8484 0.9514
-0.1522 2.8449 0.9514
-0.2542 2.8377 0.9515
-0.3560 2.8268 0.9515
-0.4573 2.8123 0.9515
-0.5580 2.7941 0.9514
-0.6580 2.7722 0.9514
-0.7571 2.7468 0.9514
-0.8552 2.7178 0.9513
-2.3913 6.7432 2.3887
-2.6321 6.6533 2.3887
-2.8695 6.5549 2.3887
-3.1033 6.4481 2.3887
-3.3331 6.3330 2.3887
-3.5586 6.2097 2.3887
-3.7796 6.0784 2.3887
-3.9958 5.9393 2.3887
-4.2069 5.7926 2.3887
-4.4127 5.6383 2.3887
-4.6128 5.4768 2.3887
-4.8070 5.3082 2.3887
-4.9951 5.1328 2.3887
-5.1768 4.9507 2.3887
-5.3519 4.7622 2.3887
-5.5201 4.5675 2.3887
-5.6813 4.3670 2.3887
-5.8352 4.1607 2.3887
-5.9817 3.9491 2.3887
-6.1205 3.7323 2.3887
-6.2514 3.5106 2.3887
-6.3743 3.2845 2.3887
-6.4891 3.0539 2.3887
-6.5956 2.8194 2.3887
-6.6936 2.5812 2.3887
-6.7830 2.3395 2.3887
-6.8637 2.0949 2.3887
-6.9356 1.8474 2.3887
-6.9986 1.5975 2.3887
-7.0526 1.3454 2.3887
-7.0975 1.0916 2.3887
-7.1333 0.8362 2.3887
-7.1600 0.5797 2.3887
-7.1774 0.3224 2.3887
-7.1855 0.0645 2.3887
-7.1844 -0.1935 2.3887
-7.1740 -0.4513 2.3887
-7.1544 -0.7086 2.3887
-7.1255 -0.9652 2.3887
-7.0875 -1.2205 2.3887
-7.0403 -1.4743 2.3887
-6.9840 -1.7263 2.3887
-6.9186 -1.9762 2.3887
-6.8443 -2.2236 2.3887
-6.7612 -2.4682 2.3887
-6.6693 -2.7097 2.3887
-6.5688 -2.9478 2.3887
-6.4597 -3.1821 2.3887
-6.3423 -3.4124 2.3887
-6.2167 -3.6383 2.3887
-6.0830 -3.8596 2.3887
-5.9414 -4.0760 2.3887
-5.7921 -4.2872 2.3887
-5.6353 -4.4929 2.3887
-5.4711 -4.6928 2.3887
-5.2998 -4.8867 2.3887
-5.1217 -5.0744 2.3887
-4.9369 -5.2555 2.3887
-4.7456 -5.4299 2.3887
-4.5482 -5.5973 2.3887
-4.3449 -5.7575 2.3887
-4.1359 -5.9103 2.3887
-3.9216 -6.0555 2.3887
-3.7021 -6.1928 2.3887
-3.4778 -6.3222 2.3887
-3.2490 -6.4434 2.3887
-3.0159 -6.5563 2.3887
-2.7789 -6.6608 2.3887
-2.5383 -6.7566 2.3887
-2.2944 -6.8437 2.3887
-2.0474 -6.9220 2.3887
-1.7978 -6.9913 2.3887
-1.5459 -7.0516 2.3887
-1.2919 -7.1027 2.3887
-1.0363 -7.1447 2.3887
-0.7793 -7.1774 2.3887
-0.5213 -7.2009 2.3887
-0.2626 -7.2150 2.3887
-0.0036 -7.2198 2.3887
0.2555 -7.2153 2.3887
0.5142 -7.2014 2.3887
0.7722 -7.1782 2.3887
1.0293 -7.1457 2.3887
1.2849 -7.1040 2.3887
1.5390 -7.0531 2.3887
1.7910 -6.9931 2.3887
2.0406 -6.9240 2.3887
2.2876 -6.8460 2.3887
2.5316 -6.7591 2.3887
2.7724 -6.6635 2.3887
3.0095 -6.5593 2.3887
3.2426 -6.4467 2.3887
3.4716 -6.3257 2.3887
3.6960 -6.1965 2.3887
3.9157 -6.0593 2.3887
4.1301 -5.9144 2.3887
4.3393 -5.7618 2.3887
4.5428 -5.6018 2.3887
4.7403 -5.4346 2.3887
4.9317 -5.2604 2.3887
5.1167 -5.0795 2.3887
5.2951 -4.8920 2.3887
5.4665 -4.6983 2.3887
5.6309 -4.4985 2.3887
5.7879 -4.2930 2.3887
5.9374 -4.0819 2.3887
6.0792 -3.8657 2.3887
6.2132 -3.6445 2.3887
6.3390 -3.4187 2.3887
6.4567 -3.1885 2.3887
6.5659 -2.9543 2.3887
6.6667 -2.7163 2.3887
6.7588 -2.4749 2.3887
6.8422 -2.2304 2.3887
6.9167 -1.9830 2.3887
6.9823 -1.7333 2.3887
7.0389 -1.4813 2.3887
7.0864 -1.2275 2.3887
7.1247 -0.9722 2.3887
7.1538 -0.7157 2.3887
7.1737 -0.4584 2.3887
7.1843 -0.2006 2.3887
7.1856 0.0574 2.3887
7.1778 0.3153 2.3887
7.1606 0.5727 2.3887
7.1342 0.8292 2.3887
7.0987 1.0846 2.3887
7.0540 1.3385 2.3887
7.0003 1.5906 2.3887
6.9375 1.8406 2.3887
6.8659 2.0881 2.3887
6.7854 2.3329 2.3887
6.6962 2.5746 2.3887
6.5985 2.8129 2.3887
6.4922 3.0475 2.3887
6.3777 3.2781 2.3887
6.2549 3.5045 2.3887
6.1242 3.7263 2.3887
5.9856 3.9432 2.3887
5.8394 4.1550 2.3887
5.6856 4.3614 2.3887
5.5246 4.5621 2.3887
5.3566 4.7570 2.3887
5.1817 4.9456 2.3887
5.0002 5.1279 2.3887
4.8123 5.3035 2.3887
4.6182 5.4723 2.3887
4.4183 5.6340 2.3887
4.2127 5.7884 2.3887
4.0017 5.9354 2.3887
3.7856 6.0748 2.3887
3.5647 6.2062 2.3887
3.3393 6.3297 2.3887
3.1096 6.4451 2.3887
2.8760 6.5521 2.3887
2.6386 6.6507 2.3887
2.3980 6.7408 2.3887
0.8572 2.7147 0.9505
0.7593 2.7441 0.9507
0.6603 2.7698 0.9508
0.5605 2.7920 0.9509
0.4599 2.8106 0.9510
0.3587 2.8255 0.9511
0.2570 2.8368 0.9512
0.1549 2.8444 0.9513
0.0527 2.8483 0.9514
-0.0496 2.8484 0.9514
-0.1519 2.8450 0.9514
-0.2540 2.8378 0.9515
-0.3557 2.8269 0.9515
-0.4570 2.8123 0.9515
-0.5577 2.7941 0.9514
-0.6577 2.7723 0.9514
-0.7568 2.7469 0.9514
-0.8550 2.7179 0.9513
-2.3907 6.7434 2.3887
-2.6314 6.6536 2.3887
-2.8689 6.5552 2.3887
-3.1026 6.4484 2.3887
-3.3325 6.3333 2.3887
-3.5580 6.2100 2.3887
-3.7791 6.0788 2.3887
-3.9953 5.9397 2.3887
-4.2064 5.7930 2.3887
-4.4121 5.6387 2.3887
-4.6123 5.4772 2.3887
-4.8065 5.3087 2.3887
-4.9946 5.1333 2.3887
-5.1763 4.9512 2.3887
-5.3514 4.7627 2.3887
-5.5196 4.5681 2.3887
-5.6809 4.3675 2.3887
-5.8348 4.1613 2.3887
-5.9813 3.9496 2.3887
-6.1201 3.7329 2.3887
-6.2511 3.5112 2.3887
-6.3740 3.2850 2.3887
-6.4888 3.0545 2.3887
-6.5953 2.8200 2.3887
-6.6934 2.5818 2.3887
-6.7828 2.3402 2.3887
-6.8635 2.0955 2.3887
-6.9355 1.8481 2.3887
-6.9985 1.5982 2.3887
-7.0525 1.3461 2.3887
-7.0974 1.0922 2.3887
-7.1333 0.8369 2.3887
-7.1599 0.5804 2.3887
-7.1773 0.3231 2.3887
-7.1855 0.0652 2.3887
-7.1844 -0.1929 2.3887
-7.1741 -0.4506 2.3887
-7.1545 -0.7080 2.3887
-7.1256 -0.9645 2.3887
-7.0876 -1.2198 2.3887
-7.0404 -1.4737 2.3887
-6.9841 -1.7257 2.3887
-6.9188 -1.9756 2.3887
-6.8445 -2.2230 2.3887
-6.7614 -2.4676 2.3887
-6.6695 -2.7091 2.3887
-6.5690 -2.9471 2.3887
-6.4600 -3.1815 2.3887
-6.3426 -3.4118 2.3887
-6.2170 -3.6377 2.3887
-6.0833 -3.8591 2.3887
-5.9418 -4.0755 2.3887
-5.7925 -4.2866 2.3887
-5.6357 -4.4923 2.3887
-5.4715 -4.6923 2.3887
-5.3003 -4.8862 2.3887
-5.1222 -5.0739 2.3887
-4.9374 -5.2551 2.3887
-4.7462 -5.4295 2.3887
-4.5488 -5.5969 2.3887
-4.3455 -5.7571 2.3887
-4.1365 -5.9099 2.3887
-3.9222 -6.0551 2.3887
-3.7027 -6.1925 2.3887
-3.4784 -6.3219 2.3887
-3.2496 -6.4431 2.3887
-3.0165 -6.5560 2.3887
-2.7796 -6.6605 2.3887
-2.5389 -6.7564 2.3887
-2.2950 -6.8435 2.3887
-2.0481 -6.9218 2.3887
-1.7985 -6.9911 2.3887
-1.5466 -7.0514 2.3887
-1.2926 -7.1026 2.3887
-1.0370 -7.1446 2.3887
-0.7800 -7.1774 2.3887
-0.5220 -7.2009 2.3887
-0.2633 -7.2150 2.3887
-0.0026 -6.7093 2.3887
0.2381 -6.7050 2.3887
0.4785 -6.6921 2.3887
0.7182 -6.6705 2.3887
0.9571 -6.6404 2.3887
1.1947 -6.6016 2.3887
1.4307 -6.5543 2.3887
1.6649 -6.4985 2.3887
1.8969 -6.4343 2.3887
2.1264 -6.3618 2.3887
2.3532 -6.2811 2.3887
2.5769 -6.1922 2.3887
2.7972 -6.0954 2.3887
3.0139 -5.9907 2.3887
3.2267 -5.8783 2.3887
3.4352 -5.7582 2.3887
3.6393 -5.6308 2.3887
3.8387 -5.4961 2.3887
4.0330 -5.3543 2.3887
4.2222 -5.2057 2.3887
4.4058 -5.0503 2.3887
4.5837 -4.8884 2.3887
4.7556 -4.7203 2.3887
4.9214 -4.5461 2.3887
5.0807 -4.3661 2.3887
5.2335 -4.1804 2.3887
5.3794 -3.9894 2.3887
5.5184 -3.7933 2.3887
5.6502 -3.5924 2.3887
5.7747 -3.3868 2.3887
5.8917 -3.1769 2.3887
6.0011 -2.9631 2.3887
6.1027 -2.7454 2.3887
6.1964 -2.5242 2.3887
6.2821 -2.2999 2.3887
6.3596 -2.0726 2.3887
6.4290 -1.8428 2.3887
6.4900 -1.6106 2.3887
6.5426 -1.3764 2.3887
6.5867 -1.1405 2.3887
6.6224 -0.9032 2.3887
6.6495 -0.6648 2.3887
6.6680 -0.4257 2.3887
6.6779 -0.1860 2.3887
6.6793 0.0538 2.3887
6.6720 0.2935 2.3887
6.6561 0.5327 2.3887
6.6316 0.7712 2.3887
6.5986 1.0086 2.3887
6.5572 1.2446 2.3887
6.5072 1.4790 2.3887
6.4490 1.7114 2.3887
6.3824 1.9415 2.3887
6.3076 2.1691 2.3887
6.2248 2.3938 2.3887
6.1339 2.6153 2.3887
6.0352 2.8335 2.3887
5.9287 3.0479 2.3887
5.8146 3.2583 2.3887
5.6931 3.4645 2.3887
5.5643 3.6662 2.3887
5.4284 3.8631 2.3887
5.2855 4.0551 2.3887
5.1359 4.2417 2.3887
4.9796 4.4228 2.3887
4.8171 4.5983 2.3887
4.6483 4.7677 2.3887
4.4736 4.9310 2.3887
4.2932 5.0880 2.3887
4.1073 5.2383 2.3887
3.9162 5.3820 2.3887
3.7201 5.5186 2.3887
3.5192 5.6481 2.3887
3.3138 5.7704 2.3887
3.1042 5.8852 2.3887
2.8907 5.9925 2.3887
2.6734 6.0920 2.3887
2.4528 6.1837 2.3887
0.8862 2.4919 0.9497
0.7962 2.5223 0.9499
0.7052 2.5496 0.9500
0.6132 2.5735 0.9501
0.5205 2.5941 0.9502
0.4270 2.6113 0.9503
0.3330 2.6252 0.9504
0.2385 2.6356 0.9505
0.1437 2.6426 0.9506
0.0487 2.6462 0.9506
-0.0464 2.6464 0.9507
-0.1414 2.6431 0.9507
-0.2362 2.6364 0.9507
-0.3308 2.6263 0.9507
-0.4249 2.6128 0.9507
-0.5184 2.5958 0.9507
-0.6113 2.5755 0.9507
-0.7034 2.5519 0.9506
-0.7946 2.5250 0.9506
-0.8847 2.4947 0.9505
-2.4473 6.1859 2.3887
-2.6680 6.0944 2.3887
-2.8853 5.9951 2.3887
-3.0990 5.8880 2.3887
-3.3087 5.7733 2.3887
-3.5141 5.6512 2.3887
-3.7151 5.5219 2.3887
-3.9114 5.3854 2.3887
-4.1027 5.2420 2.3887
-4.2887 5.0918 2.3887
-4.4692 4.9350 2.3887
-4.6440 4.7718 2.3887
-4.8129 4.6025 2.3887
-4.9757 4.4272 2.3887
-5.1320 4.2462 2.3887
-5.2818 4.0597 2.3887
-5.4249 3.8679 2.3887
-5.5610 3.6711 2.3887
-5.6900 3.4696 2.3887
-5.8117 3.2635 2.3887
-5.9259 3.0531 2.3887
-6.0326 2.8388 2.3887
-6.1315 2.6207 2.3887
-6.2226 2.3993 2.3887
-6.3056 2.1746 2.3887
-6.3806 1.9472 2.3887
-6.4474 1.7171 2.3887
-6.5058 1.4848 2.3887
-6.5560 1.2504 2.3887
-6.5977 1.0144 2.3887
-6.6309 0.7770 2.3887
-6.6555 0.5387 2.3887
-6.6716 0.2994 2.3887
-6.6791 0.0597 2.3887
-6.6780 -0.1801 2.3887
-6.6683 -0.4197 2.3887
-6.6500 -0.6589 2.3887
-6.6231 -0.8973 2.3887
-6.5877 -1.1346 2.3887
-6.5437 -1.3706 2.3887
-6.4913 -1.6048 2.3887
-6.4305 -1.8370 2.3887
-6.3614 -2.0670 2.3887
-6.2841 -2.2943 2.3887
-6.1986 -2.5187 2.3887
-6.1051 -2.7399 2.3887
-6.0037 -2.9577 2.3887
-5.8945 -3.1717 2.3887
-5.7777 -3.3817 2.3887
-5.6534 -3.5873 2.3887
-5.5217 -3.7884 2.3887
-5.3829 -3.9846 2.3887
-5.2372 -4.1757 2.3887
-5.0846 -4.3615 2.3887
-4.9254 -4.5417 2.3887
-4.7598 -4.7160 2.3887
-4.5880 -4.8843 2.3887
-4.4102 -5.0464 2.3887
-4.2267 -5.2019 2.3887
-4.0378 -5.3507 2.3887
-3.8435 -5.4927 2.3887
-3.6443 -5.6275 2.3887
-3.4403 -5.7552 2.3887
-3.2319 -5.8754 2.3887
-3.0192 -5.9880 2.3887
-2.8026 -6.0929 2.3887
-2.5824 -6.1899 2.3887
-2.3587 -6.2789 2.3887
-2.1321 -6.3599 2.3887
-1.9026 -6.4326 2.3887
-1.6707 -6.4970 2.3887
-1.4365 -6.5530 2.3887
-1.2005 -6.6005 2.3887
-0.9630 -6.6395 2.3887
-0.7242 -6.6699 2.3887
-0.4844 -6.6917 2.3887
-0.2440 -6.7048 2.3887
-0.0033 -6.7093 2.3887
0.2374 -6.7051 2.3887
0.4778 -6.6922 2.3887
0.7176 -6.6706 2.3887
0.9564 -6.6404 2.3887
1.1941 -6.6017 2.3887
1.4301 -6.5544 2.3887
1.6643 -6.4986 2.3887
1.8963 -6.4345 2.3887
2.1258 -6.3620 2.3887
2.3526 -6.2813 2.3887
2.5763 -6.1925 2.3887
2.7966 -6.0957 2.3887
3.0133 -5.9910 2.3887
3.2261 -5.8786 2.3887
3.4347 -5.7586 2.3887
3.6388 -5.6312 2.3887
3.8382 -5.4965 2.3887
4.0325 -5.3547 2.3887
4.2217 -5.2061 2.3887
4.4053 -5.0507 2.3887
4.5832 -4.8889 2.3887
4.7551 -4.7208 2.3887
4.9209 -4.5466 2.3887
5.0803 -4.3665 2.3887
5.2331 -4.1809 2.3887
5.3791 -3.9899 2.3887
5.5181 -3.7938 2.3887
5.6499 -3.5929 2.3887
5.7744 -3.3874 2.3887
5.8915 -3.1775 2.3887
6.0008 -2.9636 2.3887
6.1025 -2.7460 2.3887
6.1962 -2.5248 2.3887
6.2819 -2.3005 2.3887
6.3594 -2.0732 2.3887
6.4288 -1.8434 2.3887
6.4898 -1.6112 2.3887
6.5424 -1.3770 2.3887
6.5866 -1.1411 2.3887
6.6223 -0.9039 2.3887
6.6494 -0.6655 2.3887
6.6680 -0.4263 2.3887
6.6779 -0.1867 2.3887
6.6793 0.0532 2.3887
6.6720 0.2929 2.3887
6.6561 0.5321 2.3887
6.6317 0.7706 2.3887
6.5987 1.0080 2.3887
6.5573 1.2440 2.3887
6.5074 1.4784 2.3887
6.4491 1.7108 2.3887
6.3826 1.9409 2.3887
6.3078 2.1685 2.3887
6.2250 2.3932 2.3887
6.1342 2.6147 2.3887
6.0355 2.8329 2.3887
5.9290 3.0473 2.3887
5.8150 3.2578 2.3887
5.6935 3.4640 2.3887
5.5647 3.6657 2.3887
5.4288 3.8626 2.3887
5.2859 4.0546 2.3887
5.1363 4.2412 2.3887
4.9801 4.4224 2.3887
4.8175 4.5978 2.3887
4.6488 4.7673 2.3887
4.4741 4.9306 2.3887
4.2937 5.0876 2.3887
4.1078 5.2379 2.3887
3.9167 5.3816 2.3887
3.7206 5.5183 2.3887
3.5197 5.6478 2.3887
3.3144 5.7701 2.3887
3.1048 5.8849 2.3887
2.8913 5.9922 2.3887
2.6740 6.0918 2.3887
2.4534 6.1836 2.3887
0.8865 2.4918 0.9497
0.7965 2.5223 0.9499
0.7055 2.5495 0.9500
0.6135 2.5734 0.9501
0.5207 2.5940 0.9502
0.4273 2.6113 0.9503
0.3332 2.6251 0.9504
0.2388 2.6356 0.9505
0.1440 2.6426 0.9506
0.0490 2.6462 0.9506
-0.0461 2.6464 0.9507
-0.1411 2.6431 0.9507
-0.2360 2.6364 0.9507
-0.3305 2.6263 0.9507
-0.4246 2.6128 0.9507
-0.5182 2.5959 0.9507
-0.6111 2.5756 0.9507
-0.7032 2.5520 0.9506
-0.7944 2.5250 0.9506
-0.8845 2.4948 0.9505
-2.4467 6.1861 2.3887
-2.6674 6.0947 2.3887
-2.8848 5.9953 2.3887
-3.0984 5.8883 2.3887
-3.3081 5.7737 2.3887
-3.5135 5.6511 2.3887
-3.7146 5.5222 2.3887
-3.9109 5.3858 2.3887
-4.1021 5.2423 2.3887
-4.2882 5.0922 2.3887
-4.4687 4.9354 2.3887
-4.6436 4.7723 2.3887
-4.8125 4.6030 2.3887
-4.9752 4.4277 2.3887
-5.1316 4.2467 2.3887
-5.2815 4.0602 2.3887
-5.4245 3.8684 2.3887
-5.5607 3.6717 2.3887
-5.6897 3.4701 2.3887
-5.8114 3.2640 2.3887
-5.9257 3.0537 2.3887
-6.0323 2.8394 2.3887
-6.1313 2.6213 2.3887
-6.2223 2.3999 2.3887
-6.3054 2.1752 2.3887
-6.3804 1.9478 2.3887
-6.4472 1.7177 2.3887
-6.5057 1.4854 2.3887
-6.5559 1.2511 2.3887
-6.5976 1.0151 2.3887
-6.6308 0.7777 2.3887
-6.6555 0.5393 2.3887
-6.6716 0.3001 2.3887
-6.6791 0.0604 2.3887
-6.6781 -0.1794 2.3887
-6.6684 -0.4191 2.3887
-6.6501 -0.6583 2.3887
-6.6232 -0.8967 2.3887
-6.5878 -1.1340 2.3887
-6.5438 -1.3700 2.3887
-6.4915 -1.6042 2.3887
-6.4307 -1.8364 2.3887
-6.3616 -2.0663 2.3887
-6.2843 -2.2937 2.3887
-6.1988 -2.5181 2.3887
-6.1054 -2.7394 2.3887
-6.0040 -2.9571 2.3887
-5.8948 -3.1711 2.3887
-5.7780 -3.3811 2.3887
-5.6537 -3.5868 2.3887
-5.5221 -3.7879 2.3887
-5.3833 -3.9841 2.3887
-5.2375 -4.1752 2.3887
-5.0850 -4.3610 2.3887
-4.9258 -4.5412 2.3887
-4.7602 -4.7156 2.3887
-4.5884 -4.8839 2.3887
-4.4107 -5.0459 2.3887
-4.2272 -5.2015 2.3887
-4.0383 -5.3503 2.3887
-3.8441 -5.4923 2.3887
-3.6448 -5.6272 2.3887
-3.4409 -5.7548 2.3887
-3.2324 -5.8750 2.3887
-3.0198 -5.9877 2.3887
-2.8032 -6.0926 2.3887
-2.5830 -6.1896 2.3887
-2.3594 -6.2787 2.3887
-2.1327 -6.3597 2.3887
-1.9032 -6.4324 2.3887
-1.6713 -6.4968 2.3887
-1.4372 -6.5528 2.3887
-1.2012 -6.6004 2.3887
-0.9636 -6.6394 2.3887
-0.7248 -6.6698 2.3887
-0.4851 -6.6916 2.3887
-0.2447 -6.7048 2.3887
-0.0025 -6.2595 2.3887
0.2221 -6.2555 2.3887
0.4464 -6.2435 2.3887
0.6701 -6.2233 2.3887
0.8929 -6.1952 2.3887
1.1146 -6.1590 2.3887
1.3348 -6.1149 2.3887
1.5532 -6.0628 2.3887
1.7697 -6.0030 2.3887
1.9838 -5.9354 2.3887
2.1954 -5.8601 2.3887
2.4041 -5.7772 2.3887
2.6097 -5.6869 2.3887
2.8118 -5.5892 2.3887
3.0103 -5.4844 2.3887
3.2049 -5.3724 2.3887
3.3954 -5.2536 2.3887
3.5814 -5.1279 2.3887
3.7627 -4.9957 2.3887
3.9392 -4.8570 2.3887
4.1105 -4.7121 2.3887
4.2765 -4.5611 2.3887
4.4370 -4.4042 2.3887
4.5916 -4.2417 2.3887
4.7404 -4.0738 2.3887
4.8829 -3.9006 2.3887
5.0192 -3.7224 2.3887
5.1489 -3.5395 2.3887
5.2719 -3.3520 2.3887
5.3881 -3.1603 2.3887
5.4973 -2.9645 2.3887
5.5994 -2.7650 2.3887
5.6943 -2.5619 2.3887
5.7817 -2.3555 2.3887
5.8617 -2.1462 2.3887
5.9341 -1.9342 2.3887
5.9989 -1.7197 2.3887
6.0558 -1.5031 2.3887
6.1050 -1.2846 2.3887
6.1463 -1.0645 2.3887
6.1796 -0.8431 2.3887
6.2049 -0.6206 2.3887
6.2223 -0.3974 2.3887
6.2316 -0.1738 2.3887
6.2329 0.0500 2.3887
6.2261 0.2737 2.3887
6.2114 0.4969 2.3887
6.1886 0.7194 2.3887
6.1579 0.9410 2.3887
6.1192 1.1613 2.3887
6.0727 1.3800 2.3887
6.0184 1.5969 2.3887
5.9563 1.8117 2.3887
5.8866 2.0241 2.3887
5.8093 2.2338 2.3887
5.7246 2.4406 2.3887
5.6325 2.6442 2.3887
5.5332 2.8443 2.3887
5.4267 3.0407 2.3887
5.3134 3.2332 2.3887
5.1932 3.4215 2.3887
5.0664 3.6053 2.3887
4.9330 3.7844 2.3887
4.7934 3.9586 2.3887
4.6477 4.1277 2.3887
4.4959 4.2915 2.3887
4.3385 4.4497 2.3887
4.1755 4.6021 2.3887
4.0071 4.7487 2.3887
3.8336 4.8890 2.3887
3.6553 5.0231 2.3887
3.4722 5.1507 2.3887
3.2847 5.2716 2.3887
3.0931 5.3856 2.3887
2.8974 5.4930 2.3887
2.6981 5.5931 2.3887
2.4954 5.6860 2.3887
0.9095 2.2930 0.9490
0.8267 2.3244 0.9491
0.7428 2.3528 0.9493
0.6578 2.3782 0.9494
0.5721 2.4005 0.9495
0.4855 2.4197 0.9496
0.3983 2.4358 0.9497
0.3106 2.4487 0.9498
0.2225 2.4584 0.9499
0.1341 2.4649 0.9500
0.0454 2.4683 0.9500
-0.0432 2.4684 0.9500
-0.1319 2.4654 0.9501
-0.2203 2.4591 0.9501
-0.3085 2.4497 0.9501
-0.3963 2.4370 0.9501
-0.4836 2.4212 0.9501
-0.5702 2.4023 0.9500
-0.6561 2.3803 0.9500
-0.7412 2.3551 0.9500
-0.8253 2.3270 0.9499
-0.9083 2.2958 0.9498
-2.4903 5.6882 2.3887
-2.6931 5.5955 2.3887
-2.8925 5.4955 2.3887
-3.0883 5.3885 2.3887
-3.2800 5.2745 2.3887
-3.4676 5.1537 2.3887
-3.6508 5.0263 2.3887
-3.8293 4.8924 2.3887
-4.0029 4.7522 2.3887
-4.1713 4.6058 2.3887
-4.3345 4.4535 2.3887
-4.4921 4.2955 2.3887
-4.6439 4.1319 2.3887
-4.7899 3.9629 2.3887
-4.9296 3.7888 2.3887
-5.0631 3.6098 2.3887
-5.1901 3.4261 2.3887
-5.3104 3.2379 2.3887
-5.4240 3.0455 2.3887
-5.5306 2.8492 2.3887
-5.6301 2.6491 2.3887
-5.7223 2.4456 2.3887
-5.8073 2.2389 2.3887
-5.8847 2.0293 2.3887
-5.9546 1.8169 2.3887
-6.0169 1.6022 2.3887
-6.0714 1.3854 2.3887
-6.1181 1.1667 2.3887
-6.1570 0.9465 2.3887
-6.1879 0.7249 2.3887
-6.2109 0.5024 2.3887
-6.2258 0.2792 2.3887
-6.2328 0.0555 2.3887
-6.2317 -0.1683 2.3887
-6.2226 -0.3919 2.3887
-6.2054 -0.6151 2.3887
-6.1803 -0.8376 2.3887
-6.1471 -1.0590 2.3887
-6.1061 -1.2791 2.3887
-6.0571 -1.4977 2.3887
-6.0003 -1.7144 2.3887
-5.9358 -1.9289 2.3887
-5.8636 -2.1410 2.3887
-5.7838 -2.3504 2.3887
-5.6965 -2.5568 2.3887
-5.6018 -2.7599 2.3887
-5.4999 -2.9596 2.3887
-5.3909 -3.1555 2.3887
-5.2748 -3.3473 2.3887
-5.1520 -3.5349 2.3887
-5.0224 -3.7180 2.3887
-4.8863 -3.8962 2.3887
-4.7439 -4.0695 2.3887
-4.5954 -4.2376 2.3887
-4.4408 -4.4003 2.3887
-4.2805 -4.5573 2.3887
-4.1147 -4.7084 2.3887
-3.9435 -4.8535 2.3887
-3.7671 -4.9923 2.3887
-3.5859 -5.1247 2.3887
-3.4000 -5.2505 2.3887
-3.2097 -5.3695 2.3887
-3.0152 -5.4817 2.3887
-2.8168 -5.5867 2.3887
-2.6147 -5.6845 2.3887
-2.4092 -5.7750 2.3887
-2.2006 -5.8581 2.3887
-1.9891 -5.9336 2.3887
-1.7750 -6.0014 2.3887
-1.5586 -6.0615 2.3887
-1.3402 -6.1137 2.3887
-1.1200 -6.1580 2.3887
-0.8984 -6.1944 2.3887
-0.6756 -6.2227 2.3887
-0.4519 -6.2431 2.3887
-0.2276 -6.2553 2.3887
-0.0031 -6.2595 2.3887
0.2215 -6.2555 2.3887
0.4458 -6.2435 2.3887
0.6695 -6.2234 2.3887
0.8923 -6.1953 2.3887
1.1140 -6.1591 2.3887
1.3342 -6.1150 2.3887
1.5527 -6.0630 2.3887
1.7691 -6.0032 2.3887
1.9833 -5.9355 2.3887
2.1948 -5.8603 2.3887
2.4035 -5.7774 2.3887
2.6091 -5.6871 2.3887
2.8113 -5.5895 2.3887
3.0098 -5.4847 2.3887
3.2044 -5.3727 2.3887
3.3949 -5.2539 2.3887
3.5809 -5.1283 2.3887
3.7622 -4.9961 2.3887
3.9387 -4.8574 2.3887
4.1101 -4.7125 2.3887
4.2761 -4.5615 2.3887
4.4365 -4.4047 2.3887
4.5912 -4.2422 2.3887
4.7400 -4.0742 2.3887
4.8825 -3.9011 2.3887
5.0188 -3.7229 2.3887
5.1485 -3.5400 2.3887
5.2716 -3.3525 2.3887
5.3878 -3.1608 2.3887
5.4970 -2.9650 2.3887
5.5992 -2.7655 2.3887
5.6940 -2.5624 2.3887
5.7815 -2.3561 2.3887
5.8615 -2.1468 2.3887
5.9340 -1.9347 2.3887
5.9987 -1.7203 2.3887
6.0557 -1.5037 2.3887
6.1049 -1.2851 2.3887
6.1462 -1.0651 2.3887
6.1795 -0.8437 2.3887
6.2049 -0.6212 2.3887
6.2223 -0.3980 2.3887
6.2316 -0.1744 2.3887
6.2329 0.0494 2.3887
6.2262 0.2731 2.3887
6.2114 0.4963 2.3887
6.1887 0.7188 2.3887
6.1580 0.9404 2.3887
6.1193 1.1607 2.3887
6.0728 1.3794 2.3887
6.0185 1.5963 2.3887
5.9565 1.8111 2.3887
5.8868 2.0235 2.3887
5.8095 2.2332 2.3887
5.7248 2.4400 2.3887
5.6327 2.6436 2.3887
5.5334 2.8438 2.3887
5.4270 3.0402 2.3887
5.3137 3.2328 2.3887
5.1935 3.4210 2.3887
5.0667 3.6048 2.3887
4.9334 3.7839 2.3887
4.7938 3.9582 2.3887
4.6481 4.1273 2.3887
4.4963 4.2911 2.3887
4.3389 4.4493 2.3887
4.1759 4.6017 2.3887
4.0076 4.7483 2.3887
3.8341 4.8887 2.3887
3.6557 5.0227 2.3887
3.4727 5.1503 2.3887
3.2852 5.2714 2.3887
3.0936 5.3855 2.3887
2.8980 5.4927 2.3887
2.6987 5.5928 2.3887
2.4959 5.6858 2.3887
0.9098 2.2929 0.9490
0.8269 2.3243 0.9491
0.7430 2.3528 0.9493
0.6581 2.3781 0.9494
0.5723 2.4004 0.9495
0.4857 2.4197 0.9496
0.3986 2.4357 0.9497
0.3108 2.4486 0.9498
0.2227 2.4584 0.9499
0.1343 2.4649 0.9500
0.0457 2.4683 0.9500
-0.0430 2.4684 0.9500
-0.1316 2.4654 0.9501
-0.2201 2.4591 0.9501
-0.3083 2.4497 0.9501
-0.3961 2.4371 0.9501
-0.4833 2.4213 0.9501
-0.5700 2.4024 0.9500
-0.6559 2.3803 0.9500
-0.7410 2.3552 0.9500
-0.8250 2.3270 0.9499
-0.9081 2.2959 0.9498
-2.4897 5.6885 2.3887
-2.6926 5.5957 2.3887
-2.8920 5.4958 2.3887
-3.0877 5.3888 2.3887
-3.2795 5.2748 2.3887
-3.4671 5.1541 2.3887
-3.6503 5.0267 2.3887
-3.8288 4.8928 2.3887
-4.0024 4.7526 2.3887
-4.1709 4.6062 2.3887
-4.3340 4.4539 2.3887
-4.4917 4.2959 2.3887
-4.6435 4.1323 2.3887
-4.7895 3.9633 2.3887
-4.9293 3.7893 2.3887
-5.0628 3.6102 2.3887
-5.1898 3.4266 2.3887
-5.3101 3.2384 2.3887
-5.4237 3.0461 2.3887
-5.5303 2.8497 2.3887
-5.6298 2.6497 2.3887
-5.7221 2.4462 2.3887
-5.8070 2.2395 2.3887
-5.8845 2.0298 2.3887
-5.9544 1.8175 2.3887
-6.0167 1.6028 2.3887
-6.0713 1.3860 2.3887
-6.1180 1.1673 2.3887
-6.1569 0.9471 2.3887
-6.1878 0.7255 2.3887
-6.2108 0.5030 2.3887
-6.2258 0.2798 2.3887
-6.2328 0.0561 2.3887
-6.2317 -0.1677 2.3887
-6.2226 -0.3913 2.3887
-6.2055 -0.6145 2.3887
-6.1804 -0.8370 2.3887
-6.1472 -1.0584 2.3887
-6.1062 -1.2786 2.3887
-6.0573 -1.4971 2.3887
-6.0005 -1.7138 2.3887
-5.9360 -1.9283 2.3887
-5.8638 -2.1404 2.3887
-5.7840 -2.3498 2.3887
-5.6967 -2.5562 2.3887
-5.6021 -2.7594 2.3887
-5.5002 -2.9591 2.3887
-5.3912 -3.1549 2.3887
-5.2751 -3.3468 2.3887
-5.1523 -3.5344 2.3887
-5.0228 -3.7175 2.3887
-4.8867 -3.8958 2.3887
-4.7443 -4.0691 2.3887
-4.5958 -4.2372 2.3887
-4.4413 -4.3998 2.3887
-4.2810 -4.5569 2.3887
-4.1151 -4.7080 2.3887
-3.9439 -4.8531 2.3887
-3.7676 -4.9919 2.3887
-3.5864 -5.1244 2.3887
-3.4005 -5.2502 2.3887
-3.2102 -5.3692 2.3887
-3.0157 -5.4814 2.3887
-2.8173 -5.5864 2.3887
-2.6152 -5.6843 2.3887
-2.4098 -5.7748 2.3887
-2.2011 -5.8579 2.3887
-1.9896 -5.9334 2.3887
-1.7756 -6.0012 2.3887
-1.5592 -6.0613 2.3887
-1.3408 -6.1136 2.3887
-1.1206 -6.1579 2.3887
-0.8990 -6.1943 2.3887
-0.6762 -6.2227 2.3887
-0.4525 -6.2430 2.3887
-0.2283 -6.2553 2.3887
-0.0023 -5.8598 2.3887
0.2079 -5.8561 2.3887
0.4179 -5.8448 2.3887
0.6273 -5.8260 2.3887
0.8359 -5.7996 2.3887
1.0434 -5.7658 2.3887
1.2495 -5.7245 2.3887
1.4540 -5.6758 2.3887
1.6566 -5.6198 2.3887
1.8571 -5.5565 2.3887
2.0552 -5.4860 2.3887
2.2505 -5.4084 2.3887
2.4430 -5.3239 2.3887
2.6323 -5.2325 2.3887
2.8181 -5.1344 2.3887
3.0003 -5.0296 2.3887
3.1786 -4.9183 2.3887
3.3527 -4.8008 2.3887
3.5225 -4.6770 2.3887
3.6877 -4.5472 2.3887
3.8481 -4.4115 2.3887
4.0036 -4.2702 2.3887
4.1538 -4.1234 2.3887
4.2986 -3.9713 2.3887
4.4379 -3.8141 2.3887
4.5714 -3.6520 2.3887
4.6989 -3.4852 2.3887
4.8204 -3.3139 2.3887
4.9356 -3.1384 2.3887
5.0445 -2.9589 2.3887
5.1468 -2.7757 2.3887
5.2424 -2.5889 2.3887
5.3312 -2.3987 2.3887
5.4132 -2.2056 2.3887
5.4881 -2.0096 2.3887
5.5559 -1.8110 2.3887
5.6166 -1.6103 2.3887
5.6700 -1.4075 2.3887
5.7160 -1.2029 2.3887
5.7547 -0.9969 2.3887
5.7860 -0.7896 2.3887
5.8098 -0.5813 2.3887
5.8260 -0.3723 2.3887
5.8348 -0.1629 2.3887
5.8361 0.0466 2.3887
5.8298 0.2560 2.3887
5.8160 0.4651 2.3887
5.7948 0.6735 2.3887
5.7660 0.8809 2.3887
5.7299 1.0872 2.3887
5.6864 1.2920 2.3887
5.6355 1.4951 2.3887
5.5775 1.6962 2.3887
5.5122 1.8951 2.3887
5.4399 2.0915 2.3887
5.3606 2.2851 2.3887
5.2744 2.4758 2.3887
5.1814 2.6633 2.3887
5.0818 2.8473 2.3887
4.9757 3.0275 2.3887
4.8632 3.2038 2.3887
4.7444 3.3760 2.3887
4.6196 3.5438 2.3887
4.4889 3.7070 2.3887
4.3524 3.8653 2.3887
4.2104 4.0187 2.3887
4.0629 4.1669 2.3887
3.9103 4.3097 2.3887
3.7527 4.4469 2.3887
3.5902 4.5784 2.3887
3.4232 4.7038 2.3887
3.2518 4.8235 2.3887
3.0762 4.9367 2.3887
2.8967 5.0437 2.3887
2.7135 5.1441 2.3887
2.5269 5.2379 2.3887
2.3370 5.3249 2.3887
0.8514 2.1462 0.9485
0.7738 2.1756 0.9486
0.6952 2.2022 0.9488
0.6158 2.2260 0.9489
0.5354 2.2468 0.9490
0.4544 2.2648 0.9491
0.3728 2.2798 0.9492
0.2907 2.2919 0.9493
0.2082 2.3010 0.9493
0.1255 2.3071 0.9494
0.0425 2.3102 0.9494
-0.0405 2.3103 0.9495
-0.1234 2.3075 0.9495
-0.2062 2.3016 0.9495
-0.2888 2.2928 0.9495
-0.3709 2.2809 0.9495
-0.4526 2.2662 0.9495
-0.5337 2.2485 0.9495
-0.6141 2.2278 0.9494
-0.6937 2.2043 0.9494
-0.7724 2.1779 0.9493
-0.8501 2.1487 0.9493
-2.3322 5.3270 2.3887
-2.5222 5.2401 2.3887
-2.7089 5.1465 2.3887
-2.8922 5.0462 2.3887
-3.0718 4.9395 2.3887
-3.2475 4.8263 2.3887
-3.4190 4.7071 2.3887
-3.5861 4.5816 2.3887
-3.7487 4.4502 2.3887
-3.9064 4.3131 2.3887
-4.0592 4.1705 2.3887
-4.2067 4.0224 2.3887
-4.3489 3.8692 2.3887
-4.4856 3.7109 2.3887
-4.6164 3.5478 2.3887
-4.7414 3.3802 2.3887
-4.8603 3.2081 2.3887
-4.9729 3.0319 2.3887
-5.0792 2.8517 2.3887
-5.1790 2.6679 2.3887
-5.2721 2.4805 2.3887
-5.3585 2.2899 2.3887
-5.4380 2.0963 2.3887
-5.5105 1.9000 2.3887
-5.5759 1.7012 2.3887
-5.6342 1.5001 2.3887
-5.6852 1.2970 2.3887
-5.7289 1.0923 2.3887
-5.7652 0.8860 2.3887
-5.7941 0.6786 2.3887
-5.8156 0.4702 2.3887
-5.8295 0.2612 2.3887
-5.8360 0.0518 2.3887
-5.8349 -0.1578 2.3887
-5.8263 -0.3672 2.3887
-5.8102 -0.5761 2.3887
-5.7866 -0.7844 2.3887
-5.7555 -0.9917 2.3887
-5.7170 -1.1979 2.3887
-5.6712 -1.4025 2.3887
-5.6179 -1.6053 2.3887
-5.5575 -1.8062 2.3887
-5.4898 -2.0047 2.3887
-5.4151 -2.2008 2.3887
-5.3333 -2.3940 2.3887
-5.2446 -2.5842 2.3887
-5.1492 -2.7711 2.3887
-5.0471 -2.9544 2.3887
-4.9384 -3.1340 2.3887
-4.8233 -3.3096 2.3887
-4.7020 -3.4810 2.3887
-4.5746 -3.6479 2.3887
-4.4412 -3.8101 2.3887
-4.3021 -3.9674 2.3887
-4.1574 -4.1197 2.3887
-4.0073 -4.2666 2.3887
-3.8520 -4.4081 2.3887
-3.6917 -4.5439 2.3887
-3.5266 -4.6738 2.3887
-3.3570 -4.7977 2.3887
-3.1829 -4.9155 2.3887
-3.0047 -5.0269 2.3887
-2.8226 -5.1318 2.3887
-2.6369 -5.2302 2.3887
-2.4477 -5.3217 2.3887
-2.2553 -5.4064 2.3887
-2.0600 -5.4842 2.3887
-1.8620 -5.5548 2.3887
-1.6616 -5.6183 2.3887
-1.4591 -5.6745 2.3887
-1.2546 -5.7234 2.3887
-1.0485 -5.7648 2.3887
-0.8410 -5.7989 2.3887
-0.6324 -5.8254 2.3887
-0.4231 -5.8444 2.3887
-0.2131 -5.8559 2.3887
-0.0029 -5.8598 2.3887
0.2073 -5.8561 2.3887
0.4173 -5.8449 2.3887
0.6267 -5.8261 2.3887
0.8353 -5.7997 2.3887
1.0428 -5.7659 2.3887
1.2489 -5.7246 2.3887
1.4535 -5.6759 2.3887
1.6561 -5.6199 2.3887
1.8566 -5.5566 2.3887
2.0546 -5.4862 2.3887
2.2500 -5.4087 2.3887
2.4425 -5.3242 2.3887
2.6318 -5.2328 2.3887
2.8176 -5.1346 2.3887
2.9998 -5.0299 2.3887
3.1781 -4.9186 2.3887
3.3523 -4.8011 2.3887
3.5221 -4.6773 2.3887
3.6873 -4.5475 2.3887
3.8477 -4.4119 2.3887
4.0032 -4.2706 2.3887
4.1534 -4.1238 2.3887
4.2982 -3.9717 2.3887
4.4375 -3.8145 2.3887
4.5710 -3.6524 2.3887
4.6986 -3.4856 2.3887
4.8201 -3.3144 2.3887
4.9353 -3.1389 2.3887
5.0442 -2.9594 2.3887
5.1465 -2.7762 2.3887
5.2421 -2.5894 2.3887
5.3310 -2.3993 2.3887
5.4130 -2.2061 2.3887
5.4879 -2.0102 2.3887
5.5558 -1.8116 2.3887
5.6164 -1.6109 2.3887
5.6698 -1.4081 2.3887
5.7159 -1.2035 2.3887
5.7546 -0.9974 2.3887
5.7859 -0.7901 2.3887
5.8097 -0.5818 2.3887
5.8260 -0.3729 2.3887
5.8348 -0.1635 2.3887
5.8361 0.0460 2.3887
5.8298 0.2555 2.3887
5.8161 0.4645 2.3887
5.7948 0.6729 2.3887
5.7661 0.8804 2.3887
5.7300 1.0866 2.3887
5.6865 1.2915 2.3887
5.6357 1.4946 2.3887
5.5776 1.6957 2.3887
5.5124 1.8946 2.3887
5.4401 2.0910 2.3887
5.3608 2.2848 2.3887
5.2746 2.4753 2.3887
5.1817 2.6628 2.3887
5.0821 2.8468 2.3887
4.9760 3.0270 2.3887
4.8635 3.2034 2.3887
4.7448 3.3755 2.3887
4.6200 3.5433 2.3887
4.4893 3.7065 2.3887
4.3528 3.8649 2.3887
4.2108 4.0183 2.3887
4.0633 4.1665 2.3887
3.9107 4.3093 2.3887
3.7531 4.4465 2.3887
3.5907 4.5780 2.3887
3.4237 4.7035 2.3887
3.2522 4.8232 2.3887
3.0767 4.9365 2.3887
2.8972 5.0434 2.3887
2.7140 5.1438 2.3887
2.5274 5.2376 2.3887
2.3375 5.3247 2.3887
0.8516 2.1462 0.9485
0.7740 2.1756 0.9486
0.6955 2.2022 0.9488
0.6160 2.2259 0.9489
0.5357 2.2468 0.9490
0.4547 2.2647 0.9491
0.3731 2.2798 0.9492
0.2909 2.2918 0.9493
0.2085 2.3009 0.9493
0.1257 2.3071 0.9494
0.0427 2.3102 0.9494
-0.0403 2.3103 0.9495
-0.1232 2.3075 0.9495
-0.2060 2.3016 0.9495
-0.2885 2.2928 0.9495
-0.3707 2.2810 0.9495
-0.4524 2.2662 0.9495
-0.5335 2.2485 0.9495
-0.6139 2.2279 0.9494
-0.6935 2.2044 0.9494
-0.7722 2.1780 0.9493
-0.8499 2.1488 0.9493
-2.3317 5.3272 2.3887
-2.5217 5.2404 2.3887
-2.7084 5.1468 2.3887
-2.8917 5.0465 2.3887
-3.0713 4.9398 2.3887
-3.2470 4.8266 2.3887
-3.4185 4.7075 2.3887
-3.5857 4.5819 2.3887
-3.7482 4.4506 2.3887
-3.9060 4.3135 2.3887
-4.0588 4.1709 2.3887
-4.2064 4.0229 2.3887
-4.3486 3.8696 2.3887
-4.4852 3.7113 2.3887
-4.6161 3.5483 2.3887
-4.7411 3.3806 2.3887
-4.8600 3.2086 2.3887
-4.9727 3.0324 2.3887
-5.0790 2.8522 2.3887
-5.1788 2.6684 2.3887
-5.2719 2.4810 2.3887
-5.3583 2.2904 2.3887
-5.4378 2.0969 2.3887
-5.5103 1.9005 2.3887
-5.5757 1.7017 2.3887
-5.6340 1.5006 2.3887
-5.6850 1.2976 2.3887
-5.7288 1.0928 2.3887
-5.7651 0.8866 2.3887
-5.7940 0.6791 2.3887
-5.8155 0.4708 2.3887
-5.8295 0.2618 2.3887
-5.8360 0.0523 2.3887
-5.8349 -0.1572 2.3887
-5.8264 -0.3666 2.3887
-5.8103 -0.5756 2.3887
-5.7867 -0.7839 2.3887
-5.7557 -0.9912 2.3887
-5.7172 -1.1973 2.3887
-5.6713 -1.4019 2.3887
-5.6181 -1.6048 2.3887
-5.5577 -1.8056 2.3887
-5.4900 -2.0042 2.3887
-5.4153 -2.2002 2.3887
-5.3335 -2.3935 2.3887
-5.2449 -2.5837 2.3887
-5.1494 -2.7706 2.3887
-5.0473 -2.9539 2.3887
-4.9387 -3.1336 2.3887
-4.8236 -3.3092 2.3887
-4.7023 -3.4805 2.3887
-4.5749 -3.6474 2.3887
-4.4416 -3.8097 2.3887
-4.3025 -3.9670 2.3887
-4.1578 -4.1193 2.3887
-4.0077 -4.2662 2.3887
-3.8525 -4.4077 2.3887
-3.6922 -4.5435 2.3887
-3.5271 -4.6735 2.3887
-3.3574 -4.7974 2.3887
-3.1834 -4.9152 2.3887
-3.0052 -5.0266 2.3887
-2.8231 -5.1316 2.3887
-2.6374 -5.2299 2.3887
-2.4482 -5.3215 2.3887
-2.2559 -5.4062 2.3887
-2.0605 -5.4840 2.3887
-1.8626 -5.5546 2.3887
-1.6622 -5.6181 2.3887
-1.4596 -5.6743 2.3887
-1.2551 -5.7232 2.3887
-1.0490 -5.7647 2.3887
-0.8416 -5.7988 2.3887
-0.6330 -5.8254 2.3887
-0.4236 -5.8444 2.3887
-0.2137 -5.8559 2.3887
-0.0022 -5.5020 2.3887
0.1952 -5.4985 2.3887
0.3923 -5.4879 2.3887
0.5889 -5.4703 2.3887
0.7848 -5.4455 2.3887
0.9796 -5.4137 2.3887
1.1731 -5.3750 2.3887
1.3652 -5.3292 2.3887
1.5554 -5.2767 2.3887
1.7437 -5.2172 2.3887
1.9296 -5.1511 2.3887
2.1131 -5.0783 2.3887
2.2938 -4.9989 2.3887
2.4715 -4.9131 2.3887
2.6460 -4.8210 2.3887
2.8171 -4.7226 2.3887
2.9845 -4.6182 2.3887
3.1480 -4.5078 2.3887
3.3074 -4.3916 2.3887
3.4626 -4.2698 2.3887
3.6132 -4.1424 2.3887
3.7592 -4.0097 2.3887
3.9002 -3.8719 2.3887
4.0363 -3.7291 2.3887
4.1670 -3.5815 2.3887
4.2924 -3.4293 2.3887
4.4122 -3.2727 2.3887
4.5263 -3.1119 2.3887
4.6345 -2.9472 2.3887
4.7367 -2.7787 2.3887
4.8328 -2.6066 2.3887
4.9227 -2.4312 2.3887
5.0061 -2.2527 2.3887
5.0831 -2.0713 2.3887
5.1535 -1.8873 2.3887
5.2172 -1.7009 2.3887
5.2742 -1.5123 2.3887
5.3244 -1.3219 2.3887
5.3677 -1.1298 2.3887
5.4041 -0.9363 2.3887
5.4334 -0.7417 2.3887
5.4558 -0.5460 2.3887
5.4712 -0.3497 2.3887
5.4794 -0.1532 2.3887
5.4807 0.0436 2.3887
5.4748 0.2402 2.3887
5.4619 0.4366 2.3887
5.4420 0.6322 2.3887
5.4150 0.8271 2.3887
5.3811 1.0208 2.3887
5.3403 1.2132 2.3887
5.2926 1.4039 2.3887
5.2381 1.5928 2.3887
5.1769 1.7796 2.3887
5.1090 1.9641 2.3887
5.0345 2.1460 2.3887
4.9536 2.3251 2.3887
4.8663 2.5011 2.3887
4.7728 2.6739 2.3887
4.6732 2.8432 2.3887
4.5675 3.0089 2.3887
4.4560 3.1706 2.3887
4.3388 3.3282 2.3887
4.2161 3.4815 2.3887
4.0879 3.6302 2.3887
3.9545 3.7743 2.3887
3.8161 3.9131 2.3887
3.6727 4.0476 2.3887
3.5247 4.1765 2.3887
3.3721 4.2999 2.3887
3.2153 4.4180 2.3887
3.0543 4.5303 2.3887
2.8894 4.6367 2.3887
2.7208 4.7372 2.3887
2.5487 4.8315 2.3887
2.3734 4.9196 2.3887
0.8711 1.9847 0.9479
0.7993 2.0149 0.9480
0.7265 2.0425 0.9482
0.6527 2.0674 0.9483
0.5781 2.0897 0.9484
0.5027 2.1093 0.9485
0.4266 2.1261 0.9486
0.3500 2.1402 0.9487
0.2729 2.1515 0.9488
0.1955 2.1601 0.9488
0.1178 2.1658 0.9489
0.0399 2.1687 0.9489
-0.0380 2.1688 0.9490
-0.1159 2.1661 0.9490
-0.1936 2.1606 0.9490
-0.2711 2.1523 0.9490
-0.3482 2.1412 0.9490
-0.4249 2.1274 0.9490
-0.5010 2.1107 0.9490
-0.5765 2.0914 0.9489
-0.6513 2.0693 0.9489
-0.7252 2.0445 0.9488
