ply
format ascii 1.0
element vertex 2199
property float32 x
property float32 y
property float32 z
end_header
6.4250 4.5500 0.5884
6.4444 4.9200 0.6065
6.4650 5.3134 0.6266
6.4870 5.7334 0.6488
6.5107 6.1841 0.6735
6.5361 6.6702 0.7010
6.3501 6.9632 0.7080
5.9257 6.9855 0.6887
5.9102 7.4965 0.7182
5.1418 -4.4840 0.4893
9.1318 -0.9850 0.6710
7.7913 0.2807 0.5723
5.5384 0.3988 0.4081
5.5488 0.6002 0.4107
5.5595 0.8040 0.4138
5.5703 1.0107 0.4176
6.2583 1.3690 0.4731
6.2709 1.6095 0.4786
6.2838 1.8554 0.4849
6.2970 2.1076 0.4920
6.3106 2.3670 0.5000
6.3246 2.6347 0.5088
6.3392 2.9118 0.5186
6.3542 3.1995 0.5294
6.3700 3.4992 0.5414
6.3864 3.8126 0.5547
6.4036 4.1414 0.5693
6.4218 4.4877 0.5854
6.4410 4.8540 0.6032
6.4613 5.2431 0.6229
6.4831 5.6582 0.6447
6.5064 6.1032 0.6690
6.5316 6.5828 0.6960
6.4265 6.9592 0.7115
5.9979 6.9817 0.6919
5.9049 7.3942 0.7119
5.0985 -4.5026 0.4878
9.0961 -1.0387 0.6687
8.3839 0.2497 0.6156
5.8325 0.3834 0.4295
5.5470 0.5650 0.4102
5.5576 0.7683 0.4132
5.5684 0.9745 0.4169
6.2561 1.3277 0.4722
6.2687 1.5672 0.4776
6.2815 1.8121 0.4838
5.0306 -4.6568 0.6467
5.1935 -4.4727 0.6471
9.1523 -0.9300 0.8809
7.2809 0.3075 0.7004
5.5401 0.4334 0.5346
5.5506 0.6352 0.5379
5.5614 0.8395 0.5420
6.2481 1.1737 0.6132
6.2605 1.4102 0.6196
6.2731 1.6515 0.6268
6.2861 1.8984 0.6351
6.2993 2.1518 0.6444
6.3130 2.4126 0.6547
6.3271 2.6818 0.6663
6.3417 2.9607 0.6792
6.3569 3.2503 0.6934
6.3727 3.5523 0.7092
6.3893 3.8682 0.7265
6.4067 4.1999 0.7457
6.4250 4.5495 0.7670
6.4444 4.9196 0.7904
6.4650 5.3129 0.8164
6.4870 5.7329 0.8452
6.5106 6.1835 0.8772
6.5361 6.6697 0.9129
6.3505 6.9632 0.9218
5.9261 6.9855 0.8966
5.9102 7.4959 0.9348
5.1415 -4.4841 0.6440
9.1165 -0.9839 0.8779
7.7961 0.2805 0.7496
5.5408 0.3987 0.5343
5.5488 0.5999 0.5373
5.5595 0.8037 0.5413
5.5703 1.0104 0.5460
6.2583 1.3687 0.6184
6.2709 1.6091 0.6255
6.2838 1.8550 0.6336
6.2970 2.1072 0.6427
6.3106 2.3666 0.6529
6.3246 2.6343 0.6642
6.3391 2.9114 0.6768
6.3542 3.1991 0.6908
6.3699 3.4988 0.7063
6.3864 3.8121 0.7234
6.4036 4.1409 0.7423
6.4217 4.4873 0.7631
6.4409 4.8536 0.7862
6.4613 5.2426 0.8117
6.4831 5.6577 0.8400
6.5064 6.1027 0.8714
6.5315 6.5822 0.9064
6.4270 6.9592 0.9265
5.9983 6.9817 0.9008
5.9048 7.3937 0.9265
5.0983 -4.5028 0.6420
9.0809 -1.0375 0.8749
8.3895 0.2494 0.8064
5.8352 0.3833 0.5624
5.5470 0.5647 0.5367
5.5576 0.7680 0.5405
5.5684 0.9742 0.5451
6.2561 1.3273 0.6172
6.2687 1.5669 0.6242
6.2815 1.8118 0.6321
5.0307 -4.6573 0.8029
5.1931 -4.4727 0.8031
9.1368 -0.9289 1.0886
7.2851 0.3073 0.8669
5.5401 0.4331 0.6612
5.5506 0.6349 0.6652
5.5613 0.8392 0.6702
6.2481 1.1733 0.7580
6.2605 1.4098 0.7658
6.2731 1.6511 0.7746
6.2860 1.8981 0.7847
6.2993 2.1514 0.7960
6.3130 2.4122 0.8087
6.3271 2.6815 0.8229
6.3417 2.9603 0.8386
6.3569 3.2499 0.8561
6.3727 3.5519 0.8754
6.3893 3.8678 0.8967
6.4067 4.1995 0.9203
6.4250 4.5491 0.9463
6.4444 4.9191 0.9751
6.4650 5.3124 1.0070
6.4870 5.7324 1.0424
6.5106 6.1830 1.0818
6.5361 6.6691 1.1256
6.3510 6.9632 1.1366
5.9265 6.9854 1.1054
5.9102 7.4953 1.1523
5.1411 -4.4842 0.7993
9.1011 -0.9827 1.0849
7.8010 0.2802 0.9279
5.5433 0.3986 0.6611
5.5488 0.5996 0.6644
5.5595 0.8034 0.6692
5.5703 1.0101 0.6750
6.2583 1.3683 0.7643
6.2709 1.6087 0.7730
6.2838 1.8546 0.7828
6.2970 2.1068 0.7939
6.3106 2.3662 0.8064
6.3246 2.6339 0.8203
6.3391 2.9110 0.8358
6.3542 3.1987 0.8529
6.3699 3.4984 0.8719
6.3863 3.8117 0.8928
6.4036 4.1405 0.9160
6.4217 4.4868 0.9416
6.4409 4.8531 0.9699
6.4613 5.2421 1.0013
6.4830 5.6572 1.0360
6.5064 6.1021 1.0746
6.5315 6.5817 1.1177
6.4274 6.9592 1.1424
5.9987 6.9817 1.1106
5.9048 7.3931 1.1421
5.0981 -4.5030 0.7969
9.0656 -1.0362 1.0813
8.3951 0.2491 0.9983
5.8380 0.3831 0.6959
5.5469 0.5644 0.6637
5.5576 0.7677 0.6683
5.5684 0.9739 0.6739
6.2561 1.3270 0.7629
6.2687 1.5665 0.7714
6.2815 1.8114 0.7810
5.0308 -4.6577 0.9599
5.1927 -4.4728 0.9600
9.7678 -1.3490 1.3938
9.1213 -0.9278 1.2968
9.7940 -0.6425 1.3891
7.2894 0.3071 1.0345
5.5400 0.4328 0.7884
5.5506 0.6346 0.7932
5.5613 0.8388 0.7990
6.2480 1.1730 0.9037
6.2604 1.4095 0.9127
6.2731 1.6508 0.9232
6.2860 1.8977 0.9351
6.2993 2.1511 0.9485
6.3130 2.4118 0.9635
6.3271 2.6811 0.9803
6.3417 2.9599 0.9989
6.3569 3.2495 1.0196
6.3727 3.5515 1.0425
6.3892 3.8674 1.0678
6.4066 4.1990 1.0958
6.4250 4.5486 1.1267
6.4443 4.9186 1.1609
6.4650 5.3119 1.1987
6.4870 5.7319 1.2407
6.5106 6.1825 1.2875
6.5361 6.6686 1.3396
6.3514 6.9632 1.3526
5.9270 6.9854 1.3153
5.9101 7.4948 1.3710
5.1408 -4.4843 0.9555
9.7274 -1.4054 1.3891
9.0857 -0.9816 1.2924
9.8116 -0.7052 1.3920
7.8059 0.2800 1.1074
5.5458 0.3984 0.7888
5.5488 0.5993 0.7923
5.5594 0.8031 0.7979
5.5703 1.0098 0.8046
6.2583 1.3680 0.9111
6.2709 1.6084 0.9213
6.2837 1.8543 0.9329
6.2970 2.1064 0.9460
6.3106 2.3659 0.9608
6.3246 2.6335 0.9772
6.3391 2.9106 0.9955
6.3542 3.1982 1.0159
6.3699 3.4979 1.0383
6.3863 3.8113 1.0632
6.4035 4.1401 1.0907
6.4217 4.4864 1.1211
6.4409 4.8526 1.1546
6.4613 5.2416 1.1918
6.4830 5.6567 1.2331
6.5063 6.1016 1.2790
6.5315 6.5811 1.3301
6.4279 6.9592 1.3595
5.9992 6.9816 1.3216
5.9048 7.3925 1.3589
5.0979 -4.5032 0.9526
9.7195 -1.4663 1.3891
9.0503 -1.0350 1.2881
9.8244 -0.7678 1.3944
8.4009 0.2488 1.1915
5.8407 0.3830 0.8303
5.5469 0.5641 0.7914
5.5576 0.7674 0.7968
5.5684 0.9735 0.8034
6.2561 1.3266 0.9094
6.2686 1.5661 0.9194
6.2815 1.8110 0.9308
5.0309 -4.6582 1.1179
5.1924 -4.4728 1.1178
8.8004 -1.5393 1.4679
8.4732 -1.1707 1.4062
8.4523 -0.8602 1.3975
8.5494 -0.5613 1.4101
7.2937 0.3068 1.2034
5.5400 0.4325 0.9165
5.5506 0.6343 0.9219
5.5613 0.8385 0.9286
6.2480 1.1726 1.0502
6.2604 1.4091 1.0607
6.2731 1.6504 1.0727
6.2860 1.8973 1.0864
6.2993 2.1507 1.1019
6.3129 2.4115 1.1193
6.3271 2.6807 1.1387
6.3417 2.9595 1.1603
6.3568 3.2491 1.1842
6.3727 3.5511 1.2107
6.3892 3.8669 1.2400
6.4066 4.1986 1.2723
6.4249 4.5482 1.3081
6.4443 4.9182 1.3478
6.4649 5.3114 1.3916
6.4869 5.7314 1.4403
6.5106 6.1820 1.4944
6.5360 6.6680 1.5548
6.3519 6.9631 1.5701
5.9274 6.9854 1.5267
5.9101 7.4942 1.5910
5.1405 -4.4844 1.1126
8.4850 -1.2264 1.4093
8.4356 -0.9118 1.3955
8.5324 -0.6137 1.4077
9.0926 -0.3269 1.4981
7.8109 0.2797 1.2883
5.5483 0.3983 0.9174
5.5487 0.5990 0.9209
5.5594 0.8028 0.9274
5.5703 1.0095 0.9351
6.2582 1.3676 1.0587
6.2708 1.6080 1.0705
6.2837 1.8539 1.0839
6.2969 2.1061 1.0991
6.3105 2.3655 1.1161
6.3246 2.6331 1.1352
6.3391 2.9102 1.1563
6.3542 3.1978 1.1798
6.3699 3.4975 1.2059
6.3863 3.8108 1.2347
6.4035 4.1396 1.2665
6.4217 4.4859 1.3016
6.4409 4.8522 1.3406
6.4612 5.2412 1.3837
6.4830 5.6562 1.4315
6.5063 6.1011 1.4846
6.5314 6.5806 1.5438
6.4284 6.9591 1.5781
5.9996 6.9816 1.5339
5.9048 7.3920 1.5770
5.0976 -4.5034 1.1093
8.4969 -1.2823 1.4124
8.4294 -0.9644 1.3953
8.5154 -0.6660 1.4055
8.8711 -0.3745 1.4618
8.4066 0.2485 1.3861
5.8435 0.3828 0.9657
5.5469 0.5638 0.9199
5.5576 0.7671 0.9261
5.5684 0.9732 0.9337
6.2561 1.3262 1.0568
6.2686 1.5658 1.0683
6.2815 1.8106 1.0815
5.0310 -4.6587 1.2771
5.1920 -4.4729 1.2769
8.6322 -1.1931 1.6349
8.6009 -0.8759 1.6228
8.7594 -0.5756 1.6485
7.2981 0.3066 1.3737
5.5400 0.4322 1.0456
5.5506 0.6340 1.0517
5.5613 0.8382 1.0592
6.2480 1.1723 1.1978
6.2604 1.4087 1.2097
6.2730 1.6500 1.2233
6.2860 1.8969 1.2389
6.2993 2.1503 1.2565
6.3129 2.4111 1.2762
6.3270 2.6803 1.2983
6.3416 2.9591 1.3228
6.3568 3.2487 1.3500
6.3726 3.5506 1.3801
6.3892 3.8665 1.4134
6.4066 4.1981 1.4503
6.4249 4.5477 1.4910
6.4443 4.9177 1.5360
6.4649 5.3109 1.5860
6.4869 5.7309 1.6414
6.5105 6.1814 1.7030
6.5360 6.6674 1.7717
6.3524 6.9631 1.7891
5.9278 6.9854 1.7396
5.9101 7.4936 1.8127
5.1401 -4.4844 1.2709
8.6458 -1.2501 1.6388
8.5829 -0.9282 1.6203
8.6970 -0.6261 1.6373
7.8158 0.2795 1.4707
5.5508 0.3982 1.0470
5.5487 0.5987 1.0505
5.5594 0.8024 1.0578
5.5702 1.0091 1.0666
6.2582 1.3672 1.2075
6.2708 1.6076 1.2208
6.2837 1.8535 1.2361
6.2969 2.1057 1.2533
6.3105 2.3651 1.2726
6.3245 2.6327 1.2943
6.3391 2.9098 1.3183
6.3541 3.1974 1.3451
6.3698 3.4971 1.3746
6.3863 3.8104 1.4074
6.4035 4.1392 1.4436
6.4216 4.4855 1.4836
6.4408 4.8517 1.5279
6.4612 5.2407 1.5769
6.4830 5.6557 1.6313
6.5063 6.1006 1.6918
6.5314 6.5800 1.7592
6.4288 6.9591 1.7983
6.0000 6.9816 1.7478
5.9047 7.3914 1.7968
5.0974 -4.5036 1.2672
8.6884 -1.3117 1.6483
8.5820 -0.9824 1.6211
8.6691 -0.6785 1.6327
8.4124 0.2482 1.5825
5.8463 0.3827 1.1022
5.5469 0.5635 1.0494
5.5575 0.7668 1.0564
5.5683 0.9729 1.0649
6.2561 1.3259 1.2053
6.2686 1.5654 1.2184
6.2814 1.8103 1.2333
5.0311 -4.6592 1.4377
5.1916 -4.4730 1.4372
8.8004 -1.2169 1.8748
8.7465 -0.8912 1.8562
7.3024 0.3064 1.5457
5.5400 0.4319 1.1757
5.5506 0.6337 1.1825
5.5613 0.8379 1.1909
6.2480 1.1719 1.3467
6.2604 1.4084 1.3600
6.2730 1.6497 1.3753
6.2860 1.8966 1.3927
6.2992 2.1499 1.4124
6.3129 2.4107 1.4345
6.3270 2.6799 1.4592
6.3416 2.9586 1.4867
6.3568 3.2483 1.5172
6.3726 3.5502 1.5510
6.3892 3.8661 1.5884
6.4066 4.1977 1.6297
6.4249 4.5473 1.6754
6.4443 4.9172 1.7259
6.4649 5.3105 1.7820
6.4869 5.7303 1.8441
6.5105 6.1809 1.9133
6.5360 6.6669 1.9904
6.3528 6.9631 2.0101
5.9282 6.9853 1.9543
5.9101 7.4931 2.0363
5.1397 -4.4845 1.4305
8.9178 -1.2899 1.9014
8.7272 -0.9443 1.8531
8.9426 -0.6443 1.8936
7.8209 0.2792 1.6550
5.5533 0.3980 1.1779
5.5487 0.5984 1.1812
5.5594 0.8021 1.1894
5.5702 1.0088 1.1991
6.2582 1.3669 1.3575
6.2708 1.6073 1.3724
6.2837 1.8531 1.3895
6.2969 2.1053 1.4088
6.3105 2.3647 1.4305
6.3245 2.6323 1.4547
6.3390 2.9094 1.4817
6.3541 3.1970 1.5117
6.3698 3.4967 1.5449
6.3862 3.8100 1.5816
6.4035 4.1387 1.6222
6.4216 4.4850 1.6671
6.4408 4.8512 1.7168
6.4612 5.2402 1.7718
6.4829 5.6551 1.8328
6.5063 6.1000 1.9007
6.5314 6.5795 1.9764
6.4293 6.9591 2.0204
6.0004 6.9816 1.9636
5.9047 7.3908 2.0184
5.0972 -4.5038 1.4264
8.7323 -1.0001 1.8554
8.8460 -0.6929 1.8739
8.4182 0.2479 1.7808
5.8491 0.3825 1.2400
5.5469 0.5631 1.1800
5.5575 0.7664 1.1878
5.5683 0.9726 1.1973
6.2560 1.3255 1.3551
6.2686 1.5650 1.3697
6.2814 1.8099 1.3864
6.2973 -7.2358 2.2359
6.5513 -7.0040 2.2360
6.7968 -6.7633 2.2362
5.0313 -4.6597 1.5998
5.1913 -4.4731 1.5991
7.4788 -5.9907 2.2367
7.6871 -5.7175 2.2369
7.8856 -5.4372 2.2372
8.0739 -5.1501 2.2375
8.2518 -4.8564 2.2379
8.4189 -4.5565 2.2382
8.5744 -4.2505 2.2383
8.7139 -3.9371 2.2372
8.8512 -3.6229 2.2385
8.9784 -3.3043 2.2400
9.0924 -2.9807 2.2412
9.1902 -2.6518 2.2413
9.2759 -2.3197 2.2412
9.3495 -1.9849 2.2412
9.4111 -1.6477 2.2412
9.2553 -1.2803 2.1927
8.7924 -0.8964 2.0748
9.3589 -0.6161 2.2027
9.5351 -0.2848 2.2412
9.5355 0.0573 2.2412
7.3069 0.3061 1.7196
5.5400 0.4316 1.3071
5.5505 0.6333 1.3146
5.5613 0.8376 1.3239
6.2480 1.1715 1.4970
6.2604 1.4080 1.5117
6.2730 1.6493 1.5286
6.2859 1.8962 1.5480
6.2992 2.1495 1.5698
6.3129 2.4103 1.5943
6.3270 2.6795 1.6217
6.3416 2.9582 1.6522
6.3568 3.2479 1.6860
6.3726 3.5498 1.7235
6.3892 3.8656 1.7650
6.4065 4.1972 1.8108
6.4249 4.5468 1.8615
6.4442 4.9167 1.9176
6.4648 5.3099 1.9798
6.4869 5.7298 2.0488
6.5105 6.1803 2.1256
6.6247 6.7568 2.2413
6.3763 6.9883 2.2413
5.9286 6.9853 2.1712
5.8558 7.4238 2.2413
5.5834 7.6258 2.2408
5.3038 7.8177 2.2403
5.0176 7.9994 2.2398
4.7253 8.1707 2.2393
4.4272 8.3314 2.2387
4.1237 8.4813 2.2382
3.8152 8.6202 2.2376
3.5020 8.7480 2.2370
3.1846 8.8646 2.2365
2.8635 8.9698 2.2359
6.2523 -7.2753 2.2359
6.5076 -7.0450 2.2360
6.7547 -6.8058 2.2362
6.9929 -6.5580 2.2363
5.1394 -4.4846 1.5916
7.4416 -6.0376 2.2367
7.6515 -5.7656 2.2369
7.8517 -5.4865 2.2372
8.0419 -5.2006 2.2375
8.2216 -4.9080 2.2378
8.3906 -4.6091 2.2381
8.5487 -4.3045 2.2384
8.6903 -3.9919 2.2374
8.8279 -3.6778 2.2382
8.9571 -3.3601 2.2398
9.0740 -3.0375 2.2411
9.1741 -2.7094 2.2413
9.2618 -2.3778 2.2412
9.3376 -2.0434 2.2412
9.4012 -1.7066 2.2412
9.2837 -1.3434 2.2012
8.7701 -0.9495 2.0708
9.2954 -0.6702 2.1886
9.5338 -0.3444 2.2412
9.5363 -0.0023 2.2412
7.8260 0.2789 1.8412
5.5559 0.3979 1.3101
5.5487 0.5980 1.3132
5.5594 0.8018 1.3222
5.5702 1.0085 1.3330
6.2582 1.3665 1.5090
6.2708 1.6069 1.5255
6.2837 1.8527 1.5444
6.2969 2.1049 1.5658
6.3105 2.3643 1.5898
6.3245 2.6319 1.6167
6.3390 2.9090 1.6467
6.3541 3.1966 1.6799
6.3698 3.4962 1.7167
6.3862 3.8095 1.7574
6.4034 4.1383 1.8025
6.4216 4.4845 1.8523
6.4408 4.8507 1.9074
6.4612 5.2397 1.9685
6.4829 5.6546 2.0363
6.5062 6.0995 2.1116
6.6671 6.7156 2.2413
6.4201 6.9486 2.2413
6.0009 6.9815 2.1815
5.9024 7.3874 2.2413
5.6314 7.5914 2.2409
5.3529 7.7851 2.2404
5.0679 7.9685 2.2399
4.7767 8.1416 2.2394
4.4795 8.3042 2.2388
4.1769 8.4560 2.2383
3.8693 8.5968 2.2377
3.5569 8.7266 2.2371
3.2402 8.8451 2.2366
2.9196 8.9522 2.2360
6.4636 -7.0855 2.2359
6.7123 -6.8481 2.2361
6.9520 -6.6018 2.2363
5.0970 -4.5040 1.5871
7.4040 -6.0841 2.2367
7.6157 -5.8135 2.2369
7.8176 -5.5356 2.2371
8.0095 -5.2508 2.2374
8.1910 -4.9594 2.2377
8.3619 -4.6616 2.2381
8.5219 -4.3579 2.2384
8.6656 -4.0463 2.2373
8.8043 -3.7327 2.2379
8.9354 -3.4158 2.2395
9.0551 -3.0942 2.2411
9.1576 -2.7668 2.2413
9.2474 -2.4357 2.2412
9.3253 -2.1018 2.2412
9.3910 -1.7654 2.2412
9.4446 -1.4270 2.2412
8.7776 -1.0058 2.0739
9.2878 -0.7280 2.1877
9.5321 -0.4040 2.2412
9.5367 -0.0619 2.2412
8.4241 0.2476 1.9814
5.8520 0.3824 1.3793
5.5469 0.5628 1.3118
5.5575 0.7661 1.3205
5.5683 0.9722 1.3310
6.2560 1.3251 1.5063
6.2686 1.5647 1.5225
6.2814 1.8095 1.5409
1.9805 -9.1022 2.3883
2.3053 -9.0247 2.3883
2.6269 -8.9354 2.3883
2.9452 -8.8346 2.3883
3.2595 -8.7222 2.3883
3.5696 -8.5987 2.3883
3.8749 -8.4640 2.3883
4.1751 -8.3184 2.3883
4.4698 -8.1620 2.3883
4.7586 -7.9951 2.3883
5.0411 -7.8180 2.3883
5.3170 -7.6307 2.3883
5.2295 -6.9593 2.2359
5.4744 -6.7659 2.2359
5.7120 -6.5638 2.2359
5.9422 -6.3533 2.2359
6.1646 -6.1347 2.2359
5.0314 -4.6602 1.7636
5.1909 -4.4732 1.7626
6.7857 -5.4360 2.2371
6.9747 -5.1882 2.2373
7.1547 -4.9338 2.2375
7.3257 -4.6733 2.2377
7.4871 -4.4069 2.2380
7.6356 -4.1331 2.2373
7.7745 -3.8545 2.2368
7.9093 -3.5741 2.2380
8.0348 -3.2892 2.2394
8.1500 -2.9999 2.2408
8.2511 -2.7054 2.2413
8.3399 -2.4070 2.2413
8.4179 -2.1057 2.2413
8.4850 -1.8019 2.2413
8.5412 -1.4959 2.2413
8.5862 -1.1883 2.2413
8.6203 -0.8793 2.2413
8.6432 -0.5694 2.2413
8.6549 -0.2591 2.2413
8.6555 0.0515 2.2413
7.3114 0.3059 1.8955
5.5400 0.4312 1.4399
5.5505 0.6330 1.4481
5.5612 0.8372 1.4583
6.2479 1.1712 1.6489
6.2603 1.4076 1.6650
6.2730 1.6489 1.6836
6.2859 1.8958 1.7049
6.2992 2.1491 1.7289
6.3129 2.4099 1.7558
6.3270 2.6791 1.7859
6.3416 2.9578 1.8194
6.3568 3.2474 1.8566
6.3726 3.5493 1.8978
6.3891 3.8652 1.9434
6.4065 4.1968 1.9939
6.4248 4.5463 2.0496
6.4442 4.9162 2.1114
6.4648 5.3094 2.1798
6.4453 5.6926 2.2413
6.2352 5.9186 2.2413
6.0174 6.1369 2.2413
5.7919 6.3473 2.2413
5.5582 6.5484 2.2409
5.3174 6.7407 2.2404
5.0700 6.9243 2.2400
4.8164 7.0988 2.2395
4.5567 7.2640 2.2390
4.2914 7.4199 2.2386
4.0208 7.5661 2.2381
3.7453 7.7026 2.2376
3.4652 7.8290 2.2371
3.1809 7.9454 2.2365
2.8927 8.0515 2.2360
2.6772 8.3857 2.3009
2.4645 8.7975 2.3883
0.8605 3.5588 0.9572
0.7324 3.5878 0.9574
0.6032 3.6122 0.9576
0.4733 3.6319 0.9577
0.3427 3.6469 0.9579
0.2116 3.6571 0.9580
0.0802 3.6626 0.9580
-0.0512 3.6634 0.9581
-0.1827 3.6594 0.9581
-0.3139 3.6506 0.9582
-0.4447 3.6371 0.9582
-0.5749 3.6189 0.9581
-0.7044 3.5960 0.9581
-0.8330 3.5684 0.9580
-2.3948 8.8165 2.3883
-2.7098 8.7258 2.3883
-3.0215 8.6239 2.3883
-3.3294 8.5110 2.3883
-3.6332 8.3872 2.3883
-3.9324 8.2526 2.3883
-4.2266 8.1075 2.3883
-4.5156 7.9520 2.3883
-4.7988 7.7862 2.3883
-5.0761 7.6105 2.3883
-5.3470 7.4250 2.3883
-5.6111 7.2299 2.3883
-5.8682 7.0255 2.3883
-6.1179 6.8121 2.3883
-6.3599 6.5898 2.3883
-6.5939 6.3590 2.3883
-6.8196 6.1199 2.3883
-7.0366 5.8729 2.3883
-7.2448 5.6182 2.3883
-7.4438 5.3563 2.3883
-7.6334 5.0873 2.3883
-7.8134 4.8116 2.3883
-7.9834 4.5296 2.3883
-8.1433 4.2417 2.3883
-8.2928 3.9481 2.3883
-8.4319 3.6493 2.3883
-8.5602 3.3456 2.3883
-8.6776 3.0374 2.3883
-8.7839 2.7251 2.3883
-8.8791 2.4092 2.3883
-8.9629 2.0899 2.3883
-9.0352 1.7677 2.3883
-9.0960 1.4430 2.3883
-9.1452 1.1163 2.3883
-9.1826 0.7879 2.3883
-9.2082 0.4583 2.3883
-9.2220 0.1278 2.3883
-9.2240 -0.2031 2.3883
-9.2141 -0.5339 2.3883
-9.1923 -0.8643 2.3883
-9.1587 -1.1938 2.3883
-9.1132 -1.5220 2.3883
-9.0560 -1.8484 2.3883
-8.9870 -2.1727 2.3883
-8.9064 -2.4944 2.3883
-8.8143 -2.8131 2.3883
-8.7108 -3.1283 2.3883
-8.5959 -3.4398 2.3883
-8.4699 -3.7470 2.3883
-8.3328 -4.0496 2.3883
-8.1849 -4.3471 2.3883
-8.0263 -4.6392 2.3883
-7.8573 -4.9254 2.3883
-7.6780 -5.2055 2.3883
-7.4886 -5.4790 2.3883
-7.2895 -5.7456 2.3883
-7.0808 -6.0049 2.3883
-6.8629 -6.2565 2.3883
-6.6360 -6.5002 2.3883
-6.4003 -6.7356 2.3883
-6.1563 -6.9624 2.3883
-5.9041 -7.1803 2.3883
-5.6443 -7.3889 2.3883
-5.3770 -7.5881 2.3883
-5.1026 -7.7775 2.3883
-4.8214 -7.9570 2.3883
-4.5340 -8.1261 2.3883
-4.2406 -8.2848 2.3883
-3.9415 -8.4328 2.3883
-3.6373 -8.5699 2.3883
-3.3283 -8.6960 2.3883
-3.0148 -8.8107 2.3883
-2.6974 -8.9141 2.3883
-2.3765 -9.0060 2.3883
-2.0523 -9.0861 2.3883
-1.7255 -9.1545 2.3883
-1.3964 -9.2110 2.3883
-1.0655 -9.2556 2.3883
-0.7331 -9.2882 2.3883
-0.3998 -9.3087 2.3883
-0.0659 -9.3171 2.3883
0.2681 -9.3135 2.3883
0.6016 -9.2977 2.3883
0.9344 -9.2699 2.3883
1.2660 -9.2301 2.3883
1.5959 -9.1782 2.3883
1.9237 -9.1145 2.3883
2.2489 -9.0390 2.3883
2.5712 -8.9518 2.3883
2.8900 -8.8531 2.3883
3.2051 -8.7426 2.3883
3.5159 -8.6210 2.3883
3.8221 -8.4882 2.3883
4.1232 -8.3445 2.3883
4.4189 -8.1900 2.3883
4.7088 -8.0249 2.3883
4.9924 -7.8495 2.3883
5.2695 -7.6641 2.3883
5.1861 -6.9921 2.2359
5.4322 -6.8002 2.2359
5.6712 -6.5996 2.2359
5.9027 -6.3906 2.2359
6.1264 -6.1733 2.2359
6.3421 -5.9482 2.2359
5.1390 -4.4847 1.7544
6.7518 -5.4784 2.2371
6.9424 -5.2318 2.2372
7.1240 -4.9785 2.2374
7.2966 -4.7191 2.2377
7.4597 -4.4537 2.2380
7.6115 -4.1817 2.2378
7.7511 -3.9034 2.2369
7.8865 -3.6232 2.2378
8.0137 -3.3391 2.2392
8.1307 -3.0506 2.2406
8.2345 -2.7570 2.2413
8.3252 -2.4591 2.2413
8.4051 -2.1583 2.2413
8.4741 -1.8549 2.2413
8.5322 -1.5493 2.2413
8.5792 -1.2420 2.2413
8.6151 -0.9332 2.2413
8.6400 -0.6235 2.2413
8.6537 -0.3131 2.2413
8.6562 -0.0026 2.2413
7.8312 0.2787 2.0296
5.5585 0.3978 1.4439
5.5487 0.5977 1.4465
5.5594 0.8015 1.4564
5.5702 1.0081 1.4683
6.2582 1.3661 1.6621
6.2708 1.6065 1.6802
6.2836 1.8524 1.7010
6.2969 2.1045 1.7245
6.3105 2.3639 1.7509
6.3245 2.6315 1.7804
6.3390 2.9085 1.8133
6.3541 3.1962 1.8499
6.3698 3.4958 1.8904
6.3862 3.8091 1.9352
6.4034 4.1378 1.9847
6.4216 4.4841 2.0395
6.4408 4.8502 2.1002
6.4611 5.2392 2.1674
6.4810 5.6525 2.2413
6.2724 5.8798 2.2413
6.0559 6.0995 2.2413
5.8317 6.3112 2.2413
5.5994 6.5140 2.2410
5.3598 6.7079 2.2405
5.1136 6.8929 2.2401
4.8610 7.0690 2.2396
4.6023 7.2359 2.2391
4.3380 7.3934 2.2386
4.0683 7.5413 2.2381
3.7936 7.6795 2.2376
3.5143 7.8077 2.2371
3.2307 7.9259 2.2366
2.9432 8.0338 2.2361
2.6768 8.2072 2.2564
2.5195 8.7821 2.3883
0.8827 3.5533 0.9572
0.7547 3.5831 0.9574
0.6258 3.6083 0.9575
0.4959 3.6288 0.9577
0.3654 3.6446 0.9578
0.2344 3.6557 0.9579
0.1031 3.6620 0.9580
-0.0284 3.6636 0.9581
-0.1598 3.6604 0.9581
-0.2911 3.6525 0.9582
-0.4220 3.6398 0.9582
-0.5523 3.6224 0.9581
-0.6819 3.6003 0.9581
-0.8107 3.5736 0.9580
-2.3396 8.8312 2.3883
-2.6552 8.7424 2.3883
-2.9675 8.6424 2.3883
-3.2761 8.5314 2.3883
-3.5806 8.4095 2.3883
-3.8806 8.2768 2.3883
-4.1757 8.1335 2.3883
-4.4656 7.9798 2.3883
-4.7499 7.8158 2.3883
-5.0283 7.6418 2.3883
-5.3003 7.4580 2.3883
-5.5656 7.2646 2.3883
-5.8240 7.0618 2.3883
-6.0750 6.8499 2.3883
-6.3183 6.6291 2.3883
-6.5538 6.3998 2.3883
-6.7809 6.1621 2.3883
-6.9995 5.9165 2.3883
-7.2092 5.6631 2.3883
-7.4098 5.4024 2.3883
-7.6011 5.1346 2.3883
-7.7827 4.8601 2.3883
-7.9545 4.5792 2.3883
-8.1162 4.2923 2.3883
-8.2676 3.9996 2.3883
-8.4084 3.7017 2.3883
-8.5386 3.3988 2.3883
-8.6579 3.0914 2.3883
-8.7662 2.7798 2.3883
-8.8633 2.4644 2.3883
-8.9491 2.1457 2.3883
-9.0234 1.8240 2.3883
-9.0863 1.4997 2.3883
-9.1374 1.1733 2.3883
-9.1769 0.8451 2.3883
-9.2046 0.5158 2.3883
-9.2205 0.1854 2.3883
-9.2245 -0.1455 2.3883
-9.2167 -0.4763 2.3883
-9.1970 -0.8068 2.3883
-9.1654 -1.1364 2.3883
-9.1220 -1.4649 2.3883
-9.0668 -1.7917 2.3883
-8.9999 -2.1164 2.3883
-8.9213 -2.4386 2.3883
-8.8312 -2.7578 2.3883
-8.7296 -3.0737 2.3883
-8.6167 -3.3858 2.3883
-8.4926 -3.6938 2.3883
-8.3574 -3.9972 2.3883
-8.2114 -4.2957 2.3883
-8.0547 -4.5887 2.3883
-7.8874 -4.8760 2.3883
-7.7099 -5.1572 2.3883
-7.5223 -5.4319 2.3883
-7.3249 -5.6997 2.3883
-7.1178 -5.9603 2.3883
-6.9015 -6.2133 2.3883
-6.6761 -6.4584 2.3883
-6.4420 -6.6952 2.3883
-6.1994 -6.9235 2.3883
-5.9486 -7.1430 2.3883
-5.6901 -7.3533 2.3883
-5.4240 -7.5541 2.3883
-5.1508 -7.7453 2.3883
-4.8709 -7.9265 2.3883
-4.5845 -8.0974 2.3883
-4.2921 -8.2580 2.3883
-3.9940 -8.4078 2.3883
-3.6906 -8.5469 2.3883
-3.3824 -8.6748 2.3883
-3.0697 -8.7916 2.3883
-2.7530 -8.8969 2.3883
-2.4326 -8.9908 2.3883
-2.1090 -9.0730 2.3883
-1.7826 -9.1435 2.3883
-1.4539 -9.2021 2.3883
-1.1232 -9.2487 2.3883
-0.7911 -9.2834 2.3883
-0.4579 -9.3060 2.3883
-0.1241 -9.3165 2.3883
0.2099 -9.3150 2.3883
0.5436 -9.3013 2.3883
0.8766 -9.2756 2.3883
1.2084 -9.2379 2.3883
1.5386 -9.1881 2.3883
1.8668 -9.1265 2.3883
2.1925 -9.0530 2.3883
2.5153 -8.9678 2.3883
2.8348 -8.8710 2.3883
3.1505 -8.7626 2.3883
3.4621 -8.6430 2.3883
3.7691 -8.5122 2.3883
4.0711 -8.3703 2.3883
4.3678 -8.2177 2.3883
4.6587 -8.0544 2.3883
4.9435 -7.8808 2.3883
5.2217 -7.6971 2.3883
5.1426 -7.0246 2.2359
5.3899 -6.8343 2.2359
5.6301 -6.6352 2.2359
5.8629 -6.4276 2.2359
6.0880 -6.2117 2.2359
6.3051 -5.9880 2.2359
5.0968 -4.5042 1.7494
6.7177 -5.5207 2.2370
6.9099 -5.2752 2.2372
7.0931 -5.0231 2.2374
7.2672 -4.7647 2.2376
7.4320 -4.5003 2.2379
7.5872 -4.2302 2.2382
7.7268 -3.9519 2.2369
7.8633 -3.6722 2.2375
7.9923 -3.3889 2.2389
8.1110 -3.1011 2.2403
8.2176 -2.8085 2.2413
8.3102 -2.5112 2.2413
8.3920 -2.2109 2.2413
8.4629 -1.9079 2.2413
8.5229 -1.6027 2.2413
8.5718 -1.2956 2.2413
8.6097 -0.9870 2.2413
8.6364 -0.6774 2.2413
8.6521 -0.3672 2.2413
8.6566 -0.0567 2.2413
8.4301 0.2473 2.1843
5.8549 0.3822 1.5202
5.5468 0.5625 1.4450
5.5575 0.7658 1.4545
5.5683 0.9719 1.4661
6.2560 1.3248 1.6591
6.2685 1.5643 1.6769
6.2814 1.8091 1.6972
1.8099 -8.3189 2.3883
2.1067 -8.2480 2.3883
2.4008 -8.1665 2.3883
2.6916 -8.0744 2.3883
2.9789 -7.9720 2.3883
3.2623 -7.8590 2.3883
3.5414 -7.7360 2.3883
3.8158 -7.6030 2.3883
4.0852 -7.4602 2.3883
4.3492 -7.3078 2.3883
4.6075 -7.1460 2.3883
4.5497 -6.5299 2.2359
4.7798 -6.3614 2.2359
5.0037 -6.1847 2.2359
5.2211 -6.0001 2.2359
5.4316 -5.8078 2.2359
5.6349 -5.6081 2.2359
5.0315 -4.6607 1.9294
5.1905 -4.4732 1.9281
6.1997 -4.9671 2.2359
6.3721 -4.7404 2.2359
6.5362 -4.5077 2.2359
6.6977 -4.2731 2.2379
6.8408 -4.0269 2.2367
6.9780 -3.7776 2.2364
7.1107 -3.5259 2.2376
7.2344 -3.2696 2.2389
7.3490 -3.0089 2.2402
7.4533 -2.7439 2.2412
7.5446 -2.4742 2.2413
7.6260 -2.2014 2.2413
7.6976 -1.9259 2.2413
7.7591 -1.6482 2.2413
7.8107 -1.3685 2.2413
7.8522 -1.0872 2.2413
7.8835 -0.8046 2.2413
7.9047 -0.5213 2.2413
7.9156 -0.2374 2.2413
7.9164 0.0466 2.2413
7.3159 0.3057 2.0737
5.5399 0.4309 1.5742
5.5505 0.6327 1.5832
5.5612 0.8369 1.5943
6.2479 1.1708 1.8026
6.2603 1.4072 1.8202
6.2730 1.6485 1.8405
6.2859 1.8954 1.8636
6.2992 2.1487 1.8898
6.3128 2.4095 1.9192
6.3269 2.6787 1.9521
6.3416 2.9574 1.9886
6.3567 3.2470 2.0292
6.3726 3.5489 2.0742
6.3891 3.8647 2.1240
6.4065 4.1963 2.1791
6.4285 4.5484 2.2413
6.2595 4.7749 2.2413
6.0826 4.9950 2.2413
5.8980 5.2087 2.2413
5.7059 5.4156 2.2412
5.5057 5.6146 2.2409
5.2986 5.8063 2.2405
5.0848 5.9902 2.2401
4.8647 6.1664 2.2397
4.6386 6.3345 2.2393
4.4066 6.4944 2.2388
4.1692 6.6459 2.2384
3.9266 6.7887 2.2380
3.6791 6.9227 2.2375
3.4272 7.0477 2.2371
3.1710 7.1637 2.2366
2.9109 7.2704 2.2361
2.6506 7.3772 2.2385
2.5435 7.9665 2.3883
0.9026 3.2218 0.9556
0.7865 3.2525 0.9558
0.6694 3.2790 0.9560
0.5513 3.3012 0.9562
0.4325 3.3192 0.9563
0.3132 3.3329 0.9564
0.1934 3.3422 0.9565
0.0733 3.3472 0.9566
-0.0468 3.3479 0.9566
-0.1670 3.3442 0.9567
-0.2869 3.3362 0.9567
-0.4064 3.3239 0.9567
-0.5254 3.3072 0.9567
-0.6438 3.2863 0.9566
-0.7613 3.2611 0.9566
-0.8778 3.2316 0.9565
-2.4803 7.9862 2.3883
-2.7656 7.8929 2.3883
-3.0474 7.7894 2.3883
-3.3253 7.6760 2.3883
-3.5991 7.5528 2.3883
-3.8684 7.4199 2.3883
-4.1328 7.2774 2.3883
-4.3920 7.1257 2.3883
-4.6457 6.9647 2.3883
-4.8935 6.7948 2.3883
-5.1352 6.6162 2.3883
-5.3704 6.4289 2.3883
-5.5988 6.2335 2.3883
-5.8201 6.0300 2.3883
-6.0341 5.8187 2.3883
-6.2405 5.5998 2.3883
-6.4390 5.3736 2.3883
-6.6294 5.1405 2.3883
-6.8113 4.9006 2.3883
-6.9846 4.6544 2.3883
-7.1491 4.4021 2.3883
-7.3045 4.1440 2.3883
-7.4506 3.8804 2.3883
-7.5873 3.6117 2.3883
-7.7143 3.3382 2.3883
-7.8314 3.0603 2.3883
-7.9386 2.7783 2.3883
-8.0357 2.4925 2.3883
-8.1225 2.2034 2.3883
-8.1990 1.9113 2.3883
-8.2649 1.6165 2.3883
-8.3203 1.3195 2.3883
-8.3650 1.0206 2.3883
-8.3990 0.7202 2.3883
-8.4222 0.4186 2.3883
-8.4346 0.1164 2.3883
-8.4362 -0.1862 2.3883
-8.4268 -0.4888 2.3883
-8.4067 -0.7909 2.3883
-8.3757 -1.0922 2.3883
-8.3339 -1.3923 2.3883
-8.2813 -1.6908 2.3883
-8.2180 -1.9873 2.3883
-8.1441 -2.2814 2.3883
-8.0597 -2.5727 2.3883
-7.9647 -2.8609 2.3883
-7.8595 -3.1456 2.3883
-7.7440 -3.4264 2.3883
-7.6185 -3.7029 2.3883
-7.4831 -3.9749 2.3883
-7.3379 -4.2418 2.3883
-7.1832 -4.5034 2.3883
-7.0191 -4.7593 2.3883
-6.8459 -5.0092 2.3883
-6.6637 -5.2528 2.3883
-6.4728 -5.4897 2.3883
-6.2734 -5.7196 2.3883
-6.0658 -5.9423 2.3883
-5.8503 -6.1573 2.3883
-5.6271 -6.3645 2.3883
-5.3966 -6.5635 2.3883
-5.1590 -6.7541 2.3883
-4.9145 -6.9360 2.3883
-4.6637 -7.1091 2.3883
-4.4067 -7.2729 2.3883
-4.1439 -7.4275 2.3883
-3.8756 -7.5724 2.3883
-3.6023 -7.7076 2.3883
-3.3242 -7.8328 2.3883
-3.0417 -7.9479 2.3883
-2.7553 -8.0527 2.3883
-2.4652 -8.1471 2.3883
-2.1718 -8.2310 2.3883
-1.8756 -8.3042 2.3883
-1.5769 -8.3666 2.3883
-1.2761 -8.4182 2.3883
-0.9737 -8.4589 2.3883
-0.6699 -8.4887 2.3883
-0.3653 -8.5074 2.3883
-0.0602 -8.5151 2.3883
0.2450 -8.5117 2.3883
0.5498 -8.4974 2.3883
0.8540 -8.4720 2.3883
1.1570 -8.4356 2.3883
1.4585 -8.3883 2.3883
1.7580 -8.3301 2.3883
2.0553 -8.2611 2.3883
2.3498 -8.1815 2.3883
2.6412 -8.0912 2.3883
2.9291 -7.9905 2.3883
3.2132 -7.8794 2.3883
3.4931 -7.7582 2.3883
3.7684 -7.6269 2.3883
4.0387 -7.4858 2.3883
4.3036 -7.3350 2.3883
4.5630 -7.1748 2.3883
4.5173 -6.5706 2.2401
4.7402 -6.3913 2.2359
4.9652 -6.2161 2.2359
5.1837 -6.0328 2.2359
5.3954 -5.8418 2.2359
5.6000 -5.6434 2.2359
5.7973 -5.4377 2.2359
5.1387 -4.4847 1.9191
6.1689 -5.0059 2.2359
6.3427 -4.7803 2.2359
6.5082 -4.5487 2.2359
6.6711 -4.3150 2.2379
6.8158 -4.0697 2.2366
6.9549 -3.8214 2.2365
7.0882 -3.5700 2.2374
7.2135 -3.3145 2.2387
7.3297 -3.0546 2.2400
7.4362 -2.7905 2.2412
7.5294 -2.5214 2.2413
7.6125 -2.2491 2.2413
7.6858 -1.9741 2.2413
7.7491 -1.6967 2.2413
7.8024 -1.4173 2.2413
7.8457 -1.1362 2.2413
7.8788 -0.8539 2.2413
7.9017 -0.5706 2.2413
7.9145 -0.2868 2.2413
7.9170 -0.0028 2.2413
7.9094 0.2810 2.2413
5.5612 0.3976 1.5794
5.5487 0.5974 1.5814
5.5593 0.8011 1.5922
5.5702 1.0078 1.6051
6.2581 1.3657 1.8169
6.2707 1.6061 1.8367
6.2836 1.8520 1.8594
6.2968 2.1041 1.8850
6.3104 2.3635 1.9138
6.3245 2.6311 1.9461
6.3390 2.9081 1.9820
6.3540 3.1957 2.0219
6.3698 3.4954 2.0661
6.3862 3.8086 2.1150
6.4034 4.1374 2.1691
6.4571 4.5084 2.2413
6.2895 4.7359 2.2413
6.1139 4.9572 2.2413
5.9307 5.1720 2.2413
5.7399 5.3801 2.2413
5.5410 5.5805 2.2409
5.3351 5.7734 2.2405
5.1225 5.9587 2.2402
4.9035 6.1363 2.2398
4.6784 6.3058 2.2393
4.4474 6.4672 2.2389
4.2109 6.6201 2.2385
3.9692 6.7644 2.2380
3.7226 6.9000 2.2376
3.4713 7.0266 2.2371
3.2159 7.1442 2.2367
2.9564 7.2525 2.2362
2.6936 7.3522 2.2359
2.5933 7.9506 2.3883
0.9227 3.2160 0.9556
0.8068 3.2475 0.9558
0.6898 3.2747 0.9560
0.5719 3.2977 0.9561
0.4533 3.3164 0.9563
0.3340 3.3308 0.9564
0.2143 3.3409 0.9565
0.0942 3.3467 0.9566
-0.0259 3.3481 0.9566
-0.1460 3.3452 0.9567
-0.2660 3.3379 0.9567
-0.3856 3.3263 0.9567
-0.5048 3.3104 0.9567
-0.6232 3.2902 0.9566
-0.7409 3.2658 0.9566
-0.8576 3.2371 0.9565
-2.4303 8.0014 2.3883
-2.7161 7.9098 2.3883
-2.9986 7.8082 2.3883
-3.2772 7.6965 2.3883
-3.5518 7.5750 2.3883
-3.8218 7.4437 2.3883
-4.0871 7.3029 2.3883
-4.3473 7.1527 2.3883
-4.6019 6.9934 2.3883
-4.8508 6.8250 2.3883
-5.0935 6.6479 2.3883
-5.3299 6.4622 2.3883
-5.5595 6.2681 2.3883
-5.7821 6.0660 2.3883
-5.9974 5.8560 2.3883
-6.2052 5.6384 2.3883
-6.4050 5.4135 2.3883
-6.5968 5.1816 2.3883
-6.7803 4.9429 2.3883
-6.9551 4.6977 2.3883
-7.1211 4.4464 2.3883
-7.2781 4.1893 2.3883
-7.4259 3.9266 2.3883
-7.5642 3.6588 2.3883
-7.6929 3.3862 2.3883
-7.8117 3.1090 2.3883
-7.9207 2.8277 2.3883
-8.0195 2.5425 2.3883
-8.1081 2.2540 2.3883
-8.1864 1.9624 2.3883
-8.2542 1.6680 2.3883
-8.3114 1.3714 2.3883
-8.3580 1.0727 2.3883
-8.3939 0.7726 2.3883
-8.4189 0.4712 2.3883
-8.4332 0.1691 2.3883
-8.4367 -0.1335 2.3883
-8.4293 -0.4361 2.3883
-8.4110 -0.7384 2.3883
-8.3819 -1.0398 2.3883
-8.3419 -1.3402 2.3883
-8.2912 -1.6389 2.3883
-8.2298 -1.9358 2.3883
-8.1577 -2.2303 2.3883
-8.0751 -2.5222 2.3883
-7.9820 -2.8110 2.3883
-7.8786 -3.0963 2.3883
-7.7649 -3.3778 2.3883
-7.6411 -3.6551 2.3883
-7.5074 -3.9279 2.3883
-7.3639 -4.1957 2.3883
-7.2108 -4.4583 2.3883
-7.0484 -4.7152 2.3883
-6.8767 -4.9662 2.3883
-6.6961 -5.2109 2.3883
-6.5066 -5.4490 2.3883
-6.3087 -5.6801 2.3883
-6.1026 -5.9040 2.3883
-5.8884 -6.1204 2.3883
-5.6666 -6.3290 2.3883
-5.4373 -6.5294 2.3883
-5.2008 -6.7215 2.3883
-4.9576 -6.9050 2.3883
-4.7078 -7.0796 2.3883
-4.4518 -7.2451 2.3883
-4.1900 -7.4012 2.3883
-3.9227 -7.5478 2.3883
-3.6502 -7.6847 2.3883
-3.3730 -7.8117 2.3883
-3.0912 -7.9286 2.3883
-2.8054 -8.0352 2.3883
-2.5159 -8.1314 2.3883
-2.2231 -8.2171 2.3883
-1.9274 -8.2922 2.3883
-1.6291 -8.3565 2.3883
-1.3287 -8.4100 2.3883
-1.0265 -8.4526 2.3883
-0.7229 -8.4843 2.3883
-0.4184 -8.5049 2.3883
-0.1134 -8.5145 2.3883
0.1918 -8.5131 2.3883
0.4968 -8.5007 2.3883
0.8011 -8.4772 2.3883
1.1043 -8.4427 2.3883
1.4061 -8.3973 2.3883
1.7060 -8.3410 2.3883
2.0037 -8.2739 2.3883
2.2987 -8.1961 2.3883
2.5907 -8.1077 2.3883
2.8793 -8.0088 2.3883
3.1641 -7.8995 2.3883
3.4447 -7.7800 2.3883
3.7208 -7.6505 2.3883
3.9920 -7.5111 2.3883
4.2579 -7.3620 2.3883
4.5182 -7.2034 2.3883
4.4681 -6.5866 2.2359
4.7004 -6.4210 2.2359
4.9265 -6.2471 2.2359
5.1461 -6.0653 2.2359
5.3590 -5.8756 2.2359
5.5649 -5.6785 2.2359
5.7635 -5.4741 2.2359
5.0966 -4.5044 1.9137
6.1378 -5.0446 2.2359
6.3130 -4.8200 2.2359
6.4800 -4.5894 2.2359
6.6443 -4.3567 2.2378
6.7922 -4.1134 2.2372
6.9311 -3.8649 2.2365
7.0654 -3.6140 2.2372
7.1924 -3.3593 2.2385
7.3101 -3.1002 2.2397
7.4186 -2.8368 2.2410
7.5139 -2.5685 2.2413
7.5988 -2.2967 2.2413
7.6738 -2.0222 2.2413
7.7388 -1.7452 2.2413
7.7939 -1.4661 2.2413
7.8389 -1.1853 2.2413
7.8737 -0.9031 2.2413
7.8984 -0.6200 2.2413
7.9130 -0.3363 2.2413
7.9173 -0.0523 2.2413
7.9115 0.2316 2.2413
5.8578 0.3821 1.6628
5.5468 0.5622 1.5798
5.5575 0.7655 1.5901
5.5683 0.9716 1.6027
6.2560 1.3244 1.8138
6.2685 1.5639 1.8331
6.2814 1.8087 1.8552
1.6647 -7.6519 2.3883
1.9377 -7.5868 2.3883
2.2082 -7.5119 2.3883
2.4757 -7.4272 2.3883
2.7400 -7.3330 2.3883
3.0007 -7.2291 2.3883
3.2574 -7.1162 2.3883
3.5099 -6.9939 2.3883
3.7577 -6.8627 2.3883
4.0006 -6.7226 2.3883
3.9678 -6.1543 2.2359
4.1851 -6.0071 2.2359
4.3969 -5.8522 2.2359
4.6029 -5.6898 2.2359
4.8029 -5.5200 2.2359
4.9967 -5.3432 2.2359
5.1838 -5.1596 2.2359
5.0316 -4.6612 2.0973
5.1902 -4.4733 2.0956
5.7037 -4.5701 2.2359
5.8625 -4.3617 2.2359
6.0135 -4.1477 2.2359
6.1572 -3.9288 2.2361
6.2927 -3.7047 2.2362
6.4230 -3.4776 2.2373
6.5452 -3.2459 2.2385
6.6589 -3.0099 2.2397
6.7642 -2.7699 2.2409
6.8584 -2.5254 2.2413
6.9425 -2.2772 2.2413
7.0176 -2.0262 2.2413
7.0836 -1.7728 2.2413
7.1404 -1.5172 2.2413
7.1881 -1.2598 2.2413
7.2264 -1.0010 2.2413
7.2554 -0.7410 2.2413
7.2751 -0.4802 2.2413
7.2853 -0.2189 2.2413
7.2862 0.0425 2.2413
7.2778 0.3036 2.2413
5.5399 0.4306 1.7102
5.5505 0.6323 1.7199
5.5612 0.8366 1.7320
6.2479 1.1704 1.9583
6.2603 1.4069 1.9773
6.2729 1.6481 1.9993
6.2859 1.8950 2.0244
6.2992 2.1483 2.0528
6.3128 2.4091 2.0847
6.3269 2.6782 2.1203
6.3415 2.9570 2.1600
6.4640 3.3013 2.2413
6.3396 3.5301 2.2413
6.2073 3.7543 2.2413
6.0670 3.9735 2.2413
5.9190 4.1876 2.2413
5.7636 4.3961 2.2413
5.6004 4.5987 2.2411
5.4298 4.7948 2.2408
5.2523 4.9847 2.2405
5.0682 5.1680 2.2401
4.8777 5.3446 2.2398
4.6811 5.5141 2.2394
4.4786 5.6764 2.2390
4.2705 5.8314 2.2387
4.0571 5.9788 2.2383
3.8386 6.1184 2.2379
3.6153 6.2501 2.2375
3.3876 6.3736 2.2370
3.1556 6.4890 2.2366
2.9198 6.5959 2.2362
2.6806 6.6949 2.2359
2.6046 7.2485 2.3883
2.3425 7.3366 2.3883
0.8303 2.9635 0.9545
0.7235 2.9917 0.9547
0.6157 3.0160 0.9548
0.5071 3.0365 0.9550
0.3979 3.0530 0.9551
0.2881 3.0655 0.9552
0.1779 3.0741 0.9553
0.0674 3.0787 0.9554
-0.0431 3.0793 0.9554
-0.1536 3.0759 0.9554
-0.2639 3.0685 0.9555
-0.3738 3.0572 0.9555
-0.4833 3.0418 0.9554
-0.5922 3.0226 0.9554
-0.7003 2.9994 0.9553
-0.8074 2.9723 0.9553
-2.2843 7.3547 2.3883
-2.5470 7.2687 2.3883
-2.8065 7.1734 2.3883
-3.0625 7.0689 2.3883
-3.3146 6.9553 2.3883
-3.5626 6.8329 2.3883
-3.8060 6.7016 2.3883
-4.0447 6.5617 2.3883
-4.2783 6.4134 2.3883
-4.5064 6.2569 2.3883
-4.7289 6.0923 2.3883
-4.9454 5.9198 2.3883
-5.1557 5.7397 2.3883
-5.3594 5.5523 2.3883
-5.5564 5.3575 2.3883
-5.7463 5.1559 2.3883
-5.9290 4.9475 2.3883
-6.1042 4.7328 2.3883
-6.2716 4.5118 2.3883
-6.4310 4.2850 2.3883
-6.5823 4.0526 2.3883
-6.7253 3.8149 2.3883
-6.8597 3.5721 2.3883
-6.9853 3.3247 2.3883
-7.1021 3.0728 2.3883
-7.2098 2.8169 2.3883
-7.3083 2.5572 2.3883
-7.3975 2.2941 2.3883
-7.4772 2.0279 2.3883
-7.5474 1.7589 2.3883
-7.6080 1.4876 2.3883
-7.6588 1.2141 2.3883
-7.6997 0.9389 2.3883
-7.7308 0.6624 2.3883
-7.7520 0.3849 2.3883
-7.7632 0.1066 2.3883
-7.7645 -0.1719 2.3883
-7.7557 -0.4503 2.3883
-7.7370 -0.7284 2.3883
-7.7082 -1.0056 2.3883
-7.6696 -1.2818 2.3883
-7.6210 -1.5564 2.3883
-7.5626 -1.8292 2.3883
-7.4944 -2.0998 2.3883
-7.4165 -2.3679 2.3883
-7.3290 -2.6330 2.3883
-7.2320 -2.8949 2.3883
-7.1256 -3.1532 2.3883
-7.0100 -3.4076 2.3883
-6.8852 -3.6577 2.3883
-6.7515 -3.9033 2.3883
-6.6090 -4.1439 2.3883
-6.4579 -4.3792 2.3883
-6.2983 -4.6091 2.3883
-6.1306 -4.8331 2.3883
-5.9549 -5.0509 2.3883
-5.7713 -5.2624 2.3883
-5.5802 -5.4671 2.3883
-5.3819 -5.6648 2.3883
-5.1765 -5.8553 2.3883
-4.9643 -6.0383 2.3883
-4.7457 -6.2135 2.3883
-4.5208 -6.3808 2.3883
-4.2899 -6.5398 2.3883
-4.0535 -6.6905 2.3883
-3.8117 -6.8325 2.3883
-3.5649 -6.9658 2.3883
-3.3135 -7.0900 2.3883
-3.0576 -7.2051 2.3883
-2.7978 -7.3109 2.3883
-2.5343 -7.4073 2.3883
-2.2674 -7.4941 2.3883
-1.9976 -7.5711 2.3883
-1.7251 -7.6384 2.3883
-1.4504 -7.6958 2.3883
-1.1738 -7.7433 2.3883
-0.8956 -7.7807 2.3883
-0.6162 -7.8080 2.3883
-0.3360 -7.8252 2.3883
-0.0554 -7.8323 2.3883
0.2253 -7.8292 2.3883
0.5057 -7.8160 2.3883
0.7854 -7.7927 2.3883
1.0641 -7.7592 2.3883
1.3414 -7.7157 2.3883
1.6170 -7.6623 2.3883
1.8904 -7.5989 2.3883
2.1613 -7.5256 2.3883
2.4294 -7.4427 2.3883
2.6942 -7.3501 2.3883
2.9556 -7.2480 2.3883
3.2130 -7.1365 2.3883
3.4662 -7.0159 2.3883
3.7149 -6.8862 2.3883
3.9587 -6.7476 2.3883
3.9295 -6.1791 2.2359
4.1477 -6.0333 2.2359
4.3604 -5.8797 2.2359
4.5675 -5.7186 2.2359
4.7686 -5.5501 2.2359
4.9634 -5.3745 2.2359
5.1517 -5.1920 2.2359
5.3333 -5.0029 2.2359
5.1383 -4.4848 2.0859
5.6754 -4.6059 2.2359
5.8354 -4.3984 2.2359
5.9878 -4.1853 2.2359
6.1326 -3.9672 2.2360
6.2697 -3.7441 2.2362
6.4009 -3.5175 2.2371
6.5245 -3.2866 2.2383
6.6397 -3.0513 2.2395
6.7465 -2.8120 2.2406
6.8428 -2.5683 2.2413
6.9285 -2.3206 2.2413
7.0052 -2.0701 2.2413
7.0728 -1.8171 2.2413
7.1312 -1.5618 2.2413
7.1804 -1.3047 2.2413
7.2204 -1.0461 2.2413
7.2510 -0.7863 2.2413
7.2723 -0.5256 2.2413
7.2842 -0.2644 2.2413
7.2868 -0.0030 2.2413
7.2799 0.2582 2.2413
5.5639 0.3975 1.7167
5.5486 0.5971 1.7181
5.5593 0.8008 1.7297
5.5702 1.0075 1.7437
6.2581 1.3654 1.9738
6.2707 1.6057 1.9952
6.2836 1.8516 2.0198
6.2968 2.1037 2.0476
6.3104 2.3631 2.0789
6.3244 2.6307 2.1138
6.3390 2.9077 2.1528
6.4848 3.2611 2.2413
6.3619 3.4906 2.2413
6.2309 3.7156 2.2413
6.0920 3.9357 2.2413
5.9453 4.1507 2.2413
5.7912 4.3602 2.2413
5.6294 4.5639 2.2412
5.4600 4.7611 2.2409
5.2837 4.9521 2.2405
5.1007 5.1366 2.2402
4.9113 5.3143 2.2398
4.7157 5.4851 2.2395
4.5142 5.6487 2.2391
4.3071 5.8050 2.2387
4.0946 5.9537 2.2383
3.8770 6.0946 2.2379
3.6545 6.2277 2.2375
3.4275 6.3527 2.2371
3.1963 6.4695 2.2367
2.9611 6.5779 2.2363
2.7224 6.6780 2.2359
2.6071 7.1156 2.3498
2.3884 7.3219 2.3883
0.8488 2.9582 0.9544
0.7421 2.9871 0.9546
0.6345 3.0121 0.9548
0.5261 3.0332 0.9549
0.4169 3.0504 0.9551
0.3072 3.0636 0.9552
0.1971 3.0729 0.9553
0.0867 3.0782 0.9553
-0.0238 3.0795 0.9554
-0.1343 3.0768 0.9554
-0.2447 3.0701 0.9555
-0.3547 3.0594 0.9555
-0.4643 3.0448 0.9554
-0.5733 3.0262 0.9554
-0.6815 3.0037 0.9553
-0.7889 2.9773 0.9553
-0.8952 2.9470 0.9552
-2.5015 7.2844 2.3883
-2.7616 7.1907 2.3883
-3.0182 7.0877 2.3883
-3.2710 6.9758 2.3883
-3.5197 6.8548 2.3883
-3.7640 6.7251 2.3883
-4.0035 6.5867 2.3883
-4.2380 6.4399 2.3883
-4.4671 6.2847 2.3883
-4.6906 6.1215 2.3883
-4.9082 5.9504 2.3883
-5.1195 5.7716 2.3883
-5.3244 5.5854 2.3883
-5.5226 5.3919 2.3883
-5.7138 5.1915 2.3883
-5.8977 4.9843 2.3883
-6.0742 4.7706 2.3883
-6.2430 4.5507 2.3883
-6.4039 4.3249 2.3883
-6.5566 4.0935 2.3883
-6.7010 3.8566 2.3883
-6.8369 3.6148 2.3883
-6.9641 3.3681 2.3883
-7.0824 3.1170 2.3883
-7.1917 2.8618 2.3883
-7.2918 2.6027 2.3883
-7.3826 2.3402 2.3883
-7.4640 2.0745 2.3883
-7.5359 1.8060 2.3883
-7.5981 1.5350 2.3883
-7.6506 1.2619 2.3883
-7.6933 0.9870 2.3883
-7.7261 0.7106 2.3883
-7.7490 0.4332 2.3883
-7.7620 0.1551 2.3883
-7.7650 -0.1234 2.3883
-7.7580 -0.4018 2.3883
-7.7409 -0.6800 2.3883
-7.7140 -0.9574 2.3883
-7.6770 -1.2338 2.3883
-7.6302 -1.5087 2.3883
-7.5735 -1.7819 2.3883
-7.5070 -2.0529 2.3883
-7.4308 -2.3214 2.3883
-7.3449 -2.5871 2.3883
-7.2496 -2.8496 2.3883
-7.1448 -3.1085 2.3883
-7.0307 -3.3636 2.3883
-6.9076 -3.6145 2.3883
-6.7754 -3.8608 2.3883
-6.6344 -4.1023 2.3883
-6.4848 -4.3386 2.3883
-6.3267 -4.5695 2.3883
-6.1604 -4.7945 2.3883
-5.9860 -5.0134 2.3883
-5.8039 -5.2260 2.3883
-5.6141 -5.4319 2.3883
-5.4169 -5.6309 2.3883
-5.2128 -5.8226 2.3883
-5.0018 -6.0069 2.3883
-4.7842 -6.1836 2.3883
-4.5604 -6.3522 2.3883
-4.3306 -6.5127 2.3883
-4.0951 -6.6649 2.3883
-3.8542 -6.8084 2.3883
-3.6082 -6.9432 2.3883
-3.3576 -7.0690 2.3883
-3.1025 -7.1858 2.3883
-2.8433 -7.2932 2.3883
-2.5804 -7.3912 2.3883
-2.3141 -7.4796 2.3883
-2.0448 -7.5584 2.3883
-1.7728 -7.6274 2.3883
-1.4984 -7.6865 2.3883
-1.2220 -7.7357 2.3883
-0.9441 -7.7749 2.3883
-0.6649 -7.8040 2.3883
-0.3848 -7.8229 2.3883
-0.1043 -7.8318 2.3883
0.1764 -7.8305 2.3883
0.4569 -7.8190 2.3883
0.7368 -7.7975 2.3883
1.0157 -7.7658 2.3883
1.2933 -7.7240 2.3883
1.5691 -7.6723 2.3883
1.8429 -7.6106 2.3883
2.1143 -7.5391 2.3883
2.3829 -7.4578 2.3883
2.6484 -7.3669 2.3883
2.9103 -7.2665 2.3883
3.1685 -7.1566 2.3883
3.4225 -7.0376 2.3883
3.6719 -6.9094 2.3883
3.9166 -6.7723 2.3883
3.8909 -6.2037 2.2359
4.1100 -6.0593 2.2359
4.3238 -5.9070 2.2359
4.5319 -5.7472 2.2359
4.7340 -5.5800 2.2359
4.9299 -5.4056 2.2359
5.1194 -5.2243 2.2359
5.3022 -5.0363 2.2359
5.0963 -4.5046 2.0801
5.6467 -4.6414 2.2359
5.8080 -4.4349 2.2359
5.9618 -4.2228 2.2359
6.1081 -4.0056 2.2360
6.2464 -3.7833 2.2361
6.3786 -3.5572 2.2369
6.5036 -3.3271 2.2381
6.6203 -3.0926 2.2393
6.7285 -2.8539 2.2404
6.8270 -2.6111 2.2413
6.9142 -2.3639 2.2413
6.9925 -2.1139 2.2413
7.0616 -1.8613 2.2413
7.1217 -1.6064 2.2413
7.1725 -1.3496 2.2413
7.2141 -1.0912 2.2413
7.2464 -0.8316 2.2413
7.2693 -0.5711 2.2413
7.2828 -0.3099 2.2413
7.2870 -0.0486 2.2413
7.2818 0.2127 2.2413
5.8608 0.3819 1.8075
5.5468 0.5618 1.7163
5.5575 0.7651 1.7275
5.5683 0.9712 1.7411
6.2560 1.3240 1.9703
6.2685 1.5635 1.9913
6.2813 1.8083 2.0153
1.5395 -7.0767 2.3883
1.7920 -7.0166 2.3883
2.0421 -6.9473 2.3883
2.2895 -6.8691 2.3883
2.5339 -6.7820 2.3883
2.7750 -6.6861 2.3883
3.0125 -6.5822 2.3883
3.2460 -6.4686 2.3883
3.4752 -6.3472 2.3883
3.4638 -5.8210 2.2359
3.6696 -5.6922 2.2359
3.8706 -5.5562 2.2359
4.0666 -5.4129 2.2359
4.2572 -5.2628 2.2359
4.4422 -5.1059 2.2359
4.6215 -4.9424 2.2359
4.7946 -4.7726 2.2359
4.9616 -4.5968 2.2359
5.1220 -4.4150 2.2359
5.2758 -4.2276 2.2359
5.4227 -4.0349 2.2359
5.5625 -3.8370 2.2359
5.6951 -3.6343 2.2359
5.8234 -3.4288 2.2371
5.9439 -3.2186 2.2382
6.0568 -3.0041 2.2392
6.1619 -2.7856 2.2403
6.2587 -2.5633 2.2413
6.3449 -2.3367 2.2413
6.4228 -2.1071 2.2413
6.4924 -1.8750 2.2413
6.5536 -1.6405 2.2413
6.6063 -1.4041 2.2413
6.6505 -1.1660 2.2413
6.6861 -0.9265 2.2413
6.7131 -0.6860 2.2413
6.7314 -0.4447 2.2413
6.7411 -0.2030 2.2413
6.7421 0.0389 2.2413
6.7344 0.2806 2.2413
5.5399 0.4302 1.8482
5.5505 0.6320 1.8586
5.5612 0.8362 1.8716
6.2479 1.1700 2.1161
6.2603 1.4065 2.1366
6.2729 1.6477 2.1603
6.2859 1.8946 2.1874
6.3650 2.1704 2.2413
6.2814 2.3967 2.2413
6.1897 2.6197 2.2413
6.0901 2.8393 2.2413
5.9828 3.0552 2.2413
5.8678 3.2670 2.2413
5.7454 3.4745 2.2413
5.6156 3.6775 2.2412
5.4781 3.8752 2.2410
5.3336 4.0678 2.2407
5.1824 4.2550 2.2404
5.0247 4.4367 2.2401
4.8605 4.6125 2.2398
4.6903 4.7822 2.2395
4.5141 4.9458 2.2392
4.3322 5.1028 2.2388
4.1449 5.2532 2.2385
3.9525 5.3967 2.2381
3.7550 5.5333 2.2378
3.5529 5.6626 2.2374
3.3463 5.7846 2.2370
3.1356 5.8992 2.2366
2.9210 6.0061 2.2362
2.7029 6.1054 2.2359
2.5795 6.4420 2.3240
2.4114 6.7104 2.3883
0.8657 2.7110 0.9533
0.7679 2.7406 0.9535
0.6691 2.7667 0.9536
0.5694 2.7892 0.9538
0.4690 2.8081 0.9539
0.3680 2.8233 0.9540
0.2664 2.8349 0.9541
0.1645 2.8428 0.9542
0.0624 2.8471 0.9543
-0.0398 2.8476 0.9543
-0.1420 2.8445 0.9544
-0.2440 2.8376 0.9544
-0.3457 2.8271 0.9544
-0.4470 2.8130 0.9544
-0.5476 2.7951 0.9543
-0.6476 2.7737 0.9543
-0.7467 2.7486 0.9542
-0.8449 2.7200 0.9541
-2.3581 6.7291 2.3883
-2.5983 6.6408 2.3883
-2.8353 6.5440 2.3883
-3.0687 6.4388 2.3883
-3.2982 6.3254 2.3883
-3.5236 6.2038 2.3883
-3.7445 6.0742 2.3883
-3.9606 5.9369 2.3883
-4.1718 5.7919 2.3883
-4.3777 5.6394 2.3883
-4.5781 5.4797 2.3883
-4.7727 5.3129 2.3883
-4.9612 5.1393 2.3883
-5.1435 4.9590 2.3883
-5.3192 4.7722 2.3883
-5.4882 4.5793 2.3883
-5.6503 4.3804 2.3883
-5.8052 4.1759 2.3883
-5.9526 3.9658 2.3883
-6.0926 3.7507 2.3883
-6.2248 3.5305 2.3883
-6.3490 3.3058 2.3883
-6.4652 3.0767 2.3883
-6.5732 2.8436 2.3883
-6.6727 2.6066 2.3883
-6.7638 2.3663 2.3883
-6.8462 2.1227 2.3883
-6.9198 1.8763 2.3883
-6.9847 1.6274 2.3883
-7.0405 1.3762 2.3883
-7.0874 1.1231 2.3883
-7.1252 0.8684 2.3883
-7.1538 0.6125 2.3883
-7.1732 0.3557 2.3883
-7.1835 0.0983 2.3883
-7.1845 -0.1595 2.3883
-7.1762 -0.4171 2.3883
-7.1587 -0.6744 2.3883
-7.1320 -0.9309 2.3883
-7.0961 -1.1864 2.3883
-7.0510 -1.4404 2.3883
-6.9968 -1.6928 2.3883
-6.9336 -1.9431 2.3883
-6.8613 -2.1911 2.3883
-6.7803 -2.4363 2.3883
-6.6904 -2.6785 2.3883
-6.5918 -2.9174 2.3883
-6.4847 -3.1527 2.3883
-6.3692 -3.3840 2.3883
-6.2454 -3.6111 2.3883
-6.1134 -3.8336 2.3883
-5.9736 -4.0512 2.3883
-5.8259 -4.2638 2.3883
-5.6706 -4.4709 2.3883
-5.5080 -4.6723 2.3883
-5.3382 -4.8678 2.3883
-5.1614 -5.0571 2.3883
-4.9778 -5.2399 2.3883
-4.7877 -5.4160 2.3883
-4.5914 -5.5852 2.3883
-4.3891 -5.7472 2.3883
-4.1811 -5.9018 2.3883
-3.9676 -6.0488 2.3883
-3.7488 -6.1881 2.3883
-3.5252 -6.3194 2.3883
-3.2969 -6.4425 2.3883
-3.0643 -6.5574 2.3883
-2.8277 -6.6638 2.3883
-2.5874 -6.7616 2.3883
-2.3437 -6.8506 2.3883
-2.0969 -6.9308 2.3883
-1.8473 -7.0021 2.3883
-1.5954 -7.0643 2.3883
-1.3413 -7.1173 2.3883
-1.0855 -7.1611 2.3883
-0.8282 -7.1957 2.3883
-0.5698 -7.2210 2.3883
-0.3107 -7.2369 2.3883
-0.0512 -7.2434 2.3883
0.2084 -7.2406 2.3883
0.4677 -7.2284 2.3883
0.7263 -7.2068 2.3883
0.9841 -7.1759 2.3883
1.2405 -7.1357 2.3883
1.4953 -7.0863 2.3883
1.7482 -7.0277 2.3883
1.9987 -6.9600 2.3883
2.2466 -6.8833 2.3883
2.4916 -6.7978 2.3883
2.7333 -6.7034 2.3883
2.9714 -6.6004 2.3883
3.2056 -6.4889 2.3883
3.4356 -6.3690 2.3883
3.6611 -6.2408 2.3883
3.6341 -5.7152 2.2359
3.8360 -5.5804 2.2359
4.0328 -5.4384 2.2359
4.2244 -5.2894 2.2359
4.4104 -5.1337 2.2359
4.5907 -4.9713 2.2359
4.7649 -4.8026 2.2359
4.9330 -4.6278 2.2359
5.0946 -4.4471 2.2359
5.2495 -4.2607 2.2359
5.3976 -4.0688 2.2359
5.5387 -3.8718 2.2359
5.6725 -3.6699 2.2359
5.8017 -3.4650 2.2369
5.9234 -3.2555 2.2380
6.0377 -3.0417 2.2391
6.1442 -2.8240 2.2401
6.2428 -2.6024 2.2412
6.3304 -2.3764 2.2413
6.4098 -2.1473 2.2413
6.4809 -1.9156 2.2413
6.5435 -1.6815 2.2413
6.5978 -1.4454 2.2413
6.6434 -1.2076 2.2413
6.6805 -0.9683 2.2413
6.7090 -0.7279 2.2413
6.7289 -0.4867 2.2413
6.7400 -0.2451 2.2413
6.7425 -0.0032 2.2413
6.7363 0.2385 2.2413
5.5666 0.3973 1.8561
5.5486 0.5967 1.8566
5.5593 0.8005 1.8692
5.5701 1.0071 1.8843
6.2581 1.3650 2.1328
6.2707 1.6053 2.1560
6.2836 1.8512 2.1824
6.3788 2.1307 2.2413
6.2965 2.3575 2.2413
6.2062 2.5811 2.2413
6.1080 2.8014 2.2413
6.0020 3.0179 2.2413
5.8884 3.2304 2.2413
5.7672 3.4387 2.2413
5.6388 3.6425 2.2413
5.5025 3.8411 2.2410
5.3593 4.0346 2.2407
5.2092 4.2228 2.2405
5.0526 4.4055 2.2402
4.8896 4.5823 2.2399
4.7203 4.7531 2.2395
4.5452 4.9177 2.2392
4.3643 5.0759 2.2389
4.1779 5.2275 2.2385
3.9863 5.3723 2.2382
3.7897 5.5100 2.2378
3.5884 5.6406 2.2375
3.3826 5.7639 2.2371
3.1726 5.8798 2.2367
2.9586 5.9880 2.2363
2.7410 6.0885 2.2359
2.5806 6.3297 2.2892
2.4533 6.6953 2.3883
0.8826 2.7055 0.9533
0.7850 2.7357 0.9535
0.6864 2.7624 0.9536
0.5869 2.7855 0.9538
0.4865 2.8050 0.9539
0.3856 2.8209 0.9540
0.2841 2.8332 0.9541
0.1823 2.8417 0.9542
0.0802 2.8466 0.9543
-0.0220 2.8478 0.9543
-0.1242 2.8453 0.9544
-0.2263 2.8391 0.9544
-0.3280 2.8292 0.9544
-0.4294 2.8157 0.9544
-0.5302 2.7985 0.9543
-0.6303 2.7777 0.9543
-0.7295 2.7533 0.9542
-0.8279 2.7253 0.9541
-2.3160 6.7436 2.3883
-2.5567 6.6568 2.3883
-2.7943 6.5615 2.3883
-3.0283 6.4577 2.3883
-3.2585 6.3457 2.3883
-3.4846 6.2255 2.3883
-3.7063 6.0974 2.3883
-3.9234 5.9614 2.3883
-4.1354 5.8177 2.3883
-4.3423 5.6665 2.3883
-4.5436 5.5080 2.3883
-4.7392 5.3425 2.3883
-4.9288 5.1700 2.3883
-5.1122 4.9908 2.3883
-5.2891 4.8052 2.3883
-5.4593 4.6133 2.3883
-5.6226 4.4155 2.3883
-5.7787 4.2119 2.3883
-5.9275 4.0028 2.3883
-6.0688 3.7885 2.3883
-6.2023 3.5692 2.3883
-6.3280 3.3453 2.3883
-6.4456 3.1169 2.3883
-6.5550 2.8844 2.3883
-6.6560 2.6482 2.3883
-6.7485 2.4084 2.3883
-6.8325 2.1653 2.3883
-6.9077 1.9194 2.3883
-6.9740 1.6709 2.3883
-7.0314 1.4201 2.3883
-7.0799 1.1673 2.3883
-7.1192 0.9129 2.3883
-7.1495 0.6572 2.3883
-7.1705 0.4005 2.3883
-7.1823 0.1431 2.3883
-7.1849 -0.1146 2.3883
-7.1783 -0.3723 2.3883
-7.1624 -0.6296 2.3883
-7.1373 -0.8863 2.3883
-7.1030 -1.1420 2.3883
-7.0595 -1.3963 2.3883
-7.0069 -1.6490 2.3883
-6.9452 -1.8997 2.3883
-6.8746 -2.1481 2.3883
-6.7950 -2.3938 2.3883
-6.7067 -2.6366 2.3883
-6.6096 -2.8761 2.3883
-6.5040 -3.1120 2.3883
-6.3899 -3.3440 2.3883
-6.2675 -3.5719 2.3883
-6.1370 -3.7952 2.3883
-5.9985 -4.0137 2.3883
-5.8522 -4.2271 2.3883
-5.6982 -4.4352 2.3883
-5.5368 -4.6377 2.3883
-5.3682 -4.8342 2.3883
-5.1926 -5.0246 2.3883
-5.0102 -5.2085 2.3883
-4.8213 -5.3858 2.3883
-4.6260 -5.5562 2.3883
-4.4248 -5.7195 2.3883
-4.2177 -5.8754 2.3883
-4.0051 -6.0238 2.3883
-3.7873 -6.1644 2.3883
-3.5645 -6.2971 2.3883
-3.3370 -6.4217 2.3883
-3.1051 -6.5380 2.3883
-2.8692 -6.6459 2.3883
-2.6295 -6.7452 2.3883
-2.3864 -6.8357 2.3883
-2.1401 -6.9175 2.3883
-1.8910 -6.9903 2.3883
-1.6394 -7.0541 2.3883
-1.3857 -7.1087 2.3883
-1.1301 -7.1542 2.3883
-0.8731 -7.1904 2.3883
-0.6149 -7.2173 2.3883
-0.3559 -7.2348 2.3883
-0.0964 -7.2430 2.3883
0.1632 -7.2418 2.3883
0.4225 -7.2312 2.3883
0.6814 -7.2112 2.3883
0.9393 -7.1820 2.3883
1.1960 -7.1434 2.3883
1.4511 -7.0956 2.3883
1.7043 -7.0386 2.3883
1.9553 -6.9724 2.3883
2.2037 -6.8973 2.3883
2.4492 -6.8133 2.3883
2.6915 -6.7205 2.3883
2.9302 -6.6190 2.3883
3.1651 -6.5089 2.3883
3.3959 -6.3904 2.3883
3.6222 -6.2637 2.3883
3.5985 -5.7379 2.2359
3.8012 -5.6044 2.2359
3.9989 -5.4636 2.2359
4.1914 -5.3158 2.2359
4.3784 -5.1613 2.2359
4.5597 -5.0001 2.2359
4.7350 -4.8325 2.2359
4.9042 -4.6587 2.2359
5.0669 -4.4790 2.2359
5.2230 -4.2935 2.2359
5.3723 -4.1026 2.2359
5.5146 -3.9065 2.2359
5.6497 -3.7054 2.2359
5.7797 -3.5010 2.2367
5.9028 -3.2923 2.2378
6.0183 -3.0792 2.2389
6.1262 -2.8622 2.2400
6.2262 -2.6413 2.2410
6.3158 -2.4159 2.2413
6.3966 -2.1874 2.2413
6.4691 -1.9561 2.2413
6.5332 -1.7224 2.2413
6.5889 -1.4867 2.2413
6.6361 -1.2491 2.2413
6.6747 -1.0101 2.2413
6.7047 -0.7699 2.2413
6.7260 -0.5288 2.2413
6.7387 -0.2872 2.2413
6.7427 -0.0453 2.2413
6.7380 0.1964 2.2413
5.8638 0.3818 1.9543
5.5468 0.5615 1.8547
5.5574 0.7648 1.8668
5.5682 0.9709 1.8815
6.2559 1.3236 2.1291
