ply
format ascii 1.0
element vertex 2169
property float32 x
property float32 y
property float32 z
end_header
-3.9218 3.6059 2.4013
-4.0309 3.4413 2.3972
-4.1392 3.2782 2.3959
-4.2426 3.1128 2.3950
-4.3405 2.9448 2.3940
-4.4329 2.7744 2.3931
-4.5197 2.6018 2.3921
-4.6009 2.4270 2.3912
-4.6766 2.2502 2.3902
-4.7466 2.0716 2.3893
-4.8104 1.8910 2.3880
-4.8603 1.7060 2.3827
-4.9081 1.5214 2.3792
-4.9571 1.3378 2.3791
-5.0004 1.1529 2.3790
-5.0380 0.9669 2.3789
-5.0700 0.7798 2.3788
-5.0962 0.5918 2.3787
-5.1166 0.4031 2.3786
-5.1313 0.2137 2.3785
-5.1402 0.0239 2.3784
-5.1432 -0.1663 2.3783
-5.1405 -0.3568 2.3782
-5.1319 -0.5473 2.3781
-5.1174 -0.7378 2.3780
-5.0970 -0.9282 2.3779
-5.0708 -1.1181 2.3778
-5.0386 -1.3077 2.3777
-5.0006 -1.4966 2.3776
-4.9566 -1.6848 2.3775
-4.9066 -1.8720 2.3774
-4.8507 -2.0582 2.3773
-4.7889 -2.2432 2.3772
-4.7210 -2.4269 2.3771
-4.6473 -2.6090 2.3770
-4.5675 -2.7894 2.3769
-4.4818 -2.9680 2.3768
-4.3902 -3.1445 2.3767
-4.2926 -3.3189 2.3766
-4.1890 -3.4908 2.3765
-4.0796 -3.6603 2.3764
-3.9642 -3.8270 2.3764
-3.8430 -3.9907 2.3763
-3.7159 -4.1514 2.3762
-3.5831 -4.3088 2.3761
-3.4444 -4.4626 2.3760
-3.3001 -4.6127 2.3760
-3.1500 -4.7589 2.3759
-2.9944 -4.9010 2.3758
-2.8333 -5.0388 2.3758
-2.6666 -5.1719 2.3757
-2.4946 -5.3003 2.3757
-2.3174 -5.4237 2.3756
-2.1349 -5.5419 2.3755
-1.9474 -5.6546 2.3755
-1.7550 -5.7616 2.3754
-1.5577 -5.8627 2.3754
-1.3565 -5.9602 2.3764
-1.1494 -6.0458 2.3752
-0.9377 -6.1214 2.3727
-0.7231 -6.1964 2.3727
-0.5046 -6.2643 2.3726
-0.2824 -6.3249 2.3726
-0.0566 -6.3780 2.3726
0.1723 -6.4233 2.3725
0.4043 -6.4605 2.3725
0.6389 -6.4896 2.3725
0.8760 -6.5103 2.3724
1.1152 -6.5224 2.3724
1.3561 -6.5257 2.3723
1.5985 -6.5201 2.3723
1.8420 -6.5053 2.3722
2.0862 -6.4813 2.3721
2.3308 -6.4478 2.3721
2.5753 -6.4048 2.3720
2.8193 -6.3522 2.3719
3.0624 -6.2899 2.3719
3.3042 -6.2177 2.3718
3.5443 -6.1358 2.3717
3.7821 -6.0439 2.3716
4.0171 -5.9423 2.3716
4.2491 -5.8308 2.3715
4.4773 -5.7095 2.3714
4.7014 -5.5785 2.3713
4.9209 -5.4379 2.3712
5.1353 -5.2878 2.3711
5.3441 -5.1285 2.3711
5.5427 -4.9563 2.3692
5.7305 -4.7722 2.3657
5.9125 -4.5814 2.3630
6.0876 -4.3834 2.3606
6.2559 -4.1786 2.3588
6.4164 -3.9669 2.3572
6.5689 -3.7488 2.3560
6.7126 -3.5241 2.3549
6.8487 -3.2941 2.3546
6.9798 -3.0601 2.3558
6.9438 -2.7578 2.3050
6.7761 -2.4194 2.2160
6.8740 -2.1855 2.2185
6.9658 -1.9482 2.2223
7.0496 -1.7073 2.2267
7.1239 -1.4626 2.2316
7.1920 -1.2152 2.2378
7.2430 -0.9637 2.2421
7.2850 -0.7101 2.2470
7.3111 -0.4543 2.2504
7.3198 -0.1973 2.2519
7.3132 0.0598 2.2522
7.2945 0.3160 2.2522
7.2647 0.5708 2.2522
7.2239 0.8238 2.2522
7.1727 1.0743 2.2524
7.1103 1.3219 2.2523
7.0376 1.5661 2.2523
6.9546 1.8063 2.2523
6.8617 2.0422 2.2523
6.7592 2.2734 2.2522
6.7271 2.5293 2.2792
6.8160 2.8403 2.3521
6.8300 3.1327 2.4046
6.6830 3.3549 2.4046
6.5274 3.5701 2.4046
6.3639 3.7778 2.4046
6.1926 3.9779 2.4046
6.0142 4.1701 2.4046
5.8291 4.3542 2.4046
5.6377 4.5298 2.4046
5.4403 4.6969 2.4046
5.2376 4.8553 2.4046
5.0299 5.0049 2.4046
4.8177 5.1456 2.4046
4.6014 5.2772 2.4046
4.3814 5.3997 2.4046
4.1582 5.5132 2.4046
3.9322 5.6175 2.4046
3.7039 5.7126 2.4046
3.4735 5.7987 2.4046
3.2416 5.8757 2.4046
3.0084 5.9437 2.4046
2.7744 6.0028 2.4046
0.9603 2.2885 0.9091
0.8774 2.3195 0.9152
0.7934 2.3475 0.9213
0.7085 2.3724 0.9274
0.6227 2.3942 0.9335
0.5361 2.4129 0.9396
0.4490 2.4285 0.9457
0.3613 2.4409 0.9518
0.2732 2.4502 0.9580
0.1849 2.4562 0.9640
0.0963 2.4590 0.9701
0.0078 2.4586 0.9761
-0.0807 2.4550 0.9821
-0.1691 2.4482 0.9880
-0.2571 2.4382 0.9938
-0.3447 2.4251 0.9996
-0.4318 2.4087 1.0053
-0.5183 2.3892 1.0109
-0.6039 2.3666 1.0164
-0.6888 2.3409 1.0218
-0.7726 2.3122 1.0271
-1.9925 5.3122 2.4046
-2.1718 5.2057 2.4046
-2.3466 5.0941 2.4046
-2.5169 4.9777 2.4046
-2.6825 4.8564 2.4046
-2.8433 4.7306 2.4046
-2.9994 4.6004 2.4046
-3.1505 4.4660 2.4046
-3.2966 4.3275 2.4046
-3.4378 4.1852 2.4046
-3.5738 4.0390 2.4046
-3.7042 3.8889 2.4044
-3.8280 3.7339 2.4032
-3.9442 3.5739 2.4007
-4.0524 3.4089 2.3967
-4.1601 3.2457 2.3957
-4.2624 3.0798 2.3948
-4.3592 2.9113 2.3939
-4.4505 2.7404 2.3929
-4.5362 2.5673 2.3919
-4.6163 2.3922 2.3910
-4.6909 2.2150 2.3900
-4.7598 2.0360 2.3891
-4.8208 1.8545 2.3870
-4.8692 1.6692 2.3815
-4.9182 1.4852 2.3792
-4.9661 1.3013 2.3791
-5.0083 1.1162 2.3790
-5.0448 0.9300 2.3789
-5.0756 0.7427 2.3788
-5.1007 0.5546 2.3787
-5.1200 0.3657 2.3786
-5.1335 0.1762 2.3785
-5.1412 -0.0137 2.3784
-5.1432 -0.2040 2.3783
-5.1392 -0.3945 2.3782
-5.1295 -0.5850 2.3781
-5.1138 -0.7755 2.3780
-5.0923 -0.9658 2.3779
-5.0649 -1.1557 2.3778
-5.0316 -1.3451 2.3777
-4.9923 -1.5339 2.3775
-4.9472 -1.7219 2.3774
-4.8960 -1.9089 2.3774
-4.8390 -2.0949 2.3773
-4.7759 -2.2797 2.3772
-4.7069 -2.4630 2.3771
-4.6320 -2.6448 2.3770
-4.5510 -2.8249 2.3769
-4.4642 -3.0030 2.3768
-4.3713 -3.1792 2.3767
-4.2726 -3.3531 2.3766
-4.1678 -3.5246 2.3765
-4.0572 -3.6935 2.3764
-3.9407 -3.8596 2.3763
-3.8183 -4.0228 2.3763
-3.6901 -4.1828 2.3762
-3.5561 -4.3395 2.3761
-3.4163 -4.4926 2.3760
-3.2709 -4.6420 2.3760
-3.1197 -4.7874 2.3759
-2.9630 -4.9286 2.3758
-2.8007 -5.0655 2.3758
-2.6330 -5.1977 2.3757
-2.4600 -5.3251 2.3756
-2.2817 -5.4475 2.3756
-2.0982 -5.5646 2.3755
-1.9097 -5.6762 2.3755
-1.7163 -5.7821 2.3754
-1.5182 -5.8820 2.3754
-1.3156 -5.9765 2.3757
-1.1077 -6.0608 2.3745
-0.8956 -6.1368 2.3727
-0.6802 -6.2104 2.3727
-0.4609 -6.2769 2.3726
-0.2380 -6.3360 2.3726
-0.0116 -6.3876 2.3726
0.2180 -6.4313 2.3725
0.4505 -6.4670 2.3725
0.6856 -6.4944 2.3724
0.9231 -6.5134 2.3724
1.1627 -6.5238 2.3723
1.4040 -6.5253 2.3723
1.6466 -6.5179 2.3722
1.8903 -6.5013 2.3722
2.1346 -6.4754 2.3721
2.3791 -6.4401 2.3721
2.6236 -6.3952 2.3720
2.8675 -6.3407 2.3719
3.1104 -6.2764 2.3719
-4.6818 -1.5578 2.3776
-4.6350 -1.7346 2.3775
-4.5826 -1.9104 2.3774
-4.5245 -2.0850 2.3773
-4.4608 -2.2583 2.3772
-4.3914 -2.4301 2.3771
-4.3164 -2.6002 2.3770
-4.2358 -2.7685 2.3769
-4.1495 -2.9348 2.3768
-4.0576 -3.0990 2.3768
-3.9601 -3.2609 2.3767
-3.8570 -3.4203 2.3766
-3.7484 -3.5770 2.3765
-3.6342 -3.7309 2.3764
-3.5146 -3.8818 2.3764
-3.3895 -4.0295 2.3763
-3.2590 -4.1738 2.3762
-3.1232 -4.3146 2.3761
-2.9821 -4.4515 2.3761
-2.8358 -4.5845 2.3760
-2.6843 -4.7133 2.3760
-2.5278 -4.8377 2.3759
-2.3663 -4.9576 2.3758
-2.1999 -5.0727 2.3758
-2.0287 -5.1828 2.3757
-1.8529 -5.2877 2.3757
-1.6725 -5.3872 2.3757
-1.4877 -5.4810 2.3756
-1.2987 -5.5691 2.3756
-1.1055 -5.6511 2.3755
-0.9088 -5.7294 2.3766
-0.7074 -5.7944 2.3748
-0.5026 -5.8514 2.3725
-0.2951 -5.9070 2.3725
-0.0845 -5.9555 2.3725
0.1290 -5.9968 2.3724
0.3451 -6.0305 2.3724
0.5637 -6.0567 2.3723
0.7843 -6.0749 2.3723
1.0068 -6.0852 2.3723
1.2309 -6.0873 2.3722
1.4561 -6.0811 2.3722
1.6822 -6.0664 2.3721
1.9089 -6.0432 2.3721
2.1358 -6.0112 2.3720
2.3625 -5.9704 2.3719
2.5887 -5.9207 2.3719
2.8139 -5.8621 2.3718
3.0378 -5.7945 2.3717
3.2600 -5.7178 2.3717
3.4801 -5.6321 2.3716
3.6975 -5.5374 2.3715
3.9120 -5.4336 2.3714
4.1230 -5.3209 2.3714
4.3302 -5.1993 2.3713
4.5331 -5.0689 2.3712
4.7312 -4.9299 2.3711
4.9242 -4.7823 2.3711
5.1115 -4.6265 2.3710
5.2929 -4.4625 2.3709
5.4678 -4.2906 2.3708
5.6358 -4.1111 2.3707
5.7965 -3.9243 2.3706
5.9456 -3.7277 2.3689
6.0856 -3.5243 2.3669
6.2178 -3.3152 2.3651
6.3424 -3.1011 2.3639
6.4585 -2.8818 2.3628
6.5735 -2.6609 2.3648
6.6822 -2.4359 2.3678
6.6067 -2.1493 2.3098
6.4854 -1.8611 2.2408
6.5310 -1.6288 2.2337
6.5996 -1.4023 2.2379
6.6574 -1.1724 2.2417
6.7053 -0.9399 2.2455
6.7399 -0.7050 2.2483
6.7635 -0.4686 2.2507
6.7732 -0.2312 2.2520
6.7697 0.0063 2.2522
6.7551 0.2433 2.2522
6.7304 0.4791 2.2522
6.6957 0.7133 2.2522
6.6511 0.9454 2.2522
6.5968 1.1751 2.2523
6.5327 1.4018 2.2522
6.4594 1.6251 2.2522
6.5088 1.8827 2.2988
6.5884 2.1591 2.3608
6.6039 2.4242 2.4046
6.4881 2.6439 2.4046
6.3637 2.8580 2.4046
6.2311 3.0660 2.4046
6.0905 3.2678 2.4046
5.9423 3.4629 2.4046
5.7870 3.6512 2.4046
5.6248 3.8323 2.4046
5.4563 4.0061 2.4046
5.2817 4.1723 2.4046
5.1015 4.3308 2.4046
4.9161 4.4813 2.4046
4.7258 4.6239 2.4046
4.5311 4.7582 2.4046
4.3324 4.8844 2.4046
4.1301 5.0022 2.4046
3.9245 5.1116 2.4046
3.7161 5.2127 2.4046
3.5052 5.3053 2.4046
3.2922 5.3896 2.4046
3.0775 5.4654 2.4046
2.8614 5.5329 2.4046
2.6442 5.5921 2.4046
0.9181 2.1354 0.9099
0.8407 2.1649 0.9156
0.7623 2.1917 0.9213
0.6830 2.2155 0.9270
0.6028 2.2366 0.9327
0.5220 2.2546 0.9384
0.4405 2.2698 0.9442
0.3585 2.2820 0.9499
0.2761 2.2912 0.9556
0.1935 2.2974 0.9613
0.1106 2.3006 0.9670
0.0277 2.3009 0.9726
-0.0551 2.2981 0.9782
-0.1379 2.2923 0.9837
-0.2203 2.2836 0.9892
-0.3024 2.2718 0.9946
-0.3840 2.2571 1.0000
-0.4651 2.2394 1.0052
-0.5454 2.2189 1.0104
-0.6250 2.1954 1.0155
-0.7036 2.1691 1.0205
-0.7813 2.1399 1.0254
-2.0025 4.9206 2.4046
-2.1687 4.8178 2.4046
-2.3306 4.7103 2.4046
-2.4882 4.5982 2.4046
-2.6414 4.4816 2.4046
-2.7901 4.3608 2.4046
-2.9342 4.2358 2.4046
-3.0737 4.1068 2.4046
-3.2085 3.9741 2.4046
-3.3381 3.8373 2.4044
-3.4618 3.6958 2.4033
-3.5786 3.5492 2.4011
-3.6878 3.3975 2.3972
-3.7963 3.2472 2.3963
-3.8998 3.0942 2.3954
-3.9981 2.9384 2.3945
-4.0912 2.7802 2.3936
-4.1790 2.6196 2.3927
-4.2616 2.4568 2.3918
-4.3389 2.2919 2.3909
-4.4109 2.1251 2.3900
-4.4776 1.9565 2.3891
-4.5378 1.7858 2.3877
-4.5858 1.6112 2.3827
-4.6312 1.4368 2.3792
-4.6777 1.2633 2.3791
-4.7188 1.0885 2.3790
-4.7544 0.9127 2.3789
-4.7846 0.7358 2.3788
-4.8094 0.5581 2.3787
-4.8286 0.3796 2.3786
-4.8423 0.2006 2.3785
-4.8505 0.0211 2.3784
-4.8532 -0.1587 2.3783
-4.8503 -0.3387 2.3782
-4.8418 -0.5188 2.3781
-4.8277 -0.6988 2.3780
-4.8080 -0.8786 2.3779
-4.7827 -1.0580 2.3778
-4.7518 -1.2370 2.3777
-4.7152 -1.4153 2.3776
-4.6730 -1.5929 2.3775
-4.6251 -1.7695 2.3774
-4.5716 -1.9451 2.3774
-4.5124 -2.1194 2.3773
-4.4475 -2.2924 2.3772
-4.3771 -2.4638 2.3771
-4.3009 -2.6336 2.3770
-4.2191 -2.8015 2.3769
-4.1317 -2.9675 2.3768
-4.0387 -3.1312 2.3767
-3.9401 -3.2926 2.3767
-3.8359 -3.4515 2.3766
-3.7262 -3.6077 2.3765
-3.6110 -3.7610 2.3764
-3.4903 -3.9113 2.3763
-3.3641 -4.0583 2.3763
-3.2326 -4.2020 2.3762
-3.0957 -4.3419 2.3761
-2.9536 -4.4781 2.3761
-2.8063 -4.6103 2.3760
-2.6538 -4.7383 2.3759
-2.4962 -4.8618 2.3759
-2.3337 -4.9808 2.3758
-2.1664 -5.0949 2.3758
-1.9943 -5.2040 2.3757
-1.8175 -5.3078 2.3757
-1.6363 -5.4062 2.3756
-1.4506 -5.4989 2.3756
-1.2608 -5.5858 2.3756
-1.0668 -5.6665 2.3755
-0.8692 -5.7421 2.3760
-0.6674 -5.8079 2.3750
-0.4618 -5.8629 2.3725
-0.2537 -5.9171 2.3725
-0.0425 -5.9643 2.3725
0.1715 -6.0040 2.3724
0.3882 -6.0363 2.3724
0.6072 -6.0609 2.3723
0.8282 -6.0776 2.3723
1.0510 -6.0863 2.3722
1.2753 -6.0868 2.3722
1.5008 -6.0789 2.3722
1.7270 -6.0625 2.3721
1.9538 -6.0375 2.3720
2.1807 -6.0038 2.3720
2.4073 -5.9613 2.3719
2.6333 -5.9099 2.3719
2.8583 -5.8495 2.3718
3.0819 -5.7800 2.3717
3.3037 -5.7016 2.3717
3.5233 -5.6141 2.3716
3.7402 -5.5175 2.3715
3.9540 -5.4120 2.3714
4.1643 -5.2975 2.3714
4.3707 -5.1742 2.3713
4.5727 -5.0421 2.3712
4.7698 -4.9014 2.3711
4.9617 -4.7522 2.3710
5.1479 -4.5947 2.3709
5.3280 -4.4291 2.3709
5.5015 -4.2557 2.3708
5.6682 -4.0748 2.3707
5.8275 -3.8864 2.3706
5.9739 -3.6880 2.3685
6.1124 -3.4834 2.3665
6.2431 -3.2733 2.3649
6.3660 -3.0581 2.3637
6.4811 -2.8382 2.3629
6.5955 -2.6167 2.3653
6.7028 -2.3909 2.3685
6.5807 -2.0904 2.2951
6.4729 -1.8091 2.2317
6.5454 -1.5843 2.2346
6.6120 -1.3571 2.2387
6.6676 -1.1266 2.2424
6.7132 -0.8936 2.2461
6.7458 -0.6583 2.2489
6.7663 -0.4216 2.2510
6.7734 -0.1842 2.2521
6.7676 0.0533 2.2522
6.7510 0.2900 2.2522
6.7244 0.5255 2.2522
6.6877 0.7594 2.2522
6.6411 0.9911 2.2522
6.5849 1.2202 2.2523
6.5190 1.4462 2.2522
6.4564 1.6721 2.2567
6.5243 1.9364 2.3106
6.6045 2.2153 2.3738
6.5817 2.4681 2.4046
6.4642 2.6867 2.4046
6.3381 2.8996 2.4046
6.2039 3.1064 2.4046
6.0618 3.3069 2.4046
5.9122 3.5007 2.4046
5.7555 3.6876 2.4046
5.5920 3.8673 2.4046
5.4222 4.0396 2.4046
5.2465 4.2043 2.4046
5.0652 4.3612 2.4046
4.8788 4.5102 2.4046
4.6876 4.6511 2.4046
4.4921 4.7838 2.4046
4.2927 4.9083 2.4046
4.0897 5.0245 2.4046
3.8835 5.1323 2.4046
3.6746 5.2317 2.4046
3.4632 5.3227 2.4046
3.2499 5.4053 2.4046
3.0348 5.4795 2.4046
2.8185 5.5453 2.4046
0.9794 2.1096 0.9054
0.9029 2.1414 0.9110
0.8253 2.1704 0.9167
0.7467 2.1966 0.9224
0.6672 2.2199 0.9281
0.5869 2.2404 0.9338
0.5059 2.2579 0.9396
0.4243 2.2724 0.9453
0.3422 2.2840 0.9510
0.2598 2.2927 0.9567
0.1771 2.2983 0.9624
0.0942 2.3009 0.9681
0.0113 2.3006 0.9737
-0.0715 2.2972 0.9793
-0.1542 2.2908 0.9848
-0.2366 2.2815 0.9903
-0.3186 2.2691 0.9957
-0.4001 2.2538 1.0010
-0.4810 2.2356 1.0063
-0.5612 2.2145 1.0114
-0.6406 2.1904 1.0165
-0.7191 2.1635 1.0215
-0.7965 2.1338 1.0263
-2.0357 4.9007 2.4046
-2.2010 4.7969 2.4046
-2.3621 4.6885 2.4046
-2.5188 4.5755 2.4046
-2.6711 4.4580 2.4046
-2.8189 4.3364 2.4046
-2.9622 4.2106 2.4046
-3.1007 4.0809 2.4046
-3.2346 3.9474 2.4046
-3.3631 3.8096 2.4043
-3.4854 3.6672 2.4030
-3.6008 3.5196 2.4004
-3.7097 3.3680 2.3970
-3.8172 3.2172 2.3962
-3.9196 3.0636 2.3953
-4.0169 2.9073 2.3944
-4.1090 2.7486 2.3935
-4.1958 2.5876 2.3926
-4.2773 2.4244 2.3917
-4.3536 2.2591 2.3908
-4.4245 2.0919 2.3899
-4.4901 1.9230 2.3890
-4.5478 1.7514 2.3867
-4.5944 1.5765 2.3816
-4.6408 1.4026 2.3792
-4.6862 1.2288 2.3791
-4.7263 1.0538 2.3790
-4.7608 0.8778 2.3789
-4.7900 0.7007 2.3788
-4.8136 0.5228 2.3787
-4.8318 0.3443 2.3786
-4.8444 0.1651 2.3785
-4.8515 -0.0144 2.3784
-4.8531 -0.1943 2.3783
-4.8490 -0.3744 2.3782
-4.8394 -0.5544 2.3781
-4.8243 -0.7344 2.3780
-4.8034 -0.9141 2.3779
-4.7770 -1.0935 2.3778
-4.7450 -1.2723 2.3777
-4.7073 -1.4505 2.3776
-4.6639 -1.6279 2.3775
-4.6150 -1.8043 2.3774
-4.5603 -1.9796 2.3773
-4.5000 -2.1537 2.3772
-4.4340 -2.3264 2.3772
-4.3624 -2.4976 2.3771
-4.2852 -2.6670 2.3770
-4.2023 -2.8345 2.3769
-4.1138 -3.0000 2.3768
-4.0197 -3.1633 2.3767
-3.9200 -3.3242 2.3766
-3.8147 -3.4826 2.3766
-3.7039 -3.6383 2.3765
-3.5875 -3.7910 2.3764
-3.4658 -3.9407 2.3763
-3.3385 -4.0870 2.3763
-3.2060 -4.2299 2.3762
-3.0680 -4.3692 2.3761
-2.9249 -4.5046 2.3761
-2.7765 -4.6359 2.3760
-2.6230 -4.7631 2.3759
-2.4645 -4.8857 2.3759
-2.3010 -5.0037 2.3758
-2.1327 -5.1169 2.3758
-1.9597 -5.2249 2.3757
-1.7820 -5.3277 2.3757
-1.5999 -5.4250 2.3756
-1.4134 -5.5166 2.3756
-1.2227 -5.6022 2.3756
-1.0280 -5.6818 2.3755
-0.8294 -5.7545 2.3753
-0.6269 -5.8190 2.3744
-0.4209 -5.8742 2.3725
-0.2122 -5.9270 2.3725
-0.0004 -5.9727 2.3724
0.2142 -6.0110 2.3724
0.4313 -6.0418 2.3724
0.6507 -6.0648 2.3723
0.8721 -6.0800 2.3723
1.0953 -6.0870 2.3722
1.3198 -6.0859 2.3722
1.5455 -6.0763 2.3721
1.7719 -6.0583 2.3721
1.9987 -6.0316 2.3720
2.2255 -5.9961 2.3720
2.4521 -5.9518 2.3719
2.6779 -5.8986 2.3718
2.9027 -5.8364 2.3718
-4.4231 -1.4760 2.3776
-4.3783 -1.6432 2.3775
-4.3280 -1.8093 2.3774
-4.2724 -1.9743 2.3774
-4.2115 -2.1379 2.3773
-4.1451 -2.3000 2.3772
-4.0734 -2.4605 2.3771
-3.9963 -2.6192 2.3770
-3.9140 -2.7759 2.3769
-3.8263 -2.9305 2.3769
-3.7333 -3.0829 2.3768
-3.6350 -3.2328 2.3767
-3.5315 -3.3801 2.3766
-3.4229 -3.5246 2.3766
-3.3090 -3.6662 2.3765
-3.1901 -3.8047 2.3764
-3.0661 -3.9398 2.3764
-2.9371 -4.0715 2.3763
-2.8032 -4.1995 2.3762
-2.6644 -4.3237 2.3762
-2.5208 -4.4438 2.3761
-2.3725 -4.5597 2.3761
-2.2195 -4.6712 2.3760
-2.0621 -4.7781 2.3760
-1.9002 -4.8802 2.3759
-1.7341 -4.9773 2.3759
-1.5637 -5.0692 2.3758
-1.3894 -5.1557 2.3758
-1.2111 -5.2367 2.3758
-1.0292 -5.3119 2.3757
-0.8436 -5.3811 2.3757
-0.6547 -5.4442 2.3757
-0.4628 -5.5034 2.3767
-0.2674 -5.5479 2.3742
-0.0694 -5.5894 2.3734
0.1309 -5.6236 2.3723
0.3335 -5.6531 2.3723
0.5381 -5.6754 2.3722
0.7446 -5.6904 2.3722
0.9527 -5.6978 2.3722
1.1620 -5.6976 2.3721
1.3723 -5.6896 2.3721
1.5832 -5.6737 2.3720
1.7946 -5.6498 2.3720
2.0059 -5.6178 2.3719
2.2170 -5.5776 2.3719
2.4273 -5.5292 2.3718
2.6367 -5.4725 2.3717
2.8447 -5.4074 2.3717
3.0509 -5.3340 2.3716
3.2551 -5.2522 2.3715
3.4566 -5.1621 2.3715
3.6553 -5.0637 2.3714
3.8507 -4.9571 2.3713
4.0424 -4.8424 2.3713
4.2301 -4.7195 2.3712
4.4132 -4.5888 2.3711
4.5915 -4.4503 2.3710
4.7645 -4.3041 2.3710
4.9319 -4.1506 2.3709
5.0933 -3.9898 2.3708
5.2482 -3.8221 2.3707
5.3965 -3.6476 2.3706
5.5377 -3.4668 2.3706
5.6714 -3.2798 2.3705
5.7974 -3.0869 2.3704
5.9154 -2.8886 2.3703
6.0251 -2.6852 2.3702
6.1320 -2.4795 2.3724
6.2328 -2.2698 2.3755
6.3255 -2.0559 2.3789
6.4101 -1.8381 2.3827
6.3493 -1.5826 2.3363
6.2753 -1.3328 2.2895
6.2225 -1.0957 2.2544
6.2376 -0.8746 2.2475
6.2681 -0.6563 2.2497
6.2875 -0.4367 2.2512
6.2958 -0.2163 2.2520
6.2929 0.0041 2.2522
6.2800 0.2239 2.2522
6.2578 0.4428 2.2522
6.2264 0.6603 2.2522
6.2106 0.8794 2.2612
6.2600 1.1113 2.2976
6.3243 1.3527 2.3435
6.3974 1.6047 2.3970
6.3374 1.8279 2.4046
6.2481 2.0419 2.4046
6.1502 2.2516 2.4046
6.0441 2.4564 2.4046
5.9300 2.6562 2.4046
5.8082 2.8505 2.4046
5.6790 3.0391 2.4046
5.5428 3.2217 2.4046
5.3998 3.3980 2.4046
5.2505 3.5678 2.4046
5.0951 3.7310 2.4046
4.9341 3.8872 2.4046
4.7677 4.0363 2.4046
4.5964 4.1782 2.4046
4.4205 4.3127 2.4046
4.2403 4.4397 2.4046
4.0563 4.5592 2.4046
3.8688 4.6709 2.4046
3.6781 4.7750 2.4046
3.4846 4.8713 2.4046
3.2886 4.9598 2.4046
3.0905 5.0406 2.4046
2.8907 5.1135 2.4046
2.6894 5.1787 2.4046
0.9375 1.9738 0.9064
0.8659 2.0041 0.9117
0.7932 2.0318 0.9170
0.7196 2.0569 0.9223
0.6451 2.0794 0.9277
0.5698 2.0991 0.9331
0.4939 2.1160 0.9385
0.4174 2.1302 0.9438
0.3404 2.1417 0.9492
0.2631 2.1503 0.9546
0.1855 2.1562 0.9599
0.1077 2.1592 0.9653
0.0299 2.1594 0.9705
-0.0479 2.1568 0.9758
-0.1255 2.1514 0.9810
-0.2030 2.1431 0.9861
-0.2800 2.1321 0.9912
-0.3567 2.1183 0.9962
-0.4327 2.1017 1.0012
-0.5082 2.0824 1.0060
-0.5829 2.0604 1.0108
-0.6567 2.0356 1.0155
-0.7296 2.0083 1.0201
-0.8015 1.9783 1.0245
-2.0385 4.5472 2.4046
-2.1919 4.4468 2.4046
-2.3413 4.3419 2.4046
-2.4866 4.2328 2.4046
-2.6278 4.1195 2.4046
-2.7646 4.0023 2.4046
-2.8971 3.8812 2.4046
-3.0246 3.7558 2.4042
-3.1465 3.6257 2.4030
-3.2622 3.4906 2.4007
-3.3719 3.3514 2.3975
-3.4800 3.2126 2.3967
-3.5833 3.0710 2.3958
-3.6818 2.9266 2.3950
-3.7754 2.7797 2.3941
-3.8641 2.6303 2.3933
-3.9478 2.4786 2.3924
-4.0265 2.3248 2.3916
-4.1001 2.1689 2.3907
-4.1687 2.0111 2.3899
-4.2322 1.8516 2.3890
-4.2893 1.6899 2.3874
-4.3354 1.5248 2.3826
-4.3786 1.3597 2.3792
-4.4228 1.1953 2.3791
-4.4618 1.0298 2.3790
-4.4957 0.8632 2.3789
-4.5243 0.6956 2.3788
-4.5477 0.5273 2.3787
-4.5659 0.3582 2.3786
-4.5788 0.1886 2.3785
-4.5864 0.0186 2.3784
-4.5886 -0.1518 2.3783
-4.5856 -0.3223 2.3782
-4.5773 -0.4928 2.3781
-4.5636 -0.6632 2.3781
-4.5445 -0.8334 2.3780
-4.5201 -1.0033 2.3779
-4.4904 -1.1726 2.3778
-4.4552 -1.3413 2.3777
-4.4147 -1.5092 2.3776
-4.3688 -1.6762 2.3775
-4.3175 -1.8421 2.3774
-4.2608 -2.0068 2.3773
-4.1988 -2.1701 2.3773
-4.1313 -2.3319 2.3772
-4.0586 -2.4920 2.3771
-3.9805 -2.6503 2.3770
-3.8970 -2.8067 2.3769
-3.8083 -2.9608 2.3768
-3.7143 -3.1127 2.3768
-3.6150 -3.2621 2.3767
-3.5105 -3.4089 2.3766
-3.4008 -3.5529 2.3765
-3.2859 -3.6939 2.3765
-3.1660 -3.8317 2.3764
-3.0410 -3.9662 2.3763
-2.9110 -4.0971 2.3763
-2.7761 -4.2244 2.3762
-2.6363 -4.3478 2.3762
-2.4918 -4.4671 2.3761
-2.3426 -4.5821 2.3761
-2.1887 -4.6927 2.3760
-2.0304 -4.7987 2.3760
-1.8677 -4.8998 2.3759
-1.7007 -4.9959 2.3759
-1.5296 -5.0868 2.3758
-1.3544 -5.1722 2.3758
-1.1754 -5.2520 2.3758
-0.9927 -5.3261 2.3757
-0.8065 -5.3941 2.3757
-0.6169 -5.4560 2.3757
-0.4243 -5.5126 2.3762
-0.2284 -5.5584 2.3748
-0.0299 -5.5960 2.3728
0.1708 -5.6300 2.3723
0.3738 -5.6581 2.3723
0.5788 -5.6790 2.3722
0.7857 -5.6925 2.3722
0.9940 -5.6984 2.3722
1.2035 -5.6966 2.3721
1.4140 -5.6871 2.3721
1.6250 -5.6696 2.3720
1.8364 -5.6441 2.3720
2.0477 -5.6105 2.3719
2.2586 -5.5687 2.3718
2.4688 -5.5187 2.3718
2.6780 -5.4603 2.3717
2.8856 -5.3936 2.3717
3.0915 -5.3185 2.3716
3.2951 -5.2351 2.3715
3.4962 -5.1433 2.3715
3.6943 -5.0433 2.3714
3.8890 -4.9351 2.3713
4.0799 -4.8187 2.3712
4.2667 -4.6943 2.3712
4.4489 -4.5620 2.3711
4.6261 -4.4220 2.3710
4.7981 -4.2743 2.3709
4.9643 -4.1193 2.3709
5.1244 -3.9572 2.3708
5.2781 -3.7881 2.3707
5.4250 -3.6124 2.3706
5.5647 -3.4302 2.3705
5.6969 -3.2421 2.3705
5.8214 -3.0481 2.3704
5.9378 -2.8488 2.3703
6.0458 -2.6444 2.3702
6.1526 -2.4384 2.3730
6.2517 -2.2278 2.3762
6.3429 -2.0132 2.3797
6.4243 -1.7942 2.3829
6.3336 -1.5322 2.3264
6.2628 -1.2850 2.2815
6.2171 -1.0505 2.2497
6.2444 -0.8316 2.2480
6.2728 -0.6130 2.2500
6.2900 -0.3931 2.2514
6.2960 -0.1727 2.2521
6.2911 0.0476 2.2522
6.2764 0.2673 2.2522
6.2523 0.4860 2.2522
6.2191 0.7031 2.2522
6.2148 0.9240 2.2661
6.2720 1.1583 2.3061
6.3386 1.4018 2.3536
6.4026 1.6532 2.4046
6.3204 1.8705 2.4046
6.2294 2.0838 2.4046
6.1299 2.2925 2.4046
6.0222 2.4963 2.4046
5.9065 2.6950 2.4046
5.7832 2.8883 2.4046
5.6526 3.0757 2.4046
5.5150 3.2571 2.4046
5.3708 3.4321 2.4046
5.2202 3.6006 2.4046
5.0637 3.7624 2.4046
4.9016 3.9172 2.4046
4.7342 4.0649 2.4046
4.5620 4.2054 2.4046
4.3852 4.3384 2.4046
4.2042 4.4639 2.4046
4.0195 4.5819 2.4046
3.8313 4.6921 2.4046
3.6400 4.7947 2.4046
3.4460 4.8894 2.4046
3.2496 4.9764 2.4046
3.0512 5.0556 2.4046
2.8510 5.1270 2.4046
2.6494 5.1907 2.4046
0.9234 1.9800 0.9075
0.8516 2.0098 0.9127
0.7787 2.0370 0.9181
0.7049 2.0616 0.9234
0.6303 2.0835 0.9288
0.5549 2.1026 0.9341
0.4788 2.1191 0.9395
0.4022 2.1327 0.9449
0.3252 2.1436 0.9503
0.2478 2.1517 0.9557
0.1701 2.1570 0.9610
0.0923 2.1594 0.9663
0.0145 2.1591 0.9716
-0.0633 2.1559 0.9768
-0.1409 2.1500 0.9820
-0.2182 2.1412 0.9871
-0.2952 2.1296 0.9922
-0.3717 2.1152 0.9972
-0.4477 2.0981 1.0021
-0.5230 2.0783 1.0070
-0.5975 2.0557 1.0117
-0.6712 2.0304 1.0164
-0.7439 2.0025 1.0210
-0.8156 1.9720 1.0254
-2.0691 4.5277 2.4046
-2.2218 4.4264 2.4046
-2.3704 4.3207 2.4046
-2.5149 4.2107 2.4046
-2.6552 4.0966 2.4046
-2.7911 3.9786 2.4046
-2.9227 3.8567 2.4046
-3.0492 3.7305 2.4041
-3.1699 3.5993 2.4027
-3.2842 3.4632 2.4000
-3.3936 3.3242 2.3973
-3.5008 3.1848 2.3965
-3.6032 3.0426 2.3957
-3.7007 2.8978 2.3948
-3.7933 2.7503 2.3940
-3.8810 2.6005 2.3931
-3.9637 2.4483 2.3923
-4.0414 2.2941 2.3914
-4.1141 2.1378 2.3906
-4.1817 1.9797 2.3897
-4.2442 1.8199 2.3889
-4.2988 1.6573 2.3865
-4.3437 1.4920 2.3816
-4.3878 1.3273 2.3792
-4.4309 1.1627 2.3791
-4.4689 0.9969 2.3790
-4.5018 0.8301 2.3789
-4.5294 0.6624 2.3788
-4.5517 0.4939 2.3787
-4.5688 0.3247 2.3786
-4.5807 0.1550 2.3785
-4.5872 -0.0151 2.3784
-4.5885 -0.1855 2.3783
-4.5844 -0.3560 2.3782
-4.5750 -0.5265 2.3781
-4.5602 -0.6969 2.3780
-4.5401 -0.8671 2.3779
-4.5147 -1.0368 2.3779
-4.4838 -1.2060 2.3778
-4.4476 -1.3746 2.3777
-4.4060 -1.5423 2.3776
-4.3590 -1.7091 2.3775
-4.3067 -1.8747 2.3774
-4.2490 -2.0392 2.3773
-4.1858 -2.2022 2.3772
-4.1174 -2.3637 2.3772
-4.0435 -2.5235 2.3771
-3.9644 -2.6814 2.3770
-3.8799 -2.8373 2.3769
-3.7901 -2.9911 2.3768
-3.6950 -3.1425 2.3768
-3.5947 -3.2914 2.3767
-3.4892 -3.4376 2.3766
-3.3784 -3.5810 2.3765
-3.2626 -3.7214 2.3765
-3.1417 -3.8586 2.3764
-3.0157 -3.9924 2.3763
-2.8847 -4.1226 2.3763
-2.7488 -4.2491 2.3762
-2.6081 -4.3717 2.3762
-2.4626 -4.4902 2.3761
-2.3125 -4.6044 2.3760
-2.1578 -4.7141 2.3760
-1.9986 -4.8191 2.3759
-1.8350 -4.9192 2.3759
-1.6672 -5.0143 2.3759
-1.4953 -5.1041 2.3758
-1.3193 -5.1884 2.3758
-1.1396 -5.2671 2.3758
-0.9562 -5.3400 2.3757
-0.7693 -5.4068 2.3757
-0.5790 -5.4674 2.3757
-0.3857 -5.5215 2.3756
-0.1895 -5.5677 2.3750
0.0096 -5.6023 2.3723
0.2108 -5.6361 2.3723
0.4142 -5.6628 2.3723
0.6196 -5.6822 2.3722
0.8268 -5.6942 2.3722
1.0353 -5.6987 2.3721
1.2451 -5.6954 2.3721
1.4557 -5.6843 2.3721
1.6668 -5.6652 2.3720
1.8782 -5.6381 2.3719
2.0895 -5.6029 2.3719
2.3003 -5.5595 2.3718
2.5103 -5.5078 2.3718
2.7192 -5.4477 2.3717
-4.1863 -1.4012 2.3777
-4.1433 -1.5595 2.3776
-4.0951 -1.7168 2.3775
-4.0418 -1.8730 2.3774
-3.9834 -2.0278 2.3773
-3.9199 -2.1811 2.3773
-3.8513 -2.3328 2.3772
-3.7776 -2.4828 2.3771
-3.6989 -2.6308 2.3770
-3.6151 -2.7767 2.3770
-3.5263 -2.9204 2.3769
-3.4326 -3.0618 2.3768
-3.3339 -3.2006 2.3767
-3.2303 -3.3366 2.3767
-3.1218 -3.4698 2.3766
-3.0086 -3.6000 2.3765
-2.8905 -3.7269 2.3765
-2.7678 -3.8505 2.3764
-2.6405 -3.9705 2.3764
-2.5086 -4.0868 2.3763
-2.3722 -4.1992 2.3763
-2.2315 -4.3075 2.3762
-2.0864 -4.4115 2.3762
-1.9372 -4.5111 2.3761
-1.7839 -4.6061 2.3761
-1.6265 -4.6963 2.3760
-1.4654 -4.7816 2.3760
-1.3005 -4.8617 2.3760
-1.1321 -4.9364 2.3759
-0.9602 -5.0057 2.3759
-0.7851 -5.0693 2.3759
-0.6070 -5.1270 2.3759
-0.4259 -5.1787 2.3759
-0.2421 -5.2243 2.3758
-0.0558 -5.2646 2.3763
0.1328 -5.2945 2.3751
0.3233 -5.3198 2.3747
0.5153 -5.3341 2.3725
0.7090 -5.3455 2.3721
0.9041 -5.3506 2.3721
1.1003 -5.3486 2.3720
1.2973 -5.3393 2.3720
1.4947 -5.3226 2.3719
1.6924 -5.2984 2.3719
1.8899 -5.2666 2.3718
2.0871 -5.2272 2.3718
2.2835 -5.1801 2.3717
2.4788 -5.1253 2.3717
2.6727 -5.0628 2.3716
2.8649 -4.9925 2.3716
3.0550 -4.9144 2.3715
3.2426 -4.8287 2.3714
3.4274 -4.7353 2.3714
3.6091 -4.6343 2.3713
3.7872 -4.5258 2.3712
3.9614 -4.4098 2.3712
4.1315 -4.2866 2.3711
4.2969 -4.1562 2.3710
4.4574 -4.0188 2.3709
4.6125 -3.8746 2.3709
4.7621 -3.7238 2.3708
4.9057 -3.5666 2.3707
5.0430 -3.4032 2.3706
5.1738 -3.2340 2.3706
5.2976 -3.0591 2.3705
5.4172 -2.8805 2.3717
5.5323 -2.6981 2.3741
5.6400 -2.5106 2.3765
5.7371 -2.3172 2.3778
5.8233 -2.1186 2.3779
5.9155 -1.9210 2.3839
5.9962 -1.7181 2.3884
6.0648 -1.5108 2.3916
6.1243 -1.3003 2.3946
6.1746 -1.0872 2.3975
6.1458 -0.8621 2.3734
6.1152 -0.6410 2.3522
6.0950 -0.4244 2.3387
6.0845 -0.2105 2.3323
6.0839 0.0021 2.3333
6.0917 0.2150 2.3408
6.1105 0.4298 2.3562
6.1361 0.6477 2.3777
6.1662 0.8697 2.4046
6.1178 1.0822 2.4046
6.0607 1.2922 2.4046
5.9951 1.4992 2.4046
5.9211 1.7028 2.4046
5.8390 1.9028 2.4046
5.7489 2.0988 2.4046
5.6512 2.2905 2.4046
5.5460 2.4775 2.4046
5.4336 2.6596 2.4046
5.3143 2.8364 2.4046
5.1885 3.0077 2.4046
5.0563 3.1733 2.4046
4.9181 3.3330 2.4046
4.7743 3.4865 2.4046
4.6251 3.6337 2.4046
4.4708 3.7743 2.4046
4.3118 3.9083 2.4046
4.1485 4.0355 2.4046
3.9811 4.1558 2.4046
3.8100 4.2690 2.4046
3.6355 4.3752 2.4046
3.4579 4.4743 2.4046
3.2776 4.5661 2.4046
3.0948 4.6507 2.4046
2.9100 4.7281 2.4046
2.7233 4.7982 2.4046
0.9525 1.8263 0.9034
0.8861 1.8573 0.9083
0.8187 1.8858 0.9133
0.7503 1.9119 0.9183
0.6810 1.9355 0.9233
0.6109 1.9566 0.9284
0.5401 1.9752 0.9334
0.4686 1.9911 0.9385
0.3966 2.0045 0.9436
0.3242 2.0152 0.9486
0.2514 2.0234 0.9537
0.1783 2.0289 0.9587
0.1051 2.0317 0.9637
0.0319 2.0319 0.9687
-0.0414 2.0294 0.9736
-0.1144 2.0243 0.9785
-0.1873 2.0166 0.9834
-0.2598 2.0062 0.9882
-0.3320 1.9932 0.9929
-0.4036 1.9776 0.9975
-0.4746 1.9594 1.0021
-0.5449 1.9387 1.0066
-0.6144 1.9154 1.0110
-0.6830 1.8896 1.0153
-0.7507 1.8614 1.0195
-0.8173 1.8307 1.0236
-2.0655 4.2066 2.4046
-2.2075 4.1083 2.4046
-2.3455 4.0058 2.4046
-2.4796 3.8994 2.4046
-2.6097 3.7890 2.4046
-2.7351 3.6742 2.4040
-2.8552 3.5545 2.4026
-2.9695 3.4300 2.4001
-3.0795 3.3027 2.3977
-3.1870 3.1746 2.3969
-3.2900 3.0436 2.3961
-3.3885 2.9098 2.3954
-3.4824 2.7733 2.3946
-3.5716 2.6344 2.3938
-3.6562 2.4930 2.3930
-3.7360 2.3495 2.3922
-3.8111 2.2038 2.3913
-3.8814 2.0561 2.3905
-3.9468 1.9067 2.3897
-4.0074 1.7555 2.3889
-4.0615 1.6020 2.3871
-4.1058 1.4456 2.3826
-4.1470 1.2889 2.3791
-4.1891 1.1330 2.3791
-4.2262 0.9759 2.3790
-4.2584 0.8178 2.3789
-4.2856 0.6588 2.3788
-4.3078 0.4990 2.3787
-4.3250 0.3386 2.3786
-4.3371 0.1776 2.3785
-4.3441 0.0163 2.3784
-4.3461 -0.1454 2.3784
-4.3430 -0.3072 2.3783
-4.3349 -0.4690 2.3782
-4.3216 -0.6306 2.3781
-4.3031 -0.7921 2.3780
-4.2796 -0.9531 2.3779
-4.2510 -1.1136 2.3778
-4.2172 -1.2735 2.3777
-4.1782 -1.4326 2.3777
-4.1342 -1.5907 2.3776
-4.0850 -1.7478 2.3775
-4.0307 -1.9037 2.3774
-3.9713 -2.0582 2.3773
-3.9067 -2.2112 2.3772
-3.8371 -2.3626 2.3772
-3.7624 -2.5122 2.3771
-3.6827 -2.6598 2.3770
-3.5979 -2.8053 2.3769
-3.5082 -2.9486 2.3769
-3.4134 -3.0894 2.3768
-3.3138 -3.2277 2.3767
-3.2092 -3.3632 2.3767
-3.0998 -3.4958 2.3766
-2.9856 -3.6254 2.3765
-2.8666 -3.7516 2.3765
-2.7430 -3.8745 2.3764
-2.6148 -3.9938 2.3764
-2.4820 -4.1093 2.3763
-2.3447 -4.2209 2.3763
-2.2031 -4.3284 2.3762
-2.0572 -4.4316 2.3762
-1.9072 -4.5303 2.3761
-1.7531 -4.6244 2.3761
-1.5950 -4.7136 2.3760
-1.4331 -4.7978 2.3760
-1.2675 -4.8769 2.3760
-1.0984 -4.9506 2.3759
-0.9259 -5.0187 2.3759
-0.7501 -5.0812 2.3759
-0.5714 -5.1377 2.3759
-0.3897 -5.1882 2.3758
-0.2054 -5.2326 2.3758
-0.0187 -5.2728 2.3768
0.1703 -5.2992 2.3746
0.3613 -5.3231 2.3743
0.5534 -5.3362 2.3721
0.7475 -5.3471 2.3721
0.9429 -5.3508 2.3721
1.1392 -5.3473 2.3720
1.3363 -5.3366 2.3720
1.5338 -5.3184 2.3719
1.7315 -5.2927 2.3719
1.9290 -5.2594 2.3718
2.1260 -5.2185 2.3718
2.3222 -5.1699 2.3717
2.5173 -5.1135 2.3717
2.7109 -5.0495 2.3716
2.9027 -4.9777 2.3715
3.0923 -4.8981 2.3715
3.2794 -4.8108 2.3714
3.4636 -4.7159 2.3713
3.6446 -4.6134 2.3713
3.8220 -4.5034 2.3712
3.9954 -4.3860 2.3711
4.1646 -4.2614 2.3711
4.3290 -4.1296 2.3710
4.4885 -3.9908 2.3709
4.6426 -3.8453 2.3709
4.7910 -3.6932 2.3708
4.9334 -3.5348 2.3707
5.0694 -3.3702 2.3706
5.1988 -3.1998 2.3706
5.3213 -3.0239 2.3705
5.4405 -2.8448 2.3721
5.5538 -2.6612 2.3744
5.6605 -2.4730 2.3771
5.7548 -2.2782 2.3778
5.8411 -2.0794 2.3787
5.9329 -1.8814 2.3850
6.0103 -1.6773 2.3890
6.0775 -1.4694 2.3923
6.1351 -1.2584 2.3953
6.1785 -1.0439 2.3962
6.1387 -0.8179 2.3685
6.1103 -0.5978 2.3489
6.0922 -0.3819 2.3369
6.0836 -0.1684 2.3320
6.0855 0.0442 2.3345
6.0932 0.2572 2.3427
6.1151 0.4726 2.3599
6.1440 0.6915 2.3835
6.1573 0.9119 2.4046
6.1072 1.1240 2.4046
6.0484 1.3333 2.4046
5.9811 1.5397 2.4046
5.9055 1.7427 2.4046
5.8218 1.9419 2.4046
5.7302 2.1371 2.4046
5.6309 2.3279 2.4046
5.5243 2.5139 2.4046
5.4106 2.6950 2.4046
5.2900 2.8707 2.4046
5.1628 3.0410 2.4046
5.0294 3.2054 2.4046
4.8901 3.3639 2.4046
4.7452 3.5161 2.4046
4.5949 3.6620 2.4046
4.4397 3.8014 2.4046
4.2799 3.9340 2.4046
4.1157 4.0598 2.4046
3.9475 4.1787 2.4046
3.7757 4.2906 2.4046
3.6006 4.3954 2.4046
3.4224 4.4930 2.4046
3.2416 4.5834 2.4046
3.0584 4.6666 2.4046
2.8732 4.7425 2.4046
2.6862 4.8112 2.4046
0.9394 1.8326 0.9044
0.8729 1.8631 0.9093
0.8053 1.8912 0.9143
0.7367 1.9168 0.9193
0.6672 1.9399 0.9243
0.5970 1.9605 0.9294
0.5260 1.9785 0.9344
0.4544 1.9940 0.9395
0.3823 2.0068 0.9446
0.3098 2.0171 0.9496
0.2369 2.0247 0.9547
0.1639 2.0296 0.9597
0.0906 2.0320 0.9647
0.0174 2.0316 0.9697
-0.0558 2.0286 0.9746
-0.1289 2.0230 0.9795
-0.2017 2.0147 0.9843
-0.2742 2.0038 0.9891
-0.3462 1.9903 0.9938
-0.4177 1.9742 0.9984
-0.4885 1.9555 1.0030
-0.5587 1.9343 1.0075
-0.6280 1.9105 1.0119
-0.6965 1.8842 1.0161
-0.7639 1.8555 1.0203
-0.8303 1.8244 1.0244
-2.0939 4.1875 2.4046
-2.2351 4.0883 2.4046
-2.3724 3.9851 2.4046
-2.5057 3.8779 2.4046
-2.6349 3.7666 2.4045
-2.7592 3.6508 2.4038
-2.8783 3.5303 2.4022
-2.9913 3.4047 2.3993
-3.1011 3.2776 2.3976
-3.2077 3.1489 2.3968
-3.3099 3.0173 2.3960
-3.4074 2.8830 2.3952
-3.5004 2.7460 2.3944
-3.5887 2.6066 2.3936
-3.6723 2.4648 2.3928
-3.7512 2.3208 2.3920
-3.8254 2.1747 2.3912
-3.8947 2.0267 2.3904
-3.9592 1.8769 2.3896
-4.0188 1.7254 2.3888
-4.0707 1.5712 2.3862
-4.1139 1.4145 2.3816
-4.1558 1.2582 2.3791
-4.1968 1.1020 2.3790
-4.2330 0.9448 2.3790
-4.2642 0.7865 2.3789
-4.2904 0.6273 2.3788
-4.3116 0.4673 2.3787
-4.3278 0.3068 2.3786
-4.3389 0.1457 2.3785
-4.3449 -0.0157 2.3784
-4.3459 -0.1774 2.3783
-4.3418 -0.3392 2.3782
-4.3326 -0.5010 2.3782
-4.3183 -0.6626 2.3781
-4.2989 -0.8240 2.3780
-4.2744 -0.9849 2.3779
-4.2447 -1.1453 2.3778
-4.2099 -1.3050 2.3777
-4.1699 -1.4639 2.3776
-4.1249 -1.6219 2.3776
-4.0747 -1.7788 2.3775
-4.0193 -1.9344 2.3774
-3.9589 -2.0886 2.3773
-3.8934 -2.2413 2.3772
-3.8228 -2.3924 2.3772
-3.7471 -2.5416 2.3771
-3.6663 -2.6888 2.3770
-3.5806 -2.8339 2.3769
-3.4898 -2.9767 2.3769
-3.3941 -3.1170 2.3768
-3.2935 -3.2547 2.3767
-3.1879 -3.3897 2.3767
-3.0776 -3.5217 2.3766
-2.9624 -3.6506 2.3765
-2.8426 -3.7762 2.3765
-2.7180 -3.8984 2.3764
-2.5889 -4.0170 2.3763
-2.4552 -4.1317 2.3763
-2.3171 -4.2425 2.3762
-2.1746 -4.3492 2.3762
-2.0279 -4.4515 2.3761
-1.8770 -4.5493 2.3761
-1.7221 -4.6424 2.3761
-1.5633 -4.7307 2.3760
-1.4006 -4.8139 2.3760
-1.2343 -4.8919 2.3760
-1.0645 -4.9645 2.3759
-0.8914 -5.0315 2.3759
-0.7150 -5.0928 2.3759
-0.5357 -5.1482 2.3759
-0.3535 -5.1975 2.3758
-0.1686 -5.2406 2.3758
0.0186 -5.2787 2.3765
0.2079 -5.3036 2.3741
0.3991 -5.3262 2.3738
0.5917 -5.3389 2.3721
0.7861 -5.3484 2.3721
0.9816 -5.3507 2.3721
1.1782 -5.3458 2.3720
1.3753 -5.3336 2.3720
1.5729 -5.3139 2.3719
1.7706 -5.2867 2.3719
1.9680 -5.2519 2.3718
2.1649 -5.2095 2.3718
2.3609 -5.1593 2.3717
2.5557 -5.1015 2.3717
-3.9685 -1.3323 2.3777
-3.9272 -1.4826 2.3776
-3.8810 -1.6318 2.3776
-3.8299 -1.7799 2.3775
-3.7739 -1.9266 2.3774
-3.7130 -2.0719 2.3773
-3.6473 -2.2156 2.3773
-3.5768 -2.3575 2.3772
-3.5015 -2.4976 2.3771
-3.4214 -2.6356 2.3770
-3.3365 -2.7715 2.3770
-3.2470 -2.9050 2.3769
-3.1527 -3.0361 2.3768
-3.0539 -3.1644 2.3768
-2.9504 -3.2900 2.3767
-2.8424 -3.4127 2.3767
-2.7300 -3.5322 2.3766
-2.6131 -3.6484 2.3765
-2.4918 -3.7612 2.3765
-2.3664 -3.8704 2.3764
-2.2367 -3.9758 2.3764
-2.1029 -4.0773 2.3763
-1.9651 -4.1747 2.3763
-1.8234 -4.2678 2.3763
-1.6779 -4.3565 2.3762
-1.5287 -4.4406 2.3762
-1.3759 -4.5199 2.3761
-1.2197 -4.5943 2.3761
-1.0603 -4.6636 2.3761
-0.8977 -4.7276 2.3761
-0.7321 -4.7862 2.3760
-0.5637 -4.8393 2.3760
-0.3926 -4.8866 2.3760
-0.2191 -4.9281 2.3760
-0.0434 -4.9636 2.3760
0.1344 -4.9929 2.3760
0.3141 -5.0159 2.3760
0.4955 -5.0340 2.3767
0.6777 -5.0400 2.3748
0.8613 -5.0434 2.3748
1.0452 -5.0363 2.3731
1.2297 -5.0236 2.3719
1.4150 -5.0064 2.3719
1.6005 -4.9821 2.3718
1.7857 -4.9507 2.3718
1.9704 -4.9122 2.3717
2.1543 -4.8666 2.3717
2.3371 -4.8137 2.3716
2.5185 -4.7536 2.3716
2.6981 -4.6863 2.3715
2.8757 -4.6118 2.3714
3.0509 -4.5301 2.3714
3.2234 -4.4414 2.3713
3.3929 -4.3455 2.3713
3.5590 -4.2428 2.3712
3.7214 -4.1331 2.3711
3.8798 -4.0167 2.3711
4.0339 -3.8937 2.3710
4.1833 -3.7643 2.3709
4.3278 -3.6285 2.3709
4.4669 -3.4867 2.3708
4.6007 -3.3391 2.3708
4.7319 -3.1880 2.3725
4.8570 -3.0314 2.3742
4.9762 -2.8693 2.3759
5.0886 -2.7020 2.3776
5.1908 -2.5282 2.3777
5.2859 -2.3500 2.3778
5.3736 -2.1679 2.3779
5.4537 -1.9820 2.3780
5.5392 -1.7971 2.3837
5.6135 -1.6072 2.3880
5.6742 -1.4126 2.3898
5.7388 -1.2180 2.3966
5.7855 -1.0186 2.3994
5.8216 -0.8169 2.4013
5.8484 -0.6137 2.4028
5.8656 -0.4094 2.4039
5.8731 -0.2046 2.4044
5.8711 0.0003 2.4046
5.8600 0.2047 2.4046
5.8405 0.4083 2.4046
5.8125 0.6107 2.4046
5.7762 0.8115 2.4046
5.7317 1.0103 2.4046
5.6791 1.2068 2.4046
5.6186 1.4006 2.4046
5.5503 1.5914 2.4046
5.4744 1.7789 2.4046
5.3911 1.9627 2.4046
5.3007 2.1425 2.4046
5.2033 2.3181 2.4046
5.0992 2.4891 2.4046
4.9886 2.6553 2.4046
4.8718 2.8165 2.4046
4.7491 2.9725 2.4046
4.6208 3.1229 2.4046
4.4871 3.2677 2.4046
4.3483 3.4066 2.4046
4.2047 3.5395 2.4046
4.0567 3.6663 2.4046
3.9044 3.7868 2.4046
3.7483 3.9008 2.4046
3.5887 4.0084 2.4046
3.4257 4.1094 2.4046
3.2598 4.2037 2.4046
3.0912 4.2914 2.4046
2.9203 4.3723 2.4046
2.7472 4.4464 2.4046
0.9637 1.6910 0.9008
0.9022 1.7224 0.9054
0.8396 1.7516 0.9101
0.7760 1.7786 0.9148
0.7115 1.8032 0.9195
0.6461 1.8254 0.9242
0.5799 1.8453 0.9290
0.5131 1.8628 0.9337
0.4457 1.8779 0.9385
0.3777 1.8905 0.9433
0.3094 1.9006 0.9481
0.2407 1.9083 0.9528
0.1718 1.9134 0.9576
0.1028 1.9161 0.9623
0.0336 1.9163 0.9670
-0.0354 1.9140 0.9717
-0.1044 1.9091 0.9763
-0.1731 1.9018 0.9809
-0.2416 1.8920 0.9854
-0.3096 1.8798 0.9898
-0.3772 1.8651 0.9942
-0.4441 1.8479 0.9985
-0.5105 1.8283 1.0028
-0.5760 1.8064 1.0069
-0.6408 1.7821 1.0110
-0.7046 1.7555 1.0150
-0.7674 1.7265 1.0188
-0.8292 1.6954 1.0226
-2.0848 3.8942 2.4046
-2.2161 3.7977 2.4046
-2.3436 3.6972 2.4045
-2.4667 3.5920 2.4037
-2.5849 3.4822 2.4021
-2.6976 3.3672 2.3992
-2.8079 3.2514 2.3979
-2.9146 3.1333 2.3972
-3.0172 3.0122 2.3964
-3.1155 2.8883 2.3957
-3.2094 2.7616 2.3949
-3.2990 2.6324 2.3942
-3.3842 2.5008 2.3934
-3.4650 2.3668 2.3927
-3.5412 2.2306 2.3919
-3.6129 2.0925 2.3911
-3.6800 1.9524 2.3904
-3.7425 1.8105 2.3896
-3.8004 1.6669 2.3888
-3.8517 1.5211 2.3869
-3.8945 1.3726 2.3826
-3.9338 1.2238 2.3791
-3.9739 1.0756 2.3790
-4.0093 0.9263 2.3790
-4.0399 0.7761 2.3789
-4.0657 0.6249 2.3788
-4.0868 0.4730 2.3787
-4.1031 0.3205 2.3786
-4.1145 0.1675 2.3785
-4.1211 0.0141 2.3785
-4.1228 -0.1395 2.3784
-4.1197 -0.2933 2.3783
-4.1117 -0.4470 2.3782
-4.0988 -0.6006 2.3781
-4.0810 -0.7540 2.3780
-4.0583 -0.9069 2.3780
-4.0307 -1.0594 2.3779
-3.9982 -1.2111 2.3778
-3.9608 -1.3621 2.3777
-3.9185 -1.5122 2.3776
-3.8713 -1.6612 2.3776
-3.8192 -1.8090 2.3775
-3.7622 -1.9555 2.3774
-3.7004 -2.1004 2.3773
-3.6338 -2.2438 2.3772
-3.5623 -2.3854 2.3772
-3.4860 -2.5251 2.3771
-3.4050 -2.6627 2.3770
-3.3192 -2.7981 2.3770
-3.2287 -2.9311 2.3769
-3.1336 -3.0617 2.3768
-3.0338 -3.1895 2.3768
-2.9294 -3.3145 2.3767
-2.8205 -3.4366 2.3766
-2.7072 -3.5554 2.3766
-2.5894 -3.6710 2.3765
-2.4674 -3.7831 2.3765
-2.3410 -3.8915 2.3764
-2.2105 -3.9962 2.3764
-2.0759 -4.0969 2.3763
-1.9374 -4.1934 2.3763
-1.7949 -4.2857 2.3763
-1.6486 -4.3735 2.3762
-1.4987 -4.4566 2.3762
-1.3453 -4.5350 2.3761
-1.1884 -4.6084 2.3761
-1.0283 -4.6767 2.3761
-0.8651 -4.7396 2.3761
-0.6990 -4.7972 2.3760
-0.5300 -4.8491 2.3760
-0.3585 -4.8953 2.3760
-0.1845 -4.9356 2.3760
-0.0084 -4.9699 2.3760
0.1698 -4.9979 2.3760
0.3498 -5.0197 2.3760
0.5313 -5.0357 2.3763
0.7138 -5.0404 2.3744
0.8977 -5.0424 2.3744
1.0816 -5.0342 2.3727
1.2663 -5.0208 2.3719
1.4517 -5.0021 2.3719
1.6371 -4.9765 2.3718
1.8222 -4.9437 2.3718
2.0068 -4.9038 2.3717
2.1905 -4.8567 2.3717
2.3731 -4.8024 2.3716
2.5541 -4.7409 2.3716
2.7334 -4.6721 2.3715
2.9106 -4.5962 2.3714
3.0853 -4.5131 2.3714
3.2572 -4.4230 2.3713
3.4260 -4.3258 2.3712
3.5914 -4.2216 2.3712
3.7531 -4.1106 2.3711
3.9107 -3.9929 2.3710
4.0638 -3.8686 2.3710
4.2123 -3.7379 2.3709
4.3557 -3.6009 2.3708
4.4938 -3.4579 2.3708
4.6271 -3.3097 2.3712
4.7572 -3.1575 2.3728
4.8806 -2.9994 2.3743
4.9991 -2.8367 2.3763
5.1094 -2.6680 2.3776
5.2102 -2.4933 2.3777
5.3038 -2.3143 2.3778
5.3900 -2.1314 2.3779
5.4707 -1.9456 2.3789
5.5552 -1.7600 2.3849
5.6258 -1.5689 2.3882
5.6885 -1.3746 2.3915
5.7494 -1.1788 2.3975
5.7933 -0.9788 2.3998
5.8278 -0.7768 2.4016
5.8527 -0.5734 2.4031
5.8679 -0.3689 2.4040
5.8734 -0.1641 2.4045
5.8696 0.0407 2.4046
5.8568 0.2450 2.4046
5.8356 0.4484 2.4046
5.8060 0.6505 2.4046
5.7680 0.8510 2.4046
5.7219 1.0494 2.4046
5.6678 1.2454 2.4046
5.6057 1.4386 2.4046
5.5359 1.6288 2.4046
5.4585 1.8155 2.4046
5.3738 1.9986 2.4046
5.2820 2.1776 2.4046
5.1832 2.3523 2.4046
5.0778 2.5224 2.4046
4.9660 2.6876 2.4046
4.8480 2.8478 2.4046
4.7242 3.0027 2.4046
4.5947 3.1520 2.4046
4.4600 3.2956 2.4046
4.3202 3.4334 2.4046
4.1758 3.5651 2.4046
4.0269 3.6906 2.4046
3.8739 3.8098 2.4046
3.7170 3.9226 2.4046
3.5567 4.0289 2.4046
3.3931 4.1286 2.4046
3.2267 4.2216 2.4046
3.0576 4.3079 2.4046
2.8862 4.3875 2.4046
2.7128 4.4603 2.4046
0.9516 1.6974 0.9017
0.8899 1.7284 0.9063
0.8271 1.7571 0.9110
0.7633 1.7836 0.9157
0.6986 1.8078 0.9204
0.6331 1.8296 0.9252
0.5668 1.8490 0.9299
0.4998 1.8660 0.9347
0.4323 1.8805 0.9395
0.3643 1.8927 0.9443
0.2958 1.9023 0.9490
0.2271 1.9095 0.9538
0.1582 1.9142 0.9585
0.0891 1.9163 0.9633
0.0200 1.9160 0.9679
-0.0491 1.9132 0.9726
-0.1180 1.9079 0.9772
-0.1867 1.9001 0.9818
-0.2551 1.8898 0.9863
-0.3230 1.8771 0.9907
-0.3905 1.8619 0.9951
-0.4573 1.8442 0.9994
-0.5235 1.8242 1.0036
-0.5889 1.8018 1.0077
-0.6535 1.7770 1.0118
-0.7171 1.7499 1.0157
-0.7797 1.7205 1.0196
-0.8412 1.6889 1.0233
-2.1110 3.8754 2.4046
-2.2417 3.7782 2.4046
-2.3683 3.6767 2.4044
-2.4905 3.5707 2.4035
-2.6077 3.4599 2.4016
-2.7192 3.3439 2.3985
-2.8293 3.2283 2.3977
-2.9352 3.1096 2.3970
-3.0370 2.9879 2.3963
-3.1344 2.8634 2.3955
-3.2275 2.7363 2.3948
-3.3162 2.6066 2.3940
-3.4005 2.4744 2.3933
-3.4804 2.3400 2.3925
-3.5557 2.2035 2.3917
-3.6265 2.0649 2.3910
-3.6927 1.9245 2.3902
-3.7543 1.7822 2.3894
-3.8113 1.6384 2.3887
-3.8606 1.4918 2.3860
-3.9022 1.3431 2.3816
-3.9421 1.1946 2.3791
-3.9812 1.0462 2.3790
-4.0157 0.8967 2.3789
-4.0454 0.7462 2.3789
-4.0703 0.5949 2.3788
-4.0904 0.4429 2.3787
-4.1057 0.2903 2.3786
-4.1162 0.1372 2.3785
-4.1218 -0.0163 2.3784
-4.1226 -0.1699 2.3784
-4.1185 -0.3237 2.3783
-4.1095 -0.4774 2.3782
-4.0956 -0.6310 2.3781
-4.0769 -0.7843 2.3780
-4.0532 -0.9371 2.3779
-4.0246 -1.0894 2.3779
-3.9912 -1.2411 2.3778
-3.9528 -1.3919 2.3777
-3.9095 -1.5417 2.3776
-3.8614 -1.6905 2.3775
-3.8083 -1.8381 2.3775
-3.7504 -1.9843 2.3774
-3.6876 -2.1289 2.3773
-3.6200 -2.2720 2.3772
-3.5476 -2.4132 2.3772
-3.4704 -2.5525 2.3771
-3.3884 -2.6897 2.3770
-3.3017 -2.8246 2.3770
-3.2103 -2.9572 2.3769
-3.1142 -3.0872 2.3768
-3.0135 -3.2145 2.3768
-2.9082 -3.3389 2.3767
-2.7985 -3.4603 2.3766
-2.6842 -3.5786 2.3766
-2.5656 -3.6935 2.3765
-2.4427 -3.8049 2.3765
-2.3156 -3.9126 2.3764
-2.1842 -4.0164 2.3764
-2.0488 -4.1163 2.3763
-1.9095 -4.2120 2.3763
-1.7662 -4.3034 2.3762
-1.6193 -4.3903 2.3762
-1.4687 -4.4725 2.3762
-1.3145 -4.5499 2.3761
-1.1570 -4.6223 2.3761
-0.9963 -4.6895 2.3761
-0.8325 -4.7515 2.3761
-0.6658 -4.8079 2.3760
-0.4963 -4.8587 2.3760
-0.3243 -4.9038 2.3760
-0.1499 -4.9429 2.3760
0.0267 -4.9759 2.3760
0.2053 -5.0027 2.3760
0.3856 -5.0232 2.3760
0.5674 -5.0371 2.3759
0.7500 -5.0406 2.3741
0.9340 -5.0413 2.3741
1.1181 -5.0317 2.3724
1.3030 -5.0176 2.3719
1.4884 -4.9976 2.3719
1.6738 -4.9705 2.3718
1.8588 -4.9364 2.3718
2.0432 -4.8950 2.3717
2.2267 -4.8465 2.3717
2.4090 -4.7908 2.3716
-3.7673 -1.2687 2.3778
-3.7276 -1.4115 2.3777
-3.6833 -1.5533 2.3776
-3.6342 -1.6939 2.3775
-3.5805 -1.8332 2.3775
-3.5222 -1.9711 2.3774
-3.4592 -2.1074 2.3773
-3.3917 -2.2421 2.3773
-3.3195 -2.3748 2.3772
-3.2429 -2.5056 2.3771
-3.1617 -2.6343 2.3771
-3.0761 -2.7607 2.3770
-2.9860 -2.8846 2.3769
-2.8915 -3.0060 2.3769
-2.7928 -3.1247 2.3768
-2.6897 -3.2404 2.3768
-2.5824 -3.3532 2.3767
-2.4709 -3.4628 2.3767
-2.3554 -3.5690 2.3766
-2.2358 -3.6718 2.3766
-2.1123 -3.7709 2.3765
-1.9849 -3.8662 2.3765
-1.8538 -3.9576 2.3764
-1.7191 -4.0449 2.3764
-1.5808 -4.1279 2.3764
-1.4391 -4.2065 2.3763
-1.2941 -4.2805 2.3763
-1.1459 -4.3498 2.3763
-0.9946 -4.4143 2.3762
-0.8405 -4.4737 2.3762
-0.6836 -4.5279 2.3762
-0.5242 -4.5769 2.3762
-0.3623 -4.6204 2.3762
-0.1982 -4.6583 2.3762
-0.0321 -4.6905 2.3761
0.1359 -4.7169 2.3761
0.3055 -4.7373 2.3761
0.4766 -4.7516 2.3761
0.6488 -4.7598 2.3761
0.8221 -4.7616 2.3762
0.9963 -4.7586 2.3769
1.1704 -4.7454 2.3758
1.3444 -4.7253 2.3745
1.5191 -4.7018 2.3748
1.6928 -4.6690 2.3738
1.8657 -4.6297 2.3728
2.0378 -4.5839 2.3720
2.2090 -4.5322 2.3716
2.3792 -4.4744 2.3715
2.5476 -4.4100 2.3715
2.7140 -4.3388 2.3714
2.8781 -4.2610 2.3713
3.0396 -4.1765 2.3713
3.1982 -4.0855 2.3712
3.3536 -3.9880 2.3712
3.5055 -3.8841 2.3711
3.6546 -3.7751 2.3717
3.8000 -3.6602 2.3725
3.9414 -3.5394 2.3735
4.0776 -3.4122 2.3741
4.2098 -3.2799 2.3752
4.3375 -3.1425 2.3767
4.4583 -2.9987 2.3774
4.5723 -2.8490 2.3774
4.6803 -2.6946 2.3775
4.7821 -2.5356 2.3776
4.8774 -2.3724 2.3777
4.9661 -2.2051 2.3778
5.0479 -2.0341 2.3779
5.1226 -1.8597 2.3780
5.2022 -1.6862 2.3836
5.2717 -1.5082 2.3879
5.3265 -1.3252 2.3889
5.3737 -1.1400 2.3898
5.4223 -0.9545 2.3948
5.4621 -0.7667 2.3993
5.4898 -0.5767 2.4019
5.5072 -0.3854 2.4035
5.5150 -0.1935 2.4043
5.5136 -0.0015 2.4046
5.5037 0.1902 2.4046
5.4858 0.3811 2.4046
5.4601 0.5709 2.4046
5.4266 0.7592 2.4046
5.3855 0.9458 2.4046
5.3368 1.1303 2.4046
5.2808 1.3122 2.4046
5.2175 1.4915 2.4046
5.1471 1.6676 2.4046
5.0698 1.8404 2.4046
4.9858 2.0095 2.4046
4.8952 2.1748 2.4046
4.7984 2.3358 2.4046
4.6955 2.4925 2.4046
4.5868 2.6444 2.4046
4.4725 2.7916 2.4046
4.3529 2.9336 2.4046
4.2282 3.0705 2.4046
4.0987 3.2019 2.4046
3.9646 3.3277 2.4046
3.8263 3.4478 2.4046
3.6840 3.5621 2.4046
3.5380 3.6704 2.4046
3.3885 3.7727 2.4046
3.2360 3.8689 2.4046
3.0805 3.9588 2.4046
2.9224 4.0425 2.4046
2.7621 4.1199 2.4046
0.9715 1.5662 0.8986
0.9145 1.5980 0.9029
0.8563 1.6277 0.9073
0.7972 1.6553 0.9117
0.7371 1.6808 0.9161
0.6760 1.7040 0.9205
0.6142 1.7251 0.9250
0.5517 1.7438 0.9295
0.4885 1.7604 0.9340
0.4248 1.7746 0.9385
0.3606 1.7865 0.9431
0.2959 1.7961 0.9476
0.2310 1.8033 0.9521
0.1659 1.8082 0.9566
0.1006 1.8107 0.9610
0.0353 1.8109 0.9655
-0.0300 1.8087 0.9699
-0.0952 1.8041 0.9742
-0.1602 1.7972 0.9786
-0.2249 1.7880 0.9828
-0.2892 1.7764 0.9870
-0.3531 1.7625 0.9912
-0.4164 1.7462 0.9953
-0.4791 1.7277 0.9993
-0.5411 1.7070 1.0032
-0.6023 1.6840 1.0071
-0.6626 1.6589 1.0108
-0.7220 1.6315 1.0145
-0.7804 1.6021 1.0180
-0.8376 1.5705 1.0215
-2.0966 3.6054 2.4042
-2.2173 3.5093 2.4032
-2.3334 3.4084 2.4012
-2.4451 3.3033 2.3987
-2.5548 3.1977 2.3980
-2.6607 3.0889 2.3973
-2.7626 2.9771 2.3967
-2.8605 2.8624 2.3960
-2.9544 2.7449 2.3953
-3.0441 2.6248 2.3945
-3.1297 2.5023 2.3938
-3.2111 2.3773 2.3931
-3.2883 2.2502 2.3924
-3.3612 2.1209 2.3917
-3.4297 1.9896 2.3909
-3.4939 1.8565 2.3902
-3.5536 1.7216 2.3895
-3.6090 1.5851 2.3887
-3.6578 1.4463 2.3866
-3.6990 1.3052 2.3825
-3.7365 1.1635 2.3791
-3.7748 1.0225 2.3790
-3.8085 0.8804 2.3789
-3.8377 0.7374 2.3789
-3.8624 0.5935 2.3788
-3.8824 0.4490 2.3787
-3.8978 0.3038 2.3786
-3.9086 0.1581 2.3785
-3.9148 0.0121 2.3785
-3.9163 -0.1341 2.3784
-3.9131 -0.2804 2.3783
-3.9053 -0.4267 2.3782
-3.8928 -0.5729 2.3781
-3.8756 -0.7188 2.3781
-3.8537 -0.8643 2.3780
-3.8271 -1.0092 2.3779
-3.7958 -1.1535 2.3778
-3.7599 -1.2970 2.3778
-3.7192 -1.4396 2.3777
-3.6739 -1.5812 2.3776
-3.6239 -1.7216 2.3775
-3.5693 -1.8606 2.3775
-3.5101 -1.9982 2.3774
-3.4462 -2.1342 2.3773
-3.3778 -2.2685 2.3773
-3.3047 -2.4009 2.3772
-3.2272 -2.5313 2.3771
-3.1451 -2.6595 2.3771
-3.0586 -2.7854 2.3770
-2.9677 -2.9088 2.3769
-2.8723 -3.0297 2.3769
-2.7727 -3.1478 2.3768
-2.6688 -3.2630 2.3768
-2.5607 -3.3751 2.3767
-2.4484 -3.4841 2.3766
-2.3320 -3.5896 2.3766
-2.2117 -3.6917 2.3765
-2.0874 -3.7901 2.3765
-1.9593 -3.8846 2.3765
-1.8275 -3.9752 2.3764
-1.6920 -4.0617 2.3764
-1.5530 -4.1438 2.3763
-1.4107 -4.2215 2.3763
-1.2650 -4.2946 2.3763
-1.1162 -4.3630 2.3763
-0.9644 -4.4264 2.3762
-0.8097 -4.4848 2.3762
-0.6523 -4.5381 2.3762
-0.4923 -4.5859 2.3762
-0.3300 -4.6283 2.3762
-0.1655 -4.6651 2.3761
0.0010 -4.6962 2.3761
0.1693 -4.7214 2.3761
0.3392 -4.7406 2.3761
0.5105 -4.7537 2.3761
0.6830 -4.7606 2.3762
0.8564 -4.7612 2.3762
1.0309 -4.7570 2.3770
1.2048 -4.7420 2.3756
1.3788 -4.7206 2.3743
1.5536 -4.6959 2.3747
1.7270 -4.6617 2.3736
1.8997 -4.6212 2.3727
2.0718 -4.5741 2.3719
2.2428 -4.5213 2.3716
2.4126 -4.4622 2.3715
2.5807 -4.3965 2.3714
2.7467 -4.3240 2.3714
2.9103 -4.2448 2.3713
3.0712 -4.1590 2.3713
3.2292 -4.0667 2.3712
3.3839 -3.9680 2.3712
3.5353 -3.8630 2.3712
3.6837 -3.7529 2.3719
3.8283 -3.6367 2.3727
3.9688 -3.5148 2.3737
4.1038 -3.3862 2.3742
4.2354 -3.2532 2.3755
4.3621 -3.1147 2.3770
4.4813 -2.9695 2.3774
4.5941 -2.8189 2.3775
4.7009 -2.6635 2.3776
4.8015 -2.5037 2.3777
4.8955 -2.3396 2.3777
4.9828 -2.1716 2.3778
5.0632 -1.9999 2.3779
5.1388 -1.8257 2.3791
5.2169 -1.6514 2.3847
5.2831 -1.4722 2.3881
5.3364 -1.2887 2.3891
5.3821 -1.1032 2.3900
5.4312 -0.9176 2.3959
5.4684 -0.7293 2.3999
5.4939 -0.5389 2.4022
5.5094 -0.3475 2.4036
5.5154 -0.1555 2.4044
5.5124 0.0365 2.4046
5.5008 0.2280 2.4046
5.4813 0.4187 2.4046
5.4541 0.6083 2.4046
5.4191 0.7963 2.4046
5.3765 0.9825 2.4046
5.3263 1.1664 2.4046
5.2688 1.3479 2.4046
5.2041 1.5266 2.4046
5.1323 1.7021 2.4046
5.0537 1.8742 2.4046
4.9684 2.0425 2.4046
4.8766 2.2070 2.4046
4.7786 2.3672 2.4046
4.6745 2.5229 2.4046
4.5646 2.6739 2.4046
4.4493 2.8201 2.4046
4.3286 2.9611 2.4046
4.2029 3.0969 2.4046
4.0725 3.2272 2.4046
3.9376 3.3519 2.4046
3.7984 3.4709 2.4046
3.6554 3.5840 2.4046
3.5087 3.6911 2.4046
3.3586 3.7922 2.4046
3.2054 3.8871 2.4046
3.0494 3.9759 2.4046
2.8909 4.0583 2.4046
2.7301 4.1345 2.4046
0.9603 1.5726 0.8995
0.9031 1.6040 0.9038
0.8447 1.6333 0.9081
0.7854 1.6605 0.9125
0.7251 1.6855 0.9170
0.6639 1.7084 0.9214
0.6019 1.7290 0.9259
0.5392 1.7473 0.9304
0.4759 1.7634 0.9349
0.4121 1.7771 0.9394
0.3478 1.7886 0.9440
0.2831 1.7977 0.9485
0.2182 1.8045 0.9530
0.1530 1.8089 0.9575
0.0877 1.8110 0.9619
0.0223 1.8106 0.9664
-0.0429 1.8080 0.9708
-0.1081 1.8030 0.9751
-0.1730 1.7956 0.9794
-0.2376 1.7859 0.9837
-0.3019 1.7738 0.9879
-0.3656 1.7594 0.9920
-0.4288 1.7428 0.9961
-0.4914 1.7238 1.0001
-0.5532 1.7026 1.0040
-0.6143 1.6792 1.0078
-0.6744 1.6536 1.0115
-0.7336 1.6259 1.0152
-0.7918 1.5960 1.0187
-0.8488 1.5640 1.0222
-2.1208 3.5868 2.4041
-2.2406 3.4897 2.4029
-2.3558 3.3878 2.4007
-2.4671 3.2827 2.3986
-2.5761 3.1764 2.3979
-2.6811 3.0670 2.3972
-2.7823 2.9546 2.3965
-2.8794 2.8393 2.3958
-2.9724 2.7214 2.3951
-3.0614 2.6008 2.3944
-3.1462 2.4777 2.3937
-3.2267 2.3524 2.3930
