ply
format ascii 1.0
element vertex 2179
property float32 x
property float32 y
property float32 z
end_header
6.4955 -4.7939 2.2349
6.6673 -4.5609 2.2349
6.8305 -4.3216 2.2350
6.9849 -4.0763 2.2350
7.1302 -3.8254 2.2350
7.2663 -3.5692 2.2351
7.3929 -3.3081 2.2351
7.5099 -3.0424 2.2351
7.6171 -2.7725 2.2351
7.7143 -2.4988 2.2351
7.8020 -2.2216 2.2353
7.8796 -1.9414 2.2356
7.9468 -1.6584 2.2358
8.0034 -1.3731 2.2359
8.0494 -1.0857 2.2361
8.0846 -0.7968 2.2362
8.1091 -0.5068 2.2363
8.1229 -0.2160 2.2364
8.1258 0.0752 2.2364
8.1178 0.3662 2.2364
8.0991 0.6567 2.2364
8.0695 0.9463 2.2364
8.0292 1.2346 2.2363
7.9783 1.5212 2.2362
7.9167 1.8056 2.2361
7.8446 2.0874 2.2359
7.7621 2.3663 2.2358
7.6694 2.6418 2.2356
7.5665 2.9136 2.2353
7.4537 3.1814 2.2351
7.3320 3.4450 2.2351
7.2006 3.7038 2.2351
7.0599 3.9575 2.2350
6.9100 4.2058 2.2350
6.7512 4.4483 2.2350
6.5836 4.6847 2.2349
6.4076 4.9146 2.2349
6.2235 5.1379 2.2349
6.1843 5.4899 2.2916
6.1667 5.8826 2.3633
6.0082 6.1576 2.3873
5.7794 6.3643 2.3873
5.5433 6.5624 2.3873
5.3004 6.7517 2.3873
5.0509 6.9318 2.3873
4.7952 7.1026 2.3873
4.5336 7.2639 2.3873
4.2666 7.4154 2.3873
3.9944 7.5570 2.3873
3.7175 7.6885 2.3873
3.4363 7.8097 2.3873
3.1510 7.9206 2.3873
2.8622 8.0210 2.3873
2.5702 8.1108 2.3873
0.8968 3.2278 0.9409
0.7805 3.2581 0.9419
0.6631 3.2841 0.9428
0.5448 3.3059 0.9438
0.4259 3.3234 0.9447
0.3063 3.3366 0.9457
0.1864 3.3455 0.9466
0.0662 3.3500 0.9476
-0.0541 3.3501 0.9485
-0.1743 3.3459 0.9494
-0.2943 3.3374 0.9503
-0.4139 3.3245 0.9513
-0.5330 3.3073 0.9521
-0.6513 3.2858 0.9530
-0.7689 3.2601 0.9539
-0.8854 3.2301 0.9547
-2.5002 7.9846 2.3873
-2.7827 7.8822 2.3873
-3.0612 7.7698 2.3873
-3.3352 7.6478 2.3873
-3.6045 7.5162 2.3873
-3.8688 7.3753 2.3873
-4.1277 7.2252 2.3873
-4.3809 7.0661 2.3873
-4.6281 6.8983 2.3873
-4.8690 6.7220 2.3873
-5.1033 6.5375 2.3873
-5.3309 6.3449 2.3873
-5.5513 6.1445 2.3873
-5.7644 5.9368 2.3873
-5.9698 5.7215 2.3873
-6.1674 5.4997 2.3873
-6.3570 5.2708 2.3873
-6.5383 5.0356 2.3873
-6.7111 4.7944 2.3873
-6.8753 4.5474 2.3873
-7.0305 4.2949 2.3873
-7.1768 4.0373 2.3873
-7.3138 3.7747 2.3873
-7.4415 3.5077 2.3873
-7.5596 3.2364 2.3873
-7.6682 2.9613 2.3873
-7.7670 2.6827 2.3873
-7.8560 2.4008 2.3873
-7.9350 2.1161 2.3873
-8.0039 1.8288 2.3873
-8.0628 1.5394 2.3873
-8.1114 1.2482 2.3873
-8.1499 0.9555 2.3873
-8.1780 0.6616 2.3873
-8.1959 0.3670 2.3873
-8.2035 0.0719 2.3873
-8.2007 -0.2232 2.3873
-8.1875 -0.5181 2.3873
-8.1641 -0.8123 2.3873
-8.1304 -1.1056 2.3873
-8.0864 -1.3975 2.3873
-8.0323 -1.6878 2.3873
-7.9680 -1.9760 2.3873
-7.8936 -2.2619 2.3873
-7.8093 -2.5450 2.3873
-7.7150 -2.8251 2.3873
-7.6110 -3.1018 2.3873
-7.4973 -3.3748 2.3873
-7.3740 -3.6437 2.3873
-7.2414 -3.9082 2.3873
-7.0994 -4.1681 2.3873
-6.9484 -4.4228 2.3873
-6.7884 -4.6723 2.3873
-6.6197 -4.9162 2.3873
-6.4425 -5.1541 2.3873
-6.2568 -5.3856 2.3873
-6.0630 -5.6107 2.3873
-5.8613 -5.8289 2.3873
-5.6519 -6.0401 2.3873
-5.4351 -6.2438 2.3873
-5.2110 -6.4399 2.3873
-4.9800 -6.6282 2.3873
-4.7423 -6.8082 2.3873
-4.4982 -6.9799 2.3873
-4.2480 -7.1430 2.3873
-3.9920 -7.2972 2.3873
-3.7304 -7.4424 2.3873
-3.4637 -7.5783 2.3873
-3.1920 -7.7048 2.3873
-2.9159 -7.8217 2.3873
-2.6355 -7.9288 2.3873
-2.3512 -8.0259 2.3873
-2.0634 -8.1129 2.3873
-1.7724 -8.1897 2.3873
-1.4786 -8.2561 2.3873
-1.1823 -8.3120 2.3873
-0.8840 -8.3573 2.3873
-0.5840 -8.3920 2.3873
-0.2826 -8.4160 2.3873
0.0192 -7.7583 2.3873
0.2979 -7.7599 2.3873
0.5768 -7.7514 2.3873
0.8554 -7.7330 2.3873
1.1334 -7.7044 2.3873
1.4105 -7.6659 2.3873
1.6862 -7.6174 2.3873
1.9602 -7.5589 2.3873
2.2321 -7.4905 2.3873
2.5016 -7.4122 2.3873
2.7684 -7.3243 2.3873
3.0320 -7.2266 2.3873
3.2920 -7.1194 2.3873
3.5483 -7.0028 2.3873
3.8003 -6.8769 2.3873
4.0478 -6.7417 2.3873
4.2904 -6.5976 2.3873
4.5277 -6.4446 2.3873
4.7595 -6.2830 2.3873
4.9855 -6.1130 2.3873
5.2052 -5.9347 2.3873
5.4184 -5.7484 2.3873
5.6249 -5.5543 2.3873
5.8242 -5.3527 2.3873
6.0161 -5.1439 2.3873
6.2004 -4.9280 2.3873
6.2864 -4.6388 2.3535
6.2934 -4.3044 2.2955
6.3039 -3.9877 2.2446
6.4182 -3.7450 2.2349
6.5515 -3.5144 2.2349
6.6763 -3.2789 2.2349
6.7924 -3.0390 2.2350
6.8996 -2.7948 2.2350
6.9979 -2.5468 2.2350
7.0870 -2.2952 2.2350
7.1668 -2.0405 2.2350
7.2372 -1.7830 2.2351
7.2981 -1.5230 2.2351
7.3495 -1.2608 2.2351
7.3911 -0.9969 2.2351
7.4231 -0.7317 2.2351
7.4452 -0.4653 2.2351
7.4576 -0.1985 2.2351
7.4601 0.0688 2.2351
7.4528 0.3359 2.2351
7.4356 0.6026 2.2351
7.4087 0.8685 2.2351
7.3720 1.1332 2.2351
7.3255 1.3963 2.2351
7.2695 1.6576 2.2351
7.2039 1.9165 2.2351
7.1288 2.1727 2.2350
7.0444 2.4259 2.2350
6.9508 2.6759 2.2350
6.8481 2.9221 2.2350
6.7364 3.1643 2.2350
6.6160 3.4022 2.2350
6.4869 3.6354 2.2349
6.3495 3.8637 2.2349
6.2179 4.0958 2.2399
6.1969 4.4083 2.2890
6.1826 4.7407 2.3463
6.1102 5.0429 2.3873
5.9220 5.2555 2.3873
5.7262 5.4609 2.3873
5.5232 5.6589 2.3873
5.3132 5.8492 2.3873
5.0966 6.0317 2.3873
4.8736 6.2060 2.3873
4.6445 6.3719 2.3873
4.4098 6.5293 2.3873
4.1696 6.6780 2.3873
3.9243 6.8177 2.3873
3.6743 6.9484 2.3873
3.4200 7.0698 2.3873
3.1615 7.1818 2.3873
2.8995 7.2842 2.3873
2.6340 7.3771 2.3873
0.9315 2.9375 0.9400
0.8256 2.9692 0.9409
0.7185 2.9970 0.9418
0.6106 3.0209 0.9427
0.5018 3.0410 0.9436
0.3924 3.0570 0.9444
0.2824 3.0691 0.9453
0.1721 3.0773 0.9462
0.0615 3.0814 0.9471
-0.0491 3.0815 0.9479
-0.1597 3.0777 0.9488
-0.2701 3.0698 0.9496
-0.3801 3.0580 0.9504
-0.4896 3.0421 0.9513
-0.5985 3.0224 0.9521
-0.7066 2.9987 0.9529
-0.8138 2.9711 0.9536
-2.3009 7.3533 2.3873
-2.5613 7.2595 2.3873
-2.8180 7.1565 2.3873
-3.0706 7.0446 2.3873
-3.3189 6.9239 2.3873
-3.5625 6.7945 2.3873
-3.8013 6.6566 2.3873
-4.0348 6.5105 2.3873
-4.2628 6.3563 2.3873
-4.4851 6.1942 2.3873
-4.7013 6.0245 2.3873
-4.9113 5.8474 2.3873
-5.1147 5.6631 2.3873
-5.3113 5.4718 2.3873
-5.5010 5.2738 2.3873
-5.6834 5.0694 2.3873
-5.8585 4.8588 2.3873
-6.0259 4.6422 2.3873
-6.1855 4.4198 2.3873
-6.3370 4.1925 2.3873
-6.4804 3.9599 2.3873
-6.6155 3.7225 2.3873
-6.7421 3.4806 2.3873
-6.8600 3.2345 2.3873
-6.9692 2.9845 2.3873
-7.0695 2.7309 2.3873
-7.1608 2.4740 2.3873
-7.2430 2.2141 2.3873
-7.3160 1.9516 2.3873
-7.3797 1.6867 2.3873
-7.4341 1.4199 2.3873
-7.4791 1.1513 2.3873
-7.5146 0.8813 2.3873
-7.5407 0.6103 2.3873
-7.5572 0.3386 2.3873
-7.5642 0.0665 2.3873
-7.5616 -0.2057 2.3873
-7.5495 -0.4776 2.3873
-7.5279 -0.7490 2.3873
-7.4968 -1.0194 2.3873
-7.4561 -1.2886 2.3873
-7.4061 -1.5563 2.3873
-7.3467 -1.8221 2.3873
-7.2780 -2.0856 2.3873
-7.2001 -2.3467 2.3873
-7.1130 -2.6049 2.3873
-7.0169 -2.8600 2.3873
-6.9119 -3.1113 2.3873
-6.7981 -3.3597 2.3873
-6.6755 -3.6035 2.3873
-6.5445 -3.8428 2.3873
-6.4050 -4.0775 2.3873
-6.2573 -4.3074 2.3873
-6.1015 -4.5319 2.3873
-5.9378 -4.7512 2.3873
-5.7664 -4.9644 2.3873
-5.5875 -5.1717 2.3873
-5.4014 -5.3725 2.3873
-5.2081 -5.5669 2.3873
-5.0079 -5.7544 2.3873
-4.8012 -5.9348 2.3873
-4.5880 -6.1080 2.3873
-4.3687 -6.2736 2.3873
-4.1436 -6.4314 2.3873
-3.9128 -6.5813 2.3873
-3.6767 -6.7230 2.3873
-3.4355 -6.8563 2.3873
-3.1895 -6.9811 2.3873
-2.9391 -7.0972 2.3873
-2.6845 -7.2043 2.3873
-2.4261 -7.3025 2.3873
-2.1641 -7.3914 2.3873
-1.8989 -7.4710 2.3873
-1.6309 -7.5412 2.3873
-1.3602 -7.6018 2.3873
-1.0874 -7.6527 2.3873
-0.8126 -7.6939 2.3873
-0.5364 -7.7253 2.3873
-0.2589 -7.7468 2.3873
0.0194 -7.7583 2.3873
0.2981 -7.7599 2.3873
0.5770 -7.7514 2.3873
0.8556 -7.7330 2.3873
1.1336 -7.7044 2.3873
1.4107 -7.6659 2.3873
1.6864 -7.6173 2.3873
1.9604 -7.5588 2.3873
2.2323 -7.4904 2.3873
2.5018 -7.4122 2.3873
2.7685 -7.3242 2.3873
3.0321 -7.2266 2.3873
3.2922 -7.1194 2.3873
3.5484 -7.0027 2.3873
3.8005 -6.8769 2.3873
4.0479 -6.7416 2.3873
4.2905 -6.5975 2.3873
4.5279 -6.4445 2.3873
4.7597 -6.2829 2.3873
4.9856 -6.1128 2.3873
5.2053 -5.9345 2.3873
5.4186 -5.7483 2.3873
5.6250 -5.5542 2.3873
5.8243 -5.3526 2.3873
6.0163 -5.1437 2.3873
6.2005 -4.9279 2.3873
6.2865 -4.6385 2.3534
6.2934 -4.3042 2.2955
6.3039 -3.9875 2.2445
6.4183 -3.7449 2.2349
6.5516 -3.5142 2.2349
6.6763 -3.2788 2.2349
6.7924 -3.0388 2.2350
6.8997 -2.7946 2.2350
6.9979 -2.5466 2.2350
7.0870 -2.2951 2.2350
7.1668 -2.0404 2.2350
7.2373 -1.7828 2.2351
7.2982 -1.5228 2.2351
7.3495 -1.2607 2.2351
7.3912 -0.9968 2.2351
7.4231 -0.7314 2.2351
7.4452 -0.4652 2.2351
7.4576 -0.1982 2.2351
7.4601 0.0690 2.2351
7.4527 0.3361 2.2351
7.4356 0.6029 2.2351
7.4086 0.8687 2.2351
7.3719 1.1334 2.2351
7.3255 1.3965 2.2351
7.2695 1.6577 2.2351
7.2038 1.9166 2.2351
7.1288 2.1728 2.2350
7.0444 2.4261 2.2350
6.9507 2.6760 2.2350
6.8480 2.9223 2.2350
6.7363 3.1645 2.2350
6.6159 3.4024 2.2350
6.4869 3.6356 2.2349
6.3494 3.8638 2.2349
6.2178 4.0960 2.2399
6.1969 4.4086 2.2891
6.1826 4.7409 2.3464
6.1101 5.0431 2.3873
5.9218 5.2555 2.3873
5.7261 5.4610 2.3873
5.5231 5.6590 2.3873
5.3131 5.8493 2.3873
5.0965 6.0318 2.3873
4.8734 6.2061 2.3873
4.6444 6.3720 2.3873
4.4096 6.5294 2.3873
4.1694 6.6781 2.3873
3.9242 6.8178 2.3873
3.6742 6.9485 2.3873
3.4198 7.0698 2.3873
3.1614 7.1818 2.3873
2.8993 7.2843 2.3873
2.6338 7.3771 2.3873
0.9314 2.9375 0.9400
0.8255 2.9692 0.9409
0.7185 2.9970 0.9418
0.6105 3.0209 0.9427
0.5017 3.0410 0.9436
0.3923 3.0570 0.9444
0.2823 3.0691 0.9453
0.1720 3.0773 0.9462
0.0614 3.0814 0.9471
-0.0492 3.0815 0.9479
-0.1598 3.0777 0.9488
-0.2701 3.0698 0.9496
-0.3802 3.0580 0.9504
-0.4897 3.0421 0.9513
-0.5986 3.0224 0.9521
-0.7067 2.9987 0.9529
-0.8138 2.9711 0.9536
-2.3011 7.3532 2.3873
-2.5615 7.2594 2.3873
-2.8181 7.1565 2.3873
-3.0707 7.0445 2.3873
-3.3190 6.9238 2.3873
-3.5627 6.7944 2.3873
-3.8014 6.6565 2.3873
-4.0350 6.5104 2.3873
-4.2630 6.3562 2.3873
-4.4852 6.1941 2.3873
-4.7014 6.0244 2.3873
-4.9114 5.8473 2.3873
-5.1148 5.6629 2.3873
-5.3115 5.4716 2.3873
-5.5011 5.2737 2.3873
-5.6836 5.0693 2.3873
-5.8586 4.8587 2.3873
-6.0260 4.6422 2.3873
-6.1856 4.4198 2.3873
-6.3371 4.1924 2.3873
-6.4805 3.9598 2.3873
-6.6156 3.7223 2.3873
-6.7421 3.4804 2.3873
-6.8601 3.2343 2.3873
-6.9693 2.9843 2.3873
-7.0695 2.7307 2.3873
-7.1608 2.4738 2.3873
-7.2430 2.2139 2.3873
-7.3160 1.9514 2.3873
-7.3798 1.6866 2.3873
-7.4341 1.4197 2.3873
-7.4791 1.1511 2.3873
-7.5147 0.8812 2.3873
-7.5407 0.6102 2.3873
-7.5572 0.3385 2.3873
-7.5642 0.0663 2.3873
-7.5616 -0.2058 2.3873
-7.5495 -0.4778 2.3873
-7.5279 -0.7491 2.3873
-7.4967 -1.0196 2.3873
-7.4561 -1.2888 2.3873
-7.4061 -1.5564 2.3873
-7.3467 -1.8222 2.3873
-7.2780 -2.0858 2.3873
-7.2000 -2.3469 2.3873
-7.1130 -2.6051 2.3873
-7.0169 -2.8602 2.3873
-6.9118 -3.1118 2.3873
-6.7980 -3.3597 2.3873
-6.6755 -3.6037 2.3873
-6.5444 -3.8429 2.3873
-6.4049 -4.0777 2.3873
-6.2572 -4.3077 2.3873
-6.1014 -4.5321 2.3873
-5.9377 -4.7513 2.3873
-5.7663 -4.9645 2.3873
-5.5874 -5.1718 2.3873
-5.4012 -5.3727 2.3873
-5.2080 -5.5670 2.3873
-5.0078 -5.7545 2.3873
-4.8010 -5.9350 2.3873
-4.5879 -6.1081 2.3873
-4.3686 -6.2737 2.3873
-4.1434 -6.4315 2.3873
-3.9126 -6.5814 2.3873
-3.6765 -6.7231 2.3873
-3.4353 -6.8564 2.3873
-3.1894 -6.9812 2.3873
-2.9390 -7.0972 2.3873
-2.6844 -7.2044 2.3873
-2.4259 -7.3025 2.3873
-2.1640 -7.3915 2.3873
-1.8988 -7.4711 2.3873
-1.6307 -7.5412 2.3873
-1.3600 -7.6018 2.3873
-1.0872 -7.6528 2.3873
-0.8125 -7.6940 2.3873
-0.5362 -7.7253 2.3873
-0.2587 -7.7468 2.3873
0.0191 -7.1791 2.3873
0.2770 -7.1800 2.3873
0.5350 -7.1718 2.3873
0.7927 -7.1542 2.3873
1.0499 -7.1274 2.3873
1.3061 -7.0913 2.3873
1.5610 -7.0459 2.3873
1.8143 -6.9914 2.3873
2.0657 -6.9277 2.3873
2.3149 -6.8549 2.3873
2.5614 -6.7731 2.3873
2.8050 -6.6824 2.3873
3.0453 -6.5829 2.3873
3.2820 -6.4746 2.3873
3.5148 -6.3578 2.3873
3.7434 -6.2325 2.3873
3.9675 -6.0990 2.3873
4.1867 -5.9572 2.3873
4.4007 -5.8076 2.3873
4.6093 -5.6501 2.3873
4.8122 -5.4850 2.3873
5.0090 -5.3126 2.3873
5.1995 -5.1330 2.3873
5.3835 -4.9468 2.3873
5.5606 -4.7532 2.3873
5.7307 -4.5536 2.3873
5.8934 -4.3477 2.3873
6.0486 -4.1360 2.3873
6.1960 -3.9186 2.3873
6.2735 -3.6598 2.3640
6.2788 -3.3674 2.3180
6.2833 -3.0853 2.2764
6.2939 -2.8158 2.2414
6.3747 -2.5816 2.2349
6.4652 -2.3525 2.2349
6.5474 -2.1200 2.2349
6.6210 -1.8847 2.2349
6.6859 -1.6468 2.2350
6.7420 -1.4066 2.2350
6.7893 -1.1645 2.2350
6.8278 -0.9208 2.2350
6.8572 -0.6757 2.2350
6.8776 -0.4298 2.2350
6.8890 -0.1832 2.2350
6.8913 0.0636 2.2350
6.8845 0.3103 2.2350
6.8687 0.5566 2.2350
6.8438 0.8022 2.2350
6.8100 1.0467 2.2350
6.7672 1.2897 2.2350
6.7155 1.5309 2.2350
6.6550 1.7701 2.2350
6.5858 2.0068 2.2349
6.5080 2.2408 2.2349
6.4216 2.4717 2.2349
6.3270 2.6992 2.2349
6.2328 2.9272 2.2381
6.2137 3.1951 2.2717
6.2030 3.4756 2.3128
6.1913 3.7666 2.3583
6.1240 4.0331 2.3873
5.9727 4.2479 2.3873
5.8136 4.4568 2.3873
5.6472 4.6596 2.3873
5.4735 4.8563 2.3873
5.2928 5.0463 2.3873
5.1055 5.2295 2.3873
4.9117 5.4057 2.3873
4.7117 5.5746 2.3873
4.5058 5.7360 2.3873
4.2943 5.8897 2.3873
4.0775 6.0355 2.3873
3.8557 6.1732 2.3873
3.6292 6.3027 2.3873
3.3983 6.4239 2.3873
3.1633 6.5365 2.3873
2.9245 6.6404 2.3873
2.6824 6.7356 2.3873
2.4371 6.8219 2.3873
0.8620 2.7168 0.9401
0.7640 2.7461 0.9409
0.6651 2.7718 0.9417
0.5652 2.7939 0.9426
0.4646 2.8124 0.9434
0.3634 2.8273 0.9442
0.2617 2.8384 0.9450
0.1597 2.8459 0.9458
0.0574 2.8498 0.9466
-0.0449 2.8499 0.9474
-0.1472 2.8463 0.9482
-0.2493 2.8390 0.9490
-0.3510 2.8280 0.9497
-0.4523 2.8134 0.9505
-0.5530 2.7951 0.9512
-0.6529 2.7732 0.9520
-0.7520 2.7477 0.9527
-0.8502 2.7186 0.9534
-2.3700 6.7211 2.3873
-2.6078 6.6261 2.3873
-2.8419 6.5229 2.3873
-3.0720 6.4115 2.3873
-3.2978 6.2920 2.3873
-3.5191 6.1647 2.3873
-3.7355 6.0297 2.3873
-3.9469 5.8872 2.3873
-4.1530 5.7374 2.3873
-4.3535 5.5805 2.3873
-4.5482 5.4166 2.3873
-4.7368 5.2461 2.3873
-4.9192 5.0692 2.3873
-5.0952 4.8860 2.3873
-5.2644 4.6968 2.3873
-5.4268 4.5019 2.3873
-5.5821 4.3014 2.3873
-5.7302 4.0958 2.3873
-5.8708 3.8851 2.3873
-6.0039 3.6697 2.3873
-6.1293 3.4498 2.3873
-6.2468 3.2255 2.3873
-6.3562 2.9979 2.3873
-6.4576 2.7660 2.3873
-6.5507 2.5310 2.3873
-6.6355 2.2929 2.3873
-6.7118 2.0521 2.3873
-6.7796 1.8089 2.3873
-6.8388 1.5634 2.3873
-6.8893 1.3161 2.3873
-6.9311 1.0671 2.3873
-6.9641 0.8169 2.3873
-6.9883 0.5658 2.3873
-7.0036 0.3139 2.3873
-7.0101 0.0617 2.3873
-7.0077 -0.1906 2.3873
-6.9965 -0.4427 2.3873
-6.9764 -0.6942 2.3873
-6.9475 -0.9449 2.3873
-6.9098 -1.1944 2.3873
-6.8634 -1.4425 2.3873
-6.8082 -1.6885 2.3873
-6.7445 -1.9331 2.3873
-6.6721 -2.1749 2.3873
-6.5913 -2.4144 2.3873
-6.5021 -2.6506 2.3873
-6.4046 -2.8838 2.3873
-6.2989 -3.1134 2.3873
-6.1852 -3.3394 2.3873
-6.0636 -3.5611 2.3873
-5.9341 -3.7787 2.3873
-5.7971 -3.9915 2.3873
-5.6525 -4.1995 2.3873
-5.5006 -4.4023 2.3873
-5.3416 -4.5998 2.3873
-5.1757 -4.7916 2.3873
-5.0030 -4.9775 2.3873
-4.8237 -5.1574 2.3873
-4.6381 -5.3309 2.3873
-4.4463 -5.4977 2.3873
-4.2486 -5.6579 2.3873
-4.0453 -5.8110 2.3873
-3.8365 -5.9569 2.3873
-3.6226 -6.0953 2.3873
-3.4037 -6.2262 2.3873
-3.1802 -6.3494 2.3873
-2.9523 -6.4646 2.3873
-2.7202 -6.5717 2.3873
-2.4844 -6.6705 2.3873
-2.2449 -6.7610 2.3873
-2.0023 -6.8429 2.3873
-1.7566 -6.9162 2.3873
-1.5084 -6.9808 2.3873
-1.2578 -7.0364 2.3873
-1.0051 -7.0831 2.3873
-0.7508 -7.1208 2.3873
-0.4951 -7.1494 2.3873
-0.2383 -7.1688 2.3873
0.0192 -7.1791 2.3873
0.2772 -7.1800 2.3873
0.5352 -7.1717 2.3873
0.7929 -7.1542 2.3873
1.0500 -7.1273 2.3873
1.3062 -7.0912 2.3873
1.5612 -7.0459 2.3873
1.8145 -6.9914 2.3873
2.0659 -6.9277 2.3873
2.3150 -6.8549 2.3873
2.5616 -6.7731 2.3873
2.8051 -6.6824 2.3873
3.0455 -6.5829 2.3873
3.2822 -6.4746 2.3873
3.5150 -6.3577 2.3873
3.7436 -6.2325 2.3873
3.9676 -6.0989 2.3873
4.1868 -5.9572 2.3873
4.4009 -5.8075 2.3873
4.6094 -5.6500 2.3873
4.8123 -5.4849 2.3873
5.0091 -5.3125 2.3873
5.1996 -5.1329 2.3873
5.3836 -4.9468 2.3873
5.5607 -4.7531 2.3873
5.7308 -4.5534 2.3873
5.8935 -4.3476 2.3873
6.0487 -4.1358 2.3873
6.1961 -3.9185 2.3873
6.2735 -3.6596 2.3640
6.2788 -3.3672 2.3179
6.2833 -3.0851 2.2764
6.2939 -2.8149 2.2413
6.3747 -2.5816 2.2349
6.4653 -2.3523 2.2349
6.5474 -2.1199 2.2349
6.6210 -1.8846 2.2349
6.6859 -1.6467 2.2350
6.7421 -1.4065 2.2350
6.7894 -1.1643 2.2350
6.8278 -0.9206 2.2350
6.8572 -0.6756 2.2350
6.8776 -0.4296 2.2350
6.8890 -0.1831 2.2350
6.8913 0.0638 2.2350
6.8845 0.3105 2.2350
6.8687 0.5568 2.2350
6.8438 0.8024 2.2350
6.8100 1.0468 2.2350
6.7672 1.2898 2.2350
6.7155 1.5311 2.2350
6.6550 1.7702 2.2350
6.5858 2.0070 2.2349
6.5079 2.2410 2.2349
6.4216 2.4719 2.2349
6.3269 2.6994 2.2349
6.2328 2.9274 2.2381
6.2137 3.1952 2.2718
6.2030 3.4758 2.3128
6.1913 3.7668 2.3583
6.1239 4.0333 2.3873
5.9725 4.2480 2.3873
5.8135 4.4569 2.3873
5.6470 4.6601 2.3873
5.4734 4.8564 2.3873
5.2927 5.0464 2.3873
5.1053 5.2296 2.3873
4.9115 5.4058 2.3873
4.7115 5.5747 2.3873
4.5057 5.7361 2.3873
4.2942 5.8898 2.3873
4.0774 6.0356 2.3873
3.8556 6.1733 2.3873
3.6290 6.3028 2.3873
3.3981 6.4240 2.3873
3.1631 6.5366 2.3873
2.9244 6.6405 2.3873
2.6822 6.7356 2.3873
2.4369 6.8219 2.3873
0.8620 2.7169 0.9401
0.7640 2.7461 0.9409
0.6650 2.7718 0.9417
0.5651 2.7939 0.9426
0.4645 2.8124 0.9434
0.3633 2.8273 0.9442
0.2616 2.8384 0.9450
0.1596 2.8459 0.9458
0.0573 2.8498 0.9466
-0.0450 2.8499 0.9474
-0.1472 2.8463 0.9482
-0.2493 2.8390 0.9490
-0.3511 2.8280 0.9497
-0.4524 2.8134 0.9505
-0.5530 2.7951 0.9512
-0.6530 2.7732 0.9520
-0.7521 2.7477 0.9527
-0.8502 2.7186 0.9534
-2.3702 6.7210 2.3873
-2.6080 6.6261 2.3873
-2.8420 6.5228 2.3873
-3.0721 6.4114 2.3873
-3.2979 6.2919 2.3873
-3.5192 6.1646 2.3873
-3.7357 6.0296 2.3873
-3.9470 5.8871 2.3873
-4.1531 5.7373 2.3873
-4.3536 5.5804 2.3873
-4.5483 5.4165 2.3873
-4.7370 5.2460 2.3873
-4.9194 5.0691 2.3873
-5.0953 4.8859 2.3873
-5.2645 4.6967 2.3873
-5.4269 4.5016 2.3873
-5.5822 4.3013 2.3873
-5.7303 4.0955 2.3873
-5.8709 3.8849 2.3873
-6.0040 3.6694 2.3873
-6.1294 3.4497 2.3873
-6.2469 3.2255 2.3873
-6.3563 2.9977 2.3873
-6.4577 2.7658 2.3873
-6.5508 2.5308 2.3873
-6.6356 2.2928 2.3873
-6.7119 2.0520 2.3873
-6.7796 1.8087 2.3873
-6.8388 1.5632 2.3873
-6.8893 1.3159 2.3873
-6.9311 1.0670 2.3873
-6.9641 0.8168 2.3873
-6.9883 0.5656 2.3873
-7.0036 0.3137 2.3873
-7.0101 0.0615 2.3873
-7.0077 -0.1908 2.3873
-6.9965 -0.4428 2.3873
-6.9764 -0.6944 2.3873
-6.9475 -0.9450 2.3873
-6.9098 -1.1946 2.3873
-6.8633 -1.4426 2.3873
-6.8082 -1.6889 2.3873
-6.7444 -1.9333 2.3873
-6.6721 -2.1752 2.3873
-6.5913 -2.4145 2.3873
-6.5020 -2.6508 2.3873
-6.4045 -2.8839 2.3873
-6.2989 -3.1137 2.3873
-6.1852 -3.3396 2.3873
-6.0635 -3.5613 2.3873
-5.9341 -3.7788 2.3873
-5.7970 -3.9917 2.3873
-5.6524 -4.1996 2.3873
-5.5005 -4.4024 2.3873
-5.3415 -4.5999 2.3873
-5.1756 -4.7917 2.3873
-5.0028 -4.9777 2.3873
-4.8236 -5.1575 2.3873
-4.6379 -5.3310 2.3873
-4.4462 -5.4979 2.3873
-4.2485 -5.6580 2.3873
-4.0452 -5.8110 2.3873
-3.8364 -5.9569 2.3873
-3.6225 -6.0954 2.3873
-3.4036 -6.2263 2.3873
-3.1800 -6.3495 2.3873
-2.9521 -6.4647 2.3873
-2.7201 -6.5718 2.3873
-2.4842 -6.6706 2.3873
-2.2448 -6.7611 2.3873
-2.0021 -6.8430 2.3873
-1.7565 -6.9163 2.3873
-1.5082 -6.9808 2.3873
-1.2576 -7.0365 2.3873
-1.0050 -7.0832 2.3873
-0.7506 -7.1209 2.3873
-0.4949 -7.1494 2.3873
-0.2381 -7.1689 2.3873
0.0189 -6.6733 2.3873
0.2587 -6.6738 2.3873
0.4985 -6.6658 2.3873
0.7380 -6.6491 2.3873
0.9769 -6.6238 2.3873
1.2150 -6.5898 2.3873
1.4518 -6.5474 2.3873
1.6871 -6.4963 2.3873
1.9206 -6.4368 2.3873
2.1520 -6.3688 2.3873
2.3809 -6.2925 2.3873
2.6070 -6.2079 2.3873
2.8301 -6.1151 2.3873
3.0499 -6.0143 2.3873
3.2660 -5.9054 2.3873
3.4782 -5.7888 2.3873
3.6861 -5.6645 2.3873
3.8895 -5.5325 2.3873
4.0881 -5.3933 2.3873
4.2816 -5.2468 2.3873
4.4698 -5.0933 2.3873
4.6523 -4.9329 2.3873
4.8290 -4.7660 2.3873
4.9996 -4.5926 2.3873
5.1639 -4.4130 2.3873
5.3216 -4.2275 2.3873
5.4725 -4.0363 2.3873
5.6163 -3.8395 2.3873
5.7530 -3.6378 2.3873
5.8822 -3.4308 2.3873
6.0039 -3.2193 2.3873
6.1177 -3.0034 2.3873
6.2237 -2.7834 2.3873
6.2608 -2.5350 2.3644
6.2639 -2.2787 2.3325
6.2663 -2.0286 2.3042
6.2682 -1.7839 2.2793
6.2695 -1.5440 2.2577
6.2768 -1.3089 2.2415
6.3021 -1.0807 2.2349
6.3376 -0.8550 2.2349
6.3649 -0.6271 2.2349
6.3838 -0.3988 2.2349
6.3943 -0.1700 2.2349
6.3964 0.0590 2.2349
6.3901 0.2880 2.2349
6.3755 0.5166 2.2349
6.3525 0.7445 2.2349
6.3211 0.9714 2.2349
6.2815 1.1969 2.2349
6.2478 1.4241 2.2400
6.2340 1.6580 2.2553
6.2274 1.8973 2.2766
6.2201 2.1413 2.3010
6.2122 2.3906 2.3289
6.2035 2.6461 2.3604
6.1723 2.8982 2.3873
6.0623 3.1163 2.3873
5.9446 3.3301 2.3873
5.8191 3.5394 2.3873
5.6861 3.7439 2.3873
5.5458 3.9434 2.3873
5.3983 4.1375 2.3873
5.2440 4.3260 2.3873
5.0829 4.5087 2.3873
4.9154 4.6853 2.3873
4.7416 4.8556 2.3873
4.5619 5.0194 2.3873
4.3764 5.1764 2.3873
4.1854 5.3265 2.3873
3.9892 5.4695 2.3873
3.7880 5.6051 2.3873
3.5822 5.7333 2.3873
3.3720 5.8539 2.3873
3.1577 5.9667 2.3873
2.9395 6.0716 2.3873
2.7179 6.1685 2.3873
2.4931 6.2570 2.3873
0.8914 2.4939 0.9394
0.8014 2.5243 0.9402
0.7104 2.5515 0.9409
0.6184 2.5754 0.9417
0.5256 2.5959 0.9425
0.4321 2.6131 0.9432
0.3381 2.6268 0.9440
0.2436 2.6372 0.9447
0.1488 2.6442 0.9455
0.0538 2.6477 0.9462
-0.0412 2.6478 0.9470
-0.1363 2.6445 0.9477
-0.2311 2.6377 0.9484
-0.3256 2.6275 0.9491
-0.4197 2.6139 0.9498
-0.5133 2.5969 0.9505
-0.6062 2.5766 0.9512
-0.6982 2.5529 0.9519
-0.7894 2.5259 0.9525
-0.8795 2.4956 0.9532
-2.4241 6.1625 2.3873
-2.6419 6.0668 2.3873
-2.8561 5.9635 2.3873
-3.0663 5.8526 2.3873
-3.2723 5.7345 2.3873
-3.4738 5.6092 2.3873
-3.6706 5.4769 2.3873
-3.8625 5.3377 2.3873
-4.0492 5.1920 2.3873
-4.2305 5.0398 2.3873
-4.4062 4.8814 2.3873
-4.5761 4.7169 2.3873
-4.7400 4.5466 2.3873
-4.8977 4.3707 2.3873
-5.0490 4.1895 2.3873
-5.1937 4.0031 2.3873
-5.3317 3.8118 2.3873
-5.4628 3.6158 2.3873
-5.5868 3.4154 2.3873
-5.7036 3.2110 2.3873
-5.8131 3.0023 2.3873
-5.9152 2.7901 2.3873
-6.0097 2.5745 2.3873
-6.0965 2.3559 2.3873
-6.1755 2.1344 2.3873
-6.2466 1.9103 2.3873
-6.3098 1.6840 2.3873
-6.3650 1.4552 2.3873
-6.4121 1.2250 2.3873
-6.4511 0.9932 2.3873
-6.4819 0.7603 2.3873
-6.5044 0.5265 2.3873
-6.5187 0.2922 2.3873
-6.5248 0.0573 2.3873
-6.5226 -0.1775 2.3873
-6.5121 -0.4119 2.3873
-6.4934 -0.6462 2.3873
-6.4664 -0.8795 2.3873
-6.4313 -1.1118 2.3873
-6.3880 -1.3428 2.3873
-6.3366 -1.5720 2.3873
-6.2772 -1.7996 2.3873
-6.2097 -2.0248 2.3873
-6.1344 -2.2473 2.3873
-6.0513 -2.4674 2.3873
-5.9604 -2.6843 2.3873
-5.8619 -2.8980 2.3873
-5.7559 -3.1082 2.3873
-5.6425 -3.3146 2.3873
-5.5219 -3.5170 2.3873
-5.3942 -3.7148 2.3873
-5.2595 -3.9083 2.3873
-5.1180 -4.0970 2.3873
-4.9698 -4.2806 2.3873
-4.8152 -4.4590 2.3873
-4.6543 -4.6319 2.3873
-4.4873 -4.7990 2.3873
-4.3144 -4.9602 2.3873
-4.1358 -5.1153 2.3873
-3.9517 -5.2641 2.3873
-3.7624 -5.4063 2.3873
-3.5680 -5.5418 2.3873
-3.3688 -5.6703 2.3873
-3.1650 -5.7919 2.3873
-2.9570 -5.9061 2.3873
-2.7448 -6.0130 2.3873
-2.5289 -6.1123 2.3873
-2.3094 -6.2039 2.3873
-2.0866 -6.2877 2.3873
-1.8608 -6.3636 2.3873
-1.6323 -6.4314 2.3873
-1.4014 -6.4911 2.3873
-1.1683 -6.5425 2.3873
-0.9333 -6.5856 2.3873
-0.6968 -6.6203 2.3873
-0.4590 -6.6465 2.3873
-0.2203 -6.6642 2.3873
0.0191 -6.6733 2.3873
0.2588 -6.6738 2.3873
0.4986 -6.6657 2.3873
0.7381 -6.6491 2.3873
0.9771 -6.6237 2.3873
1.2151 -6.5898 2.3873
1.4519 -6.5473 2.3873
1.6873 -6.4963 2.3873
1.9208 -6.4367 2.3873
2.1521 -6.3688 2.3873
2.3810 -6.2924 2.3873
2.6072 -6.2079 2.3873
2.8303 -6.1151 2.3873
3.0500 -6.0142 2.3873
3.2661 -5.9053 2.3873
3.4783 -5.7887 2.3873
3.6862 -5.6644 2.3873
3.8896 -5.5325 2.3873
4.0882 -5.3932 2.3873
4.2817 -5.2467 2.3873
4.4699 -5.0932 2.3873
4.6524 -4.9328 2.3873
4.8292 -4.7659 2.3873
4.9998 -4.5925 2.3873
5.1640 -4.4129 2.3873
5.3217 -4.2274 2.3873
5.4726 -4.0361 2.3873
5.6164 -3.8394 2.3873
5.7531 -3.6376 2.3873
5.8823 -3.4306 2.3873
6.0039 -3.2191 2.3873
6.1178 -3.0032 2.3873
6.2238 -2.7832 2.3873
6.2608 -2.5348 2.3644
6.2639 -2.2786 2.3324
6.2663 -2.0285 2.3041
6.2682 -1.7838 2.2793
6.2695 -1.5437 2.2577
6.2769 -1.3089 2.2415
6.3021 -1.0806 2.2349
6.3376 -0.8543 2.2349
6.3649 -0.6269 2.2349
6.3838 -0.3987 2.2349
6.3943 -0.1699 2.2349
6.3964 0.0592 2.2349
6.3901 0.2882 2.2349
6.3755 0.5167 2.2349
6.3525 0.7446 2.2349
6.3211 0.9714 2.2349
6.2815 1.1971 2.2349
6.2478 1.4242 2.2400
6.2340 1.6584 2.2553
6.2274 1.8975 2.2766
6.2201 2.1415 2.3011
6.2122 2.3908 2.3289
6.2035 2.6462 2.3604
6.1722 2.8984 2.3873
6.0623 3.1164 2.3873
5.9445 3.3302 2.3873
5.8190 3.5396 2.3873
5.6860 3.7439 2.3873
5.5457 3.9435 2.3873
5.3982 4.1376 2.3873
5.2439 4.3261 2.3873
5.0828 4.5088 2.3873
4.9153 4.6854 2.3873
4.7415 4.8557 2.3873
4.5617 5.0195 2.3873
4.3762 5.1765 2.3873
4.1852 5.3266 2.3873
3.9890 5.4695 2.3873
3.7879 5.6052 2.3873
3.5820 5.7334 2.3873
3.3718 5.8540 2.3873
3.1575 5.9668 2.3873
2.9394 6.0717 2.3873
2.7178 6.1685 2.3873
2.4929 6.2571 2.3873
0.8914 2.4939 0.9394
0.8014 2.5244 0.9402
0.7103 2.5515 0.9409
0.6183 2.5754 0.9417
0.5256 2.5959 0.9425
0.4321 2.6131 0.9432
0.3380 2.6268 0.9440
0.2436 2.6372 0.9447
0.1488 2.6442 0.9455
0.0538 2.6477 0.9462
-0.0413 2.6478 0.9470
-0.1363 2.6445 0.9477
-0.2312 2.6377 0.9484
-0.3257 2.6275 0.9491
-0.4198 2.6139 0.9498
-0.5133 2.5969 0.9505
-0.6062 2.5766 0.9512
-0.6983 2.5529 0.9519
-0.7895 2.5258 0.9525
-0.8796 2.4956 0.9532
-2.4243 6.1625 2.3873
-2.6421 6.0668 2.3873
-2.8562 5.9634 2.3873
-3.0664 5.8526 2.3873
-3.2724 5.7344 2.3873
-3.4739 5.6091 2.3873
-3.6707 5.4768 2.3873
-3.8626 5.3376 2.3873
-4.0493 5.1919 2.3873
-4.2306 5.0397 2.3873
-4.4064 4.8813 2.3873
-4.5763 4.7168 2.3873
-4.7401 4.5465 2.3873
-4.8978 4.3706 2.3873
-5.0491 4.1893 2.3873
-5.1938 4.0029 2.3873
-5.3318 3.8116 2.3873
-5.4629 3.6156 2.3873
-5.5869 3.4152 2.3873
-5.7037 3.2109 2.3873
-5.8132 3.0019 2.3873
-5.9152 2.7901 2.3873
-6.0097 2.5745 2.3873
-6.0965 2.3557 2.3873
-6.1755 2.1343 2.3873
-6.2467 1.9101 2.3873
-6.3099 1.6837 2.3873
-6.3651 1.4551 2.3873
-6.4121 1.2249 2.3873
-6.4511 0.9932 2.3873
-6.4819 0.7602 2.3873
-6.5044 0.5266 2.3873
-6.5187 0.2919 2.3873
-6.5248 0.0570 2.3873
-6.5226 -0.1776 2.3873
-6.5121 -0.4121 2.3873
-6.4934 -0.6465 2.3873
-6.4664 -0.8796 2.3873
-6.4313 -1.1122 2.3873
-6.3880 -1.3431 2.3873
-6.3366 -1.5723 2.3873
-6.2771 -1.7996 2.3873
-6.2097 -2.0249 2.3873
-6.1343 -2.2474 2.3873
-6.0512 -2.4675 2.3873
-5.9603 -2.6845 2.3873
-5.8618 -2.8981 2.3873
-5.7558 -3.1083 2.3873
-5.6424 -3.3147 2.3873
-5.5218 -3.5170 2.3873
-5.3941 -3.7150 2.3873
-5.2594 -3.9085 2.3873
-5.1179 -4.0971 2.3873
-4.9697 -4.2807 2.3873
-4.8151 -4.4591 2.3873
-4.6542 -4.6320 2.3873
-4.4872 -4.7991 2.3873
-4.3143 -4.9603 2.3873
-4.1357 -5.1154 2.3873
-3.9516 -5.2642 2.3873
-3.7623 -5.4064 2.3873
-3.5679 -5.5419 2.3873
-3.3687 -5.6704 2.3873
-3.1649 -5.7919 2.3873
-2.9568 -5.9062 2.3873
-2.7447 -6.0130 2.3873
-2.5287 -6.1124 2.3873
-2.3092 -6.2040 2.3873
-2.0864 -6.2878 2.3873
-1.8606 -6.3637 2.3873
-1.6321 -6.4315 2.3873
-1.4012 -6.4911 2.3873
-1.1681 -6.5425 2.3873
-0.9332 -6.5856 2.3873
-0.6966 -6.6203 2.3873
-0.4589 -6.6465 2.3873
-0.2201 -6.6642 2.3873
0.0188 -6.2274 2.3873
0.2426 -6.2276 2.3873
0.4663 -6.2198 2.3873
0.6897 -6.2039 2.3873
0.9126 -6.1800 2.3873
1.1347 -6.1481 2.3873
1.3556 -6.1081 2.3873
1.5750 -6.0602 2.3873
1.7928 -6.0044 2.3873
2.0085 -5.9407 2.3873
2.2219 -5.8692 2.3873
2.4327 -5.7901 2.3873
2.6407 -5.7033 2.3873
2.8456 -5.6090 2.3873
3.0469 -5.5072 2.3873
3.2447 -5.3982 2.3873
3.4384 -5.2820 2.3873
3.6279 -5.1588 2.3873
3.8129 -5.0288 2.3873
3.9932 -4.8920 2.3873
4.1685 -4.7486 2.3873
4.3385 -4.5990 2.3873
4.5031 -4.4431 2.3873
4.6620 -4.2814 2.3873
4.8150 -4.1138 2.3873
4.9618 -3.9407 2.3873
5.1023 -3.7623 2.3873
5.2362 -3.5789 2.3873
5.3635 -3.3907 2.3873
5.4838 -3.1977 2.3873
5.5970 -3.0005 2.3873
5.7030 -2.7992 2.3873
5.8016 -2.5942 2.3873
5.8927 -2.3855 2.3873
5.9761 -2.1736 2.3873
6.0518 -1.9587 2.3873
6.1195 -1.7413 2.3873
6.1793 -1.5214 2.3873
6.2310 -1.2995 2.3873
6.2424 -1.0702 2.3751
6.2423 -0.8415 2.3618
6.2417 -0.6148 2.3514
6.2405 -0.3898 2.3441
6.2389 -0.1658 2.3396
6.2367 0.0576 2.3380
6.2339 0.2809 2.3392
6.2306 0.5048 2.3434
6.2268 0.7296 2.3504
6.2224 0.9560 2.3604
6.2175 1.1845 2.3734
6.2064 1.4144 2.3873
6.1507 1.6354 2.3873
6.0870 1.8541 2.3873
6.0153 2.0704 2.3873
5.9358 2.2838 2.3873
5.8485 2.4942 2.3873
5.7537 2.7011 2.3873
5.6513 2.9043 2.3873
5.5417 3.1038 2.3873
5.4249 3.2990 2.3873
5.3011 3.4897 2.3873
5.1704 3.6757 2.3873
5.0331 3.8567 2.3873
4.8894 4.0325 2.3873
4.7394 4.2030 2.3873
4.5834 4.3677 2.3873
4.4216 4.5266 2.3873
4.2541 4.6795 2.3873
4.0813 4.8261 2.3873
3.9034 4.9662 2.3873
3.7206 5.0997 2.3873
3.5332 5.2264 2.3873
3.3415 5.3462 2.3873
3.1456 5.4588 2.3873
2.9459 5.5643 2.3873
2.7426 5.6624 2.3873
2.5360 5.7529 2.3873
0.9149 2.2950 0.9388
0.8320 2.3264 0.9395
0.7481 2.3548 0.9402
0.6631 2.3801 0.9410
0.5773 2.4023 0.9417
0.4908 2.4215 0.9424
0.4036 2.4375 0.9431
0.3158 2.4503 0.9438
0.2277 2.4600 0.9445
0.1393 2.4665 0.9452
0.0507 2.4698 0.9459
-0.0380 2.4698 0.9466
-0.1266 2.4667 0.9473
-0.2151 2.4604 0.9479
-0.3033 2.4509 0.9486
-0.3910 2.4382 0.9493
-0.4783 2.4224 0.9499
-0.5649 2.4034 0.9505
-0.6508 2.3813 0.9512
-0.7359 2.3561 0.9518
-0.8199 2.3278 0.9524
-0.9029 2.2966 0.9529
-2.4655 5.6643 2.3873
-2.6656 5.5681 2.3873
-2.8619 5.4649 2.3873
-3.0544 5.3548 2.3873
-3.2427 5.2380 2.3873
-3.4267 5.1146 2.3873
-3.6060 4.9849 2.3873
-3.7805 4.8490 2.3873
-3.9500 4.7070 2.3873
-4.1143 4.5592 2.3873
-4.2731 4.4057 2.3873
-4.4263 4.2468 2.3873
-4.5738 4.0827 2.3873
-4.7152 3.9135 2.3873
-4.8506 3.7395 2.3873
-4.9796 3.5609 2.3873
-5.1022 3.3779 2.3873
-5.2182 3.1908 2.3873
-5.3275 2.9997 2.3873
-5.4299 2.8051 2.3873
-5.5254 2.6068 2.3873
-5.6137 2.4056 2.3873
-5.6950 2.2012 2.3873
-5.7689 1.9944 2.3873
-5.8355 1.7849 2.3873
-5.8946 1.5736 2.3873
-5.9462 1.3600 2.3873
-5.9903 1.1448 2.3873
-6.0267 0.9284 2.3873
-6.0555 0.7106 2.3873
-6.0766 0.4923 2.3873
-6.0901 0.2730 2.3873
-6.0957 0.0537 2.3873
-6.0937 -0.1657 2.3873
-6.0839 -0.3850 2.3873
-6.0664 -0.6038 2.3873
-6.0412 -0.8219 2.3873
-6.0083 -1.0391 2.3873
-5.9678 -1.2546 2.3873
-5.9197 -1.4690 2.3873
-5.8641 -1.6812 2.3873
-5.8010 -1.8917 2.3873
-5.7305 -2.0998 2.3873
-5.6527 -2.3053 2.3873
-5.5678 -2.5081 2.3873
-5.4756 -2.7076 2.3873
-5.3765 -2.9039 2.3873
-5.2704 -3.0967 2.3873
-5.1576 -3.2856 2.3873
-5.0382 -3.4705 2.3873
-4.9122 -3.6511 2.3873
-4.7799 -3.8272 2.3873
-4.6413 -3.9987 2.3873
-4.4968 -4.1652 2.3873
-4.3463 -4.3265 2.3873
-4.1902 -4.4825 2.3873
-4.0286 -4.6329 2.3873
-3.8616 -4.7776 2.3873
-3.6895 -4.9163 2.3873
-3.5126 -5.0490 2.3873
-3.3309 -5.1753 2.3873
-3.1448 -5.2951 2.3873
-2.9544 -5.4084 2.3873
-2.7599 -5.5149 2.3873
-2.5617 -5.6144 2.3873
-2.3600 -5.7069 2.3873
-2.1549 -5.7922 2.3873
-1.9469 -5.8702 2.3873
-1.7360 -5.9407 2.3873
-1.5226 -6.0038 2.3873
-1.3069 -6.0592 2.3873
-1.0893 -6.1069 2.3873
-0.8700 -6.1468 2.3873
-0.6492 -6.1789 2.3873
-0.4272 -6.2030 2.3873
-0.2044 -6.2192 2.3873
0.0190 -6.2274 2.3873
0.2427 -6.2276 2.3873
0.4664 -6.2198 2.3873
0.6899 -6.2039 2.3873
0.9128 -6.1800 2.3873
1.1348 -6.1480 2.3873
1.3557 -6.1081 2.3873
1.5752 -6.0602 2.3873
1.7929 -6.0044 2.3873
2.0086 -5.9407 2.3873
2.2220 -5.8692 2.3873
2.4329 -5.7900 2.3873
2.6408 -5.7032 2.3873
2.8457 -5.6089 2.3873
3.0471 -5.5071 2.3873
3.2448 -5.3981 2.3873
3.4385 -5.2819 2.3873
3.6280 -5.1587 2.3873
3.8130 -5.0286 2.3873
3.9933 -4.8919 2.3873
4.1686 -4.7485 2.3873
4.3387 -4.5989 2.3873
4.5032 -4.4430 2.3873
4.6621 -4.2812 2.3873
4.8151 -4.1137 2.3873
4.9619 -3.9406 2.3873
5.1024 -3.7622 2.3873
5.2363 -3.5788 2.3873
5.3636 -3.3907 2.3873
5.4839 -3.1976 2.3873
5.5971 -3.0003 2.3873
5.7031 -2.7990 2.3873
5.8017 -2.5938 2.3873
5.8928 -2.3853 2.3873
5.9762 -2.1735 2.3873
6.0518 -1.9587 2.3873
6.1195 -1.7411 2.3873
6.1793 -1.5213 2.3873
6.2310 -1.2993 2.3873
6.2424 -1.0701 2.3751
6.2423 -0.8413 2.3618
6.2417 -0.6147 2.3514
6.2405 -0.3896 2.3441
6.2389 -0.1657 2.3396
6.2367 0.0577 2.3380
6.2339 0.2811 2.3392
6.2306 0.5049 2.3434
6.2268 0.7298 2.3504
6.2224 0.9562 2.3604
6.2175 1.1847 2.3734
6.2064 1.4145 2.3873
6.1507 1.6355 2.3873
6.0869 1.8543 2.3873
6.0152 2.0705 2.3873
5.9357 2.2839 2.3873
5.8484 2.4943 2.3873
5.7536 2.7012 2.3873
5.6513 2.9045 2.3873
5.5416 3.1039 2.3873
5.4248 3.2991 2.3873
5.3010 3.4898 2.3873
5.1703 3.6758 2.3873
5.0330 3.8568 2.3873
4.8893 4.0327 2.3873
4.7393 4.2031 2.3873
4.5833 4.3678 2.3873
4.4215 4.5267 2.3873
4.2540 4.6796 2.3873
4.0812 4.8262 2.3873
3.9033 4.9663 2.3873
3.7205 5.0998 2.3873
3.5331 5.2265 2.3873
3.3413 5.3462 2.3873
3.1454 5.4589 2.3873
2.9457 5.5643 2.3873
2.7424 5.6623 2.3873
2.5359 5.7530 2.3873
0.9148 2.2951 0.9388
0.8320 2.3264 0.9395
0.7480 2.3548 0.9402
0.6631 2.3801 0.9410
0.5773 2.4024 0.9417
0.4907 2.4215 0.9424
0.4035 2.4375 0.9431
0.3158 2.4503 0.9438
0.2277 2.4600 0.9445
0.1392 2.4665 0.9452
0.0506 2.4698 0.9459
-0.0381 2.4698 0.9466
-0.1267 2.4667 0.9473
-0.2152 2.4604 0.9479
-0.3033 2.4509 0.9486
-0.3911 2.4382 0.9493
-0.4784 2.4223 0.9499
-0.5650 2.4034 0.9505
-0.6509 2.3813 0.9512
-0.7359 2.3561 0.9518
-0.8200 2.3278 0.9524
-0.9030 2.2966 0.9529
-2.4656 5.6643 2.3873
-2.6657 5.5680 2.3873
-2.8621 5.4648 2.3873
-3.0545 5.3547 2.3873
-3.2428 5.2379 2.3873
-3.4268 5.1145 2.3873
-3.6061 4.9848 2.3873
-3.7806 4.8489 2.3873
-3.9501 4.7069 2.3873
-4.1144 4.5591 2.3873
-4.2732 4.4056 2.3873
-4.4264 4.2467 2.3873
-4.5739 4.0826 2.3873
-4.7153 3.9134 2.3873
-4.8506 3.7394 2.3873
-4.9797 3.5608 2.3873
-5.1023 3.3778 2.3873
-5.2183 3.1906 2.3873
-5.3275 2.9996 2.3873
-5.4300 2.8048 2.3873
-5.5254 2.6066 2.3873
-5.6138 2.4053 2.3873
-5.6950 2.2009 2.3873
-5.7689 1.9943 2.3873
-5.8355 1.7849 2.3873
-5.8946 1.5734 2.3873
-5.9462 1.3598 2.3873
-5.9903 1.1446 2.3873
-6.0268 0.9282 2.3873
-6.0556 0.7105 2.3873
-6.0767 0.4920 2.3873
-6.0901 0.2729 2.3873
-6.0957 0.0536 2.3873
-6.0937 -0.1659 2.3873
-6.0839 -0.3852 2.3873
-6.0664 -0.6040 2.3873
-6.0412 -0.8221 2.3873
-6.0083 -1.0390 2.3873
-5.9678 -1.2548 2.3873
-5.9197 -1.4691 2.3873
-5.8640 -1.6814 2.3873
-5.8010 -1.8919 2.3873
-5.7305 -2.1000 2.3873
-5.6527 -2.3054 2.3873
-5.5677 -2.5082 2.3873
-5.4756 -2.7078 2.3873
-5.3764 -2.9040 2.3873
-5.2704 -3.0968 2.3873
-5.1576 -3.2857 2.3873
-5.0381 -3.4706 2.3873
-4.9121 -3.6512 2.3873
-4.7798 -3.8274 2.3873
-4.6412 -3.9988 2.3873
-4.4967 -4.1653 2.3873
-4.3462 -4.3266 2.3873
-4.1901 -4.4826 2.3873
-4.0285 -4.6330 2.3873
-3.8615 -4.7777 2.3873
-3.6894 -4.9164 2.3873
-3.5125 -5.0490 2.3873
-3.3308 -5.1754 2.3873
-3.1446 -5.2952 2.3873
-2.9542 -5.4085 2.3873
-2.7598 -5.5149 2.3873
-2.5616 -5.6145 2.3873
-2.3598 -5.7069 2.3873
-2.1548 -5.7922 2.3873
-1.9467 -5.8702 2.3873
-1.7358 -5.9408 2.3873
-1.5225 -6.0038 2.3873
-1.3068 -6.0592 2.3873
-1.0892 -6.1069 2.3873
-0.8698 -6.1468 2.3873
-0.6490 -6.1789 2.3873
-0.4271 -6.2030 2.3873
-0.2043 -6.2192 2.3873
0.0187 -5.8310 2.3873
0.2282 -5.8310 2.3873
0.4377 -5.8234 2.3873
0.6469 -5.8083 2.3873
0.8555 -5.7856 2.3873
1.0633 -5.7555 2.3873
1.2701 -5.7178 2.3873
1.4755 -5.6728 2.3873
1.6792 -5.6203 2.3873
1.8810 -5.5604 2.3873
2.0807 -5.4933 2.3873
2.2780 -5.4190 2.3873
2.4725 -5.3375 2.3873
2.6641 -5.2491 2.3873
2.8525 -5.1537 2.3873
3.0373 -5.0514 2.3873
3.2185 -4.9425 2.3873
3.3957 -4.8271 2.3873
3.5687 -4.7052 2.3873
3.7373 -4.5771 2.3873
3.9011 -4.4428 2.3873
4.0601 -4.3026 2.3873
4.2139 -4.1567 2.3873
4.3624 -4.0052 2.3873
4.5054 -3.8483 2.3873
4.6426 -3.6863 2.3873
4.7739 -3.5193 2.3873
4.8991 -3.3476 2.3873
5.0180 -3.1714 2.3873
5.1304 -2.9909 2.3873
5.2362 -2.8064 2.3873
5.3352 -2.6181 2.3873
5.4273 -2.4262 2.3873
5.5124 -2.2310 2.3873
5.5903 -2.0328 2.3873
5.6610 -1.8319 2.3873
5.7243 -1.6285 2.3873
5.7801 -1.4227 2.3873
5.8284 -1.2153 2.3873
5.8690 -1.0060 2.3873
5.9020 -0.7954 2.3873
5.9273 -0.5837 2.3873
5.9449 -0.3712 2.3873
5.9546 -0.1582 2.3873
5.9566 0.0550 2.3873
5.9508 0.2681 2.3873
5.9371 0.4809 2.3873
5.9158 0.6931 2.3873
5.8866 0.9043 2.3873
5.8498 1.1143 2.3873
5.8054 1.3227 2.3873
5.7533 1.5295 2.3873
5.6938 1.7342 2.3873
5.6268 1.9363 2.3873
5.5525 2.1360 2.3873
5.4710 2.3327 2.3873
5.3824 2.5263 2.3873
5.2868 2.7170 2.3873
5.1844 2.9030 2.3873
5.0752 3.0857 2.3873
4.9595 3.2641 2.3873
4.8374 3.4382 2.3873
4.7092 3.6076 2.3873
4.5748 3.7722 2.3873
4.4347 3.9317 2.3873
4.2888 4.0860 2.3873
4.1376 4.2348 2.3873
3.9811 4.3779 2.3873
3.8195 4.5152 2.3873
3.6532 4.6464 2.3873
3.4823 4.7715 2.3873
3.3071 4.8902 2.3873
3.1278 5.0025 2.3873
2.9446 5.1081 2.3873
2.7578 5.2070 2.3873
2.5677 5.2989 2.3873
2.3744 5.3839 2.3873
0.8568 2.1483 0.9390
0.7792 2.1776 0.9396
0.7006 2.2041 0.9403
0.6211 2.2278 0.9410
0.5408 2.2486 0.9416
0.4598 2.2665 0.9423
0.3782 2.2815 0.9430
0.2961 2.2935 0.9436
0.2136 2.3026 0.9443
0.1308 2.3086 0.9449
0.0479 2.3117 0.9456
-0.0351 2.3118 0.9462
-0.1181 2.3088 0.9469
-0.2009 2.3029 0.9475
-0.2834 2.2940 0.9481
-0.3656 2.2821 0.9487
-0.4473 2.2673 0.9493
-0.5283 2.2495 0.9499
-0.6087 2.2288 0.9505
-0.6883 2.2053 0.9511
-0.7670 2.1788 0.9516
-0.8447 2.1496 0.9522
-2.3085 5.3062 2.3873
-2.4960 5.2162 2.3873
-2.6801 5.1197 2.3873
-2.8605 5.0168 2.3873
-3.0370 4.9075 2.3873
-3.2095 4.7921 2.3873
-3.3776 4.6708 2.3873
-3.5413 4.5436 2.3873
-3.7002 4.4107 2.3873
-3.8543 4.2723 2.3873
-4.0032 4.1287 2.3873
-4.1470 3.9799 2.3873
-4.2853 3.8261 2.3873
-4.4180 3.6677 2.3873
-4.5449 3.5047 2.3873
-4.6660 3.3374 2.3873
-4.7810 3.1660 2.3873
-4.8898 2.9907 2.3873
-4.9924 2.8117 2.3873
-5.0885 2.6292 2.3873
-5.1780 2.4435 2.3873
-5.2610 2.2548 2.3873
-5.3372 2.0635 2.3873
-5.4066 1.8694 2.3873
-5.4690 1.6733 2.3873
-5.5246 1.4749 2.3873
-5.5730 1.2748 2.3873
-5.6144 1.0732 2.3873
-5.6486 0.8702 2.3873
-5.6756 0.6664 2.3873
-5.6955 0.4613 2.3873
-5.7080 0.2561 2.3873
-5.7133 0.0504 2.3873
-5.7114 -0.1555 2.3873
-5.7022 -0.3610 2.3873
-5.6858 -0.5660 2.3873
-5.6622 -0.7704 2.3873
-5.6313 -0.9738 2.3873
-5.5933 -1.1762 2.3873
-5.5482 -1.3770 2.3873
-5.4960 -1.5760 2.3873
-5.4368 -1.7733 2.3873
-5.3707 -1.9683 2.3873
-5.2977 -2.1609 2.3873
-5.2179 -2.3509 2.3873
-5.1315 -2.5380 2.3873
-5.0384 -2.7219 2.3873
-4.9389 -2.9025 2.3873
-4.8331 -3.0795 2.3873
-4.7210 -3.2528 2.3873
-4.6028 -3.4220 2.3873
-4.4787 -3.5870 2.3873
-4.3488 -3.7475 2.3873
-4.2132 -3.9034 2.3873
-4.0720 -4.0545 2.3873
-3.9256 -4.2006 2.3873
-3.7740 -4.3414 2.3873
-3.6175 -4.4769 2.3873
-3.4561 -4.6067 2.3873
-3.2902 -4.7308 2.3873
-3.1198 -4.8490 2.3873
-2.9453 -4.9612 2.3873
-2.7668 -5.0671 2.3873
-2.5846 -5.1666 2.3873
-2.3988 -5.2597 2.3873
-2.2097 -5.3461 2.3873
-2.0175 -5.4258 2.3873
-1.8225 -5.4986 2.3873
-1.6249 -5.5645 2.3873
-1.4250 -5.6233 2.3873
-1.2230 -5.6750 2.3873
-1.0191 -5.7194 2.3873
-0.8136 -5.7565 2.3873
-0.6068 -5.7863 2.3873
-0.3990 -5.8087 2.3873
-0.1903 -5.8236 2.3873
0.0189 -5.8310 2.3873
0.2284 -5.8310 2.3873
0.4378 -5.8235 2.3873
0.6470 -5.8083 2.3873
0.8556 -5.7856 2.3873
1.0635 -5.7555 2.3873
1.2702 -5.7178 2.3873
1.4756 -5.6727 2.3873
1.6793 -5.6202 2.3873
1.8812 -5.5604 2.3873
2.0808 -5.4933 2.3873
2.2781 -5.4189 2.3873
2.4726 -5.3375 2.3873
2.6642 -5.2490 2.3873
2.8526 -5.1536 2.3873
3.0375 -5.0513 2.3873
3.2186 -4.9424 2.3873
3.3958 -4.8270 2.3873
3.5688 -4.7051 2.3873
3.7374 -4.5771 2.3873
3.9012 -4.4427 2.3873
4.0602 -4.3025 2.3873
4.2140 -4.1566 2.3873
4.3625 -4.0051 2.3873
4.5055 -3.8482 2.3873
4.6427 -3.6862 2.3873
4.7740 -3.5192 2.3873
4.8992 -3.3475 2.3873
5.0180 -3.1713 2.3873
5.1304 -2.9908 2.3873
5.2362 -2.8063 2.3873
5.3353 -2.6179 2.3873
5.4274 -2.4261 2.3873
5.5125 -2.2309 2.3873
5.5904 -2.0327 2.3873
5.6610 -1.8318 2.3873
5.7243 -1.6283 2.3873
5.7801 -1.4228 2.3873
5.8284 -1.2151 2.3873
5.8691 -1.0059 2.3873
5.9021 -0.7953 2.3873
5.9273 -0.5836 2.3873
5.9449 -0.3711 2.3873
5.9546 -0.1581 2.3873
5.9566 0.0551 2.3873
5.9507 0.2683 2.3873
5.9371 0.4811 2.3873
5.9157 0.6932 2.3873
5.8866 0.9044 2.3873
5.8498 1.1144 2.3873
5.8053 1.3229 2.3873
5.7533 1.5295 2.3873
5.6937 1.7343 2.3873
5.6268 1.9364 2.3873
5.5525 2.1361 2.3873
5.4710 2.3328 2.3873
5.3823 2.5264 2.3873
5.2867 2.7170 2.3873
5.1843 2.9032 2.3873
5.0751 3.0858 2.3873
4.9594 3.2642 2.3873
4.8374 3.4383 2.3873
4.7091 3.6077 2.3873
4.5747 3.7723 2.3873
4.4346 3.9318 2.3873
4.2887 4.0861 2.3873
4.1375 4.2349 2.3873
3.9810 4.3780 2.3873
3.8194 4.5153 2.3873
3.6531 4.6465 2.3873
3.4822 4.7716 2.3873
3.3070 4.8903 2.3873
3.1276 5.0026 2.3873
2.9445 5.1082 2.3873
2.7577 5.2070 2.3873
2.5675 5.2989 2.3873
2.3743 5.3840 2.3873
0.8568 2.1483 0.9390
0.7792 2.1776 0.9396
0.7006 2.2042 0.9403
0.6211 2.2279 0.9410
0.5408 2.2487 0.9416
0.4598 2.2666 0.9423
0.3781 2.2815 0.9430
0.2960 2.2935 0.9436
0.2135 2.3026 0.9443
0.1308 2.3086 0.9449
0.0478 2.3117 0.9456
-0.0352 2.3118 0.9462
-0.1181 2.3088 0.9469
-0.2009 2.3029 0.9475
-0.2835 2.2940 0.9481
-0.3656 2.2821 0.9487
-0.4473 2.2673 0.9493
-0.5284 2.2495 0.9499
-0.6088 2.2288 0.9505
-0.6884 2.2053 0.9511
-0.7671 2.1788 0.9516
-0.8447 2.1496 0.9522
-2.3086 5.3062 2.3873
-2.4961 5.2162 2.3873
-2.6802 5.1197 2.3873
-2.8606 5.0167 2.3873
-3.0372 4.9075 2.3873
-3.2096 4.7921 2.3873
-3.3778 4.6707 2.3873
-3.5414 4.5435 2.3873
-3.7003 4.4106 2.3873
-3.8544 4.2722 2.3873
-4.0033 4.1286 2.3873
-4.1471 3.9798 2.3873
-4.2853 3.8260 2.3873
-4.4180 3.6676 2.3873
-4.5450 3.5046 2.3873
-4.6660 3.3373 2.3873
-4.7810 3.1659 2.3873
-4.8899 2.9905 2.3873
-4.9924 2.8115 2.3873
-5.0885 2.6291 2.3873
-5.1781 2.4434 2.3873
-5.2610 2.2547 2.3873
-5.3372 2.0633 2.3873
-5.4066 1.8693 2.3873
-5.4691 1.6730 2.3873
-5.5246 1.4747 2.3873
-5.5730 1.2747 2.3873
-5.6144 1.0730 2.3873
-5.6486 0.8700 2.3873
-5.6756 0.6661 2.3873
-5.6955 0.4612 2.3873
-5.7080 0.2558 2.3873
-5.7133 0.0503 2.3873
-5.7114 -0.1556 2.3873
-5.7022 -0.3610 2.3873
-5.6858 -0.5662 2.3873
-5.6621 -0.7705 2.3873
-5.6313 -0.9740 2.3873
-5.5933 -1.1763 2.3873
-5.5481 -1.3771 2.3873
-5.4959 -1.5762 2.3873
-5.4368 -1.7735 2.3873
-5.3706 -1.9685 2.3873
-5.2976 -2.1611 2.3873
-5.2179 -2.3510 2.3873
-5.1314 -2.5381 2.3873
-5.0384 -2.7220 2.3873
-4.9389 -2.9026 2.3873
-4.8330 -3.0796 2.3873
-4.7209 -3.2529 2.3873
-4.6028 -3.4221 2.3873
-4.4786 -3.5871 2.3873
-4.3487 -3.7476 2.3873
-4.2131 -3.9035 2.3873
-4.0719 -4.0546 2.3873
-3.9255 -4.2007 2.3873
-3.7739 -4.3415 2.3873
-3.6173 -4.4769 2.3873
-3.4560 -4.6068 2.3873
-3.2901 -4.7309 2.3873
-3.1197 -4.8491 2.3873
-2.9452 -4.9612 2.3873
-2.7667 -5.0671 2.3873
-2.5844 -5.1667 2.3873
-2.3987 -5.2597 2.3873
-2.2096 -5.3462 2.3873
-2.0174 -5.4259 2.3873
-1.8224 -5.4987 2.3873
-1.6248 -5.5645 2.3873
-1.4249 -5.6233 2.3873
-1.2228 -5.6750 2.3873
-1.0190 -5.7194 2.3873
-0.8135 -5.7566 2.3873
-0.6067 -5.7863 2.3873
-0.3988 -5.8087 2.3873
-0.1902 -5.8236 2.3873
0.0187 -5.4760 2.3873
0.2154 -5.4757 2.3873
0.4121 -5.4684 2.3873
0.6085 -5.4540 2.3873
0.8044 -5.4325 2.3873
0.9995 -5.4040 2.3873
1.1935 -5.3685 2.3873
1.3863 -5.3259 2.3873
1.5775 -5.2764 2.3873
1.7670 -5.2201 2.3873
1.9543 -5.1569 2.3873
2.1394 -5.0869 2.3873
2.3220 -5.0102 2.3873
2.5017 -4.9270 2.3873
2.6784 -4.8373 2.3873
2.8519 -4.7412 2.3873
3.0218 -4.6387 2.3873
3.1880 -4.5303 2.3873
3.3503 -4.4157 2.3873
3.5083 -4.2953 2.3873
3.6620 -4.1691 2.3873
3.8111 -4.0376 2.3873
3.9553 -3.9005 2.3873
4.0946 -3.7583 2.3873
4.2286 -3.6110 2.3873
4.3573 -3.4589 2.3873
4.4803 -3.3021 2.3873
4.5977 -3.1409 2.3873
4.7091 -2.9755 2.3873
4.8145 -2.8061 2.3873
4.9136 -2.6329 2.3873
5.0064 -2.4562 2.3873
5.0928 -2.2761 2.3873
5.1725 -2.0930 2.3873
5.2455 -1.9070 2.3873
5.3117 -1.7185 2.3873
5.3710 -1.5277 2.3873
5.4233 -1.3347 2.3873
5.4686 -1.1400 2.3873
5.5067 -0.9437 2.3873
5.5376 -0.7461 2.3873
5.5613 -0.5476 2.3873
5.5777 -0.3482 2.3873
5.5869 -0.1484 2.3873
5.5887 0.0516 2.3873
5.5832 0.2516 2.3873
5.5705 0.4512 2.3873
5.5504 0.6502 2.3873
5.5232 0.8483 2.3873
5.4887 1.0453 2.3873
5.4470 1.2409 2.3873
5.3982 1.4348 2.3873
5.3424 1.6267 2.3873
5.2797 1.8165 2.3873
5.2100 2.0038 2.3873
5.1337 2.1884 2.3873
5.0506 2.3701 2.3873
4.9610 2.5486 2.3873
4.8650 2.7236 2.3873
4.7627 2.8950 2.3873
4.6542 3.0625 2.3873
4.5398 3.2259 2.3873
4.4195 3.3849 2.3873
4.2936 3.5394 2.3873
4.1622 3.6892 2.3873
4.0255 3.8341 2.3873
3.8836 3.9738 2.3873
3.7369 4.1082 2.3873
3.5854 4.2372 2.3873
3.4294 4.3605 2.3873
3.2691 4.4780 2.3873
3.1048 4.5896 2.3873
2.9366 4.6951 2.3873
2.7648 4.7943 2.3873
2.5896 4.8872 2.3873
2.4112 4.9737 2.3873
0.8766 1.9867 0.9385
0.8048 2.0169 0.9391
0.7320 2.0444 0.9397
0.6582 2.0693 0.9404
0.5836 2.0915 0.9410
0.5082 2.1111 0.9416
0.4321 2.1279 0.9422
0.3555 2.1419 0.9429
0.2784 2.1532 0.9435
0.2009 2.1616 0.9441
0.1232 2.1673 0.9447
0.0454 2.1702 0.9453
-0.0326 2.1703 0.9459
-0.1104 2.1675 0.9465
-0.1882 2.1620 0.9471
-0.2656 2.1536 0.9477
-0.3428 2.1424 0.9483
-0.4195 2.1285 0.9488
-0.4956 2.1118 0.9494
-0.5710 2.0924 0.9499
-0.6458 2.0703 0.9505
-0.7196 2.0455 0.9510
-0.7926 2.0180 0.9515
-0.8645 1.9880 0.9520
-2.3440 4.9008 2.3873
-2.5170 4.8103 2.3873
-2.6866 4.7137 2.3873
-2.8526 4.6112 2.3873
-3.0147 4.5030 2.3873
-3.1728 4.3890 2.3873
-3.3267 4.2696 2.3873
-3.4762 4.1449 2.3873
-3.6211 4.0150 2.3873
-3.7612 3.8801 2.3873
-3.8963 3.7404 2.3873
-4.0264 3.5960 2.3873
-4.1512 3.4472 2.3873
-4.2707 3.2940 2.3873
-4.3845 3.1369 2.3873
-4.4927 2.9758 2.3873
-4.5951 2.8111 2.3873
-4.6916 2.6429 2.3873
-4.7820 2.4714 2.3873
-4.8663 2.2969 2.3873
-4.9444 2.1196 2.3873
-5.0161 1.9397 2.3873
-5.0814 1.7574 2.3873
-5.1402 1.5729 2.3873
-5.1924 1.3865 2.3873
-5.2380 1.1985 2.3873
-5.2769 1.0089 2.3873
-5.3091 0.8182 2.3873
-5.3346 0.6263 2.3873
-5.3532 0.4338 2.3873
-5.3651 0.2408 2.3873
-5.3701 0.0473 2.3873
-5.3683 -0.1460 2.3873
-5.3596 -0.3393 2.3873
-5.3442 -0.5321 2.3873
-5.3219 -0.7243 2.3873
-5.2929 -0.9155 2.3873
-5.2571 -1.1057 2.3873
-5.2147 -1.2945 2.3873
-5.1656 -1.4816 2.3873
-5.1099 -1.6670 2.3873
-5.0476 -1.8503 2.3873
-4.9790 -2.0313 2.3873
-4.9039 -2.2099 2.3873
-4.8226 -2.3857 2.3873
-4.7351 -2.5586 2.3873
-4.6414 -2.7283 2.3873
-4.5419 -2.8946 2.3873
-4.4364 -3.0574 2.3873
-4.3252 -3.2164 2.3873
-4.2085 -3.3714 2.3873
-4.0862 -3.5222 2.3873
-3.9587 -3.6686 2.3873
-3.8260 -3.8105 2.3873
-3.6882 -3.9477 2.3873
-3.5457 -4.0799 2.3873
-3.3984 -4.2071 2.3873
-3.2467 -4.3290 2.3873
-3.0907 -4.4455 2.3873
-2.9305 -4.5564 2.3873
-2.7665 -4.6616 2.3873
-2.5987 -4.7610 2.3873
-2.4273 -4.8544 2.3873
-2.2527 -4.9417 2.3873
-2.0750 -5.0227 2.3873
-1.8944 -5.0974 2.3873
-1.7111 -5.1656 2.3873
-1.5254 -5.2273 2.3873
-1.3376 -5.2823 2.3873
-1.1477 -5.3307 2.3873
-0.9562 -5.3722 2.3873
-0.7631 -5.4069 2.3873
-0.5689 -5.4346 2.3873
-0.3736 -5.4555 2.3873
-0.1777 -5.4693 2.3873
0.0188 -5.4760 2.3873
0.2155 -5.4758 2.3873
0.4122 -5.4684 2.3873
0.6086 -5.4540 2.3873
0.8045 -5.4325 2.3873
0.9996 -5.4040 2.3873
1.1937 -5.3684 2.3873
1.3864 -5.3259 2.3873
1.5777 -5.2764 2.3873
1.7671 -5.2200 2.3873
1.9545 -5.1568 2.3873
2.1395 -5.0868 2.3873
2.3221 -5.0102 2.3873
2.5018 -4.9269 2.3873
2.6786 -4.8372 2.3873
2.8520 -4.7411 2.3873
3.0219 -4.6386 2.3873
3.1881 -4.5302 2.3873
3.3504 -4.4156 2.3873
3.5085 -4.2953 2.3873
3.6621 -4.1691 2.3873
3.8112 -4.0375 2.3873
3.9554 -3.9004 2.3873
4.0947 -3.7582 2.3873
4.2287 -3.6109 2.3873
4.3573 -3.4588 2.3873
4.4804 -3.3020 2.3873
4.5977 -3.1408 2.3873
4.7092 -2.9754 2.3873
4.8145 -2.8060 2.3873
4.9137 -2.6328 2.3873
5.0065 -2.4561 2.3873
5.0928 -2.2760 2.3873
5.1726 -2.0929 2.3873
5.2456 -1.9069 2.3873
5.3118 -1.7184 2.3873
5.3711 -1.5275 2.3873
5.4234 -1.3346 2.3873
5.4686 -1.1399 2.3873
5.5067 -0.9436 2.3873
5.5376 -0.7460 2.3873
5.5613 -0.5474 2.3873
5.5777 -0.3481 2.3873
5.5869 -0.1483 2.3873
5.5887 0.0517 2.3873
5.5832 0.2517 2.3873
5.5705 0.4513 2.3873
5.5504 0.6503 2.3873
5.5231 0.8484 2.3873
5.4886 1.0454 2.3873
5.4470 1.2410 2.3873
5.3982 1.4349 2.3873
5.3424 1.6269 2.3873
5.2796 1.8167 2.3873
5.2100 2.0039 2.3873
5.1336 2.1885 2.3873
5.0505 2.3702 2.3873
4.9609 2.5487 2.3873
4.8649 2.7237 2.3873
4.7626 2.8951 2.3873
4.6541 3.0626 2.3873
4.5397 3.2260 2.3873
4.4194 3.3850 2.3873
4.2935 3.5395 2.3873
4.1621 3.6893 2.3873
4.0254 3.8342 2.3873
3.8835 3.9739 2.3873
3.7368 4.1083 2.3873
3.5853 4.2372 2.3873
3.4293 4.3605 2.3873
3.2690 4.4781 2.3873
3.1047 4.5896 2.3873
2.9365 4.6951 2.3873
2.7646 4.7944 2.3873
2.5894 4.8873 2.3873
2.4111 4.9737 2.3873
0.8766 1.9867 0.9385
0.8048 2.0169 0.9391
0.7319 2.0444 0.9397
0.6582 2.0693 0.9404
0.5835 2.0916 0.9410
0.5081 2.1111 0.9416
0.4320 2.1279 0.9422
0.3554 2.1419 0.9429
0.2783 2.1532 0.9435
0.2009 2.1616 0.9441
0.1232 2.1673 0.9447
0.0453 2.1702 0.9453
-0.0326 2.1703 0.9459
-0.1105 2.1675 0.9465
-0.1882 2.1619 0.9471
-0.2657 2.1536 0.9477
-0.3428 2.1424 0.9483
-0.4195 2.1285 0.9488
-0.4956 2.1118 0.9494
-0.5711 2.0924 0.9499
-0.6458 2.0703 0.9505
-0.7197 2.0455 0.9510
-0.7926 2.0180 0.9515
-0.8645 1.9879 0.9520
-2.3441 4.9007 2.3873
-2.5171 4.8102 2.3873
-2.6867 4.7137 2.3873
-2.8527 4.6112 2.3873
-3.0149 4.5029 2.3873
