ply
format ascii 1.0
element vertex 2165
property float32 x
property float32 y
property float32 z
end_header
5.8690 3.2070 2.3961
5.7519 3.4190 2.3961
5.6276 3.6270 2.3961
5.4964 3.8309 2.3961
5.3582 4.0304 2.3961
5.2134 4.2252 2.3961
5.0619 4.4153 2.3961
4.9039 4.6003 2.3961
4.7396 4.7800 2.3961
4.5692 4.9543 2.3961
4.3928 5.1230 2.3961
4.2105 5.2857 2.3961
4.0226 5.4425 2.3961
3.8292 5.5930 2.3961
3.6305 5.7370 2.3961
3.4267 5.8744 2.3961
3.2180 6.0051 2.3961
3.0046 6.1288 2.3961
2.7867 6.2453 2.3961
2.5646 6.3545 2.3961
2.3384 6.4562 2.3961
0.8684 2.6980 0.9869
0.7708 2.7285 0.9851
0.6722 2.7555 0.9832
0.5726 2.7789 0.9813
0.4722 2.7987 0.9793
0.3712 2.8149 0.9773
0.2696 2.8274 0.9752
0.1677 2.8362 0.9731
0.0655 2.8413 0.9709
-0.0369 2.8428 0.9687
-0.1392 2.8405 0.9665
-0.2414 2.8345 0.9642
-0.3432 2.8249 0.9619
-0.4447 2.8115 0.9596
-0.5457 2.7945 0.9572
-0.6459 2.7739 0.9548
-0.7453 2.7496 0.9524
-0.8438 2.7218 0.9500
-2.3800 6.8029 2.3961
-2.6301 6.7320 2.3961
-2.8780 6.6520 2.3961
-3.1236 6.5629 2.3961
-3.3664 6.4648 2.3961
-3.6061 6.3577 2.3961
-3.8424 6.2417 2.3961
-4.0748 6.1169 2.3961
-4.3032 5.9835 2.3961
-4.5271 5.8414 2.3961
-4.7462 5.6909 2.3961
-4.9601 5.5321 2.3961
-5.1686 5.3652 2.3961
-5.3712 5.1903 2.3961
-5.5677 5.0076 2.3961
-5.7576 4.8174 2.3961
-5.9409 4.6198 2.3961
-6.1170 4.4151 2.3961
-6.2857 4.2036 2.3961
-6.4467 3.9854 2.3961
-6.5997 3.7609 2.3961
-6.7445 3.5305 2.3961
-6.8808 3.2942 2.3961
-7.0083 3.0526 2.3961
-7.1268 2.8060 2.3961
-7.2360 2.5546 2.3961
-7.3358 2.2988 2.3961
-7.4259 2.0391 2.3961
-7.5063 1.7757 2.3961
-7.5766 1.5091 2.3961
-7.6367 1.2397 2.3961
-7.6866 0.9678 2.3961
-7.7261 0.6939 2.3961
-7.7550 0.4185 2.3961
-7.7734 0.1418 2.3961
-7.7812 -0.1356 2.3961
-7.7783 -0.4133 2.3961
-7.7647 -0.6908 2.3961
-7.7403 -0.9678 2.3961
-7.7053 -1.2439 2.3961
-7.6597 -1.5184 2.3961
-7.6034 -1.7911 2.3961
-7.5367 -2.0615 2.3961
-7.4595 -2.3292 2.3961
-7.3721 -2.5937 2.3961
-7.2745 -2.8546 2.3961
-7.1669 -3.1116 2.3961
-7.0495 -3.3641 2.3961
-6.9224 -3.6118 2.3961
-6.7859 -3.8544 2.3961
-6.6403 -4.0914 2.3961
-6.4857 -4.3225 2.3961
-6.3224 -4.5474 2.3961
-6.1506 -4.7656 2.3961
-5.9708 -4.9769 2.3961
-5.7832 -5.1809 2.3961
-5.5881 -5.3774 2.3961
-5.3857 -5.5661 2.3961
-5.1766 -5.7466 2.3961
-4.9609 -5.9189 2.3961
-4.7391 -6.0826 2.3961
-4.5116 -6.2375 2.3961
-4.2787 -6.3834 2.3961
-4.0408 -6.5202 2.3961
-3.7982 -6.6476 2.3961
-3.5514 -6.7656 2.3961
-3.3007 -6.8740 2.3961
-3.0467 -6.9727 2.3961
-2.7895 -7.0616 2.3961
-2.5297 -7.1407 2.3961
-2.2677 -7.2098 2.3961
-2.0037 -7.2690 2.3961
-1.7383 -7.3182 2.3961
-1.4719 -7.3575 2.3961
-1.2047 -7.3867 2.3961
-0.9373 -7.4061 2.3961
-0.6699 -7.4155 2.3961
-0.4030 -7.4151 2.3961
-0.1369 -7.4049 2.3961
0.1280 -7.3850 2.3961
0.3914 -7.3555 2.3961
0.6529 -7.3166 2.3961
0.9121 -7.2683 2.3961
1.1688 -7.2108 2.3961
1.4226 -7.1442 2.3961
1.6732 -7.0687 2.3961
1.9204 -6.9844 2.3961
2.1637 -6.8916 2.3961
2.4029 -6.7904 2.3961
2.6378 -6.6809 2.3961
2.8680 -6.5635 2.3961
3.0933 -6.4383 2.3961
3.3136 -6.3056 2.3961
3.4295 -5.9926 2.3289
3.5264 -5.6781 2.2607
3.6904 -5.4911 2.2437
3.8752 -5.3406 2.2437
4.0543 -5.1841 2.2437
4.2273 -5.0217 2.2437
4.3942 -4.8539 2.2437
4.5548 -4.6808 2.2437
4.7088 -4.5025 2.2437
4.8564 -4.3195 2.2437
4.9971 -4.1319 2.2437
5.1310 -3.9400 2.2437
5.2580 -3.7440 2.2437
5.3779 -3.5441 2.2437
5.4906 -3.3407 2.2437
5.5961 -3.1339 2.2437
5.6943 -2.9241 2.2437
5.7851 -2.7114 2.2437
5.8684 -2.4961 2.2437
5.9442 -2.2784 2.2437
6.0125 -2.0587 2.2437
6.0732 -1.8371 2.2437
6.1262 -1.6139 2.2437
6.1716 -1.3894 2.2437
6.2093 -1.1637 2.2437
6.2393 -0.9372 2.2437
6.2617 -0.7101 2.2437
6.2763 -0.4826 2.2437
6.2832 -0.2550 2.2437
6.2825 -0.0275 2.2437
6.2741 0.1997 2.2437
6.2581 0.4263 2.2437
6.2346 0.6521 2.2437
6.2034 0.8768 2.2437
6.1647 1.1003 2.2437
6.1186 1.3222 2.2437
6.0651 1.5424 2.2437
6.0042 1.7607 2.2437
5.9360 1.9767 2.2437
5.8606 2.1903 2.2437
5.8972 2.4508 2.2899
6.0750 2.7867 2.3961
5.9719 3.0057 2.3961
5.8615 3.2212 2.3961
5.7439 3.4329 2.3961
5.6192 3.6407 2.3961
5.4874 3.8442 2.3961
5.3488 4.0434 2.3961
5.2035 4.2380 2.3961
5.0516 4.4277 2.3961
4.8932 4.6123 2.3961
4.7286 4.7917 2.3961
4.5577 4.9656 2.3961
4.3809 5.1339 2.3961
4.1982 5.2963 2.3961
4.0099 5.4526 2.3961
3.8162 5.6027 2.3961
3.6171 5.7463 2.3961
3.4130 5.8833 2.3961
3.2040 6.0135 2.3961
2.9903 6.1367 2.3961
2.7722 6.2527 2.3961
2.5497 6.3615 2.3961
2.3233 6.4627 2.3961
0.8620 2.7001 0.9868
0.7643 2.7304 0.9850
0.6656 2.7572 0.9831
0.5660 2.7803 0.9812
0.4655 2.7999 0.9792
0.3645 2.8158 0.9772
0.2629 2.8281 0.9751
0.1609 2.8367 0.9729
0.0587 2.8415 0.9708
-0.0436 2.8427 0.9686
-0.1460 2.8402 0.9663
-0.2481 2.8340 0.9641
-0.3500 2.8241 0.9617
-0.4514 2.8105 0.9594
-0.5523 2.7933 0.9571
-0.6525 2.7724 0.9547
-0.7519 2.7479 0.9523
-0.8503 2.7198 0.9499
-2.3966 6.7985 2.3961
-2.6465 6.7270 2.3961
-2.8943 6.6464 2.3961
-3.1397 6.5567 2.3961
-3.3823 6.4580 2.3961
-3.6218 6.3503 2.3961
-3.8579 6.2337 2.3961
-4.0901 6.1084 2.3961
-4.3182 5.9743 2.3961
-4.5417 5.8317 2.3961
-4.7605 5.6807 2.3961
-4.9741 5.5213 2.3961
-5.1821 5.3539 2.3961
-5.3844 5.1785 2.3961
-5.5804 4.9953 2.3961
-5.7700 4.8045 2.3961
-5.9527 4.6065 2.3961
-6.1284 4.4013 2.3961
-6.2966 4.1893 2.3961
-6.4571 3.9707 2.3961
-6.6096 3.7459 2.3961
-6.7538 3.5150 2.3961
-6.8895 3.2784 2.3961
-7.0164 3.0365 2.3961
-7.1343 2.7895 2.3961
-7.2429 2.5378 2.3961
-7.3421 2.2818 2.3961
-7.4316 2.0218 2.3961
-7.5112 1.7582 2.3961
-7.5809 1.4914 2.3961
-7.6403 1.2218 2.3961
-7.6895 0.9498 2.3961
-7.7283 0.6758 2.3961
-7.7566 0.4002 2.3961
-7.7743 0.1235 2.3961
-7.7813 -0.1539 2.3961
-7.7777 -0.4316 2.3961
-7.7634 -0.7092 2.3961
-7.7383 -0.9861 2.3961
-7.7026 -1.2621 2.3961
-7.6563 -1.5365 2.3961
-7.5993 -1.8091 2.3961
-7.5319 -2.0794 2.3961
-7.4541 -2.3468 2.3961
-7.3659 -2.6111 2.3961
-7.2677 -2.8718 2.3961
-7.1594 -3.1284 2.3961
-7.0414 -3.3806 2.3961
-6.9137 -3.6281 2.3961
-6.7766 -3.8703 2.3961
-6.6303 -4.1069 2.3961
-6.4751 -4.3376 2.3961
-6.3113 -4.5620 2.3961
-6.1390 -4.7798 2.3961
-5.9587 -4.9906 2.3961
-5.7705 -5.1941 2.3961
-5.5749 -5.3901 2.3961
-5.3721 -5.5782 2.3961
-5.1625 -5.7583 2.3961
-4.9464 -5.9300 2.3961
-4.7243 -6.0931 2.3961
-4.4964 -6.2474 2.3961
-4.2631 -6.3927 2.3961
-4.0248 -6.5289 2.3961
-3.7820 -6.6557 2.3961
-3.5349 -6.7731 2.3961
-3.2840 -6.8808 2.3961
-3.0297 -6.9789 2.3961
-2.7724 -7.0671 2.3961
-2.5124 -7.1456 2.3961
-2.2502 -7.2140 2.3961
-1.9862 -7.2726 2.3961
-1.7208 -7.3211 2.3961
-1.4542 -7.3597 2.3961
-1.1870 -7.3883 2.3961
-0.9196 -7.4070 2.3961
-0.6522 -7.4158 2.3961
-0.3854 -7.4147 2.3961
-0.1193 -7.4039 2.3961
0.1455 -7.3834 2.3961
0.4087 -7.3533 2.3961
0.6701 -7.3137 2.3961
0.9292 -7.2648 2.3961
1.1857 -7.2066 2.3961
1.4393 -7.1395 2.3961
1.6897 -7.0634 2.3961
-7.1930 0.1468 2.3961
-7.2003 -0.1098 2.3961
-7.1978 -0.3666 2.3961
-7.1855 -0.6233 2.3961
-7.1633 -0.8794 2.3961
-7.1313 -1.1347 2.3961
-7.0895 -1.3886 2.3961
-7.0380 -1.6409 2.3961
-6.9768 -1.8910 2.3961
-6.9060 -2.1387 2.3961
-6.8258 -2.3834 2.3961
-6.7362 -2.6249 2.3961
-6.6374 -2.8628 2.3961
-6.5295 -3.0966 2.3961
-6.4128 -3.3261 2.3961
-6.2874 -3.5508 2.3961
-6.1535 -3.7705 2.3961
-6.0113 -3.9847 2.3961
-5.8612 -4.1932 2.3961
-5.7032 -4.3957 2.3961
-5.5378 -4.5919 2.3961
-5.3651 -4.7814 2.3961
-5.1855 -4.9640 2.3961
-4.9992 -5.1395 2.3961
-4.8065 -5.3076 2.3961
-4.6078 -5.4680 2.3961
-4.4034 -5.6206 2.3961
-4.1937 -5.7651 2.3961
-3.9789 -5.9014 2.3961
-3.7594 -6.0293 2.3961
-3.5356 -6.1487 2.3961
-3.3077 -6.2593 2.3961
-3.0763 -6.3612 2.3961
-2.8415 -6.4541 2.3961
-2.6039 -6.5380 2.3961
-2.3637 -6.6129 2.3961
-2.1214 -6.6786 2.3961
-1.8772 -6.7351 2.3961
-1.6316 -6.7824 2.3961
-1.3848 -6.8205 2.3961
-1.1374 -6.8494 2.3961
-0.8895 -6.8691 2.3961
-0.6417 -6.8796 2.3961
-0.3941 -6.8810 2.3961
-0.1472 -6.8733 2.3961
0.0988 -6.8567 2.3961
0.3434 -6.8311 2.3961
0.5863 -6.7968 2.3961
0.8273 -6.7537 2.3961
1.0661 -6.7021 2.3961
1.3022 -6.6420 2.3961
1.5355 -6.5735 2.3961
1.7657 -6.4970 2.3961
1.9924 -6.4124 2.3961
2.2154 -6.3199 2.3961
2.4344 -6.2198 2.3961
2.6492 -6.1122 2.3961
2.8596 -5.9973 2.3961
3.0653 -5.8753 2.3961
3.2660 -5.7464 2.3961
3.4616 -5.6108 2.3961
3.5892 -5.3747 2.3549
3.6749 -5.0961 2.2951
3.7635 -4.8415 2.2456
3.9224 -4.6874 2.2437
4.0788 -4.5321 2.2437
4.2294 -4.3719 2.2437
4.3740 -4.2068 2.2437
4.5125 -4.0372 2.2437
4.6447 -3.8632 2.2437
4.7706 -3.6852 2.2437
4.8901 -3.5032 2.2437
5.0029 -3.3176 2.2437
5.1091 -3.1286 2.2437
5.2086 -2.9363 2.2437
5.3012 -2.7411 2.2437
5.3870 -2.5432 2.2437
5.4658 -2.3428 2.2437
5.5376 -2.1402 2.2437
5.6023 -1.9355 2.2437
5.6599 -1.7290 2.2437
5.7104 -1.5210 2.2437
5.7537 -1.3117 2.2437
5.7898 -1.1013 2.2437
5.8188 -0.8900 2.2437
5.8405 -0.6781 2.2437
5.8550 -0.4657 2.2437
5.8624 -0.2533 2.2437
5.8625 -0.0408 2.2437
5.8554 0.1713 2.2437
5.8412 0.3829 2.2437
5.8199 0.5938 2.2437
5.7915 0.8038 2.2437
5.7560 1.0126 2.2437
5.7135 1.2199 2.2437
5.6640 1.4257 2.2437
5.6077 1.6297 2.2437
5.5896 1.8464 2.2619
5.6972 2.1138 2.3349
5.7646 2.3798 2.3961
5.6757 2.5875 2.3961
5.5798 2.7921 2.3961
5.4770 2.9935 2.3961
5.3675 3.1914 2.3961
5.2513 3.3855 2.3961
5.1285 3.5757 2.3961
4.9993 3.7618 2.3961
4.8638 3.9435 2.3961
4.7221 4.1207 2.3961
4.5743 4.2932 2.3961
4.4207 4.4607 2.3961
4.2613 4.6230 2.3961
4.0963 4.7801 2.3961
3.9258 4.9316 2.3961
3.7501 5.0774 2.3961
3.5693 5.2174 2.3961
3.3836 5.3513 2.3961
3.1931 5.4789 2.3961
2.9981 5.6002 2.3961
2.7987 5.7149 2.3961
2.5952 5.8229 2.3961
2.3878 5.9240 2.3961
0.8950 2.4747 0.9853
0.8054 2.5063 0.9837
0.7147 2.5347 0.9820
0.6230 2.5597 0.9802
0.5305 2.5814 0.9784
0.4373 2.5998 0.9766
0.3434 2.6148 0.9747
0.2490 2.6264 0.9728
0.1543 2.6346 0.9708
0.0593 2.6394 0.9688
-0.0357 2.6407 0.9667
-0.1308 2.6386 0.9647
-0.2257 2.6330 0.9626
-0.3204 2.6240 0.9604
-0.4147 2.6116 0.9582
-0.5084 2.5958 0.9561
-0.6016 2.5767 0.9539
-0.6940 2.5541 0.9516
-0.7855 2.5283 0.9494
-0.8760 2.4991 0.9471
-2.4481 6.2553 2.3961
-2.6781 6.1799 2.3961
-2.9057 6.0960 2.3961
-3.1308 6.0037 2.3961
-3.3528 5.9032 2.3961
-3.5716 5.7944 2.3961
-3.7868 5.6776 2.3961
-3.9981 5.5527 2.3961
-4.2052 5.4198 2.3961
-4.4078 5.2792 2.3961
-4.6055 5.1310 2.3961
-4.7980 4.9753 2.3961
-4.9851 4.8122 2.3961
-5.1665 4.6420 2.3961
-5.3418 4.4649 2.3961
-5.5108 4.2810 2.3961
-5.6731 4.0906 2.3961
-5.8285 3.8939 2.3961
-5.9769 3.6912 2.3961
-6.1177 3.4827 2.3961
-6.2510 3.2687 2.3961
-6.3763 3.0495 2.3961
-6.4935 2.8253 2.3961
-6.6023 2.5966 2.3961
-6.7026 2.3635 2.3961
-6.7942 2.1265 2.3961
-6.8768 1.8858 2.3961
-6.9504 1.6419 2.3961
-7.0147 1.3950 2.3961
-7.0697 1.1456 2.3961
-7.1151 0.8940 2.3961
-7.1511 0.6406 2.3961
-7.1773 0.3857 2.3961
-7.1938 0.1298 2.3961
-7.2005 -0.1268 2.3961
-7.1973 -0.3836 2.3961
-7.1843 -0.6402 2.3961
-7.1615 -0.8964 2.3961
-7.1289 -1.1515 2.3961
-7.0864 -1.4054 2.3961
-7.0343 -1.6575 2.3961
-6.9724 -1.9075 2.3961
-6.9010 -2.1549 2.3961
-6.8201 -2.3995 2.3961
-6.7299 -2.6408 2.3961
-6.6305 -2.8783 2.3961
-6.5221 -3.1119 2.3961
-6.4048 -3.3411 2.3961
-6.2788 -3.5655 2.3961
-6.1443 -3.7848 2.3961
-6.0017 -3.9987 2.3961
-5.8510 -4.2068 2.3961
-5.6925 -4.4089 2.3961
-5.5266 -4.6046 2.3961
-5.3534 -4.7937 2.3961
-5.1733 -4.9759 2.3961
-4.9866 -5.1509 2.3961
-4.7936 -5.3184 2.3961
-4.5945 -5.4784 2.3961
-4.3897 -5.6304 2.3961
-4.1796 -5.7744 2.3961
-3.9645 -5.9102 2.3961
-3.7447 -6.0375 2.3961
-3.5206 -6.1563 2.3961
-3.2925 -6.2664 2.3961
-3.0608 -6.3676 2.3961
-2.8259 -6.4599 2.3961
-2.5881 -6.5433 2.3961
-2.3478 -6.6175 2.3961
-2.1053 -6.6826 2.3961
-1.8610 -6.7385 2.3961
-1.6153 -6.7852 2.3961
-1.3685 -6.8227 2.3961
-1.1210 -6.8510 2.3961
-0.8731 -6.8701 2.3961
-0.6253 -6.8800 2.3961
-0.3777 -6.8808 2.3961
-0.1308 -6.8725 2.3961
0.1150 -6.8553 2.3961
0.3595 -6.8291 2.3961
0.6023 -6.7942 2.3961
0.8432 -6.7506 2.3961
1.0818 -6.6984 2.3961
1.3178 -6.6377 2.3961
1.5508 -6.5687 2.3961
1.7808 -6.4916 2.3961
2.0072 -6.4065 2.3961
2.2300 -6.3135 2.3961
2.4487 -6.2129 2.3961
2.6633 -6.1048 2.3961
2.8733 -5.9895 2.3961
3.0787 -5.8670 2.3961
3.2791 -5.7376 2.3961
3.4744 -5.6016 2.3961
3.5950 -5.3558 2.3508
3.6804 -5.0781 2.2913
3.7712 -4.8276 2.2437
3.9329 -4.6773 2.2437
4.0890 -4.5217 2.2437
4.2391 -4.3611 2.2437
4.3834 -4.1957 2.2437
4.5214 -4.0258 2.2437
4.6533 -3.8516 2.2437
4.7787 -3.6732 2.2437
4.8977 -3.4910 2.2437
5.0102 -3.3052 2.2437
5.1159 -3.1159 2.2437
5.2149 -2.9235 2.2437
5.3071 -2.7281 2.2437
5.3924 -2.5300 2.2437
5.4707 -2.3295 2.2437
5.5421 -2.1267 2.2437
5.6063 -1.9219 2.2437
5.6635 -1.7153 2.2437
5.7135 -1.5072 2.2437
5.7563 -1.2978 2.2437
5.7920 -1.0873 2.2437
5.8204 -0.8760 2.2437
5.8417 -0.6640 2.2437
5.8558 -0.4517 2.2437
5.8626 -0.2392 2.2437
5.8622 -0.0268 2.2437
5.8547 0.1853 2.2437
5.8400 0.3969 2.2437
5.8182 0.6078 2.2437
5.7893 0.8176 2.2437
5.7534 1.0263 2.2437
5.7104 1.2336 2.2437
5.6605 1.4393 2.2437
5.6037 1.6431 2.2437
5.5960 1.8634 2.2663
5.7062 2.1327 2.3407
5.7589 2.3936 2.3961
5.6695 2.6011 2.3961
5.5732 2.8056 2.3961
5.4700 3.0067 2.3961
5.3600 3.2043 2.3961
5.2434 3.3982 2.3961
5.1201 3.5882 2.3961
4.9905 3.7740 2.3961
4.8546 3.9554 2.3961
4.7125 4.1323 2.3961
4.5644 4.3044 2.3961
4.4103 4.4716 2.3961
4.2505 4.6336 2.3961
4.0852 4.7903 2.3961
3.9144 4.9414 2.3961
3.7383 5.0869 2.3961
3.5572 5.2264 2.3961
3.3711 5.3599 2.3961
3.1804 5.4871 2.3961
2.9851 5.6080 2.3961
2.7854 5.7223 2.3961
2.5816 5.8298 2.3961
2.3739 5.9305 2.3961
0.8891 2.4769 0.9852
0.7995 2.5083 0.9835
0.7087 2.5364 0.9819
0.6169 2.5613 0.9801
0.5244 2.5828 0.9783
0.4311 2.6009 0.9765
0.3371 2.6157 0.9746
0.2428 2.6271 0.9726
0.1480 2.6350 0.9707
0.0531 2.6396 0.9687
-0.0420 2.6406 0.9666
-0.1371 2.6383 0.9645
-0.2320 2.6325 0.9624
-0.3266 2.6233 0.9603
-0.4209 2.6107 0.9581
-0.5146 2.5947 0.9559
-0.6077 2.5753 0.9537
-0.7000 2.5525 0.9515
-0.7915 2.5265 0.9492
-0.8819 2.4971 0.9470
-2.4633 6.2506 2.3961
-2.6932 6.1746 2.3961
-2.9207 6.0901 2.3961
-3.1455 5.9973 2.3961
-3.3674 5.8963 2.3961
-3.5860 5.7870 2.3961
-3.8009 5.6696 2.3961
-4.0120 5.5441 2.3961
-4.2188 5.4108 2.3961
-4.4210 5.2697 2.3961
-4.6184 5.1209 2.3961
-4.8106 4.9647 2.3961
-4.9973 4.8012 2.3961
-5.1783 4.6305 2.3961
-5.3532 4.4529 2.3961
-5.5217 4.2686 2.3961
-5.6836 4.0778 2.3961
-5.8386 3.8807 2.3961
-5.9864 3.6776 2.3961
-6.1268 3.4687 2.3961
-6.2595 3.2543 2.3961
-6.3843 3.0348 2.3961
-6.5009 2.8103 2.3961
-6.6092 2.5813 2.3961
-6.7089 2.3479 2.3961
-6.7999 2.1107 2.3961
-6.8820 1.8698 2.3961
-6.9549 1.6257 2.3961
-7.0186 1.3786 2.3961
-7.0730 1.1290 2.3961
-7.1178 0.8773 2.3961
-7.1531 0.6237 2.3961
-7.1787 0.3688 2.3961
-7.1945 0.1128 2.3961
-7.2005 -0.1438 2.3961
-7.1968 -0.4006 2.3961
-7.1831 -0.6572 2.3961
-7.1597 -0.9133 2.3961
-7.1264 -1.1684 2.3961
-7.0833 -1.4221 2.3961
-7.0305 -1.6741 2.3961
-6.9680 -1.9240 2.3961
-6.8959 -2.1712 2.3961
-6.8145 -2.4156 2.3961
-6.7236 -2.6566 2.3961
-6.6236 -2.8939 2.3961
-6.5146 -3.1272 2.3961
-6.3967 -3.3561 2.3961
-6.2702 -3.5801 2.3961
-6.1352 -3.7991 2.3961
-5.9919 -4.0126 2.3961
-5.8407 -4.2204 2.3961
-5.6818 -4.4220 2.3961
-5.5154 -4.6173 2.3961
-5.3417 -4.8060 2.3961
-5.1612 -4.9877 2.3961
-4.9740 -5.1622 2.3961
-4.7805 -5.3293 2.3961
-4.5811 -5.4887 2.3961
-4.3760 -5.6402 2.3961
-4.1655 -5.7836 2.3961
-3.9501 -5.9189 2.3961
-3.7300 -6.0456 2.3961
-3.5056 -6.1638 2.3961
-3.2773 -6.2733 2.3961
-3.0454 -6.3740 2.3961
-2.8103 -6.4657 2.3961
-2.5723 -6.5485 2.3961
-2.3318 -6.6221 2.3961
-2.0892 -6.6866 2.3961
-1.8448 -6.7419 2.3961
-1.5990 -6.7880 2.3961
-1.3521 -6.8249 2.3961
-1.1046 -6.8525 2.3961
-0.8567 -6.8710 2.3961
-0.6089 -6.8803 2.3961
-0.3613 -6.8805 2.3961
-0.1145 -6.8717 2.3961
0.1312 -6.8538 2.3961
0.3756 -6.8271 2.3961
0.6183 -6.7916 2.3961
0.8591 -6.7474 2.3961
1.0975 -6.6946 2.3961
1.3333 -6.6334 2.3961
1.5661 -6.5639 2.3961
-6.6868 0.1350 2.3961
-6.6933 -0.1033 2.3961
-6.6906 -0.3419 2.3961
-6.6788 -0.5803 2.3961
-6.6580 -0.8182 2.3961
-6.6280 -1.0553 2.3961
-6.5890 -1.2912 2.3961
-6.5410 -1.5254 2.3961
-6.4840 -1.7578 2.3961
-6.4182 -1.9877 2.3961
-6.3437 -2.2151 2.3961
-6.2605 -2.4394 2.3961
-6.1688 -2.6603 2.3961
-6.0687 -2.8776 2.3961
-5.9604 -3.0908 2.3961
-5.8441 -3.2996 2.3961
-5.7199 -3.5038 2.3961
-5.5881 -3.7030 2.3961
-5.4489 -3.8969 2.3961
-5.3024 -4.0852 2.3961
-5.1490 -4.2677 2.3961
-4.9889 -4.4441 2.3961
-4.8223 -4.6141 2.3961
-4.6495 -4.7775 2.3961
-4.4709 -4.9341 2.3961
-4.2866 -5.0837 2.3961
-4.0970 -5.2260 2.3961
-3.9024 -5.3609 2.3961
-3.7031 -5.4881 2.3961
-3.4994 -5.6076 2.3961
-3.2916 -5.7193 2.3961
-3.0801 -5.8228 2.3961
-2.8652 -5.9183 2.3961
-2.6471 -6.0055 2.3961
-2.4264 -6.0843 2.3961
-2.2032 -6.1547 2.3961
-1.9779 -6.2167 2.3961
-1.7509 -6.2702 2.3961
-1.5225 -6.3151 2.3961
-1.2930 -6.3515 2.3961
-1.0628 -6.3793 2.3961
-0.8321 -6.3986 2.3961
-0.6013 -6.4093 2.3961
-0.3707 -6.4116 2.3961
-0.1407 -6.4055 2.3961
0.0884 -6.3909 2.3961
0.3164 -6.3681 2.3961
0.5430 -6.3371 2.3961
0.7678 -6.2979 2.3961
0.9905 -6.2508 2.3961
1.2109 -6.1957 2.3961
1.4287 -6.1329 2.3961
1.6437 -6.0624 2.3961
1.8555 -5.9844 2.3961
2.0639 -5.8991 2.3961
2.2686 -5.8065 2.3961
2.4695 -5.7070 2.3961
2.6663 -5.6006 2.3961
2.8588 -5.4875 2.3961
3.0468 -5.3680 2.3961
3.2299 -5.2421 2.3961
3.4082 -5.1101 2.3961
3.5813 -4.9723 2.3961
3.7339 -4.8091 2.3864
3.8106 -4.5590 2.3343
3.8834 -4.3197 2.2872
3.9590 -4.0969 2.2484
4.0864 -3.9345 2.2437
4.2165 -3.7764 2.2437
4.3407 -3.6142 2.2437
4.4590 -3.4480 2.2437
4.5713 -3.2782 2.2437
4.6774 -3.1050 2.2437
4.7773 -2.9284 2.2437
4.8709 -2.7489 2.2437
4.9582 -2.5665 2.2437
5.0389 -2.3815 2.2437
5.1132 -2.1942 2.2437
5.1809 -2.0047 2.2437
5.2419 -1.8132 2.2437
5.2963 -1.6200 2.2437
5.3440 -1.4254 2.2437
5.3850 -1.2294 2.2437
5.4193 -1.0325 2.2437
5.4468 -0.8346 2.2437
5.4675 -0.6362 2.2437
5.4814 -0.4374 2.2437
5.4885 -0.2383 2.2437
5.4889 -0.0393 2.2437
5.4825 0.1594 2.2437
5.4694 0.3577 2.2437
5.4496 0.5553 2.2437
5.4232 0.7520 2.2437
5.3901 0.9477 2.2437
5.3639 1.1449 2.2494
5.4102 1.3615 2.2885
5.4744 1.5907 2.3390
5.5449 1.8316 2.3961
5.4749 2.0314 2.3961
5.3982 2.2287 2.3961
5.3148 2.4233 2.3961
5.2249 2.6150 2.3961
5.1285 2.8037 2.3961
5.0257 2.9890 2.3961
4.9167 3.1708 2.3961
4.8015 3.3489 2.3961
4.6802 3.5231 2.3961
4.5531 3.6932 2.3961
4.4201 3.8590 2.3961
4.2814 4.0203 2.3961
4.1373 4.1769 2.3961
3.9877 4.3287 2.3961
3.8329 4.4755 2.3961
3.6730 4.6171 2.3961
3.5082 4.7533 2.3961
3.3386 4.8839 2.3961
3.1644 5.0088 2.3961
2.9859 5.1279 2.3961
2.8030 5.2409 2.3961
2.6161 5.3478 2.3961
2.4254 5.4483 2.3961
2.2310 5.5424 2.3961
0.8335 2.3080 0.9823
0.7499 2.3375 0.9808
0.6653 2.3639 0.9792
0.5798 2.3873 0.9776
0.4935 2.4075 0.9759
0.4065 2.4246 0.9742
0.3189 2.4386 0.9724
0.2309 2.4494 0.9706
0.1425 2.4571 0.9688
0.0540 2.4615 0.9669
-0.0347 2.4627 0.9650
-0.1234 2.4607 0.9631
-0.2119 2.4555 0.9611
-0.3002 2.4472 0.9591
-0.3882 2.4356 0.9571
-0.4757 2.4209 0.9550
-0.5625 2.4030 0.9530
-0.6487 2.3820 0.9509
-0.7341 2.3579 0.9488
-0.8185 2.3307 0.9467
-0.9019 2.3005 0.9446
-2.5019 5.7639 2.3961
-2.7139 5.6848 2.3961
-2.9233 5.5978 2.3961
-3.1299 5.5032 2.3961
-3.3334 5.4010 2.3961
-3.5335 5.2912 2.3961
-3.7299 5.1739 2.3961
-3.9223 5.0493 2.3961
-4.1105 4.9175 2.3961
-4.2940 4.7787 2.3961
-4.4727 4.6329 2.3961
-4.6463 4.4803 2.3961
-4.8145 4.3212 2.3961
-4.9770 4.1556 2.3961
-5.1336 3.9839 2.3961
-5.2840 3.8061 2.3961
-5.4279 3.6225 2.3961
-5.5652 3.4334 2.3961
-5.6956 3.2390 2.3961
-5.8188 3.0395 2.3961
-5.9346 2.8352 2.3961
-6.0429 2.6264 2.3961
-6.1434 2.4133 2.3961
-6.2360 2.1964 2.3961
-6.3205 1.9758 2.3961
-6.3967 1.7518 2.3961
-6.4644 1.5249 2.3961
-6.5236 1.2953 2.3961
-6.5741 1.0634 2.3961
-6.6159 0.8295 2.3961
-6.6487 0.5939 2.3961
-6.6726 0.3571 2.3961
-6.6875 0.1193 2.3961
-6.6934 -0.1191 2.3961
-6.6901 -0.3576 2.3961
-6.6777 -0.5961 2.3961
-6.6563 -0.8340 2.3961
-6.6257 -1.0710 2.3961
-6.5861 -1.3067 2.3961
-6.5375 -1.5409 2.3961
-6.4800 -1.7730 2.3961
-6.4136 -2.0029 2.3961
-6.3385 -2.2300 2.3961
-6.2547 -2.4541 2.3961
-6.1624 -2.6748 2.3961
-6.0618 -2.8918 2.3961
-5.9530 -3.1047 2.3961
-5.8361 -3.3133 2.3961
-5.7114 -3.5171 2.3961
-5.5791 -3.7160 2.3961
-5.4394 -3.9095 2.3961
-5.2925 -4.0975 2.3961
-5.1386 -4.2796 2.3961
-4.9781 -4.4555 2.3961
-4.8111 -4.6251 2.3961
-4.6379 -4.7881 2.3961
-4.4589 -4.9442 2.3961
-4.2742 -5.0933 2.3961
-4.0843 -5.2351 2.3961
-3.8893 -5.3695 2.3961
-3.6897 -5.4963 2.3961
-3.4858 -5.6153 2.3961
-3.2777 -5.7264 2.3961
-3.0660 -5.8294 2.3961
-2.8508 -5.9243 2.3961
-2.6326 -6.0109 2.3961
-2.4117 -6.0892 2.3961
-2.1884 -6.1591 2.3961
-1.9630 -6.2205 2.3961
-1.7359 -6.2734 2.3961
-1.5074 -6.3178 2.3961
-1.2778 -6.3536 2.3961
-1.0475 -6.3808 2.3961
-0.8168 -6.3996 2.3961
-0.5860 -6.4097 2.3961
-0.3555 -6.4115 2.3961
-0.1255 -6.4048 2.3961
0.1036 -6.3897 2.3961
0.3315 -6.3663 2.3961
0.5579 -6.3347 2.3961
0.7826 -6.2951 2.3961
1.0052 -6.2474 2.3961
1.2254 -6.1918 2.3961
1.4430 -6.1284 2.3961
1.6578 -6.0575 2.3961
1.8693 -5.9790 2.3961
2.0775 -5.8932 2.3961
2.2821 -5.8002 2.3961
2.4827 -5.7002 2.3961
2.6792 -5.5933 2.3961
2.8714 -5.4798 2.3961
3.0590 -5.3598 2.3961
3.2419 -5.2336 2.3961
3.4198 -5.1012 2.3961
3.5926 -4.9630 2.3961
3.7391 -4.7922 2.3827
3.8155 -4.5428 2.3310
3.8880 -4.3043 2.2843
3.9647 -4.0832 2.2464
4.0952 -3.9242 2.2437
4.2249 -3.7658 2.2437
4.3487 -3.6033 2.2437
4.4666 -3.4369 2.2437
4.5785 -3.2669 2.2437
4.6842 -3.0934 2.2437
4.7837 -2.9167 2.2437
4.8769 -2.7369 2.2437
4.9637 -2.5543 2.2437
5.0441 -2.3692 2.2437
5.1179 -2.1817 2.2437
5.1851 -1.9920 2.2437
5.2457 -1.8005 2.2437
5.2997 -1.6072 2.2437
5.3470 -1.4125 2.2437
5.3875 -1.2164 2.2437
5.4213 -1.0194 2.2437
5.4483 -0.8215 2.2437
5.4686 -0.6230 2.2437
5.4821 -0.4242 2.2437
5.4888 -0.2252 2.2437
5.4887 -0.0262 2.2437
5.4819 0.1725 2.2437
5.4683 0.3708 2.2437
5.4481 0.5683 2.2437
5.4234 0.7653 2.2446
5.3876 0.9606 2.2437
5.3657 1.1587 2.2513
5.4143 1.3764 2.2917
5.4787 1.6062 2.3425
5.5404 1.8449 2.3961
5.4700 2.0445 2.3961
5.3928 2.2417 2.3961
5.3090 2.4361 2.3961
5.2187 2.6276 2.3961
5.1219 2.8160 2.3961
5.0187 3.0011 2.3961
4.9092 3.1827 2.3961
4.7936 3.3605 2.3961
4.6720 3.5345 2.3961
4.5444 3.7043 2.3961
4.4111 3.8698 2.3961
4.2721 4.0308 2.3961
4.1276 4.1871 2.3961
3.9776 4.3386 2.3961
3.8225 4.4850 2.3961
3.6623 4.6262 2.3961
3.4971 4.7621 2.3961
3.3273 4.8923 2.3961
3.1528 5.0169 2.3961
2.9739 5.1356 2.3961
2.7908 5.2482 2.3961
2.6036 5.3546 2.3961
2.4127 5.4547 2.3961
2.2180 5.5483 2.3961
0.8280 2.3101 0.9822
0.7444 2.3393 0.9807
0.6597 2.3655 0.9791
0.5741 2.3887 0.9775
0.4877 2.4087 0.9758
0.4007 2.4257 0.9741
0.3131 2.4394 0.9723
0.2251 2.4500 0.9705
0.1367 2.4574 0.9687
0.0481 2.4617 0.9668
-0.0406 2.4627 0.9649
-0.1293 2.4605 0.9629
-0.2178 2.4551 0.9610
-0.3061 2.4465 0.9590
-0.3940 2.4347 0.9569
-0.4814 2.4198 0.9549
-0.5683 2.4017 0.9528
-0.6544 2.3805 0.9508
-0.7397 2.3561 0.9487
-0.8241 2.3288 0.9466
-0.9074 2.2984 0.9445
-2.5160 5.7589 2.3961
-2.7278 5.6793 2.3961
-2.9371 5.5918 2.3961
-3.1435 5.4967 2.3961
-3.3468 5.3939 2.3961
-3.5466 5.2836 2.3961
-3.7428 5.1659 2.3961
-3.9349 5.0408 2.3961
-4.1227 4.9086 2.3961
-4.3060 4.7693 2.3961
-4.4844 4.6230 2.3961
-4.6576 4.4700 2.3961
-4.8254 4.3104 2.3961
-4.9876 4.1445 2.3961
-5.1437 3.9723 2.3961
-5.2937 3.7941 2.3961
-5.4372 3.6102 2.3961
-5.5740 3.4207 2.3961
-5.7039 3.2259 2.3961
-5.8267 3.0261 2.3961
-5.9420 2.8215 2.3961
-6.0498 2.6124 2.3961
-6.1498 2.3991 2.3961
-6.2419 2.1819 2.3961
-6.3258 1.9610 2.3961
-6.4014 1.7369 2.3961
-6.4686 1.5098 2.3961
-6.5272 1.2801 2.3961
-6.5772 1.0480 2.3961
-6.6183 0.8140 2.3961
-6.6506 0.5783 2.3961
-6.6739 0.3414 2.3961
-6.6882 0.1035 2.3961
-6.6934 -0.1349 2.3961
-6.6896 -0.3734 2.3961
-6.6766 -0.6118 2.3961
-6.6545 -0.8497 2.3961
-6.6234 -1.0866 2.3961
-6.5832 -1.3223 2.3961
-6.5340 -1.5563 2.3961
-6.4758 -1.7883 2.3961
-6.4089 -2.0180 2.3961
-6.3332 -2.2449 2.3961
-6.2488 -2.4688 2.3961
-6.1560 -2.6893 2.3961
-6.0548 -2.9060 2.3961
-5.9455 -3.1187 2.3961
-5.8281 -3.3269 2.3961
-5.7029 -3.5304 2.3961
-5.5701 -3.7289 2.3961
-5.4299 -3.9221 2.3961
-5.2825 -4.1097 2.3961
-5.1282 -4.2914 2.3961
-4.9672 -4.4669 2.3961
-4.7998 -4.6361 2.3961
-4.6262 -4.7986 2.3961
-4.4468 -4.9543 2.3961
-4.2618 -5.1029 2.3961
-4.0715 -5.2442 2.3961
-3.8763 -5.3781 2.3961
-3.6764 -5.5044 2.3961
-3.4721 -5.6229 2.3961
-3.2638 -5.7334 2.3961
-3.0518 -5.8359 2.3961
-2.8365 -5.9303 2.3961
-2.6181 -6.0164 2.3961
-2.3970 -6.0941 2.3961
-2.1735 -6.1634 2.3961
-1.9480 -6.2243 2.3961
-1.7208 -6.2766 2.3961
-1.4922 -6.3204 2.3961
-1.2626 -6.3556 2.3961
-1.0322 -6.3823 2.3961
-0.8015 -6.4005 2.3961
-0.5708 -6.4101 2.3961
-0.3403 -6.4113 2.3961
-0.1103 -6.4040 2.3961
0.1187 -6.3884 2.3961
0.3465 -6.3645 2.3961
0.5728 -6.3324 2.3961
0.7974 -6.2921 2.3961
1.0198 -6.2439 2.3961
1.2399 -6.1878 2.3961
1.4573 -6.1240 2.3961
-6.2406 0.1247 2.3961
-6.2462 -0.0976 2.3961
-6.2435 -0.3201 2.3961
-6.2322 -0.5424 2.3961
-6.2125 -0.7643 2.3961
-6.1844 -0.9854 2.3961
-6.1479 -1.2053 2.3961
-6.1030 -1.4237 2.3961
-6.0498 -1.6403 2.3961
-5.9884 -1.8548 2.3961
-5.9189 -2.0667 2.3961
-5.8413 -2.2759 2.3961
-5.7558 -2.4819 2.3961
-5.6626 -2.6846 2.3961
-5.5617 -2.8834 2.3961
-5.4534 -3.0783 2.3961
-5.3378 -3.2688 2.3961
-5.2150 -3.4546 2.3961
-5.0854 -3.6356 2.3961
-4.9490 -3.8114 2.3961
-4.8062 -3.9819 2.3961
-4.6571 -4.1466 2.3961
-4.5020 -4.3055 2.3961
-4.3411 -4.4582 2.3961
-4.1748 -4.6046 2.3961
-4.0031 -4.7445 2.3961
-3.8266 -4.8777 2.3961
-3.6453 -5.0040 2.3961
-3.4596 -5.1232 2.3961
-3.2698 -5.2353 2.3961
-3.0762 -5.3400 2.3961
-2.8790 -5.4372 2.3961
-2.6786 -5.5269 2.3961
-2.4753 -5.6089 2.3961
-2.2695 -5.6832 2.3961
-2.0613 -5.7496 2.3961
-1.8511 -5.8082 2.3961
-1.6392 -5.8589 2.3961
-1.4260 -5.9016 2.3961
-1.2117 -5.9363 2.3961
-0.9967 -5.9631 2.3961
-0.7812 -5.9819 2.3961
-0.5656 -5.9927 2.3961
-0.3501 -5.9957 2.3961
-0.1350 -5.9907 2.3961
0.0793 -5.9780 2.3961
0.2925 -5.9575 2.3961
0.5045 -5.9292 2.3961
0.7149 -5.8934 2.3961
0.9234 -5.8501 2.3961
1.1298 -5.7994 2.3961
1.3339 -5.7414 2.3961
1.5353 -5.6762 2.3961
1.7338 -5.6040 2.3961
1.9292 -5.5249 2.3961
2.1212 -5.4390 2.3961
2.3097 -5.3465 2.3961
2.4944 -5.2476 2.3961
2.6751 -5.1424 2.3961
2.8515 -5.0310 2.3961
3.0236 -4.9138 2.3961
3.1910 -4.7907 2.3961
3.3538 -4.6621 2.3961
3.5115 -4.5281 2.3961
3.6642 -4.3889 2.3961
3.8116 -4.2447 2.3961
3.9310 -4.0724 2.3824
3.9973 -3.8529 2.3418
4.0608 -3.6409 2.3053
4.1218 -3.4356 2.2726
4.1879 -3.2418 2.2475
4.2866 -3.0773 2.2437
4.3866 -2.9150 2.2437
4.4808 -2.7496 2.2437
4.5692 -2.5814 2.2437
4.6515 -2.4104 2.2437
4.7278 -2.2369 2.2437
4.7979 -2.0612 2.2437
4.8619 -1.8834 2.2437
4.9196 -1.7038 2.2437
4.9711 -1.5225 2.2437
5.0163 -1.3398 2.2437
5.0551 -1.1559 2.2437
5.0876 -0.9709 2.2437
5.1137 -0.7851 2.2437
5.1334 -0.5987 2.2437
5.1468 -0.4119 2.2437
5.1538 -0.2250 2.2437
5.1544 -0.0380 2.2437
5.1486 0.1487 2.2437
5.1462 0.3357 2.2479
5.1839 0.5275 2.2726
5.2309 0.7247 2.3043
5.2793 0.9276 2.3399
5.3288 1.1369 2.3793
5.3200 1.3385 2.3961
5.2671 1.5303 2.3961
5.2078 1.7202 2.3961
5.1420 1.9080 2.3961
5.0699 2.0934 2.3961
4.9915 2.2762 2.3961
4.9069 2.4564 2.3961
4.8162 2.6336 2.3961
4.7195 2.8077 2.3961
4.6170 2.9784 2.3961
4.5085 3.1457 2.3961
4.3945 3.3093 2.3961
4.2748 3.4689 2.3961
4.1497 3.6246 2.3961
4.0192 3.7759 2.3961
3.8836 3.9229 2.3961
3.7428 4.0653 2.3961
3.5972 4.2029 2.3961
3.4468 4.3356 2.3961
3.2917 4.4632 2.3961
3.1322 4.5856 2.3961
2.9684 4.7025 2.3961
2.8005 4.8140 2.3961
2.6286 4.9197 2.3961
2.4529 5.0195 2.3961
2.2736 5.1135 2.3961
0.8561 2.1296 0.9810
0.7789 2.1599 0.9797
0.7006 2.1875 0.9782
0.6214 2.2122 0.9768
0.5414 2.2341 0.9752
0.4606 2.2530 0.9737
0.3791 2.2690 0.9721
0.2972 2.2821 0.9704
0.2148 2.2922 0.9687
0.1321 2.2993 0.9670
0.0492 2.3035 0.9653
-0.0338 2.3046 0.9635
-0.1168 2.3027 0.9617
-0.1997 2.2979 0.9598
-0.2824 2.2900 0.9579
-0.3647 2.2792 0.9560
-0.4465 2.2654 0.9541
-0.5279 2.2487 0.9522
-0.6085 2.2290 0.9503
-0.6884 2.2065 0.9483
-0.7674 2.1810 0.9463
-0.8455 2.1528 0.9444
-0.9225 2.1217 0.9424
-2.5435 5.3196 2.3961
-2.7391 5.2374 2.3961
-2.9321 5.1482 2.3961
-3.1221 5.0518 2.3961
-3.3088 4.9483 2.3961
-3.4920 4.8380 2.3961
-3.6715 4.7208 2.3961
-3.8469 4.5969 2.3961
-4.0180 4.4665 2.3961
-4.1845 4.3296 2.3961
-4.3462 4.1864 2.3961
-4.5029 4.0372 2.3961
-4.6541 3.8819 2.3961
-4.7998 3.7209 2.3961
-4.9397 3.5544 2.3961
-5.0736 3.3825 2.3961
-5.2012 3.2055 2.3961
-5.3224 3.0235 2.3961
-5.4368 2.8369 2.3961
-5.5444 2.6459 2.3961
-5.6449 2.4506 2.3961
-5.7382 2.2515 2.3961
-5.8240 2.0488 2.3961
-5.9023 1.8427 2.3961
-5.9729 1.6336 2.3961
-6.0356 1.4217 2.3961
-6.0903 1.2074 2.3961
-6.1370 0.9909 2.3961
-6.1755 0.7726 2.3961
-6.2057 0.5528 2.3961
-6.2277 0.3318 2.3961
-6.2412 0.1100 2.3961
-6.2463 -0.1123 2.3961
-6.2430 -0.3348 2.3961
-6.2312 -0.5571 2.3961
-6.2110 -0.7790 2.3961
-6.1823 -1.0000 2.3961
-6.1452 -1.2198 2.3961
-6.0997 -1.4381 2.3961
-6.0460 -1.6546 2.3961
-5.9841 -1.8689 2.3961
-5.9140 -2.0807 2.3961
-5.8359 -2.2896 2.3961
-5.7499 -2.4955 2.3961
-5.6562 -2.6978 2.3961
-5.5548 -2.8964 2.3961
-5.4460 -3.0910 2.3961
-5.3299 -3.2812 2.3961
-5.2067 -3.4668 2.3961
-5.0766 -3.6474 2.3961
-4.9398 -3.8229 2.3961
-4.7965 -3.9929 2.3961
-4.6470 -4.1573 2.3961
-4.4916 -4.3158 2.3961
-4.3303 -4.4681 2.3961
-4.1636 -4.6141 2.3961
-3.9916 -4.7536 2.3961
-3.8147 -4.8863 2.3961
-3.6331 -5.0121 2.3961
-3.4471 -5.1309 2.3961
-3.2571 -5.2424 2.3961
-3.0632 -5.3467 2.3961
-2.8658 -5.4434 2.3961
-2.6653 -5.5326 2.3961
-2.4618 -5.6141 2.3961
-2.2557 -5.6878 2.3961
-2.0474 -5.7538 2.3961
-1.8371 -5.8118 2.3961
-1.6252 -5.8619 2.3961
-1.4119 -5.9041 2.3961
-1.1975 -5.9383 2.3961
-0.9824 -5.9646 2.3961
-0.7669 -5.9828 2.3961
-0.5513 -5.9932 2.3961
-0.3358 -5.9956 2.3961
-0.1208 -5.9901 2.3961
0.0934 -5.9769 2.3961
0.3066 -5.9558 2.3961
0.5185 -5.9271 2.3961
0.7287 -5.8908 2.3961
0.9371 -5.8470 2.3961
1.1434 -5.7958 2.3961
1.3473 -5.7373 2.3961
1.5485 -5.6717 2.3961
1.7468 -5.5990 2.3961
1.9420 -5.5194 2.3961
2.1338 -5.4331 2.3961
2.3220 -5.3402 2.3961
2.5065 -5.2408 2.3961
2.6869 -5.1352 2.3961
2.8630 -5.0235 2.3961
3.0348 -4.9058 2.3961
3.2020 -4.7824 2.3961
3.3643 -4.6534 2.3961
3.5218 -4.5191 2.3961
3.6741 -4.3795 2.3961
3.8211 -4.2350 2.3961
3.9355 -4.0577 2.3796
4.0016 -3.8386 2.3392
4.0649 -3.6271 2.3030
4.1258 -3.4222 2.2706
4.1926 -3.2295 2.2462
4.2934 -3.0667 2.2437
4.3931 -2.9042 2.2437
4.4869 -2.7386 2.2437
4.5748 -2.5701 2.2437
4.6567 -2.3990 2.2437
4.7326 -2.2254 2.2437
4.8023 -2.0495 2.2437
4.8659 -1.8716 2.2437
4.9232 -1.6919 2.2437
4.9742 -1.5105 2.2437
5.0190 -1.3277 2.2437
5.0574 -1.1436 2.2437
5.0895 -0.9586 2.2437
5.1152 -0.7728 2.2437
5.1345 -0.5864 2.2437
5.1475 -0.3996 2.2437
5.1540 -0.2126 2.2437
5.1542 -0.0256 2.2437
5.1480 0.1611 2.2437
5.1482 0.3482 2.2493
5.1870 0.5404 2.2746
5.2341 0.7380 2.3065
5.2825 0.9413 2.3424
5.3321 1.1510 2.3820
5.3167 1.3513 2.3961
5.2634 1.5429 2.3961
5.2036 1.7327 2.3961
5.1374 1.9203 2.3961
5.0649 2.1055 2.3961
4.9861 2.2882 2.3961
4.9011 2.4682 2.3961
4.8100 2.6452 2.3961
4.7129 2.8191 2.3961
4.6099 2.9896 2.3961
4.5012 3.1566 2.3961
4.3867 3.3200 2.3961
4.2667 3.4794 2.3961
4.1412 3.6347 2.3961
4.0104 3.7858 2.3961
3.8744 3.9325 2.3961
3.7334 4.0745 2.3961
3.5874 4.2118 2.3961
3.4367 4.3442 2.3961
3.2813 4.4715 2.3961
3.1215 4.5935 2.3961
2.9574 4.7101 2.3961
2.7892 4.8211 2.3961
2.6171 4.9265 2.3961
2.4411 5.0260 2.3961
2.2616 5.1195 2.3961
0.8510 2.1317 0.9809
0.7737 2.1618 0.9796
0.6954 2.1892 0.9781
0.6162 2.2137 0.9767
0.5360 2.2354 0.9751
0.4552 2.2542 0.9736
0.3737 2.2700 0.9720
0.2917 2.2829 0.9703
0.2093 2.2928 0.9686
0.1266 2.2997 0.9669
0.0437 2.3036 0.9651
-0.0393 2.3046 0.9634
-0.1223 2.3025 0.9615
-0.2052 2.2975 0.9597
-0.2878 2.2894 0.9578
-0.3701 2.2784 0.9559
-0.4519 2.2644 0.9540
-0.5332 2.2475 0.9521
-0.6138 2.2276 0.9501
-0.6937 2.2049 0.9482
-0.7726 2.1792 0.9462
-0.8506 2.1508 0.9442
-0.9275 2.1195 0.9423
-2.5565 5.3143 2.3961
-2.7520 5.2318 2.3961
-2.9447 5.1420 2.3961
-3.1345 5.0451 2.3961
-3.3210 4.9413 2.3961
-3.5040 4.8305 2.3961
-3.6833 4.7128 2.3961
-3.8584 4.5885 2.3961
-4.0292 4.4576 2.3961
-4.1954 4.3203 2.3961
-4.3567 4.1768 2.3961
-4.5131 4.0271 2.3961
-4.6639 3.8715 2.3961
-4.8093 3.7101 2.3961
-4.9488 3.5432 2.3961
-5.0822 3.3709 2.3961
-5.2094 3.1936 2.3961
-5.3301 3.0113 2.3961
-5.4441 2.8244 2.3961
-5.5512 2.6331 2.3961
-5.6513 2.4376 2.3961
-5.7441 2.2382 2.3961
-5.8294 2.0353 2.3961
-5.9072 1.8290 2.3961
-5.9773 1.6196 2.3961
-6.0395 1.4076 2.3961
-6.0937 1.1931 2.3961
-6.1398 0.9765 2.3961
-6.1778 0.7581 2.3961
-6.2075 0.5382 2.3961
-6.2288 0.3172 2.3961
-6.2418 0.0953 2.3961
-6.2463 -0.1270 2.3961
-6.2425 -0.3495 2.3961
-6.2301 -0.5718 2.3961
-6.2093 -0.7936 2.3961
-6.1801 -1.0145 2.3961
-6.1424 -1.2343 2.3961
-6.0964 -1.4525 2.3961
-6.0421 -1.6688 2.3961
-5.9797 -1.8830 2.3961
-5.9091 -2.0946 2.3961
-5.8305 -2.3034 2.3961
-5.7439 -2.5090 2.3961
-5.6497 -2.7111 2.3961
-5.5478 -2.9094 2.3961
-5.4385 -3.1037 2.3961
-5.3219 -3.2936 2.3961
-5.1983 -3.4789 2.3961
-5.0677 -3.6592 2.3961
-4.9305 -3.8343 2.3961
-4.7868 -4.0040 2.3961
-4.6369 -4.1680 2.3961
-4.4811 -4.3260 2.3961
-4.3194 -4.4780 2.3961
-4.1523 -4.6235 2.3961
-3.9801 -4.7625 2.3961
-3.8028 -4.8948 2.3961
-3.6210 -5.0202 2.3961
-3.4347 -5.1385 2.3961
-3.2444 -5.2496 2.3961
-3.0503 -5.3533 2.3961
-2.8527 -5.4495 2.3961
-2.6519 -5.5382 2.3961
-2.4482 -5.6192 2.3961
-2.2420 -5.6924 2.3961
-2.0336 -5.7578 2.3961
-1.8231 -5.8154 2.3961
-1.6111 -5.8650 2.3961
-1.3977 -5.9066 2.3961
-1.1833 -5.9403 2.3961
-0.9682 -5.9660 2.3961
-0.7527 -5.9838 2.3961
-0.5370 -5.9936 2.3961
-0.3216 -5.9955 2.3961
-0.1066 -5.9895 2.3961
0.1076 -5.9757 2.3961
0.3207 -5.9542 2.3961
0.5325 -5.9249 2.3961
0.7426 -5.8881 2.3961
0.9509 -5.8438 2.3961
1.1570 -5.7922 2.3961
1.3607 -5.7332 2.3961
-5.8438 0.1155 2.3961
-5.8488 -0.0925 2.3961
-5.8459 -0.3007 2.3961
-5.8352 -0.5088 2.3961
-5.8166 -0.7164 2.3961
-5.7902 -0.9232 2.3961
-5.7558 -1.1289 2.3961
-5.7137 -1.3333 2.3961
-5.6639 -1.5359 2.3961
-5.6064 -1.7366 2.3961
-5.5413 -1.9349 2.3961
-5.4688 -2.1306 2.3961
-5.3889 -2.3234 2.3961
-5.3017 -2.5130 2.3961
-5.2074 -2.6991 2.3961
-5.1062 -2.8815 2.3961
-4.9981 -3.0598 2.3961
-4.8834 -3.2339 2.3961
-4.7623 -3.4034 2.3961
-4.6349 -3.5680 2.3961
-4.5014 -3.7277 2.3961
-4.3621 -3.8821 2.3961
-4.2172 -4.0310 2.3961
-4.0668 -4.1742 2.3961
-3.9114 -4.3115 2.3961
-3.7509 -4.4428 2.3961
-3.5859 -4.5678 2.3961
-3.4164 -4.6864 2.3961
-3.2428 -4.7984 2.3961
-3.0653 -4.9038 2.3961
-2.8843 -5.0022 2.3961
-2.6999 -5.0938 2.3961
-2.5125 -5.1783 2.3961
-2.3222 -5.2556 2.3961
-2.1296 -5.3257 2.3961
-1.9347 -5.3885 2.3961
-1.7380 -5.4440 2.3961
-1.5396 -5.4921 2.3961
-1.3399 -5.5327 2.3961
-1.1392 -5.5659 2.3961
-0.9377 -5.5916 2.3961
-0.7358 -5.6099 2.3961
-0.5336 -5.6207 2.3961
-0.3316 -5.6242 2.3961
-0.1299 -5.6202 2.3961
0.0711 -5.6089 2.3961
0.2712 -5.5904 2.3961
0.4701 -5.5646 2.3961
0.6676 -5.5317 2.3961
0.8634 -5.4917 2.3961
1.0573 -5.4448 2.3961
1.2490 -5.3911 2.3961
1.4382 -5.3305 2.3961
1.6248 -5.2634 2.3961
1.8085 -5.1898 2.3961
1.9891 -5.1097 2.3961
2.1664 -5.0235 2.3961
2.3402 -4.9312 2.3961
2.5103 -4.8329 2.3961
2.6764 -4.7288 2.3961
2.8384 -4.6192 2.3961
2.9962 -4.5041 2.3961
3.1495 -4.3837 2.3961
3.2982 -4.2582 2.3961
3.4421 -4.1278 2.3961
3.5811 -3.9927 2.3961
3.7151 -3.8530 2.3961
3.8438 -3.7090 2.3961
3.9672 -3.5608 2.3961
4.0852 -3.4087 2.3961
4.1590 -3.2230 2.3741
4.2158 -3.0298 2.3468
4.2707 -2.8410 2.3229
4.3239 -2.6562 2.3021
4.3757 -2.4747 2.2844
4.4261 -2.2961 2.2696
4.4760 -2.1202 2.2580
4.5290 -1.9480 2.2511
4.5798 -1.7763 2.2463
4.6293 -1.6053 2.2437
4.6781 -1.4347 2.2437
4.7209 -1.2627 2.2437
4.7637 -1.0909 2.2465
4.8051 -0.9185 2.2514
4.8446 -0.7453 2.2582
4.8886 -0.5715 2.2698
4.9330 -0.3961 2.2843
4.9775 -0.2184 2.3017
5.0222 -0.0381 2.3220
5.0671 0.1454 2.3453
5.1124 0.3326 2.3718
5.1462 0.5229 2.3961
5.1215 0.7089 2.3961
5.0904 0.8939 2.3961
5.0530 1.0777 2.3961
5.0094 1.2601 2.3961
4.9596 1.4408 2.3961
4.9037 1.6197 2.3961
4.8417 1.7966 2.3961
4.7738 1.9713 2.3961
4.6999 2.1436 2.3961
4.6201 2.3133 2.3961
4.5346 2.4802 2.3961
4.4434 2.6442 2.3961
4.3467 2.8050 2.3961
4.2444 2.9625 2.3961
4.1368 3.1165 2.3961
4.0239 3.2668 2.3961
3.9059 3.4133 2.3961
3.7828 3.5557 2.3961
3.6549 3.6939 2.3961
3.5221 3.8279 2.3961
3.3848 3.9573 2.3961
3.2429 4.0820 2.3961
3.0967 4.2019 2.3961
2.9463 4.3168 2.3961
2.7919 4.4267 2.3961
2.6335 4.5312 2.3961
2.4715 4.6304 2.3961
2.3059 4.7241 2.3961
0.8739 1.9678 0.9798
0.8025 1.9989 0.9786
0.7300 2.0274 0.9773
0.6565 2.0532 0.9760
0.5821 2.0764 0.9746
0.5070 2.0969 0.9731
0.4311 2.1147 0.9717
0.3547 2.1297 0.9702
0.2777 2.1420 0.9686
0.2004 2.1515 0.9670
0.1227 2.1582 0.9654
0.0449 2.1620 0.9638
-0.0330 2.1631 0.9621
-0.1110 2.1614 0.9604
-0.1888 2.1568 0.9587
-0.2664 2.1494 0.9569
-0.3436 2.1393 0.9551
-0.4205 2.1263 0.9533
-0.4968 2.1106 0.9515
-0.5725 2.0921 0.9497
-0.6476 2.0710 0.9479
-0.7217 2.0471 0.9460
-0.7950 2.0205 0.9442
-0.8673 1.9914 0.9423
-2.3910 4.9927 2.3961
-2.5743 4.9150 2.3961
-2.7551 4.8306 2.3961
-2.9331 4.7395 2.3961
-3.1079 4.6419 2.3961
-3.2794 4.5377 2.3961
-3.4474 4.4273 2.3961
-3.6115 4.3105 2.3961
-3.7715 4.1877 2.3961
-3.9272 4.0588 2.3961
-4.0784 3.9241 2.3961
-4.2247 3.7837 2.3961
-4.3660 3.6377 2.3961
-4.5021 3.4864 2.3961
-4.6328 3.3300 2.3961
-4.7577 3.1685 2.3961
-4.8768 3.0023 2.3961
-4.9898 2.8315 2.3961
-5.0965 2.6564 2.3961
-5.1968 2.4772 2.3961
-5.2904 2.2941 2.3961
-5.3773 2.1074 2.3961
-5.4572 1.9174 2.3961
-5.5301 1.7243 2.3961
-5.5957 1.5283 2.3961
-5.6540 1.3298 2.3961
-5.7048 1.1291 2.3961
-5.7481 0.9264 2.3961
-5.7838 0.7220 2.3961
-5.8118 0.5162 2.3961
-5.8320 0.3094 2.3961
-5.8443 0.1018 2.3961
-5.8488 -0.1063 2.3961
-5.8455 -0.3145 2.3961
-5.8342 -0.5225 2.3961
-5.8151 -0.7301 2.3961
-5.7881 -0.9368 2.3961
-5.7533 -1.1425 2.3961
-5.7107 -1.3468 2.3961
-5.6603 -1.5493 2.3961
-5.6023 -1.7498 2.3961
-5.5368 -1.9479 2.3961
-5.4637 -2.1435 2.3961
-5.3833 -2.3361 2.3961
-5.2957 -2.5254 2.3961
-5.2009 -2.7113 2.3961
-5.0992 -2.8934 2.3961
-4.9907 -3.0715 2.3961
-4.8756 -3.2452 2.3961
-4.7540 -3.4144 2.3961
-4.6262 -3.5788 2.3961
-4.4924 -3.7381 2.3961
-4.3527 -3.8921 2.3961
-4.2074 -4.0406 2.3961
-4.0567 -4.1835 2.3961
-3.9009 -4.3204 2.3961
-3.7402 -4.4513 2.3961
-3.5748 -4.5759 2.3961
-3.4051 -4.6940 2.3961
-3.2312 -4.8056 2.3961
-3.0535 -4.9105 2.3961
-2.8722 -5.0085 2.3961
-2.6876 -5.0996 2.3961
-2.4999 -5.1836 2.3961
-2.3096 -5.2605 2.3961
-2.1168 -5.3301 2.3961
-1.9218 -5.3924 2.3961
-1.7249 -5.4474 2.3961
-1.5264 -5.4950 2.3961
-1.3267 -5.5351 2.3961
-1.1259 -5.5678 2.3961
-0.9244 -5.5931 2.3961
-0.7224 -5.6108 2.3961
-0.5203 -5.6212 2.3961
-0.3182 -5.6241 2.3961
-0.1166 -5.6197 2.3961
0.0843 -5.6079 2.3961
0.2844 -5.5889 2.3961
0.4832 -5.5626 2.3961
0.6806 -5.5293 2.3961
0.8763 -5.4889 2.3961
1.0700 -5.4415 2.3961
1.2615 -5.3873 2.3961
1.4507 -5.3263 2.3961
1.6371 -5.2587 2.3961
1.8206 -5.1847 2.3961
2.0010 -5.1042 2.3961
2.1780 -5.0176 2.3961
2.3516 -4.9248 2.3961
2.5214 -4.8262 2.3961
2.6872 -4.7218 2.3961
2.8490 -4.6117 2.3961
3.0065 -4.4963 2.3961
3.1595 -4.3756 2.3961
3.3079 -4.2497 2.3961
3.4515 -4.1190 2.3961
3.5901 -3.9836 2.3961
3.7237 -3.8436 2.3961
3.8521 -3.6994 2.3961
3.9752 -3.5509 2.3961
4.0928 -3.3985 2.3961
4.1629 -3.2100 2.3722
4.2195 -3.0171 2.3451
4.2742 -2.8287 2.3214
4.3274 -2.6441 2.3009
4.3791 -2.4629 2.2834
4.4294 -2.2844 2.2688
4.4796 -2.1088 2.2575
4.5324 -1.9366 2.2508
4.5831 -1.7650 2.2460
4.6327 -1.5940 2.2437
4.6811 -1.4233 2.2437
4.7235 -1.2513 2.2436
4.7665 -1.0795 2.2467
4.8077 -0.9071 2.2517
4.8470 -0.7337 2.2586
4.8915 -0.5600 2.2706
4.9359 -0.3844 2.2854
4.9804 -0.2066 2.3030
5.0251 -0.0260 2.3235
5.0701 0.1577 2.3470
5.1154 0.3452 2.3737
5.1448 0.5352 2.3961
5.1196 0.7212 2.3961
5.0881 0.9061 2.3961
5.0503 1.0898 2.3961
5.0063 1.2721 2.3961
4.9561 1.4527 2.3961
4.8998 1.6315 2.3961
4.8374 1.8082 2.3961
4.7691 1.9828 2.3961
4.6947 2.1549 2.3961
4.6146 2.3244 2.3961
4.5287 2.4912 2.3961
4.4372 2.6549 2.3961
4.3401 2.8155 2.3961
4.2375 2.9728 2.3961
4.1295 3.1265 2.3961
4.0163 3.2766 2.3961
3.8979 3.4228 2.3961
3.7745 3.5650 2.3961
3.6462 3.7029 2.3961
3.5132 3.8366 2.3961
3.3755 3.9657 2.3961
3.2334 4.0901 2.3961
3.0869 4.2097 2.3961
2.9362 4.3243 2.3961
2.7815 4.4338 2.3961
2.6229 4.5380 2.3961
2.4607 4.6368 2.3961
2.2948 4.7301 2.3961
0.8692 1.9699 0.9797
0.7977 2.0008 0.9785
0.7251 2.0292 0.9772
0.6516 2.0548 0.9759
0.5772 2.0779 0.9745
0.5020 2.0982 0.9730
0.4261 2.1158 0.9716
0.3496 2.1306 0.9701
0.2726 2.1427 0.9685
0.1952 2.1520 0.9669
0.1176 2.1585 0.9653
0.0397 2.1622 0.9637
-0.0382 2.1631 0.9620
-0.1161 2.1611 0.9603
-0.1939 2.1564 0.9585
-0.2715 2.1488 0.9568
-0.3487 2.1385 0.9550
-0.4255 2.1254 0.9532
-0.5018 2.1095 0.9514
-0.5775 2.0908 0.9496
-0.6525 2.0695 0.9477
-0.7266 2.0454 0.9459
-0.7998 2.0187 0.9440
-0.8720 1.9894 0.9422
-2.4032 4.9877 2.3961
-2.5864 4.9096 2.3961
-2.7670 4.8247 2.3961
-2.9447 4.7332 2.3961
-3.1194 4.6352 2.3961
-3.2907 4.5306 2.3961
-3.4584 4.4197 2.3961
-3.6222 4.3026 2.3961
-3.7819 4.1793 2.3961
-3.9374 4.0501 2.3961
-4.0882 3.9150 2.3961
-4.2342 3.7742 2.3961
-4.3752 3.6279 2.3961
-4.5109 3.4762 2.3961
-4.6412 3.3194 2.3961
-4.7658 3.1576 2.3961
-4.8844 2.9911 2.3961
-4.9970 2.8201 2.3961
-5.1033 2.6447 2.3961
-5.2032 2.4652 2.3961
-5.2964 2.2819 2.3961
-5.3828 2.0950 2.3961
-5.4623 1.9047 2.3961
-5.5346 1.7114 2.3961
-5.5998 1.5153 2.3961
-5.6576 1.3166 2.3961
-5.7079 1.1157 2.3961
-5.7507 0.9129 2.3961
-5.7859 0.7084 2.3961
-5.8133 0.5026 2.3961
-5.8330 0.2957 2.3961
-5.8449 0.0880 2.3961
-5.8489 -0.1201 2.3961
-5.8450 -0.3282 2.3961
-5.8332 -0.5363 2.3961
-5.8136 -0.7438 2.3961
-5.7861 -0.9505 2.3961
-5.7507 -1.1561 2.3961
-5.7076 -1.3602 2.3961
-5.6567 -1.5626 2.3961
-5.5982 -1.7630 2.3961
-5.5322 -1.9610 2.3961
-5.4586 -2.1563 2.3961
-5.3777 -2.3487 2.3961
-5.2896 -2.5379 2.3961
-5.1944 -2.7235 2.3961
-5.0923 -2.9053 2.3961
-4.9833 -3.0831 2.3961
-4.8677 -3.2566 2.3961
-4.7458 -3.4254 2.3961
-4.6176 -3.5895 2.3961
-4.4833 -3.7484 2.3961
-4.3432 -3.9021 2.3961
-4.1976 -4.0503 2.3961
-4.0466 -4.1927 2.3961
-3.8904 -4.3293 2.3961
-3.7294 -4.4597 2.3961
-3.5637 -4.5839 2.3961
-3.3937 -4.7016 2.3961
-3.2196 -4.8128 2.3961
-3.0416 -4.9172 2.3961
-2.8601 -5.0148 2.3961
-2.6752 -5.1054 2.3961
-2.4874 -5.1889 2.3961
-2.2969 -5.2653 2.3961
-2.1039 -5.3344 2.3961
-1.9088 -5.3963 2.3961
-1.7118 -5.4508 2.3961
-1.5132 -5.4979 2.3961
-1.3134 -5.5375 2.3961
-1.1126 -5.5697 2.3961
-0.9110 -5.5945 2.3961
-0.7090 -5.6118 2.3961
-0.5069 -5.6216 2.3961
-0.3049 -5.6241 2.3961
-0.1033 -5.6191 2.3961
0.0976 -5.6069 2.3961
0.2976 -5.5874 2.3961
0.4963 -5.5607 2.3961
0.6936 -5.5268 2.3961
0.8892 -5.4859 2.3961
1.0828 -5.4381 2.3961
1.2741 -5.3834 2.3961
-5.4883 0.1073 2.3961
-5.4928 -0.0879 2.3961
-5.4899 -0.2834 2.3961
-5.4797 -0.4786 2.3961
-5.4621 -0.6734 2.3961
-5.4371 -0.8675 2.3961
-5.4048 -1.0606 2.3961
-5.3652 -1.2523 2.3961
-5.3184 -1.4425 2.3961
-5.2644 -1.6308 2.3961
-5.2033 -1.8169 2.3961
-5.1352 -2.0005 2.3961
-5.0603 -2.1815 2.3961
-4.9785 -2.3594 2.3961
-4.8901 -2.5341 2.3961
-4.7952 -2.7053 2.3961
-4.6939 -2.8727 2.3961
-4.5864 -3.0362 2.3961
-4.4729 -3.1953 2.3961
-4.3534 -3.3500 2.3961
-4.2283 -3.5000 2.3961
-4.0978 -3.6451 2.3961
-3.9619 -3.7851 2.3961
-3.8210 -3.9197 2.3961
-3.6753 -4.0489 2.3961
-3.5249 -4.1723 2.3961
-3.3701 -4.2900 2.3961
-3.2112 -4.4016 2.3961
-3.0485 -4.5072 2.3961
-2.8820 -4.6064 2.3961
-2.7122 -4.6993 2.3961
-2.5392 -4.7856 2.3961
-2.3633 -4.8654 2.3961
-2.1848 -4.9385 2.3961
-2.0040 -5.0048 2.3961
-1.8211 -5.0643 2.3961
-1.6364 -5.1169 2.3961
-1.4501 -5.1626 2.3961
-1.2626 -5.2013 2.3961
-1.0740 -5.2330 2.3961
-0.8847 -5.2577 2.3961
-0.6949 -5.2755 2.3961
-0.5049 -5.2862 2.3961
-0.3150 -5.2900 2.3961
-0.1254 -5.2869 2.3961
0.0637 -5.2769 2.3961
0.2520 -5.2600 2.3961
0.4392 -5.2363 2.3961
0.6250 -5.2060 2.3961
0.8094 -5.1689 2.3961
0.9919 -5.1254 2.3961
1.1725 -5.0753 2.3961
1.3507 -5.0189 2.3961
1.5266 -4.9563 2.3961
1.6997 -4.8875 2.3961
1.8700 -4.8127 2.3961
2.0372 -4.7320 2.3961
2.2011 -4.6456 2.3961
2.3615 -4.5535 2.3961
2.5183 -4.4560 2.3961
2.6713 -4.3532 2.3961
2.8202 -4.2452 2.3961
2.9650 -4.1322 2.3961
3.1054 -4.0143 2.3961
3.2414 -3.8918 2.3961
3.3728 -3.7649 2.3961
3.4994 -3.6336 2.3961
3.6211 -3.4981 2.3961
3.7378 -3.3587 2.3961
3.8494 -3.2156 2.3961
3.9558 -3.0688 2.3961
4.0568 -2.9187 2.3961
4.1524 -2.7654 2.3961
4.2424 -2.6090 2.3961
4.3269 -2.4499 2.3961
4.4043 -2.2874 2.3953
4.4535 -2.1120 2.3826
4.5017 -1.9385 2.3727
4.5489 -1.7665 2.3657
4.5953 -1.5955 2.3614
4.6414 -1.4253 2.3601
4.6869 -1.2554 2.3614
4.7319 -1.0853 2.3655
4.7765 -0.9147 2.3723
4.8209 -0.7431 2.3818
4.8651 -0.5701 2.3941
4.8822 -0.3933 2.3961
4.8892 -0.2157 2.3961
4.8901 -0.0381 2.3961
4.8850 0.1393 2.3961
4.8738 0.3163 2.3961
4.8565 0.4927 2.3961
4.8332 0.6684 2.3961
4.8039 0.8431 2.3961
4.7687 1.0167 2.3961
4.7276 1.1889 2.3961
4.6806 1.3596 2.3961
4.6278 1.5285 2.3961
4.5693 1.6956 2.3961
4.5051 1.8605 2.3961
4.4353 2.0232 2.3961
4.3599 2.1835 2.3961
4.2791 2.3410 2.3961
4.1929 2.4958 2.3961
4.1014 2.6476 2.3961
4.0048 2.7963 2.3961
3.9031 2.9416 2.3961
3.7964 3.0834 2.3961
3.6848 3.2216 2.3961
3.5685 3.3559 2.3961
3.4475 3.4863 2.3961
3.3220 3.6126 2.3961
3.1922 3.7345 2.3961
3.0581 3.8521 2.3961
2.9199 3.9650 2.3961
2.7778 4.0733 2.3961
2.6319 4.1767 2.3961
2.4823 4.2751 2.3961
2.3292 4.3684 2.3961
0.8875 1.8202 0.9787
0.8213 1.8518 0.9775
0.7541 1.8811 0.9764
0.6859 1.9079 0.9752
0.6167 1.9322 0.9739
0.5467 1.9541 0.9726
0.4760 1.9734 0.9713
0.4046 1.9901 0.9699
0.3326 2.0042 0.9684
0.2602 2.0158 0.9670
0.1874 2.0247 0.9655
0.1143 2.0309 0.9640
0.0410 2.0346 0.9624
-0.0323 2.0356 0.9608
-0.1057 2.0339 0.9592
-0.1789 2.0296 0.9576
-0.2519 2.0227 0.9560
-0.3247 2.0131 0.9543
-0.3970 2.0009 0.9526
-0.4689 1.9862 0.9509
-0.5401 1.9688 0.9492
-0.6107 1.9488 0.9475
-0.6806 1.9264 0.9457
-0.7495 1.9014 0.9440
-0.8176 1.8739 0.9422
-0.8845 1.8441 0.9405
-2.4259 4.6245 2.3961
-2.5957 4.5445 2.3961
-2.7628 4.4583 2.3961
-2.9270 4.3659 2.3961
-3.0881 4.2675 2.3961
-3.2457 4.1631 2.3961
-3.3997 4.0529 2.3961
-3.5498 3.9369 2.3961
-3.6958 3.8153 2.3961
-3.8375 3.6882 2.3961
-3.9747 3.5558 2.3961
-4.1072 3.4183 2.3961
-4.2347 3.2757 2.3961
-4.3570 3.1284 2.3961
-4.4740 2.9763 2.3961
-4.5855 2.8199 2.3961
-4.6912 2.6592 2.3961
-4.7910 2.4944 2.3961
-4.8848 2.3258 2.3961
-4.9724 2.1537 2.3961
-5.0536 1.9782 2.3961
-5.1282 1.7996 2.3961
-5.1962 1.6181 2.3961
-5.2575 1.4339 2.3961
-5.3119 1.2475 2.3961
-5.3593 1.0589 2.3961
-5.3996 0.8686 2.3961
-5.4328 0.6766 2.3961
-5.4588 0.4834 2.3961
-5.4774 0.2893 2.3961
-5.4888 0.0944 2.3961
-5.4928 -0.1009 2.3961
-5.4895 -0.2963 2.3961
-5.4787 -0.4915 2.3961
-5.4606 -0.6863 2.3961
-5.4352 -0.8803 2.3961
-5.4024 -1.0733 2.3961
-5.3623 -1.2650 2.3961
-5.3150 -1.4550 2.3961
-5.2606 -1.6431 2.3961
-5.1990 -1.8291 2.3961
-5.1305 -2.0126 2.3961
-5.0550 -2.1933 2.3961
-4.9729 -2.3711 2.3961
-4.8840 -2.5456 2.3961
-4.7887 -2.7165 2.3961
-4.6870 -2.8837 2.3961
-4.5791 -3.0468 2.3961
-4.4651 -3.2057 2.3961
-4.3453 -3.3601 2.3961
-4.2199 -3.5098 2.3961
-4.0889 -3.6545 2.3961
-3.9528 -3.7941 2.3961
-3.8115 -3.9284 2.3961
-3.6655 -4.0572 2.3961
-3.5148 -4.1803 2.3961
-3.3598 -4.2976 2.3961
-3.2006 -4.4088 2.3961
-3.0375 -4.5139 2.3961
-2.8709 -4.6128 2.3961
-2.7008 -4.7052 2.3961
-2.5276 -4.7911 2.3961
-2.3516 -4.8705 2.3961
-2.1730 -4.9431 2.3961
-1.9920 -5.0090 2.3961
-1.8089 -5.0680 2.3961
-1.6241 -5.1201 2.3961
-1.4377 -5.1653 2.3961
-1.2501 -5.2036 2.3961
-1.0615 -5.2348 2.3961
-0.8722 -5.2591 2.3961
-0.6824 -5.2764 2.3961
-0.4924 -5.2867 2.3961
-0.3024 -5.2900 2.3961
-0.1128 -5.2864 2.3961
0.0762 -5.2760 2.3961
0.2644 -5.2586 2.3961
0.4515 -5.2345 2.3961
0.6373 -5.2037 2.3961
0.8215 -5.1663 2.3961
1.0039 -5.1223 2.3961
1.1843 -5.0718 2.3961
1.3625 -5.0150 2.3961
1.5381 -4.9519 2.3961
1.7111 -4.8827 2.3961
1.8812 -4.8076 2.3961
2.0481 -4.7265 2.3961
2.2118 -4.6397 2.3961
2.3720 -4.5472 2.3961
2.5285 -4.4494 2.3961
2.6812 -4.3462 2.3961
2.8299 -4.2379 2.3961
2.9744 -4.1245 2.3961
3.1146 -4.0064 2.3961
3.2503 -3.8836 2.3961
3.3813 -3.7563 2.3961
3.5076 -3.6247 2.3961
3.6290 -3.4890 2.3961
3.7453 -3.3494 2.3961
3.8566 -3.2060 2.3961
3.9626 -3.0590 2.3961
4.0633 -2.9087 2.3961
4.1585 -2.7551 2.3961
4.2482 -2.5986 2.3961
4.3323 -2.4393 2.3961
4.4076 -2.2758 2.3944
4.4568 -2.1005 2.3819
4.5048 -1.9271 2.3722
4.5520 -1.7551 2.3653
4.5984 -1.5843 2.3613
4.6444 -1.4141 2.3601
4.6899 -1.2442 2.3616
