ply
format ascii 1.0
element vertex 2179
property float32 x
property float32 y
property float32 z
end_header
7.9139 -1.6568 2.3048
8.1947 -1.4105 2.3714
8.2446 -1.1159 2.3738
8.2673 -0.8178 2.3714
8.2865 -0.5200 2.3711
8.2957 -0.2219 2.3709
8.2947 0.0762 2.3709
8.2836 0.3740 2.3710
8.2625 0.6711 2.3712
8.2313 0.9673 2.3716
8.1901 1.2622 2.3722
8.1388 1.5555 2.3728
8.0785 1.8471 2.3738
8.0084 2.1366 2.3750
7.9283 2.4235 2.3763
7.8398 2.7081 2.3781
7.7422 2.9900 2.3802
7.6362 3.2688 2.3828
7.5218 3.5448 2.3859
7.3988 3.8176 2.3894
7.2553 4.0801 2.3894
7.1024 4.3373 2.3893
6.9406 4.5888 2.3893
6.7701 4.8344 2.3892
6.5910 5.0738 2.3892
6.4035 5.3067 2.3891
6.2080 5.5327 2.3890
6.0046 5.7517 2.3890
5.7936 5.9633 2.3890
5.5752 6.1674 2.3889
5.3498 6.3635 2.3889
5.1176 6.5516 2.3888
4.8789 6.7313 2.3888
4.6340 6.9025 2.3888
4.3832 7.0649 2.3888
4.1268 7.2184 2.3887
3.8650 7.3627 2.3887
3.5983 7.4977 2.3887
3.3270 7.6231 2.3887
3.0514 7.7389 2.3887
2.7718 7.8449 2.3887
2.4886 7.9410 2.3887
0.8849 3.2255 0.9599
0.7685 3.2557 0.9598
0.6511 3.2816 0.9597
0.5329 3.3033 0.9596
0.4139 3.3207 0.9594
0.2943 3.3338 0.9592
0.1744 3.3426 0.9590
0.0542 3.3470 0.9588
-0.0661 3.3471 0.9586
-0.1863 3.3428 0.9583
-0.3063 3.3341 0.9580
-0.4259 3.3212 0.9577
-0.5450 3.3039 0.9574
-0.6633 3.2823 0.9570
-0.7808 3.2564 0.9566
-0.8973 3.2263 0.9562
-2.5316 7.9803 2.3896
-2.8179 7.8878 2.3896
-3.1008 7.7850 2.3895
-3.3799 7.6721 2.3895
-3.6550 7.5493 2.3895
-3.9256 7.4167 2.3894
-4.1914 7.2744 2.3894
-4.4521 7.1227 2.3893
-4.7073 6.9616 2.3893
-4.9566 6.7914 2.3892
-5.1999 6.6123 2.3891
-5.4366 6.4246 2.3891
-5.6666 6.2283 2.3890
-5.8895 6.0239 2.3889
-6.1050 5.8114 2.3888
-6.3128 5.5913 2.3887
-6.5127 5.3638 2.3886
-6.7043 5.1291 2.3885
-6.8875 4.8875 2.3884
-7.0619 4.6394 2.3883
-7.2274 4.3851 2.3882
-7.3837 4.1249 2.3880
-7.5306 3.8591 2.3879
-7.6678 3.5880 2.3878
-7.7953 3.3121 2.3876
-7.9127 3.0316 2.3875
-8.0200 2.7470 2.3874
-8.1170 2.4585 2.3872
-8.2036 2.1667 2.3871
-8.2796 1.8717 2.3869
-8.3449 1.5741 2.3868
-8.3994 1.2743 2.3866
-8.4548 0.9739 2.3898
-8.4988 0.6711 2.3928
-8.5201 0.3659 2.3925
-8.5317 0.0600 2.3926
-8.5323 -0.2462 2.3927
-8.5218 -0.5523 2.3928
-8.5002 -0.8580 2.3929
-8.4675 -1.1628 2.3930
-8.4267 -1.4669 2.3939
-8.4028 -1.7754 2.4029
-8.3593 -2.0820 2.4094
-8.2986 -2.3860 2.4143
-8.2206 -2.6863 2.4174
-8.1273 -2.9824 2.4192
-8.0195 -3.2737 2.4198
-7.8990 -3.5601 2.4199
-7.7681 -3.8420 2.4199
-7.6270 -4.1190 2.4199
-7.4758 -4.3907 2.4199
-7.3149 -4.6568 2.4199
-7.1444 -4.9169 2.4199
-6.9645 -5.1707 2.4199
-6.7754 -5.4177 2.4199
-6.5775 -5.6578 2.4199
-6.3709 -5.8905 2.4199
-6.1560 -6.1156 2.4199
-5.9330 -6.3327 2.4199
-5.7023 -6.5415 2.4199
-5.4641 -6.7418 2.4199
-5.2188 -6.9333 2.4199
-4.9667 -7.1158 2.4199
-4.7081 -7.2889 2.4199
-4.4434 -7.4525 2.4199
-4.1729 -7.6063 2.4199
-3.8971 -7.7502 2.4199
-3.6162 -7.8840 2.4199
-3.3307 -8.0074 2.4199
-3.0409 -8.1203 2.4199
-2.7472 -8.2226 2.4199
-2.4501 -8.3142 2.4199
-2.1499 -8.3948 2.4199
-1.8471 -8.4645 2.4199
-1.5419 -8.5231 2.4199
-1.2349 -8.5706 2.4199
-0.9265 -8.6069 2.4199
-0.6170 -8.6319 2.4199
-0.3070 -8.6457 2.4199
0.0022 -7.9535 2.4199
0.2873 -7.9457 2.4199
0.5719 -7.9276 2.4199
0.8556 -7.8991 2.4199
1.1379 -7.8605 2.4199
1.4186 -7.8116 2.4199
1.6972 -7.7527 2.4199
1.9734 -7.6837 2.4199
2.2468 -7.6049 2.4199
2.5171 -7.5162 2.4199
2.7839 -7.4178 2.4199
3.0469 -7.3100 2.4199
3.3057 -7.1927 2.4199
3.5600 -7.0662 2.4199
3.8095 -6.9307 2.4199
4.0538 -6.7864 2.4199
4.2926 -6.6334 2.4199
4.5257 -6.4720 2.4199
4.7527 -6.3023 2.4199
4.9734 -6.1247 2.4199
5.1874 -5.9393 2.4199
5.3945 -5.7464 2.4199
5.5945 -5.5463 2.4199
5.7871 -5.3393 2.4199
5.9720 -5.1255 2.4199
6.1490 -4.9054 2.4199
6.2387 -4.6205 2.3895
6.2894 -4.3172 2.3492
6.3612 -4.0384 2.3215
6.4442 -3.7735 2.3019
6.5361 -3.5185 2.2893
6.6445 -3.2748 2.2857
6.7659 -3.0377 2.2895
6.9014 -2.8053 2.3009
7.0533 -2.5760 2.3203
7.2261 -2.3486 2.3489
7.4214 -2.1206 2.3872
7.5137 -1.8579 2.3950
7.5562 -1.5828 2.3899
7.5913 -1.3075 2.3857
7.6267 -1.0330 2.3846
7.6530 -0.7579 2.3838
7.6704 -0.4821 2.3832
7.6786 -0.2062 2.3829
7.6778 0.0698 2.3828
7.6680 0.3454 2.3830
7.6492 0.6206 2.3834
7.6214 0.8948 2.3841
7.5846 1.1682 2.3850
7.5390 1.4402 2.3862
7.4848 1.7107 2.3877
7.4218 1.9794 2.3895
7.3455 2.2447 2.3900
7.2579 2.5064 2.3899
7.1611 2.7648 2.3899
7.0552 3.0196 2.3898
6.9404 3.2703 2.3897
6.8168 3.5168 2.3896
6.6846 3.7587 2.3896
6.5439 3.9957 2.3895
6.3949 4.2275 2.3895
6.2378 4.4539 2.3894
6.0729 4.6745 2.3893
5.9002 4.8892 2.3893
5.7201 5.0975 2.3892
5.5327 5.2993 2.3892
5.3383 5.4944 2.3892
5.1371 5.6824 2.3891
4.9294 5.8632 2.3891
4.7155 6.0365 2.3891
4.4955 6.2021 2.3890
4.2698 6.3598 2.3890
4.0387 6.5095 2.3890
3.8024 6.6509 2.3890
3.5612 6.7838 2.3889
3.3154 6.9081 2.3889
3.0654 7.0237 2.3889
2.8114 7.1303 2.3889
2.5537 7.2279 2.3889
0.9198 2.9353 0.9584
0.8139 2.9668 0.9584
0.7068 2.9946 0.9583
0.5988 3.0184 0.9582
0.4900 3.0383 0.9581
0.3806 3.0543 0.9579
0.2706 3.0663 0.9578
0.1603 3.0744 0.9576
0.0497 3.0784 0.9574
-0.0609 3.0785 0.9572
-0.1715 3.0745 0.9569
-0.2819 3.0666 0.9566
-0.3919 3.0546 0.9564
-0.5014 3.0387 0.9561
-0.6103 3.0189 0.9557
-0.7183 2.9951 0.9554
-0.8255 2.9674 0.9550
-2.3314 7.3478 2.3892
-2.5949 7.2623 2.3892
-2.8553 7.1675 2.3892
-3.1123 7.0633 2.3891
-3.3654 6.9500 2.3891
-3.6144 6.8277 2.3891
-3.8590 6.6965 2.3890
-4.0989 6.5565 2.3890
-4.3336 6.4080 2.3889
-4.5630 6.2512 2.3889
-4.7867 6.0861 2.3888
-5.0045 5.9130 2.3887
-5.2160 5.7322 2.3887
-5.4209 5.5438 2.3886
-5.6191 5.3481 2.3885
-5.8101 5.1454 2.3884
-5.9939 4.9358 2.3883
-6.1700 4.7196 2.3882
-6.3384 4.4972 2.3881
-6.4987 4.2687 2.3880
-6.6507 4.0346 2.3879
-6.7943 3.7950 2.3878
-6.9292 3.5503 2.3877
-7.0552 3.3008 2.3876
-7.1722 3.0468 2.3874
-7.2801 2.7887 2.3873
-7.3785 2.5267 2.3872
-7.4675 2.2613 2.3870
-7.5509 1.9938 2.3881
-7.6264 1.7236 2.3898
-7.6938 1.4508 2.3920
-7.7446 1.1745 2.3921
-7.7854 0.8963 2.3922
-7.8162 0.6167 2.3923
-7.8368 0.3361 2.3924
-7.8473 0.0548 2.3925
-7.8475 -0.2268 2.3926
-7.8376 -0.5083 2.3927
-7.8175 -0.7894 2.3928
-7.7872 -1.0697 2.3929
-7.7467 -1.3488 2.3930
-7.7142 -1.6302 2.3987
-7.6761 -1.9121 2.4059
-7.6222 -2.1918 2.4114
-7.5527 -2.4682 2.4152
-7.4693 -2.7412 2.4177
-7.3727 -3.0099 2.4193
-7.2634 -3.2738 2.4198
-7.1430 -3.5330 2.4199
-7.0131 -3.7876 2.4199
-6.8741 -4.0374 2.4199
-6.7260 -4.2820 2.4199
-6.5691 -4.5211 2.4199
-6.4037 -4.7543 2.4199
-6.2298 -4.9814 2.4199
-6.0478 -5.2021 2.4199
-5.8578 -5.4160 2.4199
-5.6602 -5.6229 2.4199
-5.4552 -5.8225 2.4199
-5.2431 -6.0145 2.4199
-5.0241 -6.1986 2.4199
-4.7986 -6.3747 2.4199
-4.5668 -6.5425 2.4199
-4.3291 -6.7017 2.4199
-4.0858 -6.8521 2.4199
-3.8371 -6.9936 2.4199
-3.5836 -7.1260 2.4199
-3.3254 -7.2490 2.4199
-3.0629 -7.3626 2.4199
-2.7965 -7.4665 2.4199
-2.5266 -7.5607 2.4199
-2.2534 -7.6449 2.4199
-1.9774 -7.7192 2.4199
-1.6990 -7.7834 2.4199
-1.4185 -7.8375 2.4199
-1.1362 -7.8813 2.4199
-0.8526 -7.9149 2.4199
-0.5681 -7.9381 2.4199
-0.2830 -7.9510 2.4199
0.0024 -7.9535 2.4199
0.2875 -7.9457 2.4199
0.5721 -7.9275 2.4199
0.8557 -7.8991 2.4199
1.1381 -7.8604 2.4199
1.4188 -7.8116 2.4199
1.6974 -7.7526 2.4199
1.9736 -7.6837 2.4199
2.2470 -7.6048 2.4199
2.5173 -7.5161 2.4199
2.7841 -7.4178 2.4199
3.0471 -7.3099 2.4199
3.3059 -7.1926 2.4199
3.5602 -7.0661 2.4199
3.8096 -6.9306 2.4199
4.0539 -6.7863 2.4199
4.2928 -6.6333 2.4199
4.5259 -6.4718 2.4199
4.7529 -6.3022 2.4199
4.9735 -6.1246 2.4199
5.1876 -5.9392 2.4199
5.3947 -5.7463 2.4199
5.5946 -5.5462 2.4199
5.7872 -5.3391 2.4199
5.9721 -5.1254 2.4199
6.1492 -4.9053 2.4199
6.2388 -4.6202 2.3895
6.2895 -4.3170 2.3492
6.3612 -4.0382 2.3214
6.4442 -3.7733 2.3019
6.5362 -3.5183 2.2893
6.6446 -3.2746 2.2857
6.7660 -3.0376 2.2895
6.9015 -2.8052 2.3009
7.0534 -2.5758 2.3203
7.2262 -2.3485 2.3490
7.4215 -2.1205 2.3873
7.5137 -1.8577 2.3950
7.5562 -1.5826 2.3899
7.5913 -1.3073 2.3857
7.6267 -1.0329 2.3846
7.6531 -0.7577 2.3838
7.6704 -0.4820 2.3832
7.6786 -0.2060 2.3829
7.6778 0.0699 2.3828
7.6680 0.3456 2.3830
7.6492 0.6208 2.3834
7.6213 0.8951 2.3841
7.5845 1.1684 2.3850
7.5389 1.4404 2.3862
7.4848 1.7109 2.3877
7.4218 1.9796 2.3895
7.3454 2.2449 2.3900
7.2578 2.5066 2.3899
7.1610 2.7650 2.3899
7.0552 3.0197 2.3898
6.9404 3.2705 2.3897
6.8167 3.5170 2.3896
6.6845 3.7589 2.3896
6.5438 3.9959 2.3895
6.3948 4.2277 2.3895
6.2377 4.4540 2.3894
6.0728 4.6747 2.3893
5.9001 4.8893 2.3893
5.7200 5.0976 2.3892
5.5326 5.2995 2.3892
5.3382 5.4945 2.3892
5.1370 5.6825 2.3891
4.9293 5.8633 2.3891
4.7153 6.0366 2.3891
4.4954 6.2022 2.3890
4.2697 6.3599 2.3890
4.0385 6.5096 2.3890
3.8022 6.6510 2.3890
3.5610 6.7839 2.3889
3.3153 6.9082 2.3889
3.0652 7.0237 2.3889
2.8112 7.1304 2.3889
2.5536 7.2279 2.3889
0.9198 2.9353 0.9584
0.8138 2.9669 0.9584
0.7068 2.9946 0.9583
0.5988 3.0184 0.9582
0.4900 3.0383 0.9581
0.3805 3.0543 0.9579
0.2705 3.0664 0.9578
0.1602 3.0744 0.9576
0.0496 3.0784 0.9574
-0.0610 3.0785 0.9572
-0.1716 3.0745 0.9569
-0.2819 3.0666 0.9566
-0.3920 3.0546 0.9564
-0.5015 3.0387 0.9561
-0.6103 3.0189 0.9557
-0.7184 2.9951 0.9554
-0.8256 2.9674 0.9550
-2.3316 7.3477 2.3892
-2.5951 7.2623 2.3892
-2.8555 7.1674 2.3892
-3.1124 7.0633 2.3891
-3.3656 6.9500 2.3891
-3.6146 6.8276 2.3891
-3.8592 6.6964 2.3890
-4.0990 6.5564 2.3890
-4.3338 6.4079 2.3889
-4.5632 6.2511 2.3889
-4.7869 6.0860 2.3888
-5.0046 5.9129 2.3887
-5.2161 5.7321 2.3887
-5.4210 5.5437 2.3886
-5.6192 5.3480 2.3885
-5.8102 5.1452 2.3884
-5.9940 4.9356 2.3883
-6.1701 4.7195 2.3882
-6.3385 4.4970 2.3881
-6.4988 4.2686 2.3880
-6.6508 4.0344 2.3879
-6.7944 3.7948 2.3878
-6.9293 3.5501 2.3877
-7.0553 3.3006 2.3876
-7.1723 3.0466 2.3874
-7.2801 2.7885 2.3873
-7.3786 2.5266 2.3872
-7.4676 2.2611 2.3870
-7.5509 1.9936 2.3882
-7.6264 1.7234 2.3898
-7.6939 1.4507 2.3920
-7.7447 1.1743 2.3921
-7.7855 0.8961 2.3922
-7.8162 0.6165 2.3923
-7.8368 0.3359 2.3924
-7.8473 0.0546 2.3925
-7.8475 -0.2270 2.3926
-7.8376 -0.5085 2.3927
-7.8175 -0.7896 2.3928
-7.7871 -1.0699 2.3929
-7.7467 -1.3490 2.3930
-7.7142 -1.6304 2.3987
-7.6761 -1.9123 2.4059
-7.6221 -2.1919 2.4114
-7.5526 -2.4684 2.4152
-7.4692 -2.7413 2.4177
-7.3726 -3.0100 2.4193
-7.2633 -3.2740 2.4198
-7.1429 -3.5332 2.4199
-7.0130 -3.7878 2.4199
-6.8740 -4.0375 2.4199
-6.7259 -4.2821 2.4199
-6.5690 -4.5212 2.4199
-6.4035 -4.7545 2.4199
-6.2297 -4.9816 2.4199
-6.0476 -5.2023 2.4199
-5.8577 -5.4162 2.4199
-5.6601 -5.6230 2.4199
-5.4551 -5.8226 2.4199
-5.2430 -6.0146 2.4199
-5.0240 -6.1988 2.4199
-4.7984 -6.3748 2.4199
-4.5667 -6.5426 2.4199
-4.3289 -6.7018 2.4199
-4.0856 -6.8522 2.4199
-3.8370 -6.9937 2.4199
-3.5834 -7.1261 2.4199
-3.3252 -7.2491 2.4199
-3.0627 -7.3626 2.4199
-2.7963 -7.4666 2.4199
-2.5264 -7.5607 2.4199
-2.2532 -7.6450 2.4199
-1.9772 -7.7193 2.4199
-1.6988 -7.7835 2.4199
-1.4183 -7.8375 2.4199
-1.1360 -7.8813 2.4199
-0.8524 -7.9149 2.4199
-0.5679 -7.9381 2.4199
-0.2828 -7.9510 2.4199
0.0016 -7.3545 2.4199
0.2652 -7.3475 2.4199
0.5284 -7.3309 2.4199
0.7907 -7.3048 2.4199
1.0518 -7.2692 2.4199
1.3114 -7.2242 2.4199
1.5690 -7.1699 2.4199
1.8245 -7.1064 2.4199
2.0774 -7.0336 2.4199
2.3275 -6.9518 2.4199
2.5743 -6.8611 2.4199
2.8176 -6.7615 2.4199
3.0571 -6.6532 2.4199
3.2924 -6.5365 2.4199
3.5232 -6.4113 2.4199
3.7493 -6.2780 2.4199
3.9704 -6.1367 2.4199
4.1862 -5.9876 2.4199
4.3963 -5.8308 2.4199
4.6006 -5.6667 2.4199
4.7988 -5.4954 2.4199
4.9906 -5.3171 2.4199
5.1758 -5.1322 2.4199
5.3541 -4.9408 2.4199
5.5254 -4.7432 2.4199
5.6894 -4.5396 2.4199
5.8459 -4.3304 2.4199
5.9948 -4.1158 2.4199
6.1358 -3.8961 2.4199
6.2688 -3.6716 2.4199
6.3934 -3.4425 2.4198
6.5083 -3.2084 2.4192
6.6124 -2.9695 2.4177
6.7055 -2.7264 2.4155
6.7879 -2.4798 2.4126
6.8597 -2.2302 2.4091
6.9201 -1.9781 2.4049
6.9637 -1.7225 2.3980
6.9984 -1.4666 2.3913
7.0434 -1.2137 2.3912
7.0793 -0.9595 2.3911
7.1062 -0.7043 2.3910
7.1239 -0.4484 2.3909
7.1324 -0.1921 2.3908
7.1319 0.0643 2.3908
7.1222 0.3203 2.3907
7.1034 0.5758 2.3906
7.0755 0.8303 2.3905
7.0386 1.0836 2.3904
6.9928 1.3354 2.3903
6.9380 1.5853 2.3903
6.8744 1.8330 2.3902
6.8021 2.0782 2.3901
6.7211 2.3207 2.3901
6.6316 2.5600 2.3900
6.5337 2.7960 2.3899
6.4275 3.0283 2.3899
6.3131 3.2566 2.3898
6.1907 3.4807 2.3897
6.0605 3.7003 2.3897
5.9226 3.9150 2.3896
5.7772 4.1248 2.3896
5.6244 4.3291 2.3895
5.4645 4.5280 2.3895
5.2977 4.7210 2.3894
5.1242 4.9079 2.3894
4.9442 5.0886 2.3893
4.7578 5.2628 2.3893
4.5655 5.4303 2.3893
4.3673 5.5908 2.3892
4.1636 5.7442 2.3892
3.9545 5.8903 2.3892
3.7404 6.0289 2.3892
3.5215 6.1598 2.3892
3.2981 6.2829 2.3891
3.0704 6.3980 2.3891
2.8388 6.5050 2.3891
2.6035 6.6037 2.3891
2.3649 6.6940 2.3891
0.8506 2.7145 0.9571
0.7525 2.7437 0.9571
0.6535 2.7693 0.9570
0.5537 2.7914 0.9569
0.4530 2.8098 0.9568
0.3518 2.8245 0.9567
0.2501 2.8356 0.9565
0.1481 2.8430 0.9564
0.0458 2.8468 0.9562
-0.0565 2.8468 0.9560
-0.1588 2.8431 0.9557
-0.2609 2.8358 0.9555
-0.3626 2.8247 0.9552
-0.4639 2.8100 0.9549
-0.5646 2.7917 0.9546
-0.6645 2.7697 0.9543
-0.7636 2.7441 0.9540
-0.8617 2.7149 0.9536
-2.4045 6.7276 2.3910
-2.6442 6.6360 2.3896
-2.8835 6.5427 2.3908
-3.1151 6.4328 2.3889
-3.3457 6.3187 2.3888
-3.5720 6.1971 2.3887
-3.7938 6.0674 2.3887
-4.0110 5.9298 2.3886
-4.2231 5.7844 2.3886
-4.4300 5.6315 2.3885
-4.6314 5.4712 2.3885
-4.8270 5.3037 2.3884
-5.0164 5.1292 2.3883
-5.1996 4.9480 2.3882
-5.3762 4.7602 2.3882
-5.5461 4.5661 2.3881
-5.7089 4.3660 2.3880
-5.8644 4.1601 2.3879
-6.0126 3.9486 2.3878
-6.1530 3.7318 2.3877
-6.2857 3.5101 2.3876
-6.4103 3.2836 2.3875
-6.5278 3.0533 2.3878
-6.6413 2.8205 2.3896
-6.7424 2.5820 2.3900
-6.8402 2.3417 2.3923
-6.9213 2.0952 2.3917
-6.9953 1.8464 2.3918
-7.0603 1.5950 2.3919
-7.1163 1.3413 2.3920
-7.1630 1.0856 2.3921
-7.2005 0.8284 2.3922
-7.2287 0.5698 2.3923
-7.2476 0.3103 2.3924
-7.2570 0.0501 2.3924
-7.2571 -0.2103 2.3925
-7.2477 -0.4706 2.3926
-7.2289 -0.7305 2.3927
-7.2006 -0.9896 2.3928
-7.1630 -1.2476 2.3929
-7.1216 -1.5054 2.3948
-7.0872 -1.7658 2.4023
-7.0385 -2.0243 2.4082
-6.9759 -2.2802 2.4126
-6.9006 -2.5329 2.4158
-6.8132 -2.7818 2.4180
-6.7141 -3.0266 2.4193
-6.6040 -3.2667 2.4198
-6.4840 -3.5021 2.4199
-6.3553 -3.7330 2.4199
-6.2184 -3.9591 2.4199
-6.0733 -4.1801 2.4199
-5.9203 -4.3957 2.4199
-5.7595 -4.6056 2.4199
-5.5912 -4.8095 2.4199
-5.4156 -5.0073 2.4199
-5.2329 -5.1985 2.4199
-5.0434 -5.3830 2.4199
-4.8473 -5.5604 2.4199
-4.6448 -5.7307 2.4199
-4.4364 -5.8934 2.4199
-4.2221 -6.0485 2.4199
-4.0024 -6.1957 2.4199
-3.7774 -6.3348 2.4199
-3.5476 -6.4657 2.4199
-3.3132 -6.5881 2.4199
-3.0746 -6.7019 2.4199
-2.8320 -6.8069 2.4199
-2.5857 -6.9031 2.4199
-2.3362 -6.9902 2.4199
-2.0837 -7.0682 2.4199
-1.8286 -7.1370 2.4199
-1.5712 -7.1965 2.4199
-1.3119 -7.2466 2.4199
-1.0509 -7.2872 2.4199
-0.7888 -7.3183 2.4199
-0.5257 -7.3400 2.4199
-0.2621 -7.3520 2.4199
0.0017 -7.3545 2.4199
0.2654 -7.3475 2.4199
0.5285 -7.3309 2.4199
0.7908 -7.3048 2.4199
1.0520 -7.2692 2.4199
1.3115 -7.2242 2.4199
1.5692 -7.1699 2.4199
1.8247 -7.1063 2.4199
2.0776 -7.0336 2.4199
2.3276 -6.9518 2.4199
2.5745 -6.8610 2.4199
2.8178 -6.7614 2.4199
3.0572 -6.6532 2.4199
3.2925 -6.5364 2.4199
3.5234 -6.4113 2.4199
3.7495 -6.2779 2.4199
3.9706 -6.1366 2.4199
4.1863 -5.9875 2.4199
4.3964 -5.8307 2.4199
4.6007 -5.6666 2.4199
4.7989 -5.4953 2.4199
4.9907 -5.3170 2.4199
5.1759 -5.1321 2.4199
5.3542 -4.9407 2.4199
5.5255 -4.7430 2.4199
5.6895 -4.5395 2.4199
5.8460 -4.3303 2.4199
5.9949 -4.1157 2.4199
6.1359 -3.8960 2.4199
6.2689 -3.6715 2.4199
6.3935 -3.4423 2.4198
6.5084 -3.2083 2.4192
6.6124 -2.9694 2.4177
6.7056 -2.7263 2.4155
6.7880 -2.4796 2.4126
6.8597 -2.2300 2.4091
6.9201 -1.9779 2.4049
6.9637 -1.7224 2.3980
6.9984 -1.4664 2.3913
7.0434 -1.2135 2.3912
7.0794 -0.9593 2.3911
7.1062 -0.7041 2.3910
7.1239 -0.4482 2.3909
7.1324 -0.1919 2.3908
7.1319 0.0644 2.3908
7.1222 0.3205 2.3907
7.1034 0.5759 2.3906
7.0755 0.8305 2.3905
7.0386 1.0838 2.3904
6.9928 1.3356 2.3903
6.9380 1.5855 2.3903
6.8744 1.8332 2.3902
6.8021 2.0784 2.3901
6.7211 2.3208 2.3901
6.6316 2.5602 2.3900
6.5336 2.7962 2.3899
6.4274 3.0284 2.3899
6.3130 3.2568 2.3898
6.1906 3.4809 2.3897
6.0604 3.7004 2.3897
5.9225 3.9152 2.3896
5.7771 4.1249 2.3896
5.6243 4.3293 2.3895
5.4644 4.5281 2.3895
5.2976 4.7211 2.3894
5.1241 4.9081 2.3894
4.9440 5.0888 2.3893
4.7577 5.2629 2.3893
4.5654 5.4304 2.3893
4.3672 5.5909 2.3892
4.1634 5.7443 2.3892
3.9544 5.8904 2.3892
3.7403 6.0290 2.3892
3.5214 6.1599 2.3892
3.2979 6.2830 2.3891
3.0703 6.3981 2.3891
2.8387 6.5051 2.3891
2.6034 6.6038 2.3891
2.3647 6.6941 2.3891
0.8505 2.7145 0.9571
0.7525 2.7437 0.9571
0.6535 2.7693 0.9570
0.5536 2.7914 0.9569
0.4530 2.8098 0.9568
0.3517 2.8245 0.9567
0.2500 2.8356 0.9565
0.1480 2.8431 0.9564
0.0457 2.8468 0.9562
-0.0566 2.8468 0.9560
-0.1589 2.8431 0.9557
-0.2609 2.8358 0.9555
-0.3627 2.8247 0.9552
-0.4639 2.8100 0.9549
-0.5646 2.7916 0.9546
-0.6646 2.7697 0.9543
-0.7637 2.7441 0.9540
-0.8618 2.7149 0.9536
-2.4047 6.7276 2.3910
-2.6444 6.6359 2.3896
-2.8837 6.5426 2.3908
-3.1159 6.4321 2.3889
-3.3459 6.3187 2.3888
-3.5721 6.1970 2.3887
-3.7940 6.0673 2.3887
-4.0111 5.9297 2.3886
-4.2233 5.7843 2.3886
-4.4302 5.6314 2.3885
-4.6315 5.4711 2.3885
-4.8271 5.3036 2.3884
-5.0166 5.1291 2.3883
-5.1997 4.9478 2.3882
-5.3764 4.7601 2.3882
-5.5462 4.5660 2.3881
-5.7090 4.3659 2.3880
-5.8645 4.1599 2.3879
-6.0127 3.9484 2.3878
-6.1531 3.7317 2.3877
-6.2857 3.5100 2.3876
-6.4103 3.2835 2.3875
-6.5278 3.0531 2.3878
-6.6415 2.8201 2.3896
-6.7424 2.5818 2.3900
-6.8403 2.3415 2.3923
-6.9213 2.0950 2.3917
-6.9953 1.8462 2.3918
-7.0604 1.5948 2.3919
-7.1163 1.3411 2.3920
-7.1630 1.0855 2.3921
-7.2005 0.8282 2.3922
-7.2287 0.5696 2.3923
-7.2476 0.3101 2.3924
-7.2570 0.0500 2.3924
-7.2571 -0.2104 2.3925
-7.2477 -0.4708 2.3926
-7.2288 -0.7307 2.3927
-7.2006 -0.9898 2.3928
-7.1630 -1.2478 2.3929
-7.1216 -1.5056 2.3948
-7.0872 -1.7660 2.4023
-7.0384 -2.0245 2.4082
-6.9759 -2.2803 2.4126
-6.9006 -2.5330 2.4158
-6.8131 -2.7820 2.4180
-6.7141 -3.0268 2.4193
-6.6039 -3.2669 2.4198
-6.4839 -3.5023 2.4199
-6.3552 -3.7331 2.4199
-6.2183 -3.9592 2.4199
-6.0732 -4.1802 2.4199
-5.9202 -4.3958 2.4199
-5.7594 -4.6057 2.4199
-5.5911 -4.8097 2.4199
-5.4155 -5.0074 2.4199
-5.2328 -5.1986 2.4199
-5.0432 -5.3831 2.4199
-4.8471 -5.5606 2.4199
-4.6447 -5.7308 2.4199
-4.4362 -5.8935 2.4199
-4.2220 -6.0486 2.4199
-4.0022 -6.1958 2.4199
-3.7773 -6.3349 2.4199
-3.5475 -6.4658 2.4199
-3.3131 -6.5882 2.4199
-3.0744 -6.7019 2.4199
-2.8318 -6.8070 2.4199
-2.5856 -6.9031 2.4199
-2.3360 -6.9903 2.4199
-2.0835 -7.0683 2.4199
-1.8284 -7.1370 2.4199
-1.5710 -7.1965 2.4199
-1.3117 -7.2466 2.4199
-1.0508 -7.2872 2.4199
-0.7886 -7.3184 2.4199
-0.5255 -7.3400 2.4199
-0.2619 -7.3520 2.4199
0.0010 -6.8323 2.4199
0.2459 -6.8259 2.4199
0.4904 -6.8106 2.4199
0.7341 -6.7865 2.4199
0.9767 -6.7536 2.4199
1.2178 -6.7120 2.4199
1.4573 -6.6617 2.4199
1.6947 -6.6028 2.4199
1.9297 -6.5354 2.4199
2.1620 -6.4595 2.4199
2.3914 -6.3754 2.4199
2.6176 -6.2830 2.4199
2.8402 -6.1826 2.4199
3.0589 -6.0743 2.4199
3.2735 -5.9582 2.4199
3.4837 -5.8345 2.4199
3.6892 -5.7033 2.4199
3.8898 -5.5649 2.4199
4.0853 -5.4194 2.4199
4.2752 -5.2670 2.4199
4.4595 -5.1079 2.4199
4.6379 -4.9424 2.4199
4.8102 -4.7707 2.4199
4.9761 -4.5929 2.4199
5.1355 -4.4093 2.4199
5.2881 -4.2203 2.4199
5.4337 -4.0259 2.4199
5.5723 -3.8266 2.4199
5.7036 -3.6225 2.4199
5.8274 -3.4138 2.4199
5.9430 -3.2007 2.4196
6.0493 -2.9829 2.4188
6.1460 -2.7608 2.4172
6.2325 -2.5348 2.4149
6.3082 -2.3052 2.4116
6.3724 -2.0724 2.4071
6.4246 -1.8371 2.4013
6.4649 -1.5998 2.3943
6.5074 -1.3643 2.3913
6.5494 -1.1292 2.3912
6.5830 -0.8928 2.3911
6.6081 -0.6555 2.3911
6.6247 -0.4175 2.3910
6.6329 -0.1791 2.3909
6.6325 0.0593 2.3908
6.6237 0.2974 2.3907
6.6064 0.5350 2.3907
6.5806 0.7718 2.3906
6.5465 1.0074 2.3905
6.5039 1.2416 2.3904
6.4531 1.4741 2.3904
6.3941 1.7045 2.3903
6.3270 1.9327 2.3902
6.2517 2.1583 2.3902
6.1686 2.3809 2.3901
6.0776 2.6005 2.3900
5.9789 2.8166 2.3900
5.8725 3.0291 2.3899
5.7588 3.2376 2.3899
5.6377 3.4419 2.3898
5.5094 3.6417 2.3898
5.3742 3.8368 2.3897
5.2322 4.0270 2.3897
5.0835 4.2120 2.3896
4.9283 4.3916 2.3896
4.7669 4.5656 2.3895
4.5994 4.7337 2.3895
4.4261 4.8958 2.3895
4.2471 5.0516 2.3894
4.0627 5.2009 2.3894
3.8732 5.3437 2.3894
3.6787 5.4796 2.3894
3.4795 5.6085 2.3893
3.2758 5.7303 2.3893
3.0679 5.8448 2.3893
2.8561 5.9518 2.3893
2.6406 6.0513 2.3893
2.4217 6.1431 2.3893
0.8801 2.4916 0.9560
0.7901 2.5220 0.9560
0.6990 2.5491 0.9559
0.6071 2.5728 0.9559
0.5142 2.5933 0.9558
0.4208 2.6104 0.9557
0.3267 2.6241 0.9556
0.2322 2.6344 0.9554
0.1374 2.6413 0.9553
0.0424 2.6447 0.9551
-0.0527 2.6447 0.9549
-0.1477 2.6413 0.9547
-0.2425 2.6345 0.9545
-0.3371 2.6242 0.9542
-0.4311 2.6105 0.9540
-0.5247 2.5935 0.9537
-0.6175 2.5731 0.9534
-0.7096 2.5493 0.9531
-0.8007 2.5222 0.9527
-0.8909 2.4919 0.9524
-2.4595 6.1708 2.3899
-2.6807 6.0810 2.3899
-2.8986 5.9833 2.3900
-3.1130 5.8779 2.3900
-3.3241 5.7658 2.3905
-3.5320 5.6474 2.3915
-3.7322 5.5170 2.3904
-3.9284 5.3795 2.3895
-4.1215 5.2382 2.3899
-4.3098 5.0903 2.3905
-4.4918 4.9344 2.3905
-4.6677 4.7716 2.3903
-4.8380 4.6029 2.3903
-5.0026 4.4285 2.3904
-5.1609 4.2481 2.3905
-5.3110 4.0609 2.3899
-5.4553 3.8691 2.3897
-5.5953 3.6738 2.3906
-5.7287 3.4737 2.3917
-5.8517 3.2670 2.3915
-5.9674 3.0561 2.3913
-6.0761 2.8413 2.3914
-6.1770 2.6227 2.3915
-6.2700 2.4004 2.3916
-6.3550 2.1749 2.3916
-6.4319 1.9464 2.3917
-6.5005 1.7152 2.3918
-6.5607 1.4815 2.3919
-6.6125 1.2457 2.3920
-6.6557 1.0082 2.3921
-6.6904 0.7691 2.3921
-6.7164 0.5288 2.3922
-6.7337 0.2877 2.3923
-6.7423 0.0461 2.3924
-6.7422 -0.1959 2.3925
-6.7333 -0.4377 2.3925
-6.7156 -0.6791 2.3926
-6.6892 -0.9198 2.3927
-6.6542 -1.1595 2.3928
-6.6104 -1.3978 2.3929
-6.5738 -1.6383 2.3987
-6.5295 -1.8783 2.4049
-6.4727 -2.1161 2.4098
-6.4042 -2.3510 2.4136
-6.3243 -2.5826 2.4163
-6.2338 -2.8105 2.4182
-6.1331 -3.0341 2.4193
-6.0226 -3.2532 2.4198
-5.9032 -3.4677 2.4199
-5.7760 -3.6777 2.4199
-5.6412 -3.8829 2.4199
-5.4990 -4.0831 2.4199
-5.3496 -4.2780 2.4199
-5.1933 -4.4674 2.4199
-5.0302 -4.6510 2.4199
-4.8605 -4.8286 2.4199
-4.6844 -4.9999 2.4199
-4.5023 -5.1647 2.4199
-4.3143 -5.3229 2.4199
-4.1207 -5.4740 2.4199
-3.9217 -5.6181 2.4199
-3.7176 -5.7548 2.4199
-3.5087 -5.8840 2.4199
-3.2953 -6.0056 2.4199
-3.0776 -6.1193 2.4199
-2.8560 -6.2250 2.4199
-2.6307 -6.3226 2.4199
-2.4020 -6.4120 2.4199
-2.1703 -6.4930 2.4199
-1.9358 -6.5655 2.4199
-1.6989 -6.6295 2.4199
-1.4598 -6.6848 2.4199
-1.2189 -6.7314 2.4199
-0.9766 -6.7693 2.4199
-0.7331 -6.7983 2.4199
-0.4887 -6.8185 2.4199
-0.2439 -6.8298 2.4199
0.0012 -6.8323 2.4199
0.2461 -6.8259 2.4199
0.4906 -6.8106 2.4199
0.7343 -6.7865 2.4199
0.9768 -6.7536 2.4199
1.2180 -6.7120 2.4199
1.4574 -6.6617 2.4199
1.6948 -6.6028 2.4199
1.9298 -6.5353 2.4199
2.1622 -6.4595 2.4199
2.3916 -6.3753 2.4199
2.6177 -6.2830 2.4199
2.8403 -6.1826 2.4199
3.0590 -6.0742 2.4199
3.2736 -5.9581 2.4199
3.4838 -5.8344 2.4199
3.6894 -5.7032 2.4199
3.8900 -5.5648 2.4199
4.0854 -5.4193 2.4199
4.2754 -5.2669 2.4199
4.4597 -5.1078 2.4199
4.6380 -4.9423 2.4199
4.8103 -4.7705 2.4199
4.9762 -4.5928 2.4199
5.1356 -4.4092 2.4199
5.2882 -4.2202 2.4199
5.4339 -4.0258 2.4199
5.5724 -3.8264 2.4199
5.7037 -3.6223 2.4199
5.8275 -3.4137 2.4199
5.9430 -3.2005 2.4196
6.0494 -2.9827 2.4188
6.1461 -2.7606 2.4172
6.2325 -2.5346 2.4149
6.3083 -2.3051 2.4116
6.3725 -2.0723 2.4071
6.4247 -1.8369 2.4013
6.4649 -1.5996 2.3943
6.5074 -1.3641 2.3913
6.5494 -1.1290 2.3912
6.5830 -0.8926 2.3911
6.6081 -0.6553 2.3911
6.6248 -0.4173 2.3910
6.6329 -0.1790 2.3909
6.6325 0.0594 2.3908
6.6237 0.2976 2.3907
6.6064 0.5352 2.3907
6.5806 0.7720 2.3906
6.5464 1.0076 2.3905
6.5039 1.2418 2.3904
6.4531 1.4742 2.3904
6.3941 1.7047 2.3903
6.3269 1.9328 2.3902
6.2517 2.1584 2.3902
6.1685 2.3811 2.3901
6.0775 2.6006 2.3900
5.9788 2.8168 2.3900
5.8725 3.0292 2.3899
5.7587 3.2377 2.3899
5.6376 3.4420 2.3898
5.5094 3.6418 2.3898
5.3741 3.8370 2.3897
5.2321 4.0271 2.3897
5.0834 4.2121 2.3896
4.9282 4.3918 2.3896
4.7668 4.5657 2.3895
4.5993 4.7338 2.3895
4.4260 4.8959 2.3895
4.2470 5.0517 2.3894
4.0626 5.2010 2.3894
3.8731 5.3438 2.3894
3.6786 5.4797 2.3894
3.4793 5.6086 2.3893
3.2757 5.7304 2.3893
3.0678 5.8449 2.3893
2.8560 5.9519 2.3893
2.6405 6.0514 2.3893
2.4216 6.1431 2.3893
0.8801 2.4916 0.9560
0.7901 2.5220 0.9560
0.6990 2.5491 0.9559
0.6070 2.5729 0.9559
0.5142 2.5933 0.9558
0.4207 2.6104 0.9557
0.3266 2.6241 0.9556
0.2321 2.6344 0.9554
0.1373 2.6413 0.9553
0.0423 2.6447 0.9551
-0.0527 2.6447 0.9549
-0.1478 2.6413 0.9547
-0.2426 2.6345 0.9545
-0.3371 2.6242 0.9542
-0.4312 2.6105 0.9540
-0.5247 2.5935 0.9537
-0.6176 2.5730 0.9534
-0.7097 2.5493 0.9531
-0.8008 2.5222 0.9527
-0.8909 2.4918 0.9524
-2.4597 6.1708 2.3899
-2.6808 6.0810 2.3899
-2.8988 5.9833 2.3900
-3.1131 5.8778 2.3900
-3.3242 5.7657 2.3905
-3.5321 5.6473 2.3915
-3.7327 5.5166 2.3904
-3.9285 5.3795 2.3895
-4.1216 5.2381 2.3899
-4.3100 5.0902 2.3905
-4.4919 4.9343 2.3905
-4.6678 4.7715 2.3903
-4.8381 4.6028 2.3903
-5.0027 4.4284 2.3904
-5.1609 4.2480 2.3905
-5.3111 4.0607 2.3899
-5.4554 3.8689 2.3897
-5.5954 3.6737 2.3906
-5.7288 3.4736 2.3917
-5.8518 3.2669 2.3915
-5.9675 3.0559 2.3913
-6.0762 2.8411 2.3914
-6.1771 2.6225 2.3915
-6.2701 2.4003 2.3916
-6.3551 2.1748 2.3916
-6.4319 1.9463 2.3917
-6.5005 1.7150 2.3918
-6.5607 1.4814 2.3919
-6.6125 1.2456 2.3920
-6.6557 1.0080 2.3921
-6.6904 0.7689 2.3921
-6.7164 0.5287 2.3922
-6.7337 0.2876 2.3923
-6.7423 0.0459 2.3924
-6.7422 -0.1960 2.3925
-6.7333 -0.4378 2.3925
-6.7156 -0.6793 2.3926
-6.6892 -0.9200 2.3927
-6.6541 -1.1596 2.3928
-6.6104 -1.3979 2.3929
-6.5738 -1.6385 2.3987
-6.5294 -1.8785 2.4049
-6.4727 -2.1162 2.4098
-6.4041 -2.3511 2.4136
-6.3243 -2.5827 2.4163
-6.2338 -2.8106 2.4182
-6.1330 -3.0343 2.4193
-6.0225 -3.2534 2.4198
-5.9031 -3.4679 2.4199
-5.7759 -3.6778 2.4199
-5.6411 -3.8830 2.4199
-5.4989 -4.0832 2.4199
-5.3495 -4.2781 2.4199
-5.1932 -4.4675 2.4199
-5.0301 -4.6511 2.4199
-4.8603 -4.8287 2.4199
-4.6843 -5.0000 2.4199
-4.5022 -5.1649 2.4199
-4.3142 -5.3230 2.4199
-4.1205 -5.4741 2.4199
-3.9216 -5.6182 2.4199
-3.7175 -5.7549 2.4199
-3.5086 -5.8841 2.4199
-3.2952 -6.0056 2.4199
-3.0775 -6.1193 2.4199
-2.8558 -6.2251 2.4199
-2.6305 -6.3227 2.4199
-2.4019 -6.4121 2.4199
-2.1701 -6.4930 2.4199
-1.9356 -6.5656 2.4199
-1.6987 -6.6295 2.4199
-1.4596 -6.6848 2.4199
-1.2188 -6.7315 2.4199
-0.9764 -6.7693 2.4199
-0.7329 -6.7983 2.4199
-0.4886 -6.8185 2.4199
-0.2437 -6.8298 2.4199
0.0005 -6.3725 2.4199
0.2290 -6.3667 2.4199
0.4570 -6.3525 2.4199
0.6843 -6.3302 2.4199
0.9105 -6.2996 2.4199
1.1355 -6.2609 2.4199
1.3589 -6.2141 2.4199
1.5803 -6.1593 2.4199
1.7996 -6.0966 2.4199
2.0164 -6.0260 2.4199
2.2304 -5.9476 2.4199
2.4414 -5.8616 2.4199
2.6491 -5.7681 2.4199
2.8532 -5.6671 2.4199
3.0535 -5.5590 2.4199
3.2497 -5.4437 2.4199
3.4415 -5.3214 2.4199
3.6287 -5.1924 2.4199
3.8112 -5.0568 2.4199
3.9885 -4.9147 2.4199
4.1606 -4.7665 2.4199
4.3272 -4.6121 2.4199
4.4880 -4.4520 2.4199
4.6430 -4.2862 2.4199
4.7918 -4.1151 2.4199
4.9343 -3.9388 2.4199
5.0704 -3.7575 2.4199
5.1998 -3.5716 2.4199
5.3225 -3.3812 2.4199
5.4375 -3.1862 2.4196
5.5443 -2.9867 2.4188
5.6425 -2.7829 2.4174
5.7315 -2.5753 2.4154
5.8111 -2.3641 2.4125
5.8808 -2.1496 2.4088
5.9401 -1.9325 2.4040
5.9881 -1.7128 2.3979
6.0270 -1.4920 2.3914
6.0742 -1.2740 2.3913
6.1136 -1.0546 2.3912
6.1451 -0.8339 2.3912
6.1687 -0.6124 2.3911
6.1844 -0.3902 2.3910
6.1921 -0.1677 2.3909
6.1919 0.0548 2.3909
6.1838 0.2772 2.3908
6.1678 0.4991 2.3907
6.1438 0.7201 2.3907
6.1121 0.9401 2.3906
6.0725 1.1589 2.3905
6.0252 1.3759 2.3904
5.9701 1.5911 2.3904
5.9075 1.8042 2.3903
5.8374 2.0149 2.3903
5.7598 2.2228 2.3902
5.6749 2.4279 2.3901
5.5828 2.6297 2.3901
5.4836 2.8282 2.3900
5.3774 3.0229 2.3900
5.2644 3.2137 2.3899
5.1447 3.4004 2.3899
5.0184 3.5826 2.3898
4.8858 3.7603 2.3898
4.7470 3.9331 2.3897
4.6021 4.1008 2.3897
4.4514 4.2633 2.3897
4.2950 4.4203 2.3896
4.1331 4.5717 2.3896
3.9660 4.7172 2.3896
3.7938 4.8567 2.3896
3.6168 4.9900 2.3895
3.4351 5.1169 2.3895
3.2491 5.2373 2.3895
3.0589 5.3510 2.3895
2.8647 5.4579 2.3895
2.6669 5.5579 2.3895
2.4656 5.6507 2.3894
0.9038 2.2928 0.9550
0.8209 2.3241 0.9550
0.7369 2.3524 0.9550
0.6519 2.3776 0.9550
0.5661 2.3998 0.9549
0.4795 2.4189 0.9548
0.3923 2.4348 0.9547
0.3046 2.4476 0.9546
0.2164 2.4572 0.9545
0.1280 2.4636 0.9543
0.0394 2.4668 0.9542
-0.0493 2.4668 0.9540
-0.1379 2.4636 0.9538
-0.2264 2.4572 0.9536
-0.3146 2.4476 0.9533
-0.4023 2.4349 0.9531
-0.4896 2.4190 0.9528
-0.5762 2.3999 0.9526
-0.6621 2.3777 0.9523
-0.7471 2.3525 0.9520
-0.8311 2.3242 0.9516
-0.9141 2.2928 0.9513
-2.5029 5.6763 2.3900
-2.7062 5.5850 2.3901
-2.9063 5.4864 2.3901
-3.1028 5.3807 2.3902
-3.2954 5.2680 2.3902
-3.4839 5.1485 2.3903
-3.6682 5.0222 2.3904
-3.8478 4.8894 2.3904
-4.0227 4.7502 2.3905
-4.1925 4.6047 2.3906
-4.3571 4.4532 2.3906
-4.5162 4.2959 2.3907
-4.6696 4.1328 2.3908
-4.8171 3.9644 2.3909
-4.9586 3.7906 2.3909
-5.0938 3.6118 2.3910
-5.2225 3.4282 2.3911
-5.3446 3.2401 2.3912
-5.4598 3.0475 2.3912
-5.5682 2.8509 2.3913
-5.6694 2.6505 2.3914
-5.7634 2.4464 2.3915
-5.8501 2.2390 2.3916
-5.9292 2.0286 2.3916
-6.0007 1.8153 2.3917
-6.0645 1.5996 2.3918
-6.1205 1.3815 2.3919
-6.1687 1.1616 2.3920
-6.2089 0.9399 2.3920
-6.2411 0.7169 2.3921
-6.2652 0.4928 2.3922
-6.2812 0.2679 2.3923
-6.2890 0.0425 2.3923
-6.2888 -0.1832 2.3924
-6.2803 -0.4087 2.3925
-6.2637 -0.6339 2.3926
-6.2390 -0.8583 2.3926
-6.2062 -1.0818 2.3927
-6.1653 -1.3040 2.3928
-6.1223 -1.5262 2.3952
-6.0815 -1.7498 2.4016
-6.0296 -1.9716 2.4070
-5.9667 -2.1908 2.4111
-5.8934 -2.4069 2.4143
-5.8101 -2.6197 2.4167
-5.7174 -2.8287 2.4183
-5.6155 -3.0336 2.4193
-5.5050 -3.2340 2.4197
-5.3866 -3.4299 2.4199
-5.2608 -3.6213 2.4199
-5.1282 -3.8079 2.4199
-4.9889 -3.9897 2.4199
-4.8431 -4.1663 2.4199
-4.6910 -4.3375 2.4199
-4.5327 -4.5031 2.4199
-4.3685 -4.6628 2.4199
-4.1987 -4.8165 2.4199
-4.0234 -4.9639 2.4199
-3.8429 -5.1049 2.4199
-3.6573 -5.2392 2.4199
-3.4670 -5.3667 2.4199
-3.2723 -5.4872 2.4199
-3.0733 -5.6006 2.4199
-2.8703 -5.7067 2.4199
-2.6636 -5.8053 2.4199
-2.4535 -5.8964 2.4199
-2.2403 -5.9798 2.4199
-2.0242 -6.0554 2.4199
-1.8056 -6.1231 2.4199
-1.5847 -6.1828 2.4199
-1.3617 -6.2344 2.4199
-1.1371 -6.2780 2.4199
-0.9112 -6.3134 2.4199
-0.6841 -6.3405 2.4199
-0.4562 -6.3595 2.4199
-0.2278 -6.3701 2.4199
0.0007 -6.3725 2.4199
0.2291 -6.3667 2.4199
0.4571 -6.3525 2.4199
0.6844 -6.3302 2.4199
0.9107 -6.2996 2.4199
1.1356 -6.2609 2.4199
1.3590 -6.2141 2.4199
1.5805 -6.1593 2.4199
1.7997 -6.0965 2.4199
2.0165 -6.0259 2.4199
2.2305 -5.9475 2.4199
2.4415 -5.8615 2.4199
2.6492 -5.7680 2.4199
2.8533 -5.6671 2.4199
3.0536 -5.5589 2.4199
3.2498 -5.4436 2.4199
3.4416 -5.3214 2.4199
3.6289 -5.1923 2.4199
3.8113 -5.0567 2.4199
3.9886 -4.9146 2.4199
4.1607 -4.7664 2.4199
4.3273 -4.6120 2.4199
4.4881 -4.4519 2.4199
4.6431 -4.2861 2.4199
4.7919 -4.1150 2.4199
4.9344 -3.9387 2.4199
5.0705 -3.7574 2.4199
5.1999 -3.5714 2.4199
5.3226 -3.3810 2.4199
5.4376 -3.1861 2.4196
5.5444 -2.9866 2.4188
5.6425 -2.7828 2.4174
5.7316 -2.5751 2.4154
5.8112 -2.3639 2.4125
5.8809 -2.1495 2.4088
5.9401 -1.9323 2.4040
5.9881 -1.7127 2.3979
6.0270 -1.4919 2.3914
6.0742 -1.2739 2.3913
6.1136 -1.0544 2.3912
6.1451 -0.8338 2.3912
6.1687 -0.6123 2.3911
6.1844 -0.3901 2.3910
6.1921 -0.1676 2.3909
6.1919 0.0550 2.3909
6.1838 0.2773 2.3908
6.1677 0.4992 2.3907
6.1438 0.7203 2.3907
6.1120 0.9403 2.3906
6.0724 1.1590 2.3905
6.0251 1.3761 2.3904
5.9701 1.5913 2.3904
5.9075 1.8043 2.3903
5.8373 2.0150 2.3903
5.7598 2.2230 2.3902
5.6749 2.4280 2.3901
5.5828 2.6299 2.3901
5.4835 2.8283 2.3900
5.3773 3.0230 2.3900
5.2643 3.2139 2.3899
5.1446 3.4005 2.3899
5.0184 3.5828 2.3898
4.8857 3.7604 2.3898
4.7469 3.9332 2.3897
4.6020 4.1009 2.3897
4.4513 4.2634 2.3897
4.2949 4.4204 2.3896
4.1330 4.5718 2.3896
3.9659 4.7173 2.3896
3.7937 4.8568 2.3896
3.6167 4.9901 2.3895
3.4350 5.1170 2.3895
3.2490 5.2374 2.3895
3.0588 5.3511 2.3895
2.8646 5.4580 2.3895
2.6668 5.5579 2.3895
2.4655 5.6508 2.3894
0.9037 2.2928 0.9550
0.8208 2.3241 0.9550
0.7368 2.3524 0.9550
0.6519 2.3776 0.9550
0.5661 2.3998 0.9549
0.4795 2.4189 0.9548
0.3923 2.4348 0.9547
0.3045 2.4476 0.9546
0.2164 2.4572 0.9545
0.1279 2.4636 0.9543
0.0393 2.4668 0.9542
-0.0494 2.4668 0.9540
-0.1380 2.4636 0.9538
-0.2264 2.4572 0.9536
-0.3146 2.4476 0.9533
-0.4024 2.4349 0.9531
-0.4896 2.4189 0.9528
-0.5762 2.3999 0.9526
-0.6621 2.3777 0.9523
-0.7471 2.3525 0.9520
-0.8312 2.3241 0.9516
-0.9141 2.2928 0.9513
-2.5030 5.6762 2.3900
-2.7064 5.5849 2.3901
-2.9064 5.4863 2.3901
-3.1029 5.3806 2.3902
-3.2955 5.2679 2.3902
-3.4841 5.1484 2.3903
-3.6683 5.0221 2.3904
-3.8479 4.8893 2.3904
-4.0228 4.7501 2.3905
-4.1926 4.6046 2.3906
-4.3572 4.4531 2.3906
-4.5163 4.2958 2.3907
-4.6697 4.1327 2.3908
-4.8172 3.9642 2.3909
-4.9587 3.7905 2.3909
-5.0938 3.6117 2.3910
-5.2225 3.4281 2.3911
-5.3446 3.2399 2.3912
-5.4599 3.0474 2.3912
-5.5683 2.8508 2.3913
-5.6695 2.6503 2.3914
-5.7635 2.4463 2.3915
-5.8501 2.2389 2.3916
-5.9292 2.0284 2.3916
-6.0008 1.8152 2.3917
-6.0646 1.5994 2.3918
-6.1206 1.3814 2.3919
-6.1687 1.1614 2.3920
-6.2089 0.9398 2.3920
-6.2411 0.7168 2.3921
-6.2652 0.4926 2.3922
-6.2812 0.2677 2.3923
-6.2891 0.0423 2.3923
-6.2888 -0.1833 2.3924
-6.2803 -0.4088 2.3925
-6.2637 -0.6340 2.3926
-6.2390 -0.8585 2.3926
-6.2061 -1.0820 2.3927
-6.1652 -1.3042 2.3928
-6.1223 -1.5263 2.3952
-6.0815 -1.7500 2.4016
-6.0296 -1.9717 2.4070
-5.9667 -2.1909 2.4111
-5.8934 -2.4071 2.4143
-5.8101 -2.6199 2.4167
-5.7173 -2.8289 2.4183
-5.6154 -3.0338 2.4193
-5.5049 -3.2342 2.4197
-5.3865 -3.4301 2.4199
-5.2607 -3.6214 2.4199
-5.1281 -3.8081 2.4199
-4.9888 -3.9898 2.4199
-4.8430 -4.1664 2.4199
-4.6908 -4.3376 2.4199
-4.5326 -4.5032 2.4199
-4.3684 -4.6629 2.4199
-4.1986 -4.8166 2.4199
-4.0233 -4.9640 2.4199
-3.8427 -5.1050 2.4199
-3.6572 -5.2393 2.4199
-3.4669 -5.3668 2.4199
-3.2721 -5.4873 2.4199
-3.0731 -5.6007 2.4199
-2.8701 -5.7067 2.4199
-2.6635 -5.8054 2.4199
-2.4534 -5.8964 2.4199
-2.2402 -5.9798 2.4199
-2.0241 -6.0554 2.4199
-1.8054 -6.1231 2.4199
-1.5845 -6.1828 2.4199
-1.3616 -6.2345 2.4199
-1.1370 -6.2780 2.4199
-0.9110 -6.3134 2.4199
-0.6839 -6.3406 2.4199
-0.4561 -6.3595 2.4199
-0.2277 -6.3701 2.4199
0.0001 -5.9643 2.4199
0.2139 -5.9589 2.4199
0.4273 -5.9457 2.4199
0.6400 -5.9249 2.4199
0.8518 -5.8964 2.4199
1.0624 -5.8603 2.4199
1.2714 -5.8166 2.4199
1.4787 -5.7654 2.4199
1.6840 -5.7068 2.4199
1.8869 -5.6408 2.4199
2.0873 -5.5676 2.4199
2.2849 -5.4872 2.4199
2.4793 -5.3998 2.4199
2.6704 -5.3054 2.4199
2.8580 -5.2042 2.4199
3.0417 -5.0964 2.4199
3.2214 -4.9821 2.4199
3.3967 -4.8615 2.4199
3.5676 -4.7346 2.4199
3.7337 -4.6017 2.4199
3.8949 -4.4630 2.4199
4.0509 -4.3186 2.4199
4.2016 -4.1688 2.4199
4.3468 -4.0137 2.4199
4.4863 -3.8535 2.4199
4.6198 -3.6885 2.4199
4.7474 -3.5189 2.4199
4.8686 -3.3448 2.4198
4.9830 -3.1662 2.4196
5.0898 -2.9831 2.4188
5.1889 -2.7959 2.4175
5.2799 -2.6048 2.4157
5.3624 -2.4101 2.4132
5.4361 -2.2121 2.4100
5.5005 -2.0112 2.4059
5.5552 -1.8078 2.4007
5.6002 -1.6025 2.3946
5.6445 -1.3979 2.3914
5.6888 -1.1937 2.3913
5.7258 -0.9882 2.3913
5.7555 -0.7816 2.3912
5.7777 -0.5741 2.3911
5.7925 -0.3660 2.3911
5.7999 -0.1576 2.3910
5.7999 0.0509 2.3909
5.7924 0.2592 2.3908
5.7774 0.4670 2.3908
5.7551 0.6742 2.3907
5.7255 0.8803 2.3906
5.6885 1.0852 2.3906
5.6442 1.2886 2.3905
5.5928 1.4902 2.3905
5.5342 1.6898 2.3904
5.4686 1.8872 2.3903
5.3960 2.0821 2.3903
5.3165 2.2743 2.3902
5.2303 2.4634 2.3902
5.1374 2.6493 2.3901
5.0379 2.8318 2.3901
4.9321 3.0106 2.3900
4.8200 3.1856 2.3900
4.7017 3.3563 2.3899
4.5775 3.5228 2.3899
4.4474 3.6847 2.3899
4.3117 3.8419 2.3898
4.1705 3.9942 2.3898
4.0240 4.1413 2.3898
3.8723 4.2832 2.3897
3.7157 4.4195 2.3897
3.5544 4.5502 2.3897
3.3885 4.6751 2.3897
3.2183 4.7940 2.3896
3.0440 4.9068 2.3896
2.8657 5.0134 2.3896
2.6838 5.1135 2.3896
2.4985 5.2071 2.3896
0.9223 2.1139 0.9541
0.8458 2.1459 0.9541
0.7682 2.1752 0.9541
0.6896 2.2017 0.9541
0.6101 2.2253 0.9541
0.5297 2.2461 0.9540
0.4487 2.2639 0.9539
0.3671 2.2788 0.9539
0.2849 2.2907 0.9538
0.2024 2.2997 0.9536
0.1197 2.3057 0.9535
0.0367 2.3087 0.9533
-0.0463 2.3087 0.9532
-0.1292 2.3057 0.9530
-0.2120 2.2997 0.9528
-0.2946 2.2908 0.9526
-0.3767 2.2788 0.9523
-0.4584 2.2639 0.9521
-0.5395 2.2461 0.9518
-0.6198 2.2253 0.9516
-0.6994 2.2017 0.9513
-0.7781 2.1752 0.9510
-0.8557 2.1459 0.9507
-2.3447 5.3162 2.3901
-2.5351 5.2306 2.3902
-2.7224 5.1381 2.3902
-2.9064 5.0390 2.3903
-3.0867 4.9334 2.3903
-3.2632 4.8213 2.3904
-3.4357 4.7029 2.3905
-3.6039 4.5784 2.3905
-3.7675 4.4480 2.3906
-3.9265 4.3116 2.3906
-4.0805 4.1697 2.3907
-4.2293 4.0222 2.3908
-4.3729 3.8695 2.3908
-4.5109 3.7116 2.3909
-4.6433 3.5488 2.3910
-4.7697 3.3813 2.3910
-4.8901 3.2093 2.3911
-5.0043 3.0331 2.3912
-5.1121 2.8527 2.3913
-5.2134 2.6686 2.3913
-5.3080 2.4809 2.3914
-5.3959 2.2898 2.3915
-5.4769 2.0956 2.3916
-5.5508 1.8985 2.3916
-5.6176 1.6989 2.3917
-5.6772 1.4968 2.3918
-5.7295 1.2927 2.3919
-5.7745 1.0868 2.3919
-5.8120 0.8793 2.3920
-5.8419 0.6706 2.3921
-5.8644 0.4608 2.3921
-5.8792 0.2503 2.3922
-5.8865 0.0393 2.3923
-5.8861 -0.1719 2.3924
-5.8781 -0.3830 2.3924
-5.8625 -0.5937 2.3925
-5.8392 -0.8037 2.3926
-5.8084 -1.0129 2.3926
-5.7700 -1.2208 2.3927
-5.7241 -1.4273 2.3928
-5.6840 -1.6358 2.3984
-5.6359 -1.8432 2.4039
-5.5778 -2.0483 2.4084
-5.5100 -2.2507 2.4120
-5.4331 -2.4500 2.4148
-5.3474 -2.6460 2.4169
-5.2531 -2.8381 2.4184
-5.1507 -3.0262 2.4193
-5.0405 -3.2098 2.4197
-4.9231 -3.3891 2.4199
-4.7990 -3.5637 2.4199
-4.6686 -3.7338 2.4199
-4.5322 -3.8990 2.4199
-4.3898 -4.0592 2.4199
-4.2417 -4.2141 2.4199
-4.0881 -4.3636 2.4199
-3.9292 -4.5073 2.4199
-3.7651 -4.6453 2.4199
-3.5962 -4.7772 2.4199
-3.4226 -4.9029 2.4199
-3.2445 -5.0222 2.4199
-3.0623 -5.1350 2.4199
-2.8761 -5.2411 2.4199
-2.6862 -5.3404 2.4199
-2.4928 -5.4327 2.4199
-2.2963 -5.5180 2.4199
-2.0968 -5.5960 2.4199
-1.8946 -5.6668 2.4199
-1.6900 -5.7302 2.4199
-1.4833 -5.7861 2.4199
-1.2747 -5.8346 2.4199
-1.0645 -5.8754 2.4199
-0.8530 -5.9086 2.4199
-0.6406 -5.9341 2.4199
-0.4273 -5.9519 2.4199
-0.2136 -5.9619 2.4199
0.0003 -5.9643 2.4199
0.2140 -5.9588 2.4199
0.4274 -5.9457 2.4199
0.6402 -5.9249 2.4199
0.8519 -5.8964 2.4199
1.0625 -5.8603 2.4199
1.2716 -5.8166 2.4199
1.4789 -5.7654 2.4199
1.6841 -5.7067 2.4199
1.8871 -5.6408 2.4199
2.0875 -5.5675 2.4199
2.2850 -5.4871 2.4199
2.4795 -5.3997 2.4199
2.6706 -5.3053 2.4199
2.8581 -5.2042 2.4199
3.0418 -5.0964 2.4199
3.2215 -4.9820 2.4199
3.3968 -4.8614 2.4199
3.5677 -4.7345 2.4199
3.7338 -4.6016 2.4199
3.8950 -4.4629 2.4199
4.0510 -4.3185 2.4199
4.2017 -4.1687 2.4199
4.3469 -4.0136 2.4199
4.4864 -3.8534 2.4199
4.6199 -3.6884 2.4199
4.7474 -3.5188 2.4199
4.8687 -3.3447 2.4198
4.9830 -3.1661 2.4196
5.0899 -2.9830 2.4188
5.1890 -2.7958 2.4175
5.2800 -2.6047 2.4157
5.3625 -2.4100 2.4132
5.4362 -2.2120 2.4100
5.5006 -2.0111 2.4059
5.5552 -1.8077 2.4007
5.6002 -1.6023 2.3946
5.6445 -1.3977 2.3914
5.6889 -1.1936 2.3913
5.7259 -0.9881 2.3913
5.7555 -0.7815 2.3912
5.7777 -0.5740 2.3911
5.7926 -0.3659 2.3911
5.7999 -0.1574 2.3910
5.7999 0.0511 2.3909
5.7924 0.2593 2.3908
5.7774 0.4672 2.3908
5.7551 0.6743 2.3907
5.7254 0.8804 2.3906
5.6885 1.0853 2.3906
5.6442 1.2887 2.3905
5.5928 1.4903 2.3905
5.5342 1.6900 2.3904
5.4685 1.8874 2.3903
5.3959 2.0822 2.3903
5.3165 2.2744 2.3902
5.2302 2.4635 2.3902
5.1373 2.6495 2.3901
5.0379 2.8320 2.3901
4.9320 3.0108 2.3900
4.8199 3.1857 2.3900
4.7016 3.3565 2.3899
4.5774 3.5229 2.3899
4.4473 3.6848 2.3899
4.3116 3.8420 2.3898
4.1704 3.9943 2.3898
4.0239 4.1414 2.3898
3.8722 4.2833 2.3897
3.7156 4.4196 2.3897
3.5543 4.5503 2.3897
3.3884 4.6752 2.3897
3.2182 4.7941 2.3896
3.0439 4.9069 2.3896
2.8656 5.0134 2.3896
2.6837 5.1136 2.3896
2.4983 5.2072 2.3896
0.9222 2.1139 0.9541
0.8458 2.1460 0.9541
0.7682 2.1752 0.9541
0.6895 2.2017 0.9541
0.6100 2.2253 0.9541
0.5297 2.2461 0.9540
0.4486 2.2639 0.9539
0.3670 2.2788 0.9539
0.2849 2.2907 0.9538
0.2024 2.2997 0.9536
0.1196 2.3057 0.9535
0.0367 2.3087 0.9533
-0.0463 2.3087 0.9532
-0.1293 2.3057 0.9530
-0.2121 2.2997 0.9528
-0.2946 2.2908 0.9526
-0.3768 2.2788 0.9523
-0.4584 2.2639 0.9521
-0.5395 2.2461 0.9518
-0.6199 2.2253 0.9516
-0.6995 2.2017 0.9513
-0.7781 2.1752 0.9510
-0.8558 2.1459 0.9507
-2.3448 5.3162 2.3901
-2.5353 5.2305 2.3902
-2.7226 5.1381 2.3902
-2.9065 5.0390 2.3903
-3.0868 4.9333 2.3903
-3.2634 4.8212 2.3904
-3.4358 4.7029 2.3905
-3.6040 4.5784 2.3905
-3.7676 4.4479 2.3906
-3.9266 4.3115 2.3906
-4.0806 4.1696 2.3907
-4.2294 4.0221 2.3908
-4.3730 3.8693 2.3908
-4.5110 3.7115 2.3909
-4.6433 3.5487 2.3910
-4.7698 3.3812 2.3910
-4.8902 3.2092 2.3911
-5.0043 3.0330 2.3912
-5.1122 2.8526 2.3913
-5.2135 2.6685 2.3913
-5.3081 2.4807 2.3914
-5.3960 2.2896 2.3915
-5.4769 2.0954 2.3916
-5.5509 1.8984 2.3916
-5.6177 1.6987 2.3917
-5.6773 1.4967 2.3918
-5.7296 1.2926 2.3919
-5.7745 1.0867 2.3919
-5.8120 0.8792 2.3920
-5.8420 0.6704 2.3921
-5.8644 0.4606 2.3921
-5.8792 0.2501 2.3922
-5.8865 0.0391 2.3923
-5.8861 -0.1720 2.3924
-5.8781 -0.3831 2.3924
-5.8624 -0.5938 2.3925
-5.8392 -0.8039 2.3926
-5.8083 -1.0130 2.3926
-5.7699 -1.2210 2.3927
-5.7240 -1.4274 2.3928
-5.6839 -1.6360 2.3984
-5.6359 -1.8433 2.4040
-5.5777 -2.0484 2.4084
-5.5100 -2.2508 2.4120
-5.4331 -2.4502 2.4148
-5.3473 -2.6461 2.4169
-5.2531 -2.8383 2.4184
-5.1506 -3.0263 2.4193
-5.0405 -3.2100 2.4197
-4.9231 -3.3892 2.4199
-4.7989 -3.5638 2.4199
-4.6686 -3.7339 2.4199
-4.5321 -3.8991 2.4199
-4.3897 -4.0593 2.4199
-4.2416 -4.2142 2.4199
-4.0880 -4.3637 2.4199
-3.9291 -4.5074 2.4199
-3.7650 -4.6454 2.4199
-3.5961 -4.7773 2.4199
-3.4225 -4.9030 2.4199
-3.2444 -5.0223 2.4199
-3.0622 -5.1351 2.4199
-2.8760 -5.2412 2.4199
-2.6861 -5.3405 2.4199
-2.4927 -5.4328 2.4199
-2.2961 -5.5180 2.4199
-2.0966 -5.5961 2.4199
-1.8944 -5.6668 2.4199
-1.6899 -5.7303 2.4199
-1.4831 -5.7862 2.4199
-1.2746 -5.8346 2.4199
-1.0644 -5.8754 2.4199
-0.8529 -5.9086 2.4199
-0.6404 -5.9341 2.4199
-0.4272 -5.9519 2.4199
-0.2135 -5.9619 2.4199
-0.0003 -5.5989 2.4199
0.2004 -5.5939 2.4199
0.4007 -5.5817 2.4199
0.6004 -5.5622 2.4199
0.7992 -5.5356 2.4199
0.9969 -5.5017 2.4199
1.1932 -5.4608 2.4199
1.3878 -5.4129 2.4199
1.5805 -5.3579 2.4199
1.7711 -5.2961 2.4199
1.9593 -5.2274 2.4199
2.1448 -5.1520 2.4199
2.3274 -5.0700 2.4199
2.5069 -4.9816 2.4199
2.6830 -4.8867 2.4199
2.8555 -4.7856 2.4199
3.0243 -4.6783 2.4199
3.1890 -4.5651 2.4199
3.3495 -4.4461 2.4199
3.5055 -4.3214 2.4199
3.6570 -4.1912 2.4199
3.8036 -4.0557 2.4199
3.9452 -3.9151 2.4199
4.0816 -3.7696 2.4199
4.2126 -3.6192 2.4199
4.3382 -3.4643 2.4199
4.4578 -3.3050 2.4198
4.5714 -3.1413 2.4195
4.6780 -2.9731 2.4188
4.7776 -2.8008 2.4176
4.8699 -2.6247 2.4160
4.9547 -2.4450 2.4138
5.0315 -2.2620 2.4110
5.1001 -2.0760 2.4074
5.1600 -1.8873 2.4030
5.2109 -1.6963 2.3976
5.2531 -1.5037 2.3915
5.3017 -1.3135 2.3914
5.3435 -1.1218 2.3914
5.3784 -0.9288 2.3913
5.4063 -0.7347 2.3912
5.4273 -0.5398 2.3912
5.4413 -0.3443 2.3911
5.4484 -0.1485 2.3910
5.4484 0.0474 2.3910
5.4415 0.2431 2.3909
5.4275 0.4383 2.3908
5.4067 0.6329 2.3908
5.3789 0.8266 2.3907
5.3442 1.0191 2.3906
5.3027 1.2102 2.3906
5.2545 1.3997 2.3905
5.1995 1.5873 2.3905
5.1379 1.7728 2.3904
5.0697 1.9559 2.3904
4.9951 2.1365 2.3903
4.9141 2.3142 2.3903
4.8269 2.4890 2.3902
4.7335 2.6605 2.3902
4.6341 2.8285 2.3901
4.5288 2.9929 2.3901
4.4177 3.1534 2.3900
4.3010 3.3098 2.3900
4.1788 3.4620 2.3900
4.0513 3.6097 2.3899
3.9186 3.7528 2.3899
3.7809 3.8911 2.3899
3.6384 4.0244 2.3898
3.4913 4.1525 2.3898
3.3397 4.2754 2.3898
3.1838 4.3927 2.3898
3.0239 4.5045 2.3898
2.8600 4.6104 2.3897
2.6925 4.7105 2.3897
2.5216 4.8046 2.3897
2.3474 4.8926 2.3897
0.8658 1.9844 0.9533
0.7939 2.0145 0.9534
0.7211 2.0420 0.9533
0.6473 2.0668 0.9533
0.5726 2.0890 0.9533
0.4972 2.1085 0.9532
0.4211 2.1252 0.9532
0.3445 2.1392 0.9531
0.2674 2.1504 0.9530
0.1899 2.1588 0.9529
0.1122 2.1644 0.9527
0.0343 2.1672 0.9526
-0.0436 2.1672 0.9524
-0.1215 2.1644 0.9523
-0.1992 2.1588 0.9521
-0.2767 2.1504 0.9519
-0.3538 2.1391 0.9517
-0.4305 2.1252 0.9514
-0.5066 2.1084 0.9512
-0.5820 2.0889 0.9509
-0.6567 2.0668 0.9507
-0.7306 2.0419 0.9504
-0.8035 2.0144 0.9501
-0.8754 1.9842 0.9498
-2.3818 4.9130 2.3903
-2.5577 4.8260 2.3903
-2.7304 4.7328 2.3904
-2.8997 4.6335 2.3904
-3.0655 4.5281 2.3905
-3.2274 4.4169 2.3905
-3.3853 4.2998 2.3906
-3.5389 4.1772 2.3906
-3.6881 4.0491 2.3907
-3.8327 3.9156 2.3908
-3.9724 3.7771 2.3908
-4.1071 3.6335 2.3909
-4.2367 3.4852 2.3910
-4.3608 3.3322 2.3910
-4.4795 3.1749 2.3911
-4.5924 3.0133 2.3911
-4.6995 2.8477 2.3912
-4.8007 2.6783 2.3913
-4.8957 2.5053 2.3914
-4.9844 2.3290 2.3914
-5.0668 2.1495 2.3915
-5.1427 1.9671 2.3916
-5.2121 1.7821 2.3916
-5.2747 1.5946 2.3917
-5.3305 1.4049 2.3918
-5.3795 1.2132 2.3918
-5.4216 1.0199 2.3919
-5.4567 0.8251 2.3920
-5.4847 0.6291 2.3920
-5.5057 0.4321 2.3921
-5.5195 0.2345 2.3922
-5.5262 0.0364 2.3922
-5.5258 -0.1618 2.3923
-5.5182 -0.3599 2.3924
-5.5034 -0.5577 2.3924
-5.4815 -0.7549 2.3925
-5.4524 -0.9512 2.3926
-5.4163 -1.1464 2.3926
-5.3731 -1.3401 2.3927
-5.3285 -1.5339 2.3952
-5.2836 -1.7283 2.4009
-5.2298 -1.9208 2.4057
-5.1669 -2.1108 2.4095
-5.0954 -2.2980 2.4127
-5.0157 -2.4821 2.4151
-4.9281 -2.6628 2.4170
-4.8329 -2.8397 2.4184
-4.7303 -3.0125 2.4192
-4.6207 -3.1810 2.4197
-4.5045 -3.3452 2.4199
-4.3822 -3.5048 2.4199
-4.2541 -3.6599 2.4199
-4.1204 -3.8102 2.4199
-3.9814 -3.9556 2.4199
-3.8372 -4.0958 2.4199
-3.6881 -4.2308 2.4199
-3.5341 -4.3603 2.4199
-3.3756 -4.4841 2.4199
-3.2126 -4.6020 2.4199
-3.0455 -4.7141 2.4199
-2.8745 -4.8199 2.4199
-2.6998 -4.9195 2.4199
-2.5215 -5.0127 2.4199
-2.3401 -5.0994 2.4199
-2.1556 -5.1794 2.4199
-1.9683 -5.2527 2.4199
-1.7786 -5.3192 2.4199
-1.5866 -5.3788 2.4199
-1.3926 -5.4313 2.4199
-1.1968 -5.4768 2.4199
-0.9995 -5.5152 2.4199
-0.8011 -5.5464 2.4199
-0.6016 -5.5704 2.4199
-0.4015 -5.5871 2.4199
-0.2009 -5.5967 2.4199
-0.0001 -5.5989 2.4199
0.2005 -5.5939 2.4199
0.4009 -5.5817 2.4199
0.6006 -5.5622 2.4199
0.7994 -5.5355 2.4199
0.9970 -5.5017 2.4199
1.1933 -5.4608 2.4199
1.3880 -5.4128 2.4199
1.5807 -5.3579 2.4199
1.7712 -5.2960 2.4199
1.9594 -5.2274 2.4199
2.1449 -5.1520 2.4199
2.3275 -5.0700 2.4199
2.5070 -4.9815 2.4199
2.6831 -4.8866 2.4199
2.8556 -4.7855 2.4199
3.0244 -4.6782 2.4199
3.1891 -4.5650 2.4199
3.3496 -4.4460 2.4199
3.5056 -4.3213 2.4199
3.6571 -4.1911 2.4199
3.8037 -4.0557 2.4199
3.9453 -3.9150 2.4199
4.0817 -3.7695 2.4199
4.2127 -3.6191 2.4199
4.3382 -3.4642 2.4199
4.4579 -3.3049 2.4198
4.5714 -3.1412 2.4195
4.6780 -2.9730 2.4188
4.7776 -2.8007 2.4176
4.8700 -2.6245 2.4160
4.9547 -2.4448 2.4138
5.0316 -2.2618 2.4110
5.1001 -2.0759 2.4074
5.1600 -1.8872 2.4030
5.2109 -1.6962 2.3976
5.2531 -1.5036 2.3915
5.3017 -1.3134 2.3914
5.3435 -1.1217 2.3914
5.3784 -0.9286 2.3913
5.4063 -0.7345 2.3912
5.4273 -0.5396 2.3912
5.4413 -0.3441 2.3911
5.4484 -0.1483 2.3910
5.4484 0.0475 2.3910
5.4415 0.2432 2.3909
5.4275 0.4385 2.3908
5.4067 0.6331 2.3908
5.3789 0.8267 2.3907
5.3442 1.0193 2.3906
5.3027 1.2104 2.3906
5.2544 1.3998 2.3905
5.1995 1.5874 2.3905
5.1378 1.7729 2.3904
5.0697 1.9560 2.3904
4.9951 2.1366 2.3903
4.9141 2.3144 2.3903
4.8268 2.4891 2.3902
4.7334 2.6606 2.3902
4.6340 2.8286 2.3901
4.5287 2.9930 2.3901
4.4176 3.1535 2.3900
4.3009 3.3099 2.3900
4.1787 3.4621 2.3900
4.0512 3.6098 2.3899
3.9185 3.7529 2.3899
3.7808 3.8912 2.3899
3.6383 4.0245 2.3898
3.4912 4.1526 2.3898
3.3396 4.2754 2.3898
3.1837 4.3928 2.3898
3.0237 4.5045 2.3898
2.8599 4.6105 2.3897
2.6924 4.7106 2.3897
2.5215 4.8047 2.3897
2.3473 4.8926 2.3897
0.8657 1.9844 0.9533
0.7939 2.0145 0.9534
0.7210 2.0420 0.9533
0.6472 2.0669 0.9533
0.5726 2.0890 0.9533
0.4971 2.1085 0.9532
0.4211 2.1252 0.9532
0.3444 2.1392 0.9531
0.2673 2.1504 0.9530
0.1899 2.1588 0.9529
0.1121 2.1644 0.9527
0.0343 2.1672 0.9526
-0.0437 2.1672 0.9524
-0.1215 2.1644 0.9523
-0.1993 2.1588 0.9521
-0.2767 2.1504 0.9519
-0.3538 2.1391 0.9517
-0.4305 2.1252 0.9514
-0.5066 2.1084 0.9512
-0.5821 2.0889 0.9509
-0.6568 2.0667 0.9507
-0.7306 2.0419 0.9504
-0.8035 2.0143 0.9501
-0.8754 1.9842 0.9498
-2.3819 4.9129 2.3903
-2.5578 4.8260 2.3903
-2.7305 4.7328 2.3904
-2.8999 4.6334 2.3904
-3.0656 4.5281 2.3905
-3.2275 4.4168 2.3905
-3.3854 4.2998 2.3906
-3.5390 4.1771 2.3906
-3.6882 4.0490 2.3907
-3.8328 3.9155 2.3908
-3.9725 3.7770 2.3908
-4.1072 3.6334 2.3909
-4.2367 3.4851 2.3910
-4.3609 3.3321 2.3910
-4.4795 3.1748 2.3911
-4.5925 3.0132 2.3911
-4.6996 2.8476 2.3912
