ply
format ascii 1.0
element vertex 2180
property float32 x
property float32 y
property float32 z
end_header
9.6840 -1.2993 0.7458
9.1498 -2.2494 0.9311
9.1481 -1.9034 0.9240
9.4103 -1.6079 0.9447
9.6844 -1.2988 0.9676
9.1513 -2.2506 0.9312
9.1474 -1.9042 0.9239
9.4096 -1.6087 0.9446
9.6837 -1.2996 0.9675
9.1506 -2.2500 1.1459
9.1478 -1.9038 1.1370
9.4100 -1.6082 1.1623
9.6841 -1.2991 1.1903
9.1520 -2.2513 1.1461
9.1471 -1.9046 1.1369
9.4092 -1.6090 1.1622
9.6834 -1.3000 1.1902
9.1513 -2.2506 1.3620
9.1475 -1.9042 1.3511
9.4096 -1.6086 1.3811
9.6838 -1.2995 1.4142
9.1527 -2.2519 1.3623
9.1468 -1.9049 1.3510
9.4089 -1.6094 1.3810
9.6831 -1.3003 1.4141
9.1520 -2.2513 1.5796
9.1471 -1.9045 1.5666
9.4093 -1.6089 1.6013
9.6835 -1.2999 1.6396
9.1534 -2.2526 1.5799
9.1465 -1.9053 1.5665
9.4086 -1.6098 1.6012
9.6827 -1.3007 1.6395
9.1527 -2.2519 1.7988
9.1468 -1.9049 1.7838
9.4090 -1.6093 1.8231
9.6832 -1.3002 1.8666
9.1542 -2.2532 1.7991
9.1461 -1.9057 1.7837
9.4083 -1.6101 1.8230
9.6824 -1.3011 1.8665
9.1535 -2.2526 2.0200
9.1465 -1.9053 2.0028
9.4087 -1.6097 2.0469
9.6828 -1.3006 2.0957
9.1549 -2.2539 2.0204
9.1458 -1.9060 2.0026
9.4080 -1.6105 2.0467
9.6821 -1.3014 2.0955
8.6698 -4.2620 2.2937
8.6577 -3.8763 2.2531
8.7239 -3.5353 2.2367
8.8419 -3.2187 2.2367
8.9485 -2.8980 2.2367
9.0436 -2.5738 2.2367
9.1271 -2.2466 2.2367
9.1990 -1.9166 2.2367
9.2590 -1.5845 2.2367
9.3073 -1.2505 2.2367
9.3437 -0.9151 2.2367
9.3682 -0.5788 2.2367
9.3807 -0.2418 2.2367
9.3813 0.0953 2.2367
9.3699 0.4322 2.2367
9.3467 0.7683 2.2367
9.3115 1.1034 2.2367
9.2645 1.4370 2.2367
9.2058 1.7687 2.2367
9.1354 2.0981 2.2367
9.0533 2.4247 2.2367
8.9598 2.7482 2.2367
8.8549 3.0682 2.2367
8.7387 3.3842 2.2367
8.6114 3.6959 2.2367
8.4732 4.0030 2.2367
8.3242 4.3049 2.2367
8.2242 4.6350 2.2530
8.1973 5.0161 2.2934
8.6698 -4.2629 2.2938
8.6577 -3.8773 2.2532
8.7236 -3.5363 2.2367
8.8416 -3.2196 2.2367
8.9482 -2.8989 2.2367
9.0434 -2.5747 2.2367
9.1269 -2.2474 2.2367
9.1988 -1.9175 2.2367
9.2589 -1.5854 2.2367
9.3072 -1.2514 2.2367
9.3436 -0.9161 2.2367
9.3681 -0.5797 2.2367
9.3807 -0.2427 2.2367
9.3813 0.0944 2.2367
9.3700 0.4313 2.2367
9.3467 0.7674 2.2367
9.3116 1.1025 2.2367
9.2647 1.4362 2.2367
9.2060 1.7678 2.2367
9.1356 2.0972 2.2367
9.0536 2.4238 2.2367
8.9601 2.7473 2.2367
8.8552 3.0673 2.2367
8.7390 3.3834 2.2367
8.6118 3.6951 2.2367
8.4736 4.0021 2.2367
8.3247 4.3041 2.2367
8.2242 4.6340 2.2529
8.1973 5.0151 2.2933
0.0064 -9.2785 2.3891
0.3392 -9.2679 2.3891
0.6712 -9.2453 2.3891
1.0021 -9.2107 2.3891
1.3313 -9.1643 2.3891
1.6585 -9.1060 2.3891
1.9833 -9.0361 2.3891
2.3051 -8.9546 2.3891
2.6237 -8.8615 2.3891
2.9386 -8.7572 2.3891
3.2493 -8.6416 2.3891
3.5556 -8.5151 2.3891
3.8570 -8.3777 2.3891
4.1531 -8.2296 2.3891
4.4436 -8.0711 2.3891
4.7281 -7.9023 2.3891
5.0062 -7.7236 2.3891
5.2776 -7.5351 2.3891
5.5420 -7.3371 2.3891
5.7990 -7.1299 2.3891
6.0483 -6.9137 2.3891
6.2896 -6.6888 2.3891
6.5226 -6.4556 2.3891
6.7471 -6.2143 2.3891
6.9627 -5.9653 2.3891
7.1691 -5.7088 2.3891
7.3663 -5.4453 2.3891
7.5538 -5.1750 2.3891
7.7315 -4.8983 2.3891
7.8992 -4.6156 2.3891
8.0566 -4.3271 2.3891
8.2036 -4.0334 2.3891
8.3400 -3.7346 2.3891
8.4657 -3.4316 2.3891
8.5805 -3.1241 2.3891
8.5818 -2.7798 2.3609
8.5697 -2.4394 2.3327
8.5574 -2.1068 2.3080
8.5448 -1.7808 2.2865
8.5318 -1.4606 2.2682
8.5186 -1.1449 2.2529
8.5125 -0.8341 2.2424
8.5132 -0.5263 2.2367
8.5247 -0.2197 2.2367
8.5255 0.0861 2.2367
8.5153 0.3925 2.2367
8.4942 0.6985 2.2367
8.4625 1.0026 2.2367
8.4199 1.3056 2.2367
8.3879 1.6114 2.2424
8.3624 1.9205 2.2528
8.3436 2.2346 2.2681
8.3240 2.5531 2.2864
8.3035 2.8771 2.3078
8.2821 3.2074 2.3324
8.2598 3.5450 2.3605
8.2256 3.8860 2.3891
8.0810 4.1792 2.3891
7.9260 4.4670 2.3891
7.7609 4.7492 2.3891
7.5859 5.0254 2.3891
7.4012 5.2953 2.3891
7.2071 5.5584 2.3891
7.0037 5.8146 2.3891
6.7913 6.0634 2.3891
6.5703 6.3046 2.3891
6.3407 6.5378 2.3891
6.1030 6.7627 2.3891
5.8574 6.9792 2.3891
5.6043 7.1868 2.3891
5.3438 7.3854 2.3891
5.0765 7.5746 2.3891
4.8025 7.7543 2.3891
4.5222 7.9242 2.3891
4.2360 8.0841 2.3891
3.9442 8.2338 2.3891
3.6471 8.3730 2.3891
3.3452 8.5017 2.3891
3.0388 8.6195 2.3891
2.7283 8.7264 2.3891
2.4141 8.8223 2.3891
0.8390 3.5643 0.9561
0.7105 3.5927 0.9558
0.5811 3.6164 0.9555
0.4509 3.6354 0.9552
0.3201 3.6497 0.9549
0.1889 3.6593 0.9546
0.0574 3.6641 0.9543
-0.0742 3.6641 0.9539
-0.2058 3.6594 0.9535
-0.3371 3.6499 0.9531
-0.4679 3.6357 0.9527
-0.5982 3.6167 0.9523
-0.7277 3.5930 0.9519
-0.8562 3.5647 0.9514
-2.4713 8.8730 2.3891
-2.7897 8.7830 2.3891
-3.1047 8.6816 2.3891
-3.4161 8.5690 2.3891
-3.7234 8.4451 2.3891
-4.0262 8.3103 2.3891
-4.3241 8.1646 2.3891
-4.6167 8.0082 2.3891
-4.9037 7.8414 2.3891
-5.1846 7.6642 2.3891
-5.4590 7.4770 2.3891
-5.7267 7.2799 2.3891
-5.9872 7.0732 2.3891
-6.2402 6.8571 2.3891
-6.4854 6.6320 2.3891
-6.7224 6.3980 2.3891
-6.9509 6.1556 2.3891
-7.1706 5.9049 2.3891
-7.3812 5.6464 2.3891
-7.5824 5.3803 2.3891
-7.7739 5.1070 2.3891
-7.9555 4.8269 2.3891
-8.1269 4.5402 2.3891
-8.2878 4.2474 2.3891
-8.4382 3.9489 2.3891
-8.5776 3.6450 2.3891
-8.7060 3.3362 2.3891
-8.8232 3.0228 2.3891
-8.9290 2.7053 2.3891
-9.0232 2.3841 2.3891
-9.1057 2.0595 2.3891
-9.1764 1.7320 2.3891
-9.2352 1.4022 2.3891
-9.2820 1.0703 2.3891
-9.3167 0.7369 2.3891
-9.3393 0.4023 2.3891
-9.3497 0.0671 2.3891
-9.3479 -0.2683 2.3891
-9.3340 -0.6035 2.3891
-9.3078 -0.9380 2.3891
-9.2695 -1.2714 2.3891
-9.2191 -1.6033 2.3891
-9.1566 -1.9331 2.3891
-9.0822 -2.2605 2.3891
-8.9960 -2.5849 2.3891
-8.8979 -2.9061 2.3891
-8.7883 -3.2233 2.3891
-8.6671 -3.5365 2.3891
-8.5347 -3.8450 2.3891
-8.3912 -4.1486 2.3891
-8.2366 -4.4467 2.3891
-8.0714 -4.7389 2.3891
-7.8956 -5.0250 2.3891
-7.7095 -5.3044 2.3891
-7.5135 -5.5768 2.3891
-7.3077 -5.8418 2.3891
-7.0924 -6.0994 2.3891
-6.8679 -6.3487 2.3891
-6.6346 -6.5898 2.3891
-6.3926 -6.8221 2.3891
-6.1425 -7.0454 2.3891
-5.8845 -7.2595 2.3891
-5.6189 -7.4640 2.3891
-5.3461 -7.6587 2.3891
-5.0665 -7.8433 2.3891
-4.7805 -8.0175 2.3891
-4.4884 -8.1813 2.3891
-4.1906 -8.3343 2.3891
-3.8877 -8.4763 2.3891
-3.5798 -8.6073 2.3891
-3.2675 -8.7269 2.3891
-2.9512 -8.8351 2.3891
-2.6313 -8.9318 2.3891
-2.3083 -9.0168 2.3891
-1.9825 -9.0900 2.3891
-1.6544 -9.1514 2.3891
-1.3244 -9.2008 2.3891
-0.9930 -9.2383 2.3891
-0.6605 -9.2637 2.3891
-0.3276 -9.2772 2.3891
0.0055 -9.2786 2.3891
0.3383 -9.2679 2.3891
0.6703 -9.2453 2.3891
1.0012 -9.2108 2.3891
1.3305 -9.1644 2.3891
1.6577 -9.1062 2.3891
1.9824 -9.0363 2.3891
2.3043 -8.9548 2.3891
2.6228 -8.8618 2.3891
2.9377 -8.7575 2.3891
3.2485 -8.6420 2.3891
3.5548 -8.5154 2.3891
3.8562 -8.3780 2.3891
4.1523 -8.2300 2.3891
4.4428 -8.0715 2.3891
4.7273 -7.9028 2.3891
5.0055 -7.7241 2.3891
5.2769 -7.5356 2.3891
5.5413 -7.3376 2.3891
5.7983 -7.1304 2.3891
6.0476 -6.9143 2.3891
6.2890 -6.6895 2.3891
6.5220 -6.4563 2.3891
6.7465 -6.2150 2.3891
6.9621 -5.9660 2.3891
7.1686 -5.7095 2.3891
7.3658 -5.4460 2.3891
7.5533 -5.1757 2.3891
7.7310 -4.8990 2.3891
7.8987 -4.6163 2.3891
8.0562 -4.3279 2.3891
8.2033 -4.0343 2.3891
8.3397 -3.7356 2.3891
8.4654 -3.4323 2.3891
8.5802 -3.1250 2.3891
8.5819 -2.7808 2.3610
8.5698 -2.4403 2.3328
8.5574 -2.1076 2.3081
8.5448 -1.7816 2.2866
8.5319 -1.4613 2.2682
8.5186 -1.1458 2.2529
8.5125 -0.8349 2.2425
8.5131 -0.5269 2.2367
8.5247 -0.2210 2.2367
8.5255 0.0856 2.2367
8.5153 0.3918 2.2367
8.4943 0.6973 2.2367
8.4626 1.0019 2.2367
8.4200 1.3048 2.2367
8.3880 1.6106 2.2424
8.3625 1.9196 2.2528
8.3437 2.2337 2.2681
8.3241 2.5522 2.2863
8.3036 2.8762 2.3077
8.2822 3.2065 2.3324
8.2598 3.5441 2.3604
8.2260 3.8852 2.3891
8.0814 4.1784 2.3891
7.9264 4.4663 2.3891
7.7613 4.7484 2.3891
7.5864 5.0247 2.3891
7.4017 5.2946 2.3891
7.2076 5.5577 2.3891
7.0042 5.8139 2.3891
6.7919 6.0627 2.3891
6.5709 6.3039 2.3891
6.3413 6.5372 2.3891
6.1037 6.7621 2.3891
5.8581 6.9786 2.3891
5.6050 7.1863 2.3891
5.3446 7.3849 2.3891
5.0772 7.5742 2.3891
4.8032 7.7539 2.3891
4.5229 7.9238 2.3891
4.2367 8.0837 2.3891
3.9449 8.2334 2.3891
3.6479 8.3727 2.3891
3.3460 8.5013 2.3891
3.0396 8.6192 2.3891
2.7291 8.7262 2.3891
2.4149 8.8220 2.3891
0.8393 3.5642 0.9561
0.7109 3.5926 0.9558
0.5815 3.6164 0.9555
0.4513 3.6354 0.9552
0.3205 3.6497 0.9549
0.1892 3.6593 0.9546
0.0577 3.6641 0.9543
-0.0739 3.6641 0.9539
-0.2054 3.6594 0.9535
-0.3367 3.6499 0.9531
-0.4676 3.6357 0.9527
-0.5978 3.6167 0.9523
-0.7273 3.5931 0.9519
-0.8559 3.5648 0.9514
-2.4704 8.8732 2.3891
-2.7888 8.7832 2.3891
-3.1039 8.6819 2.3891
-3.4153 8.5693 2.3891
-3.7226 8.4455 2.3891
-4.0254 8.3107 2.3891
-4.3233 8.1650 2.3891
-4.6160 8.0087 2.3891
-4.9029 7.8418 2.3891
-5.1838 7.6647 2.3891
-5.4583 7.4775 2.3891
-5.7260 7.2804 2.3891
-5.9865 7.0737 2.3891
-6.2395 6.8577 2.3891
-6.4847 6.6326 2.3891
-6.7217 6.3986 2.3891
-6.9503 6.1562 2.3891
-7.1700 5.9056 2.3891
-7.3806 5.6471 2.3891
-7.5818 5.3810 2.3891
-7.7734 5.1077 2.3891
-7.9550 4.8276 2.3891
-8.1264 4.5410 2.3891
-8.2874 4.2482 2.3891
-8.4378 3.9497 2.3891
-8.5773 3.6459 2.3891
-8.7057 3.3370 2.3891
-8.8229 3.0237 2.3891
-8.9287 2.7061 2.3891
-9.0230 2.3849 2.3891
-9.1055 2.0604 2.3891
-9.1763 1.7329 2.3891
-9.2351 1.4031 2.3891
-9.2819 1.0712 2.3891
-9.3166 0.7378 2.3891
-9.3393 0.4032 2.3891
-9.3497 0.0680 2.3891
-9.3480 -0.2674 2.3891
-9.3340 -0.6026 2.3891
-9.3079 -0.9371 2.3891
-9.2696 -1.2706 2.3891
-9.2192 -1.6024 2.3891
-9.1568 -1.9322 2.3891
-9.0824 -2.2596 2.3891
-8.9962 -2.5840 2.3891
-8.8982 -2.9052 2.3891
-8.7886 -3.2226 2.3891
-8.6675 -3.5357 2.3891
-8.5351 -3.8442 2.3891
-8.3915 -4.1478 2.3891
-8.2370 -4.4459 2.3891
-8.0718 -4.7382 2.3891
-7.8961 -5.0242 2.3891
-7.7101 -5.3037 2.3891
-7.5140 -5.5753 2.3891
-7.3082 -5.8412 2.3891
-7.0930 -6.0989 2.3891
-6.8685 -6.3481 2.3891
-6.6352 -6.5891 2.3891
-6.3933 -6.8215 2.3891
-6.1432 -7.0449 2.3891
-5.8851 -7.2589 2.3891
-5.6196 -7.4635 2.3891
-5.3468 -7.6582 2.3891
-5.0672 -7.8428 2.3891
-4.7812 -8.0171 2.3891
-4.4892 -8.1809 2.3891
-4.1914 -8.3339 2.3891
-3.8885 -8.4760 2.3891
-3.5806 -8.6069 2.3891
-3.2684 -8.7266 2.3891
-2.9521 -8.8349 2.3891
-2.6322 -8.9316 2.3891
-2.3091 -9.0166 2.3891
-1.9833 -9.0898 2.3891
-1.6552 -9.1512 2.3891
-1.3252 -9.2007 2.3891
-0.9938 -9.2382 2.3891
-0.6614 -9.2637 2.3891
-0.3285 -9.2771 2.3891
0.0052 -8.4827 2.3891
0.3095 -8.4733 2.3891
0.6130 -8.4529 2.3891
0.9156 -8.4217 2.3891
1.2166 -8.3795 2.3891
1.5159 -8.3266 2.3891
1.8129 -8.2630 2.3891
2.1073 -8.1888 2.3891
2.3987 -8.1040 2.3891
2.6867 -8.0089 2.3891
2.9711 -7.9036 2.3891
3.2513 -7.7882 2.3891
3.5271 -7.6628 2.3891
3.7981 -7.5277 2.3891
4.0640 -7.3830 2.3891
4.3244 -7.2289 2.3891
4.5789 -7.0657 2.3891
4.8274 -6.8936 2.3891
5.0695 -6.7127 2.3891
5.3048 -6.5234 2.3891
5.5331 -6.3259 2.3891
5.7541 -6.1203 2.3891
5.9676 -5.9072 2.3891
6.1732 -5.6866 2.3891
6.3707 -5.4589 2.3891
6.5599 -5.2244 2.3891
6.7405 -4.9834 2.3891
6.9123 -4.7363 2.3891
7.0752 -4.4832 2.3891
7.2289 -4.2246 2.3891
7.3732 -3.9607 2.3891
7.5080 -3.6920 2.3891
7.6331 -3.4187 2.3891
7.7484 -3.1413 2.3891
7.8536 -2.8600 2.3891
7.9488 -2.5752 2.3891
8.0338 -2.2873 2.3891
8.1084 -1.9967 2.3891
8.1727 -1.7035 2.3891
8.2265 -1.4085 2.3891
8.2697 -1.1118 2.3891
8.3024 -0.8138 2.3891
8.3245 -0.5149 2.3891
8.3360 -0.2154 2.3891
8.3368 0.0842 2.3891
8.3269 0.3836 2.3891
8.3065 0.6824 2.3891
8.2755 0.9803 2.3891
8.2339 1.2768 2.3891
8.1819 1.5717 2.3891
8.1194 1.8645 2.3891
8.0466 2.1549 2.3891
7.9635 2.4424 2.3891
7.8703 2.7269 2.3891
7.7671 3.0079 2.3891
7.6539 3.2850 2.3891
7.5310 3.5579 2.3891
7.3985 3.8263 2.3891
7.2566 4.0899 2.3891
7.1054 4.3483 2.3891
6.9451 4.6011 2.3891
6.7760 4.8481 2.3891
6.5982 5.0890 2.3891
6.4119 5.3235 2.3891
6.2174 5.5512 2.3891
6.0149 5.7720 2.3891
5.8046 5.9854 2.3891
5.5869 6.1913 2.3891
5.3620 6.3893 2.3891
5.1301 6.5793 2.3891
4.8916 6.7610 2.3891
4.6467 6.9341 2.3891
4.3958 7.0984 2.3891
4.1391 7.2538 2.3891
3.8770 7.4000 2.3891
3.6098 7.5368 2.3891
3.3378 7.6640 2.3891
3.0613 7.7815 2.3891
2.7808 7.8892 2.3891
2.4965 7.9868 2.3891
0.8829 3.2275 0.9550
0.7666 3.2576 0.9548
0.6491 3.2835 0.9546
0.5309 3.3052 0.9543
0.4119 3.3225 0.9540
0.2923 3.3356 0.9538
0.1724 3.3443 0.9535
0.0522 3.3487 0.9531
-0.0681 3.3487 0.9528
-0.1883 3.3443 0.9525
-0.3083 3.3356 0.9521
-0.4279 3.3226 0.9517
-0.5469 3.3053 0.9513
-0.6653 3.2836 0.9509
-0.7828 3.2577 0.9505
-0.8992 3.2276 0.9501
-2.5523 8.0335 2.3891
-2.8404 7.9405 2.3891
-3.1251 7.8371 2.3891
-3.4060 7.7235 2.3891
-3.6828 7.5999 2.3891
-3.9551 7.4664 2.3891
-4.2225 7.3231 2.3891
-4.4848 7.1702 2.3891
-4.7414 7.0079 2.3891
-4.9922 6.8364 2.3891
-5.2367 6.6559 2.3891
-5.4747 6.4666 2.3891
-5.7058 6.2688 2.3891
-5.9297 6.0628 2.3891
-6.1461 5.8487 2.3891
-6.3548 5.6268 2.3891
-6.5554 5.3975 2.3891
-6.7476 5.1610 2.3891
-6.9313 4.9176 2.3891
-7.1061 4.6676 2.3891
-7.2718 4.4114 2.3891
-7.4283 4.1493 2.3891
-7.5751 3.8816 2.3891
-7.7123 3.6086 2.3891
-7.8395 3.3308 2.3891
-7.9566 3.0485 2.3891
-8.0635 2.7620 2.3891
-8.1599 2.4718 2.3891
-8.2458 2.1782 2.3891
-8.3210 1.8816 2.3891
-8.3854 1.5823 2.3891
-8.4389 1.2809 2.3891
-8.4815 0.9776 2.3891
-8.5130 0.6730 2.3891
-8.5335 0.3673 2.3891
-8.5428 0.0610 2.3891
-8.5411 -0.2454 2.3891
-8.5282 -0.5517 2.3891
-8.5042 -0.8573 2.3891
-8.4691 -1.1619 2.3891
-8.4230 -1.4650 2.3891
-8.3659 -1.7663 2.3891
-8.2978 -2.0653 2.3891
-8.2189 -2.3617 2.3891
-8.1294 -2.6551 2.3891
-8.0292 -2.9450 2.3891
-7.9185 -3.2311 2.3891
-7.7975 -3.5129 2.3891
-7.6664 -3.7902 2.3891
-7.5252 -4.0625 2.3891
-7.3743 -4.3296 2.3891
-7.2138 -4.5909 2.3891
-7.0438 -4.8462 2.3891
-6.8648 -5.0951 2.3891
-6.6768 -5.3374 2.3891
-6.4802 -5.5726 2.3891
-6.2752 -5.8005 2.3891
-6.0621 -6.0208 2.3891
-5.8412 -6.2332 2.3891
-5.6128 -6.4374 2.3891
-5.3771 -6.6331 2.3891
-5.1346 -6.8201 2.3891
-4.8854 -6.9981 2.3891
-4.6301 -7.1669 2.3891
-4.3688 -7.3263 2.3891
-4.1021 -7.4761 2.3891
-3.8301 -7.6162 2.3891
-3.5533 -7.7462 2.3891
-3.2721 -7.8661 2.3891
-2.9868 -7.9756 2.3891
-2.6978 -8.0748 2.3891
-2.4056 -8.1633 2.3891
-2.1103 -8.2413 2.3891
-1.8126 -8.3085 2.3891
-1.5128 -8.3649 2.3891
-1.2112 -8.4104 2.3891
-0.9083 -8.4449 2.3891
-0.6045 -8.4685 2.3891
-0.3001 -8.4811 2.3891
0.0044 -8.4827 2.3891
0.3086 -8.4733 2.3891
0.6122 -8.4530 2.3891
0.9147 -8.4218 2.3891
1.2158 -8.3797 2.3891
1.5151 -8.3268 2.3891
1.8121 -8.2632 2.3891
2.1065 -8.1890 2.3891
2.3979 -8.1043 2.3891
2.6860 -8.0092 2.3891
2.9703 -7.9039 2.3891
3.2506 -7.7885 2.3891
3.5264 -7.6631 2.3891
3.7974 -7.5281 2.3891
4.0633 -7.3834 2.3891
4.3237 -7.2294 2.3891
4.5783 -7.0661 2.3891
4.8268 -6.8940 2.3891
5.0688 -6.7132 2.3891
5.3042 -6.5241 2.3891
5.5325 -6.3264 2.3891
5.7535 -6.1209 2.3891
5.9670 -5.9077 2.3891
6.1726 -5.6872 2.3891
6.3701 -5.4595 2.3891
6.5594 -5.2251 2.3891
6.7400 -4.9841 2.3891
6.9119 -4.7369 2.3891
7.0748 -4.4839 2.3891
7.2285 -4.2252 2.3891
7.3728 -3.9614 2.3891
7.5077 -3.6927 2.3891
7.6328 -3.4195 2.3891
7.7481 -3.1420 2.3891
7.8534 -2.8607 2.3891
7.9486 -2.5760 2.3891
8.0336 -2.2881 2.3891
8.1082 -1.9974 2.3891
8.1725 -1.7045 2.3891
8.2263 -1.4093 2.3891
8.2696 -1.1127 2.3891
8.3023 -0.8146 2.3891
8.3244 -0.5157 2.3891
8.3359 -0.2162 2.3891
8.3368 0.0834 2.3891
8.3270 0.3828 2.3891
8.3066 0.6816 2.3891
8.2756 0.9795 2.3891
8.2340 1.2760 2.3891
8.1820 1.5709 2.3891
8.1196 1.8637 2.3891
8.0468 2.1541 2.3891
7.9637 2.4417 2.3891
7.8706 2.7262 2.3891
7.7673 3.0071 2.3891
7.6542 3.2843 2.3891
7.5314 3.5572 2.3891
7.3989 3.8256 2.3891
7.2570 4.0892 2.3891
7.1058 4.3476 2.3891
6.9456 4.6004 2.3891
6.7765 4.8475 2.3891
6.5986 5.0884 2.3891
6.4124 5.3229 2.3891
6.2179 5.5506 2.3891
6.0154 5.7714 2.3891
5.8052 5.9849 2.3891
5.5875 6.1907 2.3891
5.3626 6.3888 2.3891
5.1307 6.5788 2.3891
4.8922 6.7605 2.3891
4.6474 6.9336 2.3891
4.3965 7.0980 2.3891
4.1398 7.2534 2.3891
3.8777 7.3996 2.3891
3.6105 7.5364 2.3891
3.3385 7.6637 2.3891
3.0621 7.7812 2.3891
2.7815 7.8889 2.3891
2.4973 7.9866 2.3891
0.8832 3.2274 0.9550
0.7669 3.2576 0.9548
0.6495 3.2835 0.9546
0.5312 3.3051 0.9543
0.4122 3.3225 0.9540
0.2927 3.3355 0.9538
0.1727 3.3443 0.9535
0.0525 3.3486 0.9531
-0.0678 3.3487 0.9528
-0.1880 3.3443 0.9525
-0.3080 3.3357 0.9521
-0.4276 3.3227 0.9517
-0.5466 3.3053 0.9513
-0.6650 3.2837 0.9509
-0.7825 3.2578 0.9505
-0.8989 3.2277 0.9501
-2.5516 8.0337 2.3891
-2.8397 7.9407 2.3891
-3.1244 7.8374 2.3891
-3.4053 7.7239 2.3891
-3.6821 7.6003 2.3891
-3.9544 7.4667 2.3891
-4.2218 7.3235 2.3891
-4.4841 7.1706 2.3891
-4.7407 7.0083 2.3891
-4.9915 6.8368 2.3891
-5.2361 6.6564 2.3891
-5.4741 6.4672 2.3891
-5.7052 6.2694 2.3891
-5.9291 6.0633 2.3891
-6.1456 5.8493 2.3891
-6.3542 5.6274 2.3891
-6.5548 5.3981 2.3891
-6.7471 5.1616 2.3891
-6.9308 4.9182 2.3891
-7.1057 4.6683 2.3891
-7.2714 4.4121 2.3891
-7.4278 4.1500 2.3891
-7.5747 3.8823 2.3891
-7.7119 3.6094 2.3891
-7.8392 3.3316 2.3891
-7.9563 3.0493 2.3891
-8.0632 2.7628 2.3891
-8.1596 2.4726 2.3891
-8.2456 2.1790 2.3891
-8.3208 1.8824 2.3891
-8.3852 1.5831 2.3891
-8.4388 1.2817 2.3891
-8.4814 0.9784 2.3891
-8.5129 0.6738 2.3891
-8.5334 0.3681 2.3891
-8.5428 0.0619 2.3891
-8.5411 -0.2446 2.3891
-8.5283 -0.5508 2.3891
-8.5043 -0.8565 2.3891
-8.4692 -1.1610 2.3891
-8.4231 -1.4642 2.3891
-8.3660 -1.7655 2.3891
-8.2980 -2.0645 2.3891
-8.2192 -2.3609 2.3891
-8.1296 -2.6543 2.3891
-8.0294 -2.9442 2.3891
-7.9188 -3.2303 2.3891
-7.7978 -3.5122 2.3891
-7.6667 -3.7895 2.3891
-7.5256 -4.0618 2.3891
-7.3747 -4.3288 2.3891
-7.2142 -4.5902 2.3891
-7.0443 -4.8455 2.3891
-6.8653 -5.0945 2.3891
-6.6774 -5.3368 2.3891
-6.4808 -5.5721 2.3891
-6.2758 -5.7999 2.3891
-6.0627 -6.0202 2.3891
-5.8418 -6.2326 2.3891
-5.6134 -6.4368 2.3891
-5.3778 -6.6326 2.3891
-5.1352 -6.8196 2.3891
-4.8861 -6.9976 2.3891
-4.6308 -7.1665 2.3891
-4.3695 -7.3259 2.3891
-4.1028 -7.4758 2.3891
-3.8308 -7.6158 2.3891
-3.5540 -7.7459 2.3891
-3.2728 -7.8657 2.3891
-2.9875 -7.9754 2.3891
-2.6986 -8.0745 2.3891
-2.4063 -8.1631 2.3891
-2.1111 -8.2411 2.3891
-1.8134 -8.3083 2.3891
-1.5136 -8.3648 2.3891
-1.2120 -8.4103 2.3891
-0.9091 -8.4448 2.3891
-0.6053 -8.4685 2.3891
-0.3009 -8.4811 2.3891
0.0042 -7.8047 2.3891
0.2841 -7.7963 2.3891
0.5634 -7.7779 2.3891
0.8418 -7.7493 2.3891
1.1189 -7.7108 2.3891
1.3943 -7.6624 2.3891
1.6676 -7.6041 2.3891
1.9386 -7.5361 2.3891
2.2069 -7.4584 2.3891
2.4721 -7.3711 2.3891
2.7338 -7.2744 2.3891
2.9919 -7.1684 2.3891
3.2458 -7.0533 2.3891
3.4954 -6.9292 2.3891
3.7402 -6.7962 2.3891
3.9800 -6.6546 2.3891
4.2146 -6.5046 2.3891
4.4434 -6.3463 2.3891
4.6664 -6.1801 2.3891
4.8832 -6.0060 2.3891
5.0936 -5.8243 2.3891
5.2972 -5.6353 2.3891
5.4939 -5.4392 2.3891
5.6834 -5.2363 2.3891
5.8655 -5.0268 2.3891
6.0398 -4.8110 2.3891
6.2064 -4.5893 2.3891
6.3648 -4.3618 2.3891
6.5150 -4.1288 2.3891
6.6567 -3.8908 2.3891
6.7898 -3.6479 2.3891
6.9141 -3.4005 2.3891
7.0295 -3.1489 2.3891
7.1358 -2.8934 2.3891
7.2330 -2.6344 2.3891
7.3208 -2.3722 2.3891
7.3992 -2.1071 2.3891
7.4681 -1.8394 2.3891
7.5275 -1.5695 2.3891
7.5771 -1.2977 2.3891
7.6171 -1.0244 2.3891
7.6474 -0.7499 2.3891
7.6678 -0.4746 2.3891
7.6785 -0.1987 2.3891
7.6793 0.0773 2.3891
7.6704 0.3531 2.3891
7.6516 0.6284 2.3891
7.6231 0.9028 2.3891
7.5849 1.1760 2.3891
7.5370 1.4477 2.3891
7.4795 1.7174 2.3891
7.4125 1.9850 2.3891
7.3360 2.2499 2.3891
7.2501 2.5120 2.3891
7.1550 2.7708 2.3891
7.0508 3.0261 2.3891
6.9376 3.2776 2.3891
6.8155 3.5249 2.3891
6.6847 3.7677 2.3891
6.5454 4.0057 2.3891
6.3977 4.2386 2.3891
6.2418 4.4661 2.3891
6.0780 4.6880 2.3891
5.9063 4.9040 2.3891
5.7270 5.1137 2.3891
5.5404 5.3170 2.3891
5.3467 5.5136 2.3891
5.1460 5.7031 2.3891
4.9388 5.8855 2.3891
4.7251 6.0604 2.3891
4.5053 6.2276 2.3891
4.2796 6.3870 2.3891
4.0484 6.5382 2.3891
3.8119 6.6812 2.3891
3.5704 6.8157 2.3891
3.3242 6.9415 2.3891
3.0736 7.0586 2.3891
2.8189 7.1667 2.3891
2.5605 7.2656 2.3891
0.9179 2.9373 0.9541
0.8119 2.9688 0.9539
0.7049 2.9965 0.9537
0.5969 3.0203 0.9535
0.4881 3.0402 0.9533
0.3786 3.0561 0.9530
0.2687 3.0681 0.9527
0.1583 3.0761 0.9525
0.0478 3.0801 0.9522
-0.0629 3.0801 0.9519
-0.1735 3.0761 0.9516
-0.2838 3.0681 0.9512
-0.3938 3.0561 0.9509
-0.5033 3.0401 0.9505
-0.6122 3.0202 0.9502
-0.7202 2.9964 0.9498
-0.8274 2.9687 0.9494
-2.3500 7.3944 2.3891
-2.6151 7.3085 2.3891
-2.8770 7.2131 2.3891
-3.1354 7.1083 2.3891
-3.3901 6.9943 2.3891
-3.6405 6.8711 2.3891
-3.8865 6.7390 2.3891
-4.1277 6.5981 2.3891
-4.3637 6.4485 2.3891
-4.5943 6.2905 2.3891
-4.8192 6.1242 2.3891
-5.0380 5.9499 2.3891
-5.2505 5.7677 2.3891
-5.4563 5.5779 2.3891
-5.6553 5.3807 2.3891
-5.8470 5.1764 2.3891
-6.0314 4.9653 2.3891
-6.2081 4.7476 2.3891
-6.3768 4.5235 2.3891
-6.5375 4.2934 2.3891
-6.6897 4.0576 2.3891
-6.8334 3.8164 2.3891
-6.9683 3.5701 2.3891
-7.0943 3.3189 2.3891
-7.2111 3.0633 2.3891
-7.3186 2.8036 2.3891
-7.4167 2.5400 2.3891
-7.5052 2.2730 2.3891
-7.5841 2.0030 2.3891
-7.6530 1.7301 2.3891
-7.7121 1.4549 2.3891
-7.7612 1.1777 2.3891
-7.8002 0.8988 2.3891
-7.8291 0.6186 2.3891
-7.8478 0.3375 2.3891
-7.8563 0.0559 2.3891
-7.8546 -0.2259 2.3891
-7.8426 -0.5075 2.3891
-7.8204 -0.7885 2.3891
-7.7881 -1.0686 2.3891
-7.7456 -1.3473 2.3891
-7.6930 -1.6244 2.3891
-7.6304 -1.8993 2.3891
-7.5579 -2.1718 2.3891
-7.4755 -2.4416 2.3891
-7.3833 -2.7081 2.3891
-7.2816 -2.9712 2.3891
-7.1703 -3.2303 2.3891
-7.0497 -3.4853 2.3891
-6.9199 -3.7354 2.3891
-6.7812 -3.9813 2.3891
-6.6336 -4.2216 2.3891
-6.4775 -4.4564 2.3891
-6.3129 -4.6853 2.3891
-6.1401 -4.9081 2.3891
-5.9594 -5.1245 2.3891
-5.7710 -5.3341 2.3891
-5.5751 -5.5367 2.3891
-5.3720 -5.7321 2.3891
-5.1620 -5.9199 2.3891
-4.9454 -6.1000 2.3891
-4.7224 -6.2721 2.3891
-4.4934 -6.4359 2.3891
-4.2586 -6.5913 2.3891
-4.0185 -6.7381 2.3891
-3.7732 -6.8760 2.3891
-3.5232 -7.0049 2.3891
-3.2686 -7.1247 2.3891
-3.0101 -7.2351 2.3891
-2.7478 -7.3360 2.3891
-2.4820 -7.4274 2.3891
-2.2133 -7.5091 2.3891
-1.9418 -7.5810 2.3891
-1.6680 -7.6431 2.3891
-1.3922 -7.6951 2.3891
-1.1148 -7.7372 2.3891
-0.8362 -7.7692 2.3891
-0.5567 -7.7912 2.3891
-0.2767 -7.8030 2.3891
0.0034 -7.8047 2.3891
0.2834 -7.7964 2.3891
0.5627 -7.7779 2.3891
0.8411 -7.7494 2.3891
1.1182 -7.7110 2.3891
1.3936 -7.6626 2.3891
1.6669 -7.6043 2.3891
1.9379 -7.5363 2.3891
2.2062 -7.4586 2.3891
2.4714 -7.3714 2.3891
2.7331 -7.2747 2.3891
2.9912 -7.1687 2.3891
3.2451 -7.0536 2.3891
3.4947 -6.9295 2.3891
3.7396 -6.7966 2.3891
3.9794 -6.6550 2.3891
4.2139 -6.5050 2.3891
4.4428 -6.3468 2.3891
4.6658 -6.1805 2.3891
4.8827 -6.0064 2.3891
5.0930 -5.8248 2.3891
5.2967 -5.6357 2.3891
5.4934 -5.4397 2.3891
5.6829 -5.2368 2.3891
5.8650 -5.0274 2.3891
6.0394 -4.8116 2.3891
6.2059 -4.5898 2.3891
6.3644 -4.3624 2.3891
6.5146 -4.1294 2.3891
6.6563 -3.8914 2.3891
6.7894 -3.6485 2.3891
6.9138 -3.4012 2.3891
7.0292 -3.1496 2.3891
7.1355 -2.8941 2.3891
7.2327 -2.6351 2.3891
7.3206 -2.3729 2.3891
7.3990 -2.1078 2.3891
7.4680 -1.8401 2.3891
7.5273 -1.5702 2.3891
7.5770 -1.2985 2.3891
7.6170 -1.0252 2.3891
7.6473 -0.7507 2.3891
7.6678 -0.4753 2.3891
7.6785 -0.1995 2.3891
7.6794 0.0766 2.3891
7.6704 0.3524 2.3891
7.6517 0.6277 2.3891
7.6232 0.9021 2.3891
7.5850 1.1753 2.3891
7.5372 1.4470 2.3891
7.4797 1.7167 2.3891
7.4127 1.9842 2.3891
7.3362 2.2492 2.3891
7.2504 2.5113 2.3891
7.1553 2.7701 2.3891
7.0511 3.0255 2.3891
6.9379 3.2769 2.3891
6.8158 3.5242 2.3891
6.6851 3.7670 2.3891
6.5458 4.0050 2.3891
6.3981 4.2380 2.3891
6.2423 4.4655 2.3891
6.0784 4.6874 2.3891
5.9068 4.9034 2.3891
5.7275 5.1132 2.3891
5.5409 5.3165 2.3891
5.3472 5.5131 2.3891
5.1466 5.7026 2.3891
4.9393 5.8850 2.3891
4.7257 6.0599 2.3891
4.5059 6.2272 2.3891
4.2803 6.3866 2.3891
4.0490 6.5378 2.3891
3.8125 6.6808 2.3891
3.5710 6.8153 2.3891
3.3248 6.9412 2.3891
3.0743 7.0583 2.3891
2.8196 7.1664 2.3891
2.5612 7.2654 2.3891
0.9182 2.9372 0.9541
0.8122 2.9687 0.9539
0.7052 2.9964 0.9537
0.5972 3.0202 0.9535
0.4884 3.0401 0.9533
0.3789 3.0561 0.9530
0.2690 3.0681 0.9527
0.1586 3.0761 0.9525
0.0480 3.0801 0.9522
-0.0626 3.0801 0.9519
-0.1732 3.0761 0.9516
-0.2835 3.0681 0.9512
-0.3935 3.0561 0.9509
-0.5030 3.0402 0.9505
-0.6119 3.0203 0.9502
-0.7200 2.9965 0.9498
-0.8271 2.9688 0.9494
-2.3493 7.3946 2.3891
-2.6144 7.3087 2.3891
-2.8763 7.2134 2.3891
-3.1348 7.1086 2.3891
-3.3894 6.9946 2.3891
-3.6399 6.8715 2.3891
-3.8859 6.7394 2.3891
-4.1271 6.5985 2.3891
-4.3631 6.4489 2.3891
-4.5937 6.2909 2.3891
-4.8186 6.1246 2.3891
-5.0374 5.9503 2.3891
-5.2499 5.7682 2.3891
-5.4558 5.5784 2.3891
-5.6547 5.3812 2.3891
-5.8465 5.1770 2.3891
-6.0309 4.9659 2.3891
-6.2076 4.7481 2.3891
-6.3764 4.5241 2.3891
-6.5370 4.2941 2.3891
-6.6893 4.0583 2.3891
-6.8330 3.8171 2.3891
-6.9680 3.5707 2.3891
-7.0939 3.3196 2.3891
-7.2108 3.0640 2.3891
-7.3184 2.8043 2.3891
-7.4165 2.5407 2.3891
-7.5050 2.2738 2.3891
-7.5839 2.0037 2.3891
-7.6529 1.7309 2.3891
-7.7120 1.4557 2.3891
-7.7611 1.1784 2.3891
-7.8001 0.8995 2.3891
-7.8290 0.6194 2.3891
-7.8477 0.3383 2.3891
-7.8563 0.0566 2.3891
-7.8546 -0.2252 2.3891
-7.8427 -0.5068 2.3891
-7.8205 -0.7878 2.3891
-7.7882 -1.0679 2.3891
-7.7457 -1.3466 2.3891
-7.6932 -1.6236 2.3891
-7.6306 -1.8986 2.3891
-7.5581 -2.1711 2.3891
-7.4757 -2.4408 2.3891
-7.3836 -2.7074 2.3891
-7.2818 -2.9705 2.3891
-7.1706 -3.2297 2.3891
-7.0501 -3.4846 2.3891
-6.9203 -3.7350 2.3891
-6.7816 -3.9806 2.3891
-6.6341 -4.2209 2.3891
-6.4779 -4.4557 2.3891
-6.3133 -4.6847 2.3891
-6.1406 -4.9075 2.3891
-5.9599 -5.1239 2.3891
-5.7715 -5.3335 2.3891
-5.5756 -5.5362 2.3891
-5.3725 -5.7316 2.3891
-5.1626 -5.9194 2.3891
-4.9460 -6.0995 2.3891
-4.7230 -6.2716 2.3891
-4.4940 -6.4355 2.3891
-4.2593 -6.5909 2.3891
-4.0191 -6.7377 2.3891
-3.7739 -6.8756 2.3891
-3.5238 -7.0045 2.3891
-3.2694 -7.1243 2.3891
-3.0108 -7.2348 2.3891
-2.7485 -7.3358 2.3891
-2.4828 -7.4272 2.3891
-2.2140 -7.5089 2.3891
-1.9425 -7.5808 2.3891
-1.6687 -7.6429 2.3891
-1.3930 -7.6950 2.3891
-1.1156 -7.7371 2.3891
-0.8370 -7.7692 2.3891
-0.5575 -7.7911 2.3891
-0.2775 -7.8030 2.3891
0.0033 -7.2197 2.3891
0.2622 -7.2121 2.3891
0.5206 -7.1952 2.3891
0.7782 -7.1691 2.3891
1.0345 -7.1337 2.3891
1.2893 -7.0891 2.3891
1.5423 -7.0354 2.3891
1.7930 -6.9726 2.3891
2.0413 -6.9009 2.3891
2.2867 -6.8204 2.3891
2.5290 -6.7311 2.3891
2.7678 -6.6332 2.3891
3.0029 -6.5269 2.3891
3.2339 -6.4122 2.3891
3.4606 -6.2894 2.3891
3.6827 -6.1586 2.3891
3.8998 -6.0199 2.3891
4.1117 -5.8736 2.3891
4.3182 -5.7199 2.3891
4.5190 -5.5589 2.3891
4.7138 -5.3909 2.3891
4.9025 -5.2162 2.3891
5.0847 -5.0348 2.3891
5.2602 -4.8471 2.3891
5.4288 -4.6533 2.3891
5.5904 -4.4537 2.3891
5.7447 -4.2486 2.3891
5.8915 -4.0380 2.3891
6.0307 -3.8225 2.3891
6.1620 -3.6022 2.3891
6.2854 -3.3774 2.3891
6.4006 -3.1485 2.3891
6.5076 -2.9156 2.3891
6.6062 -2.6792 2.3891
6.6963 -2.4394 2.3891
6.7777 -2.1966 2.3891
6.8505 -1.9512 2.3891
6.9144 -1.7034 2.3891
6.9695 -1.4535 2.3891
7.0156 -1.2019 2.3891
7.0527 -0.9488 2.3891
7.0808 -0.6947 2.3891
7.0999 -0.4397 2.3891
7.1098 -0.1843 2.3891
7.1107 0.0713 2.3891
7.1025 0.3268 2.3891
7.0852 0.5817 2.3891
7.0589 0.8358 2.3891
7.0235 1.0888 2.3891
6.9792 1.3404 2.3891
6.9260 1.5902 2.3891
6.8639 1.8380 2.3891
6.7931 2.0834 2.3891
6.7136 2.3261 2.3891
6.6256 2.5658 2.3891
6.5291 2.8022 2.3891
6.4242 3.0351 2.3891
6.3111 3.2641 2.3891
6.1900 3.4889 2.3891
6.0610 3.7093 2.3891
5.9242 3.9250 2.3891
5.7798 4.1357 2.3891
5.6280 4.3411 2.3891
5.4689 4.5411 2.3891
5.3029 4.7353 2.3891
5.1300 4.9235 2.3891
4.9506 5.1054 2.3891
4.7647 5.2810 2.3891
4.5727 5.4497 2.3891
4.3748 5.6116 2.3891
4.1712 5.7664 2.3891
3.9622 5.9138 2.3891
3.7480 6.0538 2.3891
3.5290 6.1860 2.3891
3.3053 6.3105 2.3891
3.0773 6.4269 2.3891
2.8452 6.5351 2.3891
2.6093 6.6350 2.3891
2.3700 6.7265 2.3891
0.8487 2.7165 0.9531
0.7507 2.7456 0.9529
0.6517 2.7712 0.9528
0.5518 2.7932 0.9526
0.4512 2.8116 0.9523
0.3499 2.8263 0.9521
0.2482 2.8374 0.9519
0.1462 2.8447 0.9516
0.0439 2.8484 0.9514
-0.0584 2.8484 0.9511
-0.1606 2.8447 0.9508
-0.2627 2.8373 0.9505
-0.3644 2.8262 0.9502
-0.4657 2.8114 0.9498
-0.5664 2.7930 0.9495
-0.6663 2.7710 0.9491
-0.7654 2.7454 0.9488
-0.8635 2.7162 0.9484
-2.4204 6.7627 2.3891
-2.6627 6.6742 2.3891
-2.9018 6.5771 2.3891
-3.1373 6.4714 2.3891
-3.3690 6.3572 2.3891
-3.5964 6.2348 2.3891
-3.8195 6.1042 2.3891
-4.0377 5.9657 2.3891
-4.2509 5.8193 2.3891
-4.4588 5.6653 2.3891
-4.6611 5.5038 2.3891
-4.8575 5.3352 2.3891
-5.0478 5.1594 2.3891
-5.2317 4.9769 2.3891
-5.4089 4.7878 2.3891
-5.5793 4.5924 2.3891
-5.7426 4.3909 2.3891
-5.8985 4.1835 2.3891
-6.0469 3.9706 2.3891
-6.1876 3.7525 2.3891
-6.3203 3.5293 2.3891
-6.4449 3.3014 2.3891
-6.5612 3.0690 2.3891
-6.6691 2.8326 2.3891
-6.7684 2.5923 2.3891
-6.8590 2.3486 2.3891
-6.9407 2.1017 2.3891
-7.0135 1.8519 2.3891
-7.0771 1.5996 2.3891
-7.1316 1.3451 2.3891
-7.1769 1.0887 2.3891
-7.2129 0.8308 2.3891
-7.2394 0.5717 2.3891
-7.2566 0.3118 2.3891
-7.2644 0.0514 2.3891
-7.2627 -0.2091 2.3891
-7.2516 -0.4695 2.3891
-7.2310 -0.7293 2.3891
-7.2011 -0.9882 2.3891
-7.1618 -1.2463 2.3891
-7.1131 -1.5020 2.3891
-7.0551 -1.7562 2.3891
-6.9880 -2.0082 2.3891
-6.9118 -2.2575 2.3891
-6.8266 -2.5040 2.3891
-6.7325 -2.7472 2.3891
-6.6297 -2.9868 2.3891
-6.5182 -3.2225 2.3891
-6.3983 -3.4540 2.3891
-6.2700 -3.6810 2.3891
-6.1336 -3.9033 2.3891
-5.9893 -4.1203 2.3891
-5.8371 -4.3320 2.3891
-5.6774 -4.5380 2.3891
-5.5104 -4.7381 2.3891
-5.3363 -4.9320 2.3891
-5.1552 -5.1194 2.3891
-4.9675 -5.3001 2.3891
-4.7734 -5.4738 2.3891
-4.5732 -5.6404 2.3891
-4.3671 -5.7996 2.3891
-4.1554 -5.9512 2.3891
-3.9384 -6.0949 2.3891
-3.7164 -6.2308 2.3891
-3.4896 -6.3584 2.3891
-3.2585 -6.4778 2.3891
-3.0232 -6.5886 2.3891
-2.7842 -6.6909 2.3891
-2.5416 -6.7844 2.3891
-2.2960 -6.8691 2.3891
-2.0474 -6.9448 2.3891
-1.7964 -7.0115 2.3891
-1.5432 -7.0690 2.3891
-1.2882 -7.1174 2.3891
-1.0317 -7.1565 2.3891
-0.7740 -7.1863 2.3891
-0.5155 -7.2067 2.3891
-0.2565 -7.2179 2.3891
0.0026 -7.2197 2.3891
0.2616 -7.2121 2.3891
0.5200 -7.1953 2.3891
0.7775 -7.1691 2.3891
1.0339 -7.1338 2.3891
1.2887 -7.0892 2.3891
1.5416 -7.0355 2.3891
1.7924 -6.9728 2.3891
2.0406 -6.9011 2.3891
2.2861 -6.8206 2.3891
2.5284 -6.7314 2.3891
2.7672 -6.6335 2.3891
3.0023 -6.5272 2.3891
3.2333 -6.4125 2.3891
3.4600 -6.2897 2.3891
3.6821 -6.1589 2.3891
3.8992 -6.0203 2.3891
4.1112 -5.8740 2.3891
4.3177 -5.7203 2.3891
4.5185 -5.5594 2.3891
4.7133 -5.3914 2.3891
4.9020 -5.2166 2.3891
5.0842 -5.0353 2.3891
5.2597 -4.8476 2.3891
5.4284 -4.6539 2.3891
5.5900 -4.4543 2.3891
5.7443 -4.2491 2.3891
5.8911 -4.0386 2.3891
6.0303 -3.8231 2.3891
6.1617 -3.6028 2.3891
6.2851 -3.3780 2.3891
6.4004 -3.1491 2.3891
6.5074 -2.9163 2.3891
6.6059 -2.6798 2.3891
6.6960 -2.4400 2.3891
6.7775 -2.1973 2.3891
6.8503 -1.9519 2.3891
6.9142 -1.7041 2.3891
6.9693 -1.4542 2.3891
7.0155 -1.2026 2.3891
7.0526 -0.9495 2.3891
7.0808 -0.6953 2.3891
7.0998 -0.4404 2.3891
7.1098 -0.1849 2.3891
7.1107 0.0706 2.3891
7.1025 0.3261 2.3891
7.0853 0.5810 2.3891
7.0589 0.8352 2.3891
7.0236 1.0882 2.3891
6.9793 1.3397 2.3891
6.9261 1.5896 2.3891
6.8641 1.8373 2.3891
6.7933 2.0827 2.3891
6.7139 2.3254 2.3891
6.6258 2.5651 2.3891
6.5293 2.8016 2.3891
6.4245 3.0345 2.3891
6.3115 3.2635 2.3891
6.1904 3.4883 2.3891
6.0613 3.7087 2.3891
5.9245 3.9244 2.3891
5.7802 4.1351 2.3891
5.6284 4.3406 2.3891
5.4694 4.5406 2.3891
5.3034 4.7348 2.3891
5.1305 4.9230 2.3891
4.9511 5.1050 2.3891
4.7652 5.2805 2.3891
4.5732 5.4493 2.3891
4.3753 5.6112 2.3891
4.1718 5.7660 2.3891
3.9628 5.9134 2.3891
3.7486 6.0534 2.3891
3.5296 6.1857 2.3891
3.3059 6.3101 2.3891
3.0779 6.4266 2.3891
2.8458 6.5348 2.3891
2.6100 6.6348 2.3891
2.3706 6.7263 2.3891
0.8490 2.7164 0.9531
0.7510 2.7456 0.9529
0.6520 2.7712 0.9528
0.5521 2.7932 0.9526
0.4514 2.8115 0.9523
0.3502 2.8263 0.9521
0.2485 2.8373 0.9519
0.1465 2.8447 0.9516
0.0442 2.8484 0.9514
-0.0581 2.8484 0.9511
-0.1604 2.8447 0.9508
-0.2624 2.8373 0.9505
-0.3642 2.8262 0.9502
-0.4654 2.8115 0.9498
-0.5661 2.7931 0.9495
-0.6661 2.7711 0.9491
-0.7651 2.7455 0.9488
-0.8632 2.7163 0.9484
-2.4198 6.7629 2.3891
-2.6621 6.6745 2.3891
-2.9012 6.5773 2.3891
-3.1367 6.4717 2.3891
-3.3683 6.3576 2.3891
-3.5958 6.2351 2.3891
-3.8189 6.1046 2.3891
-4.0371 5.9660 2.3891
-4.2504 5.8197 2.3891
-4.4583 5.6657 2.3891
-4.6606 5.5043 2.3891
-4.8570 5.3356 2.3891
-5.0473 5.1599 2.3891
-5.2312 4.9774 2.3891
-5.4085 4.7883 2.3891
-5.5788 4.5929 2.3891
-5.7421 4.3914 2.3891
-5.8981 4.1841 2.3891
-6.0465 3.9712 2.3891
-6.1872 3.7531 2.3891
-6.3199 3.5299 2.3891
-6.4446 3.3020 2.3891
-6.5609 3.0697 2.3891
-6.6689 2.8332 2.3891
-6.7682 2.5930 2.3891
-6.8588 2.3492 2.3891
-6.9405 2.1023 2.3891
-7.0133 1.8525 2.3891
-7.0770 1.6002 2.3891
-7.1315 1.3457 2.3891
-7.1768 1.0894 2.3891
-7.2128 0.8315 2.3891
-7.2394 0.5724 2.3891
-7.2566 0.3125 2.3891
-7.2644 0.0521 2.3891
-7.2627 -0.2084 2.3891
-7.2516 -0.4688 2.3891
-7.2311 -0.7286 2.3891
-7.2012 -0.9875 2.3891
-7.1618 -1.2443 2.3891
-7.1132 -1.5013 2.3891
-7.0553 -1.7556 2.3891
-6.9882 -2.0075 2.3891
-6.9120 -2.2569 2.3891
-6.8269 -2.5033 2.3891
-6.7328 -2.7465 2.3891
-6.6300 -2.9861 2.3891
-6.5185 -3.2219 2.3891
-6.3986 -3.4534 2.3891
-6.2704 -3.6804 2.3891
-6.1340 -3.9027 2.3891
-5.9897 -4.1198 2.3891
-5.8375 -4.3315 2.3891
-5.6779 -4.5375 2.3891
-5.5109 -4.7376 2.3891
-5.3367 -4.9315 2.3891
-5.1557 -5.1189 2.3891
-4.9680 -5.2996 2.3891
-4.7739 -5.4734 2.3891
-4.5737 -5.6400 2.3891
-4.3676 -5.7992 2.3891
-4.1560 -5.9508 2.3891
-3.9390 -6.0945 2.3891
-3.7170 -6.2304 2.3891
-3.4903 -6.3581 2.3891
-3.2591 -6.4774 2.3891
-3.0239 -6.5883 2.3891
-2.7848 -6.6906 2.3891
-2.5423 -6.7842 2.3891
-2.2966 -6.8688 2.3891
-2.0481 -6.9446 2.3891
-1.7971 -7.0113 2.3891
-1.5439 -7.0689 2.3891
-1.2889 -7.1172 2.3891
-1.0324 -7.1564 2.3891
-0.7747 -7.1862 2.3891
-0.5162 -7.2067 2.3891
-0.2572 -7.2179 2.3891
0.0025 -6.7092 2.3891
0.2432 -6.7023 2.3891
0.4833 -6.6868 2.3891
0.7227 -6.6627 2.3891
0.9609 -6.6299 2.3891
1.1978 -6.5887 2.3891
1.4329 -6.5389 2.3891
1.6660 -6.4808 2.3891
1.8968 -6.4143 2.3891
2.1249 -6.3396 2.3891
2.3502 -6.2568 2.3891
2.5722 -6.1660 2.3891
2.7908 -6.0673 2.3891
3.0056 -5.9609 2.3891
3.2164 -5.8469 2.3891
3.4230 -5.7255 2.3891
3.6249 -5.5966 2.3891
3.8220 -5.4608 2.3891
4.0141 -5.3180 2.3891
4.2009 -5.1685 2.3891
4.3821 -5.0124 2.3891
4.5576 -4.8500 2.3891
4.7271 -4.6815 2.3891
4.8904 -4.5071 2.3891
5.0474 -4.3271 2.3891
5.1977 -4.1415 2.3891
5.3413 -3.9508 2.3891
5.4780 -3.7552 2.3891
5.6075 -3.5548 2.3891
5.7298 -3.3501 2.3891
5.8446 -3.1411 2.3891
5.9519 -2.9282 2.3891
6.0515 -2.7117 2.3891
6.1433 -2.4919 2.3891
6.2272 -2.2689 2.3891
6.3030 -2.0432 2.3891
6.3708 -1.8150 2.3891
6.4303 -1.5845 2.3891
6.4817 -1.3521 2.3891
6.5246 -1.1181 2.3891
6.5593 -0.8827 2.3891
6.5855 -0.6463 2.3891
6.6033 -0.4092 2.3891
6.6126 -0.1716 2.3891
6.6135 0.0661 2.3891
6.6059 0.3037 2.3891
6.5899 0.5409 2.3891
6.5655 0.7772 2.3891
6.5326 1.0126 2.3891
6.4915 1.2466 2.3891
6.4420 1.4790 2.3891
6.3843 1.7095 2.3891
6.3184 1.9377 2.3891
6.2445 2.1635 2.3891
6.1626 2.3865 2.3891
6.0728 2.6064 2.3891
5.9753 2.8230 2.3891
5.8701 3.0360 2.3891
5.7574 3.2451 2.3891
5.6374 3.4501 2.3891
5.5101 3.6508 2.3891
5.3757 3.8467 2.3891
5.2345 4.0378 2.3891
5.0865 4.2238 2.3891
4.9321 4.4044 2.3891
4.7712 4.5794 2.3891
4.6042 4.7486 2.3891
4.4313 4.9118 2.3891
4.2527 5.0687 2.3891
4.0685 5.2192 2.3891
3.8791 5.3631 2.3891
3.6847 5.5002 2.3891
3.4854 5.6303 2.3891
3.2816 5.7532 2.3891
3.0735 5.8688 2.3891
2.8614 5.9770 2.3891
2.6455 6.0775 2.3891
2.4261 6.1704 2.3891
0.8784 2.4936 0.9524
0.7884 2.5239 0.9523
0.6973 2.5510 0.9521
0.6053 2.5747 0.9519
0.5125 2.5951 0.9517
0.4190 2.6122 0.9516
0.3249 2.6259 0.9513
0.2304 2.6361 0.9511
0.1356 2.6430 0.9509
0.0406 2.6464 0.9506
-0.0545 2.6463 0.9504
-0.1495 2.6429 0.9501
-0.2443 2.6360 0.9498
-0.3388 2.6257 0.9495
-0.4329 2.6120 0.9492
-0.5264 2.5949 0.9489
-0.6193 2.5744 0.9486
-0.7113 2.5506 0.9482
-0.8025 2.5235 0.9479
-0.8925 2.4931 0.9475
-2.4757 6.2037 2.3891
-2.6978 6.1133 2.3891
-2.9166 6.0149 2.3891
-3.1319 5.9086 2.3891
-3.3432 5.7947 2.3891
-3.5504 5.6731 2.3891
-3.7532 5.5442 2.3891
-3.9512 5.4080 2.3891
-4.1443 5.2648 2.3891
-4.3322 5.1146 2.3891
-4.5146 4.9577 2.3891
-4.6913 4.7943 2.3891
-4.8621 4.6246 2.3891
-5.0267 4.4488 2.3891
-5.1849 4.2671 2.3891
-5.3365 4.0797 2.3891
-5.4812 3.8870 2.3891
-5.6190 3.6891 2.3891
-5.7496 3.4863 2.3891
-5.8728 3.2788 2.3891
-5.9884 3.0670 2.3891
-6.0964 2.8511 2.3891
-6.1965 2.6314 2.3891
-6.2886 2.4081 2.3891
-6.3727 2.1816 2.3891
-6.4485 1.9522 2.3891
-6.5159 1.7201 2.3891
-6.5750 1.4857 2.3891
-6.6255 1.2493 2.3891
-6.6674 1.0111 2.3891
-6.7008 0.7715 2.3891
-6.7254 0.5309 2.3891
-6.7413 0.2894 2.3891
-6.7484 0.0475 2.3891
-6.7468 -0.1945 2.3891
-6.7364 -0.4363 2.3891
-6.7173 -0.6782 2.3891
-6.6893 -0.9181 2.3891
-6.6528 -1.1575 2.3891
-6.6075 -1.3954 2.3891
-6.5537 -1.6315 2.3891
-6.4913 -1.8655 2.3891
-6.4205 -2.0971 2.3891
-6.3414 -2.3260 2.3891
-6.2540 -2.5519 2.3891
-6.1585 -2.7745 2.3891
-6.0549 -2.9934 2.3891
-5.9435 -3.2085 2.3891
-5.8244 -3.4193 2.3891
-5.6978 -3.6257 2.3891
-5.5637 -3.8274 2.3891
-5.4224 -4.0241 2.3891
-5.2741 -4.2155 2.3891
-5.1190 -4.4013 2.3891
-4.9573 -4.5815 2.3891
-4.7891 -4.7556 2.3891
-4.6148 -4.9235 2.3891
-4.4346 -5.0849 2.3891
-4.2487 -5.2397 2.3891
-4.0573 -5.3876 2.3891
-3.8607 -5.5285 2.3891
-3.6591 -5.6622 2.3891
-3.4529 -5.7884 2.3891
-3.2424 -5.9071 2.3891
-3.0277 -6.0181 2.3891
-2.8092 -6.1212 2.3891
-2.5872 -6.2163 2.3891
-2.3619 -6.3033 2.3891
-2.1337 -6.3821 2.3891
-1.9028 -6.4526 2.3891
-1.6696 -6.5147 2.3891
-1.4344 -6.5683 2.3891
-1.1975 -6.6133 2.3891
-0.9592 -6.6498 2.3891
-0.7198 -6.6777 2.3891
-0.4796 -6.6969 2.3891
-0.2389 -6.7074 2.3891
0.0019 -6.7092 2.3891
0.2425 -6.7024 2.3891
0.4827 -6.6869 2.3891
0.7220 -6.6627 2.3891
0.9603 -6.6300 2.3891
1.1971 -6.5888 2.3891
1.4322 -6.5391 2.3891
1.6654 -6.4809 2.3891
1.8961 -6.4145 2.3891
2.1243 -6.3398 2.3891
2.3496 -6.2570 2.3891
2.5717 -6.1662 2.3891
2.7902 -6.0676 2.3891
3.0051 -5.9612 2.3891
3.2159 -5.8472 2.3891
3.4224 -5.7258 2.3891
3.6243 -5.5970 2.3891
3.8215 -5.4612 2.3891
4.0136 -5.3184 2.3891
4.2004 -5.1689 2.3891
4.3817 -5.0128 2.3891
4.5572 -4.8505 2.3891
4.7267 -4.6820 2.3891
4.8900 -4.5076 2.3891
5.0470 -4.3275 2.3891
5.1973 -4.1420 2.3891
5.3409 -3.9513 2.3891
5.4776 -3.7557 2.3891
5.6072 -3.5554 2.3891
5.7294 -3.3506 2.3891
5.8443 -3.1416 2.3891
5.9516 -2.9288 2.3891
6.0512 -2.7123 2.3891
6.1431 -2.4925 2.3891
6.2270 -2.2695 2.3891
6.3028 -2.0438 2.3891
6.3706 -1.8156 2.3891
6.4302 -1.5851 2.3891
6.4815 -1.3527 2.3891
6.5245 -1.1187 2.3891
6.5592 -0.8834 2.3891
6.5854 -0.6470 2.3891
6.6032 -0.4098 2.3891
6.6126 -0.1723 2.3891
6.6135 0.0655 2.3891
6.6060 0.3031 2.3891
6.5900 0.5402 2.3891
6.5655 0.7766 2.3891
6.5327 1.0120 2.3891
6.4916 1.2460 2.3891
6.4421 1.4784 2.3891
6.3844 1.7089 2.3891
6.3186 1.9371 2.3891
6.2447 2.1629 2.3891
6.1628 2.3859 2.3891
6.0731 2.6058 2.3891
5.9756 2.8224 2.3891
5.8704 3.0354 2.3891
5.7577 3.2446 2.3891
5.6377 3.4496 2.3891
5.5104 3.6502 2.3891
5.3761 3.8462 2.3891
5.2349 4.0373 2.3891
5.0870 4.2233 2.3891
4.9325 4.4039 2.3891
4.7717 4.5789 2.3891
4.6047 4.7482 2.3891
4.4318 4.9113 2.3891
4.2532 5.0683 2.3891
4.0690 5.2188 2.3891
3.8796 5.3627 2.3891
3.6852 5.4998 2.3891
3.4860 5.6299 2.3891
3.2822 5.7529 2.3891
3.0741 5.8685 2.3891
2.8620 5.9767 2.3891
2.6461 6.0773 2.3891
2.4267 6.1701 2.3891
0.8787 2.4935 0.9524
0.7886 2.5239 0.9523
0.6975 2.5509 0.9521
0.6055 2.5747 0.9519
0.5127 2.5951 0.9518
0.4192 2.6121 0.9516
0.3252 2.6258 0.9513
0.2307 2.6361 0.9511
0.1359 2.6429 0.9509
0.0409 2.6464 0.9506
-0.0542 2.6463 0.9504
-0.1492 2.6429 0.9501
-0.2440 2.6360 0.9498
-0.3386 2.6257 0.9495
-0.4327 2.6120 0.9492
-0.5262 2.5949 0.9489
-0.6190 2.5745 0.9486
-0.7111 2.5507 0.9482
-0.8022 2.5236 0.9479
-0.8923 2.4932 0.9475
-2.4751 6.2040 2.3891
-2.6972 6.1135 2.3891
-2.9160 6.0151 2.3891
-3.1313 5.9089 2.3891
-3.3427 5.7950 2.3891
-3.5499 5.6735 2.3891
-3.7526 5.5446 2.3891
-3.9507 5.4084 2.3891
-4.1438 5.2652 2.3891
-4.3317 5.1150 2.3891
-4.5141 4.9581 2.3891
-4.6909 4.7948 2.3891
-4.8616 4.6250 2.3891
-5.0262 4.4492 2.3891
-5.1845 4.2676 2.3891
-5.3361 4.0802 2.3891
-5.4808 3.8875 2.3891
-5.6186 3.6896 2.3891
-5.7492 3.4868 2.3891
-5.8724 3.2794 2.3891
-5.9881 3.0676 2.3891
-6.0961 2.8517 2.3891
-6.1962 2.6320 2.3891
-6.2884 2.4087 2.3891
-6.3724 2.1822 2.3891
-6.4483 1.9528 2.3891
-6.5158 1.7208 2.3891
-6.5748 1.4863 2.3891
-6.6254 1.2499 2.3891
-6.6673 1.0117 2.3891
-6.7007 0.7722 2.3891
-6.7253 0.5315 2.3891
-6.7412 0.2901 2.3891
-6.7484 0.0482 2.3891
-6.7468 -0.1938 2.3891
-6.7364 -0.4357 2.3891
-6.7173 -0.6770 2.3891
-6.6894 -0.9175 2.3891
-6.6529 -1.1569 2.3891
-6.6077 -1.3947 2.3891
-6.5538 -1.6309 2.3891
-6.4915 -1.8649 2.3891
-6.4207 -2.0965 2.3891
-6.3416 -2.3254 2.3891
-6.2542 -2.5513 2.3891
-6.1587 -2.7739 2.3891
-6.0552 -2.9928 2.3891
-5.9438 -3.2079 2.3891
-5.8247 -3.4188 2.3891
-5.6981 -3.6252 2.3891
-5.5641 -3.8269 2.3891
-5.4228 -4.0236 2.3891
-5.2745 -4.2150 2.3891
-5.1194 -4.4008 2.3891
-4.9577 -4.5810 2.3891
-4.7896 -4.7551 2.3891
-4.6153 -4.9230 2.3891
-4.4351 -5.0845 2.3891
-4.2492 -5.2392 2.3891
-4.0578 -5.3873 2.3891
-3.8612 -5.5282 2.3891
-3.6597 -5.6618 2.3891
-3.4535 -5.7881 2.3891
-3.2429 -5.9068 2.3891
-3.0283 -6.0178 2.3891
-2.8098 -6.1209 2.3891
-2.5877 -6.2161 2.3891
-2.3625 -6.3031 2.3891
-2.1343 -6.3819 2.3891
-1.9034 -6.4524 2.3891
-1.6702 -6.5145 2.3891
-1.4350 -6.5681 2.3891
-1.1981 -6.6132 2.3891
-0.9598 -6.6497 2.3891
-0.7204 -6.6776 2.3891
-0.4802 -6.6968 2.3891
-0.2395 -6.7074 2.3891
0.0018 -6.2595 2.3891
0.2263 -6.2532 2.3891
0.4504 -6.2389 2.3891
0.6737 -6.2165 2.3891
0.8960 -6.1861 2.3891
1.1170 -6.1477 2.3891
1.3364 -6.1014 2.3891
1.5540 -6.0473 2.3891
1.7694 -5.9854 2.3891
1.9823 -5.9159 2.3891
2.1925 -5.8387 2.3891
2.3998 -5.7541 2.3891
2.6038 -5.6621 2.3891
2.8044 -5.5630 2.3891
3.0012 -5.4567 2.3891
3.1940 -5.3435 2.3891
3.3825 -5.2234 2.3891
3.5666 -5.0967 2.3891
3.7459 -4.9636 2.3891
3.9203 -4.8242 2.3891
4.0896 -4.6786 2.3891
4.2535 -4.5271 2.3891
4.4118 -4.3699 2.3891
4.5643 -4.2072 2.3891
4.7109 -4.0392 2.3891
4.8514 -3.8662 2.3891
4.9855 -3.6882 2.3891
5.1131 -3.5057 2.3891
5.2342 -3.3187 2.3891
5.3484 -3.1276 2.3891
5.4557 -2.9326 2.3891
5.5560 -2.7339 2.3891
5.6490 -2.5318 2.3891
5.7348 -2.3266 2.3891
5.8132 -2.1185 2.3891
5.8841 -1.9078 2.3891
5.9475 -1.6947 2.3891
6.0032 -1.4796 2.3891
6.0512 -1.2626 2.3891
6.0914 -1.0442 2.3891
6.1238 -0.8244 2.3891
6.1484 -0.6037 2.3891
6.1650 -0.3823 2.3891
6.1738 -0.1604 2.3891
6.1747 0.0615 2.3891
6.1677 0.2834 2.3891
6.1528 0.5048 2.3891
6.1300 0.7255 2.3891
6.0993 0.9453 2.3891
6.0609 1.1638 2.3891
6.0148 1.3808 2.3891
5.9609 1.5960 2.3891
5.8994 1.8092 2.3891
5.8304 2.0200 2.3891
5.7539 2.2282 2.3891
5.6701 2.4336 2.3891
5.5790 2.6358 2.3891
5.4808 2.8347 2.3891
5.3756 3.0300 2.3891
5.2634 3.2214 2.3891
5.1446 3.4087 2.3891
5.0191 3.5917 2.3891
4.8872 3.7701 2.3891
4.7490 3.9437 2.3891
4.6047 4.1123 2.3891
4.4545 4.2757 2.3891
4.2986 4.4337 2.3891
4.1371 4.5860 2.3891
3.9702 4.7325 2.3891
3.7983 4.8729 2.3891
3.6214 5.0072 2.3891
3.4398 5.1351 2.3891
3.2537 5.2565 2.3891
3.0634 5.3712 2.3891
2.8691 5.4791 2.3891
2.6710 5.5800 2.3891
2.4694 5.6738 2.3891
0.9021 2.2948 0.9518
0.8192 2.3260 0.9516
0.7352 2.3543 0.9515
0.6503 2.3795 0.9514
0.5644 2.4017 0.9512
0.4778 2.4207 0.9510
0.3906 2.4366 0.9509
0.3029 2.4493 0.9507
0.2147 2.4589 0.9505
0.1263 2.4652 0.9502
0.0377 2.4684 0.9500
-0.0510 2.4684 0.9498
-0.1396 2.4652 0.9495
-0.2281 2.4587 0.9492
-0.3162 2.4491 0.9490
-0.4040 2.4363 0.9487
-0.4912 2.4204 0.9484
-0.5779 2.4013 0.9481
-0.6637 2.3791 0.9478
-0.7487 2.3538 0.9474
-0.8328 2.3254 0.9471
-2.3107 5.7890 2.3891
-2.5180 5.7044 2.3891
-2.7221 5.6125 2.3891
-2.9229 5.5132 2.3891
-3.1200 5.4067 2.3891
-3.3133 5.2932 2.3891
-3.5024 5.1728 2.3891
-3.6871 5.0456 2.3891
-3.8672 4.9119 2.3891
-4.0424 4.7716 2.3891
-4.2125 4.6252 2.3891
-4.3773 4.4726 2.3891
-4.5365 4.3142 2.3891
-4.6899 4.1501 2.3891
-4.8374 3.9805 2.3891
-4.9787 3.8056 2.3891
-5.1137 3.6257 2.3891
-5.2421 3.4411 2.3891
-5.3638 3.2518 2.3891
-5.4786 3.0583 2.3891
-5.5864 2.8606 2.3891
-5.6870 2.6592 2.3891
-5.7803 2.4542 2.3891
-5.8661 2.2459 2.3891
-5.9444 2.0346 2.3891
-6.0150 1.8206 2.3891
-6.0778 1.6041 2.3891
-6.1328 1.3855 2.3891
-6.1798 1.1649 2.3891
-6.2189 0.9428 2.3891
-6.2499 0.7193 2.3891
-6.2728 0.4949 2.3891
-6.2875 0.2697 2.3891
-6.2941 0.0441 2.3891
-6.2925 -0.1816 2.3891
-6.2828 -0.4071 2.3891
-6.2649 -0.6322 2.3891
-6.2389 -0.8565 2.3891
-6.2047 -1.0797 2.3891
-6.1625 -1.3015 2.3891
-6.1123 -1.5217 2.3891
-6.0541 -1.7399 2.3891
-5.9880 -1.9559 2.3891
-5.9142 -2.1694 2.3891
-5.8327 -2.3800 2.3891
-5.7436 -2.5876 2.3891
-5.6471 -2.7918 2.3891
-5.5432 -2.9923 2.3891
-5.4322 -3.1890 2.3891
-5.3141 -3.3815 2.3891
-5.1890 -3.5695 2.3891
-5.0573 -3.7530 2.3891
-4.9191 -3.9315 2.3891
-4.7744 -4.1049 2.3891
-4.6236 -4.2729 2.3891
-4.4669 -4.4353 2.3891
-4.3044 -4.5919 2.3891
-4.1363 -4.7425 2.3891
-3.9629 -4.8869 2.3891
-3.7845 -5.0250 2.3891
-3.6012 -5.1564 2.3891
-3.4133 -5.2811 2.3891
-3.2210 -5.3990 2.3891
-3.0247 -5.5096 2.3891
-2.8245 -5.6132 2.3891
-2.6207 -5.7096 2.3891
-2.4136 -5.7984 2.3891
-2.2036 -5.8796 2.3891
-1.9907 -5.9532 2.3891
-1.7754 -6.0191 2.3891
-1.5579 -6.0771 2.3891
-1.3386 -6.1272 2.3891
-1.1176 -6.1694 2.3891
-0.8953 -6.2035 2.3891
-0.6720 -6.2296 2.3891
-0.4479 -6.2477 2.3891
-0.2234 -6.2576 2.3891
0.0012 -6.2595 2.3891
0.2257 -6.2532 2.3891
0.4498 -6.2389 2.3891
0.6731 -6.2165 2.3891
0.8954 -6.1862 2.3891
1.1164 -6.1478 2.3891
1.3359 -6.1015 2.3891
1.5534 -6.0475 2.3891
1.7688 -5.9856 2.3891
1.9817 -5.9161 2.3891
2.1920 -5.8389 2.3891
2.3993 -5.7544 2.3891
2.6033 -5.6624 2.3891
2.8039 -5.5632 2.3891
3.0007 -5.4570 2.3891
3.1934 -5.3438 2.3891
3.3820 -5.2237 2.3891
3.5661 -5.0972 2.3891
3.7455 -4.9640 2.3891
3.9199 -4.8245 2.3891
4.0891 -4.6790 2.3891
4.2530 -4.5276 2.3891
4.4114 -4.3704 2.3891
4.5639 -4.2077 2.3891
4.7105 -4.0397 2.3891
4.8510 -3.8666 2.3891
4.9851 -3.6887 2.3891
5.1128 -3.5061 2.3891
5.2338 -3.3192 2.3891
5.3481 -3.1281 2.3891
5.4554 -2.9331 2.3891
5.5557 -2.7344 2.3891
5.6488 -2.5324 2.3891
5.7346 -2.3272 2.3891
5.8130 -2.1191 2.3891
5.8840 -1.9084 2.3891
5.9473 -1.6953 2.3891
6.0031 -1.4802 2.3891
6.0511 -1.2632 2.3891
6.0913 -1.0447 2.3891
6.1237 -0.8250 2.3891
6.1483 -0.6043 2.3891
6.1650 -0.3829 2.3891
6.1738 -0.1610 2.3891
6.1747 0.0609 2.3891
6.1677 0.2828 2.3891
6.1528 0.5042 2.3891
6.1300 0.7249 2.3891
6.0994 0.9447 2.3891
6.0610 1.1632 2.3891
6.0149 1.3802 2.3891
5.9610 1.5954 2.3891
5.8996 1.8086 2.3891
5.8306 2.0194 2.3891
5.7541 2.2276 2.3891
5.6703 2.4330 2.3891
5.5793 2.6353 2.3891
5.4811 2.8342 2.3891
5.3758 3.0295 2.3891
5.2637 3.2209 2.3891
5.1449 3.4082 2.3891
5.0194 3.5912 2.3891
4.8876 3.7696 2.3891
4.7494 3.9433 2.3891
4.6051 4.1119 2.3891
4.4549 4.2753 2.3891
4.2990 4.4332 2.3891
4.1375 4.5856 2.3891
3.9707 4.7321 2.3891
3.7987 4.8726 2.3891
3.6218 5.0069 2.3891
3.4403 5.1348 2.3891
3.2542 5.2562 2.3891
3.0639 5.3709 2.3891
2.8696 5.4788 2.3891
2.6715 5.5797 2.3891
2.4699 5.6736 2.3891
0.9023 2.2947 0.9518
0.8194 2.3260 0.9516
0.7354 2.3542 0.9515
0.6505 2.3795 0.9514
0.5647 2.4016 0.9512
0.4781 2.4206 0.9510
0.3909 2.4365 0.9509
0.3031 2.4493 0.9507
0.2150 2.4588 0.9505
0.1265 2.4652 0.9502
0.0379 2.4684 0.9500
-0.0508 2.4684 0.9498
-0.1394 2.4652 0.9495
-0.2278 2.4588 0.9492
-0.3160 2.4491 0.9490
-0.4038 2.4364 0.9487
-0.4910 2.4204 0.9484
-0.5776 2.4013 0.9481
-0.6635 2.3791 0.9478
-0.7485 2.3538 0.9474
-0.8325 2.3255 0.9471
-0.9155 2.2942 0.9468
-2.5174 5.7047 2.3891
-2.7216 5.6127 2.3891
-2.9224 5.5135 2.3891
-3.1195 5.4070 2.3891
-3.3128 5.2936 2.3891
-3.5019 5.1732 2.3891
-3.6866 5.0460 2.3891
-3.8667 4.9122 2.3891
-4.0419 4.7720 2.3891
-4.2121 4.6256 2.3891
-4.3768 4.4730 2.3891
-4.5361 4.3146 2.3891
-4.6895 4.1505 2.3891
-4.8370 3.9809 2.3891
-4.9783 3.8061 2.3891
-5.1133 3.6262 2.3891
-5.2417 3.4416 2.3891
-5.3634 3.2523 2.3891
-5.4783 3.0588 2.3891
-5.5861 2.8612 2.3891
-5.6867 2.6597 2.3891
-5.7800 2.4548 2.3891
-5.8659 2.2465 2.3891
-5.9442 2.0352 2.3891
-6.0148 1.8212 2.3891
-6.0777 1.6047 2.3891
-6.1327 1.3861 2.3891
-6.1797 1.1655 2.3891
-6.2188 0.9434 2.3891
-6.2498 0.7199 2.3891
-6.2727 0.4955 2.3891
-6.2875 0.2703 2.3891
-6.2941 0.0447 2.3891
-6.2926 -0.1810 2.3891
-6.2829 -0.4065 2.3891
-6.2650 -0.6316 2.3891
-6.2389 -0.8559 2.3891
-6.2048 -1.0791 2.3891
-6.1626 -1.3009 2.3891
-6.1124 -1.5211 2.3891
-6.0543 -1.7393 2.3891
-5.9882 -1.9553 2.3891
-5.9144 -2.1688 2.3891
-5.8329 -2.3795 2.3891
-5.7439 -2.5870 2.3891
-5.6474 -2.7912 2.3891
-5.5435 -2.9918 2.3891
-5.4325 -3.1884 2.3891
-5.3144 -3.3810 2.3891
