ply
format ascii 1.0
element vertex 2177
property float32 x
property float32 y
property float32 z
end_header
-5.0467 -4.5289 2.3780
-4.9091 -4.7407 2.3780
-4.7644 -4.9498 2.3780
-4.6125 -5.1562 2.3780
-4.4535 -5.3597 2.3780
-4.2873 -5.5600 2.3780
-4.1139 -5.7569 2.3780
-3.9332 -5.9502 2.3780
-3.7452 -6.1398 2.3780
-3.5499 -6.3253 2.3780
-3.3474 -6.5066 2.3780
-3.1375 -6.6834 2.3780
-2.9202 -6.8554 2.3780
-2.6956 -7.0223 2.3780
-2.4638 -7.1839 2.3780
-2.2246 -7.3399 2.3780
-1.9782 -7.4900 2.3780
-1.7245 -7.6339 2.3780
-1.4637 -7.7711 2.3780
-1.1958 -7.9015 2.3780
-0.9210 -8.0247 2.3780
-0.6392 -8.1402 2.3780
-0.3506 -8.2478 2.3780
-0.0554 -8.3470 2.3780
0.2462 -8.4375 2.3780
0.5541 -8.5189 2.3780
0.8681 -8.5907 2.3780
1.1879 -8.6527 2.3780
1.5133 -8.7042 2.3780
1.8440 -8.7451 2.3780
2.1796 -8.7747 2.3780
2.5197 -8.7928 2.3780
2.8641 -8.7991 2.3780
3.2122 -8.7926 2.3780
3.5636 -8.7736 2.3780
3.9179 -8.7413 2.3780
4.2743 -8.6954 2.3780
4.3050 8.7032 2.3780
3.9479 8.7502 2.3780
3.5931 8.7835 2.3780
3.2410 8.8036 2.3780
2.8923 8.8108 2.3780
0.9360 3.2357 0.8738
0.8196 3.2649 0.8835
0.7023 3.2899 0.8932
0.5842 3.3107 0.9029
0.4653 3.3272 0.9128
0.3459 3.3393 0.9226
0.2262 3.3470 0.9325
0.1062 3.3505 0.9424
-0.0138 3.3495 0.9523
-0.1337 3.3442 0.9621
-0.2533 3.3346 0.9720
-0.3725 3.3206 0.9818
-0.4911 3.3023 0.9915
-0.6090 3.2796 1.0012
-0.7260 3.2528 1.0107
-1.9626 7.5093 2.3780
-2.2097 7.3593 2.3780
-2.4496 7.2034 2.3780
-2.6822 7.0418 2.3780
-2.9074 6.8749 2.3780
-3.1253 6.7029 2.3780
-3.3359 6.5262 2.3780
-3.5390 6.3449 2.3780
-3.7349 6.1593 2.3780
-3.9235 5.9697 2.3780
-4.1047 5.7763 2.3780
-4.2787 5.5793 2.3780
-4.4454 5.3789 2.3780
-4.6049 5.1754 2.3780
-4.7572 4.9689 2.3780
-4.9024 4.7596 2.3780
-5.0405 4.5477 2.3780
-5.1714 4.3338 2.3780
-5.2955 4.1168 2.3780
-5.4125 3.8982 2.3780
-5.5225 3.6776 2.3780
-5.6257 3.4552 2.3780
-5.7219 3.2311 2.3780
-5.8114 3.0055 2.3780
-5.8940 2.7785 2.3780
-5.9698 2.5502 2.3780
-6.0389 2.3208 2.3780
-6.1013 2.0903 2.3780
-6.1570 1.8589 2.3780
-6.2060 1.6267 2.3780
-6.2484 1.3938 2.3780
-6.2842 1.1602 2.3780
-6.3133 0.9263 2.3780
-6.3358 0.6919 2.3780
-6.3518 0.4572 2.3780
-6.3612 0.2224 2.3780
-6.3640 -0.0125 2.3780
-6.3603 -0.2475 2.3780
-6.3499 -0.4823 2.3780
-6.3330 -0.7168 2.3780
-6.3095 -0.9511 2.3780
-6.2795 -1.1850 2.3780
-6.2428 -1.4184 2.3780
-6.1995 -1.6511 2.3780
-6.1495 -1.8831 2.3780
-6.0929 -2.1143 2.3780
-6.0296 -2.3445 2.3780
-5.9596 -2.5738 2.3780
-5.8829 -2.8018 2.3780
-5.7993 -3.0283 2.3780
-5.7090 -3.2535 2.3780
-5.6119 -3.4772 2.3780
-5.5078 -3.6992 2.3780
-5.3969 -3.9194 2.3780
-5.2791 -4.1376 2.3780
-5.1542 -4.3537 2.3780
-5.0224 -4.5674 2.3780
-4.8834 -4.7787 2.3780
-4.7374 -4.9874 2.3780
-4.5843 -5.1933 2.3780
-4.4240 -5.3962 2.3780
-4.2564 -5.5958 2.3780
-4.0817 -5.7921 2.3780
-3.8997 -5.9848 2.3780
-3.7104 -6.1737 2.3780
-3.5138 -6.3585 2.3780
-3.3099 -6.5389 2.3780
-3.0987 -6.7148 2.3780
-2.8801 -6.8859 2.3780
-2.6542 -7.0519 2.3780
-2.4210 -7.2126 2.3780
-2.1805 -7.3675 2.3780
-1.9328 -7.5165 2.3780
-1.6779 -7.6592 2.3780
-1.4158 -7.7953 2.3780
-1.1466 -7.9244 2.3780
-0.8705 -8.0461 2.3780
-0.5875 -8.1603 2.3780
-0.2977 -8.2664 2.3780
-0.0013 -8.3640 2.3780
0.3015 -8.4529 2.3780
0.6105 -8.5326 2.3780
0.9256 -8.6027 2.3780
1.2464 -8.6628 2.3780
1.5728 -8.7124 2.3780
1.9043 -8.7513 2.3780
2.2408 -8.7789 2.3780
2.5817 -8.7948 2.3780
2.9268 -8.7987 2.3780
3.2756 -8.7902 2.3780
3.6275 -8.7687 2.3780
3.9822 -8.7340 2.3780
4.3390 -8.6857 2.3780
6.8485 6.8407 2.3780
6.5431 7.0145 2.3780
6.2332 7.1743 2.3780
5.9193 7.3203 2.3780
5.6023 7.4525 2.3780
5.2828 7.5709 2.3780
4.9616 7.6758 2.3780
4.6393 7.7673 2.3780
4.3166 7.8456 2.3780
3.9940 7.9110 2.3780
3.6722 7.9636 2.3780
3.3516 8.0038 2.3780
3.0328 8.0319 2.3780
0.9921 2.9397 0.8686
0.8864 2.9711 0.8774
0.7796 2.9987 0.8862
0.6718 3.0224 0.8951
0.5632 3.0422 0.9041
0.4540 3.0580 0.9132
0.3443 3.0699 0.9222
0.2342 3.0777 0.9313
0.1239 3.0816 0.9404
0.0135 3.0814 0.9495
-0.0968 3.0773 0.9586
-0.2069 3.0691 0.9676
-0.3167 3.0570 0.9766
-0.4259 3.0408 0.9856
-0.5345 3.0207 0.9945
-0.6422 2.9967 1.0033
-0.7491 2.9688 1.0121
-1.9916 6.8426 2.3780
-2.2166 6.7036 2.3780
-2.4351 6.5589 2.3780
-2.6470 6.4090 2.3780
-2.8523 6.2540 2.3780
-3.0510 6.0942 2.3780
-3.2430 5.9298 2.3780
-3.4283 5.7611 2.3780
-3.6069 5.5883 2.3780
-3.7788 5.4116 2.3780
-3.9440 5.2313 2.3780
-4.1026 5.0475 2.3780
-4.2544 4.8605 2.3780
-4.3996 4.6705 2.3780
-4.5382 4.4775 2.3780
-4.6701 4.2819 2.3780
-4.7955 4.0837 2.3780
-4.9142 3.8831 2.3780
-5.0264 3.6804 2.3780
-5.1321 3.4756 2.3780
-5.2313 3.2689 2.3780
-5.3239 3.0605 2.3780
-5.4102 2.8504 2.3780
-5.4899 2.6388 2.3780
-5.5633 2.4259 2.3780
-5.6302 2.2118 2.3780
-5.6908 1.9965 2.3780
-5.7451 1.7803 2.3780
-5.7929 1.5631 2.3780
-5.8345 1.3452 2.3780
-5.8697 1.1267 2.3780
-5.8987 0.9076 2.3780
-5.9213 0.6882 2.3780
-5.9377 0.4683 2.3780
-5.9478 0.2483 2.3780
-5.9517 0.0281 2.3780
-5.9492 -0.1920 2.3780
-5.9405 -0.4121 2.3780
-5.9255 -0.6320 2.3780
-5.9043 -0.8515 2.3780
-5.8767 -1.0706 2.3780
-5.8429 -1.2892 2.3780
-5.8027 -1.5072 2.3780
-5.7563 -1.7245 2.3780
-5.7035 -1.9408 2.3780
-5.6444 -2.1562 2.3780
-5.5788 -2.3705 2.3780
-5.5070 -2.5836 2.3780
-5.4287 -2.7954 2.3780
-5.3440 -3.0056 2.3780
-5.2528 -3.2143 2.3780
-5.1552 -3.4213 2.3780
-5.0510 -3.6264 2.3780
-4.9404 -3.8294 2.3780
-4.8232 -4.0303 2.3780
-4.6995 -4.2288 2.3780
-4.5691 -4.4249 2.3780
-4.4322 -4.6183 2.3780
-4.2886 -4.8089 2.3780
-4.1385 -4.9964 2.3780
-3.9816 -5.1807 2.3780
-3.8181 -5.3617 2.3780
-3.6479 -5.5390 2.3780
-3.4710 -5.7125 2.3780
-3.2875 -5.8820 2.3780
-3.0973 -6.0472 2.3780
-2.9004 -6.2079 2.3780
-2.6969 -6.3638 2.3780
-2.4868 -6.5148 2.3780
-2.2701 -6.6605 2.3780
-2.0469 -6.8007 2.3780
-1.8172 -6.9351 2.3780
-1.5811 -7.0634 2.3780
-1.3387 -7.1852 2.3780
-1.0901 -7.3005 2.3780
-0.8353 -7.4087 2.3780
-0.5746 -7.5096 2.3780
-0.3080 -7.6028 2.3780
-0.0357 -7.6881 2.3780
0.2421 -7.7651 2.3780
0.5252 -7.8334 2.3780
0.8134 -7.8927 2.3780
1.1065 -7.9427 2.3780
1.4041 -7.9830 2.3780
1.7060 -8.0133 2.3780
2.0118 -8.0332 2.3780
2.3213 -8.0423 2.3780
2.6340 -8.0404 2.3780
2.9495 -8.0271 2.3780
3.2674 -8.0021 2.3780
3.5872 -7.9650 2.3780
3.9085 -7.9156 2.3780
4.2306 -7.8536 2.3780
4.5530 -7.7788 2.3780
4.8752 -7.6908 2.3780
5.1965 -7.5895 2.3780
5.5162 -7.4748 2.3780
5.8337 -7.3463 2.3780
6.1482 -7.2041 2.3780
6.4591 -7.0481 2.3780
6.7655 -6.8783 2.3780
7.6952 -5.8803 2.3074
7.8156 -5.5470 2.2657
7.9401 -5.2246 2.2303
8.1599 -4.9663 2.2256
8.3861 -4.7075 2.2256
8.6014 -4.4374 2.2256
8.8049 -4.1566 2.2256
6.7937 6.8732 2.3780
6.4875 7.0444 2.3780
6.1767 7.2018 2.3780
5.8622 7.3453 2.3780
5.5447 7.4749 2.3780
5.2248 7.5909 2.3780
4.9034 7.6934 2.3780
4.5810 7.7824 2.3780
4.2582 7.8584 2.3780
3.9357 7.9214 2.3780
3.6140 7.9718 2.3780
3.2938 8.0098 2.3780
2.9754 8.0357 2.3780
0.9731 2.9456 0.8702
0.8671 2.9764 0.8790
0.7601 3.0033 0.8878
0.6522 3.0263 0.8968
0.5435 3.0454 0.9058
0.4342 3.0605 0.9148
0.3244 3.0716 0.9239
0.2142 3.0787 0.9329
0.1039 3.0819 0.9420
-0.0065 3.0810 0.9511
-0.1168 3.0761 0.9602
-0.2268 3.0672 0.9692
-0.3365 3.0543 0.9783
-0.4456 3.0375 0.9872
-0.5540 3.0167 0.9961
-0.6617 2.9919 1.0049
-0.7683 2.9633 1.0136
-2.0328 6.8178 2.3780
-2.2566 6.6778 2.3780
-2.4739 6.5322 2.3780
-2.6847 6.3813 2.3780
-2.8888 6.2254 2.3780
-3.0862 6.0648 2.3780
-3.2770 5.8996 2.3780
-3.4611 5.7301 2.3780
-3.6385 5.5566 2.3780
-3.8092 5.3793 2.3780
-3.9732 5.1985 2.3780
-4.1305 5.0139 2.3780
-4.2812 4.8264 2.3780
-4.4252 4.6357 2.3780
-4.5626 4.4423 2.3780
-4.6933 4.2462 2.3780
-4.8175 4.0476 2.3780
-4.9350 3.8466 2.3780
-5.0460 3.6435 2.3780
-5.1505 3.4383 2.3780
-5.2485 3.2313 2.3780
-5.3400 3.0226 2.3780
-5.4251 2.8122 2.3780
-5.5037 2.6004 2.3780
-5.5759 2.3872 2.3780
-5.6417 2.1729 2.3780
-5.7011 1.9575 2.3780
-5.7542 1.7410 2.3780
-5.8009 1.5238 2.3780
-5.8413 1.3057 2.3780
-5.8754 1.0871 2.3780
-5.9033 0.8679 2.3780
-5.9248 0.6484 2.3780
-5.9400 0.4285 2.3780
-5.9490 0.2084 2.3780
-5.9517 -0.0117 2.3780
-5.9481 -0.2319 2.3780
-5.9383 -0.4519 2.3780
-5.9222 -0.6717 2.3780
-5.8998 -0.8912 2.3780
-5.8711 -1.1102 2.3780
-5.8361 -1.3288 2.3780
-5.7948 -1.5466 2.3780
-5.7472 -1.7636 2.3780
-5.6932 -1.9796 2.3780
-5.6330 -2.1951 2.3780
-5.5663 -2.4092 2.3780
-5.4933 -2.6220 2.3780
-5.4138 -2.8335 2.3780
-5.3279 -3.0435 2.3780
-5.2356 -3.2519 2.3780
-5.1368 -3.4585 2.3780
-5.0315 -3.6632 2.3780
-4.9197 -3.8659 2.3780
-4.8013 -4.0664 2.3780
-4.6764 -4.2645 2.3780
-4.5449 -4.4601 2.3780
-4.4067 -4.6530 2.3780
-4.2620 -4.8430 2.3780
-4.1106 -5.0300 2.3780
-3.9525 -5.2137 2.3780
-3.7878 -5.3940 2.3780
-3.6164 -5.5707 2.3780
-3.4383 -5.7435 2.3780
-3.2536 -5.9122 2.3780
-3.0621 -6.0766 2.3780
-2.8641 -6.2365 2.3780
-2.6594 -6.3915 2.3780
-2.4480 -6.5416 2.3780
-2.2302 -6.6863 2.3780
-2.0058 -6.8254 2.3780
-1.7749 -6.9587 2.3780
-1.5377 -7.0859 2.3780
-1.2942 -7.2066 2.3780
-1.0444 -7.3206 2.3780
-0.7886 -7.4275 2.3780
-0.5268 -7.5270 2.3780
-0.2591 -7.6189 2.3780
0.0142 -7.7026 2.3780
0.2930 -7.7779 2.3780
0.5770 -7.8448 2.3780
0.8661 -7.9025 2.3780
1.1600 -7.9507 2.3780
1.4584 -7.9892 2.3780
1.7610 -8.0176 2.3780
2.0676 -8.0356 2.3780
2.3776 -8.0428 2.3780
2.6909 -8.0388 2.3780
3.0069 -8.0234 2.3780
3.3252 -7.9962 2.3780
3.6453 -7.9570 2.3780
3.9667 -7.9053 2.3780
4.2889 -7.8411 2.3780
4.6114 -7.7638 2.3780
4.9334 -7.6735 2.3780
5.2545 -7.5698 2.3780
5.5738 -7.4525 2.3780
5.8908 -7.3216 2.3780
6.2048 -7.1769 2.3780
6.5149 -7.0184 2.3780
6.8204 -6.8460 2.3780
7.7172 -5.8195 2.2995
7.8370 -5.4875 2.2586
7.9669 -5.1698 2.2256
8.2016 -4.9204 2.2256
8.4259 -4.6594 2.2256
8.6391 -4.3874 2.2256
8.8404 -4.1047 2.2256
8.9579 -2.1520 2.2696
9.0616 -1.8430 2.2717
9.1654 -1.5312 2.2776
9.2697 -1.2159 2.2871
9.3747 -0.8963 2.3005
9.4807 -0.5715 2.3178
9.5879 -0.2408 2.3391
9.6966 0.0970 2.3647
9.6033 1.4556 2.3780
9.5263 1.7881 2.3780
9.4338 2.1161 2.3780
9.3260 2.4388 2.3780
9.2035 2.7554 2.3780
9.0667 3.0653 2.3780
8.9160 3.3678 2.3780
8.7519 3.6621 2.3780
8.5751 3.9477 2.3780
8.3862 4.2240 2.3780
8.1857 4.4905 2.3780
7.9743 4.7468 2.3780
7.7528 4.9924 2.3780
7.5217 5.2268 2.3780
7.2819 5.4500 2.3780
7.0339 5.6614 2.3780
6.7785 5.8610 2.3780
6.5165 6.0485 2.3780
6.2484 6.2238 2.3780
5.9751 6.3868 2.3780
5.6971 6.5374 2.3780
5.4152 6.6757 2.3780
5.1301 6.8016 2.3780
4.8422 6.9153 2.3780
4.5523 7.0168 2.3780
4.2610 7.1062 2.3780
3.9688 7.1837 2.3780
3.6763 7.2494 2.3780
3.3840 7.3036 2.3780
3.0923 7.3465 2.3780
2.8018 7.3782 2.3780
0.9234 2.7188 0.8738
0.8256 2.7479 0.8819
0.7267 2.7734 0.8901
0.6271 2.7953 0.8984
0.5267 2.8136 0.9067
0.4256 2.8282 0.9150
0.3242 2.8391 0.9234
0.2223 2.8464 0.9318
0.1203 2.8499 0.9402
0.0182 2.8498 0.9486
-0.0838 2.8459 0.9570
-0.1856 2.8384 0.9654
-0.2871 2.8271 0.9737
-0.3881 2.8122 0.9820
-0.4885 2.7936 0.9902
-0.5882 2.7714 0.9984
-0.6870 2.7456 1.0065
-0.7848 2.7162 1.0145
-2.0503 6.2411 2.3780
-2.2551 6.1099 2.3780
-2.4539 5.9735 2.3780
-2.6468 5.8321 2.3780
-2.8336 5.6860 2.3780
-3.0143 5.5354 2.3780
-3.1889 5.3805 2.3780
-3.3573 5.2215 2.3780
-3.5196 5.0587 2.3780
-3.6757 4.8922 2.3780
-3.8256 4.7223 2.3780
-3.9693 4.5491 2.3780
-4.1069 4.3729 2.3780
-4.2382 4.1938 2.3780
-4.3633 4.0119 2.3780
-4.4823 3.8274 2.3780
-4.5951 3.6406 2.3780
-4.7017 3.4515 2.3780
-4.8022 3.2604 2.3780
-4.8965 3.0673 2.3780
-4.9847 2.8724 2.3780
-5.0668 2.6758 2.3780
-5.1428 2.4777 2.3780
-5.2127 2.2782 2.3780
-5.2766 2.0775 2.3780
-5.3343 1.8756 2.3780
-5.3861 1.6727 2.3780
-5.4318 1.4689 2.3780
-5.4714 1.2643 2.3780
-5.5051 1.0590 2.3780
-5.5327 0.8532 2.3780
-5.5544 0.6469 2.3780
-5.5700 0.4402 2.3780
-5.5797 0.2334 2.3780
-5.5834 0.0264 2.3780
-5.5810 -0.1805 2.3780
-5.5727 -0.3874 2.3780
-5.5584 -0.5940 2.3780
-5.5382 -0.8006 2.3780
-5.5118 -1.0062 2.3780
-5.4795 -1.2116 2.3780
-5.4412 -1.4163 2.3780
-5.3969 -1.6203 2.3780
-5.3465 -1.8233 2.3780
-5.2901 -2.0254 2.3780
-5.2277 -2.2263 2.3780
-5.1592 -2.4260 2.3780
-5.0846 -2.6243 2.3780
-5.0039 -2.8211 2.3780
-4.9172 -3.0163 2.3780
-4.8243 -3.2097 2.3780
-4.7253 -3.4011 2.3780
-4.6201 -3.5906 2.3780
-4.5088 -3.7778 2.3780
-4.3914 -3.9626 2.3780
-4.2678 -4.1449 2.3780
-4.1380 -4.3246 2.3780
-4.0020 -4.5014 2.3780
-3.8598 -4.6751 2.3780
-3.7115 -4.8456 2.3780
-3.5569 -5.0127 2.3780
-3.3963 -5.1762 2.3780
-3.2294 -5.3359 2.3780
-3.0564 -5.4917 2.3780
-2.8773 -5.6431 2.3780
-2.6921 -5.7902 2.3780
-2.5009 -5.9325 2.3780
-2.3037 -6.0700 2.3780
-2.1005 -6.2023 2.3780
-1.8915 -6.3292 2.3780
-1.6766 -6.4505 2.3780
-1.4560 -6.5658 2.3780
-1.2298 -6.6750 2.3780
-0.9981 -6.7777 2.3780
-0.7609 -6.8737 2.3780
-0.5185 -6.9626 2.3780
-0.2710 -7.0443 2.3780
-0.0186 -7.1183 2.3780
0.2386 -7.1845 2.3780
0.5003 -7.2425 2.3780
0.7663 -7.2920 2.3780
1.0364 -7.3327 2.3780
1.3104 -7.3643 2.3780
1.5878 -7.3865 2.3780
1.8684 -7.3991 2.3780
2.1519 -7.4017 2.3780
2.4379 -7.3941 2.3780
2.7260 -7.3759 2.3780
3.0159 -7.3471 2.3780
3.3070 -7.3070 2.3780
3.5989 -7.2558 2.3780
3.8912 -7.1931 2.3780
4.1833 -7.1188 2.3780
4.4746 -7.0325 2.3780
4.7647 -6.9343 2.3780
5.0529 -6.8239 2.3780
5.3386 -6.7013 2.3780
5.6212 -6.5664 2.3780
5.9001 -6.4191 2.3780
6.1746 -6.2595 2.3780
6.4439 -6.0876 2.3780
6.7075 -5.9035 2.3780
6.9646 -5.7073 2.3780
7.2145 -5.4992 2.3780
7.4565 -5.2793 2.3780
7.6899 -5.0480 2.3780
7.9141 -4.8055 2.3780
8.1282 -4.5523 2.3780
8.2386 -4.2407 2.3515
8.3471 -3.9318 2.3287
8.4541 -3.6249 2.3098
8.5600 -3.3194 2.2945
8.6650 -3.0144 2.2829
8.7692 -2.7094 2.2749
8.8731 -2.4036 2.2705
8.9767 -2.0963 2.2697
9.0803 -1.7868 2.2725
9.1842 -1.4745 2.2790
9.2887 -1.1584 2.2892
9.3938 -0.8379 2.3033
9.5000 -0.5122 2.3213
9.6075 -0.1802 2.3434
9.5905 1.5161 2.3780
9.5107 1.8478 2.3780
9.4154 2.1749 2.3780
9.3049 2.4965 2.3780
9.1798 2.8120 2.3780
9.0404 3.1206 2.3780
8.8872 3.4216 2.3780
8.7208 3.7144 2.3780
8.5418 3.9984 2.3780
8.3507 4.2730 2.3780
8.1482 4.5377 2.3780
7.9350 4.7920 2.3780
7.7117 5.0356 2.3780
7.4790 5.2681 2.3780
7.2376 5.4891 2.3780
6.9882 5.6984 2.3780
6.7316 5.8958 2.3780
6.4684 6.0811 2.3780
6.1993 6.2542 2.3780
5.9251 6.4149 2.3780
5.6464 6.5633 2.3780
5.3639 6.6994 2.3780
5.0782 6.8231 2.3780
4.7899 6.9345 2.3780
4.4997 7.0338 2.3780
4.2082 7.1211 2.3780
3.9159 7.1965 2.3780
3.6234 7.2601 2.3780
3.3311 7.3122 2.3780
3.0397 7.3530 2.3780
1.0027 2.6924 0.8672
0.9058 2.7244 0.8753
0.8078 2.7528 0.8834
0.7088 2.7776 0.8916
0.6090 2.7989 0.8999
0.5084 2.8165 0.9082
0.4073 2.8304 0.9165
0.3058 2.8407 0.9249
0.2039 2.8473 0.9333
0.1019 2.8502 0.9417
-0.0002 2.8493 0.9501
-0.1022 2.8448 0.9585
-0.2040 2.8366 0.9669
-0.3054 2.8247 0.9752
-0.4063 2.8091 0.9835
-0.5066 2.7898 0.9917
-0.6061 2.7670 0.9999
-0.7048 2.7405 1.0079
-0.8024 2.7105 1.0159
-2.0878 6.2178 2.3780
-2.2915 6.0856 2.3780
-2.4893 5.9483 2.3780
-2.6810 5.8060 2.3780
-2.8667 5.6591 2.3780
-3.0463 5.5077 2.3780
-3.2198 5.3520 2.3780
-3.3872 5.1923 2.3780
-3.5483 5.0288 2.3780
-3.7033 4.8617 2.3780
-3.8521 4.6912 2.3780
-3.9947 4.5175 2.3780
-4.1311 4.3407 2.3780
-4.2613 4.1609 2.3780
-4.3853 3.9787 2.3780
-4.5032 3.7938 2.3780
-4.6148 3.6065 2.3780
-4.7203 3.4171 2.3780
-4.8197 3.2256 2.3780
-4.9129 3.0321 2.3780
-5.0000 2.8369 2.3780
-5.0810 2.6401 2.3780
-5.1559 2.4417 2.3780
-5.2247 2.2420 2.3780
-5.2875 2.0410 2.3780
-5.3441 1.8390 2.3780
-5.3948 1.6359 2.3780
-5.4394 1.4319 2.3780
-5.4780 1.2272 2.3780
-5.5105 1.0218 2.3780
-5.5371 0.8159 2.3780
-5.5577 0.6095 2.3780
-5.5722 0.4028 2.3780
-5.5808 0.1960 2.3780
-5.5834 -0.0110 2.3780
-5.5800 -0.2180 2.3780
-5.5706 -0.4248 2.3780
-5.5552 -0.6313 2.3780
-5.5338 -0.8377 2.3780
-5.5064 -1.0434 2.3780
-5.4730 -1.2487 2.3780
-5.4336 -1.4533 2.3780
-5.3882 -1.6571 2.3780
-5.3368 -1.8600 2.3780
-5.2793 -2.0618 2.3780
-5.2157 -2.2625 2.3780
-5.1461 -2.4620 2.3780
-5.0705 -2.6600 2.3780
-4.9887 -2.8565 2.3780
-4.9008 -3.0514 2.3780
-4.8068 -3.2445 2.3780
-4.7067 -3.4356 2.3780
-4.6005 -3.6246 2.3780
-4.4880 -3.8114 2.3780
-4.3695 -3.9958 2.3780
-4.2447 -4.1776 2.3780
-4.1138 -4.3568 2.3780
-3.9767 -4.5330 2.3780
-3.8334 -4.7062 2.3780
-3.6840 -4.8761 2.3780
-3.5283 -5.0426 2.3780
-3.3665 -5.2054 2.3780
-3.1986 -5.3644 2.3780
-3.0245 -5.5194 2.3780
-2.8443 -5.6701 2.3780
-2.6580 -5.8163 2.3780
-2.4657 -5.9578 2.3780
-2.2674 -6.0943 2.3780
-2.0631 -6.2257 2.3780
-1.8530 -6.3516 2.3780
-1.6371 -6.4718 2.3780
-1.4155 -6.5860 2.3780
-1.1883 -6.6940 2.3780
-0.9556 -6.7956 2.3780
-0.7175 -6.8903 2.3780
-0.4741 -6.9779 2.3780
-0.2257 -7.0582 2.3780
0.0276 -7.1309 2.3780
0.2856 -7.1956 2.3780
0.5482 -7.2519 2.3780
0.8149 -7.3000 2.3780
1.0857 -7.3391 2.3780
1.3603 -7.3690 2.3780
1.6383 -7.3895 2.3780
1.9195 -7.4003 2.3780
2.2035 -7.4011 2.3780
2.4899 -7.3916 2.3780
2.7784 -7.3715 2.3780
3.0685 -7.3406 2.3780
3.3598 -7.2986 2.3780
3.6518 -7.2453 2.3780
3.9441 -7.1805 2.3780
4.2361 -7.1040 2.3780
4.5272 -7.0157 2.3780
4.8170 -6.9152 2.3780
5.1048 -6.8026 2.3780
5.3900 -6.6778 2.3780
5.6720 -6.5407 2.3780
5.9501 -6.3912 2.3780
6.2237 -6.2293 2.3780
6.4921 -6.0552 2.3780
6.7545 -5.8689 2.3780
7.0104 -5.6705 2.3780
7.2589 -5.4602 2.3780
7.4994 -5.2383 2.3780
7.7312 -5.0049 2.3780
7.9536 -4.7605 2.3780
8.1484 -4.4961 2.3730
8.2584 -4.1847 2.3471
8.3666 -3.8762 2.3250
8.4734 -3.5696 2.3067
8.5791 -3.2642 2.2922
8.6839 -2.9592 2.2812
8.7880 -2.6541 2.2739
8.8918 -2.3481 2.2701
8.9954 -2.0405 2.2699
9.0991 -1.7306 2.2734
9.2031 -1.4176 2.2806
9.3076 -1.1008 2.2915
9.4130 -0.7794 2.3063
9.5193 -0.4526 2.3250
9.6271 -0.1194 2.3479
9.5772 1.5764 2.3780
9.4946 1.9073 2.3780
9.3965 2.2335 2.3780
9.2834 2.5541 2.3780
9.1556 2.8684 2.3780
9.0137 3.1757 2.3780
8.8581 3.4753 2.3780
8.6894 3.7665 2.3780
8.5081 4.0488 2.3780
8.3149 4.3216 2.3780
8.1104 4.5845 2.3780
8.5531 -2.0504 2.3780
8.6416 -1.7540 2.3780
8.7165 -1.4531 2.3780
8.7773 -1.1490 2.3780
8.8240 -0.8419 2.3780
8.8564 -0.5328 2.3780
8.8742 -0.2224 2.3780
8.8776 0.0886 2.3780
8.8664 0.3994 2.3780
8.8410 0.7102 2.3780
8.8006 1.0174 2.3780
8.7462 1.3230 2.3780
8.6777 1.6255 2.3780
8.5954 1.9241 2.3780
8.4996 2.2181 2.3780
8.3905 2.5068 2.3780
8.2686 2.7896 2.3780
8.1343 3.0659 2.3780
7.9879 3.3352 2.3780
7.8301 3.5968 2.3780
7.6613 3.8503 2.3780
7.4820 4.0951 2.3780
7.2928 4.3310 2.3780
7.0942 4.5574 2.3780
6.8870 4.7741 2.3780
6.6716 4.9807 2.3780
6.4486 5.1769 2.3780
6.2187 5.3627 2.3780
5.9826 5.5377 2.3780
5.7407 5.7018 2.3780
5.4937 5.8549 2.3780
5.2422 5.9970 2.3780
4.9868 6.1279 2.3780
4.7281 6.2478 2.3780
4.4667 6.3565 2.3780
4.2030 6.4543 2.3780
3.9376 6.5411 2.3780
3.6711 6.6170 2.3780
3.4039 6.6822 2.3780
3.1365 6.7369 2.3780
2.8693 6.7812 2.3780
0.9532 2.4959 0.8709
0.8634 2.5262 0.8784
0.7725 2.5532 0.8859
0.6807 2.5768 0.8935
0.5881 2.5972 0.9012
0.4948 2.6141 0.9089
0.4009 2.6277 0.9167
0.3066 2.6378 0.9244
0.2120 2.6446 0.9322
0.1172 2.6479 0.9401
0.0224 2.6477 0.9479
-0.0724 2.6441 0.9557
-0.1670 2.6371 0.9634
-0.2613 2.6266 0.9712
-0.3551 2.6128 0.9789
-0.4484 2.5955 0.9865
-0.5410 2.5749 0.9941
-0.6328 2.5509 1.0016
-0.7237 2.5236 1.0091
-0.8135 2.4930 1.0164
-2.0959 5.7129 2.3780
-2.2830 5.5881 2.3780
-2.4647 5.4584 2.3780
-2.6408 5.3240 2.3780
-2.8113 5.1853 2.3780
-2.9762 5.0423 2.3780
-3.1354 4.8954 2.3780
-3.2890 4.7446 2.3780
-3.4368 4.5902 2.3780
-3.5788 4.4324 2.3780
-3.7151 4.2714 2.3780
-3.8455 4.1073 2.3780
-3.9702 3.9402 2.3780
-4.0891 3.7705 2.3780
-4.2022 3.5982 2.3780
-4.3095 3.4235 2.3780
-4.4109 3.2466 2.3780
-4.5066 3.0674 2.3780
-4.5965 2.8865 2.3780
-4.6805 2.7038 2.3780
-4.7588 2.5192 2.3780
-4.8313 2.3331 2.3780
-4.8980 2.1457 2.3780
-4.9589 1.9569 2.3780
-5.0141 1.7670 2.3780
-5.0635 1.5760 2.3780
-5.1071 1.3841 2.3780
-5.1450 1.1915 2.3780
-5.1772 0.9981 2.3780
-5.2036 0.8041 2.3780
-5.2243 0.6097 2.3780
-5.2393 0.4150 2.3780
-5.2486 0.2199 2.3780
-5.2520 0.0251 2.3780
-5.2499 -0.1705 2.3780
-5.2419 -0.3651 2.3780
-5.2282 -0.5599 2.3780
-5.2088 -0.7544 2.3780
-5.1837 -0.9484 2.3780
-5.1528 -1.1419 2.3780
-5.1162 -1.3346 2.3780
-5.0739 -1.5267 2.3780
-5.0258 -1.7178 2.3780
-4.9720 -1.9079 2.3780
-4.9124 -2.0968 2.3780
-4.8470 -2.2845 2.3780
-4.7759 -2.4708 2.3780
-4.6990 -2.6556 2.3780
-4.6163 -2.8387 2.3780
-4.5278 -3.0200 2.3780
-4.4335 -3.1994 2.3780
-4.3335 -3.3768 2.3780
-4.2276 -3.5519 2.3780
-4.1159 -3.7246 2.3780
-3.9985 -3.8948 2.3780
-3.8752 -4.0623 2.3780
-3.7462 -4.2270 2.3780
-3.6114 -4.3886 2.3780
-3.4708 -4.5470 2.3780
-3.3245 -4.7021 2.3780
-3.1724 -4.8536 2.3780
-3.0147 -5.0013 2.3780
-2.8513 -5.1451 2.3780
-2.6822 -5.2847 2.3780
-2.5076 -5.4200 2.3780
-2.3274 -5.5507 2.3780
-2.1418 -5.6766 2.3780
-1.9507 -5.7974 2.3780
-1.7543 -5.9131 2.3780
-1.5527 -6.0232 2.3780
-1.3459 -6.1277 2.3780
-1.1340 -6.2261 2.3780
-0.9172 -6.3184 2.3780
-0.6957 -6.4042 2.3780
-0.4694 -6.4833 2.3780
-0.2387 -6.5554 2.3780
-0.0037 -6.6203 2.3780
0.2355 -6.6777 2.3780
0.4786 -6.7273 2.3780
0.7253 -6.7690 2.3780
0.9756 -6.8023 2.3780
1.2290 -6.8271 2.3780
1.4853 -6.8432 2.3780
1.7443 -6.8502 2.3780
2.0055 -6.8480 2.3780
2.2687 -6.8362 2.3780
2.5335 -6.8147 2.3780
2.7995 -6.7833 2.3780
3.0662 -6.7417 2.3780
3.3334 -6.6898 2.3780
3.6006 -6.6267 2.3780
3.8670 -6.5542 2.3780
4.1325 -6.4704 2.3780
4.3965 -6.3756 2.3780
4.6584 -6.2698 2.3780
4.9177 -6.1529 2.3780
5.1738 -6.0250 2.3780
5.4262 -5.8859 2.3780
5.6743 -5.7358 2.3780
5.9175 -5.5747 2.3780
6.1551 -5.4027 2.3780
6.3866 -5.2200 2.3780
6.6114 -5.0266 2.3780
6.8288 -4.8229 2.3780
7.0382 -4.6090 2.3780
7.2391 -4.3853 2.3780
7.4308 -4.1521 2.3780
7.6128 -3.9097 2.3780
7.7845 -3.6587 2.3780
7.9454 -3.3993 2.3780
8.0949 -3.1323 2.3780
8.2326 -2.8578 2.3780
8.3579 -2.5769 2.3780
8.4706 -2.2896 2.3780
8.5701 -1.9972 2.3780
8.6562 -1.6999 2.3780
8.7286 -1.3983 2.3780
8.7869 -1.0936 2.3780
8.8309 -0.7861 2.3780
8.8607 -0.4767 2.3780
8.8759 -0.1661 2.3780
8.8766 0.1449 2.3780
8.8628 0.4556 2.3780
8.8345 0.7652 2.3780
8.7918 1.0729 2.3780
8.7348 1.3780 2.3780
8.6638 1.6799 2.3780
8.5791 1.9777 2.3780
8.4808 2.2707 2.3780
8.3694 2.5584 2.3780
8.2452 2.8401 2.3780
8.1087 3.1152 2.3780
7.9602 3.3831 2.3780
7.8003 3.6433 2.3780
7.6296 3.8952 2.3780
7.4485 4.1385 2.3780
7.2575 4.3726 2.3780
7.0574 4.5973 2.3780
6.8486 4.8122 2.3780
6.6318 5.0169 2.3780
6.4075 5.2113 2.3780
6.1765 5.3951 2.3780
5.9392 5.5682 2.3780
5.6963 5.7303 2.3780
5.4485 5.8814 2.3780
5.1963 6.0215 2.3780
4.9403 6.1504 2.3780
4.6810 6.2683 2.3780
4.4191 6.3750 2.3780
4.1551 6.4708 2.3780
3.8895 6.5556 2.3780
3.6228 6.6296 2.3780
3.3555 6.6929 2.3780
3.0881 6.7457 2.3780
2.8211 6.7881 2.3780
0.9371 2.5016 0.8722
0.8470 2.5313 0.8797
0.7560 2.5577 0.8873
0.6640 2.5808 0.8949
0.5712 2.6005 0.9026
0.4778 2.6168 0.9103
0.3839 2.6298 0.9181
0.2895 2.6393 0.9259
0.1949 2.6454 0.9337
0.1001 2.6481 0.9415
0.0052 2.6473 0.9493
-0.0895 2.6431 0.9571
-0.1841 2.6355 0.9649
-0.2783 2.6244 0.9726
-0.3720 2.6099 0.9803
-0.4652 2.5920 0.9879
-0.5577 2.5708 0.9955
-0.6493 2.5462 1.0030
-0.7400 2.5183 1.0104
-0.8297 2.4871 1.0177
-2.1301 5.6907 2.3780
-2.3163 5.5650 2.3780
-2.4969 5.4344 2.3780
-2.6721 5.2993 2.3780
-2.8416 5.1597 2.3780
-3.0055 5.0160 2.3780
-3.1636 4.8684 2.3780
-3.3161 4.7169 2.3780
-3.4629 4.5619 2.3780
-3.6039 4.4035 2.3780
-3.7391 4.2419 2.3780
-3.8685 4.0772 2.3780
-3.9922 3.9097 2.3780
-4.1100 3.7395 2.3780
-4.2220 3.5668 2.3780
-4.3283 3.3917 2.3780
-4.4287 3.2143 2.3780
-4.5233 3.0348 2.3780
-4.6121 2.8535 2.3780
-4.6951 2.6705 2.3780
-4.7723 2.4856 2.3780
-4.8438 2.2993 2.3780
-4.9094 2.1116 2.3780
-4.9693 1.9226 2.3780
-5.0234 1.7325 2.3780
-5.0718 1.5414 2.3780
-5.1144 1.3493 2.3780
-5.1513 1.1565 2.3780
-5.1824 0.9630 2.3780
-5.2078 0.7690 2.3780
-5.2275 0.5743 2.3780
-5.2414 0.3797 2.3780
-5.2495 0.1849 2.3780
-5.2520 -0.0103 2.3780
-5.2488 -0.2056 2.3780
-5.2398 -0.4004 2.3780
-5.2251 -0.5951 2.3780
-5.2047 -0.7895 2.3780
-5.1785 -0.9834 2.3780
-5.1466 -1.1768 2.3780
-5.1090 -1.3695 2.3780
-5.0656 -1.5613 2.3780
-5.0165 -1.7522 2.3780
-4.9616 -1.9422 2.3780
-4.9010 -2.1309 2.3780
-4.8346 -2.3183 2.3780
-4.7624 -2.5044 2.3780
-4.6844 -2.6888 2.3780
-4.6007 -2.8717 2.3780
-4.5112 -3.0527 2.3780
-4.4159 -3.2317 2.3780
-4.3147 -3.4086 2.3780
-4.2078 -3.5833 2.3780
-4.0951 -3.7556 2.3780
-3.9766 -3.9253 2.3780
-3.8523 -4.0923 2.3780
-3.7222 -4.2564 2.3780
-3.5864 -4.4175 2.3780
-3.4447 -4.5753 2.3780
-3.2974 -4.7298 2.3780
-3.1443 -4.8806 2.3780
-2.9855 -5.0276 2.3780
-2.8211 -5.1707 2.3780
-2.6510 -5.3095 2.3780
-2.4754 -5.4440 2.3780
-2.2942 -5.5738 2.3780
-2.1076 -5.6988 2.3780
-1.9156 -5.8188 2.3780
-1.7182 -5.9334 2.3780
-1.5156 -6.0425 2.3780
-1.3079 -6.1459 2.3780
-1.0951 -6.2433 2.3780
-0.8775 -6.3344 2.3780
-0.6551 -6.4190 2.3780
-0.4280 -6.4969 2.3780
-0.1965 -6.5677 2.3780
0.0393 -6.6312 2.3780
0.2792 -6.6873 2.3780
0.5229 -6.7355 2.3780
0.7704 -6.7756 2.3780
1.0212 -6.8075 2.3780
1.2752 -6.8307 2.3780
1.5320 -6.8452 2.3780
1.7914 -6.8505 2.3780
2.0530 -6.8466 2.3780
2.3165 -6.8331 2.3780
2.5815 -6.8098 2.3780
2.8477 -6.7765 2.3780
3.1146 -6.7331 2.3780
3.3817 -6.6793 2.3780
3.6487 -6.6149 2.3780
3.9151 -6.5398 2.3780
4.1804 -6.4540 2.3780
4.4440 -6.3572 2.3780
4.7055 -6.2494 2.3780
4.9643 -6.1306 2.3780
5.2198 -6.0006 2.3780
5.4715 -5.8596 2.3780
5.7187 -5.7075 2.3780
5.9609 -5.5444 2.3780
6.1975 -5.3705 2.3780
6.4278 -5.1858 2.3780
6.6513 -4.9905 2.3780
6.8673 -4.7849 2.3780
7.0752 -4.5693 2.3780
7.2746 -4.3436 2.3780
7.4645 -4.1089 2.3780
7.6447 -3.8649 2.3780
7.8145 -3.6123 2.3780
7.9733 -3.3515 2.3780
8.1207 -3.0831 2.3780
8.2562 -2.8074 2.3780
8.3793 -2.5252 2.3780
8.4896 -2.2371 2.3780
8.5867 -1.9437 2.3780
8.6703 -1.6455 2.3780
8.7401 -1.3436 2.3780
8.7959 -1.0382 2.3780
8.8374 -0.7302 2.3780
8.8645 -0.4206 2.3780
8.8771 -0.1098 2.3780
8.8752 0.2012 2.3780
8.8588 0.5117 2.3780
8.8278 0.8210 2.3780
8.7825 1.1283 2.3780
8.7230 1.4329 2.3780
8.6495 1.7341 2.3780
8.5623 2.0310 2.3780
8.4616 2.3232 2.3780
8.3479 2.6099 2.3780
8.2214 2.8904 2.3780
8.0827 3.1642 2.3780
7.9321 3.4308 2.3780
7.7702 3.6895 2.3780
7.5976 3.9399 2.3780
7.4146 4.1815 2.3780
7.8483 -1.8776 2.3780
7.9278 -1.6057 2.3780
7.9950 -1.3302 2.3780
8.0496 -1.0515 2.3780
8.0915 -0.7704 2.3780
8.1205 -0.4875 2.3780
8.1366 -0.2034 2.3780
8.1396 0.0811 2.3780
8.1295 0.3655 2.3780
8.1064 0.6491 2.3780
8.0704 0.9311 2.3780
8.0216 1.2110 2.3780
7.9601 1.4880 2.3780
7.8862 1.7617 2.3780
7.8001 2.0313 2.3780
7.7020 2.2963 2.3780
7.5923 2.5560 2.3780
7.4714 2.8100 2.3780
7.3397 3.0578 2.3780
7.1974 3.2988 2.3780
7.0452 3.5326 2.3780
6.8834 3.7588 2.3780
6.7125 3.9769 2.3780
6.5330 4.1867 2.3780
6.3455 4.3878 2.3780
6.1504 4.5799 2.3780
5.9482 4.7628 2.3780
5.7396 4.9362 2.3780
5.5251 5.1000 2.3780
5.3051 5.2540 2.3780
5.0802 5.3981 2.3780
4.8510 5.5322 2.3780
4.6180 5.6563 2.3780
4.3817 5.7703 2.3780
4.1425 5.8742 2.3780
3.9010 5.9681 2.3780
3.6578 6.0520 2.3780
3.4131 6.1259 2.3780
3.1675 6.1901 2.3780
2.9215 6.2445 2.3780
0.9771 2.2971 0.8685
0.8944 2.3283 0.8754
0.8106 2.3565 0.8824
0.7258 2.3817 0.8894
0.6401 2.4037 0.8965
0.5537 2.4227 0.9037
0.4667 2.4385 0.9109
0.3791 2.4511 0.9181
0.2912 2.4606 0.9254
0.2029 2.4668 0.9326
0.1145 2.4699 0.9399
0.0261 2.4698 0.9472
-0.0624 2.4664 0.9545
-0.1506 2.4598 0.9617
-0.2385 2.4501 0.9690
-0.3261 2.4371 0.9761
-0.4131 2.4210 0.9833
-0.4995 2.4018 0.9904
-0.5851 2.3794 0.9974
-0.6699 2.3540 1.0043
-0.7537 2.3254 1.0111
-1.9540 5.3591 2.3780
-2.1305 5.2442 2.3780
-2.3021 5.1246 2.3780
-2.4685 5.0006 2.3780
-2.6298 4.8721 2.3780
-2.7858 4.7396 2.3780
-2.9367 4.6032 2.3780
-3.0822 4.4630 2.3780
-3.2224 4.3192 2.3780
-3.3572 4.1721 2.3780
-3.4866 4.0218 2.3780
-3.6106 3.8684 2.3780
-3.7292 3.7122 2.3780
-3.8423 3.5533 2.3780
-3.9499 3.3918 2.3780
-4.0521 3.2280 2.3780
-4.1488 3.0618 2.3780
-4.2400 2.8936 2.3780
-4.3257 2.7234 2.3780
-4.4059 2.5514 2.3780
-4.4806 2.3778 2.3780
-4.5498 2.2025 2.3780
-4.6136 2.0259 2.3780
-4.6718 1.8479 2.3780
-4.7245 1.6688 2.3780
-4.7717 1.4886 2.3780
-4.8135 1.3075 2.3780
-4.8497 1.1256 2.3780
-4.8805 0.9430 2.3780
-4.9058 0.7598 2.3780
-4.9256 0.5762 2.3780
-4.9399 0.3922 2.3780
-4.9488 0.2080 2.3780
-4.9521 0.0236 2.3780
-4.9500 -0.1607 2.3780
-4.9424 -0.3450 2.3780
-4.9293 -0.5290 2.3780
-4.9108 -0.7127 2.3780
-4.8868 -0.8960 2.3780
-4.8573 -1.0787 2.3780
-4.8223 -1.2608 2.3780
-4.7818 -1.4420 2.3780
-4.7358 -1.6223 2.3780
-4.6844 -1.8017 2.3780
-4.6274 -1.9798 2.3780
-4.5650 -2.1567 2.3780
-4.4971 -2.3322 2.3780
-4.4237 -2.5062 2.3780
-4.3448 -2.6785 2.3780
-4.2604 -2.8490 2.3780
-4.1705 -3.0176 2.3780
-4.0751 -3.1841 2.3780
-3.9743 -3.3484 2.3780
-3.8680 -3.5103 2.3780
-3.7562 -3.6697 2.3780
-3.6390 -3.8265 2.3780
-3.5163 -3.9804 2.3780
-3.3883 -4.1313 2.3780
-3.2548 -4.2791 2.3780
-3.1160 -4.4235 2.3780
-2.9718 -4.5644 2.3780
-2.8224 -4.7017 2.3780
-2.6677 -4.8350 2.3780
-2.5078 -4.9643 2.3780
-2.3427 -5.0893 2.3780
-2.1726 -5.2099 2.3780
-1.9974 -5.3258 2.3780
-1.8172 -5.4368 2.3780
-1.6322 -5.5427 2.3780
-1.4425 -5.6434 2.3780
-1.2480 -5.7385 2.3780
-1.0490 -5.8279 2.3780
-0.8456 -5.9113 2.3780
-0.6379 -5.9885 2.3780
-0.4260 -6.0594 2.3780
-0.2102 -6.1235 2.3780
0.0095 -6.1808 2.3780
0.2328 -6.2310 2.3780
0.4594 -6.2738 2.3780
0.6893 -6.3091 2.3780
0.9221 -6.3366 2.3780
1.1577 -6.3560 2.3780
1.3956 -6.3673 2.3780
1.6357 -6.3700 2.3780
1.8776 -6.3642 2.3780
2.1210 -6.3494 2.3780
2.3656 -6.3256 2.3780
2.6111 -6.2927 2.3780
2.8569 -6.2503 2.3780
3.1029 -6.1984 2.3780
3.3484 -6.1368 2.3780
3.5932 -6.0654 2.3780
3.8367 -5.9842 2.3780
4.0785 -5.8930 2.3780
4.3181 -5.7918 2.3780
4.5551 -5.6805 2.3780
4.7889 -5.5591 2.3780
5.0190 -5.4278 2.3780
5.2450 -5.2864 2.3780
5.4662 -5.1351 2.3780
5.6821 -4.9740 2.3780
5.8923 -4.8032 2.3780
6.0961 -4.6229 2.3780
6.2931 -4.4334 2.3780
6.4826 -4.2348 2.3780
6.6643 -4.0274 2.3780
6.8375 -3.8116 2.3780
7.0017 -3.5876 2.3780
7.1566 -3.3559 2.3780
7.3016 -3.1169 2.3780
7.4362 -2.8710 2.3780
7.5601 -2.6187 2.3780
7.6729 -2.3606 2.3780
7.7741 -2.0970 2.3780
7.8636 -1.8287 2.3780
7.9409 -1.5561 2.3780
8.0058 -1.2800 2.3780
8.0582 -1.0008 2.3780
8.0977 -0.7193 2.3780
8.1244 -0.4362 2.3780
8.1381 -0.1520 2.3780
8.1387 0.1326 2.3780
8.1263 0.4169 2.3780
8.1009 0.7002 2.3780
8.0625 0.9819 2.3780
8.0114 1.2613 2.3780
7.9477 1.5378 2.3780
7.8715 1.8108 2.3780
7.7832 2.0796 2.3780
7.6830 2.3437 2.3780
7.5713 2.6024 2.3780
7.4484 2.8553 2.3780
7.3147 3.1019 2.3780
7.1706 3.3416 2.3780
7.0166 3.5741 2.3780
6.8531 3.7988 2.3780
6.6806 4.0155 2.3780
6.4997 4.2238 2.3780
6.3107 4.4232 2.3780
6.1143 4.6137 2.3780
5.9110 4.7949 2.3780
5.7012 4.9665 2.3780
5.4857 5.1286 2.3780
5.2648 5.2808 2.3780
5.0391 5.4231 2.3780
4.8091 5.5554 2.3780
4.5755 5.6776 2.3780
4.3386 5.7898 2.3780
4.0990 5.8919 2.3780
3.8571 5.9840 2.3780
3.6136 6.0661 2.3780
3.3687 6.1383 2.3780
3.1230 6.2006 2.3780
2.8769 6.2533 2.3780
0.9622 2.3030 0.8698
0.8793 2.3336 0.8767
0.7953 2.3613 0.8836
0.7103 2.3859 0.8907
0.6245 2.4074 0.8978
0.5380 2.4258 0.9050
0.4509 2.4410 0.9122
0.3633 2.4531 0.9194
0.2752 2.4620 0.9267
0.1870 2.4676 0.9340
0.0985 2.4701 0.9412
0.0101 2.4694 0.9485
-0.0783 2.4655 0.9558
-0.1665 2.4583 0.9631
-0.2544 2.4480 0.9703
-0.3419 2.4345 0.9774
-0.4288 2.4178 0.9846
-0.5150 2.3980 0.9916
-0.6005 2.3750 0.9986
-0.6851 2.3490 1.0055
-0.7687 2.3200 1.0124
-1.9863 5.3387 2.3780
-2.1619 5.2229 2.3780
-2.3325 5.1025 2.3780
-2.4981 4.9776 2.3780
-2.6584 4.8485 2.3780
-2.8135 4.7152 2.3780
-2.9634 4.5781 2.3780
-3.1079 4.4372 2.3780
-3.2471 4.2929 2.3780
-3.3810 4.1452 2.3780
-3.5094 3.9943 2.3780
-3.6325 3.8404 2.3780
-3.7500 3.6837 2.3780
-3.8622 3.5243 2.3780
-3.9688 3.3624 2.3780
-4.0700 3.1981 2.3780
-4.1657 3.0316 2.3780
-4.2559 2.8630 2.3780
-4.3406 2.6925 2.3780
-4.4199 2.5201 2.3780
-4.4936 2.3462 2.3780
-4.5618 2.1707 2.3780
-4.6245 1.9938 2.3780
-4.6817 1.8156 2.3780
-4.7335 1.6363 2.3780
-4.7797 1.4559 2.3780
-4.8205 1.2746 2.3780
-4.8557 1.0926 2.3780
-4.8855 0.9099 2.3780
-4.9098 0.7266 2.3780
-4.9286 0.5429 2.3780
-4.9419 0.3589 2.3780
-4.9498 0.1746 2.3780
-4.9521 -0.0097 2.3780
-4.9490 -0.1941 2.3780
-4.9405 -0.3783 2.3780
-4.9264 -0.5623 2.3780
-4.9069 -0.7459 2.3780
-4.8818 -0.9291 2.3780
-4.8513 -1.1117 2.3780
-4.8153 -1.2936 2.3780
-4.7739 -1.4747 2.3780
-4.7269 -1.6549 2.3780
-4.6745 -1.8340 2.3780
-4.6165 -2.0119 2.3780
-4.5531 -2.1886 2.3780
-4.4842 -2.3638 2.3780
-4.4098 -2.5375 2.3780
-4.3299 -2.7095 2.3780
-4.2445 -2.8796 2.3780
-4.1536 -3.0479 2.3780
-4.0573 -3.2140 2.3780
-3.9554 -3.3779 2.3780
-3.8481 -3.5393 2.3780
-3.7354 -3.6983 2.3780
-3.6172 -3.8546 2.3780
-3.4936 -4.0079 2.3780
-3.3645 -4.1583 2.3780
-3.2301 -4.3055 2.3780
-3.0903 -4.4493 2.3780
-2.9452 -4.5895 2.3780
-2.7948 -4.7261 2.3780
-2.6391 -4.8587 2.3780
-2.4783 -4.9872 2.3780
-2.3123 -5.1115 2.3780
-2.1412 -5.2312 2.3780
-1.9652 -5.3462 2.3780
-1.7841 -5.4563 2.3780
-1.5983 -5.5613 2.3780
-1.4076 -5.6610 2.3780
-1.2123 -5.7551 2.3780
-1.0125 -5.8434 2.3780
-0.8083 -5.9258 2.3780
-0.5998 -6.0018 2.3780
-0.3872 -6.0715 2.3780
-0.1707 -6.1344 2.3780
0.0496 -6.1904 2.3780
0.2735 -6.2393 2.3780
0.5008 -6.2808 2.3780
0.7312 -6.3147 2.3780
0.9645 -6.3407 2.3780
1.2005 -6.3587 2.3780
1.4389 -6.3684 2.3780
1.6793 -6.3696 2.3780
1.9215 -6.3621 2.3780
2.1652 -6.3458 2.3780
2.4100 -6.3204 2.3780
2.6555 -6.2857 2.3780
2.9014 -6.2416 2.3780
3.1473 -6.1880 2.3780
3.3928 -6.1246 2.3780
3.6373 -6.0515 2.3780
3.8806 -5.9685 2.3780
4.1220 -5.8754 2.3780
4.3612 -5.7724 2.3780
4.5976 -5.6593 2.3780
4.8308 -5.5361 2.3780
5.0602 -5.4029 2.3780
5.2854 -5.2597 2.3780
5.5057 -5.1067 2.3780
5.7206 -4.9438 2.3780
5.9296 -4.7713 2.3780
6.1323 -4.5893 2.3780
6.3279 -4.3981 2.3780
6.5161 -4.1979 2.3780
6.6962 -3.9890 2.3780
6.8679 -3.7716 2.3780
7.0305 -3.5463 2.3780
7.1836 -3.3132 2.3780
7.3267 -3.0729 2.3780
7.4594 -2.8258 2.3780
7.5814 -2.5724 2.3780
7.6921 -2.3132 2.3780
7.7912 -2.0488 2.3780
7.8785 -1.7796 2.3780
7.9536 -1.5064 2.3780
8.0162 -1.2297 2.3780
8.0663 -0.9500 2.3780
8.1035 -0.6682 2.3780
8.1278 -0.3848 2.3780
8.1392 -0.1005 2.3780
8.1374 0.1841 2.3780
8.1227 0.4683 2.3780
8.0949 0.7513 2.3780
8.0542 1.0327 2.3780
8.0008 1.3116 2.3780
7.9348 1.5875 2.3780
7.8564 1.8597 2.3780
7.7659 2.1277 2.3780
7.6636 2.3909 2.3780
7.5499 2.6486 2.3780
7.4250 2.9004 2.3780
7.2894 3.1458 2.3780
7.1435 3.3842 2.3780
6.9877 3.6153 2.3780
6.8226 3.8387 2.3780
7.2436 -1.7292 2.3780
7.3156 -1.4786 2.3780
7.3764 -1.2246 2.3780
7.4259 -0.9680 2.3780
7.4638 -0.7091 2.3780
7.4900 -0.4487 2.3780
7.5045 -0.1872 2.3780
7.5072 0.0747 2.3780
7.4981 0.3365 2.3780
7.4772 0.5975 2.3780
7.4446 0.8571 2.3780
7.4004 1.1149 2.3780
7.3447 1.3702 2.3780
7.2778 1.6224 2.3780
7.1997 1.8710 2.3780
7.1109 2.1155 2.3780
7.0114 2.3553 2.3780
6.9018 2.5901 2.3780
6.7822 2.8192 2.3780
6.6530 3.0424 2.3780
6.5146 3.2590 2.3780
6.3675 3.4689 2.3780
6.2120 3.6716 2.3780
6.0486 3.8667 2.3780
5.8776 4.0541 2.3780
5.6997 4.2333 2.3780
5.5152 4.4043 2.3780
5.3245 4.5667 2.3780
5.1283 4.7204 2.3780
4.9269 4.8652 2.3780
4.7209 5.0011 2.3780
4.5107 5.1279 2.3780
4.2968 5.2455 2.3780
4.0796 5.3540 2.3780
3.8596 5.4532 2.3780
3.6372 5.5432 2.3780
3.4129 5.6241 2.3780
3.1871 5.6959 2.3780
2.9603 5.7586 2.3780
0.9959 2.1182 0.8666
0.9195 2.1502 0.8730
0.8421 2.1794 0.8794
0.7636 2.2058 0.8859
0.6843 2.2293 0.8925
0.6041 2.2499 0.8992
0.5232 2.2677 0.9059
0.4417 2.2824 0.9126
0.3598 2.2943 0.9194
0.2775 2.3031 0.9262
0.1949 2.3090 0.9330
0.1121 2.3118 0.9398
0.0293 2.3117 0.9466
-0.0534 2.3085 0.9534
-0.1360 2.3024 0.9602
-0.2184 2.2933 0.9670
-0.3003 2.2811 0.9737
-0.3817 2.2661 0.9804
-0.4626 2.2481 0.9870
-0.5427 2.2271 0.9936
-0.6221 2.2033 1.0001
-0.7005 2.1766 1.0065
-0.7779 2.1471 1.0128
-1.9935 4.9353 2.3780
-2.1558 4.8245 2.3780
-2.3134 4.7094 2.3780
-2.4662 4.5901 2.3780
-2.6142 4.4668 2.3780
-2.7574 4.3396 2.3780
-2.8955 4.2088 2.3780
-3.0287 4.0745 2.3780
-3.1569 3.9369 2.3780
-3.2800 3.7961 2.3780
-3.3981 3.6524 2.3780
-3.5110 3.5058 2.3780
-3.6187 3.3566 2.3780
-3.7214 3.2048 2.3780
-3.8188 3.0506 2.3780
-3.9111 2.8943 2.3780
-3.9981 2.7358 2.3780
-4.0800 2.5754 2.3780
-4.1566 2.4132 2.3780
-4.2280 2.2493 2.3780
-4.2941 2.0838 2.3780
-4.3551 1.9170 2.3780
-4.4107 1.7488 2.3780
-4.4612 1.5795 2.3780
-4.5064 1.4091 2.3780
-4.5463 1.2378 2.3780
-4.5810 1.0657 2.3780
-4.6105 0.8928 2.3780
-4.6347 0.7195 2.3780
-4.6537 0.5456 2.3780
-4.6674 0.3714 2.3780
-4.6759 0.1969 2.3780
-4.6791 0.0224 2.3780
-4.6771 -0.1522 2.3780
-4.6698 -0.3267 2.3780
-4.6573 -0.5009 2.3780
-4.6395 -0.6748 2.3780
-4.6165 -0.8483 2.3780
-4.5883 -1.0213 2.3780
-4.5548 -1.1935 2.3780
-4.5160 -1.3650 2.3780
-4.4721 -1.5355 2.3780
-4.4229 -1.7051 2.3780
-4.3684 -1.8734 2.3780
-4.3087 -2.0406 2.3780
-4.2438 -2.2063 2.3780
-4.1736 -2.3705 2.3780
-4.0982 -2.5330 2.3780
-4.0177 -2.6938 2.3780
-3.9319 -2.8526 2.3780
-3.8409 -3.0094 2.3780
-3.7447 -3.1640 2.3780
-3.6433 -3.3162 2.3780
-3.5368 -3.4660 2.3780
-3.4252 -3.6131 2.3780
-3.3084 -3.7574 2.3780
-3.1866 -3.8988 2.3780
-3.0597 -4.0370 2.3780
-2.9278 -4.1720 2.3780
-2.7909 -4.3036 2.3780
-2.6491 -4.4315 2.3780
-2.5023 -4.5557 2.3780
-2.3508 -4.6758 2.3780
-2.1944 -4.7919 2.3780
-2.0334 -4.9036 2.3780
-1.8677 -5.0107 2.3780
-1.6975 -5.1132 2.3780
-1.5228 -5.2107 2.3780
-1.3438 -5.3031 2.3780
-1.1605 -5.3902 2.3780
-0.9730 -5.4718 2.3780
-0.7816 -5.5477 2.3780
-0.5863 -5.6176 2.3780
-0.3873 -5.6814 2.3780
-0.1847 -5.7389 2.3780
0.0212 -5.7898 2.3780
0.2303 -5.8340 2.3780
0.4424 -5.8712 2.3780
0.6573 -5.9012 2.3780
0.8747 -5.9239 2.3780
1.0945 -5.9391 2.3780
1.3162 -5.9465 2.3780
1.5398 -5.9458 2.3780
1.7647 -5.9374 2.3780
1.9909 -5.9205 2.3780
2.2179 -5.8952 2.3780
2.4455 -5.8613 2.3780
2.6732 -5.8187 2.3780
2.9006 -5.7673 2.3780
3.1276 -5.7070 2.3780
3.3535 -5.6377 2.3780
3.5781 -5.5592 2.3780
3.8007 -5.4721 2.3780
4.0213 -5.3749 2.3780
4.2392 -5.2689 2.3780
4.4539 -5.1537 2.3780
4.6650 -5.0294 2.3780
4.8721 -4.8960 2.3780
5.0746 -4.7536 2.3780
5.2722 -4.6024 2.3780
5.4643 -4.4423 2.3780
5.6504 -4.2737 2.3780
5.8301 -4.0968 2.3780
6.0029 -3.9116 2.3780
6.1683 -3.7186 2.3780
6.3259 -3.5180 2.3780
6.4753 -3.3101 2.3780
6.6161 -3.0953 2.3780
6.7478 -2.8740 2.3780
6.8700 -2.6465 2.3780
6.9824 -2.4133 2.3780
7.0846 -2.1748 2.3780
7.1764 -1.9316 2.3780
7.2574 -1.6841 2.3780
7.3274 -1.4328 2.3780
7.3862 -1.1784 2.3780
7.4336 -0.9213 2.3780
7.4694 -0.6621 2.3780
7.4935 -0.4014 2.3780
7.5059 -0.1398 2.3780
7.5064 0.1221 2.3780
7.4952 0.3838 2.3780
7.4722 0.6446 2.3780
7.4375 0.9039 2.3780
7.3912 1.1613 2.3780
7.3334 1.4160 2.3780
7.2645 1.6676 2.3780
7.1845 1.9155 2.3780
7.0937 2.1592 2.3780
6.9924 2.3982 2.3780
6.8808 2.6320 2.3780
6.7595 2.8601 2.3780
6.6286 3.0820 2.3780
6.4887 3.2975 2.3780
6.3400 3.5061 2.3780
6.1830 3.7074 2.3780
6.0182 3.9012 2.3780
5.8459 4.0871 2.3780
5.6668 4.2649 2.3780
5.4811 4.4343 2.3780
5.2894 4.5952 2.3780
5.0923 4.7473 2.3780
4.8900 4.8905 2.3780
4.6832 5.0247 2.3780
4.4723 5.1498 2.3780
4.2577 5.2658 2.3780
4.0399 5.3726 2.3780
3.8195 5.4702 2.3780
3.5967 5.5585 2.3780
3.3722 5.6378 2.3780
3.1462 5.7079 2.3780
2.9191 5.7689 2.3780
0.9822 2.1242 0.8678
0.9056 2.1557 0.8741
0.8280 2.1844 0.8806
0.7493 2.2102 0.8871
0.6698 2.2332 0.8937
0.5895 2.2534 0.9004
0.5085 2.2706 0.9071
0.4270 2.2848 0.9138
0.3449 2.2961 0.9206
0.2625 2.3044 0.9274
0.1799 2.3097 0.9342
0.0971 2.3120 0.9410
0.0143 2.3113 0.9479
-0.0684 2.3076 0.9547
-0.1510 2.3010 0.9615
-0.2332 2.2913 0.9682
-0.3151 2.2786 0.9749
-0.3964 2.2630 0.9816
-0.4771 2.2445 0.9882
-0.5572 2.2230 0.9947
-0.6363 2.1987 1.0012
-0.7146 2.1715 1.0076
-0.7918 2.1414 1.0139
-2.0232 4.9156 2.3780
-2.1847 4.8040 2.3780
-2.3414 4.6881 2.3780
-2.4934 4.5681 2.3780
-2.6405 4.4441 2.3780
-2.7827 4.3162 2.3780
-2.9200 4.1848 2.3780
-3.0523 4.0499 2.3780
-3.1796 3.9117 2.3780
-3.3018 3.7704 2.3780
-3.4189 3.6261 2.3780
-3.5308 3.4790 2.3780
-3.6377 3.3293 2.3780
-3.7394 3.1771 2.3780
-3.8359 3.0225 2.3780
-3.9272 2.8658 2.3780
-4.0133 2.7069 2.3780
-4.0942 2.5462 2.3780
-4.1699 2.3836 2.3780
-4.2403 2.2195 2.3780
-4.3055 2.0537 2.3780
-4.3655 1.8866 2.3780
-4.4202 1.7183 2.3780
-4.4697 1.5487 2.3780
-4.5140 1.3782 2.3780
-4.5530 1.2067 2.3780
-4.5868 1.0344 2.3780
-4.6153 0.8615 2.3780
-4.6385 0.6880 2.3780
-4.6565 0.5141 2.3780
-4.6693 0.3398 2.3780
-4.6768 0.1654 2.3780
-4.6791 -0.0092 2.3780
-4.6761 -0.1838 2.3780
-4.6679 -0.3582 2.3780
-4.6545 -0.5324 2.3780
-4.6357 -0.7063 2.3780
-4.6118 -0.8797 2.3780
-4.5826 -1.0525 2.3780
-4.5482 -1.2246 2.3780
-4.5085 -1.3959 2.3780
-4.4636 -1.5663 2.3780
-4.4134 -1.7356 2.3780
-4.3580 -1.9038 2.3780
-4.2973 -2.0706 2.3780
-4.2315 -2.2361 2.3780
-4.1604 -2.4000 2.3780
-4.0841 -2.5622 2.3780
-4.0025 -2.7226 2.3780
-3.9158 -2.8811 2.3780
-3.8238 -3.0375 2.3780
-3.7267 -3.1917 2.3780
-3.6244 -3.3435 2.3780
-3.5170 -3.4928 2.3780
-3.4044 -3.6394 2.3780
-3.2868 -3.7832 2.3780
-3.1640 -3.9240 2.3780
-3.0362 -4.0617 2.3780
-2.9034 -4.1961 2.3780
-2.7656 -4.3270 2.3780
-2.6229 -4.4543 2.3780
-2.4753 -4.5777 2.3780
-2.3228 -4.6971 2.3780
-2.1656 -4.8124 2.3780
-2.0038 -4.9233 2.3780
-1.8372 -5.0296 2.3780
-1.6662 -5.1312 2.3780
-1.4907 -5.2278 2.3780
-1.3109 -5.3193 2.3780
-1.1268 -5.4054 2.3780
-0.9387 -5.4859 2.3780
-0.7465 -5.5608 2.3780
-0.5506 -5.6296 2.3780
-0.3509 -5.6923 2.3780
-0.1477 -5.7486 2.3780
0.0588 -5.7983 2.3780
0.2685 -5.8412 2.3780
0.4811 -5.8771 2.3780
0.6965 -5.9059 2.3780
0.9143 -5.9272 2.3780
1.1344 -5.9410 2.3780
1.3565 -5.9470 2.3780
1.5804 -5.9450 2.3780
1.8056 -5.9349 2.3780
2.0319 -5.9165 2.3780
2.2591 -5.8897 2.3780
2.4867 -5.8543 2.3780
2.7143 -5.8101 2.3780
2.9418 -5.7571 2.3780
3.1685 -5.6951 2.3780
3.3942 -5.6242 2.3780
3.6185 -5.5441 2.3780
3.8409 -5.4548 2.3780
4.0610 -5.3563 2.3780
4.2783 -5.2487 2.3780
4.4924 -5.1319 2.3780
4.7028 -5.0060 2.3780
4.9091 -4.8709 2.3780
5.1108 -4.7269 2.3780
5.3074 -4.5741 2.3780
5.4984 -4.4125 2.3780
5.6834 -4.2423 2.3780
5.8618 -4.0639 2.3780
6.0334 -3.8773 2.3780
6.1974 -3.6829 2.3780
6.3536 -3.4809 2.3780
6.5015 -3.2718 2.3780
6.6406 -3.0558 2.3780
6.7706 -2.8333 2.3780
6.8911 -2.6047 2.3780
7.0016 -2.3705 2.3780
7.1020 -2.1312 2.3780
7.1919 -1.8871 2.3780
7.2709 -1.6389 2.3780
7.3389 -1.3870 2.3780
7.3956 -1.1321 2.3780
7.4409 -0.8745 2.3780
7.4746 -0.6150 2.3780
7.4966 -0.3541 2.3780
7.5068 -0.0924 2.3780
7.5053 0.1695 2.3780
7.4919 0.4310 2.3780
7.4668 0.6916 2.3780
7.4299 0.9507 2.3780
7.3816 1.2076 2.3780
7.3218 1.4618 2.3780
7.2508 1.7128 2.3780
7.1688 1.9600 2.3780
7.0761 2.2028 2.3780
6.9729 2.4409 2.3780
6.8596 2.6737 2.3780
6.7365 2.9007 2.3780
6.6040 3.1215 2.3780
6.4624 3.3358 2.3780
6.3122 3.5431 2.3780
6.7185 -1.6003 2.3780
6.7842 -1.3682 2.3780
6.8396 -1.1331 2.3780
6.8847 -0.8955 2.3780
6.9192 -0.6560 2.3780
6.9432 -0.4150 2.3780
6.9563 -0.1731 2.3780
6.9588 0.0691 2.3780
6.9505 0.3113 2.3780
6.9314 0.5527 2.3780
6.9017 0.7930 2.3780
6.8614 1.0315 2.3780
6.8107 1.2678 2.3780
6.7496 1.5014 2.3780
6.6784 1.7318 2.3780
6.5973 1.9584 2.3780
6.5066 2.1809 2.3780
6.4064 2.3988 2.3780
6.2971 2.6117 2.3780
6.1791 2.8191 2.3780
6.0525 3.0208 2.3780
5.9179 3.2162 2.3780
5.7755 3.4052 2.3780
5.6257 3.5875 2.3780
5.4690 3.7626 2.3780
5.3057 3.9304 2.3780
5.1363 4.0907 2.3780
4.9611 4.2432 2.3780
4.7806 4.3878 2.3780
4.5953 4.5243 2.3780
4.4055 4.6526 2.3780
4.2116 4.7726 2.3780
4.0142 4.8842 2.3780
3.8136 4.9874 2.3780
3.6102 5.0822 2.3780
3.4044 5.1685 2.3780
3.1967 5.2463 2.3780
2.9874 5.3157 2.3780
2.7769 5.3768 2.3780
0.9397 1.9886 0.8710
0.8680 2.0187 0.8770
0.7953 2.0461 0.8830
0.7216 2.0708 0.8891
0.6471 2.0929 0.8953
0.5718 2.1123 0.9015
0.4959 2.1289 0.9078
0.4194 2.1428 0.9142
0.3425 2.1539 0.9205
0.2652 2.1622 0.9269
0.1876 2.1677 0.9333
0.1100 2.1703 0.9397
0.0322 2.1702 0.9461
-0.0455 2.1672 0.9525
-0.1230 2.1615 0.9589
-0.2003 2.1529 0.9652
-0.2772 2.1415 0.9715
-0.3537 2.1274 0.9778
-0.4296 2.1104 0.9840
-0.5048 2.0908 0.9902
-0.5793 2.0684 0.9963
-0.6529 2.0434 1.0023
-0.7256 2.0157 1.0082
-0.7972 1.9854 1.0140
-2.0235 4.5529 2.3780
-2.1730 4.4458 2.3780
-2.3181 4.3345 2.3780
-2.4587 4.2194 2.3780
-2.5947 4.1005 2.3780
-2.7261 3.9781 2.3780
-2.8528 3.8522 2.3780
-2.9749 3.7231 2.3780
-3.0921 3.5909 2.3780
-3.2046 3.4558 2.3780
-3.3123 3.3179 2.3780
-3.4151 3.1774 2.3780
-3.5131 3.0344 2.3780
-3.6061 2.8890 2.3780
-3.6942 2.7414 2.3780
-3.7774 2.5918 2.3780
-3.8557 2.4403 2.3780
-3.9289 2.2870 2.3780
-3.9972 2.1319 2.3780
-4.0605 1.9754 2.3780
-4.1188 1.8175 2.3780
-4.1721 1.6582 2.3780
-4.2204 1.4978 2.3780
-4.2637 1.3364 2.3780
-4.3020 1.1740 2.3780
-4.3352 1.0108 2.3780
-4.3635 0.8470 2.3780
-4.3867 0.6825 2.3780
-4.4048 0.5176 2.3780
-4.4180 0.3524 2.3780
-4.4261 0.1869 2.3780
-4.4292 0.0213 2.3780
-4.4273 -0.1444 2.3780
-4.4203 -0.3099 2.3780
-4.4083 -0.4752 2.3780
-4.3913 -0.6402 2.3780
-4.3693 -0.8047 2.3780
-4.3422 -0.9687 2.3780
-4.3101 -1.1320 2.3780
-4.2730 -1.2945 2.3780
-4.2309 -1.4562 2.3780
-4.1838 -1.6168 2.3780
-4.1317 -1.7762 2.3780
-4.0745 -1.9344 2.3780
-4.0124 -2.0912 2.3780
-3.9453 -2.2465 2.3780
-3.8732 -2.4002 2.3780
-3.7962 -2.5521 2.3780
-3.7142 -2.7021 2.3780
-3.6273 -2.8501 2.3780
-3.5354 -2.9959 2.3780
-3.4387 -3.1394 2.3780
-3.3371 -3.2804 2.3780
-3.2306 -3.4189 2.3780
-3.1193 -3.5546 2.3780
-3.0033 -3.6874 2.3780
-2.8824 -3.8171 2.3780
-2.7569 -3.9437 2.3780
-2.6267 -4.0668 2.3780
-2.4918 -4.1865 2.3780
-2.3524 -4.3025 2.3780
-2.2085 -4.4146 2.3780
-2.0602 -4.5226 2.3780
-1.9075 -4.6265 2.3780
-1.7505 -4.7260 2.3780
-1.5893 -4.8209 2.3780
-1.4240 -4.9110 2.3780
-1.2547 -4.9962 2.3780
-1.0816 -5.0764 2.3780
-0.9046 -5.1512 2.3780
-0.7240 -5.2205 2.3780
-0.5399 -5.2842 2.3780
-0.3525 -5.3420 2.3780
-0.1619 -5.3937 2.3780
0.0317 -5.4393 2.3780
0.2282 -5.4784 2.3780
0.4272 -5.5109 2.3780
0.6287 -5.5366 2.3780
0.8324 -5.5554 2.3780
1.0381 -5.5671 2.3780
1.2454 -5.5715 2.3780
1.4543 -5.5684 2.3780
1.6644 -5.5577 2.3780
1.8753 -5.5393 2.3780
2.0868 -5.5130 2.3780
2.2986 -5.4788 2.3780
2.5103 -5.4364 2.3780
2.7217 -5.3859 2.3780
2.9323 -5.3270 2.3780
3.1418 -5.2598 2.3780
3.3498 -5.1842 2.3780
3.5560 -5.1002 2.3780
3.7599 -5.0077 2.3780
3.9612 -4.9067 2.3780
4.1594 -4.7974 2.3780
4.3541 -4.6796 2.3780
4.5449 -4.5536 2.3780
4.7314 -4.4193 2.3780
4.9131 -4.2769 2.3780
5.0897 -4.1265 2.3780
5.2606 -3.9684 2.3780
5.4255 -3.8026 2.3780
5.5840 -3.6295 2.3780
5.7356 -3.4493 2.3780
5.8800 -3.2621 2.3780
6.0167 -3.0684 2.3780
6.1455 -2.8685 2.3780
6.2659 -2.6626 2.3780
6.3775 -2.4512 2.3780
6.4802 -2.2347 2.3780
6.5735 -2.0135 2.3780
6.6572 -1.7879 2.3780
6.7311 -1.5586 2.3780
6.7950 -1.3259 2.3780
6.8486 -1.0903 2.3780
6.8917 -0.8523 2.3780
6.9244 -0.6125 2.3780
6.9463 -0.3713 2.3780
6.9576 -0.1293 2.3780
6.9581 0.1130 2.3780
6.9478 0.3550 2.3780
6.9269 0.5963 2.3780
6.8952 0.8363 2.3780
6.8530 1.0745 2.3780
6.8004 1.3103 2.3780
6.7375 1.5434 2.3780
6.6645 1.7731 2.3780
6.5816 1.9990 2.3780
6.4892 2.2207 2.3780
6.3873 2.4377 2.3780
6.2764 2.6496 2.3780
6.1568 2.8560 2.3780
6.0288 3.0566 2.3780
5.8927 3.2509 2.3780
5.7489 3.4387 2.3780
5.5979 3.6197 2.3780
5.4399 3.7935 2.3780
5.2755 3.9600 2.3780
5.1050 4.1188 2.3780
4.9288 4.2699 2.3780
4.7474 4.4131 2.3780
4.5612 4.5481 2.3780
4.3707 4.6749 2.3780
4.1762 4.7934 2.3780
3.9781 4.9035 2.3780
3.7770 5.0052 2.3780
3.5731 5.0984 2.3780
3.3670 5.1832 2.3780
3.1590 5.2595 2.3780
2.9494 5.3274 2.3780
0.9976 1.9621 0.8662
0.9268 1.9943 0.8721
0.8549 2.0238 0.8780
0.7820 2.0508 0.8841
0.7082 2.0750 0.8902
0.6335 2.0966 0.8964
0.5581 2.1155 0.9027
0.4821 2.1316 0.9090
0.4055 2.1450 0.9153
0.3285 2.1556 0.9217
0.2512 2.1634 0.9281
0.1736 2.1683 0.9345
0.0959 2.1705 0.9409
0.0182 2.1699 0.9473
-0.0595 2.1664 0.9536
-0.1370 2.1601 0.9600
-0.2142 2.1510 0.9664
-0.2911 2.1392 0.9727
-0.3674 2.1245 0.9789
-0.4432 2.1071 0.9851
-0.5183 2.0869 0.9913
-0.5927 2.0641 0.9974
-0.6662 2.0386 1.0034
-0.7387 2.0104 1.0093
-0.8101 1.9796 1.0151
-2.0509 4.5339 2.3780
-2.1996 4.4259 2.3780
-2.3438 4.3140 2.3780
-2.4836 4.1982 2.3780
-2.6188 4.0786 2.3780
-2.7494 3.9555 2.3780
-2.8753 3.8291 2.3780
-2.9964 3.6994 2.3780
-3.1129 3.5667 2.3780
-3.2245 3.4310 2.3780
-3.3313 3.2927 2.3780
-3.4332 3.1517 2.3780
-3.5303 3.0082 2.3780
-3.6224 2.8625 2.3780
-3.7096 2.7145 2.3780
-3.7919 2.5646 2.3780
-3.8693 2.4127 2.3780
-3.9416 2.2590 2.3780
-4.0090 2.1037 2.3780
-4.0714 1.9469 2.3780
-4.1288 1.7887 2.3780
-4.1812 1.6293 2.3780
-4.2286 1.4687 2.3780
-4.2710 1.3071 2.3780
-4.3084 1.1445 2.3780
-4.3407 0.9812 2.3780
-4.3680 0.8173 2.3780
-4.3903 0.6527 2.3780
-4.4076 0.4877 2.3780
-4.4198 0.3224 2.3780
-4.4271 0.1569 2.3780
-4.4292 -0.0087 2.3780
-4.4264 -0.1743 2.3780
-4.4185 -0.3398 2.3780
-4.4056 -0.5051 2.3780
-4.3877 -0.6700 2.3780
