ply
format ascii 1.0
element vertex 2178
property float32 x
property float32 y
property float32 z
end_header
0.4256 -6.3972 2.3980
0.6528 -6.3640 2.3980
0.8782 -6.3226 2.3980
1.1016 -6.2731 2.3980
1.3226 -6.2156 2.3980
1.5409 -6.1504 2.3980
1.7563 -6.0773 2.3980
1.9685 -5.9968 2.3980
2.1772 -5.9088 2.3980
2.3822 -5.8135 2.3980
2.5833 -5.7111 2.3980
2.7802 -5.6019 2.3980
2.9727 -5.4859 2.3980
3.1605 -5.3632 2.3980
3.3434 -5.2344 2.3980
3.5214 -5.0993 2.3980
3.6940 -4.9583 2.3980
3.8613 -4.8115 2.3980
4.0229 -4.6593 2.3980
4.1788 -4.5018 2.3980
4.3288 -4.3391 2.3980
4.4725 -4.1717 2.3980
4.6102 -3.9996 2.3980
4.7414 -3.8231 2.3980
4.8662 -3.6425 2.3980
4.9844 -3.4579 2.3980
5.0959 -3.2697 2.3980
5.2006 -3.0780 2.3980
5.2984 -2.8831 2.3980
5.3892 -2.6853 2.3980
5.4730 -2.4848 2.3980
5.5497 -2.2817 2.3980
5.6193 -2.0765 2.3980
5.6815 -1.8694 2.3980
5.7367 -1.6604 2.3980
5.7844 -1.4500 2.3980
5.8248 -1.2384 2.3980
5.8579 -1.0257 2.3980
5.8837 -0.8123 2.3980
5.9021 -0.5984 2.3980
5.9132 -0.3842 2.3980
5.9169 -0.1699 2.3980
5.9134 0.0441 2.3980
5.9025 0.2578 2.3980
5.8843 0.4707 2.3980
5.8589 0.6828 2.3980
5.8263 0.8937 2.3980
5.7866 1.1033 2.3980
5.7397 1.3113 2.3980
5.6859 1.5175 2.3980
5.6250 1.7216 2.3980
5.5573 1.9235 2.3980
5.4828 2.1229 2.3980
5.4015 2.3197 2.3980
5.3137 2.5135 2.3980
5.2192 2.7042 2.3980
5.1184 2.8917 2.3980
5.0112 3.0756 2.3980
4.8978 3.2558 2.3980
4.7783 3.4320 2.3980
4.6528 3.6042 2.3980
4.5214 3.7720 2.3980
4.3845 3.9354 2.3980
4.2419 4.0941 2.3980
4.0939 4.2479 2.3980
3.9406 4.3967 2.3980
3.7822 4.5403 2.3980
3.6189 4.6785 2.3980
3.4509 4.8112 2.3980
3.2782 4.9382 2.3980
3.1011 5.0593 2.3980
2.9197 5.1743 2.3980
2.7343 5.2833 2.3980
2.5451 5.3859 2.3980
2.3521 5.4821 2.3980
0.8851 2.2876 0.9845
0.8022 2.3188 0.9833
0.7182 2.3470 0.9821
0.6332 2.3722 0.9808
0.5474 2.3943 0.9794
0.4608 2.4132 0.9780
0.3736 2.4291 0.9766
0.2858 2.4417 0.9751
0.1977 2.4512 0.9735
0.1093 2.4576 0.9720
0.0207 2.4607 0.9703
-0.0680 2.4606 0.9687
-0.1566 2.4573 0.9670
-0.2450 2.4509 0.9652
-0.3332 2.4412 0.9635
-0.4209 2.4283 0.9617
-0.5081 2.4123 0.9598
-0.5947 2.3932 0.9580
-0.6806 2.3709 0.9561
-0.7655 2.3456 0.9542
-0.8495 2.3172 0.9523
-2.3526 5.7672 2.3980
-2.5640 5.6921 2.3980
-2.7730 5.6092 2.3980
-2.9794 5.5188 2.3980
-3.1827 5.4208 2.3980
-3.3828 5.3154 2.3980
-3.5794 5.2026 2.3980
-3.7722 5.0826 2.3980
-3.9608 4.9554 2.3980
-4.1452 4.8212 2.3980
-4.3248 4.6802 2.3980
-4.4996 4.5324 2.3980
-4.6692 4.3781 2.3980
-4.8333 4.2173 2.3980
-4.9918 4.0504 2.3980
-5.1443 3.8775 2.3980
-5.2906 3.6987 2.3980
-5.4305 3.5144 2.3980
-5.5638 3.3247 2.3980
-5.6901 3.1299 2.3980
-5.8094 2.9303 2.3980
-5.9214 2.7260 2.3980
-6.0258 2.5174 2.3980
-6.1226 2.3047 2.3980
-6.2115 2.0883 2.3980
-6.2924 1.8683 2.3980
-6.3651 1.6452 2.3980
-6.4295 1.4193 2.3980
-6.4855 1.1908 2.3980
-6.5329 0.9601 2.3980
-6.5717 0.7275 2.3980
-6.6017 0.4934 2.3980
-6.6228 0.2580 2.3980
-6.6351 0.0219 2.3980
-6.6385 -0.2148 2.3980
-6.6329 -0.4517 2.3980
-6.6184 -0.6883 2.3980
-6.5948 -0.9244 2.3980
-6.5624 -1.1596 2.3980
-6.5210 -1.3935 2.3980
-6.4707 -1.6258 2.3980
-6.4117 -1.8561 2.3980
-6.3439 -2.0840 2.3980
-6.2674 -2.3093 2.3980
-6.1825 -2.5316 2.3980
-6.0891 -2.7504 2.3980
-5.9875 -2.9656 2.3980
-5.8778 -3.1768 2.3980
-5.7601 -3.3837 2.3980
-5.6347 -3.5859 2.3980
-5.5017 -3.7831 2.3980
-5.3614 -3.9751 2.3980
-5.2139 -4.1615 2.3980
-5.0595 -4.3421 2.3980
-4.8984 -4.5167 2.3980
-4.7310 -4.6849 2.3980
-4.5574 -4.8466 2.3980
-4.3779 -5.0014 2.3980
-4.1928 -5.1493 2.3980
-4.0025 -5.2899 2.3980
-3.8071 -5.4231 2.3980
-3.6071 -5.5488 2.3980
-3.4026 -5.6667 2.3980
-3.1941 -5.7767 2.3980
-2.9819 -5.8786 2.3980
-2.7663 -5.9725 2.3980
-2.5475 -6.0580 2.3980
-2.3260 -6.1353 2.3980
-2.1021 -6.2041 2.3980
-1.8761 -6.2644 2.3980
-1.6483 -6.3162 2.3980
-1.4192 -6.3594 2.3980
-1.1889 -6.3940 2.3980
-0.9579 -6.4201 2.3980
-0.7265 -6.4375 2.3980
-0.4949 -6.4464 2.3980
-0.2636 -6.4468 2.3980
-0.0340 -6.0206 2.3980
0.1809 -6.0059 2.3980
0.3948 -5.9833 2.3980
0.6074 -5.9530 2.3980
0.8183 -5.9150 2.3980
1.0273 -5.8695 2.3980
1.2342 -5.8165 2.3980
1.4386 -5.7561 2.3980
1.6404 -5.6885 2.3980
1.8392 -5.6139 2.3980
2.0348 -5.5322 2.3980
2.2270 -5.4437 2.3980
2.4156 -5.3486 2.3980
2.6003 -5.2470 2.3980
2.7808 -5.1390 2.3980
2.9571 -5.0249 2.3980
3.1289 -4.9048 2.3980
3.2960 -4.7789 2.3980
3.4582 -4.6473 2.3980
3.6153 -4.5104 2.3980
3.7672 -4.3682 2.3980
3.9138 -4.2211 2.3980
4.0547 -4.0692 2.3980
4.1901 -3.9126 2.3980
4.3197 -3.7516 2.3980
4.4432 -3.5866 2.3980
4.5608 -3.4174 2.3980
4.6722 -3.2447 2.3980
4.7772 -3.0685 2.3980
4.8759 -2.8890 2.3980
4.9681 -2.7066 2.3980
5.0538 -2.5212 2.3980
5.1330 -2.3331 2.3980
5.2054 -2.1429 2.3980
5.2711 -1.9505 2.3980
5.3301 -1.7562 2.3980
5.3822 -1.5602 2.3980
5.4275 -1.3628 2.3980
5.4658 -1.1642 2.3980
5.4973 -0.9646 2.3980
5.5219 -0.7643 2.3980
5.5396 -0.5634 2.3980
5.5503 -0.3623 2.3980
5.5541 -0.1611 2.3980
5.5510 0.0400 2.3980
5.5411 0.2406 2.3980
5.5243 0.4407 2.3980
5.5006 0.6399 2.3980
5.4702 0.8380 2.3980
5.4331 1.0349 2.3980
5.3892 1.2303 2.3980
5.3388 1.4241 2.3980
5.2817 1.6159 2.3980
5.2182 1.8056 2.3980
5.1483 1.9930 2.3980
5.0720 2.1778 2.3980
4.9894 2.3599 2.3980
4.9007 2.5392 2.3980
4.8059 2.7152 2.3980
4.7052 2.8880 2.3980
4.5987 3.0572 2.3980
4.4863 3.2228 2.3980
4.3683 3.3845 2.3980
4.2448 3.5421 2.3980
4.1159 3.6954 2.3980
3.9819 3.8444 2.3980
3.8428 3.9887 2.3980
3.6986 4.1283 2.3980
3.5497 4.2630 2.3980
3.3962 4.3926 2.3980
3.2381 4.5170 2.3980
3.0758 4.6359 2.3980
2.9093 4.7494 2.3980
2.7388 4.8571 2.3980
2.5646 4.9591 2.3980
2.3867 5.0551 2.3980
0.9039 2.1087 0.9828
0.8274 2.1407 0.9818
0.7498 2.1699 0.9806
0.6711 2.1963 0.9795
0.5916 2.2198 0.9782
0.5112 2.2405 0.9770
0.4302 2.2582 0.9757
0.3486 2.2731 0.9743
0.2664 2.2849 0.9729
0.1839 2.2938 0.9715
0.1012 2.2997 0.9700
0.0182 2.3026 0.9685
-0.0648 2.3025 0.9669
-0.1477 2.2995 0.9653
-0.2305 2.2934 0.9637
-0.3130 2.2844 0.9620
-0.3951 2.2723 0.9603
-0.4767 2.2574 0.9586
-0.5578 2.2394 0.9569
-0.6381 2.2186 0.9552
-0.7176 2.1949 0.9534
-0.7963 2.1683 0.9516
-0.8739 2.1389 0.9498
-2.4039 5.3291 2.3980
-2.5993 5.2508 2.3980
-2.7922 5.1655 2.3980
-2.9822 5.0731 2.3980
-3.1691 4.9738 2.3980
-3.3527 4.8676 2.3980
-3.5326 4.7546 2.3980
-3.7087 4.6351 2.3980
-3.8807 4.5089 2.3980
-4.0483 4.3764 2.3980
-4.2112 4.2376 2.3980
-4.3693 4.0928 2.3980
-4.5223 3.9420 2.3980
-4.6699 3.7855 2.3980
-4.8119 3.6233 2.3980
-4.9481 3.4558 2.3980
-5.0783 3.2832 2.3980
-5.2022 3.1055 2.3980
-5.3197 2.9232 2.3980
-5.4305 2.7363 2.3980
-5.5346 2.5452 2.3980
-5.6316 2.3501 2.3980
-5.7214 2.1512 2.3980
-5.8039 1.9488 2.3980
-5.8789 1.7433 2.3980
-5.9462 1.5348 2.3980
-6.0059 1.3237 2.3980
-6.0576 1.1103 2.3980
-6.1014 0.8949 2.3980
-6.1371 0.6777 2.3980
-6.1646 0.4591 2.3980
-6.1840 0.2395 2.3980
-6.1950 0.0191 2.3980
-6.1978 -0.2018 2.3980
-6.1923 -0.4228 2.3980
-6.1784 -0.6436 2.3980
-6.1562 -0.8638 2.3980
-6.1256 -1.0832 2.3980
-6.0868 -1.3014 2.3980
-6.0397 -1.5180 2.3980
-5.9844 -1.7328 2.3980
-5.9211 -1.9455 2.3980
-5.8497 -2.1556 2.3980
-5.7704 -2.3629 2.3980
-5.6833 -2.5671 2.3980
-5.5885 -2.7678 2.3980
-5.4861 -2.9648 2.3980
-5.3764 -3.1578 2.3980
-5.2595 -3.3464 2.3980
-5.1355 -3.5305 2.3980
-5.0047 -3.7097 2.3980
-4.8673 -3.8837 2.3980
-4.7234 -4.0524 2.3980
-4.5733 -4.2154 2.3980
-4.4173 -4.3725 2.3980
-4.2555 -4.5236 2.3980
-4.0883 -4.6683 2.3980
-3.9158 -4.8066 2.3980
-3.7384 -4.9381 2.3980
-3.5563 -5.0628 2.3980
-3.3699 -5.1804 2.3980
-3.1793 -5.2908 2.3980
-2.9849 -5.3939 2.3980
-2.7870 -5.4896 2.3980
-2.5859 -5.5777 2.3980
-2.3819 -5.6581 2.3980
-2.1753 -5.7307 2.3980
-1.9664 -5.7955 2.3980
-1.7555 -5.8524 2.3980
-1.5429 -5.9014 2.3980
-1.3290 -5.9424 2.3980
-1.1140 -5.9755 2.3980
-0.8982 -6.0004 2.3980
-0.6820 -6.0174 2.3980
-0.4657 -6.0265 2.3980
-0.2496 -6.0275 2.3980
-0.0339 -6.0206 2.3980
0.1811 -6.0058 2.3980
0.3950 -5.9833 2.3980
0.6075 -5.9530 2.3980
0.8184 -5.9150 2.3980
1.0275 -5.8694 2.3980
1.2343 -5.8164 2.3980
1.4388 -5.7561 2.3980
1.6405 -5.6885 2.3980
1.8393 -5.6138 2.3980
2.0350 -5.5321 2.3980
2.2272 -5.4437 2.3980
2.4157 -5.3486 2.3980
2.6004 -5.2469 2.3980
2.7810 -5.1389 2.3980
2.9572 -5.0248 2.3980
3.1290 -4.9047 2.3980
3.2961 -4.7788 2.3980
3.4583 -4.6472 2.3980
3.6154 -4.5103 2.3980
3.7673 -4.3681 2.3980
3.9140 -4.2209 2.3980
4.0548 -4.0691 2.3980
4.1902 -3.9125 2.3980
4.3197 -3.7516 2.3980
4.4433 -3.5864 2.3980
4.5608 -3.4174 2.3980
4.6722 -3.2447 2.3980
4.7772 -3.0685 2.3980
4.8759 -2.8890 2.3980
4.9682 -2.7064 2.3980
5.0539 -2.5211 2.3980
5.1330 -2.3331 2.3980
5.2055 -2.1428 2.3980
5.2712 -1.9504 2.3980
5.3301 -1.7561 2.3980
5.3822 -1.5601 2.3980
5.4275 -1.3627 2.3980
5.4659 -1.1641 2.3980
5.4974 -0.9645 2.3980
5.5219 -0.7641 2.3980
5.5396 -0.5633 2.3980
5.5503 -0.3621 2.3980
5.5541 -0.1610 2.3980
5.5510 0.0401 2.3980
5.5411 0.2407 2.3980
5.5243 0.4408 2.3980
5.5006 0.6400 2.3980
5.4702 0.8382 2.3980
5.4330 1.0351 2.3980
5.3892 1.2305 2.3980
5.3387 1.4242 2.3980
5.2817 1.6160 2.3980
5.2182 1.8057 2.3980
5.1482 1.9931 2.3980
5.0719 2.1779 2.3980
4.9894 2.3601 2.3980
4.9007 2.5393 2.3980
4.8059 2.7153 2.3980
4.7051 2.8881 2.3980
4.5984 3.0573 2.3980
4.4862 3.2229 2.3980
4.3682 3.3845 2.3980
4.2447 3.5422 2.3980
4.1158 3.6955 2.3980
3.9818 3.8445 2.3980
3.8427 3.9888 2.3980
3.6985 4.1284 2.3980
3.5496 4.2631 2.3980
3.3961 4.3927 2.3980
3.2380 4.5170 2.3980
3.0757 4.6360 2.3980
2.9092 4.7494 2.3980
2.7387 4.8572 2.3980
2.5644 4.9592 2.3980
2.3866 5.0551 2.3980
0.9039 2.1087 0.9828
0.8273 2.1407 0.9818
0.7497 2.1699 0.9806
0.6711 2.1963 0.9795
0.5915 2.2198 0.9782
0.5112 2.2405 0.9770
0.4302 2.2582 0.9757
0.3485 2.2731 0.9743
0.2664 2.2849 0.9729
0.1839 2.2938 0.9715
0.1011 2.2997 0.9700
0.0182 2.3026 0.9685
-0.0648 2.3025 0.9669
-0.1477 2.2995 0.9653
-0.2305 2.2934 0.9637
-0.3130 2.2844 0.9620
-0.3951 2.2723 0.9603
-0.4768 2.2573 0.9586
-0.5578 2.2394 0.9569
-0.6382 2.2186 0.9552
-0.7177 2.1949 0.9534
-0.7963 2.1683 0.9516
-0.8739 2.1389 0.9498
-2.4040 5.3290 2.3980
-2.5995 5.2507 2.3980
-2.7923 5.1654 2.3980
-2.9823 5.0730 2.3980
-3.1692 4.9737 2.3980
-3.3528 4.8675 2.3980
-3.5328 4.7546 2.3980
-3.7089 4.6350 2.3980
-3.8808 4.5088 2.3980
-4.0484 4.3763 2.3980
-4.2113 4.2376 2.3980
-4.3694 4.0927 2.3980
-4.5224 3.9419 2.3980
-4.6700 3.7854 2.3980
-4.8120 3.6232 2.3980
-4.9482 3.4557 2.3980
-5.0784 3.2831 2.3980
-5.2023 3.1054 2.3980
-5.3198 2.9231 2.3980
-5.4306 2.7362 2.3980
-5.5346 2.5451 2.3980
-5.6316 2.3499 2.3980
-5.7214 2.1511 2.3980
-5.8039 1.9487 2.3980
-5.8789 1.7432 2.3980
-5.9463 1.5347 2.3980
-6.0059 1.3236 2.3980
-6.0577 1.1102 2.3980
-6.1014 0.8947 2.3980
-6.1371 0.6776 2.3980
-6.1646 0.4590 2.3980
-6.1840 0.2393 2.3980
-6.1950 0.0189 2.3980
-6.1978 -0.2020 2.3980
-6.1923 -0.4230 2.3980
-6.1784 -0.6438 2.3980
-6.1561 -0.8640 2.3980
-6.1256 -1.0834 2.3980
-6.0867 -1.3015 2.3980
-6.0397 -1.5182 2.3980
-5.9844 -1.7330 2.3980
-5.9210 -1.9456 2.3980
-5.8496 -2.1557 2.3980
-5.7703 -2.3630 2.3980
-5.6832 -2.5672 2.3980
-5.5884 -2.7679 2.3980
-5.4861 -2.9649 2.3980
-5.3763 -3.1579 2.3980
-5.2594 -3.3466 2.3980
-5.1354 -3.5306 2.3980
-5.0046 -3.7098 2.3980
-4.8672 -3.8838 2.3980
-4.7233 -4.0525 2.3980
-4.5732 -4.2155 2.3980
-4.4172 -4.3726 2.3980
-4.2554 -4.5237 2.3980
-4.0881 -4.6684 2.3980
-3.9157 -4.8066 2.3980
-3.7383 -4.9382 2.3980
-3.5562 -5.0628 2.3980
-3.3697 -5.1805 2.3980
-3.1792 -5.2909 2.3980
-2.9848 -5.3940 2.3980
-2.7869 -5.4896 2.3980
-2.5858 -5.5777 2.3980
-2.3818 -5.6581 2.3980
-2.1752 -5.7307 2.3980
-1.9662 -5.7956 2.3980
-1.7553 -5.8525 2.3980
-1.5428 -5.9015 2.3980
-1.3288 -5.9425 2.3980
-1.1138 -5.9755 2.3980
-0.8981 -6.0005 2.3980
-0.6819 -6.0174 2.3980
-0.4656 -6.0265 2.3980
-0.2494 -6.0275 2.3980
-0.0348 -5.6473 2.3980
0.1668 -5.6341 2.3980
0.3675 -5.6135 2.3980
0.5669 -5.5857 2.3980
0.7649 -5.5507 2.3980
0.9611 -5.5086 2.3980
1.1553 -5.4595 2.3980
1.3473 -5.4035 2.3980
1.5368 -5.3407 2.3980
1.7237 -5.2712 2.3980
1.9075 -5.1951 2.3980
2.0882 -5.1126 2.3980
2.2655 -5.0239 2.3980
2.4392 -4.9290 2.3980
2.6091 -4.8282 2.3980
2.7750 -4.7215 2.3980
2.9367 -4.6092 2.3980
3.0940 -4.4914 2.3980
3.2467 -4.3683 2.3980
3.3948 -4.2401 2.3980
3.5379 -4.1069 2.3980
3.6761 -3.9690 2.3980
3.8090 -3.8266 2.3980
3.9367 -3.6798 2.3980
4.0588 -3.5289 2.3980
4.1755 -3.3740 2.3980
4.2864 -3.2154 2.3980
4.3915 -3.0532 2.3980
4.4908 -2.8877 2.3980
4.5841 -2.7191 2.3980
4.6713 -2.5476 2.3980
4.7523 -2.3734 2.3980
4.8272 -2.1968 2.3980
4.8957 -2.0179 2.3980
4.9580 -1.8370 2.3980
5.0138 -1.6542 2.3980
5.0632 -1.4699 2.3980
5.1062 -1.2841 2.3980
5.1427 -1.0973 2.3980
5.1727 -0.9094 2.3980
5.1961 -0.7209 2.3980
5.2130 -0.5318 2.3980
5.2234 -0.3424 2.3980
5.2273 -0.1530 2.3980
5.2246 0.0363 2.3980
5.2155 0.2253 2.3980
5.1999 0.4137 2.3980
5.1778 0.6013 2.3980
5.1493 0.7880 2.3980
5.1145 0.9734 2.3980
5.0733 1.1575 2.3980
5.0259 1.3400 2.3980
4.9723 1.5207 2.3980
4.9125 1.6994 2.3980
4.8467 1.8760 2.3980
4.7748 2.0501 2.3980
4.6971 2.2216 2.3980
4.6135 2.3904 2.3980
4.5242 2.5563 2.3980
4.4293 2.7190 2.3980
4.3289 2.8784 2.3980
4.2230 3.0343 2.3980
4.1118 3.1865 2.3980
3.9954 3.3349 2.3980
3.8739 3.4792 2.3980
3.7475 3.6194 2.3980
3.6164 3.7552 2.3980
3.4805 3.8865 2.3980
3.3401 4.0132 2.3980
3.1954 4.1351 2.3980
3.0464 4.2520 2.3980
2.8934 4.3638 2.3980
2.7365 4.4704 2.3980
2.5758 4.5715 2.3980
2.4116 4.6672 2.3980
2.2440 4.7573 2.3980
0.8475 1.9792 0.9803
0.7757 2.0092 0.9793
0.7028 2.0366 0.9782
0.6290 2.0614 0.9771
0.5543 2.0835 0.9760
0.4789 2.1029 0.9748
0.4028 2.1195 0.9735
0.3261 2.1334 0.9723
0.2490 2.1445 0.9709
0.1716 2.1529 0.9696
0.0939 2.1584 0.9682
0.0160 2.1612 0.9668
-0.0619 2.1611 0.9653
-0.1398 2.1582 0.9638
-0.2175 2.1525 0.9623
-0.2949 2.1440 0.9607
-0.3720 2.1327 0.9592
-0.4486 2.1186 0.9576
-0.5247 2.1018 0.9559
-0.6001 2.0823 0.9543
-0.6748 2.0600 0.9526
-0.7486 2.0351 0.9510
-0.8215 2.0075 0.9493
-0.8933 1.9773 0.9476
-2.4439 4.9297 2.3980
-2.6247 4.8490 2.3980
-2.8028 4.7617 2.3980
-2.9780 4.6679 2.3980
-3.1499 4.5677 2.3980
-3.3185 4.4612 2.3980
-3.4834 4.3485 2.3980
-3.6443 4.2296 2.3980
-3.8012 4.1048 2.3980
-3.9536 3.9742 2.3980
-4.1015 3.8378 2.3980
-4.2445 3.6960 2.3980
-4.3824 3.5488 2.3980
-4.5152 3.3963 2.3980
-4.6424 3.2389 2.3980
-4.7640 3.0767 2.3980
-4.8797 2.9099 2.3980
-4.9893 2.7386 2.3980
-5.0927 2.5632 2.3980
-5.1897 2.3838 2.3980
-5.2801 2.2008 2.3980
-5.3638 2.0142 2.3980
-5.4406 1.8245 2.3980
-5.5104 1.6318 2.3980
-5.5731 1.4363 2.3980
-5.6285 1.2385 2.3980
-5.6765 1.0385 2.3980
-5.7171 0.8367 2.3980
-5.7501 0.6332 2.3980
-5.7755 0.4285 2.3980
-5.7933 0.2228 2.3980
-5.8034 0.0164 2.3980
-5.8056 -0.1904 2.3980
-5.8002 -0.3973 2.3980
-5.7869 -0.6040 2.3980
-5.7659 -0.8101 2.3980
-5.7370 -1.0154 2.3980
-5.7005 -1.2196 2.3980
-5.6563 -1.4224 2.3980
-5.6044 -1.6234 2.3980
-5.5450 -1.8224 2.3980
-5.4781 -2.0190 2.3980
-5.4038 -2.2130 2.3980
-5.3222 -2.4041 2.3980
-5.2335 -2.5920 2.3980
-5.1377 -2.7764 2.3980
-5.0351 -2.9570 2.3980
-4.9257 -3.1336 2.3980
-4.8097 -3.3060 2.3980
-4.6874 -3.4737 2.3980
-4.5589 -3.6367 2.3980
-4.4243 -3.7947 2.3980
-4.2840 -3.9475 2.3980
-4.1381 -4.0947 2.3980
-3.9868 -4.2363 2.3980
-3.8304 -4.3720 2.3980
-3.6691 -4.5016 2.3980
-3.5032 -4.6250 2.3980
-3.3330 -4.7420 2.3980
-3.1586 -4.8525 2.3980
-2.9803 -4.9562 2.3980
-2.7985 -5.0531 2.3980
-2.6133 -5.1431 2.3980
-2.4251 -5.2260 2.3980
-2.2342 -5.3017 2.3980
-2.0408 -5.3702 2.3980
-1.8453 -5.4314 2.3980
-1.6478 -5.4852 2.3980
-1.4487 -5.5316 2.3980
-1.2484 -5.5706 2.3980
-1.0470 -5.6021 2.3980
-0.8448 -5.6260 2.3980
-0.6423 -5.6425 2.3980
-0.4395 -5.6516 2.3980
-0.2369 -5.6531 2.3980
-0.0346 -5.6473 2.3980
0.1670 -5.6341 2.3980
0.3676 -5.6135 2.3980
0.5670 -5.5857 2.3980
0.7650 -5.5507 2.3980
0.9612 -5.5086 2.3980
1.1554 -5.4594 2.3980
1.3474 -5.4034 2.3980
1.5370 -5.3406 2.3980
1.7238 -5.2711 2.3980
1.9076 -5.1951 2.3980
2.0883 -5.1126 2.3980
2.2656 -5.0238 2.3980
2.4393 -4.9290 2.3980
2.6092 -4.8281 2.3980
2.7751 -4.7214 2.3980
2.9368 -4.6091 2.3980
3.0941 -4.4913 2.3980
3.2468 -4.3682 2.3980
3.3949 -4.2400 2.3980
3.5380 -4.1069 2.3980
3.6762 -3.9690 2.3980
3.8091 -3.8265 2.3980
3.9367 -3.6797 2.3980
4.0589 -3.5288 2.3980
4.1755 -3.3739 2.3980
4.2865 -3.2153 2.3980
4.3916 -3.0531 2.3980
4.4909 -2.8876 2.3980
4.5841 -2.7190 2.3980
4.6713 -2.5475 2.3980
4.7524 -2.3733 2.3980
4.8272 -2.1967 2.3980
4.8958 -2.0178 2.3980
4.9580 -1.8368 2.3980
5.0139 -1.6541 2.3980
5.0633 -1.4697 2.3980
5.1062 -1.2840 2.3980
5.1427 -1.0971 2.3980
5.1727 -0.9093 2.3980
5.1961 -0.7207 2.3980
5.2130 -0.5317 2.3980
5.2234 -0.3423 2.3980
5.2273 -0.1529 2.3980
5.2246 0.0364 2.3980
5.2155 0.2254 2.3980
5.1998 0.4138 2.3980
5.1778 0.6014 2.3980
5.1493 0.7881 2.3980
5.1144 0.9736 2.3980
5.0733 1.1577 2.3980
5.0259 1.3401 2.3980
4.9722 1.5208 2.3980
4.9125 1.6995 2.3980
4.8466 1.8761 2.3980
4.7748 2.0502 2.3980
4.6971 2.2217 2.3980
4.6135 2.3905 2.3980
4.5242 2.5564 2.3980
4.4293 2.7191 2.3980
4.3288 2.8785 2.3980
4.2229 3.0344 2.3980
4.1117 3.1866 2.3980
3.9953 3.3350 2.3980
3.8739 3.4793 2.3980
3.7475 3.6195 2.3980
3.6163 3.7553 2.3980
3.4804 3.8866 2.3980
3.3401 4.0133 2.3980
3.1953 4.1351 2.3980
3.0463 4.2520 2.3980
2.8933 4.3639 2.3980
2.7364 4.4704 2.3980
2.5757 4.5716 2.3980
2.4115 4.6673 2.3980
2.2439 4.7574 2.3980
0.8475 1.9792 0.9803
0.7756 2.0092 0.9793
0.7028 2.0366 0.9782
0.6289 2.0614 0.9771
0.5542 2.0835 0.9760
0.4788 2.1029 0.9748
0.4027 2.1195 0.9735
0.3261 2.1334 0.9723
0.2490 2.1445 0.9709
0.1715 2.1529 0.9696
0.0938 2.1584 0.9682
0.0160 2.1612 0.9668
-0.0619 2.1611 0.9653
-0.1398 2.1582 0.9638
-0.2175 2.1525 0.9623
-0.2950 2.1440 0.9607
-0.3721 2.1327 0.9592
-0.4487 2.1186 0.9576
-0.5248 2.1018 0.9559
-0.6002 2.0823 0.9543
-0.6749 2.0600 0.9526
-0.7487 2.0351 0.9510
-0.8215 2.0075 0.9493
-0.8933 1.9773 0.9476
-2.4440 4.9297 2.3980
-2.6248 4.8490 2.3980
-2.8029 4.7617 2.3980
-2.9781 4.6679 2.3980
-3.1500 4.5677 2.3980
-3.3186 4.4611 2.3980
-3.4835 4.3484 2.3980
-3.6444 4.2295 2.3980
-3.8013 4.1047 2.3980
-3.9537 3.9741 2.3980
-4.1016 3.8377 2.3980
-4.2446 3.6959 2.3980
-4.3825 3.5487 2.3980
-4.5152 3.3962 2.3980
-4.6425 3.2388 2.3980
-4.7640 3.0766 2.3980
-4.8797 2.9098 2.3980
-4.9894 2.7385 2.3980
-5.0928 2.5631 2.3980
-5.1898 2.3837 2.3980
-5.2802 2.2007 2.3980
-5.3639 2.0141 2.3980
-5.4407 1.8243 2.3980
-5.5105 1.6316 2.3980
-5.5731 1.4362 2.3980
-5.6285 1.2384 2.3980
-5.6765 1.0384 2.3980
-5.7171 0.8365 2.3980
-5.7501 0.6331 2.3980
-5.7756 0.4284 2.3980
-5.7933 0.2227 2.3980
-5.8034 0.0163 2.3980
-5.8056 -0.1905 2.3980
-5.8002 -0.3974 2.3980
-5.7869 -0.6041 2.3980
-5.7658 -0.8103 2.3980
-5.7370 -1.0156 2.3980
-5.7005 -1.2197 2.3980
-5.6563 -1.4225 2.3980
-5.6044 -1.6235 2.3980
-5.5450 -1.8225 2.3980
-5.4781 -2.0191 2.3980
-5.4038 -2.2132 2.3980
-5.3222 -2.4042 2.3980
-5.2334 -2.5921 2.3980
-5.1377 -2.7765 2.3980
-5.0350 -2.9571 2.3980
-4.9256 -3.1337 2.3980
-4.8097 -3.3061 2.3980
-4.6873 -3.4739 2.3980
-4.5588 -3.6368 2.3980
-4.4242 -3.7948 2.3980
-4.2839 -3.9475 2.3980
-4.1380 -4.0948 2.3980
-3.9867 -4.2364 2.3980
-3.8303 -4.3721 2.3980
-3.6690 -4.5017 2.3980
-3.5031 -4.6251 2.3980
-3.3328 -4.7421 2.3980
-3.1584 -4.8526 2.3980
-2.9802 -4.9563 2.3980
-2.7983 -5.0532 2.3980
-2.6132 -5.1431 2.3980
-2.4250 -5.2260 2.3980
-2.2341 -5.3018 2.3980
-2.0407 -5.3703 2.3980
-1.8451 -5.4314 2.3980
-1.6477 -5.4853 2.3980
-1.4486 -5.5317 2.3980
-1.2482 -5.5706 2.3980
-1.0468 -5.6021 2.3980
-0.8447 -5.6261 2.3980
-0.6421 -5.6426 2.3980
-0.4394 -5.6516 2.3980
-0.2367 -5.6531 2.3980
-0.0354 -5.3116 2.3980
0.1541 -5.2996 2.3980
0.3429 -5.2808 2.3980
0.5305 -5.2552 2.3980
0.7168 -5.2228 2.3980
0.9014 -5.1837 2.3980
1.0843 -5.1380 2.3980
1.2651 -5.0859 2.3980
1.4436 -5.0273 2.3980
1.6195 -4.9624 2.3980
1.7928 -4.8913 2.3980
1.9631 -4.8142 2.3980
2.1302 -4.7311 2.3980
2.2940 -4.6423 2.3980
2.4542 -4.5478 2.3980
2.6106 -4.4478 2.3980
2.7632 -4.3425 2.3980
2.9117 -4.2319 2.3980
3.0559 -4.1164 2.3980
3.1957 -3.9960 2.3980
3.3309 -3.8710 2.3980
3.4614 -3.7414 2.3980
3.5870 -3.6075 2.3980
3.7076 -3.4695 2.3980
3.8231 -3.3276 2.3980
3.9334 -3.1818 2.3980
4.0384 -3.0326 2.3980
4.1378 -2.8799 2.3980
4.2318 -2.7241 2.3980
4.3201 -2.5654 2.3980
4.4027 -2.4038 2.3980
4.4795 -2.2398 2.3980
4.5504 -2.0733 2.3980
4.6154 -1.9047 2.3980
4.6745 -1.7342 2.3980
4.7275 -1.5619 2.3980
4.7744 -1.3880 2.3980
4.8152 -1.2129 2.3980
4.8500 -1.0366 2.3980
4.8785 -0.8594 2.3980
4.9009 -0.6815 2.3980
4.9171 -0.5032 2.3980
4.9272 -0.3244 2.3980
4.9311 -0.1457 2.3980
4.9288 0.0330 2.3980
4.9203 0.2114 2.3980
4.9057 0.3892 2.3980
4.8851 0.5664 2.3980
4.8583 0.7426 2.3980
4.8256 0.9177 2.3980
4.7868 1.0915 2.3980
4.7422 1.2638 2.3980
4.6916 1.4344 2.3980
4.6353 1.6031 2.3980
4.5732 1.7698 2.3980
4.5054 1.9342 2.3980
4.4320 2.0962 2.3980
4.3531 2.2556 2.3980
4.2688 2.4121 2.3980
4.1791 2.5657 2.3980
4.0842 2.7162 2.3980
3.9843 2.8633 2.3980
3.8792 3.0069 2.3980
3.7692 3.1470 2.3980
3.6545 3.2832 2.3980
3.5351 3.4154 2.3980
3.4111 3.5435 2.3980
3.2828 3.6673 2.3980
3.1502 3.7868 2.3980
3.0134 3.9016 2.3980
2.8727 4.0118 2.3980
2.7281 4.1171 2.3980
2.5799 4.2175 2.3980
2.4282 4.3128 2.3980
2.2731 4.4028 2.3980
0.8633 1.8318 0.9788
0.7967 1.8625 0.9780
0.7291 1.8907 0.9770
0.6605 1.9165 0.9760
0.5910 1.9398 0.9750
0.5207 1.9606 0.9739
0.4497 1.9788 0.9728
0.3781 1.9945 0.9716
0.3059 2.0076 0.9704
0.2333 2.0180 0.9692
0.1604 2.0259 0.9679
0.0873 2.0311 0.9666
0.0140 2.0337 0.9653
-0.0593 2.0336 0.9639
-0.1326 2.0308 0.9625
-0.2057 2.0255 0.9610
-0.2786 2.0175 0.9596
-0.3512 2.0069 0.9581
-0.4233 1.9936 0.9566
-0.4950 1.9778 0.9551
-0.5659 1.9594 0.9535
-0.6362 1.9384 0.9520
-0.7057 1.9150 0.9504
-0.7743 1.8890 0.9488
-0.8419 1.8606 0.9472
-0.9084 1.8298 0.9456
-2.4737 4.5637 2.3980
-2.6411 4.4811 2.3980
-2.8057 4.3924 2.3980
-2.9673 4.2976 2.3980
-3.1256 4.1969 2.3980
-3.2804 4.0904 2.3980
-3.4315 3.9781 2.3980
-3.5787 3.8603 2.3980
-3.7218 3.7370 2.3980
-3.8605 3.6084 2.3980
-3.9946 3.4746 2.3980
-4.1239 3.3358 2.3980
-4.2483 3.1922 2.3980
-4.3675 3.0439 2.3980
-4.4814 2.8911 2.3980
-4.5898 2.7340 2.3980
-4.6924 2.5728 2.3980
-4.7892 2.4077 2.3980
-4.8799 2.2389 2.3980
-4.9645 2.0667 2.3980
-5.0427 1.8913 2.3980
-5.1145 1.7128 2.3980
-5.1797 1.5316 2.3980
-5.2382 1.3479 2.3980
-5.2898 1.1620 2.3980
-5.3346 0.9741 2.3980
-5.3724 0.7844 2.3980
-5.4031 0.5933 2.3980
-5.4266 0.4010 2.3980
-5.4430 0.2078 2.3980
-5.4522 0.0140 2.3980
-5.4540 -0.1802 2.3980
-5.4487 -0.3744 2.3980
-5.4360 -0.5684 2.3980
-5.4160 -0.7619 2.3980
-5.3888 -0.9547 2.3980
-5.3543 -1.1463 2.3980
-5.3127 -1.3366 2.3980
-5.2639 -1.5253 2.3980
-5.2080 -1.7121 2.3980
-5.1451 -1.8966 2.3980
-5.0754 -2.0787 2.3980
-4.9988 -2.2581 2.3980
-4.9155 -2.4345 2.3980
-4.8256 -2.6076 2.3980
-4.7292 -2.7771 2.3980
-4.6266 -2.9429 2.3980
-4.5178 -3.1048 2.3980
-4.4031 -3.2623 2.3980
-4.2825 -3.4154 2.3980
-4.1563 -3.5638 2.3980
-4.0247 -3.7073 2.3980
-3.8878 -3.8457 2.3980
-3.7460 -3.9788 2.3980
-3.5993 -4.1063 2.3980
-3.4480 -4.2283 2.3980
-3.2924 -4.3443 2.3980
-3.1327 -4.4544 2.3980
-2.9690 -4.5584 2.3980
-2.8018 -4.6561 2.3980
-2.6312 -4.7474 2.3980
-2.4574 -4.8322 2.3980
-2.2809 -4.9104 2.3980
-2.1017 -4.9819 2.3980
-1.9201 -5.0467 2.3980
-1.7365 -5.1045 2.3980
-1.5511 -5.1555 2.3980
-1.3642 -5.1995 2.3980
-1.1760 -5.2366 2.3980
-0.9868 -5.2666 2.3980
-0.7969 -5.2896 2.3980
-0.6065 -5.3056 2.3980
-0.4160 -5.3146 2.3980
-0.2255 -5.3166 2.3980
-0.0353 -5.3116 2.3980
0.1543 -5.2996 2.3980
0.3430 -5.2808 2.3980
0.5306 -5.2552 2.3980
0.7169 -5.2228 2.3980
0.9016 -5.1837 2.3980
1.0844 -5.1380 2.3980
1.2652 -5.0858 2.3980
1.4437 -5.0272 2.3980
1.6197 -4.9623 2.3980
1.7929 -4.8912 2.3980
1.9632 -4.8141 2.3980
2.1303 -4.7311 2.3980
2.2941 -4.6422 2.3980
2.4543 -4.5477 2.3980
2.6108 -4.4477 2.3980
2.7633 -4.3424 2.3980
2.9118 -4.2319 2.3980
3.0560 -4.1163 2.3980
3.1957 -3.9959 2.3980
3.3310 -3.8709 2.3980
3.4614 -3.7413 2.3980
3.5871 -3.6074 2.3980
3.7077 -3.4694 2.3980
3.8232 -3.3275 2.3980
3.9335 -3.1817 2.3980
4.0384 -3.0325 2.3980
4.1379 -2.8798 2.3980
4.2318 -2.7240 2.3980
4.3201 -2.5653 2.3980
4.4027 -2.4037 2.3980
4.4795 -2.2396 2.3980
4.5504 -2.0732 2.3980
4.6155 -1.9046 2.3980
4.6745 -1.7341 2.3980
4.7275 -1.5618 2.3980
4.7744 -1.3879 2.3980
4.8153 -1.2128 2.3980
4.8500 -1.0365 2.3980
4.8785 -0.8593 2.3980
4.9009 -0.6814 2.3980
4.9171 -0.5030 2.3980
4.9272 -0.3243 2.3980
4.9311 -0.1455 2.3980
4.9288 0.0331 2.3980
4.9203 0.2115 2.3980
4.9057 0.3893 2.3980
4.8851 0.5665 2.3980
4.8583 0.7427 2.3980
4.8256 0.9178 2.3980
4.7868 1.0916 2.3980
4.7421 1.2639 2.3980
4.6916 1.4345 2.3980
4.6352 1.6033 2.3980
4.5731 1.7699 2.3980
4.5053 1.9343 2.3980
4.4319 2.0963 2.3980
4.3530 2.2557 2.3980
4.2687 2.4122 2.3980
4.1791 2.5658 2.3980
4.0842 2.7163 2.3980
3.9841 2.8634 2.3980
3.8792 3.0070 2.3980
3.7692 3.1470 2.3980
3.6544 3.2832 2.3980
3.5350 3.4155 2.3980
3.4110 3.5436 2.3980
3.2827 3.6674 2.3980
3.1501 3.7869 2.3980
3.0133 3.9017 2.3980
2.8726 4.0119 2.3980
2.7280 4.1172 2.3980
2.5798 4.2176 2.3980
2.4281 4.3128 2.3980
2.2730 4.4029 2.3980
0.8632 1.8318 0.9788
0.7967 1.8625 0.9780
0.7290 1.8907 0.9770
0.6604 1.9165 0.9760
0.5909 1.9398 0.9750
0.5206 1.9606 0.9739
0.4496 1.9788 0.9728
0.3780 1.9945 0.9716
0.3059 2.0076 0.9704
0.2333 2.0180 0.9692
0.1604 2.0259 0.9679
0.0872 2.0311 0.9666
0.0140 2.0337 0.9653
-0.0594 2.0336 0.9639
-0.1327 2.0308 0.9625
-0.2058 2.0255 0.9610
-0.2787 2.0175 0.9596
-0.3513 2.0069 0.9581
-0.4234 1.9936 0.9566
-0.4950 1.9778 0.9551
-0.5660 1.9594 0.9535
-0.6363 1.9384 0.9520
-0.7057 1.9150 0.9504
-0.7743 1.8890 0.9488
-0.8419 1.8606 0.9472
-0.9084 1.8297 0.9456
-2.4738 4.5637 2.3980
-2.6412 4.4810 2.3980
-2.8058 4.3923 2.3980
-2.9674 4.2975 2.3980
-3.1257 4.1968 2.3980
-3.2805 4.0903 2.3980
-3.4316 3.9781 2.3980
-3.5788 3.8602 2.3980
-3.7219 3.7369 2.3980
-3.8605 3.6083 2.3980
-3.9947 3.4745 2.3980
-4.1240 3.3358 2.3980
-4.2484 3.1921 2.3980
-4.3676 3.0438 2.3980
-4.4815 2.8910 2.3980
-4.5898 2.7339 2.3980
-4.6925 2.5727 2.3980
-4.7893 2.4076 2.3980
-4.8800 2.2388 2.3980
-4.9646 2.0666 2.3980
-5.0428 1.8911 2.3980
-5.1145 1.7127 2.3980
-5.1797 1.5315 2.3980
-5.2382 1.3478 2.3980
-5.2899 1.1619 2.3980
-5.3346 0.9739 2.3980
-5.3724 0.7843 2.3980
-5.4031 0.5932 2.3980
-5.4266 0.4009 2.3980
-5.4430 0.2077 2.3980
-5.4522 0.0139 2.3980
-5.4540 -0.1803 2.3980
-5.4487 -0.3745 2.3980
-5.4360 -0.5686 2.3980
-5.4160 -0.7621 2.3980
-5.3888 -0.9548 2.3980
-5.3543 -1.1465 2.3980
-5.3127 -1.3368 2.3980
-5.2639 -1.5254 2.3980
-5.2080 -1.7122 2.3980
-5.1451 -1.8968 2.3980
-5.0753 -2.0789 2.3980
-4.9987 -2.2582 2.3980
-4.9154 -2.4346 2.3980
-4.8255 -2.6077 2.3980
-4.7292 -2.7773 2.3980
-4.6265 -2.9431 2.3980
-4.5178 -3.1049 2.3980
-4.4030 -3.2624 2.3980
-4.2824 -3.4155 2.3980
-4.1562 -3.5639 2.3980
-4.0246 -3.7074 2.3980
-3.8877 -3.8458 2.3980
-3.7459 -3.9788 2.3980
-3.5992 -4.1064 2.3980
-3.4479 -4.2283 2.3980
-3.2923 -4.3444 2.3980
-3.1325 -4.4545 2.3980
-2.9689 -4.5585 2.3980
-2.8017 -4.6562 2.3980
-2.6311 -4.7475 2.3980
-2.4573 -4.8323 2.3980
-2.2807 -4.9105 2.3980
-2.1015 -4.9820 2.3980
-1.9200 -5.0467 2.3980
-1.7364 -5.1046 2.3980
-1.5510 -5.1555 2.3980
-1.3641 -5.1996 2.3980
-1.1759 -5.2366 2.3980
-0.9867 -5.2666 2.3980
-0.7968 -5.2897 2.3980
-0.6064 -5.3056 2.3980
-0.4158 -5.3146 2.3980
-0.2253 -5.3166 2.3980
-0.0360 -5.0078 2.3980
0.1427 -4.9970 2.3980
0.3206 -4.9797 2.3980
0.4975 -4.9559 2.3980
0.6732 -4.9258 2.3980
0.8474 -4.8894 2.3980
1.0199 -4.8468 2.3980
1.1906 -4.7980 2.3980
1.3590 -4.7432 2.3980
1.5252 -4.6824 2.3980
1.6887 -4.6158 2.3980
1.8496 -4.5435 2.3980
2.0074 -4.4656 2.3980
2.1622 -4.3821 2.3980
2.3136 -4.2934 2.3980
2.4615 -4.1994 2.3980
2.6058 -4.1003 2.3980
2.7461 -3.9964 2.3980
2.8825 -3.8877 2.3980
3.0148 -3.7743 2.3980
3.1427 -3.6566 2.3980
3.2662 -3.5345 2.3980
3.3852 -3.4084 2.3980
3.4994 -3.2783 2.3980
3.6088 -3.1445 2.3980
3.7133 -3.0071 2.3980
3.8128 -2.8663 2.3980
3.9071 -2.7223 2.3980
3.9961 -2.5753 2.3980
4.0799 -2.4255 2.3980
4.1582 -2.2730 2.3980
4.2311 -2.1181 2.3980
4.2985 -1.9609 2.3980
4.3602 -1.8017 2.3980
4.4163 -1.6406 2.3980
4.4667 -1.4778 2.3980
4.5113 -1.3135 2.3980
4.5502 -1.1480 2.3980
4.5833 -0.9814 2.3980
4.6105 -0.8139 2.3980
4.6319 -0.6457 2.3980
4.6475 -0.4770 2.3980
4.6572 -0.3081 2.3980
4.6611 -0.1390 2.3980
4.6591 0.0300 2.3980
4.6513 0.1987 2.3980
4.6376 0.3669 2.3980
4.6182 0.5345 2.3980
4.5931 0.7012 2.3980
4.5622 0.8668 2.3980
4.5256 1.0313 2.3980
4.4835 1.1943 2.3980
4.4357 1.3557 2.3980
4.3824 1.5153 2.3980
4.3237 1.6730 2.3980
4.2596 1.8286 2.3980
4.1902 1.9818 2.3980
4.1156 2.1326 2.3980
4.0358 2.2807 2.3980
3.9510 2.4260 2.3980
3.8612 2.5682 2.3980
3.7665 2.7074 2.3980
3.6671 2.8433 2.3980
3.5630 2.9756 2.3980
3.4544 3.1044 2.3980
3.3414 3.2294 2.3980
3.2240 3.3505 2.3980
3.1025 3.4675 2.3980
2.9770 3.5804 2.3980
2.8475 3.6889 2.3980
2.7143 3.7929 2.3980
2.5775 3.8924 2.3980
2.4372 3.9871 2.3980
2.2936 4.0770 2.3980
0.8751 1.6966 0.9775
0.8134 1.7277 0.9767
0.7506 1.7566 0.9759
0.6868 1.7833 0.9750
0.6221 1.8076 0.9740
0.5565 1.8296 0.9731
0.4902 1.8492 0.9720
0.4232 1.8664 0.9710
0.3556 1.8811 0.9699
0.2876 1.8935 0.9688
0.2191 1.9033 0.9676
0.1503 1.9107 0.9664
0.0813 1.9156 0.9651
0.0122 1.9181 0.9639
-0.0570 1.9180 0.9626
-0.1261 1.9154 0.9613
-0.1951 1.9103 0.9599
-0.2639 1.9028 0.9585
-0.3324 1.8928 0.9571
-0.4004 1.8803 0.9557
-0.4680 1.8654 0.9543
-0.5349 1.8480 0.9528
-0.6012 1.8282 0.9513
-0.6668 1.8061 0.9498
-0.7315 1.7816 0.9483
-0.7953 1.7548 0.9468
-0.8580 1.7257 0.9453
-0.9197 1.6944 0.9438
-2.4944 4.2266 2.3980
-2.6495 4.1425 2.3980
-2.8017 4.0527 2.3980
-2.9507 3.9573 2.3980
-3.0965 3.8565 2.3980
-3.2387 3.7503 2.3980
-3.3772 3.6388 2.3980
-3.5118 3.5222 2.3980
-3.6422 3.4007 2.3980
-3.7683 3.2743 2.3980
-3.8899 3.1431 2.3980
-4.0069 3.0075 2.3980
-4.1189 2.8674 2.3980
-4.2258 2.7232 2.3980
-4.3276 2.5749 2.3980
-4.4240 2.4228 2.3980
-4.5148 2.2671 2.3980
-4.5999 2.1079 2.3980
-4.6792 1.9455 2.3980
-4.7526 1.7801 2.3980
-4.8198 1.6119 2.3980
-4.8809 1.4412 2.3980
-4.9356 1.2681 2.3980
-4.9840 1.0929 2.3980
-5.0258 0.9159 2.3980
-5.0611 0.7373 2.3980
-5.0897 0.5573 2.3980
-5.1116 0.3762 2.3980
-5.1268 0.1943 2.3980
-5.1352 0.0119 2.3980
-5.1367 -0.1709 2.3980
-5.1315 -0.3538 2.3980
-5.1193 -0.5364 2.3980
-5.1004 -0.7185 2.3980
-5.0746 -0.8999 2.3980
-5.0420 -1.0802 2.3980
-5.0027 -1.2593 2.3980
-4.9567 -1.4368 2.3980
-4.9040 -1.6126 2.3980
-4.8448 -1.7863 2.3980
-4.7791 -1.9576 2.3980
-4.7070 -2.1264 2.3980
-4.6286 -2.2924 2.3980
-4.5440 -2.4553 2.3980
-4.4534 -2.6149 2.3980
-4.3568 -2.7710 2.3980
-4.2545 -2.9233 2.3980
-4.1466 -3.0716 2.3980
-4.0332 -3.2157 2.3980
-3.9145 -3.3555 2.3980
-3.7908 -3.4906 2.3980
-3.6621 -3.6210 2.3980
-3.5286 -3.7464 2.3980
-3.3907 -3.8666 2.3980
-3.2484 -3.9815 2.3980
-3.1021 -4.0910 2.3980
-2.9518 -4.1948 2.3980
-2.7980 -4.2929 2.3980
-2.6406 -4.3851 2.3980
-2.4802 -4.4714 2.3980
-2.3167 -4.5515 2.3980
-2.1505 -4.6254 2.3980
-1.9819 -4.6931 2.3980
-1.8111 -4.7543 2.3980
-1.6383 -4.8092 2.3980
-1.4637 -4.8575 2.3980
-1.2878 -4.8994 2.3980
-1.1106 -4.9346 2.3980
-0.9324 -4.9633 2.3980
-0.7535 -4.9854 2.3980
-0.5742 -5.0009 2.3980
-0.3946 -5.0098 2.3980
-0.2151 -5.0120 2.3980
-0.0359 -5.0078 2.3980
0.1428 -4.9969 2.3980
0.3207 -4.9797 2.3980
0.4976 -4.9559 2.3980
0.6733 -4.9258 2.3980
0.8475 -4.8894 2.3980
1.0201 -4.8468 2.3980
1.1907 -4.7980 2.3980
1.3591 -4.7432 2.3980
1.5253 -4.6824 2.3980
1.6888 -4.6158 2.3980
1.8497 -4.5435 2.3980
2.0075 -4.4655 2.3980
2.1623 -4.3821 2.3980
2.3137 -4.2933 2.3980
2.4616 -4.1993 2.3980
2.6058 -4.1003 2.3980
2.7462 -3.9963 2.3980
2.8826 -3.8876 2.3980
3.0149 -3.7743 2.3980
3.1428 -3.6565 2.3980
3.2663 -3.5344 2.3980
3.3853 -3.4083 2.3980
3.4995 -3.2782 2.3980
3.6089 -3.1444 2.3980
3.7134 -3.0070 2.3980
3.8128 -2.8662 2.3980
3.9071 -2.7222 2.3980
3.9962 -2.5752 2.3980
4.0799 -2.4254 2.3980
4.1583 -2.2729 2.3980
4.2312 -2.1180 2.3980
4.2985 -1.9608 2.3980
4.3602 -1.8016 2.3980
4.4163 -1.6404 2.3980
4.4667 -1.4777 2.3980
4.5114 -1.3134 2.3980
4.5502 -1.1479 2.3980
4.5833 -0.9813 2.3980
4.6105 -0.8138 2.3980
4.6319 -0.6456 2.3980
4.6475 -0.4769 2.3980
4.6572 -0.3080 2.3980
4.6611 -0.1389 2.3980
4.6591 0.0301 2.3980
4.6512 0.1988 2.3980
4.6376 0.3670 2.3980
4.6182 0.5346 2.3980
4.5930 0.7013 2.3980
4.5622 0.8669 2.3980
4.5256 1.0314 2.3980
4.4834 1.1944 2.3980
4.4357 1.3558 2.3980
4.3824 1.5154 2.3980
4.3237 1.6731 2.3980
4.2596 1.8287 2.3980
4.1902 1.9819 2.3980
4.1155 2.1327 2.3980
4.0357 2.2808 2.3980
3.9509 2.4260 2.3980
3.8611 2.5683 2.3980
3.7664 2.7075 2.3980
3.6670 2.8433 2.3980
3.5629 2.9757 2.3980
3.4543 3.1045 2.3980
3.3413 3.2295 2.3980
3.2239 3.3506 2.3980
3.1025 3.4676 2.3980
2.9769 3.5804 2.3980
2.8474 3.6889 2.3980
2.7142 3.7930 2.3980
2.5774 3.8924 2.3980
2.4371 3.9872 2.3980
2.2935 4.0771 2.3980
0.8751 1.6966 0.9775
0.8134 1.7277 0.9767
0.7506 1.7567 0.9759
0.6868 1.7833 0.9750
0.6220 1.8076 0.9740
0.5565 1.8296 0.9731
0.4902 1.8492 0.9720
0.4232 1.8664 0.9710
0.3556 1.8811 0.9699
0.2875 1.8935 0.9688
0.2191 1.9033 0.9676
0.1503 1.9107 0.9664
0.0813 1.9156 0.9651
0.0121 1.9181 0.9639
-0.0570 1.9180 0.9626
-0.1262 1.9154 0.9613
-0.1952 1.9103 0.9599
-0.2639 1.9028 0.9585
-0.3324 1.8928 0.9571
-0.4004 1.8803 0.9557
-0.4680 1.8653 0.9543
-0.5350 1.8480 0.9528
-0.6013 1.8282 0.9513
-0.6668 1.8061 0.9498
-0.7315 1.7816 0.9483
-0.7953 1.7548 0.9468
-0.8581 1.7257 0.9453
-0.9197 1.6943 0.9438
-2.4945 4.2265 2.3980
-2.6496 4.1424 2.3980
-2.8018 4.0526 2.3980
-2.9508 3.9572 2.3980
-3.0966 3.8564 2.3980
-3.2388 3.7502 2.3980
-3.3773 3.6387 2.3980
-3.5119 3.5222 2.3980
-3.6423 3.4006 2.3980
-3.7684 3.2742 2.3980
-3.8900 3.1431 2.3980
-4.0069 3.0074 2.3980
-4.1189 2.8673 2.3980
-4.2259 2.7231 2.3980
-4.3277 2.5748 2.3980
-4.4240 2.4227 2.3980
-4.5148 2.2670 2.3980
-4.6000 2.1078 2.3980
-4.6793 1.9454 2.3980
-4.7526 1.7800 2.3980
-4.8199 1.6118 2.3980
-4.8809 1.4411 2.3980
-4.9357 1.2680 2.3980
-4.9840 1.0928 2.3980
-5.0259 0.9158 2.3980
-5.0611 0.7371 2.3980
-5.0897 0.5572 2.3980
-5.1117 0.3761 2.3980
-5.1268 0.1942 2.3980
-5.1352 0.0117 2.3980
-5.1367 -0.1710 2.3980
-5.1315 -0.3539 2.3980
-5.1193 -0.5365 2.3980
-5.1004 -0.7186 2.3980
-5.0746 -0.9000 2.3980
-5.0420 -1.0803 2.3980
-5.0027 -1.2594 2.3980
-4.9567 -1.4370 2.3980
-4.9040 -1.6127 2.3980
-4.8448 -1.7864 2.3980
-4.7790 -1.9577 2.3980
-4.7069 -2.1265 2.3980
-4.6285 -2.2925 2.3980
-4.5439 -2.4554 2.3980
-4.4533 -2.6150 2.3980
-4.3568 -2.7711 2.3980
-4.2545 -2.9234 2.3980
-4.1465 -3.0717 2.3980
-4.0331 -3.2158 2.3980
-3.9145 -3.3556 2.3980
-3.7907 -3.4907 2.3980
-3.6620 -3.6211 2.3980
-3.5285 -3.7464 2.3980
-3.3906 -3.8667 2.3980
-3.2483 -3.9816 2.3980
-3.1020 -4.0911 2.3980
-2.9518 -4.1949 2.3980
-2.7979 -4.2930 2.3980
-2.6405 -4.3852 2.3980
-2.4800 -4.4714 2.3980
-2.3166 -4.5515 2.3980
-2.1504 -4.6255 2.3980
-1.9818 -4.6931 2.3980
-1.8110 -4.7544 2.3980
-1.6382 -4.8092 2.3980
-1.4636 -4.8576 2.3980
-1.2876 -4.8994 2.3980
-1.1104 -4.9347 2.3980
-0.9323 -4.9633 2.3980
-0.7534 -4.9854 2.3980
-0.5741 -5.0009 2.3980
-0.3945 -5.0098 2.3980
-0.2150 -5.0120 2.3980
-0.0366 -4.7312 2.3980
0.1322 -4.7214 2.3980
0.3003 -4.7055 2.3980
0.4675 -4.6834 2.3980
0.6335 -4.6554 2.3980
0.7982 -4.6214 2.3980
0.9613 -4.5815 2.3980
1.1226 -4.5358 2.3980
1.2820 -4.4844 2.3980
1.4391 -4.4273 2.3980
1.5939 -4.3647 2.3980
1.7461 -4.2967 2.3980
1.8955 -4.2233 2.3980
2.0420 -4.1448 2.3980
2.1853 -4.0612 2.3980
2.3254 -3.9727 2.3980
2.4620 -3.8793 2.3980
2.5950 -3.7813 2.3980
2.7243 -3.6788 2.3980
2.8496 -3.5719 2.3980
2.9709 -3.4607 2.3980
3.0880 -3.3455 2.3980
3.2008 -3.2265 2.3980
3.3092 -3.1036 2.3980
3.4130 -2.9772 2.3980
3.5121 -2.8474 2.3980
3.6065 -2.7143 2.3980
3.6960 -2.5782 2.3980
3.7806 -2.4392 2.3980
3.8602 -2.2975 2.3980
3.9346 -2.1533 2.3980
4.0039 -2.0068 2.3980
4.0679 -1.8580 2.3980
4.1266 -1.7074 2.3980
4.1800 -1.5549 2.3980
4.2280 -1.4008 2.3980
4.2705 -1.2453 2.3980
4.3075 -1.0886 2.3980
4.3391 -0.9308 2.3980
4.3651 -0.7722 2.3980
4.3856 -0.6129 2.3980
4.4005 -0.4531 2.3980
4.4099 -0.2931 2.3980
4.4137 -0.1329 2.3980
4.4120 0.0272 2.3980
4.4047 0.1871 2.3980
4.3920 0.3465 2.3980
4.3737 0.5053 2.3980
4.3500 0.6633 2.3980
4.3208 0.8202 2.3980
4.2862 0.9761 2.3980
4.2463 1.1306 2.3980
4.2011 1.2836 2.3980
4.1507 1.4349 2.3980
4.0951 1.5843 2.3980
4.0344 1.7317 2.3980
3.9686 1.8770 2.3980
3.8979 2.0198 2.3980
3.8223 2.1602 2.3980
3.7418 2.2978 2.3980
3.6567 2.4327 2.3980
3.5670 2.5645 2.3980
3.4727 2.6932 2.3980
3.3741 2.8186 2.3980
3.2710 2.9406 2.3980
3.1638 3.0590 2.3980
3.0526 3.1736 2.3980
2.9373 3.2844 2.3980
2.8183 3.3913 2.3980
2.6955 3.4940 2.3980
2.5693 3.5924 2.3980
2.4395 3.6865 2.3980
2.3065 3.7761 2.3980
0.8836 1.5718 0.9762
0.8263 1.6034 0.9755
0.7680 1.6328 0.9748
0.7086 1.6601 0.9740
0.6483 1.6853 0.9731
0.5871 1.7083 0.9722
0.5251 1.7291 0.9713
0.4624 1.7476 0.9704
0.3991 1.7638 0.9694
0.3352 1.7778 0.9683
0.2709 1.7894 0.9672
0.2061 1.7988 0.9661
0.1411 1.8057 0.9650
0.0759 1.8104 0.9638
0.0105 1.8127 0.9626
-0.0549 1.8126 0.9614
-0.1202 1.8102 0.9601
-0.1854 1.8054 0.9589
-0.2505 1.7982 0.9576
-0.3152 1.7887 0.9562
-0.3795 1.7769 0.9549
-0.4434 1.7628 0.9535
-0.5067 1.7464 0.9522
-0.5693 1.7277 0.9508
-0.6313 1.7068 0.9494
-0.6925 1.6837 0.9479
-0.7527 1.6583 0.9465
-0.8121 1.6308 0.9451
-0.8704 1.6012 0.9437
-0.9276 1.5695 0.9422
-2.5071 3.9147 2.3980
-2.6507 3.8294 2.3980
-2.7914 3.7390 2.3980
-2.9289 3.6434 2.3980
-3.0631 3.5427 2.3980
-3.1937 3.4371 2.3980
-3.3206 3.3266 2.3980
-3.4435 3.2115 2.3980
-3.5624 3.0918 2.3980
-3.6770 2.9677 2.3980
-3.7871 2.8394 2.3980
-3.8926 2.7069 2.3980
-3.9933 2.5704 2.3980
-4.0891 2.4302 2.3980
-4.1798 2.2864 2.3980
-4.2655 2.1392 2.3980
-4.3453 1.9888 2.3980
-4.4199 1.8354 2.3980
-4.4888 1.6791 2.3980
-4.5520 1.5202 2.3980
-4.6094 1.3590 2.3980
-4.6608 1.1955 2.3980
-4.7061 1.0301 2.3980
-4.7453 0.8630 2.3980
-4.7784 0.6944 2.3980
-4.8051 0.5246 2.3980
-4.8256 0.3537 2.3980
-4.8397 0.1821 2.3980
-4.8474 0.0099 2.3980
-4.8487 -0.1625 2.3980
-4.8435 -0.3350 2.3980
-4.8319 -0.5073 2.3980
-4.8139 -0.6790 2.3980
-4.7894 -0.8501 2.3980
-4.7586 -1.0202 2.3980
-4.7214 -1.1891 2.3980
-4.6779 -1.3566 2.3980
-4.6282 -1.5223 2.3980
-4.5723 -1.6861 2.3980
-4.5102 -1.8477 2.3980
-4.4422 -2.0069 2.3980
-4.3683 -2.1634 2.3980
-4.2885 -2.3171 2.3980
-4.2030 -2.4676 2.3980
-4.1120 -2.6149 2.3980
-4.0156 -2.7586 2.3980
-3.9138 -2.8985 2.3980
-3.8069 -3.0345 2.3980
-3.6951 -3.1664 2.3980
-3.5784 -3.2940 2.3980
-3.4571 -3.4170 2.3980
-3.3314 -3.5354 2.3980
-3.2013 -3.6490 2.3980
-3.0672 -3.7575 2.3980
-2.9293 -3.8609 2.3980
-2.7877 -3.9591 2.3980
-2.6426 -4.0518 2.3980
-2.4943 -4.1390 2.3980
-2.3430 -4.2206 2.3980
-2.1888 -4.2965 2.3980
-2.0321 -4.3664 2.3980
-1.8731 -4.4305 2.3980
-1.7120 -4.4886 2.3980
-1.5490 -4.5407 2.3980
-1.3843 -4.5866 2.3980
-1.2183 -4.6265 2.3980
-1.0511 -4.6601 2.3980
-0.8829 -4.6875 2.3980
-0.7141 -4.7087 2.3980
-0.5448 -4.7236 2.3980
-0.3753 -4.7324 2.3980
-0.2058 -4.7349 2.3980
-0.0365 -4.7312 2.3980
0.1323 -4.7214 2.3980
0.3004 -4.7055 2.3980
0.4676 -4.6834 2.3980
0.6336 -4.6554 2.3980
0.7983 -4.6214 2.3980
0.9614 -4.5815 2.3980
1.1227 -4.5357 2.3980
1.2821 -4.4843 2.3980
1.4392 -4.4272 2.3980
1.5940 -4.3646 2.3980
1.7462 -4.2966 2.3980
1.8956 -4.2233 2.3980
2.0421 -4.1448 2.3980
2.1854 -4.0612 2.3980
2.3255 -3.9726 2.3980
2.4621 -3.8793 2.3980
2.5951 -3.7813 2.3980
2.7244 -3.6787 2.3980
2.8497 -3.5718 2.3980
2.9710 -3.4607 2.3980
3.0881 -3.3455 2.3980
3.2009 -3.2264 2.3980
3.3092 -3.1035 2.3980
3.4130 -2.9771 2.3980
3.5122 -2.8473 2.3980
3.6066 -2.7142 2.3980
3.6961 -2.5781 2.3980
3.7807 -2.4391 2.3980
3.8602 -2.2974 2.3980
3.9347 -2.1532 2.3980
4.0039 -2.0067 2.3980
4.0680 -1.8580 2.3980
4.1267 -1.7073 2.3980
4.1800 -1.5548 2.3980
4.2280 -1.4007 2.3980
4.2705 -1.2452 2.3980
4.3076 -1.0885 2.3980
4.3391 -0.9307 2.3980
4.3651 -0.7721 2.3980
4.3856 -0.6128 2.3980
4.4005 -0.4530 2.3980
4.4099 -0.2930 2.3980
4.4137 -0.1328 2.3980
4.4120 0.0273 2.3980
4.4047 0.1872 2.3980
4.3919 0.3466 2.3980
4.3737 0.5054 2.3980
4.3499 0.6634 2.3980
4.3208 0.8204 2.3980
4.2862 0.9762 2.3980
4.2463 1.1307 2.3980
4.2011 1.2837 2.3980
4.1507 1.4350 2.3980
4.0951 1.5844 2.3980
4.0343 1.7318 2.3980
3.9686 1.8771 2.3980
3.8978 2.0199 2.3980
3.8222 2.1603 2.3980
3.7418 2.2979 2.3980
3.6567 2.4328 2.3980
3.5669 2.5646 2.3980
3.4726 2.6933 2.3980
3.3741 2.8187 2.3980
3.2710 2.9407 2.3980
3.1637 3.0590 2.3980
3.0525 3.1737 2.3980
2.9372 3.2845 2.3980
2.8183 3.3913 2.3980
2.6955 3.4940 2.3980
2.5692 3.5925 2.3980
2.4395 3.6866 2.3980
2.3064 3.7761 2.3980
0.8835 1.5719 0.9762
0.8263 1.6034 0.9755
0.7679 1.6328 0.9748
0.7086 1.6602 0.9740
0.6482 1.6853 0.9731
0.5871 1.7083 0.9722
0.5251 1.7291 0.9713
0.4624 1.7476 0.9703
0.3990 1.7638 0.9693
0.3352 1.7778 0.9683
0.2708 1.7894 0.9672
0.2061 1.7988 0.9661
0.1411 1.8058 0.9650
0.0759 1.8104 0.9638
0.0105 1.8127 0.9626
-0.0549 1.8126 0.9614
-0.1203 1.8101 0.9601
-0.1855 1.8054 0.9589
-0.2505 1.7982 0.9576
-0.3152 1.7887 0.9562
-0.3795 1.7769 0.9549
-0.4434 1.7628 0.9535
-0.5067 1.7464 0.9522
-0.5694 1.7277 0.9508
-0.6313 1.7068 0.9494
-0.6925 1.6836 0.9479
-0.7528 1.6583 0.9465
-0.8121 1.6308 0.9451
-0.8704 1.6012 0.9436
-0.9276 1.5695 0.9422
-2.5072 3.9146 2.3980
-2.6508 3.8294 2.3980
-2.7915 3.7389 2.3980
-2.9290 3.6433 2.3980
-3.0631 3.5426 2.3980
-3.1938 3.4370 2.3980
-3.3206 3.3266 2.3980
-3.4436 3.2115 2.3980
-3.5625 3.0917 2.3980
-3.6770 2.9677 2.3980
-3.7872 2.8393 2.3980
-3.8927 2.7068 2.3980
-3.9934 2.5704 2.3980
-4.0892 2.4302 2.3980
-4.1798 2.2863 2.3980
-4.2653 2.1391 2.3980
-4.3454 1.9887 2.3980
-4.4199 1.8353 2.3980
-4.4889 1.6790 2.3980
-4.5521 1.5201 2.3980
-4.6094 1.3589 2.3980
-4.6608 1.1954 2.3980
-4.7061 1.0300 2.3980
-4.7454 0.8629 2.3980
-4.7784 0.6943 2.3980
-4.8052 0.5245 2.3980
-4.8256 0.3536 2.3980
-4.8397 0.1820 2.3980
-4.8474 0.0098 2.3980
-4.8487 -0.1626 2.3980
-4.8435 -0.3351 2.3980
-4.8319 -0.5074 2.3980
-4.8139 -0.6792 2.3980
-4.7894 -0.8502 2.3980
-4.7586 -1.0203 2.3980
-4.7214 -1.1892 2.3980
-4.6779 -1.3567 2.3980
-4.6282 -1.5224 2.3980
-4.5722 -1.6862 2.3980
-4.5102 -1.8478 2.3980
-4.4422 -2.0070 2.3980
-4.3682 -2.1635 2.3980
-4.2884 -2.3172 2.3980
-4.2030 -2.4677 2.3980
-4.1120 -2.6150 2.3980
-4.0155 -2.7587 2.3980
-3.9137 -2.8986 2.3980
-3.8069 -3.0346 2.3980
-3.6950 -3.1665 2.3980
-3.5783 -3.2941 2.3980
-3.4570 -3.4171 2.3980
-3.3313 -3.5355 2.3980
-3.2012 -3.6490 2.3980
-3.0672 -3.7576 2.3980
-2.9292 -3.8610 2.3980
-2.7876 -3.9591 2.3980
-2.6425 -4.0519 2.3980
-2.4942 -4.1391 2.3980
-2.3429 -4.2207 2.3980
-2.1887 -4.2965 2.3980
-2.0320 -4.3665 2.3980
-1.8730 -4.4306 2.3980
-1.7119 -4.4887 2.3980
-1.5489 -4.5407 2.3980
-1.3842 -4.5867 2.3980
-1.2182 -4.6265 2.3980
-1.0509 -4.6601 2.3980
-0.8828 -4.6875 2.3980
-0.7140 -4.7087 2.3980
-0.5447 -4.7237 2.3980
-0.3751 -4.7324 2.3980
-0.2056 -4.7349 2.3980
-0.0371 -4.4782 2.3980
0.1226 -4.4693 2.3980
0.2817 -4.4545 2.3980
0.4400 -4.4340 2.3980
0.5972 -4.4078 2.3980
0.7531 -4.3759 2.3980
0.9076 -4.3385 2.3980
1.0604 -4.2956 2.3980
1.2114 -4.2472 2.3980
1.3603 -4.1935 2.3980
1.5070 -4.1345 2.3980
1.6512 -4.0704 2.3980
1.7929 -4.0013 2.3980
1.9318 -3.9272 2.3980
2.0677 -3.8483 2.3980
2.2006 -3.7648 2.3980
2.3302 -3.6766 2.3980
2.4564 -3.5840 2.3980
2.5791 -3.4871 2.3980
2.6980 -3.3861 2.3980
2.8132 -3.2810 2.3980
2.9244 -3.1721 2.3980
3.0315 -3.0594 2.3980
3.1345 -2.9432 2.3980
3.2331 -2.8236 2.3980
3.3273 -2.7007 2.3980
3.4170 -2.5747 2.3980
3.5022 -2.4458 2.3980
3.5826 -2.3142 2.3980
3.6583 -2.1799 2.3980
3.7291 -2.0433 2.3980
3.7950 -1.9044 2.3980
3.8560 -1.7635 2.3980
3.9119 -1.6206 2.3980
3.9627 -1.4761 2.3980
4.0084 -1.3300 2.3980
4.0490 -1.1826 2.3980
4.0843 -1.0339 2.3980
4.1144 -0.8843 2.3980
4.1393 -0.7338 2.3980
4.1589 -0.5827 2.3980
4.1733 -0.4311 2.3980
4.1823 -0.2792 2.3980
4.1861 -0.1272 2.3980
4.1846 0.0247 2.3980
4.1778 0.1764 2.3980
4.1658 0.3277 2.3980
4.1486 0.4784 2.3980
4.1261 0.6283 2.3980
4.0986 0.7774 2.3980
4.0658 0.9253 2.3980
4.0280 1.0719 2.3980
3.9852 1.2172 2.3980
3.9374 1.3608 2.3980
3.8846 1.5026 2.3980
3.8270 1.6426 2.3980
3.7646 1.7804 2.3980
3.6974 1.9160 2.3980
3.6256 2.0492 2.3980
3.5493 2.1799 2.3980
3.4685 2.3078 2.3980
3.3832 2.4330 2.3980
3.2937 2.5551 2.3980
3.2000 2.6741 2.3980
3.1022 2.7898 2.3980
3.0004 2.9021 2.3980
2.8947 3.0108 2.3980
2.7853 3.1159 2.3980
2.6723 3.2172 2.3980
2.5557 3.3146 2.3980
2.4357 3.4079 2.3980
2.3126 3.4970 2.3980
0.8889 1.4563 0.9750
0.8358 1.4881 0.9743
0.7816 1.5180 0.9737
0.7263 1.5458 0.9730
0.6701 1.5717 0.9722
0.6130 1.5955 0.9714
0.5550 1.6173 0.9706
0.4963 1.6370 0.9697
0.4369 1.6545 0.9688
0.3770 1.6699 0.9678
0.3165 1.6831 0.9669
0.2555 1.6941 0.9658
0.1943 1.7029 0.9648
0.1327 1.7095 0.9637
0.0709 1.7139 0.9626
0.0090 1.7161 0.9615
-0.0529 1.7160 0.9603
-0.1148 1.7137 0.9591
-0.1766 1.7092 0.9579
-0.2381 1.7024 0.9567
-0.2994 1.6934 0.9554
-0.3603 1.6822 0.9542
-0.4208 1.6689 0.9529
-0.4808 1.6533 0.9516
-0.5401 1.6357 0.9502
-0.5988 1.6158 0.9489
-0.6567 1.5939 0.9476
-0.7138 1.5699 0.9462
-0.7700 1.5439 0.9449
-0.8252 1.5158 0.9435
-0.8794 1.4858 0.9421
-0.9324 1.4539 0.9408
-2.5124 3.6249 2.3980
-2.6454 3.5390 2.3980
-2.7754 3.4482 2.3980
-2.9022 3.3526 2.3980
-3.0256 3.2524 2.3980
-3.1455 3.1476 2.3980
-3.2616 3.0384 2.3980
-3.3739 2.9249 2.3980
-3.4821 2.8072 2.3980
-3.5860 2.6855 2.3980
-3.6855 2.5600 2.3980
-3.7806 2.4307 2.3980
-3.8710 2.2979 2.3980
-3.9565 2.1617 2.3980
-4.0371 2.0223 2.3980
-4.1126 1.8799 2.3980
-4.1828 1.7347 2.3980
-4.2478 1.5868 2.3980
-4.3073 1.4364 2.3980
-4.3613 1.2839 2.3980
-4.4096 1.1292 2.3980
-4.4523 0.9728 2.3980
-4.4892 0.8147 2.3980
-4.5202 0.6553 2.3980
-4.5453 0.4947 2.3980
-4.5644 0.3332 2.3980
-4.5775 0.1709 2.3980
-4.5846 0.0081 2.3980
-4.5857 -0.1549 2.3980
-4.5807 -0.3179 2.3980
-4.5696 -0.4807 2.3980
-4.5524 -0.6430 2.3980
-4.5292 -0.8047 2.3980
-4.4999 -0.9654 2.3980
-4.4647 -1.1251 2.3980
-4.4235 -1.2833 2.3980
-4.3765 -1.4399 2.3980
-4.3236 -1.5947 2.3980
-4.2649 -1.7474 2.3980
-4.2006 -1.8978 2.3980
-4.1307 -2.0458 2.3980
-4.0554 -2.1910 2.3980
-3.9746 -2.3333 2.3980
-3.8886 -2.4724 2.3980
-3.7975 -2.6083 2.3980
-3.7014 -2.7406 2.3980
-3.6005 -2.8692 2.3980
-3.4948 -2.9939 2.3980
-3.3846 -3.1145 2.3980
-3.2700 -3.2309 2.3980
-3.1513 -3.3429 2.3980
-3.0285 -3.4503 2.3980
-2.9018 -3.5530 2.3980
-2.7715 -3.6509 2.3980
-2.6378 -3.7438 2.3980
-2.5007 -3.8317 2.3980
-2.3606 -3.9143 2.3980
-2.2177 -3.9916 2.3980
-2.0720 -4.0635 2.3980
-1.9240 -4.1299 2.3980
-1.7737 -4.1907 2.3980
-1.6214 -4.2459 2.3980
-1.4674 -4.2954 2.3980
-1.3117 -4.3391 2.3980
-1.1548 -4.3770 2.3980
-0.9967 -4.4091 2.3980
-0.8377 -4.4353 2.3980
-0.6780 -4.4556 2.3980
-0.5179 -4.4701 2.3980
-0.3575 -4.4787 2.3980
-0.1972 -4.4814 2.3980
-0.0370 -4.4782 2.3980
0.1227 -4.4693 2.3980
0.2818 -4.4545 2.3980
0.4401 -4.4340 2.3980
0.5973 -4.4078 2.3980
0.7532 -4.3759 2.3980
0.9077 -4.3385 2.3980
1.0605 -4.2955 2.3980
1.2115 -4.2472 2.3980
1.3604 -4.1934 2.3980
1.5071 -4.1345 2.3980
1.6513 -4.0704 2.3980
1.7930 -4.0013 2.3980
1.9319 -3.9272 2.3980
2.0678 -3.8483 2.3980
2.2007 -3.7647 2.3980
2.3303 -3.6765 2.3980
2.4565 -3.5840 2.3980
2.5792 -3.4871 2.3980
2.6981 -3.3860 2.3980
2.8133 -3.2809 2.3980
2.9245 -3.1720 2.3980
3.0316 -3.0593 2.3980
3.1345 -2.9431 2.3980
3.2331 -2.8235 2.3980
3.3274 -2.7006 2.3980
3.4171 -2.5746 2.3980
3.5022 -2.4457 2.3980
3.5826 -2.3141 2.3980
3.6583 -2.1799 2.3980
3.7291 -2.0432 2.3980
3.7951 -1.9043 2.3980
3.8560 -1.7634 2.3980
3.9119 -1.6205 2.3980
3.9627 -1.4760 2.3980
4.0085 -1.3299 2.3980
4.0490 -1.1825 2.3980
4.0843 -1.0338 2.3980
4.1145 -0.8842 2.3980
4.1393 -0.7337 2.3980
4.1589 -0.5826 2.3980
4.1733 -0.4310 2.3980
4.1823 -0.2791 2.3980
4.1861 -0.1271 2.3980
4.1846 0.0248 2.3980
4.1778 0.1765 2.3980
4.1658 0.3278 2.3980
4.1486 0.4785 2.3980
4.1261 0.6284 2.3980
4.0985 0.7775 2.3980
4.0658 0.9254 2.3980
4.0280 1.0720 2.3980
3.9852 1.2172 2.3980
3.9373 1.3609 2.3980
3.8846 1.5027 2.3980
3.8269 1.6427 2.3980
3.7645 1.7805 2.3980
3.6974 1.9161 2.3980
3.6256 2.0493 2.3980
3.5492 2.1800 2.3980
3.4684 2.3079 2.3980
3.3832 2.4330 2.3980
3.2937 2.5552 2.3980
3.1999 2.6741 2.3980
3.1021 2.7899 2.3980
3.0003 2.9021 2.3980
2.8947 3.0109 2.3980
2.7853 3.1160 2.3980
2.6722 3.2173 2.3980
2.5556 3.3146 2.3980
2.4357 3.4079 2.3980
2.3125 3.4971 2.3980
0.8889 1.4564 0.9750
0.8358 1.4881 0.9743
0.7815 1.5180 0.9737
0.7263 1.5459 0.9730
0.6701 1.5717 0.9722
0.6129 1.5956 0.9714
0.5550 1.6173 0.9706
0.4963 1.6370 0.9697
