ply
format ascii 1.0
element vertex 2174
property float32 x
property float32 y
property float32 z
end_header
-4.1296 7.5074 2.3855
-4.4264 7.4102 2.3855
-4.7211 7.3010 2.3855
-5.0132 7.1799 2.3855
-5.3021 7.0468 2.3855
-5.5872 6.9016 2.3855
-5.8680 6.7444 2.3855
-6.1439 6.5753 2.3855
-6.4143 6.3944 2.3855
-6.6785 6.2018 2.3855
-6.9360 5.9976 2.3855
-7.1861 5.7820 2.3855
-7.4282 5.5553 2.3855
-7.6617 5.3177 2.3855
-7.8861 5.0696 2.3855
-8.1007 4.8113 2.3855
-8.3049 4.5432 2.3855
-8.4982 4.2657 2.3855
-8.6800 3.9792 2.3855
-8.8499 3.6843 2.3855
-9.0072 3.3815 2.3855
-9.1517 3.0714 2.3855
-9.2828 2.7545 2.3855
-9.4001 2.4315 2.3855
-9.2418 -2.9811 2.3855
-9.1058 -3.2967 2.3855
-8.9564 -3.6054 2.3855
-8.7940 -3.9066 2.3855
-8.6192 -4.1997 2.3855
-8.4323 -4.4842 2.3855
-8.2340 -4.7596 2.3855
-8.0247 -5.0254 2.3855
-7.8052 -5.2811 2.3855
-7.5758 -5.5265 2.3855
-7.3373 -5.7610 2.3855
-7.0902 -5.9846 2.3855
-6.8351 -6.1967 2.3855
-6.5728 -6.3973 2.3855
-6.3037 -6.5861 2.3855
-6.0286 -6.7630 2.3855
-5.7480 -6.9278 2.3855
-5.4626 -7.0805 2.3855
-5.1729 -7.2209 2.3855
-4.8797 -7.3491 2.3855
-4.5834 -7.4651 2.3855
-4.2846 -7.5689 2.3855
-3.9839 -7.6606 2.3855
-3.6819 -7.7402 2.3855
-3.3790 -7.8079 2.3855
-3.0758 -7.8638 2.3855
-2.7727 -7.9081 2.3855
-2.4703 -7.9409 2.3855
-2.1690 -7.9625 2.3855
-1.8692 -7.9730 2.3855
-1.5713 -7.9726 2.3855
-1.2757 -7.9616 2.3855
-0.9828 -7.9403 2.3855
-0.6930 -7.9088 2.3855
-0.4065 -7.8674 2.3855
-0.1255 -7.2301 2.3855
0.1325 -7.1780 2.3855
0.3869 -7.1175 2.3855
0.6374 -7.0487 2.3855
0.8837 -6.9719 2.3855
1.1256 -6.8873 2.3855
1.3629 -6.7952 2.3855
1.5955 -6.6958 2.3855
1.8231 -6.5893 2.3855
2.0456 -6.4761 2.3855
2.2629 -6.3563 2.3855
2.4747 -6.2301 2.3855
2.6810 -6.0980 2.3855
2.8816 -5.9599 2.3855
3.0764 -5.8163 2.3855
3.2654 -5.6673 2.3855
3.4484 -5.5132 2.3855
3.6254 -5.3541 2.3855
3.7962 -5.1905 2.3855
3.9608 -5.0223 2.3855
4.1192 -4.8499 2.3855
4.2712 -4.6734 2.3855
4.4169 -4.4931 2.3855
4.5561 -4.3092 2.3855
4.6889 -4.1218 2.3855
4.8152 -3.9312 2.3855
4.9350 -3.7376 2.3855
5.0483 -3.5411 2.3855
5.1549 -3.3420 2.3855
5.2550 -3.1404 2.3855
5.3485 -2.9365 2.3855
5.4353 -2.7304 2.3855
5.5155 -2.5224 2.3855
5.5891 -2.3126 2.3855
5.6560 -2.1013 2.3855
5.7162 -1.8884 2.3855
5.7698 -1.6743 2.3855
5.8167 -1.4591 2.3855
5.8570 -1.2429 2.3855
5.8905 -1.0259 2.3855
5.9174 -0.8082 2.3855
5.9376 -0.5901 2.3855
5.9512 -0.3716 2.3855
5.9580 -0.1529 2.3855
5.9582 0.0658 2.3855
5.9518 0.2843 2.3855
5.9387 0.5026 2.3855
5.9189 0.7205 2.3855
5.8925 0.9378 2.3855
5.8594 1.1543 2.3855
5.8197 1.3700 2.3855
5.7734 1.5847 2.3855
5.7205 1.7981 2.3855
5.6610 2.0102 2.3855
5.5948 2.2207 2.3855
5.5222 2.4296 2.3855
5.4429 2.6366 2.3855
5.3571 2.8417 2.3855
5.2648 3.0445 2.3855
5.1659 3.2451 2.3855
5.0606 3.4431 2.3855
4.9488 3.6384 2.3855
4.8306 3.8309 2.3855
4.7060 4.0203 2.3855
4.5750 4.2064 2.3855
4.4377 4.3892 2.3855
4.2941 4.5684 2.3855
4.1443 4.7437 2.3855
3.9883 4.9151 2.3855
3.8261 5.0822 2.3855
3.6579 5.2450 2.3855
3.4837 5.4031 2.3855
3.3036 5.5564 2.3855
3.1176 5.7047 2.3855
2.9259 5.8477 2.3855
2.7285 5.9852 2.3855
2.5256 6.1171 2.3855
2.3173 6.2430 2.3855
2.1036 6.3628 2.3855
0.7907 2.7169 1.0008
0.6928 2.7459 0.9951
0.5939 2.7714 0.9893
0.4942 2.7933 0.9834
0.3937 2.8116 0.9775
0.2927 2.8262 0.9716
0.1911 2.8372 0.9656
0.0892 2.8444 0.9596
-0.0128 2.8480 0.9535
-0.1150 2.8479 0.9474
-0.2171 2.8441 0.9413
-0.3189 2.8366 0.9352
-0.4205 2.8254 0.9291
-0.5216 2.8106 0.9231
-0.6220 2.7921 0.9170
-0.7218 2.7699 0.9110
-0.8206 2.7442 0.9050
-0.9185 2.7149 0.8991
-2.7116 7.1634 2.3855
-2.9862 7.1129 2.3855
-3.2604 7.0518 2.3855
-3.5338 6.9802 2.3855
-3.8060 6.8979 2.3855
-4.0765 6.8048 2.3855
-4.3447 6.7008 2.3855
-4.6104 6.5861 2.3855
-4.8728 6.4604 2.3855
-5.1316 6.3239 2.3855
-5.3861 6.1767 2.3855
-5.6360 6.0187 2.3855
-5.8805 5.8501 2.3855
-6.1193 5.6710 2.3855
-6.3517 5.4816 2.3855
-6.5773 5.2820 2.3855
-6.7954 5.0726 2.3855
-7.0056 4.8535 2.3855
-7.2074 4.6251 2.3855
-7.4001 4.3876 2.3855
-7.5835 4.1415 2.3855
-7.7569 3.8870 2.3855
-7.9199 3.6247 2.3855
-8.0720 3.3550 2.3855
-8.2129 3.0783 2.3855
-8.3421 2.7952 2.3855
-8.4592 2.5061 2.3855
-8.5640 2.2117 2.3855
-8.6561 1.9126 2.3855
-8.7352 1.6092 2.3855
-8.8012 1.3023 2.3855
-8.8537 0.9925 2.3855
-8.8927 0.6804 2.3855
-8.9180 0.3667 2.3855
-8.9295 0.0521 2.3855
-8.9272 -0.2628 2.3855
-8.9111 -0.5774 2.3855
-8.8812 -0.8908 2.3855
-8.8376 -1.2025 2.3855
-8.7805 -1.5118 2.3855
-8.7100 -1.8180 2.3855
-8.6262 -2.1205 2.3855
-8.5295 -2.4188 2.3855
-8.4200 -2.7121 2.3855
-8.2982 -2.9999 2.3855
-8.1644 -3.2816 2.3855
-8.0188 -3.5567 2.3855
-7.8620 -3.8247 2.3855
-7.6943 -4.0851 2.3855
-7.5163 -4.3375 2.3855
-7.3282 -4.5814 2.3855
-7.1308 -4.8164 2.3855
-6.9244 -5.0423 2.3855
-6.7096 -5.2585 2.3855
-6.4869 -5.4650 2.3855
-6.2568 -5.6613 2.3855
-6.0199 -5.8473 2.3855
-5.7767 -6.0228 2.3855
-5.5278 -6.1877 2.3855
-5.2737 -6.3417 2.3855
-5.0150 -6.4848 2.3855
-4.7522 -6.6169 2.3855
-4.4858 -6.7380 2.3855
-4.2163 -6.8481 2.3855
-3.9444 -6.9471 2.3855
-3.6704 -7.0351 2.3855
-3.3948 -7.1122 2.3855
-3.1181 -7.1784 2.3855
-2.8409 -7.2339 2.3855
-2.5635 -7.2787 2.3855
-2.2864 -7.3130 2.3855
-2.0099 -7.3370 2.3855
-1.7346 -7.3508 2.3855
-1.4607 -7.3545 2.3855
-1.1886 -7.3484 2.3855
-0.9187 -7.3327 2.3855
-0.6513 -7.3076 2.3855
-0.3868 -7.2733 2.3855
-0.1253 -7.2300 2.3855
0.1327 -7.1780 2.3855
0.3871 -7.1175 2.3855
0.6375 -7.0487 2.3855
0.8838 -6.9719 2.3855
1.1257 -6.8873 2.3855
1.3631 -6.7952 2.3855
1.5957 -6.6957 2.3855
1.8233 -6.5893 2.3855
2.0458 -6.4760 2.3855
2.2630 -6.3562 2.3855
2.4748 -6.2301 2.3855
2.6811 -6.0979 2.3855
2.8817 -5.9598 2.3855
3.0766 -5.8162 2.3855
3.2655 -5.6672 2.3855
3.4485 -5.5131 2.3855
3.6255 -5.3541 2.3855
3.7963 -5.1904 2.3855
3.9609 -5.0222 2.3855
4.1193 -4.8497 2.3855
4.2713 -4.6733 2.3855
4.4170 -4.4930 2.3855
4.5562 -4.3090 2.3855
4.6890 -4.1217 2.3855
4.8153 -3.9311 2.3855
4.9351 -3.7375 2.3855
5.0483 -3.5410 2.3855
5.1550 -3.3419 2.3855
5.2551 -3.1402 2.3855
5.3485 -2.9363 2.3855
5.4354 -2.7303 2.3855
5.5156 -2.5223 2.3855
5.5891 -2.3125 2.3855
5.6561 -2.1011 2.3855
5.7163 -1.8883 2.3855
5.7699 -1.6742 2.3855
5.8168 -1.4589 2.3855
5.8570 -1.2427 2.3855
5.8906 -1.0257 2.3855
5.9174 -0.8081 2.3855
5.9376 -0.5899 2.3855
5.9512 -0.3715 2.3855
5.9580 -0.1528 2.3855
5.9582 0.0659 2.3855
5.9518 0.2845 2.3855
5.9387 0.5028 2.3855
5.9189 0.7206 2.3855
5.8925 0.9379 2.3855
5.8594 1.1545 2.3855
5.8197 1.3702 2.3855
5.7734 1.5848 2.3855
5.7204 1.7982 2.3855
5.6609 2.0103 2.3855
5.5948 2.2209 2.3855
5.5221 2.4297 2.3855
5.4428 2.6368 2.3855
5.3570 2.8418 2.3855
5.2647 3.0447 2.3855
5.1658 3.2452 2.3855
5.0605 3.4432 2.3855
4.9487 3.6385 2.3855
4.8305 3.8310 2.3855
4.7059 4.0204 2.3855
4.5749 4.2066 2.3855
4.4376 4.3893 2.3855
4.2940 4.5685 2.3855
4.1442 4.7438 2.3855
3.9881 4.9152 2.3855
3.8260 5.0823 2.3855
3.6578 5.2451 2.3855
3.4836 5.4032 2.3855
3.3034 5.5565 2.3855
3.1175 5.7048 2.3855
2.9258 5.8478 2.3855
2.7284 5.9853 2.3855
2.5255 6.1172 2.3855
2.3171 6.2431 2.3855
2.1035 6.3629 2.3855
0.7906 2.7169 1.0008
0.6928 2.7459 0.9951
0.5939 2.7714 0.9893
0.4941 2.7933 0.9834
0.3937 2.8116 0.9775
0.2926 2.8262 0.9716
0.1910 2.8372 0.9656
0.0892 2.8444 0.9595
-0.0129 2.8480 0.9535
-0.1151 2.8479 0.9474
-0.2171 2.8441 0.9413
-0.3190 2.8366 0.9352
-0.4206 2.8254 0.9291
-0.5216 2.8105 0.9231
-0.6221 2.7920 0.9170
-0.7218 2.7699 0.9110
-0.8207 2.7442 0.9050
-0.9186 2.7149 0.8991
-2.7118 7.1633 2.3855
-2.9863 7.1128 2.3855
-3.2605 7.0518 2.3855
-3.5340 6.9801 2.3855
-3.8061 6.8978 2.3855
-4.0766 6.8047 2.3855
-4.3449 6.7008 2.3855
-4.6106 6.5860 2.3855
-4.8730 6.4603 2.3855
-5.1318 6.3238 2.3855
-5.3863 6.1766 2.3855
-5.6361 6.0186 2.3855
-5.8807 5.8500 2.3855
-6.1194 5.6709 2.3855
-6.3519 5.4814 2.3855
-6.5774 5.2819 2.3855
-6.7955 5.0725 2.3855
-7.0057 4.8534 2.3855
-7.2075 4.6249 2.3855
-7.4003 4.3875 2.3855
-7.5836 4.1413 2.3855
-7.7570 3.8869 2.3855
-7.9200 3.6246 2.3855
-8.0721 3.3548 2.3855
-8.2129 3.0781 2.3855
-8.3421 2.7950 2.3855
-8.4593 2.5059 2.3855
-8.5641 2.2115 2.3855
-8.6561 1.9124 2.3855
-8.7353 1.6090 2.3855
-8.8012 1.3021 2.3855
-8.8537 0.9923 2.3855
-8.8927 0.6802 2.3855
-8.9180 0.3665 2.3855
-8.9295 0.0519 2.3855
-8.9272 -0.2630 2.3855
-8.9111 -0.5776 2.3855
-8.8812 -0.8910 2.3855
-8.8376 -1.2027 2.3855
-8.7804 -1.5120 2.3855
-8.7099 -1.8182 2.3855
-8.6261 -2.1207 2.3855
-8.5294 -2.4190 2.3855
-8.4200 -2.7122 2.3855
-8.2981 -3.0000 2.3855
-8.1643 -3.2818 2.3855
-8.0187 -3.5569 2.3855
-7.8619 -3.8249 2.3855
-7.6942 -4.0853 2.3855
-7.5161 -4.3377 2.3855
-7.3281 -4.5816 2.3855
-7.1307 -4.8166 2.3855
-6.9243 -5.0424 2.3855
-6.7094 -5.2587 2.3855
-6.4867 -5.4651 2.3855
-6.2566 -5.6614 2.3855
-6.0197 -5.8475 2.3855
-5.7766 -6.0230 2.3855
-5.5276 -6.1878 2.3855
-5.2736 -6.3418 2.3855
-5.0148 -6.4849 2.3855
-4.7520 -6.6170 2.3855
-4.4856 -6.7381 2.3855
-4.2162 -6.8481 2.3855
-3.9442 -6.9472 2.3855
-3.6702 -7.0352 2.3855
-3.3946 -7.1123 2.3855
-3.1180 -7.1785 2.3855
-2.8407 -7.2339 2.3855
-2.5634 -7.2788 2.3855
-2.2862 -7.3131 2.3855
-2.0098 -7.3370 2.3855
-1.7344 -7.3508 2.3855
-1.4605 -7.3545 2.3855
-1.1884 -7.3484 2.3855
-0.9185 -7.3327 2.3855
-0.6511 -7.3076 2.3855
-0.3866 -7.2733 2.3855
-0.1267 -6.7185 2.3855
0.1132 -6.6732 2.3855
0.3498 -6.6199 2.3855
0.5831 -6.5589 2.3855
0.8127 -6.4902 2.3855
1.0384 -6.4143 2.3855
1.2600 -6.3312 2.3855
1.4774 -6.2411 2.3855
1.6903 -6.1444 2.3855
1.8986 -6.0412 2.3855
2.1021 -5.9318 2.3855
2.3007 -5.8163 2.3855
2.4942 -5.6950 2.3855
2.6826 -5.5681 2.3855
2.8657 -5.4359 2.3855
3.0434 -5.2985 2.3855
3.2156 -5.1561 2.3855
3.3822 -5.0090 2.3855
3.5432 -4.8574 2.3855
3.6984 -4.7014 2.3855
3.8478 -4.5413 2.3855
3.9913 -4.3773 2.3855
4.1289 -4.2096 2.3855
4.2605 -4.0383 2.3855
4.3860 -3.8637 2.3855
4.5055 -3.6859 2.3855
4.6189 -3.5052 2.3855
4.7261 -3.3216 2.3855
4.8272 -3.1355 2.3855
4.9220 -2.9469 2.3855
5.0106 -2.7561 2.3855
5.0930 -2.5631 2.3855
5.1691 -2.3682 2.3855
5.2389 -2.1716 2.3855
5.3024 -1.9734 2.3855
5.3597 -1.7738 2.3855
5.4106 -1.5728 2.3855
5.4552 -1.3708 2.3855
5.4934 -1.1678 2.3855
5.5254 -0.9641 2.3855
5.5510 -0.7596 2.3855
5.5702 -0.5547 2.3855
5.5832 -0.3494 2.3855
5.5897 -0.1440 2.3855
5.5900 0.0615 2.3855
5.5839 0.2669 2.3855
5.5715 0.4720 2.3855
5.5528 0.6767 2.3855
5.5278 0.8809 2.3855
5.4965 1.0843 2.3855
5.4589 1.2868 2.3855
5.4150 1.4884 2.3855
5.3648 1.6887 2.3855
5.3084 1.8878 2.3855
5.2457 2.0853 2.3855
5.1768 2.2812 2.3855
5.1017 2.4753 2.3855
5.0204 2.6674 2.3855
4.9329 2.8574 2.3855
4.8393 3.0452 2.3855
4.7396 3.2304 2.3855
4.6338 3.4131 2.3855
4.5220 3.5929 2.3855
4.4041 3.7697 2.3855
4.2803 3.9435 2.3855
4.1506 4.1138 2.3855
4.0150 4.2807 2.3855
3.8735 4.4439 2.3855
3.7263 4.6032 2.3855
3.5734 4.7584 2.3855
3.4149 4.9094 2.3855
3.2508 5.0559 2.3855
3.0812 5.1977 2.3855
2.9063 5.3347 2.3855
2.7261 5.4666 2.3855
2.5406 5.5933 2.3855
2.3501 5.7145 2.3855
2.1546 5.8300 2.3855
0.8206 2.4940 1.0017
0.7307 2.5242 0.9964
0.6397 2.5512 0.9911
0.5479 2.5749 0.9858
0.4552 2.5952 0.9803
0.3618 2.6121 0.9748
0.2679 2.6257 0.9693
0.1736 2.6359 0.9637
0.0789 2.6426 0.9581
-0.0159 2.6460 0.9525
-0.1108 2.6458 0.9469
-0.2057 2.6423 0.9412
-0.3003 2.6353 0.9355
-0.3947 2.6249 0.9299
-0.4886 2.6111 0.9242
-0.5819 2.5939 0.9186
-0.6746 2.5734 0.9130
-0.7664 2.5495 0.9075
-0.8574 2.5223 0.9019
-0.9473 2.4918 0.8965
-2.7736 6.5808 2.3855
-3.0259 6.5211 2.3855
-3.2772 6.4518 2.3855
-3.5272 6.3726 2.3855
-3.7754 6.2835 2.3855
-4.0213 6.1846 2.3855
-4.2645 6.0758 2.3855
-4.5046 5.9571 2.3855
-4.7411 5.8286 2.3855
-4.9736 5.6903 2.3855
-5.2015 5.5422 2.3855
-5.4244 5.3846 2.3855
-5.6418 5.2175 2.3855
-5.8533 5.0412 2.3855
-6.0583 4.8557 2.3855
-6.2565 4.6613 2.3855
-6.4473 4.4583 2.3855
-6.6302 4.2469 2.3855
-6.8050 4.0274 2.3855
-6.9710 3.8002 2.3855
-7.1279 3.5656 2.3855
-7.2753 3.3239 2.3855
-7.4128 3.0757 2.3855
-7.5400 2.8213 2.3855
-7.6567 2.5611 2.3855
-7.7623 2.2958 2.3855
-7.8568 2.0256 2.3855
-7.9398 1.7513 2.3855
-8.0111 1.4732 2.3855
-8.0704 1.1920 2.3855
-8.1177 0.9083 2.3855
-8.1527 0.6225 2.3855
-8.1754 0.3353 2.3855
-8.1856 0.0473 2.3855
-8.1834 -0.2410 2.3855
-8.1688 -0.5288 2.3855
-8.1417 -0.8158 2.3855
-8.1023 -1.1011 2.3855
-8.0506 -1.3844 2.3855
-7.9869 -1.6649 2.3855
-7.9112 -1.9422 2.3855
-7.8238 -2.2156 2.3855
-7.7249 -2.4847 2.3855
-7.6148 -2.7488 2.3855
-7.4937 -3.0076 2.3855
-7.3621 -3.2605 2.3855
-7.2202 -3.5071 2.3855
-7.0684 -3.7469 2.3855
-6.9071 -3.9795 2.3855
-6.7367 -4.2046 2.3855
-6.5576 -4.4217 2.3855
-6.3703 -4.6306 2.3855
-6.1752 -4.8310 2.3855
-5.9728 -5.0225 2.3855
-5.7636 -5.2050 2.3855
-5.5480 -5.3781 2.3855
-5.3265 -5.5419 2.3855
-5.0996 -5.6959 2.3855
-4.8678 -5.8403 2.3855
-4.6315 -5.9747 2.3855
-4.3913 -6.0992 2.3855
-4.1476 -6.2136 2.3855
-3.9009 -6.3181 2.3855
-3.6516 -6.4125 2.3855
-3.4003 -6.4968 2.3855
-3.1472 -6.5711 2.3855
-2.8930 -6.6355 2.3855
-2.6380 -6.6900 2.3855
-2.3825 -6.7347 2.3855
-2.1271 -6.7697 2.3855
-1.8720 -6.7952 2.3855
-1.6177 -6.8112 2.3855
-1.3645 -6.8180 2.3855
-1.1127 -6.8156 2.3855
-0.8628 -6.8043 2.3855
-0.6149 -6.7842 2.3855
-0.3694 -6.7555 2.3855
-0.1266 -6.7184 2.3855
0.1133 -6.6731 2.3855
0.3500 -6.6199 2.3855
0.5832 -6.5588 2.3855
0.8128 -6.4902 2.3855
1.0385 -6.4142 2.3855
1.2602 -6.3311 2.3855
1.4775 -6.2411 2.3855
1.6904 -6.1443 2.3855
1.8987 -6.0411 2.3855
2.1022 -5.9317 2.3855
2.3008 -5.8162 2.3855
2.4944 -5.6949 2.3855
2.6827 -5.5681 2.3855
2.8658 -5.4358 2.3855
3.0435 -5.2984 2.3855
3.2157 -5.1560 2.3855
3.3823 -5.0089 2.3855
3.5433 -4.8573 2.3855
3.6985 -4.7013 2.3855
3.8479 -4.5412 2.3855
3.9914 -4.3772 2.3855
4.1289 -4.2095 2.3855
4.2605 -4.0382 2.3855
4.3861 -3.8636 2.3855
4.5056 -3.6858 2.3855
4.6190 -3.5051 2.3855
4.7262 -3.3215 2.3855
4.8272 -3.1354 2.3855
4.9221 -2.9468 2.3855
5.0107 -2.7559 2.3855
5.0930 -2.5630 2.3855
5.1691 -2.3681 2.3855
5.2390 -2.1715 2.3855
5.3025 -1.9733 2.3855
5.3597 -1.7736 2.3855
5.4106 -1.5727 2.3855
5.4552 -1.3707 2.3855
5.4934 -1.1677 2.3855
5.5254 -0.9639 2.3855
5.5510 -0.7595 2.3855
5.5702 -0.5546 2.3855
5.5832 -0.3493 2.3855
5.5897 -0.1438 2.3855
5.5900 0.0617 2.3855
5.5839 0.2670 2.3855
5.5715 0.4722 2.3855
5.5528 0.6769 2.3855
5.5278 0.8810 2.3855
5.4965 1.0844 2.3855
5.4589 1.2870 2.3855
5.4149 1.4885 2.3855
5.3648 1.6889 2.3855
5.3083 1.8879 2.3855
5.2456 2.0854 2.3855
5.1767 2.2813 2.3855
5.1016 2.4754 2.3855
5.0203 2.6676 2.3855
4.9329 2.8576 2.3855
4.8393 3.0453 2.3855
4.7396 3.2305 2.3855
4.6338 3.4132 2.3855
4.5219 3.5930 2.3855
4.4041 3.7698 2.3855
4.2802 3.9436 2.3855
4.1505 4.1139 2.3855
4.0149 4.2808 2.3855
3.8734 4.4440 2.3855
3.7262 4.6033 2.3855
3.5733 4.7585 2.3855
3.4148 4.9095 2.3855
3.2507 5.0560 2.3855
3.0811 5.1978 2.3855
2.9062 5.3348 2.3855
2.7259 5.4667 2.3855
2.5405 5.5934 2.3855
2.3500 5.7146 2.3855
2.1545 5.8301 2.3855
0.8205 2.4940 1.0017
0.7306 2.5243 0.9964
0.6397 2.5512 0.9911
0.5478 2.5749 0.9858
0.4551 2.5952 0.9803
0.3618 2.6122 0.9748
0.2679 2.6257 0.9693
0.1735 2.6359 0.9637
0.0789 2.6426 0.9581
-0.0160 2.6460 0.9525
-0.1109 2.6458 0.9468
-0.2057 2.6423 0.9412
-0.3004 2.6353 0.9355
-0.3947 2.6249 0.9299
-0.4886 2.6111 0.9242
-0.5820 2.5939 0.9186
-0.6746 2.5734 0.9130
-0.7665 2.5495 0.9075
-0.8574 2.5222 0.9019
-0.9473 2.4918 0.8965
-2.7738 6.5807 2.3855
-3.0261 6.5211 2.3855
-3.2774 6.4517 2.3855
-3.5273 6.3725 2.3855
-3.7755 6.2835 2.3855
-4.0214 6.1846 2.3855
-4.2647 6.0757 2.3855
-4.5048 5.9570 2.3855
-4.7413 5.8285 2.3855
-4.9737 5.6902 2.3855
-5.2016 5.5421 2.3855
-5.4245 5.3845 2.3855
-5.6419 5.2174 2.3855
-5.8534 5.0411 2.3855
-6.0585 4.8556 2.3855
-6.2566 4.6612 2.3855
-6.4474 4.4582 2.3855
-6.6304 4.2468 2.3855
-6.8051 4.0273 2.3855
-6.9711 3.8001 2.3855
-7.1280 3.5654 2.3855
-7.2754 3.3238 2.3855
-7.4129 3.0755 2.3855
-7.5401 2.8211 2.3855
-7.6567 2.5610 2.3855
-7.7624 2.2956 2.3855
-7.8569 2.0255 2.3855
-7.9399 1.7511 2.3855
-8.0111 1.4730 2.3855
-8.0705 1.1919 2.3855
-8.1177 0.9081 2.3855
-8.1527 0.6223 2.3855
-8.1754 0.3351 2.3855
-8.1856 0.0471 2.3855
-8.1834 -0.2411 2.3855
-8.1687 -0.5290 2.3855
-8.1417 -0.8160 2.3855
-8.1022 -1.1013 2.3855
-8.0506 -1.3846 2.3855
-7.9868 -1.6651 2.3855
-7.9111 -1.9424 2.3855
-7.8237 -2.2158 2.3855
-7.7248 -2.4848 2.3855
-7.6147 -2.7490 2.3855
-7.4936 -3.0078 2.3855
-7.3620 -3.2607 2.3855
-7.2201 -3.5072 2.3855
-7.0683 -3.7470 2.3855
-6.9070 -3.9796 2.3855
-6.7366 -4.2047 2.3855
-6.5575 -4.4218 2.3855
-6.3702 -4.6307 2.3855
-6.1751 -4.8311 2.3855
-5.9727 -5.0226 2.3855
-5.7634 -5.2051 2.3855
-5.5478 -5.3783 2.3855
-5.3263 -5.5420 2.3855
-5.0994 -5.6960 2.3855
-4.8676 -5.8404 2.3855
-4.6314 -5.9748 2.3855
-4.3912 -6.0993 2.3855
-4.1474 -6.2137 2.3855
-3.9007 -6.3181 2.3855
-3.6515 -6.4125 2.3855
-3.4001 -6.4968 2.3855
-3.1471 -6.5712 2.3855
-2.8928 -6.6355 2.3855
-2.6378 -6.6900 2.3855
-2.3823 -6.7347 2.3855
-2.1269 -6.7698 2.3855
-1.8718 -6.7952 2.3855
-1.6175 -6.8113 2.3855
-1.3643 -6.8180 2.3855
-1.1126 -6.8156 2.3855
-0.8626 -6.8043 2.3855
-0.6147 -6.7842 2.3855
-0.3692 -6.7555 2.3855
-0.1278 -6.2678 2.3855
0.0961 -6.2281 2.3855
0.3171 -6.1808 2.3855
0.5352 -6.1262 2.3855
0.7499 -6.0645 2.3855
0.9613 -5.9958 2.3855
1.1689 -5.9203 2.3855
1.3727 -5.8383 2.3855
1.5725 -5.7499 2.3855
1.7681 -5.6553 2.3855
1.9593 -5.5548 2.3855
2.1461 -5.4485 2.3855
2.3282 -5.3367 2.3855
2.5056 -5.2195 2.3855
2.6781 -5.0971 2.3855
2.8456 -4.9698 2.3855
3.0081 -4.8377 2.3855
3.1653 -4.7011 2.3855
3.3173 -4.5600 2.3855
3.4640 -4.4148 2.3855
3.6052 -4.2656 2.3855
3.7410 -4.1126 2.3855
3.8712 -3.9559 2.3855
3.9958 -3.7959 2.3855
4.1148 -3.6326 2.3855
4.2280 -3.4662 2.3855
4.3355 -3.2969 2.3855
4.4373 -3.1248 2.3855
4.5331 -2.9503 2.3855
4.6232 -2.7733 2.3855
4.7074 -2.5941 2.3855
4.7856 -2.4129 2.3855
4.8579 -2.2298 2.3855
4.9243 -2.0449 2.3855
4.9847 -1.8585 2.3855
5.0392 -1.6707 2.3855
5.0876 -1.4816 2.3855
5.1301 -1.2915 2.3855
5.1665 -1.1004 2.3855
5.1969 -0.9084 2.3855
5.2213 -0.7159 2.3855
5.2397 -0.5229 2.3855
5.2521 -0.3295 2.3855
5.2584 -0.1359 2.3855
5.2587 0.0577 2.3855
5.2530 0.2512 2.3855
5.2413 0.4445 2.3855
5.2235 0.6374 2.3855
5.1998 0.8297 2.3855
5.1700 1.0213 2.3855
5.1343 1.2120 2.3855
5.0926 1.4018 2.3855
5.0450 1.5904 2.3855
4.9914 1.7777 2.3855
4.9319 1.9636 2.3855
4.8664 2.1479 2.3855
4.7951 2.3304 2.3855
4.7180 2.5110 2.3855
4.6350 2.6895 2.3855
4.5462 2.8657 2.3855
4.4516 3.0396 2.3855
4.3513 3.2109 2.3855
4.2453 3.3795 2.3855
4.1336 3.5452 2.3855
4.0163 3.7078 2.3855
3.8935 3.8672 2.3855
3.7651 4.0232 2.3855
3.6313 4.1756 2.3855
3.4921 4.3243 2.3855
3.3476 4.4690 2.3855
3.1979 4.6096 2.3855
3.0429 4.7459 2.3855
2.8829 4.8777 2.3855
2.7179 5.0048 2.3855
2.5480 5.1271 2.3855
2.3733 5.2443 2.3855
2.1939 5.3562 2.3855
0.8445 2.2952 1.0023
0.7617 2.3264 0.9975
0.6778 2.3546 0.9926
0.5930 2.3797 0.9877
0.5073 2.4018 0.9827
0.4208 2.4207 0.9776
0.3337 2.4365 0.9725
0.2461 2.4492 0.9673
0.1581 2.4586 0.9621
0.0698 2.4649 0.9569
-0.0186 2.4680 0.9516
-0.1072 2.4679 0.9464
-0.1956 2.4646 0.9411
-0.2839 2.4581 0.9358
-0.3719 2.4484 0.9305
-0.4595 2.4355 0.9253
-0.5466 2.4194 0.9200
-0.6330 2.4003 0.9148
-0.7187 2.3780 0.9096
-0.8035 2.3526 0.9045
-0.8874 2.3242 0.8994
-2.5878 6.1158 2.3855
-2.8212 6.0578 2.3855
-3.0535 5.9908 2.3855
-3.2842 5.9148 2.3855
-3.5132 5.8297 2.3855
-3.7399 5.7356 2.3855
-3.9639 5.6323 2.3855
-4.1848 5.5201 2.3855
-4.4023 5.3988 2.3855
-4.6159 5.2686 2.3855
-4.8251 5.1295 2.3855
-5.0296 4.9818 2.3855
-5.2289 4.8254 2.3855
-5.4225 4.6606 2.3855
-5.6102 4.4875 2.3855
-5.7915 4.3064 2.3855
-5.9658 4.1175 2.3855
-6.1330 3.9210 2.3855
-6.2925 3.7172 2.3855
-6.4439 3.5065 2.3855
-6.5870 3.2891 2.3855
-6.7213 3.0654 2.3855
-6.8465 2.8358 2.3855
-6.9622 2.6006 2.3855
-7.0683 2.3603 2.3855
-7.1644 2.1153 2.3855
-7.2503 1.8660 2.3855
-7.3257 1.6130 2.3855
-7.3904 1.3567 2.3855
-7.4442 1.0975 2.3855
-7.4871 0.8361 2.3855
-7.5188 0.5729 2.3855
-7.5392 0.3084 2.3855
-7.5484 0.0432 2.3855
-7.5463 -0.2222 2.3855
-7.5329 -0.4873 2.3855
-7.5082 -0.7515 2.3855
-7.4723 -1.0143 2.3855
-7.4253 -1.2752 2.3855
-7.3672 -1.5337 2.3855
-7.2983 -1.7893 2.3855
-7.2187 -2.0414 2.3855
-7.1287 -2.2896 2.3855
-7.0284 -2.5334 2.3855
-6.9181 -2.7724 2.3855
-6.7981 -3.0061 2.3855
-6.6687 -3.2341 2.3855
-6.5303 -3.4561 2.3855
-6.3831 -3.6716 2.3855
-6.2276 -3.8803 2.3855
-6.0640 -4.0818 2.3855
-5.8929 -4.2759 2.3855
-5.7145 -4.4623 2.3855
-5.5293 -4.6407 2.3855
-5.3377 -4.8109 2.3855
-5.1402 -4.9727 2.3855
-4.9371 -5.1259 2.3855
-4.7290 -5.2704 2.3855
-4.5161 -5.4059 2.3855
-4.2991 -5.5325 2.3855
-4.0782 -5.6500 2.3855
-3.8539 -5.7583 2.3855
-3.6267 -5.8574 2.3855
-3.3970 -5.9474 2.3855
-3.1651 -6.0281 2.3855
-2.9315 -6.0996 2.3855
-2.6966 -6.1619 2.3855
-2.4608 -6.2152 2.3855
-2.2243 -6.2593 2.3855
-1.9877 -6.2946 2.3855
-1.7512 -6.3209 2.3855
-1.5153 -6.3385 2.3855
-1.2801 -6.3475 2.3855
-1.0462 -6.3479 2.3855
-0.8136 -6.3400 2.3855
-0.5829 -6.3239 2.3855
-0.3541 -6.2998 2.3855
-0.1277 -6.2678 2.3855
0.0962 -6.2280 2.3855
0.3173 -6.1808 2.3855
0.5353 -6.1262 2.3855
0.7501 -6.0644 2.3855
0.9614 -5.9957 2.3855
1.1690 -5.9203 2.3855
1.3728 -5.8382 2.3855
1.5726 -5.7498 2.3855
1.7682 -5.6553 2.3855
1.9594 -5.5548 2.3855
2.1462 -5.4485 2.3855
2.3283 -5.3366 2.3855
2.5057 -5.2194 2.3855
2.6782 -5.0971 2.3855
2.8457 -4.9697 2.3855
3.0081 -4.8376 2.3855
3.1654 -4.7010 2.3855
3.3174 -4.5599 2.3855
3.4641 -4.4147 2.3855
3.6053 -4.2655 2.3855
3.7411 -4.1125 2.3855
3.8713 -3.9558 2.3855
3.9959 -3.7958 2.3855
4.1149 -3.6324 2.3855
4.2281 -3.4660 2.3855
4.3356 -3.2967 2.3855
4.4373 -3.1247 2.3855
4.5332 -2.9501 2.3855
4.6233 -2.7732 2.3855
4.7074 -2.5940 2.3855
4.7857 -2.4128 2.3855
4.8580 -2.2297 2.3855
4.9244 -2.0448 2.3855
4.9848 -1.8584 2.3855
5.0392 -1.6706 2.3855
5.0877 -1.4815 2.3855
5.1301 -1.2913 2.3855
5.1665 -1.1002 2.3855
5.1969 -0.9083 2.3855
5.2214 -0.7158 2.3855
5.2397 -0.5227 2.3855
5.2521 -0.3293 2.3855
5.2584 -0.1358 2.3855
5.2587 0.0579 2.3855
5.2530 0.2514 2.3855
5.2412 0.4446 2.3855
5.2235 0.6375 2.3855
5.1998 0.8298 2.3855
5.1700 1.0214 2.3855
5.1343 1.2122 2.3855
5.0926 1.4019 2.3855
5.0449 1.5905 2.3855
4.9913 1.7779 2.3855
4.9318 1.9637 2.3855
4.8664 2.1480 2.3855
4.7951 2.3305 2.3855
4.7179 2.5111 2.3855
4.6349 2.6896 2.3855
4.5461 2.8658 2.3855
4.4515 3.0397 2.3855
4.3512 3.2110 2.3855
4.2452 3.3796 2.3855
4.1335 3.5453 2.3855
4.0163 3.7079 2.3855
3.8934 3.8673 2.3855
3.7650 4.0233 2.3855
3.6312 4.1757 2.3855
3.4920 4.3244 2.3855
3.3475 4.4691 2.3855
3.1977 4.6097 2.3855
3.0428 4.7460 2.3855
2.8828 4.8778 2.3855
2.7178 5.0049 2.3855
2.5479 5.1271 2.3855
2.3732 5.2443 2.3855
2.1938 5.3563 2.3855
0.8444 2.2952 1.0023
0.7616 2.3264 0.9975
0.6778 2.3546 0.9926
0.5929 2.3797 0.9877
0.5072 2.4018 0.9826
0.4208 2.4207 0.9776
0.3337 2.4365 0.9725
0.2461 2.4492 0.9673
0.1581 2.4586 0.9621
0.0698 2.4649 0.9569
-0.0187 2.4680 0.9516
-0.1072 2.4679 0.9464
-0.1957 2.4646 0.9411
-0.2840 2.4581 0.9358
-0.3720 2.4484 0.9305
-0.4596 2.4355 0.9253
-0.5466 2.4194 0.9200
-0.6331 2.4003 0.9148
-0.7188 2.3780 0.9096
-0.8036 2.3526 0.9045
-0.8874 2.3242 0.8994
-2.5880 6.1157 2.3855
-2.8213 6.0577 2.3855
-3.0536 5.9908 2.3855
-3.2844 5.9147 2.3855
-3.5133 5.8297 2.3855
-3.7400 5.7355 2.3855
-3.9640 5.6323 2.3855
-4.1850 5.5200 2.3855
-4.4024 5.3987 2.3855
-4.6160 5.2685 2.3855
-4.8252 5.1294 2.3855
-5.0297 4.9817 2.3855
-5.2290 4.8253 2.3855
-5.4227 4.6605 2.3855
-5.6104 4.4874 2.3855
-5.7916 4.3063 2.3855
-5.9660 4.1174 2.3855
-6.1331 3.9209 2.3855
-6.2926 3.7171 2.3855
-6.4440 3.5064 2.3855
-6.5870 3.2890 2.3855
-6.7213 3.0652 2.3855
-6.8465 2.8356 2.3855
-6.9623 2.6004 2.3855
-7.0684 2.3601 2.3855
-7.1645 2.1151 2.3855
-7.2503 1.8659 2.3855
-7.3257 1.6128 2.3855
-7.3904 1.3565 2.3855
-7.4442 1.0974 2.3855
-7.4871 0.8359 2.3855
-7.5188 0.5727 2.3855
-7.5393 0.3082 2.3855
-7.5485 0.0430 2.3855
-7.5463 -0.2224 2.3855
-7.5329 -0.4875 2.3855
-7.5082 -0.7517 2.3855
-7.4723 -1.0145 2.3855
-7.4252 -1.2754 2.3855
-7.3672 -1.5339 2.3855
-7.2983 -1.7895 2.3855
-7.2187 -2.0416 2.3855
-7.1286 -2.2898 2.3855
-7.0283 -2.5336 2.3855
-6.9180 -2.7726 2.3855
-6.7980 -3.0063 2.3855
-6.6687 -3.2343 2.3855
-6.5302 -3.4562 2.3855
-6.3830 -3.6717 2.3855
-6.2275 -3.8804 2.3855
-6.0639 -4.0819 2.3855
-5.8927 -4.2760 2.3855
-5.7144 -4.4624 2.3855
-5.5292 -4.6408 2.3855
-5.3376 -4.8110 2.3855
-5.1401 -4.9728 2.3855
-4.9370 -5.1260 2.3855
-4.7288 -5.2705 2.3855
-4.5160 -5.4060 2.3855
-4.2989 -5.5326 2.3855
-4.0780 -5.6500 2.3855
-3.8538 -5.7584 2.3855
-3.6266 -5.8575 2.3855
-3.3968 -5.9474 2.3855
-3.1650 -6.0281 2.3855
-2.9314 -6.0996 2.3855
-2.6964 -6.1620 2.3855
-2.4606 -6.2152 2.3855
-2.2242 -6.2594 2.3855
-1.9875 -6.2946 2.3855
-1.7511 -6.3209 2.3855
-1.5151 -6.3385 2.3855
-1.2800 -6.3475 2.3855
-1.0460 -6.3479 2.3855
-0.8135 -6.3400 2.3855
-0.5827 -6.3239 2.3855
-0.3540 -6.2998 2.3855
-0.1288 -5.8674 2.3855
0.0808 -5.8323 2.3855
0.2880 -5.7901 2.3855
0.4925 -5.7410 2.3855
0.6940 -5.6851 2.3855
0.8925 -5.6226 2.3855
1.0876 -5.5537 2.3855
1.2792 -5.4785 2.3855
1.4672 -5.3974 2.3855
1.6514 -5.3103 2.3855
1.8315 -5.2175 2.3855
2.0076 -5.1193 2.3855
2.1794 -5.0157 2.3855
2.3468 -4.9069 2.3855
2.5097 -4.7933 2.3855
2.6680 -4.6748 2.3855
2.8216 -4.5518 2.3855
2.9704 -4.4243 2.3855
3.1143 -4.2927 2.3855
3.2531 -4.1570 2.3855
3.3870 -4.0174 2.3855
3.5157 -3.8742 2.3855
3.6391 -3.7275 2.3855
3.7573 -3.5774 2.3855
3.8702 -3.4242 2.3855
3.9778 -3.2680 2.3855
4.0799 -3.1089 2.3855
4.1765 -2.9472 2.3855
4.2677 -2.7830 2.3855
4.3533 -2.6165 2.3855
4.4334 -2.4478 2.3855
4.5078 -2.2771 2.3855
4.5767 -2.1046 2.3855
4.6399 -1.9304 2.3855
4.6974 -1.7546 2.3855
4.7493 -1.5775 2.3855
4.7955 -1.3991 2.3855
4.8359 -1.2197 2.3855
4.8707 -1.0393 2.3855
4.8997 -0.8581 2.3855
4.9230 -0.6763 2.3855
4.9405 -0.4940 2.3855
4.9523 -0.3114 2.3855
4.9584 -0.1286 2.3855
4.9587 0.0543 2.3855
4.9534 0.2370 2.3855
4.9422 0.4196 2.3855
4.9254 0.6017 2.3855
4.9028 0.7833 2.3855
4.8745 0.9642 2.3855
4.8405 1.1443 2.3855
4.8009 1.3235 2.3855
4.7556 1.5015 2.3855
4.7046 1.6782 2.3855
4.6480 1.8535 2.3855
4.5858 2.0273 2.3855
4.5180 2.1993 2.3855
4.4446 2.3695 2.3855
4.3657 2.5377 2.3855
4.2813 2.7036 2.3855
4.1915 2.8673 2.3855
4.0962 3.0284 2.3855
3.9955 3.1869 2.3855
3.8895 3.3426 2.3855
3.7782 3.4953 2.3855
3.6617 3.6449 2.3855
3.5400 3.7912 2.3855
3.4131 3.9340 2.3855
3.2813 4.0732 2.3855
3.1444 4.2086 2.3855
3.0026 4.3399 2.3855
2.8560 4.4672 2.3855
2.7047 4.5901 2.3855
2.5487 4.7085 2.3855
2.3881 4.8223 2.3855
2.2232 4.9312 2.3855
0.8633 2.1163 1.0027
0.7869 2.1483 0.9983
0.7094 2.1775 0.9938
0.6309 2.2038 0.9892
0.5514 2.2274 0.9846
0.4712 2.2480 0.9799
0.3903 2.2657 0.9751
0.3088 2.2805 0.9704
0.2268 2.2923 0.9655
0.1444 2.3012 0.9607
0.0618 2.3070 0.9558
-0.0211 2.3099 0.9508
-0.1039 2.3098 0.9459
-0.1867 2.3067 0.9410
-0.2694 2.3006 0.9360
-0.3517 2.2915 0.9311
-0.4337 2.2795 0.9262
-0.5152 2.2645 0.9213
-0.5961 2.2465 0.9164
-0.6763 2.2256 0.9115
-0.7557 2.2019 0.9067
-0.8342 2.1753 0.9019
-0.9117 2.1459 0.8972
-2.6408 5.6493 2.3855
-2.8564 5.5848 2.3855
-3.0704 5.5119 2.3855
-3.2826 5.4306 2.3855
-3.4926 5.3410 2.3855
-3.6999 5.2429 2.3855
-3.9043 5.1366 2.3855
-4.1053 5.0220 2.3855
-4.3025 4.8992 2.3855
-4.4956 4.7682 2.3855
-4.6842 4.6293 2.3855
-4.8678 4.4826 2.3855
-5.0463 4.3281 2.3855
-5.2190 4.1661 2.3855
-5.3857 3.9968 2.3855
-5.5460 3.8203 2.3855
-5.6996 3.6370 2.3855
-5.8461 3.4471 2.3855
-5.9851 3.2508 2.3855
-6.1163 3.0485 2.3855
-6.2394 2.8405 2.3855
-6.3541 2.6272 2.3855
-6.4602 2.4088 2.3855
-6.5573 2.1858 2.3855
-6.6453 1.9586 2.3855
-6.7238 1.7275 2.3855
-6.7928 1.4930 2.3855
-6.8519 1.2555 2.3855
-6.9011 1.0156 2.3855
-6.9402 0.7735 2.3855
-6.9691 0.5299 2.3855
-6.9878 0.2851 2.3855
-6.9961 0.0397 2.3855
-6.9941 -0.2060 2.3855
-6.9817 -0.4513 2.3855
-6.9591 -0.6958 2.3855
-6.9261 -0.9391 2.3855
-6.8830 -1.1806 2.3855
-6.8298 -1.4200 2.3855
-6.7666 -1.6567 2.3855
-6.6937 -1.8903 2.3855
-6.6112 -2.1203 2.3855
-6.5192 -2.3464 2.3855
-6.4181 -2.5681 2.3855
-6.3081 -2.7851 2.3855
-6.1894 -2.9969 2.3855
-6.0624 -3.2032 2.3855
-5.9273 -3.4037 2.3855
-5.7844 -3.5980 2.3855
-5.6341 -3.7858 2.3855
-5.4768 -3.9668 2.3855
-5.3127 -4.1409 2.3855
-5.1423 -4.3076 2.3855
-4.9659 -4.4669 2.3855
-4.7840 -4.6185 2.3855
-4.5968 -4.7623 2.3855
-4.4048 -4.8981 2.3855
-4.2083 -5.0257 2.3855
-4.0078 -5.1451 2.3855
-3.8037 -5.2562 2.3855
-3.5963 -5.3588 2.3855
-3.3860 -5.4530 2.3855
-3.1732 -5.5387 2.3855
-2.9583 -5.6159 2.3855
-2.7417 -5.6846 2.3855
-2.5236 -5.7448 2.3855
-2.3046 -5.7966 2.3855
-2.0848 -5.8400 2.3855
-1.8647 -5.8750 2.3855
-1.6445 -5.9018 2.3855
-1.4247 -5.9205 2.3855
-1.2055 -5.9311 2.3855
-0.9872 -5.9337 2.3855
-0.7701 -5.9285 2.3855
-0.5544 -5.9156 2.3855
-0.3406 -5.8952 2.3855
-0.1287 -5.8674 2.3855
0.0810 -5.8323 2.3855
0.2881 -5.7901 2.3855
0.4926 -5.7409 2.3855
0.6942 -5.6850 2.3855
0.8926 -5.6225 2.3855
1.0877 -5.5536 2.3855
1.2794 -5.4785 2.3855
1.4673 -5.3973 2.3855
1.6515 -5.3102 2.3855
1.8317 -5.2175 2.3855
2.0077 -5.1192 2.3855
2.1795 -5.0156 2.3855
2.3469 -4.9069 2.3855
2.5098 -4.7932 2.3855
2.6681 -4.6747 2.3855
2.8217 -4.5517 2.3855
2.9705 -4.4243 2.3855
3.1144 -4.2926 2.3855
3.2532 -4.1569 2.3855
3.3871 -4.0174 2.3855
3.5157 -3.8741 2.3855
3.6392 -3.7274 2.3855
3.7574 -3.5773 2.3855
3.8703 -3.4241 2.3855
3.9778 -3.2678 2.3855
4.0799 -3.1088 2.3855
4.1766 -2.9471 2.3855
4.2677 -2.7829 2.3855
4.3534 -2.6164 2.3855
4.4334 -2.4477 2.3855
4.5079 -2.2770 2.3855
4.5767 -2.1045 2.3855
4.6399 -1.9303 2.3855
4.6974 -1.7545 2.3855
4.7493 -1.5774 2.3855
4.7955 -1.3990 2.3855
4.8359 -1.2195 2.3855
4.8707 -1.0392 2.3855
4.8997 -0.8580 2.3855
4.9230 -0.6762 2.3855
4.9405 -0.4939 2.3855
4.9523 -0.3113 2.3855
4.9584 -0.1285 2.3855
4.9587 0.0544 2.3855
4.9533 0.2372 2.3855
4.9422 0.4197 2.3855
4.9254 0.6018 2.3855
4.9028 0.7834 2.3855
4.8745 0.9644 2.3855
4.8405 1.1444 2.3855
4.8009 1.3236 2.3855
4.7555 1.5016 2.3855
4.7046 1.6783 2.3855
4.6479 1.8536 2.3855
4.5857 2.0274 2.3855
4.5179 2.1994 2.3855
4.4446 2.3696 2.3855
4.3657 2.5378 2.3855
4.2813 2.7037 2.3855
4.1914 2.8674 2.3855
4.0961 3.0285 2.3855
3.9954 3.1870 2.3855
3.8894 3.3427 2.3855
3.7781 3.4954 2.3855
3.6616 3.6450 2.3855
3.5399 3.7913 2.3855
3.4131 3.9341 2.3855
3.2812 4.0733 2.3855
3.1443 4.2086 2.3855
3.0025 4.3400 2.3855
2.8559 4.4673 2.3855
2.7045 4.5902 2.3855
2.5486 4.7086 2.3855
2.3880 4.8223 2.3855
2.2231 4.9312 2.3855
0.8632 2.1164 1.0027
0.7868 2.1483 0.9983
0.7093 2.1775 0.9938
0.6308 2.2039 0.9892
0.5514 2.2274 0.9846
0.4712 2.2480 0.9799
0.3902 2.2657 0.9751
0.3087 2.2805 0.9704
0.2267 2.2923 0.9655
0.1443 2.3012 0.9607
0.0617 2.3070 0.9558
-0.0211 2.3099 0.9508
-0.1040 2.3098 0.9459
-0.1868 2.3067 0.9410
-0.2694 2.3006 0.9360
-0.3518 2.2915 0.9311
-0.4338 2.2795 0.9262
-0.5152 2.2644 0.9213
-0.5962 2.2465 0.9164
-0.6764 2.2256 0.9115
-0.7558 2.2019 0.9067
-0.8342 2.1753 0.9019
-0.9117 2.1459 0.8972
-2.6409 5.6493 2.3855
-2.8565 5.5848 2.3855
-3.0706 5.5119 2.3855
-3.2828 5.4306 2.3855
-3.4927 5.3409 2.3855
-3.7001 5.2429 2.3855
-3.9044 5.1365 2.3855
-4.1054 5.0219 2.3855
-4.3026 4.8991 2.3855
-4.4957 4.7682 2.3855
-4.6843 4.6292 2.3855
-4.8680 4.4825 2.3855
-5.0464 4.3280 2.3855
-5.2191 4.1660 2.3855
-5.3858 3.9967 2.3855
-5.5462 3.8202 2.3855
-5.6997 3.6369 2.3855
-5.8462 3.4470 2.3855
-5.9851 3.2507 2.3855
-6.1164 3.0484 2.3855
-6.2395 2.8404 2.3855
-6.3542 2.6270 2.3855
-6.4603 2.4087 2.3855
-6.5574 2.1856 2.3855
-6.6453 1.9584 2.3855
-6.7239 1.7273 2.3855
-6.7928 1.4928 2.3855
-6.8519 1.2554 2.3855
-6.9011 1.0154 2.3855
-6.9402 0.7734 2.3855
-6.9691 0.5297 2.3855
-6.9878 0.2849 2.3855
-6.9961 0.0395 2.3855
-6.9941 -0.2061 2.3855
-6.9817 -0.4514 2.3855
-6.9590 -0.6959 2.3855
-6.9261 -0.9392 2.3855
-6.8830 -1.1808 2.3855
-6.8297 -1.4201 2.3855
-6.7666 -1.6568 2.3855
-6.6936 -1.8904 2.3855
-6.6111 -2.1205 2.3855
-6.5192 -2.3466 2.3855
-6.4181 -2.5683 2.3855
-6.3080 -2.7852 2.3855
-6.1894 -2.9970 2.3855
-6.0623 -3.2034 2.3855
-5.9272 -3.4038 2.3855
-5.7843 -3.5981 2.3855
-5.6340 -3.7859 2.3855
-5.4767 -3.9669 2.3855
-5.3126 -4.1410 2.3855
-5.1422 -4.3077 2.3855
-4.9658 -4.4670 2.3855
-4.7838 -4.6186 2.3855
-4.5967 -4.7624 2.3855
-4.4046 -4.8982 2.3855
-4.2082 -5.0258 2.3855
-4.0077 -5.1452 2.3855
-3.8036 -5.2562 2.3855
-3.5962 -5.3589 2.3855
-3.3859 -5.4531 2.3855
-3.1731 -5.5387 2.3855
-2.9582 -5.6159 2.3855
-2.7415 -5.6846 2.3855
-2.5235 -5.7449 2.3855
-2.3044 -5.7966 2.3855
-2.0846 -5.8400 2.3855
-1.8645 -5.8751 2.3855
-1.6444 -5.9019 2.3855
-1.4246 -5.9205 2.3855
-1.2053 -5.9311 2.3855
-0.9871 -5.9337 2.3855
-0.7699 -5.9285 2.3855
-0.5543 -5.9156 2.3855
-0.3404 -5.8952 2.3855
-0.1297 -5.5089 2.3855
0.0672 -5.4777 2.3855
0.2619 -5.4398 2.3855
0.4542 -5.3954 2.3855
0.6439 -5.3445 2.3855
0.8307 -5.2874 2.3855
1.0145 -5.2242 2.3855
1.1952 -5.1550 2.3855
1.3725 -5.0801 2.3855
1.5463 -4.9996 2.3855
1.7164 -4.9136 2.3855
1.8828 -4.8224 2.3855
2.0452 -4.7261 2.3855
2.2036 -4.6249 2.3855
2.3577 -4.5189 2.3855
2.5076 -4.4083 2.3855
2.6531 -4.2933 2.3855
2.7941 -4.1741 2.3855
2.9305 -4.0508 2.3855
3.0623 -3.9236 2.3855
3.1893 -3.7927 2.3855
3.3115 -3.6583 2.3855
3.4288 -3.5204 2.3855
3.5411 -3.3793 2.3855
3.6484 -3.2352 2.3855
3.7507 -3.0881 2.3855
3.8478 -2.9383 2.3855
3.9398 -2.7859 2.3855
4.0266 -2.6311 2.3855
4.1081 -2.4741 2.3855
4.1844 -2.3149 2.3855
4.2553 -2.1537 2.3855
4.3209 -1.9908 2.3855
4.3812 -1.8262 2.3855
4.4360 -1.6601 2.3855
4.4855 -1.4927 2.3855
4.5296 -1.3240 2.3855
4.5682 -1.1543 2.3855
4.6014 -0.9837 2.3855
4.6291 -0.8123 2.3855
4.6513 -0.6403 2.3855
4.6681 -0.4678 2.3855
4.6794 -0.2950 2.3855
4.6853 -0.1219 2.3855
4.6856 0.0511 2.3855
4.6805 0.2241 2.3855
4.6699 0.3969 2.3855
4.6539 0.5692 2.3855
4.6324 0.7411 2.3855
4.6055 0.9123 2.3855
4.5731 1.0827 2.3855
4.5354 1.2521 2.3855
4.4922 1.4205 2.3855
4.4436 1.5876 2.3855
4.3897 1.7534 2.3855
4.3305 1.9176 2.3855
4.2659 2.0802 2.3855
4.1960 2.2409 2.3855
4.1209 2.3997 2.3855
4.0406 2.5563 2.3855
3.9551 2.7107 2.3855
3.8645 2.8627 2.3855
3.7687 3.0121 2.3855
3.6680 3.1587 2.3855
3.5622 3.3025 2.3855
3.4514 3.4433 2.3855
3.3358 3.5808 2.3855
3.2154 3.7150 2.3855
3.0902 3.8457 2.3855
2.9603 3.9727 2.3855
2.8259 4.0959 2.3855
2.6869 4.2150 2.3855
2.5435 4.3300 2.3855
2.3957 4.4407 2.3855
2.2437 4.5469 2.3855
2.0876 4.6484 2.3855
0.8071 1.9868 0.9988
0.7353 2.0168 0.9947
0.6625 2.0442 0.9905
0.5888 2.0689 0.9862
0.5143 2.0910 0.9818
0.4389 2.1103 0.9774
0.3630 2.1270 0.9730
0.2864 2.1408 0.9685
0.2094 2.1519 0.9639
0.1321 2.1602 0.9594
0.0545 2.1657 0.9548
-0.0232 2.1684 0.9502
-0.1010 2.1683 0.9455
-0.1787 2.1654 0.9409
-0.2563 2.1597 0.9363
-0.3336 2.1511 0.9316
-0.4106 2.1398 0.9270
-0.4871 2.1257 0.9224
-0.5631 2.1089 0.9178
-0.6384 2.0893 0.9132
-0.7129 2.0670 0.9087
-0.7866 2.0420 0.9042
-0.8593 2.0144 0.8998
-0.9310 1.9842 0.8954
-2.6813 5.2241 2.3855
-2.8806 5.1542 2.3855
-3.0781 5.0766 2.3855
-3.2734 4.9911 2.3855
-3.4661 4.8980 2.3855
-3.6559 4.7971 2.3855
-3.8425 4.6886 2.3855
-4.0254 4.5725 2.3855
-4.2044 4.4490 2.3855
-4.3792 4.3181 2.3855
-4.5493 4.1800 2.3855
-4.7144 4.0349 2.3855
-4.8742 3.8828 2.3855
-5.0283 3.7240 2.3855
-5.1764 3.5587 2.3855
-5.3182 3.3871 2.3855
-5.4534 3.2095 2.3855
-5.5816 3.0261 2.3855
-5.7026 2.8371 2.3855
-5.8161 2.6430 2.3855
-5.9219 2.4440 2.3855
-6.0195 2.2405 2.3855
-6.1089 2.0327 2.3855
-6.1899 1.8211 2.3855
-6.2621 1.6060 2.3855
-6.3255 1.3878 2.3855
-6.3799 1.1669 2.3855
-6.4251 0.9437 2.3855
-6.4610 0.7187 2.3855
-6.4875 0.4922 2.3855
-6.5046 0.2647 2.3855
-6.5122 0.0366 2.3855
-6.5103 -0.1917 2.3855
-6.4988 -0.4197 2.3855
-6.4779 -0.6470 2.3855
-6.4475 -0.8731 2.3855
-6.4078 -1.0977 2.3855
-6.3588 -1.3202 2.3855
-6.3006 -1.5404 2.3855
-6.2334 -1.7577 2.3855
-6.1573 -1.9719 2.3855
-6.0726 -2.1824 2.3855
-5.9794 -2.3889 2.3855
-5.8780 -2.5911 2.3855
-5.7686 -2.7886 2.3855
-5.6514 -2.9811 2.3855
-5.5267 -3.1682 2.3855
-5.3948 -3.3498 2.3855
-5.2560 -3.5254 2.3855
-5.1106 -3.6948 2.3855
-4.9590 -3.8578 2.3855
-4.8014 -4.0142 2.3855
-4.6382 -4.1637 2.3855
-4.4698 -4.3062 2.3855
-4.2964 -4.4414 2.3855
-4.1185 -4.5693 2.3855
-3.9363 -4.6898 2.3855
-3.7504 -4.8026 2.3855
-3.5608 -4.9077 2.3855
-3.3682 -5.0051 2.3855
-3.1728 -5.0947 2.3855
-2.9749 -5.1764 2.3855
-2.7749 -5.2503 2.3855
-2.5731 -5.3162 2.3855
-2.3700 -5.3743 2.3855
-2.1657 -5.4245 2.3855
-1.9607 -5.4669 2.3855
-1.7551 -5.5016 2.3855
-1.5495 -5.5285 2.3855
-1.3440 -5.5478 2.3855
-1.1389 -5.5596 2.3855
-0.9345 -5.5639 2.3855
-0.7312 -5.5609 2.3855
-0.5290 -5.5506 2.3855
-0.3284 -5.5333 2.3855
-0.1296 -5.5089 2.3855
0.0673 -5.4777 2.3855
0.2620 -5.4398 2.3855
0.4543 -5.3954 2.3855
0.6440 -5.3445 2.3855
0.8308 -5.2874 2.3855
1.0146 -5.2241 2.3855
1.1953 -5.1550 2.3855
1.3726 -5.0801 2.3855
1.5464 -4.9995 2.3855
1.7166 -4.9136 2.3855
1.8829 -4.8223 2.3855
2.0453 -4.7260 2.3855
2.2037 -4.6248 2.3855
2.3578 -4.5188 2.3855
2.5077 -4.4082 2.3855
2.6532 -4.2932 2.3855
2.7942 -4.1740 2.3855
2.9306 -4.0507 2.3855
3.0624 -3.9236 2.3855
3.1894 -3.7926 2.3855
3.3116 -3.6582 2.3855
3.4288 -3.5203 2.3855
3.5412 -3.3792 2.3855
3.6485 -3.2351 2.3855
3.7508 -3.0880 2.3855
3.8479 -2.9382 2.3855
3.9399 -2.7858 2.3855
4.0266 -2.6310 2.3855
4.1082 -2.4740 2.3855
4.1844 -2.3148 2.3855
4.2554 -2.1536 2.3855
4.3210 -1.9907 2.3855
4.3812 -1.8261 2.3855
4.4361 -1.6600 2.3855
4.4855 -1.4926 2.3855
4.5296 -1.3239 2.3855
4.5682 -1.1542 2.3855
4.6014 -0.9836 2.3855
4.6291 -0.8122 2.3855
4.6513 -0.6402 2.3855
4.6681 -0.4677 2.3855
4.6794 -0.2948 2.3855
4.6853 -0.1218 2.3855
4.6856 0.0513 2.3855
4.6805 0.2242 2.3855
4.6699 0.3970 2.3855
4.6539 0.5694 2.3855
4.6324 0.7412 2.3855
4.6055 0.9124 2.3855
4.5731 1.0828 2.3855
4.5353 1.2523 2.3855
4.4922 1.4206 2.3855
4.4436 1.5877 2.3855
4.3897 1.7535 2.3855
4.3304 1.9177 2.3855
4.2658 2.0803 2.3855
4.1960 2.2410 2.3855
4.1209 2.3998 2.3855
4.0406 2.5564 2.3855
3.9551 2.7108 2.3855
3.8644 2.8628 2.3855
3.7687 3.0121 2.3855
3.6679 3.1588 2.3855
3.5621 3.3026 2.3855
3.4514 3.4433 2.3855
3.3358 3.5809 2.3855
3.2153 3.7151 2.3855
3.0901 3.8458 2.3855
2.9602 3.9728 2.3855
2.8258 4.0959 2.3855
2.6868 4.2151 2.3855
2.5434 4.3301 2.3855
2.3956 4.4408 2.3855
2.2436 4.5470 2.3855
2.0875 4.6485 2.3855
0.8070 1.9868 0.9988
0.7353 2.0168 0.9947
0.6625 2.0442 0.9905
0.5888 2.0689 0.9862
0.5142 2.0910 0.9818
0.4389 2.1103 0.9774
0.3629 2.1270 0.9730
0.2864 2.1408 0.9685
0.2094 2.1519 0.9639
0.1321 2.1602 0.9594
0.0545 2.1657 0.9548
-0.0233 2.1684 0.9502
-0.1011 2.1683 0.9455
-0.1788 2.1654 0.9409
-0.2564 2.1597 0.9362
-0.3337 2.1511 0.9316
-0.4107 2.1398 0.9270
-0.4872 2.1257 0.9224
-0.5631 2.1089 0.9178
-0.6384 2.0893 0.9132
-0.7129 2.0670 0.9087
-0.7866 2.0420 0.9042
-0.8594 2.0144 0.8998
-0.9310 1.9842 0.8954
-2.6814 5.2241 2.3855
-2.8808 5.1542 2.3855
-3.0782 5.0765 2.3855
-3.2735 4.9911 2.3855
-3.4662 4.8979 2.3855
-3.6560 4.7970 2.3855
-3.8426 4.6885 2.3855
-4.0255 4.5725 2.3855
-4.2046 4.4489 2.3855
-4.3793 4.3180 2.3855
-4.5494 4.1799 2.3855
-4.7145 4.0348 2.3855
-4.8743 3.8827 2.3855
-5.0284 3.7239 2.3855
-5.1765 3.5586 2.3855
-5.3183 3.3870 2.3855
-5.4535 3.2093 2.3855
-5.5817 3.0259 2.3855
-5.7027 2.8370 2.3855
-5.8162 2.6429 2.3855
-5.9219 2.4439 2.3855
-6.0196 2.2403 2.3855
-6.1090 2.0326 2.3855
-6.1899 1.8209 2.3855
-6.2622 1.6058 2.3855
-6.3256 1.3876 2.3855
-6.3799 1.1668 2.3855
-6.4251 0.9436 2.3855
-6.4610 0.7185 2.3855
-6.4875 0.4920 2.3855
-6.5046 0.2645 2.3855
-6.5122 0.0364 2.3855
-6.5103 -0.1919 2.3855
-6.4988 -0.4198 2.3855
-6.4779 -0.6471 2.3855
-6.4475 -0.8733 2.3855
-6.4077 -1.0978 2.3855
-6.3587 -1.3204 2.3855
-6.3005 -1.5405 2.3855
-6.2333 -1.7579 2.3855
-6.1573 -1.9720 2.3855
-6.0725 -2.1825 2.3855
-5.9794 -2.3890 2.3855
-5.8779 -2.5912 2.3855
-5.7685 -2.7887 2.3855
-5.6513 -2.9812 2.3855
-5.5266 -3.1684 2.3855
-5.3947 -3.3499 2.3855
-5.2559 -3.5255 2.3855
-5.1105 -3.6949 2.3855
-4.9589 -3.8579 2.3855
-4.8013 -4.0143 2.3855
-4.6381 -4.1638 2.3855
-4.4697 -4.3063 2.3855
-4.2963 -4.4415 2.3855
-4.1184 -4.5694 2.3855
-3.9362 -4.6898 2.3855
-3.7502 -4.8027 2.3855
-3.5607 -4.9078 2.3855
-3.3681 -5.0052 2.3855
-3.1726 -5.0948 2.3855
-2.9748 -5.1765 2.3855
-2.7748 -5.2503 2.3855
-2.5730 -5.3163 2.3855
-2.3698 -5.3743 2.3855
-2.1656 -5.4246 2.3855
-1.9605 -5.4670 2.3855
-1.7550 -5.5016 2.3855
-1.5494 -5.5285 2.3855
-1.3439 -5.5478 2.3855
-1.1388 -5.5596 2.3855
-0.9344 -5.5639 2.3855
-0.7310 -5.5609 2.3855
-0.5289 -5.5506 2.3855
-0.3283 -5.5333 2.3855
-0.1305 -5.1859 2.3855
0.0549 -5.1580 2.3855
0.2384 -5.1238 2.3855
0.4196 -5.0834 2.3855
0.5985 -5.0368 2.3855
0.7749 -4.9844 2.3855
0.9484 -4.9261 2.3855
1.1191 -4.8622 2.3855
1.2867 -4.7928 2.3855
1.4511 -4.7181 2.3855
1.6121 -4.6382 2.3855
1.7696 -4.5532 2.3855
1.9234 -4.4633 2.3855
2.0735 -4.3688 2.3855
2.2197 -4.2696 2.3855
2.3619 -4.1661 2.3855
2.4999 -4.0583 2.3855
2.6338 -3.9465 2.3855
2.7634 -3.8307 2.3855
2.8886 -3.7112 2.3855
3.0093 -3.5881 2.3855
3.1255 -3.4615 2.3855
3.2370 -3.3317 2.3855
3.3440 -3.1987 2.3855
3.4461 -3.0628 2.3855
3.5435 -2.9240 2.3855
3.6360 -2.7826 2.3855
3.7237 -2.6387 2.3855
3.8064 -2.4924 2.3855
3.8841 -2.3439 2.3855
3.9569 -2.1934 2.3855
4.0246 -2.0410 2.3855
4.0872 -1.8868 2.3855
4.1447 -1.7310 2.3855
4.1971 -1.5737 2.3855
4.2443 -1.4151 2.3855
4.2864 -1.2553 2.3855
4.3233 -1.0945 2.3855
4.3550 -0.9328 2.3855
4.3815 -0.7704 2.3855
4.4028 -0.6073 2.3855
4.4188 -0.4438 2.3855
4.4296 -0.2799 2.3855
4.4353 -0.1158 2.3855
4.4356 0.0483 2.3855
4.4308 0.2123 2.3855
4.4207 0.3761 2.3855
4.4055 0.5395 2.3855
4.3850 0.7025 2.3855
4.3593 0.8648 2.3855
4.3284 1.0263 2.3855
4.2924 1.1869 2.3855
4.2512 1.3464 2.3855
4.2049 1.5048 2.3855
4.1535 1.6618 2.3855
4.0970 1.8173 2.3855
4.0354 1.9712 2.3855
3.9688 2.1233 2.3855
3.8973 2.2735 2.3855
3.8207 2.4217 2.3855
3.7392 2.5677 2.3855
3.6529 2.7113 2.3855
3.5617 2.8524 2.3855
3.4657 2.9909 2.3855
3.3651 3.1266 2.3855
3.2597 3.2593 2.3855
3.1497 3.3890 2.3855
3.0352 3.5154 2.3855
2.9161 3.6384 2.3855
2.7927 3.7579 2.3855
2.6650 3.8737 2.3855
2.5330 3.9856 2.3855
2.3968 4.0935 2.3855
2.2567 4.1972 2.3855
2.1125 4.2967 2.3855
0.8228 1.8394 0.9992
0.7564 1.8701 0.9953
0.6888 1.8983 0.9914
0.6203 1.9240 0.9875
0.5509 1.9473 0.9834
0.4807 1.9681 0.9793
0.4098 1.9863 0.9752
0.3383 2.0019 0.9710
0.2663 2.0150 0.9668
0.1938 2.0254 0.9625
0.1210 2.0332 0.9582
0.0480 2.0384 0.9539
-0.0252 2.0409 0.9495
-0.0984 2.0408 0.9452
-0.1715 2.0381 0.9408
-0.2446 2.0327 0.9364
-0.3173 2.0247 0.9321
-0.3898 2.0140 0.9277
-0.4618 2.0007 0.9234
-0.5333 1.9849 0.9191
-0.6041 1.9664 0.9148
-0.6743 1.9455 0.9105
-0.7437 1.9220 0.9063
-0.8121 1.8960 0.9021
-0.8796 1.8675 0.8980
-0.9460 1.8366 0.8939
-2.7108 4.8343 2.3855
-2.8953 4.7601 2.3855
-3.0775 4.6786 2.3855
-3.2573 4.5899 2.3855
-3.4343 4.4941 2.3855
-3.6081 4.3913 2.3855
-3.7785 4.2814 2.3855
-3.9451 4.1646 2.3855
-4.1076 4.0411 2.3855
-4.2658 3.9108 2.3855
-4.4192 3.7740 2.3855
-4.5676 3.6309 2.3855
-4.7107 3.4816 2.3855
-4.8481 3.3263 2.3855
-4.9797 3.1652 2.3855
-5.1050 2.9986 2.3855
-5.2238 2.8267 2.3855
-5.3359 2.6497 2.3855
-5.4410 2.4680 2.3855
-5.5388 2.2818 2.3855
-5.6292 2.0914 2.3855
-5.7119 1.8971 2.3855
-5.7868 1.6994 2.3855
-5.8536 1.4985 2.3855
-5.9121 1.2947 2.3855
-5.9623 1.0885 2.3855
-6.0040 0.8802 2.3855
-6.0372 0.6702 2.3855
-6.0616 0.4589 2.3855
-6.0774 0.2466 2.3855
-6.0843 0.0338 2.3855
-6.0825 -0.1791 2.3855
-6.0719 -0.3918 2.3855
-6.0525 -0.6038 2.3855
-6.0243 -0.8148 2.3855
-5.9875 -1.0243 2.3855
-5.9422 -1.2320 2.3855
-5.8883 -1.4375 2.3855
-5.8261 -1.6405 2.3855
-5.7557 -1.8405 2.3855
-5.6773 -2.0372 2.3855
-5.5910 -2.2302 2.3855
-5.4971 -2.4193 2.3855
-5.3957 -2.6041 2.3855
-5.2871 -2.7842 2.3855
-5.1715 -2.9595 2.3855
-5.0492 -3.1296 2.3855
-4.9205 -3.2943 2.3855
-4.7856 -3.4534 2.3855
-4.6449 -3.6065 2.3855
-4.4985 -3.7535 2.3855
-4.3469 -3.8941 2.3855
-4.1903 -4.0283 2.3855
-4.0291 -4.1559 2.3855
-3.8636 -4.2767 2.3855
-3.6941 -4.3905 2.3855
-3.5208 -4.4973 2.3855
-3.3443 -4.5970 2.3855
-3.1647 -4.6895 2.3855
-2.9824 -4.7748 2.3855
-2.7977 -4.8528 2.3855
-2.6109 -4.9234 2.3855
-2.4224 -4.9867 2.3855
-2.2324 -5.0426 2.3855
-2.0414 -5.0913 2.3855
-1.8494 -5.1326 2.3855
-1.6569 -5.1667 2.3855
-1.4642 -5.1935 2.3855
-1.2715 -5.2132 2.3855
-1.0791 -5.2258 2.3855
-0.8872 -5.2315 2.3855
-0.6962 -5.2302 2.3855
-0.5062 -5.2221 2.3855
-0.3175 -5.2073 2.3855
-0.1303 -5.1859 2.3855
0.0551 -5.1580 2.3855
0.2385 -5.1238 2.3855
0.4197 -5.0833 2.3855
0.5986 -5.0368 2.3855
0.7750 -4.9844 2.3855
0.9486 -4.9261 2.3855
1.1192 -4.8622 2.3855
1.2868 -4.7928 2.3855
1.4512 -4.7180 2.3855
1.6122 -4.6381 2.3855
1.7697 -4.5531 2.3855
1.9235 -4.4633 2.3855
2.0736 -4.3687 2.3855
2.2198 -4.2696 2.3855
2.3620 -4.1660 2.3855
2.5000 -4.0583 2.3855
2.6339 -3.9464 2.3855
2.7635 -3.8306 2.3855
2.8886 -3.7111 2.3855
3.0094 -3.5880 2.3855
3.1255 -3.4614 2.3855
3.2371 -3.3316 2.3855
3.3440 -3.1986 2.3855
3.4462 -3.0627 2.3855
3.5436 -2.9239 2.3855
3.6361 -2.7825 2.3855
3.7237 -2.6386 2.3855
3.8065 -2.4923 2.3855
3.8842 -2.3438 2.3855
3.9569 -2.1933 2.3855
4.0246 -2.0409 2.3855
4.0872 -1.8867 2.3855
4.1447 -1.7309 2.3855
4.1971 -1.5736 2.3855
4.2443 -1.4150 2.3855
4.2864 -1.2552 2.3855
4.3233 -1.0944 2.3855
4.3550 -0.9327 2.3855
4.3815 -0.7703 2.3855
4.4028 -0.6072 2.3855
4.4188 -0.4437 2.3855
4.4297 -0.2798 2.3855
4.4353 -0.1157 2.3855
4.4356 0.0484 2.3855
4.4308 0.2124 2.3855
4.4207 0.3762 2.3855
4.4055 0.5396 2.3855
4.3850 0.7026 2.3855
4.3593 0.8649 2.3855
4.3284 1.0264 2.3855
4.2924 1.1870 2.3855
4.2512 1.3465 2.3855
4.2049 1.5049 2.3855
4.1535 1.6619 2.3855
4.0969 1.8174 2.3855
4.0354 1.9713 2.3855
3.9688 2.1234 2.3855
3.8972 2.2736 2.3855
3.8207 2.4218 2.3855
3.7392 2.5678 2.3855
3.6528 2.7114 2.3855
3.5617 2.8525 2.3855
3.4657 2.9910 2.3855
3.3650 3.1267 2.3855
3.2596 3.2594 2.3855
3.1496 3.3891 2.3855
3.0351 3.5155 2.3855
2.9161 3.6385 2.3855
2.7926 3.7580 2.3855
2.6649 3.8737 2.3855
2.5329 3.9857 2.3855
2.3967 4.0936 2.3855
2.2566 4.1973 2.3855
2.1124 4.2967 2.3855
0.8228 1.8394 0.9992
0.7563 1.8701 0.9953
0.6888 1.8983 0.9914
0.6203 1.9241 0.9875
0.5509 1.9473 0.9834
0.4807 1.9681 0.9793
0.4098 1.9863 0.9752
0.3383 2.0019 0.9710
0.2663 2.0150 0.9668
0.1938 2.0254 0.9625
0.1210 2.0332 0.9582
0.0480 2.0384 0.9539
-0.0252 2.0409 0.9495
-0.0984 2.0408 0.9452
-0.1716 2.0381 0.9408
-0.2446 2.0327 0.9364
-0.3174 2.0246 0.9321
-0.3898 2.0140 0.9277
-0.4618 2.0007 0.9234
-0.5333 1.9849 0.9191
-0.6042 1.9664 0.9148
-0.6744 1.9454 0.9105
-0.7437 1.9219 0.9063
-0.8122 1.8959 0.9021
-0.8797 1.8675 0.8980
-0.9461 1.8366 0.8939
-2.7110 4.8343 2.3855
-2.8954 4.7600 2.3855
-3.0777 4.6785 2.3855
-3.2574 4.5899 2.3855
-3.4344 4.4941 2.3855
-3.6082 4.3912 2.3855
-3.7786 4.2813 2.3855
-3.9452 4.1645 2.3855
-4.1077 4.0410 2.3855
-4.2659 3.9107 2.3855
-4.4193 3.7740 2.3855
-4.5677 3.6308 2.3855
-4.7108 3.4815 2.3855
-4.8482 3.3262 2.3855
-4.9797 3.1651 2.3855
-5.1051 2.9985 2.3855
-5.2239 2.8266 2.3855
-5.3360 2.6496 2.3855
-5.4411 2.4678 2.3855
-5.5389 2.2816 2.3855
-5.6293 2.0912 2.3855
-5.7120 1.8970 2.3855
-5.7868 1.6993 2.3855
-5.8536 1.4983 2.3855
-5.9121 1.2946 2.3855
-5.9623 1.0883 2.3855
-6.0041 0.8801 2.3855
-6.0372 0.6700 2.3855
-6.0616 0.4587 2.3855
-6.0774 0.2465 2.3855
-6.0843 0.0337 2.3855
-6.0825 -0.1793 2.3855
-6.0718 -0.3919 2.3855
-6.0525 -0.6040 2.3855
-6.0243 -0.8149 2.3855
-5.9875 -1.0245 2.3855
-5.9421 -1.2322 2.3855
-5.8883 -1.4377 2.3855
-5.8261 -1.6406 2.3855
-5.7557 -1.8406 2.3855
-5.6772 -2.0373 2.3855
-5.5910 -2.2303 2.3855
-5.4970 -2.4194 2.3855
-5.3956 -2.6042 2.3855
-5.2870 -2.7844 2.3855
-5.1714 -2.9596 2.3855
-5.0492 -3.1298 2.3855
-4.9204 -3.2944 2.3855
-4.7855 -3.4534 2.3855
-4.6448 -3.6066 2.3855
-4.4984 -3.7536 2.3855
-4.3468 -3.8942 2.3855
-4.1903 -4.0284 2.3855
-4.0290 -4.1560 2.3855
-3.8635 -4.2767 2.3855
-3.6940 -4.3906 2.3855
-3.5207 -4.4974 2.3855
-3.3442 -4.5971 2.3855
-3.1645 -4.6896 2.3855
-2.9822 -4.7748 2.3855
-2.7975 -4.8528 2.3855
-2.6108 -4.9234 2.3855
-2.4223 -4.9867 2.3855
-2.2323 -5.0427 2.3855
-2.0412 -5.0913 2.3855
-1.8493 -5.1326 2.3855
-1.6568 -5.1667 2.3855
-1.4641 -5.1935 2.3855
-1.2714 -5.2132 2.3855
-1.0789 -5.2259 2.3855
-0.8871 -5.2315 2.3855
-0.6960 -5.2302 2.3855
-0.5060 -5.2221 2.3855
-0.3174 -5.2073 2.3855
-0.1312 -4.8929 2.3855
0.0438 -4.8679 2.3855
0.2170 -4.8369 2.3855
0.3882 -4.8000 2.3855
0.5573 -4.7572 2.3855
0.7241 -4.7089 2.3855
0.8883 -4.6550 2.3855
1.0499 -4.5957 2.3855
1.2086 -4.5312 2.3855
1.3644 -4.4616 2.3855
1.5170 -4.3871 2.3855
1.6664 -4.3077 2.3855
1.8123 -4.2236 2.3855
1.9548 -4.1350 2.3855
2.0936 -4.0420 2.3855
