ply
format ascii 1.0
element vertex 2173
property float32 x
property float32 y
property float32 z
end_header
4.6152 -4.9069 2.3829
4.7933 -4.7432 2.3829
4.9655 -4.5729 2.3829
5.1316 -4.3964 2.3829
5.2913 -4.2138 2.3829
5.4443 -4.0253 2.3829
5.5906 -3.8313 2.3829
5.7297 -3.6318 2.3829
5.8617 -3.4273 2.3829
5.9861 -3.2179 2.3829
6.1029 -3.0039 2.3829
6.2119 -2.7857 2.3829
6.3130 -2.5634 2.3829
6.4058 -2.3374 2.3829
6.4904 -2.1080 2.3829
6.5666 -1.8756 2.3829
6.6342 -1.6403 2.3829
6.6932 -1.4026 2.3829
6.7434 -1.1627 2.3829
6.7848 -0.9210 2.3829
6.8173 -0.6778 2.3829
6.8408 -0.4335 2.3829
6.8554 -0.1884 2.3829
6.8608 0.0572 2.3829
6.8573 0.3030 2.3829
6.8447 0.5485 2.3829
6.8230 0.7934 2.3829
6.7922 1.0375 2.3829
6.7525 1.2803 2.3829
6.7039 1.5216 2.3829
6.6463 1.7609 2.3829
6.5799 1.9979 2.3829
6.5049 2.2324 2.3829
6.4212 2.4640 2.3829
6.3290 2.6923 2.3829
6.2284 2.9170 2.3829
6.1196 3.1379 2.3829
6.0027 3.3546 2.3829
5.8780 3.5668 2.3829
5.7454 3.7742 2.3829
5.6054 3.9766 2.3829
5.4580 4.1735 2.3829
5.3034 4.3649 2.3829
5.1420 4.5504 2.3829
4.9739 4.7298 2.3829
4.7993 4.9027 2.3829
4.6185 5.0691 2.3829
4.4319 5.2286 2.3829
4.2395 5.3811 2.3829
4.0418 5.5263 2.3829
3.8389 5.6640 2.3829
3.6313 5.7942 2.3829
3.4191 5.9165 2.3829
3.2028 6.0310 2.3829
2.9825 6.1373 2.3829
2.7585 6.2354 2.3829
2.5313 6.3252 2.3829
0.8966 2.4961 0.9285
0.8066 2.5267 0.9293
0.7155 2.5540 0.9301
0.6235 2.5780 0.9309
0.5307 2.5987 0.9318
0.4372 2.6160 0.9326
0.3431 2.6299 0.9335
0.2486 2.6404 0.9344
0.1537 2.6475 0.9353
0.0587 2.6511 0.9362
-0.0365 2.6514 0.9371
-0.1315 2.6481 0.9380
-0.2264 2.6415 0.9390
-0.3210 2.6314 0.9399
-0.4152 2.6179 0.9408
-0.5088 2.6010 0.9417
-0.6018 2.5807 0.9427
-0.6940 2.5571 0.9436
-0.7852 2.5302 0.9445
-0.8754 2.5000 0.9454
-2.4287 6.2110 2.3829
-2.6472 6.1129 2.3829
-2.8619 6.0071 2.3829
-3.0724 5.8938 2.3829
-3.2785 5.7732 2.3829
-3.4800 5.6454 2.3829
-3.6766 5.5106 2.3829
-3.8680 5.3690 2.3829
-4.0542 5.2208 2.3829
-4.2347 5.0662 2.3829
-4.4094 4.9055 2.3829
-4.5782 4.7388 2.3829
-4.7408 4.5663 2.3829
-4.8970 4.3884 2.3829
-5.0467 4.2052 2.3829
-5.1896 4.0170 2.3829
-5.3257 3.8240 2.3829
-5.4548 3.6264 2.3829
-5.5767 3.4246 2.3829
-5.6913 3.2188 2.3829
-5.7984 3.0092 2.3829
-5.8981 2.7962 2.3829
-5.9901 2.5799 2.3829
-6.0743 2.3607 2.3829
-6.1508 2.1388 2.3829
-6.2193 1.9145 2.3829
-6.2799 1.6881 2.3829
-6.3324 1.4598 2.3829
-6.3768 1.2299 2.3829
-6.4132 0.9988 2.3829
-6.4414 0.7667 2.3829
-6.4614 0.5338 2.3829
-6.4733 0.3004 2.3829
-6.4769 0.0669 2.3829
-6.4724 -0.1665 2.3829
-6.4597 -0.3995 2.3829
-6.4389 -0.6318 2.3829
-6.4100 -0.8632 2.3829
-6.3730 -1.0934 2.3829
-6.3280 -1.3221 2.3829
-6.2750 -1.5491 2.3829
-6.2141 -1.7740 2.3829
-6.1454 -1.9966 2.3829
-6.0690 -2.2167 2.3829
-5.9849 -2.4339 2.3829
-5.8933 -2.6481 2.3829
-5.7943 -2.8590 2.3829
-5.6880 -3.0662 2.3829
-5.5744 -3.2697 2.3829
-5.4538 -3.4691 2.3829
-5.3263 -3.6642 2.3829
-5.1920 -3.8547 2.3829
-5.0511 -4.0405 2.3829
-4.9037 -4.2212 2.3829
-4.7501 -4.3968 2.3829
-4.5903 -4.5669 2.3829
-4.4247 -4.7314 2.3829
-4.2532 -4.8900 2.3829
-4.0763 -5.0427 2.3829
-3.8941 -5.1890 2.3829
-3.7067 -5.3290 2.3829
-3.5144 -5.4624 2.3829
-3.3175 -5.5890 2.3829
-3.1161 -5.7087 2.3829
-2.9105 -5.8213 2.3829
-2.7009 -5.9267 2.3829
-2.4876 -6.0247 2.3829
-2.2708 -6.1152 2.3829
-2.0509 -6.1981 2.3829
-1.8279 -6.2732 2.3829
-1.6023 -6.3404 2.3829
-1.3743 -6.3997 2.3829
-1.1441 -6.4509 2.3829
-0.9121 -6.4940 2.3829
-0.6785 -6.5289 2.3829
-0.4436 -6.5556 2.3829
-0.2077 -6.5738 2.3829
0.0289 -6.5838 2.3829
0.2660 -6.5853 2.3829
0.5032 -6.5783 2.3829
0.7402 -6.5630 2.3829
0.9767 -6.5392 2.3829
1.2124 -6.5069 2.3829
1.4471 -6.4662 2.3829
1.6804 -6.4171 2.3829
1.9120 -6.3596 2.3829
2.1417 -6.2938 2.3829
2.3691 -6.2198 2.3829
2.5939 -6.1376 2.3829
2.8158 -6.0472 2.3829
3.0345 -5.9489 2.3829
3.2498 -5.8426 2.3829
3.4613 -5.7286 2.3829
3.6688 -5.6069 2.3829
3.8720 -5.4776 2.3829
4.0706 -5.3410 2.3829
4.2642 -5.1972 2.3829
4.4528 -5.0462 2.3829
4.6359 -4.8885 2.3829
4.8133 -4.7240 2.3829
4.9848 -4.5530 2.3829
5.1502 -4.3758 2.3829
5.3091 -4.1925 2.3829
5.4614 -4.0034 2.3829
5.6068 -3.8087 2.3829
5.7452 -3.6087 2.3829
5.8763 -3.4036 2.3829
5.9999 -3.1936 2.3829
6.1158 -2.9791 2.3829
6.2239 -2.7604 2.3829
6.3240 -2.5377 2.3829
6.4159 -2.3113 2.3829
6.4996 -2.0816 2.3829
6.5748 -1.8488 2.3829
6.6414 -1.6132 2.3829
6.6994 -1.3752 2.3829
6.7486 -1.1351 2.3829
6.7890 -0.8932 2.3829
6.8204 -0.6499 2.3829
6.8430 -0.4055 2.3829
6.8565 -0.1603 2.3829
6.8609 0.0854 2.3829
6.8563 0.3311 2.3829
6.8426 0.5766 2.3829
6.8199 0.8214 2.3829
6.7881 1.0654 2.3829
6.7474 1.3080 2.3829
6.6977 1.5490 2.3829
6.6391 1.7881 2.3829
6.5718 2.0249 2.3829
6.4957 2.2591 2.3829
6.4111 2.4903 2.3829
6.3179 2.7182 2.3829
6.2164 2.9425 2.3829
6.1066 3.1629 2.3829
5.9888 3.3791 2.3829
5.8632 3.5908 2.3829
5.7298 3.7976 2.3829
5.5888 3.9994 2.3829
5.4406 4.1957 2.3829
5.2853 4.3865 2.3829
5.1231 4.5712 2.3829
4.9542 4.7499 2.3829
4.7789 4.9221 2.3829
4.5975 5.0877 2.3829
4.4101 5.2464 2.3829
4.2172 5.3980 2.3829
4.0188 5.5424 2.3829
3.8154 5.6793 2.3829
3.6072 5.8086 2.3829
3.3946 5.9300 2.3829
3.1777 6.0435 2.3829
2.9570 6.1489 2.3829
2.7327 6.2461 2.3829
2.5051 6.3349 2.3829
0.8864 2.4998 0.9285
0.7962 2.5300 0.9294
0.7050 2.5569 0.9302
0.6129 2.5806 0.9310
0.5200 2.6009 0.9319
0.4264 2.6178 0.9327
0.3323 2.6313 0.9336
0.2377 2.6414 0.9345
0.1429 2.6481 0.9354
0.0478 2.6513 0.9363
-0.0473 2.6512 0.9372
-0.1424 2.6475 0.9381
-0.2373 2.6405 0.9391
-0.3318 2.6300 0.9400
-0.4260 2.6161 0.9409
-0.5195 2.5988 0.9418
-0.6124 2.5782 0.9428
-0.7044 2.5542 0.9437
-0.7956 2.5269 0.9446
-0.8857 2.4963 0.9455
-2.4539 6.2002 2.3829
-2.6720 6.1012 2.3829
-2.8862 5.9945 2.3829
-3.0962 5.8804 2.3829
-3.3018 5.7589 2.3829
-3.5027 5.6303 2.3829
-3.6988 5.4947 2.3829
-3.8896 5.3523 2.3829
-4.0751 5.2034 2.3829
-4.2550 5.0481 2.3829
-4.4291 4.8867 2.3829
-4.5971 4.7193 2.3829
-4.7590 4.5462 2.3829
-4.9145 4.3677 2.3829
-5.0634 4.1839 2.3829
-5.2056 3.9951 2.3829
-5.3409 3.8016 2.3829
-5.4691 3.6035 2.3829
-5.5902 3.4013 2.3829
-5.7039 3.1950 2.3829
-5.8102 2.9850 2.3829
-5.9090 2.7716 2.3829
-6.0001 2.5550 2.3829
-6.0835 2.3354 2.3829
-6.1590 2.1132 2.3829
-6.2266 1.8887 2.3829
-6.2863 1.6620 2.3829
-6.3379 1.4335 2.3829
-6.3814 1.2035 2.3829
-6.4168 0.9723 2.3829
-6.4441 0.7400 2.3829
-6.4632 0.5071 2.3829
-6.4741 0.2737 2.3829
-6.4768 0.0402 2.3829
-6.4714 -0.1932 2.3829
-6.4578 -0.4261 2.3829
-6.4360 -0.6583 2.3829
-6.4062 -0.8896 2.3829
-6.3682 -1.1197 2.3829
-6.3223 -1.3482 2.3829
-6.2684 -1.5749 2.3829
-6.2067 -1.7996 2.3829
-6.1371 -2.0219 2.3829
-6.0598 -2.2417 2.3829
-5.9748 -2.4586 2.3829
-5.8824 -2.6724 2.3829
-5.7825 -2.8829 2.3829
-5.6753 -3.0897 2.3829
-5.5610 -3.2927 2.3829
-5.4396 -3.4916 2.3829
-5.3112 -3.6862 2.3829
-5.1762 -3.8762 2.3829
-5.0345 -4.0614 2.3829
-4.8864 -4.2416 2.3829
-0.5509 2.4098 0.9425
-0.6369 2.3881 0.9433
-0.7222 2.3634 0.9442
-0.8064 2.3355 0.9450
-0.8896 2.3047 0.9459
-2.4457 5.7159 2.3829
-2.6466 5.6184 2.3829
-2.8438 5.5138 2.3829
-3.0368 5.4023 2.3829
-3.2256 5.2841 2.3829
-3.4098 5.1594 2.3829
-3.5894 5.0283 2.3829
-3.7639 4.8909 2.3829
-3.9333 4.7476 2.3829
-4.0974 4.5984 2.3829
-4.2559 4.4437 2.3829
-4.4086 4.2835 2.3829
-4.5555 4.1182 2.3829
-4.6962 3.9479 2.3829
-4.8307 3.7728 2.3829
-4.9589 3.5932 2.3829
-5.0805 3.4094 2.3829
-5.1954 3.2215 2.3829
-5.3035 3.0298 2.3829
-5.4047 2.8346 2.3829
-5.4988 2.6360 2.3829
-5.5859 2.4344 2.3829
-5.6657 2.2300 2.3829
-5.7382 2.0230 2.3829
-5.8033 1.8137 2.3829
-5.8610 1.6024 2.3829
-5.9112 1.3893 2.3829
-5.9538 1.1747 2.3829
-5.9889 0.9589 2.3829
-6.0163 0.7420 2.3829
-6.0361 0.5244 2.3829
-6.0482 0.3064 2.3829
-6.0527 0.0881 2.3829
-6.0495 -0.1301 2.3829
-6.0386 -0.3479 2.3829
-6.0201 -0.5652 2.3829
-5.9941 -0.7816 2.3829
-5.9605 -0.9970 2.3829
-5.9193 -1.2110 2.3829
-5.8707 -1.4233 2.3829
-5.8147 -1.6338 2.3829
-5.7513 -1.8422 2.3829
-5.6808 -2.0483 2.3829
-5.6030 -2.2517 2.3829
-5.5181 -2.4523 2.3829
-5.4263 -2.6497 2.3829
-5.3277 -2.8439 2.3829
-5.2222 -3.0345 2.3829
-5.1102 -3.2213 2.3829
-4.9917 -3.4041 2.3829
-4.8668 -3.5826 2.3829
-4.7357 -3.7568 2.3829
-4.5985 -3.9262 2.3829
-4.4555 -4.0908 2.3829
-4.3067 -4.2503 2.3829
-4.1524 -4.4046 2.3829
-3.9926 -4.5534 2.3829
-3.8278 -4.6965 2.3829
-3.6578 -4.8339 2.3829
-3.4831 -4.9652 2.3829
-3.3038 -5.0905 2.3829
-3.1201 -5.2093 2.3829
-2.9323 -5.3217 2.3829
-2.7405 -5.4275 2.3829
-2.5450 -5.5265 2.3829
-2.3459 -5.6186 2.3829
-2.1437 -5.7038 2.3829
-1.9384 -5.7817 2.3829
-1.7303 -5.8525 2.3829
-1.5197 -5.9158 2.3829
-1.3069 -5.9718 2.3829
-1.0920 -6.0202 2.3829
-0.8754 -6.0610 2.3829
-0.6573 -6.0941 2.3829
-0.4380 -6.1195 2.3829
-0.2178 -6.1371 2.3829
0.0032 -6.1469 2.3829
0.2245 -6.1489 2.3829
0.4459 -6.1429 2.3829
0.6672 -6.1291 2.3829
0.8880 -6.1073 2.3829
1.1082 -6.0777 2.3829
1.3273 -6.0402 2.3829
1.5451 -5.9949 2.3829
1.7614 -5.9418 2.3829
1.9759 -5.8809 2.3829
2.1882 -5.8123 2.3829
2.3981 -5.7360 2.3829
2.6054 -5.6522 2.3829
2.8096 -5.5609 2.3829
3.0107 -5.4622 2.3829
3.2083 -5.3563 2.3829
3.4021 -5.2432 2.3829
3.5918 -5.1231 2.3829
3.7773 -4.9961 2.3829
3.9582 -4.8624 2.3829
4.1344 -4.7221 2.3829
4.3055 -4.5754 2.3829
4.4713 -4.4224 2.3829
4.6316 -4.2634 2.3829
4.7861 -4.0986 2.3829
4.9347 -3.9281 2.3829
5.0771 -3.7521 2.3829
5.2132 -3.5710 2.3829
5.3426 -3.3849 2.3829
5.4653 -3.1940 2.3829
5.5810 -2.9987 2.3829
5.6896 -2.7991 2.3829
5.7908 -2.5955 2.3829
5.8847 -2.3883 2.3829
5.9710 -2.1776 2.3829
6.0495 -1.9637 2.3829
6.1202 -1.7470 2.3829
6.1830 -1.5277 2.3829
6.2377 -1.3062 2.3829
6.2842 -1.0826 2.3829
6.3226 -0.8574 2.3829
6.3526 -0.6308 2.3829
6.3743 -0.4032 2.3829
6.3877 -0.1748 2.3829
6.3926 0.0540 2.3829
6.3891 0.2828 2.3829
6.3772 0.5115 2.3829
6.3569 0.7397 2.3829
6.3281 0.9670 2.3829
6.2910 1.1932 2.3829
6.2456 1.4178 2.3829
6.1919 1.6407 2.3829
6.1301 1.8615 2.3829
6.0601 2.0799 2.3829
5.9821 2.2956 2.3829
5.8963 2.5082 2.3829
5.8026 2.7175 2.3829
5.7013 2.9233 2.3829
5.5925 3.1251 2.3829
5.4763 3.3228 2.3829
5.3529 3.5160 2.3829
5.2225 3.7045 2.3829
5.0853 3.8881 2.3829
4.9415 4.0664 2.3829
4.7912 4.2393 2.3829
4.6347 4.4065 2.3829
4.4722 4.5677 2.3829
4.3039 4.7228 2.3829
4.1302 4.8715 2.3829
3.9511 5.0137 2.3829
3.7670 5.1492 2.3829
3.5782 5.2777 2.3829
3.3849 5.3992 2.3829
3.1873 5.5134 2.3829
2.9858 5.6203 2.3829
2.7807 5.7196 2.3829
2.5721 5.8113 2.3829
0.9198 2.2972 0.9286
0.8369 2.3287 0.9293
0.7530 2.3572 0.9301
0.6680 2.3827 0.9308
0.5822 2.4051 0.9316
0.4956 2.4243 0.9324
0.4084 2.4405 0.9332
0.3206 2.4534 0.9340
0.2324 2.4632 0.9349
0.1440 2.4698 0.9357
0.0553 2.4732 0.9365
-0.0334 2.4734 0.9374
-0.1221 2.4704 0.9382
-0.2106 2.4642 0.9391
-0.2989 2.4548 0.9400
-0.3867 2.4422 0.9408
-0.4741 2.4264 0.9417
-0.5608 2.4075 0.9426
-0.6467 2.3855 0.9434
-0.7318 2.3603 0.9443
-0.8160 2.3322 0.9451
-0.8991 2.3010 0.9460
-2.4689 5.7051 2.3829
-2.6694 5.6067 2.3829
-2.8660 5.5014 2.3829
-3.0586 5.3891 2.3829
-3.2469 5.2702 2.3829
-3.4306 5.1447 2.3829
-3.6096 5.0129 2.3829
-3.7836 4.8748 2.3829
-3.9524 4.7308 2.3829
-4.1158 4.5810 2.3829
-4.2737 4.4256 2.3829
-4.4257 4.2649 2.3829
-4.5719 4.0989 2.3829
-4.7120 3.9281 2.3829
-4.8457 3.7525 2.3829
-4.9731 3.5724 2.3829
-5.0939 3.3881 2.3829
-5.2081 3.1998 2.3829
-5.3154 3.0077 2.3829
-5.4158 2.8120 2.3829
-5.5092 2.6131 2.3829
-5.5954 2.4111 2.3829
-5.6744 2.2064 2.3829
-5.7460 1.9992 2.3829
-5.8103 1.7896 2.3829
-5.8671 1.5781 2.3829
-5.9165 1.3648 2.3829
-5.9582 1.1501 2.3829
-5.9924 0.9341 2.3829
-6.0190 0.7171 2.3829
-6.0379 0.4995 2.3829
-6.0491 0.2814 2.3829
-6.0527 0.0632 2.3829
-6.0486 -0.1550 2.3829
-6.0369 -0.3728 2.3829
-6.0176 -0.5900 2.3829
-5.9906 -0.8063 2.3829
-5.9561 -1.0215 2.3829
-5.9141 -1.2353 2.3829
-5.8647 -1.4475 2.3829
-5.8078 -1.6578 2.3829
-5.7436 -1.8659 2.3829
-5.6722 -2.0717 2.3829
-5.5936 -2.2748 2.3829
-5.5080 -2.4750 2.3829
-5.4154 -2.6721 2.3829
-5.3159 -2.8659 2.3829
-5.2098 -3.0560 2.3829
-5.0970 -3.2424 2.3829
-4.9777 -3.4247 2.3829
-4.8521 -3.6028 2.3829
-4.7203 -3.7764 2.3829
-4.5824 -3.9453 2.3829
-4.4387 -4.1093 2.3829
-4.2893 -4.2682 2.3829
-4.1343 -4.4219 2.3829
-3.9740 -4.5701 2.3829
-3.8085 -4.7126 2.3829
-3.6381 -4.8492 2.3829
-3.4629 -4.9799 2.3829
-3.2830 -5.1044 2.3829
-3.0989 -5.2225 2.3829
-2.9105 -5.3342 2.3829
-2.7183 -5.4392 2.3829
-2.5224 -5.5374 2.3829
-2.3230 -5.6287 2.3829
-2.1203 -5.7130 2.3829
-1.9147 -5.7902 2.3829
-1.7063 -5.8601 2.3829
-1.4955 -5.9226 2.3829
-1.2824 -5.9777 2.3829
-1.0673 -6.0252 2.3829
-0.8505 -6.0652 2.3829
-0.6323 -6.0974 2.3829
-0.4129 -6.1219 2.3829
-0.1925 -6.1386 2.3829
0.0284 -6.1475 2.3829
0.2498 -6.1486 2.3829
0.4712 -6.1417 2.3829
0.6925 -6.1270 2.3829
0.9133 -6.1044 2.3829
1.1333 -6.0738 2.3829
1.3523 -6.0355 2.3829
1.5700 -5.9892 2.3829
1.7861 -5.9352 2.3829
2.0003 -5.8734 2.3829
2.2123 -5.8039 2.3829
2.4220 -5.7268 2.3829
2.6289 -5.6421 2.3829
2.8328 -5.5500 2.3829
3.0335 -5.4505 2.3829
3.2306 -5.3437 2.3829
3.4240 -5.2298 2.3829
3.6133 -5.1089 2.3829
3.7982 -4.9812 2.3829
3.9786 -4.8467 2.3829
4.1542 -4.7056 2.3829
4.3247 -4.5582 2.3829
4.4899 -4.4045 2.3829
4.6496 -4.2448 2.3829
4.8034 -4.0793 2.3829
4.9513 -3.9082 2.3829
5.0930 -3.7317 2.3829
5.2283 -3.5499 2.3829
5.3570 -3.3633 2.3829
5.4789 -3.1719 2.3829
5.5938 -2.9760 2.3829
5.7015 -2.7760 2.3829
5.8020 -2.5720 2.3829
5.8950 -2.3643 2.3829
5.9803 -2.1532 2.3829
6.0580 -1.9391 2.3829
6.1278 -1.7220 2.3829
6.1896 -1.5025 2.3829
6.2434 -1.2807 2.3829
6.2890 -1.0569 2.3829
6.3264 -0.8315 2.3829
6.3555 -0.6048 2.3829
6.3763 -0.3771 2.3829
6.3887 -0.1487 2.3829
6.3926 0.0801 2.3829
6.3882 0.3090 2.3829
6.3753 0.5377 2.3829
6.3540 0.7658 2.3829
6.3243 0.9930 2.3829
6.2863 1.2190 2.3829
6.2399 1.4434 2.3829
6.1853 1.6661 2.3829
6.1225 1.8866 2.3829
6.0516 2.1047 2.3829
5.9727 2.3201 2.3829
5.8859 2.5323 2.3829
5.7914 2.7413 2.3829
5.6892 2.9466 2.3829
5.5796 3.1480 2.3829
5.4625 3.3451 2.3829
5.3384 3.5378 2.3829
5.2072 3.7258 2.3829
5.0692 3.9088 2.3829
4.9246 4.0865 2.3829
4.7736 4.2587 2.3829
4.6164 4.4252 2.3829
4.4532 4.5858 2.3829
4.2843 4.7401 2.3829
4.1099 4.8881 2.3829
3.9303 5.0296 2.3829
3.7457 5.1643 2.3829
3.5563 5.2920 2.3829
3.3625 5.4127 2.3829
3.1644 5.5260 2.3829
2.9625 5.6320 2.3829
2.7570 5.7305 2.3829
2.5481 5.8213 2.3829
0.9104 2.3010 0.9286
0.8274 2.3321 0.9294
0.7433 2.3603 0.9301
0.6582 2.3854 0.9309
0.5723 2.4074 0.9317
0.4857 2.4263 0.9325
0.3984 2.4421 0.9333
0.3106 2.4547 0.9341
0.2223 2.4641 0.9350
0.1338 2.4704 0.9358
0.0452 2.4734 0.9366
-0.0436 2.4732 0.9375
-0.1323 2.4698 0.9383
-0.2208 2.4632 0.9392
-0.3090 2.4535 0.9401
-0.3967 2.4405 0.9409
-0.4840 2.4244 0.9418
-0.5707 2.4051 0.9427
-0.6565 2.3827 0.9435
-0.7415 2.3573 0.9444
-0.8256 2.3288 0.9452
-2.2883 5.7862 2.3829
-2.4920 5.6942 2.3829
-2.6921 5.5950 2.3829
-2.8883 5.4889 2.3829
-3.0804 5.3759 2.3829
-3.2682 5.2562 2.3829
-3.4514 5.1299 2.3829
-3.6298 4.9974 2.3829
-3.8032 4.8586 2.3829
-3.9714 4.7140 2.3829
-4.1341 4.5635 2.3829
-4.2913 4.4075 2.3829
-4.4428 4.2461 2.3829
-4.5882 4.0796 2.3829
-4.7276 3.9082 2.3829
-4.8607 3.7321 2.3829
-4.9873 3.5515 2.3829
-5.1073 3.3667 2.3829
-5.2207 3.1780 2.3829
-5.3273 2.9854 2.3829
-5.4268 2.7894 2.3829
-5.5194 2.5901 2.3829
-5.6048 2.3878 2.3829
-5.6829 2.1828 2.3829
-5.7538 1.9753 2.3829
-5.8172 1.7655 2.3829
-5.8732 1.5538 2.3829
-5.9216 1.3403 2.3829
-5.9625 1.1254 2.3829
-5.9958 0.9093 2.3829
-6.0215 0.6923 2.3829
-6.0395 0.4746 2.3829
-6.0499 0.2565 2.3829
-6.0526 0.0382 2.3829
-6.0477 -0.1799 2.3829
-6.0351 -0.3977 2.3829
-6.0148 -0.6148 2.3829
-5.9871 -0.8310 2.3829
-5.9517 -1.0461 2.3829
-5.9088 -1.2597 2.3829
-5.8585 -1.4717 2.3829
-5.8008 -1.6817 2.3829
-5.7358 -1.8896 2.3829
-5.6636 -2.0950 2.3829
-5.5842 -2.2978 2.3829
-5.4977 -2.4977 2.3829
-5.4044 -2.6945 2.3829
-5.3041 -2.8878 2.3829
-5.1972 -3.0776 2.3829
-5.0836 -3.2635 2.3829
-4.9636 -3.4453 2.3829
-4.8373 -3.6229 2.3829
-4.7048 -3.7960 2.3829
-4.5663 -3.9643 2.3829
-0.5151 2.2558 0.9424
-0.5956 2.2355 0.9432
-0.6754 2.2123 0.9440
-0.7543 2.1863 0.9448
-0.8321 2.1574 0.9456
-2.2887 5.3526 2.3829
-2.4769 5.2616 2.3829
-2.6617 5.1640 2.3829
-2.8426 5.0599 2.3829
-3.0196 4.9495 2.3829
-3.1923 4.8330 2.3829
-3.3607 4.7104 2.3829
-3.5244 4.5821 2.3829
-3.6833 4.4480 2.3829
-3.8372 4.3085 2.3829
-3.9859 4.1638 2.3829
-4.1292 4.0140 2.3829
-4.2670 3.8592 2.3829
-4.3991 3.6999 2.3829
-4.5254 3.5360 2.3829
-4.6457 3.3679 2.3829
-4.7599 3.1958 2.3829
-4.8678 3.0198 2.3829
-4.9694 2.8403 2.3829
-5.0644 2.6574 2.3829
-5.1529 2.4714 2.3829
-5.2347 2.2825 2.3829
-5.3098 2.0910 2.3829
-5.3779 1.8970 2.3829
-5.4392 1.7009 2.3829
-5.4935 1.5029 2.3829
-5.5407 1.3031 2.3829
-5.5809 1.1020 2.3829
-5.6139 0.8996 2.3829
-5.6398 0.6963 2.3829
-5.6585 0.4923 2.3829
-5.6700 0.2879 2.3829
-5.6743 0.0832 2.3829
-5.6714 -0.1214 2.3829
-5.6614 -0.3257 2.3829
-5.6442 -0.5295 2.3829
-5.6198 -0.7324 2.3829
-5.5884 -0.9344 2.3829
-5.5498 -1.1351 2.3829
-5.5043 -1.3343 2.3829
-5.4518 -1.5317 2.3829
-5.3925 -1.7271 2.3829
-5.3263 -1.9204 2.3829
-5.2534 -2.1111 2.3829
-5.1738 -2.2992 2.3829
-5.0877 -2.4844 2.3829
-4.9951 -2.6665 2.3829
-4.8962 -2.8452 2.3829
-4.7911 -3.0204 2.3829
-4.6799 -3.1918 2.3829
-4.5627 -3.3592 2.3829
-4.4397 -3.5225 2.3829
-4.3110 -3.6813 2.3829
-4.1768 -3.8356 2.3829
-4.0372 -3.9851 2.3829
-3.8924 -4.1297 2.3829
-3.7425 -4.2691 2.3829
-3.5878 -4.4032 2.3829
-3.4284 -4.5319 2.3829
-3.2645 -4.6549 2.3829
-3.0963 -4.7722 2.3829
-2.9240 -4.8835 2.3829
-2.7477 -4.9887 2.3829
-2.5678 -5.0877 2.3829
-2.3844 -5.1803 2.3829
-2.1978 -5.2665 2.3829
-2.0081 -5.3460 2.3829
-1.8155 -5.4189 2.3829
-1.6204 -5.4849 2.3829
-1.4230 -5.5441 2.3829
-1.2234 -5.5963 2.3829
-1.0220 -5.6414 2.3829
-0.8190 -5.6793 2.3829
-0.6146 -5.7101 2.3829
-0.4091 -5.7336 2.3829
-0.2027 -5.7498 2.3829
0.0043 -5.7587 2.3829
0.2117 -5.7602 2.3829
0.4191 -5.7543 2.3829
0.6264 -5.7410 2.3829
0.8332 -5.7203 2.3829
1.0394 -5.6923 2.3829
1.2445 -5.6568 2.3829
1.4485 -5.6141 2.3829
1.6510 -5.5640 2.3829
1.8517 -5.5066 2.3829
2.0504 -5.4420 2.3829
2.2469 -5.3703 2.3829
2.4408 -5.2915 2.3829
2.6319 -5.2057 2.3829
2.8199 -5.1131 2.3829
3.0047 -5.0136 2.3829
3.1860 -4.9074 2.3829
3.3634 -4.7947 2.3829
3.5368 -4.6756 2.3829
3.7059 -4.5501 2.3829
3.8706 -4.4186 2.3829
4.0305 -4.2810 2.3829
4.1854 -4.1377 2.3829
4.3351 -3.9887 2.3829
4.4795 -3.8342 2.3829
4.6183 -3.6745 2.3829
4.7513 -3.5097 2.3829
4.8783 -3.3400 2.3829
4.9991 -3.1658 2.3829
5.1136 -2.9871 2.3829
5.2216 -2.8042 2.3829
5.3229 -2.6174 2.3829
5.4174 -2.4269 2.3829
5.5049 -2.2330 2.3829
5.5854 -2.0358 2.3829
5.6586 -1.8358 2.3829
5.7245 -1.6331 2.3829
5.7830 -1.4279 2.3829
5.8339 -1.2207 2.3829
5.8772 -1.0117 2.3829
5.9129 -0.8011 2.3829
5.9408 -0.5892 2.3829
5.9609 -0.3764 2.3829
5.9733 -0.1629 2.3829
5.9777 0.0510 2.3829
5.9743 0.2650 2.3829
5.9631 0.4788 2.3829
5.9439 0.6921 2.3829
5.9170 0.9046 2.3829
5.8822 1.1160 2.3829
5.8397 1.3260 2.3829
5.7895 1.5343 2.3829
5.7316 1.7407 2.3829
5.6662 1.9448 2.3829
5.5933 2.1464 2.3829
5.5130 2.3452 2.3829
5.4254 2.5408 2.3829
5.3307 2.7332 2.3829
5.2291 2.9218 2.3829
5.1205 3.1067 2.3829
5.0052 3.2873 2.3829
4.8834 3.4636 2.3829
4.7552 3.6352 2.3829
4.6208 3.8020 2.3829
4.4804 3.9637 2.3829
4.3342 4.1200 2.3829
4.1824 4.2709 2.3829
4.0252 4.4160 2.3829
3.8628 4.5551 2.3829
3.6955 4.6882 2.3829
3.5235 4.8150 2.3829
3.3471 4.9354 2.3829
3.1664 5.0491 2.3829
2.9818 5.1561 2.3829
2.7935 5.2562 2.3829
2.6018 5.3493 2.3829
2.4069 5.4353 2.3829
0.8615 2.1505 0.9294
0.7840 2.1800 0.9301
0.7054 2.2067 0.9308
0.6258 2.2305 0.9315
0.5455 2.2514 0.9322
0.4645 2.2694 0.9330
0.3828 2.2845 0.9337
0.3007 2.2967 0.9345
0.2181 2.3058 0.9353
0.1353 2.3120 0.9361
0.0523 2.3151 0.9368
-0.0307 2.3153 0.9376
-0.1137 2.3125 0.9384
-0.1966 2.3067 0.9392
-0.2792 2.2978 0.9400
-0.3614 2.2861 0.9409
-0.4432 2.2713 0.9417
-0.5243 2.2536 0.9425
-0.6048 2.2330 0.9433
-0.6845 2.2095 0.9441
-0.7632 2.1831 0.9449
-0.8410 2.1539 0.9457
-2.3104 5.3425 2.3829
-2.4983 5.2508 2.3829
-2.6826 5.1524 2.3829
-2.8631 5.0476 2.3829
-3.0396 4.9365 2.3829
-3.2118 4.8193 2.3829
-3.3797 4.6960 2.3829
-3.5428 4.5670 2.3829
-3.7012 4.4323 2.3829
-3.8545 4.2922 2.3829
-4.0026 4.1469 2.3829
-4.1453 3.9965 2.3829
-4.2824 3.8412 2.3829
-4.4139 3.6813 2.3829
-4.5395 3.5170 2.3829
-4.6591 3.3484 2.3829
-4.7726 3.1758 2.3829
-4.8798 2.9995 2.3829
-4.9806 2.8195 2.3829
-5.0749 2.6363 2.3829
-5.1626 2.4500 2.3829
-5.2437 2.2607 2.3829
-5.3179 2.0689 2.3829
-5.3853 1.8747 2.3829
-5.4458 1.6783 2.3829
-5.4993 1.4801 2.3829
-5.5457 1.2802 2.3829
-5.5850 1.0789 2.3829
-5.6172 0.8764 2.3829
-5.6423 0.6730 2.3829
-5.6602 0.4689 2.3829
-5.6709 0.2645 2.3829
-5.6744 0.0598 2.3829
-5.6707 -0.1448 2.3829
-5.6598 -0.3490 2.3829
-5.6417 -0.5527 2.3829
-5.6166 -0.7556 2.3829
-5.5843 -0.9574 2.3829
-5.5450 -1.1579 2.3829
-5.4986 -1.3569 2.3829
-5.4454 -1.5541 2.3829
-5.3852 -1.7494 2.3829
-5.3183 -1.9423 2.3829
-5.2446 -2.1328 2.3829
-5.1643 -2.3206 2.3829
-5.0774 -2.5054 2.3829
-4.9841 -2.6871 2.3829
-4.8845 -2.8655 2.3829
-4.7787 -3.0402 2.3829
-4.6668 -3.2112 2.3829
-4.5489 -3.3781 2.3829
-4.4253 -3.5409 2.3829
-4.2959 -3.6992 2.3829
-4.1611 -3.8529 2.3829
-4.0209 -4.0019 2.3829
-3.8755 -4.1459 2.3829
-3.7250 -4.2847 2.3829
-3.5698 -4.4182 2.3829
-3.4099 -4.5463 2.3829
-3.2455 -4.6686 2.3829
-3.0768 -4.7852 2.3829
-2.9040 -4.8958 2.3829
-2.7273 -5.0003 2.3829
-2.5470 -5.0986 2.3829
-2.3632 -5.1905 2.3829
-2.1762 -5.2759 2.3829
-1.9862 -5.3547 2.3829
-1.7934 -5.4268 2.3829
-1.5980 -5.4921 2.3829
-1.4003 -5.5504 2.3829
-1.2005 -5.6018 2.3829
-0.9989 -5.6461 2.3829
-0.7957 -5.6832 2.3829
-0.5911 -5.7131 2.3829
-0.3855 -5.7358 2.3829
-0.1790 -5.7512 2.3829
0.0280 -5.7592 2.3829
0.2354 -5.7599 2.3829
0.4429 -5.7531 2.3829
0.6501 -5.7390 2.3829
0.8568 -5.7175 2.3829
1.0629 -5.6886 2.3829
1.2680 -5.6523 2.3829
1.4717 -5.6087 2.3829
1.6740 -5.5578 2.3829
1.8745 -5.4996 2.3829
2.0730 -5.4342 2.3829
2.2692 -5.3616 2.3829
2.4628 -5.2821 2.3829
2.6536 -5.1955 2.3829
2.8413 -5.1020 2.3829
3.0257 -5.0018 2.3829
3.2065 -4.8949 2.3829
3.3835 -4.7814 2.3829
3.5564 -4.6615 2.3829
3.7250 -4.5354 2.3829
3.8891 -4.4031 2.3829
4.0484 -4.2649 2.3829
4.2028 -4.1209 2.3829
4.3520 -3.9713 2.3829
4.4957 -3.8162 2.3829
4.6338 -3.6559 2.3829
4.7661 -3.4905 2.3829
4.8924 -3.3203 2.3829
5.0125 -3.1456 2.3829
5.1263 -2.9664 2.3829
5.2335 -2.7831 2.3829
5.3341 -2.5958 2.3829
5.4278 -2.4049 2.3829
5.5145 -2.2106 2.3829
5.5941 -2.0131 2.3829
5.6665 -1.8127 2.3829
5.7316 -1.6097 2.3829
5.7892 -1.4043 2.3829
5.8392 -1.1969 2.3829
5.8817 -0.9876 2.3829
5.9165 -0.7769 2.3829
5.9435 -0.5649 2.3829
5.9627 -0.3520 2.3829
5.9742 -0.1384 2.3829
5.9777 0.0755 2.3829
5.9734 0.2895 2.3829
5.9613 0.5032 2.3829
5.9412 0.7164 2.3829
5.9134 0.9288 2.3829
5.8777 1.1401 2.3829
5.8343 1.3499 2.3829
5.7832 1.5580 2.3829
5.7245 1.7642 2.3829
5.6582 1.9680 2.3829
5.5844 2.1693 2.3829
5.5033 2.3677 2.3829
5.4150 2.5630 2.3829
5.3195 2.7549 2.3829
5.2170 2.9432 2.3829
5.1076 3.1275 2.3829
4.9916 3.3077 2.3829
4.8691 3.4835 2.3829
4.7401 3.6545 2.3829
4.6050 3.8207 2.3829
4.4640 3.9818 2.3829
4.3171 4.1376 2.3829
4.1647 4.2877 2.3829
4.0069 4.4322 2.3829
3.8439 4.5707 2.3829
3.6761 4.7031 2.3829
3.5036 4.8291 2.3829
3.3266 4.9487 2.3829
3.1455 5.0617 2.3829
2.9604 5.1679 2.3829
2.7717 5.2672 2.3829
2.5796 5.3595 2.3829
0.9293 2.1221 0.9288
0.8527 2.1540 0.9294
0.7750 2.1832 0.9301
0.6963 2.2096 0.9309
0.6167 2.2330 0.9316
0.5363 2.2536 0.9323
0.4551 2.2713 0.9331
0.3734 2.2861 0.9338
0.2912 2.2978 0.9346
0.2087 2.3067 0.9354
0.1258 2.3125 0.9361
0.0428 2.3153 0.9369
-0.0402 2.3151 0.9377
-0.1232 2.3120 0.9385
-0.2061 2.3058 0.9393
-0.2886 2.2966 0.9401
-0.3708 2.2845 0.9409
-0.4525 2.2694 0.9418
-0.5336 2.2514 0.9426
-0.6139 2.2305 0.9434
-0.6935 2.2066 0.9442
-0.7722 2.1799 0.9450
-0.8498 2.1504 0.9458
-2.3320 5.3324 2.3829
-2.5195 5.2399 2.3829
-2.7034 5.1408 2.3829
-2.8835 5.0352 2.3829
-3.0595 4.9234 2.3829
-3.2313 4.8054 2.3829
-3.3986 4.6815 2.3829
-3.5612 4.5519 2.3829
-3.7190 4.4166 2.3829
-3.8717 4.2759 2.3829
-4.0192 4.1299 2.3829
-4.1613 3.9790 2.3829
-4.2978 3.8232 2.3829
-4.4286 3.6627 2.3829
-4.5535 3.4979 2.3829
-4.6724 3.3289 2.3829
-4.7851 3.1558 2.3829
-4.8916 2.9790 2.3829
-4.9917 2.7987 2.3829
-5.0853 2.6151 2.3829
-5.1722 2.4284 2.3829
-5.2525 2.2389 2.3829
-5.3260 2.0468 2.3829
-5.3926 1.8523 2.3829
-5.4523 1.6558 2.3829
-5.5049 1.4573 2.3829
-5.5505 1.2572 2.3829
-5.5891 1.0557 2.3829
-5.6205 0.8532 2.3829
-5.6447 0.6497 2.3829
-5.6618 0.4456 2.3829
-5.6716 0.2410 2.3829
-5.6743 0.0364 2.3829
-5.6698 -0.1682 2.3829
-5.6581 -0.3724 2.3829
-5.6392 -0.5760 2.3829
-5.6132 -0.7787 2.3829
-5.5802 -0.9804 2.3829
-5.5400 -1.1808 2.3829
-5.4929 -1.3796 2.3829
-5.4388 -1.5766 2.3829
-5.3779 -1.7716 2.3829
-5.3102 -1.9642 2.3829
-5.2357 -2.1544 2.3829
-5.1547 -2.3419 2.3829
-5.0671 -2.5264 2.3829
-4.9730 -2.7077 2.3829
-4.8727 -2.8857 2.3829
-4.7662 -3.0600 2.3829
-4.6536 -3.2305 2.3829
-4.5351 -3.3970 2.3829
-4.4107 -3.5592 2.3829
-4.2808 -3.7170 2.3829
-0.4830 2.1179 0.9423
-0.5586 2.0989 0.9431
-0.6335 2.0771 0.9438
-0.7076 2.0527 0.9446
-0.7807 2.0256 0.9453
-0.8528 1.9959 0.9460
-2.3249 4.9421 2.3829
-2.4985 4.8506 2.3829
-2.6686 4.7531 2.3829
-2.8350 4.6497 2.3829
-2.9974 4.5404 2.3829
-3.1557 4.4256 2.3829
-3.3097 4.3052 2.3829
-3.4591 4.1795 2.3829
-3.6039 4.0486 2.3829
-3.7438 3.9128 2.3829
-3.8787 3.7722 2.3829
-4.0083 3.6270 2.3829
-4.1327 3.4774 2.3829
-4.2515 3.3236 2.3829
-4.3648 3.1657 2.3829
-4.4723 3.0041 2.3829
-4.5739 2.8389 2.3829
-4.6695 2.6702 2.3829
-4.7591 2.4984 2.3829
-4.8425 2.3237 2.3829
-4.9196 2.1462 2.3829
-4.9903 1.9662 2.3829
-5.0545 1.7840 2.3829
-5.1123 1.5997 2.3829
-5.1635 1.4135 2.3829
-5.2081 1.2258 2.3829
-5.2460 1.0367 2.3829
-5.2772 0.8464 2.3829
-5.3017 0.6553 2.3829
-5.3194 0.4635 2.3829
-5.3303 0.2712 2.3829
-5.3345 0.0788 2.3829
-5.3319 -0.1136 2.3829
-5.3225 -0.3057 2.3829
-5.3064 -0.4973 2.3829
-5.2836 -0.6882 2.3829
-5.2541 -0.8782 2.3829
-5.2179 -1.0669 2.3829
-5.1751 -1.2542 2.3829
-5.1258 -1.4399 2.3829
-5.0700 -1.6237 2.3829
-5.0078 -1.8055 2.3829
-4.9392 -1.9849 2.3829
-4.8644 -2.1618 2.3829
-4.7834 -2.3359 2.3829
-4.6963 -2.5072 2.3829
-4.6033 -2.6752 2.3829
-4.5044 -2.8400 2.3829
-4.3998 -3.0011 2.3829
-4.2896 -3.1585 2.3829
-4.1738 -3.3120 2.3829
-4.0527 -3.4613 2.3829
-3.9265 -3.6064 2.3829
-3.7951 -3.7469 2.3829
-3.6589 -3.8827 2.3829
-3.5179 -4.0138 2.3829
-3.3723 -4.1398 2.3829
-3.2223 -4.2607 2.3829
-3.0681 -4.3763 2.3829
-2.9099 -4.4864 2.3829
-2.7478 -4.5909 2.3829
-2.5820 -4.6896 2.3829
-2.4128 -4.7826 2.3829
-2.2403 -4.8695 2.3829
-2.0648 -4.9503 2.3829
-1.8864 -5.0249 2.3829
-1.7053 -5.0932 2.3829
-1.5219 -5.1551 2.3829
-1.3362 -5.2105 2.3829
-1.1486 -5.2593 2.3829
-0.9592 -5.3015 2.3829
-0.7684 -5.3369 2.3829
-0.5763 -5.3656 2.3829
-0.3831 -5.3874 2.3829
-0.1891 -5.4024 2.3829
0.0054 -5.4105 2.3829
0.2002 -5.4116 2.3829
0.3951 -5.4059 2.3829
0.5898 -5.3931 2.3829
0.7841 -5.3734 2.3829
0.9777 -5.3468 2.3829
1.1704 -5.3132 2.3829
1.3619 -5.2728 2.3829
1.5520 -5.2254 2.3829
1.7405 -5.1713 2.3829
1.9270 -5.1104 2.3829
2.1114 -5.0427 2.3829
2.2934 -4.9685 2.3829
2.4727 -4.8877 2.3829
2.6491 -4.8004 2.3829
2.8225 -4.7067 2.3829
2.9925 -4.6068 2.3829
3.1589 -4.5008 2.3829
3.3216 -4.3887 2.3829
3.4801 -4.2707 2.3829
3.6345 -4.1470 2.3829
3.7844 -4.0177 2.3829
3.9296 -3.8829 2.3829
4.0700 -3.7429 2.3829
4.2053 -3.5977 2.3829
4.3353 -3.4477 2.3829
4.4599 -3.2929 2.3829
4.5789 -3.1336 2.3829
4.6920 -2.9699 2.3829
4.7992 -2.8021 2.3829
4.9004 -2.6304 2.3829
4.9952 -2.4551 2.3829
5.0836 -2.2762 2.3829
5.1656 -2.0942 2.3829
5.2408 -1.9092 2.3829
5.3093 -1.7215 2.3829
5.3709 -1.5312 2.3829
5.4256 -1.3388 2.3829
5.4732 -1.1444 2.3829
5.5137 -0.9483 2.3829
5.5470 -0.7507 2.3829
5.5730 -0.5520 2.3829
5.5917 -0.3524 2.3829
5.6031 -0.1522 2.3829
5.6072 0.0484 2.3829
5.6039 0.2491 2.3829
5.5932 0.4496 2.3829
5.5752 0.6496 2.3829
5.5498 0.8488 2.3829
5.5172 1.0470 2.3829
5.4773 1.2439 2.3829
5.4301 1.4393 2.3829
5.3758 1.6328 2.3829
5.3144 1.8242 2.3829
5.2461 2.0132 2.3829
5.1708 2.1996 2.3829
5.0887 2.3831 2.3829
4.9999 2.5634 2.3829
4.9046 2.7404 2.3829
4.8028 2.9137 2.3829
4.6948 3.0831 2.3829
4.5806 3.2484 2.3829
4.4605 3.4094 2.3829
4.3345 3.5658 2.3829
4.2029 3.7175 2.3829
4.0659 3.8642 2.3829
3.9236 4.0058 2.3829
3.7762 4.1419 2.3829
3.6241 4.2726 2.3829
3.4672 4.3975 2.3829
3.3060 4.5165 2.3829
3.1406 4.6295 2.3829
2.9713 4.7364 2.3829
2.7982 4.8369 2.3829
2.6217 4.9309 2.3829
2.4419 5.0185 2.3829
0.8812 1.9889 0.9295
0.8094 2.0192 0.9301
0.7365 2.0469 0.9307
0.6627 2.0719 0.9314
0.5881 2.0943 0.9321
0.5127 2.1139 0.9328
0.4366 2.1308 0.9335
0.3599 2.1450 0.9342
0.2828 2.1563 0.9349
0.2053 2.1649 0.9356
0.1276 2.1707 0.9364
0.0496 2.1737 0.9371
-0.0283 2.1738 0.9378
-0.1063 2.1712 0.9386
-0.1840 2.1657 0.9394
-0.2616 2.1574 0.9401
-0.3388 2.1463 0.9409
-0.4155 2.1325 0.9416
-0.4917 2.1159 0.9424
-0.5672 2.0965 0.9431
-0.6420 2.0745 0.9439
-0.7160 2.0497 0.9446
-0.7890 2.0223 0.9454
-0.8609 1.9923 0.9461
-2.3450 4.9319 2.3829
-2.5182 4.8398 2.3829
-2.6879 4.7416 2.3829
-2.8538 4.6375 2.3829
-3.0158 4.5276 2.3829
-3.1736 4.4120 2.3829
-3.3270 4.2911 2.3829
-3.4760 4.1648 2.3829
-3.6202 4.0333 2.3829
-3.7595 3.8970 2.3829
-3.8938 3.7558 2.3829
-4.0228 3.6101 2.3829
-4.1466 3.4600 2.3829
-4.2648 3.3057 2.3829
-4.3774 3.1474 2.3829
-4.4842 2.9854 2.3829
-4.5852 2.8197 2.3829
-4.6801 2.6507 2.3829
-4.7690 2.4786 2.3829
-4.8516 2.3035 2.3829
-4.9280 2.1257 2.3829
-4.9979 1.9455 2.3829
-5.0615 1.7630 2.3829
-5.1185 1.5784 2.3829
-5.1689 1.3921 2.3829
-5.2128 1.2042 2.3829
-5.2499 1.0149 2.3829
-5.2803 0.8246 2.3829
-5.3040 0.6334 2.3829
-5.3210 0.4415 2.3829
-5.3311 0.2492 2.3829
-5.3346 0.0568 2.3829
-5.3312 -0.1356 2.3829
-5.3210 -0.3277 2.3829
-5.3042 -0.5192 2.3829
-5.2806 -0.7100 2.3829
-5.2503 -0.8998 2.3829
-5.2134 -1.0884 2.3829
-5.1698 -1.2756 2.3829
-5.1198 -1.4610 2.3829
-5.0632 -1.6446 2.3829
-5.0003 -1.8261 2.3829
-4.9310 -2.0053 2.3829
-4.8554 -2.1819 2.3829
-4.7738 -2.3557 2.3829
-4.6860 -2.5266 2.3829
-4.5923 -2.6943 2.3829
-4.4927 -2.8586 2.3829
-4.3875 -3.0193 2.3829
-4.2766 -3.1763 2.3829
-4.1602 -3.3293 2.3829
-4.0386 -3.4781 2.3829
-3.9117 -3.6227 2.3829
-3.7798 -3.7627 2.3829
-3.6430 -3.8980 2.3829
-3.5014 -4.0285 2.3829
-3.3554 -4.1539 2.3829
-3.2049 -4.2742 2.3829
-3.0502 -4.3891 2.3829
-2.8915 -4.4986 2.3829
-2.7290 -4.6025 2.3829
-2.5629 -4.7006 2.3829
-2.3932 -4.7928 2.3829
-2.2204 -4.8790 2.3829
-2.0445 -4.9592 2.3829
-1.8658 -5.0331 2.3829
-1.6844 -5.1006 2.3829
-1.5007 -5.1618 2.3829
-1.3148 -5.2164 2.3829
-1.1270 -5.2645 2.3829
-0.9375 -5.3059 2.3829
-0.7465 -5.3406 2.3829
-0.5542 -5.3684 2.3829
-0.3609 -5.3895 2.3829
-0.1669 -5.4037 2.3829
0.0277 -5.4110 2.3829
0.2225 -5.4113 2.3829
0.4174 -5.4048 2.3829
0.6121 -5.3912 2.3829
0.8063 -5.3707 2.3829
0.9998 -5.3433 2.3829
1.1924 -5.3089 2.3829
1.3837 -5.2677 2.3829
1.5737 -5.2196 2.3829
1.7619 -5.1646 2.3829
1.9482 -5.1030 2.3829
2.1323 -5.0346 2.3829
2.3140 -4.9596 2.3829
2.4930 -4.8780 2.3829
2.6691 -4.7900 2.3829
2.8421 -4.6956 2.3829
3.0117 -4.5950 2.3829
3.1777 -4.4883 2.3829
3.3399 -4.3755 2.3829
3.4980 -4.2569 2.3829
3.6519 -4.1325 2.3829
3.8012 -4.0025 2.3829
3.9459 -3.8672 2.3829
4.0857 -3.7265 2.3829
4.2204 -3.5808 2.3829
4.3498 -3.4302 2.3829
4.4738 -3.2749 2.3829
4.5921 -3.1150 2.3829
4.7046 -2.9509 2.3829
4.8111 -2.7827 2.3829
4.9115 -2.6105 2.3829
5.0057 -2.4348 2.3829
5.0934 -2.2556 2.3829
5.1745 -2.0732 2.3829
5.2490 -1.8878 2.3829
5.3167 -1.6998 2.3829
5.3775 -1.5093 2.3829
5.4314 -1.3166 2.3829
5.4782 -1.1220 2.3829
5.5179 -0.9257 2.3829
5.5503 -0.7280 2.3829
5.5755 -0.5292 2.3829
5.5934 -0.3295 2.3829
5.6040 -0.1292 2.3829
5.6072 0.0714 2.3829
5.6031 0.2721 2.3829
5.5916 0.4725 2.3829
5.5727 0.6724 2.3829
5.5465 0.8715 2.3829
5.5130 1.0696 2.3829
5.4722 1.2664 2.3829
5.4243 1.4615 2.3829
5.3691 1.6548 2.3829
5.3070 1.8459 2.3829
5.2378 2.0347 2.3829
5.1617 2.2207 2.3829
5.0789 2.4039 2.3829
4.9894 2.5838 2.3829
4.8933 2.7604 2.3829
4.7908 2.9333 2.3829
4.6820 3.1022 2.3829
4.5672 3.2671 2.3829
4.4463 3.4276 2.3829
4.3197 3.5835 2.3829
4.1875 3.7346 2.3829
4.0498 3.8807 2.3829
3.9070 4.0216 2.3829
3.7591 4.1572 2.3829
3.6063 4.2871 2.3829
3.4490 4.4114 2.3829
3.2873 4.5298 2.3829
3.1214 4.6421 2.3829
2.9516 4.7482 2.3829
2.7782 4.8480 2.3829
2.6013 4.9413 2.3829
2.4211 5.0281 2.3829
0.8730 1.9925 0.9295
0.8011 2.0225 0.9302
0.7281 2.0499 0.9308
0.6542 2.0746 0.9315
0.5795 2.0966 0.9322
0.5040 2.1160 0.9329
0.4278 2.1326 0.9336
0.3511 2.1464 0.9343
0.2739 2.1574 0.9350
0.1964 2.1657 0.9357
0.1186 2.1712 0.9364
0.0407 2.1738 0.9372
-0.0373 2.1737 0.9379
-0.1152 2.1707 0.9387
-0.1929 2.1649 0.9394
-0.2704 2.1563 0.9402
-0.3476 2.1449 0.9410
-0.4243 2.1307 0.9417
-0.5004 2.1138 0.9425
-0.5758 2.0941 0.9432
-0.6505 2.0718 0.9440
-0.7244 2.0467 0.9447
-0.7973 2.0190 0.9455
-0.8691 1.9887 0.9462
-2.3650 4.9217 2.3829
-2.5378 4.8289 2.3829
-2.7071 4.7300 2.3829
-2.8725 4.6252 2.3829
-3.0340 4.5146 2.3829
-3.1914 4.3985 2.3829
-3.3443 4.2769 2.3829
-3.4927 4.1500 2.3829
-3.6364 4.0180 2.3829
-3.7751 3.8811 2.3829
-3.9088 3.7394 2.3829
-4.0373 3.5932 2.3829
-4.1604 3.4426 2.3829
-4.2780 3.2878 2.3829
-4.3899 3.1291 2.3829
-4.4961 2.9666 2.3829
-4.5963 2.8006 2.3829
-4.6906 2.6312 2.3829
-4.7787 2.4587 2.3829
-4.8607 2.2833 2.3829
-4.9363 2.1052 2.3829
-5.0056 1.9247 2.3829
-5.0683 1.7420 2.3829
-5.1246 1.5572 2.3829
-5.1743 1.3707 2.3829
-5.2174 1.1826 2.3829
-5.2537 0.9932 2.3829
-5.2834 0.8027 2.3829
-5.3063 0.6114 2.3829
-5.3225 0.4195 2.3829
-5.3319 0.2272 2.3829
-5.3345 0.0348 2.3829
-5.3304 -0.1576 2.3829
-5.3194 -0.3496 2.3829
-5.3018 -0.5411 2.3829
-5.2774 -0.7318 2.3829
-5.2464 -0.9215 2.3829
-5.2087 -1.1099 2.3829
-5.1644 -1.2969 2.3829
-5.1136 -1.4822 2.3829
-5.0563 -1.6655 2.3829
-4.9927 -1.8467 2.3829
-4.9227 -2.0256 2.3829
-4.8464 -2.2019 2.3829
-4.7640 -2.3754 2.3829
-4.6756 -2.5459 2.3829
-4.5812 -2.7132 2.3829
-4.4810 -2.8772 2.3829
-4.3750 -3.0375 2.3829
-4.2635 -3.1940 2.3829
-4.1466 -3.3465 2.3829
-4.0243 -3.4949 2.3829
-0.4541 1.9937 0.9422
-0.5253 1.9758 0.9429
-0.5958 1.9553 0.9437
-0.6655 1.9323 0.9444
-0.7343 1.9068 0.9451
-0.8022 1.8788 0.9458
-0.8689 1.8484 0.9464
-2.3514 4.5680 2.3829
-2.5117 4.4764 2.3829
-2.6685 4.3792 2.3829
-2.8216 4.2765 2.3829
-2.9708 4.1685 2.3829
-3.1159 4.0553 2.3829
-3.2568 3.9371 2.3829
-3.3933 3.8141 2.3829
-3.5253 3.6863 2.3829
-3.6525 3.5540 2.3829
-3.7748 3.4174 2.3829
-3.8921 3.2766 2.3829
-4.0042 3.1318 2.3829
-4.1111 2.9832 2.3829
-4.2125 2.8310 2.3829
-4.3085 2.6754 2.3829
-4.3987 2.5166 2.3829
-4.4833 2.3548 2.3829
-4.5620 2.1903 2.3829
-4.6348 2.0231 2.3829
-4.7016 1.8535 2.3829
-4.7623 1.6818 2.3829
-4.8169 1.5081 2.3829
-4.8653 1.3327 2.3829
-4.9075 1.1558 2.3829
-4.9433 0.9776 2.3829
-4.9728 0.7983 2.3829
-4.9960 0.6182 2.3829
-5.0129 0.4374 2.3829
-5.0233 0.2562 2.3829
-5.0273 0.0748 2.3829
-5.0249 -0.1065 2.3829
-5.0162 -0.2877 2.3829
-5.0011 -0.4683 2.3829
-4.9796 -0.6483 2.3829
-4.9519 -0.8273 2.3829
-4.9178 -1.0053 2.3829
-4.8775 -1.1819 2.3829
-4.8311 -1.3569 2.3829
-4.7785 -1.5302 2.3829
-4.7198 -1.7016 2.3829
-4.6552 -1.8707 2.3829
-4.5847 -2.0375 2.3829
-4.5083 -2.2017 2.3829
-4.4262 -2.3631 2.3829
-4.3385 -2.5215 2.3829
-4.2452 -2.6768 2.3829
-4.1466 -2.8287 2.3829
-4.0426 -2.9771 2.3829
-3.9335 -3.1217 2.3829
-3.8193 -3.2624 2.3829
-3.7001 -3.3991 2.3829
-3.5763 -3.5315 2.3829
-3.4478 -3.6595 2.3829
-3.3148 -3.7830 2.3829
-3.1775 -3.9017 2.3829
-3.0361 -4.0156 2.3829
-2.8907 -4.1244 2.3829
-2.7415 -4.2281 2.3829
-2.5886 -4.3265 2.3829
-2.4323 -4.4194 2.3829
-2.2727 -4.5069 2.3829
-2.1101 -4.5886 2.3829
-1.9446 -4.6647 2.3829
-1.7764 -4.7348 2.3829
-1.6057 -4.7990 2.3829
-1.4328 -4.8572 2.3829
-1.2578 -4.9092 2.3829
-1.0810 -4.9550 2.3829
-0.9026 -4.9946 2.3829
-0.7227 -5.0277 2.3829
-0.5417 -5.0546 2.3829
-0.3597 -5.0749 2.3829
-0.1769 -5.0888 2.3829
0.0063 -5.0962 2.3829
0.1898 -5.0971 2.3829
0.3734 -5.0914 2.3829
0.5568 -5.0792 2.3829
0.7397 -5.0604 2.3829
0.9221 -5.0351 2.3829
1.1035 -5.0032 2.3829
1.2838 -4.9649 2.3829
1.4628 -4.9201 2.3829
1.6401 -4.8689 2.3829
1.8157 -4.8113 2.3829
1.9892 -4.7474 2.3829
2.1604 -4.6772 2.3829
2.3292 -4.6009 2.3829
2.4952 -4.5185 2.3829
2.6582 -4.4302 2.3829
2.8181 -4.3359 2.3829
2.9747 -4.2359 2.3829
3.1276 -4.1302 2.3829
3.2767 -4.0190 2.3829
3.4218 -3.9023 2.3829
3.5627 -3.7805 2.3829
3.6992 -3.6535 2.3829
3.8311 -3.5215 2.3829
3.9583 -3.3848 2.3829
4.0805 -3.2435 2.3829
4.1975 -3.0977 2.3829
4.3093 -2.9476 2.3829
4.4156 -2.7935 2.3829
4.5163 -2.6356 2.3829
4.6112 -2.4740 2.3829
4.7003 -2.3089 2.3829
4.7833 -2.1406 2.3829
4.8602 -1.9693 2.3829
4.9308 -1.7952 2.3829
4.9950 -1.6186 2.3829
5.0528 -1.4396 2.3829
5.1041 -1.2586 2.3829
5.1487 -1.0757 2.3829
5.1866 -0.8913 2.3829
5.2178 -0.7055 2.3829
5.2422 -0.5186 2.3829
5.2597 -0.3308 2.3829
5.2703 -0.1425 2.3829
5.2740 0.0461 2.3829
5.2708 0.2348 2.3829
5.2607 0.4233 2.3829
5.2437 0.6113 2.3829
5.2197 0.7987 2.3829
5.1890 0.9850 2.3829
5.1514 1.1702 2.3829
5.1070 1.3538 2.3829
5.0559 1.5358 2.3829
4.9982 1.7157 2.3829
4.9339 1.8934 2.3829
4.8631 2.0687 2.3829
4.7859 2.2412 2.3829
4.7025 2.4108 2.3829
4.6128 2.5772 2.3829
4.5172 2.7402 2.3829
4.4156 2.8995 2.3829
4.3083 3.0550 2.3829
4.1954 3.2064 2.3829
4.0770 3.3535 2.3829
3.9533 3.4962 2.3829
3.8245 3.6342 2.3829
3.6908 3.7673 2.3829
3.5523 3.8955 2.3829
3.4093 4.0184 2.3829
3.2619 4.1360 2.3829
3.1104 4.2480 2.3829
2.9549 4.3544 2.3829
2.7957 4.4550 2.3829
2.6330 4.5497 2.3829
2.4671 4.6383 2.3829
0.8964 1.8415 0.9296
0.8299 1.8724 0.9301
0.7624 1.9009 0.9307
0.6938 1.9269 0.9314
0.6243 1.9505 0.9320
0.5540 1.9715 0.9326
0.4830 1.9900 0.9333
0.4114 2.0059 0.9339
0.3393 2.0192 0.9346
0.2667 2.0299 0.9353
0.1937 2.0379 0.9360
0.1206 2.0434 0.9366
0.0472 2.0462 0.9373
-0.0262 2.0463 0.9380
-0.0995 2.0438 0.9387
-0.1727 2.0386 0.9395
-0.2457 2.0309 0.9402
-0.3184 2.0204 0.9409
-0.3906 2.0074 0.9416
-0.4623 1.9918 0.9423
-0.5334 1.9736 0.9430
-0.6038 1.9528 0.9437
-0.6734 1.9295 0.9444
-0.7421 1.9037 0.9451
-0.8099 1.8754 0.9458
-0.8765 1.8448 0.9465
-2.3699 4.5578 2.3829
-2.5298 4.4656 2.3829
-2.6862 4.3677 2.3829
-2.8389 4.2644 2.3829
-2.9876 4.1558 2.3829
-3.1323 4.0420 2.3829
-3.2727 3.9233 2.3829
-3.4087 3.7997 2.3829
-3.5401 3.6714 2.3829
-3.6667 3.5386 2.3829
-3.7885 3.4015 2.3829
-3.9052 3.2602 2.3829
-4.0167 3.1150 2.3829
-4.1230 2.9660 2.3829
-4.2238 2.8134 2.3829
-4.3191 2.6574 2.3829
-4.4087 2.4983 2.3829
-4.4926 2.3361 2.3829
-4.5706 2.1713 2.3829
-4.6428 2.0038 2.3829
-4.7089 1.8340 2.3829
-4.7689 1.6620 2.3829
-4.8228 1.4882 2.3829
-4.8705 1.3126 2.3829
-4.9119 1.1355 2.3829
-4.9470 0.9572 2.3829
-4.9758 0.7777 2.3829
-4.9983 0.5975 2.3829
-5.0144 0.4167 2.3829
-5.0241 0.2355 2.3829
-5.0274 0.0541 2.3829
-5.0243 -0.1273 2.3829
-5.0148 -0.3084 2.3829
-4.9990 -0.4889 2.3829
-4.9768 -0.6688 2.3829
-4.9483 -0.8478 2.3829
-4.9135 -1.0255 2.3829
-4.8725 -1.2020 2.3829
-4.8254 -1.3769 2.3829
-4.7721 -1.5499 2.3829
-4.7127 -1.7210 2.3829
-4.6474 -1.8899 2.3829
-4.5762 -2.0564 2.3829
-4.4992 -2.2203 2.3829
-4.4165 -2.3814 2.3829
-4.3281 -2.5394 2.3829
-4.2342 -2.6944 2.3829
-4.1349 -2.8459 2.3829
-4.0304 -2.9938 2.3829
-3.9206 -3.1380 2.3829
-3.8059 -3.2783 2.3829
-3.6862 -3.4145 2.3829
-3.5618 -3.5464 2.3829
-3.4328 -3.6739 2.3829
-3.2993 -3.7968 2.3829
-3.1615 -3.9150 2.3829
-3.0197 -4.0283 2.3829
-2.8738 -4.1365 2.3829
-2.7242 -4.2396 2.3829
-2.5709 -4.3374 2.3829
-2.4142 -4.4297 2.3829
-2.2543 -4.5165 2.3829
-2.0913 -4.5976 2.3829
-1.9255 -4.6730 2.3829
-1.7570 -4.7425 2.3829
-1.5861 -4.8060 2.3829
-1.4129 -4.8634 2.3829
-1.2377 -4.9148 2.3829
-1.0607 -4.9599 2.3829
-0.8820 -4.9987 2.3829
-0.7020 -5.0311 2.3829
-0.5209 -5.0572 2.3829
-0.3388 -5.0768 2.3829
-0.1560 -5.0900 2.3829
0.0273 -5.0966 2.3829
0.2108 -5.0968 2.3829
0.3944 -5.0903 2.3829
0.5778 -5.0774 2.3829
0.7607 -5.0578 2.3829
0.9429 -5.0317 2.3829
1.1242 -4.9992 2.3829
1.3043 -4.9601 2.3829
1.4831 -4.9145 2.3829
1.6603 -4.8626 2.3829
1.8356 -4.8043 2.3829
2.0089 -4.7397 2.3829
2.1799 -4.6688 2.3829
2.3483 -4.5918 2.3829
2.5140 -4.5087 2.3829
2.6767 -4.4197 2.3829
2.8362 -4.3248 2.3829
2.9923 -4.2241 2.3829
3.1448 -4.1177 2.3829
3.2935 -4.0059 2.3829
3.4382 -3.8887 2.3829
3.5786 -3.7662 2.3829
3.7146 -3.6386 2.3829
3.8459 -3.5061 2.3829
3.9725 -3.3689 2.3829
4.0941 -3.2270 2.3829
4.2106 -3.0807 2.3829
4.3217 -2.9302 2.3829
4.4274 -2.7757 2.3829
4.5274 -2.6173 2.3829
4.6217 -2.4553 2.3829
4.7101 -2.2898 2.3829
4.7924 -2.1212 2.3829
4.8686 -1.9495 2.3829
4.9385 -1.7751 2.3829
5.0020 -1.5982 2.3829
5.0590 -1.4190 2.3829
5.1095 -1.2378 2.3829
5.1534 -1.0547 2.3829
5.1906 -0.8701 2.3829
5.2209 -0.6841 2.3829
5.2445 -0.4971 2.3829
5.2612 -0.3093 2.3829
5.2711 -0.1210 2.3829
5.2740 0.0677 2.3829
5.2700 0.2564 2.3829
5.2591 0.4448 2.3829
5.2413 0.6328 2.3829
5.2166 0.8201 2.3829
5.1850 1.0063 2.3829
5.1466 1.1913 2.3829
5.1015 1.3748 2.3829
5.0496 1.5565 2.3829
4.9912 1.7362 2.3829
4.9261 1.9136 2.3829
4.8546 2.0886 2.3829
4.7767 2.2608 2.3829
4.6925 2.4300 2.3829
4.6022 2.5960 2.3829
4.5059 2.7586 2.3829
4.4037 2.9175 2.3829
4.2957 3.0725 2.3829
4.1821 3.2234 2.3829
4.0631 3.3701 2.3829
3.9388 3.5122 2.3829
3.8095 3.6497 2.3829
3.6752 3.7823 2.3829
3.5362 3.9098 2.3829
3.3927 4.0321 2.3829
3.2448 4.1491 2.3829
3.0928 4.2605 2.3829
2.9369 4.3662 2.3829
2.7773 4.4661 2.3829
2.6142 4.5601 2.3829
2.4479 4.6480 2.3829
0.8889 1.8452 0.9296
0.8223 1.8758 0.9302
0.7546 1.9040 0.9308
0.6859 1.9297 0.9314
0.6163 1.9530 0.9320
0.5459 1.9737 0.9327
0.4749 1.9919 0.9333
0.4032 2.0075 0.9340
0.3310 2.0205 0.9347
0.2583 2.0309 0.9353
0.1854 2.0387 0.9360
0.1122 2.0438 0.9367
0.0388 2.0463 0.9374
-0.0346 2.0462 0.9381
-0.1079 2.0433 0.9388
-0.1811 2.0379 0.9395
-0.2540 2.0298 0.9403
-0.3266 2.0191 0.9410
-0.3988 2.0057 0.9417
-0.4705 1.9898 0.9424
-0.5415 1.9713 0.9431
-0.6118 1.9502 0.9438
-0.6813 1.9267 0.9445
-0.7499 1.9006 0.9452
-0.8175 1.8721 0.9459
-0.8841 1.8411 0.9466
-2.3884 4.5475 2.3829
-2.5479 4.4547 2.3829
-2.7039 4.3562 2.3829
-2.8561 4.2523 2.3829
-3.0044 4.1431 2.3829
-3.1486 4.0287 2.3829
-3.2885 3.9094 2.3829
-3.4240 3.7852 2.3829
-3.5548 3.6564 2.3829
-3.6809 3.5231 2.3829
-3.8021 3.3855 2.3829
-3.9182 3.2438 2.3829
-4.0292 3.0981 2.3829
-4.1348 2.9487 2.3829
-4.2350 2.7957 2.3829
-4.3296 2.6394 2.3829
-4.4186 2.4799 2.3829
-4.5018 2.3174 2.3829
-4.5792 2.1522 2.3829
-4.6506 1.9845 2.3829
-4.7160 1.8144 2.3829
-4.7754 1.6422 2.3829
-4.8286 1.4681 2.3829
-4.8755 1.2924 2.3829
-4.9162 1.1151 2.3829
-4.9506 0.9367 2.3829
-4.9787 0.7572 2.3829
-5.0005 0.5769 2.3829
-5.0158 0.3960 2.3829
-5.0248 0.2147 2.3829
-5.0273 0.0333 2.3829
-5.0235 -0.1480 2.3829
-5.0133 -0.3291 2.3829
-4.9967 -0.5096 2.3829
-4.9738 -0.6893 2.3829
-4.9446 -0.8682 2.3829
-4.9091 -1.0458 2.3829
-4.8674 -1.2221 2.3829
-4.8196 -1.3968 2.3829
-4.7656 -1.5696 2.3829
-4.7056 -1.7405 2.3829
-4.6396 -1.9091 2.3829
-4.5677 -2.0753 2.3829
-4.4900 -2.2389 2.3829
-4.4066 -2.3996 2.3829
-4.3176 -2.5574 2.3829
-4.2231 -2.7119 2.3829
-4.1232 -2.8630 2.3829
-4.0181 -3.0105 2.3829
-3.9077 -3.1543 2.3829
-3.7924 -3.2941 2.3829
-0.4279 1.8810 0.9422
-0.4951 1.8641 0.9428
-0.5616 1.8448 0.9435
-0.6273 1.8231 0.9442
-0.6922 1.7991 0.9448
-0.7563 1.7727 0.9455
-0.8193 1.7440 0.9461
-0.8812 1.7131 0.9468
-2.3693 4.2253 2.3829
-2.5174 4.1337 2.3829
-2.6620 4.0370 2.3829
-2.8029 3.9352 2.3829
-2.9401 3.8285 2.3829
-3.0732 3.7171 2.3829
-3.2022 3.6011 2.3829
-3.3269 3.4806 2.3829
-3.4471 3.3558 2.3829
-3.5627 3.2270 2.3829
-3.6736 3.0941 2.3829
-3.7796 2.9575 2.3829
-3.8807 2.8174 2.3829
-3.9766 2.6738 2.3829
-4.0673 2.5269 2.3829
-4.1527 2.3771 2.3829
-4.2327 2.2244 2.3829
-4.3072 2.0690 2.3829
-4.3761 1.9112 2.3829
-4.4393 1.7511 2.3829
-4.4968 1.5890 2.3829
-4.5484 1.4250 2.3829
-4.5943 1.2593 2.3829
-4.6342 1.0923 2.3829
-4.6682 0.9240 2.3829
-4.6962 0.7546 2.3829
-4.7182 0.5845 2.3829
-4.7342 0.4137 2.3829
-4.7441 0.2425 2.3829
-4.7480 0.0712 2.3829
-4.7458 -0.1002 2.3829
-4.7376 -0.2712 2.3829
-4.7234 -0.4419 2.3829
-4.7032 -0.6119 2.3829
-4.6770 -0.7811 2.3829
-4.6449 -0.9492 2.3829
-4.6069 -1.1161 2.3829
-4.5630 -1.2815 2.3829
-4.5133 -1.4452 2.3829
-4.4579 -1.6071 2.3829
-4.3969 -1.7669 2.3829
-4.3303 -1.9245 2.3829
-4.2581 -2.0796 2.3829
-4.1805 -2.2321 2.3829
-4.0976 -2.3817 2.3829
-4.0095 -2.5284 2.3829
-3.9163 -2.6719 2.3829
-3.8180 -2.8120 2.3829
-3.7148 -2.9487 2.3829
-3.6069 -3.0816 2.3829
-3.4944 -3.2107 2.3829
-3.3773 -3.3357 2.3829
-3.2559 -3.4566 2.3829
-3.1302 -3.5731 2.3829
-3.0004 -3.6852 2.3829
-2.8668 -3.7927 2.3829
-2.7293 -3.8954 2.3829
-2.5883 -3.9933 2.3829
-2.4439 -4.0861 2.3829
-2.2962 -4.1738 2.3829
-2.1454 -4.2563 2.3829
-1.9918 -4.3334 2.3829
-1.8354 -4.4051 2.3829
-1.6765 -4.4712 2.3829
-1.5152 -4.5317 2.3829
-1.3519 -4.5865 2.3829
-1.1866 -4.6354 2.3829
-1.0196 -4.6785 2.3829
-0.8510 -4.7157 2.3829
-0.6812 -4.7469 2.3829
-0.5102 -4.7720 2.3829
-0.3384 -4.7911 2.3829
-0.1658 -4.8040 2.3829
0.0072 -4.8108 2.3829
0.1804 -4.8114 2.3829
0.3537 -4.8059 2.3829
0.5268 -4.7941 2.3829
0.6995 -4.7762 2.3829
0.8716 -4.7521 2.3829
1.0428 -4.7219 2.3829
1.2129 -4.6855 2.3829
1.3817 -4.6430 2.3829
1.5491 -4.5944 2.3829
1.7147 -4.5399 2.3829
1.8783 -4.4794 2.3829
2.0399 -4.4130 2.3829
2.1990 -4.3408 2.3829
2.3555 -4.2629 2.3829
2.5093 -4.1793 2.3829
2.6600 -4.0902 2.3829
2.8076 -3.9957 2.3829
2.9517 -3.8958 2.3829
3.0923 -3.7907 2.3829
3.2290 -3.6806 2.3829
3.3618 -3.5654 2.3829
3.4904 -3.4455 2.3829
3.6147 -3.3209 2.3829
3.7345 -3.1918 2.3829
3.8496 -3.0584 2.3829
3.9598 -2.9208 2.3829
4.0650 -2.7792 2.3829
4.1651 -2.6338 2.3829
4.2599 -2.4848 2.3829
4.3493 -2.3323 2.3829
4.4331 -2.1766 2.3829
4.5113 -2.0178 2.3829
4.5836 -1.8562 2.3829
4.6501 -1.6920 2.3829
4.7105 -1.5255 2.3829
4.7648 -1.3567 2.3829
4.8130 -1.1860 2.3829
4.8550 -1.0136 2.3829
4.8906 -0.8397 2.3829
4.9198 -0.6645 2.3829
4.9427 -0.4883 2.3829
4.9591 -0.3113 2.3829
4.9690 -0.1338 2.3829
4.9724 0.0440 2.3829
4.9693 0.2218 2.3829
4.9597 0.3995 2.3829
4.9436 0.5767 2.3829
4.9210 0.7533 2.3829
4.8920 0.9289 2.3829
4.8565 1.1034 2.3829
4.8146 1.2765 2.3829
4.7664 1.4480 2.3829
4.7120 1.6176 2.3829
4.6514 1.7851 2.3829
4.5847 1.9503 2.3829
4.5120 2.1129 2.3829
4.4333 2.2727 2.3829
4.3489 2.4295 2.3829
4.2587 2.5831 2.3829
4.1631 2.7333 2.3829
4.0619 2.8799 2.3829
3.9555 3.0226 2.3829
3.8440 3.1614 2.3829
3.7275 3.2959 2.3829
3.6061 3.4260 2.3829
3.4801 3.5516 2.3829
3.3497 3.6724 2.3829
3.2149 3.7884 2.3829
3.0761 3.8993 2.3829
2.9333 4.0050 2.3829
2.7868 4.1054 2.3829
2.6368 4.2003 2.3829
2.4835 4.2897 2.3829
0.9079 1.7062 0.9297
0.8462 1.7376 0.9302
0.7835 1.7667 0.9308
0.7197 1.7936 0.9313
0.6550 1.8181 0.9319
0.5895 1.8403 0.9325
0.5232 1.8601 0.9331
0.4562 1.8776 0.9337
0.3886 1.8926 0.9343
0.3206 1.9051 0.9350
0.2521 1.9152 0.9356
0.1833 1.9228 0.9362
0.1142 1.9279 0.9369
0.0450 1.9306 0.9376
-0.0242 1.9307 0.9382
-0.0934 1.9283 0.9389
-0.1625 1.9235 0.9396
-0.2313 1.9161 0.9402
-0.2999 1.9063 0.9409
-0.3680 1.8940 0.9416
-0.4357 1.8792 0.9422
-0.5027 1.8621 0.9429
-0.5691 1.8425 0.9436
-0.6348 1.8205 0.9442
-0.6996 1.7962 0.9449
-0.7635 1.7695 0.9456
-0.8264 1.7406 0.9462
-0.8882 1.7094 0.9469
-2.3864 4.2151 2.3829
-2.5341 4.1229 2.3829
-2.6783 4.0256 2.3829
-2.8188 3.9232 2.3829
-2.9555 3.8160 2.3829
-3.0882 3.7040 2.3829
-3.2167 3.5875 2.3829
-3.3408 3.4665 2.3829
-3.4606 3.3413 2.3829
-3.5756 3.2120 2.3829
-3.6860 3.0787 2.3829
-3.7914 2.9417 2.3829
-3.8919 2.8011 2.3829
-3.9872 2.6571 2.3829
-4.0773 2.5099 2.3829
-4.1621 2.3597 2.3829
-4.2415 2.2067 2.3829
-4.3153 2.0510 2.3829
-4.3836 1.8930 2.3829
-4.4461 1.7326 2.3829
-4.5030 1.5703 2.3829
-4.5540 1.4061 2.3829
-4.5991 1.2403 2.3829
-4.6384 1.0731 2.3829
-4.6717 0.9046 2.3829
-4.6990 0.7352 2.3829
-4.7203 0.5649 2.3829
-4.7356 0.3941 2.3829
-4.7448 0.2229 2.3829
-4.7480 0.0516 2.3829
-4.7452 -0.1197 2.3829
-4.7363 -0.2908 2.3829
-4.7214 -0.4614 2.3829
-4.7005 -0.6313 2.3829
-4.6737 -0.8004 2.3829
-4.6409 -0.9684 2.3829
-4.6022 -1.1351 2.3829
-4.5576 -1.3003 2.3829
-4.5073 -1.4638 2.3829
-4.4513 -1.6255 2.3829
-4.3896 -1.7850 2.3829
-4.3223 -1.9423 2.3829
-4.2495 -2.0972 2.3829
-4.1713 -2.2493 2.3829
-4.0878 -2.3987 2.3829
-3.9991 -2.5450 2.3829
-3.9053 -2.6881 2.3829
-3.8064 -2.8279 2.3829
-3.7027 -2.9641 2.3829
-3.5943 -3.0966 2.3829
-3.4812 -3.2252 2.3829
-3.3636 -3.3497 2.3829
