ply
format ascii 1.0
element vertex 2179
property float32 x
property float32 y
property float32 z
end_header
5.7210 -1.1936 2.3873
5.7594 -0.9874 2.3873
5.7904 -0.7801 2.3873
5.8139 -0.5716 2.3873
5.8299 -0.3626 2.3873
5.8383 -0.1531 2.3873
5.8392 0.0566 2.3873
5.8326 0.2661 2.3873
5.8185 0.4752 2.3873
5.7969 0.6836 2.3873
5.7678 0.8912 2.3873
5.7313 1.0974 2.3873
5.6874 1.3022 2.3873
5.6362 1.5053 2.3873
5.5777 1.7064 2.3873
5.5121 1.9053 2.3873
5.4393 2.1016 2.3873
5.3596 2.2952 2.3873
5.2730 2.4858 2.3873
5.1796 2.6731 2.3873
5.0796 2.8569 2.3873
4.9731 3.0370 2.3873
4.8602 3.2131 2.3873
4.7410 3.3851 2.3873
4.6158 3.5527 2.3873
4.4847 3.7156 2.3873
4.3478 3.8737 2.3873
4.2054 4.0268 2.3873
4.0576 4.1747 2.3873
3.9046 4.3172 2.3873
3.7466 4.4540 2.3873
3.5838 4.5851 2.3873
3.4164 4.7103 2.3873
3.2447 4.8294 2.3873
3.0689 4.9423 2.3873
2.8891 5.0488 2.3873
2.7057 5.1488 2.3873
2.5188 5.2421 2.3873
0.9246 2.1157 0.9479
0.8481 2.1477 0.9480
0.7705 2.1770 0.9482
0.6919 2.2035 0.9484
0.6123 2.2271 0.9485
0.5320 2.2478 0.9487
0.4510 2.2656 0.9488
0.3693 2.2805 0.9489
0.2872 2.2924 0.9490
0.2047 2.3014 0.9491
0.1219 2.3073 0.9492
0.0390 2.3103 0.9493
-0.0441 2.3103 0.9494
-0.1270 2.3073 0.9494
-0.2098 2.3013 0.9495
-0.2923 2.2923 0.9495
-0.3745 2.2804 0.9496
-0.4561 2.2654 0.9496
-0.5372 2.2476 0.9496
-0.6176 2.2268 0.9496
-0.6971 2.2032 0.9496
-0.7758 2.1766 0.9495
-0.8535 2.1473 0.9495
-2.3384 5.3186 2.3873
-2.5280 5.2313 2.3873
-2.7143 5.1372 2.3873
-2.8972 5.0366 2.3873
-3.0763 4.9294 2.3873
-3.2515 4.8160 2.3873
-3.4225 4.6963 2.3873
-3.5892 4.5706 2.3873
-3.7512 4.4389 2.3873
-3.9085 4.3016 2.3873
-4.0607 4.1587 2.3873
-4.2077 4.0105 2.3873
-4.3494 3.8571 2.3873
-4.4854 3.6987 2.3873
-4.6158 3.5355 2.3873
-4.7402 3.3677 2.3873
-4.8585 3.1956 2.3873
-4.9706 3.0194 2.3873
-5.0763 2.8392 2.3873
-5.1755 2.6553 2.3873
-5.2681 2.4680 2.3873
-5.3539 2.2775 2.3873
-5.4328 2.0840 2.3873
-5.5048 1.8878 2.3873
-5.5697 1.6891 2.3873
-5.6274 1.4882 2.3873
-5.6780 1.2854 2.3873
-5.7212 1.0808 2.3873
-5.7570 0.8748 2.3873
-5.7855 0.6676 2.3873
-5.8065 0.4595 2.3873
-5.8200 0.2508 2.3873
-5.8261 0.0417 2.3873
-5.8246 -0.1675 2.3873
-5.8157 -0.3766 2.3873
-5.7992 -0.5852 2.3873
-5.7753 -0.7931 2.3873
-5.7439 -1.0001 2.3873
-5.7051 -1.2058 2.3873
-5.6590 -1.4101 2.3873
-5.6055 -1.6125 2.3873
-5.5448 -1.8130 2.3873
-5.4770 -2.0111 2.3873
-5.4020 -2.2067 2.3873
-5.3201 -2.3995 2.3873
-5.2313 -2.5893 2.3873
-5.1357 -2.7758 2.3873
-5.0335 -2.9588 2.3873
-4.9247 -3.1380 2.3873
-4.8096 -3.3131 2.3873
-4.6882 -3.4841 2.3873
-4.5608 -3.6506 2.3873
-4.4274 -3.8124 2.3873
-4.2883 -3.9694 2.3873
-4.1436 -4.1212 2.3873
-3.9935 -4.2678 2.3873
-3.8383 -4.4089 2.3873
-3.6780 -4.5444 2.3873
-3.5130 -4.6740 2.3873
-3.3434 -4.7976 2.3873
-3.1695 -4.9150 2.3873
-2.9914 -5.0261 2.3873
-2.8094 -5.1307 2.3873
-2.6238 -5.2288 2.3873
-2.4347 -5.3201 2.3873
-2.2424 -5.4045 2.3873
-2.0473 -5.4820 2.3873
-1.8494 -5.5524 2.3873
-1.6491 -5.6156 2.3873
-1.4467 -5.6716 2.3873
-1.2424 -5.7202 2.3873
-1.0364 -5.7615 2.3873
-0.8291 -5.7954 2.3873
-0.6207 -5.8217 2.3873
-0.4114 -5.8405 2.3873
-0.2016 -5.8518 2.3873
0.0077 -5.4980 2.3873
0.2050 -5.4944 2.3873
0.4020 -5.4837 2.3873
0.5985 -5.4659 2.3873
0.7942 -5.4411 2.3873
0.9889 -5.4091 2.3873
1.1823 -5.3702 2.3873
1.3742 -5.3244 2.3873
1.5643 -5.2717 2.3873
1.7524 -5.2122 2.3873
1.9383 -5.1459 2.3873
2.1216 -5.0730 2.3873
2.3022 -4.9935 2.3873
2.4798 -4.9076 2.3873
2.6542 -4.8154 2.3873
2.8252 -4.7169 2.3873
2.9925 -4.6124 2.3873
3.1559 -4.5018 2.3873
3.3152 -4.3855 2.3873
3.4702 -4.2635 2.3873
3.6207 -4.1361 2.3873
3.7666 -4.0033 2.3873
3.9075 -3.8653 2.3873
4.0434 -3.7224 2.3873
4.1740 -3.5747 2.3873
4.2993 -3.4223 2.3873
4.4189 -3.2656 2.3873
4.5329 -3.1047 2.3873
4.6409 -2.9398 2.3873
4.7430 -2.7711 2.3873
4.8389 -2.5989 2.3873
4.9286 -2.4234 2.3873
5.0118 -2.2447 2.3873
5.0886 -2.0632 2.3873
5.1588 -1.8791 2.3873
5.2223 -1.6929 2.3873
5.2791 -1.5039 2.3873
5.3290 -1.3134 2.3873
5.3721 -1.1212 2.3873
5.4082 -0.9275 2.3873
5.4373 -0.7328 2.3873
5.4594 -0.5371 2.3873
5.4745 -0.3408 2.3873
5.4825 -0.1441 2.3873
5.4834 0.0528 2.3873
5.4772 0.2495 2.3873
5.4640 0.4459 2.3873
5.4437 0.6416 2.3873
5.4165 0.8365 2.3873
5.3822 1.0302 2.3873
5.3410 1.2226 2.3873
5.2930 1.4133 2.3873
5.2381 1.6022 2.3873
5.1765 1.7889 2.3873
5.1082 1.9733 2.3873
5.0334 2.1551 2.3873
4.9521 2.3341 2.3873
4.8645 2.5101 2.3873
4.7706 2.6827 2.3873
4.6706 2.8519 2.3873
4.5646 3.0173 2.3873
4.4527 3.1789 2.3873
4.3352 3.3363 2.3873
4.2120 3.4893 2.3873
4.0835 3.6378 2.3873
3.9498 3.7816 2.3873
3.8110 3.9206 2.3873
3.6673 4.0544 2.3873
3.5190 4.1830 2.3873
3.3661 4.3062 2.3873
3.2089 4.4238 2.3873
3.0477 4.5357 2.3873
2.8825 4.6417 2.3873
2.7137 4.7417 2.3873
2.5414 4.8356 2.3873
2.3659 4.9233 2.3873
0.8681 1.9862 0.9475
0.7963 2.0163 0.9476
0.7234 2.0438 0.9478
0.6496 2.0686 0.9479
0.5749 2.0907 0.9481
0.4995 2.1102 0.9482
0.4234 2.1269 0.9483
0.3468 2.1409 0.9484
0.2697 2.1520 0.9486
0.1922 2.1604 0.9486
0.1145 2.1660 0.9487
0.0366 2.1688 0.9488
-0.0413 2.1688 0.9489
-0.1192 2.1660 0.9489
-0.1969 2.1604 0.9490
-0.2744 2.1519 0.9490
-0.3515 2.1407 0.9490
-0.4281 2.1267 0.9491
-0.5042 2.1099 0.9491
-0.5797 2.0904 0.9491
-0.6544 2.0682 0.9490
-0.7283 2.0433 0.9490
-0.8012 2.0158 0.9490
-0.8730 1.9857 0.9489
-2.3744 4.9135 2.3873
-2.5494 4.8252 2.3873
-2.7211 4.7307 2.3873
-2.8894 4.6300 2.3873
-3.0539 4.5234 2.3873
-3.2146 4.4110 2.3873
-3.3711 4.2929 2.3873
-3.5233 4.1693 2.3873
-3.6710 4.0403 2.3873
-3.8140 3.9061 2.3873
-3.9520 3.7668 2.3873
-4.0851 3.6227 2.3873
-4.2129 3.4739 2.3873
-4.3352 3.3206 2.3873
-4.4521 3.1631 2.3873
-4.5632 3.0014 2.3873
-4.6685 2.8358 2.3873
-4.7677 2.6666 2.3873
-4.8609 2.4939 2.3873
-4.9478 2.3180 2.3873
-5.0284 2.1390 2.3873
-5.1025 1.9573 2.3873
-5.1701 1.7730 2.3873
-5.2310 1.5864 2.3873
-5.2852 1.3977 2.3873
-5.3326 1.2071 2.3873
-5.3732 1.0150 2.3873
-5.4068 0.8215 2.3873
-5.4335 0.6269 2.3873
-5.4532 0.4315 2.3873
-5.4659 0.2355 2.3873
-5.4715 0.0391 2.3873
-5.4701 -0.1574 2.3873
-5.4617 -0.3537 2.3873
-5.4462 -0.5497 2.3873
-5.4237 -0.7449 2.3873
-5.3942 -0.9393 2.3873
-5.3577 -1.1325 2.3873
-5.3144 -1.3243 2.3873
-5.2641 -1.5144 2.3873
-5.2071 -1.7026 2.3873
-5.1433 -1.8887 2.3873
-5.0729 -2.0724 2.3873
-4.9959 -2.2534 2.3873
-4.9125 -2.4316 2.3873
-4.8227 -2.6067 2.3873
-4.7267 -2.7785 2.3873
-4.6245 -2.9468 2.3873
-4.5164 -3.1112 2.3873
-4.4024 -3.2718 2.3873
-4.2827 -3.4281 2.3873
-4.1574 -3.5800 2.3873
-4.0268 -3.7274 2.3873
-3.8909 -3.8700 2.3873
-3.7500 -4.0076 2.3873
-3.6042 -4.1401 2.3873
-3.4537 -4.2672 2.3873
-3.2987 -4.3889 2.3873
-3.1394 -4.5049 2.3873
-2.9761 -4.6152 2.3873
-2.8089 -4.7195 2.3873
-2.6380 -4.8177 2.3873
-2.4636 -4.9097 2.3873
-2.2861 -4.9954 2.3873
-2.1056 -5.0747 2.3873
-1.9223 -5.1474 2.3873
-1.7365 -5.2135 2.3873
-1.5485 -5.2728 2.3873
-1.3584 -5.3254 2.3873
-1.1666 -5.3711 2.3873
-0.9732 -5.4098 2.3873
-0.7785 -5.4416 2.3873
-0.5828 -5.4663 2.3873
-0.3864 -5.4840 2.3873
-0.1894 -5.4945 2.3873
0.0079 -5.4980 2.3873
0.2051 -5.4944 2.3873
0.4021 -5.4837 2.3873
0.5986 -5.4659 2.3873
0.7943 -5.4410 2.3873
0.9890 -5.4091 2.3873
1.1824 -5.3702 2.3873
1.3743 -5.3244 2.3873
1.5645 -5.2717 2.3873
1.7526 -5.2121 2.3873
1.9384 -5.1459 2.3873
2.1217 -5.0730 2.3873
2.3023 -4.9935 2.3873
2.4799 -4.9076 2.3873
2.6543 -4.8153 2.3873
2.8253 -4.7168 2.3873
2.9926 -4.6123 2.3873
3.1560 -4.5018 2.3873
3.3153 -4.3854 2.3873
3.4703 -4.2635 2.3873
3.6208 -4.1360 2.3873
3.7667 -4.0032 2.3873
3.9076 -3.8652 2.3873
4.0435 -3.7223 2.3873
4.1741 -3.5746 2.3873
4.2994 -3.4222 2.3873
4.4190 -3.2655 2.3873
4.5330 -3.1046 2.3873
4.6410 -2.9397 2.3873
4.7431 -2.7710 2.3873
4.8390 -2.5988 2.3873
4.9286 -2.4233 2.3873
5.0119 -2.2446 2.3873
5.0886 -2.0631 2.3873
5.1588 -1.8798 2.3873
5.2223 -1.6929 2.3873
5.2791 -1.5038 2.3873
5.3291 -1.3133 2.3873
5.3721 -1.1210 2.3873
5.4082 -0.9274 2.3873
5.4373 -0.7326 2.3873
5.4594 -0.5370 2.3873
5.4745 -0.3406 2.3873
5.4825 -0.1439 2.3873
5.4834 0.0529 2.3873
5.4772 0.2497 2.3873
5.4640 0.4460 2.3873
5.4437 0.6418 2.3873
5.4164 0.8366 2.3873
5.3822 1.0304 2.3873
5.3410 1.2227 2.3873
5.2929 1.4135 2.3873
5.2381 1.6023 2.3873
5.1765 1.7891 2.3873
5.1082 1.9735 2.3873
5.0334 2.1553 2.3873
4.9521 2.3343 2.3873
4.8644 2.5102 2.3873
4.7705 2.6829 2.3873
4.6705 2.8520 2.3873
4.5645 3.0175 2.3873
4.4526 3.1790 2.3873
4.3351 3.3363 2.3873
4.2120 3.4894 2.3873
4.0834 3.6379 2.3873
3.9497 3.7817 2.3873
3.8109 3.9206 2.3873
3.6672 4.0545 2.3873
3.5189 4.1831 2.3873
3.3660 4.3062 2.3873
3.2088 4.4238 2.3873
3.0476 4.5357 2.3873
2.8824 4.6418 2.3873
2.7136 4.7418 2.3873
2.5413 4.8357 2.3873
2.3658 4.9234 2.3873
0.8681 1.9862 0.9475
0.7962 2.0163 0.9476
0.7234 2.0438 0.9478
0.6496 2.0686 0.9479
0.5749 2.0907 0.9481
0.4995 2.1102 0.9482
0.4234 2.1269 0.9483
0.3467 2.1409 0.9484
0.2696 2.1521 0.9486
0.1922 2.1604 0.9486
0.1145 2.1660 0.9487
0.0366 2.1688 0.9488
-0.0413 2.1688 0.9489
-0.1192 2.1660 0.9489
-0.1969 2.1604 0.9490
-0.2744 2.1519 0.9490
-0.3515 2.1407 0.9490
-0.4282 2.1267 0.9491
-0.5043 2.1099 0.9491
-0.5797 2.0904 0.9491
-0.6544 2.0682 0.9490
-0.7283 2.0433 0.9490
-0.8012 2.0158 0.9490
-0.8731 1.9857 0.9489
-2.3745 4.9135 2.3873
-2.5495 4.8251 2.3873
-2.7212 4.7306 2.3873
-2.8895 4.6300 2.3873
-3.0540 4.5234 2.3873
-3.2147 4.4109 2.3873
-3.3712 4.2928 2.3873
-3.5234 4.1692 2.3873
-3.6711 4.0402 2.3873
-3.8140 3.9060 2.3873
-3.9521 3.7667 2.3873
-4.0852 3.6226 2.3873
-4.2129 3.4738 2.3873
-4.3353 3.3205 2.3873
-4.4521 3.1630 2.3873
-4.5633 3.0013 2.3873
-4.6685 2.8357 2.3873
-4.7678 2.6665 2.3873
-4.8610 2.4938 2.3873
-4.9479 2.3179 2.3873
-5.0284 2.1389 2.3873
-5.1026 1.9572 2.3873
-5.1701 1.7729 2.3873
-5.2310 1.5862 2.3873
-5.2852 1.3976 2.3873
-5.3326 1.2070 2.3873
-5.3732 1.0149 2.3873
-5.4068 0.8214 2.3873
-5.4335 0.6268 2.3873
-5.4532 0.4314 2.3873
-5.4659 0.2353 2.3873
-5.4715 0.0389 2.3873
-5.4701 -0.1575 2.3873
-5.4617 -0.3539 2.3873
-5.4462 -0.5498 2.3873
-5.4237 -0.7451 2.3873
-5.3942 -0.9394 2.3873
-5.3577 -1.1326 2.3873
-5.3143 -1.3244 2.3873
-5.2641 -1.5145 2.3873
-5.2070 -1.7027 2.3873
-5.1433 -1.8888 2.3873
-5.0729 -2.0725 2.3873
-4.9959 -2.2535 2.3873
-4.9125 -2.4317 2.3873
-4.8227 -2.6068 2.3873
-4.7266 -2.7786 2.3873
-4.6245 -2.9469 2.3873
-4.5163 -3.1114 2.3873
-4.4023 -3.2719 2.3873
-4.2826 -3.4282 2.3873
-4.1573 -3.5801 2.3873
-4.0267 -3.7275 2.3873
-3.8908 -3.8701 2.3873
-3.7499 -4.0077 2.3873
-3.6041 -4.1401 2.3873
-3.4536 -4.2673 2.3873
-3.2986 -4.3890 2.3873
-3.1393 -4.5050 2.3873
-2.9760 -4.6152 2.3873
-2.8087 -4.7195 2.3873
-2.6379 -4.8178 2.3873
-2.4635 -4.9098 2.3873
-2.2860 -4.9955 2.3873
-2.1055 -5.0747 2.3873
-1.9222 -5.1474 2.3873
-1.7364 -5.2135 2.3873
-1.5484 -5.2729 2.3873
-1.3583 -5.3254 2.3873
-1.1664 -5.3711 2.3873
-0.9731 -5.4098 2.3873
-0.7784 -5.4416 2.3873
-0.5827 -5.4663 2.3873
-0.3862 -5.4840 2.3873
-0.1893 -5.4946 2.3873
0.0073 -5.1758 2.3873
0.1930 -5.1724 2.3873
0.3785 -5.1623 2.3873
0.5634 -5.1455 2.3873
0.7477 -5.1221 2.3873
0.9309 -5.0921 2.3873
1.1130 -5.0554 2.3873
1.2937 -5.0123 2.3873
1.4726 -4.9627 2.3873
1.6497 -4.9066 2.3873
1.8247 -4.8443 2.3873
1.9972 -4.7756 2.3873
2.1672 -4.7008 2.3873
2.3344 -4.6200 2.3873
2.4986 -4.5331 2.3873
2.6595 -4.4404 2.3873
2.8170 -4.3420 2.3873
2.9708 -4.2380 2.3873
3.1208 -4.1285 2.3873
3.2668 -4.0137 2.3873
3.4085 -3.8937 2.3873
3.5458 -3.7687 2.3873
3.6785 -3.6389 2.3873
3.8064 -3.5043 2.3873
3.9294 -3.3653 2.3873
4.0473 -3.2219 2.3873
4.1600 -3.0744 2.3873
4.2672 -2.9229 2.3873
4.3690 -2.7677 2.3873
4.4651 -2.6089 2.3873
4.5554 -2.4468 2.3873
4.6398 -2.2816 2.3873
4.7182 -2.1134 2.3873
4.7905 -1.9425 2.3873
4.8566 -1.7692 2.3873
4.9165 -1.5936 2.3873
4.9699 -1.4160 2.3873
5.0170 -1.2366 2.3873
5.0575 -1.0557 2.3873
5.0916 -0.8734 2.3873
5.1190 -0.6900 2.3873
5.1399 -0.5058 2.3873
5.1541 -0.3210 2.3873
5.1616 -0.1358 2.3873
5.1625 0.0495 2.3873
5.1567 0.2347 2.3873
5.1443 0.4196 2.3873
5.1253 0.6039 2.3873
5.0997 0.7874 2.3873
5.0674 0.9698 2.3873
5.0287 1.1509 2.3873
4.9835 1.3305 2.3873
4.9319 1.5083 2.3873
4.8739 1.6842 2.3873
4.8097 1.8578 2.3873
4.7392 2.0290 2.3873
4.6627 2.1975 2.3873
4.5802 2.3632 2.3873
4.4919 2.5258 2.3873
4.3977 2.6851 2.3873
4.2979 2.8409 2.3873
4.1927 2.9930 2.3873
4.0820 3.1412 2.3873
3.9661 3.2853 2.3873
3.8451 3.4252 2.3873
3.7192 3.5606 2.3873
3.5885 3.6914 2.3873
3.4533 3.8175 2.3873
3.3136 3.9386 2.3873
3.1697 4.0546 2.3873
3.0217 4.1654 2.3873
2.8699 4.2707 2.3873
2.7144 4.3706 2.3873
2.5554 4.4648 2.3873
2.3932 4.5533 2.3873
0.8837 1.8388 0.9469
0.8172 1.8695 0.9471
0.7496 1.8978 0.9473
0.6810 1.9237 0.9474
0.6115 1.9470 0.9475
0.5412 1.9679 0.9477
0.4702 1.9862 0.9478
0.3986 2.0019 0.9479
0.3264 2.0150 0.9480
0.2539 2.0255 0.9481
0.1810 2.0334 0.9482
0.1078 2.0387 0.9483
0.0345 2.0413 0.9484
-0.0388 2.0413 0.9484
-0.1121 2.0387 0.9485
-0.1853 2.0333 0.9485
-0.2582 2.0254 0.9486
-0.3308 2.0148 0.9486
-0.4030 2.0017 0.9486
-0.4746 1.9859 0.9486
-0.5456 1.9675 0.9486
-0.6159 1.9466 0.9486
-0.6854 1.9232 0.9486
-0.7541 1.8973 0.9485
-0.8217 1.8689 0.9485
-0.8883 1.8381 0.9484
-2.4007 4.5437 2.3873
-2.5624 4.4546 2.3873
-2.7209 4.3599 2.3873
-2.8758 4.2595 2.3873
-3.0271 4.1536 2.3873
-3.1745 4.0424 2.3873
-3.3178 3.9260 2.3873
-3.4568 3.8045 2.3873
-3.5915 3.6781 2.3873
-3.7215 3.5469 2.3873
-3.8467 3.4112 2.3873
-3.9671 3.2711 2.3873
-4.0823 3.1267 2.3873
-4.1923 2.9783 2.3873
-4.2969 2.8261 2.3873
-4.3960 2.6702 2.3873
-4.4895 2.5108 2.3873
-4.5772 2.3482 2.3873
-4.6590 2.1825 2.3873
-4.7349 2.0140 2.3873
-4.8046 1.8428 2.3873
-4.8682 1.6693 2.3873
-4.9256 1.4936 2.3873
-4.9766 1.3159 2.3873
-5.0212 1.1365 2.3873
-5.0594 0.9555 2.3873
-5.0910 0.7734 2.3873
-5.1161 0.5901 2.3873
-5.1346 0.4061 2.3873
-5.1465 0.2215 2.3873
-5.1518 0.0366 2.3873
-5.1505 -0.1484 2.3873
-5.1425 -0.3333 2.3873
-5.1279 -0.5177 2.3873
-5.1066 -0.7016 2.3873
-5.0788 -0.8846 2.3873
-5.0445 -1.0665 2.3873
-5.0036 -1.2470 2.3873
-4.9562 -1.4260 2.3873
-4.9025 -1.6032 2.3873
-4.8424 -1.7784 2.3873
-4.7761 -1.9513 2.3873
-4.7036 -2.1218 2.3873
-4.6250 -2.2895 2.3873
-4.5405 -2.4544 2.3873
-4.4500 -2.6161 2.3873
-4.3538 -2.7745 2.3873
-4.2520 -2.9293 2.3873
-4.1446 -3.0804 2.3873
-4.0319 -3.2276 2.3873
-3.9140 -3.3706 2.3873
-3.7909 -3.5093 2.3873
-3.6630 -3.6435 2.3873
-3.5303 -3.7731 2.3873
-3.3930 -3.8978 2.3873
-3.2513 -4.0174 2.3873
-3.1054 -4.1320 2.3873
-2.9554 -4.2412 2.3873
-2.8016 -4.3449 2.3873
-2.6442 -4.4431 2.3873
-2.4833 -4.5356 2.3873
-2.3192 -4.6222 2.3873
-2.1521 -4.7028 2.3873
-1.9821 -4.7774 2.3873
-1.8096 -4.8459 2.3873
-1.6347 -4.9080 2.3873
-1.4577 -4.9639 2.3873
-1.2787 -5.0133 2.3873
-1.0981 -5.0563 2.3873
-0.9161 -5.0928 2.3873
-0.7328 -5.1227 2.3873
-0.5486 -5.1459 2.3873
-0.3636 -5.1626 2.3873
-0.1782 -5.1725 2.3873
0.0075 -5.1758 2.3873
0.1931 -5.1724 2.3873
0.3786 -5.1623 2.3873
0.5635 -5.1455 2.3873
0.7478 -5.1221 2.3873
0.9311 -5.0920 2.3873
1.1131 -5.0554 2.3873
1.2938 -5.0123 2.3873
1.4728 -4.9626 2.3873
1.6498 -4.9066 2.3873
1.8248 -4.8442 2.3873
1.9973 -4.7756 2.3873
2.1673 -4.7008 2.3873
2.3345 -4.6199 2.3873
2.4987 -4.5331 2.3873
2.6596 -4.4404 2.3873
2.8171 -4.3420 2.3873
2.9709 -4.2379 2.3873
3.1209 -4.1285 2.3873
3.2669 -4.0136 2.3873
3.4086 -3.8936 2.3873
3.5459 -3.7686 2.3873
3.6786 -3.6388 2.3873
3.8065 -3.5042 2.3873
3.9295 -3.3652 2.3873
4.0474 -3.2218 2.3873
4.1600 -3.0743 2.3873
4.2673 -2.9228 2.3873
4.3691 -2.7676 2.3873
4.4651 -2.6088 2.3873
4.5555 -2.4467 2.3873
4.6399 -2.2815 2.3873
4.7183 -2.1133 2.3873
4.7906 -1.9424 2.3873
4.8567 -1.7691 2.3873
4.9165 -1.5935 2.3873
4.9700 -1.4159 2.3873
5.0170 -1.2365 2.3873
5.0576 -1.0556 2.3873
5.0916 -0.8733 2.3873
5.1190 -0.6899 2.3873
5.1399 -0.5057 2.3873
5.1541 -0.3209 2.3873
5.1616 -0.1357 2.3873
5.1625 0.0496 2.3873
5.1567 0.2349 2.3873
5.1443 0.4197 2.3873
5.1253 0.6040 2.3873
5.0996 0.7875 2.3873
5.0674 0.9699 2.3873
5.0287 1.1510 2.3873
4.9835 1.3306 2.3873
4.9318 1.5084 2.3873
4.8739 1.6843 2.3873
4.8096 1.8579 2.3873
4.7392 2.0291 2.3873
4.6627 2.1976 2.3873
4.5802 2.3633 2.3873
4.4918 2.5259 2.3873
4.3977 2.6852 2.3873
4.2979 2.8410 2.3873
4.1926 2.9931 2.3873
4.0819 3.1413 2.3873
3.9660 3.2854 2.3873
3.8450 3.4253 2.3873
3.7191 3.5607 2.3873
3.5884 3.6915 2.3873
3.4532 3.8176 2.3873
3.3135 3.9387 2.3873
3.1696 4.0547 2.3873
3.0216 4.1654 2.3873
2.8698 4.2708 2.3873
2.7143 4.3707 2.3873
2.5553 4.4649 2.3873
2.3931 4.5534 2.3873
0.8837 1.8388 0.9469
0.8171 1.8695 0.9471
0.7495 1.8978 0.9473
0.6809 1.9237 0.9474
0.6114 1.9470 0.9475
0.5411 1.9679 0.9477
0.4702 1.9862 0.9478
0.3985 2.0019 0.9479
0.3264 2.0150 0.9480
0.2538 2.0256 0.9481
0.1809 2.0335 0.9482
0.1078 2.0387 0.9483
0.0345 2.0413 0.9484
-0.0389 2.0413 0.9484
-0.1122 2.0387 0.9485
-0.1853 2.0333 0.9485
-0.2583 2.0254 0.9486
-0.3308 2.0148 0.9486
-0.4030 2.0016 0.9486
-0.4746 1.9859 0.9486
-0.5457 1.9675 0.9486
-0.6160 1.9466 0.9486
-0.6855 1.9232 0.9486
-0.7541 1.8973 0.9485
-0.8217 1.8689 0.9485
-0.8883 1.8381 0.9484
-2.4008 4.5436 2.3873
-2.5625 4.4546 2.3873
-2.7210 4.3598 2.3873
-2.8759 4.2594 2.3873
-3.0272 4.1536 2.3873
-3.1746 4.0423 2.3873
-3.3179 3.9259 2.3873
-3.4569 3.8044 2.3873
-3.5916 3.6780 2.3873
-3.7216 3.5469 2.3873
-3.8468 3.4111 2.3873
-3.9671 3.2710 2.3873
-4.0824 3.1267 2.3873
-4.1924 2.9783 2.3873
-4.2970 2.8260 2.3873
-4.3961 2.6701 2.3873
-4.4895 2.5107 2.3873
-4.5772 2.3481 2.3873
-4.6591 2.1824 2.3873
-4.7349 2.0139 2.3873
-4.8047 1.8427 2.3873
-4.8683 1.6692 2.3873
-4.9256 1.4935 2.3873
-4.9766 1.3158 2.3873
-5.0212 1.1363 2.3873
-5.0594 0.9554 2.3873
-5.0910 0.7732 2.3873
-5.1161 0.5900 2.3873
-5.1346 0.4060 2.3873
-5.1465 0.2214 2.3873
-5.1518 0.0365 2.3873
-5.1505 -0.1485 2.3873
-5.1425 -0.3334 2.3873
-5.1278 -0.5179 2.3873
-5.1066 -0.7017 2.3873
-5.0788 -0.8847 2.3873
-5.0444 -1.0666 2.3873
-5.0035 -1.2471 2.3873
-4.9562 -1.4261 2.3873
-4.9025 -1.6033 2.3873
-4.8424 -1.7785 2.3873
-4.7761 -1.9515 2.3873
-4.7036 -2.1219 2.3873
-4.6250 -2.2897 2.3873
-4.5404 -2.4545 2.3873
-4.4500 -2.6162 2.3873
-4.3538 -2.7746 2.3873
-4.2519 -2.9294 2.3873
-4.1446 -3.0805 2.3873
-4.0318 -3.2277 2.3873
-3.9139 -3.3707 2.3873
-3.7908 -3.5094 2.3873
-3.6629 -3.6436 2.3873
-3.5302 -3.7731 2.3873
-3.3929 -3.8978 2.3873
-3.2512 -4.0175 2.3873
-3.1053 -4.1320 2.3873
-2.9553 -4.2413 2.3873
-2.8015 -4.3450 2.3873
-2.6441 -4.4432 2.3873
-2.4832 -4.5356 2.3873
-2.3191 -4.6222 2.3873
-2.1520 -4.7029 2.3873
-1.9820 -4.7775 2.3873
-1.8095 -4.8459 2.3873
-1.6346 -4.9081 2.3873
-1.4575 -4.9639 2.3873
-1.2786 -5.0134 2.3873
-1.0980 -5.0564 2.3873
-0.9159 -5.0928 2.3873
-0.7327 -5.1227 2.3873
-0.5485 -5.1459 2.3873
-0.3635 -5.1626 2.3873
-0.1781 -5.1725 2.3873
0.0070 -4.8835 2.3873
0.1822 -4.8803 2.3873
0.3571 -4.8707 2.3873
0.5316 -4.8550 2.3873
0.7055 -4.8329 2.3873
0.8784 -4.8045 2.3873
1.0502 -4.7700 2.3873
1.2206 -4.7293 2.3873
1.3895 -4.6824 2.3873
1.5565 -4.6296 2.3873
1.7216 -4.5707 2.3873
1.8844 -4.5060 2.3873
2.0448 -4.4354 2.3873
2.2026 -4.3591 2.3873
2.3575 -4.2772 2.3873
2.5093 -4.1897 2.3873
2.6579 -4.0969 2.3873
2.8031 -3.9988 2.3873
2.9446 -3.8955 2.3873
3.0823 -3.7871 2.3873
3.2160 -3.6739 2.3873
3.3455 -3.5560 2.3873
3.4707 -3.4335 2.3873
3.5914 -3.3066 2.3873
3.7075 -3.1754 2.3873
3.8188 -3.0401 2.3873
3.9251 -2.9009 2.3873
4.0263 -2.7580 2.3873
4.1223 -2.6116 2.3873
4.2130 -2.4618 2.3873
4.2983 -2.3088 2.3873
4.3779 -2.1529 2.3873
4.4519 -1.9943 2.3873
4.5202 -1.8331 2.3873
4.5826 -1.6695 2.3873
4.6390 -1.5039 2.3873
4.6895 -1.3363 2.3873
4.7339 -1.1670 2.3873
4.7722 -0.9963 2.3873
4.8044 -0.8243 2.3873
4.8303 -0.6513 2.3873
4.8500 -0.4775 2.3873
4.8634 -0.3031 2.3873
4.8706 -0.1283 2.3873
4.8715 0.0465 2.3873
4.8660 0.2213 2.3873
4.8544 0.3958 2.3873
4.8364 0.5697 2.3873
4.8123 0.7428 2.3873
4.7819 0.9149 2.3873
4.7454 1.0858 2.3873
4.7027 1.2553 2.3873
4.6540 1.4232 2.3873
4.5994 1.5891 2.3873
4.5388 1.7530 2.3873
4.4724 1.9145 2.3873
4.4002 2.0736 2.3873
4.3224 2.2299 2.3873
4.2390 2.3834 2.3873
4.1502 2.5337 2.3873
4.0560 2.6808 2.3873
3.9567 2.8243 2.3873
3.8523 2.9642 2.3873
3.7429 3.1002 2.3873
3.6288 3.2323 2.3873
3.5100 3.3601 2.3873
3.3867 3.4836 2.3873
3.2590 3.6025 2.3873
3.1272 3.7168 2.3873
2.9914 3.8263 2.3873
2.8518 3.9309 2.3873
2.7085 4.0304 2.3873
2.5618 4.1246 2.3873
2.4118 4.2136 2.3873
0.8954 1.7036 0.9464
0.8338 1.7348 0.9466
0.7710 1.7637 0.9468
0.7072 1.7904 0.9469
0.6425 1.8148 0.9470
0.5769 1.8368 0.9472
0.5106 1.8565 0.9473
0.4436 1.8737 0.9474
0.3761 1.8886 0.9475
0.3080 1.9009 0.9476
0.2395 1.9109 0.9477
0.1707 1.9183 0.9478
0.1017 1.9233 0.9479
0.0326 1.9257 0.9480
-0.0366 1.9257 0.9480
-0.1058 1.9232 0.9481
-0.1748 1.9182 0.9481
-0.2436 1.9107 0.9481
-0.3121 1.9007 0.9482
-0.3801 1.8883 0.9482
-0.4477 1.8734 0.9482
-0.5147 1.8561 0.9482
-0.5810 1.8364 0.9482
-0.6466 1.8143 0.9481
-0.7114 1.7899 0.9481
-0.7752 1.7631 0.9481
-0.8380 1.7341 0.9480
-0.8997 1.7028 0.9480
-2.4184 4.2042 2.3873
-2.5679 4.1147 2.3873
-2.7142 4.0200 2.3873
-2.8569 3.9200 2.3873
-2.9960 3.8151 2.3873
-3.1313 3.7052 2.3873
-3.2625 3.5905 2.3873
-3.3896 3.4712 2.3873
-3.5123 3.3474 2.3873
-3.6305 3.2193 2.3873
-3.7440 3.0870 2.3873
-3.8528 2.9508 2.3873
-3.9566 2.8107 2.3873
-4.0553 2.6670 2.3873
-4.1488 2.5199 2.3873
-4.2370 2.3695 2.3873
-4.3197 2.2160 2.3873
-4.3970 2.0596 2.3873
-4.4685 1.9005 2.3873
-4.5343 1.7390 2.3873
-4.5943 1.5752 2.3873
-4.6484 1.4094 2.3873
-4.6965 1.2417 2.3873
-4.7386 1.0723 2.3873
-4.7746 0.9016 2.3873
-4.8044 0.7297 2.3873
-4.8281 0.5567 2.3873
-4.8456 0.3831 2.3873
-4.8568 0.2089 2.3873
-4.8617 0.0344 2.3873
-4.8604 -0.1402 2.3873
-4.8528 -0.3147 2.3873
-4.8390 -0.4888 2.3873
-4.8190 -0.6623 2.3873
-4.7927 -0.8349 2.3873
-4.7602 -1.0066 2.3873
-4.7216 -1.1770 2.3873
-4.6769 -1.3459 2.3873
-4.6262 -1.5131 2.3873
-4.5695 -1.6784 2.3873
-4.5069 -1.8415 2.3873
-4.4384 -2.0024 2.3873
-4.3643 -2.1607 2.3873
-4.2844 -2.3162 2.3873
-4.1991 -2.4688 2.3873
-4.1083 -2.6182 2.3873
-4.0121 -2.7643 2.3873
-3.9108 -2.9069 2.3873
-3.8044 -3.0457 2.3873
-3.6931 -3.1807 2.3873
-3.5770 -3.3115 2.3873
-3.4563 -3.4381 2.3873
-3.3310 -3.5603 2.3873
-3.2015 -3.6780 2.3873
-3.0678 -3.7909 2.3873
-2.9301 -3.8989 2.3873
-2.7886 -4.0020 2.3873
-2.6434 -4.0999 2.3873
-2.4949 -4.1925 2.3873
-2.3431 -4.2797 2.3873
-2.1882 -4.3614 2.3873
-2.0305 -4.4375 2.3873
-1.8701 -4.5078 2.3873
-1.7073 -4.5724 2.3873
-1.5423 -4.6310 2.3873
-1.3753 -4.6837 2.3873
-1.2064 -4.7304 2.3873
-1.0360 -4.7709 2.3873
-0.8643 -4.8053 2.3873
-0.6914 -4.8335 2.3873
-0.5175 -4.8554 2.3873
-0.3431 -4.8711 2.3873
-0.1681 -4.8804 2.3873
0.0071 -4.8835 2.3873
0.1823 -4.8803 2.3873
0.3572 -4.8708 2.3873
0.5317 -4.8550 2.3873
0.7056 -4.8328 2.3873
0.8785 -4.8045 2.3873
1.0503 -4.7699 2.3873
1.2207 -4.7292 2.3873
1.3896 -4.6824 2.3873
1.5567 -4.6295 2.3873
1.7217 -4.5707 2.3873
1.8845 -4.5059 2.3873
2.0449 -4.4354 2.3873
2.2027 -4.3591 2.3873
2.3576 -4.2771 2.3873
2.5094 -4.1897 2.3873
2.6580 -4.0968 2.3873
2.8031 -3.9987 2.3873
2.9447 -3.8954 2.3873
3.0824 -3.7871 2.3873
3.2161 -3.6739 2.3873
3.3456 -3.5559 2.3873
3.4708 -3.4334 2.3873
3.5915 -3.3065 2.3873
3.7076 -3.1753 2.3873
3.8188 -3.0400 2.3873
3.9252 -2.9008 2.3873
4.0264 -2.7579 2.3873
4.1224 -2.6115 2.3873
4.2131 -2.4617 2.3873
4.2983 -2.3087 2.3873
4.3780 -2.1528 2.3873
4.4520 -1.9942 2.3873
4.5202 -1.8330 2.3873
4.5826 -1.6694 2.3873
4.6391 -1.5038 2.3873
4.6896 -1.3362 2.3873
4.7340 -1.1669 2.3873
4.7723 -0.9962 2.3873
4.8044 -0.8242 2.3873
4.8303 -0.6512 2.3873
4.8500 -0.4774 2.3873
4.8634 -0.3030 2.3873
4.8706 -0.1282 2.3873
4.8715 0.0466 2.3873
4.8660 0.2214 2.3873
4.8544 0.3959 2.3873
4.8364 0.5698 2.3873
4.8122 0.7429 2.3873
4.7819 0.9150 2.3873
4.7453 1.0860 2.3873
4.7027 1.2554 2.3873
4.6540 1.4233 2.3873
4.5993 1.5892 2.3873
4.5387 1.7531 2.3873
4.4723 1.9146 2.3873
4.4001 2.0737 2.3873
4.3223 2.2300 2.3873
4.2389 2.3835 2.3873
4.1501 2.5338 2.3873
4.0560 2.6808 2.3873
3.9566 2.8244 2.3873
3.8522 2.9643 2.3873
3.7428 3.1003 2.3873
3.6287 3.2323 2.3873
3.5099 3.3602 2.3873
3.3866 3.4836 2.3873
3.2589 3.6026 2.3873
3.1271 3.7169 2.3873
2.9913 3.8264 2.3873
2.8517 3.9310 2.3873
2.7084 4.0304 2.3873
2.5617 4.1247 2.3873
2.4117 4.2136 2.3873
0.8954 1.7036 0.9464
0.8337 1.7348 0.9466
0.7709 1.7637 0.9468
0.7071 1.7904 0.9469
0.6424 1.8148 0.9470
0.5769 1.8368 0.9472
0.5106 1.8565 0.9473
0.4436 1.8737 0.9474
0.3760 1.8886 0.9475
0.3079 1.9009 0.9476
0.2395 1.9109 0.9477
0.1707 1.9183 0.9478
0.1017 1.9233 0.9479
0.0325 1.9257 0.9480
-0.0367 1.9257 0.9480
-0.1058 1.9232 0.9481
-0.1748 1.9182 0.9481
-0.2436 1.9107 0.9481
-0.3121 1.9007 0.9482
-0.3802 1.8883 0.9482
-0.4478 1.8734 0.9482
-0.5148 1.8561 0.9482
-0.5811 1.8364 0.9482
-0.6467 1.8143 0.9481
-0.7114 1.7898 0.9481
-0.7752 1.7631 0.9481
-0.8380 1.7340 0.9480
-0.8997 1.7027 0.9480
-2.4185 4.2041 2.3873
-2.5680 4.1147 2.3873
-2.7143 4.0199 2.3873
-2.8570 3.9200 2.3873
-2.9961 3.8150 2.3873
-3.1314 3.7051 2.3873
-3.2626 3.5904 2.3873
-3.3896 3.4711 2.3873
-3.5124 3.3473 2.3873
-3.6306 3.2192 2.3873
-3.7441 3.0870 2.3873
-3.8528 2.9507 2.3873
-3.9566 2.8106 2.3873
-4.0553 2.6669 2.3873
-4.1489 2.5198 2.3873
-4.2370 2.3694 2.3873
-4.3198 2.2159 2.3873
-4.3970 2.0595 2.3873
-4.4686 1.9004 2.3873
-4.5344 1.7389 2.3873
-4.5944 1.5751 2.3873
-4.6485 1.4093 2.3873
-4.6966 1.2416 2.3873
-4.7386 1.0722 2.3873
-4.7746 0.9015 2.3873
-4.8045 0.7295 2.3873
-4.8281 0.5566 2.3873
-4.8456 0.3829 2.3873
-4.8568 0.2088 2.3873
-4.8617 0.0342 2.3873
-4.8604 -0.1403 2.3873
-4.8528 -0.3148 2.3873
-4.8390 -0.4889 2.3873
-4.8190 -0.6624 2.3873
-4.7927 -0.8350 2.3873
-4.7602 -1.0067 2.3873
-4.7216 -1.1771 2.3873
-4.6769 -1.3460 2.3873
-4.6262 -1.5132 2.3873
-4.5695 -1.6785 2.3873
-4.5068 -1.8416 2.3873
-4.4384 -2.0025 2.3873
-4.3642 -2.1608 2.3873
-4.2844 -2.3163 2.3873
-4.1990 -2.4689 2.3873
-4.1082 -2.6183 2.3873
-4.0121 -2.7644 2.3873
-3.9108 -2.9070 2.3873
-3.8044 -3.0458 2.3873
-3.6930 -3.1807 2.3873
-3.5769 -3.3116 2.3873
-3.4562 -3.4382 2.3873
-3.3310 -3.5604 2.3873
-3.2014 -3.6781 2.3873
-3.0677 -3.7910 2.3873
-2.9300 -3.8990 2.3873
-2.7885 -4.0020 2.3873
-2.6433 -4.0999 2.3873
-2.4948 -4.1925 2.3873
-2.3430 -4.2797 2.3873
-2.1881 -4.3614 2.3873
-2.0304 -4.4375 2.3873
-1.8700 -4.5079 2.3873
-1.7072 -4.5724 2.3873
-1.5422 -4.6311 2.3873
-1.3752 -4.6838 2.3873
-1.2063 -4.7304 2.3873
-1.0359 -4.7709 2.3873
-0.8641 -4.8053 2.3873
-0.6912 -4.8335 2.3873
-0.5174 -4.8554 2.3873
-0.3429 -4.8711 2.3873
-0.1680 -4.8805 2.3873
0.0066 -4.6170 2.3873
0.1723 -4.6140 2.3873
0.3377 -4.6049 2.3873
0.5027 -4.5900 2.3873
0.6670 -4.5691 2.3873
0.8305 -4.5423 2.3873
0.9929 -4.5096 2.3873
1.1540 -4.4711 2.3873
1.3136 -4.4269 2.3873
1.4716 -4.3769 2.3873
1.6276 -4.3213 2.3873
1.7816 -4.2601 2.3873
1.9332 -4.1934 2.3873
2.0823 -4.1212 2.3873
2.2288 -4.0438 2.3873
2.3723 -3.9611 2.3873
2.5128 -3.8733 2.3873
2.6500 -3.7806 2.3873
2.7838 -3.6829 2.3873
2.9140 -3.5805 2.3873
3.0404 -3.4735 2.3873
3.1629 -3.3620 2.3873
3.2813 -3.2462 2.3873
3.3954 -3.1262 2.3873
3.5052 -3.0022 2.3873
3.6104 -2.8743 2.3873
3.7109 -2.7428 2.3873
3.8066 -2.6077 2.3873
3.8974 -2.4692 2.3873
3.9832 -2.3276 2.3873
4.0638 -2.1830 2.3873
4.1391 -2.0356 2.3873
4.2091 -1.8856 2.3873
4.2736 -1.7332 2.3873
4.3326 -1.5786 2.3873
4.3860 -1.4220 2.3873
4.4338 -1.2636 2.3873
4.4758 -1.1036 2.3873
4.5120 -0.9421 2.3873
4.5424 -0.7795 2.3873
4.5670 -0.6160 2.3873
4.5856 -0.4516 2.3873
4.5983 -0.2867 2.3873
4.6051 -0.1215 2.3873
4.6060 0.0438 2.3873
4.6009 0.2091 2.3873
4.5899 0.3740 2.3873
4.5729 0.5385 2.3873
4.5501 0.7022 2.3873
4.5214 0.8649 2.3873
4.4869 1.0265 2.3873
4.4466 1.1868 2.3873
4.4006 1.3455 2.3873
4.3489 1.5024 2.3873
4.2917 1.6573 2.3873
4.2289 1.8101 2.3873
4.1607 1.9605 2.3873
4.0871 2.1084 2.3873
4.0083 2.2535 2.3873
3.9243 2.3956 2.3873
3.8353 2.5347 2.3873
3.7414 2.6704 2.3873
3.6427 2.8027 2.3873
3.5393 2.9314 2.3873
3.4314 3.0562 2.3873
3.3191 3.1771 2.3873
3.2025 3.2939 2.3873
3.0818 3.4064 2.3873
2.9572 3.5145 2.3873
2.8288 3.6181 2.3873
2.6968 3.7170 2.3873
2.5613 3.8110 2.3873
2.4226 3.9002 2.3873
0.9037 1.5788 0.9460
0.8465 1.6104 0.9462
0.7882 1.6399 0.9463
0.7289 1.6673 0.9465
0.6685 1.6925 0.9466
0.6074 1.7155 0.9467
0.5454 1.7363 0.9469
0.4827 1.7549 0.9470
0.4194 1.7712 0.9471
0.3555 1.7852 0.9472
0.2912 1.7969 0.9473
0.2264 1.8063 0.9474
0.1614 1.8133 0.9475
0.0962 1.8180 0.9475
0.0308 1.8203 0.9476
-0.0346 1.8203 0.9476
-0.1000 1.8179 0.9477
-0.1652 1.8132 0.9477
-0.2302 1.8061 0.9478
-0.2950 1.7967 0.9478
-0.3593 1.7849 0.9478
-0.4232 1.7709 0.9478
-0.4865 1.7545 0.9478
-0.5492 1.7359 0.9478
-0.6112 1.7150 0.9478
-0.6724 1.6919 0.9477
-0.7328 1.6666 0.9477
-0.7921 1.6391 0.9476
-0.8505 1.6096 0.9476
-0.9077 1.5779 0.9475
-2.4284 3.8910 2.3873
-2.5667 3.8014 2.3873
-2.7017 3.7069 2.3873
-2.8332 3.6076 2.3873
-2.9611 3.5037 2.3873
-3.0852 3.3952 2.3873
-3.2053 3.2824 2.3873
-3.3214 3.1653 2.3873
-3.4331 3.0442 2.3873
-3.5405 2.9191 2.3873
-3.6433 2.7903 2.3873
-3.7415 2.6578 2.3873
-3.8348 2.5219 2.3873
-3.9232 2.3827 2.3873
-4.0066 2.2405 2.3873
-4.0849 2.0953 2.3873
-4.1578 1.9474 2.3873
-4.2255 1.7970 2.3873
-4.2877 1.6443 2.3873
-4.3444 1.4894 2.3873
-4.3956 1.3325 2.3873
-4.4410 1.1740 2.3873
-4.4808 1.0138 2.3873
-4.5148 0.8524 2.3873
-4.5430 0.6898 2.3873
-4.5654 0.5263 2.3873
-4.5818 0.3620 2.3873
-4.5924 0.1973 2.3873
-4.5971 0.0323 2.3873
-4.5958 -0.1328 2.3873
-4.5886 -0.2977 2.3873
-4.5755 -0.4623 2.3873
-4.5566 -0.6264 2.3873
-4.5317 -0.7897 2.3873
-4.5010 -0.9519 2.3873
-4.4644 -1.1130 2.3873
-4.4222 -1.2727 2.3873
-4.3742 -1.4308 2.3873
-4.3205 -1.5871 2.3873
-4.2613 -1.7414 2.3873
-4.1966 -1.8934 2.3873
-4.1264 -2.0431 2.3873
-4.0509 -2.1901 2.3873
-3.9702 -2.3344 2.3873
-3.8843 -2.4757 2.3873
-3.7934 -2.6138 2.3873
-3.6976 -2.7486 2.3873
-3.5970 -2.8798 2.3873
-3.4917 -3.0074 2.3873
-3.3819 -3.1311 2.3873
-3.2677 -3.2508 2.3873
-3.1493 -3.3663 2.3873
-3.0268 -3.4775 2.3873
-2.9004 -3.5843 2.3873
-2.7702 -3.6864 2.3873
-2.6364 -3.7838 2.3873
-2.4992 -3.8763 2.3873
-2.3587 -3.9639 2.3873
-2.2151 -4.0463 2.3873
-2.0687 -4.1235 2.3873
-1.9196 -4.1954 2.3873
-1.7680 -4.2620 2.3873
-1.6141 -4.3230 2.3873
-1.4581 -4.3784 2.3873
-1.3001 -4.4282 2.3873
-1.1405 -4.4723 2.3873
-0.9794 -4.5106 2.3873
-0.8170 -4.5431 2.3873
-0.6536 -4.5697 2.3873
-0.4892 -4.5905 2.3873
-0.3243 -4.6053 2.3873
-0.1589 -4.6141 2.3873
0.0068 -4.6170 2.3873
0.1724 -4.6140 2.3873
0.3378 -4.6049 2.3873
0.5028 -4.5900 2.3873
0.6671 -4.5691 2.3873
0.8306 -4.5423 2.3873
0.9930 -4.5096 2.3873
1.1541 -4.4711 2.3873
1.3138 -4.4269 2.3873
1.4717 -4.3769 2.3873
1.6277 -4.3212 2.3873
1.7817 -4.2600 2.3873
1.9333 -4.1933 2.3873
2.0824 -4.1212 2.3873
2.2289 -4.0437 2.3873
2.3724 -3.9611 2.3873
2.5129 -3.8733 2.3873
2.6501 -3.7805 2.3873
2.7839 -3.6829 2.3873
2.9141 -3.5805 2.3873
3.0405 -3.4734 2.3873
3.1630 -3.3620 2.3873
3.2814 -3.2461 2.3873
3.3955 -3.1261 2.3873
3.5052 -3.0021 2.3873
3.6104 -2.8743 2.3873
3.7110 -2.7427 2.3873
3.8067 -2.6076 2.3873
3.8975 -2.4691 2.3873
3.9832 -2.3275 2.3873
4.0638 -2.1829 2.3873
4.1391 -2.0355 2.3873
4.2091 -1.8855 2.3873
4.2737 -1.7331 2.3873
4.3327 -1.5785 2.3873
4.3861 -1.4219 2.3873
4.4338 -1.2635 2.3873
4.4758 -1.1035 2.3873
4.5121 -0.9420 2.3873
4.5424 -0.7794 2.3873
4.5670 -0.6159 2.3873
4.5856 -0.4515 2.3873
4.5983 -0.2866 2.3873
4.6051 -0.1214 2.3873
4.6060 0.0439 2.3873
4.6009 0.2092 2.3873
4.5899 0.3741 2.3873
4.5729 0.5386 2.3873
4.5501 0.7023 2.3873
4.5214 0.8650 2.3873
4.4869 1.0266 2.3873
4.4466 1.1869 2.3873
4.4006 1.3456 2.3873
4.3489 1.5025 2.3873
4.2916 1.6574 2.3873
4.2288 1.8102 2.3873
4.1606 1.9606 2.3873
4.0871 2.1085 2.3873
4.0082 2.2536 2.3873
3.9243 2.3957 2.3873
3.8353 2.5348 2.3873
3.7414 2.6705 2.3873
3.6426 2.8028 2.3873
3.5393 2.9315 2.3873
3.4313 3.0563 2.3873
3.3190 3.1772 2.3873
3.2024 3.2940 2.3873
3.0817 3.4065 2.3873
2.9571 3.5146 2.3873
2.8287 3.6181 2.3873
2.6967 3.7170 2.3873
2.5612 3.8111 2.3873
2.4225 3.9003 2.3873
0.9037 1.5788 0.9460
0.8465 1.6104 0.9462
0.7882 1.6399 0.9463
0.7288 1.6673 0.9465
0.6685 1.6925 0.9466
0.6073 1.7155 0.9467
0.5454 1.7363 0.9469
0.4827 1.7549 0.9470
0.4193 1.7712 0.9471
0.3555 1.7852 0.9472
0.2911 1.7969 0.9473
0.2264 1.8063 0.9474
0.1614 1.8133 0.9475
0.0961 1.8180 0.9475
0.0308 1.8203 0.9476
-0.0346 1.8203 0.9476
-0.1000 1.8179 0.9477
-0.1652 1.8132 0.9477
-0.2303 1.8061 0.9478
-0.2950 1.7967 0.9478
-0.3594 1.7849 0.9478
-0.4232 1.7708 0.9478
-0.4866 1.7545 0.9478
-0.5493 1.7358 0.9478
-0.6113 1.7150 0.9478
-0.6725 1.6919 0.9477
-0.7328 1.6666 0.9477
-0.7922 1.6391 0.9476
-0.8505 1.6096 0.9476
-0.9077 1.5779 0.9475
-2.4285 3.8910 2.3873
-2.5668 3.8013 2.3873
-2.7018 3.7068 2.3873
-2.8333 3.6075 2.3873
-2.9612 3.5036 2.3873
-3.0853 3.3952 2.3873
-3.2054 3.2823 2.3873
-3.3214 3.1653 2.3873
-3.4332 3.0441 2.3873
-3.5406 2.9190 2.3873
-3.6434 2.7902 2.3873
-3.7415 2.6577 2.3873
-3.8349 2.5218 2.3873
-3.9233 2.3826 2.3873
-4.0067 2.2404 2.3873
-4.0849 2.0952 2.3873
-4.1579 1.9473 2.3873
-4.2255 1.7969 2.3873
-4.2878 1.6442 2.3873
-4.3445 1.4893 2.3873
-4.3956 1.3324 2.3873
-4.4411 1.1739 2.3873
-4.4808 1.0137 2.3873
-4.5148 0.8523 2.3873
-4.5430 0.6897 2.3873
-4.5654 0.5262 2.3873
-4.5818 0.3619 2.3873
-4.5924 0.1972 2.3873
-4.5971 0.0322 2.3873
-4.5958 -0.1329 2.3873
-4.5886 -0.2978 2.3873
-4.5755 -0.4624 2.3873
-4.5565 -0.6265 2.3873
-4.5317 -0.7898 2.3873
-4.5009 -0.9520 2.3873
-4.4644 -1.1131 2.3873
-4.4221 -1.2728 2.3873
-4.3741 -1.4309 2.3873
-4.3205 -1.5872 2.3873
-4.2612 -1.7415 2.3873
-4.1965 -1.8936 2.3873
-4.1263 -2.0432 2.3873
-4.0508 -2.1902 2.3873
-3.9701 -2.3345 2.3873
-3.8842 -2.4758 2.3873
-3.7933 -2.6139 2.3873
-3.6975 -2.7487 2.3873
-3.5969 -2.8799 2.3873
-3.4916 -3.0075 2.3873
-3.3818 -3.1312 2.3873
-3.2676 -3.2509 2.3873
-3.1492 -3.3664 2.3873
-3.0267 -3.4776 2.3873
-2.9003 -3.5844 2.3873
-2.7701 -3.6865 2.3873
-2.6363 -3.7839 2.3873
-2.4991 -3.8764 2.3873
-2.3586 -3.9639 2.3873
-2.2151 -4.0464 2.3873
-2.0686 -4.1236 2.3873
-1.9195 -4.1955 2.3873
-1.7679 -4.2620 2.3873
-1.6140 -4.3230 2.3873
-1.4580 -4.3784 2.3873
-1.3000 -4.4282 2.3873
-1.1404 -4.4723 2.3873
-0.9793 -4.5106 2.3873
-0.8169 -4.5431 2.3873
-0.6535 -4.5697 2.3873
-0.4891 -4.5905 2.3873
-0.3242 -4.6053 2.3873
-0.1588 -4.6141 2.3873
0.0063 -4.3728 2.3873
0.1632 -4.3699 2.3873
0.3198 -4.3613 2.3873
0.4761 -4.3471 2.3873
0.6317 -4.3273 2.3873
0.7865 -4.3020 2.3873
0.9404 -4.2710 2.3873
1.0930 -4.2346 2.3873
1.2441 -4.1927 2.3873
1.3937 -4.1453 2.3873
1.5415 -4.0926 2.3873
1.6873 -4.0347 2.3873
1.8309 -3.9715 2.3873
1.9721 -3.9032 2.3873
2.1108 -3.8299 2.3873
2.2468 -3.7516 2.3873
2.3798 -3.6685 2.3873
2.5098 -3.5806 2.3873
2.6365 -3.4881 2.3873
2.7598 -3.3912 2.3873
2.8796 -3.2898 2.3873
2.9956 -3.1843 2.3873
3.1077 -3.0746 2.3873
3.2158 -2.9609 2.3873
3.3197 -2.8435 2.3873
3.4194 -2.7224 2.3873
3.5146 -2.5978 2.3873
3.6052 -2.4699 2.3873
3.6912 -2.3387 2.3873
3.7725 -2.2046 2.3873
3.8488 -2.0677 2.3873
3.9202 -1.9281 2.3873
3.9865 -1.7861 2.3873
4.0476 -1.6417 2.3873
4.1035 -1.4953 2.3873
4.1541 -1.3470 2.3873
4.1994 -1.1969 2.3873
4.2392 -1.0454 2.3873
4.2735 -0.8925 2.3873
4.3023 -0.7385 2.3873
4.3256 -0.5836 2.3873
4.3433 -0.4279 2.3873
4.3553 -0.2718 2.3873
4.3618 -0.1153 2.3873
4.3626 0.0413 2.3873
4.3578 0.1979 2.3873
4.3474 0.3541 2.3873
4.3314 0.5098 2.3873
4.3098 0.6649 2.3873
4.2826 0.8191 2.3873
4.2500 0.9721 2.3873
4.2118 1.1239 2.3873
4.1683 1.2742 2.3873
4.1193 1.4229 2.3873
4.0651 1.5696 2.3873
4.0057 1.7144 2.3873
3.9411 1.8568 2.3873
3.8714 1.9969 2.3873
3.7968 2.1344 2.3873
3.7173 2.2690 2.3873
3.6330 2.4008 2.3873
3.5441 2.5294 2.3873
3.4506 2.6547 2.3873
3.3526 2.7766 2.3873
3.2504 2.8948 2.3873
3.1440 3.0094 2.3873
3.0336 3.1200 2.3873
2.9193 3.2266 2.3873
2.8013 3.3290 2.3873
2.6797 3.4271 2.3873
2.5546 3.5208 2.3873
2.4263 3.6099 2.3873
0.9090 1.4633 0.9456
0.8559 1.4951 0.9457
0.8017 1.5250 0.9459
0.7465 1.5529 0.9460
0.6903 1.5788 0.9462
0.6331 1.6027 0.9463
0.5752 1.6245 0.9464
0.5165 1.6442 0.9466
0.4571 1.6618 0.9467
0.3972 1.6773 0.9468
0.3367 1.6905 0.9469
0.2758 1.7016 0.9470
0.2145 1.7105 0.9470
0.1529 1.7171 0.9471
0.0911 1.7215 0.9472
0.0292 1.7238 0.9472
-0.0327 1.7237 0.9473
-0.0946 1.7215 0.9473
-0.1564 1.7170 0.9474
-0.2180 1.7103 0.9474
-0.2793 1.7013 0.9474
-0.3402 1.6902 0.9474
-0.4007 1.6769 0.9474
-0.4607 1.6614 0.9474
-0.5201 1.6438 0.9474
-0.5788 1.6240 0.9474
-0.6368 1.6021 0.9474
-0.6939 1.5782 0.9473
-0.7501 1.5522 0.9473
-0.8054 1.5242 0.9473
-0.8596 1.4942 0.9472
-0.9126 1.4623 0.9471
-2.4314 3.6010 2.3873
-2.5593 3.5114 2.3873
-2.6839 3.4174 2.3873
-2.8050 3.3189 2.3873
-2.9226 3.2162 2.3873
-3.0364 3.1093 2.3873
-3.1463 2.9984 2.3873
-3.2522 2.8836 2.3873
-3.3539 2.7651 2.3873
-3.4513 2.6430 2.3873
-3.5442 2.5175 2.3873
-3.6326 2.3888 2.3873
-3.7164 2.2570 2.3873
-3.7954 2.1222 2.3873
-3.8695 1.9847 2.3873
-3.9386 1.8446 2.3873
-4.0027 1.7021 2.3873
-4.0616 1.5574 2.3873
-4.1153 1.4107 2.3873
-4.1637 1.2621 2.3873
-4.2068 1.1119 2.3873
-4.2444 0.9602 2.3873
-4.2766 0.8072 2.3873
-4.3033 0.6532 2.3873
-4.3245 0.4983 2.3873
-4.3401 0.3428 2.3873
-4.3500 0.1867 2.3873
-4.3544 0.0304 2.3873
-4.3532 -0.1259 2.3873
-4.3464 -0.2822 2.3873
-4.3340 -0.4381 2.3873
-4.3160 -0.5935 2.3873
-4.2924 -0.7481 2.3873
-4.2633 -0.9019 2.3873
-4.2287 -1.0544 2.3873
-4.1886 -1.2057 2.3873
-4.1431 -1.3554 2.3873
-4.0923 -1.5035 2.3873
-4.0361 -1.6496 2.3873
-3.9748 -1.7936 2.3873
-3.9083 -1.9353 2.3873
-3.8368 -2.0746 2.3873
-3.7603 -2.2112 2.3873
-3.6790 -2.3450 2.3873
-3.5928 -2.4758 2.3873
-3.5021 -2.6035 2.3873
-3.4068 -2.7278 2.3873
-3.3070 -2.8486 2.3873
-3.2030 -2.9657 2.3873
-3.0949 -3.0791 2.3873
-2.9827 -3.1885 2.3873
-2.8667 -3.2938 2.3873
-2.7469 -3.3949 2.3873
-2.6236 -3.4916 2.3873
-2.4969 -3.5838 2.3873
-2.3669 -3.6715 2.3873
-2.2339 -3.7543 2.3873
-2.0979 -3.8324 2.3873
-1.9592 -3.9055 2.3873
-1.8180 -3.9736 2.3873
-1.6744 -4.0366 2.3873
-1.5286 -4.0944 2.3873
-1.3809 -4.1469 2.3873
-1.2313 -4.1940 2.3873
-1.0801 -4.2357 2.3873
-0.9275 -4.2720 2.3873
-0.7737 -4.3028 2.3873
-0.6189 -4.3280 2.3873
-0.4633 -4.3476 2.3873
-0.3070 -4.3616 2.3873
-0.1504 -4.3700 2.3873
0.0064 -4.3728 2.3873
0.1633 -4.3699 2.3873
0.3199 -4.3613 2.3873
0.4762 -4.3471 2.3873
0.6318 -4.3273 2.3873
0.7866 -4.3020 2.3873
0.9405 -4.2710 2.3873
1.0931 -4.2346 2.3873
1.2442 -4.1926 2.3873
1.3938 -4.1453 2.3873
1.5416 -4.0926 2.3873
1.6874 -4.0346 2.3873
1.8310 -3.9715 2.3873
1.9722 -3.9032 2.3873
2.1109 -3.8298 2.3873
2.2469 -3.7515 2.3873
2.3799 -3.6684 2.3873
2.5099 -3.5805 2.3873
2.6366 -3.4881 2.3873
2.7599 -3.3911 2.3873
2.8796 -3.2898 2.3873
2.9956 -3.1842 2.3873
3.1077 -3.0745 2.3873
3.2158 -2.9609 2.3873
3.3198 -2.8434 2.3873
3.4194 -2.7223 2.3873
3.5146 -2.5977 2.3873
3.6053 -2.4698 2.3873
3.6913 -2.3387 2.3873
3.7725 -2.2045 2.3873
3.8489 -2.0676 2.3873
3.9202 -1.9280 2.3873
3.9865 -1.7860 2.3873
4.0476 -1.6416 2.3873
4.1036 -1.4952 2.3873
4.1542 -1.3469 2.3873
4.1994 -1.1968 2.3873
4.2392 -1.0453 2.3873
4.2735 -0.8924 2.3873
4.3023 -0.7384 2.3873
4.3256 -0.5835 2.3873
4.3433 -0.4278 2.3873
4.3553 -0.2717 2.3873
4.3618 -0.1152 2.3873
4.3626 0.0414 2.3873
4.3578 0.1980 2.3873
4.3474 0.3542 2.3873
4.3314 0.5099 2.3873
4.3098 0.6650 2.3873
4.2826 0.8192 2.3873
4.2499 0.9722 2.3873
4.2118 1.1240 2.3873
4.1682 1.2743 2.3873
4.1193 1.4230 2.3873
4.0651 1.5697 2.3873
4.0056 1.7145 2.3873
3.9410 1.8569 2.3873
3.8714 1.9970 2.3873
3.7967 2.1344 2.3873
3.7172 2.2691 2.3873
3.6329 2.4008 2.3873
3.5440 2.5294 2.3873
3.4505 2.6548 2.3873
3.3526 2.7766 2.3873
3.2504 2.8949 2.3873
3.1440 3.0094 2.3873
3.0336 3.1201 2.3873
2.9193 3.2267 2.3873
2.8012 3.3291 2.3873
2.6796 3.4272 2.3873
2.5545 3.5209 2.3873
2.4262 3.6100 2.3873
0.9089 1.4633 0.9456
0.8559 1.4951 0.9457
0.8017 1.5250 0.9459
0.7464 1.5529 0.9460
0.6902 1.5789 0.9462
0.6331 1.6027 0.9463
0.5752 1.6245 0.9464
0.5165 1.6443 0.9466
0.4571 1.6618 0.9467
0.3971 1.6773 0.9468
0.3366 1.6905 0.9469
0.2757 1.7016 0.9470
0.2144 1.7105 0.9470
0.1528 1.7171 0.9471
0.0911 1.7216 0.9472
0.0292 1.7238 0.9472
-0.0328 1.7237 0.9473
-0.0947 1.7215 0.9473
-0.1565 1.7170 0.9474
-0.2180 1.7103 0.9474
-0.2793 1.7013 0.9474
-0.3403 1.6902 0.9474
-0.4008 1.6769 0.9474
-0.4608 1.6614 0.9474
-0.5201 1.6437 0.9474
-0.5788 1.6240 0.9474
-0.6368 1.6021 0.9474
-0.6939 1.5781 0.9473
-0.7501 1.5521 0.9473
-0.8054 1.5241 0.9473
-0.8596 1.4942 0.9472
-0.9127 1.4623 0.9471
-2.4315 3.6009 2.3873
-2.5594 3.5114 2.3873
-2.6840 3.4173 2.3873
-2.8051 3.3188 2.3873
-2.9227 3.2161 2.3873
-3.0365 3.1092 2.3873
-3.1464 2.9983 2.3873
-3.2522 2.8835 2.3873
-3.3539 2.7650 2.3873
-3.4513 2.6430 2.3873
-3.5443 2.5175 2.3873
-3.6327 2.3887 2.3873
-3.7164 2.2569 2.3873
-3.7954 2.1221 2.3873
-3.8695 1.9846 2.3873
-3.9386 1.8445 2.3873
-4.0027 1.7020 2.3873
-4.0616 1.5573 2.3873
-4.1153 1.4106 2.3873
-4.1637 1.2620 2.3873
-4.2068 1.1118 2.3873
-4.2445 0.9601 2.3873
-4.2766 0.8071 2.3873
-4.3033 0.6531 2.3873
-4.3245 0.4982 2.3873
-4.3401 0.3427 2.3873
-4.3501 0.1866 2.3873
-4.3544 0.0303 2.3873
-4.3532 -0.1260 2.3873
-4.3464 -0.2823 2.3873
-4.3340 -0.4382 2.3873
-4.3160 -0.5936 2.3873
-4.2924 -0.7482 2.3873
-4.2632 -0.9019 2.3873
-4.2286 -1.0545 2.3873
-4.1886 -1.2058 2.3873
-4.1431 -1.3555 2.3873
-4.0922 -1.5036 2.3873
-4.0361 -1.6497 2.3873
-3.9748 -1.7937 2.3873
-3.9083 -1.9354 2.3873
-3.8368 -2.0747 2.3873
-3.7603 -2.2113 2.3873
-3.6789 -2.3451 2.3873
-3.5928 -2.4759 2.3873
-3.5020 -2.6035 2.3873
-3.4067 -2.7279 2.3873
-3.3070 -2.8487 2.3873
-3.2030 -2.9658 2.3873
-3.0948 -3.0792 2.3873
-2.9827 -3.1886 2.3873
-2.8666 -3.2939 2.3873
-2.7468 -3.3950 2.3873
-2.6235 -3.4917 2.3873
-2.4968 -3.5839 2.3873
-2.3668 -3.6715 2.3873
-2.2338 -3.7544 2.3873
-2.0978 -3.8325 2.3873
-1.9591 -3.9056 2.3873
-1.8179 -3.9737 2.3873
-1.6743 -4.0366 2.3873
-1.5285 -4.0944 2.3873
-1.3808 -4.1469 2.3873
-1.2312 -4.1940 2.3873
-1.0800 -4.2358 2.3873
-0.9274 -4.2720 2.3873
-0.7736 -4.3028 2.3873
-0.6188 -4.3280 2.3873
-0.4632 -4.3476 2.3873
-0.3069 -4.3617 2.3873
-0.1503 -4.3700 2.3873
0.0061 -4.1479 2.3873
0.1548 -4.1451 2.3873
0.3034 -4.1370 2.3873
0.4516 -4.1235 2.3873
0.5993 -4.1048 2.3873
0.7461 -4.0807 2.3873
0.8920 -4.0514 2.3873
1.0367 -4.0168 2.3873
1.1802 -3.9770 2.3873
1.3220 -3.9321 2.3873
1.4622 -3.8821 2.3873
1.6005 -3.8272 2.3873
1.7367 -3.7672 2.3873
1.8707 -3.7025 2.3873
2.0022 -3.6329 2.3873
2.1312 -3.5587 2.3873
2.2574 -3.4798 2.3873
2.3807 -3.3965 2.3873
2.5009 -3.3088 2.3873
2.6178 -3.2168 2.3873
2.7314 -3.1207 2.3873
2.8414 -3.0205 2.3873
2.9478 -2.9165 2.3873
3.0504 -2.8087 2.3873
3.1489 -2.6973 2.3873
3.2435 -2.5825 2.3873
3.3338 -2.4643 2.3873
3.4198 -2.3430 2.3873
3.5014 -2.2186 2.3873
3.5785 -2.0914 2.3873
3.6509 -1.9615 2.3873
3.7186 -1.8291 2.3873
3.7815 -1.6944 2.3873
3.8395 -1.5575 2.3873
3.8926 -1.4186 2.3873
3.9406 -1.2779 2.3873
3.9835 -1.1356 2.3873
4.0213 -0.9918 2.3873
4.0539 -0.8468 2.3873
4.0812 -0.7007 2.3873
4.1033 -0.5537 2.3873
4.1201 -0.4061 2.3873
4.1316 -0.2579 2.3873
4.1377 -0.1095 2.3873
4.1385 0.0390 2.3873
4.1340 0.1875 2.3873
4.1241 0.3357 2.3873
4.1089 0.4835 2.3873
4.0885 0.6306 2.3873
4.0627 0.7768 2.3873
4.0317 0.9220 2.3873
3.9956 1.0661 2.3873
3.9543 1.2086 2.3873
3.9079 1.3497 2.3873
3.8565 1.4889 2.3873
3.8001 1.6262 2.3873
3.7388 1.7614 2.3873
3.6728 1.8942 2.3873
3.6020 2.0246 2.3873
3.5266 2.1524 2.3873
3.4466 2.2774 2.3873
3.3623 2.3994 2.3873
3.2736 2.5183 2.3873
3.1807 2.6340 2.3873
3.0837 2.7462 2.3873
2.9828 2.8548 2.3873
2.8781 2.9598 2.3873
2.7697 3.0609 2.3873
2.6577 3.1581 2.3873
2.5423 3.2512 2.3873
2.4237 3.3401 2.3873
0.9114 1.3559 0.9452
0.8622 1.3879 0.9454
0.8118 1.4181 0.9455
0.7604 1.4464 0.9456
0.7080 1.4729 0.9458
0.6547 1.4975 0.9459
0.6005 1.5201 0.9460
0.5456 1.5408 0.9462
0.4899 1.5595 0.9463
0.4336 1.5761 0.9464
0.3767 1.5908 0.9465
0.3194 1.6033 0.9466
0.2616 1.6138 0.9467
0.2034 1.6222 0.9467
0.1450 1.6286 0.9468
0.0864 1.6328 0.9469
0.0277 1.6348 0.9469
-0.0310 1.6348 0.9470
-0.0897 1.6327 0.9470
-0.1483 1.6284 0.9471
-0.2067 1.6220 0.9471
-0.2649 1.6136 0.9471
-0.3227 1.6030 0.9471
-0.3801 1.5904 0.9471
-0.4369 1.5757 0.9471
-0.4933 1.5590 0.9471
-0.5489 1.5402 0.9471
-0.6039 1.5195 0.9471
-0.6581 1.4967 0.9470
-0.7114 1.4721 0.9470
-0.7638 1.4455 0.9469
-0.8152 1.4171 0.9469
-0.8656 1.3869 0.9468
-0.9148 1.3548 0.9467
-2.4281 3.3314 2.3873
-2.5463 3.2421 2.3873
-2.6613 3.1487 2.3873
-2.7728 3.0512 2.3873
-2.8808 2.9498 2.3873
-2.9850 2.8446 2.3873
-3.0855 2.7357 2.3873
-3.1820 2.6232 2.3873
-3.2743 2.5074 2.3873
-3.3625 2.3884 2.3873
-3.4464 2.2662 2.3873
-3.5258 2.1411 2.3873
-3.6008 2.0133 2.3873
-3.6711 1.8828 2.3873
-3.7366 1.7499 2.3873
-3.7974 1.6147 2.3873
-3.8533 1.4774 2.3873
-3.9042 1.3382 2.3873
-3.9501 1.1972 2.3873
-3.9910 1.0547 2.3873
-4.0267 0.9108 2.3873
-4.0572 0.7657 2.3873
-4.0825 0.6196 2.3873
-4.1026 0.4726 2.3873
-4.1173 0.3250 2.3873
-4.1268 0.1770 2.3873
-4.1310 0.0287 2.3873
-4.1298 -0.1196 2.3873
-4.1233 -0.2679 2.3873
-4.1115 -0.4158 2.3873
-4.0944 -0.5632 2.3873
-4.0720 -0.7099 2.3873
-4.0443 -0.8557 2.3873
-4.0115 -1.0005 2.3873
-3.9735 -1.1440 2.3873
-3.9303 -1.2860 2.3873
-3.8820 -1.4264 2.3873
-3.8288 -1.5650 2.3873
-3.7706 -1.7016 2.3873
-3.7075 -1.8361 2.3873
-3.6396 -1.9682 2.3873
-3.5671 -2.0978 2.3873
-3.4899 -2.2247 2.3873
-3.4082 -2.3488 2.3873
-3.3220 -2.4698 2.3873
-3.2316 -2.5877 2.3873
-3.1370 -2.7023 2.3873
-3.0383 -2.8135 2.3873
-2.9357 -2.9210 2.3873
-2.8293 -3.0247 2.3873
-2.7192 -3.1246 2.3873
-2.6056 -3.2205 2.3873
-2.4886 -3.3122 2.3873
-2.3684 -3.3997 2.3873
-2.2451 -3.4828 2.3873
-2.1189 -3.5614 2.3873
-1.9899 -3.6354 2.3873
-1.8584 -3.7048 2.3873
-1.7244 -3.7694 2.3873
-1.5882 -3.8291 2.3873
-1.4499 -3.8839 2.3873
-1.3098 -3.9337 2.3873
-1.1679 -3.9784 2.3873
-1.0245 -4.0180 2.3873
-0.8797 -4.0524 2.3873
-0.7339 -4.0815 2.3873
-0.5870 -4.1054 2.3873
-0.4394 -4.1240 2.3873
-0.2912 -4.1373 2.3873
-0.1426 -4.1453 2.3873
0.0062 -4.1479 2.3873
0.1549 -4.1451 2.3873
0.3035 -4.1370 2.3873
0.4517 -4.1235 2.3873
0.5994 -4.1048 2.3873
0.7462 -4.0807 2.3873
0.8921 -4.0513 2.3873
1.0368 -4.0168 2.3873
1.1802 -3.9770 2.3873
1.3221 -3.9321 2.3873
1.4623 -3.8821 2.3873
1.6006 -3.8271 2.3873
1.7368 -3.7672 2.3873
1.8708 -3.7024 2.3873
2.0023 -3.6328 2.3873
2.1313 -3.5586 2.3873
2.2575 -3.4798 2.3873
2.3808 -3.3964 2.3873
2.5009 -3.3087 2.3873
2.6179 -3.2167 2.3873
2.7315 -3.1206 2.3873
2.8415 -3.0205 2.3873
2.9479 -2.9165 2.3873
3.0504 -2.8087 2.3873
3.1490 -2.6973 2.3873
3.2435 -2.5824 2.3873
3.3339 -2.4642 2.3873
3.4199 -2.3429 2.3873
3.5014 -2.2185 2.3873
3.5785 -2.0913 2.3873
3.6509 -1.9614 2.3873
3.7186 -1.8290 2.3873
3.7815 -1.6943 2.3873
3.8395 -1.5574 2.3873
3.8926 -1.4185 2.3873
3.9406 -1.2778 2.3873
3.9835 -1.1355 2.3873
4.0213 -0.9917 2.3873
4.0539 -0.8467 2.3873
4.0812 -0.7006 2.3873
4.1033 -0.5536 2.3873
4.1201 -0.4060 2.3873
4.1316 -0.2579 2.3873
4.1377 -0.1094 2.3873
4.1385 0.0391 2.3873
4.1340 0.1876 2.3873
4.1241 0.3358 2.3873
4.1089 0.4836 2.3873
4.0884 0.6307 2.3873
4.0627 0.7769 2.3873
4.0317 0.9221 2.3873
3.9956 1.0661 2.3873
3.9543 1.2087 2.3873
3.9079 1.3497 2.3873
3.8564 1.4890 2.3873
3.8001 1.6263 2.3873
3.7388 1.7615 2.3873
3.6727 1.8943 2.3873
3.6019 2.0247 2.3873
3.5265 2.1525 2.3873
3.4466 2.2775 2.3873
3.3622 2.3995 2.3873
3.2735 2.5184 2.3873
3.1806 2.6340 2.3873
3.0837 2.7463 2.3873
2.9828 2.8549 2.3873
2.8780 2.9599 2.3873
2.7696 3.0610 2.3873
2.6576 3.1582 2.3873
2.5422 3.2513 2.3873
2.4236 3.3402 2.3873
0.9114 1.3559 0.9452
0.8621 1.3879 0.9454
0.8118 1.4181 0.9455
0.7604 1.4464 0.9456
0.7080 1.4729 0.9458
0.6547 1.4975 0.9459
0.6005 1.5201 0.9460
0.5456 1.5408 0.9462
0.4899 1.5595 0.9463
0.4336 1.5761 0.9464
0.3767 1.5908 0.9465
0.3193 1.6033 0.9466
0.2615 1.6138 0.9467
0.2034 1.6222 0.9467
0.1450 1.6286 0.9468
0.0864 1.6328 0.9469
0.0277 1.6348 0.9469
-0.0311 1.6348 0.9470
-0.0898 1.6327 0.9470
-0.1484 1.6284 0.9471
-0.2068 1.6220 0.9471
-0.2649 1.6136 0.9471
-0.3227 1.6030 0.9471
-0.3801 1.5904 0.9471
-0.4370 1.5757 0.9471
-0.4933 1.5589 0.9471
-0.5490 1.5402 0.9471
-0.6039 1.5194 0.9471
-0.6581 1.4967 0.9470
-0.7115 1.4721 0.9470
-0.7639 1.4455 0.9469
-0.8153 1.4171 0.9469
-0.8656 1.3868 0.9468
-0.9148 1.3548 0.9467
-2.4282 3.3313 2.3873
-2.5464 3.2421 2.3873
-2.6613 3.1486 2.3873
-2.7729 3.0511 2.3873
-2.8808 2.9497 2.3873
-2.9851 2.8445 2.3873
-3.0855 2.7356 2.3873
-3.1820 2.6232 2.3873
-3.2744 2.5073 2.3873
-3.3626 2.3883 2.3873
-3.4465 2.2661 2.3873
-3.5259 2.1410 2.3873
