ply
format ascii 1.0
element vertex 2181
property float32 x
property float32 y
property float32 z
end_header
-2.0026 -6.3624 2.3960
-1.7792 -6.4537 2.3960
-1.5520 -6.5371 2.3960
-1.3213 -6.6127 2.3960
-1.0872 -6.6802 2.3960
-0.8501 -6.7394 2.3960
-0.6102 -6.7901 2.3960
-0.3679 -6.8324 2.3960
-0.1234 -6.8659 2.3960
0.1230 -6.8905 2.3960
0.3708 -6.9062 2.3960
0.6198 -6.9129 2.3960
0.8696 -6.9103 2.3960
1.1199 -6.8985 2.3960
1.3704 -6.8774 2.3960
1.6206 -6.8470 2.3960
1.8703 -6.8071 2.3960
2.1189 -6.7578 2.3960
2.3662 -6.6990 2.3960
2.6118 -6.6309 2.3960
2.8553 -6.5533 2.3960
3.0963 -6.4663 2.3960
3.2404 -6.1906 2.3285
3.3722 -5.9188 2.2638
3.5585 -5.7586 2.2436
3.7711 -5.6428 2.2436
3.9796 -5.5186 2.2436
4.1836 -5.3863 2.2436
4.3826 -5.2459 2.2436
4.5765 -5.0976 2.2436
4.7648 -4.9417 2.2436
4.9472 -4.7783 2.2436
5.1233 -4.6076 2.2436
5.2930 -4.4300 2.2436
5.4557 -4.2457 2.2436
5.6114 -4.0549 2.2436
5.7596 -3.8579 2.2436
5.9001 -3.6550 2.2436
6.0327 -3.4466 2.2436
6.1570 -3.2330 2.2436
6.2729 -3.0145 2.2436
6.3802 -2.7914 2.2436
6.4786 -2.5642 2.2436
6.5681 -2.3332 2.2436
6.6483 -2.0988 2.2436
6.7193 -1.8614 2.2436
6.7808 -1.6214 2.2436
6.8328 -1.3791 2.2436
6.8752 -1.1351 2.2436
6.9079 -0.8896 2.2436
6.9309 -0.6431 2.2436
6.9441 -0.3961 2.2436
6.9476 -0.1489 2.2436
6.9414 0.0980 2.2436
7.3613 0.3660 2.3847
7.3687 0.6296 2.3960
7.3312 0.8900 2.3960
7.2837 1.1484 2.3960
7.2261 1.4043 2.3960
7.1587 1.6575 2.3960
7.0816 1.9075 2.3960
6.9950 2.1539 2.3960
6.8991 2.3964 2.3960
6.7941 2.6345 2.3960
6.6802 2.8679 2.3960
6.5576 3.0963 2.3960
6.4267 3.3194 2.3960
6.2875 3.5369 2.3960
6.1406 3.7484 2.3960
5.9860 3.9536 2.3960
5.8242 4.1524 2.3960
5.6553 4.3444 2.3960
5.4798 4.5294 2.3960
5.2980 4.7072 2.3960
5.1101 4.8776 2.3960
4.9165 5.0404 2.3960
4.7175 5.1955 2.3960
4.5135 5.3426 2.3960
4.3049 5.4817 2.3960
4.0919 5.6125 2.3960
3.8748 5.7351 2.3960
3.6541 5.8493 2.3960
3.4301 5.9550 2.3960
3.2031 6.0522 2.3960
2.9734 6.1408 2.3960
2.7415 6.2208 2.3960
2.5075 6.2921 2.3960
0.8915 2.4937 0.9402
0.8012 2.5233 0.9434
0.7099 2.5496 0.9465
0.6177 2.5727 0.9497
0.5247 2.5924 0.9528
0.4311 2.6087 0.9559
0.3369 2.6216 0.9590
0.2423 2.6311 0.9621
0.1474 2.6372 0.9651
0.0523 2.6398 0.9682
-0.0428 2.6390 0.9711
-0.1378 2.6348 0.9741
-0.2326 2.6271 0.9770
-0.3271 2.6160 0.9798
-0.4211 2.6016 0.9826
-0.5145 2.5837 0.9854
-0.6072 2.5624 0.9881
-0.6991 2.5378 0.9907
-0.7900 2.5099 0.9933
-0.8799 2.4787 0.9957
-2.3249 5.8674 2.3960
-2.5287 5.7636 2.3960
-2.7284 5.6533 2.3960
-2.9237 5.5366 2.3960
-3.1146 5.4136 2.3960
-3.3008 5.2846 2.3960
-3.4821 5.1498 2.3960
-3.6585 5.0092 2.3960
-3.8297 4.8630 2.3960
-3.9956 4.7116 2.3960
-4.1561 4.5549 2.3960
-4.3110 4.3933 2.3960
-4.4602 4.2269 2.3960
-4.6035 4.0559 2.3960
-4.7409 3.8804 2.3960
-4.8723 3.7007 2.3960
-4.9974 3.5170 2.3960
-5.1163 3.3295 2.3960
-5.2288 3.1383 2.3960
-5.3348 2.9437 2.3960
-5.4343 2.7458 2.3960
-5.5271 2.5448 2.3960
-5.6132 2.3411 2.3960
-5.6925 2.1346 2.3960
-5.7649 1.9258 2.3960
-5.8303 1.7147 2.3960
-5.8888 1.5015 2.3960
-5.9402 1.2866 2.3960
-5.9845 1.0700 2.3960
-6.0216 0.8520 2.3960
-6.0516 0.6328 2.3960
-6.0743 0.4127 2.3960
-6.0897 0.1918 2.3960
-6.0978 -0.0297 2.3960
-6.0986 -0.2515 2.3960
-6.0920 -0.4735 2.3960
-6.0781 -0.6953 2.3960
-6.0568 -0.9168 2.3960
-6.0282 -1.1378 2.3960
-5.9922 -1.3580 2.3960
-5.9488 -1.5772 2.3960
-5.8980 -1.7952 2.3960
-5.8400 -2.0118 2.3960
-5.7746 -2.2267 2.3960
-5.7019 -2.4397 2.3960
-5.6220 -2.6506 2.3960
-3.5735 -4.8695 2.3960
-3.4063 -5.0111 2.3960
-3.2339 -5.1471 2.3960
-3.0562 -5.2775 2.3960
-2.8737 -5.4019 2.3960
-2.6863 -5.5202 2.3960
-2.4943 -5.6322 2.3960
-2.2979 -5.7376 2.3960
-2.0973 -5.8364 2.3960
-1.8927 -5.9283 2.3960
-1.6844 -6.0131 2.3960
-1.4725 -6.0907 2.3960
-1.2573 -6.1609 2.3960
-1.0391 -6.2236 2.3960
-0.8181 -6.2785 2.3960
-0.5946 -6.3256 2.3960
-0.3689 -6.3646 2.3960
-0.1412 -6.3956 2.3960
0.0881 -6.4183 2.3960
0.3188 -6.4327 2.3960
0.5505 -6.4386 2.3960
0.7829 -6.4360 2.3960
1.0157 -6.4249 2.3960
1.2486 -6.4051 2.3960
1.4812 -6.3766 2.3960
1.7133 -6.3394 2.3960
1.9443 -6.2935 2.3960
2.1741 -6.2388 2.3960
2.4023 -6.1754 2.3960
2.6284 -6.1033 2.3960
2.8522 -6.0225 2.3960
3.0733 -5.9331 2.3960
3.2914 -5.8352 2.3960
3.4642 -5.6605 2.3674
3.5838 -5.4132 2.3102
3.6983 -5.1760 2.2584
3.8634 -5.0193 2.2436
4.0482 -4.8892 2.2436
4.2283 -4.7519 2.2436
4.4032 -4.6076 2.2436
4.5726 -4.4563 2.2436
4.7364 -4.2984 2.2436
4.8940 -4.1340 2.2436
5.0454 -3.9634 2.2436
5.1902 -3.7868 2.2436
5.3282 -3.6046 2.2436
5.4591 -3.4169 2.2436
5.5826 -3.2241 2.2436
5.6986 -3.0265 2.2436
5.8069 -2.8243 2.2436
5.9072 -2.6180 2.2436
5.9994 -2.4077 2.2436
6.0833 -2.1940 2.2436
6.1588 -1.9771 2.2436
6.2257 -1.7573 2.2436
6.2840 -1.5351 2.2436
6.3335 -1.3108 2.2436
6.3741 -1.0848 2.2436
6.4059 -0.8574 2.2436
6.4287 -0.6290 2.2436
6.4425 -0.4000 2.2436
6.4888 -0.1719 2.2580
6.7907 0.0613 2.3646
6.8670 0.3062 2.3960
6.8436 0.5493 2.3960
6.8107 0.7911 2.3960
6.7686 1.0311 2.3960
6.7171 1.2690 2.3960
6.6566 1.5044 2.3960
6.5871 1.7370 2.3960
6.5088 1.9664 2.3960
6.4219 2.1923 2.3960
6.3264 2.4142 2.3960
6.2227 2.6319 2.3960
6.1110 2.8451 2.3960
5.9914 3.0535 2.3960
5.8642 3.2568 2.3960
5.7296 3.4546 2.3960
5.5880 3.6468 2.3960
5.4395 3.8330 2.3960
5.2844 4.0131 2.3960
5.1231 4.1868 2.3960
4.9557 4.3540 2.3960
4.7827 4.5143 2.3960
4.6043 4.6677 2.3960
4.4207 4.8139 2.3960
4.2324 4.9529 2.3960
4.0396 5.0845 2.3960
3.8426 5.2085 2.3960
3.6418 5.3248 2.3960
3.4374 5.4334 2.3960
3.2298 5.5342 2.3960
3.0193 5.6271 2.3960
2.8062 5.7120 2.3960
2.5908 5.7889 2.3960
0.9281 2.2906 0.9369
0.8451 2.3216 0.9398
0.7610 2.3497 0.9428
0.6759 2.3746 0.9457
0.5900 2.3965 0.9487
0.5033 2.4153 0.9516
0.4161 2.4310 0.9545
0.3282 2.4434 0.9574
0.2400 2.4527 0.9603
0.1516 2.4588 0.9631
0.0629 2.4617 0.9659
-0.0258 2.4614 0.9687
-0.1144 2.4579 0.9715
-0.2029 2.4512 0.9742
-0.2911 2.4413 0.9768
-0.3788 2.4282 0.9795
-0.4660 2.4119 0.9820
-0.5526 2.3925 0.9845
-0.6384 2.3700 0.9870
-0.7234 2.3444 0.9894
-0.8074 2.3158 0.9917
-2.1459 5.5057 2.3960
-2.3376 5.4102 2.3960
-2.5255 5.3085 2.3960
-2.7094 5.2007 2.3960
-2.8892 5.0871 2.3960
-3.0647 4.9676 2.3960
-3.2357 4.8426 2.3960
-3.4020 4.7121 2.3960
-3.5636 4.5764 2.3960
-3.7202 4.4356 2.3960
-3.8718 4.2898 2.3960
-4.0181 4.1393 2.3960
-4.1591 3.9842 2.3960
-4.2947 3.8247 2.3960
-4.4247 3.6610 2.3960
-4.5490 3.4933 2.3960
-4.6675 3.3217 2.3960
-4.7801 3.1465 2.3960
-4.8868 2.9677 2.3960
-4.9873 2.7857 2.3960
-5.0817 2.6005 2.3960
-5.1698 2.4125 2.3960
-5.2516 2.2217 2.3960
-5.3269 2.0284 2.3960
-5.3958 1.8327 2.3960
-5.4582 1.6349 2.3960
-5.5140 1.4352 2.3960
-5.5631 1.2337 2.3960
-5.6055 1.0307 2.3960
-5.6412 0.8263 2.3960
-5.6700 0.6208 2.3960
-5.6921 0.4143 2.3960
-5.7073 0.2071 2.3960
-5.7156 -0.0006 2.3960
-5.7170 -0.2087 2.3960
-5.7114 -0.4169 2.3960
-5.6989 -0.6250 2.3960
-5.6795 -0.8328 2.3960
-5.6532 -1.0400 2.3960
-5.6199 -1.2466 2.3960
-5.5796 -1.4522 2.3960
-5.5324 -1.6566 2.3960
-5.4784 -1.8597 2.3960
-5.4174 -2.0611 2.3960
-5.3496 -2.2608 2.3960
-5.2750 -2.4585 2.3960
-5.1936 -2.6539 2.3960
-5.1055 -2.8468 2.3960
-5.0107 -3.0371 2.3960
-4.9093 -3.2244 2.3960
-4.8014 -3.4086 2.3960
-4.6870 -3.5895 2.3960
-4.5663 -3.7668 2.3960
-4.4392 -3.9403 2.3960
-4.3060 -4.1097 2.3960
-4.1667 -4.2750 2.3960
-4.0214 -4.4358 2.3960
-3.8702 -4.5919 2.3960
-3.7134 -4.7431 2.3960
-3.5509 -4.8893 2.3960
-3.3830 -5.0301 2.3960
-3.2098 -5.1653 2.3960
-3.0315 -5.2949 2.3960
-2.8483 -5.4185 2.3960
-2.6602 -5.5359 2.3960
-2.4676 -5.6470 2.3960
-2.2706 -5.7516 2.3960
-2.0695 -5.8494 2.3960
-1.8644 -5.9404 2.3960
-1.6555 -6.0242 2.3960
-1.4432 -6.1008 2.3960
-1.2276 -6.1700 2.3960
-1.0090 -6.2315 2.3960
-0.7876 -6.2854 2.3960
-0.5638 -6.3314 2.3960
-0.3378 -6.3693 2.3960
-0.1099 -6.3992 2.3960
0.1196 -6.4207 2.3960
0.3504 -6.4340 2.3960
0.5823 -6.4388 2.3960
0.8148 -6.4350 2.3960
1.0476 -6.4227 2.3960
1.2805 -6.4017 2.3960
1.5131 -6.3720 2.3960
1.7450 -6.3336 2.3960
1.9759 -6.2865 2.3960
2.2055 -6.2306 2.3960
2.4334 -6.1660 2.3960
2.6593 -6.0927 2.3960
2.8827 -6.0107 2.3960
3.1034 -5.9202 2.3960
3.3210 -5.8211 2.3960
3.4809 -5.6260 2.3593
3.5997 -5.3801 2.3028
3.7162 -5.1478 2.2533
3.8890 -5.0019 2.2436
4.0732 -4.8709 2.2436
4.2525 -4.7326 2.2436
4.4267 -4.5872 2.2436
4.5954 -4.4350 2.2436
4.7583 -4.2762 2.2436
4.9152 -4.1110 2.2436
5.0657 -3.9396 2.2436
5.2095 -3.7622 2.2436
5.3465 -3.5792 2.2436
5.4764 -3.3908 2.2436
5.5989 -3.1973 2.2436
5.7139 -2.9990 2.2436
5.8211 -2.7963 2.2436
5.9203 -2.5894 2.2436
6.0114 -2.3786 2.2436
6.0942 -2.1645 2.2436
6.1685 -1.9471 2.2436
6.2342 -1.7270 2.2436
6.2913 -1.5045 2.2436
6.3395 -1.2799 2.2436
6.3790 -1.0537 2.2436
6.4095 -0.8261 2.2436
6.4311 -0.5977 2.2436
6.4437 -0.3686 2.2436
6.5239 -0.1411 2.2702
6.8392 0.0951 2.3819
6.8643 0.3396 2.3960
6.8396 0.5825 2.3960
6.8055 0.8241 2.3960
6.7620 1.0638 2.3960
6.7094 1.3014 2.3960
6.6476 1.5365 2.3960
6.5769 1.7687 2.3960
6.4974 1.9976 2.3960
6.4093 2.2229 2.3960
6.3127 2.4443 2.3960
6.2079 2.6614 2.3960
6.0950 2.8740 2.3960
5.9744 3.0817 2.3960
5.8462 3.2842 2.3960
5.7106 3.4813 2.3960
5.5680 3.6726 2.3960
5.4186 3.8581 2.3960
5.2627 4.0373 2.3960
5.1005 4.2101 2.3960
4.9323 4.3763 2.3960
4.7586 4.5357 2.3960
4.5794 4.6882 2.3960
4.3952 4.8334 2.3960
4.2063 4.9714 2.3960
4.0129 5.1019 2.3960
3.8153 5.2249 2.3960
3.6140 5.3402 2.3960
3.4092 5.4477 2.3960
3.2012 5.5474 2.3960
2.9903 5.6392 2.3960
2.7769 5.7230 2.3960
2.5611 5.7988 2.3960
0.9168 2.2950 0.9373
0.8336 2.3256 0.9402
0.7494 2.3533 0.9432
0.6642 2.3778 0.9461
0.5782 2.3993 0.9491
0.4914 2.4176 0.9520
0.4041 2.4328 0.9549
0.3162 2.4449 0.9578
0.2279 2.4537 0.9606
0.1394 2.4594 0.9635
0.0508 2.4619 0.9663
-0.0379 2.4611 0.9691
-0.1266 2.4572 0.9718
-0.2150 2.4500 0.9745
-0.3031 2.4397 0.9772
-0.3908 2.4261 0.9798
-0.4779 2.4094 0.9824
-0.5644 2.3896 0.9849
-0.6501 2.3667 0.9873
-0.7350 2.3407 0.9897
-0.8188 2.3116 0.9920
-2.1724 5.4930 2.3960
-2.3636 5.3966 2.3960
-2.5509 5.2941 2.3960
-2.7343 5.1855 2.3960
-2.9135 5.0710 2.3960
-3.0884 4.9508 2.3960
-3.2587 4.8250 2.3960
-3.4244 4.6938 2.3960
-3.5853 4.5574 2.3960
-3.7413 4.4159 2.3960
-3.8921 4.2695 2.3960
-4.0377 4.1183 2.3960
-4.1780 3.9626 2.3960
-4.3128 3.8026 2.3960
-4.4421 3.6383 2.3960
-4.5656 3.4700 2.3960
-4.6833 3.2979 2.3960
-4.7951 3.1222 2.3960
-4.9009 2.9430 2.3960
-5.0006 2.7605 2.3960
-5.0941 2.5749 2.3960
-5.1814 2.3865 2.3960
-5.2623 2.1954 2.3960
-5.3368 2.0017 2.3960
-5.4048 1.8058 2.3960
-5.4662 1.6077 2.3960
-5.5211 1.4077 2.3960
-5.5693 1.2060 2.3960
-5.6108 1.0027 2.3960
-5.6455 0.7982 2.3960
-5.6735 0.5925 2.3960
-5.6946 0.3860 2.3960
-5.7088 0.1787 2.3960
-5.7162 -0.0291 2.3960
-5.7166 -0.2372 2.3960
-5.7101 -0.4454 2.3960
-5.6967 -0.6535 2.3960
-5.6763 -0.8612 2.3960
-5.6490 -1.0684 2.3960
-5.6148 -1.2748 2.3960
-5.5735 -1.4802 2.3960
-5.5254 -1.6845 2.3960
-5.4704 -1.8874 2.3960
-5.4085 -2.0886 2.3960
-5.3398 -2.2880 2.3960
-5.2642 -2.4854 2.3960
-3.3478 -4.5695 2.3960
-3.1904 -4.7015 2.3960
-3.0281 -4.8283 2.3960
-2.8610 -4.9496 2.3960
-2.6894 -5.0654 2.3960
-2.5132 -5.1754 2.3960
-2.3328 -5.2794 2.3960
-2.1483 -5.3772 2.3960
-1.9600 -5.4688 2.3960
-1.7680 -5.5538 2.3960
-1.5726 -5.6322 2.3960
-1.3739 -5.7037 2.3960
-1.1722 -5.7684 2.3960
-0.9677 -5.8259 2.3960
-0.7607 -5.8761 2.3960
-0.5515 -5.9190 2.3960
-0.3402 -5.9544 2.3960
-0.1272 -5.9822 2.3960
0.0872 -6.0023 2.3960
0.3028 -6.0146 2.3960
0.5193 -6.0190 2.3960
0.7364 -6.0155 2.3960
0.9538 -6.0039 2.3960
1.1712 -5.9843 2.3960
1.3882 -5.9566 2.3960
1.6047 -5.9208 2.3960
1.8201 -5.8768 2.3960
2.0343 -5.8248 2.3960
2.2469 -5.7646 2.3960
2.4576 -5.6963 2.3960
2.6660 -5.6200 2.3960
2.8718 -5.5357 2.3960
3.0747 -5.4435 2.3960
3.2744 -5.3435 2.3960
3.4705 -5.2358 2.3960
3.6627 -5.1205 2.3960
3.7901 -4.9190 2.3582
3.8950 -4.6996 2.3133
3.9963 -4.4872 2.2728
4.1075 -4.2944 2.2436
4.2649 -4.1530 2.2436
4.4169 -4.0055 2.2436
4.5634 -3.8520 2.2436
4.7040 -3.6927 2.2436
4.8384 -3.5280 2.2436
4.9665 -3.3580 2.2436
5.0881 -3.1830 2.2436
5.2028 -3.0033 2.2436
5.3105 -2.8191 2.2436
5.4111 -2.6308 2.2436
5.5043 -2.4386 2.2436
5.5899 -2.2428 2.2436
5.6679 -2.0438 2.2436
5.7381 -1.8418 2.2436
5.8004 -1.6372 2.2436
5.8546 -1.4304 2.2436
5.9008 -1.2216 2.2436
5.9387 -1.0112 2.2436
5.9684 -0.7995 2.2436
6.0202 -0.5899 2.2549
6.2083 -0.3865 2.3203
6.4159 -0.1713 2.3960
6.4122 0.0565 2.3960
6.3996 0.2837 2.3960
6.3783 0.5102 2.3960
6.3482 0.7354 2.3960
6.3095 0.9590 2.3960
6.2622 1.1807 2.3960
6.2064 1.4002 2.3960
6.1424 1.6170 2.3960
6.0701 1.8310 2.3960
5.9898 2.0417 2.3960
5.9016 2.2488 2.3960
5.8057 2.4521 2.3960
5.7023 2.6512 2.3960
5.5916 2.8458 2.3960
5.4738 3.0358 2.3960
5.3491 3.2208 2.3960
5.2178 3.4006 2.3960
5.0801 3.5750 2.3960
4.9363 3.7436 2.3960
4.7865 3.9064 2.3960
4.6311 4.0631 2.3960
4.4704 4.2135 2.3960
4.3045 4.3576 2.3960
4.1339 4.4949 2.3960
3.9587 4.6256 2.3960
3.7793 4.7494 2.3960
3.5959 4.8662 2.3960
3.4089 4.9758 2.3960
3.2185 5.0783 2.3960
3.0249 5.1736 2.3960
2.8286 5.2614 2.3960
2.6298 5.3419 2.3960
0.9472 2.1117 0.9344
0.8706 2.1436 0.9371
0.7929 2.1726 0.9399
0.7142 2.1988 0.9426
0.6345 2.2222 0.9454
0.5541 2.2427 0.9481
0.4730 2.2603 0.9509
0.3913 2.2749 0.9536
0.3091 2.2865 0.9563
0.2265 2.2952 0.9590
0.1437 2.3009 0.9617
0.0607 2.3036 0.9643
-0.0223 2.3033 0.9669
-0.1052 2.3001 0.9695
-0.1880 2.2938 0.9720
-0.2706 2.2845 0.9745
-0.3527 2.2722 0.9770
-0.4343 2.2570 0.9794
-0.5154 2.2389 0.9817
-0.5957 2.2178 0.9840
-0.6752 2.1938 0.9863
-0.7538 2.1670 0.9885
-0.8314 2.1374 0.9906
-2.1913 5.0808 2.3960
-2.3681 4.9859 2.3960
-2.5413 4.8853 2.3960
-2.7105 4.7791 2.3960
-2.8758 4.6674 2.3960
-3.0368 4.5504 2.3960
-3.1935 4.4283 2.3960
-3.3457 4.3011 2.3960
-3.4933 4.1691 2.3960
-3.6362 4.0325 2.3960
-3.7741 3.8913 2.3960
-3.9071 3.7458 2.3960
-4.0349 3.5961 2.3960
-4.1574 3.4423 2.3960
-4.2746 3.2848 2.3960
-4.3864 3.1236 2.3960
-4.4925 2.9589 2.3960
-4.5931 2.7908 2.3960
-4.6879 2.6197 2.3960
-4.7768 2.4456 2.3960
-4.8599 2.2687 2.3960
-4.9370 2.0893 2.3960
-5.0080 1.9074 2.3960
-5.0729 1.7233 2.3960
-5.1316 1.5372 2.3960
-5.1841 1.3493 2.3960
-5.2303 1.1597 2.3960
-5.2701 0.9686 2.3960
-5.3036 0.7763 2.3960
-5.3306 0.5829 2.3960
-5.3512 0.3886 2.3960
-5.3653 0.1936 2.3960
-5.3729 -0.0018 2.3960
-5.3740 -0.1976 2.3960
-5.3685 -0.3934 2.3960
-5.3565 -0.5891 2.3960
-5.3378 -0.7845 2.3960
-5.3127 -0.9794 2.3960
-5.2809 -1.1736 2.3960
-5.2427 -1.3668 2.3960
-5.1979 -1.5590 2.3960
-5.1465 -1.7497 2.3960
-5.0887 -1.9390 2.3960
-5.0245 -2.1265 2.3960
-4.9538 -2.3121 2.3960
-4.8767 -2.4955 2.3960
-4.7933 -2.6765 2.3960
-4.7037 -2.8549 2.3960
-4.6079 -3.0306 2.3960
-4.5059 -3.2032 2.3960
-4.3978 -3.3727 2.3960
-4.2838 -3.5387 2.3960
-4.1639 -3.7011 2.3960
-4.0382 -3.8597 2.3960
-3.9067 -4.0142 2.3960
-3.7698 -4.1645 2.3960
-3.6273 -4.3104 2.3960
-3.4795 -4.4516 2.3960
-3.3265 -4.5879 2.3960
-3.1685 -4.7192 2.3960
-3.0055 -4.8452 2.3960
-2.8378 -4.9658 2.3960
-2.6655 -5.0808 2.3960
-2.4887 -5.1900 2.3960
-2.3078 -5.2931 2.3960
-2.1228 -5.3901 2.3960
-1.9339 -5.4808 2.3960
-1.7414 -5.5649 2.3960
-1.5455 -5.6424 2.3960
-1.3464 -5.7130 2.3960
-1.1443 -5.7767 2.3960
-0.9395 -5.8332 2.3960
-0.7322 -5.8824 2.3960
-0.5227 -5.9243 2.3960
-0.3111 -5.9587 2.3960
-0.0980 -5.9854 2.3960
0.1167 -6.0044 2.3960
0.3324 -6.0156 2.3960
0.5490 -6.0190 2.3960
0.7662 -6.0143 2.3960
0.9836 -6.0017 2.3960
1.2010 -5.9810 2.3960
1.4179 -5.9522 2.3960
1.6343 -5.9152 2.3960
1.8496 -5.8702 2.3960
2.0636 -5.8170 2.3960
2.2759 -5.7557 2.3960
2.4863 -5.6863 2.3960
2.6943 -5.6089 2.3960
2.8998 -5.5236 2.3960
3.1023 -5.4303 2.3960
3.3015 -5.3292 2.3960
3.4971 -5.2205 2.3960
3.6887 -5.1041 2.3960
3.8047 -4.8885 2.3518
3.9091 -4.6701 2.3075
4.0100 -4.4586 2.2676
4.1293 -4.2754 2.2436
4.2860 -4.1332 2.2436
4.4373 -3.9848 2.2436
4.5830 -3.8305 2.2436
4.7228 -3.6705 2.2436
4.8564 -3.5050 2.2436
4.9836 -3.3343 2.2436
5.1042 -3.1587 2.2436
5.2180 -2.9783 2.2436
5.3247 -2.7936 2.2436
5.4243 -2.6047 2.2436
5.5165 -2.4120 2.2436
5.6011 -2.2157 2.2436
5.6780 -2.0163 2.2436
5.7471 -1.8139 2.2436
5.8083 -1.6090 2.2436
5.8614 -1.4019 2.2436
5.9065 -1.1928 2.2436
5.9433 -0.9822 2.2436
5.9718 -0.7704 2.2436
6.0395 -0.5622 2.2613
6.2385 -0.3580 2.3312
6.4159 -0.1401 2.3960
6.4110 0.0877 2.3960
6.3972 0.3148 2.3960
6.3747 0.5411 2.3960
6.3434 0.7661 2.3960
6.3035 0.9895 2.3960
6.2551 1.2109 2.3960
6.1982 1.4300 2.3960
6.1329 1.6465 2.3960
6.0596 1.8600 2.3960
5.9782 2.0702 2.3960
5.8889 2.2769 2.3960
5.7920 2.4796 2.3960
5.6876 2.6781 2.3960
5.5759 2.8722 2.3960
5.4571 3.0615 2.3960
5.3315 3.2458 2.3960
5.1993 3.4248 2.3960
5.0608 3.5984 2.3960
4.9161 3.7663 2.3960
4.7656 3.9282 2.3960
4.6094 4.0841 2.3960
4.4480 4.2336 2.3960
4.2814 4.3767 2.3960
4.1102 4.5132 2.3960
3.9344 4.6429 2.3960
3.7544 4.7658 2.3960
3.5705 4.8816 2.3960
3.3830 4.9903 2.3960
3.1921 5.0918 2.3960
2.9982 5.1860 2.3960
2.8015 5.2729 2.3960
2.6024 5.3523 2.3960
0.9368 2.1162 0.9348
0.8600 2.1477 0.9375
0.7821 2.1764 0.9403
0.7033 2.2022 0.9430
0.6236 2.2252 0.9458
0.5430 2.2453 0.9485
0.4618 2.2624 0.9513
0.3801 2.2767 0.9540
0.2978 2.2879 0.9567
0.2152 2.2962 0.9594
0.1324 2.3015 0.9620
0.0494 2.3038 0.9647
-0.0337 2.3031 0.9673
-0.1166 2.2994 0.9698
-0.1994 2.2927 0.9724
-0.2818 2.2830 0.9749
-0.3639 2.2703 0.9773
-0.4455 2.2547 0.9797
-0.5264 2.2361 0.9821
-0.6066 2.2147 0.9843
-0.6860 2.1903 0.9866
-0.7645 2.1631 0.9888
-0.8419 2.1331 0.9909
-2.2157 5.0682 2.3960
-2.3921 4.9725 2.3960
-2.5647 4.8711 2.3960
-2.7334 4.7641 2.3960
-2.8981 4.6517 2.3960
-3.0585 4.5340 2.3960
-3.2146 4.4112 2.3960
-3.3662 4.2833 2.3960
-3.5132 4.1507 2.3960
-3.6554 4.0134 2.3960
-3.7926 3.8716 2.3960
-3.9249 3.7255 2.3960
-4.0520 3.5752 2.3960
-4.1738 3.4210 2.3960
-4.2902 3.2629 2.3960
-4.4012 3.1012 2.3960
-4.5067 2.9360 2.3960
-4.6064 2.7676 2.3960
-4.7004 2.5960 2.3960
-4.7886 2.4215 2.3960
-4.8708 2.2443 2.3960
-4.9471 2.0645 2.3960
-5.0172 1.8823 2.3960
-5.0813 1.6979 2.3960
-5.1392 1.5116 2.3960
-5.1908 1.3234 2.3960
-5.2361 1.1336 2.3960
-5.2751 0.9423 2.3960
-5.3077 0.7499 2.3960
-5.3339 0.5563 2.3960
-5.3536 0.3619 2.3960
-5.3668 0.1669 2.3960
-5.3734 -0.0286 2.3960
-5.3736 -0.2244 2.3960
-5.3672 -0.4202 2.3960
-5.3543 -0.6159 2.3960
-5.3348 -0.8112 2.3960
-5.3087 -1.0060 2.3960
-5.2761 -1.2001 2.3960
-5.2369 -1.3932 2.3960
-5.1912 -1.5852 2.3960
-5.1390 -1.7758 2.3960
-5.0803 -1.9648 2.3960
-5.0152 -2.1521 2.3960
-4.9436 -2.3373 2.3960
-3.1449 -4.2998 2.3960
-2.9964 -4.4233 2.3960
-2.8433 -4.5418 2.3960
-2.6857 -4.6552 2.3960
-2.5239 -4.7633 2.3960
-2.3579 -4.8659 2.3960
-2.1879 -4.9629 2.3960
-2.0143 -5.0540 2.3960
-1.8370 -5.1391 2.3960
-1.6563 -5.2182 2.3960
-1.4724 -5.2909 2.3960
-1.2855 -5.3572 2.3960
-1.0960 -5.4169 2.3960
-0.9038 -5.4700 2.3960
-0.7094 -5.5162 2.3960
-0.5129 -5.5555 2.3960
-0.3146 -5.5877 2.3960
-0.1148 -5.6128 2.3960
0.0864 -5.6307 2.3960
0.2886 -5.6413 2.3960
0.4915 -5.6444 2.3960
0.6950 -5.6402 2.3960
0.8986 -5.6284 2.3960
1.1022 -5.6091 2.3960
1.3054 -5.5822 2.3960
1.5079 -5.5478 2.3960
1.7095 -5.5057 2.3960
1.9098 -5.4561 2.3960
2.1086 -5.3989 2.3960
2.3055 -5.3342 2.3960
2.5003 -5.2620 2.3960
2.6925 -5.1823 2.3960
2.8821 -5.0953 2.3960
3.0685 -5.0011 2.3960
3.2516 -4.8997 2.3960
3.4310 -4.7912 2.3960
3.6065 -4.6758 2.3960
3.7777 -4.5536 2.3960
3.9443 -4.4247 2.3960
4.0759 -4.2578 2.3783
4.1707 -4.0580 2.3441
4.2628 -3.8627 2.3137
4.3525 -3.6713 2.2868
4.4400 -3.4832 2.2634
4.5331 -3.3033 2.2468
4.6460 -3.1394 2.2436
4.7593 -2.9757 2.2436
4.8662 -2.8076 2.2436
4.9666 -2.6354 2.2436
5.0604 -2.4593 2.2436
5.1513 -2.2814 2.2454
5.2321 -2.0986 2.2457
5.2999 -1.9107 2.2436
5.3655 -1.7220 2.2436
5.4236 -1.5308 2.2436
5.4743 -1.3376 2.2436
5.5533 -1.1499 2.2582
5.6814 -0.9678 2.2955
5.8211 -0.7804 2.3402
5.9815 -0.5870 2.3960
5.9948 -0.3743 2.3960
5.9999 -0.1614 2.3960
5.9967 0.0514 2.3960
5.9854 0.2638 2.3960
5.9658 0.4755 2.3960
5.9381 0.6860 2.3960
5.9024 0.8951 2.3960
5.8587 1.1024 2.3960
5.8071 1.3077 2.3960
5.7477 1.5105 2.3960
5.6807 1.7107 2.3960
5.6062 1.9080 2.3960
5.5244 2.1019 2.3960
5.4353 2.2923 2.3960
5.3393 2.4788 2.3960
5.2363 2.6613 2.3960
5.1268 2.8394 2.3960
5.0108 3.0130 2.3960
4.8886 3.1817 2.3960
4.7604 3.3453 2.3960
4.6264 3.5037 2.3960
4.4869 3.6567 2.3960
4.3420 3.8041 2.3960
4.1921 3.9456 2.3960
4.0374 4.0811 2.3960
3.8782 4.2105 2.3960
3.7147 4.3337 2.3960
3.5471 4.4504 2.3960
3.3758 4.5607 2.3960
3.2010 4.6643 2.3960
3.0229 4.7612 2.3960
2.8419 4.8514 2.3960
2.6582 4.9346 2.3960
2.4721 5.0110 2.3960
0.8910 1.9821 0.9348
0.8191 2.0120 0.9374
0.7462 2.0392 0.9399
0.6723 2.0638 0.9425
0.5975 2.0858 0.9451
0.5220 2.1050 0.9477
0.4458 2.1215 0.9503
0.3691 2.1352 0.9528
0.2920 2.1461 0.9554
0.2145 2.1543 0.9579
0.1367 2.1596 0.9604
0.0588 2.1622 0.9629
-0.0191 2.1619 0.9653
-0.0970 2.1588 0.9677
-0.1747 2.1529 0.9701
-0.2522 2.1442 0.9725
-0.3293 2.1327 0.9748
-0.4060 2.1184 0.9770
-0.4820 2.1013 0.9792
-0.5574 2.0815 0.9814
-0.6321 2.0591 0.9835
-0.7059 2.0339 0.9855
-0.7787 2.0061 0.9875
-0.8505 1.9756 0.9895
-2.2263 4.6952 2.3960
-2.3897 4.6010 2.3960
-2.5494 4.5014 2.3960
-2.7054 4.3966 2.3960
-2.8574 4.2868 2.3960
-3.0054 4.1721 2.3960
-3.1491 4.0527 2.3960
-3.2885 3.9286 2.3960
-3.4235 3.8001 2.3960
-3.5538 3.6673 2.3960
-3.6794 3.5304 2.3960
-3.8001 3.3895 2.3960
-3.9160 3.2448 2.3960
-4.0267 3.0964 2.3960
-4.1323 2.9445 2.3960
-4.2327 2.7893 2.3960
-4.3277 2.6310 2.3960
-4.4172 2.4697 2.3960
-4.5013 2.3055 2.3960
-4.5798 2.1388 2.3960
-4.6525 1.9695 2.3960
-4.7196 1.7980 2.3960
-4.7809 1.6244 2.3960
-4.8363 1.4489 2.3960
-4.8858 1.2716 2.3960
-4.9294 1.0927 2.3960
-4.9669 0.9125 2.3960
-4.9984 0.7311 2.3960
-5.0238 0.5487 2.3960
-5.0431 0.3654 2.3960
-5.0562 0.1815 2.3960
-5.0632 -0.0029 2.3960
-5.0640 -0.1875 2.3960
-5.0586 -0.3721 2.3960
-5.0470 -0.5567 2.3960
-5.0291 -0.7409 2.3960
-5.0051 -0.9246 2.3960
-4.9748 -1.1076 2.3960
-4.9384 -1.2898 2.3960
-4.8958 -1.4708 2.3960
-4.8470 -1.6505 2.3960
-4.7921 -1.8288 2.3960
-4.7311 -2.0053 2.3960
-4.6640 -2.1800 2.3960
-4.5909 -2.3526 2.3960
-4.5119 -2.5229 2.3960
-4.4269 -2.6907 2.3960
-4.3361 -2.8559 2.3960
-4.2395 -3.0182 2.3960
-4.1373 -3.1774 2.3960
-4.0294 -3.3333 2.3960
-3.9159 -3.4858 2.3960
-3.7970 -3.6346 2.3960
-3.6728 -3.7795 2.3960
-3.5434 -3.9205 2.3960
-3.4088 -4.0571 2.3960
-3.2693 -4.1894 2.3960
-3.1248 -4.3170 2.3960
-2.9757 -4.4398 2.3960
-2.8220 -4.5577 2.3960
-2.6638 -4.6704 2.3960
-2.5014 -4.7777 2.3960
-2.3348 -4.8795 2.3960
-2.1644 -4.9757 2.3960
-1.9902 -5.0660 2.3960
-1.8124 -5.1503 2.3960
-1.6313 -5.2285 2.3960
-1.4470 -5.3003 2.3960
-1.2597 -5.3658 2.3960
-1.0698 -5.4246 2.3960
-0.8773 -5.4767 2.3960
-0.6826 -5.5220 2.3960
-0.4858 -5.5603 2.3960
-0.2873 -5.5916 2.3960
-0.0873 -5.6157 2.3960
0.1140 -5.6326 2.3960
0.3163 -5.6421 2.3960
0.5194 -5.6443 2.3960
0.7229 -5.6390 2.3960
0.9265 -5.6262 2.3960
1.1300 -5.6059 2.3960
1.3332 -5.5780 2.3960
1.5356 -5.5425 2.3960
1.7370 -5.4994 2.3960
1.9372 -5.4487 2.3960
2.1357 -5.3905 2.3960
2.3323 -5.3247 2.3960
2.5268 -5.2515 2.3960
2.7187 -5.1709 2.3960
2.9078 -5.0829 2.3960
3.0938 -4.9876 2.3960
3.2764 -4.8852 2.3960
3.4553 -4.7758 2.3960
3.6302 -4.6594 2.3960
3.8008 -4.5363 2.3960
3.9668 -4.4066 2.3960
4.0891 -4.2301 2.3734
4.1835 -4.0310 2.3398
4.2752 -3.8363 2.3098
4.3646 -3.6453 2.2834
4.4518 -3.4576 2.2604
4.5459 -3.2789 2.2449
4.6619 -3.1173 2.2436
4.7743 -2.9529 2.2436
4.8803 -2.7842 2.2436
4.9799 -2.6115 2.2436
5.0801 -2.4385 2.2469
5.1625 -2.2564 2.2453
5.2430 -2.0735 2.2459
5.3093 -1.8850 2.2436
5.3738 -1.6959 2.2436
5.4310 -1.5045 2.2436
5.4806 -1.3109 2.2436
5.5701 -1.1252 2.2628
5.6994 -0.9424 2.3010
5.8429 -0.7545 2.3476
5.9838 -0.5578 2.3960
5.9960 -0.3451 2.3960
6.0000 -0.1322 2.3960
5.9957 0.0806 2.3960
5.9832 0.2929 2.3960
5.9625 0.5044 2.3960
5.9337 0.7147 2.3960
5.8969 0.9236 2.3960
5.8521 1.1306 2.3960
5.7994 1.3356 2.3960
5.7390 1.5381 2.3960
5.6710 1.7379 2.3960
5.5954 1.9347 2.3960
5.5126 2.1282 2.3960
5.4226 2.3181 2.3960
5.3256 2.5041 2.3960
5.2217 2.6860 2.3960
5.1113 2.8635 2.3960
4.9944 3.0364 2.3960
4.8714 3.2044 2.3960
4.7424 3.3674 2.3960
4.6076 3.5250 2.3960
4.4674 3.6772 2.3960
4.3218 3.8238 2.3960
4.1712 3.9645 2.3960
4.0159 4.0992 2.3960
3.8560 4.2278 2.3960
3.6919 4.3501 2.3960
3.5238 4.4659 2.3960
3.3520 4.5753 2.3960
3.1768 4.6780 2.3960
2.9983 4.7740 2.3960
2.8169 4.8632 2.3960
2.6329 4.9455 2.3960
0.9522 1.9542 0.9326
0.8813 1.9863 0.9351
0.8092 2.0158 0.9377
0.7361 2.0428 0.9403
0.6621 2.0670 0.9429
0.5872 2.0886 0.9455
0.5116 2.1074 0.9480
0.4354 2.1235 0.9506
0.3586 2.1368 0.9532
0.2814 2.1474 0.9557
0.2038 2.1552 0.9582
0.1261 2.1601 0.9607
0.0481 2.1623 0.9632
-0.0298 2.1616 0.9656
-0.1077 2.1581 0.9681
-0.1854 2.1518 0.9704
-0.2628 2.1427 0.9728
-0.3398 2.1309 0.9751
-0.4164 2.1162 0.9773
-0.4924 2.0988 0.9795
-0.5677 2.0786 0.9817
-0.6423 2.0558 0.9838
-0.7159 2.0302 0.9858
-0.7886 2.0020 0.9878
-0.8602 1.9713 0.9897
-2.2489 4.6826 2.3960
-2.4118 4.5876 2.3960
-2.5710 4.4873 2.3960
-2.7264 4.3819 2.3960
-2.8779 4.2714 2.3960
-3.0253 4.1561 2.3960
-3.1685 4.0360 2.3960
-3.3073 3.9113 2.3960
-3.4416 3.7822 2.3960
-3.5713 3.6488 2.3960
-3.6962 3.5113 2.3960
-3.8163 3.3699 2.3960
-3.9314 3.2247 2.3960
-4.0415 3.0758 2.3960
-4.1464 2.9235 2.3960
-4.2460 2.7678 2.3960
-4.3403 2.6091 2.3960
-4.4291 2.4473 2.3960
-4.5124 2.2828 2.3960
-4.5901 2.1157 2.3960
-4.6621 1.9462 2.3960
-4.7284 1.7744 2.3960
-4.7889 1.6005 2.3960
-4.8435 1.4247 2.3960
-4.8922 1.2472 2.3960
-4.9349 1.0681 2.3960
-4.9716 0.8877 2.3960
-5.0023 0.7061 2.3960
-5.0268 0.5236 2.3960
-5.0453 0.3402 2.3960
-5.0576 0.1563 2.3960
-5.0637 -0.0281 2.3960
-5.0636 -0.2128 2.3960
-5.0574 -0.3974 2.3960
-5.0449 -0.5819 2.3960
-5.0262 -0.7661 2.3960
-5.0013 -0.9497 2.3960
-4.9702 -1.1327 2.3960
-4.9329 -1.3146 2.3960
-4.8894 -1.4955 2.3960
-4.8398 -1.6750 2.3960
-4.7841 -1.8530 2.3960
-4.7222 -2.0294 2.3960
-4.6543 -2.2038 2.3960
-2.9614 -4.0558 2.3960
-2.8209 -4.1717 2.3960
-2.6762 -4.2828 2.3960
-2.5273 -4.3891 2.3960
-2.3744 -4.4904 2.3960
-2.2176 -4.5864 2.3960
-2.0571 -4.6771 2.3960
-1.8932 -4.7622 2.3960
-1.7259 -4.8417 2.3960
-1.5554 -4.9154 2.3960
-1.3821 -4.9831 2.3960
-1.2059 -5.0447 2.3960
-1.0273 -5.1002 2.3960
-0.8463 -5.1493 2.3960
-0.6632 -5.1920 2.3960
-0.4782 -5.2282 2.3960
-0.2916 -5.2577 2.3960
-0.1035 -5.2805 2.3960
0.0857 -5.2965 2.3960
0.2758 -5.3056 2.3960
0.4666 -5.3078 2.3960
0.6577 -5.3029 2.3960
0.8490 -5.2911 2.3960
1.0402 -5.2722 2.3960
1.2310 -5.2461 2.3960
1.4211 -5.2130 2.3960
1.6102 -5.1728 2.3960
1.7982 -5.1254 2.3960
1.9846 -5.0710 2.3960
2.1692 -5.0096 2.3960
2.3517 -4.9411 2.3960
2.5320 -4.8657 2.3960
2.7095 -4.7835 2.3960
2.8842 -4.6945 2.3960
3.0556 -4.5987 2.3960
3.2236 -4.4964 2.3960
3.3879 -4.3877 2.3960
3.5481 -4.2726 2.3960
3.7041 -4.1513 2.3960
3.8556 -4.0240 2.3960
4.0023 -3.8909 2.3960
4.1439 -3.7521 2.3960
4.2803 -3.6078 2.3960
4.4112 -3.4582 2.3960
4.5054 -3.2810 2.3796
4.5890 -3.0991 2.3617
4.6712 -2.9191 2.3469
4.7522 -2.7404 2.3353
4.8321 -2.5628 2.3267
4.9111 -2.3858 2.3211
4.9899 -2.2091 2.3186
5.0682 -2.0323 2.3191
5.1463 -1.8549 2.3225
5.2312 -1.6786 2.3321
5.3175 -1.5008 2.3452
5.4195 -1.3243 2.3681
5.5252 -1.1444 2.3954
5.5623 -0.9480 2.3960
5.5903 -0.7501 2.3960
5.6107 -0.5514 2.3960
5.6234 -0.3521 2.3960
5.6284 -0.1525 2.3960
5.6257 0.0470 2.3960
5.6153 0.2460 2.3960
5.5973 0.4444 2.3960
5.5717 0.6418 2.3960
5.5385 0.8379 2.3960
5.4980 1.0324 2.3960
5.4500 1.2249 2.3960
5.3948 1.4153 2.3960
5.3325 1.6032 2.3960
5.2631 1.7884 2.3960
5.1868 1.9705 2.3960
5.1038 2.1493 2.3960
5.0143 2.3246 2.3960
4.9183 2.4961 2.3960
4.8160 2.6635 2.3960
4.7078 2.8267 2.3960
4.5936 2.9855 2.3960
4.4739 3.1395 2.3960
4.3486 3.2887 2.3960
4.2182 3.4328 2.3960
4.0827 3.5717 2.3960
3.9425 3.7051 2.3960
3.7977 3.8330 2.3960
3.6486 3.9552 2.3960
3.4955 4.0715 2.3960
3.3385 4.1818 2.3960
3.1779 4.2861 2.3960
3.0140 4.3842 2.3960
2.8471 4.4760 2.3960
2.6772 4.5615 2.3960
2.5049 4.6406 2.3960
0.9071 1.8347 0.9327
0.8404 1.8653 0.9351
0.7727 1.8934 0.9376
0.7041 1.9190 0.9400
0.6345 1.9422 0.9424
0.5641 1.9628 0.9449
0.4931 1.9809 0.9473
0.4214 1.9964 0.9497
0.3492 2.0093 0.9521
0.2765 2.0196 0.9545
0.2036 2.0273 0.9569
0.1304 2.0323 0.9592
0.0571 2.0347 0.9616
-0.0163 2.0344 0.9639
-0.0896 2.0315 0.9661
-0.1628 2.0259 0.9684
-0.2357 2.0177 0.9706
-0.3083 2.0069 0.9728
-0.3804 1.9934 0.9749
-0.4520 1.9774 0.9770
-0.5230 1.9588 0.9790
-0.5932 1.9376 0.9810
-0.6627 1.9139 0.9829
-0.7312 1.8877 0.9848
-0.7988 1.8591 0.9866
-0.8653 1.8280 0.9884
-2.2521 4.3430 2.3960
-2.4032 4.2494 2.3960
-2.5507 4.1509 2.3960
-2.6946 4.0476 2.3960
-2.8346 3.9396 2.3960
-2.9706 3.8271 2.3960
-3.1026 3.7102 2.3960
-3.2303 3.5891 2.3960
-3.3536 3.4639 2.3960
-3.4725 3.3347 2.3960
-3.5869 3.2018 2.3960
-3.6965 3.0652 2.3960
-3.8014 2.9252 2.3960
-3.9014 2.7818 2.3960
-3.9964 2.6352 2.3960
-4.0864 2.4857 2.3960
-4.1712 2.3333 2.3960
-4.2508 2.1782 2.3960
-4.3250 2.0206 2.3960
-4.3939 1.8607 2.3960
-4.4574 1.6986 2.3960
-4.5154 1.5345 2.3960
-4.5678 1.3685 2.3960
-4.6146 1.2010 2.3960
-4.6558 1.0319 2.3960
-4.6912 0.8615 2.3960
-4.7209 0.6900 2.3960
-4.7448 0.5175 2.3960
-4.7630 0.3443 2.3960
-4.7752 0.1704 2.3960
-4.7817 -0.0038 2.3960
-4.7822 -0.1783 2.3960
-4.7769 -0.3528 2.3960
-4.7657 -0.5272 2.3960
-4.7486 -0.7013 2.3960
-4.7256 -0.8749 2.3960
-4.6967 -1.0477 2.3960
-4.6619 -1.2198 2.3960
-4.6214 -1.3907 2.3960
-4.5749 -1.5604 2.3960
-4.5227 -1.7286 2.3960
-4.4647 -1.8953 2.3960
-4.4009 -2.0601 2.3960
-4.3315 -2.2229 2.3960
-4.2565 -2.3835 2.3960
-4.1758 -2.5417 2.3960
-4.0897 -2.6974 2.3960
-3.9980 -2.8503 2.3960
-3.9010 -3.0003 2.3960
-3.7987 -3.1471 2.3960
-3.6913 -3.2906 2.3960
-3.5786 -3.4307 2.3960
-3.4610 -3.5670 2.3960
-3.3384 -3.6995 2.3960
-3.2111 -3.8279 2.3960
-3.0790 -3.9521 2.3960
-2.9424 -4.0720 2.3960
-2.8013 -4.1872 2.3960
-2.6560 -4.2977 2.3960
-2.5066 -4.4033 2.3960
-2.3531 -4.5038 2.3960
-2.1958 -4.5991 2.3960
-2.0349 -4.6890 2.3960
-1.8704 -4.7734 2.3960
-1.7027 -4.8521 2.3960
-1.5319 -4.9250 2.3960
-1.3581 -4.9919 2.3960
-1.1816 -5.0527 2.3960
-1.0026 -5.1073 2.3960
-0.8213 -5.1555 2.3960
-0.6379 -5.1973 2.3960
-0.4527 -5.2326 2.3960
-0.2659 -5.2612 2.3960
-0.0777 -5.2831 2.3960
0.1117 -5.2981 2.3960
0.3019 -5.3063 2.3960
0.4927 -5.3075 2.3960
0.6839 -5.3017 2.3960
0.8752 -5.2889 2.3960
1.0664 -5.2690 2.3960
1.2571 -5.2420 2.3960
1.4471 -5.2079 2.3960
1.6361 -5.1667 2.3960
1.8238 -5.1184 2.3960
2.0100 -5.0630 2.3960
2.1943 -5.0006 2.3960
2.3766 -4.9312 2.3960
2.5564 -4.8549 2.3960
2.7336 -4.7717 2.3960
2.9079 -4.6817 2.3960
3.0788 -4.5851 2.3960
3.2464 -4.4819 2.3960
3.4101 -4.3723 2.3960
3.5698 -4.2563 2.3960
3.7252 -4.1342 2.3960
3.8760 -4.0061 2.3960
4.0220 -3.8722 2.3960
4.1629 -3.7326 2.3960
4.2986 -3.5876 2.3960
4.4287 -3.4373 2.3960
4.5169 -3.2559 2.3770
4.6004 -3.0743 2.3595
4.6824 -2.8945 2.3452
4.7632 -2.7161 2.3339
4.8429 -2.5385 2.3257
4.9219 -2.3616 2.3205
5.0006 -2.1849 2.3185
5.0789 -2.0080 2.3194
5.1570 -1.8305 2.3233
5.2430 -1.6544 2.3337
5.3297 -1.4764 2.3474
5.4339 -1.2999 2.3716
5.5320 -1.1179 2.3960
5.5666 -0.9210 2.3960
5.5936 -0.7230 2.3960
5.6129 -0.5241 2.3960
5.6245 -0.3247 2.3960
5.6285 -0.1252 2.3960
5.6247 0.0743 2.3960
5.6133 0.2733 2.3960
5.5942 0.4715 2.3960
5.5676 0.6688 2.3960
5.5334 0.8647 2.3960
5.4918 1.0589 2.3960
5.4429 1.2512 2.3960
5.3867 1.4412 2.3960
5.3234 1.6288 2.3960
5.2531 1.8135 2.3960
5.1759 1.9952 2.3960
5.0919 2.1735 2.3960
5.0015 2.3483 2.3960
4.9046 2.5193 2.3960
4.8016 2.6861 2.3960
4.6925 2.8488 2.3960
4.5775 3.0069 2.3960
4.4570 3.1603 2.3960
4.3311 3.3087 2.3960
4.1999 3.4521 2.3960
4.0638 3.5903 2.3960
3.9229 3.7230 2.3960
3.7775 3.8501 2.3960
3.6278 3.9715 2.3960
3.4742 4.0870 2.3960
3.3167 4.1965 2.3960
3.1557 4.2999 2.3960
2.9913 4.3972 2.3960
2.8239 4.4881 2.3960
2.6538 4.5727 2.3960
2.4811 4.6509 2.3960
0.8980 1.8390 0.9330
0.8312 1.8692 0.9355
0.7634 1.8970 0.9379
0.6946 1.9223 0.9403
0.6249 1.9451 0.9428
0.5544 1.9654 0.9452
0.4833 1.9832 0.9476
0.4115 1.9983 0.9500
0.3392 2.0109 0.9524
0.2666 2.0208 0.9548
0.1936 2.0281 0.9572
0.1204 2.0328 0.9596
0.0470 2.0348 0.9619
-0.0263 2.0341 0.9642
-0.0996 2.0309 0.9664
-0.1728 2.0249 0.9687
-0.2456 2.0164 0.9709
-0.3182 2.0052 0.9730
-0.3902 1.9914 0.9752
-0.4618 1.9750 0.9772
-0.5327 1.9560 0.9793
-0.6028 1.9345 0.9812
-0.6721 1.9105 0.9832
-0.7406 1.8839 0.9850
-0.8080 1.8550 0.9868
-0.8743 1.8236 0.9886
-2.2730 4.3305 2.3960
-2.4236 4.2362 2.3960
-2.5707 4.1370 2.3960
-2.7140 4.0331 2.3960
-2.8534 3.9245 2.3960
-2.9889 3.8114 2.3960
-3.1203 3.6939 2.3960
-3.2474 3.5722 2.3960
-3.3702 3.4464 2.3960
-3.4885 3.3168 2.3960
-3.6022 3.1833 2.3960
-3.7112 3.0462 2.3960
-3.8154 2.9057 2.3960
-3.9147 2.7619 2.3960
-4.0090 2.6149 2.3960
-4.0983 2.4649 2.3960
-4.1824 2.3122 2.3960
-4.2612 2.1567 2.3960
-4.3348 1.9988 2.3960
-4.4030 1.8386 2.3960
-4.4657 1.6762 2.3960
-4.5229 1.5118 2.3960
-4.5745 1.3457 2.3960
-4.6206 1.1779 2.3960
-4.6610 1.0086 2.3960
-4.6956 0.8381 2.3960
-4.7245 0.6664 2.3960
-4.7477 0.4938 2.3960
-4.7650 0.3205 2.3960
-4.7765 0.1466 2.3960
-4.7821 -0.0277 2.3960
-4.7819 -0.2022 2.3960
-4.7757 -0.3767 2.3960
-4.7637 -0.5511 2.3960
-4.7458 -0.7251 2.3960
-4.7220 -0.8986 2.3960
-4.6923 -1.0714 2.3960
-4.6567 -1.2432 2.3960
-4.6154 -1.4140 2.3960
-4.5681 -1.5835 2.3960
-4.5151 -1.7516 2.3960
-4.4563 -1.9180 2.3960
-4.3918 -2.0825 2.3960
-2.7944 -3.8338 2.3960
-2.6613 -3.9428 2.3960
-2.5242 -4.0473 2.3960
-2.3832 -4.1472 2.3960
-2.2385 -4.2423 2.3960
-2.0901 -4.3324 2.3960
-1.9383 -4.4174 2.3960
-1.7832 -4.4972 2.3960
-1.6251 -4.5716 2.3960
-1.4640 -4.6405 2.3960
-1.3001 -4.7038 2.3960
-1.1337 -4.7613 2.3960
-0.9650 -4.8130 2.3960
-0.7941 -4.8586 2.3960
-0.6213 -4.8982 2.3960
-0.4467 -4.9316 2.3960
-0.2707 -4.9588 2.3960
-0.0934 -4.9795 2.3960
0.0850 -4.9939 2.3960
0.2642 -5.0018 2.3960
0.4440 -5.0032 2.3960
0.6240 -4.9979 2.3960
0.8042 -4.9861 2.3960
0.9842 -4.9676 2.3960
1.1637 -4.9424 2.3960
1.3426 -4.9106 2.3960
1.5206 -4.8720 2.3960
1.6974 -4.8269 2.3960
1.8726 -4.7750 2.3960
2.0462 -4.7166 2.3960
2.2178 -4.6516 2.3960
2.3871 -4.5802 2.3960
2.5539 -4.5023 2.3960
2.7180 -4.4180 2.3960
2.8790 -4.3275 2.3960
3.0367 -4.2308 2.3960
3.1909 -4.1281 2.3960
3.3414 -4.0195 2.3960
3.4878 -3.9051 2.3960
3.6299 -3.7851 2.3960
3.7675 -3.6596 2.3960
3.9004 -3.5288 2.3960
4.0284 -3.3929 2.3960
4.1512 -3.2521 2.3960
4.2686 -3.1065 2.3960
4.3805 -2.9565 2.3960
4.4866 -2.8022 2.3960
4.5869 -2.6438 2.3960
4.6810 -2.4815 2.3960
4.7688 -2.3157 2.3960
4.8503 -2.1466 2.3960
4.9252 -1.9744 2.3960
4.9935 -1.7994 2.3960
5.0550 -1.6219 2.3960
5.1096 -1.4421 2.3960
5.1573 -1.2604 2.3960
5.1980 -1.0769 2.3960
5.2315 -0.8921 2.3960
5.2580 -0.7062 2.3960
5.2772 -0.5194 2.3960
5.2893 -0.3321 2.3960
5.2942 -0.1446 2.3960
5.2918 0.0429 2.3960
5.2823 0.2300 2.3960
5.2657 0.4165 2.3960
5.2419 0.6021 2.3960
5.2111 0.7865 2.3960
5.1733 0.9694 2.3960
5.1286 1.1505 2.3960
5.0771 1.3296 2.3960
5.0189 1.5064 2.3960
4.9540 1.6806 2.3960
4.8828 1.8521 2.3960
4.8052 2.0205 2.3960
4.7214 2.1855 2.3960
4.6315 2.3471 2.3960
4.5358 2.5049 2.3960
4.4344 2.6588 2.3960
4.3275 2.8085 2.3960
4.2153 2.9538 2.3960
4.0979 3.0946 2.3960
3.9756 3.2307 2.3960
3.8485 3.3618 2.3960
3.7170 3.4879 2.3960
3.5811 3.6088 2.3960
3.4411 3.7244 2.3960
3.2973 3.8345 2.3960
3.1498 3.9390 2.3960
2.9989 4.0378 2.3960
2.8449 4.1308 2.3960
2.6879 4.2179 2.3960
2.5282 4.2991 2.3960
0.9192 1.6995 0.9309
0.8574 1.7305 0.9332
0.7946 1.7593 0.9354
0.7307 1.7858 0.9377
0.6659 1.8100 0.9400
0.6002 1.8319 0.9423
0.5338 1.8513 0.9446
0.4668 1.8684 0.9469
0.3992 1.8830 0.9492
0.3311 1.8951 0.9515
0.2625 1.9049 0.9537
0.1937 1.9121 0.9560
0.1247 1.9168 0.9582
0.0555 1.9191 0.9604
-0.0137 1.9188 0.9626
-0.0829 1.9160 0.9647
-0.1519 1.9108 0.9668
-0.2207 1.9030 0.9689
-0.2892 1.8928 0.9709
-0.3572 1.8801 0.9729
-0.4248 1.8650 0.9749
-0.4917 1.8474 0.9768
-0.5580 1.8275 0.9787
-0.6235 1.8051 0.9805
-0.6882 1.7804 0.9823
-0.7520 1.7534 0.9840
-0.8147 1.7241 0.9857
-0.8763 1.6926 0.9873
-2.2698 4.0196 2.3960
-2.4096 3.9267 2.3960
-2.5460 3.8293 2.3960
-2.6787 3.7274 2.3960
-2.8076 3.6212 2.3960
-2.9327 3.5108 2.3960
-3.0538 3.3964 2.3960
-3.1708 3.2781 2.3960
-3.2836 3.1560 2.3960
-3.3921 3.0303 2.3960
-3.4961 2.9012 2.3960
-3.5955 2.7687 2.3960
-3.6904 2.6330 2.3960
-3.7805 2.4944 2.3960
-3.8658 2.3528 2.3960
-3.9463 2.2086 2.3960
-4.0217 2.0618 2.3960
-4.0922 1.9126 2.3960
-4.1575 1.7612 2.3960
-4.2177 1.6077 2.3960
-4.2727 1.4523 2.3960
-4.3223 1.2951 2.3960
-4.3667 1.1364 2.3960
-4.4056 0.9762 2.3960
-4.4392 0.8149 2.3960
-4.4672 0.6524 2.3960
-4.4898 0.4891 2.3960
-4.5069 0.3250 2.3960
-4.5184 0.1603 2.3960
-4.5243 -0.0047 2.3960
-4.5247 -0.1699 2.3960
-4.5195 -0.3352 2.3960
-4.5087 -0.5003 2.3960
-4.4923 -0.6651 2.3960
-4.4703 -0.8294 2.3960
-4.4427 -0.9930 2.3960
-4.4095 -1.1558 2.3960
-4.3708 -1.3176 2.3960
-4.3265 -1.4781 2.3960
-4.2768 -1.6372 2.3960
-4.2215 -1.7948 2.3960
-4.1609 -1.9507 2.3960
-4.0948 -2.1046 2.3960
-4.0234 -2.2564 2.3960
-3.9468 -2.4059 2.3960
-3.8649 -2.5529 2.3960
-3.7778 -2.6973 2.3960
-3.6857 -2.8389 2.3960
-3.5886 -2.9774 2.3960
-3.4865 -3.1128 2.3960
-3.3796 -3.2449 2.3960
-3.2680 -3.3734 2.3960
-3.1518 -3.4983 2.3960
-3.0310 -3.6193 2.3960
-2.9058 -3.7362 2.3960
-2.7764 -3.8490 2.3960
-2.6428 -3.9574 2.3960
-2.5051 -4.0613 2.3960
-2.3636 -4.1605 2.3960
-2.2183 -4.2549 2.3960
-2.0695 -4.3443 2.3960
-1.9173 -4.4287 2.3960
-1.7617 -4.5077 2.3960
-1.6032 -4.5814 2.3960
-1.4417 -4.6495 2.3960
-1.2775 -4.7120 2.3960
-1.1107 -4.7687 2.3960
-0.9417 -4.8196 2.3960
-0.7705 -4.8644 2.3960
-0.5975 -4.9031 2.3960
-0.4227 -4.9357 2.3960
-0.2465 -4.9620 2.3960
-0.0690 -4.9819 2.3960
0.1095 -4.9954 2.3960
0.2888 -5.0024 2.3960
0.4686 -5.0028 2.3960
0.6487 -4.9967 2.3960
0.8289 -4.9839 2.3960
1.0088 -4.9645 2.3960
1.1883 -4.9385 2.3960
1.3671 -4.9057 2.3960
1.5449 -4.8662 2.3960
1.7215 -4.8201 2.3960
1.8965 -4.7674 2.3960
2.0698 -4.7081 2.3960
2.2411 -4.6422 2.3960
2.4101 -4.5699 2.3960
2.5766 -4.4911 2.3960
2.7402 -4.4060 2.3960
2.9008 -4.3146 2.3960
3.0581 -4.2171 2.3960
3.2118 -4.1136 2.3960
3.3617 -4.0042 2.3960
3.5075 -3.8890 2.3960
3.6490 -3.7682 2.3960
3.7860 -3.6420 2.3960
3.9183 -3.5105 2.3960
4.0455 -3.3739 2.3960
4.1676 -3.2324 2.3960
4.2843 -3.0862 2.3960
4.3954 -2.9356 2.3960
4.5007 -2.7807 2.3960
4.6001 -2.6217 2.3960
4.6934 -2.4590 2.3960
4.7804 -2.2928 2.3960
4.8609 -2.1232 2.3960
4.9350 -1.9506 2.3960
5.0023 -1.7752 2.3960
5.0629 -1.5974 2.3960
5.1166 -1.4173 2.3960
5.1633 -1.2353 2.3960
5.2030 -1.0517 2.3960
5.2356 -0.8667 2.3960
5.2610 -0.6806 2.3960
5.2793 -0.4938 2.3960
5.2904 -0.3064 2.3960
5.2943 -0.1189 2.3960
5.2910 0.0686 2.3960
5.2805 0.2556 2.3960
5.2628 0.4420 2.3960
5.2381 0.6275 2.3960
5.2063 0.8116 2.3960
5.1676 0.9943 2.3960
5.1219 1.1752 2.3960
5.0695 1.3540 2.3960
5.0104 1.5304 2.3960
4.9447 1.7043 2.3960
4.8725 1.8753 2.3960
4.7941 2.0433 2.3960
4.7094 2.2079 2.3960
4.6188 2.3690 2.3960
4.5223 2.5263 2.3960
4.4201 2.6796 2.3960
4.3125 2.8287 2.3960
4.1995 2.9734 2.3960
4.0814 3.1135 2.3960
3.9585 3.2489 2.3960
3.8308 3.3794 2.3960
3.6986 3.5048 2.3960
3.5621 3.6250 2.3960
3.4216 3.7398 2.3960
3.2773 3.8491 2.3960
3.1293 3.9529 2.3960
2.9780 4.0509 2.3960
2.8235 4.1431 2.3960
2.6662 4.2294 2.3960
2.5061 4.3098 2.3960
0.9108 1.7039 0.9312
0.8489 1.7346 0.9335
0.7859 1.7631 0.9358
0.7219 1.7893 0.9380
0.6569 1.8131 0.9403
0.5912 1.8347 0.9426
0.5247 1.8538 0.9449
0.4576 1.8705 0.9472
0.3899 1.8848 0.9495
0.3217 1.8966 0.9518
0.2531 1.9060 0.9540
0.1843 1.9129 0.9563
0.1152 1.9173 0.9585
0.0460 1.9192 0.9607
-0.0232 1.9186 0.9628
-0.0924 1.9155 0.9650
-0.1613 1.9099 0.9671
-0.2301 1.9018 0.9692
-0.2985 1.8912 0.9712
-0.3665 1.8782 0.9732
-0.4340 1.8627 0.9752
-0.5009 1.8449 0.9771
-0.5670 1.8246 0.9789
-0.6325 1.8019 0.9808
-0.6970 1.7769 0.9825
-0.7606 1.7495 0.9842
-0.8232 1.7199 0.9859
-0.8846 1.6881 0.9875
-2.2892 4.0071 2.3960
-2.4285 3.9136 2.3960
-2.5643 3.8156 2.3960
-2.6966 3.7131 2.3960
-2.8250 3.6063 2.3960
-2.9496 3.4954 2.3960
-3.0701 3.3804 2.3960
-3.1865 3.2616 2.3960
-3.2987 3.1390 2.3960
-3.4066 3.0128 2.3960
-3.5100 2.8832 2.3960
-3.6088 2.7503 2.3960
-3.7030 2.6142 2.3960
-3.7925 2.4751 2.3960
-3.8771 2.3332 2.3960
-3.9569 2.1886 2.3960
-4.0317 2.0415 2.3960
-4.1014 1.8920 2.3960
-4.1661 1.7402 2.3960
-4.2255 1.5865 2.3960
-4.2798 1.4308 2.3960
-4.3287 1.2734 2.3960
-4.3723 1.1145 2.3960
-4.4105 0.9542 2.3960
-4.4433 0.7927 2.3960
-4.4706 0.6301 2.3960
-4.4925 0.4666 2.3960
-4.5088 0.3025 2.3960
-4.5195 0.1378 2.3960
-4.5247 -0.0273 2.3960
-4.5243 -0.1925 2.3960
-4.5183 -0.3578 2.3960
-4.5068 -0.5229 2.3960
-4.4896 -0.6876 2.3960
-4.4668 -0.8519 2.3960
-4.4384 -1.0154 2.3960
-4.4045 -1.1780 2.3960
-4.3650 -1.3396 2.3960
-4.3200 -1.5000 2.3960
-4.2695 -1.6589 2.3960
-4.2135 -1.8163 2.3960
-4.1521 -1.9719 2.3960
-2.6416 -3.6307 2.3960
-2.5153 -3.7335 2.3960
-2.3853 -3.8320 2.3960
-2.2515 -3.9261 2.3960
-2.1143 -4.0156 2.3960
-1.9736 -4.1004 2.3960
-1.8298 -4.1803 2.3960
-1.6829 -4.2553 2.3960
-1.5330 -4.3251 2.3960
-1.3805 -4.3897 2.3960
-1.2253 -4.4490 2.3960
-1.0679 -4.5028 2.3960
-0.9082 -4.5511 2.3960
-0.7465 -4.5936 2.3960
-0.5831 -4.6305 2.3960
-0.4181 -4.6614 2.3960
-0.2517 -4.6865 2.3960
-0.0841 -4.7055 2.3960
0.0844 -4.7185 2.3960
0.2537 -4.7254 2.3960
0.4234 -4.7260 2.3960
0.5934 -4.7205 2.3960
0.7634 -4.7087 2.3960
0.9333 -4.6907 2.3960
1.1027 -4.6664 2.3960
1.2714 -4.6358 2.3960
1.4392 -4.5989 2.3960
1.6058 -4.5557 2.3960
1.7710 -4.5063 2.3960
1.9345 -4.4507 2.3960
2.0962 -4.3889 2.3960
2.2557 -4.3210 2.3960
2.4128 -4.2471 2.3960
2.5672 -4.1673 2.3960
2.7188 -4.0815 2.3960
2.8673 -3.9900 2.3960
3.0124 -3.8928 2.3960
3.1540 -3.7901 2.3960
3.2917 -3.6820 2.3960
3.4254 -3.5686 2.3960
3.5549 -3.4501 2.3960
3.6799 -3.3266 2.3960
3.8002 -3.1983 2.3960
3.9157 -3.0654 2.3960
4.0262 -2.9281 2.3960
4.1314 -2.7866 2.3960
4.2312 -2.6411 2.3960
4.3254 -2.4918 2.3960
4.4139 -2.3389 2.3960
4.4966 -2.1826 2.3960
4.5732 -2.0232 2.3960
4.6437 -1.8610 2.3960
4.7079 -1.6961 2.3960
4.7658 -1.5289 2.3960
4.8173 -1.3596 2.3960
4.8622 -1.1884 2.3960
4.9005 -1.0156 2.3960
4.9322 -0.8415 2.3960
4.9572 -0.6664 2.3960
4.9754 -0.4904 2.3960
4.9869 -0.3140 2.3960
4.9917 -0.1374 2.3960
4.9897 0.0392 2.3960
4.9809 0.2156 2.3960
4.9655 0.3913 2.3960
4.9433 0.5661 2.3960
4.9145 0.7399 2.3960
4.8792 0.9123 2.3960
4.8374 1.0830 2.3960
4.7892 1.2519 2.3960
4.7347 1.4187 2.3960
4.6740 1.5830 2.3960
4.6072 1.7448 2.3960
4.5344 1.9037 2.3960
4.4558 2.0595 2.3960
4.3715 2.2120 2.3960
4.2817 2.3611 2.3960
4.1865 2.5064 2.3960
4.0860 2.6479 2.3960
3.9806 2.7853 2.3960
3.8703 2.9184 2.3960
3.7553 3.0471 2.3960
3.6358 3.1712 2.3960
3.5121 3.2906 2.3960
3.3842 3.4051 2.3960
3.2525 3.5146 2.3960
3.1171 3.6190 2.3960
2.9782 3.7181 2.3960
2.8361 3.8119 2.3960
2.6909 3.9002 2.3960
2.5430 3.9830 2.3960
0.9279 1.5747 0.9293
0.8706 1.6062 0.9314
0.8122 1.6355 0.9336
0.7527 1.6627 0.9357
0.6923 1.6878 0.9379
0.6311 1.7106 0.9401
0.5690 1.7313 0.9422
0.5063 1.7497 0.9444
0.4429 1.7658 0.9466
0.3789 1.7796 0.9487
0.3145 1.7911 0.9509
0.2498 1.8002 0.9530
0.1847 1.8071 0.9551
0.1194 1.8115 0.9572
0.0541 1.8137 0.9593
-0.0114 1.8134 0.9614
-0.0768 1.8108 0.9634
-0.1420 1.8058 0.9654
-0.2070 1.7985 0.9674
-0.2717 1.7889 0.9693
-0.3361 1.7769 0.9712
-0.3999 1.7626 0.9730
-0.4632 1.7460 0.9748
-0.5259 1.7271 0.9766
-0.5878 1.7060 0.9783
-0.6490 1.6826 0.9800
-0.7092 1.6571 0.9816
-0.7685 1.6294 0.9832
-0.8268 1.5996 0.9847
-0.8839 1.5677 0.9862
-2.2802 3.7211 2.3960
-2.4096 3.6290 2.3960
-2.5357 3.5327 2.3960
-2.6581 3.4323 2.3960
-2.7769 3.3279 2.3960
-2.8919 3.2196 2.3960
-3.0031 3.1076 2.3960
-3.1102 2.9920 2.3960
-3.2132 2.8729 2.3960
-3.3120 2.7506 2.3960
-3.4065 2.6250 2.3960
-3.4966 2.4965 2.3960
-3.5822 2.3650 2.3960
-3.6633 2.2308 2.3960
-3.7397 2.0941 2.3960
-3.8114 1.9549 2.3960
-3.8783 1.8134 2.3960
-3.9404 1.6697 2.3960
-3.9975 1.5241 2.3960
-4.0497 1.3767 2.3960
-4.0968 1.2276 2.3960
-4.1389 1.0770 2.3960
-4.1758 0.9251 2.3960
-4.2076 0.7720 2.3960
-4.2342 0.6179 2.3960
-4.2555 0.4629 2.3960
-4.2717 0.3072 2.3960
-4.2825 0.1511 2.3960
-4.2880 -0.0055 2.3960
-4.2882 -0.1622 2.3960
-4.2831 -0.3190 2.3960
-4.2727 -0.4756 2.3960
-4.2569 -0.6319 2.3960
-4.2358 -0.7877 2.3960
-4.2095 -0.9428 2.3960
-4.1778 -1.0971 2.3960
-4.1408 -1.2504 2.3960
-4.0986 -1.4026 2.3960
-4.0511 -1.5534 2.3960
-3.9985 -1.7027 2.3960
-3.9407 -1.8503 2.3960
-3.8778 -1.9960 2.3960
-3.8098 -2.1398 2.3960
-3.7368 -2.2813 2.3960
-3.6589 -2.4204 2.3960
-3.5760 -2.5571 2.3960
-3.4884 -2.6910 2.3960
-3.3961 -2.8220 2.3960
-3.2990 -2.9500 2.3960
-3.1975 -3.0748 2.3960
-3.0914 -3.1962 2.3960
-2.9810 -3.3141 2.3960
-2.8663 -3.4283 2.3960
-2.7474 -3.5387 2.3960
-2.6245 -3.6451 2.3960
-2.4977 -3.7473 2.3960
-2.3672 -3.8452 2.3960
-2.2329 -3.9386 2.3960
-2.0952 -4.0275 2.3960
-1.9541 -4.1116 2.3960
-1.8098 -4.1909 2.3960
-1.6625 -4.2651 2.3960
-1.5123 -4.3343 2.3960
-1.3594 -4.3982 2.3960
-1.2039 -4.4567 2.3960
-1.0461 -4.5098 2.3960
-0.8862 -4.5572 2.3960
-0.7242 -4.5990 2.3960
-0.5606 -4.6350 2.3960
-0.3954 -4.6652 2.3960
-0.2288 -4.6894 2.3960
-0.0611 -4.7077 2.3960
0.1076 -4.7198 2.3960
0.2769 -4.7258 2.3960
0.4467 -4.7257 2.3960
0.6167 -4.7193 2.3960
0.7867 -4.7066 2.3960
0.9565 -4.6877 2.3960
1.1258 -4.6625 2.3960
1.2944 -4.6311 2.3960
1.4621 -4.5933 2.3960
1.6285 -4.5493 2.3960
1.7935 -4.4990 2.3960
1.9568 -4.4426 2.3960
2.1182 -4.3800 2.3960
2.2773 -4.3113 2.3960
2.4341 -4.2365 2.3960
2.5882 -4.1559 2.3960
2.7394 -4.0693 2.3960
2.8874 -3.9770 2.3960
3.0320 -3.8791 2.3960
3.1731 -3.7756 2.3960
3.3103 -3.6668 2.3960
3.4434 -3.5526 2.3960
3.5723 -3.4334 2.3960
3.6967 -3.3093 2.3960
3.8164 -3.1804 2.3960
3.9312 -3.0469 2.3960
4.0409 -2.9090 2.3960
4.1454 -2.7669 2.3960
4.2444 -2.6209 2.3960
4.3379 -2.4710 2.3960
4.4256 -2.3176 2.3960
4.5074 -2.1609 2.3960
4.5832 -2.0012 2.3960
4.6529 -1.8386 2.3960
4.7162 -1.6734 2.3960
4.7733 -1.5058 2.3960
4.8238 -1.3362 2.3960
4.8678 -1.1648 2.3960
4.9052 -0.9918 2.3960
4.9360 -0.8176 2.3960
4.9601 -0.6423 2.3960
4.9774 -0.4663 2.3960
4.9880 -0.2898 2.3960
4.9918 -0.1132 2.3960
4.9889 0.0634 2.3960
4.9792 0.2397 2.3960
4.9628 0.4153 2.3960
4.9398 0.5900 2.3960
4.9101 0.7636 2.3960
4.8739 0.9358 2.3960
4.8312 1.1063 2.3960
4.7821 1.2749 2.3960
4.7267 1.4413 2.3960
4.6652 1.6053 2.3960
4.5975 1.7667 2.3960
4.5240 1.9252 2.3960
4.4446 2.0806 2.3960
4.3595 2.2327 2.3960
4.2689 2.3812 2.3960
4.1730 2.5260 2.3960
4.0719 2.6669 2.3960
3.9658 2.8038 2.3960
3.8548 2.9363 2.3960
3.7392 3.0644 2.3960
3.6191 3.1878 2.3960
3.4948 3.3066 2.3960
3.3664 3.4204 2.3960
3.2341 3.5292 2.3960
3.0983 3.6329 2.3960
2.9589 3.7313 2.3960
2.8164 3.8243 2.3960
2.6708 3.9119 2.3960
2.5225 3.9939 2.3960
0.9201 1.5792 0.9296
0.8627 1.6103 0.9317
0.8041 1.6394 0.9339
0.7445 1.6663 0.9360
0.6840 1.6910 0.9382
0.6226 1.7136 0.9404
0.5605 1.7339 0.9425
0.4976 1.7520 0.9447
0.4341 1.7678 0.9469
0.3701 1.7813 0.9490
0.3057 1.7925 0.9512
0.2409 1.8013 0.9533
0.1758 1.8078 0.9554
0.1105 1.8120 0.9575
0.0451 1.8138 0.9596
-0.0203 1.8132 0.9616
-0.0857 1.8103 0.9637
-0.1509 1.8050 0.9657
-0.2159 1.7973 0.9676
-0.2806 1.7873 0.9695
-0.3449 1.7750 0.9714
-0.4086 1.7604 0.9733
-0.4719 1.7435 0.9751
-0.5344 1.7243 0.9769
-0.5963 1.7029 0.9786
-0.6573 1.6792 0.9802
-0.7174 1.6534 0.9819
-0.7766 1.6254 0.9834
-0.8347 1.5953 0.9849
-2.1659 3.7971 2.3960
-2.2982 3.7087 2.3960
-2.4271 3.6161 2.3960
-2.5526 3.5192 2.3960
-2.6746 3.4182 2.3960
-2.7929 3.3132 2.3960
-2.9074 3.2044 2.3960
-3.0180 3.0920 2.3960
-3.1245 2.9759 2.3960
-3.2270 2.8564 2.3960
-3.3252 2.7336 2.3960
-3.4191 2.6076 2.3960
-3.5086 2.4786 2.3960
-3.5936 2.3468 2.3960
-3.6740 2.2123 2.3960
-3.7498 2.0751 2.3960
-3.8209 1.9356 2.3960
-3.8871 1.7938 2.3960
-3.9485 1.6499 2.3960
-4.0050 1.5040 2.3960
-4.0564 1.3564 2.3960
-4.1029 1.2071 2.3960
-4.1442 1.0563 2.3960
-4.1805 0.9042 2.3960
-4.2116 0.7510 2.3960
-4.2374 0.5967 2.3960
-4.2581 0.4416 2.3960
-4.2734 0.2859 2.3960
-4.2835 0.1296 2.3960
-4.2883 -0.0269 2.3960
-4.2878 -0.1837 2.3960
-4.2820 -0.3404 2.3960
-4.2708 -0.4970 2.3960
-4.2544 -0.6532 2.3960
-4.2325 -0.8090 2.3960
-4.2054 -0.9640 2.3960
-4.1730 -1.1182 2.3960
-4.1353 -1.2714 2.3960
-4.0924 -1.4233 2.3960
-4.0442 -1.5740 2.3960
-3.9909 -1.7230 2.3960
-3.9324 -1.8704 2.3960
-2.5012 -3.4441 2.3960
-2.3812 -3.5412 2.3960
-2.2577 -3.6342 2.3960
-2.1306 -3.7230 2.3960
-2.0003 -3.8074 2.3960
-1.8667 -3.8874 2.3960
