ply
format ascii 1.0
element vertex 2181
property float32 x
property float32 y
property float32 z
end_header
6.7212 3.5136 2.3819
6.5660 3.7317 2.3819
6.4023 3.9423 2.3819
6.2304 4.1453 2.3819
6.0510 4.3402 2.3819
5.8643 4.5269 2.3819
5.6709 4.7050 2.3819
5.4711 4.8743 2.3819
5.2656 5.0347 2.3819
5.0548 5.1860 2.3819
4.8391 5.3280 2.3819
4.6190 5.4607 2.3819
4.3949 5.5840 2.3819
4.1675 5.6978 2.3819
3.9370 5.8021 2.3819
3.7039 5.8969 2.3819
3.4687 5.9821 2.3819
3.2319 6.0580 2.3819
2.9937 6.1244 2.3819
2.7548 6.1815 2.3819
0.9327 2.3100 0.8833
0.8496 2.3400 0.8892
0.7654 2.3669 0.8952
0.6802 2.3907 0.9013
0.5943 2.4115 0.9074
0.5077 2.4292 0.9135
0.4204 2.4437 0.9197
0.3327 2.4550 0.9259
0.2447 2.4632 0.9321
0.1564 2.4681 0.9383
0.0680 2.4699 0.9446
-0.0205 2.4685 0.9508
-0.1088 2.4638 0.9570
-0.1969 2.4560 0.9632
-0.2847 2.4450 0.9693
-0.3720 2.4308 0.9755
-0.4587 2.4135 0.9815
-0.5448 2.3931 0.9875
-0.6301 2.3695 0.9935
-0.7145 2.3429 0.9994
-0.7978 2.3132 1.0052
-2.0737 5.3738 2.3819
-2.2520 5.2606 2.3819
-2.4255 5.1425 2.3819
-2.5941 5.0195 2.3819
-2.7577 4.8919 2.3819
-2.9161 4.7598 2.3819
-3.0694 4.6236 2.3819
-3.2175 4.4832 2.3819
-3.3602 4.3390 2.3819
-3.4976 4.1912 2.3819
-3.6296 4.0398 2.3819
-3.7562 3.8851 2.3819
-3.8772 3.7272 2.3819
-3.9928 3.5664 2.3819
-4.1028 3.4027 2.3819
-4.2072 3.2366 2.3819
-4.3061 3.0676 2.3819
-4.3993 2.8964 2.3819
-4.4868 2.7230 2.3819
-4.5687 2.5476 2.3819
-4.6449 2.3704 2.3819
-4.7154 2.1913 2.3819
-4.7803 2.0107 2.3819
-4.8394 1.8286 2.3819
-4.8928 1.6453 2.3819
-4.9404 1.4607 2.3819
-4.9824 1.2751 2.3819
-5.0185 1.0886 2.3819
-5.0490 0.9013 2.3819
-5.0737 0.7134 2.3819
-5.0926 0.5250 2.3819
-5.1058 0.3363 2.3819
-5.1133 0.1472 2.3819
-5.1150 -0.0419 2.3819
-5.1109 -0.2310 2.3819
-5.1011 -0.4199 2.3819
-5.0855 -0.6086 2.3819
-5.0642 -0.7968 2.3819
-5.0371 -0.9846 2.3819
-5.0043 -1.1715 2.3819
-4.9657 -1.3576 2.3819
-4.9214 -1.5429 2.3819
-4.8713 -1.7271 2.3819
-4.8155 -1.9100 2.3819
-4.7540 -2.0916 2.3819
-4.6868 -2.2716 2.3819
-4.6139 -2.4500 2.3819
-4.5353 -2.6266 2.3819
-4.4510 -2.8013 2.3819
-4.3610 -2.9739 2.3819
-4.2654 -3.1442 2.3819
-4.1642 -3.3121 2.3819
-4.0574 -3.4775 2.3819
-3.9450 -3.6401 2.3819
-3.8270 -3.7998 2.3819
-3.7035 -3.9565 2.3819
-3.5746 -4.1100 2.3819
-3.4402 -4.2600 2.3819
-3.3004 -4.4065 2.3819
-3.1553 -4.5492 2.3819
-3.0049 -4.6879 2.3819
-2.8493 -4.8225 2.3819
-2.6886 -4.9528 2.3819
-2.5227 -5.0786 2.3819
-2.3519 -5.1997 2.3819
-2.1762 -5.3159 2.3819
-1.9956 -5.4269 2.3819
-1.8104 -5.5327 2.3819
-1.6205 -5.6329 2.3819
-1.4262 -5.7274 2.3819
-1.2276 -5.8160 2.3819
-1.0248 -5.8984 2.3819
-0.8180 -5.9745 2.3819
-0.6073 -6.0440 2.3819
-0.3930 -6.1067 2.3819
-0.1751 -6.1624 2.3819
0.0460 -6.2110 2.3819
0.2702 -6.2522 2.3819
0.4972 -6.2857 2.3819
0.7268 -6.3115 2.3819
0.9588 -6.3293 2.3819
1.1927 -6.3390 2.3819
1.4285 -6.3403 2.3819
1.6657 -6.3331 2.3819
1.9041 -6.3172 2.3819
2.1433 -6.2925 2.3819
2.3830 -6.2588 2.3819
2.6227 -6.2160 2.3819
2.8622 -6.1641 2.3819
3.1011 -6.1028 2.3819
3.3389 -6.0321 2.3819
3.5752 -5.9520 2.3819
3.8097 -5.8624 2.3819
4.0418 -5.7633 2.3819
4.2712 -5.6546 2.3819
4.4973 -5.5365 2.3819
4.7198 -5.4089 2.3819
4.9381 -5.2718 2.3819
5.1518 -5.1255 2.3819
5.3604 -4.9700 2.3819
5.5634 -4.8054 2.3819
5.7604 -4.6320 2.3819
5.9509 -4.4499 2.3819
6.1344 -4.2593 2.3819
6.3105 -4.0606 2.3819
6.4788 -3.8540 2.3819
6.6387 -3.6398 2.3819
6.7899 -3.4183 2.3819
6.9319 -3.1900 2.3819
7.0644 -2.9552 2.3819
7.1871 -2.7144 2.3819
7.2995 -2.4680 2.3819
7.4013 -2.2165 2.3819
7.4923 -1.9603 2.3819
7.5722 -1.7000 2.3819
7.6407 -1.4361 2.3819
7.6977 -1.1692 2.3819
7.7430 -0.8998 2.3819
7.7764 -0.6284 2.3819
7.7979 -0.3558 2.3819
7.8074 -0.0824 2.3819
7.8048 0.1912 2.3819
7.7902 0.4644 2.3819
7.7636 0.7365 2.3819
7.7251 1.0071 2.3819
7.6748 1.2755 2.3819
7.6129 1.5411 2.3819
7.5395 1.8035 2.3819
7.4548 2.0621 2.3819
7.3592 2.3163 2.3819
7.2529 2.5656 2.3819
7.1361 2.8097 2.3819
7.0093 3.0479 2.3819
6.8727 3.2799 2.3819
6.7268 3.5053 2.3819
6.5719 3.7237 2.3819
6.4085 3.9346 2.3819
6.2370 4.1379 2.3819
6.0578 4.3331 2.3819
5.8714 4.5201 2.3819
5.6782 4.6985 2.3819
5.4787 4.8681 2.3819
5.2734 5.0288 2.3819
5.0628 5.1805 2.3819
4.8472 5.3228 2.3819
4.6273 5.4559 2.3819
4.4034 5.5795 2.3819
4.1760 5.6937 2.3819
3.9456 5.7983 2.3819
3.7127 5.8935 2.3819
3.4776 5.9791 2.3819
3.2408 6.0553 2.3819
3.0027 6.1221 2.3819
2.7637 6.1795 2.3819
0.9358 2.3088 0.8831
0.8527 2.3389 0.8890
0.7685 2.3659 0.8950
0.6834 2.3899 0.9010
0.5975 2.4108 0.9071
0.5109 2.4285 0.9133
0.4237 2.4432 0.9195
0.3360 2.4546 0.9257
0.2480 2.4629 0.9319
0.1597 2.4680 0.9381
0.0713 2.4699 0.9443
-0.0172 2.4686 0.9506
-0.1055 2.4641 0.9568
-0.1936 2.4564 0.9630
-0.2814 2.4455 0.9691
-0.3687 2.4314 0.9752
-0.4555 2.4142 0.9813
-0.5416 2.3939 0.9873
-0.6269 2.3705 0.9933
-0.7113 2.3439 0.9991
-0.7947 2.3144 1.0050
-2.0669 5.3779 2.3819
-2.2454 5.2649 2.3819
-2.4191 5.1470 2.3819
-2.5879 5.0242 2.3819
-2.7516 4.8967 2.3819
-2.9103 4.7648 2.3819
-3.0638 4.6287 2.3819
-3.2120 4.4886 2.3819
-3.3550 4.3445 2.3819
-3.4926 4.1968 2.3819
-3.6248 4.0455 2.3819
-3.7515 3.8910 2.3819
-3.8728 3.7332 2.3819
-3.9886 3.5724 2.3819
-4.0988 3.4089 2.3819
-4.2034 3.2427 2.3819
-4.3025 3.0739 2.3819
-4.3959 2.9029 2.3819
-4.4836 2.7296 2.3819
-4.5657 2.5542 2.3819
-4.6422 2.3770 2.3819
-4.7129 2.1981 2.3819
-4.7779 2.0175 2.3819
-4.8373 1.8355 2.3819
-4.8909 1.6521 2.3819
-4.9387 1.4676 2.3819
-4.9809 1.2821 2.3819
-5.0173 1.0956 2.3819
-5.0480 0.9084 2.3819
-5.0729 0.7205 2.3819
-5.0920 0.5321 2.3819
-5.1054 0.3433 2.3819
-5.1131 0.1543 2.3819
-5.1150 -0.0348 2.3819
-5.1111 -0.2239 2.3819
-5.1015 -0.4129 2.3819
-5.0862 -0.6015 2.3819
-5.0651 -0.7898 2.3819
-5.0382 -0.9773 2.3819
-5.0056 -1.1646 2.3819
-4.9672 -1.3507 2.3819
-4.9232 -1.5362 2.3819
-4.8733 -1.7203 2.3819
-4.8177 -1.9032 2.3819
-4.7564 -2.0848 2.3819
-4.6894 -2.2649 2.3819
-4.6167 -2.4434 2.3819
-4.5383 -2.6201 2.3819
-4.4542 -2.7948 2.3819
-4.3645 -2.9675 2.3819
-4.2691 -3.1379 2.3819
-4.1681 -3.3059 2.3819
-4.0615 -3.4713 2.3819
-3.9493 -3.6340 2.3819
-3.8315 -3.7939 2.3819
-3.7083 -3.9507 2.3819
-3.5795 -4.1043 2.3819
-3.4453 -4.2544 2.3819
-3.3058 -4.4010 2.3819
-3.1609 -4.5439 2.3819
-3.0107 -4.6828 2.3819
-2.8552 -4.8176 2.3819
-2.6947 -4.9481 2.3819
-2.5290 -5.0740 2.3819
-2.3584 -5.1953 2.3819
-2.1828 -5.3116 2.3819
-2.0024 -5.4229 2.3819
-1.8174 -5.5288 2.3819
-1.6277 -5.6293 2.3819
-1.4336 -5.7240 2.3819
-1.2351 -5.8128 2.3819
-1.0325 -5.8954 2.3819
-0.8258 -5.9717 2.3819
-0.6153 -6.0415 2.3819
-0.4010 -6.1045 2.3819
-0.1833 -6.1605 2.3819
0.0377 -6.2093 2.3819
0.2618 -6.2508 2.3819
0.4887 -6.2846 2.3819
0.7182 -6.3107 2.3819
0.9500 -6.3288 2.3819
1.1840 -6.3388 2.3819
1.4197 -6.3404 2.3819
1.6568 -6.3335 2.3819
1.8952 -6.3179 2.3819
2.1343 -6.2936 2.3819
2.3740 -6.2602 2.3819
2.6138 -6.2178 2.3819
2.8533 -6.1662 2.3819
3.0922 -6.1053 2.3819
3.3300 -6.0349 2.3819
3.5664 -5.9552 2.3819
3.8009 -5.8659 2.3819
4.0332 -5.7672 2.3819
4.2627 -5.6589 2.3819
4.4889 -5.5411 2.3819
4.7115 -5.4138 2.3819
4.9300 -5.2771 2.3819
5.1439 -5.1311 2.3819
5.3527 -4.9760 2.3819
5.5559 -4.8117 2.3819
5.7532 -4.6386 2.3819
5.9439 -4.4568 2.3819
6.1277 -4.2666 2.3819
6.3041 -4.0682 2.3819
6.4726 -3.8618 2.3819
6.6329 -3.6479 2.3819
6.7844 -3.4267 2.3819
6.9268 -3.1987 2.3819
7.0597 -2.9641 2.3819
7.1827 -2.7235 2.3819
7.2954 -2.4773 2.3819
7.3977 -2.2260 2.3819
7.4891 -1.9700 2.3819
7.5694 -1.7098 2.3819
7.6384 -1.4461 2.3819
7.6958 -1.1792 2.3819
7.7415 -0.9099 2.3819
7.7754 -0.6386 2.3819
7.7973 -0.3660 2.3819
7.8072 -0.0926 2.3819
7.8051 0.1810 2.3819
7.7909 0.4542 2.3819
7.7648 0.7264 2.3819
7.7267 0.9970 2.3819
7.6769 1.2655 2.3819
7.6154 1.5312 2.3819
7.5424 1.7938 2.3819
7.4582 2.0525 2.3819
7.3630 2.3069 2.3819
7.2570 2.5564 2.3819
7.1407 2.8006 2.3819
7.0142 3.0391 2.3819
6.8780 3.2713 2.3819
6.7324 3.4970 2.3819
6.5779 3.7156 2.3819
6.4148 3.9268 2.3819
6.2436 4.1304 2.3819
6.0646 4.3259 2.3819
6.7614 -2.2720 2.3819
6.8539 -2.0390 2.3819
6.9365 -1.8019 2.3819
7.0089 -1.5611 2.3819
7.0710 -1.3171 2.3819
7.1225 -1.0704 2.3819
7.1633 -0.8215 2.3819
7.1933 -0.5709 2.3819
7.2125 -0.3191 2.3819
7.2207 -0.0666 2.3819
7.2180 0.1860 2.3819
7.2043 0.4381 2.3819
7.1797 0.6894 2.3819
7.1442 0.9392 2.3819
7.0980 1.1870 2.3819
7.0412 1.4324 2.3819
6.9740 1.6748 2.3819
6.8965 1.9138 2.3819
6.8090 2.1489 2.3819
6.7116 2.3796 2.3819
6.6048 2.6055 2.3819
6.4887 2.8261 2.3819
6.3636 3.0412 2.3819
6.2300 3.2503 2.3819
6.0881 3.4530 2.3819
5.9384 3.6490 2.3819
5.7811 3.8381 2.3819
5.6168 4.0199 2.3819
5.4457 4.1943 2.3819
5.2683 4.3608 2.3819
5.0850 4.5194 2.3819
4.8962 4.6699 2.3819
4.7024 4.8121 2.3819
4.5040 4.9459 2.3819
4.3014 5.0711 2.3819
4.0949 5.1878 2.3819
3.8852 5.2957 2.3819
3.6724 5.3949 2.3819
3.4571 5.4854 2.3819
3.2397 5.5672 2.3819
3.0205 5.6402 2.3819
2.8000 5.7046 2.3819
0.9541 2.1314 0.8814
0.8773 2.1622 0.8869
0.7994 2.1903 0.8924
0.7206 2.2154 0.8980
0.6409 2.2378 0.9037
0.5605 2.2572 0.9094
0.4794 2.2737 0.9151
0.3977 2.2873 0.9209
0.3156 2.2979 0.9267
0.2332 2.3055 0.9325
0.1506 2.3101 0.9384
0.0678 2.3118 0.9442
-0.0150 2.3105 0.9500
-0.0976 2.3061 0.9558
-0.1801 2.2988 0.9616
-0.2622 2.2885 0.9674
-0.3440 2.2752 0.9731
-0.4252 2.2590 0.9788
-0.5057 2.2399 0.9844
-0.5856 2.2178 0.9900
-0.6645 2.1929 0.9955
-0.7425 2.1652 1.0009
-0.8195 2.1346 1.0063
-2.1083 4.9481 2.3819
-2.2723 4.8385 2.3819
-2.4318 4.7243 2.3819
-2.5865 4.6056 2.3819
-2.7366 4.4826 2.3819
-2.8818 4.3555 2.3819
-3.0222 4.2245 2.3819
-3.1576 4.0897 2.3819
-3.2879 3.9513 2.3819
-3.4133 3.8096 2.3819
-3.5335 3.6646 2.3819
-3.6486 3.5165 2.3819
-3.7584 3.3654 2.3819
-3.8631 3.2116 2.3819
-3.9624 3.0553 2.3819
-4.0565 2.8966 2.3819
-4.1452 2.7354 2.3819
-4.2286 2.5721 2.3819
-4.3067 2.4066 2.3819
-4.3794 2.2394 2.3819
-4.4466 2.0708 2.3819
-4.5083 1.9005 2.3819
-4.5648 1.7283 2.3819
-4.6157 1.5551 2.3819
-4.6612 1.3808 2.3819
-4.7012 1.2055 2.3819
-4.7358 1.0292 2.3819
-4.7648 0.8522 2.3819
-4.7884 0.6746 2.3819
-4.8065 0.4964 2.3819
-4.8191 0.3179 2.3819
-4.8262 0.1393 2.3819
-4.8278 -0.0397 2.3819
-4.8239 -0.2187 2.3819
-4.8146 -0.3973 2.3819
-4.7996 -0.5753 2.3819
-4.7793 -0.7535 2.3819
-4.7534 -0.9306 2.3819
-4.7220 -1.1073 2.3819
-4.6852 -1.2835 2.3819
-4.6429 -1.4585 2.3819
-4.5952 -1.6325 2.3819
-4.5420 -1.8052 2.3819
-4.4833 -1.9765 2.3819
-4.4192 -2.1464 2.3819
-4.3497 -2.3147 2.3819
-4.2747 -2.4811 2.3819
-4.1944 -2.6457 2.3819
-4.1087 -2.8082 2.3819
-4.0177 -2.9685 2.3819
-3.9213 -3.1264 2.3819
-3.8197 -3.2818 2.3819
-3.7128 -3.4346 2.3819
-3.6007 -3.5845 2.3819
-3.4833 -3.7314 2.3819
-3.3609 -3.8752 2.3819
-3.2333 -4.0157 2.3819
-3.1007 -4.1526 2.3819
-2.9631 -4.2860 2.3819
-2.8206 -4.4154 2.3819
-2.6732 -4.5409 2.3819
-2.5210 -4.6622 2.3819
-2.3641 -4.7791 2.3819
-2.2026 -4.8915 2.3819
-2.0365 -4.9991 2.3819
-1.8661 -5.1019 2.3819
-1.6913 -5.1995 2.3819
-1.5123 -5.2918 2.3819
-1.3292 -5.3786 2.3819
-1.1422 -5.4597 2.3819
-0.9514 -5.5350 2.3819
-0.7570 -5.6042 2.3819
-0.5591 -5.6672 2.3819
-0.3579 -5.7237 2.3819
-0.1535 -5.7736 2.3819
0.0537 -5.8167 2.3819
0.2636 -5.8528 2.3819
0.4760 -5.8818 2.3819
0.6906 -5.9034 2.3819
0.9072 -5.9175 2.3819
1.1256 -5.9239 2.3819
1.3454 -5.9226 2.3819
1.5663 -5.9132 2.3819
1.7882 -5.8958 2.3819
2.0106 -5.8701 2.3819
2.2333 -5.8361 2.3819
2.4558 -5.7937 2.3819
2.6779 -5.7427 2.3819
2.8993 -5.6831 2.3819
3.1194 -5.6148 2.3819
3.3380 -5.5378 2.3819
3.5547 -5.4521 2.3819
3.7690 -5.3576 2.3819
3.9806 -5.2544 2.3819
4.1891 -5.1425 2.3819
4.3940 -5.0219 2.3819
4.5949 -4.8927 2.3819
4.7914 -4.7550 2.3819
4.9831 -4.6089 2.3819
5.1695 -4.4546 2.3819
5.3502 -4.2923 2.3819
5.5249 -4.1221 2.3819
5.6930 -3.9443 2.3819
5.8542 -3.7591 2.3819
6.0082 -3.5667 2.3819
6.1544 -3.3675 2.3819
6.2926 -3.1617 2.3819
6.4223 -2.9498 2.3819
6.5433 -2.7320 2.3819
6.6552 -2.5088 2.3819
6.7578 -2.2806 2.3819
6.8506 -2.0478 2.3819
6.9336 -1.8108 2.3819
7.0064 -1.5701 2.3819
7.0688 -1.3263 2.3819
7.1207 -1.0797 2.3819
7.1620 -0.8308 2.3819
7.1924 -0.5803 2.3819
7.2120 -0.3285 2.3819
7.2206 -0.0761 2.3819
7.2183 0.1765 2.3819
7.2050 0.4287 2.3819
7.1808 0.6800 2.3819
7.1457 0.9298 2.3819
7.0999 1.1778 2.3819
7.0435 1.4233 2.3819
6.9767 1.6658 2.3819
6.8996 1.9049 2.3819
6.8124 2.1401 2.3819
6.7154 2.3710 2.3819
6.6089 2.5971 2.3819
6.4932 2.8180 2.3819
6.3685 3.0333 2.3819
6.2352 3.2426 2.3819
6.0936 3.4455 2.3819
5.9441 3.6418 2.3819
5.7871 3.8312 2.3819
5.6230 4.0133 2.3819
5.4522 4.1879 2.3819
5.2750 4.3547 2.3819
5.0920 4.5136 2.3819
4.9034 4.6644 2.3819
4.7098 4.8069 2.3819
4.5115 4.9410 2.3819
4.3090 5.0666 2.3819
4.1027 5.1835 2.3819
3.8931 5.2918 2.3819
3.6804 5.3914 2.3819
3.4652 5.4822 2.3819
3.2479 5.5643 2.3819
3.0288 5.6376 2.3819
2.8083 5.7023 2.3819
0.9569 2.1302 0.8812
0.8802 2.1611 0.8866
0.8024 2.1893 0.8922
0.7236 2.2146 0.8978
0.6439 2.2370 0.9035
0.5635 2.2565 0.9092
0.4824 2.2731 0.9149
0.4008 2.2868 0.9207
0.3187 2.2975 0.9265
0.2363 2.3053 0.9323
0.1537 2.3100 0.9382
0.0709 2.3118 0.9440
-0.0119 2.3106 0.9498
-0.0945 2.3063 0.9556
-0.1770 2.2991 0.9614
-0.2592 2.2889 0.9672
-0.3409 2.2758 0.9729
-0.4221 2.2597 0.9786
-0.5027 2.2406 0.9842
-0.5826 2.2187 0.9898
-0.6616 2.1939 0.9953
-0.7396 2.1662 1.0007
-0.8167 2.1358 1.0061
-2.1021 4.9521 2.3819
-2.2663 4.8427 2.3819
-2.4259 4.7286 2.3819
-2.5808 4.6101 2.3819
-2.7310 4.4873 2.3819
-2.8765 4.3603 2.3819
-3.0170 4.2295 2.3819
-3.1526 4.0948 2.3819
-3.2832 3.9566 2.3819
-3.4087 3.8149 2.3819
-3.5291 3.6700 2.3819
-3.6443 3.5220 2.3819
-3.7544 3.3711 2.3819
-3.8592 3.2174 2.3819
-3.9588 3.0611 2.3819
-4.0531 2.9026 2.3819
-4.1420 2.7413 2.3819
-4.2256 2.5781 2.3819
-4.3039 2.4130 2.3819
-4.3767 2.2457 2.3819
-4.4441 2.0772 2.3819
-4.5062 1.9065 2.3819
-4.5628 1.7348 2.3819
-4.6139 1.5616 2.3819
-4.6596 1.3874 2.3819
-4.6998 1.2120 2.3819
-4.7346 1.0358 2.3819
-4.7638 0.8588 2.3819
-4.7876 0.6812 2.3819
-4.8059 0.5031 2.3819
-4.8187 0.3246 2.3819
-4.8260 0.1459 2.3819
-4.8278 -0.0328 2.3819
-4.8241 -0.2117 2.3819
-4.8150 -0.3905 2.3819
-4.8003 -0.5688 2.3819
-4.7801 -0.7466 2.3819
-4.7544 -0.9240 2.3819
-4.7233 -1.1011 2.3819
-4.6867 -1.2770 2.3819
-4.6446 -1.4520 2.3819
-4.5971 -1.6260 2.3819
-4.5440 -1.7987 2.3819
-4.4856 -1.9701 2.3819
-4.4217 -2.1401 2.3819
-4.3524 -2.3084 2.3819
-4.2776 -2.4749 2.3819
-4.1975 -2.6396 2.3819
-4.1120 -2.8022 2.3819
-4.0212 -2.9625 2.3819
-3.9250 -3.1206 2.3819
-3.8236 -3.2761 2.3819
-3.7169 -3.4289 2.3819
-3.6050 -3.5789 2.3819
-3.4878 -3.7260 2.3819
-3.3656 -3.8699 2.3819
-3.2382 -4.0105 2.3819
-3.1058 -4.1476 2.3819
-2.9683 -4.2810 2.3819
-2.8260 -4.4107 2.3819
-2.6788 -4.5363 2.3819
-2.5268 -4.6577 2.3819
-2.3701 -4.7748 2.3819
-2.2087 -4.8874 2.3819
-2.0428 -4.9952 2.3819
-1.8725 -5.0981 2.3819
-1.6979 -5.1959 2.3819
-1.5191 -5.2884 2.3819
-1.3361 -5.3754 2.3819
-1.1493 -5.4568 2.3819
-0.9586 -5.5323 2.3819
-0.7643 -5.6017 2.3819
-0.5665 -5.6649 2.3819
-0.3654 -5.7217 2.3819
-0.1613 -5.7719 2.3819
0.0459 -5.8152 2.3819
0.2557 -5.8516 2.3819
0.4680 -5.8808 2.3819
0.6825 -5.9027 2.3819
0.8991 -5.9171 2.3819
1.1174 -5.9238 2.3819
1.3371 -5.9228 2.3819
1.5581 -5.9137 2.3819
1.7799 -5.8966 2.3819
2.0023 -5.8712 2.3819
2.2249 -5.8375 2.3819
2.4475 -5.7954 2.3819
2.6696 -5.7447 2.3819
2.8910 -5.6855 2.3819
3.1112 -5.6175 2.3819
3.3299 -5.5409 2.3819
3.5466 -5.4555 2.3819
3.7611 -5.3613 2.3819
3.9728 -5.2584 2.3819
4.1813 -5.1468 2.3819
4.3864 -5.0265 2.3819
4.5874 -4.8977 2.3819
4.7841 -4.7603 2.3819
4.9760 -4.6145 2.3819
5.1626 -4.4606 2.3819
5.3436 -4.2986 2.3819
5.5184 -4.1286 2.3819
5.6868 -3.9511 2.3819
5.8483 -3.7661 2.3819
6.0026 -3.5740 2.3819
6.1491 -3.3750 2.3819
6.2876 -3.1695 2.3819
6.4176 -2.9578 2.3819
6.5390 -2.7403 2.3819
6.6512 -2.5173 2.3819
6.7541 -2.2892 2.3819
6.8473 -2.0566 2.3819
6.9307 -1.8198 2.3819
7.0038 -1.5792 2.3819
7.0667 -1.3354 2.3819
7.1190 -1.0889 2.3819
7.1606 -0.8402 2.3819
7.1915 -0.5897 2.3819
7.2114 -0.3379 2.3819
7.2205 -0.0855 2.3819
7.2186 0.1670 2.3819
7.2057 0.4193 2.3819
7.1819 0.6706 2.3819
7.1472 0.9205 2.3819
7.1019 1.1685 2.3819
7.0458 1.4141 2.3819
6.9794 1.6568 2.3819
6.9026 1.8960 2.3819
6.8158 2.1314 2.3819
6.7192 2.3625 2.3819
6.6131 2.5887 2.3819
6.4977 2.8098 2.3819
6.3733 3.0253 2.3819
6.2403 3.2348 2.3819
6.0990 3.4380 2.3819
5.9499 3.6346 2.3819
5.7932 3.8242 2.3819
5.6293 4.0066 2.3819
6.2879 -2.1089 2.3819
6.3727 -1.8923 2.3819
6.4484 -1.6720 2.3819
6.5148 -1.4484 2.3819
6.5717 -1.2219 2.3819
6.6189 -0.9929 2.3819
6.6563 -0.7620 2.3819
6.6839 -0.5295 2.3819
6.7014 -0.2959 2.3819
6.7090 -0.0618 2.3819
6.7064 0.1724 2.3819
6.6939 0.4063 2.3819
6.6714 0.6394 2.3819
6.6389 0.8711 2.3819
6.5966 1.1011 2.3819
6.5445 1.3289 2.3819
6.4829 1.5540 2.3819
6.4119 1.7760 2.3819
6.3316 1.9944 2.3819
6.2423 2.2089 2.3819
6.1442 2.4191 2.3819
6.0376 2.6245 2.3819
5.9228 2.8248 2.3819
5.8000 3.0198 2.3819
5.6696 3.2089 2.3819
5.5318 3.3920 2.3819
5.3871 3.5687 2.3819
5.2358 3.7389 2.3819
5.0781 3.9022 2.3819
4.9146 4.0584 2.3819
4.7455 4.2074 2.3819
4.5712 4.3490 2.3819
4.3921 4.4829 2.3819
4.2087 4.6091 2.3819
4.0213 4.7276 2.3819
3.8302 4.8381 2.3819
3.6358 4.9406 2.3819
3.4386 5.0351 2.3819
3.2388 5.1215 2.3819
3.0369 5.1998 2.3819
2.8332 5.2701 2.3819
0.9707 1.9696 0.8798
0.8997 2.0011 0.8849
0.8276 2.0300 0.8900
0.7545 2.0563 0.8952
0.6805 2.0799 0.9005
0.6057 2.1008 0.9058
0.5302 2.1191 0.9112
0.4541 2.1346 0.9166
0.3774 2.1473 0.9220
0.3003 2.1572 0.9275
0.2230 2.1644 0.9329
0.1454 2.1687 0.9384
0.0677 2.1703 0.9439
-0.0100 2.1690 0.9494
-0.0876 2.1649 0.9548
-0.1650 2.1581 0.9602
-0.2422 2.1484 0.9657
-0.3189 2.1359 0.9710
-0.3951 2.1207 0.9764
-0.4708 2.1027 0.9816
-0.5457 2.0821 0.9869
-0.6198 2.0587 0.9920
-0.6931 2.0326 0.9971
-0.7653 2.0039 1.0021
-0.8365 1.9727 1.0071
-2.1338 4.5637 2.3819
-2.2849 4.4572 2.3819
-2.4316 4.3464 2.3819
-2.5740 4.2315 2.3819
-2.7118 4.1126 2.3819
-2.8451 3.9899 2.3819
-2.9737 3.8635 2.3819
-3.0977 3.7337 2.3819
-3.2169 3.6006 2.3819
-3.3313 3.4642 2.3819
-3.4408 3.3249 2.3819
-3.5454 3.1827 2.3819
-3.6451 3.0379 2.3819
-3.7397 2.8904 2.3819
-3.8294 2.7406 2.3819
-3.9140 2.5886 2.3819
-3.9936 2.4344 2.3819
-4.0680 2.2782 2.3819
-4.1374 2.1203 2.3819
-4.2015 1.9608 2.3819
-4.2605 1.7998 2.3819
-4.3144 1.6368 2.3819
-4.3630 1.4731 2.3819
-4.4065 1.3080 2.3819
-4.4447 1.1420 2.3819
-4.4777 0.9750 2.3819
-4.5055 0.8073 2.3819
-4.5281 0.6390 2.3819
-4.5453 0.4705 2.3819
-4.5574 0.3013 2.3819
-4.5642 0.1319 2.3819
-4.5657 -0.0375 2.3819
-4.5620 -0.2072 2.3819
-4.5530 -0.3763 2.3819
-4.5388 -0.5453 2.3819
-4.5193 -0.7139 2.3819
-4.4946 -0.8819 2.3819
-4.4646 -1.0493 2.3819
-4.4294 -1.2159 2.3819
-4.3890 -1.3816 2.3819
-4.3434 -1.5462 2.3819
-4.2925 -1.7096 2.3819
-4.2365 -1.8717 2.3819
-4.1753 -2.0323 2.3819
-4.1089 -2.1913 2.3819
-4.0374 -2.3486 2.3819
-3.9608 -2.5040 2.3819
-3.8791 -2.6574 2.3819
-3.7923 -2.8086 2.3819
-3.7005 -2.9575 2.3819
-3.6036 -3.1040 2.3819
-3.5018 -3.2478 2.3819
-3.3951 -3.3889 2.3819
-3.2834 -3.5271 2.3819
-3.1669 -3.6622 2.3819
-3.0456 -3.7940 2.3819
-2.9196 -3.9225 2.3819
-2.7889 -4.0474 2.3819
-2.6536 -4.1686 2.3819
-2.5137 -4.2860 2.3819
-2.3694 -4.3993 2.3819
-2.2207 -4.5083 2.3819
-2.0677 -4.6130 2.3819
-1.9105 -4.7131 2.3819
-1.7492 -4.8085 2.3819
-1.5839 -4.8989 2.3819
-1.4147 -4.9843 2.3819
-1.2418 -5.0644 2.3819
-1.0653 -5.1391 2.3819
-0.8854 -5.2082 2.3819
-0.7021 -5.2715 2.3819
-0.5157 -5.3288 2.3819
-0.3264 -5.3801 2.3819
-0.1342 -5.4250 2.3819
0.0605 -5.4635 2.3819
0.2577 -5.4953 2.3819
0.4570 -5.5204 2.3819
0.6582 -5.5386 2.3819
0.8612 -5.5497 2.3819
1.0656 -5.5536 2.3819
1.2712 -5.5501 2.3819
1.4778 -5.5392 2.3819
1.6850 -5.5207 2.3819
1.8926 -5.4945 2.3819
2.1002 -5.4605 2.3819
2.3076 -5.4186 2.3819
2.5144 -5.3688 2.3819
2.7204 -5.3110 2.3819
2.9250 -5.2452 2.3819
3.1281 -5.1713 2.3819
3.3292 -5.0893 2.3819
3.5280 -4.9992 2.3819
3.7241 -4.9010 2.3819
3.9172 -4.7949 2.3819
4.1068 -4.6807 2.3819
4.2926 -4.5587 2.3819
4.4742 -4.4289 2.3819
4.6511 -4.2917 2.3819
4.8232 -4.1464 2.3819
4.9899 -3.9940 2.3819
5.1509 -3.8345 2.3819
5.3058 -3.6680 2.3819
5.4542 -3.4947 2.3819
5.5959 -3.3150 2.3819
5.7304 -3.1290 2.3819
5.8574 -2.9371 2.3819
5.9766 -2.7396 2.3819
6.0877 -2.5368 2.3819
6.1904 -2.3291 2.3819
6.2845 -2.1169 2.3819
6.3697 -1.9005 2.3819
6.4458 -1.6803 2.3819
6.5125 -1.4568 2.3819
6.5698 -1.2304 2.3819
6.6173 -1.0015 2.3819
6.6551 -0.7706 2.3819
6.6830 -0.5382 2.3819
6.7009 -0.3047 2.3819
6.7089 -0.0706 2.3819
6.7067 0.1637 2.3819
6.6946 0.3976 2.3819
6.6724 0.6307 2.3819
6.6403 0.8625 2.3819
6.5984 1.0925 2.3819
6.5467 1.3204 2.3819
6.4854 1.5456 2.3819
6.4147 1.7677 2.3819
6.3348 1.9863 2.3819
6.2458 2.2010 2.3819
6.1481 2.4113 2.3819
6.0418 2.6169 2.3819
5.9272 2.8174 2.3819
5.8048 3.0125 2.3819
5.6746 3.2019 2.3819
5.5371 3.3853 2.3819
5.3927 3.5622 2.3819
5.2415 3.7327 2.3819
5.0841 3.8962 2.3819
4.9208 4.0527 2.3819
4.7519 4.2020 2.3819
4.5778 4.3438 2.3819
4.3989 4.4780 2.3819
4.2157 4.6046 2.3819
4.0283 4.7233 2.3819
3.8374 4.8341 2.3819
3.6431 4.9369 2.3819
3.4460 5.0317 2.3819
3.2463 5.1184 2.3819
3.0445 5.1970 2.3819
2.8409 5.2676 2.3819
0.9734 1.9683 0.8796
0.9024 1.9999 0.8847
0.8304 2.0289 0.8898
0.7573 2.0553 0.8951
0.6833 2.0791 0.9003
0.6085 2.1001 0.9056
0.5330 2.1184 0.9110
0.4569 2.1340 0.9164
0.3803 2.1469 0.9218
0.3032 2.1569 0.9273
0.2259 2.1642 0.9327
0.1483 2.1686 0.9382
0.0706 2.1703 0.9437
-0.0071 2.1691 0.9491
-0.0847 2.1652 0.9546
-0.1622 2.1584 0.9600
-0.2393 2.1488 0.9654
-0.3160 2.1365 0.9708
-0.3923 2.1213 0.9762
-0.4679 2.1035 0.9814
-0.5429 2.0829 0.9867
-0.6171 2.0596 0.9918
-0.6904 2.0336 0.9969
-0.7627 2.0050 1.0020
-0.8339 1.9739 1.0069
-2.1281 4.5676 2.3819
-2.2793 4.4613 2.3819
-2.4262 4.3507 2.3819
-2.5687 4.2359 2.3819
-2.7067 4.1171 2.3819
-2.8402 3.9946 2.3819
-2.9690 3.8683 2.3819
-3.0931 3.7386 2.3819
-3.2125 3.6056 2.3819
-3.3271 3.4694 2.3819
-3.4368 3.3302 2.3819
-3.5416 3.1881 2.3819
-3.6414 3.0433 2.3819
-3.7363 2.8960 2.3819
-3.8261 2.7463 2.3819
-3.9110 2.5943 2.3819
-3.9907 2.4402 2.3819
-4.0653 2.2841 2.3819
-4.1349 2.1262 2.3819
-4.1992 1.9670 2.3819
-4.2586 1.8049 2.3819
-4.3125 1.6431 2.3819
-4.3613 1.4791 2.3819
-4.4050 1.3141 2.3819
-4.4434 1.1480 2.3819
-4.4766 0.9813 2.3819
-4.5046 0.8134 2.3819
-4.5273 0.6454 2.3819
-4.5448 0.4768 2.3819
-4.5570 0.3075 2.3819
-4.5640 0.1383 2.3819
-4.5657 -0.0312 2.3819
-4.5622 -0.2007 2.3819
-4.5534 -0.3699 2.3819
-4.5394 -0.5389 2.3819
-4.5201 -0.7076 2.3819
-4.4956 -0.8756 2.3819
-4.4658 -1.0431 2.3819
-4.4308 -1.2097 2.3819
-4.3906 -1.3754 2.3819
-4.3452 -1.5400 2.3819
-4.2945 -1.7035 2.3819
-4.2387 -1.8656 2.3819
-4.1777 -2.0263 2.3819
-4.1115 -2.1854 2.3819
-4.0402 -2.3427 2.3819
-3.9638 -2.4982 2.3819
-3.8822 -2.6517 2.3819
-3.7956 -2.8030 2.3819
-3.7040 -2.9520 2.3819
-3.6073 -3.0985 2.3819
-3.5057 -3.2425 2.3819
-3.3991 -3.3837 2.3819
-3.2877 -3.5220 2.3819
-3.1714 -3.6572 2.3819
-3.0503 -3.7892 2.3819
-2.9244 -3.9178 2.3819
-2.7939 -4.0428 2.3819
-2.6587 -4.1642 2.3819
-2.5190 -4.2817 2.3819
-2.3749 -4.3951 2.3819
-2.2263 -4.5043 2.3819
-2.0735 -4.6091 2.3819
-1.9164 -4.7094 2.3819
-1.7553 -4.8050 2.3819
-1.5901 -4.8956 2.3819
-1.4211 -4.9812 2.3819
-1.2484 -5.0615 2.3819
-1.0720 -5.1364 2.3819
-0.8922 -5.2057 2.3819
-0.7090 -5.2692 2.3819
-0.5228 -5.3268 2.3819
-0.3335 -5.3782 2.3819
-0.1415 -5.4234 2.3819
0.0532 -5.4621 2.3819
0.2502 -5.4942 2.3819
0.4495 -5.5196 2.3819
0.6506 -5.5380 2.3819
0.8535 -5.5494 2.3819
1.0579 -5.5535 2.3819
1.2635 -5.5504 2.3819
1.4701 -5.5397 2.3819
1.6773 -5.5215 2.3819
1.8848 -5.4956 2.3819
2.0925 -5.4619 2.3819
2.2999 -5.4203 2.3819
2.5067 -5.3708 2.3819
2.7127 -5.3133 2.3819
2.9174 -5.2478 2.3819
3.1205 -5.1742 2.3819
3.3217 -5.0925 2.3819
3.5206 -5.0027 2.3819
3.7168 -4.9048 2.3819
3.9100 -4.7990 2.3819
4.0998 -4.6851 2.3819
4.2857 -4.5634 2.3819
4.4675 -4.4339 2.3819
4.6446 -4.2967 2.3819
4.8169 -4.1520 2.3819
4.9838 -3.9998 2.3819
5.1450 -3.8406 2.3819
5.3001 -3.6743 2.3819
5.4488 -3.5013 2.3819
5.5907 -3.3218 2.3819
5.7255 -3.1361 2.3819
5.8528 -2.9444 2.3819
5.9723 -2.7471 2.3819
6.0837 -2.5445 2.3819
6.1867 -2.3370 2.3819
6.2812 -2.1249 2.3819
6.3667 -1.9086 2.3819
6.4431 -1.6886 2.3819
6.5102 -1.4652 2.3819
6.5678 -1.2389 2.3819
6.6157 -1.0101 2.3819
6.6539 -0.7793 2.3819
6.6822 -0.5469 2.3819
6.7005 -0.3135 2.3819
6.7087 -0.0794 2.3819
6.7070 0.1549 2.3819
6.6952 0.3888 2.3819
6.6734 0.6220 2.3819
6.6417 0.8538 2.3819
6.6001 1.0840 2.3819
6.5488 1.3119 2.3819
6.4879 1.5372 2.3819
6.4175 1.7595 2.3819
6.3379 1.9782 2.3819
6.2493 2.1930 2.3819
6.1519 2.4035 2.3819
6.0459 2.6093 2.3819
5.9317 2.8100 2.3819
5.8095 3.0053 2.3819
5.6796 3.1949 2.3819
5.5424 3.3785 2.3819
5.3982 3.5557 2.3819
5.2473 3.7264 2.3819
5.8702 -1.9650 2.3819
5.9484 -1.7630 2.3819
6.0182 -1.5575 2.3819
6.0794 -1.3491 2.3819
6.1318 -1.1380 2.3819
6.1753 -0.9247 2.3819
6.2098 -0.7096 2.3819
6.2351 -0.4931 2.3819
6.2513 -0.2756 2.3819
6.2583 -0.0576 2.3819
6.2560 0.1605 2.3819
6.2444 0.3783 2.3819
6.2237 0.5953 2.3819
6.1938 0.8112 2.3819
6.1548 1.0254 2.3819
6.1069 1.2377 2.3819
6.0501 1.4475 2.3819
5.9847 1.6550 2.3819
5.9106 1.8582 2.3819
5.8283 2.0584 2.3819
5.7378 2.2546 2.3819
5.6395 2.4465 2.3819
5.5335 2.6337 2.3819
5.4201 2.8160 2.3819
5.2996 2.9931 2.3819
5.1723 3.1646 2.3819
5.0384 3.3304 2.3819
4.8984 3.4900 2.3819
4.7525 3.6435 2.3819
4.6010 3.7904 2.3819
4.4443 3.9306 2.3819
4.2827 4.0641 2.3819
4.1166 4.1905 2.3819
3.9463 4.3099 2.3819
3.7722 4.4220 2.3819
3.5945 4.5269 2.3819
3.4138 4.6243 2.3819
3.2302 4.7143 2.3819
3.0441 4.7969 2.3819
2.8559 4.8719 2.3819
0.9833 1.8219 0.8786
0.9176 1.8539 0.8833
0.8508 1.8836 0.8881
0.7829 1.9108 0.8929
0.7141 1.9355 0.8978
0.6444 1.9577 0.9028
0.5740 1.9775 0.9078
0.5029 1.9946 0.9128
0.4313 2.0092 0.9179
0.3591 2.0211 0.9230
0.2866 2.0305 0.9281
0.2137 2.0372 0.9333
0.1407 2.0413 0.9384
0.0676 2.0428 0.9436
-0.0056 2.0416 0.9487
-0.0786 2.0377 0.9539
-0.1515 2.0313 0.9590
-0.2241 2.0221 0.9641
-0.2963 2.0104 0.9691
-0.3680 1.9961 0.9742
-0.4392 1.9792 0.9791
-0.5098 1.9597 0.9840
-0.5795 1.9377 0.9889
-0.6485 1.9132 0.9937
-0.7165 1.8862 0.9984
-0.7835 1.8567 1.0031
-2.0079 4.3139 2.3819
-2.1513 4.2143 2.3819
-2.2907 4.1106 2.3819
-2.4259 4.0029 2.3819
-2.5569 3.8913 2.3819
-2.6837 3.7761 2.3819
-2.8061 3.6573 2.3819
-2.9241 3.5351 2.3819
-3.0376 3.4098 2.3819
-3.1466 3.2813 2.3819
-3.2509 3.1499 2.3819
-3.3507 3.0158 2.3819
-3.4457 2.8790 2.3819
-3.5361 2.7397 2.3819
-3.6217 2.5981 2.3819
-3.7024 2.4543 2.3819
-3.7784 2.3084 2.3819
-3.8495 2.1607 2.3819
-3.9157 2.0111 2.3819
-3.9771 1.8599 2.3819
-4.0335 1.7071 2.3819
-4.0850 1.5530 2.3819
-4.1315 1.3976 2.3819
-4.1730 1.2412 2.3819
-4.2096 1.0837 2.3819
-4.2412 0.9253 2.3819
-4.2677 0.7663 2.3819
-4.2893 0.6066 2.3819
-4.3058 0.4464 2.3819
-4.3173 0.2859 2.3819
-4.3238 0.1252 2.3819
-4.3253 -0.0357 2.3819
-4.3217 -0.1965 2.3819
-4.3131 -0.3572 2.3819
-4.2995 -0.5176 2.3819
-4.2809 -0.6776 2.3819
-4.2572 -0.8370 2.3819
-4.2286 -0.9958 2.3819
-4.1949 -1.1539 2.3819
-4.1562 -1.3110 2.3819
-4.1126 -1.4671 2.3819
-4.0640 -1.6220 2.3819
-4.0104 -1.7756 2.3819
-3.9519 -1.9277 2.3819
-3.8885 -2.0784 2.3819
-3.8202 -2.2273 2.3819
-3.7470 -2.3743 2.3819
-3.6690 -2.5194 2.3819
-3.5861 -2.6624 2.3819
-3.4985 -2.8031 2.3819
-3.4061 -2.9414 2.3819
-3.3090 -3.0772 2.3819
-3.2073 -3.2102 2.3819
-3.1009 -3.3405 2.3819
-2.9899 -3.4677 2.3819
-2.8744 -3.5919 2.3819
-2.7545 -3.7127 2.3819
-2.6302 -3.8301 2.3819
-2.5015 -3.9439 2.3819
-2.3686 -4.0539 2.3819
-2.2315 -4.1600 2.3819
-2.0902 -4.2620 2.3819
-1.9450 -4.3598 2.3819
-1.7959 -4.4532 2.3819
-1.6430 -4.5421 2.3819
-1.4864 -4.6262 2.3819
-1.3263 -4.7055 2.3819
-1.1626 -4.7797 2.3819
-0.9957 -4.8487 2.3819
-0.8256 -4.9124 2.3819
-0.6525 -4.9705 2.3819
-0.4766 -5.0230 2.3819
-0.2979 -5.0696 2.3819
-0.1168 -5.1103 2.3819
0.0667 -5.1448 2.3819
0.2523 -5.1731 2.3819
0.4399 -5.1949 2.3819
0.6291 -5.2102 2.3819
0.8198 -5.2189 2.3819
1.0117 -5.2207 2.3819
1.2047 -5.2156 2.3819
1.3983 -5.2035 2.3819
1.5925 -5.1843 2.3819
1.7869 -5.1578 2.3819
1.9811 -5.1241 2.3819
2.1750 -5.0831 2.3819
2.3683 -5.0346 2.3819
2.5605 -4.9786 2.3819
2.7515 -4.9152 2.3819
2.9408 -4.8443 2.3819
3.1282 -4.7658 2.3819
3.3133 -4.6799 2.3819
3.4958 -4.5865 2.3819
3.6753 -4.4856 2.3819
3.8515 -4.3775 2.3819
4.0240 -4.2620 2.3819
4.1926 -4.1394 2.3819
4.3567 -4.0097 2.3819
4.5162 -3.8731 2.3819
4.6707 -3.7297 2.3819
4.8197 -3.5797 2.3819
4.9631 -3.4234 2.3819
5.1004 -3.2609 2.3819
5.2313 -3.0924 2.3819
5.3556 -2.9183 2.3819
5.4729 -2.7387 2.3819
5.5830 -2.5540 2.3819
5.6855 -2.3646 2.3819
5.7803 -2.1706 2.3819
5.8671 -1.9725 2.3819
5.9457 -1.7706 2.3819
6.0158 -1.5653 2.3819
6.0773 -1.3569 2.3819
6.1300 -1.1459 2.3819
6.1739 -0.9327 2.3819
6.2087 -0.7176 2.3819
6.2344 -0.5012 2.3819
6.2509 -0.2837 2.3819
6.2582 -0.0657 2.3819
6.2562 0.1524 2.3819
6.2450 0.3702 2.3819
6.2246 0.5872 2.3819
6.1951 0.8031 2.3819
6.1564 1.0175 2.3819
6.1088 1.2298 2.3819
6.0524 1.4396 2.3819
5.9871 1.6464 2.3819
5.9135 1.8506 2.3819
5.8315 2.0509 2.3819
5.7413 2.2473 2.3819
5.6433 2.4394 2.3819
5.5376 2.6268 2.3819
5.4245 2.8093 2.3819
5.3042 2.9866 2.3819
5.1772 3.1583 2.3819
5.0436 3.3243 2.3819
4.9038 3.4842 2.3819
4.7580 3.6378 2.3819
4.6068 3.7850 2.3819
4.4503 3.9255 2.3819
4.2889 4.0592 2.3819
4.1229 4.1859 2.3819
3.9528 4.3056 2.3819
3.7788 4.4180 2.3819
3.6012 4.5231 2.3819
3.4206 4.6208 2.3819
3.2371 4.7111 2.3819
3.0511 4.7939 2.3819
2.8630 4.8692 2.3819
0.9858 1.8207 0.8784
0.9201 1.8528 0.8831
0.8533 1.8825 0.8879
0.7855 1.9098 0.8927
0.7167 1.9346 0.8976
0.6471 1.9570 0.9026
0.5767 1.9768 0.9076
0.5056 1.9940 0.9126
0.4339 2.0087 0.9177
0.3618 2.0207 0.9228
0.2893 2.0302 0.9279
0.2165 2.0370 0.9331
0.1434 2.0412 0.9382
0.0703 2.0428 0.9434
-0.0028 2.0417 0.9485
-0.0759 2.0379 0.9537
-0.1488 2.0315 0.9588
-0.2214 2.0225 0.9639
-0.2936 2.0109 0.9689
-0.3654 1.9967 0.9740
-0.4366 1.9799 0.9789
-0.5071 1.9605 0.9839
-0.5769 1.9386 0.9887
-0.6459 1.9141 0.9935
-0.7140 1.8872 0.9983
-0.7810 1.8579 1.0029
-0.8470 1.8261 1.0075
-2.1460 4.2181 2.3819
-2.2855 4.1146 2.3819
-2.4209 4.0070 2.3819
-2.5521 3.8956 2.3819
-2.6790 3.7804 2.3819
-2.8016 3.6618 2.3819
-2.9198 3.5398 2.3819
-3.0334 3.4145 2.3819
-3.1426 3.2862 2.3819
-3.2471 3.1549 2.3819
-3.3470 3.0208 2.3819
-3.4423 2.8842 2.3819
-3.5328 2.7450 2.3819
-3.6185 2.6035 2.3819
-3.6995 2.4597 2.3819
-3.7756 2.3139 2.3819
-3.8469 2.1662 2.3819
-3.9134 2.0167 2.3819
-3.9749 1.8656 2.3819
-4.0315 1.7129 2.3819
-4.0831 1.5588 2.3819
-4.1298 1.4035 2.3819
-4.1716 1.2470 2.3819
-4.2083 1.0896 2.3819
-4.2401 0.9313 2.3819
-4.2668 0.7722 2.3819
-4.2886 0.6126 2.3819
-4.3053 0.4524 2.3819
-4.3170 0.2919 2.3819
-4.3237 0.1312 2.3819
-4.3253 -0.0297 2.3819
-4.3220 -0.1905 2.3819
-4.3136 -0.3512 2.3819
-4.3001 -0.5116 2.3819
-4.2817 -0.6716 2.3819
-4.2582 -0.8311 2.3819
-4.2297 -0.9899 2.3819
-4.1963 -1.1480 2.3819
-4.1578 -1.3051 2.3819
-4.1143 -1.4612 2.3819
-4.0659 -1.6162 2.3819
-4.0125 -1.7699 2.3819
-3.9542 -1.9221 2.3819
-3.8910 -2.0728 2.3819
-3.8228 -2.2217 2.3819
-3.7498 -2.3689 2.3819
-3.6720 -2.5140 2.3819
-3.5893 -2.6571 2.3819
-3.5019 -2.7979 2.3819
-3.4097 -2.9363 2.3819
-3.3128 -3.0721 2.3819
-3.2112 -3.2053 2.3819
-3.1050 -3.3357 2.3819
-2.9942 -3.4630 2.3819
-2.8789 -3.5873 2.3819
-2.7591 -3.7082 2.3819
-2.6349 -3.8257 2.3819
-2.5064 -3.9397 2.3819
-2.3736 -4.0498 2.3819
-2.2367 -4.1561 2.3819
-2.0956 -4.2583 2.3819
-1.9505 -4.3562 2.3819
-1.8016 -4.4498 2.3819
-1.6488 -4.5388 2.3819
-1.4923 -4.6232 2.3819
-1.3323 -4.7026 2.3819
-1.1688 -4.7770 2.3819
-1.0020 -4.8462 2.3819
-0.8320 -4.9101 2.3819
-0.6590 -4.9684 2.3819
-0.4832 -5.0211 2.3819
-0.3046 -5.0680 2.3819
-0.1236 -5.1089 2.3819
0.0598 -5.1436 2.3819
0.2453 -5.1721 2.3819
0.4328 -5.1942 2.3819
0.6220 -5.2098 2.3819
0.8126 -5.2187 2.3819
1.0045 -5.2207 2.3819
1.1974 -5.2159 2.3819
1.3911 -5.2041 2.3819
1.5852 -5.1851 2.3819
1.7796 -5.1590 2.3819
1.9739 -5.1255 2.3819
2.1678 -5.0847 2.3819
2.3611 -5.0365 2.3819
2.5534 -4.9809 2.3819
2.7444 -4.9177 2.3819
2.9338 -4.8471 2.3819
3.1212 -4.7689 2.3819
3.3064 -4.6832 2.3819
3.4890 -4.5901 2.3819
3.6686 -4.4896 2.3819
3.8450 -4.3816 2.3819
4.0176 -4.2665 2.3819
4.1863 -4.1441 2.3819
4.3507 -4.0146 2.3819
4.5103 -3.8783 2.3819
4.6650 -3.7352 2.3819
4.8142 -3.5855 2.3819
4.9578 -3.4293 2.3819
5.0953 -3.2671 2.3819
5.2265 -3.0988 2.3819
5.3511 -2.9248 2.3819
5.4686 -2.7456 2.3819
5.5790 -2.5611 2.3819
5.6818 -2.3717 2.3819
5.7769 -2.1779 2.3819
5.8640 -1.9800 2.3819
5.9429 -1.7782 2.3819
6.0133 -1.5730 2.3819
6.0751 -1.3648 2.3819
6.1282 -1.1539 2.3819
6.1724 -0.9407 2.3819
6.2075 -0.7257 2.3819
6.2336 -0.5093 2.3819
6.2504 -0.2919 2.3819
6.2581 -0.0739 2.3819
6.2565 0.1442 2.3819
6.2456 0.3620 2.3819
6.2255 0.5791 2.3819
6.1963 0.7951 2.3819
6.1580 1.0095 2.3819
6.1108 1.2219 2.3819
6.0546 1.4319 2.3819
5.9898 1.6391 2.3819
5.9164 1.8431 2.3819
5.8347 2.0435 2.3819
5.7449 2.2400 2.3819
5.6471 2.4322 2.3819
5.5417 2.6199 2.3819
5.4288 2.8026 2.3819
5.3088 2.9800 2.3819
5.1820 3.1520 2.3819
5.0487 3.3182 2.3819
4.9091 3.4783 2.3819
5.4987 -1.8370 2.3819
5.5712 -1.6479 2.3819
5.6358 -1.4557 2.3819
5.6924 -1.2608 2.3819
5.7409 -1.0634 2.3819
5.7812 -0.8641 2.3819
5.8131 -0.6630 2.3819
5.8365 -0.4608 2.3819
5.8515 -0.2575 2.3819
5.8579 -0.0538 2.3819
5.8558 0.1499 2.3819
5.8451 0.3535 2.3819
5.8259 0.5562 2.3819
5.7983 0.7579 2.3819
5.7622 0.9582 2.3819
5.7179 1.1566 2.3819
5.6653 1.3528 2.3819
5.6047 1.5464 2.3819
5.5362 1.7370 2.3819
5.4600 1.9244 2.3819
5.3762 2.1082 2.3819
5.2850 2.2880 2.3819
5.1868 2.4636 2.3819
5.0816 2.6346 2.3819
4.9698 2.8008 2.3819
4.8517 2.9619 2.3819
4.7274 3.1177 2.3819
4.5973 3.2679 2.3819
4.4617 3.4123 2.3819
4.3209 3.5509 2.3819
4.1751 3.6833 2.3819
4.0247 3.8093 2.3819
3.8700 3.9289 2.3819
3.7114 4.0419 2.3819
3.5490 4.1483 2.3819
3.3833 4.2479 2.3819
3.2146 4.3406 2.3819
3.0431 4.4264 2.3819
2.8692 4.5053 2.3819
2.6933 4.5772 2.3819
0.9315 1.7189 0.8820
0.8694 1.7491 0.8864
0.8064 1.7770 0.8909
0.7423 1.8027 0.8955
0.6774 1.8260 0.9001
0.6117 1.8470 0.9048
0.5453 1.8656 0.9095
0.4782 1.8817 0.9143
0.4106 1.8955 0.9191
0.3425 1.9068 0.9239
0.2741 1.9156 0.9287
0.2054 1.9219 0.9336
0.1365 1.9258 0.9385
0.0675 1.9271 0.9433
-0.0015 1.9260 0.9482
-0.0705 1.9224 0.9530
-0.1392 1.9163 0.9579
-0.2077 1.9077 0.9627
-0.2758 1.8966 0.9674
-0.3435 1.8831 0.9722
-0.4107 1.8671 0.9768
-0.4772 1.8488 0.9815
-0.5430 1.8280 0.9861
-0.6081 1.8049 0.9906
-0.6722 1.7794 0.9951
-0.7355 1.7517 0.9994
-0.7976 1.7216 1.0038
-2.0291 3.9921 2.3819
-2.1617 3.8948 2.3819
-2.2904 3.7936 2.3819
-2.4151 3.6886 2.3819
-2.5358 3.5801 2.3819
-2.6525 3.4682 2.3819
-2.7649 3.3530 2.3819
-2.8731 3.2347 2.3819
-2.9771 3.1134 2.3819
-3.0767 2.9893 2.3819
-3.1719 2.8624 2.3819
-3.2626 2.7330 2.3819
-3.3489 2.6012 2.3819
-3.4307 2.4671 2.3819
-3.5079 2.3309 2.3819
-3.5805 2.1926 2.3819
-3.6485 2.0525 2.3819
-3.7118 1.9106 2.3819
-3.7705 1.7671 2.3819
-3.8245 1.6222 2.3819
-3.8737 1.4758 2.3819
-3.9182 1.3283 2.3819
-3.9580 1.1796 2.3819
-3.9930 1.0300 2.3819
-4.0232 0.8796 2.3819
-4.0487 0.7284 2.3819
-4.0693 0.5766 2.3819
-4.0852 0.4244 2.3819
-4.0962 0.2718 2.3819
-4.1024 0.1190 2.3819
-4.1038 -0.0339 2.3819
-4.1004 -0.1868 2.3819
-4.0921 -0.3396 2.3819
-4.0791 -0.4920 2.3819
-4.0613 -0.6441 2.3819
-4.0386 -0.7957 2.3819
-4.0111 -0.9466 2.3819
-3.9789 -1.0967 2.3819
-3.9419 -1.2460 2.3819
-3.9001 -1.3942 2.3819
-3.8536 -1.5413 2.3819
-3.8023 -1.6872 2.3819
-3.7464 -1.8316 2.3819
-3.6857 -1.9744 2.3819
-3.6204 -2.1157 2.3819
-3.5504 -2.2551 2.3819
-3.4758 -2.3926 2.3819
-3.3967 -2.5280 2.3819
-3.3130 -2.6612 2.3819
-3.2247 -2.7921 2.3819
-3.1320 -2.9205 2.3819
-3.0349 -3.0463 2.3819
-2.9334 -3.1693 2.3819
-2.8276 -3.2894 2.3819
-2.7175 -3.4065 2.3819
-2.6032 -3.5204 2.3819
-2.4847 -3.6309 2.3819
-2.3622 -3.7380 2.3819
-2.2357 -3.8414 2.3819
-2.1053 -3.9411 2.3819
-1.9710 -4.0368 2.3819
-1.8330 -4.1285 2.3819
-1.6913 -4.2159 2.3819
-1.5461 -4.2989 2.3819
-1.3975 -4.3774 2.3819
-1.2456 -4.4512 2.3819
-1.0905 -4.5202 2.3819
-0.9323 -4.5842 2.3819
-0.7712 -4.6431 2.3819
-0.6074 -4.6967 2.3819
-0.4409 -4.7449 2.3819
-0.2721 -4.7876 2.3819
-0.1009 -4.8245 2.3819
0.0723 -4.8556 2.3819
0.2475 -4.8808 2.3819
0.4243 -4.8999 2.3819
0.6027 -4.9128 2.3819
0.7823 -4.9194 2.3819
0.9630 -4.9196 2.3819
1.1445 -4.9132 2.3819
1.3266 -4.9003 2.3819
1.5090 -4.8806 2.3819
1.6915 -4.8542 2.3819
1.8738 -4.8209 2.3819
2.0556 -4.7808 2.3819
2.2367 -4.7337 2.3819
2.4167 -4.6796 2.3819
2.5954 -4.6185 2.3819
2.7725 -4.5505 2.3819
2.9477 -4.4754 2.3819
3.1206 -4.3934 2.3819
3.2910 -4.3044 2.3819
3.4585 -4.2085 2.3819
3.6228 -4.1058 2.3819
3.7836 -3.9964 2.3819
3.9406 -3.8804 2.3819
4.0935 -3.7578 2.3819
4.2419 -3.6288 2.3819
4.3855 -3.4936 2.3819
4.5241 -3.3523 2.3819
4.6573 -3.2051 2.3819
4.7848 -3.0523 2.3819
4.9064 -2.8940 2.3819
5.0219 -2.7295 2.3819
5.1303 -2.5628 2.3819
5.2326 -2.3888 2.3819
5.3276 -2.2112 2.3819
5.4154 -2.0295 2.3819
5.4958 -1.8441 2.3819
5.5686 -1.6550 2.3819
5.6335 -1.4630 2.3819
5.6904 -1.2681 2.3819
5.7393 -1.0709 2.3819
5.7798 -0.8715 2.3819
5.8120 -0.6706 2.3819
5.8358 -0.4683 2.3819
5.8511 -0.2651 2.3819
5.8578 -0.0614 2.3819
5.8560 0.1423 2.3819
5.8457 0.3458 2.3819
5.8268 0.5486 2.3819
5.7995 0.7504 2.3819
5.7637 0.9507 2.3819
5.7197 1.1492 2.3819
5.6674 1.3455 2.3819
5.6071 1.5392 2.3819
5.5389 1.7300 2.3819
5.4629 1.9175 2.3819
5.3794 2.1014 2.3819
5.2886 2.2813 2.3819
5.1906 2.4571 2.3819
5.0857 2.6283 2.3819
4.9741 2.7947 2.3819
4.8562 2.9560 2.3819
4.7322 3.1120 2.3819
4.6023 3.2624 2.3819
4.4669 3.4071 2.3819
4.3262 3.5458 2.3819
4.1806 3.6784 2.3819
4.0304 3.8047 2.3819
3.8759 3.9246 2.3819
3.7174 4.0378 2.3819
3.5551 4.1444 2.3819
3.3896 4.2443 2.3819
3.2209 4.3373 2.3819
3.0496 4.4233 2.3819
2.8758 4.5025 2.3819
2.6999 4.5746 2.3819
0.9338 1.7177 0.8818
0.8718 1.7480 0.8863
0.8088 1.7760 0.8908
0.7448 1.8018 0.8953
0.6799 1.8252 0.9000
0.6142 1.8462 0.9046
0.5478 1.8649 0.9094
0.4807 1.8812 0.9141
0.4131 1.8950 0.9189
0.3451 1.9064 0.9237
0.2766 1.9153 0.9286
0.2079 1.9217 0.9334
0.1390 1.9257 0.9383
0.0700 1.9271 0.9431
0.0010 1.9261 0.9480
-0.0679 1.9226 0.9528
-0.1366 1.9166 0.9577
-0.2051 1.9080 0.9625
-0.2733 1.8971 0.9672
-0.3410 1.8837 0.9720
-0.4081 1.8678 0.9767
-0.4747 1.8495 0.9813
-0.5406 1.8288 0.9859
-0.6057 1.8058 0.9904
-0.6699 1.7804 0.9949
-0.7331 1.7527 0.9993
-0.7953 1.7228 1.0036
-2.0241 3.9957 2.3819
-2.1568 3.8985 2.3819
-2.2856 3.7974 2.3819
-2.4105 3.6926 2.3819
-2.5314 3.5843 2.3819
-2.6482 3.4725 2.3819
-2.7608 3.3574 2.3819
-2.8692 3.2392 2.3819
-2.9733 3.1180 2.3819
-3.0730 2.9940 2.3819
-3.1684 2.8672 2.3819
-3.2593 2.7379 2.3819
-3.3458 2.6062 2.3819
-3.4277 2.4722 2.3819
-3.5051 2.3360 2.3819
-3.5779 2.1978 2.3819
-3.6460 2.0578 2.3819
-3.7096 1.9160 2.3819
-3.7684 1.7725 2.3819
-3.8225 1.6276 2.3819
-3.8720 1.4813 2.3819
-3.9167 1.3338 2.3819
-3.9566 1.1852 2.3819
-3.9918 1.0356 2.3819
-4.0222 0.8852 2.3819
-4.0478 0.7341 2.3819
-4.0686 0.5823 2.3819
-4.0846 0.4301 2.3819
-4.0959 0.2775 2.3819
-4.1022 0.1247 2.3819
-4.1038 -0.0282 2.3819
-4.1006 -0.1811 2.3819
-4.0925 -0.3339 2.3819
-4.0797 -0.4864 2.3819
-4.0620 -0.6384 2.3819
-4.0395 -0.7900 2.3819
-4.0123 -0.9410 2.3819
-3.9802 -1.0911 2.3819
-3.9434 -1.2404 2.3819
-3.9018 -1.3887 2.3819
-3.8554 -1.5359 2.3819
-3.8044 -1.6817 2.3819
-3.7486 -1.8262 2.3819
-3.6881 -1.9691 2.3819
-3.6229 -2.1104 2.3819
-3.5531 -2.2499 2.3819
-3.4787 -2.3874 2.3819
-3.3997 -2.5230 2.3819
-3.3162 -2.6563 2.3819
-3.2281 -2.7872 2.3819
-3.1356 -2.9157 2.3819
-3.0386 -3.0416 2.3819
-2.9373 -3.1647 2.3819
-2.8316 -3.2850 2.3819
-2.7217 -3.4022 2.3819
-2.6075 -3.5162 2.3819
-2.4893 -3.6269 2.3819
-2.3669 -3.7341 2.3819
-2.2405 -3.8376 2.3819
-2.1102 -3.9375 2.3819
-1.9761 -4.0333 2.3819
-1.8382 -4.1251 2.3819
-1.6967 -4.2127 2.3819
-1.5516 -4.2959 2.3819
-1.4031 -4.3746 2.3819
-1.2513 -4.4486 2.3819
-1.0963 -4.5177 2.3819
-0.9383 -4.5819 2.3819
-0.7773 -4.6410 2.3819
-0.6136 -4.6948 2.3819
-0.4472 -4.7432 2.3819
-0.2784 -4.7861 2.3819
-0.1074 -4.8232 2.3819
0.0658 -4.8546 2.3819
0.2409 -4.8800 2.3819
0.4177 -4.8993 2.3819
0.5960 -4.9125 2.3819
0.7756 -4.9193 2.3819
0.9562 -4.9197 2.3819
1.1377 -4.9136 2.3819
1.3198 -4.9009 2.3819
1.5021 -4.8815 2.3819
1.6846 -4.8553 2.3819
1.8669 -4.8223 2.3819
2.0488 -4.7824 2.3819
2.2299 -4.7356 2.3819
2.4100 -4.6817 2.3819
2.5888 -4.6209 2.3819
2.7659 -4.5531 2.3819
2.9412 -4.4783 2.3819
3.1142 -4.3966 2.3819
3.2847 -4.3078 2.3819
3.4523 -4.2122 2.3819
3.6167 -4.1098 2.3819
3.7777 -4.0006 2.3819
3.9348 -3.8848 2.3819
4.0878 -3.7625 2.3819
4.2364 -3.6337 2.3819
4.3802 -3.4988 2.3819
4.5190 -3.3577 2.3819
4.6524 -3.2107 2.3819
4.7801 -3.0581 2.3819
4.9020 -2.8998 2.3819
5.0175 -2.7367 2.3819
5.1265 -2.5688 2.3819
5.2289 -2.3954 2.3819
5.3242 -2.2180 2.3819
5.4123 -2.0364 2.3819
5.4930 -1.8511 2.3819
5.5660 -1.6622 2.3819
5.6312 -1.4703 2.3819
5.6885 -1.2755 2.3819
5.7376 -1.0783 2.3819
5.7785 -0.8790 2.3819
5.8110 -0.6781 2.3819
5.8351 -0.4759 2.3819
5.8507 -0.2727 2.3819
5.8577 -0.0691 2.3819
5.8563 0.1347 2.3819
5.8462 0.3382 2.3819
5.8277 0.5411 2.3819
5.8007 0.7429 2.3819
5.7653 0.9436 2.3819
5.7215 1.1418 2.3819
5.6695 1.3382 2.3819
5.6095 1.5320 2.3819
5.5416 1.7229 2.3819
5.4659 1.9105 2.3819
5.3827 2.0946 2.3819
5.2921 2.2747 2.3819
5.1944 2.4506 2.3819
5.0897 2.6220 2.3819
4.9784 2.7885 2.3819
4.8607 2.9500 2.3819
4.7369 3.1062 2.3819
4.6072 3.2569 2.3819
5.1658 -1.7224 2.3819
5.2332 -1.5449 2.3819
5.2932 -1.3646 2.3819
5.3459 -1.1818 2.3819
5.3909 -0.9967 2.3819
5.4283 -0.8098 2.3819
5.4580 -0.6213 2.3819
5.4797 -0.4317 2.3819
5.4936 -0.2413 2.3819
5.4996 -0.0505 2.3819
5.4976 0.1405 2.3819
5.4878 0.3312 2.3819
5.4699 0.5212 2.3819
5.4443 0.7103 2.3819
5.4108 0.8980 2.3819
5.3696 1.0840 2.3819
5.3207 1.2680 2.3819
5.2644 1.4496 2.3819
5.2007 1.6285 2.3819
5.1299 1.8044 2.3819
5.0519 1.9769 2.3819
4.9672 2.1459 2.3819
4.8757 2.3109 2.3819
4.7779 2.4717 2.3819
4.6738 2.6281 2.3819
4.5638 2.7799 2.3819
4.4480 2.9267 2.3819
4.3267 3.0683 2.3819
4.2002 3.2046 2.3819
4.0689 3.3355 2.3819
3.9328 3.4606 2.3819
3.7924 3.5799 2.3819
3.6479 3.6932 2.3819
3.4995 3.8004 2.3819
3.3477 3.9014 2.3819
3.1927 3.9961 2.3819
3.0347 4.0844 2.3819
2.8741 4.1663 2.3819
2.7111 4.2417 2.3819
0.9417 1.5943 0.8810
0.8841 1.6249 0.8851
0.8255 1.6535 0.8893
0.7659 1.6799 0.8936
0.7053 1.7041 0.8979
0.6440 1.7262 0.9023
0.5818 1.7460 0.9067
0.5190 1.7636 0.9111
0.4556 1.7788 0.9156
0.3917 1.7918 0.9202
0.3274 1.8025 0.9247
0.2627 1.8108 0.9293
0.1977 1.8168 0.9339
0.1326 1.8204 0.9385
0.0674 1.8217 0.9431
0.0021 1.8207 0.9477
-0.0630 1.8172 0.9523
-0.1280 1.8114 0.9568
-0.1927 1.8033 0.9614
-0.2571 1.7929 0.9659
-0.3211 1.7801 0.9703
-0.3846 1.7650 0.9748
-0.4475 1.7476 0.9792
-0.5097 1.7280 0.9835
-0.5712 1.7061 0.9878
-0.6319 1.6821 0.9920
-0.6916 1.6558 0.9961
-0.7504 1.6275 1.0002
-0.8081 1.5970 1.0042
-2.0431 3.6964 2.3819
-2.1657 3.6011 2.3819
-2.2846 3.5022 2.3819
-2.3997 3.3998 2.3819
-2.5110 3.2941 2.3819
-2.6183 3.1853 2.3819
-2.7216 3.0734 2.3819
-2.8208 2.9587 2.3819
-2.9160 2.8412 2.3819
-3.0069 2.7210 2.3819
-3.0937 2.5984 2.3819
-3.1762 2.4734 2.3819
-3.2544 2.3462 2.3819
-3.3282 2.2169 2.3819
-3.3977 2.0856 2.3819
-3.4628 1.9526 2.3819
-3.5234 1.8178 2.3819
-3.5796 1.6814 2.3819
-3.6313 1.5436 2.3819
-3.6784 1.4045 2.3819
-3.7211 1.2642 2.3819
-3.7592 1.1228 2.3819
-3.7927 0.9804 2.3819
-3.8217 0.8372 2.3819
-3.8460 0.6933 2.3819
-3.8658 0.5489 2.3819
-3.8810 0.4040 2.3819
-3.8915 0.2587 2.3819
-3.8975 0.1132 2.3819
-3.8988 -0.0323 2.3819
-3.8956 -0.1779 2.3819
-3.8877 -0.3233 2.3819
-3.8752 -0.4684 2.3819
-3.8581 -0.6132 2.3819
-3.8363 -0.7574 2.3819
-3.8100 -0.9010 2.3819
-3.7791 -1.0439 2.3819
-3.7437 -1.1859 2.3819
-3.7037 -1.3269 2.3819
-3.6591 -1.4668 2.3819
-3.6100 -1.6054 2.3819
-3.5564 -1.7427 2.3819
-3.4983 -1.8784 2.3819
-3.4358 -2.0126 2.3819
-3.3689 -2.1449 2.3819
-3.2975 -2.2754 2.3819
-3.2218 -2.4039 2.3819
-3.1417 -2.5303 2.3819
-3.0574 -2.6543 2.3819
-2.9688 -2.7760 2.3819
-2.8760 -2.8951 2.3819
-2.7791 -3.0115 2.3819
-2.6780 -3.1251 2.3819
-2.5730 -3.2358 2.3819
-2.4639 -3.3434 2.3819
-2.3509 -3.4477 2.3819
-2.2341 -3.5487 2.3819
-2.1135 -3.6461 2.3819
-1.9893 -3.7399 2.3819
-1.8614 -3.8299 2.3819
-1.7301 -3.9160 2.3819
-1.5953 -3.9980 2.3819
-1.4572 -4.0758 2.3819
-1.3160 -4.1493 2.3819
-1.1716 -4.2182 2.3819
-1.0244 -4.2825 2.3819
-0.8742 -4.3421 2.3819
-0.7215 -4.3967 2.3819
-0.5661 -4.4463 2.3819
-0.4084 -4.4908 2.3819
-0.2484 -4.5299 2.3819
-0.0864 -4.5636 2.3819
0.0775 -4.5918 2.3819
0.2431 -4.6143 2.3819
0.4102 -4.6311 2.3819
0.5786 -4.6419 2.3819
0.7482 -4.6468 2.3819
0.9186 -4.6457 2.3819
1.0898 -4.6383 2.3819
1.2613 -4.6248 2.3819
1.4331 -4.6049 2.3819
1.6049 -4.5786 2.3819
1.7764 -4.5459 2.3819
1.9473 -4.5068 2.3819
2.1175 -4.4611 2.3819
2.2865 -4.4089 2.3819
2.4543 -4.3501 2.3819
2.6204 -4.2848 2.3819
2.7846 -4.2129 2.3819
2.9466 -4.1346 2.3819
3.1062 -4.0498 2.3819
3.2629 -3.9585 2.3819
3.4166 -3.8609 2.3819
3.5670 -3.7571 2.3819
3.7137 -3.6471 2.3819
3.8565 -3.5310 2.3819
3.9950 -3.4090 2.3819
4.1291 -3.2808 2.3819
4.2583 -3.1479 2.3819
4.3825 -3.0090 2.3819
4.5013 -2.8650 2.3819
4.6147 -2.7151 2.3819
4.7220 -2.5620 2.3819
4.8233 -2.4035 2.3819
4.9184 -2.2401 2.3819
5.0067 -2.0738 2.3819
5.0884 -1.9031 2.3819
5.1631 -1.7290 2.3819
5.2307 -1.5521 2.3819
5.2911 -1.3714 2.3819
5.3440 -1.1886 2.3819
5.3894 -1.0037 2.3819
5.4271 -0.8168 2.3819
5.4570 -0.6284 2.3819
5.4791 -0.4389 2.3819
5.4933 -0.2485 2.3819
5.4995 -0.0576 2.3819
5.4979 0.1333 2.3819
5.4883 0.3240 2.3819
5.4707 0.5141 2.3819
5.4454 0.7032 2.3819
5.4122 0.8910 2.3819
5.3712 1.0771 2.3819
5.3227 1.2611 2.3819
5.2667 1.4428 2.3819
5.2033 1.6218 2.3819
5.1326 1.7979 2.3819
5.0550 1.9705 2.3819
4.9705 2.1397 2.3819
4.8793 2.3048 2.3819
4.7816 2.4658 2.3819
4.6778 2.6224 2.3819
4.5680 2.7743 2.3819
4.4524 2.9212 2.3819
4.3313 3.0631 2.3819
4.2051 3.1997 2.3819
4.0739 3.3307 2.3819
3.9380 3.4561 2.3819
3.7977 3.5755 2.3819
3.6533 3.6890 2.3819
3.5051 3.7965 2.3819
3.3534 3.8977 2.3819
3.1985 3.9926 2.3819
3.0406 4.0812 2.3819
2.8801 4.1634 2.3819
2.7173 4.2390 2.3819
0.9438 1.5931 0.8808
0.8863 1.6238 0.8849
0.8277 1.6525 0.8891
0.7681 1.6789 0.8934
0.7076 1.7033 0.8977
0.6463 1.7254 0.9021
0.5842 1.7453 0.9065
0.5214 1.7629 0.9110
0.4580 1.7783 0.9155
0.3941 1.7914 0.9200
0.3298 1.8021 0.9246
0.2651 1.8105 0.9291
0.2001 1.8166 0.9337
0.1350 1.8204 0.9383
0.0698 1.8217 0.9429
0.0046 1.8207 0.9475
-0.0606 1.8174 0.9521
-0.1256 1.8117 0.9566
-0.1903 1.8037 0.9612
-0.2547 1.7933 0.9657
-0.3187 1.7806 0.9702
-0.3822 1.7656 0.9746
-0.4452 1.7483 0.9790
-0.5074 1.7288 0.9833
-0.5689 1.7070 0.9876
-0.6296 1.6830 0.9918
-0.6894 1.6569 0.9960
-0.7482 1.6286 1.0001
-0.8060 1.5981 1.0041
-2.0384 3.6999 2.3819
-2.1612 3.6047 2.3819
-2.2802 3.5059 2.3819
-2.3955 3.4037 2.3819
-2.5069 3.2982 2.3819
-2.6143 3.1894 2.3819
-2.7178 3.0777 2.3819
-2.8172 2.9630 2.3819
-2.9125 2.8456 2.3819
-3.0036 2.7256 2.3819
-3.0905 2.6030 2.3819
-3.1732 2.4781 2.3819
-3.2515 2.3510 2.3819
-3.3255 2.2218 2.3819
-3.3952 2.0906 2.3819
-3.4604 1.9576 2.3819
-3.5212 1.8228 2.3819
-3.5775 1.6865 2.3819
-3.6294 1.5488 2.3819
-3.6767 1.4097 2.3819
-3.7195 1.2694 2.3819
-3.7578 1.1280 2.3819
-3.7915 0.9857 2.3819
-3.8207 0.8426 2.3819
-3.8452 0.6987 2.3819
-3.8651 0.5543 2.3819
-3.8805 0.4094 2.3819
-3.8912 0.2641 2.3819
-3.8974 0.1187 2.3819
-3.8989 -0.0269 2.3819
-3.8958 -0.1724 2.3819
-3.8880 -0.3179 2.3819
-3.8757 -0.4630 2.3819
-3.8588 -0.6078 2.3819
-3.8372 -0.7520 2.3819
-3.8111 -0.8957 2.3819
-3.7804 -1.0386 2.3819
-3.7451 -1.1806 2.3819
-3.7052 -1.3217 2.3819
-3.6608 -1.4616 2.3819
-3.6119 -1.6003 2.3819
-3.5585 -1.7376 2.3819
-3.5006 -1.8734 2.3819
-3.4382 -2.0076 2.3819
-3.3714 -2.1400 2.3819
-3.3003 -2.2706 2.3819
-3.2247 -2.3992 2.3819
-3.1448 -2.5256 2.3819
-3.0606 -2.6497 2.3819
-2.9722 -2.7715 2.3819
-2.8796 -2.8907 2.3819
-2.7828 -3.0072 2.3819
-2.6819 -3.1209 2.3819
-2.5770 -3.2317 2.3819
-2.4680 -3.3394 2.3819
-2.3552 -3.4439 2.3819
-2.2386 -3.5450 2.3819
-2.1181 -3.6425 2.3819
-1.9940 -3.7365 2.3819
-1.8663 -3.8266 2.3819
-1.7351 -3.9129 2.3819
-1.6004 -3.9950 2.3819
-1.4625 -4.0730 2.3819
-1.3213 -4.1466 2.3819
-1.1771 -4.2157 2.3819
-1.0299 -4.2802 2.3819
-0.8799 -4.3399 2.3819
-0.7272 -4.3948 2.3819
-0.5720 -4.4446 2.3819
-0.4143 -4.4892 2.3819
-0.2545 -4.5285 2.3819
