ply
format ascii 1.0
element vertex 2178
property float32 x
property float32 y
property float32 z
end_header
-2.9828 -8.0010 2.3911
-2.6944 -8.1042 2.3911
-2.4024 -8.1969 2.3911
-2.1071 -8.2789 2.3911
-1.8091 -8.3502 2.3911
-1.5086 -8.4107 2.3911
-1.2061 -8.4602 2.3911
-0.9019 -8.4987 2.3911
-0.5966 -8.5261 2.3911
-0.2904 -8.5425 2.3911
0.0161 -8.5477 2.3911
0.3227 -8.5418 2.3911
0.6288 -8.5248 2.3911
0.9342 -8.4966 2.3911
1.2383 -8.4574 2.3911
1.5407 -8.4072 2.3911
1.8412 -8.3461 2.3911
2.1392 -8.2741 2.3911
2.4343 -8.1913 2.3911
2.7263 -8.0979 2.3911
3.0146 -7.9940 2.3911
3.2989 -7.8797 2.3911
3.5789 -7.7551 2.3911
3.8541 -7.6206 2.3911
4.1243 -7.4761 2.3911
4.3889 -7.3220 2.3911
4.6478 -7.1584 2.3911
4.9005 -6.9856 2.3911
5.1467 -6.8037 2.3911
5.3862 -6.6131 2.3911
5.6185 -6.4140 2.3911
5.8434 -6.2067 2.3911
6.0606 -5.9914 2.3911
6.2005 -5.7047 2.3647
6.2130 -5.3175 2.2959
6.2385 -4.9629 2.2387
6.4105 -4.7344 2.2387
6.5740 -4.4999 2.2387
6.7289 -4.2597 2.2387
6.8750 -4.0141 2.2387
7.0121 -3.7635 2.2387
7.1400 -3.5082 2.2387
7.2585 -3.2485 2.2387
7.3676 -2.9848 2.2387
7.4671 -2.7175 2.2387
7.5568 -2.4468 2.2387
7.6367 -2.1732 2.2387
7.7066 -1.8970 2.2387
7.7665 -1.6186 2.2387
7.8164 -1.3382 2.2387
7.8561 -1.0564 2.2387
7.8856 -0.7734 2.2387
7.9050 -0.4897 2.2387
7.9141 -0.2056 2.2387
7.9130 0.0786 2.2387
7.9017 0.3624 2.2387
7.8803 0.6456 2.2387
7.8487 0.9276 2.2387
7.8070 1.2083 2.2387
7.7553 1.4871 2.2387
7.6937 1.7639 2.2387
7.6222 2.0381 2.2387
7.5409 2.3095 2.2387
7.4501 2.5777 2.2387
7.3497 2.8424 2.2387
7.2400 3.1031 2.2387
7.1211 3.3598 2.2387
6.9931 3.6119 2.2387
6.8563 3.8592 2.2387
6.7107 4.1014 2.2387
6.5566 4.3381 2.2387
6.3943 4.5691 2.2387
6.2265 4.7964 2.2397
6.2039 5.1441 2.2974
6.1910 5.5204 2.3654
6.0521 5.8002 2.3911
5.8380 6.0116 2.3911
5.6166 6.2155 2.3911
5.3881 6.4113 2.3911
5.1528 6.5988 2.3911
4.9111 6.7777 2.3911
4.6632 6.9479 2.3911
4.4095 7.1092 2.3911
4.1503 7.2613 2.3911
3.8859 7.4040 2.3911
3.6167 7.5372 2.3911
3.3429 7.6607 2.3911
3.0649 7.7744 2.3911
2.7832 7.8781 2.3911
2.4980 7.9717 2.3911
0.8850 3.2262 0.9577
0.7686 3.2562 0.9579
0.6512 3.2821 0.9581
0.5329 3.3037 0.9583
0.4139 3.3210 0.9585
0.2943 3.3340 0.9586
0.1744 3.3427 0.9588
0.0542 3.3470 0.9589
-0.0661 3.3470 0.9589
-0.1863 3.3426 0.9590
-0.3063 3.3338 0.9590
-0.4259 3.3208 0.9590
-0.5450 3.3034 0.9590
-0.6633 3.2817 0.9590
-0.7808 3.2558 0.9589
-0.8972 3.2256 0.9588
-2.5253 7.9591 2.3911
-2.8099 7.8641 2.3911
-3.0910 7.7591 2.3911
-3.3683 7.6440 2.3911
-3.6413 7.5192 2.3911
-3.9097 7.3848 2.3911
-4.1732 7.2409 2.3911
-4.4315 7.0876 2.3911
-4.6842 6.9253 2.3911
-4.9311 6.7540 2.3911
-5.1717 6.5741 2.3911
-5.4059 6.3856 2.3911
-5.6332 6.1889 2.3911
-5.8534 5.9842 2.3911
-6.0663 5.7717 2.3911
-6.2715 5.5514 2.3911
-6.4689 5.3242 2.3911
-6.6580 5.0903 2.3911
-6.8388 4.8494 2.3911
-7.0109 4.6022 2.3911
-7.1741 4.3489 2.3911
-7.3282 4.0899 2.3911
-7.4731 3.8255 2.3911
-7.6084 3.5559 2.3911
-7.7341 3.2816 2.3911
-7.8500 3.0029 2.3911
-7.9558 2.7202 2.3911
-8.0516 2.4337 2.3911
-8.1370 2.1439 2.3911
-8.2121 1.8511 2.3911
-8.2766 1.5557 2.3911
-8.3306 1.2580 2.3911
-8.3739 0.9585 2.3911
-8.4064 0.6576 2.3911
-8.4282 0.3555 2.3911
-8.4391 0.0527 2.3911
-8.4391 -0.2504 2.3911
-8.4283 -0.5534 2.3911
-8.4066 -0.8559 2.3911
-8.3740 -1.1576 2.3911
-8.3306 -1.4581 2.3911
-8.2764 -1.7569 2.3911
-8.2115 -2.0536 2.3911
-8.1359 -2.3480 2.3911
-8.0497 -2.6396 2.3911
-7.9531 -2.9280 2.3911
-7.8461 -3.2128 2.3911
-7.7289 -3.4937 2.3911
-7.6015 -3.7703 2.3911
-7.4643 -4.0422 2.3911
-7.3172 -4.3091 2.3911
-7.1606 -4.5706 2.3911
-6.9946 -4.8264 2.3911
-6.8194 -5.0761 2.3911
-6.6353 -5.3194 2.3911
-6.4424 -5.5560 2.3911
-6.2410 -5.7855 2.3911
-6.0314 -6.0077 2.3911
-5.8139 -6.2221 2.3911
-5.5886 -6.4287 2.3911
-5.3560 -6.6270 2.3911
-5.1163 -6.8168 2.3911
-4.8698 -6.9979 2.3911
-4.6168 -7.1699 2.3911
-4.3578 -7.3328 2.3911
-4.0929 -7.4861 2.3911
-3.8226 -7.6298 2.3911
-3.5472 -7.7637 2.3911
-3.2671 -7.8875 2.3911
-2.9826 -8.0010 2.3911
-2.6942 -8.1042 2.3911
-2.4022 -8.1969 2.3911
-2.1069 -8.2790 2.3911
-1.8089 -8.3503 2.3911
-1.5084 -8.4107 2.3911
-1.2059 -8.4602 2.3911
-0.9017 -8.4987 2.3911
-0.5964 -8.5261 2.3911
-0.2902 -8.5425 2.3911
0.0147 -7.8609 2.3911
0.2966 -7.8555 2.3911
0.5781 -7.8398 2.3911
0.8589 -7.8139 2.3911
1.1385 -7.7779 2.3911
1.4167 -7.7318 2.3911
1.6930 -7.6756 2.3911
1.9670 -7.6094 2.3911
2.2385 -7.5334 2.3911
2.5070 -7.4475 2.3911
2.7721 -7.3520 2.3911
3.0336 -7.2470 2.3911
3.2911 -7.1326 2.3911
3.5443 -7.0089 2.3911
3.7928 -6.8761 2.3911
4.0362 -6.7345 2.3911
4.2744 -6.5841 2.3911
4.5069 -6.4253 2.3911
4.7334 -6.2582 2.3911
4.9537 -6.0830 2.3911
5.1675 -5.9000 2.3911
5.3745 -5.7094 2.3911
5.5743 -5.5115 2.3911
5.7669 -5.3066 2.3911
5.9519 -5.0949 2.3911
6.1290 -4.8767 2.3911
6.2015 -4.5809 2.3545
6.2114 -4.2525 2.2995
6.2229 -3.9401 2.2507
6.3245 -3.6934 2.2387
6.4508 -3.4630 2.2387
6.5687 -3.2282 2.2387
6.6779 -2.9894 2.2387
6.7785 -2.7469 2.2387
6.8702 -2.5010 2.2387
6.9529 -2.2520 2.2387
7.0266 -2.0003 2.2387
7.0912 -1.7462 2.2387
7.1466 -1.4901 2.2387
7.1927 -1.2322 2.2387
7.2294 -0.9729 2.2387
7.2569 -0.7125 2.2387
7.2749 -0.4514 2.2387
7.2835 -0.1899 2.2387
7.2828 0.0716 2.2387
7.2726 0.3329 2.2387
7.2531 0.5935 2.2387
7.2242 0.8531 2.2387
7.1861 1.1115 2.2387
7.1388 1.3682 2.2387
7.0822 1.6229 2.2387
7.0167 1.8754 2.2387
6.9421 2.1253 2.2387
6.8587 2.3723 2.2387
6.7665 2.6160 2.2387
6.6657 2.8562 2.2387
6.5564 3.0926 2.2387
6.4388 3.3248 2.2387
6.3129 3.5524 2.2387
6.2153 3.7968 2.2518
6.2042 4.1041 2.3006
6.1939 4.4251 2.3550
6.1215 4.7144 2.3911
5.9463 4.9295 2.3911
5.7635 5.1384 2.3911
5.5736 5.3404 2.3911
5.3765 5.5355 2.3911
5.1727 5.7234 2.3911
4.9624 5.9039 2.3911
4.7459 6.0767 2.3911
4.5234 6.2417 2.3911
4.2952 6.3986 2.3911
4.0616 6.5472 2.3911
3.8229 6.6874 2.3911
3.5794 6.8185 2.3911
3.3315 6.9417 2.3911
3.0793 7.0556 2.3911
2.8234 7.1604 2.3911
2.5639 7.2561 2.3911
0.9201 2.9359 0.9561
0.8142 2.9674 0.9564
0.7071 2.9951 0.9566
0.5991 3.0188 0.9568
0.4903 3.0387 0.9569
0.3808 3.0546 0.9571
0.2708 3.0665 0.9572
0.1605 3.0745 0.9573
0.0499 3.0784 0.9574
-0.0607 3.0784 0.9575
-0.1713 3.0743 0.9576
-0.2817 3.0663 0.9576
-0.3917 3.0543 0.9576
-0.5012 3.0383 0.9576
-0.6100 3.0183 0.9576
-0.7181 2.9945 0.9575
-0.8252 2.9667 0.9574
-2.3260 7.3312 2.3911
-2.5882 7.2436 2.3911
-2.8471 7.1467 2.3911
-3.1024 7.0407 2.3911
-3.3539 6.9257 2.3911
-3.6011 6.8018 2.3911
-3.8438 6.6691 2.3911
-4.0816 6.5279 2.3911
-4.3144 6.3783 2.3911
-4.5417 6.2204 2.3911
-4.7632 6.0546 2.3911
-4.9788 5.8809 2.3911
-5.1881 5.6996 2.3911
-5.3909 5.5109 2.3911
-5.5868 5.3151 2.3911
-5.7757 5.1124 2.3911
-5.9573 4.9033 2.3911
-6.1314 4.6874 2.3911
-6.2977 4.4652 2.3911
-6.4560 4.2377 2.3911
-6.6061 4.0043 2.3911
-6.7479 3.7657 2.3911
-6.8811 3.5221 2.3911
-7.0056 3.2738 2.3911
-7.1211 3.0212 2.3911
-7.2276 2.7645 2.3911
-7.3249 2.5040 2.3911
-7.4128 2.2402 2.3911
-7.4912 1.9734 2.3911
-7.5601 1.7037 2.3911
-7.6193 1.4317 2.3911
-7.6688 1.1577 2.3911
-7.7084 0.8820 2.3911
-7.7381 0.6049 2.3911
-7.7579 0.3268 2.3911
-7.7677 0.0481 2.3911
-7.7675 -0.2308 2.3911
-7.7573 -0.5097 2.3911
-7.7371 -0.7882 2.3911
-7.7069 -1.0658 2.3911
-7.6667 -1.3423 2.3911
-7.6166 -1.6172 2.3911
-7.5566 -1.8903 2.3911
-7.4868 -2.1611 2.3911
-7.4073 -2.4293 2.3911
-7.3182 -2.6946 2.3911
-7.2195 -2.9567 2.3911
-7.1114 -3.2150 2.3911
-6.9941 -3.4694 2.3911
-6.8676 -3.7195 2.3911
-6.7321 -3.9650 2.3911
-6.5879 -4.2055 2.3911
-6.4350 -4.4406 2.3911
-6.2736 -4.6702 2.3911
-6.1041 -4.8939 2.3911
-5.9265 -5.1114 2.3911
-5.7411 -5.3224 2.3911
-5.5482 -5.5265 2.3911
-5.3479 -5.7238 2.3911
-5.1406 -5.9137 2.3911
-4.9265 -6.0960 2.3911
-4.7059 -6.2704 2.3911
-4.4791 -6.4368 2.3911
-4.2464 -6.5950 2.3911
-4.0081 -6.7446 2.3911
-3.7644 -6.8855 2.3911
-3.5157 -7.0176 2.3911
-3.2624 -7.1406 2.3911
-3.0048 -7.2543 2.3911
-2.7431 -7.3587 2.3911
-2.4778 -7.4535 2.3911
-2.2092 -7.5387 2.3911
-1.9377 -7.6141 2.3911
-1.6636 -7.6796 2.3911
-1.3873 -7.7351 2.3911
-1.1091 -7.7806 2.3911
-0.8294 -7.8159 2.3911
-0.5486 -7.8411 2.3911
-0.2670 -7.8561 2.3911
0.0149 -7.8609 2.3911
0.2968 -7.8554 2.3911
0.5783 -7.8398 2.3911
0.8591 -7.8139 2.3911
1.1387 -7.7779 2.3911
1.4169 -7.7318 2.3911
1.6932 -7.6756 2.3911
1.9672 -7.6094 2.3911
2.2386 -7.5333 2.3911
2.5071 -7.4475 2.3911
2.7723 -7.3520 2.3911
3.0338 -7.2469 2.3911
3.2913 -7.1325 2.3911
3.5445 -7.0088 2.3911
3.7929 -6.8760 2.3911
4.0364 -6.7344 2.3911
4.2745 -6.5840 2.3911
4.5070 -6.4252 2.3911
4.7336 -6.2581 2.3911
4.9539 -6.0829 2.3911
5.1676 -5.8999 2.3911
5.3746 -5.7093 2.3911
5.5745 -5.5114 2.3911
5.7670 -5.3065 2.3911
5.9520 -5.0947 2.3911
6.1291 -4.8765 2.3911
6.2015 -4.5806 2.3544
6.2114 -4.2522 2.2995
6.2229 -3.9399 2.2506
6.3246 -3.6933 2.2387
6.4509 -3.4628 2.2387
6.5687 -3.2281 2.2387
6.6780 -2.9892 2.2387
6.7785 -2.7467 2.2387
6.8702 -2.5008 2.2387
6.9530 -2.2519 2.2387
7.0267 -2.0002 2.2387
7.0913 -1.7461 2.2387
7.1466 -1.4899 2.2387
7.1927 -1.2320 2.2387
7.2295 -0.9727 2.2387
7.2569 -0.7123 2.2387
7.2749 -0.4512 2.2387
7.2835 -0.1897 2.2387
7.2828 0.0718 2.2387
7.2726 0.3330 2.2387
7.2531 0.5936 2.2387
7.2242 0.8533 2.2387
7.1861 1.1116 2.2387
7.1387 1.3683 2.2387
7.0822 1.6231 2.2387
7.0166 1.8756 2.2387
6.9421 2.1255 2.2387
6.8586 2.3724 2.2387
6.7664 2.6162 2.2387
6.6656 2.8564 2.2387
6.5563 3.0927 2.2387
6.4387 3.3250 2.2387
6.3129 3.5526 2.2387
6.2152 3.7997 2.2519
6.2042 4.1044 2.3006
6.1939 4.4253 2.3550
6.1214 4.7145 2.3911
5.9462 4.9298 2.3911
5.7634 5.1385 2.3911
5.5734 5.3405 2.3911
5.3764 5.5356 2.3911
5.1726 5.7235 2.3911
4.9623 5.9040 2.3911
4.7457 6.0768 2.3911
4.5232 6.2418 2.3911
4.2950 6.3986 2.3911
4.0614 6.5473 2.3911
3.8227 6.6874 2.3911
3.5793 6.8189 2.3911
3.3313 6.9418 2.3911
3.0792 7.0556 2.3911
2.8232 7.1605 2.3911
2.5637 7.2561 2.3911
0.9201 2.9359 0.9561
0.8141 2.9674 0.9564
0.7070 2.9951 0.9566
0.5990 3.0188 0.9568
0.4902 3.0387 0.9569
0.3807 3.0546 0.9571
0.2708 3.0665 0.9572
0.1604 3.0745 0.9573
0.0498 3.0784 0.9574
-0.0608 3.0784 0.9575
-0.1714 3.0743 0.9576
-0.2817 3.0663 0.9576
-0.3918 3.0543 0.9576
-0.5012 3.0383 0.9576
-0.6101 3.0183 0.9576
-0.7182 2.9945 0.9575
-0.8253 2.9667 0.9574
-2.3262 7.3311 2.3911
-2.5884 7.2435 2.3911
-2.8473 7.1467 2.3911
-3.1026 7.0407 2.3911
-3.3540 6.9256 2.3911
-3.6013 6.8017 2.3911
-3.8439 6.6690 2.3911
-4.0818 6.5278 2.3911
-4.3145 6.3782 2.3911
-4.5418 6.2203 2.3911
-4.7634 6.0545 2.3911
-4.9789 5.8808 2.3911
-5.1882 5.6995 2.3911
-5.3910 5.5108 2.3911
-5.5869 5.3150 2.3911
-5.7758 5.1123 2.3911
-5.9574 4.9030 2.3911
-6.1315 4.6870 2.3911
-6.2978 4.4652 2.3911
-6.4560 4.2366 2.3911
-6.6062 4.0041 2.3911
-6.7480 3.7655 2.3911
-6.8812 3.5219 2.3911
-7.0056 3.2736 2.3911
-7.1212 3.0210 2.3911
-7.2277 2.7643 2.3911
-7.3249 2.5039 2.3911
-7.4128 2.2400 2.3911
-7.4913 1.9732 2.3911
-7.5602 1.7036 2.3911
-7.6194 1.4316 2.3911
-7.6688 1.1575 2.3911
-7.7084 0.8818 2.3911
-7.7381 0.6047 2.3911
-7.7579 0.3266 2.3911
-7.7677 0.0479 2.3911
-7.7675 -0.2310 2.3911
-7.7573 -0.5099 2.3911
-7.7371 -0.7883 2.3911
-7.7069 -1.0660 2.3911
-7.6667 -1.3424 2.3911
-7.6165 -1.6174 2.3911
-7.5566 -1.8905 2.3911
-7.4868 -2.1613 2.3911
-7.4073 -2.4295 2.3911
-7.3181 -2.6948 2.3911
-7.2194 -2.9568 2.3911
-7.1114 -3.2152 2.3911
-6.9940 -3.4696 2.3911
-6.8675 -3.7197 2.3911
-6.7320 -3.9651 2.3911
-6.5878 -4.2056 2.3911
-6.4348 -4.4408 2.3911
-6.2735 -4.6704 2.3911
-6.1039 -4.8941 2.3911
-5.9263 -5.1116 2.3911
-5.7410 -5.3226 2.3911
-5.5480 -5.5267 2.3911
-5.3478 -5.7240 2.3911
-5.1405 -5.9138 2.3911
-4.9264 -6.0961 2.3911
-4.7058 -6.2705 2.3911
-4.4790 -6.4370 2.3911
-4.2463 -6.5951 2.3911
-4.0079 -6.7447 2.3911
-3.7642 -6.8856 2.3911
-3.5156 -7.0177 2.3911
-3.2623 -7.1407 2.3911
-3.0046 -7.2544 2.3911
-2.7430 -7.3588 2.3911
-2.4777 -7.4536 2.3911
-2.2091 -7.5387 2.3911
-1.9375 -7.6141 2.3911
-1.6634 -7.6796 2.3911
-1.3871 -7.7351 2.3911
-1.1089 -7.7806 2.3911
-0.8292 -7.8159 2.3911
-0.5484 -7.8411 2.3911
-0.2668 -7.8561 2.3911
0.0136 -7.2688 2.3911
0.2743 -7.2637 2.3911
0.5346 -7.2493 2.3911
0.7942 -7.2254 2.3911
1.0527 -7.1921 2.3911
1.3099 -7.1494 2.3911
1.5654 -7.0975 2.3911
1.8188 -7.0364 2.3911
2.0698 -6.9661 2.3911
2.3180 -6.8868 2.3911
2.5633 -6.7985 2.3911
2.8051 -6.7015 2.3911
3.0432 -6.5957 2.3911
3.2773 -6.4814 2.3911
3.5071 -6.3587 2.3911
3.7323 -6.2278 2.3911
3.9525 -6.0889 2.3911
4.1676 -5.9421 2.3911
4.3771 -5.7876 2.3911
4.5809 -5.6257 2.3911
4.7787 -5.4566 2.3911
4.9702 -5.2804 2.3911
5.1551 -5.0975 2.3911
5.3333 -4.9081 2.3911
5.5044 -4.7124 2.3911
5.6684 -4.5107 2.3911
5.8249 -4.3032 2.3911
5.9738 -4.0903 2.3911
6.1149 -3.8722 2.3911
6.1975 -3.6198 2.3718
6.2053 -3.3317 2.3283
6.2123 -3.0537 2.2891
6.2186 -2.7843 2.2538
6.2701 -2.5414 2.2387
6.3551 -2.3140 2.2387
6.4319 -2.0838 2.2387
6.5002 -1.8510 2.2387
6.5601 -1.6160 2.2387
6.6115 -1.3790 2.2387
6.6543 -1.1405 2.2387
6.6885 -0.9006 2.2387
6.7141 -0.6597 2.2387
6.7309 -0.4182 2.2387
6.7391 -0.1762 2.2387
6.7386 0.0657 2.2387
6.7294 0.3075 2.2387
6.7115 0.5486 2.2387
6.6850 0.7889 2.2387
6.6499 1.0280 2.2387
6.6062 1.2656 2.2387
6.5541 1.5014 2.2387
6.4936 1.7351 2.2387
6.4248 1.9664 2.2387
6.3477 2.1944 2.2387
6.2626 2.4207 2.2387
6.2139 2.6621 2.2549
6.2072 2.9272 2.2899
6.1997 3.2008 2.3289
6.1915 3.4837 2.3721
6.1090 3.7329 2.3911
5.9691 3.9480 2.3911
5.8216 4.1586 2.3911
5.6667 4.3636 2.3911
5.5046 4.5628 2.3911
5.3356 4.7563 2.3911
5.1598 4.9434 2.3911
4.9775 5.1241 2.3911
4.7889 5.2981 2.3911
4.5943 5.4653 2.3911
4.3939 5.6254 2.3911
4.1880 5.7783 2.3911
3.9768 5.9236 2.3911
3.7605 6.0613 2.3911
3.5396 6.1912 2.3911
3.3142 6.3131 2.3911
3.0847 6.4269 2.3911
2.8513 6.5324 2.3911
2.6143 6.6296 2.3911
2.3740 6.7182 2.3911
0.8510 2.7151 0.9550
0.7530 2.7442 0.9552
0.6540 2.7698 0.9554
0.5541 2.7917 0.9556
0.4534 2.8101 0.9558
0.3522 2.8247 0.9559
0.2505 2.8358 0.9560
0.1484 2.8431 0.9561
0.0462 2.8468 0.9562
-0.0562 2.8467 0.9563
-0.1584 2.8430 0.9563
-0.2605 2.8355 0.9564
-0.3622 2.8244 0.9564
-0.4635 2.8096 0.9564
-0.5641 2.7912 0.9563
-0.6641 2.7691 0.9563
-0.7631 2.7434 0.9562
-0.8612 2.7142 0.9561
-2.3966 6.7069 2.3911
-2.6363 6.6171 2.3911
-2.8727 6.5189 2.3911
-3.1055 6.4123 2.3911
-3.3344 6.2975 2.3911
-3.5591 6.1746 2.3911
-3.7793 6.0438 2.3911
-3.9947 5.9052 2.3911
-4.2051 5.7589 2.3911
-4.4102 5.6053 2.3911
-4.6097 5.4444 2.3911
-4.8034 5.2765 2.3911
-4.9910 5.1017 2.3911
-5.1724 4.9203 2.3911
-5.3471 4.7326 2.3911
-5.5152 4.5386 2.3911
-5.6762 4.3388 2.3911
-5.8300 4.1330 2.3911
-5.9765 3.9222 2.3911
-6.1153 3.7063 2.3911
-6.2464 3.4853 2.3911
-6.3696 3.2597 2.3911
-6.4846 3.0298 2.3911
-6.5914 2.7959 2.3911
-6.6898 2.5582 2.3911
-6.7797 2.3171 2.3911
-6.8609 2.0729 2.3911
-6.9334 1.8259 2.3911
-6.9969 1.5763 2.3911
-7.0515 1.3245 2.3911
-7.0971 1.0709 2.3911
-7.1336 0.8156 2.3911
-7.1609 0.5592 2.3911
-7.1790 0.3019 2.3911
-7.1879 0.0440 2.3911
-7.1875 -0.2142 2.3911
-7.1779 -0.4722 2.3911
-7.1590 -0.7298 2.3911
-7.1308 -0.9867 2.3911
-7.0935 -1.2425 2.3911
-7.0469 -1.4968 2.3911
-6.9912 -1.7494 2.3911
-6.9265 -1.9999 2.3911
-6.8527 -2.2480 2.3911
-6.7701 -2.4934 2.3911
-6.6786 -2.7357 2.3911
-6.5785 -2.9747 2.3911
-6.4698 -3.2099 2.3911
-6.3526 -3.4412 2.3911
-6.2272 -3.6681 2.3911
-6.0935 -3.8905 2.3911
-5.9520 -4.1079 2.3911
-5.8026 -4.3202 2.3911
-5.6457 -4.5269 2.3911
-5.4813 -4.7281 2.3911
-5.3097 -4.9231 2.3911
-5.1312 -5.1119 2.3911
-4.9459 -5.2941 2.3911
-4.7541 -5.4696 2.3911
-4.5560 -5.6381 2.3911
-4.3519 -5.7993 2.3911
-4.1421 -5.9531 2.3911
-3.9268 -6.0992 2.3911
-3.7063 -6.2375 2.3911
-3.4810 -6.3677 2.3911
-3.2510 -6.4898 2.3911
-3.0167 -6.6034 2.3911
-2.7784 -6.7085 2.3911
-2.5365 -6.8049 2.3911
-2.2911 -6.8925 2.3911
-2.0427 -6.9712 2.3911
-1.7917 -7.0408 2.3911
-1.5382 -7.1013 2.3911
-1.2827 -7.1526 2.3911
-1.0254 -7.1946 2.3911
-0.7668 -7.2273 2.3911
-0.5072 -7.2505 2.3911
-0.2469 -7.2644 2.3911
0.0138 -7.2688 2.3911
0.2744 -7.2638 2.3911
0.5347 -7.2493 2.3911
0.7944 -7.2254 2.3911
1.0529 -7.1921 2.3911
1.3101 -7.1494 2.3911
1.5655 -7.0975 2.3911
1.8189 -7.0363 2.3911
2.0699 -6.9660 2.3911
2.3182 -6.8867 2.3911
2.5634 -6.7985 2.3911
2.8052 -6.7014 2.3911
3.0434 -6.5956 2.3911
3.2775 -6.4813 2.3911
3.5073 -6.3586 2.3911
3.7324 -6.2277 2.3911
3.9527 -6.0888 2.3911
4.1677 -5.9420 2.3911
4.3773 -5.7875 2.3911
4.5811 -5.6256 2.3911
4.7788 -5.4565 2.3911
4.9703 -5.2803 2.3911
5.1552 -5.0974 2.3911
5.3334 -4.9080 2.3911
5.5046 -4.7123 2.3911
5.6685 -4.5105 2.3911
5.8250 -4.3031 2.3911
5.9739 -4.0902 2.3911
6.1149 -3.8721 2.3911
6.1975 -3.6196 2.3718
6.2053 -3.3315 2.3283
6.2123 -3.0534 2.2890
6.2186 -2.7841 2.2538
6.2702 -2.5412 2.2387
6.3552 -2.3139 2.2387
6.4319 -2.0836 2.2387
6.5002 -1.8508 2.2387
6.5601 -1.6158 2.2387
6.6115 -1.3789 2.2387
6.6543 -1.1403 2.2387
6.6885 -0.9004 2.2387
6.7141 -0.6596 2.2387
6.7309 -0.4180 2.2387
6.7391 -0.1761 2.2387
6.7386 0.0659 2.2387
6.7293 0.3076 2.2387
6.7115 0.5488 2.2387
6.6849 0.7891 2.2387
6.6498 1.0282 2.2387
6.6062 1.2657 2.2387
6.5541 1.5015 2.2387
6.4935 1.7353 2.2387
6.4247 1.9666 2.2387
6.3477 2.1950 2.2387
6.2625 2.4207 2.2387
6.2139 2.6624 2.2549
6.2072 2.9276 2.2900
6.1997 3.2011 2.3289
6.1915 3.4840 2.3722
6.1089 3.7327 2.3911
5.9690 3.9482 2.3911
5.8215 4.1587 2.3911
5.6666 4.3637 2.3911
5.5045 4.5630 2.3911
5.3355 4.7567 2.3911
5.1597 4.9435 2.3911
4.9774 5.1242 2.3911
4.7888 5.2983 2.3911
4.5942 5.4654 2.3911
4.3938 5.6256 2.3911
4.1878 5.7784 2.3911
3.9766 5.9237 2.3911
3.7604 6.0614 2.3911
3.5395 6.1913 2.3911
3.3141 6.3132 2.3911
3.0845 6.4270 2.3911
2.8511 6.5325 2.3911
2.6141 6.6296 2.3911
2.3739 6.7183 2.3911
0.8510 2.7151 0.9550
0.7529 2.7442 0.9552
0.6539 2.7698 0.9554
0.5540 2.7917 0.9556
0.4534 2.8101 0.9558
0.3521 2.8248 0.9559
0.2504 2.8358 0.9560
0.1484 2.8431 0.9561
0.0461 2.8468 0.9562
-0.0562 2.8467 0.9563
-0.1585 2.8430 0.9563
-0.2605 2.8355 0.9564
-0.3623 2.8244 0.9564
-0.4635 2.8096 0.9564
-0.5642 2.7911 0.9563
-0.6641 2.7691 0.9563
-0.7632 2.7434 0.9562
-0.8613 2.7142 0.9561
-2.3967 6.7068 2.3911
-2.6365 6.6171 2.3911
-2.8729 6.5188 2.3911
-3.1057 6.4122 2.3911
-3.3345 6.2974 2.3911
-3.5592 6.1745 2.3911
-3.7794 6.0437 2.3911
-3.9948 5.9051 2.3911
-4.2052 5.7588 2.3911
-4.4103 5.6052 2.3911
-4.6098 5.4443 2.3911
-4.8035 5.2764 2.3911
-4.9911 5.1016 2.3911
-5.1725 4.9202 2.3911
-5.3472 4.7324 2.3911
-5.5153 4.5385 2.3911
-5.6763 4.3387 2.3911
-5.8301 4.1330 2.3911
-5.9766 3.9220 2.3911
-6.1154 3.7059 2.3911
-6.2465 3.4851 2.3911
-6.3697 3.2597 2.3911
-6.4847 3.0297 2.3911
-6.5915 2.7958 2.3911
-6.6899 2.5581 2.3911
-6.7798 2.3170 2.3911
-6.8610 2.0728 2.3911
-6.9334 1.8257 2.3911
-6.9970 1.5761 2.3911
-7.0516 1.3243 2.3911
-7.0971 1.0707 2.3911
-7.1336 0.8155 2.3911
-7.1609 0.5590 2.3911
-7.1790 0.3017 2.3911
-7.1879 0.0438 2.3911
-7.1875 -0.2143 2.3911
-7.1779 -0.4724 2.3911
-7.1590 -0.7300 2.3911
-7.1308 -0.9869 2.3911
-7.0934 -1.2426 2.3911
-7.0469 -1.4970 2.3911
-6.9912 -1.7496 2.3911
-6.9264 -2.0001 2.3911
-6.8527 -2.2482 2.3911
-6.7700 -2.4936 2.3911
-6.6786 -2.7359 2.3911
-6.5784 -2.9748 2.3911
-6.4697 -3.2101 2.3911
-6.3525 -3.4413 2.3911
-6.2271 -3.6683 2.3911
-6.0935 -3.8906 2.3911
-5.9519 -4.1081 2.3911
-5.8025 -4.3203 2.3911
-5.6455 -4.5271 2.3911
-5.4812 -4.7282 2.3911
-5.3096 -4.9232 2.3911
-5.1310 -5.1120 2.3911
-4.9457 -5.2942 2.3911
-4.7539 -5.4697 2.3911
-4.5558 -5.6382 2.3911
-4.3518 -5.7994 2.3911
-4.1420 -5.9532 2.3911
-3.9267 -6.0993 2.3911
-3.7062 -6.2376 2.3911
-3.4808 -6.3678 2.3911
-3.2508 -6.4898 2.3911
-3.0165 -6.6035 2.3911
-2.7783 -6.7085 2.3911
-2.5363 -6.8050 2.3911
-2.2910 -6.8926 2.3911
-2.0426 -6.9712 2.3911
-1.7915 -7.0409 2.3911
-1.5380 -7.1014 2.3911
-1.2825 -7.1526 2.3911
-1.0253 -7.1946 2.3911
-0.7666 -7.2273 2.3911
-0.5070 -7.2506 2.3911
-0.2467 -7.2644 2.3911
0.0127 -6.7526 2.3911
0.2548 -6.7479 2.3911
0.4966 -6.7344 2.3911
0.7378 -6.7122 2.3911
0.9779 -6.6813 2.3911
1.2168 -6.6417 2.3911
1.4541 -6.5935 2.3911
1.6895 -6.5367 2.3911
1.9227 -6.4715 2.3911
2.1533 -6.3978 2.3911
2.3811 -6.3159 2.3911
2.6058 -6.2258 2.3911
2.8270 -6.1276 2.3911
3.0445 -6.0215 2.3911
3.2580 -5.9076 2.3911
3.4672 -5.7860 2.3911
3.6719 -5.6570 2.3911
3.8717 -5.5207 2.3911
4.0664 -5.3773 2.3911
4.2558 -5.2270 2.3911
4.4396 -5.0699 2.3911
4.6176 -4.9063 2.3911
4.7895 -4.7365 2.3911
4.9551 -4.5605 2.3911
5.1142 -4.3788 2.3911
5.2666 -4.1915 2.3911
5.4121 -3.9988 2.3911
5.5506 -3.8010 2.3911
5.6817 -3.5985 2.3911
5.8055 -3.3913 2.3911
5.9217 -3.1799 2.3911
6.0301 -2.9645 2.3911
6.1307 -2.7454 2.3911
6.1950 -2.5114 2.3803
6.2003 -2.2581 2.3504
6.2050 -2.0108 2.3241
6.2090 -1.7686 2.3011
6.2125 -1.5308 2.2813
6.2154 -1.2969 2.2646
6.2197 -1.0620 2.2515
6.2280 -0.8393 2.2429
6.2403 -0.6136 2.2387
6.2561 -0.3891 2.2387
6.2638 -0.1639 2.2387
6.2635 0.0607 2.2387
6.2551 0.2854 2.2387
6.2386 0.5096 2.2387
6.2265 0.7341 2.2432
6.2177 0.9630 2.2518
6.2132 1.1899 2.2650
6.2099 1.4221 2.2818
6.2061 1.6578 2.3015
6.2016 1.8977 2.3245
6.1966 2.1422 2.3507
6.1909 2.3924 2.3804
6.1264 2.6244 2.3911
6.0262 2.8415 2.3911
5.9184 3.0550 2.3911
5.8030 3.2647 2.3911
5.6802 3.4698 2.3911
5.5502 3.6705 2.3911
5.4132 3.8662 2.3911
5.2693 4.0568 2.3911
5.1187 4.2424 2.3911
4.9616 4.4223 2.3911
4.7982 4.5964 2.3911
4.6288 4.7646 2.3911
4.4535 4.9266 2.3911
4.2726 5.0821 2.3911
4.0863 5.2311 2.3911
3.8949 5.3727 2.3911
3.6985 5.5084 2.3911
3.4975 5.6363 2.3911
3.2920 5.7575 2.3911
3.0824 5.8710 2.3911
2.8690 5.9770 2.3911
2.6519 6.0751 2.3911
2.4315 6.1655 2.3911
0.8808 2.4922 0.9538
0.7907 2.5225 0.9540
0.6996 2.5495 0.9542
0.6076 2.5733 0.9544
0.5148 2.5936 0.9546
0.4213 2.6107 0.9547
0.3272 2.6243 0.9549
0.2327 2.6345 0.9550
0.1379 2.6413 0.9551
0.0429 2.6447 0.9552
-0.0522 2.6446 0.9552
-0.1472 2.6412 0.9553
-0.2420 2.6342 0.9553
-0.3365 2.6239 0.9553
-0.4306 2.6102 0.9553
-0.5241 2.5930 0.9552
-0.6170 2.5725 0.9552
-0.7090 2.5487 0.9551
-0.8001 2.5215 0.9551
-0.8902 2.4911 0.9549
-2.4520 6.1541 2.3911
-2.6719 6.0627 2.3911
-2.8884 5.9635 2.3911
-3.1012 5.8567 2.3911
-3.3102 5.7423 2.3911
-3.5149 5.6206 2.3911
-3.7152 5.4916 2.3911
-3.9109 5.3555 2.3911
-4.1015 5.2126 2.3911
-4.2870 5.0629 2.3911
-4.4671 4.9066 2.3911
-4.6416 4.7440 2.3911
-4.8101 4.5753 2.3911
-4.9726 4.4006 2.3911
-5.1288 4.2202 2.3911
-5.2784 4.0342 2.3911
-5.4214 3.8430 2.3911
-5.5575 3.6468 2.3911
-5.6865 3.4458 2.3911
-5.8083 3.2403 2.3911
-5.9227 3.0303 2.3911
-6.0295 2.8165 2.3911
-6.1287 2.5993 2.3911
-6.2201 2.3782 2.3911
-6.3035 2.1538 2.3911
-6.3788 1.9268 2.3911
-6.4461 1.6970 2.3911
-6.5050 1.4650 2.3911
-6.5556 1.2309 2.3911
-6.5979 0.9950 2.3911
-6.6316 0.7577 2.3911
-6.6569 0.5193 2.3911
-6.6736 0.2801 2.3911
-6.6816 0.0404 2.3911
-6.6811 -0.1996 2.3911
-6.6720 -0.4395 2.3911
-6.6543 -0.6789 2.3911
-6.6280 -0.9176 2.3911
-6.5931 -1.1554 2.3911
-6.5497 -1.3917 2.3911
-6.4977 -1.6265 2.3911
-6.4374 -1.8592 2.3911
-6.3687 -2.0898 2.3911
-6.2918 -2.3178 2.3911
-6.2066 -2.5429 2.3911
-6.1134 -2.7649 2.3911
-6.0123 -2.9835 2.3911
-5.9033 -3.1983 2.3911
-5.7865 -3.4092 2.3911
-5.6623 -3.6157 2.3911
-5.5306 -3.8177 2.3911
-5.3917 -4.0148 2.3911
-5.2458 -4.2069 2.3911
-5.0929 -4.3936 2.3911
-4.9334 -4.5748 2.3911
-4.7674 -4.7501 2.3911
-4.5952 -4.9193 2.3911
-4.4169 -5.0823 2.3911
-4.2328 -5.2387 2.3911
-4.0431 -5.3884 2.3911
-3.8482 -5.5312 2.3911
-3.6481 -5.6669 2.3911
-3.4432 -5.7953 2.3911
-3.2338 -5.9162 2.3911
-3.0201 -6.0295 2.3911
-2.8024 -6.1350 2.3911
-2.5810 -6.2325 2.3911
-2.3562 -6.3220 2.3911
-2.1283 -6.4034 2.3911
-1.8976 -6.4764 2.3911
-1.6643 -6.5410 2.3911
-1.4288 -6.5972 2.3911
-1.1915 -6.6448 2.3911
-0.9525 -6.6838 2.3911
-0.7123 -6.7141 2.3911
-0.4711 -6.7357 2.3911
-0.2293 -6.7485 2.3911
0.0128 -6.7526 2.3911
0.2550 -6.7479 2.3911
0.4968 -6.7344 2.3911
0.7379 -6.7122 2.3911
0.9781 -6.6813 2.3911
1.2170 -6.6417 2.3911
1.4543 -6.5935 2.3911
1.6897 -6.5367 2.3911
1.9228 -6.4714 2.3911
2.1535 -6.3978 2.3911
2.3813 -6.3159 2.3911
2.6059 -6.2257 2.3911
2.8272 -6.1275 2.3911
3.0447 -6.0214 2.3911
3.2582 -5.9075 2.3911
3.4674 -5.7860 2.3911
3.6720 -5.6569 2.3911
3.8718 -5.5206 2.3911
4.0666 -5.3772 2.3911
4.2559 -5.2269 2.3911
4.4397 -5.0698 2.3911
4.6177 -4.9062 2.3911
4.7896 -4.7363 2.3911
4.9552 -4.5604 2.3911
5.1143 -4.3787 2.3911
5.2667 -4.1913 2.3911
5.4122 -3.9986 2.3911
5.5506 -3.8009 2.3911
5.6818 -3.5983 2.3911
5.8056 -3.3912 2.3911
5.9217 -3.1798 2.3911
6.0302 -2.9644 2.3911
6.1307 -2.7453 2.3911
6.1950 -2.5113 2.3803
6.2003 -2.2580 2.3504
6.2050 -2.0106 2.3241
6.2090 -1.7684 2.3011
6.2125 -1.5306 2.2813
6.2154 -1.2967 2.2646
6.2197 -1.0619 2.2515
6.2280 -0.8396 2.2429
6.2403 -0.6135 2.2387
6.2561 -0.3889 2.2387
6.2638 -0.1645 2.2387
6.2635 0.0609 2.2387
6.2551 0.2854 2.2387
6.2386 0.5094 2.2387
6.2264 0.7349 2.2432
6.2177 0.9629 2.2518
6.2132 1.1900 2.2650
6.2099 1.4223 2.2818
6.2061 1.6580 2.3016
6.2016 1.8978 2.3245
6.1966 2.1424 2.3507
6.1909 2.3928 2.3804
6.1263 2.6244 2.3911
6.0262 2.8417 2.3911
5.9183 3.0552 2.3911
5.8029 3.2648 2.3911
5.6802 3.4700 2.3911
5.5502 3.6706 2.3911
5.4131 3.8664 2.3911
5.2692 4.0565 2.3911
5.1186 4.2425 2.3911
4.9615 4.4224 2.3911
4.7981 4.5965 2.3911
4.6287 4.7647 2.3911
4.4534 4.9267 2.3911
4.2725 5.0822 2.3911
4.0862 5.2311 2.3911
3.8947 5.3734 2.3911
3.6984 5.5082 2.3911
3.4973 5.6370 2.3911
3.2919 5.7576 2.3911
3.0823 5.8711 2.3911
2.8688 5.9768 2.3911
2.6518 6.0752 2.3911
2.4314 6.1655 2.3911
0.8807 2.4923 0.9538
0.7907 2.5225 0.9540
0.6996 2.5496 0.9542
0.6076 2.5733 0.9544
0.5147 2.5936 0.9546
0.4212 2.6107 0.9547
0.3272 2.6243 0.9549
0.2327 2.6345 0.9550
0.1379 2.6413 0.9551
0.0429 2.6447 0.9552
-0.0522 2.6446 0.9552
-0.1472 2.6412 0.9553
-0.2421 2.6342 0.9553
-0.3366 2.6239 0.9553
-0.4307 2.6101 0.9553
-0.5242 2.5930 0.9552
-0.6170 2.5725 0.9552
-0.7091 2.5487 0.9551
-0.8002 2.5215 0.9551
-0.8903 2.4911 0.9549
-2.4522 6.1540 2.3911
-2.6720 6.0626 2.3911
-2.8885 5.9634 2.3911
-3.1013 5.8566 2.3911
-3.3103 5.7423 2.3911
-3.5150 5.6205 2.3911
-3.7154 5.4915 2.3911
-3.9110 5.3554 2.3911
-4.1017 5.2125 2.3911
-4.2872 5.0628 2.3911
-4.4673 4.9065 2.3911
-4.6417 4.7439 2.3911
-4.8102 4.5751 2.3911
-4.9727 4.4004 2.3911
-5.1289 4.2200 2.3911
-5.2785 4.0341 2.3911
-5.4215 3.8429 2.3911
-5.5575 3.6467 2.3911
-5.6866 3.4457 2.3911
-5.8084 3.2401 2.3911
-5.9227 3.0302 2.3911
-6.0296 2.8164 2.3911
-6.1288 2.5989 2.3911
-6.2201 2.3780 2.3911
-6.3035 2.1534 2.3911
-6.3789 1.9266 2.3911
-6.4461 1.6969 2.3911
-6.5051 1.4648 2.3911
-6.5557 1.2307 2.3911
-6.5979 0.9948 2.3911
-6.6316 0.7576 2.3911
-6.6569 0.5192 2.3911
-6.6736 0.2800 2.3911
-6.6817 0.0402 2.3911
-6.6811 -0.1998 2.3911
-6.6720 -0.4396 2.3911
-6.6543 -0.6791 2.3911
-6.6279 -0.9178 2.3911
-6.5930 -1.1555 2.3911
-6.5496 -1.3919 2.3911
-6.4977 -1.6266 2.3911
-6.4374 -1.8594 2.3911
-6.3687 -2.0899 2.3911
-6.2917 -2.3179 2.3911
-6.2066 -2.5431 2.3911
-6.1134 -2.7651 2.3911
-6.0122 -2.9836 2.3911
-5.9032 -3.1985 2.3911
-5.7865 -3.4093 2.3911
-5.6622 -3.6158 2.3911
-5.5305 -3.8178 2.3911
-5.3916 -4.0150 2.3911
-5.2457 -4.2070 2.3911
-5.0928 -4.3938 2.3911
-4.9333 -4.5749 2.3911
-4.7673 -4.7502 2.3911
-4.5951 -4.9194 2.3911
-4.4168 -5.0824 2.3911
-4.2327 -5.2388 2.3911
-4.0430 -5.3885 2.3911
-3.8480 -5.5313 2.3911
-3.6480 -5.6670 2.3911
-3.4431 -5.7954 2.3911
-3.2337 -5.9163 2.3911
-3.0200 -6.0295 2.3911
-2.8023 -6.1350 2.3911
-2.5809 -6.2326 2.3911
-2.3561 -6.3221 2.3911
-2.1282 -6.4034 2.3911
-1.8974 -6.4764 2.3911
-1.6642 -6.5411 2.3911
-1.4287 -6.5972 2.3911
-1.1913 -6.6448 2.3911
-0.9523 -6.6838 2.3911
-0.7121 -6.7141 2.3911
-0.4709 -6.7357 2.3911
-0.2291 -6.7485 2.3911
0.0119 -6.2981 2.3911
0.2377 -6.2937 2.3911
0.4632 -6.2812 2.3911
0.6881 -6.2605 2.3911
0.9121 -6.2317 2.3911
1.1349 -6.1948 2.3911
1.3562 -6.1498 2.3911
1.5757 -6.0969 2.3911
1.7932 -6.0360 2.3911
2.0083 -5.9674 2.3911
2.2208 -5.8910 2.3911
2.4303 -5.8070 2.3911
2.6367 -5.7154 2.3911
2.8396 -5.6165 2.3911
3.0387 -5.5103 2.3911
3.2339 -5.3970 2.3911
3.4248 -5.2768 2.3911
3.6112 -5.1497 2.3911
3.7929 -5.0160 2.3911
3.9695 -4.8758 2.3911
4.1410 -4.7294 2.3911
4.3071 -4.5769 2.3911
4.4675 -4.4185 2.3911
4.6220 -4.2544 2.3911
4.7705 -4.0850 2.3911
4.9127 -3.9103 2.3911
5.0486 -3.7306 2.3911
5.1778 -3.5462 2.3911
5.3002 -3.3573 2.3911
5.4158 -3.1641 2.3911
5.5242 -2.9670 2.3911
5.6255 -2.7661 2.3911
5.7194 -2.5618 2.3911
5.8059 -2.3542 2.3911
5.8848 -2.1437 2.3911
5.9561 -1.9306 2.3911
6.0197 -1.7151 2.3911
6.0754 -1.4975 2.3911
6.1233 -1.2777 2.3911
6.1632 -1.0571 2.3911
6.1918 -0.8348 2.3899
6.1932 -0.6092 2.3812
6.1941 -0.3860 2.3755
6.1944 -0.1628 2.3726
6.1943 0.0593 2.3726
6.1935 0.2823 2.3755
6.1923 0.5055 2.3812
6.1905 0.7296 2.3899
6.1615 0.9515 2.3911
6.1214 1.1721 2.3911
6.0733 1.3905 2.3911
6.0175 1.6069 2.3911
5.9540 1.8214 2.3911
5.8829 2.0333 2.3911
5.8042 2.2425 2.3911
5.7181 2.4487 2.3911
5.6247 2.6517 2.3911
5.5242 2.8510 2.3911
5.4166 3.0468 2.3911
5.3021 3.2383 2.3911
5.1808 3.4256 2.3911
5.0530 3.6085 2.3911
4.9188 3.7866 2.3911
4.7783 3.9597 2.3911
4.6317 4.1278 2.3911
4.4793 4.2904 2.3911
4.3212 4.4474 2.3911
4.1576 4.5986 2.3911
3.9887 4.7439 2.3911
3.8149 4.8831 2.3911
3.6362 5.0159 2.3911
3.4529 5.1423 2.3911
3.2652 5.2620 2.3911
3.0735 5.3749 2.3911
2.8779 5.4808 2.3911
2.6786 5.5797 2.3911
2.4760 5.6715 2.3911
0.9046 2.2934 0.9527
0.8216 2.3247 0.9530
0.7376 2.3529 0.9532
0.6527 2.3781 0.9533
0.5668 2.4002 0.9535
0.4802 2.4192 0.9537
0.3930 2.4350 0.9538
0.3053 2.4477 0.9539
0.2171 2.4573 0.9540
0.1287 2.4636 0.9541
0.0400 2.4667 0.9542
-0.0486 2.4667 0.9543
-0.1373 2.4634 0.9543
-0.2257 2.4570 0.9543
-0.3139 2.4473 0.9543
-0.4016 2.4345 0.9543
-0.4889 2.4185 0.9543
-0.5755 2.3994 0.9543
-0.6613 2.3772 0.9542
-0.7463 2.3518 0.9541
-0.8304 2.3235 0.9540
-2.2894 5.7455 2.3911
-2.4946 5.6601 2.3911
-2.6967 5.5674 2.3911
-2.8955 5.4677 2.3911
-3.0905 5.3608 2.3911
-3.2816 5.2471 2.3911
-3.4686 5.1267 2.3911
-3.6512 4.9996 2.3911
-3.8292 4.8660 2.3911
-4.0024 4.7262 2.3911
-4.1704 4.5803 2.3911
-4.3332 4.4284 2.3911
-4.4905 4.2708 2.3911
-4.6421 4.1077 2.3911
-4.7879 3.9392 2.3911
-4.9275 3.7656 2.3911
-5.0609 3.5870 2.3911
-5.1878 3.4038 2.3911
-5.3082 3.2161 2.3911
-5.4218 3.0242 2.3911
-5.5285 2.8283 2.3911
-5.6281 2.6287 2.3911
-5.7206 2.4261 2.3911
-5.8057 2.2189 2.3911
-5.8835 2.0099 2.3911
-5.9537 1.7978 2.3911
-6.0163 1.5832 2.3911
-6.0713 1.3669 2.3911
-6.1184 1.1481 2.3911
-6.1577 0.9280 2.3911
-6.1890 0.7065 2.3911
-6.2125 0.4844 2.3911
-6.2279 0.2609 2.3911
-6.2353 0.0372 2.3911
-6.2347 -0.1867 2.3911
-6.2261 -0.4106 2.3911
-6.2094 -0.6340 2.3911
-6.1847 -0.8568 2.3911
-6.1520 -1.0785 2.3911
-6.1114 -1.2991 2.3911
-6.0629 -1.5177 2.3911
-6.0064 -1.7350 2.3911
-5.9422 -1.9504 2.3911
-5.8703 -2.1630 2.3911
-5.7907 -2.3730 2.3911
-5.7037 -2.5801 2.3911
-5.6092 -2.7840 2.3911
-5.5074 -2.9843 2.3911
-5.3984 -3.1810 2.3911
-5.2823 -3.3736 2.3911
-5.1594 -3.5620 2.3911
-5.0298 -3.7458 2.3911
-4.8935 -3.9249 2.3911
-4.7509 -4.0991 2.3911
-4.6020 -4.2680 2.3911
-4.4471 -4.4314 2.3911
-4.2863 -4.5892 2.3911
-4.1200 -4.7411 2.3911
-3.9482 -4.8870 2.3911
-3.7712 -5.0266 2.3911
-3.5893 -5.1597 2.3911
-3.4027 -5.2862 2.3911
-3.2115 -5.4059 2.3911
-3.0162 -5.5186 2.3911
-2.8168 -5.6242 2.3911
-2.6138 -5.7225 2.3911
-2.4072 -5.8135 2.3911
-2.1976 -5.8969 2.3911
-1.9850 -5.9727 2.3911
-1.7697 -6.0407 2.3911
-1.5522 -6.1010 2.3911
-1.3326 -6.1533 2.3911
-1.1112 -6.1977 2.3911
-0.8883 -6.2340 2.3911
-0.6643 -6.2622 2.3911
-0.4393 -6.2824 2.3911
-0.2138 -6.2943 2.3911
0.0120 -6.2981 2.3911
0.2378 -6.2937 2.3911
0.4633 -6.2812 2.3911
0.6882 -6.2605 2.3911
0.9122 -6.2317 2.3911
1.1350 -6.1947 2.3911
1.3563 -6.1498 2.3911
1.5759 -6.0968 2.3911
1.7933 -6.0360 2.3911
2.0085 -5.9673 2.3911
2.2209 -5.8910 2.3911
2.4305 -5.8069 2.3911
2.6368 -5.7154 2.3911
2.8397 -5.6165 2.3911
3.0388 -5.5103 2.3911
3.2340 -5.3970 2.3911
3.4249 -5.2767 2.3911
3.6113 -5.1496 2.3911
3.7930 -5.0159 2.3911
3.9696 -4.8757 2.3911
4.1411 -4.7293 2.3911
4.3072 -4.5768 2.3911
4.4676 -4.4184 2.3911
4.6221 -4.2544 2.3911
4.7706 -4.0849 2.3911
4.9128 -3.9102 2.3911
5.0486 -3.7305 2.3911
5.1779 -3.5461 2.3911
5.3003 -3.3572 2.3911
5.4158 -3.1640 2.3911
5.5243 -2.9669 2.3911
5.6256 -2.7660 2.3911
5.7195 -2.5616 2.3911
5.8060 -2.3541 2.3911
5.8849 -2.1436 2.3911
5.9562 -1.9305 2.3911
6.0197 -1.7149 2.3911
6.0755 -1.4974 2.3911
6.1233 -1.2780 2.3911
6.1632 -1.0571 2.3911
6.1918 -0.8344 2.3899
6.1932 -0.6093 2.3812
6.1941 -0.3854 2.3755
6.1944 -0.1629 2.3726
6.1943 0.0596 2.3726
6.1935 0.2820 2.3755
6.1923 0.5052 2.3812
6.1905 0.7299 2.3899
6.1615 0.9517 2.3911
6.1213 1.1721 2.3911
6.0733 1.3909 2.3911
6.0175 1.6070 2.3911
5.9540 1.8215 2.3911
5.8828 2.0334 2.3911
5.8041 2.2426 2.3911
5.7181 2.4488 2.3911
5.6247 2.6518 2.3911
5.5241 2.8512 2.3911
5.4165 3.0467 2.3911
5.3020 3.2384 2.3911
5.1808 3.4257 2.3911
5.0529 3.6086 2.3911
4.9187 3.7867 2.3911
4.7782 3.9598 2.3911
4.6316 4.1279 2.3911
4.4792 4.2905 2.3911
4.3210 4.4475 2.3911
4.1575 4.5987 2.3911
3.9886 4.7440 2.3911
3.8148 4.8831 2.3911
3.6361 5.0160 2.3911
3.4528 5.1420 2.3911
3.2651 5.2620 2.3911
3.0734 5.3748 2.3911
2.8777 5.4809 2.3911
2.6785 5.5798 2.3911
2.4759 5.6715 2.3911
0.9045 2.2934 0.9527
0.8216 2.3247 0.9530
0.7376 2.3529 0.9532
0.6526 2.3781 0.9533
0.5668 2.4002 0.9535
0.4802 2.4192 0.9537
0.3929 2.4350 0.9538
0.3052 2.4477 0.9539
0.2170 2.4573 0.9540
0.1286 2.4636 0.9541
0.0400 2.4668 0.9542
-0.0487 2.4667 0.9543
-0.1373 2.4634 0.9543
-0.2258 2.4570 0.9543
-0.3139 2.4473 0.9543
-0.4017 2.4345 0.9543
-0.4889 2.4185 0.9543
-0.5755 2.3994 0.9543
-0.6614 2.3771 0.9542
-0.7464 2.3518 0.9541
-0.8304 2.3234 0.9540
-2.2895 5.7454 2.3911
-2.4948 5.6600 2.3911
-2.6969 5.5674 2.3911
-2.8956 5.4676 2.3911
-3.0906 5.3608 2.3911
-3.2818 5.2471 2.3911
-3.4688 5.1266 2.3911
-3.6514 4.9995 2.3911
-3.8293 4.8659 2.3911
-4.0025 4.7261 2.3911
-4.1706 4.5802 2.3911
-4.3333 4.4283 2.3911
-4.4906 4.2707 2.3911
-4.6422 4.1076 2.3911
-4.7880 3.9391 2.3911
-4.9276 3.7655 2.3911
-5.0610 3.5869 2.3911
-5.1879 3.4037 2.3911
-5.3083 3.2160 2.3911
-5.4218 3.0241 2.3911
-5.5285 2.8282 2.3911
-5.6282 2.6285 2.3911
-5.7206 2.4255 2.3911
-5.8058 2.2189 2.3911
-5.8835 2.0095 2.3911
-5.9537 1.7975 2.3911
-6.0164 1.5830 2.3911
-6.0713 1.3667 2.3911
-6.1184 1.1478 2.3911
-6.1577 0.9277 2.3911
-6.1890 0.7062 2.3911
-6.2125 0.4844 2.3911
-6.2279 0.2608 2.3911
-6.2353 0.0370 2.3911
-6.2347 -0.1869 2.3911
-6.2261 -0.4107 2.3911
-6.2094 -0.6342 2.3911
-6.1847 -0.8569 2.3911
-6.1520 -1.0787 2.3911
-6.1114 -1.2993 2.3911
-6.0628 -1.5177 2.3911
-6.0064 -1.7353 2.3911
-5.9422 -1.9506 2.3911
-5.8702 -2.1632 2.3911
-5.7907 -2.3731 2.3911
-5.7036 -2.5802 2.3911
-5.6091 -2.7841 2.3911
-5.5073 -2.9845 2.3911
-5.3983 -3.1811 2.3911
-5.2823 -3.3737 2.3911
-5.1593 -3.5621 2.3911
-5.0297 -3.7459 2.3911
-4.8934 -3.9250 2.3911
-4.7508 -4.0992 2.3911
-4.6019 -4.2681 2.3911
-4.4470 -4.4315 2.3911
-4.2862 -4.5893 2.3911
-4.1199 -4.7412 2.3911
-3.9481 -4.8871 2.3911
-3.7711 -5.0267 2.3911
-3.5892 -5.1598 2.3911
-3.4025 -5.2863 2.3911
-3.2114 -5.4059 2.3911
-3.0160 -5.5186 2.3911
-2.8167 -5.6242 2.3911
-2.6136 -5.7226 2.3911
-2.4071 -5.8135 2.3911
-2.1974 -5.8969 2.3911
-1.9848 -5.9727 2.3911
-1.7696 -6.0408 2.3911
-1.5520 -6.1010 2.3911
-1.3324 -6.1534 2.3911
-1.1110 -6.1977 2.3911
-0.8882 -6.2340 2.3911
-0.6641 -6.2623 2.3911
-0.4392 -6.2824 2.3911
-0.2137 -6.2943 2.3911
0.0111 -5.8945 2.3911
0.2225 -5.8904 2.3911
0.4335 -5.8787 2.3911
0.6440 -5.8593 2.3911
0.8536 -5.8324 2.3911
1.0621 -5.7978 2.3911
1.2692 -5.7558 2.3911
1.4747 -5.7063 2.3911
1.6782 -5.6494 2.3911
1.8795 -5.5851 2.3911
2.0784 -5.5137 2.3911
2.2745 -5.4351 2.3911
2.4676 -5.3494 2.3911
2.6575 -5.2569 2.3911
2.8439 -5.1576 2.3911
3.0266 -5.0516 2.3911
3.2053 -4.9390 2.3911
3.3798 -4.8202 2.3911
3.5499 -4.6951 2.3911
3.7153 -4.5639 2.3911
3.8758 -4.4269 2.3911
4.0313 -4.2842 2.3911
4.1814 -4.1360 2.3911
4.3261 -3.9826 2.3911
4.4652 -3.8240 2.3911
4.5984 -3.6605 2.3911
4.7256 -3.4924 2.3911
4.8466 -3.3199 2.3911
4.9613 -3.1431 2.3911
5.0695 -2.9623 2.3911
5.1711 -2.7778 2.3911
5.2660 -2.5898 2.3911
5.3540 -2.3986 2.3911
5.4351 -2.2043 2.3911
5.5091 -2.0073 2.3911
5.5759 -1.8078 2.3911
5.6355 -1.6061 2.3911
5.6878 -1.4025 2.3911
5.7327 -1.1971 2.3911
5.7702 -0.9903 2.3911
5.8002 -0.7822 2.3911
5.8227 -0.5735 2.3911
5.8377 -0.3640 2.3911
5.8451 -0.1543 2.3911
5.8450 0.0556 2.3911
5.8374 0.2653 2.3911
5.8223 0.4746 2.3911
5.7996 0.6830 2.3911
5.7695 0.8905 2.3911
5.7320 1.0967 2.3911
5.6872 1.3014 2.3911
5.6350 1.5043 2.3911
5.5756 1.7050 2.3911
5.5091 1.9036 2.3911
5.4355 2.0996 2.3911
5.3550 2.2928 2.3911
5.2677 2.4828 2.3911
5.1736 2.6696 2.3911
5.0729 2.8529 2.3911
4.9657 3.0324 2.3911
4.8523 3.2079 2.3911
4.7326 3.3792 2.3911
4.6069 3.5461 2.3911
4.4754 3.7083 2.3911
4.3382 3.8657 2.3911
4.1955 4.0181 2.3911
4.0475 4.1652 2.3911
3.8944 4.3064 2.3911
3.7362 4.4433 2.3911
3.5734 4.5735 2.3911
3.4061 4.6979 2.3911
3.2344 4.8163 2.3911
3.0587 4.9285 2.3911
2.8791 5.0343 2.3911
2.6959 5.1336 2.3911
2.5092 5.2264 2.3911
0.9232 2.1145 0.9518
0.8467 2.1465 0.9520
0.7691 2.1758 0.9522
0.6905 2.2022 0.9524
0.6109 2.2257 0.9526
0.5306 2.2464 0.9527
0.4495 2.2642 0.9529
0.3679 2.2790 0.9530
0.2857 2.2909 0.9531
0.2032 2.2998 0.9532
0.1204 2.3057 0.9533
0.0375 2.3087 0.9534
-0.0455 2.3086 0.9534
-0.1285 2.3056 0.9535
-0.2113 2.2995 0.9535
-0.2938 2.2905 0.9535
-0.3759 2.2785 0.9535
-0.4576 2.2635 0.9535
-0.5386 2.2456 0.9534
-0.6190 2.2248 0.9534
-0.6985 2.2011 0.9533
-0.7772 2.1745 0.9532
-0.8548 2.1452 0.9531
-2.3369 5.3018 2.3911
-2.5262 5.2150 2.3911
-2.7123 5.1215 2.3911
-2.8950 5.0214 2.3911
-3.0741 4.9148 2.3911
-3.2492 4.8019 2.3911
-3.4202 4.6828 2.3911
-3.5869 4.5577 2.3911
-3.7491 4.4267 2.3911
-3.9065 4.2899 2.3911
-4.0589 4.1476 2.3911
-4.2062 3.9999 2.3911
-4.3482 3.8471 2.3911
-4.4846 3.6892 2.3911
-4.6153 3.5265 2.3911
-4.7402 3.3593 2.3911
-4.8590 3.1876 2.3911
-4.9717 3.0118 2.3911
-5.0780 2.8320 2.3911
-5.1778 2.6485 2.3911
-5.2711 2.4615 2.3911
-5.3576 2.2712 2.3911
-5.4373 2.0779 2.3911
-5.5100 1.8818 2.3911
-5.5756 1.6830 2.3911
-5.6342 1.4820 2.3911
-5.6855 1.2794 2.3911
-5.7295 1.0746 2.3911
-5.7662 0.8686 2.3911
-5.7955 0.6610 2.3911
-5.8173 0.4526 2.3911
-5.8317 0.2438 2.3911
-5.8385 0.0343 2.3911
-5.8379 -0.1755 2.3911
-5.8297 -0.3851 2.3911
-5.8139 -0.5945 2.3911
-5.7907 -0.8028 2.3911
-5.7600 -1.0104 2.3911
-5.7218 -1.2171 2.3911
-5.6763 -1.4219 2.3911
-5.6234 -1.6250 2.3911
-5.5632 -1.8264 2.3911
-5.4957 -2.0255 2.3911
-5.4212 -2.2221 2.3911
-5.3395 -2.4159 2.3911
-5.2510 -2.6067 2.3911
-5.1556 -2.7942 2.3911
-5.0535 -2.9782 2.3911
-4.9448 -3.1585 2.3911
-4.8296 -3.3348 2.3911
-4.7082 -3.5068 2.3911
-4.5806 -3.6744 2.3911
-4.4470 -3.8373 2.3911
-4.3076 -3.9954 2.3911
-4.1625 -4.1484 2.3911
-4.0120 -4.2960 2.3911
-3.8562 -4.4381 2.3911
-3.6954 -4.5746 2.3911
-3.5297 -4.7052 2.3911
-3.3594 -4.8297 2.3911
-3.1847 -4.9481 2.3911
-3.0057 -5.0600 2.3911
-2.8229 -5.1654 2.3911
-2.6363 -5.2642 2.3911
-2.4462 -5.3562 2.3911
-2.2529 -5.4413 2.3911
-2.0566 -5.5193 2.3911
-1.8577 -5.5902 2.3911
-1.6562 -5.6539 2.3911
-1.4526 -5.7102 2.3911
-1.2471 -5.7592 2.3911
-1.0399 -5.8006 2.3911
-0.8313 -5.8346 2.3911
-0.6216 -5.8610 2.3911
-0.4111 -5.8798 2.3911
-0.2001 -5.8910 2.3911
0.0113 -5.8945 2.3911
0.2226 -5.8904 2.3911
0.4336 -5.8787 2.3911
0.6441 -5.8593 2.3911
0.8537 -5.8324 2.3911
1.0623 -5.7978 2.3911
1.2694 -5.7558 2.3911
1.4748 -5.7062 2.3911
1.6784 -5.6493 2.3911
1.8797 -5.5851 2.3911
2.0785 -5.5136 2.3911
2.2746 -5.4350 2.3911
2.4678 -5.3494 2.3911
2.6577 -5.2568 2.3911
2.8441 -5.1575 2.3911
3.0267 -5.0515 2.3911
3.2054 -4.9390 2.3911
3.3799 -4.8201 2.3911
3.5500 -4.6950 2.3911
3.7154 -4.5638 2.3911
3.8759 -4.4268 2.3911
4.0314 -4.2841 2.3911
4.1815 -4.1359 2.3911
4.3262 -3.9825 2.3911
4.4653 -3.8239 2.3911
4.5985 -3.6604 2.3911
4.7257 -3.4923 2.3911
4.8467 -3.3197 2.3911
4.9614 -3.1429 2.3911
5.0696 -2.9622 2.3911
5.1712 -2.7777 2.3911
5.2661 -2.5897 2.3911
5.3541 -2.3984 2.3911
5.4351 -2.2042 2.3911
5.5091 -2.0072 2.3911
5.5759 -1.8077 2.3911
5.6355 -1.6060 2.3911
5.6878 -1.4023 2.3911
5.7327 -1.1970 2.3911
5.7702 -0.9901 2.3911
5.8002 -0.7822 2.3911
5.8227 -0.5734 2.3911
5.8377 -0.3639 2.3911
5.8451 -0.1541 2.3911
5.8450 0.0558 2.3911
5.8374 0.2654 2.3911
5.8223 0.4747 2.3911
5.7996 0.6832 2.3911
5.7695 0.8907 2.3911
5.7320 1.0968 2.3911
5.6871 1.3015 2.3911
5.6350 1.5044 2.3911
5.5756 1.7052 2.3911
5.5091 1.9037 2.3911
5.4355 2.0997 2.3911
5.3550 2.2928 2.3911
5.2676 2.4831 2.3911
5.1735 2.6697 2.3911
5.0728 2.8530 2.3911
4.9657 3.0325 2.3911
4.8522 3.2080 2.3911
4.7325 3.3793 2.3911
4.6069 3.5462 2.3911
4.4753 3.7084 2.3911
4.3381 3.8658 2.3911
4.1954 4.0182 2.3911
4.0474 4.1653 2.3911
3.8942 4.3070 2.3911
3.7361 4.4428 2.3911
3.5733 4.5735 2.3911
3.4059 4.6980 2.3911
3.2343 4.8165 2.3911
3.0586 4.9286 2.3911
2.8790 5.0344 2.3911
2.6957 5.1337 2.3911
2.5091 5.2264 2.3911
0.9232 2.1146 0.9518
0.8467 2.1466 0.9520
0.7690 2.1758 0.9522
0.6904 2.2022 0.9524
0.6109 2.2258 0.9526
0.5305 2.2464 0.9527
0.4495 2.2642 0.9529
0.3678 2.2790 0.9530
0.2857 2.2909 0.9531
0.2032 2.2998 0.9532
0.1204 2.3057 0.9533
0.0374 2.3087 0.9534
-0.0456 2.3086 0.9534
-0.1285 2.3056 0.9535
-0.2113 2.2995 0.9535
-0.2938 2.2905 0.9535
-0.3760 2.2785 0.9535
-0.4576 2.2635 0.9535
-0.5387 2.2456 0.9534
-0.6190 2.2248 0.9534
-0.6986 2.2011 0.9533
-0.7772 2.1745 0.9532
-0.8549 2.1451 0.9531
-2.3370 5.3018 2.3911
-2.5263 5.2150 2.3911
-2.7125 5.1214 2.3911
-2.8952 5.0213 2.3911
-3.0742 4.9147 2.3911
-3.2493 4.8018 2.3911
-3.4203 4.6827 2.3911
-3.5870 4.5576 2.3911
-3.7492 4.4266 2.3911
-3.9066 4.2898 2.3911
-4.0590 4.1475 2.3911
-4.2063 3.9999 2.3911
-4.3482 3.8470 2.3911
-4.4847 3.6891 2.3911
-4.6154 3.5264 2.3911
-4.7403 3.3592 2.3911
-4.8591 3.1875 2.3911
-4.9717 3.0117 2.3911
-5.0781 2.8319 2.3911
-5.1779 2.6483 2.3911
-5.2711 2.4613 2.3911
-5.3576 2.2711 2.3911
-5.4373 2.0778 2.3911
-5.5100 1.8817 2.3911
-5.5757 1.6832 2.3911
-5.6343 1.4825 2.3911
-5.6855 1.2791 2.3911
-5.7296 1.0746 2.3911
-5.7662 0.8683 2.3911
-5.7955 0.6610 2.3911
-5.8173 0.4526 2.3911
-5.8317 0.2435 2.3911
-5.8385 0.0341 2.3911
-5.8379 -0.1757 2.3911
-5.8296 -0.3854 2.3911
-5.8139 -0.5942 2.3911
-5.7907 -0.8028 2.3911
-5.7600 -1.0106 2.3911
-5.7218 -1.2171 2.3911
-5.6762 -1.4221 2.3911
-5.6233 -1.6250 2.3911
-5.5631 -1.8267 2.3911
-5.4957 -2.0256 2.3911
-5.4211 -2.2222 2.3911
-5.3395 -2.4160 2.3911
-5.2509 -2.6068 2.3911
-5.1555 -2.7943 2.3911
-5.0534 -2.9783 2.3911
-4.9447 -3.1586 2.3911
-4.8296 -3.3349 2.3911
-4.7081 -3.5069 2.3911
-4.5805 -3.6745 2.3911
-4.4469 -3.8375 2.3911
-4.3075 -3.9955 2.3911
-4.1624 -4.1485 2.3911
-4.0119 -4.2962 2.3911
-3.8561 -4.4382 2.3911
-3.6953 -4.5747 2.3911
-3.5296 -4.7053 2.3911
-3.3593 -4.8298 2.3911
-3.1845 -4.9481 2.3911
-3.0056 -5.0601 2.3911
-2.8227 -5.1655 2.3911
-2.6361 -5.2643 2.3911
-2.4461 -5.3563 2.3911
-2.2528 -5.4413 2.3911
-2.0565 -5.5194 2.3911
-1.8575 -5.5902 2.3911
-1.6561 -5.6539 2.3911
-1.4525 -5.7102 2.3911
-1.2469 -5.7592 2.3911
-1.0397 -5.8007 2.3911
-0.8312 -5.8346 2.3911
-0.6215 -5.8610 2.3911
-0.4110 -5.8798 2.3911
-0.1999 -5.8910 2.3911
0.0105 -5.5334 2.3911
0.2088 -5.5296 2.3911
0.4069 -5.5186 2.3911
0.6045 -5.5004 2.3911
0.8013 -5.4751 2.3911
0.9970 -5.4427 2.3911
1.1914 -5.4032 2.3911
1.3843 -5.3568 2.3911
1.5753 -5.3034 2.3911
1.7643 -5.2431 2.3911
1.9510 -5.1760 2.3911
2.1351 -5.1023 2.3911
2.3164 -5.0219 2.3911
2.4947 -4.9351 2.3911
2.6696 -4.8419 2.3911
2.8411 -4.7424 2.3911
3.0089 -4.6368 2.3911
3.1727 -4.5253 2.3911
3.3324 -4.4079 2.3911
3.4877 -4.2848 2.3911
3.6384 -4.1562 2.3911
3.7844 -4.0223 2.3911
3.9254 -3.8833 2.3911
4.0613 -3.7392 2.3911
4.1919 -3.5904 2.3911
4.3170 -3.4370 2.3911
4.4365 -3.2792 2.3911
4.5502 -3.1172 2.3911
4.6579 -2.9513 2.3911
4.7596 -2.7816 2.3911
4.8550 -2.6084 2.3911
4.9442 -2.4320 2.3911
5.0269 -2.2524 2.3911
5.1031 -2.0701 2.3911
5.1726 -1.8852 2.3911
5.2354 -1.6982 2.3911
5.2915 -1.5090 2.3911
5.3407 -1.3173 2.3911
5.3829 -1.1245 2.3911
5.4182 -0.9303 2.3911
5.4465 -0.7351 2.3911
5.4677 -0.5390 2.3911
5.4819 -0.3423 2.3911
5.4889 -0.1453 2.3911
5.4890 0.0518 2.3911
5.4819 0.2487 2.3911
5.4678 0.4452 2.3911
5.4466 0.6410 2.3911
5.4184 0.8359 2.3911
5.3833 1.0295 2.3911
5.3412 1.2216 2.3911
5.2923 1.4124 2.3911
5.2367 1.6005 2.3911
5.1743 1.7875 2.3911
5.1052 1.9715 2.3911
5.0297 2.1530 2.3911
4.9477 2.3316 2.3911
4.8594 2.5070 2.3911
4.7649 2.6792 2.3911
4.6643 2.8479 2.3911
4.5578 3.0128 2.3911
4.4455 3.1737 2.3911
4.3275 3.3305 2.3911
4.2040 3.4829 2.3911
4.0752 3.6308 2.3911
3.9412 3.7743 2.3911
3.8022 3.9123 2.3911
3.6583 4.0455 2.3911
3.5099 4.1734 2.3911
3.3570 4.2959 2.3911
3.1998 4.4129 2.3911
3.0386 4.5242 2.3911
2.8735 4.6296 2.3911
2.7048 4.7291 2.3911
2.5327 4.8224 2.3911
2.3574 4.9096 2.3911
0.8668 1.9850 0.9511
0.7949 2.0151 0.9513
0.7221 2.0425 0.9515
0.6482 2.0673 0.9517
0.5736 2.0894 0.9519
0.4981 2.1088 0.9520
0.4220 2.1255 0.9522
0.3454 2.1394 0.9523
0.2683 2.1505 0.9524
0.1908 2.1589 0.9525
0.1131 2.1644 0.9526
0.0352 2.1672 0.9526
-0.0427 2.1671 0.9527
-0.1206 2.1643 0.9527
-0.1983 2.1586 0.9527
-0.2758 2.1501 0.9527
-0.3529 2.1388 0.9527
-0.4295 2.1248 0.9527
-0.5056 2.1080 0.9527
-0.5811 2.0884 0.9526
-0.6558 2.0662 0.9525
-0.7296 2.0413 0.9525
-0.8025 2.0137 0.9524
-0.8743 1.9835 0.9523
-2.3734 4.8990 2.3911
-2.5482 4.8112 2.3911
-2.7198 4.7171 2.3911
-2.8880 4.6169 2.3911
-3.0525 4.5108 2.3911
-3.2132 4.3989 2.3911
-3.3697 4.2813 2.3911
-3.5220 4.1582 2.3911
-3.6699 4.0297 2.3911
-3.8130 3.8959 2.3911
-3.9513 3.7572 2.3911
-4.0847 3.6135 2.3911
-4.2128 3.4652 2.3911
-4.3355 3.3123 2.3911
-4.4528 3.1552 2.3911
-4.5643 2.9939 2.3911
-4.6701 2.8287 2.3911
-4.7699 2.6597 2.3911
-4.8636 2.4873 2.3911
-4.9511 2.3116 2.3911
-5.0323 2.1329 2.3911
-5.1071 1.9513 2.3911
-5.1753 1.7671 2.3911
-5.2369 1.5805 2.3911
-5.2918 1.3918 2.3911
-5.3399 1.2013 2.3911
-5.3812 1.0090 2.3911
-5.4156 0.8154 2.3911
-5.4430 0.6206 2.3911
-5.4634 0.4247 2.3911
-5.4768 0.2286 2.3911
-5.4832 0.0322 2.3911
-5.4824 -0.1652 2.3911
-5.4745 -0.3627 2.3911
-5.4597 -0.5586 2.3911
-5.4378 -0.7546 2.3911
-5.4089 -0.9493 2.3911
-5.3730 -1.1432 2.3911
-5.3301 -1.3354 2.3911
-5.2803 -1.5264 2.3911
-5.2237 -1.7154 2.3911
-5.1603 -1.9023 2.3911
-5.0902 -2.0869 2.3911
-5.0135 -2.2688 2.3911
-4.9303 -2.4479 2.3911
-4.8406 -2.6240 2.3911
-4.7447 -2.7967 2.3911
-4.6426 -2.9659 2.3911
-4.5344 -3.1314 2.3911
-4.4203 -3.2929 2.3911
-4.3004 -3.4502 2.3911
-4.1749 -3.6031 2.3911
-4.0440 -3.7514 2.3911
-3.9078 -3.8950 2.3911
-3.7664 -4.0335 2.3911
-3.6201 -4.1669 2.3911
-3.4691 -4.2950 2.3911
-3.3135 -4.4175 2.3911
-3.1536 -4.5344 2.3911
-2.9896 -4.6454 2.3911
-2.8216 -4.7505 2.3911
-2.6499 -4.8494 2.3911
-2.4747 -4.9421 2.3911
-2.2962 -5.0284 2.3911
-2.1148 -5.1082 2.3911
-1.9305 -5.1814 2.3911
-1.7437 -5.2479 2.3911
-1.5547 -5.3077 2.3911
-1.3635 -5.3605 2.3911
-1.1706 -5.4065 2.3911
-0.9761 -5.4454 2.3911
-0.7803 -5.4772 2.3911
-0.5835 -5.5020 2.3911
-0.3859 -5.5196 2.3911
-0.1878 -5.5301 2.3911
0.0106 -5.5334 2.3911
0.2090 -5.5296 2.3911
0.4071 -5.5185 2.3911
0.6046 -5.5004 2.3911
0.8014 -5.4750 2.3911
0.9971 -5.4426 2.3911
1.1915 -5.4032 2.3911
1.3844 -5.3567 2.3911
1.5755 -5.3033 2.3911
1.7644 -5.2430 2.3911
1.9511 -5.1760 2.3911
2.1352 -5.1022 2.3911
2.3165 -5.0219 2.3911
2.4948 -4.9350 2.3911
2.6698 -4.8418 2.3911
2.8413 -4.7424 2.3911
3.0090 -4.6368 2.3911
3.1728 -4.5252 2.3911
3.3325 -4.4078 2.3911
3.4878 -4.2847 2.3911
3.6385 -4.1561 2.3911
3.7845 -4.0222 2.3911
3.9255 -3.8832 2.3911
4.0614 -3.7391 2.3911
4.1920 -3.5903 2.3911
4.3171 -3.4369 2.3911
4.4366 -3.2791 2.3911
4.5502 -3.1171 2.3911
4.6580 -2.9512 2.3911
4.7596 -2.7815 2.3911
4.8551 -2.6083 2.3911
4.9442 -2.4319 2.3911
5.0269 -2.2523 2.3911
5.1031 -2.0700 2.3911
5.1727 -1.8850 2.3911
5.2355 -1.6976 2.3911
5.2915 -1.5087 2.3911
5.3407 -1.3175 2.3911
5.3829 -1.1244 2.3911
5.4182 -0.9302 2.3911
5.4465 -0.7349 2.3911
5.4677 -0.5389 2.3911
5.4819 -0.3422 2.3911
5.4889 -0.1452 2.3911
5.4889 0.0520 2.3911
5.4819 0.2488 2.3911
5.4677 0.4454 2.3911
5.4466 0.6412 2.3911
5.4184 0.8360 2.3911
5.3833 1.0297 2.3911
5.3412 1.2216 2.3911
5.2923 1.4121 2.3911
5.2366 1.6008 2.3911
5.1742 1.7876 2.3911
5.1052 1.9717 2.3911
5.0296 2.1531 2.3911
4.9477 2.3317 2.3911
4.8594 2.5072 2.3911
4.7649 2.6793 2.3911
4.6643 2.8480 2.3911
4.5578 3.0129 2.3911
4.4454 3.1738 2.3911
4.3274 3.3306 2.3911
4.2039 3.4831 2.3911
4.0751 3.6309 2.3911
3.9411 3.7743 2.3911
3.8021 3.9124 2.3911
3.6583 4.0455 2.3911
