ply
format ascii 1.0
element vertex 2174
property float32 x
property float32 y
property float32 z
end_header
0.9565 -7.1741 2.3905
1.2123 -7.1306 2.3905
1.4663 -7.0781 2.3905
1.6561 -6.7632 2.3042
1.8477 -6.5228 2.2450
2.0727 -6.4285 2.2381
2.3005 -6.3461 2.2382
2.5257 -6.2569 2.2387
2.7474 -6.1597 2.2393
2.9653 -6.0545 2.2398
3.1793 -5.9417 2.2403
3.3889 -5.8212 2.2409
3.5941 -5.6933 2.2414
3.7944 -5.5582 2.2418
3.9884 -5.4144 2.2416
4.1637 -5.2469 2.2343
4.3441 -5.0879 2.2330
4.5220 -4.9266 2.2335
4.6933 -4.7584 2.2336
4.5928 -4.3337 2.1117
5.0170 -4.4044 2.2340
5.1691 -4.2192 2.2341
5.3145 -4.0287 2.2343
5.4529 -3.8333 2.2345
5.5843 -3.6331 2.2347
5.7084 -3.4286 2.2348
5.8251 -3.2198 2.2350
5.9343 -3.0071 2.2352
6.0358 -2.7908 2.2354
6.1295 -2.5710 2.2356
4.7908 -1.8100 1.7234
6.2932 -2.1226 2.2360
6.3631 -1.8944 2.2363
4.8423 -1.2541 1.6856
4.8570 -1.0733 1.6769
4.8715 -0.8942 1.6705
6.5603 -0.9620 2.2371
6.5888 -0.7254 2.2374
4.9083 -0.3624 1.6618
6.6207 -0.2501 2.2379
6.6240 -0.0120 2.2381
6.6189 0.2260 2.2383
6.6054 0.4637 2.2386
6.5835 0.7007 2.2388
6.5533 0.9368 2.2391
6.5147 1.1716 2.2393
6.4679 1.4049 2.2396
6.4129 1.6365 2.2398
6.3497 1.8659 2.2401
6.2785 2.0929 2.2403
6.1993 2.3173 2.2406
6.1123 2.5388 2.2408
6.0174 2.7570 2.2411
5.9149 2.9718 2.2413
5.8049 3.1829 2.2416
5.6875 3.3899 2.2418
5.5628 3.5927 2.2420
5.4310 3.7911 2.2423
5.2923 3.9846 2.2425
5.1467 4.1732 2.2427
4.9946 4.3566 2.2430
4.8340 4.5326 2.2422
4.6601 4.6955 2.2381
4.4892 4.8610 2.2381
4.3126 5.0204 2.2381
4.1304 5.1735 2.2381
3.9429 5.3201 2.2381
3.7503 5.4600 2.2381
3.5527 5.5930 2.2381
3.3505 5.7190 2.2381
3.1440 5.8378 2.2381
3.1330 6.3544 2.3905
2.9038 6.4654 2.3905
2.6707 6.5683 2.3905
2.4340 6.6629 2.3905
0.8793 2.7049 0.9580
0.7817 2.7352 0.9577
0.6830 2.7619 0.9574
0.5835 2.7851 0.9571
0.4831 2.8047 0.9567
0.3821 2.8206 0.9564
0.2806 2.8329 0.9560
0.1787 2.8415 0.9556
0.0765 2.8464 0.9551
-0.0258 2.8476 0.9547
-0.1280 2.8452 0.9542
-0.2301 2.8390 0.9537
-0.3320 2.8292 0.9532
-0.4333 2.8156 0.9527
-0.5342 2.7985 0.9522
-0.6344 2.7777 0.9516
-0.7337 2.7533 0.9511
-0.8321 2.7253 0.9505
-2.3389 6.7790 2.3905
-2.5824 6.6951 2.3905
-2.8229 6.6025 2.3905
-3.0601 6.5013 2.3905
-3.2936 6.3915 2.3905
-3.5231 6.2734 2.3905
-3.7484 6.1471 2.3905
-3.9692 6.0126 2.3905
-4.1851 5.8703 2.3905
-4.3959 5.7201 2.3905
-4.6012 5.5624 2.3905
-4.8009 5.3973 2.3905
-4.9946 5.2251 2.3905
-5.1821 5.0458 2.3905
-5.3631 4.8598 2.3905
-5.5374 4.6673 2.3905
-5.7047 4.4685 2.3905
-5.8648 4.2637 2.3905
-6.0175 4.0531 2.3905
-6.1625 3.8370 2.3905
-6.2997 3.6157 2.3905
-6.4289 3.3895 2.3905
-6.5498 3.1586 2.3905
-6.6624 2.9234 2.3905
-6.7663 2.6841 2.3905
-6.8616 2.4411 2.3905
-6.9481 2.1947 2.3905
-7.0256 1.9453 2.3905
-7.0940 1.6930 2.3905
-7.1532 1.4384 2.3905
-7.2032 1.1817 2.3905
-7.2437 0.9232 2.3905
-7.2749 0.6633 2.3905
-7.2966 0.4024 2.3905
-7.3088 0.1408 2.3905
-7.3115 -0.1211 2.3905
-7.3046 -0.3831 2.3905
-7.2881 -0.6447 2.3905
-7.2622 -0.9056 2.3905
-7.2267 -1.1654 2.3905
-7.1818 -1.4238 2.3905
-7.1275 -1.6804 2.3905
-7.0638 -1.9349 2.3905
-6.9909 -2.1870 2.3905
-6.9089 -2.4362 2.3905
-6.8178 -2.6824 2.3905
-6.7177 -2.9250 2.3905
-6.6089 -3.1639 2.3905
-6.4914 -3.3986 2.3905
-6.3655 -3.6289 2.3905
-6.2312 -3.8544 2.3905
-6.0888 -4.0749 2.3905
-5.9384 -4.2897 2.3905
-5.7804 -4.4994 2.3905
-5.6148 -4.7029 2.3905
-5.4419 -4.9003 2.3905
-5.2619 -5.0912 2.3905
-5.0751 -5.2753 2.3905
-4.8818 -5.4525 2.3905
-4.6822 -5.6225 2.3905
-4.4766 -5.7850 2.3905
-4.2653 -5.9399 2.3905
-4.0485 -6.0870 2.3905
-3.8265 -6.2261 2.3905
-3.5997 -6.3569 2.3905
-3.3684 -6.4793 2.3905
-3.1329 -6.5933 2.3905
-2.8934 -6.6985 2.3905
-2.6504 -6.7949 2.3905
-2.4041 -6.8824 2.3905
-2.1550 -6.9609 2.3905
-1.9032 -7.0302 2.3905
-1.6492 -7.0904 2.3905
-1.3933 -7.1412 2.3905
-1.1358 -7.1828 2.3905
-0.8772 -7.2149 2.3905
-0.6177 -7.2377 2.3905
-0.3576 -7.2510 2.3905
-0.0974 -7.2549 2.3905
0.1627 -7.2494 2.3905
0.4222 -7.2345 2.3905
0.6809 -7.2103 2.3905
0.9385 -7.1768 2.3905
1.1945 -7.1340 2.3905
1.4486 -7.0820 2.3905
1.6494 -6.8099 2.3186
1.8257 -6.5078 2.2381
2.0566 -6.4340 2.2381
2.2846 -6.3521 2.2382
2.5100 -6.2634 2.2387
2.7319 -6.1667 2.2393
2.9502 -6.0621 2.2398
3.1644 -5.9498 2.2403
3.3744 -5.8299 2.2408
3.5798 -5.7025 2.2413
3.7805 -5.5679 2.2418
3.9754 -5.4252 2.2419
4.1515 -5.2587 2.2347
4.3313 -5.0988 2.2329
4.5098 -4.9382 2.2335
4.6815 -4.7704 2.2336
4.5911 -4.3540 2.1159
5.0061 -4.4172 2.2339
5.1587 -4.2323 2.2341
5.3045 -4.0422 2.2343
5.4435 -3.8471 2.2345
5.5753 -3.6473 2.2346
5.6999 -3.4430 2.2348
5.8172 -3.2346 2.2350
5.9269 -3.0221 2.2352
6.0289 -2.8060 2.2354
6.1232 -2.5865 2.2356
4.7897 -1.8234 1.7246
6.2880 -2.1385 2.2360
6.3584 -1.9105 2.2362
6.4207 -1.6802 2.2365
4.8560 -1.0859 1.6775
4.8705 -0.9067 1.6709
6.5580 -0.9785 2.2371
6.5871 -0.7420 2.2374
6.6078 -0.5047 2.2376
6.6201 -0.2668 2.2378
6.6240 -0.0287 2.2381
6.6195 0.2093 2.2383
6.6066 0.4471 2.2386
6.5853 0.6841 2.2388
6.5557 0.9203 2.2391
6.5177 1.1552 2.2393
6.4715 1.3887 2.2396
6.4170 1.6203 2.2398
6.3544 1.8499 2.2401
6.2838 2.0771 2.2403
6.2051 2.3017 2.2406
6.1186 2.5233 2.2408
6.0243 2.7418 2.2411
5.9224 2.9569 2.2413
5.8129 3.1682 2.2415
5.6959 3.3755 2.2418
5.5718 3.5787 2.2420
5.4405 3.7773 2.2423
5.3022 3.9712 2.2425
5.1571 4.1602 2.2427
5.0055 4.3439 2.2429
4.8463 4.5213 2.2427
4.6719 4.6837 2.2381
4.5014 4.8496 2.2381
4.3252 5.0094 2.2381
4.1434 5.1630 2.2381
3.9562 5.3100 2.2381
3.7639 5.4504 2.2381
3.5667 5.5839 2.2381
3.3649 5.7104 2.2381
3.1586 5.8297 2.2381
3.1489 6.3463 2.3905
2.9200 6.4579 2.3905
2.6872 6.5614 2.3905
2.4507 6.6566 2.3905
0.8861 2.7026 0.9581
0.7886 2.7332 0.9578
0.6900 2.7602 0.9575
0.5905 2.7836 0.9571
0.4902 2.8034 0.9568
0.3892 2.8196 0.9564
0.2877 2.8321 0.9560
0.1858 2.8410 0.9556
0.0837 2.8462 0.9552
-0.0186 2.8477 0.9547
-0.1209 2.8455 0.9542
-0.2230 2.8396 0.9537
-0.3248 2.8300 0.9532
-0.4263 2.8167 0.9527
-0.5271 2.7998 0.9522
-0.6274 2.7792 0.9517
-0.7268 2.7551 0.9511
-0.8252 2.7273 0.9505
-2.3218 6.7845 2.3905
-2.5654 6.7013 2.3905
-2.8061 6.6092 2.3905
-3.0435 6.5086 2.3905
-3.2773 6.3995 2.3905
-3.5072 6.2820 2.3905
-3.7327 6.1562 2.3905
-3.9539 6.0223 2.3905
-4.1701 5.8805 2.3905
-4.3812 5.7309 2.3905
-4.5870 5.5737 2.3905
-4.7871 5.4091 2.3905
-4.9812 5.2374 2.3905
-5.1692 5.0586 2.3905
-5.3506 4.8731 2.3905
-5.5254 4.6810 2.3905
-5.6932 4.4826 2.3905
-5.8538 4.2782 2.3905
-6.0070 4.0680 2.3905
-6.1526 3.8523 2.3905
-6.2903 3.6314 2.3905
-6.4201 3.4055 2.3905
-6.5416 3.1749 2.3905
-6.6547 2.9400 2.3905
-6.7593 2.7010 2.3905
-6.8553 2.4583 2.3905
-6.9423 2.2121 2.3905
-7.0205 1.9629 2.3905
-7.0895 1.7108 2.3905
-7.1494 1.4563 2.3905
-7.2000 1.1997 2.3905
-7.2412 0.9414 2.3905
-7.2730 0.6816 2.3905
-7.2954 0.4207 2.3905
-7.3083 0.1591 2.3905
-7.3116 -0.1028 2.3905
-7.3054 -0.3647 2.3905
-7.2896 -0.6264 2.3905
-7.2643 -0.8873 2.3905
-7.2295 -1.1472 2.3905
-7.1853 -1.4057 2.3905
-7.1316 -1.6625 2.3905
-7.0686 -1.9172 2.3905
-6.9963 -2.1694 2.3905
-6.9149 -2.4189 2.3905
-6.8244 -2.6652 2.3905
-6.7250 -2.9081 2.3905
-6.6168 -3.1473 2.3905
-6.4999 -3.3823 2.3905
-6.3746 -3.6129 2.3905
-6.2409 -3.8387 2.3905
-6.0990 -4.0596 2.3905
-5.9492 -4.2750 2.3905
-5.7917 -4.4849 2.3905
-5.6266 -4.6889 2.3905
-5.4542 -4.8867 2.3905
-5.2747 -5.0780 2.3905
-5.0884 -5.2626 2.3905
-4.8956 -5.4403 2.3905
-4.6964 -5.6108 2.3905
-4.4912 -5.7739 2.3905
-4.2802 -5.9293 2.3905
-4.0638 -6.0770 2.3905
-3.8422 -6.2166 2.3905
-3.6158 -6.3480 2.3905
-3.3848 -6.4710 2.3905
-3.1495 -6.5856 2.3905
-2.9103 -6.6914 2.3905
-2.6675 -6.7885 2.3905
-2.4215 -6.8766 2.3905
-2.1725 -6.9557 2.3905
-1.9209 -7.0257 2.3905
-1.6671 -7.0865 2.3905
-1.4113 -7.1380 2.3905
-1.1539 -7.1802 2.3905
-0.8953 -7.2130 2.3905
-0.6359 -7.2364 2.3905
-0.3758 -7.2504 2.3905
-0.1156 -7.2550 2.3905
0.1445 -7.2501 2.3905
0.4041 -7.2359 2.3905
0.6628 -7.2123 2.3905
0.9205 -7.1794 2.3905
4.7785 3.8948 2.2425
4.6364 4.0650 2.2427
4.4871 4.2290 2.2423
4.3322 4.3875 2.2419
4.1653 4.5336 2.2381
4.0005 4.6814 2.2381
3.8306 4.8234 2.2381
3.6557 4.9592 2.2381
3.4760 5.0889 2.2381
3.2919 5.2121 2.2381
3.1034 5.3288 2.2381
2.9109 5.4387 2.2381
2.8993 5.9192 2.3905
2.6857 6.0218 2.3905
2.4686 6.1168 2.3905
0.9001 2.4840 0.9571
0.8104 2.5151 0.9568
0.7196 2.5430 0.9566
0.6278 2.5676 0.9563
0.5353 2.5889 0.9559
0.4420 2.6068 0.9556
0.3481 2.6214 0.9553
0.2537 2.6326 0.9549
0.1590 2.6403 0.9545
0.0641 2.6446 0.9541
-0.0309 2.6455 0.9537
-0.1259 2.6430 0.9532
-0.2208 2.6370 0.9528
-0.3154 2.6276 0.9523
-0.4095 2.6148 0.9518
-0.5032 2.5986 0.9513
-0.5962 2.5790 0.9508
-0.6884 2.5561 0.9503
-0.7798 2.5299 0.9498
-0.8701 2.5004 0.9492
-2.4173 6.2179 2.3905
-2.6406 6.1310 2.3905
-2.8606 6.0361 2.3905
-3.0774 5.9333 2.3905
-3.2903 5.8227 2.3905
-3.4993 5.7045 2.3905
-3.7040 5.5788 2.3905
-3.9042 5.4457 2.3905
-4.0996 5.3055 2.3905
-4.2899 5.1582 2.3905
-4.4749 5.0041 2.3905
-4.6543 4.8433 2.3905
-4.8279 4.6761 2.3905
-4.9955 4.5027 2.3905
-5.1568 4.3233 2.3905
-5.3115 4.1380 2.3905
-5.4596 3.9472 2.3905
-5.6007 3.7510 2.3905
-5.7348 3.5498 2.3905
-5.8615 3.3438 2.3905
-5.9807 3.1332 2.3905
-6.0923 2.9183 2.3905
-6.1961 2.6995 2.3905
-6.2919 2.4769 2.3905
-6.3797 2.2509 2.3905
-6.4592 2.0218 2.3905
-6.5304 1.7898 2.3905
-6.5931 1.5554 2.3905
-6.6473 1.3187 2.3905
-6.6929 1.0801 2.3905
-6.7298 0.8400 2.3905
-6.7580 0.5986 2.3905
-6.7774 0.3562 2.3905
-6.7879 0.1133 2.3905
-6.7896 -0.1300 2.3905
-6.7825 -0.3732 2.3905
-6.7665 -0.6160 2.3905
-6.7416 -0.8582 2.3905
-6.7080 -1.0993 2.3905
-6.6656 -1.3391 2.3905
-6.6145 -1.5772 2.3905
-6.5547 -1.8134 2.3905
-6.4864 -2.0472 2.3905
-6.4096 -2.2784 2.3905
-6.3244 -2.5067 2.3905
-6.2309 -2.7317 2.3905
-6.1293 -2.9532 2.3905
-6.0196 -3.1709 2.3905
-5.9022 -3.3844 2.3905
-5.7770 -3.5934 2.3905
-5.6443 -3.7978 2.3905
-5.5042 -3.9972 2.3905
-5.3570 -4.1913 2.3905
-5.2028 -4.3799 2.3905
-5.0418 -4.5627 2.3905
-4.8744 -4.7396 2.3905
-4.7006 -4.9102 2.3905
-4.5207 -5.0743 2.3905
-4.3351 -5.2317 2.3905
-4.1439 -5.3822 2.3905
-3.9473 -5.5257 2.3905
-3.7458 -5.6618 2.3905
-3.5394 -5.7906 2.3905
-3.3286 -5.9116 2.3905
-3.1136 -6.0250 2.3905
-2.8947 -6.1303 2.3905
-2.6721 -6.2277 2.3905
-2.4463 -6.3168 2.3905
-2.2175 -6.3977 2.3905
-1.9859 -6.4701 2.3905
-1.7520 -6.5342 2.3905
-1.5160 -6.5896 2.3905
-1.2783 -6.6365 2.3905
-1.0391 -6.6747 2.3905
-0.7988 -6.7042 2.3905
-0.5577 -6.7249 2.3905
-0.3161 -6.7369 2.3905
-0.0744 -6.7402 2.3905
0.1672 -6.7348 2.3905
0.4083 -6.7206 2.3905
0.6487 -6.6977 2.3905
0.8879 -6.6662 2.3905
1.1257 -6.6261 2.3905
1.3617 -6.5775 2.3905
1.5958 -6.5205 2.3905
1.7236 -6.0884 2.2547
1.9254 -5.9746 2.2381
2.1372 -5.8981 2.2381
2.3461 -5.8144 2.2382
2.5521 -5.7242 2.2387
2.7548 -5.6266 2.2392
2.9536 -5.5219 2.2397
3.1486 -5.4101 2.2402
3.3393 -5.2914 2.2407
3.5255 -5.1659 2.2411
3.7071 -5.0339 2.2416
3.8837 -4.8955 2.2420
4.0536 -4.7491 2.2415
4.2065 -4.5842 2.2349
4.3632 -4.4250 2.2336
4.5177 -4.2639 2.2342
4.6654 -4.0968 2.2343
4.8071 -3.9247 2.2345
4.6579 -3.5319 2.1060
5.0714 -3.5660 2.2348
5.1937 -3.3799 2.2350
5.3093 -3.1897 2.2352
5.4180 -2.9956 2.2353
5.5197 -2.7979 2.2355
5.6144 -2.5967 2.2357
5.7017 -2.3923 2.2359
4.7908 -1.8106 1.8528
5.8544 -1.9752 2.2363
5.9195 -1.7630 2.2365
5.9770 -1.5486 2.2367
6.0269 -1.3324 2.2369
6.0690 -1.1146 2.2371
6.1034 -0.8955 2.2373
6.1301 -0.6754 2.2376
4.9083 -0.3628 1.7863
6.1599 -0.2332 2.2380
6.1631 -0.0116 2.2382
6.1584 0.2099 2.2384
6.1459 0.4311 2.2387
6.1256 0.6517 2.2389
6.0975 0.8713 2.2391
6.0617 1.0899 2.2394
6.0181 1.3070 2.2396
5.9669 1.5224 2.2398
5.9082 1.7359 2.2401
5.8419 1.9472 2.2403
5.7682 2.1560 2.2405
5.6872 2.3621 2.2408
5.5989 2.5652 2.2410
5.1582 2.5916 2.1006
5.4010 2.9614 2.2414
5.2917 3.1541 2.2417
5.1756 3.3428 2.2419
5.0529 3.5273 2.2421
4.9238 3.7074 2.2423
4.7883 3.8828 2.2425
4.6466 4.0533 2.2427
4.4978 4.2177 2.2423
4.3432 4.3766 2.2419
4.1767 4.5230 2.2381
4.0123 4.6712 2.2381
3.8427 4.8136 2.2381
3.6681 4.9499 2.2381
3.4888 5.0800 2.2381
3.3049 5.2037 2.2381
3.1167 5.3208 2.2381
2.9245 5.4312 2.2381
2.9141 5.9117 2.3905
2.7008 6.0149 2.3905
2.4839 6.1104 2.3905
0.9063 2.4817 0.9571
0.8167 2.5131 0.9568
0.7260 2.5412 0.9566
0.6343 2.5660 0.9563
0.5418 2.5875 0.9560
0.4485 2.6057 0.9556
0.3547 2.6205 0.9553
0.2604 2.6319 0.9549
0.1657 2.6399 0.9545
0.0708 2.6444 0.9541
-0.0243 2.6455 0.9537
-0.1193 2.6432 0.9533
-0.2141 2.6375 0.9528
-0.3087 2.6284 0.9524
-0.4029 2.6158 0.9519
-0.4966 2.5998 0.9514
-0.5897 2.5805 0.9509
-0.6820 2.5578 0.9504
-0.7734 2.5318 0.9498
-0.8638 2.5026 0.9493
-2.4016 6.2237 2.3905
-2.6251 6.1373 2.3905
-2.8453 6.0430 2.3905
-3.0623 5.9407 2.3905
-3.2758 5.8307 2.3905
-3.4848 5.7130 2.3905
-3.6898 5.5878 2.3905
-3.8903 5.4553 2.3905
-4.0861 5.3155 2.3905
-4.2768 5.1687 2.3905
-4.4621 5.0151 2.3905
-4.6419 4.8548 2.3905
-4.8160 4.6881 2.3905
-4.9840 4.5151 2.3905
-5.1457 4.3360 2.3905
-5.3009 4.1512 2.3905
-5.4495 3.9607 2.3905
-5.5911 3.7649 2.3905
-5.7256 3.5641 2.3905
-5.8528 3.3583 2.3905
-5.9726 3.1481 2.3905
-6.0847 2.9335 2.3905
-6.1891 2.7149 2.3905
-6.2855 2.4926 2.3905
-6.3738 2.2668 2.3905
-6.4539 2.0379 2.3905
-6.5256 1.8062 2.3905
-6.5890 1.5719 2.3905
-6.6438 1.3353 2.3905
-6.6900 1.0969 2.3905
-6.7275 0.8569 2.3905
-6.7563 0.6155 2.3905
-6.7763 0.3732 2.3905
-6.7875 0.1303 2.3905
-6.7898 -0.1129 2.3905
-6.7833 -0.3562 2.3905
-6.7679 -0.5990 2.3905
-6.7437 -0.8413 2.3905
-6.7107 -1.0825 2.3905
-6.6689 -1.3224 2.3905
-6.6184 -1.5606 2.3905
-6.5592 -1.7969 2.3905
-6.4914 -2.0309 2.3905
-6.4152 -2.2623 2.3905
-6.3306 -2.4908 2.3905
-6.2377 -2.7161 2.3905
-6.1366 -2.9378 2.3905
-6.0276 -3.1557 2.3905
-5.9106 -3.3695 2.3905
-5.7860 -3.5790 2.3905
-5.6538 -3.7836 2.3905
-5.5142 -3.9833 2.3905
-5.3675 -4.1778 2.3905
-5.2138 -4.3668 2.3905
-5.0533 -4.5501 2.3905
-4.8863 -4.7274 2.3905
-4.7130 -4.8984 2.3905
-4.5335 -5.0630 2.3905
-4.3483 -5.2209 2.3905
-4.1574 -5.3719 2.3905
-3.9613 -5.5159 2.3905
-3.7600 -5.6525 2.3905
-3.5540 -5.7818 2.3905
-3.3435 -5.9034 2.3905
-3.1288 -6.0173 2.3905
-2.9101 -6.1232 2.3905
-2.6879 -6.2211 2.3905
-2.4622 -6.3109 2.3905
-2.2336 -6.3923 2.3905
-2.0022 -6.4653 2.3905
-1.7685 -6.5300 2.3905
-1.5326 -6.5860 2.3905
-1.2950 -6.6335 2.3905
-1.0559 -6.6723 2.3905
-0.8157 -6.7024 2.3905
-0.5746 -6.7237 2.3905
-0.3330 -6.7364 2.3905
-0.0913 -6.7403 2.3905
0.1503 -6.7354 2.3905
0.3915 -6.7219 2.3905
0.6318 -6.6996 2.3905
0.8711 -6.6687 2.3905
1.1090 -6.6293 2.3905
1.3452 -6.5812 2.3905
1.5794 -6.5248 2.3905
1.7180 -6.1271 2.2673
1.9105 -5.9797 2.2381
2.1225 -5.9037 2.2381
2.3315 -5.8204 2.2382
2.5378 -5.7307 2.2387
2.7407 -5.6337 2.2392
2.9398 -5.5294 2.2397
3.1350 -5.4181 2.2402
3.3261 -5.2999 2.2406
3.5126 -5.1749 2.2411
3.6945 -5.0434 2.2415
3.8715 -4.9054 2.2419
4.0422 -4.7599 2.2417
4.1959 -4.5958 2.2353
4.3521 -4.4359 2.2335
4.5071 -4.2755 2.2342
4.6553 -4.1087 2.2343
4.7974 -3.9369 2.2345
4.6565 -3.5493 2.1093
5.0625 -3.5789 2.2348
5.1853 -3.3931 2.2350
5.3014 -3.2032 2.2351
5.4106 -3.0093 2.2353
5.5128 -2.8118 2.2355
5.6080 -2.6109 2.2357
5.6958 -2.4068 2.2359
4.7897 -1.8240 1.8541
5.8495 -1.9900 2.2363
5.9152 -1.7779 2.2365
5.9732 -1.5637 2.2367
6.0236 -1.3476 2.2369
6.0663 -1.1299 2.2371
6.1013 -0.9109 2.2373
6.1285 -0.6908 2.2375
6.1479 -0.4700 2.2378
6.1594 -0.2487 2.2380
6.1631 -0.0271 2.2382
6.1590 0.1944 2.2384
6.1470 0.4156 2.2387
6.1273 0.6362 2.2389
6.0997 0.8560 2.2391
6.0644 1.0746 2.2393
6.0214 1.2918 2.2396
5.9708 1.5074 2.2398
5.9125 1.7210 2.2400
5.8468 1.9325 2.2403
5.7736 2.1415 2.2405
5.6931 2.3477 2.2407
5.6053 2.5511 2.2410
5.1647 2.5786 2.1006
5.4084 2.9478 2.2414
5.2996 3.1407 2.2416
5.1840 3.3297 2.2419
5.0617 3.5145 2.2421
4.9330 3.6949 2.2423
4.7980 3.8706 2.2425
4.6568 4.0416 2.2428
4.5084 4.2063 2.2424
4.3542 4.3656 2.2420
4.1880 4.5124 2.2381
4.0240 4.6610 2.2381
3.8547 4.8038 2.2381
3.6805 4.9406 2.2381
3.5015 5.0711 2.2381
3.3179 5.1952 2.2381
3.1301 5.3128 2.2381
2.9381 5.4237 2.2381
2.9290 5.9042 2.3905
2.7159 6.0079 2.3905
2.4992 6.1040 2.3905
0.9126 2.4794 0.9571
0.8230 2.5110 0.9569
0.7324 2.5393 0.9566
0.6408 2.5644 0.9563
0.5483 2.5861 0.9560
0.4551 2.6045 0.9557
0.3613 2.6196 0.9553
0.2670 2.6312 0.9549
0.1723 2.6394 0.9546
0.0774 2.6442 0.9542
-0.0176 2.6456 0.9537
-0.1126 2.6435 0.9533
-0.2075 2.6380 0.9529
-0.3021 2.6291 0.9524
-0.3964 2.6168 0.9519
-0.4901 2.6011 0.9514
-0.5832 2.5820 0.9509
-0.6756 2.5595 0.9504
-0.7670 2.5338 0.9499
-0.8575 2.5047 0.9493
-2.3858 6.2294 2.3905
-2.6095 6.1437 2.3905
-2.8300 6.0498 2.3905
-3.0472 5.9481 2.3905
-3.2607 5.8386 2.3905
-3.4703 5.7215 2.3905
-3.6756 5.5968 2.3905
-3.8765 5.4648 2.3905
-4.0725 5.3255 2.3905
-4.2636 5.1793 2.3905
-4.4493 5.0261 2.3905
-4.6295 4.8663 2.3905
-4.8040 4.7000 2.3905
-4.9724 4.5274 2.3905
-5.1346 4.3487 2.3905
-5.2902 4.1643 2.3905
-5.4393 3.9742 2.3905
-5.5814 3.7788 2.3905
-5.7164 3.5783 2.3905
-5.8442 3.3729 2.3905
-5.9645 3.1630 2.3905
-6.0771 2.9487 2.3905
-6.1820 2.7304 2.3905
-6.2790 2.5083 2.3905
-6.3679 2.2828 2.3905
-6.4485 2.0541 2.3905
-6.5209 1.8225 2.3905
-6.5848 1.5884 2.3905
-6.6402 1.3520 2.3905
-6.6870 1.1137 2.3905
-6.7252 0.8737 2.3905
-6.7546 0.6325 2.3905
-6.7752 0.3902 2.3905
-6.7870 0.1473 2.3905
-6.7899 -0.0959 2.3905
-6.7840 -0.3391 2.3905
-6.7693 -0.5820 2.3905
-6.7457 -0.8243 2.3905
-6.7133 -1.0656 2.3905
-6.6721 -1.3056 2.3905
-6.6222 -1.5440 2.3905
-6.5636 -1.7804 2.3905
-6.4965 -2.0146 2.3905
-6.4208 -2.2462 2.3905
-6.3368 -2.4749 2.3905
-6.2445 -2.7004 2.3905
-6.1440 -2.9224 2.3905
-6.0355 -3.1406 2.3905
-5.9191 -3.3547 2.3905
-5.7950 -3.5644 2.3905
-5.6633 -3.7694 2.3905
-5.5242 -3.9695 2.3905
-5.3780 -4.1644 2.3905
-5.2248 -4.3538 2.3905
-5.0648 -4.5375 2.3905
-4.8982 -4.7151 2.3905
-4.7253 -4.8866 2.3905
-4.5463 -5.0517 2.3905
-4.3615 -5.2100 2.3905
-4.1710 -5.3616 2.3905
-3.9752 -5.5060 2.3905
-3.7743 -5.6432 2.3905
-3.5686 -5.7730 2.3905
-3.3584 -5.8951 2.3905
-3.1440 -6.0095 2.3905
-2.9256 -6.1160 2.3905
-2.7035 -6.2145 2.3905
-2.4781 -6.3048 2.3905
-2.2497 -6.3868 2.3905
-2.0185 -6.4605 2.3905
-1.7849 -6.5257 2.3905
-1.5492 -6.5824 2.3905
-1.3117 -6.6304 2.3905
-1.0727 -6.6698 2.3905
-0.8325 -6.7005 2.3905
-0.5915 -6.7225 2.3905
-0.3500 -6.7358 2.3905
-0.1082 -6.7403 2.3905
0.1334 -6.7361 2.3905
0.3746 -6.7231 2.3905
0.6150 -6.7015 2.3905
0.8544 -6.6712 2.3905
4.4625 3.6375 2.2423
4.3287 3.7955 2.2420
4.1893 3.9486 2.2416
4.0446 4.0967 2.2412
3.8948 4.2395 2.2408
3.7399 4.3769 2.2404
3.5803 4.5087 2.2400
3.4138 4.6317 2.2381
3.2459 4.7527 2.2381
3.0739 4.8677 2.2381
2.8978 4.9766 2.2381
2.7261 5.0945 2.2448
2.7070 5.5278 2.3905
2.5075 5.6235 2.3905
0.9219 2.2849 0.9562
0.8393 2.3170 0.9560
0.7556 2.3460 0.9558
0.6709 2.3720 0.9555
0.5854 2.3950 0.9552
0.4990 2.4148 0.9550
0.4120 2.4315 0.9546
0.3244 2.4451 0.9543
0.2364 2.4555 0.9540
0.1480 2.4627 0.9536
0.0595 2.4667 0.9532
-0.0292 2.4675 0.9528
-0.1178 2.4651 0.9524
-0.2063 2.4596 0.9520
-0.2945 2.4508 0.9516
-0.3823 2.4389 0.9511
-0.4697 2.4238 0.9507
-0.5564 2.4055 0.9502
-0.6425 2.3841 0.9497
-0.7277 2.3597 0.9492
-0.8119 2.3322 0.9487
-0.8952 2.3016 0.9482
-2.4651 5.7213 2.3905
-2.6704 5.6325 2.3905
-2.8725 5.5364 2.3905
-3.0711 5.4330 2.3905
-3.2660 5.3225 2.3905
-3.4569 5.2050 2.3905
-3.6436 5.0806 2.3905
-3.8257 4.9496 2.3905
-4.0031 4.8120 2.3905
-4.1756 4.6681 2.3905
-4.3428 4.5179 2.3905
-4.5046 4.3618 2.3905
-4.6608 4.1999 2.3905
-4.8110 4.0323 2.3905
-4.9552 3.8594 2.3905
-5.0932 3.6812 2.3905
-5.2246 3.4982 2.3905
-5.3495 3.3104 2.3905
-5.4675 3.1181 2.3905
-5.5785 2.9216 2.3905
-5.6824 2.7212 2.3905
-5.7790 2.5170 2.3905
-5.8682 2.3094 2.3905
-5.9499 2.0986 2.3905
-6.0238 1.8848 2.3905
-6.0901 1.6685 2.3905
-6.1484 1.4499 2.3905
-6.1988 1.2291 2.3905
-6.2412 1.0067 2.3905
-6.2754 0.7827 2.3905
-6.3016 0.5577 2.3905
-6.3195 0.3317 2.3905
-6.3292 0.1052 2.3905
-6.3307 -0.1216 2.3905
-6.3239 -0.3483 2.3905
-6.3089 -0.5747 2.3905
-6.2857 -0.8005 2.3905
-6.2542 -1.0253 2.3905
-6.2146 -1.2488 2.3905
-6.1669 -1.4708 2.3905
-6.1112 -1.6909 2.3905
-6.0474 -1.9088 2.3905
-5.9758 -2.1243 2.3905
-5.8963 -2.3371 2.3905
-5.8091 -2.5469 2.3905
-5.7144 -2.7534 2.3905
-5.6122 -2.9562 2.3905
-5.5027 -3.1553 2.3905
-5.3860 -3.3501 2.3905
-5.2623 -3.5407 2.3905
-5.1318 -3.7265 2.3905
-4.9946 -3.9075 2.3905
-4.8509 -4.0834 2.3905
-4.7009 -4.2539 2.3905
-4.5448 -4.4188 2.3905
-4.3829 -4.5778 2.3905
-4.2153 -4.7309 2.3905
-4.0422 -4.8777 2.3905
-3.8640 -5.0182 2.3905
-3.6809 -5.1520 2.3905
-3.4930 -5.2790 2.3905
-3.3007 -5.3991 2.3905
-3.1042 -5.5121 2.3905
-2.9038 -5.6179 2.3905
-2.6998 -5.7162 2.3905
-2.4923 -5.8071 2.3905
-2.2818 -5.8904 2.3905
-2.0685 -5.9660 2.3905
-1.8526 -6.0337 2.3905
-1.6346 -6.0936 2.3905
-1.4145 -6.1454 2.3905
-1.1929 -6.1893 2.3905
-0.9698 -6.2251 2.3905
-0.7458 -6.2528 2.3905
-0.5209 -6.2724 2.3905
-0.2956 -6.2838 2.3905
-0.0701 -6.2871 2.3905
0.1552 -6.2822 2.3905
0.3801 -6.2692 2.3905
0.6043 -6.2481 2.3905
0.8274 -6.2189 2.3905
1.0493 -6.1817 2.3905
1.2696 -6.1367 2.3905
1.4880 -6.0836 2.3905
1.7041 -6.0226 2.3904
1.7957 -5.5748 2.2381
1.9933 -5.5035 2.2381
2.1882 -5.4253 2.2381
2.3802 -5.3405 2.2383
2.5693 -5.2496 2.2387
2.7549 -5.1520 2.2392
2.9368 -5.0478 2.2396
3.1148 -4.9372 2.2401
3.2886 -4.8203 2.2405
3.4581 -4.6972 2.2409
3.6230 -4.5682 2.2413
3.7831 -4.4334 2.2417
3.9382 -4.2929 2.2420
4.0873 -4.1463 2.2419
4.2209 -3.9849 2.2366
4.3543 -3.8247 2.2342
4.4875 -3.6648 2.2348
4.6141 -3.4996 2.2350
4.7346 -3.3301 2.2351
4.8489 -3.1564 2.2353
4.9570 -2.9789 2.2354
5.0587 -2.7977 2.2356
5.1538 -2.6131 2.2358
5.2423 -2.4253 2.2360
5.3240 -2.2345 2.2361
4.7907 -1.8111 1.9844
5.4668 -1.8451 2.2365
5.5277 -1.6469 2.2367
5.5815 -1.4467 2.2369
5.6282 -1.2448 2.2371
5.6677 -1.0414 2.2373
4.8859 -0.7173 1.9179
5.7249 -0.6312 2.2377
4.9082 -0.3632 1.9128
5.7530 -0.2182 2.2381
5.7560 -0.0112 2.2383
5.7517 0.1957 2.2385
5.7400 0.4023 2.2388
5.7211 0.6083 2.2390
5.6949 0.8135 2.2392
5.6615 1.0177 2.2394
5.6208 1.2205 2.2396
5.0612 1.2911 2.0342
5.5181 1.6212 2.2400
5.4562 1.8185 2.2403
5.0992 1.9059 2.1206
5.3116 2.2060 2.2407
5.2291 2.3957 2.2409
5.1400 2.5824 2.2411
5.0443 2.7658 2.2413
4.9421 2.9458 2.2415
4.8336 3.1220 2.2417
4.7204 3.2953 2.2426
4.5994 3.4633 2.2427
4.4717 3.6263 2.2423
4.3382 3.7846 2.2420
4.1993 3.9380 2.2416
4.0550 4.0865 2.2412
3.9054 4.2297 2.2408
3.7509 4.3675 2.2404
3.5916 4.4997 2.2400
3.4254 4.6230 2.2381
3.2578 4.7444 2.2381
3.0861 4.8599 2.2381
2.9103 4.9692 2.2381
2.7306 5.0722 2.2381
2.7209 5.5208 2.3905
2.5216 5.6170 2.3905
2.3189 5.7061 2.3905
0.8451 2.3148 0.9560
0.7615 2.3441 0.9558
0.6769 2.3703 0.9555
0.5914 2.3935 0.9553
0.5051 2.4135 0.9550
0.4181 2.4304 0.9547
0.3305 2.4442 0.9543
0.2425 2.4548 0.9540
0.1542 2.4623 0.9536
0.0657 2.4665 0.9533
-0.0229 2.4676 0.9529
-0.1116 2.4654 0.9525
-0.2001 2.4601 0.9520
-0.2883 2.4515 0.9516
-0.3762 2.4398 0.9512
-0.4636 2.4249 0.9507
-0.5504 2.4069 0.9502
-0.6365 2.3857 0.9497
-0.7217 2.3615 0.9492
-0.8061 2.3342 0.9487
-0.8894 2.3039 0.9482
-2.4506 5.7272 2.3905
-2.6561 5.6390 2.3905
-2.8585 5.5433 2.3905
-3.0573 5.4405 2.3905
-3.2525 5.3304 2.3905
-3.4437 5.2134 2.3905
-3.6306 5.0896 2.3905
-3.8131 4.9590 2.3905
-3.9909 4.8219 2.3905
-4.1637 4.6784 2.3905
-4.3313 4.5287 2.3905
-4.4935 4.3729 2.3905
-4.6500 4.2114 2.3905
-4.8007 4.0442 2.3905
-4.9453 3.8717 2.3905
-5.0837 3.6939 2.3905
-5.2156 3.5112 2.3905
-5.3409 3.3237 2.3905
-5.4594 3.1317 2.3905
-5.5710 2.9355 2.3905
-5.6754 2.7353 2.3905
-5.7725 2.5314 2.3905
-5.8622 2.3240 2.3905
-5.9444 2.1134 2.3905
-6.0189 1.8999 2.3905
-6.0857 1.6838 2.3905
-6.1446 1.4652 2.3905
-6.1955 1.2447 2.3905
-6.2385 1.0223 2.3905
-6.2733 0.7985 2.3905
-6.3000 0.5735 2.3905
-6.3185 0.3476 2.3905
-6.3288 0.1211 2.3905
-6.3309 -0.1057 2.3905
-6.3247 -0.3325 2.3905
-6.3102 -0.5589 2.3905
-6.2876 -0.7847 2.3905
-6.2567 -1.0095 2.3905
-6.2177 -1.2332 2.3905
-6.1705 -1.4553 2.3905
-6.1153 -1.6755 2.3905
-6.0521 -1.8936 2.3905
-5.9810 -2.1093 2.3905
-5.9021 -2.3223 2.3905
-5.8155 -2.5323 2.3905
-5.7213 -2.7390 2.3905
-5.6196 -2.9421 2.3905
-5.5106 -3.1414 2.3905
-5.3944 -3.3366 2.3905
-5.2712 -3.5275 2.3905
-5.1411 -3.7137 2.3905
-5.0044 -3.8950 2.3905
-4.8611 -4.0712 2.3905
-4.7116 -4.2421 2.3905
-4.5559 -4.4074 2.3905
-4.3944 -4.5669 2.3905
-4.2272 -4.7204 2.3905
-4.0545 -4.8677 2.3905
-3.8767 -5.0085 2.3905
-3.6939 -5.1428 2.3905
-3.5063 -5.2703 2.3905
-3.3143 -5.3909 2.3905
-3.1181 -5.5044 2.3905
-2.9180 -5.6107 2.3905
-2.7142 -5.7096 2.3905
-2.5070 -5.8010 2.3905
-2.2967 -5.8848 2.3905
-2.0835 -5.9610 2.3905
-1.8678 -6.0292 2.3905
-1.6499 -6.0896 2.3905
-1.4300 -6.1421 2.3905
-1.2084 -6.1865 2.3905
-0.9855 -6.2229 2.3905
-0.7615 -6.2511 2.3905
-0.5367 -6.2713 2.3905
-0.3114 -6.2833 2.3905
-0.0859 -6.2871 2.3905
0.1394 -6.2828 2.3905
0.3643 -6.2704 2.3905
0.5886 -6.2498 2.3905
0.8118 -6.2212 2.3905
1.0338 -6.1846 2.3905
1.2542 -6.1400 2.3905
1.4727 -6.0876 2.3905
1.6891 -6.0273 2.3905
1.7823 -5.5812 2.2388
1.9796 -5.5087 2.2381
2.1747 -5.4310 2.2381
2.3668 -5.3466 2.2382
2.5561 -5.2562 2.2387
2.7420 -5.1591 2.2391
2.9242 -5.0553 2.2396
3.1025 -4.9452 2.2400
3.2766 -4.8287 2.2404
3.4464 -4.7060 2.2409
3.6116 -4.5774 2.2413
3.7720 -4.4430 2.2416
3.9275 -4.3029 2.2420
4.0773 -4.1570 2.2421
4.2117 -3.9963 2.2369
4.3448 -3.8357 2.2342
4.4785 -3.6762 2.2348
4.6054 -3.5113 2.2349
4.7263 -3.3421 2.2351
4.8411 -3.1687 2.2353
4.9496 -2.9915 2.2354
5.0518 -2.8105 2.2356
5.1473 -2.6262 2.2358
5.2363 -2.4386 2.2359
5.3185 -2.2480 2.2361
4.7896 -1.8245 1.9858
5.4622 -1.8589 2.2365
5.5237 -1.6608 2.2367
5.5780 -1.4608 2.2369
5.6252 -1.2590 2.2371
5.6652 -1.0557 2.2373
4.8849 -0.7297 1.9182
5.7234 -0.6456 2.2377
5.7416 -0.4394 2.2379
5.7525 -0.2327 2.2381
5.7560 -0.0257 2.2383
5.7522 0.1812 2.2385
5.7411 0.3878 2.2387
5.7227 0.5939 2.2390
5.6970 0.7992 2.2392
5.6640 1.0034 2.2394
5.6239 1.2063 2.2396
5.5766 1.4077 2.2398
5.5222 1.6072 2.2400
5.4608 1.8047 2.2402
5.0980 1.8908 2.1181
5.3172 2.1926 2.2407
5.2351 2.3825 2.2409
5.1464 2.5694 2.2411
5.0512 2.7531 2.2413
4.9495 2.9333 2.2415
4.8414 3.1097 2.2417
4.7278 3.2828 2.2422
4.6081 3.4517 2.2427
4.4808 3.6150 2.2424
4.3478 3.7736 2.2420
4.2092 3.9275 2.2416
4.0652 4.0762 2.2413
3.9161 4.2198 2.2409
3.7619 4.3580 2.2405
3.6030 4.4906 2.2401
3.4370 4.6143 2.2381
3.2697 4.7361 2.2381
3.0982 4.8520 2.2381
2.9227 4.9617 2.2381
2.7433 5.0652 2.2381
2.7347 5.5138 2.3905
2.5357 5.6105 2.3905
2.3332 5.7001 2.3905
0.8510 2.3127 0.9560
0.7674 2.3421 0.9558
0.6829 2.3686 0.9556
0.5974 2.3919 0.9553
0.5111 2.4122 0.9550
0.4242 2.4294 0.9547
0.3367 2.4434 0.9544
0.2487 2.4542 0.9540
0.1604 2.4619 0.9537
0.0719 2.4663 0.9533
-0.0167 2.4676 0.9529
-0.1054 2.4657 0.9525
-0.1939 2.4605 0.9521
-0.2821 2.4522 0.9516
-0.3700 2.4407 0.9512
-0.4575 2.4261 0.9507
-0.5443 2.4082 0.9503
-0.6305 2.3873 0.9498
-0.7158 2.3633 0.9493
-0.8002 2.3362 0.9488
-0.8836 2.3061 0.9482
-2.4361 5.7331 2.3905
-2.6418 5.6454 2.3905
-2.8444 5.5503 2.3905
-3.0435 5.4479 2.3905
-3.2390 5.3384 2.3905
-3.4304 5.2219 2.3905
-3.6177 5.0985 2.3905
-3.8005 4.9684 2.3905
-3.9786 4.8317 2.3905
-4.1517 4.6886 2.3905
-4.3197 4.5394 2.3905
-4.4823 4.3841 2.3905
-4.6392 4.2229 2.3905
-4.7903 4.0561 2.3905
-4.9354 3.8839 2.3905
-5.0742 3.7065 2.3905
-5.2066 3.5241 2.3905
-5.3324 3.3370 2.3905
-5.4513 3.1453 2.3905
-5.5634 2.9495 2.3905
-5.6683 2.7495 2.3905
-5.7659 2.5458 2.3905
-5.8562 2.3387 2.3905
-5.9389 2.1283 2.3905
-6.0139 1.9150 2.3905
-6.0812 1.6990 2.3905
-6.1407 1.4806 2.3905
-6.1922 1.2602 2.3905
-6.2357 1.0379 2.3905
-6.2711 0.8142 2.3905
-6.2984 0.5893 2.3905
-6.3175 0.3634 2.3905
-6.3283 0.1369 2.3905
-6.3310 -0.0898 2.3905
-6.3254 -0.3166 2.3905
-6.3115 -0.5430 2.3905
-6.2894 -0.7689 2.3905
-6.2591 -0.9938 2.3905
-6.2207 -1.2175 2.3905
-6.1741 -1.4398 2.3905
-6.1195 -1.6601 2.3905
-6.0568 -1.8784 2.3905
-5.9863 -2.0942 2.3905
-5.9079 -2.3075 2.3905
-5.8218 -2.5177 2.3905
-5.7281 -2.7247 2.3905
-5.6270 -2.9280 2.3905
-5.5185 -3.1276 2.3905
-5.4028 -3.3231 2.3905
-5.2801 -3.5142 2.3905
-5.1505 -3.7008 2.3905
-5.0142 -3.8825 2.3905
-4.8714 -4.0591 2.3905
-4.7223 -4.2303 2.3905
-4.5670 -4.3960 2.3905
-4.4059 -4.5559 2.3905
-4.2391 -4.7098 2.3905
-4.0668 -4.8575 2.3905
-3.8893 -4.9989 2.3905
-3.7068 -5.1336 2.3905
-3.5196 -5.2616 2.3905
-3.3279 -5.3827 2.3905
-3.1320 -5.4967 2.3905
-2.9321 -5.6035 2.3905
-2.7286 -5.7029 2.3905
-2.5216 -5.7949 2.3905
-2.3115 -5.8792 2.3905
-2.0985 -5.9558 2.3905
-1.8830 -6.0247 2.3905
-1.6652 -6.0856 2.3905
-1.4455 -6.1387 2.3905
-1.2240 -6.1837 2.3905
-1.0012 -6.2206 2.3905
-0.7772 -6.2494 2.3905
-0.5525 -6.2701 2.3905
-0.3272 -6.2827 2.3905
-0.1018 -6.2871 2.3905
0.1236 -6.2834 2.3905
0.3486 -6.2715 2.3905
0.5729 -6.2515 2.3905
0.7962 -6.2235 2.3905
4.1802 3.4076 2.2416
4.0548 3.5556 2.2413
3.9243 3.6991 2.2410
3.7887 3.8378 2.2406
3.6483 3.9716 2.2402
3.5032 4.1003 2.2399
3.3537 4.2238 2.2395
3.1998 4.3419 2.2391
3.0418 4.4545 2.2386
2.8800 4.5614 2.2382
2.7147 4.6630 2.2381
2.6842 5.0171 2.3594
2.5358 5.1793 2.3905
2.3488 5.2689 2.3905
0.8626 2.1387 0.9553
0.7853 2.1686 0.9551
0.7070 2.1958 0.9548
0.6277 2.2201 0.9546
0.5476 2.2416 0.9543
0.4668 2.2601 0.9541
0.3853 2.2758 0.9538
0.3033 2.2884 0.9535
0.2209 2.2982 0.9532
0.1383 2.3049 0.9528
0.0554 2.3087 0.9525
-0.0276 2.3094 0.9521
-0.1105 2.3072 0.9517
-0.1933 2.3020 0.9513
-0.2759 2.2938 0.9509
-0.3581 2.2826 0.9505
-0.4399 2.2684 0.9501
-0.5211 2.2514 0.9496
-0.6016 2.2314 0.9492
-0.6814 2.2085 0.9487
-0.7603 2.1827 0.9482
-0.8382 2.1541 0.9477
-0.9150 2.1228 0.9472
-2.5012 5.2737 2.3905
-2.6904 5.1835 2.3905
-2.8763 5.0866 2.3905
-3.0587 4.9829 2.3905
-3.2373 4.8727 2.3905
-3.4119 4.7562 2.3905
-3.5823 4.6333 2.3905
-3.7483 4.5044 2.3905
-3.9096 4.3695 2.3905
-4.0660 4.2288 2.3905
-4.2174 4.0825 2.3905
-4.3634 3.9308 2.3905
-4.5039 3.7739 2.3905
-4.6387 3.6118 2.3905
-4.7677 3.4451 2.3905
-4.8906 3.2736 2.3905
-5.0073 3.0978 2.3905
-5.1176 2.9177 2.3905
-5.2213 2.7338 2.3905
-5.3184 2.5461 2.3905
-5.4087 2.3550 2.3905
-5.4920 2.1607 2.3905
-5.5683 1.9633 2.3905
-5.6374 1.7633 2.3905
-5.6992 1.5608 2.3905
-5.7537 1.3562 2.3905
-5.8007 1.1497 2.3905
-5.8402 0.9415 2.3905
-5.8722 0.7320 2.3905
-5.8965 0.5213 2.3905
-5.9132 0.3099 2.3905
-5.9222 0.0979 2.3905
-5.9234 -0.1142 2.3905
-5.9170 -0.3263 2.3905
-5.9029 -0.5381 2.3905
-5.8811 -0.7491 2.3905
-5.8516 -0.9595 2.3905
-5.8145 -1.1687 2.3905
-5.7698 -1.3763 2.3905
-5.7176 -1.5822 2.3905
-5.6579 -1.7860 2.3905
-5.5909 -1.9877 2.3905
-5.5165 -2.1867 2.3905
-5.4350 -2.3829 2.3905
-5.3463 -2.5761 2.3905
-5.2507 -2.7658 2.3905
-5.1483 -2.9520 2.3905
-5.0392 -3.1343 2.3905
-4.9235 -3.3126 2.3905
-4.8014 -3.4865 2.3905
-4.6730 -3.6558 2.3905
-4.5386 -3.8203 2.3905
-4.3984 -3.9798 2.3905
-4.2524 -4.1341 2.3905
-4.1009 -4.2830 2.3905
-3.9442 -4.4262 2.3905
-3.7824 -4.5636 2.3905
-3.6157 -4.6951 2.3905
-3.4444 -4.8203 2.3905
-3.2687 -4.9393 2.3905
-3.0888 -5.0517 2.3905
-2.9051 -5.1575 2.3905
-2.7176 -5.2566 2.3905
-2.5267 -5.3487 2.3905
-2.3327 -5.4339 2.3905
-2.1358 -5.5119 2.3905
-1.9362 -5.5827 2.3905
-1.7343 -5.6462 2.3905
-1.5303 -5.7024 2.3905
-1.3244 -5.7511 2.3905
-1.1170 -5.7923 2.3905
-0.9083 -5.8260 2.3905
-0.6987 -5.8520 2.3905
-0.4883 -5.8705 2.3905
-0.2774 -5.8814 2.3905
-0.0664 -5.8846 2.3905
0.1445 -5.8802 2.3905
0.3550 -5.8682 2.3905
0.5648 -5.8486 2.3905
0.7738 -5.8215 2.3905
0.9815 -5.7869 2.3905
1.1877 -5.7449 2.3905
1.3922 -5.6954 2.3905
1.5946 -5.6387 2.3905
1.7605 -5.4681 2.3447
1.8655 -5.1528 2.2381
2.0480 -5.0797 2.2381
2.2277 -5.0002 2.2381
2.4044 -4.9146 2.2383
2.5782 -4.8234 2.2387
2.7486 -4.7259 2.2391
2.9153 -4.6225 2.2395
3.0781 -4.5131 2.2399
3.2368 -4.3980 2.2403
3.3913 -4.2773 2.2407
3.5413 -4.1511 2.2410
3.6865 -4.0197 2.2414
3.8270 -3.8832 2.2417
3.9624 -3.7418 2.2420
4.0925 -3.5957 2.2423
4.2107 -3.4398 2.2391
4.3219 -3.2789 2.2353
4.4342 -3.1196 2.2351
4.5421 -2.9575 2.2355
4.6435 -2.7913 2.2357
4.7388 -2.6216 2.2358
4.8280 -2.4487 2.2360
4.9110 -2.2727 2.2362
4.9877 -2.0940 2.2363
4.7907 -1.8117 2.1183
4.8126 -1.6249 2.1017
5.1789 -1.5435 2.2369
5.2294 -1.3560 2.2371
5.2732 -1.1668 2.2372
5.3103 -0.9762 2.2374
5.3406 -0.7845 2.2376
5.3641 -0.5919 2.2378
4.9082 -0.3636 2.0415
5.3905 -0.2048 2.2382
5.3934 -0.0109 2.2384
5.3894 0.1830 2.2386
5.3786 0.3766 2.2388
5.3608 0.5697 2.2390
5.3363 0.7620 2.2392
5.3050 0.9534 2.2394
5.2669 1.1434 2.2396
5.2221 1.3320 2.2398
5.1707 1.5189 2.2400
5.1126 1.7039 2.2402
5.0481 1.8867 2.2404
4.9771 2.0670 2.2406
4.8998 2.2448 2.2408
4.8162 2.4197 2.2410
4.7265 2.5915 2.2412
4.6337 2.7620 2.2429
4.5310 2.9266 2.2426
4.4225 3.0875 2.2423
4.3084 3.2443 2.2420
4.1887 3.3970 2.2417
4.0638 3.5454 2.2413
3.9336 3.6892 2.2410
3.7984 3.8282 2.2406
3.6583 3.9624 2.2403
3.5135 4.0915 2.2399
3.3643 4.2154 2.2395
3.2107 4.3339 2.2391
3.0530 4.4468 2.2387
2.8914 4.5541 2.2383
2.7264 4.6560 2.2381
2.6804 4.9799 2.3452
2.5488 5.1727 2.3905
2.3620 5.2628 2.3905
0.8680 2.1365 0.9553
0.7908 2.1666 0.9551
0.7125 2.1940 0.9549
0.6333 2.2185 0.9546
0.5532 2.2402 0.9544
0.4725 2.2589 0.9541
0.3910 2.2748 0.9538
0.3091 2.2877 0.9535
0.2267 2.2976 0.9532
0.1441 2.3045 0.9528
0.0612 2.3085 0.9525
-0.0218 2.3095 0.9521
-0.1047 2.3074 0.9517
-0.1875 2.3024 0.9513
-0.2701 2.2944 0.9509
-0.3524 2.2835 0.9505
-0.4342 2.2695 0.9501
-0.5154 2.2527 0.9496
-0.5960 2.2329 0.9492
-0.6758 2.2102 0.9487
-0.7548 2.1846 0.9482
-0.8327 2.1562 0.9478
-0.9096 2.1251 0.9473
-2.4879 5.2798 2.3905
-2.6772 5.1901 2.3905
-2.8634 5.0936 2.3905
-3.0460 4.9904 2.3905
-3.2249 4.8807 2.3905
-3.3998 4.7646 2.3905
-3.5706 4.6421 2.3905
-3.7368 4.5136 2.3905
-3.8985 4.3792 2.3905
-4.0552 4.2389 2.3905
-4.2069 4.0930 2.3905
-4.3533 3.9416 2.3905
-4.4942 3.7850 2.3905
-4.6295 3.6234 2.3905
-4.7588 3.4569 2.3905
-4.8822 3.2858 2.3905
-4.9993 3.1102 2.3905
-5.1101 2.9305 2.3905
-5.2143 2.7468 2.3905
-5.3118 2.5593 2.3905
-5.4026 2.3685 2.3905
-5.4864 2.1743 2.3905
-5.5632 1.9772 2.3905
-5.6328 1.7774 2.3905
-5.6951 1.5751 2.3905
-5.7501 1.3706 2.3905
-5.7976 1.1642 2.3905
-5.8377 0.9561 2.3905
-5.8701 0.7470 2.3905
-5.8950 0.5361 2.3905
-5.9122 0.3248 2.3905
-5.9218 0.1125 2.3905
-5.9236 -0.0993 2.3905
-5.9177 -0.3114 2.3905
-5.9042 -0.5233 2.3905
-5.8829 -0.7345 2.3905
-5.8539 -0.9448 2.3905
-5.8174 -1.1540 2.3905
-5.7732 -1.3618 2.3905
-5.7215 -1.5678 2.3905
-5.6624 -1.7719 2.3905
-5.5958 -1.9736 2.3905
-5.5220 -2.1728 2.3905
-5.4409 -2.3693 2.3905
-5.3528 -2.5626 2.3905
-5.2577 -2.7527 2.3905
-5.1557 -2.9391 2.3905
-5.0470 -3.1217 2.3905
-4.9318 -3.3002 2.3905
-4.8101 -3.4744 2.3905
-4.6822 -3.6441 2.3905
-4.5482 -3.8089 2.3905
-4.4084 -3.9688 2.3905
-4.2628 -4.1235 2.3905
-4.1117 -4.2727 2.3905
-3.9553 -4.4164 2.3905
-3.7939 -4.5542 2.3905
-3.6275 -4.6861 2.3905
-3.4565 -4.8118 2.3905
-3.2811 -4.9311 2.3905
-3.1016 -5.0440 2.3905
-2.9181 -5.1503 2.3905
-2.7309 -5.2499 2.3905
-2.5402 -5.3425 2.3905
-2.3464 -5.4281 2.3905
-2.1497 -5.5066 2.3905
-1.9503 -5.5780 2.3905
-1.7485 -5.6420 2.3905
-1.5446 -5.6987 2.3905
-1.3389 -5.7479 2.3905
-1.1316 -5.7897 2.3905
-0.9230 -5.8238 2.3905
-0.7134 -5.8505 2.3905
-0.5030 -5.8695 2.3905
-0.2922 -5.8809 2.3905
-0.0812 -5.8846 2.3905
0.1297 -5.8808 2.3905
0.3403 -5.8693 2.3905
0.5502 -5.8503 2.3905
0.7591 -5.8237 2.3905
0.9669 -5.7896 2.3905
1.1733 -5.7480 2.3905
1.3779 -5.6991 2.3905
1.5805 -5.6429 2.3905
1.7556 -5.5001 2.3565
1.8526 -5.1578 2.2381
2.0353 -5.0851 2.2381
2.2152 -5.0060 2.2381
2.3921 -4.9208 2.2382
2.5662 -4.8300 2.2387
2.7368 -4.7330 2.2391
2.9037 -4.6299 2.2395
3.0668 -4.5209 2.2399
3.2259 -4.4062 2.2403
3.3806 -4.2859 2.2406
3.5309 -4.1601 2.2410
3.6765 -4.0291 2.2413
3.8173 -3.8930 2.2417
3.9530 -3.7519 2.2420
4.0836 -3.6061 2.2423
4.2029 -3.4510 2.2395
4.3140 -3.2900 2.2354
4.4264 -3.1309 2.2350
4.5348 -2.9690 2.2355
4.6365 -2.8030 2.2357
4.7323 -2.6336 2.2358
4.8220 -2.4609 2.2360
4.9054 -2.2852 2.2362
4.9825 -2.1067 2.2363
4.7896 -1.8251 2.1198
4.8116 -1.6380 2.1030
5.1751 -1.5566 2.2369
5.2261 -1.3692 2.2370
5.2704 -1.1801 2.2372
5.3079 -0.9896 2.2374
5.3387 -0.7980 2.2376
5.3627 -0.6054 2.2378
5.3798 -0.4121 2.2380
5.3900 -0.2184 2.2382
5.3934 -0.0245 2.2384
5.3899 0.1694 2.2386
5.3795 0.3631 2.2388
5.3623 0.5562 2.2390
5.3383 0.7486 2.2392
5.3074 0.9400 2.2394
5.2698 1.1302 2.2396
5.2255 1.3189 2.2398
5.1745 1.5059 2.2400
5.1169 1.6910 2.2402
5.0528 1.8739 2.2404
4.9823 2.0545 2.2406
4.9054 2.2324 2.2408
4.8223 2.4076 2.2410
4.7330 2.5797 2.2412
4.6407 2.7503 2.2429
4.5384 2.9152 2.2426
4.4303 3.0763 2.2423
4.3166 3.2335 2.2420
4.1973 3.3865 2.2417
4.0727 3.5351 2.2414
3.9429 3.6792 2.2410
3.8080 3.8186 2.2407
3.6683 3.9532 2.2403
3.5238 4.0826 2.2399
3.3749 4.2069 2.2395
3.2216 4.3257 2.2391
3.0642 4.4391 2.2387
2.9029 4.5468 2.2383
2.7381 4.6491 2.2381
2.6767 4.9432 2.3311
2.5618 5.1662 2.3905
2.3752 5.2567 2.3905
0.8734 2.1342 0.9553
0.7962 2.1646 0.9551
0.7180 2.1922 0.9549
0.6389 2.2169 0.9546
0.5589 2.2388 0.9544
0.4781 2.2577 0.9541
0.3968 2.2738 0.9538
0.3148 2.2869 0.9535
0.2325 2.2970 0.9532
0.1499 2.3041 0.9529
0.0670 2.3083 0.9525
-0.0160 2.3095 0.9521
-0.0989 2.3077 0.9518
-0.1818 2.3029 0.9514
-0.2644 2.2951 0.9510
-0.3466 2.2843 0.9505
-0.4285 2.2706 0.9501
-0.5098 2.2539 0.9497
-0.5904 2.2343 0.9492
-0.6703 2.2119 0.9488
-0.7493 2.1865 0.9483
-0.8273 2.1583 0.9478
-0.9043 2.1273 0.9473
-2.4745 5.2858 2.3905
-2.6641 5.1966 2.3905
-2.8504 5.1005 2.3905
-3.0333 4.9978 2.3905
-3.2125 4.8886 2.3905
-3.3877 4.7729 2.3905
-3.5587 4.6509 2.3905
-3.7253 4.5228 2.3905
-3.8873 4.3888 2.3905
-4.0444 4.2489 2.3905
-4.1965 4.1034 2.3905
-4.3432 3.9524 2.3905
-4.4846 3.7962 2.3905
-4.6202 3.6349 2.3905
-4.7500 3.4687 2.3905
-4.8737 3.2979 2.3905
-4.9913 3.1227 2.3905
-5.1025 2.9432 2.3905
-5.2072 2.7598 2.3905
-5.3052 2.5726 2.3905
-5.3965 2.3820 2.3905
-5.4808 2.1880 2.3905
-5.5580 1.9911 2.3905
-5.6281 1.7915 2.3905
-5.6910 1.5893 2.3905
-5.7465 1.3850 2.3905
-5.7945 1.1787 2.3905
-5.8351 0.9707 2.3905
-5.8681 0.7613 2.3905
-5.8935 0.5509 2.3905
-5.9113 0.3396 2.3905
-5.9214 0.1278 2.3905
-5.9237 -0.0844 2.3905
-5.9184 -0.2966 2.3905
-5.9054 -0.5084 2.3905
-5.8846 -0.7196 2.3905
-5.8562 -0.9301 2.3905
-5.8202 -1.1394 2.3905
-5.7765 -1.3473 2.3905
-5.7254 -1.5534 2.3905
-5.6667 -1.7576 2.3905
-5.6007 -1.9596 2.3905
-5.5274 -2.1590 2.3905
-5.4468 -2.3556 2.3905
-5.3592 -2.5492 2.3905
-5.2646 -2.7395 2.3905
-5.1631 -2.9261 2.3905
-5.0549 -3.1090 2.3905
-4.9401 -3.2878 2.3905
-4.8189 -3.4624 2.3905
-4.6914 -3.6323 2.3905
-4.5578 -3.7976 2.3905
-4.4184 -3.9578 2.3905
-4.2732 -4.1128 2.3905
-4.1225 -4.2625 2.3905
-3.9665 -4.4065 2.3905
-3.8054 -4.5447 2.3905
-3.6393 -4.6770 2.3905
-3.4687 -4.8032 2.3905
-3.2936 -4.9230 2.3905
-3.1143 -5.0363 2.3905
-2.9310 -5.1431 2.3905
-2.7441 -5.2431 2.3905
-2.5537 -5.3362 2.3905
-2.3601 -5.4223 2.3905
-2.1636 -5.5013 2.3905
-1.9644 -5.5732 2.3905
-1.7627 -5.6378 2.3905
-1.5590 -5.6950 2.3905
-1.3534 -5.7447 2.3905
-1.1462 -5.7870 2.3905
-0.9376 -5.8217 2.3905
-0.7281 -5.8488 2.3905
-0.5178 -5.8684 2.3905
-0.3070 -5.8803 2.3905
-0.0960 -5.8846 2.3905
0.1149 -5.8813 2.3905
0.3255 -5.8703 2.3905
0.5355 -5.8518 2.3905
0.7445 -5.8258 2.3905
3.9270 3.2014 2.2410
3.8092 3.3405 2.2407
3.6866 3.4753 2.2404
3.5592 3.6056 2.2401
3.4273 3.7314 2.2397
3.2910 3.8523 2.2394
3.1505 3.9684 2.2390
3.0059 4.0793 2.2386
2.8574 4.1851 2.2382
2.7056 4.2860 2.2381
2.6304 4.5191 2.3082
2.5549 4.7764 2.3905
2.3822 4.8667 2.3905
0.8811 1.9770 0.9546
0.8096 2.0077 0.9544
0.7370 2.0358 0.9542
0.6635 2.0613 0.9540
0.5890 2.0842 0.9538
0.5138 2.1043 0.9535
0.4379 2.1217 0.9533
0.3614 2.1364 0.9530
0.2845 2.1483 0.9527
0.2071 2.1574 0.9524
0.1295 2.1637 0.9521
0.0517 2.1672 0.9518
-0.0262 2.1679 0.9514
-0.1041 2.1658 0.9511
-0.1818 2.1609 0.9507
-0.2593 2.1532 0.9503
-0.3365 2.1427 0.9499
-0.4133 2.1294 0.9495
-0.4895 2.1134 0.9491
-0.5651 2.0946 0.9487
-0.6400 2.0731 0.9482
-0.7140 2.0490 0.9478
-0.7871 2.0221 0.9473
-0.8593 1.9927 0.9469
-2.3497 4.9523 2.3905
-2.5273 4.8675 2.3905
-2.7018 4.7763 2.3905
-2.8729 4.6788 2.3905
-3.0406 4.5752 2.3905
-3.2045 4.4656 2.3905
-3.3644 4.3502 2.3905
-3.5202 4.2290 2.3905
-3.6715 4.1022 2.3905
-3.8183 3.9700 2.3905
-3.9602 3.8325 2.3905
-4.0972 3.6900 2.3905
-4.2290 3.5425 2.3905
-4.3555 3.3904 2.3905
-4.4764 3.2337 2.3905
-4.5917 3.0726 2.3905
-4.7011 2.9076 2.3905
-4.8045 2.7384 2.3905
-4.9018 2.5657 2.3905
-4.9928 2.3895 2.3905
-5.0774 2.2100 2.3905
-5.1555 2.0276 2.3905
-5.2269 1.8423 2.3905
-5.2917 1.6546 2.3905
-5.3496 1.4645 2.3905
-5.4006 1.2725 2.3905
-5.4446 1.0785 2.3905
-5.4816 0.8832 2.3905
-5.5115 0.6866 2.3905
-5.5342 0.4889 2.3905
-5.5498 0.2906 2.3905
-5.5581 0.0916 2.3905
-5.5593 -0.1075 2.3905
-5.5532 -0.3066 2.3905
-5.5399 -0.5053 2.3905
-5.5193 -0.7034 2.3905
-5.4916 -0.9008 2.3905
-5.4567 -1.0970 2.3905
-5.4148 -1.2918 2.3905
-5.3657 -1.4850 2.3905
-5.3097 -1.6763 2.3905
-5.2468 -1.8654 2.3905
-5.1770 -2.0522 2.3905
-5.1004 -2.2363 2.3905
-5.0173 -2.4175 2.3905
-4.9276 -2.5956 2.3905
-4.8314 -2.7703 2.3905
-4.7290 -2.9414 2.3905
-4.6205 -3.1086 2.3905
-4.5059 -3.2718 2.3905
-4.3855 -3.4307 2.3905
-4.2595 -3.5851 2.3905
-4.1279 -3.7348 2.3905
-3.9909 -3.8796 2.3905
-3.8488 -4.0193 2.3905
-3.7018 -4.1538 2.3905
-3.5500 -4.2828 2.3905
-3.3936 -4.4062 2.3905
-3.2329 -4.5238 2.3905
-3.0681 -4.6354 2.3905
-2.8994 -4.7410 2.3905
-2.7269 -4.8404 2.3905
-2.5511 -4.9334 2.3905
-2.3720 -5.0200 2.3905
-2.1900 -5.1000 2.3905
-2.0052 -5.1734 2.3905
-1.8179 -5.2399 2.3905
-1.6284 -5.2997 2.3905
-1.4370 -5.3525 2.3905
-1.2438 -5.3983 2.3905
-1.0492 -5.4371 2.3905
-0.8533 -5.4688 2.3905
-0.6565 -5.4934 2.3905
-0.4590 -5.5109 2.3905
-0.2611 -5.5212 2.3905
-0.0631 -5.5244 2.3905
0.1349 -5.5204 2.3905
0.3325 -5.5093 2.3905
0.5296 -5.4911 2.3905
0.7257 -5.4658 2.3905
0.9207 -5.4335 2.3905
1.1144 -5.3941 2.3905
1.3064 -5.3479 2.3905
1.4965 -5.2948 2.3905
1.6846 -5.2349 2.3905
1.8077 -4.9955 2.3105
1.9224 -4.7703 2.2381
2.0912 -4.6957 2.2381
2.2571 -4.6153 2.2381
2.4201 -4.5291 2.2383
2.5801 -4.4377 2.2386
2.7367 -4.3407 2.2390
2.8896 -4.2380 2.2394
3.0387 -4.1300 2.2398
3.1838 -4.0168 2.2401
3.3247 -3.8984 2.2404
3.4612 -3.7751 2.2408
3.5931 -3.6470 2.2411
3.7203 -3.5143 2.2414
3.8427 -3.3771 2.2417
3.9599 -3.2357 2.2420
4.0721 -3.0902 2.2422
4.1786 -2.9407 2.2423
4.2729 -2.7832 2.2389
4.3624 -2.6230 2.2360
4.4512 -2.4631 2.2357
4.5359 -2.3012 2.2362
4.6140 -2.1359 2.2364
4.6861 -1.9681 2.2365
4.7522 -1.7978 2.2367
4.8122 -1.6253 2.2369
4.8660 -1.4508 2.2370
4.9135 -1.2746 2.2372
4.9548 -1.0968 2.2374
4.9897 -0.9178 2.2376
5.0183 -0.7376 2.2377
5.0404 -0.5566 2.2379
4.9082 -0.3639 2.1726
5.0653 -0.1928 2.2383
5.0681 -0.0106 2.2385
5.0643 0.1717 2.2387
5.0542 0.3536 2.2388
5.0376 0.5351 2.2390
5.0145 0.7158 2.2392
4.9851 0.8956 2.2394
4.9493 1.0743 2.2396
4.9073 1.2515 2.2398
4.8589 1.4272 2.2400
4.8044 1.6010 2.2402
4.7437 1.7728 2.2404
4.6767 1.9421 2.2404
4.6087 2.1113 2.2429
4.5293 2.2756 2.2427
4.4440 2.4367 2.2424
4.3531 2.5948 2.2422
4.2566 2.7494 2.2419
4.1547 2.9006 2.2416
4.0475 3.0480 2.2414
3.9351 3.1915 2.2411
3.8176 3.3309 2.2407
3.6953 3.4660 2.2404
3.5683 3.5967 2.2401
3.4367 3.7227 2.2397
3.3007 3.8440 2.2394
3.1604 3.9604 2.2390
3.0161 4.0717 2.2386
2.8680 4.1779 2.2382
2.7164 4.2790 2.2381
2.6300 4.4923 2.2980
2.5668 4.7698 2.3905
2.3944 4.8605 2.3905
0.8861 1.9747 0.9546
0.8146 2.0056 0.9544
0.7421 2.0339 0.9542
0.6686 2.0596 0.9540
0.5943 2.0826 0.9538
0.5191 2.1030 0.9536
0.4433 2.1206 0.9533
0.3668 2.1354 0.9530
0.2899 2.1475 0.9527
0.2126 2.1568 0.9524
0.1350 2.1633 0.9521
0.0572 2.1671 0.9518
-0.0207 2.1680 0.9515
-0.0986 2.1661 0.9511
-0.1764 2.1613 0.9507
-0.2539 2.1538 0.9503
-0.3311 2.1435 0.9499
-0.4079 2.1305 0.9495
-0.4842 2.1146 0.9491
-0.5598 2.0960 0.9487
-0.6347 2.0747 0.9483
-0.7089 2.0507 0.9478
-0.7821 2.0241 0.9474
-0.8542 1.9948 0.9469
-2.3371 4.9581 2.3905
-2.5149 4.8736 2.3905
-2.6896 4.7829 2.3905
-2.8611 4.6859 2.3905
-3.0290 4.5827 2.3905
-3.1931 4.4735 2.3905
-3.3534 4.3585 2.3905
-3.5094 4.2377 2.3905
-3.6610 4.1113 2.3905
-3.8081 3.9794 2.3905
-3.9504 3.8423 2.3905
-4.0878 3.7001 2.3905
-4.2199 3.5530 2.3905
-4.3468 3.4012 2.3905
-4.4681 3.2448 2.3905
-4.5837 3.0840 2.3905
-4.6936 2.9193 2.3905
-4.7974 2.7504 2.3905
-4.8951 2.5779 2.3905
-4.9866 2.4019 2.3905
-5.0717 2.2227 2.3905
-5.1502 2.0404 2.3905
-5.2221 1.8554 2.3905
-5.2873 1.6678 2.3905
-5.3457 1.4779 2.3905
-5.3972 1.2860 2.3905
-5.4417 1.0922 2.3905
-5.4792 0.8969 2.3905
-5.5096 0.7002 2.3905
-5.5329 0.5027 2.3905
-5.5489 0.3042 2.3905
-5.5578 0.1056 2.3905
-5.5594 -0.0936 2.3905
-5.5538 -0.2927 2.3905
-5.5410 -0.4914 2.3905
-5.5210 -0.6896 2.3905
-5.4938 -0.8870 2.3905
-5.4594 -1.0832 2.3905
-5.4179 -1.2782 2.3905
-5.3694 -1.4715 2.3905
-5.3139 -1.6629 2.3905
-5.2514 -1.8523 2.3905
-5.1821 -2.0392 2.3905
-5.1060 -2.2235 2.3905
-5.0233 -2.4049 2.3905
-4.9341 -2.5832 2.3905
-4.8384 -2.7582 2.3905
-4.7364 -2.9295 2.3905
-4.6283 -3.0970 2.3905
-4.5142 -3.2605 2.3905
-4.3942 -3.4197 2.3905
-4.2685 -3.5744 2.3905
-4.1373 -3.7245 2.3905
-4.0007 -3.8696 2.3905
-3.8590 -4.0097 2.3905
-3.7123 -4.1445 2.3905
-3.5608 -4.2739 2.3905
-3.4047 -4.3977 2.3905
-3.2443 -4.5157 2.3905
-3.0798 -4.6278 2.3905
-2.9113 -4.7338 2.3905
-2.7391 -4.8336 2.3905
-2.5635 -4.9271 2.3905
-2.3846 -5.0142 2.3905
-2.2028 -5.0946 2.3905
-2.0182 -5.1684 2.3905
-1.8311 -5.2355 2.3905
-1.6418 -5.2957 2.3905
-1.4505 -5.3490 2.3905
-1.2574 -5.3953 2.3905
-1.0629 -5.4346 2.3905
-0.8671 -5.4668 2.3905
-0.6703 -5.4919 2.3905
-0.4729 -5.5099 2.3905
-0.2750 -5.5208 2.3905
-0.0769 -5.5244 2.3905
0.1211 -5.5210 2.3905
0.3187 -5.5103 2.3905
0.5158 -5.4926 2.3905
0.7120 -5.4678 2.3905
0.9071 -5.4360 2.3905
1.1009 -5.3971 2.3905
1.2930 -5.3513 2.3905
1.4833 -5.2987 2.3905
1.6715 -5.2393 2.3905
1.8034 -5.0230 2.3211
1.9105 -4.7754 2.2381
2.0794 -4.7012 2.2381
2.2456 -4.6211 2.2381
2.4088 -4.5353 2.2382
2.5690 -4.4443 2.2386
2.7258 -4.3476 2.2390
2.8790 -4.2454 2.2394
3.0284 -4.1378 2.2397
3.1738 -4.0249 2.2401
3.3149 -3.9069 2.2404
3.4517 -3.7839 2.2407
3.5840 -3.6561 2.2411
3.7116 -3.5237 2.2414
3.8342 -3.3869 2.2417
3.9519 -3.2457 2.2419
4.0644 -3.1005 2.2422
4.1715 -2.9515 2.2424
4.2665 -2.7941 2.2391
4.3561 -2.6343 2.2360
4.4451 -2.4745 2.2357
4.5302 -2.3127 2.2362
4.6087 -2.1476 2.2363
4.6812 -1.9799 2.2365
4.7478 -1.8098 2.2367
4.8082 -1.6374 2.2368
4.8624 -1.4631 2.2370
4.9104 -1.2870 2.2372
4.9521 -1.1093 2.2374
4.9875 -0.9303 2.2375
5.0165 -0.7503 2.2377
5.0390 -0.5693 2.2379
5.0552 -0.3877 2.2381
5.0649 -0.2056 2.2383
5.0681 -0.0233 2.2385
5.0648 0.1589 2.2386
5.0551 0.3409 2.2388
5.0389 0.5224 2.2390
5.0164 0.7032 2.2392
4.9874 0.8831 2.2394
4.9521 1.0618 2.2396
4.9104 1.2392 2.2398
4.8625 1.4149 2.2400
4.8084 1.5889 2.2402
4.7482 1.7608 2.2403
4.6816 1.9304 2.2404
4.6138 2.0997 2.2428
4.5350 2.2641 2.2427
4.4502 2.4255 2.2424
4.3596 2.5838 2.2422
4.2635 2.7387 2.2419
4.1620 2.8901 2.2417
4.0551 3.0378 2.2414
3.9431 3.1816 2.2411
3.8260 3.3212 2.2408
3.7040 3.4567 2.2404
3.5773 3.5876 2.2401
3.4460 3.7140 2.2398
3.3103 3.8357 2.2394
3.1704 3.9524 2.2390
3.0264 4.0641 2.2387
2.8785 4.1706 2.2383
2.7271 4.2721 2.2381
2.6296 4.4657 2.2878
2.5788 4.7633 2.3905
2.4066 4.8544 2.3905
0.8910 1.9725 0.9546
0.8197 2.0036 0.9544
0.7472 2.0320 0.9542
0.6738 2.0579 0.9540
0.5995 2.0811 0.9538
0.5244 2.1016 0.9536
0.4486 2.1194 0.9533
0.3722 2.1345 0.9531
0.2953 2.1468 0.9528
0.2180 2.1563 0.9525
0.1404 2.1630 0.9521
0.0626 2.1669 0.9518
-0.0153 2.1680 0.9515
-0.0931 2.1663 0.9511
-0.1709 2.1618 0.9508
-0.2485 2.1545 0.9504
-0.3257 2.1443 0.9500
-0.4025 2.1315 0.9496
-0.4788 2.1158 0.9492
-0.5545 2.0974 0.9487
-0.6295 2.0763 0.9483
-0.7037 2.0525 0.9478
-0.7770 2.0261 0.9474
-0.8492 1.9970 0.9469
-2.3246 4.9637 2.3905
-2.5026 4.8798 2.3905
-2.6775 4.7894 2.3905
-2.8492 4.6929 2.3905
-3.0173 4.5901 2.3905
-3.1818 4.4814 2.3905
-3.3423 4.3667 2.3905
-3.4986 4.2463 2.3905
-3.6506 4.1203 2.3905
-3.7980 3.9889 2.3905
-3.9406 3.8521 2.3905
-4.0783 3.7103 2.3905
-4.2108 3.5635 2.3905
-4.3381 3.4120 2.3905
-4.4598 3.2559 2.3905
-4.5758 3.0955 2.3905
-4.6861 2.9310 2.3905
-4.7904 2.7624 2.3905
-4.8885 2.5901 2.3905
-4.9804 2.4144 2.3905
-5.0659 2.2354 2.3905
-5.1449 2.0533 2.3905
-5.2173 1.8684 2.3905
-5.2830 1.6810 2.3905
-5.3419 1.4913 2.3905
-5.3938 1.2994 2.3905
-5.4389 1.1059 2.3905
-5.4768 0.9106 2.3905
-5.5077 0.7142 2.3905
-5.5315 0.5166 2.3905
-5.5480 0.3184 2.3905
-5.5574 0.1194 2.3905
-5.5595 -0.0796 2.3905
-5.5545 -0.2786 2.3905
-5.5422 -0.4775 2.3905
