ply
format ascii 1.0
element vertex 2174
property float32 x
property float32 y
property float32 z
end_header
2.9157 5.8293 2.3971
2.7039 5.9302 2.3971
2.4887 6.0237 2.3971
0.9187 2.4721 0.9699
0.8292 2.5039 0.9700
0.7386 2.5324 0.9700
0.6471 2.5576 0.9700
0.5547 2.5796 0.9699
0.4615 2.5981 0.9698
0.3678 2.6134 0.9697
0.2735 2.6252 0.9695
0.1789 2.6336 0.9693
0.0840 2.6386 0.9691
-0.0110 2.6401 0.9688
-0.1060 2.6383 0.9685
-0.2008 2.6330 0.9681
-0.2954 2.6243 0.9677
-0.3897 2.6121 0.9673
-0.4834 2.5966 0.9669
-0.5765 2.5777 0.9664
-0.6689 2.5555 0.9659
-0.7604 2.5299 0.9653
-0.8510 2.5011 0.9647
-2.3382 6.1387 2.3971
-2.5592 6.0550 2.3971
-2.7773 5.9635 2.3971
-2.9922 5.8642 2.3971
-3.2035 5.7574 2.3971
-3.4112 5.6431 2.3971
-3.6147 5.5214 2.3971
-3.8141 5.3926 2.3971
-4.0089 5.2566 2.3971
-4.1988 5.1137 2.3971
-4.3838 4.9641 2.3971
-4.5635 4.8078 2.3971
-4.7377 4.6452 2.3971
-4.9061 4.4763 2.3971
-5.0685 4.3014 2.3971
-5.2248 4.1206 2.3971
-5.3746 3.9342 2.3971
-5.5178 3.7425 2.3971
-5.6543 3.5456 2.3971
-5.7837 3.3438 2.3971
-5.9059 3.1372 2.3971
-6.0208 2.9263 2.3971
-6.1281 2.7111 2.3971
-6.2278 2.4921 2.3971
-6.3196 2.2694 2.3971
-6.4034 2.0434 2.3971
-6.4791 1.8143 2.3971
-6.5466 1.5824 2.3971
-6.6058 1.3481 2.3971
-6.6565 1.1115 2.3971
-6.6987 0.8731 2.3971
-6.7323 0.6331 2.3971
-6.7572 0.3918 2.3971
-6.7734 0.1496 2.3971
-6.7808 -0.0933 2.3971
-6.7794 -0.3365 2.3971
-6.7692 -0.5796 2.3971
-6.7502 -0.8224 2.3971
-6.7223 -1.0646 2.3971
-6.6856 -1.3058 2.3971
-6.6401 -1.5456 2.3971
-6.5859 -1.7838 2.3971
-6.5231 -2.0201 2.3971
-6.4515 -2.2540 2.3971
-6.3715 -2.4854 2.3971
-6.2830 -2.7138 2.3971
-6.1862 -2.9389 2.3971
-6.0811 -3.1606 2.3971
-5.9679 -3.3783 2.3971
-5.8468 -3.5919 2.3971
-5.7179 -3.8010 2.3971
-5.5813 -4.0053 2.3971
-5.4373 -4.2046 2.3971
-5.2859 -4.3986 2.3971
-5.1275 -4.5869 2.3971
-4.9623 -4.7694 2.3971
-4.7904 -4.9457 2.3971
-4.6120 -5.1157 2.3971
-4.4275 -5.2790 2.3971
-4.2371 -5.4355 2.3971
-4.0409 -5.5849 2.3971
-3.8394 -5.7271 2.3971
-3.6328 -5.8617 2.3971
-3.4213 -5.9887 2.3971
-3.2053 -6.1078 2.3971
-2.9850 -6.2189 2.3971
-2.7607 -6.3218 2.3971
-2.5329 -6.4164 2.3971
-2.3017 -6.5025 2.3971
-2.0675 -6.5801 2.3971
-1.8306 -6.6490 2.3971
-1.5914 -6.7091 2.3971
-1.3502 -6.7604 2.3971
-1.1073 -6.8028 2.3971
-0.8631 -6.8361 2.3971
-0.6178 -6.8605 2.3971
-0.3719 -6.8759 2.3971
-0.1257 -6.8822 2.3971
0.1205 -6.8795 2.3971
0.3663 -6.8677 2.3971
0.6115 -6.8469 2.3971
0.8556 -6.8172 2.3971
1.0983 -6.7785 2.3971
1.3394 -6.7310 2.3971
1.5784 -6.6747 2.3971
1.8151 -6.6098 2.3971
2.0491 -6.5363 2.3971
2.2801 -6.4543 2.3971
2.5079 -6.3640 2.3971
2.7320 -6.2655 2.3971
2.9523 -6.1590 2.3971
3.1684 -6.0445 2.3971
3.3800 -5.9224 2.3971
3.5869 -5.7928 2.3971
3.7888 -5.6557 2.3971
3.9854 -5.5116 2.3971
4.1766 -5.3605 2.3971
4.3619 -5.2027 2.3971
4.5413 -5.0385 2.3971
4.7144 -4.8680 2.3971
4.8812 -4.6914 2.3971
5.0413 -4.5091 2.3971
5.1945 -4.3213 2.3971
5.3408 -4.1283 2.3971
5.4799 -3.9303 2.3971
5.6116 -3.7276 2.3971
5.7359 -3.5204 2.3971
5.8525 -3.3091 2.3971
5.9614 -3.0940 2.3971
6.0623 -2.8752 2.3971
6.1553 -2.6532 2.3971
6.2401 -2.4282 2.3971
6.3168 -2.2005 2.3971
6.3852 -1.9705 2.3971
6.4453 -1.7383 2.3971
6.4971 -1.5043 2.3971
6.5404 -1.2689 2.3971
6.5752 -1.0323 2.3971
6.6016 -0.7948 2.3971
6.6195 -0.5567 2.3971
6.6289 -0.3183 2.3971
6.6298 -0.0799 2.3971
6.6223 0.1581 2.3971
6.6063 0.3955 2.3971
6.5820 0.6321 2.3971
6.5493 0.8674 2.3971
6.5083 1.1013 2.3971
6.4592 1.3333 2.3971
6.4018 1.5633 2.3971
6.3365 1.7910 2.3971
6.2632 2.0161 2.3971
6.1821 2.2383 2.3971
6.0932 2.4574 2.3971
5.9968 2.6730 2.3971
5.8929 2.8850 2.3971
5.7816 3.0931 2.3971
5.6632 3.2970 2.3971
5.5377 3.4966 2.3971
5.4054 3.6915 2.3971
5.2663 3.8815 2.3971
5.1208 4.0665 2.3971
4.9689 4.2461 2.3971
4.8109 4.4203 2.3971
4.6469 4.5887 2.3971
4.4772 4.7513 2.3971
4.3019 4.9077 2.3971
4.1213 5.0579 2.3971
3.9356 5.2016 2.3971
3.7451 5.3387 2.3971
3.5498 5.4690 2.3971
3.3502 5.5924 2.3971
3.1464 5.7087 2.3971
2.9387 5.8178 2.3971
2.7273 5.9195 2.3971
2.5124 6.0138 2.3971
2.2944 6.1005 2.3971
0.8391 2.5005 0.9700
0.7486 2.5294 0.9700
0.6572 2.5550 0.9700
0.5648 2.5773 0.9699
0.4718 2.5963 0.9698
0.3781 2.6119 0.9697
0.2839 2.6240 0.9695
0.1893 2.6328 0.9693
0.0944 2.6382 0.9691
-0.0006 2.6401 0.9688
-0.0956 2.6386 0.9685
-0.1904 2.6337 0.9682
-0.2851 2.6254 0.9678
-0.3794 2.6136 0.9674
-3.2078 5.2576 2.3971
-3.3974 5.1430 2.3971
-3.5829 5.0216 2.3971
-3.7642 4.8937 2.3971
-3.9409 4.7593 2.3971
-4.1129 4.6186 2.3971
-4.2799 4.4718 2.3971
-4.4417 4.3190 2.3971
-4.5981 4.1605 2.3971
-4.7489 3.9963 2.3971
-4.8939 3.8267 2.3971
-5.0328 3.6520 2.3971
-5.1655 3.4723 2.3971
-5.2918 3.2877 2.3971
-5.4116 3.0987 2.3971
-5.5246 2.9053 2.3971
-5.6307 2.7078 2.3971
-5.7298 2.5065 2.3971
-5.8216 2.3015 2.3971
-5.9061 2.0933 2.3971
-5.9832 1.8819 2.3971
-6.0526 1.6678 2.3971
-6.1144 1.4511 2.3971
-6.1683 1.2322 2.3971
-6.2144 1.0112 2.3971
-6.2525 0.7886 2.3971
-6.2826 0.5645 2.3971
-6.3046 0.3394 2.3971
-6.3184 0.1134 2.3971
-6.3241 -0.1132 2.3971
-6.3215 -0.3399 2.3971
-6.3107 -0.5666 2.3971
-6.2917 -0.7929 2.3971
-6.2645 -1.0185 2.3971
-6.2291 -1.2432 2.3971
-6.1855 -1.4666 2.3971
-6.1338 -1.6884 2.3971
-6.0740 -1.9083 2.3971
-6.0062 -2.1260 2.3971
-5.9305 -2.3412 2.3971
-5.8469 -2.5537 2.3971
-5.7555 -2.7631 2.3971
-5.6566 -2.9691 2.3971
-5.5501 -3.1715 2.3971
-5.4362 -3.3700 2.3971
-5.3150 -3.5642 2.3971
-5.1868 -3.7540 2.3971
-5.0517 -3.9391 2.3971
-4.9098 -4.1191 2.3971
-4.7614 -4.2939 2.3971
-4.6066 -4.4632 2.3971
-4.4457 -4.6267 2.3971
-4.2788 -4.7843 2.3971
-4.1062 -4.9357 2.3971
-3.9281 -5.0807 2.3971
-3.7448 -5.2191 2.3971
-3.5565 -5.3507 2.3971
-3.3634 -5.4753 2.3971
-3.1659 -5.5927 2.3971
-2.9642 -5.7029 2.3971
-2.7586 -5.8055 2.3971
-2.5493 -5.9005 2.3971
-2.3367 -5.9878 2.3971
-2.1210 -6.0672 2.3971
-1.9026 -6.1386 2.3971
-1.6817 -6.2019 2.3971
-1.4586 -6.2571 2.3971
-1.2337 -6.3041 2.3971
-1.0073 -6.3427 2.3971
-0.7797 -6.3730 2.3971
-0.5511 -6.3949 2.3971
-0.3220 -6.4084 2.3971
-0.0926 -6.4135 2.3971
0.1368 -6.4102 2.3971
0.3658 -6.3985 2.3971
0.5941 -6.3784 2.3971
0.8215 -6.3500 2.3971
1.0475 -6.3133 2.3971
1.2720 -6.2683 2.3971
1.4946 -6.2152 2.3971
1.7150 -6.1541 2.3971
1.9328 -6.0850 2.3971
2.1479 -6.0080 2.3971
2.3599 -5.9232 2.3971
2.5686 -5.8308 2.3971
2.7736 -5.7310 2.3971
2.9747 -5.6238 2.3971
3.1717 -5.5094 2.3971
3.3642 -5.3881 2.3971
3.5521 -5.2599 2.3971
3.7351 -5.1251 2.3971
3.9129 -4.9838 2.3971
4.0853 -4.8362 2.3971
4.2522 -4.6827 2.3971
4.4133 -4.5233 2.3971
4.5684 -4.3583 2.3971
4.7173 -4.1880 2.3971
4.8598 -4.0125 2.3971
4.9958 -3.8322 2.3971
5.1251 -3.6472 2.3971
5.2476 -3.4578 2.3971
5.3630 -3.2643 2.3971
5.4714 -3.0670 2.3971
5.5724 -2.8660 2.3971
5.6662 -2.6618 2.3971
5.7524 -2.4544 2.3971
5.8312 -2.2443 2.3971
5.9022 -2.0317 2.3971
5.9656 -1.8168 2.3971
6.0212 -1.6000 2.3971
6.0690 -1.3816 2.3971
6.1089 -1.1617 2.3971
6.1409 -0.9408 2.3971
6.1651 -0.7190 2.3971
6.1812 -0.4967 2.3971
6.1895 -0.2741 2.3971
6.1898 -0.0516 2.3971
6.1823 0.1707 2.3971
6.1668 0.3923 2.3971
6.1436 0.6131 2.3971
6.1125 0.8328 2.3971
6.0737 1.0511 2.3971
6.0272 1.2677 2.3971
5.9732 1.4824 2.3971
5.9116 1.6949 2.3971
5.8426 1.9050 2.3971
5.7662 2.1123 2.3971
5.6827 2.3168 2.3971
5.5920 2.5180 2.3971
5.4944 2.7158 2.3971
5.3899 2.9099 2.3971
5.2787 3.1001 2.3971
5.1609 3.2862 2.3971
5.0367 3.4679 2.3971
4.9062 3.6451 2.3971
4.7697 3.8176 2.3971
4.6272 3.9850 2.3971
4.4790 4.1473 2.3971
4.3253 4.3042 2.3971
4.1662 4.4556 2.3971
4.0019 4.6013 2.3971
3.8326 4.7410 2.3971
3.6586 4.8748 2.3971
3.4801 5.0023 2.3971
3.2972 5.1234 2.3971
3.1102 5.2381 2.3971
2.9193 5.3461 2.3971
2.7248 5.4473 2.3971
2.5268 5.5417 2.3971
2.3257 5.6290 2.3971
0.8567 2.3055 0.9680
0.7733 2.3352 0.9680
0.6888 2.3617 0.9681
0.6034 2.3853 0.9680
0.5172 2.4057 0.9680
0.4303 2.4230 0.9679
0.3429 2.4372 0.9678
0.2549 2.4482 0.9676
0.1667 2.4561 0.9674
0.0782 2.4607 0.9672
-0.0104 2.4622 0.9669
-0.0991 2.4604 0.9666
-0.1875 2.4555 0.9663
-0.2758 2.4473 0.9659
-0.3637 2.4360 0.9656
-0.4512 2.4215 0.9651
-0.5380 2.4039 0.9647
-0.6242 2.3832 0.9642
-0.7096 2.3593 0.9637
-0.7940 2.3324 0.9631
-0.8774 2.3025 0.9626
-2.3915 5.6555 2.3971
-2.5951 5.5698 2.3971
-2.7957 5.4768 2.3971
-2.9930 5.3768 2.3971
-3.1868 5.2698 2.3971
-3.3768 5.1559 2.3971
-3.5628 5.0352 2.3971
-3.7446 4.9080 2.3971
-3.9218 4.7743 2.3971
-4.0943 4.6343 2.3971
-4.2619 4.4882 2.3971
-4.4243 4.3360 2.3971
-4.5813 4.1781 2.3971
-4.7327 4.0146 2.3971
-4.8783 3.8456 2.3971
-5.0179 3.6714 2.3971
-5.1513 3.4922 2.3971
-5.2783 3.3082 2.3971
-5.3988 3.1196 2.3971
-5.5126 2.9266 2.3971
-5.6194 2.7296 2.3971
-5.7193 2.5287 2.3971
-5.8119 2.3241 2.3971
-5.8972 2.1162 2.3971
-5.9751 1.9052 2.3971
-6.0454 1.6914 2.3971
-6.1080 1.4749 2.3971
-6.1628 1.2562 2.3971
-6.2097 1.0355 2.3971
-6.2487 0.8130 2.3971
-6.2797 0.5891 2.3971
-6.3025 0.3640 2.3971
-6.3173 0.1381 2.3971
-6.3238 -0.0883 2.3971
-6.3222 -0.3151 2.3971
-6.3123 -0.5418 2.3971
-6.2942 -0.7682 2.3971
-6.2679 -0.9939 2.3971
-6.2334 -1.2187 2.3971
-6.1907 -1.4422 2.3971
-6.1399 -1.6642 2.3971
-6.0810 -1.8843 2.3971
-6.0140 -2.1023 2.3971
-5.9391 -2.3178 2.3971
-5.8564 -2.5306 2.3971
-5.7659 -2.7403 2.3971
-5.6678 -2.9468 2.3971
-5.5621 -3.1496 2.3971
-5.4490 -3.3485 2.3971
-5.3287 -3.5432 2.3971
-5.2012 -3.7335 2.3971
-5.0668 -3.9190 2.3971
-4.9257 -4.0997 2.3971
-4.7780 -4.2750 2.3971
-4.6239 -4.4449 2.3971
-4.4636 -4.6091 2.3971
-4.2974 -4.7674 2.3971
-4.1254 -4.9195 2.3971
-3.9479 -5.0652 2.3971
-3.7651 -5.2043 2.3971
-3.5774 -5.3366 2.3971
-3.3848 -5.4620 2.3971
-3.1878 -5.5803 2.3971
-2.9865 -5.6912 2.3971
-2.7813 -5.7946 2.3971
-2.5724 -5.8905 2.3971
-2.3601 -5.9786 2.3971
-2.1447 -6.0589 2.3971
-1.9266 -6.1312 2.3971
-1.7060 -6.1954 2.3971
-1.4831 -6.2515 2.3971
-1.2584 -6.2993 2.3971
-1.0322 -6.3389 2.3971
-0.8047 -6.3702 2.3971
-0.5762 -6.3929 2.3971
-0.3471 -6.4074 2.3971
-0.1177 -6.4134 2.3971
0.1117 -6.4110 2.3971
0.3407 -6.4002 2.3971
0.5692 -6.3810 2.3971
0.7966 -6.3535 2.3971
1.0229 -6.3177 2.3971
1.2475 -6.2737 2.3971
1.4703 -6.2215 2.3971
1.6910 -6.1612 2.3971
1.9091 -6.0929 2.3971
2.1245 -6.0168 2.3971
2.3369 -5.9329 2.3971
2.5459 -5.8413 2.3971
2.7514 -5.7423 2.3971
2.9529 -5.6359 2.3971
3.1503 -5.5223 2.3971
3.3434 -5.4017 2.3971
3.5318 -5.2743 2.3971
3.7153 -5.1401 2.3971
3.8937 -4.9995 2.3971
4.0667 -4.8527 2.3971
4.2342 -4.6998 2.3971
4.3959 -4.5410 2.3971
4.5517 -4.3767 2.3971
4.7013 -4.2069 2.3971
4.8445 -4.0320 2.3971
4.9812 -3.8521 2.3971
5.1113 -3.6677 2.3971
5.2345 -3.4788 2.3971
5.3507 -3.2857 2.3971
5.4598 -3.0888 2.3971
5.5617 -2.8882 2.3971
5.6563 -2.6843 2.3971
5.7434 -2.4773 2.3971
5.8229 -2.2674 2.3971
5.8948 -2.0551 2.3971
5.9591 -1.8404 2.3971
6.0155 -1.6239 2.3971
6.0641 -1.4056 2.3971
6.1049 -1.1858 2.3971
6.1378 -0.9650 2.3971
6.1628 -0.7433 2.3971
6.1798 -0.5211 2.3971
6.1890 -0.2985 2.3971
6.1902 -0.0759 2.3971
6.1835 0.1463 2.3971
6.1689 0.3681 2.3971
6.1465 0.5890 2.3971
6.1163 0.8088 2.3971
6.0783 1.0273 2.3971
6.0327 1.2441 2.3971
5.9794 1.4590 2.3971
5.9187 1.6718 2.3971
5.8505 1.8821 2.3971
5.7749 2.0898 2.3971
5.6922 2.2945 2.3971
5.6023 2.4961 2.3971
5.5054 2.6943 2.3971
5.4016 2.8888 2.3971
5.2911 3.0795 2.3971
5.1741 3.2660 2.3971
5.0506 3.4483 2.3971
4.9208 3.6260 2.3971
4.7849 3.7989 2.3971
4.6431 3.9669 2.3971
4.4955 4.1298 2.3971
4.3424 4.2873 2.3971
4.1839 4.4393 2.3971
4.0201 4.5856 2.3971
3.8514 4.7260 2.3971
3.6779 4.8604 2.3971
3.4998 4.9886 2.3971
3.3174 5.1105 2.3971
3.1308 5.2258 2.3971
2.9404 5.3346 2.3971
2.7462 5.4366 2.3971
2.5486 5.5317 2.3971
2.3478 5.6198 2.3971
0.8658 2.3021 0.9680
0.7825 2.3321 0.9680
0.6981 2.3590 0.9681
0.6128 2.3829 0.9680
0.5267 2.4036 0.9680
0.4399 2.4213 0.9679
0.3524 2.4358 0.9678
0.2646 2.4472 0.9676
0.1763 2.4554 0.9674
0.0879 2.4604 0.9672
-0.0007 2.4622 0.9670
-0.0894 2.4608 0.9667
-0.1779 2.4562 0.9663
-0.2662 2.4484 0.9660
-0.3541 2.4374 0.9656
-3.0067 4.9259 2.3971
-3.1842 4.8182 2.3971
-3.3579 4.7043 2.3971
-3.5276 4.5842 2.3971
-3.6931 4.4581 2.3971
-3.8540 4.3260 2.3971
-4.0103 4.1883 2.3971
-4.1617 4.0449 2.3971
-4.3080 3.8962 2.3971
-4.4490 3.7422 2.3971
-4.5846 3.5832 2.3971
-4.7145 3.4194 2.3971
-4.8385 3.2508 2.3971
-4.9566 3.0779 2.3971
-5.0685 2.9006 2.3971
-5.1740 2.7194 2.3971
-5.2731 2.5343 2.3971
-5.3656 2.3456 2.3971
-5.4513 2.1537 2.3971
-5.5301 1.9586 2.3971
-5.6019 1.7606 2.3971
-5.6667 1.5600 2.3971
-5.7242 1.3571 2.3971
-5.7744 1.1521 2.3971
-5.8172 0.9452 2.3971
-5.8526 0.7368 2.3971
-5.8804 0.5271 2.3971
-5.9007 0.3163 2.3971
-5.9133 0.1048 2.3971
-5.9183 -0.1071 2.3971
-5.9156 -0.3193 2.3971
-5.9053 -0.5314 2.3971
-5.8872 -0.7431 2.3971
-5.8615 -0.9542 2.3971
-5.8281 -1.1643 2.3971
-5.7871 -1.3732 2.3971
-5.7384 -1.5807 2.3971
-5.6822 -1.7863 2.3971
-5.6186 -1.9899 2.3971
-5.5475 -2.1911 2.3971
-5.4691 -2.3898 2.3971
-5.3835 -2.5855 2.3971
-5.2907 -2.7781 2.3971
-5.1909 -2.9673 2.3971
-5.0843 -3.1528 2.3971
-4.9708 -3.3344 2.3971
-4.8508 -3.5117 2.3971
-4.7243 -3.6846 2.3971
-4.5916 -3.8529 2.3971
-4.4527 -4.0162 2.3971
-4.3078 -4.1744 2.3971
-4.1573 -4.3273 2.3971
-4.0011 -4.4745 2.3971
-3.8397 -4.6160 2.3971
-3.6732 -4.7515 2.3971
-3.5017 -4.8808 2.3971
-3.3256 -5.0038 2.3971
-3.1451 -5.1202 2.3971
-2.9604 -5.2300 2.3971
-2.7718 -5.3329 2.3971
-2.5796 -5.4289 2.3971
-2.3839 -5.5177 2.3971
-2.1851 -5.5993 2.3971
-1.9835 -5.6735 2.3971
-1.7793 -5.7403 2.3971
-1.5728 -5.7996 2.3971
-1.3643 -5.8512 2.3971
-1.1540 -5.8952 2.3971
-0.9423 -5.9313 2.3971
-0.7295 -5.9598 2.3971
-0.5159 -5.9804 2.3971
-0.3016 -5.9931 2.3971
-0.0871 -5.9980 2.3971
0.1273 -5.9951 2.3971
0.3415 -5.9843 2.3971
0.5550 -5.9656 2.3971
0.7676 -5.9392 2.3971
0.9790 -5.9051 2.3971
1.1890 -5.8632 2.3971
1.3972 -5.8138 2.3971
1.6033 -5.7568 2.3971
1.8071 -5.6923 2.3971
2.0084 -5.6205 2.3971
2.2068 -5.5414 2.3971
2.4020 -5.4553 2.3971
2.5939 -5.3621 2.3971
2.7822 -5.2620 2.3971
2.9665 -5.1553 2.3971
3.1468 -5.0420 2.3971
3.3227 -4.9223 2.3971
3.4940 -4.7964 2.3971
3.6606 -4.6644 2.3971
3.8221 -4.5266 2.3971
3.9785 -4.3831 2.3971
4.1294 -4.2342 2.3971
4.2747 -4.0800 2.3971
4.4143 -3.9208 2.3971
4.5480 -3.7568 2.3971
4.6755 -3.5882 2.3971
4.7968 -3.4152 2.3971
4.9117 -3.2381 2.3971
5.0200 -3.0571 2.3971
5.1217 -2.8726 2.3971
5.2166 -2.6846 2.3971
5.3047 -2.4934 2.3971
5.3857 -2.2994 2.3971
5.4597 -2.1028 2.3971
5.5266 -1.9038 2.3971
5.5862 -1.7027 2.3971
5.6386 -1.4998 2.3971
5.6836 -1.2952 2.3971
5.7213 -1.0894 2.3971
5.7516 -0.8825 2.3971
5.7745 -0.6748 2.3971
5.7899 -0.4665 2.3971
5.7980 -0.2581 2.3971
5.7986 -0.0496 2.3971
5.7918 0.1586 2.3971
5.7776 0.3663 2.3971
5.7560 0.5733 2.3971
5.7272 0.7791 2.3971
5.6911 0.9837 2.3971
5.6478 1.1868 2.3971
5.5973 1.3880 2.3971
5.5399 1.5873 2.3971
5.4754 1.7842 2.3971
5.4041 1.9786 2.3971
5.3259 2.1703 2.3971
5.2411 2.3590 2.3971
5.1498 2.5445 2.3971
5.0520 2.7265 2.3971
4.9479 2.9049 2.3971
4.8377 3.0795 2.3971
4.7214 3.2500 2.3971
4.5992 3.4162 2.3971
4.4713 3.5779 2.3971
4.3378 3.7350 2.3971
4.1990 3.8872 2.3971
4.0549 4.0344 2.3971
3.9058 4.1765 2.3971
3.7518 4.3131 2.3971
3.5932 4.4442 2.3971
3.4300 4.5697 2.3971
3.2627 4.6893 2.3971
3.0912 4.8029 2.3971
2.9159 4.9105 2.3971
2.7369 5.0118 2.3971
2.5545 5.1067 2.3971
2.3689 5.1952 2.3971
0.8788 2.1271 0.9662
0.8017 2.1576 0.9663
0.7236 2.1853 0.9663
0.6445 2.2102 0.9663
0.5646 2.2322 0.9663
0.4839 2.2513 0.9663
0.4026 2.2675 0.9662
0.3207 2.2808 0.9661
0.2384 2.2911 0.9659
0.1558 2.2984 0.9657
0.0729 2.3027 0.9655
-0.0100 2.3041 0.9653
-0.0929 2.3024 0.9650
-0.1758 2.2978 0.9647
-0.2584 2.2902 0.9644
-0.3406 2.2796 0.9640
-0.4225 2.2660 0.9636
-0.5038 2.2495 0.9632
-0.5844 2.2301 0.9627
-0.6644 2.2078 0.9622
-0.7434 2.1826 0.9617
-0.8215 2.1546 0.9612
-0.8985 2.1238 0.9606
-2.4328 5.2190 2.3971
-2.6207 5.1317 2.3971
-2.8055 5.0378 2.3971
-2.9870 4.9373 2.3971
-3.1650 4.8303 2.3971
-3.3391 4.7171 2.3971
-3.5093 4.5976 2.3971
-3.6752 4.4722 2.3971
-3.8366 4.3408 2.3971
-3.9934 4.2036 2.3971
-4.1454 4.0609 2.3971
-4.2922 3.9127 2.3971
-4.4339 3.7594 2.3971
-4.5700 3.6009 2.3971
-4.7005 3.4375 2.3971
-4.8252 3.2695 2.3971
-4.9440 3.0970 2.3971
-5.0565 2.9202 2.3971
-5.1628 2.7394 2.3971
-5.2626 2.5547 2.3971
-5.3558 2.3665 2.3971
-5.4422 2.1748 2.3971
-5.5218 1.9801 2.3971
-5.5944 1.7824 2.3971
-5.6599 1.5821 2.3971
-5.7182 1.3794 2.3971
-5.7692 1.1746 2.3971
-5.8129 0.9679 2.3971
-5.8491 0.7597 2.3971
-5.8777 0.5501 2.3971
-5.8988 0.3394 2.3971
-5.9123 0.1280 2.3971
-5.9182 -0.0839 2.3971
-5.9163 -0.2961 2.3971
-5.9068 -0.5082 2.3971
-5.8896 -0.7200 2.3971
-5.8647 -0.9311 2.3971
-5.8321 -1.1414 2.3971
-5.7919 -1.3504 2.3971
-5.7441 -1.5580 2.3971
-5.6888 -1.7639 2.3971
-5.6259 -1.9677 2.3971
-5.5557 -2.1692 2.3971
-5.4781 -2.3682 2.3971
-5.3932 -2.5642 2.3971
-5.3012 -2.7572 2.3971
-5.2022 -2.9468 2.3971
-5.0963 -3.1327 2.3971
-4.9836 -3.3147 2.3971
-4.8643 -3.4925 2.3971
-4.7385 -3.6659 2.3971
-4.6064 -3.8347 2.3971
-4.4682 -3.9986 2.3971
-4.3240 -4.1574 2.3971
-4.1740 -4.3108 2.3971
-4.0185 -4.4587 2.3971
-3.8576 -4.6008 2.3971
-3.6916 -4.7370 2.3971
-3.5207 -4.8670 2.3971
-3.3451 -4.9906 2.3971
-3.1651 -5.1078 2.3971
-2.9808 -5.2183 2.3971
-2.7927 -5.3220 2.3971
-2.6008 -5.4187 2.3971
-2.4055 -5.5083 2.3971
-2.2070 -5.5907 2.3971
-2.0057 -5.6658 2.3971
-1.8018 -5.7334 2.3971
-1.5955 -5.7935 2.3971
-1.3872 -5.8459 2.3971
-1.1771 -5.8907 2.3971
-0.9656 -5.9278 2.3971
-0.7529 -5.9571 2.3971
-0.5393 -5.9785 2.3971
-0.3251 -5.9921 2.3971
-0.1106 -5.9979 2.3971
0.1039 -5.9958 2.3971
0.3180 -5.9858 2.3971
0.5317 -5.9681 2.3971
0.7444 -5.9425 2.3971
0.9560 -5.9092 2.3971
1.1661 -5.8682 2.3971
1.3745 -5.8195 2.3971
1.5809 -5.7634 2.3971
1.7850 -5.6997 2.3971
1.9865 -5.6287 2.3971
2.1852 -5.5504 2.3971
2.3808 -5.4650 2.3971
2.5731 -5.3726 2.3971
2.7617 -5.2733 2.3971
2.9465 -5.1673 2.3971
3.1273 -5.0547 2.3971
3.3037 -4.9357 2.3971
3.4755 -4.8105 2.3971
3.6426 -4.6791 2.3971
3.8047 -4.5420 2.3971
3.9616 -4.3991 2.3971
4.1131 -4.2507 2.3971
4.2591 -4.0971 2.3971
4.3993 -3.9385 2.3971
4.5336 -3.7749 2.3971
4.6618 -3.6068 2.3971
4.7838 -3.4343 2.3971
4.8994 -3.2577 2.3971
5.0085 -3.0771 2.3971
5.1109 -2.8929 2.3971
5.2066 -2.7053 2.3971
5.2954 -2.5145 2.3971
5.3772 -2.3208 2.3971
5.4520 -2.1244 2.3971
5.5196 -1.9257 2.3971
5.5800 -1.7248 2.3971
5.6332 -1.5221 2.3971
5.6791 -1.3177 2.3971
5.7176 -1.1120 2.3971
5.7487 -0.9052 2.3971
5.7724 -0.6975 2.3971
5.7886 -0.4894 2.3971
5.7974 -0.2809 2.3971
5.7989 -0.0724 2.3971
5.7929 0.1359 2.3971
5.7795 0.3436 2.3971
5.7587 0.5506 2.3971
5.7307 0.7567 2.3971
5.6954 0.9614 2.3971
5.6529 1.1646 2.3971
5.6032 1.3661 2.3971
5.5465 1.5656 2.3971
5.4828 1.7628 2.3971
5.4122 1.9575 2.3971
5.3348 2.1494 2.3971
5.2507 2.3385 2.3971
5.1601 2.5243 2.3971
5.0630 2.7068 2.3971
4.9596 2.8856 2.3971
4.8500 3.0606 2.3971
4.7344 3.2315 2.3971
4.6128 3.3982 2.3971
4.4856 3.5604 2.3971
4.3527 3.7180 2.3971
4.2144 3.8708 2.3971
4.0709 4.0186 2.3971
3.9223 4.1612 2.3971
3.7689 4.2984 2.3971
3.6107 4.4302 2.3971
3.4481 4.5562 2.3971
3.2812 4.6765 2.3971
3.1102 4.7908 2.3971
2.9352 4.8990 2.3971
2.7567 5.0010 2.3971
2.5746 5.0966 2.3971
2.3893 5.1859 2.3971
0.8872 2.1236 0.9662
0.8102 2.1544 0.9663
0.7322 2.1824 0.9663
0.6532 2.2076 0.9663
0.5734 2.2299 0.9663
0.4928 2.2493 0.9663
0.4115 2.2659 0.9662
0.3297 2.2794 0.9661
0.2474 2.2901 0.9659
0.1648 2.2977 0.9658
0.0820 2.3024 0.9655
-0.0009 2.3041 0.9653
-0.0839 2.3028 0.9650
-0.1667 2.2984 0.9647
-0.2493 2.2912 0.9644
-0.3317 2.2809 0.9640
-2.8263 4.6282 2.3971
-2.9930 4.5269 2.3971
-3.1561 4.4196 2.3971
-3.3155 4.3066 2.3971
-3.4708 4.1879 2.3971
-3.6219 4.0637 2.3971
-3.7686 3.9341 2.3971
-3.9106 3.7992 2.3971
-4.0479 3.6593 2.3971
-4.1802 3.5145 2.3971
-4.3074 3.3650 2.3971
-4.4292 3.2109 2.3971
-4.5455 3.0524 2.3971
-4.6562 2.8898 2.3971
-4.7611 2.7232 2.3971
-4.8600 2.5528 2.3971
-4.9528 2.3789 2.3971
-5.0394 2.2016 2.3971
-5.1196 2.0212 2.3971
-5.1934 1.8379 2.3971
-5.2606 1.6519 2.3971
-5.3211 1.4636 2.3971
-5.3748 1.2730 2.3971
-5.4217 1.0804 2.3971
-5.4617 0.8862 2.3971
-5.4946 0.6905 2.3971
-5.5205 0.4936 2.3971
-5.5393 0.2957 2.3971
-5.5509 0.0972 2.3971
-5.5553 -0.1018 2.3971
-5.5526 -0.3009 2.3971
-5.5426 -0.5000 2.3971
-5.5254 -0.6986 2.3971
-5.5011 -0.8967 2.3971
-5.4695 -1.0938 2.3971
-5.4308 -1.2898 2.3971
-5.3849 -1.4844 2.3971
-5.3320 -1.6773 2.3971
-5.2721 -1.8682 2.3971
-5.2052 -2.0569 2.3971
-5.1315 -2.2432 2.3971
-5.0510 -2.4268 2.3971
-4.9638 -2.6074 2.3971
-4.8700 -2.7848 2.3971
-4.7698 -2.9587 2.3971
-4.6633 -3.1289 2.3971
-4.5506 -3.2952 2.3971
-4.4318 -3.4573 2.3971
-4.3072 -3.6151 2.3971
-4.1768 -3.7682 2.3971
-4.0409 -3.9165 2.3971
-3.8996 -4.0598 2.3971
-3.7531 -4.1978 2.3971
-3.6017 -4.3304 2.3971
-3.4454 -4.4574 2.3971
-3.2846 -4.5787 2.3971
-3.1194 -4.6940 2.3971
-2.9501 -4.8031 2.3971
-2.7769 -4.9060 2.3971
-2.6000 -5.0026 2.3971
-2.4197 -5.0925 2.3971
-2.2362 -5.1758 2.3971
-2.0498 -5.2523 2.3971
-1.8607 -5.3220 2.3971
-1.6692 -5.3846 2.3971
-1.4755 -5.4402 2.3971
-1.2800 -5.4887 2.3971
-1.0828 -5.5300 2.3971
-0.8843 -5.5640 2.3971
-0.6847 -5.5907 2.3971
-0.4843 -5.6101 2.3971
-0.2834 -5.6222 2.3971
-0.0822 -5.6269 2.3971
0.1189 -5.6242 2.3971
0.3198 -5.6142 2.3971
0.5200 -5.5968 2.3971
0.7195 -5.5722 2.3971
0.9178 -5.5403 2.3971
1.1148 -5.5012 2.3971
1.3101 -5.4550 2.3971
1.5036 -5.4017 2.3971
1.6948 -5.3414 2.3971
1.8837 -5.2742 2.3971
2.0699 -5.2002 2.3971
2.2531 -5.1195 2.3971
2.4332 -5.0323 2.3971
2.6100 -4.9386 2.3971
2.7831 -4.8386 2.3971
2.9523 -4.7325 2.3971
3.1175 -4.6204 2.3971
3.2785 -4.5024 2.3971
3.4349 -4.3787 2.3971
3.5867 -4.2496 2.3971
3.7336 -4.1151 2.3971
3.8754 -3.9755 2.3971
4.0120 -3.8310 2.3971
4.1432 -3.6817 2.3971
4.2689 -3.5279 2.3971
4.3888 -3.3697 2.3971
4.5029 -3.2075 2.3971
4.6109 -3.0414 2.3971
4.7129 -2.8717 2.3971
4.8086 -2.6985 2.3971
4.8980 -2.5221 2.3971
4.9809 -2.3427 2.3971
5.0573 -2.1606 2.3971
5.1270 -1.9761 2.3971
5.1900 -1.7892 2.3971
5.2463 -1.6005 2.3971
5.2957 -1.4099 2.3971
5.3383 -1.2178 2.3971
5.3739 -1.0245 2.3971
5.4027 -0.8302 2.3971
5.4244 -0.6351 2.3971
5.4392 -0.4395 2.3971
5.4469 -0.2437 2.3971
5.4477 -0.0478 2.3971
5.4416 0.1479 2.3971
5.4285 0.3430 2.3971
5.4085 0.5375 2.3971
5.3816 0.7310 2.3971
5.3479 0.9233 2.3971
5.3074 1.1142 2.3971
5.2602 1.3034 2.3971
5.2063 1.4907 2.3971
5.1459 1.6758 2.3971
5.0790 1.8586 2.3971
5.0058 2.0389 2.3971
4.9262 2.2163 2.3971
4.8405 2.3907 2.3971
4.7487 2.5620 2.3971
4.6510 2.7297 2.3971
4.5475 2.8939 2.3971
4.4383 3.0543 2.3971
4.3235 3.2106 2.3971
4.2034 3.3627 2.3971
4.0780 3.5105 2.3971
3.9475 3.6537 2.3971
3.8121 3.7922 2.3971
3.6719 3.9258 2.3971
3.5272 4.0543 2.3971
3.3781 4.1777 2.3971
3.2247 4.2957 2.3971
3.0674 4.4082 2.3971
2.9062 4.5151 2.3971
2.7413 4.6162 2.3971
2.5731 4.7115 2.3971
2.4015 4.8008 2.3971
0.8961 1.9653 0.9646
0.8248 1.9965 0.9647
0.7525 2.0251 0.9647
0.6791 2.0511 0.9648
0.6049 2.0745 0.9648
0.5298 2.0951 0.9648
0.4541 2.1131 0.9647
0.3777 2.1283 0.9647
0.3009 2.1407 0.9645
0.2236 2.1504 0.9644
0.1460 2.1572 0.9642
0.0683 2.1613 0.9640
-0.0096 2.1626 0.9638
-0.0874 2.1610 0.9635
-0.1652 2.1567 0.9633
-0.2428 2.1495 0.9629
-0.3200 2.1396 0.9626
-0.3968 2.1268 0.9622
-0.4732 2.1114 0.9618
-0.5489 2.0931 0.9614
-0.6239 2.0722 0.9609
-0.6981 2.0486 0.9605
-0.7714 2.0223 0.9600
-0.8437 1.9933 0.9594
-0.9149 1.9618 0.9589
-2.4637 4.8221 2.3971
-2.6373 4.7336 2.3971
-2.8078 4.6390 2.3971
-2.9749 4.5383 2.3971
-3.1385 4.4317 2.3971
-3.2982 4.3192 2.3971
-3.4540 4.2012 2.3971
-3.6055 4.0775 2.3971
-3.7527 3.9485 2.3971
-3.8953 3.8142 2.3971
-4.0331 3.6749 2.3971
-4.1660 3.5306 2.3971
-4.2937 3.3816 2.3971
-4.4161 3.2280 2.3971
-4.5331 3.0700 2.3971
-4.6444 2.9078 2.3971
-4.7499 2.7416 2.3971
-4.8494 2.5716 2.3971
-4.9429 2.3981 2.3971
-5.0302 2.2212 2.3971
-5.1112 2.0411 2.3971
-5.1856 1.8581 2.3971
-5.2536 1.6724 2.3971
-5.3148 1.4843 2.3971
-5.3693 1.2939 2.3971
-5.4169 1.1016 2.3971
-5.4576 0.9075 2.3971
-5.4914 0.7119 2.3971
-5.5180 0.5152 2.3971
-5.5376 0.3174 2.3971
-5.5500 0.1189 2.3971
-5.5552 -0.0800 2.3971
-5.5532 -0.2791 2.3971
-5.5441 -0.4782 2.3971
-5.5277 -0.6769 2.3971
-5.5041 -0.8750 2.3971
-5.4733 -1.0723 2.3971
-5.4353 -1.2684 2.3971
-5.3903 -1.4631 2.3971
-5.3381 -1.6562 2.3971
-5.2790 -1.8474 2.3971
-5.2129 -2.0364 2.3971
-5.1399 -2.2230 2.3971
-5.0601 -2.4068 2.3971
-4.9737 -2.5878 2.3971
-4.8806 -2.7655 2.3971
-4.7811 -2.9398 2.3971
-4.6753 -3.1105 2.3971
-4.5632 -3.2772 2.3971
-4.4451 -3.4398 2.3971
-4.3211 -3.5980 2.3971
-4.1914 -3.7517 2.3971
-4.0561 -3.9005 2.3971
-3.9153 -4.0443 2.3971
-3.7694 -4.1830 2.3971
-3.6185 -4.3162 2.3971
-3.4628 -4.4438 2.3971
-3.3024 -4.5657 2.3971
-3.1377 -4.6816 2.3971
-2.9688 -4.7915 2.3971
-2.7960 -4.8951 2.3971
-2.6195 -4.9923 2.3971
-2.4396 -5.0830 2.3971
-2.2564 -5.1670 2.3971
-2.0703 -5.2443 2.3971
-1.8815 -5.3147 2.3971
-1.6903 -5.3781 2.3971
-1.4968 -5.4345 2.3971
-1.3015 -5.4838 2.3971
-1.1045 -5.5259 2.3971
-0.9061 -5.5606 2.3971
-0.7066 -5.5882 2.3971
-0.5063 -5.6085 2.3971
-0.3054 -5.6212 2.3971
-0.1043 -5.6267 2.3971
0.0969 -5.6249 2.3971
0.2978 -5.6157 2.3971
0.4981 -5.5991 2.3971
0.6977 -5.5753 2.3971
0.8962 -5.5441 2.3971
1.0933 -5.5059 2.3971
1.2888 -5.4604 2.3971
1.4825 -5.4079 2.3971
1.6740 -5.3483 2.3971
1.8631 -5.2819 2.3971
2.0496 -5.2086 2.3971
2.2332 -5.1287 2.3971
2.4137 -5.0422 2.3971
2.5908 -4.9492 2.3971
2.7643 -4.8499 2.3971
2.9340 -4.7444 2.3971
3.0997 -4.6329 2.3971
3.2611 -4.5156 2.3971
3.4180 -4.3925 2.3971
3.5703 -4.2640 2.3971
3.7177 -4.1301 2.3971
3.8601 -3.9910 2.3971
3.9973 -3.8470 2.3971
4.1291 -3.6983 2.3971
4.2554 -3.5449 2.3971
4.3760 -3.3873 2.3971
4.4907 -3.2255 2.3971
4.5994 -3.0598 2.3971
4.7020 -2.8904 2.3971
4.7984 -2.7176 2.3971
4.8885 -2.5415 2.3971
4.9721 -2.3625 2.3971
5.0492 -2.1807 2.3971
5.1197 -1.9964 2.3971
5.1835 -1.8098 2.3971
5.2405 -1.6212 2.3971
5.2907 -1.4309 2.3971
5.3340 -1.2389 2.3971
5.3704 -1.0457 2.3971
5.3999 -0.8515 2.3971
5.4224 -0.6565 2.3971
5.4379 -0.4609 2.3971
5.4464 -0.2651 2.3971
5.4480 -0.0692 2.3971
5.4426 0.1265 2.3971
5.4302 0.3217 2.3971
5.4110 0.5163 2.3971
5.3849 0.7099 2.3971
5.3519 0.9023 2.3971
5.3121 1.0933 2.3971
5.2657 1.2827 2.3971
5.2125 1.4702 2.3971
5.1529 1.6557 2.3971
5.0867 1.8387 2.3971
5.0141 2.0193 2.3971
4.9353 2.1970 2.3971
4.8502 2.3718 2.3971
4.7591 2.5434 2.3971
4.6620 2.7116 2.3971
4.5591 2.8761 2.3971
4.4505 3.0369 2.3971
4.3363 3.1937 2.3971
4.2168 3.3463 2.3971
4.0919 3.4945 2.3971
3.9620 3.6382 2.3971
3.8271 3.7773 2.3971
3.6875 3.9114 2.3971
3.5433 4.0405 2.3971
3.3946 4.1644 2.3971
3.2417 4.2830 2.3971
3.0848 4.3961 2.3971
2.9240 4.5036 2.3971
2.7596 4.6054 2.3971
2.5916 4.7014 2.3971
2.4205 4.7913 2.3971
0.9039 1.9617 0.9646
0.8327 1.9932 0.9647
0.7605 2.0221 0.9647
0.6872 2.0484 0.9648
0.6131 2.0720 0.9648
0.5381 2.0930 0.9648
0.4624 2.1112 0.9647
0.3861 2.1267 0.9647
0.3093 2.1395 0.9646
0.2321 2.1494 0.9644
0.1545 2.1566 0.9643
0.0768 2.1610 0.9641
-0.0011 2.1626 0.9638
-0.0789 2.1613 0.9636
-0.1567 2.1573 0.9633
-0.2343 2.1504 0.9630
-0.3116 2.1408 0.9626
-2.6633 4.3595 2.3971
-2.8203 4.2638 2.3971
-2.9739 4.1626 2.3971
-3.1239 4.0560 2.3971
-3.2701 3.9440 2.3971
-3.4123 3.8268 2.3971
-3.5503 3.7046 2.3971
-3.6840 3.5774 2.3971
-3.8132 3.4455 2.3971
-3.9376 3.3090 2.3971
-4.0572 3.1680 2.3971
-4.1718 3.0228 2.3971
-4.2812 2.8734 2.3971
-4.3852 2.7202 2.3971
-4.4838 2.5632 2.3971
-4.5767 2.4026 2.3971
-4.6639 2.2387 2.3971
-4.7452 2.0717 2.3971
-4.8206 1.9018 2.3971
-4.8898 1.7292 2.3971
-4.9529 1.5540 2.3971
-5.0096 1.3766 2.3971
-5.0600 1.1971 2.3971
-5.1039 1.0158 2.3971
-5.1413 0.8329 2.3971
-5.1721 0.6487 2.3971
-5.1962 0.4634 2.3971
-5.2137 0.2771 2.3971
-5.2244 0.0903 2.3971
-5.2284 -0.0970 2.3971
-5.2256 -0.2843 2.3971
-5.2160 -0.4716 2.3971
-5.1996 -0.6585 2.3971
-5.1765 -0.8448 2.3971
-5.1466 -1.0303 2.3971
-5.1100 -1.2147 2.3971
-5.0667 -1.3977 2.3971
-5.0167 -1.5791 2.3971
-4.9602 -1.7587 2.3971
-4.8971 -1.9362 2.3971
-4.8276 -2.1113 2.3971
-4.7517 -2.2839 2.3971
-4.6696 -2.4538 2.3971
-4.5813 -2.6205 2.3971
-4.4869 -2.7841 2.3971
-4.3866 -2.9441 2.3971
-4.2805 -3.1004 2.3971
-4.1687 -3.2528 2.3971
-4.0514 -3.4011 2.3971
-3.9287 -3.5450 2.3971
-3.8008 -3.6845 2.3971
-3.6679 -3.8192 2.3971
-3.5300 -3.9489 2.3971
-3.3876 -4.0736 2.3971
-3.2406 -4.1930 2.3971
-3.0893 -4.3069 2.3971
-2.9340 -4.4153 2.3971
-2.7747 -4.5179 2.3971
-2.6118 -4.6147 2.3971
-2.4455 -4.7054 2.3971
-2.2759 -4.7900 2.3971
-2.1033 -4.8683 2.3971
-1.9280 -4.9403 2.3971
-1.7502 -5.0058 2.3971
-1.5702 -5.0647 2.3971
-1.3881 -5.1171 2.3971
-1.2042 -5.1627 2.3971
-1.0188 -5.2016 2.3971
-0.8321 -5.2336 2.3971
-0.6444 -5.2588 2.3971
-0.4560 -5.2771 2.3971
-0.2670 -5.2885 2.3971
-0.0779 -5.2930 2.3971
0.1113 -5.2906 2.3971
0.3002 -5.2813 2.3971
0.4886 -5.2651 2.3971
0.6762 -5.2420 2.3971
0.8628 -5.2121 2.3971
1.0481 -5.1755 2.3971
1.2318 -5.1321 2.3971
1.4138 -5.0821 2.3971
1.5937 -5.0256 2.3971
1.7714 -4.9625 2.3971
1.9466 -4.8931 2.3971
2.1191 -4.8173 2.3971
2.2886 -4.7354 2.3971
2.4550 -4.6475 2.3971
2.6179 -4.5535 2.3971
2.7773 -4.4539 2.3971
2.9328 -4.3485 2.3971
3.0843 -4.2377 2.3971
3.2317 -4.1215 2.3971
3.3746 -4.0001 2.3971
3.5130 -3.8737 2.3971
3.6466 -3.7425 2.3971
3.7753 -3.6066 2.3971
3.8990 -3.4662 2.3971
4.0174 -3.3216 2.3971
4.1304 -3.1729 2.3971
4.2380 -3.0204 2.3971
4.3399 -2.8641 2.3971
4.4361 -2.7044 2.3971
4.5264 -2.5415 2.3971
4.6107 -2.3756 2.3971
4.6890 -2.2068 2.3971
4.7611 -2.0355 2.3971
4.8269 -1.8618 2.3971
4.8865 -1.6859 2.3971
4.9397 -1.5082 2.3971
4.9865 -1.3288 2.3971
5.0267 -1.1480 2.3971
5.0605 -0.9660 2.3971
5.0878 -0.7830 2.3971
5.1085 -0.5993 2.3971
5.1226 -0.4151 2.3971
5.1301 -0.2307 2.3971
5.1311 -0.0462 2.3971
5.1255 0.1381 2.3971
5.1133 0.3220 2.3971
5.0947 0.5052 2.3971
5.0695 0.6875 2.3971
5.0379 0.8687 2.3971
5.0000 1.0486 2.3971
4.9557 1.2269 2.3971
4.9051 1.4034 2.3971
4.8483 1.5779 2.3971
4.7855 1.7502 2.3971
4.7166 1.9201 2.3971
4.6418 2.0874 2.3971
4.5611 2.2518 2.3971
4.4747 2.4132 2.3971
4.3828 2.5714 2.3971
4.2853 2.7262 2.3971
4.1824 2.8774 2.3971
4.0744 3.0248 2.3971
3.9612 3.1683 2.3971
3.8431 3.3076 2.3971
3.7202 3.4426 2.3971
3.5926 3.5732 2.3971
3.4606 3.6992 2.3971
3.3242 3.8204 2.3971
3.1837 3.9367 2.3971
3.0392 4.0480 2.3971
2.8909 4.1541 2.3971
2.7389 4.2549 2.3971
2.5836 4.3502 2.3971
2.4250 4.4401 2.3971
0.9093 1.8177 0.9631
0.8433 1.8495 0.9632
0.7762 1.8788 0.9633
0.7081 1.9058 0.9634
0.6391 1.9302 0.9634
0.5692 1.9522 0.9634
0.4985 1.9716 0.9634
0.4272 1.9885 0.9633
0.3553 2.0028 0.9633
0.2830 2.0145 0.9632
0.2103 2.0236 0.9630
0.1373 2.0300 0.9629
0.0641 2.0339 0.9627
-0.0092 2.0350 0.9625
-0.0825 2.0336 0.9622
-0.1557 2.0295 0.9620
-0.2287 2.0228 0.9617
-0.3014 2.0134 0.9613
-0.3737 2.0014 0.9610
-0.4456 1.9868 0.9606
-0.5168 1.9697 0.9602
-0.5874 1.9500 0.9598
-0.6573 1.9277 0.9593
-0.7263 1.9030 0.9589
-0.7943 1.8758 0.9584
-0.8614 1.8461 0.9578
-2.3219 4.5424 2.3971
-2.4854 4.4589 2.3971
-2.6460 4.3696 2.3971
-2.8033 4.2746 2.3971
-2.9573 4.1740 2.3971
-3.1077 4.0679 2.3971
-3.2543 3.9565 2.3971
-3.3969 3.8399 2.3971
-3.5354 3.7182 2.3971
-3.6696 3.5916 2.3971
-3.7993 3.4602 2.3971
-3.9243 3.3242 2.3971
-4.0444 3.1837 2.3971
-4.1595 3.0389 2.3971
-4.2694 2.8900 2.3971
-4.3741 2.7371 2.3971
-4.4733 2.5805 2.3971
-4.5668 2.4204 2.3971
-4.6547 2.2568 2.3971
-4.7366 2.0902 2.3971
-4.8126 1.9205 2.3971
-4.8826 1.7482 2.3971
-4.9463 1.5733 2.3971
-5.0037 1.3961 2.3971
-5.0548 1.2168 2.3971
-5.0994 1.0357 2.3971
-5.1375 0.8530 2.3971
-5.1690 0.6689 2.3971
-5.1939 0.4837 2.3971
-5.2121 0.2975 2.3971
-5.2236 0.1108 2.3971
-5.2283 -0.0765 2.3971
-5.2262 -0.2638 2.3971
-5.2174 -0.4511 2.3971
-5.2017 -0.6381 2.3971
-5.1793 -0.8245 2.3971
-5.1502 -1.0101 2.3971
-5.1143 -1.1945 2.3971
-5.0717 -1.3777 2.3971
-5.0225 -1.5593 2.3971
-4.9667 -1.7391 2.3971
-4.9043 -1.9168 2.3971
-4.8355 -2.0923 2.3971
-4.7603 -2.2652 2.3971
-4.6789 -2.4353 2.3971
-4.5912 -2.6024 2.3971
-4.4975 -2.7663 2.3971
-4.3979 -2.9268 2.3971
-4.2924 -3.0835 2.3971
-4.1812 -3.2364 2.3971
-4.0645 -3.3851 2.3971
-3.9424 -3.5295 2.3971
-3.8150 -3.6694 2.3971
-3.6827 -3.8046 2.3971
-3.5454 -3.9349 2.3971
-3.4034 -4.0602 2.3971
-3.2569 -4.1802 2.3971
-3.1061 -4.2947 2.3971
-2.9512 -4.4037 2.3971
-2.7923 -4.5070 2.3971
-2.6298 -4.6044 2.3971
-2.4638 -4.6958 2.3971
-2.2946 -4.7810 2.3971
-2.1224 -4.8601 2.3971
-1.9474 -4.9327 2.3971
-1.7698 -4.9989 2.3971
-1.5900 -5.0586 2.3971
-1.4081 -5.1117 2.3971
-1.2244 -5.1580 2.3971
-1.0392 -5.1977 2.3971
-0.8526 -5.2304 2.3971
-0.6650 -5.2563 2.3971
-0.4767 -5.2755 2.3971
-0.2878 -5.2876 2.3971
-0.0986 -5.2928 2.3971
0.0906 -5.2912 2.3971
0.2796 -5.2826 2.3971
0.4680 -5.2672 2.3971
0.6557 -5.2449 2.3971
0.8424 -5.2157 2.3971
1.0278 -5.1798 2.3971
1.2118 -5.1372 2.3971
1.3940 -5.0879 2.3971
1.5741 -5.0321 2.3971
1.7521 -4.9697 2.3971
1.9276 -4.9010 2.3971
2.1004 -4.8259 2.3971
2.2702 -4.7447 2.3971
2.4369 -4.6574 2.3971
2.6003 -4.5641 2.3971
2.7600 -4.4650 2.3971
2.9160 -4.3603 2.3971
3.0680 -4.2501 2.3971
3.2158 -4.1344 2.3971
3.3592 -4.0136 2.3971
3.4981 -3.8878 2.3971
3.6322 -3.7571 2.3971
3.7615 -3.6217 2.3971
3.8857 -3.4818 2.3971
4.0047 -3.3377 2.3971
4.1183 -3.1894 2.3971
4.2265 -3.0372 2.3971
4.3290 -2.8814 2.3971
4.4258 -2.7221 2.3971
4.5168 -2.5595 2.3971
4.6018 -2.3939 2.3971
4.6807 -2.2254 2.3971
4.7535 -2.0543 2.3971
4.8200 -1.8809 2.3971
4.8803 -1.7053 2.3971
4.9342 -1.5278 2.3971
4.9817 -1.3486 2.3971
5.0227 -1.1679 2.3971
5.0572 -0.9860 2.3971
5.0851 -0.8031 2.3971
5.1065 -0.6195 2.3971
5.1214 -0.4353 2.3971
5.1296 -0.2509 2.3971
5.1313 -0.0664 2.3971
5.1264 0.1180 2.3971
5.1150 0.3019 2.3971
5.0970 0.4852 2.3971
5.0726 0.6676 2.3971
5.0417 0.8490 2.3971
5.0044 1.0290 2.3971
4.9608 1.2075 2.3971
4.9109 1.3842 2.3971
4.8549 1.5589 2.3971
4.7927 1.7315 2.3971
4.7244 1.9016 2.3971
4.6502 2.0692 2.3971
4.5702 2.2340 2.3971
4.4845 2.3957 2.3971
4.3931 2.5543 2.3971
4.2962 2.7095 2.3971
4.1940 2.8610 2.3971
4.0865 3.0089 2.3971
3.9738 3.1528 2.3971
3.8563 3.2926 2.3971
3.7339 3.4281 2.3971
3.6068 3.5591 2.3971
3.4753 3.6856 2.3971
3.3393 3.8074 2.3971
3.1993 3.9242 2.3971
3.0552 4.0361 2.3971
2.9073 4.1427 2.3971
2.7557 4.2441 2.3971
2.6007 4.3401 2.3971
2.4425 4.4305 2.3971
0.9165 1.8141 0.9630
0.8506 1.8461 0.9632
0.7836 1.8757 0.9633
0.7156 1.9029 0.9634
0.6467 1.9277 0.9634
0.5768 1.9499 0.9634
0.5063 1.9696 0.9634
0.4350 1.9868 0.9634
0.3632 2.0014 0.9633
0.2909 2.0133 0.9632
0.2182 2.0227 0.9631
0.1453 2.0295 0.9629
0.0721 2.0336 0.9627
-0.0012 2.0350 0.9625
-0.0745 2.0339 0.9623
-0.1477 2.0301 0.9620
-0.2207 2.0236 0.9617
-0.2934 2.0145 0.9614
-2.5153 4.1153 2.3971
-2.6635 4.0249 2.3971
-2.8084 3.9292 2.3971
-2.9499 3.8284 2.3971
-3.0878 3.7225 2.3971
-3.2220 3.6118 2.3971
-3.3522 3.4962 2.3971
-3.4783 3.3761 2.3971
-3.6001 3.2514 2.3971
-3.7174 3.1224 2.3971
-3.8302 2.9892 2.3971
-3.9382 2.8520 2.3971
-4.0412 2.7109 2.3971
-4.1393 2.5662 2.3971
-4.2322 2.4179 2.3971
-4.3197 2.2663 2.3971
-4.4018 2.1116 2.3971
-4.4784 1.9539 2.3971
-4.5493 1.7935 2.3971
-4.6145 1.6305 2.3971
-4.6738 1.4652 2.3971
-4.7271 1.2977 2.3971
-4.7745 1.1283 2.3971
-4.8157 0.9572 2.3971
-4.8508 0.7847 2.3971
-4.8797 0.6109 2.3971
-4.9023 0.4360 2.3971
-4.9185 0.2603 2.3971
-4.9285 0.0840 2.3971
-4.9320 -0.0926 2.3971
-4.9292 -0.2693 2.3971
-4.9200 -0.4459 2.3971
-4.9044 -0.6222 2.3971
-4.8824 -0.7979 2.3971
-4.8541 -0.9728 2.3971
-4.8194 -1.1466 2.3971
-4.7784 -1.3191 2.3971
-4.7311 -1.4902 2.3971
-4.6777 -1.6595 2.3971
-4.6181 -1.8268 2.3971
-4.5524 -1.9919 2.3971
-4.4807 -2.1546 2.3971
-4.4032 -2.3146 2.3971
-4.3198 -2.4718 2.3971
-4.2307 -2.6259 2.3971
-4.1361 -2.7768 2.3971
-4.0359 -2.9241 2.3971
-3.9305 -3.0677 2.3971
-3.8198 -3.2074 2.3971
-3.7041 -3.3431 2.3971
-3.5834 -3.4744 2.3971
-3.4581 -3.6013 2.3971
-3.3281 -3.7236 2.3971
-3.1938 -3.8411 2.3971
-3.0552 -3.9536 2.3971
-2.9126 -4.0610 2.3971
-2.7661 -4.1631 2.3971
-2.6160 -4.2598 2.3971
-2.4624 -4.3510 2.3971
-2.3056 -4.4365 2.3971
-2.1458 -4.5162 2.3971
-1.9831 -4.5900 2.3971
-1.8179 -4.6579 2.3971
-1.6503 -4.7196 2.3971
-1.4805 -4.7752 2.3971
-1.3089 -4.8245 2.3971
-1.1356 -4.8676 2.3971
-0.9608 -4.9042 2.3971
-0.7849 -4.9345 2.3971
-0.6080 -4.9583 2.3971
-0.4304 -4.9757 2.3971
-0.2522 -4.9865 2.3971
-0.0739 -4.9908 2.3971
0.1044 -4.9886 2.3971
0.2825 -4.9799 2.3971
0.4601 -4.9647 2.3971
0.6370 -4.9431 2.3971
0.8129 -4.9150 2.3971
0.9876 -4.8805 2.3971
1.1609 -4.8398 2.3971
1.3325 -4.7928 2.3971
1.5022 -4.7396 2.3971
1.6698 -4.6802 2.3971
1.8350 -4.6149 2.3971
1.9977 -4.5436 2.3971
2.1576 -4.4665 2.3971
2.3146 -4.3837 2.3971
2.4683 -4.2953 2.3971
2.6187 -4.2014 2.3971
2.7654 -4.1022 2.3971
2.9084 -3.9978 2.3971
3.0475 -3.8883 2.3971
3.1824 -3.7740 2.3971
3.3131 -3.6549 2.3971
3.4392 -3.5313 2.3971
3.5608 -3.4032 2.3971
3.6775 -3.2709 2.3971
3.7894 -3.1346 2.3971
3.8962 -2.9945 2.3971
3.9978 -2.8507 2.3971
4.0941 -2.7034 2.3971
4.1850 -2.5528 2.3971
4.2704 -2.3992 2.3971
4.3501 -2.2427 2.3971
4.4241 -2.0835 2.3971
4.4924 -1.9219 2.3971
4.5547 -1.7581 2.3971
4.6111 -1.5922 2.3971
4.6615 -1.4245 2.3971
4.7058 -1.2553 2.3971
4.7440 -1.0847 2.3971
4.7761 -0.9129 2.3971
4.8020 -0.7402 2.3971
4.8217 -0.5669 2.3971
4.8352 -0.3930 2.3971
4.8425 -0.2189 2.3971
4.8436 -0.0447 2.3971
4.8384 0.1293 2.3971
4.8271 0.3029 2.3971
4.8097 0.4759 2.3971
4.7861 0.6480 2.3971
4.7564 0.8192 2.3971
4.7207 0.9890 2.3971
4.6790 1.1574 2.3971
4.6314 1.3241 2.3971
4.5780 1.4890 2.3971
4.5187 1.6517 2.3971
4.4538 1.8122 2.3971
4.3833 1.9702 2.3971
4.3072 2.1256 2.3971
4.2257 2.2781 2.3971
4.1389 2.4276 2.3971
4.0470 2.5738 2.3971
3.9499 2.7167 2.3971
3.8479 2.8559 2.3971
3.7411 2.9915 2.3971
3.6296 3.1232 2.3971
3.5136 3.2508 2.3971
3.3931 3.3742 2.3971
3.2684 3.4932 2.3971
3.1397 3.6077 2.3971
3.0070 3.7177 2.3971
2.8705 3.8228 2.3971
2.7304 3.9231 2.3971
2.5869 4.0183 2.3971
2.4401 4.1084 2.3971
0.9188 1.6823 0.9617
0.8577 1.7145 0.9618
0.7954 1.7444 0.9619
0.7321 1.7721 0.9620
0.6679 1.7975 0.9621
0.6027 1.8206 0.9621
0.5368 1.8413 0.9621
0.4701 1.8596 0.9621
0.4028 1.8756 0.9621
0.3350 1.8890 0.9620
0.2668 1.9001 0.9619
0.1982 1.9086 0.9618
0.1293 1.9147 0.9616
0.0603 1.9183 0.9615
-0.0089 1.9194 0.9613
-0.0780 1.9181 0.9610
-0.1471 1.9142 0.9608
-0.2159 1.9078 0.9605
-0.2845 1.8990 0.9602
-0.3527 1.8877 0.9599
-0.4205 1.8739 0.9595
-0.4878 1.8578 0.9591
-0.5544 1.8392 0.9587
-0.6203 1.8182 0.9583
-0.6854 1.7948 0.9579
-0.7496 1.7692 0.9574
-0.8128 1.7412 0.9569
-0.8750 1.7110 0.9564
-2.3474 4.2093 2.3971
-2.4989 4.1249 2.3971
-2.6474 4.0350 2.3971
-2.7927 3.9399 2.3971
-2.9346 3.8397 2.3971
-3.0729 3.7344 2.3971
-3.2075 3.6241 2.3971
-3.3382 3.5091 2.3971
-3.4647 3.3895 2.3971
-3.5870 3.2653 2.3971
-3.7048 3.1368 2.3971
-3.8181 3.0040 2.3971
-3.9266 2.8672 2.3971
-4.0302 2.7266 2.3971
-4.1288 2.5822 2.3971
-4.2222 2.4343 2.3971
-4.3104 2.2831 2.3971
-4.3931 2.1287 2.3971
-4.4703 1.9713 2.3971
-4.5418 1.8112 2.3971
-4.6076 1.6484 2.3971
-4.6676 1.4834 2.3971
-4.7216 1.3161 2.3971
-4.7696 1.1470 2.3971
-4.8115 0.9761 2.3971
-4.8473 0.8036 2.3971
-4.8768 0.6299 2.3971
-4.9001 0.4552 2.3971
-4.9171 0.2796 2.3971
-4.9277 0.1033 2.3971
-4.9320 -0.0732 2.3971
-4.9298 -0.2500 2.3971
-4.9213 -0.4266 2.3971
-4.9064 -0.6029 2.3971
-4.8851 -0.7787 2.3971
-4.8575 -0.9537 2.3971
-4.8235 -1.1276 2.3971
-4.7832 -1.3003 2.3971
-4.7366 -1.4715 2.3971
-4.6838 -1.6410 2.3971
-4.6249 -1.8086 2.3971
-4.5599 -1.9739 2.3971
-4.4889 -2.1369 2.3971
-4.4119 -2.2972 2.3971
-4.3292 -2.4548 2.3971
-4.2407 -2.6092 2.3971
-4.1467 -2.7604 2.3971
-4.0472 -2.9081 2.3971
-3.9423 -3.0522 2.3971
-3.8322 -3.1923 2.3971
-3.7170 -3.3284 2.3971
-3.5969 -3.4603 2.3971
-3.4720 -3.5876 2.3971
-3.3426 -3.7104 2.3971
-3.2087 -3.8285 2.3971
-3.0706 -3.9415 2.3971
-2.9284 -4.0495 2.3971
-2.7823 -4.1522 2.3971
-2.6326 -4.2495 2.3971
-2.4794 -4.3413 2.3971
-2.3229 -4.4274 2.3971
-2.1634 -4.5078 2.3971
-2.0011 -4.5822 2.3971
-1.8361 -4.6507 2.3971
-1.6687 -4.7132 2.3971
-1.4992 -4.7694 2.3971
-1.3278 -4.8195 2.3971
-1.1546 -4.8632 2.3971
-0.9800 -4.9005 2.3971
-0.8042 -4.9314 2.3971
-0.6274 -4.9560 2.3971
-0.4498 -4.9742 2.3971
-0.2718 -4.9856 2.3971
-0.0934 -4.9906 2.3971
0.0849 -4.9891 2.3971
0.2631 -4.9811 2.3971
0.4407 -4.9667 2.3971
0.6177 -4.9457 2.3971
0.7937 -4.9184 2.3971
0.9686 -4.8846 2.3971
1.1420 -4.8446 2.3971
1.3138 -4.7982 2.3971
1.4837 -4.7457 2.3971
1.6515 -4.6870 2.3971
1.8171 -4.6223 2.3971
1.9800 -4.5517 2.3971
2.1403 -4.4752 2.3971
2.2975 -4.3930 2.3971
2.4516 -4.3052 2.3971
2.6024 -4.2119 2.3971
2.7495 -4.1133 2.3971
2.8930 -4.0095 2.3971
3.0325 -3.9005 2.3971
3.1679 -3.7867 2.3971
3.2990 -3.6682 2.3971
3.4256 -3.5450 2.3971
3.5477 -3.4175 2.3971
3.6650 -3.2856 2.3971
3.7774 -3.1498 2.3971
3.8847 -3.0100 2.3971
3.9869 -2.8666 2.3971
4.0838 -2.7196 2.3971
4.1753 -2.5694 2.3971
4.2613 -2.4161 2.3971
4.3417 -2.2599 2.3971
4.4163 -2.1011 2.3971
4.4852 -1.9397 2.3971
4.5482 -1.7761 2.3971
4.6052 -1.6105 2.3971
4.6562 -1.4430 2.3971
4.7012 -1.2739 2.3971
4.7401 -1.1034 2.3971
4.7729 -0.9318 2.3971
4.7994 -0.7592 2.3971
4.8198 -0.5859 2.3971
4.8340 -0.4120 2.3971
4.8420 -0.2379 2.3971
4.8438 -0.0638 2.3971
4.8393 0.1103 2.3971
4.8287 0.2839 2.3971
4.8119 0.4570 2.3971
4.7890 0.6292 2.3971
4.7600 0.8005 2.3971
4.7249 0.9705 2.3971
4.6839 1.1391 2.3971
4.6369 1.3060 2.3971
4.5841 1.4710 2.3971
4.5255 1.6340 2.3971
4.4612 1.7948 2.3971
4.3912 1.9531 2.3971
4.3158 2.1087 2.3971
4.2349 2.2616 2.3971
4.1487 2.4114 2.3971
4.0573 2.5580 2.3971
3.9608 2.7012 2.3971
3.8593 2.8409 2.3971
3.7530 2.9769 2.3971
3.6420 3.1089 2.3971
3.5265 3.2370 2.3971
3.4065 3.3609 2.3971
3.2823 3.4804 2.3971
3.1540 3.5954 2.3971
3.0217 3.7059 2.3971
2.8856 3.8115 2.3971
2.7459 3.9123 2.3971
2.6028 4.0081 2.3971
2.4563 4.0988 2.3971
2.3068 4.1843 2.3971
0.8644 1.7111 0.9618
0.8023 1.7413 0.9619
0.7391 1.7692 0.9620
0.6749 1.7949 0.9621
0.6099 1.8182 0.9621
0.5440 1.8392 0.9622
0.4774 1.8577 0.9621
0.4102 1.8739 0.9621
0.3425 1.8877 0.9620
0.2743 1.8990 0.9619
0.2057 1.9078 0.9618
0.1369 1.9142 0.9617
0.0678 1.9180 0.9615
-0.0013 1.9194 0.9613
-0.0705 1.9183 0.9611
-0.1395 1.9147 0.9608
-0.2084 1.9086 0.9605
-0.2770 1.9001 0.9602
-2.3801 3.8923 2.3971
-2.5202 3.8067 2.3971
-2.6573 3.7160 2.3971
-2.7911 3.6205 2.3971
-2.9215 3.5203 2.3971
-3.0483 3.4154 2.3971
-3.1713 3.3060 2.3971
-3.2905 3.1923 2.3971
-3.4056 3.0743 2.3971
-3.5164 2.9521 2.3971
-3.6230 2.8261 2.3971
-3.7250 2.6962 2.3971
-3.8223 2.5627 2.3971
-3.9149 2.4257 2.3971
-4.0026 2.2854 2.3971
-4.0852 2.1420 2.3971
-4.1627 1.9956 2.3971
-4.2350 1.8464 2.3971
-4.3019 1.6947 2.3971
-4.3633 1.5405 2.3971
-4.4192 1.3841 2.3971
-4.4695 1.2258 2.3971
-4.5141 1.0656 2.3971
-4.5530 0.9038 2.3971
-4.5860 0.7407 2.3971
-4.6131 0.5763 2.3971
-4.6343 0.4110 2.3971
-4.6495 0.2450 2.3971
-4.6587 0.0783 2.3971
-4.6620 -0.0886 2.3971
-4.6591 -0.2556 2.3971
-4.6503 -0.4225 2.3971
-4.6354 -0.5891 2.3971
-4.6145 -0.7551 2.3971
-4.5875 -0.9203 2.3971
-4.5546 -1.0846 2.3971
-4.5157 -1.2476 2.3971
-4.4710 -1.4092 2.3971
-4.4203 -1.5691 2.3971
-4.3639 -1.7271 2.3971
-4.3017 -1.8831 2.3971
-4.2339 -2.0368 2.3971
-4.1605 -2.1879 2.3971
-4.0817 -2.3364 2.3971
-3.9974 -2.4819 2.3971
-3.9079 -2.6244 2.3971
-3.8133 -2.7635 2.3971
-3.7136 -2.8991 2.3971
-3.6089 -3.0311 2.3971
-3.4996 -3.1592 2.3971
-3.3856 -3.2832 2.3971
-3.2671 -3.4030 2.3971
-3.1443 -3.5185 2.3971
-3.0173 -3.6294 2.3971
-2.8864 -3.7357 2.3971
-2.7517 -3.8371 2.3971
-2.6133 -3.9335 2.3971
-2.4715 -4.0248 2.3971
-2.3264 -4.1109 2.3971
-2.1783 -4.1917 2.3971
-2.0273 -4.2670 2.3971
-1.8737 -4.3367 2.3971
-1.7176 -4.4008 2.3971
-1.5593 -4.4591 2.3971
-1.3990 -4.5117 2.3971
-1.2368 -4.5583 2.3971
-1.0731 -4.5990 2.3971
-0.9081 -4.6336 2.3971
-0.7419 -4.6622 2.3971
-0.5748 -4.6848 2.3971
-0.4070 -4.7012 2.3971
-0.2387 -4.7115 2.3971
-0.0703 -4.7156 2.3971
0.0982 -4.7136 2.3971
0.2664 -4.7055 2.3971
0.4342 -4.6912 2.3971
0.6013 -4.6708 2.3971
0.7675 -4.6444 2.3971
0.9326 -4.6120 2.3971
1.0963 -4.5736 2.3971
1.2584 -4.5293 2.3971
1.4188 -4.4791 2.3971
1.5772 -4.4231 2.3971
1.7334 -4.3615 2.3971
1.8871 -4.2943 2.3971
2.0383 -4.2215 2.3971
2.1866 -4.1434 2.3971
2.3320 -4.0600 2.3971
2.4741 -3.9714 2.3971
2.6129 -3.8777 2.3971
2.7482 -3.7792 2.3971
2.8797 -3.6759 2.3971
3.0073 -3.5679 2.3971
3.1308 -3.4555 2.3971
3.2502 -3.3387 2.3971
3.3652 -3.2178 2.3971
3.4757 -3.0929 2.3971
3.5815 -2.9642 2.3971
3.6826 -2.8318 2.3971
3.7788 -2.6959 2.3971
3.8700 -2.5568 2.3971
3.9561 -2.4145 2.3971
4.0369 -2.2693 2.3971
4.1125 -2.1215 2.3971
4.1826 -1.9710 2.3971
4.2472 -1.8183 2.3971
4.3063 -1.6635 2.3971
4.3598 -1.5067 2.3971
4.4076 -1.3482 2.3971
4.4497 -1.1882 2.3971
4.4860 -1.0269 2.3971
4.5165 -0.8645 2.3971
4.5411 -0.7012 2.3971
4.5599 -0.5372 2.3971
4.5728 -0.3728 2.3971
4.5799 -0.2081 2.3971
4.5811 -0.0433 2.3971
4.5764 0.1212 2.3971
4.5658 0.2855 2.3971
4.5495 0.4491 2.3971
4.5273 0.6120 2.3971
4.4994 0.7739 2.3971
4.4657 0.9346 2.3971
4.4264 1.0940 2.3971
4.3815 1.2517 2.3971
4.3310 1.4077 2.3971
4.2751 1.5618 2.3971
4.2137 1.7137 2.3971
4.1471 1.8632 2.3971
4.0752 2.0103 2.3971
3.9982 2.1546 2.3971
3.9162 2.2961 2.3971
3.8292 2.4345 2.3971
3.7374 2.5698 2.3971
3.6410 2.7016 2.3971
3.5400 2.8300 2.3971
3.4345 2.9546 2.3971
3.3247 3.0754 2.3971
3.2108 3.1922 2.3971
3.0928 3.3049 2.3971
2.9710 3.4134 2.3971
2.8454 3.5174 2.3971
2.7163 3.6170 2.3971
2.5837 3.7119 2.3971
2.4479 3.8021 2.3971
2.3090 3.8874 2.3971
0.8684 1.5900 0.9606
0.8106 1.6204 0.9607
0.7518 1.6487 0.9608
0.6919 1.6748 0.9609
0.6312 1.6988 0.9610
0.5696 1.7206 0.9610
0.5072 1.7402 0.9610
0.4442 1.7575 0.9610
0.3806 1.7726 0.9609
0.3165 1.7853 0.9609
0.2520 1.7957 0.9608
0.1872 1.8038 0.9607
0.1221 1.8096 0.9605
0.0568 1.8130 0.9604
-0.0086 1.8140 0.9602
-0.0739 1.8127 0.9599
-0.1392 1.8091 0.9597
-0.2043 1.8030 0.9594
-0.2691 1.7947 0.9591
-0.3336 1.7840 0.9588
-0.3977 1.7710 0.9585
-0.4613 1.7557 0.9581
-0.5242 1.7381 0.9578
-0.5865 1.7183 0.9574
-0.6481 1.6962 0.9569
-0.7088 1.6720 0.9565
-0.7685 1.6455 0.9560
-0.8273 1.6170 0.9556
-0.8850 1.5863 0.9551
-2.3646 3.9014 2.3971
-2.5050 3.8163 2.3971
-2.6424 3.7262 2.3971
-2.7766 3.6312 2.3971
-2.9073 3.5315 2.3971
-3.0346 3.4271 2.3971
-3.1580 3.3182 2.3971
-3.2776 3.2049 2.3971
-3.3932 3.0874 2.3971
-3.5045 2.9657 2.3971
-3.6115 2.8401 2.3971
-3.7140 2.7106 2.3971
-3.8119 2.5775 2.3971
-3.9050 2.4409 2.3971
-3.9932 2.3009 2.3971
-4.0764 2.1578 2.3971
-4.1545 2.0118 2.3971
-4.2273 1.8629 2.3971
-4.2948 1.7114 2.3971
-4.3569 1.5575 2.3971
-4.4134 1.4014 2.3971
-4.4643 1.2432 2.3971
-4.5095 1.0832 2.3971
-4.5490 0.9216 2.3971
-4.5826 0.7586 2.3971
-4.6104 0.5944 2.3971
-4.6323 0.4292 2.3971
-4.6481 0.2632 2.3971
-4.6580 0.0966 2.3971
-4.6619 -0.0703 2.3971
-4.6597 -0.2373 2.3971
-4.6515 -0.4043 2.3971
-4.6373 -0.5709 2.3971
-4.6170 -0.7370 2.3971
-4.5908 -0.9023 2.3971
-4.5585 -1.0667 2.3971
-4.5203 -1.2298 2.3971
-4.4761 -1.3916 2.3971
-4.4261 -1.5517 2.3971
-4.3703 -1.7099 2.3971
-4.3088 -1.8661 2.3971
-4.2416 -2.0201 2.3971
-4.1688 -2.1715 2.3971
-4.0906 -2.3203 2.3971
-4.0069 -2.4661 2.3971
-3.9180 -2.6089 2.3971
-3.8239 -2.7484 2.3971
-3.7247 -2.8844 2.3971
-3.6206 -3.0168 2.3971
-3.5118 -3.1453 2.3971
-3.3983 -3.2698 2.3971
-3.2803 -3.3901 2.3971
-3.1579 -3.5061 2.3971
-3.0314 -3.6175 2.3971
-2.9009 -3.7243 2.3971
-2.7666 -3.8262 2.3971
-2.6286 -3.9232 2.3971
-2.4872 -4.0151 2.3971
-2.3424 -4.1018 2.3971
-2.1946 -4.1831 2.3971
-2.0439 -4.2590 2.3971
-1.8906 -4.3294 2.3971
-1.7348 -4.3941 2.3971
-1.5767 -4.4530 2.3971
-1.4166 -4.5062 2.3971
-1.2547 -4.5535 2.3971
-1.0911 -4.5948 2.3971
-0.9262 -4.6301 2.3971
-0.7601 -4.6594 2.3971
-0.5931 -4.6825 2.3971
-0.4254 -4.6997 2.3971
-0.2572 -4.7106 2.3971
-0.0887 -4.7154 2.3971
0.0798 -4.7141 2.3971
0.2480 -4.7066 2.3971
0.4159 -4.6931 2.3971
0.5831 -4.6734 2.3971
0.7494 -4.6476 2.3971
0.9146 -4.6158 2.3971
1.0784 -4.5781 2.3971
1.2408 -4.5344 2.3971
1.4014 -4.4849 2.3971
1.5600 -4.4295 2.3971
1.7164 -4.3685 2.3971
1.8704 -4.3019 2.3971
2.0219 -4.2298 2.3971
2.1705 -4.1522 2.3971
2.3162 -4.0694 2.3971
2.4587 -3.9813 2.3971
2.5979 -3.8882 2.3971
2.7335 -3.7902 2.3971
2.8655 -3.6874 2.3971
2.9935 -3.5800 2.3971
3.1175 -3.4680 2.3971
3.2373 -3.3517 2.3971
3.3528 -3.2313 2.3971
3.4638 -3.1068 2.3971
3.5702 -2.9784 2.3971
3.6718 -2.8464 2.3971
3.7685 -2.7110 2.3971
3.8603 -2.5722 2.3971
3.9469 -2.4302 2.3971
4.0283 -2.2854 2.3971
4.1045 -2.1378 2.3971
4.1752 -1.9876 2.3971
4.2404 -1.8351 2.3971
