ply
format ascii 1.0
element vertex 2174
property float32 x
property float32 y
property float32 z
end_header
4.3589 -6.9966 2.3951
4.5929 -6.8134 2.3951
4.8197 -6.6227 2.3951
5.0392 -6.4250 2.3951
5.2510 -6.2204 2.3951
5.4551 -6.0093 2.3951
5.6512 -5.7918 2.3951
5.8393 -5.5684 2.3951
6.0191 -5.3393 2.3951
6.1906 -5.1049 2.3951
6.3535 -4.8654 2.3951
6.5078 -4.6212 2.3951
6.6535 -4.3725 2.3951
6.7902 -4.1196 2.3951
6.9181 -3.8628 2.3951
7.0370 -3.6025 2.3951
7.1468 -3.3389 2.3951
7.2476 -3.0724 2.3951
7.3391 -2.8031 2.3951
7.4214 -2.5315 2.3951
7.4945 -2.2577 2.3951
7.5583 -1.9822 2.3951
7.6128 -1.7051 2.3951
7.6580 -1.4268 2.3951
7.6939 -1.1475 2.3951
7.7204 -0.8676 2.3951
7.7377 -0.5873 2.3951
7.7456 -0.3069 2.3951
7.7442 -0.0266 2.3951
7.7336 0.2532 2.3951
7.7137 0.5322 2.3951
7.6847 0.8103 2.3951
7.6465 1.0871 2.3951
7.5992 1.3624 2.3951
7.5429 1.6359 2.3951
7.4776 1.9073 2.3951
7.4034 2.1764 2.3951
7.3203 2.4429 2.3951
7.2285 2.7065 2.3951
7.1231 2.9650 2.3934
6.5724 3.0191 2.2427
6.4623 3.2565 2.2427
6.3444 3.4903 2.2427
6.2187 3.7202 2.2427
6.0854 3.9460 2.2427
5.9446 4.1675 2.2427
5.7963 4.3844 2.2427
5.6408 4.5966 2.2427
5.4782 4.8037 2.2427
5.3085 5.0056 2.2427
5.1319 5.2020 2.2427
4.9487 5.3927 2.2427
4.7588 5.5775 2.2427
4.5626 5.7562 2.2427
4.3601 5.9285 2.2427
4.1516 6.0943 2.2427
3.9372 6.2534 2.2427
3.7172 6.4054 2.2427
3.4916 6.5504 2.2427
3.2608 6.6879 2.2427
3.0249 6.8179 2.2427
2.7841 6.9401 2.2427
2.5388 7.0544 2.2427
2.2893 7.1613 2.2429
0.9004 3.2113 0.9922
0.7844 3.2428 0.9898
0.6673 3.2701 0.9872
0.5494 3.2931 0.9847
0.4306 3.3119 0.9820
0.3112 3.3263 0.9793
0.1914 3.3365 0.9766
0.0713 3.3423 0.9738
-0.0489 3.3437 0.9710
-0.1692 3.3408 0.9681
-0.2892 3.3335 0.9652
-0.4089 3.3219 0.9623
-0.5282 3.3060 0.9593
-0.6467 3.2858 0.9563
-0.7645 3.2613 0.9533
-0.8813 3.2325 0.9503
-2.5207 8.0901 2.3951
-2.8190 8.0220 2.3951
-3.1157 7.9430 2.3951
-3.4102 7.8532 2.3951
-3.7023 7.7525 2.3951
-3.9914 7.6410 2.3951
-4.2772 7.5187 2.3951
-4.5593 7.3856 2.3951
-4.8372 7.2420 2.3951
-5.1105 7.0877 2.3951
-5.3787 6.9231 2.3951
-5.6415 6.7482 2.3951
-5.8984 6.5632 2.3951
-6.1489 6.3682 2.3951
-6.3928 6.1634 2.3951
-6.6295 5.9492 2.3951
-6.8586 5.7255 2.3951
-7.0798 5.4929 2.3951
-7.2926 5.2515 2.3951
-7.4966 5.0015 2.3951
-7.6916 4.7434 2.3951
-7.8770 4.4775 2.3951
-8.0525 4.2041 2.3951
-8.2179 3.9235 2.3951
-8.3727 3.6363 2.3951
-8.5167 3.3427 2.3951
-8.6495 3.0432 2.3951
-8.7709 2.7382 2.3951
-8.8807 2.4283 2.3951
-8.9785 2.1137 2.3951
-9.0641 1.7952 2.3951
-9.1374 1.4731 2.3951
-9.1982 1.1479 2.3951
-9.2463 0.8202 2.3951
-9.2816 0.4906 2.3951
-9.3041 0.1594 2.3951
-9.3135 -0.1727 2.3951
-9.3098 -0.5052 2.3951
-9.2932 -0.8376 2.3951
-9.2634 -1.1692 2.3951
-9.2206 -1.4995 2.3951
-9.1648 -1.8281 2.3951
-9.0961 -2.1542 2.3951
-9.0146 -2.4775 2.3951
-8.9203 -2.7973 2.3951
-8.8137 -3.1131 2.3951
-8.6946 -3.4245 2.3951
-8.5634 -3.7308 2.3951
-8.4203 -4.0316 2.3951
-8.2656 -4.3263 2.3951
-8.0995 -4.6146 2.3951
-7.9224 -4.8960 2.3951
-7.7345 -5.1699 2.3951
-7.5362 -5.4360 2.3951
-7.3279 -5.6939 2.3951
-7.1099 -5.9431 2.3951
-6.8827 -6.1834 2.3951
-6.6465 -6.4143 2.3951
-6.4020 -6.6355 2.3951
-6.1495 -6.8467 2.3951
-5.8894 -7.0477 2.3951
-5.6222 -7.2381 2.3951
-5.3483 -7.4178 2.3951
-5.0683 -7.5864 2.3951
-4.7827 -7.7439 2.3951
-4.4918 -7.8900 2.3951
-4.1963 -8.0247 2.3951
-3.8965 -8.1477 2.3951
-3.5930 -8.2589 2.3951
-3.2862 -8.3584 2.3951
-2.9767 -8.4460 2.3951
-2.6649 -8.5217 2.3951
-2.3514 -8.5855 2.3951
-2.0364 -8.6375 2.3951
-1.7208 -8.6774 2.3951
-1.4048 -8.7055 2.3951
-1.0888 -8.7219 2.3951
-0.7734 -8.7267 2.3951
-0.4589 -8.7198 2.3951
-0.1459 -8.7014 2.3951
0.1653 -8.6718 2.3951
0.4743 -8.6309 2.3951
-2.7412 -7.7395 2.3951
-2.4561 -7.8111 2.3951
-2.1692 -7.8717 2.3951
-1.8810 -7.9215 2.3951
-1.5918 -7.9604 2.3951
-1.3022 -7.9885 2.3951
-1.0125 -8.0059 2.3951
-0.7232 -8.0125 2.3951
-0.4346 -8.0085 2.3951
-0.1471 -7.9940 2.3951
0.1388 -7.9691 2.3951
0.4228 -7.9339 2.3951
0.7046 -7.8885 2.3951
0.9837 -7.8331 2.3951
1.2599 -7.7679 2.3951
1.5327 -7.6929 2.3951
1.8018 -7.6085 2.3951
2.0670 -7.5148 2.3951
2.3279 -7.4121 2.3951
2.5842 -7.3004 2.3951
2.8357 -7.1800 2.3951
3.0820 -7.0513 2.3951
3.3229 -6.9143 2.3951
3.5582 -6.7693 2.3951
3.7875 -6.6166 2.3951
4.0108 -6.4566 2.3951
4.2277 -6.2891 2.3951
4.4381 -6.1148 2.3951
4.6417 -5.9338 2.3951
4.8384 -5.7463 2.3951
5.0280 -5.5527 2.3951
5.2103 -5.3532 2.3951
5.3852 -5.1481 2.3951
5.5525 -4.9376 2.3951
5.7122 -4.7221 2.3951
5.8640 -4.5018 2.3951
6.0078 -4.2769 2.3951
6.1437 -4.0478 2.3951
6.2713 -3.8147 2.3951
6.3908 -3.5780 2.3951
6.5019 -3.3379 2.3951
6.6047 -3.0946 2.3951
6.6990 -2.8485 2.3951
6.7848 -2.5998 2.3951
6.8620 -2.3488 2.3951
6.9307 -2.0958 2.3951
6.9907 -1.8409 2.3951
7.0421 -1.5847 2.3951
7.0848 -1.3272 2.3951
7.1189 -1.0688 2.3951
7.1442 -0.8097 2.3951
7.1609 -0.5502 2.3951
7.1689 -0.2905 2.3951
7.1683 -0.0312 2.3951
7.1591 0.2279 2.3951
7.1411 0.4880 2.3951
7.1149 0.7421 2.3951
7.0798 1.0008 2.3951
7.0363 1.2559 2.3951
6.9845 1.5093 2.3951
6.9242 1.7608 2.3951
6.8556 2.0101 2.3951
6.7788 2.2571 2.3951
6.6939 2.5013 2.3951
6.6008 2.7427 2.3951
6.4145 2.9418 2.3637
5.9852 3.0116 2.2431
5.8748 3.2276 2.2427
5.7582 3.4404 2.2427
5.6346 3.6494 2.2427
5.5039 3.8544 2.2427
5.3664 4.0551 2.2427
5.2221 4.2513 2.2427
5.0711 4.4428 2.2427
4.9137 4.6293 2.2427
4.7498 4.8108 2.2427
4.5798 4.9869 2.2427
4.4037 5.1574 2.2427
4.2217 5.3222 2.2427
4.0339 5.4811 2.2427
3.8405 5.6339 2.2427
3.6418 5.7803 2.2427
3.4378 5.9202 2.2427
3.2288 6.0534 2.2427
3.0149 6.1797 2.2427
2.7964 6.2989 2.2427
2.5735 6.4109 2.2427
2.3464 6.5155 2.2427
2.1152 6.6125 2.2427
0.8285 2.9528 0.9882
0.7218 2.9819 0.9859
0.6142 3.0070 0.9836
0.5056 3.0283 0.9812
0.3964 3.0456 0.9788
0.2866 3.0590 0.9763
0.1764 3.0683 0.9738
0.0659 3.0737 0.9712
-0.0447 3.0751 0.9686
-0.1553 3.0725 0.9660
-0.2657 3.0659 0.9633
-0.3758 3.0553 0.9606
-0.4855 3.0407 0.9579
-0.5946 3.0222 0.9551
-0.7029 2.9997 0.9524
-0.8103 2.9734 0.9496
-0.9167 2.9431 0.9468
-2.5930 7.3808 2.3951
-2.8653 7.3065 2.3951
-3.1354 7.2222 2.3951
-3.4032 7.1280 2.3951
-3.6682 7.0238 2.3951
-3.9299 6.9098 2.3951
-4.1881 6.7860 2.3951
-4.4424 6.6526 2.3951
-4.6923 6.5095 2.3951
-4.9374 6.3569 2.3951
-5.1775 6.1949 2.3951
-5.4120 6.0238 2.3951
-5.6406 5.8436 2.3951
-5.8630 5.6546 2.3951
-6.0788 5.4570 2.3951
-6.2876 5.2509 2.3951
-6.4889 5.0366 2.3951
-6.6826 4.8145 2.3951
-6.8683 4.5846 2.3951
-7.0455 4.3474 2.3951
-7.2139 4.1031 2.3951
-7.3734 3.8521 2.3951
-7.5235 3.5947 2.3951
-7.6639 3.3313 2.3951
-7.7944 3.0622 2.3951
-7.9148 2.7877 2.3951
-8.0248 2.5085 2.3951
-8.1241 2.2247 2.3951
-8.2125 1.9369 2.3951
-8.2899 1.6455 2.3951
-8.3560 1.3509 2.3951
-8.4108 1.0536 2.3951
-8.4540 0.7540 2.3951
-8.4856 0.4527 2.3951
-8.5055 0.1501 2.3951
-8.5137 -0.1533 2.3951
-8.5100 -0.4570 2.3951
-8.4944 -0.7606 2.3951
-8.4670 -1.0635 2.3951
-8.4278 -1.3652 2.3951
-8.3768 -1.6653 2.3951
-8.3141 -1.9632 2.3951
-8.2398 -2.2585 2.3951
-8.1540 -2.5506 2.3951
-8.0568 -2.8392 2.3951
-7.9485 -3.1237 2.3951
-7.8292 -3.4037 2.3951
-7.6990 -3.6787 2.3951
-7.5584 -3.9482 2.3951
-7.4073 -4.2120 2.3951
-7.2462 -4.4694 2.3951
-7.0753 -4.7203 2.3951
-6.8950 -4.9640 2.3951
-6.7055 -5.2004 2.3951
-6.5072 -5.4289 2.3951
-6.3005 -5.6494 2.3951
-6.0856 -5.8614 2.3951
-5.8630 -6.0647 2.3951
-5.6331 -6.2589 2.3951
-5.3962 -6.4439 2.3951
-5.1528 -6.6194 2.3951
-4.9033 -6.7852 2.3951
-4.6481 -6.9409 2.3951
-4.3876 -7.0866 2.3951
-4.1222 -7.2220 2.3951
-3.8525 -7.3469 2.3951
-3.5789 -7.4613 2.3951
-3.3016 -7.5651 2.3951
-3.0212 -7.6582 2.3951
-2.7384 -7.7403 2.3951
-2.4533 -7.8117 2.3951
-2.1664 -7.8722 2.3951
-1.8781 -7.9219 2.3951
-1.5890 -7.9607 2.3951
-1.2994 -7.9887 2.3951
-1.0097 -8.0060 2.3951
-0.7204 -8.0125 2.3951
-0.4318 -8.0084 2.3951
-0.1443 -7.9938 2.3951
0.1416 -7.9688 2.3951
0.4256 -7.9335 2.3951
0.7073 -7.8880 2.3951
0.9864 -7.8325 2.3951
1.2625 -7.7672 2.3951
1.5353 -7.6922 2.3951
1.8044 -7.6077 2.3951
2.0696 -7.5139 2.3951
2.3304 -7.4110 2.3951
2.5867 -7.2992 2.3951
2.8381 -7.1788 2.3951
3.0843 -7.0500 2.3951
3.3252 -6.9129 2.3951
3.5604 -6.7679 2.3951
3.7897 -6.6151 2.3951
4.0129 -6.4549 2.3951
4.2298 -6.2874 2.3951
4.4401 -6.1130 2.3951
4.6436 -5.9320 2.3951
4.8403 -5.7445 2.3951
5.0298 -5.5508 2.3951
5.2120 -5.3512 2.3951
5.3869 -5.1460 2.3951
5.5541 -4.9355 2.3951
5.7137 -4.7199 2.3951
5.8654 -4.4996 2.3951
6.0092 -4.2747 2.3951
6.1450 -4.0456 2.3951
6.2725 -3.8125 2.3951
6.3919 -3.5757 2.3951
6.5030 -3.3356 2.3951
6.6056 -3.0922 2.3951
6.6998 -2.8461 2.3951
6.7855 -2.5974 2.3951
6.8627 -2.3463 2.3951
6.9313 -2.0933 2.3951
6.9912 -1.8385 2.3951
7.0425 -1.5822 2.3951
7.0852 -1.3247 2.3951
7.1192 -1.0663 2.3951
7.1444 -0.8072 2.3951
7.1610 -0.5477 2.3951
7.1690 -0.2880 2.3951
7.1683 -0.0285 2.3951
7.1589 0.2312 2.3951
7.1409 0.4896 2.3951
7.1144 0.7478 2.3951
7.0794 1.0033 2.3951
7.0359 1.2584 2.3951
6.9839 1.5118 2.3951
6.9236 1.7632 2.3951
6.8549 2.0125 2.3951
6.7780 2.2595 2.3951
6.6930 2.5037 2.3951
6.5999 2.7450 2.3951
6.4095 2.9423 2.3622
5.9831 3.0132 2.2427
5.8737 3.2297 2.2427
5.7571 3.4425 2.2427
5.6333 3.6515 2.2427
5.5026 3.8564 2.2427
5.3650 4.0570 2.2427
5.2206 4.2532 2.2427
5.0696 4.4446 2.2427
4.9121 4.6311 2.2427
4.7482 4.8125 2.2427
4.5781 4.9885 2.2427
4.4019 5.1591 2.2427
4.2199 5.3238 2.2427
4.0320 5.4826 2.2427
3.8386 5.6353 2.2427
3.6398 5.7817 2.2427
3.4358 5.9215 2.2427
3.2267 6.0547 2.2427
3.0128 6.1809 2.2427
2.7942 6.3001 2.2427
2.5713 6.4120 2.2427
2.3441 6.5165 2.2427
2.1130 6.6134 2.2427
0.8275 2.9531 0.9881
0.7208 2.9821 0.9859
0.6131 3.0073 0.9836
0.5046 3.0285 0.9812
0.3953 3.0457 0.9788
0.2855 3.0591 0.9763
0.1753 3.0684 0.9738
0.0648 3.0738 0.9712
-0.0458 3.0751 0.9686
-0.1564 3.0725 0.9660
-0.2668 3.0658 0.9633
-0.3769 3.0552 0.9606
-0.4866 3.0406 0.9579
-0.5956 3.0220 0.9551
-0.7039 2.9995 0.9523
-0.8114 2.9731 0.9496
-0.9178 2.9428 0.9468
-2.5957 7.3802 2.3951
-2.8679 7.3058 2.3951
-3.1381 7.2214 2.3951
-3.4058 7.1270 2.3951
-3.6707 7.0228 2.3951
-3.9325 6.9087 2.3951
-4.1907 6.7848 2.3951
-4.4449 6.6512 2.3951
-4.6947 6.5080 2.3951
-4.9398 6.3553 2.3951
-5.1798 6.1933 2.3951
-5.4143 6.0221 2.3951
-5.6429 5.8418 2.3951
-5.8652 5.6527 2.3951
-6.0809 5.4550 2.3951
-6.2896 5.2488 2.3951
-6.4910 5.0345 2.3951
-6.6845 4.8122 2.3951
-6.8700 4.5823 2.3951
-7.0472 4.3450 2.3951
-7.2156 4.1007 2.3951
-7.3749 3.8496 2.3951
-7.5249 3.5922 2.3951
-7.6653 3.3287 2.3951
-7.7957 3.0595 2.3951
-7.9160 2.7850 2.3951
-8.0258 2.5057 2.3951
-8.1250 2.2219 2.3951
-8.2133 1.9341 2.3951
-8.2906 1.6426 2.3951
-8.3566 1.3480 2.3951
-8.4112 1.0507 2.3951
-8.4544 0.7511 2.3951
-8.4859 0.4497 2.3951
-8.5057 0.1471 2.3951
-8.5137 -0.1563 2.3951
-8.5099 -0.4600 2.3951
-8.4942 -0.7636 2.3951
-8.4667 -1.0664 2.3951
-8.4274 -1.3681 2.3951
-8.3762 -1.6682 2.3951
-8.3134 -1.9661 2.3951
-8.2390 -2.2613 2.3951
-8.1531 -2.5535 2.3951
-8.0558 -2.8420 2.3951
-7.9474 -3.1264 2.3951
-7.8279 -3.4064 2.3951
-7.6979 -3.6812 2.3951
-7.5570 -3.9507 2.3951
-7.4059 -4.2144 2.3951
-7.2446 -4.4719 2.3951
-7.0736 -4.7227 2.3951
-6.8932 -4.9664 2.3951
-6.7036 -5.2026 2.3951
-6.5052 -5.4311 2.3951
-6.2984 -5.6515 2.3951
-6.0835 -5.8634 2.3951
-5.8608 -6.0666 2.3951
-5.6308 -6.2608 2.3951
-5.3938 -6.4457 2.3951
-5.1504 -6.6211 2.3951
-4.9008 -6.7867 2.3951
-4.6455 -6.9424 2.3951
-4.3850 -7.0880 2.3951
-4.1196 -7.2232 2.3951
-3.8498 -7.3481 2.3951
-3.5761 -7.4624 2.3951
-3.2990 -7.5660 2.3951
-3.0186 -7.6589 2.3951
-2.7356 -7.7410 2.3951
-2.4505 -7.8123 2.3951
-2.1636 -7.8728 2.3951
-1.8753 -7.9223 2.3951
-1.5862 -7.9611 2.3951
-1.2966 -7.9890 2.3951
-1.0069 -8.0061 2.3951
-0.7175 -8.0125 2.3951
-0.4290 -8.0083 2.3951
-0.1415 -7.9936 2.3951
0.1444 -7.9685 2.3951
0.4284 -7.9331 2.3951
0.7101 -7.8875 2.3951
0.9892 -7.8319 2.3951
1.2652 -7.7665 2.3951
1.5380 -7.6914 2.3951
1.8070 -7.6068 2.3951
2.0721 -7.5129 2.3951
2.3329 -7.4099 2.3951
2.5892 -7.2981 2.3951
2.8405 -7.1776 2.3951
3.0867 -7.0487 2.3951
3.3275 -6.9115 2.3951
3.5627 -6.7664 2.3951
3.7919 -6.6136 2.3951
4.0151 -6.4533 2.3951
4.2319 -6.2858 2.3951
4.4421 -6.1113 2.3951
4.6456 -5.9302 2.3951
4.8422 -5.7426 2.3951
5.0316 -5.5489 2.3951
5.2138 -5.3493 2.3951
5.3885 -5.1440 2.3951
5.5557 -4.9334 2.3951
5.7152 -4.7178 2.3951
5.8669 -4.4974 2.3951
6.0106 -4.2725 2.3951
6.1462 -4.0433 2.3951
6.2738 -3.8101 2.3951
6.3930 -3.5734 2.3951
6.5040 -3.3332 2.3951
6.6066 -3.0898 2.3951
6.7007 -2.8437 2.3951
6.7863 -2.5949 2.3951
6.8634 -2.3438 2.3951
6.9319 -2.0908 2.3951
6.9918 -1.8360 2.3951
7.0430 -1.5797 2.3951
7.0856 -1.3222 2.3951
7.1194 -1.0637 2.3951
7.1446 -0.8046 2.3951
7.1612 -0.5451 2.3951
7.1690 -0.2854 2.3951
7.1682 -0.0261 2.3951
7.1588 0.2328 2.3951
7.1407 0.4923 2.3951
7.1144 0.7463 2.3951
7.0790 1.0058 2.3951
7.0354 1.2609 2.3951
6.9834 1.5142 2.3951
6.9229 1.7657 2.3951
6.8542 2.0150 2.3951
6.7772 2.2619 2.3951
6.6921 2.5061 2.3951
6.5989 2.7474 2.3951
6.4046 2.9427 2.3608
5.9821 3.0154 2.2427
5.8726 3.2318 2.2427
5.7559 3.4446 2.2427
5.6321 3.6535 2.2427
5.5013 3.8584 2.2427
5.3636 4.0590 2.2427
5.2192 4.2551 2.2427
5.0681 4.4465 2.2427
4.9105 4.6329 2.2427
4.7466 4.8143 2.2427
4.5764 4.9902 2.2427
4.4002 5.1607 2.2427
4.2181 5.3254 2.2427
4.0301 5.4842 2.2427
3.8367 5.6368 2.2427
3.6378 5.7831 2.2427
3.4337 5.9229 2.2427
3.2246 6.0559 2.2427
3.0107 6.1821 2.2427
2.7921 6.3012 2.2427
2.5691 6.4130 2.2427
2.3419 6.5175 2.2427
2.1107 6.6143 2.2427
0.8264 2.9534 0.9881
0.7197 2.9824 0.9858
0.6120 3.0075 0.9835
0.5035 3.0287 0.9812
0.3943 3.0459 0.9787
0.2845 3.0592 0.9763
0.1743 3.0685 0.9737
0.0638 3.0738 0.9712
-0.0468 3.0751 0.9686
-0.1574 3.0724 0.9659
-0.2679 3.0657 0.9633
-0.3780 3.0550 0.9606
-0.4876 3.0404 0.9578
-0.5967 3.0218 0.9551
-0.7050 2.9992 0.9523
-0.8124 2.9728 0.9495
-0.9188 2.9425 0.9467
-2.5983 7.3795 2.3951
-2.8706 7.3050 2.3951
-3.1407 7.2205 2.3951
-3.4084 7.1261 2.3951
-3.6733 7.0217 2.3951
-3.9350 6.9075 2.3951
-4.1932 6.7835 2.3951
-4.4473 6.6498 2.3951
-4.6971 6.5066 2.3951
-4.9422 6.3538 2.3951
-5.1821 6.1917 2.3951
-5.4165 6.0204 2.3951
-5.6451 5.8400 2.3951
-5.8673 5.6508 2.3951
-6.0830 5.4530 2.3951
-6.2916 5.2468 2.3951
-6.4928 5.0324 2.3951
-6.6863 4.8100 2.3951
-6.8718 4.5800 2.3951
-7.0488 4.3427 2.3951
-7.2172 4.0983 2.3951
-7.3764 3.8471 2.3951
-7.5263 3.5896 2.3951
-7.6666 3.3261 2.3951
-7.7969 3.0568 2.3951
-7.9171 2.7823 2.3951
-8.0268 2.5029 2.3951
-8.1259 2.2191 2.3951
-8.2141 1.9312 2.3951
-8.2913 1.6397 2.3951
-8.3572 1.3451 2.3951
-8.4117 1.0477 2.3951
-8.4547 0.7481 2.3951
-8.4861 0.4468 2.3951
-8.5058 0.1442 2.3951
-8.5137 -0.1593 2.3951
-8.5098 -0.4630 2.3951
-8.4940 -0.7665 2.3951
-8.4664 -1.0694 2.3951
-8.4269 -1.3711 2.3951
-8.3757 -1.6711 2.3951
-8.3128 -1.9690 2.3951
-8.2382 -2.2642 2.3951
-8.1522 -2.5563 2.3951
-8.0548 -2.8448 2.3951
-7.9463 -3.1292 2.3951
-7.8267 -3.4091 2.3951
-7.6964 -3.6839 2.3951
-7.5555 -3.9534 2.3951
-7.4042 -4.2171 2.3951
-7.2429 -4.4744 2.3951
-7.0719 -4.7251 2.3951
-6.8914 -4.9687 2.3951
-6.7017 -5.2049 2.3951
-6.5033 -5.4333 2.3951
-6.2963 -5.6536 2.3951
-6.0813 -5.8655 2.3951
-5.8586 -6.0686 2.3951
-5.6285 -6.2627 2.3951
-5.3915 -6.4475 2.3951
-5.1480 -6.6228 2.3951
-4.8984 -6.7883 2.3951
-4.6430 -6.9439 2.3951
-4.3824 -7.0894 2.3951
-4.1170 -7.2245 2.3951
-3.8472 -7.3493 2.3951
-3.5735 -7.4634 2.3951
-3.2963 -7.5669 2.3951
-3.0157 -7.6599 2.3951
-2.7328 -7.7418 2.3951
-2.4477 -7.8130 2.3951
-2.1608 -7.8733 2.3951
-1.8725 -7.9228 2.3951
-1.5834 -7.9614 2.3951
-1.2937 -7.9892 2.3951
-1.0040 -8.0062 2.3951
-0.7147 -8.0125 2.3951
-0.4261 -8.0082 2.3951
-0.1387 -7.9934 2.3951
0.1472 -7.9682 2.3951
0.4311 -7.9327 2.3951
-2.5316 -7.1364 2.3951
-2.2692 -7.2038 2.3951
-2.0051 -7.2611 2.3951
-1.7396 -7.3085 2.3951
-1.4732 -7.3460 2.3951
-1.2062 -7.3735 2.3951
-0.9391 -7.3910 2.3951
-0.6721 -7.3988 2.3951
-0.4057 -7.3967 2.3951
-0.1403 -7.3849 2.3951
0.1239 -7.3635 2.3951
0.3864 -7.3326 2.3951
0.6469 -7.2922 2.3951
0.9051 -7.2426 2.3951
1.1606 -7.1839 2.3951
1.4132 -7.1162 2.3951
1.6625 -7.0397 2.3951
1.9082 -6.9546 2.3951
2.1501 -6.8609 2.3951
2.3879 -6.7591 2.3951
2.6212 -6.6491 2.3951
2.8499 -6.5312 2.3951
3.0736 -6.4057 2.3951
3.2923 -6.2728 2.3951
3.5055 -6.1326 2.3951
3.7131 -5.9854 2.3951
3.9150 -5.8314 2.3951
4.1108 -5.6709 2.3951
4.3005 -5.5041 2.3951
4.4837 -5.3313 2.3951
4.6605 -5.1526 2.3951
4.8305 -4.9685 2.3951
4.9937 -4.7790 2.3951
5.1499 -4.5844 2.3951
5.2989 -4.3852 2.3951
5.4408 -4.1812 2.3951
5.5752 -3.9731 2.3951
5.7023 -3.7609 2.3951
5.8217 -3.5449 2.3951
5.9335 -3.3255 2.3951
6.0376 -3.1028 2.3951
6.1339 -2.8771 2.3951
6.2223 -2.6487 2.3951
6.3028 -2.4178 2.3951
6.3753 -2.1848 2.3951
6.4399 -1.9497 2.3951
6.4963 -1.7130 2.3951
6.5447 -1.4749 2.3951
6.5851 -1.2355 2.3951
6.6173 -0.9953 2.3951
6.6414 -0.7543 2.3951
6.6574 -0.5130 2.3951
6.6653 -0.2714 2.3951
6.6651 -0.0300 2.3951
6.6568 0.2111 2.3951
6.6404 0.4517 2.3951
6.6161 0.6914 2.3951
6.5838 0.9301 2.3951
6.5435 1.1675 2.3951
6.4953 1.4033 2.3951
6.4393 1.6373 2.3951
6.3755 1.8694 2.3951
6.3040 2.0991 2.3951
6.2249 2.3264 2.3951
6.1382 2.5510 2.3951
6.0440 2.7725 2.3951
5.9220 2.9807 2.3869
5.5766 3.0647 2.2896
5.3537 3.1999 2.2427
5.2383 3.3942 2.2427
5.1165 3.5846 2.2427
4.9882 3.7711 2.2427
4.8536 3.9533 2.2427
4.7129 4.1311 2.2427
4.5660 4.3043 2.2427
4.4133 4.4726 2.2427
4.2547 4.6359 2.2427
4.0905 4.7940 2.2427
3.9209 4.9467 2.2427
3.7459 5.0939 2.2427
3.5657 5.2352 2.2427
3.3805 5.3706 2.2427
3.1905 5.4999 2.2427
2.9959 5.6229 2.2427
2.7968 5.7394 2.2427
2.5934 5.8493 2.2427
2.3860 5.9524 2.2427
2.2010 6.1216 2.2698
0.8622 2.7001 0.9866
0.7646 2.7305 0.9846
0.6659 2.7573 0.9825
0.5663 2.7805 0.9804
0.4659 2.8002 0.9782
0.3649 2.8162 0.9759
0.2634 2.8285 0.9736
0.1614 2.8372 0.9713
0.0593 2.8421 0.9689
-0.0430 2.8434 0.9665
-0.1453 2.8410 0.9641
-0.2474 2.8349 0.9616
-0.3493 2.8251 0.9591
-0.4507 2.8116 0.9566
-0.5516 2.7944 0.9541
-0.6517 2.7737 0.9515
-0.7511 2.7493 0.9489
-0.8495 2.7213 0.9464
-2.4030 6.8263 2.3951
-2.6542 6.7561 2.3951
-2.9035 6.6766 2.3951
-3.1504 6.5880 2.3951
-3.3946 6.4903 2.3951
-3.6357 6.3836 2.3951
-3.8735 6.2678 2.3951
-4.1074 6.1431 2.3951
-4.3373 6.0096 2.3951
-4.5627 5.8674 2.3951
-4.7833 5.7167 2.3951
-4.9987 5.5576 2.3951
-5.2086 5.3902 2.3951
-5.4127 5.2147 2.3951
-5.6106 5.0313 2.3951
-5.8020 4.8403 2.3951
-5.9865 4.6418 2.3951
-6.1639 4.4361 2.3951
-6.3338 4.2235 2.3951
-6.4959 4.0042 2.3951
-6.6499 3.7784 2.3951
-6.7957 3.5466 2.3951
-6.9327 3.3089 2.3951
-7.0609 3.0659 2.3951
-7.1800 2.8176 2.3951
-7.2898 2.5646 2.3951
-7.3899 2.3072 2.3951
-7.4803 2.0458 2.3951
-7.5607 1.7807 2.3951
-7.6309 1.5124 2.3951
-7.6909 1.2413 2.3951
-7.7405 0.9677 2.3951
-7.7795 0.6921 2.3951
-7.8079 0.4150 2.3951
-7.8256 0.1367 2.3951
-7.8325 -0.1423 2.3951
-7.8286 -0.4216 2.3951
-7.8139 -0.7006 2.3951
-7.7884 -0.9790 2.3951
-7.7520 -1.2563 2.3951
-7.7049 -1.5321 2.3951
-7.6472 -1.8060 2.3951
-7.5788 -2.0774 2.3951
-7.4999 -2.3459 2.3951
-7.4107 -2.6112 2.3951
-7.3113 -2.8728 2.3951
-7.2018 -3.1302 2.3951
-7.0824 -3.3832 2.3951
-6.9534 -3.6312 2.3951
-6.8149 -3.8738 2.3951
-6.6672 -4.1108 2.3951
-6.5106 -4.3417 2.3951
-6.3453 -4.5663 2.3951
-6.1716 -4.7840 2.3951
-5.9898 -4.9947 2.3951
-5.8003 -5.1980 2.3951
-5.6032 -5.3937 2.3951
-5.3991 -5.5814 2.3951
-5.1882 -5.7609 2.3951
-4.9709 -5.9319 2.3951
-4.7476 -6.0943 2.3951
-4.5186 -6.2477 2.3951
-4.2842 -6.3922 2.3951
-4.0451 -6.5274 2.3951
-3.8014 -6.6532 2.3951
-3.5535 -6.7694 2.3951
-3.3020 -6.8760 2.3951
-3.0471 -6.9729 2.3951
-2.7894 -7.0600 2.3951
-2.5291 -7.1371 2.3951
-2.2666 -7.2044 2.3951
-2.0025 -7.2616 2.3951
-1.7370 -7.3090 2.3951
-1.4706 -7.3463 2.3951
-1.2036 -7.3737 2.3951
-0.9364 -7.3912 2.3951
-0.6695 -7.3988 2.3951
-0.4031 -7.3966 2.3951
-0.1377 -7.3847 2.3951
0.1264 -7.3632 2.3951
0.3889 -7.3322 2.3951
0.6494 -7.2918 2.3951
0.9076 -7.2421 2.3951
1.1631 -7.1833 2.3951
1.4156 -7.1155 2.3951
1.6649 -7.0389 2.3951
1.9106 -6.9537 2.3951
2.1525 -6.8600 2.3951
2.3902 -6.7580 2.3951
2.6235 -6.6480 2.3951
2.8521 -6.5300 2.3951
3.0758 -6.4045 2.3951
3.2944 -6.2714 2.3951
3.5075 -6.1312 2.3951
3.7151 -5.9839 2.3951
3.9169 -5.8299 2.3951
4.1127 -5.6694 2.3951
4.3023 -5.5024 2.3951
4.4855 -5.3296 2.3951
4.6621 -5.1509 2.3951
4.8321 -4.9666 2.3951
4.9952 -4.7771 2.3951
5.1514 -4.5825 2.3951
5.3004 -4.3832 2.3951
5.4421 -4.1792 2.3951
5.5765 -3.9710 2.3951
5.7035 -3.7588 2.3951
5.8228 -3.5428 2.3951
5.9346 -3.3233 2.3951
6.0386 -3.1006 2.3951
6.1348 -2.8749 2.3951
6.2231 -2.6465 2.3951
6.3035 -2.4156 2.3951
6.3760 -2.1825 2.3951
6.4405 -1.9475 2.3951
6.4968 -1.7107 2.3951
6.5452 -1.4725 2.3951
6.5854 -1.2332 2.3951
6.6176 -0.9929 2.3951
6.6416 -0.7520 2.3951
6.6575 -0.5106 2.3951
6.6653 -0.2691 2.3951
6.6650 -0.0276 2.3951
6.6567 0.2135 2.3951
6.6402 0.4540 2.3951
6.6158 0.6938 2.3951
6.5834 0.9324 2.3951
6.5430 1.1698 2.3951
6.4948 1.4056 2.3951
6.4387 1.6396 2.3951
6.3749 1.8716 2.3951
6.3033 2.1014 2.3951
6.2241 2.3286 2.3951
6.1373 2.5531 2.3951
6.0430 2.7747 2.3951
5.9181 2.9814 2.3857
5.5734 3.0656 2.2887
5.3526 3.2018 2.2427
5.2372 3.3960 2.2427
5.1153 3.5865 2.2427
4.9869 3.7729 2.2427
4.8523 3.9551 2.2427
4.7114 4.1328 2.2427
4.5646 4.3059 2.2427
4.4117 4.4742 2.2427
4.2531 4.6375 2.2427
4.0889 4.7955 2.2427
3.9192 4.9482 2.2427
3.7441 5.0953 2.2427
3.5639 5.2366 2.2427
3.3787 5.3719 2.2427
3.1886 5.5011 2.2427
2.9940 5.6241 2.2427
2.7948 5.7405 2.2427
2.5914 5.8504 2.2427
2.3840 5.9534 2.2427
2.1997 6.1249 2.2707
0.8612 2.7004 0.9866
0.7636 2.7308 0.9846
0.6649 2.7576 0.9825
0.5653 2.7808 0.9804
0.4649 2.8004 0.9782
0.3639 2.8163 0.9759
0.2624 2.8286 0.9736
0.1604 2.8372 0.9713
0.0583 2.8422 0.9689
-0.0440 2.8434 0.9665
-0.1463 2.8410 0.9641
-0.2484 2.8348 0.9616
-0.3503 2.8250 0.9591
-0.4517 2.8114 0.9566
-0.5525 2.7943 0.9540
-0.6527 2.7735 0.9515
-0.7521 2.7490 0.9489
-0.8505 2.7210 0.9463
-2.4054 6.8257 2.3951
-2.6567 6.7554 2.3951
-2.9059 6.6758 2.3951
-3.1528 6.5871 2.3951
-3.3969 6.4893 2.3951
-3.6381 6.3825 2.3951
-3.8758 6.2666 2.3951
-4.1097 6.1418 2.3951
-4.3395 6.0083 2.3951
-4.5649 5.8660 2.3951
-4.7854 5.7152 2.3951
-5.0008 5.5560 2.3951
-5.2107 5.3885 2.3951
-5.4147 5.2129 2.3951
-5.6125 5.0295 2.3951
-5.8039 4.8384 2.3951
-5.9883 4.6399 2.3951
-6.1656 4.4341 2.3951
-6.3354 4.2214 2.3951
-6.4974 4.0020 2.3951
-6.6514 3.7762 2.3951
-6.7970 3.5443 2.3951
-6.9340 3.3066 2.3951
-7.0622 3.0635 2.3951
-7.1811 2.8152 2.3951
-7.2908 2.5621 2.3951
-7.3908 2.3047 2.3951
-7.4811 2.0432 2.3951
-7.5614 1.7781 2.3951
-7.6316 1.5098 2.3951
-7.6915 1.2386 2.3951
-7.7409 0.9650 2.3951
-7.7798 0.6894 2.3951
-7.8081 0.4122 2.3951
-7.8257 0.1339 2.3951
-7.8325 -0.1450 2.3951
-7.8285 -0.4243 2.3951
-7.8137 -0.7033 2.3951
-7.7881 -0.9817 2.3951
-7.7516 -1.2590 2.3951
-7.7044 -1.5348 2.3951
-7.6466 -1.8086 2.3951
-7.5781 -2.0800 2.3951
-7.4991 -2.3485 2.3951
-7.4098 -2.6138 2.3951
-7.3102 -2.8753 2.3951
-7.2007 -3.1327 2.3951
-7.0812 -3.3856 2.3951
-6.9521 -3.6335 2.3951
-6.8135 -3.8762 2.3951
-6.6657 -4.1131 2.3951
-6.5090 -4.3440 2.3951
-6.3436 -4.5684 2.3951
-6.1699 -4.7861 2.3951
-5.9880 -4.9968 2.3951
-5.7984 -5.2000 2.3951
-5.6013 -5.3956 2.3951
-5.3971 -5.5832 2.3951
-5.1861 -5.7626 2.3951
-4.9687 -5.9336 2.3951
-4.7453 -6.0959 2.3951
-4.5163 -6.2493 2.3951
-4.2819 -6.3936 2.3951
-4.0427 -6.5287 2.3951
-3.7990 -6.6543 2.3951
-3.5511 -6.7705 2.3951
-3.2995 -6.8770 2.3951
-3.0446 -6.9738 2.3951
-2.7868 -7.0608 2.3951
-2.5265 -7.1378 2.3951
-2.2641 -7.2050 2.3951
-1.9999 -7.2622 2.3951
-1.7344 -7.3094 2.3951
-1.4680 -7.3466 2.3951
-1.2010 -7.3739 2.3951
-0.9338 -7.3913 2.3951
-0.6669 -7.3988 2.3951
-0.4005 -7.3966 2.3951
-0.1351 -7.3846 2.3951
0.1290 -7.3630 2.3951
0.3915 -7.3319 2.3951
0.6519 -7.2914 2.3951
0.9101 -7.2416 2.3951
1.1656 -7.1827 2.3951
1.4181 -7.1148 2.3951
1.6673 -7.0381 2.3951
1.9130 -6.9528 2.3951
2.1548 -6.8590 2.3951
2.3925 -6.7570 2.3951
2.6257 -6.6468 2.3951
2.8543 -6.5288 2.3951
3.0780 -6.4032 2.3951
3.2965 -6.2701 2.3951
3.5096 -6.1297 2.3951
3.7171 -5.9824 2.3951
3.9189 -5.8283 2.3951
4.1146 -5.6677 2.3951
4.3041 -5.5008 2.3951
4.4872 -5.3279 2.3951
4.6638 -5.1491 2.3951
4.8337 -4.9648 2.3951
4.9968 -4.7752 2.3951
5.1528 -4.5806 2.3951
5.3018 -4.3812 2.3951
5.4435 -4.1772 2.3951
5.5778 -3.9690 2.3951
5.7047 -3.7567 2.3951
5.8240 -3.5407 2.3951
5.9356 -3.3212 2.3951
6.0395 -3.0984 2.3951
6.1357 -2.8727 2.3951
6.2239 -2.6442 2.3951
6.3043 -2.4133 2.3951
6.3767 -2.1802 2.3951
6.4410 -1.9451 2.3951
6.4974 -1.7084 2.3951
6.5456 -1.4702 2.3951
6.5858 -1.2309 2.3951
6.6178 -0.9906 2.3951
6.6418 -0.7496 2.3951
6.6576 -0.5083 2.3951
6.6653 -0.2667 2.3951
6.6650 -0.0253 2.3951
6.6565 0.2159 2.3951
6.6400 0.4564 2.3951
6.6155 0.6961 2.3951
6.5830 0.9348 2.3951
6.5426 1.1721 2.3951
6.4943 1.4079 2.3951
6.4381 1.6419 2.3951
6.3742 1.8739 2.3951
6.3025 2.1036 2.3951
6.2233 2.3308 2.3951
6.1364 2.5553 2.3951
6.0421 2.7768 2.3951
5.9143 2.9821 2.3846
5.5703 3.0664 2.2879
5.3515 3.2037 2.2427
5.2360 3.3979 2.2427
5.1140 3.5883 2.2427
4.9856 3.7747 2.2427
4.8509 3.9568 2.2427
4.7100 4.1345 2.2427
4.5631 4.3076 2.2427
4.4102 4.4758 2.2427
4.2516 4.6391 2.2427
4.0873 4.7971 2.2427
3.9175 4.9496 2.2427
3.7424 5.0967 2.2427
3.5621 5.2379 2.2427
3.3769 5.3732 2.2427
3.1868 5.5024 2.2427
2.9920 5.6252 2.2427
2.7929 5.7416 2.2427
2.5894 5.8514 2.2427
2.3819 5.9544 2.2427
2.1985 6.1282 2.2715
0.8603 2.7007 0.9866
0.7626 2.7310 0.9846
0.6639 2.7578 0.9825
0.5643 2.7810 0.9803
0.4640 2.8005 0.9781
0.3629 2.8165 0.9759
0.2614 2.8287 0.9736
0.1595 2.8373 0.9713
0.0573 2.8422 0.9689
-0.0450 2.8434 0.9665
-0.1473 2.8409 0.9641
-0.2494 2.8347 0.9616
-0.3513 2.8248 0.9591
-0.4527 2.8113 0.9566
-0.5535 2.7941 0.9540
-0.6537 2.7732 0.9515
-0.7530 2.7488 0.9489
-0.8514 2.7207 0.9463
-2.4079 6.8250 2.3951
-2.6591 6.7546 2.3951
-2.9083 6.6750 2.3951
-3.1552 6.5862 2.3951
-3.3993 6.4883 2.3951
-3.6404 6.3814 2.3951
-3.8781 6.2654 2.3951
-4.1120 6.1406 2.3951
-4.3418 6.0069 2.3951
-4.5671 5.8646 2.3951
-4.7876 5.7137 2.3951
-5.0029 5.5544 2.3951
-5.2127 5.3868 2.3951
-5.4166 5.2112 2.3951
-5.6144 5.0277 2.3951
-5.8057 4.8365 2.3951
-5.9900 4.6379 2.3951
-6.1673 4.4321 2.3951
-6.3370 4.2193 2.3951
-6.4990 3.9998 2.3951
-6.6529 3.7740 2.3951
-6.7984 3.5420 2.3951
-6.9353 3.3042 2.3951
-7.0634 3.0610 2.3951
-7.1822 2.8127 2.3951
-7.2918 2.5596 2.3951
-7.3918 2.3021 2.3951
-7.4819 2.0407 2.3951
-7.5621 1.7755 2.3951
-7.6322 1.5071 2.3951
-7.6920 1.2359 2.3951
-7.7414 0.9623 2.3951
-7.7802 0.6867 2.3951
-7.8084 0.4095 2.3951
-7.8258 0.1312 2.3951
-7.8325 -0.1478 2.3951
-7.8284 -0.4270 2.3951
-7.8135 -0.7061 2.3951
-7.7878 -0.9844 2.3951
-7.7512 -1.2617 2.3951
-7.7039 -1.5375 2.3951
-7.6459 -1.8113 2.3951
-7.5774 -2.0826 2.3951
-7.4983 -2.3511 2.3951
-7.4089 -2.6164 2.3951
-7.3092 -2.8779 2.3951
-7.1995 -3.1352 2.3951
-7.0800 -3.3881 2.3951
-6.9507 -3.6360 2.3951
-6.8121 -3.8785 2.3951
-6.6642 -4.1154 2.3951
-6.5074 -4.3462 2.3951
-6.3420 -4.5706 2.3951
-6.1681 -4.7882 2.3951
-5.9862 -4.9988 2.3951
-5.7965 -5.2019 2.3951
-5.5993 -5.3974 2.3951
-5.3951 -5.5850 2.3951
-5.1840 -5.7643 2.3951
-4.9666 -5.9352 2.3951
-4.7432 -6.0973 2.3951
-4.5141 -6.2507 2.3951
-4.2797 -6.3949 2.3951
-4.0404 -6.5299 2.3951
-3.7966 -6.6555 2.3951
-3.5487 -6.7716 2.3951
-3.2970 -6.8780 2.3951
-3.0421 -6.9747 2.3951
-2.7843 -7.0616 2.3951
-2.5239 -7.1385 2.3951
-2.2615 -7.2056 2.3951
-1.9973 -7.2627 2.3951
-1.7318 -7.3098 2.3951
-1.4654 -7.3469 2.3951
-1.1984 -7.3741 2.3951
-0.9312 -7.3914 2.3951
-0.6643 -7.3988 2.3951
-0.3979 -7.3965 2.3951
-0.1325 -7.3844 2.3951
0.1316 -7.3627 2.3951
0.3940 -7.3315 2.3951
-2.3499 -6.6135 2.3951
-2.1071 -6.6770 2.3951
-1.8627 -6.7313 2.3951
-1.6169 -6.7765 2.3951
-1.3701 -6.8124 2.3951
-1.1228 -6.8391 2.3951
-0.8752 -6.8567 2.3951
-0.6277 -6.8652 2.3951
-0.3806 -6.8645 2.3951
-0.1344 -6.8549 2.3951
0.1108 -6.8363 2.3951
0.3546 -6.8089 2.3951
0.5966 -6.7728 2.3951
0.8365 -6.7280 2.3951
1.0740 -6.6748 2.3951
1.3089 -6.6132 2.3951
1.5409 -6.5433 2.3951
1.7696 -6.4654 2.3951
1.9948 -6.3796 2.3951
2.2163 -6.2861 2.3951
2.4337 -6.1850 2.3951
2.6469 -6.0765 2.3951
2.8556 -5.9608 2.3951
3.0596 -5.8382 2.3951
3.2586 -5.7088 2.3951
3.4525 -5.5728 2.3951
3.6410 -5.4304 2.3951
3.8240 -5.2819 2.3951
4.0013 -5.1275 2.3951
4.1727 -4.9673 2.3951
4.3380 -4.8016 2.3951
4.4971 -4.6308 2.3951
4.6499 -4.4549 2.3951
4.7962 -4.2742 2.3951
4.9359 -4.0890 2.3951
5.0689 -3.8995 2.3951
5.1950 -3.7060 2.3951
5.3141 -3.5086 2.3951
5.4262 -3.3076 2.3951
5.5312 -3.1033 2.3951
5.6290 -2.8959 2.3951
5.7195 -2.6857 2.3951
5.8026 -2.4728 2.3951
5.8784 -2.2577 2.3951
5.9467 -2.0403 2.3951
6.0075 -1.8211 2.3951
6.0607 -1.6003 2.3951
6.1064 -1.3781 2.3951
6.1446 -1.1547 2.3951
6.1751 -0.9304 2.3951
6.1980 -0.7055 2.3951
6.2133 -0.4802 2.3951
6.2211 -0.2546 2.3951
6.2212 -0.0291 2.3951
6.2137 0.1961 2.3951
6.1987 0.4208 2.3951
6.1762 0.6448 2.3951
6.1461 0.8677 2.3951
6.1086 1.0895 2.3951
6.0637 1.3098 2.3951
6.0114 1.5285 2.3951
5.9519 1.7452 2.3951
5.8851 1.9598 2.3951
5.8111 2.1721 2.3951
5.7300 2.3818 2.3951
5.6419 2.5887 2.3951
5.5469 2.7927 2.3951
5.4450 2.9934 2.3951
5.2526 3.1406 2.3575
4.9995 3.2407 2.2934
4.7810 3.3511 2.2456
4.6547 3.5207 2.2427
4.5288 3.6906 2.2427
4.3970 3.8564 2.2427
4.2596 4.0177 2.2427
4.1166 4.1746 2.2427
3.9683 4.3267 2.2427
3.8147 4.4739 2.2427
3.6560 4.6160 2.2427
3.4923 4.7528 2.2427
3.3238 4.8842 2.2427
3.1506 5.0100 2.2427
2.9730 5.1301 2.2427
2.7956 5.2528 2.2464
2.6050 5.3522 2.2427
2.4474 5.5273 2.2728
2.3147 5.7830 2.3371
0.8891 2.4769 0.9852
0.7995 2.5083 0.9834
0.7088 2.5365 0.9815
0.6171 2.5614 0.9796
0.5246 2.5830 0.9776
0.4313 2.6012 0.9755
0.3374 2.6161 0.9735
0.2431 2.6275 0.9713
0.1484 2.6356 0.9692
0.0535 2.6402 0.9670
-0.0416 2.6413 0.9647
-0.1366 2.6391 0.9625
-0.2315 2.6334 0.9602
-0.3261 2.6243 0.9578
-0.4203 2.6117 0.9555
-0.5140 2.5958 0.9531
-0.6071 2.5765 0.9508
-0.6994 2.5539 0.9484
-0.7909 2.5279 0.9460
-0.8813 2.4986 0.9436
-2.4702 6.2760 2.3951
-2.7012 6.2010 2.3951
-2.9300 6.1175 2.3951
-3.1562 6.0255 2.3951
-3.3795 5.9253 2.3951
-3.5996 5.8166 2.3951
-3.8160 5.6998 2.3951
-4.0286 5.5749 2.3951
-4.2369 5.4419 2.3951
-4.4408 5.3011 2.3951
-4.6397 5.1525 2.3951
-4.8335 4.9964 2.3951
-5.0218 4.8328 2.3951
-5.2044 4.6620 2.3951
-5.3808 4.4842 2.3951
-5.5509 4.2995 2.3951
-5.7143 4.1083 2.3951
-5.8707 3.9106 2.3951
-6.0199 3.7069 2.3951
-6.1616 3.4973 2.3951
-6.2956 3.2821 2.3951
-6.4216 3.0617 2.3951
-6.5393 2.8363 2.3951
-6.6487 2.6062 2.3951
-6.7493 2.3717 2.3951
-6.8412 2.1333 2.3951
-6.9240 1.8912 2.3951
-6.9976 1.6458 2.3951
-7.0619 1.3975 2.3951
-7.1167 1.1466 2.3951
-7.1618 0.8935 2.3951
-7.1973 0.6387 2.3951
-7.2230 0.3824 2.3951
-7.2389 0.1251 2.3951
-7.2448 -0.1328 2.3951
-7.2408 -0.3909 2.3951
-7.2269 -0.6488 2.3951
-7.2030 -0.9061 2.3951
-7.1692 -1.1624 2.3951
-7.1255 -1.4173 2.3951
-7.0720 -1.6704 2.3951
-7.0088 -1.9212 2.3951
-6.9359 -2.1694 2.3951
-6.8535 -2.4146 2.3951
-6.7617 -2.6564 2.3951
-6.6607 -2.8944 2.3951
-6.5505 -3.1283 2.3951
-6.4315 -3.3576 2.3951
-6.3038 -3.5821 2.3951
-6.1677 -3.8014 2.3951
-6.0233 -4.0151 2.3951
-5.8709 -4.2230 2.3951
-5.7107 -4.4247 2.3951
-5.5431 -4.6199 2.3951
-5.3683 -4.8083 2.3951
-5.1866 -4.9897 2.3951
-4.9983 -5.1639 2.3951
-4.8038 -5.3305 2.3951
-4.6033 -5.4894 2.3951
-4.3972 -5.6403 2.3951
-4.1859 -5.7831 2.3951
-3.9696 -5.9175 2.3951
-3.7487 -6.0435 2.3951
-3.5236 -6.1608 2.3951
-3.2947 -6.2694 2.3951
-3.0622 -6.3691 2.3951
-2.8266 -6.4598 2.3951
-2.5883 -6.5415 2.3951
-2.3475 -6.6141 2.3951
-2.1047 -6.6776 2.3951
-1.8603 -6.7318 2.3951
-1.6145 -6.7769 2.3951
-1.3677 -6.8127 2.3951
-1.1204 -6.8394 2.3951
-0.8728 -6.8569 2.3951
-0.6253 -6.8652 2.3951
-0.3782 -6.8645 2.3951
-0.1319 -6.8548 2.3951
0.1132 -6.8361 2.3951
0.3569 -6.8086 2.3951
0.5989 -6.7724 2.3951
0.8388 -6.7275 2.3951
1.0764 -6.6742 2.3951
1.3112 -6.6125 2.3951
1.5432 -6.5426 2.3951
1.7718 -6.4646 2.3951
1.9970 -6.3787 2.3951
2.2184 -6.2851 2.3951
2.4358 -6.1839 2.3951
2.6490 -6.0754 2.3951
2.8576 -5.9597 2.3951
3.0615 -5.8370 2.3951
3.2605 -5.7075 2.3951
3.4543 -5.5714 2.3951
3.6428 -5.4290 2.3951
3.8258 -5.2804 2.3951
4.0030 -5.1259 2.3951
4.1743 -4.9657 2.3951
4.3396 -4.8000 2.3951
4.4987 -4.6291 2.3951
4.6514 -4.4531 2.3951
4.7976 -4.2724 2.3951
4.9372 -4.0872 2.3951
5.0701 -3.8977 2.3951
5.1962 -3.7040 2.3951
5.3153 -3.5067 2.3951
5.4273 -3.3056 2.3951
5.5322 -3.1013 2.3951
5.6299 -2.8939 2.3951
5.7203 -2.6836 2.3951
5.8034 -2.4707 2.3951
5.8791 -2.2555 2.3951
5.9473 -2.0382 2.3951
6.0080 -1.8189 2.3951
6.0612 -1.5981 2.3951
6.1068 -1.3759 2.3951
6.1449 -1.1525 2.3951
6.1754 -0.9282 2.3951
6.1982 -0.7033 2.3951
6.2135 -0.4779 2.3951
6.2211 -0.2524 2.3951
6.2211 -0.0269 2.3951
6.2136 0.1983 2.3951
6.1985 0.4230 2.3951
6.1759 0.6469 2.3951
6.1458 0.8699 2.3951
6.1082 1.0917 2.3951
6.0632 1.3119 2.3951
6.0109 1.5306 2.3951
5.9513 1.7472 2.3951
5.8844 1.9619 2.3951
5.8103 2.1742 2.3951
5.7292 2.3838 2.3951
5.6410 2.5907 2.3951
5.5459 2.7947 2.3951
5.4440 2.9953 2.3951
5.2500 3.1415 2.3568
4.9972 3.2417 2.2929
4.7791 3.3522 2.2452
4.6535 3.5223 2.2427
4.5275 3.6922 2.2427
4.3957 3.8580 2.2427
4.2582 4.0193 2.2427
4.1152 4.1761 2.2427
3.9668 4.3281 2.2427
3.8131 4.4753 2.2427
3.6544 4.6173 2.2427
3.4906 4.7541 2.2427
3.3221 4.8855 2.2427
3.1489 5.0112 2.2427
2.9712 5.1312 2.2427
2.7942 5.2545 2.2467
2.6031 5.3532 2.2427
2.4461 5.5296 2.2734
2.3134 5.7856 2.3378
0.8882 2.4772 0.9852
0.7986 2.5086 0.9834
0.7079 2.5368 0.9815
0.6162 2.5617 0.9795
0.5236 2.5832 0.9776
0.4304 2.6014 0.9755
0.3365 2.6162 0.9734
0.2422 2.6276 0.9713
0.1475 2.6356 0.9691
0.0525 2.6402 0.9669
-0.0425 2.6413 0.9647
-0.1375 2.6390 0.9624
-0.2324 2.6333 0.9601
-0.3270 2.6242 0.9578
-0.4213 2.6116 0.9555
-0.5150 2.5956 0.9531
-0.6080 2.5763 0.9507
-0.7003 2.5536 0.9483
-0.7918 2.5276 0.9459
-0.8822 2.4983 0.9435
-2.4724 6.2753 2.3951
-2.7035 6.2002 2.3951
-2.9323 6.1166 2.3951
-3.1584 6.0246 2.3951
-3.3817 5.9242 2.3951
-3.6017 5.8155 2.3951
-3.8181 5.6986 2.3951
-4.0306 5.5736 2.3951
-4.2390 5.4406 2.3951
-4.4427 5.2997 2.3951
-4.6416 5.1511 2.3951
-4.8354 4.9948 2.3951
-5.0237 4.8312 2.3951
-5.2061 4.6603 2.3951
-5.3825 4.4824 2.3951
-5.5525 4.2977 2.3951
-5.7158 4.1064 2.3951
-5.8722 3.9087 2.3951
-6.0213 3.7049 2.3951
-6.1630 3.4952 2.3951
-6.2969 3.2800 2.3951
-6.4228 3.0595 2.3951
-6.5404 2.8340 2.3951
-6.6497 2.6039 2.3951
-6.7503 2.3694 2.3951
-6.8420 2.1310 2.3951
-6.9247 1.8888 2.3951
-6.9983 1.6434 2.3951
-7.0624 1.3951 2.3951
-7.1171 1.1442 2.3951
-7.1622 0.8911 2.3951
-7.1976 0.6362 2.3951
-7.2232 0.3799 2.3951
-7.2390 0.1226 2.3951
-7.2448 -0.1354 2.3951
-7.2407 -0.3935 2.3951
-7.2267 -0.6514 2.3951
-7.2027 -0.9087 2.3951
-7.1688 -1.1649 2.3951
-7.1251 -1.4198 2.3951
-7.0715 -1.6728 2.3951
-7.0081 -1.9236 2.3951
-6.9352 -2.1718 2.3951
-6.8526 -2.4170 2.3951
-6.7608 -2.6587 2.3951
-6.6596 -2.8967 2.3951
-6.5494 -3.1305 2.3951
-6.4303 -3.3599 2.3951
-6.3026 -3.5843 2.3951
-6.1663 -3.8035 2.3951
-6.0218 -4.0172 2.3951
-5.8693 -4.2250 2.3951
-5.7091 -4.4266 2.3951
-5.5414 -4.6217 2.3951
-5.3665 -4.8101 2.3951
-5.1848 -4.9915 2.3951
-4.9965 -5.1655 2.3951
-4.8019 -5.3321 2.3951
-4.6013 -5.4909 2.3951
-4.3952 -5.6417 2.3951
-4.1838 -5.7844 2.3951
-3.9674 -5.9188 2.3951
-3.7465 -6.0447 2.3951
-3.5214 -6.1619 2.3951
-3.2924 -6.2704 2.3951
-3.0600 -6.3700 2.3951
-2.8243 -6.4607 2.3951
-2.5859 -6.5423 2.3951
-2.3452 -6.6148 2.3951
-2.1024 -6.6782 2.3951
-1.8579 -6.7323 2.3951
-1.6121 -6.7773 2.3951
-1.3653 -6.8130 2.3951
-1.1180 -6.8396 2.3951
-0.8704 -6.8570 2.3951
-0.6229 -6.8652 2.3951
-0.3758 -6.8644 2.3951
-0.1295 -6.8546 2.3951
0.1156 -6.8359 2.3951
0.3593 -6.8083 2.3951
0.6013 -6.7720 2.3951
0.8412 -6.7271 2.3951
1.0787 -6.6736 2.3951
1.3135 -6.6119 2.3951
1.5454 -6.5419 2.3951
1.7741 -6.4638 2.3951
1.9992 -6.3779 2.3951
2.2206 -6.2842 2.3951
2.4379 -6.1829 2.3951
2.6510 -6.0743 2.3951
2.8596 -5.9585 2.3951
3.0635 -5.8357 2.3951
3.2624 -5.7062 2.3951
3.4562 -5.5700 2.3951
3.6446 -5.4275 2.3951
3.8275 -5.2789 2.3951
4.0047 -5.1244 2.3951
4.1760 -4.9641 2.3951
4.3412 -4.7984 2.3951
4.5002 -4.6274 2.3951
4.6529 -4.4514 2.3951
4.7990 -4.2707 2.3951
4.9386 -4.0854 2.3951
5.0714 -3.8958 2.3951
5.1974 -3.7021 2.3951
5.3164 -3.5047 2.3951
5.4283 -3.3036 2.3951
5.5332 -3.0993 2.3951
5.6308 -2.8918 2.3951
5.7212 -2.6816 2.3951
5.8042 -2.4687 2.3951
5.8798 -2.2534 2.3951
5.9479 -2.0361 2.3951
6.0086 -1.8168 2.3951
6.0617 -1.5959 2.3951
6.1073 -1.3737 2.3951
6.1452 -1.1503 2.3951
6.1756 -0.9261 2.3951
6.1984 -0.7011 2.3951
6.2136 -0.4757 2.3951
6.2211 -0.2502 2.3951
6.2211 -0.0247 2.3951
6.2135 0.2006 2.3951
6.1983 0.4252 2.3951
6.1756 0.6491 2.3951
6.1454 0.8721 2.3951
6.1078 1.0938 2.3951
6.0628 1.3141 2.3951
6.0103 1.5327 2.3951
5.9506 1.7494 2.3951
5.8837 1.9640 2.3951
5.8096 2.1762 2.3951
5.7283 2.3859 2.3951
5.6401 2.5927 2.3951
5.5449 2.7966 2.3951
5.4429 2.9973 2.3951
5.2473 3.1425 2.3561
4.9949 3.2428 2.2924
4.7771 3.3534 2.2449
4.6523 3.5240 2.2427
4.5262 3.6939 2.2427
4.3944 3.8596 2.2427
4.2569 4.0209 2.2427
4.1138 4.1776 2.2427
3.9653 4.3296 2.2427
3.8116 4.4767 2.2427
3.6528 4.6187 2.2427
3.4890 4.7555 2.2427
3.3204 4.8867 2.2427
3.1472 5.0124 2.2427
2.9695 5.1323 2.2427
2.7927 5.2563 2.2470
2.6013 5.3542 2.2427
2.4448 5.5320 2.2740
2.3121 5.7882 2.3385
0.8874 2.4775 0.9852
0.7977 2.5089 0.9834
0.7070 2.5370 0.9815
0.6153 2.5619 0.9795
0.5227 2.5834 0.9775
0.4295 2.6016 0.9755
0.3356 2.6163 0.9734
0.2412 2.6277 0.9713
0.1465 2.6357 0.9691
0.0516 2.6402 0.9669
-0.0434 2.6413 0.9647
-0.1385 2.6390 0.9624
-0.2333 2.6332 0.9601
-0.3280 2.6241 0.9578
-0.4222 2.6115 0.9555
-0.5159 2.5955 0.9531
-0.6089 2.5761 0.9507
-0.7012 2.5534 0.9483
-0.7927 2.5273 0.9459
-0.8831 2.4980 0.9435
-2.4747 6.2746 2.3951
-2.7057 6.1994 2.3951
-2.9345 6.1158 2.3951
-3.1606 6.0237 2.3951
-3.3838 5.9232 2.3951
-3.6038 5.8144 2.3951
-3.8202 5.6975 2.3951
-4.0327 5.5724 2.3951
-4.2410 5.4392 2.3951
-4.4447 5.2983 2.3951
-4.6436 5.1496 2.3951
-4.8372 4.9933 2.3951
-5.0255 4.8296 2.3951
-5.2079 4.6586 2.3951
-5.3842 4.4806 2.3951
-5.5541 4.2959 2.3951
-5.7174 4.1045 2.3951
-5.8737 3.9067 2.3951
-6.0228 3.7028 2.3951
-6.1643 3.4931 2.3951
-6.2981 3.2779 2.3951
-6.4240 3.0573 2.3951
-6.5416 2.8318 2.3951
-6.6507 2.6016 2.3951
-6.7512 2.3671 2.3951
-6.8429 2.1286 2.3951
-6.9255 1.8865 2.3951
-6.9989 1.6410 2.3951
-7.0630 1.3926 2.3951
-7.1176 1.1417 2.3951
-7.1626 0.8886 2.3951
-7.1979 0.6336 2.3951
-7.2234 0.3774 2.3951
-7.2391 0.1200 2.3951
-7.2448 -0.1379 2.3951
-7.2407 -0.3960 2.3951
-7.2265 -0.6539 2.3951
-7.2024 -0.9112 2.3951
-7.1685 -1.1674 2.3951
-7.1246 -1.4223 2.3951
-7.0709 -1.6753 2.3951
-7.0075 -1.9261 2.3951
-6.9344 -2.1742 2.3951
-6.8518 -2.4194 2.3951
-6.7598 -2.6611 2.3951
-6.6586 -2.8990 2.3951
-6.5483 -3.1328 2.3951
-6.4291 -3.3621 2.3951
-6.3013 -3.5865 2.3951
-6.1649 -3.8056 2.3951
-6.0204 -4.0192 2.3951
-5.8678 -4.2270 2.3951
-5.7075 -4.4285 2.3951
-5.5397 -4.6236 2.3951
-5.3648 -4.8119 2.3951
-5.1830 -4.9932 2.3951
-4.9946 -5.1672 2.3951
-4.7999 -5.3337 2.3951
-4.5993 -5.4924 2.3951
-4.3932 -5.6431 2.3951
-4.1817 -5.7858 2.3951
-3.9653 -5.9200 2.3951
-3.7444 -6.0458 2.3951
-3.5192 -6.1630 2.3951
-3.2902 -6.2714 2.3951
-3.0576 -6.3710 2.3951
-2.8220 -6.4615 2.3951
-2.5836 -6.5431 2.3951
-2.3428 -6.6155 2.3951
-2.1000 -6.6787 2.3951
-1.8555 -6.7328 2.3951
-1.6097 -6.7777 2.3951
-1.3629 -6.8133 2.3951
-1.1155 -6.8398 2.3951
-0.8679 -6.8571 2.3951
-0.6204 -6.8653 2.3951
-0.3734 -6.8644 2.3951
-0.1271 -6.8545 2.3951
0.1180 -6.8357 2.3951
0.3617 -6.8080 2.3951
-2.1907 -6.1553 2.3951
-1.9651 -6.2153 2.3951
-1.7378 -6.2668 2.3951
-1.5092 -6.3098 2.3951
-1.2797 -6.3443 2.3951
-1.0496 -6.3702 2.3951
-0.8191 -6.3876 2.3951
-0.5887 -6.3965 2.3951
-0.3586 -6.3970 2.3951
-0.1291 -6.3891 2.3951
0.0994 -6.3728 2.3951
0.3266 -6.3484 2.3951
0.5523 -6.3157 2.3951
0.7761 -6.2751 2.3951
0.9978 -6.2265 2.3951
1.2171 -6.1700 2.3951
1.4338 -6.1059 2.3951
1.6474 -6.0343 2.3951
1.8579 -5.9552 2.3951
2.0650 -5.8689 2.3951
2.2683 -5.7755 2.3951
2.4678 -5.6751 2.3951
2.6631 -5.5680 2.3951
2.8540 -5.4544 2.3951
3.0404 -5.3343 2.3951
3.2221 -5.2081 2.3951
3.3988 -5.0758 2.3951
3.5703 -4.9378 2.3951
3.7366 -4.7941 2.3951
3.8974 -4.6451 2.3951
4.0525 -4.4909 2.3951
4.2019 -4.3317 2.3951
4.3454 -4.1678 2.3951
4.4829 -3.9994 2.3951
4.6141 -3.8266 2.3951
4.7391 -3.6498 2.3951
4.8577 -3.4691 2.3951
4.9698 -3.2848 2.3951
5.0753 -3.0971 2.3951
5.1742 -2.9061 2.3951
5.2663 -2.7123 2.3951
5.3516 -2.5157 2.3951
5.4300 -2.3167 2.3951
5.5014 -2.1153 2.3951
5.5658 -1.9120 2.3951
5.6233 -1.7068 2.3951
5.6736 -1.5001 2.3951
5.7169 -1.2921 2.3951
5.7530 -1.0829 2.3951
5.7820 -0.8728 2.3951
5.8038 -0.6621 2.3951
5.8185 -0.4510 2.3951
5.8260 -0.2397 2.3951
5.8264 -0.0284 2.3951
5.8196 0.1827 2.3951
5.8057 0.3933 2.3951
5.7848 0.6032 2.3951
5.7567 0.8122 2.3951
5.7217 1.0200 2.3951
5.6797 1.2265 2.3951
5.6307 1.4315 2.3951
5.5749 1.6346 2.3951
5.5123 1.8358 2.3951
5.4429 2.0347 2.3951
5.3668 2.2313 2.3951
5.2841 2.4252 2.3951
5.1949 2.6163 2.3951
5.0993 2.8043 2.3951
4.9973 2.9891 2.3951
4.8891 3.1705 2.3951
4.7456 3.3278 2.3805
4.5446 3.4390 2.3386
4.3544 3.5503 2.3033
4.1792 3.6674 2.2770
4.0130 3.7873 2.2572
3.8600 3.9168 2.2468
3.7137 4.0519 2.2427
3.5696 4.1894 2.2427
3.4206 4.3222 2.2427
3.2670 4.4499 2.2427
3.1157 4.5825 2.2476
2.9725 4.7314 2.2625
2.8359 4.8985 2.2879
2.7000 5.0788 2.3207
2.5655 5.2776 2.3631
2.4100 5.4501 2.3951
2.2161 5.5448 2.3951
0.8279 2.3101 0.9822
0.7443 2.3394 0.9805
0.6596 2.3657 0.9788
0.5741 2.3889 0.9770
0.4878 2.4090 0.9751
0.4008 2.4260 0.9732
0.3132 2.4398 0.9713
0.2252 2.4505 0.9693
0.1369 2.4580 0.9673
0.0483 2.4623 0.9652
-0.0403 2.4634 0.9631
-0.1289 2.4612 0.9610
-0.2174 2.4559 0.9589
-0.3057 2.4474 0.9567
-0.3936 2.4357 0.9545
-0.4810 2.4209 0.9523
-0.5678 2.4029 0.9501
-0.6540 2.3817 0.9479
-0.7392 2.3575 0.9456
-0.8236 2.3302 0.9434
-0.9069 2.2999 0.9411
-2.5232 5.7821 2.3951
-2.7361 5.7033 2.3951
-2.9465 5.6166 2.3951
-3.1542 5.5222 2.3951
-3.3587 5.4200 2.3951
-3.5599 5.3103 2.3951
-3.7574 5.1930 2.3951
-3.9508 5.0682 2.3951
-4.1400 4.9363 2.3951
-4.3247 4.7971 2.3951
-4.5044 4.6509 2.3951
-4.6790 4.4979 2.3951
-4.8482 4.3383 2.3951
-5.0117 4.1721 2.3951
-5.1692 3.9996 2.3951
-5.3205 3.8211 2.3951
-5.4652 3.6367 2.3951
-5.6033 3.4467 2.3951
-5.7343 3.2513 2.3951
-5.8581 3.0508 2.3951
-5.9745 2.8454 2.3951
-6.0833 2.6355 2.3951
-6.1842 2.4213 2.3951
-6.2771 2.2032 2.3951
-6.3617 1.9814 2.3951
-6.4380 1.7562 2.3951
-6.5058 1.5280 2.3951
-6.5649 1.2972 2.3951
-6.6153 1.0640 2.3951
-6.6567 0.8288 2.3951
-6.6892 0.5920 2.3951
-6.7126 0.3539 2.3951
-6.7270 0.1150 2.3951
-6.7321 -0.1245 2.3951
-6.7281 -0.3642 2.3951
-6.7149 -0.6037 2.3951
-6.6925 -0.8426 2.3951
-6.6609 -1.0805 2.3951
-6.6202 -1.3172 2.3951
-6.5705 -1.5521 2.3951
-6.5117 -1.7850 2.3951
-6.4440 -2.0155 2.3951
-6.3676 -2.2431 2.3951
-6.2824 -2.4677 2.3951
-6.1887 -2.6887 2.3951
-6.0867 -2.9060 2.3951
-5.9764 -3.1191 2.3951
-5.8580 -3.3277 2.3951
-5.7319 -3.5314 2.3951
-5.5981 -3.7301 2.3951
-5.4568 -3.9234 2.3951
-5.3085 -4.1110 2.3951
-5.1532 -4.2926 2.3951
-4.9912 -4.4680 2.3951
-4.8228 -4.6370 2.3951
-4.6483 -4.7992 2.3951
-4.4680 -4.9545 2.3951
-4.2821 -5.1027 2.3951
-4.0910 -5.2435 2.3951
-3.8950 -5.3768 2.3951
-3.6944 -5.5024 2.3951
-3.4895 -5.6202 2.3951
-3.2806 -5.7300 2.3951
-3.0681 -5.8318 2.3951
-2.8523 -5.9253 2.3951
-2.6336 -6.0106 2.3951
-2.4122 -6.0874 2.3951
-2.1885 -6.1559 2.3951
-1.9628 -6.2159 2.3951
-1.7356 -6.2673 2.3951
-1.5070 -6.3102 2.3951
-1.2775 -6.3446 2.3951
-1.0473 -6.3704 2.3951
-0.8169 -6.3877 2.3951
-0.5864 -6.3966 2.3951
-0.3563 -6.3970 2.3951
-0.1269 -6.3890 2.3951
0.1016 -6.3726 2.3951
0.3288 -6.3481 2.3951
0.5545 -6.3154 2.3951
0.7783 -6.2746 2.3951
1.0000 -6.2260 2.3951
1.2193 -6.1695 2.3951
1.4359 -6.1053 2.3951
1.6495 -6.0335 2.3951
1.8600 -5.9544 2.3951
2.0670 -5.8680 2.3951
2.2703 -5.7745 2.3951
2.4697 -5.6741 2.3951
2.6650 -5.5670 2.3951
2.8559 -5.4532 2.3951
3.0422 -5.3331 2.3951
3.2238 -5.2068 2.3951
3.4005 -5.0745 2.3951
3.5720 -4.9364 2.3951
3.7382 -4.7927 2.3951
3.8989 -4.6436 2.3951
4.0540 -4.4893 2.3951
4.2034 -4.3302 2.3951
4.3468 -4.1662 2.3951
4.4842 -3.9977 2.3951
4.6154 -3.8249 2.3951
4.7403 -3.6480 2.3951
4.8589 -3.4673 2.3951
4.9709 -3.2830 2.3951
5.0764 -3.0952 2.3951
5.1751 -2.9043 2.3951
5.2672 -2.7105 2.3951
5.3524 -2.5138 2.3951
5.4307 -2.3147 2.3951
5.5021 -2.1133 2.3951
5.5664 -1.9100 2.3951
5.6238 -1.7048 2.3951
5.6741 -1.4981 2.3951
5.7172 -1.2900 2.3951
5.7533 -1.0808 2.3951
5.7822 -0.8708 2.3951
5.8040 -0.6600 2.3951
5.8186 -0.4489 2.3951
5.8260 -0.2376 2.3951
5.8263 -0.0263 2.3951
5.8195 0.1848 2.3951
5.8055 0.3954 2.3951
5.7845 0.6053 2.3951
5.7564 0.8142 2.3951
5.7213 1.0221 2.3951
5.6792 1.2285 2.3951
5.6302 1.4335 2.3951
5.5743 1.6366 2.3951
5.5116 1.8378 2.3951
5.4422 2.0367 2.3951
5.3660 2.2332 2.3951
5.2833 2.4271 2.3951
5.1940 2.6181 2.3951
5.0984 2.8061 2.3951
4.9963 2.9909 2.3951
4.8880 3.1722 2.3951
4.7435 3.3287 2.3800
4.5427 3.4401 2.3382
4.3527 3.5515 2.3030
4.1775 3.6685 2.2768
4.0115 3.7886 2.2571
3.8585 3.9181 2.2467
3.7124 4.0533 2.2427
3.5681 4.1908 2.2427
3.4191 4.3234 2.2427
3.2655 4.4512 2.2427
3.1143 4.5840 2.2477
2.9712 4.7329 2.2627
2.8345 4.9002 2.2882
2.6987 5.0807 2.3211
2.5642 5.2797 2.3636
2.4082 5.4511 2.3951
2.2142 5.5457 2.3951
0.8271 2.3104 0.9822
0.7434 2.3397 0.9805
0.6588 2.3659 0.9788
0.5733 2.3891 0.9769
0.4869 2.4092 0.9751
0.3999 2.4262 0.9732
0.3124 2.4400 0.9712
0.2244 2.4506 0.9693
0.1360 2.4580 0.9672
0.0475 2.4623 0.9652
-0.0412 2.4634 0.9631
-0.1298 2.4612 0.9610
-0.2183 2.4559 0.9588
-0.3066 2.4473 0.9567
-0.3945 2.4356 0.9545
-0.4819 2.4207 0.9523
-0.5687 2.4027 0.9501
-0.6548 2.3815 0.9478
-0.7401 2.3573 0.9456
-0.8244 2.3299 0.9434
-0.9077 2.2996 0.9411
-2.5253 5.7814 2.3951
-2.7382 5.7025 2.3951
-2.9486 5.6157 2.3951
-3.1562 5.5212 2.3951
-3.3607 5.4190 2.3951
-3.5619 5.3091 2.3951
-3.7593 5.1918 2.3951
-3.9527 5.0670 2.3951
-4.1419 4.9349 2.3951
-4.3264 4.7957 2.3951
-4.5062 4.6495 2.3951
-4.6807 4.4964 2.3951
-4.8498 4.3367 2.3951
-5.0133 4.1704 2.3951
-5.1707 3.9979 2.3951
-5.3219 3.8193 2.3951
-5.4666 3.6349 2.3951
-5.6046 3.4448 2.3951
-5.7356 3.2493 2.3951
-5.8593 3.0488 2.3951
-5.9756 2.8434 2.3951
-6.0843 2.6334 2.3951
-6.1851 2.4192 2.3951
-6.2779 2.2010 2.3951
-6.3625 1.9792 2.3951
-6.4387 1.7540 2.3951
-6.5064 1.5258 2.3951
-6.5655 1.2949 2.3951
-6.6157 1.0617 2.3951
-6.6571 0.8265 2.3951
-6.6895 0.5897 2.3951
-6.7128 0.3516 2.3951
-6.7271 0.1126 2.3951
-6.7321 -0.1269 2.3951
-6.7280 -0.3666 2.3951
-6.7147 -0.6060 2.3951
-6.6922 -0.8449 2.3951
-6.6606 -1.0829 2.3951
-6.6198 -1.3195 2.3951
-6.5699 -1.5544 2.3951
-6.5111 -1.7873 2.3951
-6.4433 -2.0177 2.3951
-6.3668 -2.2453 2.3951
-6.2816 -2.4699 2.3951
-6.1878 -2.6909 2.3951
-6.0856 -2.9081 2.3951
-5.9753 -3.1211 2.3951
-5.8568 -3.3297 2.3951
-5.7306 -3.5334 2.3951
-5.5967 -3.7320 2.3951
-5.4554 -3.9253 2.3951
-5.3070 -4.1128 2.3951
-5.1516 -4.2944 2.3951
-4.9896 -4.4697 2.3951
-4.8211 -4.6386 2.3951
-4.6466 -4.8008 2.3951
-4.4662 -4.9560 2.3951
-4.2803 -5.1041 2.3951
-4.0891 -5.2448 2.3951
-3.8931 -5.3781 2.3951
-3.6924 -5.5036 2.3951
-3.4875 -5.6213 2.3951
-3.2786 -5.7311 2.3951
-3.0660 -5.8327 2.3951
-2.8502 -5.9262 2.3951
-2.6314 -6.0114 2.3951
-2.4100 -6.0882 2.3951
-2.1863 -6.1565 2.3951
-1.9606 -6.2164 2.3951
-1.7333 -6.2678 2.3951
-1.5048 -6.3106 2.3951
-1.2752 -6.3449 2.3951
-1.0451 -6.3706 2.3951
-0.8146 -6.3879 2.3951
-0.5842 -6.3966 2.3951
-0.3541 -6.3969 2.3951
-0.1246 -6.3888 2.3951
0.1038 -6.3724 2.3951
0.3310 -6.3478 2.3951
0.5567 -6.3150 2.3951
0.7805 -6.2742 2.3951
1.0021 -6.2254 2.3951
1.2214 -6.1689 2.3951
1.4380 -6.1046 2.3951
1.6516 -6.0328 2.3951
1.8620 -5.9536 2.3951
2.0690 -5.8671 2.3951
2.2723 -5.7736 2.3951
2.4716 -5.6731 2.3951
2.6669 -5.5659 2.3951
2.8577 -5.4521 2.3951
3.0440 -5.3319 2.3951
3.2256 -5.2055 2.3951
3.4022 -5.0732 2.3951
3.5736 -4.9350 2.3951
3.7398 -4.7913 2.3951
3.9005 -4.6421 2.3951
4.0555 -4.4878 2.3951
4.2048 -4.3286 2.3951
4.3482 -4.1645 2.3951
4.4855 -3.9960 2.3951
4.6167 -3.8232 2.3951
4.7415 -3.6463 2.3951
4.8600 -3.4656 2.3951
4.9720 -3.2811 2.3951
5.0773 -3.0933 2.3951
5.1761 -2.9024 2.3951
5.2680 -2.7085 2.3951
5.3532 -2.5118 2.3951
5.4314 -2.3127 2.3951
5.5027 -2.1113 2.3951
5.5670 -1.9080 2.3951
5.6243 -1.7028 2.3951
5.6745 -1.4961 2.3951
5.7176 -1.2880 2.3951
5.7536 -1.0788 2.3951
5.7825 -0.8687 2.3951
5.8041 -0.6580 2.3951
