ply
format ascii 1.0
element vertex 2174
property float32 x
property float32 y
property float32 z
end_header
-6.2027 1.1386 2.4076
-6.2521 0.9172 2.4076
-6.2935 0.6938 2.4076
-6.3269 0.4686 2.4076
-6.3522 0.2421 2.4076
-6.3693 0.0143 2.4076
-6.3782 -0.2143 2.4076
-6.3788 -0.4434 2.4076
-6.3710 -0.6728 2.4076
-6.3548 -0.9022 2.4076
-6.3303 -1.1311 2.4076
-6.2973 -1.3594 2.4076
-6.2559 -1.5867 2.4076
-6.2062 -1.8126 2.4076
-6.1481 -2.0369 2.4076
-6.0817 -2.2593 2.4076
-6.0070 -2.4793 2.4076
-5.9242 -2.6968 2.4076
-5.8332 -2.9114 2.4076
-5.7343 -3.1227 2.4076
-5.6274 -3.3304 2.4076
-5.5128 -3.5343 2.4076
-5.3905 -3.7341 2.4076
-5.2607 -3.9293 2.4076
-5.1236 -4.1198 2.4076
-4.9793 -4.3053 2.4076
-4.8280 -4.4854 2.4076
-4.6700 -4.6599 2.4076
-4.5054 -4.8284 2.4076
-4.3344 -4.9909 2.4076
-4.1574 -5.1469 2.4076
-3.9744 -5.2963 2.4076
-3.7859 -5.4388 2.4076
-3.5920 -5.5742 2.4076
-3.3931 -5.7023 2.4076
-3.1893 -5.8228 2.4076
-2.9811 -5.9357 2.4076
-2.7687 -6.0406 2.4076
-2.5524 -6.1375 2.4076
-2.3326 -6.2262 2.4076
-2.1096 -6.3065 2.4076
-1.8836 -6.3784 2.4076
-1.6551 -6.4418 2.4076
-1.4244 -6.4964 2.4076
-1.1917 -6.5423 2.4076
-0.9576 -6.5794 2.4076
-0.7222 -6.6076 2.4076
-0.4860 -6.6269 2.4076
-0.2494 -6.6373 2.4076
-0.0125 -6.6387 2.4076
0.2241 -6.6313 2.4076
0.4601 -6.6149 2.4076
0.6952 -6.5897 2.4076
0.9291 -6.5557 2.4076
1.1613 -6.5130 2.4076
1.3917 -6.4616 2.4076
1.6197 -6.4016 2.4076
1.8452 -6.3333 2.4076
2.0677 -6.2565 2.4076
2.2870 -6.1716 2.4076
2.5028 -6.0787 2.4076
2.7147 -5.9778 2.4076
2.9226 -5.8693 2.4076
3.0576 -5.6274 2.3549
3.1142 -5.2735 2.2552
3.2957 -5.1513 2.2552
3.4724 -5.0226 2.2552
3.6446 -4.8886 2.2557
3.8115 -4.7485 2.2561
3.9729 -4.6024 2.2566
4.1287 -4.4506 2.2570
4.2785 -4.2934 2.2574
4.4222 -4.1310 2.2578
4.5597 -3.9636 2.2582
4.6907 -3.7916 2.2585
4.8151 -3.6150 2.2589
4.9328 -3.4343 2.2592
5.0436 -3.2497 2.2595
5.1469 -3.0610 2.2596
5.2337 -2.8640 2.2556
5.3228 -2.6696 2.2557
5.4048 -2.4724 2.2558
5.4794 -2.2727 2.2560
5.5468 -2.0708 2.2562
5.6067 -1.8669 2.2564
5.6592 -1.6614 2.2566
5.7042 -1.4544 2.2568
5.7417 -1.2463 2.2570
5.7718 -1.0374 2.2572
5.7943 -0.8279 2.2574
5.8093 -0.6180 2.2576
5.8169 -0.4081 2.2578
5.5218 -0.1884 2.1434
5.5057 0.0103 2.1400
5.7950 0.2193 2.2584
5.7730 0.4269 2.2586
5.7437 0.6332 2.2588
5.7073 0.8380 2.2590
5.6638 1.0411 2.2592
5.6132 1.2423 2.2594
5.5557 1.4413 2.2597
5.4914 1.6378 2.2599
5.4203 1.8318 2.2601
5.3416 2.0224 2.2599
5.2552 2.2095 2.2591
5.1614 2.3925 2.2579
5.0581 2.5702 2.2552
4.9550 2.7470 2.2552
4.8459 2.9199 2.2552
4.7311 3.0887 2.2552
4.6106 3.2533 2.2552
4.4847 3.4134 2.2552
4.3534 3.5689 2.2552
4.2170 3.7196 2.2552
4.0756 3.8654 2.2552
3.9294 4.0061 2.2552
3.7786 4.1416 2.2552
3.6233 4.2716 2.2552
3.6979 4.6933 2.4076
3.5232 4.8203 2.4076
3.3444 4.9411 2.4076
3.1617 5.0557 2.4076
2.9752 5.1638 2.4076
2.7853 5.2655 2.4076
2.5920 5.3605 2.4076
2.3957 5.4489 2.4076
0.9044 2.2771 0.9913
0.8215 2.3085 0.9916
0.7376 2.3369 0.9918
0.6526 2.3622 0.9919
0.5668 2.3845 0.9920
0.4803 2.4037 0.9920
0.3931 2.4197 0.9920
0.3054 2.4326 0.9919
0.2173 2.4423 0.9917
0.1288 2.4488 0.9915
0.0402 2.4521 0.9912
-0.0485 2.4522 0.9908
-0.1371 2.4492 0.9904
-0.2256 2.4429 0.9899
-0.3137 2.4334 0.9893
-0.4015 2.4208 0.9887
-0.4888 2.4050 0.9880
-0.5754 2.3860 0.9872
-0.6613 2.3640 0.9864
-0.7464 2.3388 0.9856
-0.8305 2.3106 0.9846
-0.9135 2.2794 0.9837
-2.4386 5.5011 2.4076
-2.6388 5.4162 2.4076
-2.8362 5.3243 2.4076
-3.0305 5.2255 2.4076
-3.2216 5.1199 2.4076
-3.4093 5.0075 2.4076
-3.5928 4.8886 2.4076
-3.7726 4.7632 2.4076
-3.9480 4.6315 2.4076
-4.1189 4.4935 2.4076
-4.2853 4.3494 2.4076
-4.4468 4.1993 2.4076
-4.6031 4.0435 2.4076
-4.7541 3.8820 2.4076
-4.8996 3.7151 2.4076
-5.0394 3.5428 2.4076
-5.1732 3.3655 2.4076
-5.3009 3.1832 2.4076
-5.4223 2.9963 2.4076
-5.5371 2.8048 2.4076
-5.6453 2.6091 2.4076
-5.7467 2.4093 2.4076
-5.8411 2.2056 2.4076
-5.9283 1.9984 2.4076
-6.0082 1.7878 2.4076
-6.0807 1.5742 2.4076
-6.1456 1.3577 2.4076
-6.2027 1.1386 2.4076
-6.2521 0.9172 2.4076
-6.2935 0.6938 2.4076
-6.3269 0.4687 2.4076
-6.3522 0.2421 2.4076
-6.3693 0.0144 2.4076
-6.3782 -0.2142 2.4076
-6.3788 -0.4434 2.4076
-6.3710 -0.6728 2.4076
-6.3548 -0.9021 2.4076
-6.3303 -1.1311 2.4076
-6.2973 -1.3594 2.4076
-6.2560 -1.5866 2.4076
-6.2062 -1.8126 2.4076
-6.1481 -2.0369 2.4076
-6.0817 -2.2593 2.4076
-6.0071 -2.4793 2.4076
-5.9242 -2.6968 2.4076
-5.8333 -2.9113 2.4076
-5.7343 -3.1226 2.4076
-5.6274 -3.3304 2.4076
-5.5128 -3.5343 2.4076
-5.3905 -3.7340 2.4076
-5.2607 -3.9293 2.4076
-5.1236 -4.1198 2.4076
-4.9793 -4.3052 2.4076
-4.8281 -4.4853 2.4076
-4.6700 -4.6598 2.4076
-4.5054 -4.8284 2.4076
-4.3344 -4.9909 2.4076
-4.1574 -5.1469 2.4076
-3.9745 -5.2963 2.4076
-3.7859 -5.4388 2.4076
-3.5920 -5.5742 2.4076
-3.3931 -5.7022 2.4076
-3.1894 -5.8228 2.4076
-2.9811 -5.9356 2.4076
-2.7688 -6.0406 2.4076
-2.5525 -6.1375 2.4076
-2.3327 -6.2262 2.4076
-2.1096 -6.3065 2.4076
-1.8837 -6.3784 2.4076
-1.6551 -6.4417 2.4076
-1.4244 -6.4964 2.4076
-1.1918 -6.5423 2.4076
-0.9576 -6.5794 2.4076
-0.7223 -6.6076 2.4076
-0.4861 -6.6269 2.4076
-0.2494 -6.6373 2.4076
-0.0124 -6.1995 2.4076
0.2084 -6.1927 2.4076
0.4288 -6.1777 2.4076
0.6483 -6.1544 2.4076
0.8666 -6.1229 2.4076
1.0835 -6.0833 2.4076
1.2986 -6.0357 2.4076
1.5116 -5.9800 2.4076
1.7222 -5.9165 2.4076
1.9302 -5.8452 2.4076
2.1351 -5.7663 2.4076
2.3368 -5.6799 2.4076
2.5349 -5.5862 2.4076
2.7292 -5.4852 2.4076
2.9194 -5.3772 2.4076
3.0377 -5.1478 2.3551
3.0785 -4.8155 2.2552
3.2438 -4.6956 2.2552
3.4044 -4.5700 2.2552
3.5605 -4.4392 2.2556
3.7117 -4.3031 2.2560
3.8575 -4.1617 2.2564
3.9979 -4.0151 2.2567
4.1326 -3.8637 2.2571
4.2614 -3.7076 2.2575
4.3843 -3.5471 2.2578
4.5011 -3.3824 2.2581
4.6116 -3.2138 2.2584
4.7157 -3.0414 2.2587
4.8133 -2.8657 2.2590
4.9043 -2.6868 2.2593
4.9886 -2.5049 2.2595
5.0661 -2.3204 2.2597
5.1334 -2.1321 2.2585
5.1915 -1.9410 2.2563
5.2486 -1.7505 2.2566
5.2983 -1.5582 2.2568
5.3410 -1.3645 2.2570
5.3767 -1.1698 2.2572
5.4054 -0.9742 2.2573
5.4271 -0.7781 2.2575
5.4417 -0.5815 2.2577
5.4494 -0.3849 2.2579
5.4500 -0.1885 2.2581
5.4438 0.0076 2.2583
5.4305 0.2030 2.2585
5.4104 0.3976 2.2587
5.3836 0.5910 2.2589
5.3499 0.7831 2.2591
5.3096 0.9736 2.2593
5.2626 1.1623 2.2595
5.2092 1.3490 2.2597
5.1493 1.5335 2.2599
5.0831 1.7155 2.2601
5.0093 1.8944 2.2597
4.9204 2.0665 2.2552
4.8356 2.2393 2.2552
4.7449 2.4089 2.2552
4.6485 2.5749 2.2552
4.5465 2.7374 2.2552
4.4391 2.8960 2.2552
4.3263 3.0507 2.2552
4.2084 3.2011 2.2552
4.0854 3.3473 2.2552
3.9576 3.4890 2.2552
3.8251 3.6260 2.2552
3.6881 3.7583 2.2552
3.5467 3.8856 2.2552
3.4011 4.0079 2.2552
3.4712 4.4038 2.4076
3.3073 4.5232 2.4076
3.1395 4.6369 2.4076
2.9681 4.7446 2.4076
2.7931 4.8463 2.4076
2.6148 4.9418 2.4076
2.4333 5.0312 2.4076
2.2490 5.1143 2.4076
0.8462 2.1304 0.9881
0.7687 2.1597 0.9883
0.6901 2.1863 0.9885
0.6106 2.2100 0.9887
0.5303 2.2309 0.9888
0.4493 2.2488 0.9888
0.3677 2.2638 0.9887
0.2855 2.2758 0.9886
0.2031 2.2849 0.9885
0.1203 2.2910 0.9882
0.0373 2.2941 0.9880
-0.0457 2.2942 0.9876
-0.1286 2.2913 0.9872
-0.2114 2.2854 0.9867
-0.2940 2.2766 0.9862
-0.3761 2.2647 0.9856
-0.4578 2.2499 0.9850
-0.5389 2.2322 0.9843
-0.6193 2.2116 0.9835
-0.6989 2.1880 0.9827
-0.7776 2.1616 0.9818
-0.8553 2.1324 0.9809
-2.2894 5.1603 2.4076
-2.4772 5.0803 2.4076
-2.6622 4.9937 2.4076
-2.8445 4.9006 2.4076
-3.0234 4.8011 2.4076
-3.1991 4.6954 2.4076
-3.3712 4.5834 2.4076
-3.5394 4.4654 2.4076
-3.7038 4.3415 2.4076
-3.8639 4.2117 2.4076
-4.0195 4.0761 2.4076
-4.1706 3.9351 2.4076
-4.3167 3.7886 2.4076
-4.4579 3.6368 2.4076
-4.5939 3.4799 2.4076
-4.7244 3.3181 2.4076
-4.8494 3.1516 2.4076
-4.9685 2.9805 2.4076
-5.0817 2.8049 2.4076
-5.1888 2.6253 2.4076
-5.2897 2.4416 2.4076
-5.3841 2.2541 2.4076
-5.4719 2.0631 2.4076
-5.5530 1.8688 2.4076
-5.6272 1.6714 2.4076
-5.6944 1.4712 2.4076
-5.7545 1.2683 2.4076
-5.8074 1.0631 2.4076
-5.8529 0.8557 2.4076
-5.8911 0.6465 2.4076
-5.9217 0.4358 2.4076
-5.9447 0.2237 2.4076
-5.9600 0.0106 2.4076
-5.9677 -0.2033 2.4076
-5.9675 -0.4176 2.4076
-5.9596 -0.6321 2.4076
-5.9439 -0.8465 2.4076
-5.9203 -1.0606 2.4076
-5.8888 -1.2739 2.4076
-5.8496 -1.4863 2.4076
-5.8025 -1.6973 2.4076
-5.7476 -1.9068 2.4076
-5.6850 -2.1145 2.4076
-5.6147 -2.3199 2.4076
-5.5367 -2.5229 2.4076
-5.4512 -2.7232 2.4076
-5.3583 -2.9204 2.4076
-5.2580 -3.1142 2.4076
-5.1505 -3.3044 2.4076
-5.0358 -3.4907 2.4076
-4.9142 -3.6727 2.4076
-4.7858 -3.8505 2.4076
-4.6507 -4.0234 2.4076
-4.5091 -4.1913 2.4076
-4.3613 -4.3540 2.4076
-4.2073 -4.5111 2.4076
-4.0475 -4.6625 2.4076
-3.8820 -4.8080 2.4076
-3.7110 -4.9472 2.4076
-3.5349 -5.0800 2.4076
-3.3537 -5.2062 2.4076
-3.1679 -5.3255 2.4076
-2.9776 -5.4379 2.4076
-2.7832 -5.5431 2.4076
-2.5849 -5.6409 2.4076
-2.3830 -5.7312 2.4076
-2.1778 -5.8139 2.4076
-1.9696 -5.8888 2.4076
-1.7587 -5.9559 2.4076
-1.5454 -6.0149 2.4076
-1.3301 -6.0660 2.4076
-1.1130 -6.1088 2.4076
-0.8945 -6.1435 2.4076
-0.6748 -6.1699 2.4076
-0.4544 -6.1881 2.4076
-0.2335 -6.1979 2.4076
-0.0125 -6.1995 2.4076
0.2084 -6.1927 2.4076
0.4287 -6.1777 2.4076
0.6482 -6.1544 2.4076
0.8666 -6.1229 2.4076
1.0835 -6.0833 2.4076
1.2986 -6.0357 2.4076
1.5116 -5.9800 2.4076
1.7222 -5.9165 2.4076
1.9301 -5.8453 2.4076
2.1351 -5.7663 2.4076
2.3367 -5.6800 2.4076
2.5348 -5.5862 2.4076
2.7291 -5.4852 2.4076
2.9194 -5.3773 2.4076
3.0377 -5.1479 2.3552
3.0785 -4.8155 2.2552
3.2438 -4.6957 2.2552
3.4044 -4.5700 2.2552
3.5605 -4.4393 2.2556
3.7117 -4.3031 2.2560
3.8575 -4.1617 2.2564
3.9979 -4.0151 2.2567
4.1325 -3.8637 2.2571
4.2614 -3.7076 2.2575
4.3843 -3.5471 2.2578
4.5010 -3.3824 2.2581
4.6115 -3.2138 2.2584
4.7156 -3.0415 2.2587
4.8132 -2.8657 2.2590
4.9042 -2.6868 2.2593
4.9885 -2.5049 2.2595
5.0661 -2.3204 2.2597
5.1334 -2.1320 2.2585
5.1915 -1.9408 2.2563
5.2486 -1.7505 2.2566
5.2983 -1.5582 2.2568
5.3410 -1.3646 2.2570
5.3767 -1.1698 2.2572
5.4054 -0.9743 2.2573
5.4271 -0.7781 2.2575
5.4417 -0.5816 2.2577
5.4494 -0.3850 2.2579
5.4501 -0.1885 2.2581
5.4438 0.0076 2.2583
5.4305 0.2030 2.2585
5.4105 0.3975 2.2587
5.3836 0.5910 2.2589
5.3499 0.7831 2.2591
5.3096 0.9736 2.2593
5.2627 1.1623 2.2595
5.2092 1.3490 2.2597
5.1493 1.5335 2.2599
5.0831 1.7155 2.2601
5.0093 1.8944 2.2597
4.9204 2.0664 2.2552
4.8356 2.2393 2.2552
4.7449 2.4088 2.2552
4.6485 2.5749 2.2552
4.5465 2.7374 2.2552
4.4391 2.8960 2.2552
4.3263 3.0506 2.2552
4.2084 3.2011 2.2552
4.0854 3.3473 2.2552
3.9576 3.4889 2.2552
3.8251 3.6260 2.2552
3.6881 3.7583 2.2552
3.5467 3.8856 2.2552
3.4011 4.0079 2.2552
3.4712 4.4038 2.4076
3.3073 4.5232 2.4076
3.1396 4.6368 2.4076
2.9681 4.7445 2.4076
2.7931 4.8462 2.4076
2.6148 4.9418 2.4076
2.4334 5.0312 2.4076
2.2490 5.1142 2.4076
0.8463 2.1303 0.9881
0.7687 2.1597 0.9883
0.6901 2.1863 0.9885
0.6106 2.2100 0.9887
0.5303 2.2309 0.9888
0.4493 2.2488 0.9888
0.3677 2.2638 0.9887
0.2856 2.2758 0.9886
0.2031 2.2849 0.9885
0.1203 2.2910 0.9882
0.0374 2.2941 0.9880
-0.0456 2.2942 0.9876
-0.1286 2.2913 0.9872
-0.2114 2.2854 0.9867
-0.2939 2.2766 0.9862
-0.3761 2.2647 0.9856
-0.4578 2.2499 0.9850
-0.5389 2.2322 0.9843
-0.6193 2.2116 0.9835
-0.6989 2.1880 0.9827
-0.7776 2.1616 0.9818
-0.8553 2.1324 0.9809
-2.2894 5.1603 2.4076
-2.4772 5.0803 2.4076
-2.6622 4.9937 2.4076
-2.8443 4.9006 2.4076
-3.0234 4.8011 2.4076
-3.1990 4.6954 2.4076
-3.3712 4.5835 2.4076
-3.5393 4.4655 2.4076
-3.7037 4.3415 2.4076
-3.8638 4.2117 2.4076
-4.0195 4.0762 2.4076
-4.1705 3.9351 2.4076
-4.3167 3.7886 2.4076
-4.4579 3.6368 2.4076
-4.5939 3.4800 2.4076
-4.7244 3.3182 2.4076
-4.8493 3.1516 2.4076
-4.9685 2.9805 2.4076
-5.0817 2.8050 2.4076
-5.1888 2.6253 2.4076
-5.2897 2.4416 2.4076
-5.3841 2.2542 2.4076
-5.4719 2.0632 2.4076
-5.5530 1.8689 2.4076
-5.6272 1.6715 2.4076
-5.6944 1.4712 2.4076
-5.7545 1.2683 2.4076
-5.8074 1.0631 2.4076
-5.8529 0.8558 2.4076
-5.8910 0.6466 2.4076
-5.9217 0.4358 2.4076
-5.9447 0.2237 2.4076
-5.9600 0.0106 2.4076
-5.9677 -0.2032 2.4076
-5.9675 -0.4176 2.4076
-5.9596 -0.6321 2.4076
-5.9439 -0.8465 2.4076
-5.9203 -1.0605 2.4076
-5.8888 -1.2739 2.4076
-5.8496 -1.4862 2.4076
-5.8025 -1.6973 2.4076
-5.7476 -1.9068 2.4076
-5.6850 -2.1144 2.4076
-5.6147 -2.3199 2.4076
-5.5367 -2.5229 2.4076
-5.4512 -2.7231 2.4076
-5.3583 -2.9203 2.4076
-5.2580 -3.1142 2.4076
-5.1505 -3.3044 2.4076
-5.0358 -3.4907 2.4076
-4.9143 -3.6724 2.4076
-4.7858 -3.8504 2.4076
-4.6507 -4.0234 2.4076
-4.5092 -4.1913 2.4076
-4.3613 -4.3539 2.4076
-4.2074 -4.5111 2.4076
-4.0475 -4.6625 2.4076
-3.8820 -4.8079 2.4076
-3.7110 -4.9472 2.4076
-3.5349 -5.0800 2.4076
-3.3538 -5.2062 2.4076
-3.1679 -5.3255 2.4076
-2.9777 -5.4379 2.4076
-2.7833 -5.5430 2.4076
-2.5849 -5.6409 2.4076
-2.3830 -5.7312 2.4076
-2.1779 -5.8139 2.4076
-1.9696 -5.8888 2.4076
-1.7588 -5.9559 2.4076
-1.5455 -6.0149 2.4076
-1.3301 -6.0660 2.4076
-1.1130 -6.1088 2.4076
-0.8945 -6.1435 2.4076
-0.6748 -6.1699 2.4076
-0.4544 -6.1881 2.4076
-0.2335 -6.1979 2.4076
-0.0123 -5.8084 2.4076
0.1945 -5.8022 2.4076
0.4008 -5.7883 2.4076
0.6064 -5.7667 2.4076
0.8110 -5.7375 2.4076
1.0141 -5.7006 2.4076
1.2157 -5.6562 2.4076
1.4153 -5.6044 2.4076
1.6126 -5.5452 2.4076
1.8075 -5.4788 2.4076
1.9996 -5.4052 2.4076
2.1887 -5.3245 2.4076
2.3745 -5.2370 2.4076
2.5567 -5.1428 2.4076
2.7352 -5.0420 2.4076
2.9096 -4.9347 2.4076
3.0193 -4.7266 2.3603
3.0399 -4.4041 2.2552
3.1907 -4.2865 2.2552
3.3368 -4.1637 2.2552
3.4786 -4.0362 2.2554
3.6155 -3.9039 2.2558
3.7474 -3.7668 2.2562
3.8740 -3.6251 2.2565
3.9952 -3.4790 2.2568
4.1107 -3.3288 2.2571
4.2206 -3.1746 2.2575
4.3246 -3.0167 2.2577
4.4226 -2.8554 2.2580
4.5146 -2.6908 2.2583
4.6004 -2.5231 2.2585
4.6799 -2.3527 2.2588
4.7531 -2.1798 2.2590
4.8198 -2.0046 2.2592
4.8801 -1.8273 2.2594
4.9338 -1.6482 2.2595
4.9810 -1.4675 2.2597
5.0216 -1.2856 2.2598
5.0555 -1.1026 2.2599
5.0796 -0.9179 2.2586
5.0979 -0.7333 2.2577
5.1119 -0.5489 2.2577
5.1198 -0.3641 2.2580
5.1209 -0.1796 2.2582
5.1154 0.0047 2.2584
5.1035 0.1884 2.2586
5.0850 0.3713 2.2588
5.0602 0.5531 2.2590
5.0290 0.7338 2.2592
4.9915 0.9129 2.2593
4.9490 1.0908 2.2601
4.8985 1.2663 2.2600
4.8419 1.4397 2.2599
4.7793 1.6108 2.2598
4.7015 1.7758 2.2552
4.6277 1.9414 2.2552
4.5483 2.1041 2.2552
4.4633 2.2638 2.2552
4.3729 2.4202 2.2552
4.2772 2.5732 2.2552
4.1764 2.7227 2.2552
4.0706 2.8684 2.2552
3.9598 3.0101 2.2552
3.8443 3.1479 2.2552
3.7242 3.2814 2.2552
3.5997 3.4105 2.2552
3.4709 3.5352 2.2552
3.3379 3.6552 2.2552
3.2797 3.8632 2.3106
3.2671 4.1432 2.4076
3.1129 4.2558 2.4076
2.9551 4.3629 2.4076
2.7937 4.4644 2.4076
2.6291 4.5603 2.4076
2.4612 4.6504 2.4076
2.2904 4.7346 2.4076
0.8660 1.9688 0.9849
0.7942 1.9990 0.9852
0.7214 2.0266 0.9854
0.6476 2.0515 0.9856
0.5730 2.0738 0.9858
0.4976 2.0933 0.9858
0.4215 2.1101 0.9859
0.3449 2.1242 0.9858
0.2678 2.1355 0.9857
0.1904 2.1440 0.9856
0.1127 2.1497 0.9854
0.0348 2.1526 0.9851
-0.0431 2.1527 0.9848
-0.1210 2.1500 0.9844
-0.1987 2.1445 0.9839
-0.2762 2.1362 0.9834
-0.3534 2.1250 0.9829
-0.4300 2.1112 0.9823
-0.5062 2.0945 0.9816
-0.5817 2.0751 0.9809
-0.6564 2.0530 0.9802
-0.7303 2.0283 0.9793
-0.8032 2.0008 0.9785
-0.8751 1.9708 0.9776
-2.3318 4.7781 2.4076
-2.5058 4.6963 2.4076
-2.6770 4.6084 2.4076
-2.8452 4.5146 2.4076
-3.0103 4.4148 2.4076
-3.1720 4.3091 2.4076
-3.3301 4.1978 2.4076
-3.4843 4.0809 2.4076
-3.6346 3.9585 2.4076
-3.7807 3.8307 2.4076
-3.9224 3.6977 2.4076
-4.0595 3.5597 2.4076
-4.1920 3.4167 2.4076
-4.3194 3.2689 2.4076
-4.4417 3.1165 2.4076
-4.5587 2.9597 2.4076
-4.6703 2.7986 2.4076
-4.7763 2.6334 2.4076
-4.8765 2.4643 2.4076
-4.9708 2.2914 2.4076
-5.0590 2.1151 2.4076
-5.1410 1.9355 2.4076
-5.2166 1.7528 2.4076
-5.2858 1.5672 2.4076
-5.3484 1.3790 2.4076
-5.4043 1.1883 2.4076
-5.4534 0.9955 2.4076
-5.4956 0.8007 2.4076
-5.5309 0.6043 2.4076
-5.5590 0.4064 2.4076
-5.5801 0.2073 2.4076
-5.5940 0.0073 2.4076
-5.6006 -0.1934 2.4076
-5.5999 -0.3945 2.4076
-5.5919 -0.5957 2.4076
-5.5766 -0.7968 2.4076
-5.5540 -0.9975 2.4076
-5.5240 -1.1975 2.4076
-5.4866 -1.3966 2.4076
-5.4420 -1.5944 2.4076
-5.3900 -1.7907 2.4076
-5.3308 -1.9852 2.4076
-5.2645 -2.1777 2.4076
-5.1910 -2.3678 2.4076
-5.1104 -2.5553 2.4076
-5.0229 -2.7399 2.4076
-4.9285 -2.9214 2.4076
-4.8274 -3.0994 2.4076
-4.7196 -3.2738 2.4076
-4.6053 -3.4442 2.4076
-4.4847 -3.6104 2.4076
-4.3579 -3.7722 2.4076
-4.2250 -3.9293 2.4076
-4.0863 -4.0814 2.4076
-3.9418 -4.2284 2.4076
-3.7919 -4.3700 2.4076
-3.6367 -4.5061 2.4076
-3.4764 -4.6363 2.4076
-3.3113 -4.7605 2.4076
-3.1416 -4.8785 2.4076
-2.9674 -4.9901 2.4076
-2.7892 -5.0951 2.4076
-2.6070 -5.1935 2.4076
-2.4213 -5.2850 2.4076
-2.2322 -5.3695 2.4076
-2.0400 -5.4468 2.4076
-1.8450 -5.5170 2.4076
-1.6475 -5.5797 2.4076
-1.4478 -5.6350 2.4076
-1.2462 -5.6828 2.4076
-1.0429 -5.7230 2.4076
-0.8383 -5.7555 2.4076
-0.6326 -5.7803 2.4076
-0.4262 -5.7974 2.4076
-0.2194 -5.8068 2.4076
-0.0124 -5.8084 2.4076
0.1944 -5.8022 2.4076
0.4008 -5.7883 2.4076
0.6064 -5.7667 2.4076
0.8109 -5.7375 2.4076
1.0141 -5.7006 2.4076
1.2156 -5.6562 2.4076
1.4152 -5.6044 2.4076
1.6126 -5.5452 2.4076
1.8075 -5.4788 2.4076
1.9996 -5.4052 2.4076
2.1887 -5.3246 2.4076
2.3745 -5.2371 2.4076
2.5567 -5.1428 2.4076
2.7351 -5.0420 2.4076
2.9095 -4.9347 2.4076
3.0193 -4.7266 2.3603
3.0399 -4.4039 2.2552
3.1906 -4.2865 2.2552
3.3368 -4.1637 2.2552
3.4785 -4.0362 2.2554
3.6155 -3.9039 2.2558
3.7474 -3.7668 2.2562
3.8740 -3.6251 2.2565
3.9951 -3.4790 2.2568
4.1107 -3.3288 2.2571
4.2206 -3.1746 2.2575
4.3246 -3.0168 2.2577
4.4226 -2.8554 2.2580
4.5146 -2.6908 2.2583
4.6003 -2.5232 2.2585
4.6799 -2.3528 2.2588
4.7530 -2.1798 2.2590
4.8198 -2.0046 2.2592
4.8801 -1.8273 2.2594
4.9338 -1.6482 2.2595
4.9810 -1.4676 2.2597
5.0216 -1.2856 2.2598
5.0555 -1.1027 2.2599
5.0796 -0.9180 2.2586
5.0979 -0.7335 2.2577
5.1119 -0.5488 2.2577
5.1198 -0.3642 2.2580
5.1209 -0.1796 2.2582
5.1154 0.0047 2.2584
5.1035 0.1883 2.2586
5.0850 0.3712 2.2588
5.0602 0.5531 2.2590
5.0290 0.7338 2.2592
4.9915 0.9130 2.2593
4.9490 1.0907 2.2601
4.8985 1.2663 2.2600
4.8419 1.4397 2.2599
4.7793 1.6107 2.2598
4.7015 1.7758 2.2552
4.6277 1.9414 2.2552
4.5483 2.1041 2.2552
4.4633 2.2638 2.2552
4.3729 2.4202 2.2552
4.2773 2.5732 2.2552
4.1764 2.7227 2.2552
4.0706 2.8683 2.2552
3.9598 3.0101 2.2552
3.8444 3.1478 2.2552
3.7243 3.2813 2.2552
3.5997 3.4105 2.2552
3.4709 3.5352 2.2552
3.3380 3.6552 2.2552
3.2797 3.8631 2.3105
3.2671 4.1432 2.4076
3.1130 4.2557 2.4076
2.9551 4.3629 2.4076
2.7938 4.4644 2.4076
2.6291 4.5603 2.4076
2.4613 4.6504 2.4076
2.2905 4.7346 2.4076
0.8660 1.9688 0.9849
0.7942 1.9990 0.9852
0.7214 2.0266 0.9854
0.6476 2.0515 0.9856
0.5730 2.0738 0.9858
0.4976 2.0933 0.9858
0.4215 2.1101 0.9859
0.3449 2.1242 0.9858
0.2678 2.1355 0.9857
0.1904 2.1440 0.9856
0.1127 2.1497 0.9854
0.0348 2.1526 0.9851
-0.0431 2.1527 0.9848
-0.1210 2.1500 0.9844
-0.1987 2.1445 0.9839
-0.2762 2.1362 0.9834
-0.3533 2.1251 0.9829
-0.4300 2.1112 0.9823
-0.5062 2.0945 0.9816
-0.5816 2.0751 0.9809
-0.6564 2.0530 0.9802
-0.7303 2.0283 0.9793
-0.8032 2.0009 0.9785
-0.8751 1.9708 0.9776
-2.3317 4.7781 2.4076
-2.5057 4.6963 2.4076
-2.6770 4.6085 2.4076
-2.8452 4.5146 2.4076
-3.0103 4.4148 2.4076
-3.1720 4.3091 2.4076
-3.3300 4.1978 2.4076
-3.4843 4.0809 2.4076
-3.6346 3.9585 2.4076
-3.7807 3.8307 2.4076
-3.9224 3.6977 2.4076
-4.0595 3.5597 2.4076
-4.1919 3.4167 2.4076
-4.3194 3.2689 2.4076
-4.4417 3.1165 2.4076
-4.5587 2.9597 2.4076
-4.6703 2.7986 2.4076
-4.7763 2.6334 2.4076
-4.8765 2.4643 2.4076
-4.9707 2.2915 2.4076
-5.0589 2.1151 2.4076
-5.1409 1.9355 2.4076
-5.2166 1.7528 2.4076
-5.2858 1.5672 2.4076
-5.3484 1.3790 2.4076
-5.4043 1.1883 2.4076
-5.4534 0.9955 2.4076
-5.4956 0.8008 2.4076
-5.5309 0.6043 2.4076
-5.5590 0.4064 2.4076
-5.5801 0.2073 2.4076
-5.5940 0.0073 2.4076
-5.6006 -0.1934 2.4076
-5.5999 -0.3945 2.4076
-5.5919 -0.5957 2.4076
-5.5766 -0.7968 2.4076
-5.5540 -0.9975 2.4076
-5.5240 -1.1975 2.4076
-5.4866 -1.3965 2.4076
-5.4420 -1.5943 2.4076
-5.3900 -1.7907 2.4076
-5.3308 -1.9852 2.4076
-5.2645 -2.1776 2.4076
-5.1910 -2.3677 2.4076
-5.1104 -2.5553 2.4076
-5.0229 -2.7399 2.4076
-4.9285 -2.9213 2.4076
-4.8274 -3.0994 2.4076
-4.7196 -3.2738 2.4076
-4.6054 -3.4442 2.4076
-4.4847 -3.6104 2.4076
-4.3579 -3.7722 2.4076
-4.2250 -3.9292 2.4076
-4.0863 -4.0814 2.4076
-3.9419 -4.2284 2.4076
-3.7919 -4.3700 2.4076
-3.6367 -4.5060 2.4076
-3.4765 -4.6362 2.4076
-3.3113 -4.7604 2.4076
-3.1416 -4.8784 2.4076
-2.9675 -4.9901 2.4076
-2.7892 -5.0951 2.4076
-2.6071 -5.1935 2.4076
-2.4213 -5.2850 2.4076
-2.2322 -5.3695 2.4076
-2.0400 -5.4468 2.4076
-1.8451 -5.5170 2.4076
-1.6476 -5.5797 2.4076
-1.4479 -5.6350 2.4076
-1.2462 -5.6828 2.4076
-1.0429 -5.7230 2.4076
-0.8383 -5.7555 2.4076
-0.6326 -5.7803 2.4076
-0.4262 -5.7974 2.4076
-0.2194 -5.8068 2.4076
-0.0123 -5.4576 2.4076
0.1820 -5.4519 2.4076
0.3758 -5.4390 2.4076
0.5689 -5.4189 2.4076
0.7610 -5.3917 2.4076
0.9519 -5.3572 2.4076
1.1412 -5.3158 2.4076
1.3288 -5.2673 2.4076
1.5143 -5.2120 2.4076
1.6974 -5.1498 2.4076
1.8780 -5.0809 2.4076
2.0558 -5.0055 2.4076
2.2305 -4.9235 2.4076
2.4019 -4.8353 2.4076
2.5697 -4.7409 2.4076
2.7338 -4.6404 2.4076
2.8939 -4.5340 2.4076
3.0020 -4.3526 2.3698
3.0126 -4.0505 2.2657
3.1363 -3.9166 2.2552
3.2694 -3.7967 2.2552
3.3981 -3.6722 2.2553
3.5223 -3.5436 2.2556
3.6416 -3.4106 2.2560
3.7558 -3.2735 2.2563
3.8647 -3.1325 2.2566
3.9683 -2.9878 2.2569
4.0664 -2.8395 2.2571
4.1590 -2.6880 2.2574
4.2458 -2.5334 2.2576
4.3269 -2.3759 2.2579
4.4020 -2.2158 2.2581
4.4712 -2.0532 2.2583
4.5344 -1.8885 2.2585
4.5915 -1.7219 2.2587
4.6425 -1.5535 2.2588
4.6873 -1.3836 2.2590
4.7259 -1.2124 2.2591
4.7583 -1.0402 2.2592
4.7844 -0.8672 2.2593
4.8043 -0.6936 2.2594
4.8179 -0.5197 2.2595
4.8252 -0.3456 2.2595
4.8263 -0.1716 2.2595
4.8213 0.0021 2.2596
4.8100 0.1752 2.2596
4.7926 0.3476 2.2596
4.7691 0.5190 2.2595
4.7396 0.6893 2.2595
4.7041 0.8582 2.2594
4.6627 1.0255 2.2594
4.6155 1.1910 2.2593
4.5625 1.3545 2.2592
4.5039 1.5158 2.2591
4.4397 1.6748 2.2589
4.3630 1.8283 2.2552
4.2884 1.9819 2.2552
4.2085 2.1326 2.2552
4.1235 2.2802 2.2552
4.0336 2.4247 2.2552
3.9387 2.5658 2.2552
3.8390 2.7033 2.2552
3.7348 2.8372 2.2552
3.6260 2.9673 2.2552
3.5129 3.0934 2.2552
3.3956 3.2154 2.2552
3.2742 3.3332 2.2552
3.1489 3.4466 2.2552
3.2239 3.7957 2.4076
3.0822 3.9071 2.4076
2.9368 4.0134 2.4076
2.7880 4.1146 2.4076
2.6358 4.2106 2.4076
2.4804 4.3011 2.4076
2.3221 4.3862 2.4076
0.8814 1.8215 0.9820
0.8149 1.8523 0.9823
0.7473 1.8807 0.9826
0.6788 1.9066 0.9828
0.6093 1.9300 0.9830
0.5391 1.9510 0.9831
0.4681 1.9694 0.9832
0.3965 1.9852 0.9832
0.3244 1.9984 0.9832
0.2518 2.0091 0.9831
0.1789 2.0171 0.9830
0.1058 2.0224 0.9828
0.0325 2.0252 0.9825
-0.0409 2.0252 0.9822
-0.1142 2.0227 0.9818
-0.1873 2.0175 0.9814
-0.2603 2.0096 0.9810
-0.3329 1.9992 0.9804
-0.4050 1.9861 0.9799
-0.4767 1.9704 0.9792
-0.5477 1.9522 0.9786
-0.6181 1.9314 0.9779
-0.6876 1.9081 0.9771
-0.7563 1.8823 0.9763
-0.8239 1.8540 0.9754
-0.8906 1.8233 0.9745
-2.3641 4.4272 2.4076
-2.5255 4.3440 2.4076
-2.6840 4.2552 2.4076
-2.8395 4.1608 2.4076
-2.9918 4.0610 2.4076
-3.1406 3.9557 2.4076
-3.2858 3.8452 2.4076
-3.4273 3.7295 2.4076
-3.5648 3.6088 2.4076
-3.6981 3.4832 2.4076
-3.8271 3.3528 2.4076
-3.9516 3.2177 2.4076
-4.0714 3.0782 2.4076
-4.1863 2.9343 2.4076
-4.2962 2.7863 2.4076
-4.4010 2.6343 2.4076
-4.5005 2.4784 2.4076
-4.5945 2.3189 2.4076
-4.6829 2.1559 2.4076
-4.7656 1.9896 2.4076
-4.8424 1.8203 2.4076
-4.9132 1.6481 2.4076
-4.9779 1.4732 2.4076
-5.0364 1.2958 2.4076
-5.0886 1.1162 2.4076
-5.1343 0.9346 2.4076
-5.1736 0.7512 2.4076
-5.2063 0.5662 2.4076
-5.2324 0.3799 2.4076
-5.2517 0.1925 2.4076
-5.2643 0.0043 2.4076
-5.2701 -0.1845 2.4076
-5.2690 -0.3737 2.4076
-5.2610 -0.5630 2.4076
-5.2461 -0.7521 2.4076
-5.2244 -0.9408 2.4076
-5.1957 -1.1288 2.4076
-5.1602 -1.3159 2.4076
-5.1178 -1.5018 2.4076
-5.0685 -1.6863 2.4076
-5.0125 -1.8690 2.4076
-4.9497 -2.0498 2.4076
-4.8802 -2.2284 2.4076
-4.8042 -2.4044 2.4076
-4.7216 -2.5778 2.4076
-4.6326 -2.7482 2.4076
-4.5372 -2.9153 2.4076
-4.4357 -3.0790 2.4076
-4.3280 -3.2389 2.4076
-4.2144 -3.3949 2.4076
-4.0950 -3.5467 2.4076
-3.9700 -3.6941 2.4076
-3.8394 -3.8368 2.4076
-3.7036 -3.9747 2.4076
-3.5626 -4.1076 2.4076
-3.4166 -4.2352 2.4076
-3.2660 -4.3573 2.4076
-3.1107 -4.4738 2.4076
-2.9512 -4.5845 2.4076
-2.7876 -4.6892 2.4076
-2.6201 -4.7877 2.4076
-2.4490 -4.8800 2.4076
-2.2745 -4.9658 2.4076
-2.0969 -5.0451 2.4076
-1.9164 -5.1177 2.4076
-1.7333 -5.1835 2.4076
-1.5479 -5.2424 2.4076
-1.3603 -5.2943 2.4076
-1.1709 -5.3392 2.4076
-0.9801 -5.3770 2.4076
-0.7879 -5.4076 2.4076
-0.5948 -5.4309 2.4076
-0.4009 -5.4471 2.4076
-0.2067 -5.4560 2.4076
-0.0123 -5.4576 2.4076
0.1819 -5.4519 2.4076
0.3757 -5.4390 2.4076
0.5689 -5.4189 2.4076
0.7610 -5.3917 2.4076
0.9519 -5.3573 2.4076
1.1412 -5.3158 2.4076
1.3288 -5.2673 2.4076
1.5142 -5.2120 2.4076
1.6974 -5.1498 2.4076
1.8780 -5.0810 2.4076
2.0558 -5.0055 2.4076
2.2305 -4.9236 2.4076
2.4018 -4.8353 2.4076
2.5697 -4.7409 2.4076
2.7338 -4.6404 2.4076
2.8939 -4.5340 2.4076
3.0020 -4.3527 2.3698
3.0126 -4.0507 2.2657
3.1362 -3.9167 2.2552
3.2694 -3.7967 2.2552
3.3981 -3.6722 2.2553
3.5223 -3.5436 2.2556
3.6415 -3.4106 2.2560
3.7557 -3.2735 2.2563
3.8647 -3.1325 2.2566
3.9683 -2.9878 2.2569
4.0664 -2.8395 2.2571
4.1590 -2.6880 2.2574
4.2458 -2.5334 2.2576
4.3268 -2.3759 2.2579
4.4020 -2.2158 2.2581
4.4712 -2.0533 2.2583
4.5344 -1.8886 2.2585
4.5915 -1.7219 2.2587
4.6425 -1.5535 2.2588
4.6873 -1.3836 2.2590
4.7259 -1.2125 2.2591
4.7583 -1.0403 2.2592
4.7844 -0.8673 2.2593
4.8043 -0.6937 2.2594
4.8179 -0.5197 2.2595
4.8252 -0.3456 2.2595
4.8263 -0.1716 2.2595
4.8213 0.0020 2.2596
4.8100 0.1752 2.2596
4.7926 0.3476 2.2596
4.7691 0.5190 2.2595
4.7396 0.6893 2.2595
4.7041 0.8581 2.2594
4.6627 1.0254 2.2594
4.6155 1.1909 2.2593
4.5625 1.3545 2.2592
4.5039 1.5158 2.2591
4.4397 1.6748 2.2589
4.3630 1.8283 2.2552
4.2884 1.9818 2.2552
4.2085 2.1325 2.2552
4.1236 2.2802 2.2552
4.0336 2.4247 2.2552
3.9387 2.5658 2.2552
3.8391 2.7033 2.2552
3.7348 2.8372 2.2552
3.6260 2.9673 2.2552
3.5129 3.0934 2.2552
3.3956 3.2154 2.2552
3.2742 3.3331 2.2552
3.1489 3.4465 2.2552
3.2239 3.7957 2.4076
3.0822 3.9071 2.4076
2.9369 4.0134 2.4076
2.7880 4.1146 2.4076
2.6358 4.2105 2.4076
2.4805 4.3011 2.4076
2.3221 4.3862 2.4076
0.8814 1.8215 0.9820
0.8149 1.8523 0.9823
0.7473 1.8806 0.9826
0.6788 1.9066 0.9828
0.6093 1.9300 0.9830
0.5391 1.9510 0.9831
0.4681 1.9694 0.9832
0.3965 1.9852 0.9832
0.3244 1.9984 0.9832
0.2518 2.0091 0.9831
0.1789 2.0171 0.9830
0.1058 2.0224 0.9828
0.0325 2.0252 0.9825
-0.0408 2.0252 0.9822
-0.1142 2.0227 0.9818
-0.1873 2.0175 0.9814
-0.2602 2.0096 0.9810
-0.3328 1.9992 0.9804
-0.4050 1.9861 0.9799
-0.4767 1.9704 0.9792
-0.5477 1.9522 0.9786
-0.6181 1.9314 0.9779
-0.6876 1.9081 0.9771
-0.7563 1.8823 0.9763
-0.8239 1.8540 0.9754
-0.8905 1.8233 0.9745
-2.3641 4.4272 2.4076
-2.5254 4.3440 2.4076
-2.6840 4.2552 2.4076
-2.8395 4.1609 2.4076
-2.9918 4.0610 2.4076
-3.1406 3.9557 2.4076
-3.2858 3.8452 2.4076
-3.4273 3.7295 2.4076
-3.5648 3.6088 2.4076
-3.6981 3.4832 2.4076
-3.8271 3.3528 2.4076
-3.9515 3.2178 2.4076
-4.0713 3.0782 2.4076
-4.1863 2.9344 2.4076
-4.2962 2.7863 2.4076
-4.4010 2.6343 2.4076
-4.5005 2.4784 2.4076
-4.5945 2.3189 2.4076
-4.6829 2.1559 2.4076
-4.7655 1.9897 2.4076
-4.8424 1.8203 2.4076
-4.9132 1.6481 2.4076
-4.9779 1.4732 2.4076
-5.0364 1.2958 2.4076
-5.0886 1.1162 2.4076
-5.1343 0.9346 2.4076
-5.1736 0.7512 2.4076
-5.2063 0.5662 2.4076
-5.2324 0.3799 2.4076
-5.2517 0.1925 2.4076
-5.2643 0.0043 2.4076
-5.2701 -0.1845 2.4076
-5.2690 -0.3737 2.4076
-5.2610 -0.5629 2.4076
-5.2462 -0.7521 2.4076
-5.2244 -0.9407 2.4076
-5.1957 -1.1288 2.4076
-5.1602 -1.3159 2.4076
-5.1178 -1.5018 2.4076
-5.0685 -1.6862 2.4076
-5.0125 -1.8690 2.4076
-4.9497 -2.0498 2.4076
-4.8803 -2.2283 2.4076
-4.8042 -2.4044 2.4076
-4.7216 -2.5778 2.4076
-4.6326 -2.7481 2.4076
-4.5372 -2.9153 2.4076
-4.4357 -3.0789 2.4076
-4.3280 -3.2389 2.4076
-4.2144 -3.3949 2.4076
-4.0950 -3.5467 2.4076
-3.9700 -3.6941 2.4076
-3.8394 -3.8368 2.4076
-3.7036 -3.9747 2.4076
-3.5626 -4.1076 2.4076
-3.4167 -4.2352 2.4076
-3.2660 -4.3573 2.4076
-3.1108 -4.4738 2.4076
-2.9513 -4.5845 2.4076
-2.7877 -4.6892 2.4076
-2.6202 -4.7877 2.4076
-2.4491 -4.8800 2.4076
-2.2746 -4.9658 2.4076
-2.0969 -5.0451 2.4076
-1.9165 -5.1177 2.4076
-1.7333 -5.1835 2.4076
-1.5479 -5.2424 2.4076
-1.3603 -5.2943 2.4076
-1.1710 -5.3392 2.4076
-0.9801 -5.3770 2.4076
-0.7879 -5.4075 2.4076
-0.5948 -5.4309 2.4076
-0.4010 -5.4471 2.4076
-0.2067 -5.4560 2.4076
-0.0122 -5.1409 2.4076
0.1707 -5.1357 2.4076
0.3532 -5.1237 2.4076
0.5350 -5.1049 2.4076
0.7159 -5.0794 2.4076
0.8957 -5.0471 2.4076
1.0740 -5.0083 2.4076
1.2507 -4.9629 2.4076
1.4254 -4.9109 2.4076
1.5980 -4.8526 2.4076
1.7682 -4.7880 2.4076
1.9357 -4.7172 2.4076
2.1003 -4.6402 2.4076
2.2619 -4.5574 2.4076
2.4202 -4.4686 2.4076
2.5749 -4.3742 2.4076
2.7259 -4.2743 2.4076
2.8730 -4.1690 2.4076
2.9856 -4.0176 2.3834
2.9926 -3.7403 2.2839
3.0805 -3.5804 2.2552
3.2019 -3.4631 2.2552
3.3187 -3.3417 2.2552
3.4313 -3.2166 2.2555
3.5391 -3.0876 2.2558
3.6421 -2.9549 2.2560
3.7400 -2.8186 2.2563
3.8328 -2.6791 2.2566
3.9203 -2.5364 2.2568
4.0024 -2.3908 2.2571
4.0792 -2.2425 2.2573
4.1503 -2.0917 2.2575
4.2159 -1.9386 2.2577
4.2759 -1.7834 2.2579
4.3301 -1.6263 2.2580
4.3785 -1.4676 2.2582
4.4211 -1.3075 2.2583
4.4579 -1.1461 2.2584
4.4887 -0.9837 2.2585
4.5137 -0.8206 2.2586
4.5328 -0.6568 2.2587
4.5460 -0.4927 2.2588
4.5533 -0.3285 2.2588
4.5547 -0.1643 2.2589
4.5503 -0.0003 2.2589
4.5400 0.1631 2.2589
4.5239 0.3259 2.2589
4.5021 0.4878 2.2589
4.4746 0.6486 2.2588
4.4414 0.8081 2.2588
4.4026 0.9661 2.2587
4.3584 1.1225 2.2586
4.3086 1.2770 2.2585
4.2535 1.4295 2.2584
4.1932 1.5798 2.2583
4.1222 1.7254 2.2552
4.0519 1.8706 2.2552
3.9767 2.0131 2.2552
3.8966 2.1528 2.2552
3.8117 2.2895 2.2552
3.7223 2.4229 2.2552
3.6283 2.5531 2.2552
3.5299 2.6798 2.2552
3.4272 2.8029 2.2552
3.3205 2.9222 2.2552
3.2097 3.0377 2.2552
3.0950 3.1491 2.2552
3.0344 3.3197 2.2989
3.0476 3.5866 2.4076
2.9138 3.6920 2.4076
2.7764 3.7927 2.4076
2.6357 3.8885 2.4076
2.4919 3.9793 2.4076
2.3450 4.0650 2.4076
0.8929 1.6862 0.9793
0.8313 1.7175 0.9796
0.7686 1.7465 0.9800
0.7048 1.7733 0.9802
0.6401 1.7978 0.9805
0.5746 1.8199 0.9806
0.5083 1.8396 0.9808
0.4414 1.8570 0.9808
0.3738 1.8719 0.9808
0.3058 1.8844 0.9808
0.2373 1.8944 0.9807
0.1685 1.9020 0.9806
0.0995 1.9070 0.9804
0.0304 1.9096 0.9802
-0.0388 1.9097 0.9799
-0.1080 1.9072 0.9795
-0.1770 1.9023 0.9791
-0.2458 1.8949 0.9787
-0.3143 1.8851 0.9782
-0.3824 1.8727 0.9777
-0.4500 1.8580 0.9771
-0.5170 1.8407 0.9765
-0.5833 1.8211 0.9758
-0.6489 1.7991 0.9751
-0.7137 1.7748 0.9743
-0.7776 1.7481 0.9735
-0.8404 1.7192 0.9726
-0.9022 1.6880 0.9717
-2.3876 4.1034 2.4076
-2.5373 4.0192 2.4076
-2.6841 3.9298 2.4076
-2.8278 3.8352 2.4076
-2.9683 3.7355 2.4076
-3.1054 3.6308 2.4076
-3.2388 3.5213 2.4076
-3.3685 3.4070 2.4076
-3.4942 3.2881 2.4076
-3.6158 3.1647 2.4076
-3.7331 3.0369 2.4076
-3.8460 2.9049 2.4076
-3.9543 2.7688 2.4076
-4.0578 2.6288 2.4076
-4.1564 2.4851 2.4076
-4.2500 2.3377 2.4076
-4.3384 2.1869 2.4076
-4.4215 2.0329 2.4076
-4.4992 1.8757 2.4076
-4.5713 1.7157 2.4076
-4.6378 1.5530 2.4076
-4.6985 1.3879 2.4076
-4.7533 1.2204 2.4076
-4.8022 1.0508 2.4076
-4.8450 0.8793 2.4076
-4.8816 0.7062 2.4076
-4.9121 0.5317 2.4076
-4.9363 0.3559 2.4076
-4.9541 0.1793 2.4076
-4.9656 0.0016 2.4076
-4.9706 -0.1765 2.4076
-4.9692 -0.3549 2.4076
-4.9613 -0.5333 2.4076
-4.9469 -0.7116 2.4076
-4.9260 -0.8894 2.4076
-4.8986 -1.0666 2.4076
-4.8647 -1.2429 2.4076
-4.8244 -1.4180 2.4076
-4.7776 -1.5918 2.4076
-4.7245 -1.7639 2.4076
-4.6650 -1.9341 2.4076
-4.5992 -2.1023 2.4076
-4.5273 -2.2680 2.4076
-4.4491 -2.4312 2.4076
-4.3650 -2.5916 2.4076
-4.2749 -2.7488 2.4076
-4.1790 -2.9029 2.4076
-4.0774 -3.0534 2.4076
-3.9702 -3.2001 2.4076
-3.8575 -3.3430 2.4076
-3.7395 -3.4816 2.4076
-3.6164 -3.6159 2.4076
-3.4883 -3.7456 2.4076
-3.3554 -3.8705 2.4076
-3.2179 -3.9905 2.4076
-3.0759 -4.1054 2.4076
-2.9297 -4.2150 2.4076
-2.7794 -4.3191 2.4076
-2.6253 -4.4175 2.4076
-2.4675 -4.5102 2.4076
-2.3064 -4.5970 2.4076
-2.1421 -4.6777 2.4076
-1.9748 -4.7523 2.4076
-1.8049 -4.8206 2.4076
-1.6325 -4.8825 2.4076
-1.4579 -4.9379 2.4076
-1.2813 -4.9868 2.4076
-1.1030 -5.0290 2.4076
-0.9233 -5.0646 2.4076
-0.7424 -5.0934 2.4076
-0.5606 -5.1155 2.4076
-0.3781 -5.1308 2.4076
-0.1953 -5.1392 2.4076
-0.0122 -5.1409 2.4076
0.1706 -5.1357 2.4076
0.3531 -5.1237 2.4076
0.5350 -5.1049 2.4076
0.7159 -5.0794 2.4076
0.8957 -5.0471 2.4076
1.0740 -5.0083 2.4076
1.2507 -4.9629 2.4076
1.4254 -4.9110 2.4076
1.5980 -4.8526 2.4076
1.7681 -4.7880 2.4076
1.9357 -4.7172 2.4076
2.1003 -4.6403 2.4076
2.2619 -4.5574 2.4076
2.4201 -4.4687 2.4076
2.5749 -4.3742 2.4076
2.7259 -4.2743 2.4076
2.8729 -4.1690 2.4076
2.9856 -4.0177 2.3834
2.9926 -3.7404 2.2839
3.0805 -3.5804 2.2552
3.2018 -3.4631 2.2552
3.3187 -3.3417 2.2552
3.4313 -3.2166 2.2555
3.5391 -3.0876 2.2558
3.6421 -2.9549 2.2560
3.7400 -2.8187 2.2563
3.8327 -2.6791 2.2566
3.9203 -2.5364 2.2568
4.0024 -2.3908 2.2571
4.0791 -2.2425 2.2573
4.1503 -2.0917 2.2575
4.2159 -1.9386 2.2577
4.2759 -1.7834 2.2579
4.3301 -1.6264 2.2580
4.3785 -1.4677 2.2582
4.4211 -1.3075 2.2583
4.4578 -1.1461 2.2584
4.4887 -0.9838 2.2585
4.5137 -0.8206 2.2586
4.5328 -0.6568 2.2587
4.5460 -0.4927 2.2588
4.5533 -0.3285 2.2588
4.5547 -0.1643 2.2589
4.5503 -0.0004 2.2589
4.5400 0.1631 2.2589
4.5239 0.3259 2.2589
4.5021 0.4878 2.2589
4.4746 0.6485 2.2588
4.4414 0.8081 2.2588
4.4026 0.9661 2.2587
4.3584 1.1225 2.2586
4.3086 1.2770 2.2585
4.2536 1.4295 2.2584
4.1932 1.5798 2.2583
4.1222 1.7253 2.2552
4.0519 1.8706 2.2552
3.9767 2.0131 2.2552
3.8966 2.1528 2.2552
3.8118 2.2894 2.2552
3.7223 2.4229 2.2552
3.6283 2.5531 2.2552
3.5299 2.6798 2.2552
3.4273 2.8028 2.2552
3.3205 2.9222 2.2552
3.2097 3.0377 2.2552
3.0950 3.1491 2.2552
3.0344 3.3196 2.2989
3.0476 3.5866 2.4076
2.9138 3.6920 2.4076
2.7764 3.7926 2.4076
2.6357 3.8884 2.4076
2.4919 3.9792 2.4076
2.3450 4.0650 2.4076
0.8930 1.6862 0.9793
0.8313 1.7175 0.9796
0.7686 1.7465 0.9800
0.7048 1.7733 0.9802
0.6401 1.7978 0.9805
0.5746 1.8199 0.9806
0.5083 1.8396 0.9808
0.4414 1.8570 0.9808
0.3738 1.8719 0.9808
0.3058 1.8844 0.9808
0.2373 1.8944 0.9807
0.1686 1.9020 0.9806
0.0996 1.9070 0.9804
0.0304 1.9096 0.9802
-0.0388 1.9097 0.9799
-0.1079 1.9072 0.9795
-0.1770 1.9023 0.9791
-0.2458 1.8949 0.9787
-0.3143 1.8851 0.9782
-0.3823 1.8727 0.9777
-0.4499 1.8580 0.9771
-0.5170 1.8407 0.9765
-0.5833 1.8211 0.9758
-0.6489 1.7991 0.9751
-0.7137 1.7748 0.9743
-0.7776 1.7481 0.9735
-0.8404 1.7192 0.9726
-0.9021 1.6880 0.9717
-2.3875 4.1034 2.4076
-2.5372 4.0192 2.4076
-2.6841 3.9298 2.4076
-2.8278 3.8352 2.4076
-2.9683 3.7355 2.4076
-3.1053 3.6308 2.4076
-3.2388 3.5213 2.4076
-3.3685 3.4070 2.4076
-3.4941 3.2881 2.4076
-3.6158 3.1647 2.4076
-3.7331 3.0369 2.4076
-3.8459 2.9049 2.4076
-3.9542 2.7688 2.4076
-4.0577 2.6288 2.4076
-4.1564 2.4851 2.4076
-4.2500 2.3377 2.4076
-4.3384 2.1869 2.4076
-4.4215 2.0329 2.4076
-4.4992 1.8758 2.4076
-4.5713 1.7158 2.4076
-4.6378 1.5531 2.4076
-4.6985 1.3879 2.4076
-4.7533 1.2204 2.4076
-4.8022 1.0508 2.4076
-4.8450 0.8794 2.4076
-4.8816 0.7063 2.4076
-4.9121 0.5317 2.4076
-4.9363 0.3559 2.4076
-4.9541 0.1793 2.4076
-4.9656 0.0016 2.4076
-4.9706 -0.1765 2.4076
-4.9692 -0.3548 2.4076
-4.9613 -0.5333 2.4076
-4.9469 -0.7115 2.4076
-4.9260 -0.8894 2.4076
-4.8986 -1.0666 2.4076
-4.8647 -1.2429 2.4076
-4.8244 -1.4180 2.4076
-4.7776 -1.5917 2.4076
-4.7245 -1.7639 2.4076
-4.6650 -1.9341 2.4076
-4.5992 -2.1022 2.4076
-4.5273 -2.2680 2.4076
-4.4492 -2.4312 2.4076
-4.3650 -2.5915 2.4076
-4.2749 -2.7488 2.4076
-4.1790 -2.9029 2.4076
-4.0774 -3.0534 2.4076
-3.9702 -3.2001 2.4076
-3.8575 -3.3429 2.4076
-3.7396 -3.4816 2.4076
-3.6165 -3.6159 2.4076
-3.4884 -3.7456 2.4076
-3.3555 -3.8705 2.4076
-3.2179 -3.9905 2.4076
-3.0759 -4.1054 2.4076
-2.9297 -4.2149 2.4076
-2.7794 -4.3190 2.4076
-2.6253 -4.4175 2.4076
-2.4675 -4.5102 2.4076
-2.3064 -4.5970 2.4076
-2.1421 -4.6777 2.4076
-1.9748 -4.7523 2.4076
-1.8049 -4.8205 2.4076
-1.6325 -4.8825 2.4076
-1.4579 -4.9379 2.4076
-1.2813 -4.9868 2.4076
-1.1031 -5.0290 2.4076
-0.9233 -5.0646 2.4076
-0.7425 -5.0934 2.4076
-0.5606 -5.1155 2.4076
-0.3782 -5.1308 2.4076
-0.1953 -5.1392 2.4076
-0.0122 -4.8532 2.4076
0.1604 -4.8484 2.4076
0.3326 -4.8372 2.4076
0.5042 -4.8196 2.4076
0.6750 -4.7957 2.4076
0.8446 -4.7654 2.4076
1.0129 -4.7289 2.4076
1.1797 -4.6862 2.4076
1.3447 -4.6374 2.4076
1.5076 -4.5825 2.4076
1.6683 -4.5217 2.4076
1.8265 -4.4551 2.4076
1.9820 -4.3827 2.4076
2.1347 -4.3046 2.4076
2.2842 -4.2211 2.4076
2.4304 -4.1322 2.4076
2.5731 -4.0381 2.4076
2.7121 -3.9389 2.4076
2.8473 -3.8347 2.4076
2.9699 -3.7152 2.4007
2.9766 -3.4626 2.3078
3.0235 -3.2731 2.2552
3.1368 -3.1614 2.2572
3.2402 -3.0402 2.2552
3.3420 -2.9184 2.2553
3.4394 -2.7932 2.2556
3.5322 -2.6647 2.2558
3.6200 -2.5330 2.2561
3.7029 -2.3984 2.2563
3.7808 -2.2610 2.2565
3.8536 -2.1210 2.2567
3.9211 -1.9787 2.2569
3.9833 -1.8341 2.2571
4.0403 -1.6876 2.2573
4.0918 -1.5393 2.2574
4.1378 -1.3894 2.2576
4.1784 -1.2381 2.2577
4.2134 -1.0856 2.2578
4.2429 -0.9322 2.2579
4.2669 -0.7780 2.2580
4.2852 -0.6232 2.2581
4.2980 -0.4681 2.2582
4.3052 -0.3128 2.2582
4.3069 -0.1575 2.2582
4.3030 -0.0025 2.2583
4.2936 0.1521 2.2583
4.2787 0.3061 2.2583
4.2583 0.4592 2.2582
4.2326 0.6114 2.2582
4.2014 0.7624 2.2582
4.1651 0.9119 2.2581
4.1234 1.0600 2.2580
4.0766 1.2063 2.2579
4.0248 1.3506 2.2578
3.9679 1.4929 2.2577
3.9061 1.6330 2.2576
3.8356 1.7688 2.2552
3.7646 1.9039 2.2552
3.6889 2.0362 2.2552
3.6088 2.1657 2.2552
3.5242 2.2922 2.2552
3.4354 2.4156 2.2552
3.3424 2.5357 2.2552
3.2453 2.6524 2.2552
3.1443 2.7655 2.2552
3.0395 2.8750 2.2552
2.9410 2.9908 2.2628
3.0005 3.2810 2.4004
2.8862 3.3951 2.4076
2.7595 3.4950 2.4076
2.6295 3.5905 2.4076
2.4963 3.6813 2.4076
2.3600 3.7674 2.4076
0.9011 1.5615 0.9768
0.8439 1.5931 0.9772
0.7856 1.6227 0.9775
0.7263 1.6502 0.9778
0.6660 1.6755 0.9781
0.6049 1.6986 0.9783
0.5429 1.7195 0.9785
0.4803 1.7381 0.9786
0.4170 1.7545 0.9786
0.3531 1.7686 0.9787
0.2888 1.7804 0.9786
0.2241 1.7899 0.9785
0.1591 1.7970 0.9784
0.0939 1.8018 0.9782
0.0285 1.8042 0.9780
-0.0369 1.8043 0.9777
-0.1023 1.8020 0.9774
-0.1675 1.7973 0.9770
-0.2326 1.7904 0.9766
-0.2973 1.7810 0.9762
-0.3617 1.7694 0.9757
-0.4256 1.7554 0.9751
-0.4889 1.7391 0.9745
-0.5517 1.7206 0.9739
-0.6137 1.6998 0.9732
-0.6749 1.6768 0.9725
-0.7353 1.6516 0.9717
-0.7947 1.6242 0.9709
-0.8531 1.5947 0.9701
-0.9103 1.5632 0.9692
-2.4030 3.8033 2.4076
-2.5419 3.7184 2.4076
-2.6778 3.6286 2.4076
-2.8107 3.5341 2.4076
-2.9403 3.4348 2.4076
-3.0664 3.3309 2.4076
-3.1889 3.2225 2.4076
-3.3078 3.1098 2.4076
-3.4226 2.9928 2.4076
-3.5334 2.8716 2.4076
-3.6400 2.7465 2.4076
-3.7422 2.6176 2.4076
-3.8399 2.4850 2.4076
-3.9330 2.3488 2.4076
-4.0212 2.2092 2.4076
-4.1045 2.0664 2.4076
-4.1829 1.9205 2.4076
-4.2561 1.7718 2.4076
-4.3240 1.6203 2.4076
-4.3865 1.4663 2.4076
-4.4436 1.3100 2.4076
-4.4951 1.1515 2.4076
-4.5410 0.9911 2.4076
-4.5811 0.8290 2.4076
-4.6154 0.6652 2.4076
-4.6439 0.5002 2.4076
-4.6664 0.3340 2.4076
-4.6829 0.1669 2.4076
-4.6934 -0.0009 2.4076
-4.6978 -0.1692 2.4076
-4.6961 -0.3377 2.4076
-4.6883 -0.5063 2.4076
-4.6744 -0.6747 2.4076
-4.6543 -0.8426 2.4076
-4.6281 -1.0100 2.4076
-4.5958 -1.1764 2.4076
-4.5574 -1.3418 2.4076
-4.5129 -1.5058 2.4076
-4.4624 -1.6682 2.4076
-4.4060 -1.8289 2.4076
-4.3436 -1.9875 2.4076
-4.2754 -2.1440 2.4076
-4.2014 -2.2979 2.4076
-4.1217 -2.4492 2.4076
-4.0364 -2.5975 2.4076
-3.9457 -2.7428 2.4076
-3.8496 -2.8847 2.4076
-3.7481 -3.0232 2.4076
-3.6417 -3.1578 2.4076
-3.5302 -3.2885 2.4076
-3.4138 -3.4151 2.4076
-3.2928 -3.5374 2.4076
-3.1673 -3.6551 2.4076
-3.0373 -3.7683 2.4076
-2.9032 -3.8766 2.4076
-2.7652 -3.9798 2.4076
-2.6233 -4.0780 2.4076
-2.4778 -4.1708 2.4076
-2.3289 -4.2581 2.4076
-2.1768 -4.3399 2.4076
-2.0217 -4.4160 2.4076
-1.8639 -4.4863 2.4076
-1.7035 -4.5507 2.4076
-1.5409 -4.6091 2.4076
-1.3761 -4.6614 2.4076
-1.2095 -4.7075 2.4076
-1.0413 -4.7474 2.4076
-0.8718 -4.7810 2.4076
-0.7011 -4.8082 2.4076
-0.5296 -4.8291 2.4076
-0.3574 -4.8435 2.4076
-0.1849 -4.8516 2.4076
-0.0122 -4.8532 2.4076
0.1604 -4.8484 2.4076
0.3326 -4.8372 2.4076
0.5042 -4.8196 2.4076
0.6749 -4.7957 2.4076
0.8446 -4.7654 2.4076
1.0129 -4.7289 2.4076
1.1797 -4.6862 2.4076
1.3447 -4.6374 2.4076
1.5076 -4.5826 2.4076
1.6683 -4.5217 2.4076
1.8265 -4.4551 2.4076
1.9820 -4.3827 2.4076
2.1346 -4.3047 2.4076
2.2842 -4.2212 2.4076
2.4304 -4.1323 2.4076
2.5731 -4.0381 2.4076
2.7121 -3.9389 2.4076
2.8472 -3.8347 2.4076
2.9699 -3.7152 2.4007
2.9766 -3.4626 2.3078
3.0234 -3.2730 2.2552
3.1368 -3.1614 2.2572
3.2401 -3.0402 2.2552
3.3420 -2.9184 2.2553
3.4394 -2.7932 2.2556
3.5321 -2.6647 2.2558
3.6200 -2.5331 2.2561
3.7029 -2.3984 2.2563
3.7808 -2.2610 2.2565
3.8535 -2.1211 2.2567
3.9211 -1.9787 2.2569
3.9833 -1.8342 2.2571
4.0402 -1.6876 2.2573
4.0918 -1.5393 2.2574
4.1378 -1.3894 2.2576
4.1784 -1.2381 2.2577
4.2134 -1.0857 2.2578
4.2429 -0.9322 2.2579
4.2669 -0.7780 2.2580
4.2852 -0.6233 2.2581
4.2980 -0.4681 2.2582
4.3052 -0.3128 2.2582
4.3069 -0.1576 2.2582
4.3030 -0.0025 2.2583
4.2936 0.1521 2.2583
4.2787 0.3060 2.2583
4.2583 0.4592 2.2582
4.2326 0.6114 2.2582
4.2015 0.7623 2.2582
4.1651 0.9119 2.2581
4.1234 1.0599 2.2580
4.0766 1.2062 2.2579
4.0248 1.3506 2.2578
3.9679 1.4929 2.2577
3.9061 1.6330 2.2576
3.8356 1.7688 2.2552
3.7646 1.9039 2.2552
3.6890 2.0362 2.2552
3.6088 2.1657 2.2552
3.5243 2.2922 2.2552
3.4354 2.4156 2.2552
3.3424 2.5357 2.2552
3.2453 2.6523 2.2552
3.1443 2.7655 2.2552
3.0395 2.8750 2.2552
2.9410 2.9908 2.2628
3.0005 3.2809 2.4004
2.8863 3.3951 2.4076
2.7596 3.4950 2.4076
2.6295 3.5905 2.4076
2.4963 3.6813 2.4076
2.3601 3.7674 2.4076
0.9011 1.5615 0.9768
0.8439 1.5931 0.9772
0.7856 1.6227 0.9775
0.7263 1.6502 0.9778
0.6661 1.6755 0.9781
0.6049 1.6986 0.9783
0.5430 1.7195 0.9785
0.4803 1.7381 0.9786
0.4170 1.7545 0.9786
0.3531 1.7686 0.9787
0.2888 1.7804 0.9786
0.2241 1.7899 0.9785
0.1591 1.7970 0.9784
0.0939 1.8018 0.9782
0.0285 1.8042 0.9780
-0.0369 1.8043 0.9777
-0.1023 1.8020 0.9774
-0.1675 1.7973 0.9770
-0.2326 1.7904 0.9766
-0.2973 1.7810 0.9762
-0.3617 1.7694 0.9757
-0.4256 1.7554 0.9751
-0.4889 1.7391 0.9745
-0.5517 1.7206 0.9739
-0.6137 1.6998 0.9732
-0.6749 1.6768 0.9725
-0.7353 1.6516 0.9717
-0.7947 1.6242 0.9709
-0.8530 1.5948 0.9701
-0.9103 1.5632 0.9692
-2.4030 3.8033 2.4076
-2.5419 3.7184 2.4076
-2.6778 3.6286 2.4076
-2.8107 3.5341 2.4076
-2.9402 3.4348 2.4076
-3.0664 3.3309 2.4076
-3.1889 3.2225 2.4076
-3.3077 3.1098 2.4076
-3.4226 2.9928 2.4076
-3.5334 2.8717 2.4076
-3.6400 2.7466 2.4076
-3.7422 2.6176 2.4076
-3.8399 2.4850 2.4076
-3.9329 2.3488 2.4076
-4.0212 2.2092 2.4076
-4.1045 2.0664 2.4076
-4.1829 1.9205 2.4076
-4.2561 1.7718 2.4076
-4.3240 1.6203 2.4076
-4.3865 1.4664 2.4076
-4.4436 1.3100 2.4076
-4.4951 1.1516 2.4076
-4.5410 0.9912 2.4076
-4.5811 0.8290 2.4076
-4.6154 0.6653 2.4076
-4.6438 0.5002 2.4076
-4.6664 0.3340 2.4076
-4.6829 0.1669 2.4076
-4.6934 -0.0009 2.4076
-4.6978 -0.1692 2.4076
-4.6961 -0.3377 2.4076
-4.6883 -0.5063 2.4076
-4.6744 -0.6747 2.4076
-4.6543 -0.8426 2.4076
-4.6281 -1.0099 2.4076
-4.5958 -1.1764 2.4076
-4.5574 -1.3417 2.4076
-4.5129 -1.5057 2.4076
-4.4624 -1.6682 2.4076
-4.4060 -1.8289 2.4076
-4.3436 -1.9875 2.4076
-4.2754 -2.1439 2.4076
-4.2014 -2.2979 2.4076
-4.1217 -2.4491 2.4076
-4.0365 -2.5975 2.4076
-3.9457 -2.7428 2.4076
-3.8496 -2.8847 2.4076
-3.7482 -3.0231 2.4076
-3.6417 -3.1578 2.4076
-3.5302 -3.2885 2.4076
-3.4138 -3.4151 2.4076
-3.2928 -3.5374 2.4076
-3.1672 -3.6552 2.4076
-3.0374 -3.7683 2.4076
-2.9033 -3.8765 2.4076
-2.7652 -3.9798 2.4076
-2.6233 -4.0779 2.4076
-2.4778 -4.1707 2.4076
-2.3289 -4.2581 2.4076
-2.1768 -4.3399 2.4076
-2.0218 -4.4160 2.4076
-1.8639 -4.4863 2.4076
-1.7036 -4.5507 2.4076
-1.5409 -4.6091 2.4076
-1.3761 -4.6614 2.4076
-1.2096 -4.7075 2.4076
-1.0414 -4.7474 2.4076
-0.8718 -4.7809 2.4076
-0.7011 -4.8082 2.4076
-0.5296 -4.8291 2.4076
-0.3574 -4.8435 2.4076
-0.1849 -4.8516 2.4076
-0.0121 -4.5905 2.4076
0.1510 -4.5861 2.4076
0.3138 -4.5756 2.4076
0.4761 -4.5591 2.4076
0.6375 -4.5366 2.4076
0.7980 -4.5081 2.4076
0.9572 -4.4737 2.4076
1.1149 -4.4335 2.4076
1.2709 -4.3875 2.4076
1.4251 -4.3358 2.4076
1.5771 -4.2785 2.4076
1.7268 -4.2156 2.4076
1.8739 -4.1473 2.4076
2.0184 -4.0737 2.4076
2.1599 -3.9949 2.4076
2.2983 -3.9110 2.4076
2.4334 -3.8222 2.4076
2.5650 -3.7285 2.4076
2.6930 -3.6302 2.4076
2.8172 -3.5273 2.4076
2.9374 -3.4201 2.4076
2.9611 -3.2085 2.3347
2.9733 -2.9994 2.2615
3.0657 -2.8792 2.2552
3.1621 -2.7639 2.2552
3.2541 -2.6453 2.2552
3.3420 -2.5238 2.2554
3.4253 -2.3994 2.2556
3.5040 -2.2721 2.2558
3.5779 -2.1422 2.2560
3.6470 -2.0098 2.2562
3.7112 -1.8752 2.2564
3.7703 -1.7385 2.2566
3.8245 -1.5999 2.2568
3.8735 -1.4595 2.2569
3.9174 -1.3177 2.2570
3.9560 -1.1745 2.2572
3.9895 -1.0302 2.2573
4.0177 -0.8850 2.2574
4.0406 -0.7390 2.2575
4.0583 -0.5924 2.2575
4.0707 -0.4455 2.2576
4.0778 -0.2985 2.2576
4.0796 -0.1514 2.2577
4.0761 -0.0045 2.2577
4.0675 0.1420 2.2577
4.0536 0.2879 2.2577
4.0346 0.4330 2.2577
4.0104 0.5773 2.2576
3.9812 0.7204 2.2576
3.9470 0.8622 2.2575
3.9077 1.0026 2.2575
3.8636 1.1413 2.2574
3.8147 1.2782 2.2573
3.7610 1.4132 2.2572
3.7026 1.5460 2.2571
3.6396 1.6766 2.2569
3.5696 1.8035 2.2552
3.4981 1.9291 2.2552
3.4222 2.0520 2.2552
3.3422 2.1721 2.2552
3.2580 2.2892 2.2552
3.1699 2.4032 2.2552
3.0780 2.5140 2.2552
2.9823 2.6214 2.2552
2.8829 2.7253 2.2552
2.9062 2.9539 2.3575
2.8546 3.1198 2.4076
2.7378 3.2189 2.4076
2.6176 3.3138 2.4076
2.4943 3.4045 2.4076
2.3680 3.4907 2.4076
0.9061 1.4460 0.9745
0.8531 1.4779 0.9749
0.7990 1.5078 0.9753
0.7438 1.5358 0.9756
0.6876 1.5618 0.9759
0.6305 1.5858 0.9761
0.5726 1.6077 0.9763
0.5139 1.6274 0.9765
0.4546 1.6451 0.9766
0.3946 1.6606 0.9767
0.3342 1.6740 0.9767
0.2733 1.6851 0.9766
0.2120 1.6941 0.9766
0.1504 1.7008 0.9764
0.0886 1.7054 0.9763
0.0267 1.7077 0.9761
-0.0352 1.7077 0.9758
-0.0971 1.7055 0.9755
-0.1589 1.7011 0.9751
-0.2205 1.6945 0.9747
-0.2818 1.6857 0.9743
-0.3427 1.6746 0.9738
-0.4033 1.6614 0.9733
-0.4632 1.6460 0.9727
-0.5227 1.6285 0.9721
-0.5814 1.6088 0.9715
-0.6394 1.5870 0.9708
-0.6965 1.5631 0.9701
-0.7528 1.5372 0.9693
-0.8081 1.5093 0.9685
-0.8623 1.4794 0.9677
-0.9154 1.4476 0.9668
-2.4112 3.5241 2.4076
-2.5400 3.4388 2.4076
-2.6658 3.3490 2.4076
-2.7886 3.2546 2.4076
-2.9080 3.1560 2.4076
-3.0241 3.0530 2.4076
-3.1365 2.9460 2.4076
-3.2452 2.8349 2.4076
-3.3501 2.7199 2.4076
-3.4509 2.6011 2.4076
-3.5476 2.4788 2.4076
-3.6399 2.3529 2.4076
-3.7279 2.2237 2.4076
-3.8116 2.0912 2.4076
-3.8900 1.9558 2.4076
-3.9640 1.8174 2.4076
-4.0331 1.6764 2.4076
-4.0971 1.5328 2.4076
-4.1561 1.3868 2.4076
-4.2099 1.2386 2.4076
-4.2584 1.0885 2.4076
-4.3015 0.9364 2.4076
-4.3392 0.7828 2.4076
-4.3714 0.6277 2.4076
-4.3981 0.4713 2.4076
-4.4191 0.3139 2.4076
-4.4344 0.1557 2.4076
-4.4440 -0.0032 2.4076
-4.4479 -0.1625 2.4076
-4.4460 -0.3220 2.4076
-4.4384 -0.4816 2.4076
-4.4249 -0.6409 2.4076
-4.4056 -0.7998 2.4076
-4.3805 -0.9581 2.4076
-4.3497 -1.1156 2.4076
-4.3131 -1.2720 2.4076
-4.2708 -1.4271 2.4076
-4.2227 -1.5807 2.4076
-4.1691 -1.7326 2.4076
-4.1098 -1.8826 2.4076
-4.0451 -2.0305 2.4076
-3.9749 -2.1761 2.4076
-3.8993 -2.3190 2.4076
-3.8185 -2.4592 2.4076
-3.7324 -2.5965 2.4076
-3.6413 -2.7306 2.4076
-3.5453 -2.8614 2.4076
-3.4444 -2.9886 2.4076
-3.3389 -3.1120 2.4076
-3.2287 -3.2317 2.4076
-3.1142 -3.3472 2.4076
-2.9953 -3.4585 2.4076
-2.8724 -3.5653 2.4076
-2.7456 -3.6676 2.4076
-2.6149 -3.7651 2.4076
-2.4807 -3.8578 2.4076
-2.3431 -3.9454 2.4076
-2.2023 -4.0280 2.4076
-2.0585 -4.1052 2.4076
-1.9119 -4.1771 2.4076
-1.7627 -4.2435 2.4076
-1.6110 -4.3044 2.4076
-1.4573 -4.3595 2.4076
-1.3015 -4.4089 2.4076
-1.1440 -4.4525 2.4076
-0.9850 -4.4902 2.4076
-0.8248 -4.5220 2.4076
-0.6634 -4.5478 2.4076
-0.5013 -4.5675 2.4076
-0.3385 -4.5813 2.4076
-0.1754 -4.5889 2.4076
-0.0121 -4.5905 2.4076
0.1510 -4.5861 2.4076
0.3138 -4.5756 2.4076
0.4761 -4.5591 2.4076
0.6375 -4.5366 2.4076
0.7980 -4.5081 2.4076
0.9571 -4.4737 2.4076
1.1149 -4.4335 2.4076
1.2709 -4.3875 2.4076
1.4250 -4.3358 2.4076
1.5770 -4.2785 2.4076
1.7267 -4.2156 2.4076
1.8739 -4.1473 2.4076
2.0183 -4.0737 2.4076
2.1598 -3.9949 2.4076
2.2983 -3.9110 2.4076
2.4334 -3.8222 2.4076
2.5650 -3.7285 2.4076
2.6930 -3.6302 2.4076
2.8172 -3.5273 2.4076
2.9374 -3.4201 2.4076
2.9611 -3.2085 2.3347
2.9733 -2.9994 2.2615
3.0656 -2.8792 2.2552
3.1621 -2.7639 2.2552
