ply
format ascii 1.0
element vertex 2184
property float32 x
property float32 y
property float32 z
end_header
7.3912 4.8343 2.3944
7.1983 5.0849 2.3944
6.9967 5.3278 2.3944
6.7866 5.5626 2.3944
6.5684 5.7889 2.3944
6.3424 6.0067 2.3944
6.1090 6.2155 2.3944
5.8687 6.4151 2.3944
5.6217 6.6054 2.3944
5.3685 6.7862 2.3944
5.1094 6.9572 2.3944
4.8449 7.1183 2.3944
4.5752 7.2693 2.3944
4.3010 7.4102 2.3944
4.0224 7.5407 2.3944
3.7400 7.6608 2.3944
3.4541 7.7704 2.3944
3.1651 7.8695 2.3944
2.8734 7.9579 2.3944
2.5795 8.0357 2.3944
0.9079 3.2214 0.9519
0.7916 3.2518 0.9543
0.6743 3.2779 0.9566
0.5561 3.2997 0.9588
0.4372 3.3172 0.9611
0.3177 3.3305 0.9633
0.1978 3.3394 0.9655
0.0776 3.3440 0.9677
-0.0427 3.3442 0.9699
-0.1629 3.3400 0.9720
-0.2828 3.3316 0.9740
-0.4024 3.3187 0.9760
-0.5215 3.3016 0.9780
-0.6398 3.2802 0.9799
-0.7573 3.2545 0.9818
-0.8738 3.2245 0.9836
-2.4035 7.7521 2.3944
-2.6759 7.6458 2.3944
-2.9440 7.5304 2.3944
-3.2075 7.4061 2.3944
-3.4662 7.2731 2.3944
-3.7197 7.1315 2.3944
-3.9679 6.9816 2.3944
-4.2104 6.8235 2.3944
-4.4470 6.6575 2.3944
-4.6775 6.4837 2.3944
-4.9017 6.3025 2.3944
-5.1193 6.1139 2.3944
-5.3301 5.9184 2.3944
-5.5339 5.7160 2.3944
-5.7306 5.5070 2.3944
-5.9199 5.2917 2.3944
-6.1016 5.0703 2.3944
-6.2756 4.8431 2.3944
-6.4417 4.6103 2.3944
-6.5997 4.3721 2.3944
-6.7496 4.1290 2.3944
-6.8910 3.8810 2.3944
-7.0240 3.6284 2.3944
-7.1483 3.3717 2.3944
-7.2639 3.1109 2.3944
-7.3706 2.8464 2.3944
-7.4683 2.5785 2.3944
-7.5569 2.3075 2.3944
-7.6364 2.0336 2.3944
-7.7065 1.7571 2.3944
-7.7674 1.4783 2.3944
-7.8188 1.1976 2.3944
-7.8607 0.9151 2.3944
-7.8931 0.6312 2.3944
-6.0110 -4.5016 2.3944
-5.8563 -4.7242 2.3944
-5.6937 -4.9416 2.3944
-5.5232 -5.1536 2.3944
-5.3452 -5.3600 2.3944
-5.1597 -5.5604 2.3944
-4.9669 -5.7546 2.3944
-4.7670 -5.9423 2.3944
-4.5603 -6.1233 2.3944
-4.3469 -6.2972 2.3944
-4.1271 -6.4639 2.3944
-3.9010 -6.6230 2.3944
-3.6690 -6.7743 2.3944
-3.4312 -6.9177 2.3944
-3.1880 -7.0528 2.3944
-2.9396 -7.1794 2.3944
-2.6863 -7.2974 2.3944
-2.4284 -7.4064 2.3944
-2.1661 -7.5064 2.3944
-1.9000 -7.5971 2.3944
-1.6301 -7.6784 2.3944
-1.3569 -7.7500 2.3944
-1.0807 -7.8119 2.3944
-0.8018 -7.8638 2.3944
-0.5207 -7.9057 2.3944
-0.2377 -7.9373 2.3944
0.0469 -7.9588 2.3944
0.3327 -7.9698 2.3944
0.6193 -7.9703 2.3944
0.9062 -7.9604 2.3944
1.1931 -7.9399 2.3944
1.4797 -7.9087 2.3944
1.7654 -7.8670 2.3944
2.0499 -7.8146 2.3944
2.3328 -7.7516 2.3944
2.6136 -7.6780 2.3944
2.8920 -7.5939 2.3944
3.1674 -7.4994 2.3944
3.4396 -7.3944 2.3944
3.7081 -7.2792 2.3944
3.9725 -7.1538 2.3944
4.2324 -7.0185 2.3944
4.4873 -6.8732 2.3944
4.7370 -6.7182 2.3944
4.9809 -6.5538 2.3944
5.2187 -6.3801 2.3944
5.4501 -6.1973 2.3944
5.5477 -5.8714 2.3408
5.6203 -5.5380 2.2840
5.7132 -5.2408 2.2420
5.9022 -5.0381 2.2420
6.0835 -4.8282 2.2420
6.2568 -4.6114 2.2420
6.4218 -4.3881 2.2420
6.5783 -4.1585 2.2420
6.7260 -3.9230 2.2420
6.8647 -3.6819 2.2420
6.9941 -3.4357 2.2420
7.1140 -3.1846 2.2420
7.2243 -2.9291 2.2420
7.3248 -2.6695 2.2420
7.4153 -2.4063 2.2420
7.4957 -2.1398 2.2420
7.5658 -1.8705 2.2420
7.6256 -1.5988 2.2420
7.6750 -1.3251 2.2420
7.7138 -1.0497 2.2420
7.7422 -0.7732 2.2420
7.7599 -0.4960 2.2420
7.7671 -0.2185 2.2420
8.0483 0.0611 2.3241
8.2767 0.3587 2.3944
8.2506 0.6534 2.3944
8.2135 0.9467 2.3944
8.1653 1.2380 2.3944
8.1061 1.5269 2.3944
8.0362 1.8133 2.3944
7.9555 2.0964 2.3944
7.8644 2.3760 2.3944
7.7629 2.6516 2.3944
7.6513 2.9228 2.3944
7.5298 3.1892 2.3944
7.3985 3.4505 2.3944
7.2578 3.7064 2.3944
7.1079 3.9564 2.3944
6.9489 4.2003 2.3944
6.7813 4.4377 2.3944
6.6053 4.6683 2.3944
6.4212 4.8918 2.3944
6.2294 5.1080 2.3944
6.0300 5.3165 2.3944
5.8234 5.5173 2.3944
5.6100 5.7098 2.3944
5.3902 5.8941 2.3944
5.1641 6.0699 2.3944
4.9323 6.2369 2.3944
4.6950 6.3951 2.3944
4.4526 6.5442 2.3944
4.2055 6.6841 2.3944
3.9540 6.8147 2.3944
3.6985 6.9359 2.3944
3.4393 7.0475 2.3944
3.1768 7.1495 2.3944
2.9115 7.2418 2.3944
2.6435 7.3244 2.3944
0.9406 2.9317 0.9490
0.8347 2.9634 0.9511
0.7277 2.9912 0.9532
0.6198 3.0151 0.9554
0.5110 3.0351 0.9574
0.4016 3.0511 0.9595
0.2917 3.0632 0.9616
0.1814 3.0713 0.9636
0.0709 3.0754 0.9656
-0.0398 3.0756 0.9676
-0.1503 3.0717 0.9695
-0.2607 3.0638 0.9714
-0.3707 3.0519 0.9733
-0.4801 3.0361 0.9751
-0.5890 3.0163 0.9769
-0.6971 2.9926 0.9786
-0.8042 2.9650 0.9803
-2.2197 7.1537 2.3944
-2.4715 7.0564 2.3944
-2.7193 6.9506 2.3944
-2.9630 6.8366 2.3944
-3.2022 6.7144 2.3944
-3.4367 6.5843 2.3944
-3.6662 6.4464 2.3944
-3.8906 6.3009 2.3944
-4.1096 6.1480 2.3944
-4.3229 5.9880 2.3944
-4.5304 5.8209 2.3944
-4.7318 5.6470 2.3944
-4.9270 5.4666 2.3944
-5.1157 5.2798 2.3944
-5.2978 5.0869 2.3944
-5.4730 4.8881 2.3944
-5.6413 4.6836 2.3944
-5.8023 4.4737 2.3944
-5.9561 4.2585 2.3944
-6.1024 4.0384 2.3944
-6.2410 3.8136 2.3944
-6.3719 3.5843 2.3944
-6.4949 3.3508 2.3944
-6.6099 3.1133 2.3944
-6.7167 2.8721 2.3944
-6.8153 2.6274 2.3944
-6.9056 2.3796 2.3944
-6.9874 2.1289 2.3944
-7.0607 1.8755 2.3944
-7.1253 1.6197 2.3944
-7.1813 1.3618 2.3944
-7.2285 1.1021 2.3944
-7.2668 0.8408 2.3944
-7.2964 0.5783 2.3944
-7.3170 0.3148 2.3944
-7.3286 0.0505 2.3944
-7.3313 -0.2142 2.3944
-7.3249 -0.4790 2.3944
-7.3096 -0.7437 2.3944
-7.2852 -1.0079 2.3944
-7.2518 -1.2714 2.3944
-7.2094 -1.5339 2.3944
-7.1580 -1.7951 2.3944
-7.0977 -2.0547 2.3944
-7.0284 -2.3124 2.3944
-6.9502 -2.5679 2.3944
-6.8633 -2.8209 2.3944
-6.7675 -3.0712 2.3944
-6.6630 -3.3183 2.3944
-6.5500 -3.5622 2.3944
-6.4284 -3.8023 2.3944
-6.2984 -4.0385 2.3944
-6.1601 -4.2705 2.3944
-6.0135 -4.4979 2.3944
-5.8589 -4.7205 2.3944
-5.6964 -4.9381 2.3944
-5.5261 -5.1502 2.3944
-5.3482 -5.3567 2.3944
-5.1628 -5.5572 2.3944
-4.9701 -5.7515 2.3944
-4.7704 -5.9393 2.3944
-4.5638 -6.1204 2.3944
-4.3505 -6.2944 2.3944
-4.1307 -6.4612 2.3944
-3.9048 -6.6204 2.3944
-3.6728 -6.7719 2.3944
-3.4351 -6.9154 2.3944
-3.1920 -7.0506 2.3944
-2.9437 -7.1774 2.3944
-2.6905 -7.2955 2.3944
-2.4326 -7.4047 2.3944
-2.1705 -7.5049 2.3944
-1.9043 -7.5957 2.3944
-1.6346 -7.6771 2.3944
-1.3614 -7.7489 2.3944
-1.0853 -7.8109 2.3944
-0.8064 -7.8630 2.3944
-0.5254 -7.9050 2.3944
-0.2423 -7.9369 2.3944
0.0423 -7.9585 2.3944
0.3280 -7.9697 2.3944
0.6145 -7.9704 2.3944
0.9015 -7.9606 2.3944
1.1884 -7.9403 2.3944
1.4750 -7.9093 2.3944
1.7607 -7.8678 2.3944
2.0452 -7.8156 2.3944
2.3281 -7.7527 2.3944
2.6090 -7.6793 2.3944
2.8874 -7.5954 2.3944
3.1629 -7.5010 2.3944
3.4352 -7.3963 2.3944
3.7037 -7.2812 2.3944
3.9682 -7.1560 2.3944
4.2282 -7.0208 2.3944
4.4832 -6.8757 2.3944
4.7329 -6.7209 2.3944
4.9769 -6.5566 2.3944
5.2148 -6.3830 2.3944
5.4463 -6.2004 2.3944
5.5465 -5.8770 2.3418
5.6192 -5.5433 2.2849
5.7100 -5.2440 2.2420
5.8991 -5.0415 2.2420
6.0806 -4.8317 2.2420
6.2540 -4.6151 2.2420
6.4192 -4.3918 2.2420
6.5758 -4.1623 2.2420
6.7236 -3.9269 2.2420
6.8624 -3.6859 2.2420
6.9920 -3.4398 2.2420
7.1121 -3.1888 2.2420
7.2226 -2.9333 2.2420
7.3232 -2.6738 2.2420
7.4139 -2.4107 2.2420
7.4944 -2.1442 2.2420
7.5647 -1.8750 2.2420
7.6247 -1.6033 2.2420
7.6742 -1.3296 2.2420
7.7133 -1.0543 2.2420
7.7418 -0.7778 2.2420
7.7597 -0.5006 2.2420
7.7671 -0.2230 2.2420
8.0420 0.0563 2.3223
8.2770 0.3538 2.3944
8.2512 0.6486 2.3944
8.2142 0.9418 2.3944
8.1661 1.2332 2.3944
8.1072 1.5224 2.3944
8.0374 1.8087 2.3944
7.9569 2.0918 2.3944
7.8660 2.3714 2.3944
7.7647 2.6471 2.3944
7.6532 2.9183 2.3944
7.5319 3.1849 2.3944
7.4008 3.4463 2.3944
7.2602 3.7022 2.3944
7.1104 3.9523 2.3944
6.9516 4.1963 2.3944
6.7842 4.4338 2.3944
6.6083 4.6645 2.3944
6.4243 4.8882 2.3944
6.2326 5.1045 2.3944
6.0333 5.3132 2.3944
5.8269 5.5140 2.3944
5.6136 5.7067 2.3944
5.3938 5.8912 2.3944
5.1679 6.0671 2.3944
4.9362 6.2342 2.3944
4.6990 6.3925 2.3944
4.4567 6.5418 2.3944
4.2096 6.6819 2.3944
3.9582 6.8126 2.3944
3.7027 6.9340 2.3944
3.4436 7.0458 2.3944
3.1812 7.1479 2.3944
2.9159 7.2404 2.3944
2.6480 7.3231 2.3944
0.9424 2.9312 0.9489
0.8365 2.9629 0.9511
0.7295 2.9907 0.9532
0.6216 3.0147 0.9553
0.5128 3.0348 0.9574
0.4034 3.0509 0.9595
0.2935 3.0630 0.9615
0.1832 3.0712 0.9636
0.0727 3.0754 0.9656
-0.0379 3.0756 0.9675
-0.1485 3.0718 0.9695
-0.2588 3.0640 0.9714
-0.3688 3.0522 0.9732
-0.4783 3.0364 0.9751
-0.5872 3.0167 0.9768
-0.6953 2.9930 0.9786
-0.8024 2.9655 0.9802
-2.2156 7.1552 2.3944
-2.4674 7.0580 2.3944
-2.7153 6.9524 2.3944
-2.9590 6.8385 2.3944
-3.1983 6.7165 2.3944
-3.4329 6.5865 2.3944
-3.6625 6.4487 2.3944
-3.8869 6.3034 2.3944
-4.1060 6.1506 2.3944
-4.3194 5.9907 2.3944
-4.5270 5.8237 2.3944
-4.7286 5.6500 2.3944
-4.9238 5.4696 2.3944
-5.1126 5.2830 2.3944
-5.2948 5.0902 2.3944
-5.4702 4.8914 2.3944
-5.6385 4.6870 2.3944
-5.7997 4.4772 2.3944
-5.9536 4.2621 2.3944
-6.1000 4.0421 2.3944
-6.2388 3.8173 2.3944
-6.3698 3.5881 2.3944
-6.4930 3.3546 2.3944
-6.6081 3.1172 2.3944
-6.7150 2.8761 2.3944
-6.8138 2.6315 2.3944
-6.9041 2.3837 2.3944
-6.9861 2.1330 2.3944
-7.0595 1.8797 2.3944
-7.1243 1.6239 2.3944
-7.1804 1.3661 2.3944
-7.2277 1.1064 2.3944
-7.2663 0.8452 2.3944
-7.2959 0.5826 2.3944
-5.5725 -4.1766 2.3944
-5.4283 -4.3824 2.3944
-5.2768 -4.5835 2.3944
-5.1181 -4.7795 2.3944
-4.9523 -4.9701 2.3944
-4.7797 -5.1552 2.3944
-4.6003 -5.3345 2.3944
-4.4145 -5.5077 2.3944
-4.2222 -5.6745 2.3944
-4.0239 -5.8348 2.3944
-3.8197 -5.9883 2.3944
-3.6097 -6.1348 2.3944
-3.3943 -6.2740 2.3944
-3.1736 -6.4057 2.3944
-2.9480 -6.5297 2.3944
-2.7176 -6.6459 2.3944
-2.4827 -6.7540 2.3944
-2.2437 -6.8539 2.3944
-2.0008 -6.9452 2.3944
-1.7542 -7.0280 2.3944
-1.5044 -7.1020 2.3944
-1.2515 -7.1671 2.3944
-0.9959 -7.2232 2.3944
-0.7380 -7.2700 2.3944
-0.4781 -7.3075 2.3944
-0.2165 -7.3357 2.3944
0.0465 -7.3543 2.3944
0.3105 -7.3633 2.3944
0.5751 -7.3627 2.3944
0.8400 -7.3524 2.3944
1.1049 -7.3323 2.3944
1.3692 -7.3025 2.3944
1.6328 -7.2629 2.3944
1.8951 -7.2135 2.3944
2.1559 -7.1544 2.3944
2.4147 -7.0855 2.3944
2.6712 -7.0070 2.3944
2.9250 -6.9188 2.3944
3.1757 -6.8212 2.3944
3.4229 -6.7141 2.3944
3.6663 -6.5977 2.3944
3.9055 -6.4721 2.3944
4.1401 -6.3375 2.3944
4.3698 -6.1940 2.3944
4.5941 -6.0418 2.3944
4.8129 -5.8811 2.3944
5.0257 -5.7121 2.3944
5.2321 -5.5351 2.3944
5.4319 -5.3502 2.3944
5.6247 -5.1578 2.3944
5.7275 -4.8873 2.3602
5.7907 -4.5944 2.3153
5.8512 -4.3113 2.2749
5.9195 -4.0438 2.2424
6.0620 -3.8313 2.2420
6.1979 -3.6142 2.2420
6.3254 -3.3921 2.2420
6.4444 -3.1652 2.2420
6.5548 -2.9340 2.2420
6.6563 -2.6986 2.2420
6.7488 -2.4595 2.2420
6.8321 -2.2171 2.2420
6.9062 -1.9718 2.2420
6.9709 -1.7238 2.2420
7.0261 -1.4735 2.2420
7.0717 -1.2214 2.2420
7.1078 -0.9679 2.2420
7.1644 -0.7163 2.2514
7.3767 -0.4724 2.3128
7.6444 -0.2161 2.3944
7.6415 0.0569 2.3944
7.6284 0.3293 2.3944
7.6049 0.6009 2.3944
7.5712 0.8711 2.3944
7.5274 1.1397 2.3944
7.4736 1.4061 2.3944
7.4098 1.6701 2.3944
7.3362 1.9312 2.3944
7.2529 2.1891 2.3944
7.1601 2.4434 2.3944
7.0580 2.6938 2.3944
6.9467 2.9398 2.3944
6.8265 3.1811 2.3944
6.6976 3.4175 2.3944
6.5601 3.6486 2.3944
6.4144 3.8741 2.3944
6.2606 4.0936 2.3944
6.0990 4.3070 2.3944
5.9300 4.5140 2.3944
5.7537 4.7142 2.3944
5.5704 4.9074 2.3944
5.3805 5.0935 2.3944
5.1842 5.2721 2.3944
4.9819 5.4432 2.3944
4.7739 5.6064 2.3944
4.5604 5.7616 2.3944
4.3419 5.9087 2.3944
4.1185 6.0474 2.3944
3.8908 6.1778 2.3944
3.6588 6.2995 2.3944
3.4231 6.4125 2.3944
3.1840 6.5168 2.3944
2.9417 6.6122 2.3944
2.6967 6.6987 2.3944
2.4492 6.7762 2.3944
0.8712 2.7110 0.9484
0.7732 2.7403 0.9503
0.6743 2.7660 0.9523
0.5744 2.7880 0.9543
0.4739 2.8065 0.9562
0.3727 2.8213 0.9581
0.2710 2.8325 0.9600
0.1690 2.8400 0.9619
0.0668 2.8438 0.9638
-0.0355 2.8439 0.9656
-0.1378 2.8403 0.9674
-0.2398 2.8330 0.9691
-0.3416 2.8220 0.9708
-0.4428 2.8074 0.9725
-0.5435 2.7891 0.9742
-0.6434 2.7672 0.9758
-0.7425 2.7417 0.9773
-0.8406 2.7126 0.9788
-2.2901 6.5460 2.3944
-2.5204 6.4486 2.3944
-2.7467 6.3435 2.3944
-2.9690 6.2308 2.3944
-3.1870 6.1106 2.3944
-3.4004 5.9832 2.3944
-3.6091 5.8487 2.3944
-3.8127 5.7073 2.3944
-4.0111 5.5592 2.3944
-4.2041 5.4045 2.3944
-4.3915 5.2434 2.3944
-4.5731 5.0762 2.3944
-4.7487 4.9031 2.3944
-4.9181 4.7242 2.3944
-5.0812 4.5398 2.3944
-5.2378 4.3500 2.3944
-5.3877 4.1552 2.3944
-5.5307 3.9555 2.3944
-5.6669 3.7511 2.3944
-5.7959 3.5423 2.3944
-5.9176 3.3294 2.3944
-6.0321 3.1125 2.3944
-6.1390 2.8918 2.3944
-6.2384 2.6678 2.3944
-6.3300 2.4404 2.3944
-6.4139 2.2102 2.3944
-6.4899 1.9772 2.3944
-6.5579 1.7417 2.3944
-6.6179 1.5040 2.3944
-6.6697 1.2644 2.3944
-6.7134 1.0230 2.3944
-6.7489 0.7802 2.3944
-6.7761 0.5363 2.3944
-6.7950 0.2914 2.3944
-6.8055 0.0459 2.3944
-6.8076 -0.2000 2.3944
-6.8014 -0.4460 2.3944
-6.7867 -0.6918 2.3944
-6.7637 -0.9372 2.3944
-6.7322 -1.1819 2.3944
-6.6923 -1.4256 2.3944
-6.6441 -1.6680 2.3944
-6.5875 -1.9089 2.3944
-6.5226 -2.1480 2.3944
-6.4494 -2.3850 2.3944
-6.3680 -2.6197 2.3944
-6.2785 -2.8517 2.3944
-6.1809 -3.0808 2.3944
-6.0753 -3.3067 2.3944
-5.9618 -3.5292 2.3944
-5.8405 -3.7479 2.3944
-5.7115 -3.9627 2.3944
-5.5749 -4.1731 2.3944
-5.4308 -4.3791 2.3944
-5.2793 -4.5802 2.3944
-5.1207 -4.7763 2.3944
-4.9551 -4.9671 2.3944
-4.7826 -5.1522 2.3944
-4.6033 -5.3316 2.3944
-4.4176 -5.5049 2.3944
-4.2255 -5.6718 2.3944
-4.0272 -5.8322 2.3944
-3.8231 -5.9858 2.3944
-3.6132 -6.1324 2.3944
-3.3979 -6.2717 2.3944
-3.1773 -6.4036 2.3944
-2.9517 -6.5278 2.3944
-2.7214 -6.6441 2.3944
-2.4866 -6.7523 2.3944
-2.2477 -6.8523 2.3944
-2.0048 -6.9438 2.3944
-1.7583 -7.0267 2.3944
-1.5085 -7.1009 2.3944
-1.2557 -7.1661 2.3944
-1.0002 -7.2223 2.3944
-0.7423 -7.2693 2.3944
-0.4824 -7.3070 2.3944
-0.2208 -7.3353 2.3944
0.0422 -7.3540 2.3944
0.3062 -7.3632 2.3944
0.5708 -7.3628 2.3944
0.8357 -7.3526 2.3944
1.1005 -7.3327 2.3944
1.3649 -7.3031 2.3944
1.6284 -7.2636 2.3944
1.8908 -7.2144 2.3944
2.1516 -7.1554 2.3944
2.4105 -7.0867 2.3944
2.6670 -7.0083 2.3944
2.9208 -6.9204 2.3944
3.1716 -6.8229 2.3944
3.4188 -6.7159 2.3944
3.6623 -6.5997 2.3944
3.9016 -6.4742 2.3944
4.1363 -6.3398 2.3944
4.3660 -6.1964 2.3944
4.5905 -6.0444 2.3944
4.8093 -5.8838 2.3944
5.0222 -5.7150 2.3944
5.2287 -5.5381 2.3944
5.4286 -5.3533 2.3944
5.6216 -5.1610 2.3944
5.7264 -4.8923 2.3610
5.7897 -4.5992 2.3160
5.8502 -4.3159 2.2755
5.9182 -4.0481 2.2429
6.0598 -3.8348 2.2420
6.1957 -3.6179 2.2420
6.3233 -3.3958 2.2420
6.4425 -3.1690 2.2420
6.5530 -2.9378 2.2420
6.6547 -2.7025 2.2420
6.7473 -2.4635 2.2420
6.8308 -2.2212 2.2420
6.9050 -1.9758 2.2420
6.9699 -1.7279 2.2420
7.0252 -1.4777 2.2420
7.0710 -1.2256 2.2420
7.1073 -0.9721 2.2420
7.1617 -0.7203 2.2507
7.3729 -0.4765 2.3116
7.6412 -0.2205 2.3934
7.6417 0.0524 2.3944
7.6287 0.3248 2.3944
7.6054 0.5964 2.3944
7.5719 0.8667 2.3944
7.5282 1.1353 2.3944
7.4745 1.4018 2.3944
7.4109 1.6658 2.3944
7.3375 1.9270 2.3944
7.2544 2.1849 2.3944
7.1617 2.4393 2.3944
7.0598 2.6897 2.3944
6.9487 2.9358 2.3944
6.8286 3.1772 2.3944
6.6998 3.4137 2.3944
6.5624 3.6448 2.3944
6.4168 3.8704 2.3944
6.2632 4.0901 2.3944
6.1017 4.3036 2.3944
5.9328 4.5106 2.3944
5.7566 4.7109 2.3944
5.5735 4.9043 2.3944
5.3837 5.0905 2.3944
5.1875 5.2693 2.3944
4.9853 5.4404 2.3944
4.7774 5.6037 2.3944
4.5640 5.7591 2.3944
4.3455 5.9063 2.3944
4.1222 6.0452 2.3944
3.8945 6.1757 2.3944
3.6627 6.2976 2.3944
3.4271 6.4108 2.3944
3.1880 6.5152 2.3944
2.9457 6.6107 2.3944
2.7007 6.6974 2.3944
2.4533 6.7750 2.3944
0.8728 2.7105 0.9483
0.7749 2.7398 0.9503
0.6759 2.7656 0.9523
0.5761 2.7877 0.9542
0.4755 2.8062 0.9562
0.3743 2.8211 0.9581
0.2727 2.8324 0.9600
0.1707 2.8399 0.9619
0.0684 2.8438 0.9637
-0.0338 2.8439 0.9656
-0.1361 2.8404 0.9673
-0.2382 2.8332 0.9691
-0.3399 2.8222 0.9708
-0.4412 2.8077 0.9725
-0.5418 2.7894 0.9741
-0.6418 2.7676 0.9757
-0.7409 2.7421 0.9773
-0.8390 2.7131 0.9788
-2.2863 6.5475 2.3944
-2.5166 6.4503 2.3944
-2.7430 6.3453 2.3944
-2.9654 6.2327 2.3944
-3.1835 6.1127 2.3944
-3.3970 5.9854 2.3944
-3.6057 5.8510 2.3944
-3.8094 5.7097 2.3944
-4.0079 5.5617 2.3944
-4.2010 5.4071 2.3944
-4.3885 5.2461 2.3944
-4.5702 5.0790 2.3944
-4.7458 4.9060 2.3944
-4.9154 4.7272 2.3944
-5.0785 4.5428 2.3944
-5.2352 4.3532 2.3944
-5.3853 4.1584 2.3944
-5.5284 3.9588 2.3944
-5.6647 3.7545 2.3944
-5.7938 3.5458 2.3944
-5.9157 3.3329 2.3944
-6.0302 3.1161 2.3944
-6.1373 2.8955 2.3944
-6.2368 2.6715 2.3944
-6.3286 2.4442 2.3944
-6.4126 2.2140 2.3944
-6.4887 1.9810 2.3944
-6.5569 1.7456 2.3944
-6.6170 1.5079 2.3944
-6.6690 1.2683 2.3944
-6.7128 1.0270 2.3944
-6.7484 0.7842 2.3944
-6.7757 0.5403 2.3944
-5.1880 -3.8914 2.3944
-5.0531 -4.0828 2.3944
-4.9114 -4.2695 2.3944
-4.7630 -4.4516 2.3944
-4.6081 -4.6286 2.3944
-4.4468 -4.8003 2.3944
-4.2793 -4.9666 2.3944
-4.1057 -5.1271 2.3944
-3.9264 -5.2818 2.3944
-3.7413 -5.4302 2.3944
-3.5508 -5.5723 2.3944
-3.3550 -5.7078 2.3944
-3.1542 -5.8365 2.3944
-2.9485 -5.9582 2.3944
-2.7383 -6.0727 2.3944
-2.5237 -6.1799 2.3944
-2.3050 -6.2796 2.3944
-2.0825 -6.3715 2.3944
-1.8565 -6.4555 2.3944
-1.6271 -6.5315 2.3944
-1.3947 -6.5994 2.3944
-1.1596 -6.6589 2.3944
-0.9221 -6.7100 2.3944
-0.6824 -6.7526 2.3944
-0.4410 -6.7865 2.3944
-0.1980 -6.8117 2.3944
0.0462 -6.8280 2.3944
0.2912 -6.8355 2.3944
0.5367 -6.8340 2.3944
0.7825 -6.8235 2.3944
1.0281 -6.8040 2.3944
1.2732 -6.7755 2.3944
1.5175 -6.7379 2.3944
1.7606 -6.6912 2.3944
2.0023 -6.6356 2.3944
2.2420 -6.5709 2.3944
2.4795 -6.4974 2.3944
2.7145 -6.4149 2.3944
2.9466 -6.3237 2.3944
3.1754 -6.2238 2.3944
3.4007 -6.1153 2.3944
3.6220 -5.9983 2.3944
3.8390 -5.8730 2.3944
4.0514 -5.7395 2.3944
4.2590 -5.5980 2.3944
4.4612 -5.4487 2.3944
4.6579 -5.2918 2.3944
4.8488 -5.1274 2.3944
5.0335 -4.9559 2.3944
5.2117 -4.7773 2.3944
5.3833 -4.5921 2.3944
5.5478 -4.4004 2.3944
5.7051 -4.2025 2.3944
5.8549 -3.9987 2.3944
5.9376 -3.7518 2.3707
5.9917 -3.4933 2.3400
6.0442 -3.2408 2.3130
6.0956 -2.9935 2.2896
6.1459 -2.7507 2.2697
6.2050 -2.5155 2.2566
6.2749 -2.2868 2.2508
6.3514 -2.0612 2.2505
6.4382 -1.8383 2.2567
6.5372 -1.6168 2.2701
6.6553 -1.3962 2.2930
6.7866 -1.1727 2.3231
6.9396 -0.9457 2.3633
7.0570 -0.7064 2.3944
7.0738 -0.4539 2.3944
7.0811 -0.2012 2.3944
7.0788 0.0516 2.3944
7.0669 0.3038 2.3944
7.0457 0.5553 2.3944
7.0149 0.8057 2.3944
6.9748 1.0545 2.3944
6.9255 1.3014 2.3944
6.8669 1.5460 2.3944
6.7993 1.7880 2.3944
6.7228 2.0271 2.3944
6.6374 2.2629 2.3944
6.5434 2.4951 2.3944
6.4410 2.7234 2.3944
6.3302 2.9474 2.3944
6.2114 3.1668 2.3944
6.0846 3.3814 2.3944
5.9502 3.5908 2.3944
5.8083 3.7949 2.3944
5.6591 3.9932 2.3944
5.5030 4.1856 2.3944
5.3402 4.3719 2.3944
5.1708 4.5517 2.3944
4.9953 4.7250 2.3944
4.8138 4.8914 2.3944
4.6267 5.0507 2.3944
4.4342 5.2029 2.3944
4.2367 5.3478 2.3944
4.0343 5.4850 2.3944
3.8275 5.6147 2.3944
3.6164 5.7365 2.3944
3.4015 5.8504 2.3944
3.1830 5.9562 2.3944
2.9613 6.0539 2.3944
2.7366 6.1435 2.3944
2.5092 6.2247 2.3944
0.9006 2.4881 0.9460
0.8106 2.5185 0.9478
0.7196 2.5457 0.9497
0.6276 2.5695 0.9515
0.5349 2.5900 0.9533
0.4414 2.6072 0.9551
0.3474 2.6209 0.9569
0.2529 2.6313 0.9587
0.1582 2.6382 0.9604
0.0632 2.6418 0.9622
-0.0319 2.6418 0.9638
-0.1269 2.6385 0.9655
-0.2217 2.6317 0.9671
-0.3162 2.6215 0.9687
-0.4103 2.6079 0.9703
-0.5038 2.5909 0.9718
-0.5966 2.5705 0.9733
-0.6887 2.5468 0.9747
-0.7798 2.5198 0.9761
-0.8699 2.4895 0.9775
-2.3457 6.0080 2.3944
-2.5569 5.9106 2.3944
-2.7643 5.8061 2.3944
-2.9678 5.6947 2.3944
-3.1670 5.5764 2.3944
-3.3617 5.4515 2.3944
-3.5518 5.3200 2.3944
-3.7371 5.1823 2.3944
-3.9174 5.0384 2.3944
-4.0924 4.8886 2.3944
-4.2620 4.7330 2.3944
-4.4260 4.5718 2.3944
-4.5842 4.4052 2.3944
-4.7366 4.2334 2.3944
-4.8828 4.0566 2.3944
-5.0229 3.8750 2.3944
-5.1565 3.6888 2.3944
-5.2837 3.4983 2.3944
-5.4042 3.3037 2.3944
-5.5179 3.1051 2.3944
-5.6248 2.9028 2.3944
-5.7246 2.6970 2.3944
-5.8174 2.4879 2.3944
-5.9029 2.2759 2.3944
-5.9812 2.0610 2.3944
-6.0521 1.8436 2.3944
-6.1155 1.6239 2.3944
-6.1714 1.4022 2.3944
-6.2197 1.1786 2.3944
-6.2603 0.9534 2.3944
-6.2932 0.7269 2.3944
-6.3184 0.4993 2.3944
-6.3358 0.2708 2.3944
-6.3453 0.0418 2.3944
-6.3471 -0.1875 2.3944
-6.3409 -0.4170 2.3944
-6.3269 -0.6462 2.3944
-6.3051 -0.8750 2.3944
-6.2753 -1.1031 2.3944
-6.2377 -1.3303 2.3944
-6.1923 -1.5563 2.3944
-6.1391 -1.7808 2.3944
-6.0781 -2.0035 2.3944
-6.0094 -2.2243 2.3944
-5.9331 -2.4429 2.3944
-5.8491 -2.6589 2.3944
-5.7576 -2.8722 2.3944
-5.6587 -3.0824 2.3944
-5.5523 -3.2894 2.3944
-5.4387 -3.4929 2.3944
-5.3180 -3.6926 2.3944
-5.1901 -3.8883 2.3944
-5.0553 -4.0797 2.3944
-4.9138 -4.2665 2.3944
-4.7655 -4.4486 2.3944
-4.6107 -4.6257 2.3944
-4.4495 -4.7975 2.3944
-4.2821 -4.9639 2.3944
-4.1087 -5.1245 2.3944
-3.9294 -5.2793 2.3944
-3.7444 -5.4278 2.3944
-3.5540 -5.5700 2.3944
-3.3582 -5.7056 2.3944
-3.1575 -5.8344 2.3944
-2.9519 -5.9563 2.3944
-2.7418 -6.0709 2.3944
-2.5273 -6.1782 2.3944
-2.3087 -6.2780 2.3944
-2.0862 -6.3700 2.3944
-1.8602 -6.4542 2.3944
-1.6309 -6.5303 2.3944
-1.3986 -6.5983 2.3944
-1.1635 -6.6580 2.3944
-0.9260 -6.7092 2.3944
-0.6864 -6.7519 2.3944
-0.4450 -6.7860 2.3944
-0.2020 -6.8113 2.3944
0.0421 -6.8278 2.3944
0.2872 -6.8354 2.3944
0.5327 -6.8341 2.3944
0.7784 -6.8238 2.3944
1.0241 -6.8044 2.3944
1.2692 -6.7760 2.3944
1.5135 -6.7386 2.3944
1.7566 -6.6921 2.3944
1.9983 -6.6366 2.3944
2.2381 -6.5721 2.3944
2.4757 -6.4986 2.3944
2.7107 -6.4163 2.3944
2.9428 -6.3253 2.3944
3.1717 -6.2255 2.3944
3.3970 -6.1171 2.3944
3.6183 -6.0003 2.3944
3.8355 -5.8751 2.3944
4.0480 -5.7418 2.3944
4.2556 -5.6004 2.3944
4.4579 -5.4513 2.3944
4.6547 -5.2944 2.3944
4.8457 -5.1302 2.3944
5.0305 -4.9587 2.3944
5.2089 -4.7803 2.3944
5.3805 -4.5952 2.3944
5.5452 -4.4036 2.3944
5.7026 -4.2058 2.3944
5.8525 -4.0021 2.3944
5.9367 -3.7561 2.3712
5.9908 -3.4975 2.3404
6.0434 -3.2449 2.3134
6.0947 -2.9975 2.2900
6.1450 -2.7546 2.2700
6.2039 -2.5193 2.2568
6.2736 -2.2905 2.2508
6.3502 -2.0649 2.2504
6.4367 -1.8420 2.2566
6.5353 -1.6204 2.2698
6.6534 -1.3999 2.2926
6.7843 -1.1764 2.3225
6.9370 -0.9495 2.3626
7.0567 -0.7105 2.3944
7.0736 -0.4581 2.3944
7.0810 -0.2053 2.3944
7.0789 0.0474 2.3944
7.0672 0.2997 2.3944
7.0461 0.5512 2.3944
7.0155 0.8016 2.3944
6.9756 1.0504 2.3944
6.9263 1.2973 2.3944
6.8680 1.5420 2.3944
6.8005 1.7841 2.3944
6.7241 2.0232 2.3944
6.6389 2.2591 2.3944
6.5451 2.4913 2.3944
6.4427 2.7197 2.3944
6.3321 2.9437 2.3944
6.2134 3.1632 2.3944
6.0868 3.3779 2.3944
5.9524 3.5874 2.3944
5.8107 3.7915 2.3944
5.6617 3.9900 2.3944
5.5057 4.1825 2.3944
5.3429 4.3689 2.3944
5.1737 4.5488 2.3944
4.9983 4.7222 2.3944
4.8169 4.8887 2.3944
4.6299 5.0482 2.3944
4.4374 5.2005 2.3944
4.2400 5.3454 2.3944
4.0377 5.4828 2.3944
3.8309 5.6126 2.3944
3.6200 5.7345 2.3944
3.4051 5.8485 2.3944
3.1867 5.9545 2.3944
2.9650 6.0524 2.3944
2.7403 6.1421 2.3944
2.5129 6.2235 2.3944
0.9021 2.4876 0.9460
0.8121 2.5181 0.9478
0.7211 2.5453 0.9497
0.6292 2.5691 0.9515
0.5364 2.5897 0.9533
0.4430 2.6069 0.9551
0.3490 2.6207 0.9569
0.2545 2.6312 0.9587
0.1597 2.6381 0.9604
0.0647 2.6417 0.9621
-0.0303 2.6419 0.9638
-0.1253 2.6386 0.9655
-0.2201 2.6318 0.9671
-0.3146 2.6217 0.9687
-0.4087 2.6081 0.9703
-0.5023 2.5912 0.9718
-0.5951 2.5709 0.9733
-0.6872 2.5472 0.9747
-0.7783 2.5203 0.9761
-0.8685 2.4901 0.9775
-2.3422 6.0095 2.3944
-2.5535 5.9123 2.3944
-2.7610 5.8079 2.3944
-2.9644 5.6966 2.3944
-3.1637 5.5784 2.3944
-3.3586 5.4536 2.3944
-3.5488 5.3223 2.3944
-3.7341 5.1846 2.3944
-3.9144 5.0408 2.3944
-4.0895 4.8911 2.3944
-4.2592 4.7356 2.3944
-4.4233 4.5745 2.3944
-4.5817 4.4080 2.3944
-4.7341 4.2362 2.3944
-4.8805 4.0595 2.3944
-5.0206 3.8780 2.3944
-5.1544 3.6920 2.3944
-5.2816 3.5015 2.3944
-5.4023 3.3069 2.3944
-5.5161 3.1084 2.3944
-5.6231 2.9061 2.3944
-5.7231 2.7004 2.3944
-5.8159 2.4914 2.3944
-5.9016 2.2794 2.3944
-5.9800 2.0646 2.3944
-6.0510 1.8472 2.3944
-6.1145 1.6276 2.3944
-6.1705 1.4058 2.3944
-6.2189 1.1823 2.3944
-6.2597 0.9571 2.3944
-6.2927 0.7306 2.3944
-6.3181 0.5030 2.3944
-4.8476 -3.6391 2.3944
-4.7210 -3.8176 2.3944
-4.5881 -3.9918 2.3944
-4.4489 -4.1615 2.3944
-4.3037 -4.3265 2.3944
-4.1525 -4.4865 2.3944
-3.9956 -4.6414 2.3944
-3.8330 -4.7909 2.3944
-3.6650 -4.9348 2.3944
-3.4917 -5.0729 2.3944
-3.3133 -5.2050 2.3944
-3.1301 -5.3309 2.3944
-2.9422 -5.4504 2.3944
-2.7499 -5.5634 2.3944
-2.5533 -5.6696 2.3944
-2.3527 -5.7690 2.3944
-2.1484 -5.8612 2.3944
-1.9405 -5.9463 2.3944
-1.7293 -6.0240 2.3944
-1.5151 -6.0941 2.3944
-1.2982 -6.1567 2.3944
-1.0787 -6.2114 2.3944
-0.8571 -6.2583 2.3944
-0.6335 -6.2973 2.3944
-0.4083 -6.3281 2.3944
-0.1817 -6.3508 2.3944
0.0459 -6.3653 2.3944
0.2742 -6.3715 2.3944
0.5030 -6.3693 2.3944
0.7319 -6.3588 2.3944
0.9607 -6.3399 2.3944
1.1889 -6.3126 2.3944
1.4163 -6.2769 2.3944
1.6426 -6.2328 2.3944
1.8674 -6.1803 2.3944
2.0905 -6.1194 2.3944
2.3114 -6.0503 2.3944
2.5299 -5.9730 2.3944
2.7457 -5.8875 2.3944
2.9585 -5.7939 2.3944
3.1678 -5.6924 2.3944
3.3735 -5.5831 2.3944
3.5752 -5.4660 2.3944
3.7726 -5.3414 2.3944
3.9653 -5.2093 2.3944
4.1532 -5.0701 2.3944
4.3360 -4.9237 2.3944
4.5132 -4.7705 2.3944
4.6847 -4.6107 2.3944
4.8503 -4.4444 2.3944
5.0096 -4.2718 2.3944
5.1624 -4.0934 2.3944
5.3084 -3.9091 2.3944
5.4475 -3.7195 2.3944
5.5794 -3.5246 2.3944
5.7039 -3.3249 2.3944
5.8209 -3.1205 2.3944
5.9300 -2.9118 2.3944
6.0313 -2.6991 2.3944
6.1245 -2.4827 2.3944
6.2095 -2.2629 2.3944
6.2861 -2.0401 2.3944
6.3543 -1.8146 2.3944
6.4139 -1.5866 2.3944
6.4649 -1.3567 2.3944
6.5071 -1.1250 2.3944
6.5406 -0.8919 2.3944
6.5653 -0.6579 2.3944
6.5811 -0.4231 2.3944
6.5881 -0.1881 2.3944
6.5863 0.0469 2.3944
6.5756 0.2816 2.3944
6.5561 0.5155 2.3944
6.5279 0.7484 2.3944
6.4910 0.9799 2.3944
6.4455 1.2096 2.3944
6.3915 1.4373 2.3944
6.3291 1.6626 2.3944
6.2583 1.8852 2.3944
6.1794 2.1048 2.3944
6.0925 2.3211 2.3944
5.9976 2.5337 2.3944
5.8951 2.7424 2.3944
5.7850 2.9470 2.3944
5.6676 3.1470 2.3944
5.5429 3.3423 2.3944
5.4114 3.5327 2.3944
5.2731 3.7178 2.3944
5.1282 3.8974 2.3944
4.9771 4.0713 2.3944
4.8199 4.2393 2.3944
4.6569 4.4012 2.3944
4.4884 4.5568 2.3944
4.3145 4.7058 2.3944
4.1356 4.8482 2.3944
3.9519 4.9838 2.3944
3.7638 5.1124 2.3944
3.5714 5.2339 2.3944
3.3750 5.3481 2.3944
3.1750 5.4550 2.3944
2.9716 5.5544 2.3944
2.7651 5.6462 2.3944
2.5558 5.7305 2.3944
0.9241 2.2893 0.9439
0.8412 2.3206 0.9457
0.7573 2.3490 0.9474
0.6723 2.3743 0.9491
0.5866 2.3965 0.9508
0.5000 2.4156 0.9525
0.4129 2.4316 0.9542
0.3252 2.4444 0.9559
0.2370 2.4541 0.9575
0.1486 2.4605 0.9591
0.0600 2.4638 0.9607
-0.0286 2.4639 0.9623
-0.1172 2.4607 0.9639
-0.2057 2.4544 0.9654
-0.2938 2.4449 0.9669
-0.3816 2.4322 0.9683
-0.4688 2.4163 0.9697
-0.5554 2.3973 0.9711
-0.6413 2.3752 0.9725
-0.7263 2.3500 0.9738
-0.8104 2.3218 0.9750
-0.8933 2.2905 0.9762
-2.3888 5.5272 2.3944
-2.5830 5.4299 2.3944
-2.7735 5.3261 2.3944
-2.9601 5.2158 2.3944
-3.1425 5.0993 2.3944
-3.3206 4.9767 2.3944
-3.4942 4.8482 2.3944
-3.6631 4.7139 2.3944
-3.8271 4.5739 2.3944
-3.9860 4.4285 2.3944
-4.1397 4.2779 2.3944
-4.2880 4.1222 2.3944
-4.4308 3.9615 2.3944
-4.5679 3.7962 2.3944
-4.6992 3.6264 2.3944
-4.8244 3.4522 2.3944
-4.9436 3.2740 2.3944
-5.0566 3.0918 2.3944
-5.1631 2.9060 2.3944
-5.2633 2.7166 2.3944
-5.3568 2.5240 2.3944
-5.4437 2.3283 2.3944
-5.5238 2.1298 2.3944
-5.5971 1.9287 2.3944
-5.6635 1.7251 2.3944
-5.7228 1.5194 2.3944
-5.7750 1.3118 2.3944
-5.8202 1.1024 2.3944
-5.8581 0.8916 2.3944
-5.8888 0.6795 2.3944
-5.9122 0.4665 2.3944
-5.9283 0.2526 2.3944
-5.9370 0.0382 2.3944
-5.9384 -0.1765 2.3944
-5.9324 -0.3912 2.3944
-5.9190 -0.6058 2.3944
-5.8983 -0.8199 2.3944
-5.8701 -1.0333 2.3944
-5.8346 -1.2458 2.3944
-5.7918 -1.4572 2.3944
-5.7416 -1.6672 2.3944
-5.6842 -1.8755 2.3944
-5.6195 -2.0819 2.3944
-5.5476 -2.2862 2.3944
-5.4686 -2.4881 2.3944
-5.3826 -2.6874 2.3944
-5.2896 -2.8838 2.3944
-5.1897 -3.0772 2.3944
-5.0831 -3.2671 2.3944
-4.9696 -3.4536 2.3944
-4.8496 -3.6362 2.3944
-4.7232 -3.8147 2.3944
-4.5903 -3.9890 2.3944
-4.4513 -4.1588 2.3944
-4.3061 -4.3238 2.3944
-4.1550 -4.4839 2.3944
-3.9982 -4.6389 2.3944
-3.8357 -4.7885 2.3944
-3.6678 -4.9324 2.3944
-3.4946 -5.0706 2.3944
-3.3163 -5.2028 2.3944
-3.1332 -5.3289 2.3944
-2.9454 -5.4485 2.3944
-2.7531 -5.5616 2.3944
-2.5566 -5.6679 2.3944
-2.3561 -5.7674 2.3944
-2.1517 -5.8598 2.3944
-1.9439 -5.9450 2.3944
-1.7328 -6.0228 2.3944
-1.5187 -6.0930 2.3944
-1.3018 -6.1557 2.3944
-1.0824 -6.2106 2.3944
-0.8608 -6.2576 2.3944
-0.6372 -6.2967 2.3944
-0.4120 -6.3277 2.3944
-0.1855 -6.3505 2.3944
0.0421 -6.3651 2.3944
0.2704 -6.3714 2.3944
0.4992 -6.3694 2.3944
0.7281 -6.3591 2.3944
0.9569 -6.3403 2.3944
1.1851 -6.3131 2.3944
1.4126 -6.2776 2.3944
1.6389 -6.2336 2.3944
1.8637 -6.1812 2.3944
2.0868 -6.1205 2.3944
2.3078 -6.0515 2.3944
2.5264 -5.9743 2.3944
2.7422 -5.8889 2.3944
2.9550 -5.7955 2.3944
3.1644 -5.6941 2.3944
3.3701 -5.5849 2.3944
3.5719 -5.4680 2.3944
3.7693 -5.3435 2.3944
3.9622 -5.2116 2.3944
4.1502 -5.0724 2.3944
4.3330 -4.9262 2.3944
4.5104 -4.7731 2.3944
4.6820 -4.6133 2.3944
4.8476 -4.4471 2.3944
5.0070 -4.2747 2.3944
5.1599 -4.0963 2.3944
5.3060 -3.9122 2.3944
5.4452 -3.7226 2.3944
5.5773 -3.5279 2.3944
5.7019 -3.3282 2.3944
5.8190 -3.1239 2.3944
5.9283 -2.9153 2.3944
6.0297 -2.7026 2.3944
6.1230 -2.4863 2.3944
6.2081 -2.2666 2.3944
6.2849 -2.0438 2.3944
6.3532 -1.8183 2.3944
6.4130 -1.5904 2.3944
6.4641 -1.3605 2.3944
6.5065 -1.1288 2.3944
6.5401 -0.8958 2.3944
6.5649 -0.6617 2.3944
6.5809 -0.4270 2.3944
6.5881 -0.1920 2.3944
6.5864 0.0431 2.3944
6.5758 0.2777 2.3944
6.5565 0.5117 2.3944
6.5284 0.7446 2.3944
6.4917 0.9761 2.3944
6.4464 1.2058 2.3944
6.3925 1.4336 2.3944
6.3302 1.6589 2.3944
6.2596 1.8816 2.3944
6.1808 2.1012 2.3944
6.0940 2.3175 2.3944
5.9993 2.5302 2.3944
5.8968 2.7390 2.3944
5.7869 2.9436 2.3944
5.6695 3.1438 2.3944
5.5451 3.3392 2.3944
5.4136 3.5296 2.3944
5.2754 3.7148 2.3944
5.1307 3.8945 2.3944
4.9796 4.0685 2.3944
4.8225 4.2366 2.3944
4.6597 4.3986 2.3944
4.4912 4.5543 2.3944
4.3174 4.7034 2.3944
4.1386 4.8459 2.3944
3.9550 4.9816 2.3944
3.7669 5.1103 2.3944
3.5746 5.2319 2.3944
3.3783 5.3463 2.3944
3.1783 5.4533 2.3944
2.9750 5.5528 2.3944
2.7686 5.6448 2.3944
2.5593 5.7291 2.3944
0.9254 2.2887 0.9439
0.8426 2.3201 0.9456
0.7587 2.3485 0.9474
0.6738 2.3739 0.9491
0.5880 2.3962 0.9508
0.5015 2.4153 0.9525
0.4143 2.4314 0.9542
0.3266 2.4442 0.9558
0.2385 2.4539 0.9575
0.1501 2.4605 0.9591
0.0615 2.4638 0.9607
-0.0272 2.4639 0.9623
-0.1158 2.4608 0.9638
-0.2042 2.4545 0.9654
-0.2924 2.4451 0.9668
-0.3801 2.4324 0.9683
-0.4674 2.4166 0.9697
-0.5540 2.3977 0.9711
-0.6399 2.3756 0.9724
-0.7249 2.3505 0.9737
-0.8090 2.3223 0.9750
-0.8920 2.2911 0.9762
-2.3855 5.5287 2.3944
-2.5798 5.4316 2.3944
-2.7704 5.3278 2.3944
-2.9570 5.2177 2.3944
-3.1395 5.1013 2.3944
-3.3177 4.9788 2.3944
-3.4914 4.8504 2.3944
-3.6603 4.7161 2.3944
-3.8244 4.5763 2.3944
-3.9834 4.4310 2.3944
-4.1372 4.2804 2.3944
-4.2856 4.1248 2.3944
-4.4285 3.9642 2.3944
-4.5657 3.7990 2.3944
-4.6971 3.6292 2.3944
-4.8224 3.4551 2.3944
-4.9417 3.2770 2.3944
-5.0548 3.0949 2.3944
-5.1615 2.9091 2.3944
-5.2617 2.7198 2.3944
-5.3553 2.5272 2.3944
-5.4424 2.3316 2.3944
-5.5226 2.1331 2.3944
-5.5960 1.9320 2.3944
-5.6624 1.7285 2.3944
-5.7219 1.5228 2.3944
-5.7742 1.3152 2.3944
-5.8195 1.1059 2.3944
-5.8575 0.8951 2.3944
-5.8883 0.6830 2.3944
-5.9119 0.4700 2.3944
-4.5440 -3.4140 2.3944
-4.4249 -3.5811 2.3944
-4.2998 -3.7442 2.3944
-4.1689 -3.9029 2.3944
-4.0323 -4.0573 2.3944
-3.8902 -4.2069 2.3944
-3.7427 -4.3516 2.3944
-3.5900 -4.4913 2.3944
-3.4321 -4.6257 2.3944
-3.2694 -4.7546 2.3944
-3.1020 -4.8779 2.3944
-2.9300 -4.9954 2.3944
-2.7537 -5.1068 2.3944
-2.5732 -5.2121 2.3944
-2.3888 -5.3111 2.3944
-2.2007 -5.4035 2.3944
-2.0091 -5.4893 2.3944
-1.8142 -5.5684 2.3944
-1.6163 -5.6405 2.3944
-1.4156 -5.7055 2.3944
-1.2124 -5.7634 2.3944
-1.0069 -5.8141 2.3944
-0.7994 -5.8573 2.3944
-0.5901 -5.8931 2.3944
-0.3793 -5.9213 2.3944
-0.1674 -5.9419 2.3944
0.0456 -5.9548 2.3944
0.2591 -5.9600 2.3944
0.4731 -5.9574 2.3944
0.6871 -5.9469 2.3944
0.9009 -5.9286 2.3944
1.1142 -5.9025 2.3944
1.3267 -5.8685 2.3944
1.5380 -5.8267 2.3944
1.7480 -5.7771 2.3944
1.9563 -5.7197 2.3944
2.1626 -5.6546 2.3944
2.3666 -5.5819 2.3944
2.5680 -5.5015 2.3944
2.7665 -5.4137 2.3944
2.9619 -5.3184 2.3944
3.1538 -5.2159 2.3944
3.3419 -5.1061 2.3944
3.5260 -4.9894 2.3944
3.7058 -4.8658 2.3944
3.8810 -4.7354 2.3944
4.0514 -4.5985 2.3944
4.2167 -4.4552 2.3944
4.3766 -4.3057 2.3944
4.5309 -4.1502 2.3944
4.6794 -3.9890 2.3944
4.8219 -3.8222 2.3944
4.9580 -3.6501 2.3944
5.0877 -3.4729 2.3944
5.2107 -3.2909 2.3944
5.3268 -3.1044 2.3944
5.4358 -2.9136 2.3944
5.5377 -2.7187 2.3944
5.6321 -2.5202 2.3944
5.7190 -2.3182 2.3944
5.7983 -2.1131 2.3944
5.8698 -1.9051 2.3944
5.9335 -1.6946 2.3944
5.9892 -1.4819 2.3944
6.0369 -1.2672 2.3944
6.0764 -1.0510 2.3944
6.1078 -0.8335 2.3944
6.1310 -0.6151 2.3944
6.1460 -0.3960 2.3944
6.1527 -0.1766 2.3944
6.1512 0.0428 2.3944
6.1415 0.2619 2.3944
6.1236 0.4803 2.3944
6.0976 0.6978 2.3944
6.0635 0.9139 2.3944
6.0214 1.1285 2.3944
5.9713 1.3412 2.3944
5.9134 1.5517 2.3944
5.8477 1.7597 2.3944
5.7744 1.9649 2.3944
5.6936 2.1671 2.3944
5.6055 2.3659 2.3944
5.5101 2.5611 2.3944
5.4077 2.7524 2.3944
5.2984 2.9396 2.3944
5.1825 3.1224 2.3944
5.0600 3.3005 2.3944
4.9312 3.4738 2.3944
4.7963 3.6421 2.3944
4.6554 3.8050 2.3944
4.5090 3.9624 2.3944
4.3570 4.1142 2.3944
4.1998 4.2601 2.3944
4.0377 4.4000 2.3944
3.8708 4.5336 2.3944
3.6993 4.6610 2.3944
3.5237 4.7817 2.3944
3.3441 4.8959 2.3944
3.1607 5.0033 2.3944
2.9739 5.1039 2.3944
2.7839 5.1975 2.3944
2.5909 5.2841 2.3944
0.9424 2.1104 0.9421
0.8660 2.1425 0.9437
0.7884 2.1718 0.9454
0.7099 2.1983 0.9470
0.6304 2.2220 0.9486
0.5501 2.2428 0.9502
0.4691 2.2607 0.9518
0.3875 2.2756 0.9533
0.3054 2.2876 0.9549
0.2229 2.2966 0.9564
0.1402 2.3027 0.9580
0.0572 2.3057 0.9595
-0.0258 2.3058 0.9609
-0.1087 2.3029 0.9624
-0.1915 2.2969 0.9638
-0.2740 2.2880 0.9652
-0.3561 2.2761 0.9666
-0.4378 2.2613 0.9679
-0.5188 2.2435 0.9692
-0.5992 2.2228 0.9705
-0.6788 2.1992 0.9717
-0.7575 2.1728 0.9729
-0.8351 2.1436 0.9740
-2.2387 5.1849 2.3944
-2.4211 5.0940 2.3944
-2.6000 4.9969 2.3944
-2.7752 4.8938 2.3944
-2.9466 4.7848 2.3944
-3.1140 4.6700 2.3944
-3.2771 4.5496 2.3944
-3.4358 4.4238 2.3944
-3.5899 4.2927 2.3944
-3.7393 4.1564 2.3944
-3.8838 4.0152 2.3944
-4.0232 3.8691 2.3944
-4.1575 3.7185 2.3944
-4.2863 3.5634 2.3944
-4.4097 3.4041 2.3944
-4.5275 3.2407 2.3944
-4.6395 3.0734 2.3944
-4.7456 2.9024 2.3944
-4.8458 2.7279 2.3944
-4.9399 2.5501 2.3944
-5.0278 2.3693 2.3944
-5.1095 2.1856 2.3944
-5.1847 1.9991 2.3944
-5.2536 1.8103 2.3944
-5.3158 1.6191 2.3944
-5.3715 1.4259 2.3944
-5.4205 1.2310 2.3944
-5.4628 1.0343 2.3944
-5.4984 0.8364 2.3944
-5.5271 0.6372 2.3944
-5.5489 0.4371 2.3944
-5.5639 0.2363 2.3944
-5.5719 0.0350 2.3944
-5.5730 -0.1666 2.3944
-5.5672 -0.3682 2.3944
-5.5544 -0.5696 2.3944
-5.5346 -0.7706 2.3944
-5.5079 -0.9709 2.3944
-5.4743 -1.1704 2.3944
-5.4338 -1.3687 2.3944
-5.3864 -1.5657 2.3944
-5.3322 -1.7611 2.3944
-5.2711 -1.9547 2.3944
-5.2034 -2.1463 2.3944
-5.1289 -2.3356 2.3944
-5.0478 -2.5224 2.3944
-4.9602 -2.7065 2.3944
-4.8661 -2.8877 2.3944
-4.7656 -3.0657 2.3944
-4.6588 -3.2403 2.3944
-4.5459 -3.4112 2.3944
-4.4269 -3.5784 2.3944
-4.3019 -3.7415 2.3944
-4.1711 -3.9004 2.3944
-4.0346 -4.0547 2.3944
-3.8926 -4.2045 2.3944
-3.7452 -4.3493 2.3944
-3.5925 -4.4891 2.3944
-3.4348 -4.6235 2.3944
-3.2721 -4.7526 2.3944
-3.1047 -4.8759 2.3944
-2.9328 -4.9935 2.3944
-2.7566 -5.1051 2.3944
-2.5762 -5.2104 2.3944
-2.3918 -5.3095 2.3944
-2.2038 -5.4021 2.3944
-2.0122 -5.4880 2.3944
-1.8174 -5.5671 2.3944
-1.6196 -5.6393 2.3944
-1.4189 -5.7045 2.3944
-1.2158 -5.7625 2.3944
-1.0103 -5.8133 2.3944
-0.8028 -5.8567 2.3944
-0.5936 -5.8926 2.3944
-0.3828 -5.9209 2.3944
-0.1708 -5.9416 2.3944
0.0421 -5.9547 2.3944
0.2556 -5.9600 2.3944
0.4696 -5.9575 2.3944
0.6836 -5.9472 2.3944
0.8974 -5.9290 2.3944
1.1107 -5.9030 2.3944
1.3232 -5.8692 2.3944
1.5346 -5.8275 2.3944
1.7446 -5.7780 2.3944
1.9529 -5.7207 2.3944
2.1592 -5.6558 2.3944
2.3633 -5.5831 2.3944
2.5647 -5.5029 2.3944
2.7633 -5.4152 2.3944
2.9587 -5.3200 2.3944
3.1506 -5.2176 2.3944
3.3388 -5.1080 2.3944
3.5230 -4.9914 2.3944
3.7029 -4.8678 2.3944
3.8782 -4.7376 2.3944
4.0487 -4.6008 2.3944
4.2140 -4.4576 2.3944
4.3740 -4.3082 2.3944
4.5285 -4.1528 2.3944
4.6770 -3.9917 2.3944
4.8196 -3.8250 2.3944
4.9558 -3.6529 2.3944
5.0856 -3.4759 2.3944
5.2087 -3.2940 2.3944
5.3249 -3.1075 2.3944
5.4341 -2.9167 2.3944
5.5360 -2.7220 2.3944
5.6306 -2.5235 2.3944
5.7177 -2.3215 2.3944
5.7971 -2.1165 2.3944
5.8687 -1.9085 2.3944
5.9325 -1.6981 2.3944
5.9884 -1.4854 2.3944
6.0361 -1.2708 2.3944
6.0758 -1.0546 2.3944
6.1073 -0.8371 2.3944
6.1307 -0.6187 2.3944
6.1458 -0.3996 2.3944
6.1527 -0.1802 2.3944
6.1513 0.0392 2.3944
6.1417 0.2583 2.3944
6.1240 0.4767 2.3944
6.0981 0.6942 2.3944
6.0641 0.9104 2.3944
6.0221 1.1250 2.3944
5.9722 1.3377 2.3944
5.9144 1.5483 2.3944
5.8488 1.7563 2.3944
5.7757 1.9616 2.3944
5.6950 2.1638 2.3944
5.6070 2.3627 2.3944
5.5117 2.5579 2.3944
5.4095 2.7493 2.3944
5.3003 2.9365 2.3944
5.1844 3.1194 2.3944
5.0621 3.2976 2.3944
4.9333 3.4710 2.3944
4.7985 3.6394 2.3944
4.6578 3.8024 2.3944
4.5114 3.9599 2.3944
4.3595 4.1118 2.3944
4.2024 4.2578 2.3944
4.0404 4.3977 2.3944
3.8735 4.5315 2.3944
3.7022 4.6590 2.3944
3.5266 4.7798 2.3944
3.3471 4.8941 2.3944
3.1638 5.0016 2.3944
2.9770 5.1023 2.3944
2.7870 5.1960 2.3944
2.5941 5.2827 2.3944
2.3985 5.3622 2.3944
0.8673 2.1420 0.9437
0.7897 2.1714 0.9453
0.7112 2.1979 0.9469
0.6317 2.2216 0.9486
0.5514 2.2425 0.9502
0.4704 2.2604 0.9517
0.3888 2.2754 0.9533
0.3067 2.2874 0.9549
0.2243 2.2965 0.9564
0.1415 2.3026 0.9579
0.0586 2.3057 0.9594
-0.0244 2.3058 0.9609
-0.1073 2.3029 0.9624
-0.1901 2.2971 0.9638
-0.2726 2.2882 0.9652
-0.3548 2.2764 0.9666
-0.4364 2.2616 0.9679
-0.5175 2.2438 0.9692
-0.5979 2.2232 0.9704
-0.6775 2.1997 0.9717
-0.7562 2.1733 0.9728
-0.8339 2.1441 0.9740
-2.2356 5.1863 2.3944
-2.4181 5.0955 2.3944
-2.5971 4.9985 2.3944
-2.7724 4.8955 2.3944
-2.9439 4.7866 2.3944
-3.1113 4.6719 2.3944
-3.2745 4.5517 2.3944
-3.4332 4.4259 2.3944
-3.5875 4.2949 2.3944
-3.7369 4.1587 2.3944
-3.8815 4.0175 2.3944
-4.0210 3.8716 2.3944
-4.1553 3.7210 2.3944
-4.2842 3.5660 2.3944
-4.4077 3.4067 2.3944
-4.5256 3.2434 2.3944
-4.6377 3.0761 2.3944
-4.7439 2.9052 2.3944
-4.8442 2.7308 2.3944
-4.9384 2.5531 2.3944
-5.0265 2.3723 2.3944
-5.1082 2.1886 2.3944
-5.1835 2.0022 2.3944
-5.2525 1.8134 2.3944
-5.3149 1.6223 2.3944
-5.3707 1.4292 2.3944
-5.4198 1.2342 2.3944
-5.4622 1.0376 2.3944
-5.4978 0.8396 2.3944
-5.5266 0.6405 2.3944
-5.5486 0.4404 2.3944
-4.2711 -3.2118 2.3944
-4.1588 -3.3687 2.3944
-4.0409 -3.5217 2.3944
-3.9175 -3.6707 2.3944
-3.7887 -3.8155 2.3944
-3.6548 -3.9558 2.3944
-3.5158 -4.0916 2.3944
-3.3719 -4.2225 2.3944
-3.2233 -4.3484 2.3944
-3.0700 -4.4692 2.3944
-2.9124 -4.5846 2.3944
-2.7505 -4.6946 2.3944
-2.5846 -4.7988 2.3944
-2.4148 -4.8973 2.3944
-2.2413 -4.9897 2.3944
-2.0644 -5.0761 2.3944
-1.8843 -5.1562 2.3944
-1.7011 -5.2299 2.3944
-1.5151 -5.2971 2.3944
-1.3266 -5.3577 2.3944
-1.1356 -5.4115 2.3944
-0.9426 -5.4585 2.3944
-0.7477 -5.4985 2.3944
-0.5513 -5.5316 2.3944
-0.3534 -5.5575 2.3944
-0.1545 -5.5763 2.3944
0.0453 -5.5879 2.3944
0.2457 -5.5922 2.3944
0.4463 -5.5892 2.3944
0.6470 -5.5789 2.3944
0.8475 -5.5613 2.3944
1.0474 -5.5363 2.3944
1.2466 -5.5039 2.3944
1.4447 -5.4643 2.3944
1.6415 -5.4173 2.3944
1.8366 -5.3630 2.3944
2.0298 -5.3016 2.3944
2.2209 -5.2329 2.3944
2.4095 -5.1572 2.3944
2.5954 -5.0745 2.3944
2.7782 -4.9849 2.3944
2.9579 -4.8885 2.3944
3.1340 -4.7853 2.3944
3.3063 -4.6757 2.3944
3.4745 -4.5596 2.3944
3.6385 -4.4372 2.3944
3.7979 -4.3087 2.3944
3.9525 -4.1742 2.3944
4.1021 -4.0340 2.3944
4.2465 -3.8882 2.3944
4.3854 -3.7370 2.3944
4.5187 -3.5807 2.3944
4.6460 -3.4194 2.3944
4.7673 -3.2534 2.3944
4.8824 -3.0828 2.3944
4.9910 -2.9081 2.3944
5.0930 -2.7293 2.3944
5.1883 -2.5469 2.3944
5.2767 -2.3609 2.3944
5.3581 -2.1717 2.3944
5.4323 -1.9796 2.3944
5.4993 -1.7849 2.3944
5.5589 -1.5878 2.3944
5.6111 -1.3886 2.3944
5.6558 -1.1876 2.3944
5.6929 -0.9852 2.3944
5.7224 -0.7815 2.3944
5.7443 -0.5769 2.3944
5.7585 -0.3718 2.3944
5.7650 -0.1663 2.3944
5.7638 0.0392 2.3944
5.7549 0.2444 2.3944
5.7384 0.4490 2.3944
5.7143 0.6527 2.3944
5.6826 0.8552 2.3944
5.6434 1.0563 2.3944
5.5968 1.2556 2.3944
5.5429 1.4529 2.3944
5.4817 1.6479 2.3944
5.4133 1.8403 2.3944
5.3380 2.0298 2.3944
5.2558 2.2163 2.3944
5.1667 2.3994 2.3944
5.0712 2.5789 2.3944
4.9691 2.7545 2.3944
4.8608 2.9261 2.3944
4.7464 3.0934 2.3944
4.6260 3.2561 2.3944
4.4999 3.4141 2.3944
4.3682 3.5672 2.3944
4.2312 3.7152 2.3944
4.0890 3.8580 2.3944
3.9420 3.9951 2.3944
3.7903 4.1267 2.3944
3.6340 4.2525 2.3944
3.4735 4.3723 2.3944
3.3091 4.4861 2.3944
3.1408 4.5937 2.3944
2.9691 4.6949 2.3944
2.7939 4.7898 2.3944
2.6157 4.8782 2.3944
2.4349 4.9599 2.3944
0.8858 1.9810 0.9420
0.8140 2.0111 0.9436
0.7412 2.0386 0.9451
0.6674 2.0635 0.9466
0.5928 2.0857 0.9481
0.5174 2.1052 0.9496
0.4414 2.1220 0.9511
0.3648 2.1360 0.9526
0.2877 2.1473 0.9541
0.2103 2.1557 0.9555
0.1326 2.1614 0.9569
0.0547 2.1643 0.9583
-0.0232 2.1643 0.9597
-0.1010 2.1615 0.9611
-0.1787 2.1560 0.9624
-0.2562 2.1476 0.9637
-0.3333 2.1365 0.9650
-0.4100 2.1225 0.9663
-0.4861 2.1058 0.9675
-0.5615 2.0864 0.9687
-0.6362 2.0643 0.9698
-0.7101 2.0395 0.9709
-0.7830 2.0120 0.9720
-0.8549 1.9819 0.9730
-2.2754 4.7919 2.3944
-2.4439 4.7009 2.3944
-2.6090 4.6041 2.3944
-2.7705 4.5018 2.3944
-2.9281 4.3940 2.3944
-3.0818 4.2810 2.3944
-3.2313 4.1628 2.3944
-3.3766 4.0395 2.3944
-3.5173 3.9115 2.3944
-3.6535 3.7787 2.3944
-3.7848 3.6414 2.3944
-3.9114 3.4997 2.3944
-4.0328 3.3538 2.3944
-4.1491 3.2039 2.3944
-4.2601 3.0501 2.3944
-4.3656 2.8927 2.3944
-4.4657 2.7318 2.3944
-4.5601 2.5675 2.3944
-4.6487 2.4002 2.3944
-4.7315 2.2300 2.3944
-4.8084 2.0570 2.3944
-4.8793 1.8815 2.3944
-4.9441 1.7036 2.3944
-5.0028 1.5237 2.3944
-5.0552 1.3418 2.3944
-5.1013 1.1581 2.3944
-5.1410 0.9730 2.3944
-5.1744 0.7866 2.3944
-5.2013 0.5991 2.3944
-5.2218 0.4107 2.3944
-5.2357 0.2216 2.3944
-5.2431 0.0321 2.3944
-5.2440 -0.1577 2.3944
-5.2384 -0.3475 2.3944
-5.2261 -0.5370 2.3944
-5.2073 -0.7262 2.3944
-5.1820 -0.9147 2.3944
-5.1501 -1.1024 2.3944
-5.1117 -1.2890 2.3944
-5.0668 -1.4744 2.3944
-5.0155 -1.6582 2.3944
-4.9578 -1.8403 2.3944
-4.8937 -2.0204 2.3944
-4.8233 -2.1984 2.3944
-4.7467 -2.3741 2.3944
-4.6640 -2.5471 2.3944
-4.5751 -2.7173 2.3944
-4.4803 -2.8846 2.3944
-4.3795 -3.0486 2.3944
-4.2730 -3.2092 2.3944
-4.1607 -3.3661 2.3944
-4.0428 -3.5192 2.3944
-3.9195 -3.6683 2.3944
-3.7909 -3.8131 2.3944
-3.6570 -3.9536 2.3944
-3.5181 -4.0894 2.3944
-3.3743 -4.2204 2.3944
-3.2257 -4.3464 2.3944
-3.0726 -4.4672 2.3944
-2.9150 -4.5828 2.3944
-2.7532 -4.6928 2.3944
-2.5873 -4.7972 2.3944
-2.4176 -4.8957 2.3944
-2.2442 -4.9883 2.3944
-2.0674 -5.0747 2.3944
-1.8873 -5.1549 2.3944
-1.7041 -5.2287 2.3944
-1.5182 -5.2960 2.3944
-1.3297 -5.3567 2.3944
-1.1388 -5.4107 2.3944
-0.9458 -5.4578 2.3944
-0.7510 -5.4979 2.3944
-0.5545 -5.5311 2.3944
-0.3567 -5.5572 2.3944
-0.1577 -5.5761 2.3944
0.0420 -5.5878 2.3944
0.2424 -5.5922 2.3944
0.4430 -5.5893 2.3944
0.6437 -5.5792 2.3944
0.8442 -5.5616 2.3944
1.0442 -5.5367 2.3944
1.2433 -5.5045 2.3944
1.4414 -5.4650 2.3944
1.6382 -5.4181 2.3944
1.8334 -5.3640 2.3944
2.0267 -5.3026 2.3944
2.2177 -5.2341 2.3944
2.4064 -5.1585 2.3944
2.5923 -5.0759 2.3944
2.7753 -4.9864 2.3944
2.9549 -4.8901 2.3944
3.1311 -4.7871 2.3944
3.3035 -4.6775 2.3944
3.4718 -4.5615 2.3944
3.6358 -4.4392 2.3944
3.7953 -4.3108 2.3944
3.9500 -4.1765 2.3944
4.0997 -4.0363 2.3944
4.2442 -3.8906 2.3944
4.3832 -3.7395 2.3944
4.5165 -3.5833 2.3944
4.6440 -3.4221 2.3944
4.7654 -3.2561 2.3944
4.8805 -3.0857 2.3944
4.9892 -2.9110 2.3944
5.0914 -2.7323 2.3944
5.1868 -2.5499 2.3944
5.2753 -2.3640 2.3944
5.3568 -2.1749 2.3944
5.4311 -1.9828 2.3944
5.4982 -1.7881 2.3944
5.5580 -1.5911 2.3944
5.6103 -1.3919 2.3944
5.6551 -1.1909 2.3944
5.6924 -0.9885 2.3944
5.7220 -0.7848 2.3944
5.7440 -0.5803 2.3944
5.7583 -0.3751 2.3944
5.7649 -0.1697 2.3944
5.7639 0.0358 2.3944
5.7551 0.2410 2.3944
5.7387 0.4456 2.3944
5.7147 0.6493 2.3944
5.6832 0.8519 2.3944
5.6441 1.0530 2.3944
5.5976 1.2523 2.3944
5.5438 1.4496 2.3944
5.4827 1.6447 2.3944
5.4145 1.8371 2.3944
5.3393 2.0267 2.3944
5.2572 2.2132 2.3944
5.1683 2.3964 2.3944
5.0728 2.5759 2.3944
4.9709 2.7517 2.3944
4.8626 2.9233 2.3944
4.7483 3.0906 2.3944
4.6280 3.2535 2.3944
4.5020 3.4116 2.3944
4.3704 3.5648 2.3944
4.2335 3.7128 2.3944
4.0915 3.8556 2.3944
3.9445 3.9929 2.3944
3.7928 4.1246 2.3944
3.6366 4.2504 2.3944
3.4762 4.3704 2.3944
3.3118 4.4843 2.3944
3.1436 4.5920 2.3944
2.9719 4.6933 2.3944
2.7968 4.7883 2.3944
2.6188 4.8767 2.3944
2.4379 4.9586 2.3944
0.8870 1.9804 0.9420
0.8152 2.0106 0.9435
0.7424 2.0382 0.9451
0.6687 2.0631 0.9466
0.5941 2.0854 0.9481
0.5187 2.1049 0.9496
0.4426 2.1217 0.9511
0.3660 2.1358 0.9526
0.2890 2.1471 0.9540
0.2115 2.1556 0.9555
0.1339 2.1613 0.9569
0.0560 2.1642 0.9583
-0.0219 2.1643 0.9597
-0.0998 2.1616 0.9611
-0.1775 2.1561 0.9624
-0.2549 2.1478 0.9637
-0.3321 2.1367 0.9650
-0.4087 2.1228 0.9662
-0.4848 2.1061 0.9675
-0.5603 2.0867 0.9686
-0.6350 2.0647 0.9698
-0.7089 2.0399 0.9709
-0.7818 2.0125 0.9720
-0.8537 1.9824 0.9730
-2.2726 4.7933 2.3944
-2.4412 4.7024 2.3944
-2.6063 4.6058 2.3944
-2.7678 4.5035 2.3944
-2.9255 4.3959 2.3944
-3.0793 4.2829 2.3944
-3.2289 4.1648 2.3944
-3.3742 4.0416 2.3944
-3.5150 3.9136 2.3944
-3.6513 3.7809 2.3944
-3.7827 3.6437 2.3944
-3.9093 3.5021 2.3944
-4.0308 3.3562 2.3944
-4.1472 3.2064 2.3944
-4.2583 3.0527 2.3944
-4.3639 2.8953 2.3944
-4.4641 2.7344 2.3944
-4.5585 2.5703 2.3944
-4.6473 2.4030 2.3944
-4.7302 2.2328 2.3944
-4.8072 2.0598 2.3944
-4.8782 1.8844 2.3944
-4.9431 1.7066 2.3944
-5.0019 1.5266 2.3944
-5.0544 1.3448 2.3944
-5.1006 1.1612 2.3944
-5.1404 0.9761 2.3944
-5.1739 0.7897 2.3944
-5.2009 0.6022 2.3944
-5.2215 0.4138 2.3944
-4.0244 -3.0289 2.3944
-3.9182 -3.1766 2.3944
-3.8068 -3.3206 2.3944
-3.6902 -3.4608 2.3944
-3.5685 -3.5970 2.3944
-3.4420 -3.7290 2.3944
-3.3108 -3.8566 2.3944
-3.1749 -3.9797 2.3944
-3.0346 -4.0980 2.3944
-2.8900 -4.2114 2.3944
-2.7412 -4.3198 2.3944
-2.5885 -4.4230 2.3944
-2.4320 -4.5209 2.3944
-2.2719 -4.6132 2.3944
-2.1083 -4.6999 2.3944
-1.9415 -4.7808 2.3944
-1.7717 -4.8558 2.3944
-1.5991 -4.9247 2.3944
-1.4239 -4.9876 2.3944
-1.2463 -5.0441 2.3944
-1.0665 -5.0943 2.3944
-0.8847 -5.1381 2.3944
-0.7012 -5.1754 2.3944
-0.5163 -5.2060 2.3944
-0.3301 -5.2300 2.3944
-0.1429 -5.2472 2.3944
0.0451 -5.2576 2.3944
0.2336 -5.2612 2.3944
0.4223 -5.2580 2.3944
0.6110 -5.2479 2.3944
0.7995 -5.2308 2.3944
0.9875 -5.2069 2.3944
1.1746 -5.1761 2.3944
1.3608 -5.1384 2.3944
1.5457 -5.0938 2.3944
1.7290 -5.0424 2.3944
1.9105 -4.9843 2.3944
2.0900 -4.9195 2.3944
2.2671 -4.8480 2.3944
2.4416 -4.7699 2.3944
2.6133 -4.6854 2.3944
2.7820 -4.5945 2.3944
2.9473 -4.4973 2.3944
3.1090 -4.3940 2.3944
3.2669 -4.2847 2.3944
3.4208 -4.1695 2.3944
3.5704 -4.0486 2.3944
3.7155 -3.9221 2.3944
3.8558 -3.7902 2.3944
3.9913 -3.6531 2.3944
4.1216 -3.5110 2.3944
4.2466 -3.3640 2.3944
4.3661 -3.2124 2.3944
4.4799 -3.0564 2.3944
4.5879 -2.8962 2.3944
4.6898 -2.7320 2.3944
4.7856 -2.5641 2.3944
4.8750 -2.3927 2.3944
4.9579 -2.2181 2.3944
5.0343 -2.0404 2.3944
5.1040 -1.8600 2.3944
5.1669 -1.6771 2.3944
5.2229 -1.4920 2.3944
5.2720 -1.3049 2.3944
5.3140 -1.1162 2.3944
5.3490 -0.9261 2.3944
5.3768 -0.7348 2.3944
5.3974 -0.5427 2.3944
5.4109 -0.3500 2.3944
5.4171 -0.1571 2.3944
5.4162 0.0359 2.3944
5.4080 0.2286 2.3944
5.3927 0.4208 2.3944
5.3703 0.6122 2.3944
5.3407 0.8025 2.3944
5.3042 0.9914 2.3944
5.2607 1.1787 2.3944
5.2102 1.3641 2.3944
5.1530 1.5474 2.3944
5.0891 1.7283 2.3944
5.0187 1.9065 2.3944
4.9417 2.0819 2.3944
4.8583 2.2541 2.3944
4.7688 2.4230 2.3944
4.6732 2.5882 2.3944
4.5717 2.7497 2.3944
4.4645 2.9072 2.3944
4.3516 3.0604 2.3944
4.2334 3.2092 2.3944
4.1099 3.3534 2.3944
3.9814 3.4928 2.3944
3.8481 3.6273 2.3944
3.7101 3.7567 2.3944
3.5676 3.8807 2.3944
3.4210 3.9994 2.3944
3.2703 4.1125 2.3944
3.1158 4.2199 2.3944
2.9577 4.3215 2.3944
2.7963 4.4172 2.3944
2.6318 4.5068 2.3944
2.4644 4.5904 2.3944
0.9013 1.8336 0.9405
0.8348 1.8643 0.9420
0.7672 1.8927 0.9434
0.6986 1.9186 0.9449
0.6292 1.9420 0.9463
0.5590 1.9629 0.9477
0.4880 1.9812 0.9491
0.4164 1.9970 0.9505
0.3443 2.0102 0.9519
0.2718 2.0208 0.9533
0.1989 2.0288 0.9547
0.1257 2.0341 0.9560
0.0525 2.0368 0.9573
-0.0209 2.0368 0.9586
-0.0941 2.0342 0.9599
-0.1673 2.0290 0.9612
-0.2402 2.0211 0.9624
-0.3128 2.0106 0.9636
-0.3849 1.9975 0.9648
-0.4566 1.9818 0.9659
-0.5276 1.9635 0.9670
-0.5979 1.9426 0.9681
-0.6674 1.9193 0.9692
-0.7360 1.8934 0.9702
-0.8037 1.8651 0.9711
-0.8703 1.8344 0.9721
-2.3027 4.4329 2.3944
