ply
format ascii 1.0
element vertex 2185
property float32 x
property float32 y
property float32 z
end_header
5.1139 7.6638 2.3874
4.8352 7.8423 2.3874
4.5502 8.0108 2.3874
4.2594 8.1689 2.3874
3.9631 8.3164 2.3874
3.6617 8.4532 2.3874
3.3555 8.5792 2.3874
3.0451 8.6940 2.3874
2.7307 8.7976 2.3874
2.4129 8.8899 2.3874
0.8334 3.5738 0.9511
0.7046 3.6020 0.9513
0.5748 3.6254 0.9514
0.4442 3.6442 0.9515
0.3130 3.6581 0.9516
0.1814 3.6673 0.9517
0.0496 3.6718 0.9518
-0.0824 3.6714 0.9519
-0.2142 3.6662 0.9519
-0.3458 3.6563 0.9519
-0.4770 3.6415 0.9520
-0.6075 3.6221 0.9520
-0.7372 3.5979 0.9519
-0.8659 3.5690 0.9519
-2.4919 8.8671 2.3874
-2.8089 8.7719 2.3874
-3.1223 8.6653 2.3874
-3.4316 8.5476 2.3874
-3.7365 8.4189 2.3874
-4.0366 8.2793 2.3874
-4.3314 8.1291 2.3874
-4.6207 7.9683 2.3874
-4.9041 7.7973 2.3874
-5.1811 7.6162 2.3874
-5.4515 7.4253 2.3874
-5.7148 7.2248 2.3874
-5.9708 7.0149 2.3874
-6.2191 6.7960 2.3874
-6.4594 6.5683 2.3874
-6.6913 6.3322 2.3874
-6.9147 6.0879 2.3874
-7.1291 5.8357 2.3874
-7.3343 5.5759 2.3874
-7.5301 5.3090 2.3874
-7.7162 5.0352 2.3874
-7.8923 4.7549 2.3874
-8.0583 4.4684 2.3874
-8.2139 4.1762 2.3874
-8.3589 3.8785 2.3874
-8.4931 3.5758 2.3874
-8.6164 3.2685 2.3874
-8.7285 2.9570 2.3874
-8.8294 2.6416 2.3874
-8.9189 2.3228 2.3874
-8.9969 2.0010 2.3874
-9.0633 1.6765 2.3874
-9.1181 1.3499 2.3874
-9.1610 1.0215 2.3874
-9.1921 0.6918 2.3874
-9.2114 0.3611 2.3874
-9.2188 0.0300 2.3874
-9.2143 -0.3012 2.3874
-9.1979 -0.6321 2.3874
-9.1696 -0.9621 2.3874
-9.1295 -1.2910 2.3874
-9.0776 -1.6181 2.3874
-9.0139 -1.9433 2.3874
-8.9386 -2.2659 2.3874
-8.8518 -2.5857 2.3874
-8.7536 -2.9021 2.3874
-8.6440 -3.2148 2.3874
-8.5233 -3.5234 2.3874
-8.3915 -3.8274 2.3874
-8.2489 -4.1266 2.3874
-8.0957 -4.4204 2.3874
-7.9319 -4.7085 2.3874
-7.7580 -4.9906 2.3874
-7.5740 -5.2663 2.3874
-7.3802 -5.5351 2.3874
-7.1768 -5.7969 2.3874
-6.9642 -6.0512 2.3874
-6.7425 -6.2976 2.3874
-6.5122 -6.5360 2.3874
-6.2734 -6.7659 2.3874
-6.0265 -6.9871 2.3874
-5.7718 -7.1993 2.3874
-5.5096 -7.4022 2.3874
-5.2403 -7.5956 2.3874
-4.9642 -7.7791 2.3874
-4.6817 -7.9526 2.3874
-4.3931 -8.1159 2.3874
-4.0988 -8.2686 2.3874
-3.7993 -8.4107 2.3874
-3.4948 -8.5419 2.3874
-3.1858 -8.6622 2.3874
-2.8726 -8.7712 2.3874
-2.5557 -8.8689 2.3874
-2.2355 -8.9551 2.3874
-1.9124 -9.0298 2.3874
-1.5869 -9.0927 2.3874
-1.2592 -9.1440 2.3874
-0.9300 -9.1834 2.3874
-0.5995 -9.2110 2.3874
-0.2682 -9.2267 2.3874
0.0633 -9.2304 2.3874
0.3949 -9.2223 2.3874
0.7259 -9.2022 2.3874
1.0560 -9.1702 2.3874
1.3847 -9.1263 2.3874
1.7116 -9.0707 2.3874
2.0364 -9.0034 2.3874
2.3584 -8.9244 2.3874
2.6775 -8.8339 2.3874
2.9931 -8.7320 2.3874
3.3048 -8.6187 2.3874
3.6122 -8.4944 2.3874
3.9149 -8.3591 2.3874
4.2126 -8.2130 2.3874
4.5049 -8.0563 2.3874
4.7913 -7.8891 2.3874
5.0715 -7.7118 2.3874
5.3452 -7.5245 2.3874
5.6119 -7.3276 2.3874
5.8714 -7.1211 2.3874
6.1233 -6.9055 2.3874
6.3673 -6.6809 2.3874
6.6030 -6.4477 2.3874
6.8302 -6.2062 2.3874
7.0485 -5.9567 2.3874
7.2578 -5.6995 2.3874
7.4576 -5.4350 2.3874
7.6478 -5.1635 2.3874
7.8282 -4.8853 2.3874
7.9983 -4.6008 2.3874
8.1582 -4.3103 2.3874
8.3075 -4.0144 2.3874
8.4461 -3.7133 2.3874
8.5737 -3.4074 2.3874
8.6903 -3.0971 2.3874
8.7956 -2.7828 2.3874
8.8896 -2.4650 2.3874
8.9721 -2.1440 2.3874
9.0430 -1.8202 2.3874
9.1022 -1.4941 2.3874
9.1497 -1.1662 2.3874
9.1853 -0.8367 2.3874
9.2091 -0.5062 2.3874
9.2210 -0.1750 2.3874
9.2210 0.1563 2.3874
9.2090 0.4875 2.3874
9.1852 0.8179 2.3874
9.1495 1.1473 2.3874
9.1021 1.4752 2.3874
9.0428 1.8011 2.3874
8.9719 2.1248 2.3874
8.8895 2.4456 2.3874
8.7955 2.7633 2.3874
8.6902 3.0773 2.3874
8.5738 3.3874 2.3874
8.4462 3.6931 2.3874
8.3078 3.9939 2.3874
8.1586 4.2897 2.3874
7.9990 4.5798 2.3874
7.8290 4.8640 2.3874
7.6489 5.1419 2.3874
7.4590 5.4132 2.3874
7.2595 5.6775 2.3874
7.0506 5.9344 2.3874
6.8326 6.1836 2.3874
6.6058 6.4249 2.3874
6.3705 6.6578 2.3874
6.1271 6.8822 2.3874
5.8757 7.0976 2.3874
5.6167 7.3039 2.3874
5.3506 7.5008 2.3874
5.0775 7.6879 2.3874
4.7979 7.8652 2.3874
4.5121 8.0323 2.3874
4.2206 8.1890 2.3874
3.9236 8.3351 2.3874
3.6215 8.4705 2.3874
3.3148 8.5950 2.3874
3.0038 8.7083 2.3874
2.6890 8.8105 2.3874
2.3707 8.9012 2.3874
0.8164 3.5778 0.9511
0.6875 3.6053 0.9513
0.5576 3.6282 0.9514
0.4269 3.6463 0.9515
0.2957 3.6596 0.9516
0.1640 3.6682 0.9517
0.0321 3.6720 0.9518
-0.0998 3.6710 0.9519
-0.2316 3.6652 0.9519
-0.3632 3.6546 0.9519
-0.4942 3.6392 0.9520
-0.6247 3.6191 0.9520
-0.7543 3.5943 0.9519
-0.8829 3.5648 0.9519
-2.5340 8.8552 2.3874
-2.8505 8.7585 2.3874
-3.1634 8.6504 2.3874
-3.4721 8.5313 2.3874
-3.7764 8.4011 2.3874
-4.0758 8.2601 2.3874
-4.3700 8.1084 2.3874
-4.6585 7.9463 2.3874
-4.9411 7.7739 2.3874
-5.2172 7.5915 2.3874
-5.4867 7.3993 2.3874
-5.7491 7.1976 2.3874
-6.0041 6.9865 2.3874
-6.2513 6.7664 2.3874
-6.4905 6.5376 2.3874
-6.7213 6.3004 2.3874
-6.9435 6.0550 2.3874
-7.1567 5.8018 2.3874
-7.3607 5.5411 2.3874
-7.5552 5.2732 2.3874
-7.7400 4.9985 2.3874
-7.9149 4.7174 2.3874
-8.0794 4.4301 2.3874
-8.2336 4.1372 2.3874
-8.3772 3.8388 2.3874
-8.5100 3.5355 2.3874
-8.6318 3.2276 2.3874
-8.7425 2.9155 2.3874
-8.8419 2.5997 2.3874
-8.9299 2.2804 2.3874
-9.0064 1.9582 2.3874
-9.0712 1.6335 2.3874
-9.1244 1.3066 2.3874
-9.1658 0.9780 2.3874
-9.1954 0.6481 2.3874
-9.2131 0.3174 2.3874
-9.2189 -0.0138 2.3874
-9.2128 -0.3450 2.3874
-9.1948 -0.6757 2.3874
-9.1650 -1.0056 2.3874
-9.1233 -1.3343 2.3874
-9.0698 -1.6612 2.3874
-9.0046 -1.9860 2.3874
-8.9278 -2.3083 2.3874
-8.8395 -2.6277 2.3874
-8.7397 -2.9436 2.3874
-8.6287 -3.2558 2.3874
-8.5065 -3.5638 2.3874
-8.3733 -3.8672 2.3874
-8.2293 -4.1657 2.3874
-8.0746 -4.4588 2.3874
-7.9095 -4.7461 2.3874
-7.7342 -5.0274 2.3874
-7.5489 -5.3022 2.3874
-7.3539 -5.5701 2.3874
-7.1493 -5.8309 2.3874
-6.9354 -6.0842 2.3874
-6.7126 -6.3296 2.3874
-6.4811 -6.5668 2.3874
-6.2412 -6.7956 2.3874
-5.9933 -7.0156 2.3874
-5.7376 -7.2266 2.3874
-5.4744 -7.4283 2.3874
-5.2042 -7.6204 2.3874
-4.9273 -7.8026 2.3874
-4.6439 -7.9748 2.3874
-4.3546 -8.1366 2.3874
-4.0596 -8.2880 2.3874
-3.7594 -8.4287 2.3874
-3.4542 -8.5585 2.3874
-3.1446 -8.6772 2.3874
-2.8309 -8.7847 2.3874
-2.5136 -8.8809 2.3874
-2.1930 -8.9656 2.3874
-1.8696 -9.0387 2.3874
-1.5437 -9.1002 2.3874
-1.2158 -9.1499 2.3874
-0.8864 -9.1878 2.3874
-0.5558 -9.2138 2.3874
-0.2245 -9.2279 2.3874
0.1072 -9.2300 2.3874
0.4386 -9.2203 2.3874
0.7696 -9.1986 2.3874
1.0995 -9.1651 2.3874
1.4280 -9.1197 2.3874
1.7547 -9.0625 2.3874
2.0790 -8.9936 2.3874
2.4008 -8.9131 2.3874
2.7194 -8.8211 2.3874
3.0345 -8.7177 2.3874
3.3457 -8.6030 2.3874
3.6525 -8.4772 2.3874
3.9546 -8.3404 2.3874
4.2516 -8.1929 2.3874
4.5431 -8.0348 2.3874
4.8287 -7.8663 2.3874
5.1081 -7.6876 2.3874
5.3808 -7.4991 2.3874
5.6466 -7.3008 2.3874
5.9051 -7.0931 2.3874
6.1560 -6.8763 2.3874
6.3989 -6.6506 2.3874
6.6335 -6.4163 2.3874
6.8595 -6.1737 2.3874
7.0767 -5.9232 2.3874
7.2847 -5.6650 2.3874
7.4833 -5.3995 2.3874
7.6722 -5.1271 2.3874
7.8512 -4.8480 2.3874
8.0201 -4.5627 2.3874
8.1785 -4.2716 2.3874
8.3264 -3.9749 2.3874
8.4636 -3.6731 2.3874
8.5898 -3.3666 2.3874
8.7049 -3.0558 2.3874
8.8087 -2.7410 2.3874
8.9012 -2.4227 2.3874
8.9821 -2.1014 2.3874
9.0515 -1.7773 2.3874
9.1092 -1.4509 2.3874
9.1551 -1.1227 2.3874
9.1891 -0.7931 2.3874
9.2113 -0.4625 2.3874
9.2216 -0.1312 2.3874
9.2201 0.2001 2.3874
9.2065 0.5311 2.3874
9.1812 0.8615 2.3874
9.1439 1.1907 2.3874
9.0949 1.5184 2.3874
9.0341 1.8440 2.3874
8.9617 2.1673 2.3874
8.8777 2.4878 2.3874
8.7823 2.8049 2.3874
8.6755 3.1185 2.3874
8.5575 3.4280 2.3874
8.4285 3.7331 2.3874
8.2887 4.0333 2.3874
8.1381 4.3283 2.3874
7.9771 4.6177 2.3874
7.8058 4.9011 2.3874
7.6244 5.1782 2.3874
7.4332 5.4485 2.3874
7.2324 5.7118 2.3874
7.0223 5.9678 2.3874
6.8031 6.2160 2.3874
6.5752 6.4561 2.3874
6.3388 6.6880 2.3874
6.0943 6.9112 2.3874
5.8419 7.1254 2.3874
5.5820 7.3305 2.3874
5.3149 7.5261 2.3874
5.0409 7.7119 2.3874
4.7605 7.8878 2.3874
4.4739 8.0536 2.3874
4.1816 8.2089 2.3874
3.8839 8.3536 2.3874
3.5812 8.4876 2.3874
3.2739 8.6106 2.3874
2.9625 8.7225 2.3874
2.6471 8.8231 2.3874
0.9275 3.5502 0.9510
0.7995 3.5817 0.9512
0.6704 3.6086 0.9513
0.5404 3.6308 0.9514
0.4096 3.6483 0.9516
0.2783 3.6610 0.9517
0.1466 3.6690 0.9517
0.0147 3.6721 0.9518
-0.1172 3.6705 0.9519
-0.2490 3.6641 0.9519
-0.3805 3.6528 0.9519
-0.5115 3.6369 0.9520
8.3932 -0.8450 2.3874
8.4178 -0.5429 2.3874
8.4316 -0.2401 2.3874
8.4345 0.0629 2.3874
8.4265 0.3658 2.3874
8.4076 0.6683 2.3874
8.3778 0.9698 2.3874
8.3373 1.2701 2.3874
8.2860 1.5687 2.3874
8.2240 1.8653 2.3874
8.1514 2.1595 2.3874
8.0682 2.4508 2.3874
7.9747 2.7390 2.3874
7.8709 3.0236 2.3874
7.7569 3.3042 2.3874
7.6329 3.5806 2.3874
7.4991 3.8524 2.3874
7.3556 4.1192 2.3874
7.2026 4.3806 2.3874
7.0404 4.6364 2.3874
6.8690 4.8861 2.3874
6.6889 5.1296 2.3874
6.5000 5.3664 2.3874
6.3029 5.5963 2.3874
6.0976 5.8189 2.3874
5.8844 6.0340 2.3874
5.6637 6.2413 2.3874
5.4356 6.4406 2.3874
5.2006 6.6315 2.3874
4.9589 6.8139 2.3874
4.7108 6.9875 2.3874
4.4566 7.1520 2.3874
4.1967 7.3073 2.3874
3.9314 7.4532 2.3874
3.6610 7.5895 2.3874
3.3859 7.7159 2.3874
3.1065 7.8324 2.3874
2.8230 7.9388 2.3874
2.5359 8.0350 2.3874
0.8936 3.2315 0.9500
0.7770 3.2620 0.9502
0.6594 3.2882 0.9503
0.5409 3.3102 0.9504
0.4217 3.3279 0.9505
0.3019 3.3412 0.9506
0.1817 3.3501 0.9507
0.0612 3.3547 0.9508
-0.0593 3.3550 0.9509
-0.1798 3.3508 0.9509
-0.3001 3.3423 0.9509
-0.4200 3.3294 0.9510
-0.5393 3.3122 0.9510
-0.6580 3.2906 0.9510
-0.7758 3.2648 0.9509
-0.8925 3.2347 0.9509
-2.5311 8.0355 2.3874
-2.8182 7.9395 2.3874
-3.1016 7.8331 2.3874
-3.3811 7.7167 2.3874
-3.6562 7.5903 2.3874
-3.9265 7.4542 2.3874
-4.1918 7.3084 2.3874
-4.4518 7.1532 2.3874
-4.7059 6.9887 2.3874
-4.9541 6.8152 2.3874
-5.1958 6.6330 2.3874
-5.4308 6.4421 2.3874
-5.6589 6.2430 2.3874
-5.8796 6.0358 2.3874
-6.0928 5.8208 2.3874
-6.2981 5.5983 2.3874
-6.4953 5.3685 2.3874
-6.6841 5.1318 2.3874
-6.8643 4.8885 2.3874
-7.0357 4.6389 2.3874
-7.1980 4.3832 2.3874
-7.3510 4.1219 2.3874
-7.4946 3.8553 2.3874
-7.6285 3.5837 2.3874
-7.7525 3.3074 2.3874
-7.8666 3.0268 2.3874
-7.9705 2.7424 2.3874
-8.0641 2.4543 2.3874
-8.1474 2.1631 2.3874
-8.2201 1.8691 2.3874
-8.2822 1.5727 2.3874
-8.3337 1.2742 2.3874
-8.3743 0.9740 2.3874
-8.4042 0.6725 2.3874
-8.4232 0.3702 2.3874
-8.4314 0.0674 2.3874
-8.4287 -0.2356 2.3874
-8.4151 -0.5382 2.3874
-8.3906 -0.8402 2.3874
-8.3553 -1.1411 2.3874
-8.3092 -1.4406 2.3874
-8.2524 -1.7382 2.3874
-8.1849 -2.0336 2.3874
-8.1069 -2.3264 2.3874
-8.0184 -2.6163 2.3874
-7.9195 -2.9027 2.3874
-7.8104 -3.1854 2.3874
-7.6912 -3.4641 2.3874
-7.5621 -3.7383 2.3874
-7.4232 -4.0076 2.3874
-7.2747 -4.2719 2.3874
-7.1168 -4.5306 2.3874
-6.9496 -4.7835 2.3874
-6.7736 -5.0302 2.3874
-6.5887 -5.2704 2.3874
-6.3953 -5.5039 2.3874
-6.1937 -5.7303 2.3874
-5.9840 -5.9492 2.3874
-5.7666 -6.1605 2.3874
-5.5418 -6.3639 2.3874
-5.3098 -6.5590 2.3874
-5.0708 -6.7457 2.3874
-4.8254 -6.9237 2.3874
-4.5737 -7.0927 2.3874
-4.3161 -7.2526 2.3874
-4.0529 -7.4032 2.3874
-3.7844 -7.5441 2.3874
-3.5110 -7.6754 2.3874
-3.2331 -7.7967 2.3874
-2.9510 -7.9080 2.3874
-2.6651 -8.0090 2.3874
-2.3757 -8.0997 2.3874
-2.0833 -8.1799 2.3874
-1.7881 -8.2496 2.3874
-1.4907 -8.3086 2.3874
-1.1913 -8.3569 2.3874
-0.8903 -8.3944 2.3874
-0.5882 -8.4211 2.3874
-0.2854 -8.4368 2.3874
0.0179 -8.4417 2.3874
0.3211 -8.4356 2.3874
0.6239 -8.4187 2.3874
0.9259 -8.3909 2.3874
1.2267 -8.3522 2.3874
1.5259 -8.3028 2.3874
1.8232 -8.2426 2.3874
2.1181 -8.1718 2.3874
2.4103 -8.0904 2.3874
2.6993 -7.9985 2.3874
2.9849 -7.8964 2.3874
3.2666 -7.7840 2.3874
3.5440 -7.6616 2.3874
3.8169 -7.5293 2.3874
4.0849 -7.3872 2.3874
4.3475 -7.2356 2.3874
4.6046 -7.0747 2.3874
4.8556 -6.9046 2.3874
5.1004 -6.7256 2.3874
5.3387 -6.5380 2.3874
5.5700 -6.3419 2.3874
5.7941 -6.1376 2.3874
6.0107 -5.9254 2.3874
6.2195 -5.7055 2.3874
6.4203 -5.4783 2.3874
6.6128 -5.2440 2.3874
6.7967 -5.0030 2.3874
6.9719 -4.7555 2.3874
7.1380 -4.5018 2.3874
7.2949 -4.2424 2.3874
7.4424 -3.9775 2.3874
7.5802 -3.7075 2.3874
7.7083 -3.4327 2.3874
7.8264 -3.1535 2.3874
7.9343 -2.8702 2.3874
8.0321 -2.5832 2.3874
8.1194 -2.2930 2.3874
8.1963 -1.9998 2.3874
8.2626 -1.7040 2.3874
8.3181 -1.4061 2.3874
8.3630 -1.1063 2.3874
8.3970 -0.8051 2.3874
8.4203 -0.5029 2.3874
8.4326 -0.2001 2.3874
8.4340 0.1029 2.3874
8.4246 0.4058 2.3874
8.4043 0.7082 2.3874
8.3731 1.0096 2.3874
8.3311 1.3096 2.3874
8.2784 1.6081 2.3874
8.2150 1.9043 2.3874
8.1410 2.1981 2.3874
8.0565 2.4891 2.3874
7.9616 2.7767 2.3874
7.8564 3.0609 2.3874
7.7411 3.3410 2.3874
7.6158 3.6168 2.3874
7.4807 3.8879 2.3874
7.3359 4.1540 2.3874
7.1817 4.4147 2.3874
7.0183 4.6697 2.3874
6.8457 4.9187 2.3874
6.6644 5.1612 2.3874
6.4745 5.3972 2.3874
6.2762 5.6261 2.3874
6.0699 5.8477 2.3874
5.8557 6.0618 2.3874
5.6340 6.2681 2.3874
5.4050 6.4663 2.3874
5.1691 6.6561 2.3874
4.9265 6.8373 2.3874
4.6775 7.0097 2.3874
4.4226 7.1731 2.3874
4.1619 7.3271 2.3874
3.8959 7.4718 2.3874
3.6249 7.6067 2.3874
3.3492 7.7319 2.3874
3.0692 7.8471 2.3874
2.7853 7.9521 2.3874
2.4978 8.0469 2.3874
0.8783 3.2358 0.9500
0.7616 3.2657 0.9502
0.6438 3.2914 0.9503
0.5252 3.3128 0.9505
0.4059 3.3299 0.9506
0.2860 3.3426 0.9507
0.1658 3.3510 0.9507
0.0453 3.3550 0.9508
-0.0753 3.3547 0.9509
-0.1957 3.3499 0.9509
-0.3160 3.3408 0.9509
-0.4358 3.3274 0.9510
-0.5551 3.3096 0.9510
-0.6736 3.2874 0.9510
-0.7912 3.2610 0.9509
-2.2793 8.1105 2.3874
-2.5693 8.0234 2.3874
-2.8559 7.9260 2.3874
-3.1388 7.8183 2.3874
-3.4177 7.7006 2.3874
-3.6922 7.5729 2.3874
-3.9619 7.4355 2.3874
-4.2265 7.2884 2.3874
-4.4857 7.1319 2.3874
-4.7391 6.9663 2.3874
-4.9863 6.7916 2.3874
-5.2272 6.6082 2.3874
-5.4613 6.4163 2.3874
-5.6884 6.2161 2.3874
-5.9082 6.0078 2.3874
-6.1203 5.7918 2.3874
-6.3246 5.5683 2.3874
-6.5207 5.3376 2.3874
-6.7084 5.1000 2.3874
-6.8875 4.8559 2.3874
-7.0577 4.6054 2.3874
-7.2188 4.3490 2.3874
-7.3705 4.0870 2.3874
-7.5128 3.8197 2.3874
-7.6454 3.5474 2.3874
-7.7682 3.2706 2.3874
-7.8809 2.9895 2.3874
-7.9835 2.7045 2.3874
-8.0757 2.4161 2.3874
-8.1576 2.1245 2.3874
-8.2289 1.8301 2.3874
-8.2896 1.5333 2.3874
-8.3396 1.2346 2.3874
-8.3789 0.9342 2.3874
-8.4073 0.6326 2.3874
-8.4249 0.3302 2.3874
-8.4317 0.0274 2.3874
-8.4275 -0.2756 2.3874
-8.4125 -0.5782 2.3874
-8.3866 -0.8800 2.3874
-8.3499 -1.1808 2.3874
-8.3023 -1.4800 2.3874
-8.2441 -1.7774 2.3874
-8.1753 -2.0725 2.3874
-8.0958 -2.3649 2.3874
-8.0059 -2.6543 2.3874
-7.9057 -2.9403 2.3874
-7.7953 -3.2225 2.3874
-7.6747 -3.5006 2.3874
-7.5443 -3.7741 2.3874
-7.4041 -4.0428 2.3874
-7.2544 -4.3064 2.3874
-7.0952 -4.5643 2.3874
-6.9269 -4.8164 2.3874
-6.7496 -5.0623 2.3874
-6.5637 -5.3017 2.3874
-6.3692 -5.5342 2.3874
-6.1665 -5.7596 2.3874
-5.9558 -5.9776 2.3874
-5.7374 -6.1878 2.3874
-5.5115 -6.3901 2.3874
-5.2786 -6.5842 2.3874
-5.0388 -6.7697 2.3874
-4.7925 -6.9465 2.3874
-4.5400 -7.1144 2.3874
-4.2816 -7.2731 2.3874
-4.0177 -7.4223 2.3874
-3.7485 -7.5620 2.3874
-3.4746 -7.6920 2.3874
-3.1961 -7.8120 2.3874
-2.9135 -7.9219 2.3874
-2.6271 -8.0216 2.3874
-2.3373 -8.1109 2.3874
-2.0444 -8.1898 2.3874
-1.7490 -8.2580 2.3874
-1.4512 -8.3156 2.3874
-1.1516 -8.3625 2.3874
-0.8505 -8.3986 2.3874
-0.5483 -8.4238 2.3874
-0.2453 -8.4381 2.3874
0.0579 -8.4415 2.3874
0.3611 -8.4340 2.3874
0.6639 -8.4156 2.3874
0.9657 -8.3864 2.3874
1.2663 -8.3463 2.3874
1.5653 -8.2954 2.3874
1.8623 -8.2338 2.3874
2.1569 -8.1616 2.3874
2.4486 -8.0789 2.3874
2.7372 -7.9856 2.3874
3.0223 -7.8821 2.3874
3.3035 -7.7684 2.3874
3.5803 -7.6447 2.3874
3.8526 -7.5110 2.3874
4.1199 -7.3677 2.3874
4.3818 -7.2149 2.3874
4.6381 -7.0527 2.3874
4.8883 -6.8815 2.3874
5.1323 -6.7013 2.3874
5.3696 -6.5125 2.3874
5.6000 -6.3153 2.3874
5.8231 -6.1100 2.3874
6.0387 -5.8967 2.3874
6.2465 -5.6759 2.3874
6.4462 -5.4477 2.3874
6.6376 -5.2125 2.3874
6.8204 -4.9706 2.3874
6.9943 -4.7223 2.3874
7.1592 -4.4679 2.3874
7.3149 -4.2077 2.3874
7.4611 -3.9421 2.3874
7.5977 -3.6714 2.3874
7.7244 -3.3961 2.3874
7.8412 -3.1163 2.3874
7.9478 -2.8325 2.3874
8.0442 -2.5451 2.3874
8.1302 -2.2544 2.3874
8.2056 -1.9609 2.3874
8.2705 -1.6648 2.3874
8.3247 -1.3666 2.3874
8.3681 -1.0666 2.3874
8.4007 -0.7652 2.3874
8.4225 -0.4630 2.3874
8.4334 -0.1601 2.3874
8.4334 0.1429 2.3874
8.4225 0.4458 2.3874
8.4008 0.7480 2.3874
8.3682 1.0493 2.3874
8.3248 1.3492 2.3874
8.2706 1.6473 2.3874
8.2058 1.9433 2.3874
8.1304 2.2367 2.3874
8.0445 2.5272 2.3874
7.9483 2.8145 2.3874
7.8417 3.0982 2.3874
7.7251 3.3777 2.3874
7.5985 3.6529 2.3874
7.4621 3.9234 2.3874
7.3161 4.1888 2.3874
7.1607 4.4487 2.3874
6.9960 4.7029 2.3874
6.8223 4.9511 2.3874
6.6398 5.1928 2.3874
6.4488 5.4278 2.3874
6.2494 5.6558 2.3874
6.0420 5.8765 2.3874
5.8268 6.0895 2.3874
5.6041 6.2948 2.3874
5.3742 6.4918 2.3874
5.1374 6.6805 2.3874
4.8939 6.8606 2.3874
4.6442 7.0318 2.3874
4.3885 7.1939 2.3874
4.1271 7.3468 2.3874
3.8604 7.4901 2.3874
3.5888 7.6238 2.3874
3.3125 7.7477 2.3874
3.0319 7.8615 2.3874
2.7475 7.9652 2.3874
2.4595 8.0586 2.3874
0.8629 3.2400 0.9501
0.7461 3.2694 0.9502
0.6282 3.2945 0.9503
0.5095 3.3153 0.9505
0.3901 3.3318 0.9506
0.2702 3.3440 0.9507
0.1499 3.3518 0.9508
0.0294 3.3552 0.9508
-0.0912 3.3543 0.9509
-0.2116 3.3490 0.9509
-0.3318 3.3393 0.9509
-0.4516 3.3253 0.9510
-0.5708 3.3069 0.9510
-0.6892 3.2842 0.9509
-0.8067 3.2572 0.9509
-2.3178 8.0996 2.3874
-2.6073 8.0112 2.3874
-2.8935 7.9124 2.3874
-3.1759 7.8033 2.3874
-3.4542 7.6843 2.3874
-3.7281 7.5553 2.3874
-3.9971 7.4166 2.3874
-4.2610 7.2683 2.3874
-4.5195 7.1106 2.3874
-4.7721 6.9437 2.3874
-5.0185 6.7679 2.3874
-5.2585 6.5834 2.3874
-5.4917 6.3903 2.3874
-5.7179 6.1890 2.3874
-5.9367 5.9797 2.3874
-6.1478 5.7627 2.3874
-6.3510 5.5382 2.3874
-6.5460 5.3066 2.3874
-6.7326 5.0682 2.3874
-6.9105 4.8232 2.3874
-7.0795 4.5719 2.3874
-7.2394 4.3147 2.3874
-7.3899 4.0520 2.3874
-7.5309 3.7840 2.3874
-7.6622 3.5111 2.3874
-7.7836 3.2337 2.3874
-7.8950 2.9521 2.3874
-7.9962 2.6666 2.3874
-8.0871 2.3777 2.3874
-8.1676 2.0857 2.3874
-8.2375 1.7910 2.3874
-8.2968 1.4940 2.3874
-8.3454 1.1950 2.3874
-8.3833 0.8945 2.3874
-8.4103 0.5927 2.3874
-8.4265 0.2902 2.3874
-8.4317 -0.0127 2.3874
-8.4262 -0.3156 2.3874
-8.4097 -0.6181 2.3874
-8.3824 -0.9199 2.3874
-8.3442 -1.2204 2.3874
-8.2953 -1.5194 2.3874
-8.2356 -1.8165 2.3874
-8.1654 -2.1112 2.3874
-8.0846 -2.4033 2.3874
-7.9933 -2.6923 2.3874
-7.8917 -2.9778 2.3874
-7.7799 -3.2595 2.3874
-7.6581 -3.5370 2.3874
-7.5264 -3.8099 2.3874
-7.3849 -4.0780 2.3874
-7.2339 -4.3408 2.3874
-7.0735 -4.5980 2.3874
-6.9040 -4.8493 2.3874
-6.7256 -5.0943 2.3874
-6.5385 -5.3328 2.3874
-6.3429 -5.5644 2.3874
-6.1391 -5.7888 2.3874
-5.9273 -6.0058 2.3874
-5.7079 -6.2150 2.3874
-5.4812 -6.4162 2.3874
-5.2473 -6.6092 2.3874
-5.0066 -6.7936 2.3874
-4.7595 -6.9692 2.3874
-4.5062 -7.1359 2.3874
-4.2471 -7.2933 2.3874
-3.9824 -7.4414 2.3874
-3.7126 -7.5798 2.3874
-3.4380 -7.7084 2.3874
-3.1590 -7.8271 2.3874
-2.8759 -7.9357 2.3874
-2.5890 -8.0340 2.3874
-2.2988 -8.1219 2.3874
-2.0056 -8.1994 2.3874
-1.7098 -8.2662 2.3874
-1.4117 -8.3224 2.3874
-1.1119 -8.3679 2.3874
-0.8106 -8.4025 2.3874
-0.5083 -8.4263 2.3874
-0.2053 -8.4392 2.3874
0.0980 -8.4411 2.3874
0.4012 -8.4322 2.3874
0.7038 -8.4124 2.3874
1.0055 -8.3817 2.3874
1.3059 -8.3402 2.3874
1.6047 -8.2879 2.3874
1.9013 -8.2249 2.3874
2.1956 -8.1513 2.3874
2.4869 -8.0671 2.3874
2.7751 -7.9726 2.3874
3.0597 -7.8677 2.3874
3.3403 -7.7526 2.3874
3.6166 -7.6276 2.3874
3.8882 -7.4927 2.3874
4.1548 -7.3481 2.3874
4.4160 -7.1940 2.3874
4.6715 -7.0306 2.3874
4.9209 -6.8582 2.3874
5.1640 -6.6769 2.3874
5.4004 -6.4870 2.3874
5.6299 -6.2887 2.3874
5.8520 -6.0823 2.3874
6.0666 -5.8680 2.3874
6.2733 -5.6462 2.3874
6.4720 -5.4171 2.3874
6.6622 -5.1810 2.3874
6.8438 -4.9382 2.3874
7.0166 -4.6890 2.3874
7.1803 -4.4338 2.3874
7.3348 -4.1729 2.3874
7.4797 -3.9066 2.3874
7.6150 -3.6354 2.3874
7.7404 -3.3593 2.3874
7.8559 -3.0790 2.3874
7.9612 -2.7948 2.3874
8.0562 -2.5069 2.3874
8.1407 -2.2158 2.3874
8.2148 -1.9219 2.3874
8.2783 -1.6255 2.3874
8.3310 -1.3270 2.3874
8.3730 -1.0268 2.3874
8.4042 -0.7254 2.3874
8.4246 -0.4230 2.3874
8.4340 -0.1201 2.3874
8.4326 0.1830 2.3874
8.4203 0.4858 2.3874
8.3971 0.7879 2.3874
8.3631 1.0890 2.3874
8.3182 1.3886 2.3874
8.2627 1.6865 2.3874
8.1965 1.9822 2.3874
8.1197 2.2753 2.3874
8.0324 2.5654 2.3874
7.9348 2.8522 2.3874
7.8269 3.1352 2.3874
7.7089 3.4143 2.3874
7.5811 3.6889 2.3874
7.4434 3.9587 2.3874
7.2961 4.2234 2.3874
7.1394 4.4826 2.3874
6.9736 4.7361 2.3874
6.7987 4.9834 2.3874
6.6151 5.2242 2.3874
6.4229 5.4583 2.3874
6.2225 5.6854 2.3874
6.0140 5.9051 2.3874
5.7978 6.1171 2.3874
5.5742 6.3213 2.3874
5.3433 6.5173 2.3874
5.1056 6.7048 2.3874
4.8613 6.8837 2.3874
4.6108 7.0538 2.3874
4.3543 7.2147 2.3874
4.0922 7.3663 2.3874
3.8248 7.5084 2.3874
3.5525 7.6407 2.3874
3.2757 7.7633 2.3874
2.9946 7.8758 2.3874
2.7097 7.9782 2.3874
2.4212 8.0702 2.3874
0.8475 3.2441 0.9501
0.7305 3.2729 0.9502
0.6126 3.2975 0.9504
0.4938 3.3177 0.9505
0.3743 3.3337 0.9506
0.2543 3.3453 0.9507
0.1340 3.3525 0.9508
0.0135 3.3553 0.9508
-0.1071 3.3538 0.9509
-0.2275 3.3479 0.9509
-0.3477 3.3377 0.9510
-0.4674 3.3231 0.9510
7.7249 -0.7777 2.3874
7.7476 -0.4997 2.3874
7.7603 -0.2211 2.3874
7.7629 0.0579 2.3874
7.7556 0.3366 2.3874
7.7382 0.6150 2.3874
7.7109 0.8926 2.3874
7.6736 1.1690 2.3874
7.6264 1.4439 2.3874
7.5693 1.7168 2.3874
7.5025 1.9875 2.3874
7.4260 2.2557 2.3874
7.3399 2.5209 2.3874
7.2444 2.7828 2.3874
7.1395 3.0412 2.3874
7.0254 3.2956 2.3874
6.9023 3.5457 2.3874
6.7702 3.7913 2.3874
6.6294 4.0319 2.3874
6.4801 4.2674 2.3874
6.3224 4.4973 2.3874
6.1566 4.7213 2.3874
5.9828 4.9393 2.3874
5.8014 5.1509 2.3874
5.6124 5.3558 2.3874
5.4162 5.5539 2.3874
5.2130 5.7447 2.3874
5.0032 5.9281 2.3874
4.7869 6.1039 2.3874
4.5644 6.2717 2.3874
4.3360 6.4315 2.3874
4.1021 6.5830 2.3874
3.8628 6.7259 2.3874
3.6186 6.8602 2.3874
3.3697 6.9857 2.3874
3.1166 7.1021 2.3874
2.8593 7.2093 2.3874
2.5984 7.3073 2.3874
0.9280 2.9402 0.9491
0.8218 2.9720 0.9493
0.7146 3.0000 0.9494
0.6065 3.0241 0.9495
0.4975 3.0443 0.9496
0.3878 3.0605 0.9497
0.2777 3.0727 0.9498
0.1671 3.0810 0.9499
0.0563 3.0852 0.9500
-0.0546 3.0854 0.9500
-0.1654 3.0815 0.9501
-0.2760 3.0737 0.9501
-0.3862 3.0618 0.9501
-0.4960 3.0460 0.9501
-0.6051 3.0262 0.9501
-0.7134 3.0024 0.9501
-0.8208 2.9747 0.9501
-2.3298 7.3963 2.3874
-2.5940 7.3079 2.3874
-2.8549 7.2100 2.3874
-3.1121 7.1029 2.3874
-3.3653 6.9865 2.3874
-3.6142 6.8612 2.3874
-3.8584 6.7270 2.3874
-4.0976 6.5841 2.3874
-4.3316 6.4327 2.3874
-4.5600 6.2731 2.3874
-4.7825 6.1053 2.3874
-4.9988 5.9296 2.3874
-5.2087 5.7463 2.3874
-5.4118 5.5556 2.3874
-5.6081 5.3577 2.3874
-5.7970 5.1528 2.3874
-5.9785 4.9414 2.3874
-6.1523 4.7235 2.3874
-6.3182 4.4995 2.3874
-6.4759 4.2697 2.3874
-6.6253 4.0344 2.3874
-6.7662 3.7939 2.3874
-6.8983 3.5485 2.3874
-7.0215 3.2984 2.3874
-7.1357 3.0442 2.3874
-7.2406 2.7859 2.3874
-7.3362 2.5241 2.3874
-7.4224 2.2590 2.3874
-7.4990 1.9910 2.3874
-7.5659 1.7203 2.3874
-7.6231 1.4474 2.3874
-7.6704 1.1727 2.3874
-7.7078 0.8964 2.3874
-7.7353 0.6190 2.3874
-7.7528 0.3407 2.3874
-7.7603 0.0620 2.3874
-7.7578 -0.2169 2.3874
-7.7452 -0.4954 2.3874
-7.7227 -0.7734 2.3874
-7.6902 -1.0503 2.3874
-7.6477 -1.3259 2.3874
-7.5955 -1.5999 2.3874
-7.5333 -1.8718 2.3874
-7.4615 -2.1413 2.3874
-7.3800 -2.4080 2.3874
-7.2890 -2.6717 2.3874
-7.1885 -2.9319 2.3874
-7.0788 -3.1883 2.3874
-6.9599 -3.4407 2.3874
-6.8321 -3.6886 2.3874
-6.6954 -3.9317 2.3874
-6.5500 -4.1699 2.3874
-6.3962 -4.4026 2.3874
-6.2341 -4.6297 2.3874
-6.0640 -4.8508 2.3874
-5.8860 -5.0656 2.3874
-5.7004 -5.2739 2.3874
-5.5074 -5.4754 2.3874
-5.3073 -5.6699 2.3874
-5.1004 -5.8570 2.3874
-4.8868 -6.0366 2.3874
-4.6669 -6.2084 2.3874
-4.4410 -6.3722 2.3874
-4.2094 -6.5278 2.3874
-3.9722 -6.6749 2.3874
-3.7300 -6.8135 2.3874
-3.4829 -6.9432 2.3874
-3.2313 -7.0640 2.3874
-2.9755 -7.1756 2.3874
-2.7159 -7.2780 2.3874
-2.4528 -7.3710 2.3874
-2.1865 -7.4545 2.3874
-1.9173 -7.5283 2.3874
-1.6457 -7.5924 2.3874
-1.3719 -7.6467 2.3874
-1.0963 -7.6911 2.3874
-0.8194 -7.7256 2.3874
-0.5413 -7.7502 2.3874
-0.2626 -7.7647 2.3874
0.0165 -7.7691 2.3874
0.2955 -7.7636 2.3874
0.5742 -7.7480 2.3874
0.8522 -7.7224 2.3874
1.1290 -7.6868 2.3874
1.4044 -7.6413 2.3874
1.6780 -7.5859 2.3874
1.9494 -7.5207 2.3874
2.2182 -7.4458 2.3874
2.4843 -7.3613 2.3874
2.7471 -7.2673 2.3874
3.0063 -7.1639 2.3874
3.2617 -7.0512 2.3874
3.5128 -6.9294 2.3874
3.7594 -6.7987 2.3874
4.0012 -6.6592 2.3874
4.2377 -6.5111 2.3874
4.4688 -6.3546 2.3874
4.6941 -6.1899 2.3874
4.9134 -6.0172 2.3874
5.1262 -5.8367 2.3874
5.3325 -5.6487 2.3874
5.5318 -5.4534 2.3874
5.7240 -5.2510 2.3874
5.9088 -5.0421 2.3874
6.0860 -4.8263 2.3874
6.2553 -4.6045 2.3874
6.4165 -4.3767 2.3874
6.5694 -4.1433 2.3874
6.7138 -3.9045 2.3874
6.8496 -3.6607 2.3874
6.9765 -3.4122 2.3874
7.0943 -3.1593 2.3874
7.2031 -2.9024 2.3874
7.3024 -2.6417 2.3874
7.3924 -2.3776 2.3874
7.4728 -2.1104 2.3874
7.5436 -1.8405 2.3874
7.6046 -1.5684 2.3874
7.6558 -1.2942 2.3874
7.6971 -1.0183 2.3874
7.7284 -0.7410 2.3874
7.7498 -0.4629 2.3874
7.7612 -0.1842 2.3874
7.7625 0.0947 2.3874
7.7539 0.3735 2.3874
7.7352 0.6518 2.3874
7.7065 0.9291 2.3874
7.6679 1.2054 2.3874
7.6194 1.4800 2.3874
7.5611 1.7527 2.3874
7.4930 2.0231 2.3874
7.4152 2.2911 2.3874
7.3279 2.5557 2.3874
7.2311 2.8172 2.3874
7.1250 3.0750 2.3874
7.0097 3.3289 2.3874
6.8853 3.5785 2.3874
6.7521 3.8234 2.3874
6.6102 4.0633 2.3874
6.4597 4.2980 2.3874
6.3010 4.5272 2.3874
6.1341 4.7505 2.3874
5.9593 4.9676 2.3874
5.7768 5.1784 2.3874
5.5869 5.3824 2.3874
5.3898 5.5795 2.3874
5.1857 5.7693 2.3874
4.9750 5.9518 2.3874
4.7578 6.1265 2.3874
4.5345 6.2933 2.3874
4.3054 6.4520 2.3874
4.0708 6.6023 2.3874
3.8308 6.7442 2.3874
3.5860 6.8773 2.3874
3.3366 7.0016 2.3874
3.0828 7.1168 2.3874
2.8251 7.2228 2.3874
2.5637 7.3195 2.3874
0.9140 2.9446 0.9491
0.8078 2.9760 0.9493
0.7004 3.0034 0.9494
0.5921 3.0270 0.9495
0.4830 3.0467 0.9496
0.3733 3.0624 0.9497
0.2631 3.0741 0.9498
0.1525 3.0817 0.9499
0.0417 3.0854 0.9500
-0.0692 3.0851 0.9500
-0.1800 3.0807 0.9501
-0.2906 3.0723 0.9501
-0.4008 3.0600 0.9501
-0.5105 3.0436 0.9501
-0.6195 3.0233 0.9501
-0.7277 2.9990 0.9501
-0.8349 2.9708 0.9500
-2.3649 7.3852 2.3874
-2.6287 7.2955 2.3874
-2.8891 7.1964 2.3874
-3.1458 7.0880 2.3874
-3.3985 6.9705 2.3874
-3.6467 6.8440 2.3874
-3.8903 6.7086 2.3874
-4.1289 6.5646 2.3874
-4.3621 6.4121 2.3874
-4.5897 6.2513 2.3874
-4.8114 6.0825 2.3874
-5.0269 5.9058 2.3874
-5.2359 5.7215 2.3874
-5.4382 5.5298 2.3874
-5.6334 5.3310 2.3874
-5.8214 5.1253 2.3874
-6.0019 4.9129 2.3874
-6.1747 4.6943 2.3874
-6.3395 4.4695 2.3874
-6.4962 4.2390 2.3874
-6.6444 4.0030 2.3874
-6.7841 3.7618 2.3874
-6.9151 3.5157 2.3874
-7.0371 3.2651 2.3874
-7.1500 3.0103 2.3874
-7.2538 2.7516 2.3874
-7.3482 2.4893 2.3874
-7.4331 2.2237 2.3874
-7.5084 1.9553 2.3874
-7.5740 1.6844 2.3874
-7.6299 1.4112 2.3874
-7.6759 1.1363 2.3874
-7.7120 0.8598 2.3874
-7.7382 0.5822 2.3874
-7.7544 0.3039 2.3874
-7.7605 0.0251 2.3874
-7.7567 -0.2537 2.3874
-7.7428 -0.5322 2.3874
-7.7190 -0.8100 2.3874
-7.6852 -1.0868 2.3874
-7.6414 -1.3622 2.3874
-7.5878 -1.6359 2.3874
-7.5244 -1.9075 2.3874
-7.4513 -2.1767 2.3874
-7.3685 -2.4430 2.3874
-7.2762 -2.7062 2.3874
-7.1746 -2.9660 2.3874
-7.0636 -3.2219 2.3874
-6.9436 -3.4737 2.3874
-6.8145 -3.7210 2.3874
-6.6767 -3.9635 2.3874
-6.5302 -4.2009 2.3874
-6.3753 -4.4329 2.3874
-6.2121 -4.6592 2.3874
-6.0409 -4.8795 2.3874
-5.8619 -5.0935 2.3874
-5.6753 -5.3009 2.3874
-5.4814 -5.5015 2.3874
-5.2804 -5.6950 2.3874
-5.0725 -5.8812 2.3874
-4.8581 -6.0598 2.3874
-4.6374 -6.2305 2.3874
-4.4107 -6.3933 2.3874
-4.1783 -6.5477 2.3874
-3.9405 -6.6937 2.3874
-3.6976 -6.8311 2.3874
-3.4499 -6.9597 2.3874
-3.1978 -7.0792 2.3874
-2.9415 -7.1897 2.3874
-2.6814 -7.2908 2.3874
-2.4178 -7.3826 2.3874
-2.1511 -7.4648 2.3874
-1.8816 -7.5373 2.3874
-1.6096 -7.6001 2.3874
-1.3356 -7.6532 2.3874
-1.0598 -7.6963 2.3874
-0.7827 -7.7295 2.3874
-0.5046 -7.7527 2.3874
-0.2258 -7.7658 2.3874
0.0533 -7.7690 2.3874
0.3324 -7.7621 2.3874
0.6110 -7.7452 2.3874
0.8888 -7.7183 2.3874
1.1655 -7.6814 2.3874
1.4406 -7.6345 2.3874
1.7139 -7.5779 2.3874
1.9850 -7.5114 2.3874
2.2535 -7.4352 2.3874
2.5192 -7.3494 2.3874
2.7815 -7.2542 2.3874
3.0403 -7.1495 2.3874
3.2951 -7.0356 2.3874
3.5457 -6.9127 2.3874
3.7916 -6.7808 2.3874
4.0327 -6.6401 2.3874
4.2686 -6.4909 2.3874
4.4989 -6.3333 2.3874
4.7234 -6.1675 2.3874
4.9418 -5.9938 2.3874
5.1539 -5.8123 2.3874
5.3592 -5.6233 2.3874
5.5577 -5.4271 2.3874
5.7489 -5.2238 2.3874
5.9327 -5.0137 2.3874
6.1088 -4.7974 2.3874
6.2771 -4.5747 2.3874
6.4372 -4.3462 2.3874
6.5890 -4.1120 2.3874
6.7323 -3.8726 2.3874
6.8669 -3.6282 2.3874
6.9926 -3.3791 2.3874
7.1092 -3.1256 2.3874
7.2167 -2.8682 2.3874
7.3149 -2.6070 2.3874
7.4036 -2.3424 2.3874
7.4827 -2.0749 2.3874
7.5522 -1.8047 2.3874
7.6119 -1.5322 2.3874
7.6618 -1.2578 2.3874
7.7018 -0.9817 2.3874
7.7318 -0.7044 2.3874
7.7519 -0.4262 2.3874
7.7619 -0.1474 2.3874
7.7620 0.1315 2.3874
7.7520 0.4102 2.3874
7.7320 0.6884 2.3874
7.7020 0.9657 2.3874
7.6620 1.2417 2.3874
7.6122 1.5161 2.3874
7.5526 1.7884 2.3874
7.4832 2.0586 2.3874
7.4042 2.3260 2.3874
7.3156 2.5904 2.3874
7.2176 2.8515 2.3874
7.1103 3.1088 2.3874
6.9938 3.3621 2.3874
6.8682 3.6111 2.3874
6.7339 3.8554 2.3874
6.5908 4.0946 2.3874
6.4392 4.3286 2.3874
6.2794 4.5570 2.3874
6.1115 4.7795 2.3874
5.9356 4.9958 2.3874
5.7522 5.2057 2.3874
5.5613 5.4088 2.3874
5.3632 5.6050 2.3874
5.1583 5.7939 2.3874
4.9467 5.9753 2.3874
4.7287 6.1490 2.3874
4.5046 6.3147 2.3874
4.2747 6.4723 2.3874
4.0394 6.6216 2.3874
3.7988 6.7623 2.3874
3.5533 6.8942 2.3874
3.3033 7.0173 2.3874
3.0490 7.1313 2.3874
2.7908 7.2361 2.3874
2.5290 7.3316 2.3874
0.9000 2.9490 0.9491
0.7936 2.9798 0.9493
0.6862 3.0068 0.9494
0.5778 3.0299 0.9495
0.4686 3.0490 0.9497
0.3588 3.0641 0.9498
0.2485 3.0753 0.9498
0.1379 3.0825 0.9499
0.0270 3.0856 0.9500
-0.0839 3.0847 0.9500
-0.1946 3.0798 0.9501
-0.3052 3.0709 0.9501
-0.4153 3.0580 0.9501
-0.5249 3.0411 0.9501
-0.6338 3.0203 0.9501
-0.7419 2.9955 0.9501
-0.8490 2.9668 0.9500
-2.3999 7.3739 2.3874
-2.6633 7.2830 2.3874
-2.9233 7.1826 2.3874
-3.1794 7.0730 2.3874
-3.4315 6.9543 2.3874
-3.6792 6.8266 2.3874
-3.9221 6.6901 2.3874
-4.1600 6.5449 2.3874
-4.3925 6.3914 2.3874
-4.6193 6.2295 2.3874
-4.8402 6.0596 2.3874
-5.0549 5.8819 2.3874
-5.2630 5.6966 2.3874
-5.4644 5.5040 2.3874
-5.6587 5.3042 2.3874
-5.8457 5.0976 2.3874
-6.0252 4.8844 2.3874
-6.1969 4.6649 2.3874
-6.3607 4.4394 2.3874
-6.5162 4.2081 2.3874
-6.6634 3.9714 2.3874
-6.8019 3.7295 2.3874
-6.9317 3.4829 2.3874
-7.0525 3.2317 2.3874
-7.1643 2.9763 2.3874
-7.2668 2.7171 2.3874
-7.3599 2.4544 2.3874
-7.4436 2.1885 2.3874
-7.5176 1.9197 2.3874
-7.5820 1.6485 2.3874
-7.6365 1.3750 2.3874
-7.6813 1.0999 2.3874
-7.7161 0.8232 2.3874
-7.7409 0.5455 2.3874
-7.7558 0.2671 2.3874
-7.7606 -0.0117 2.3874
-7.7554 -0.2905 2.3874
-7.7403 -0.5689 2.3874
-7.7151 -0.8467 2.3874
-7.6800 -1.1233 2.3874
-7.6349 -1.3984 2.3874
-7.5800 -1.6719 2.3874
-7.5153 -1.9432 2.3874
-7.4409 -2.2120 2.3874
-7.3569 -2.4780 2.3874
-7.2634 -2.7407 2.3874
-7.1604 -3.0000 2.3874
-7.0483 -3.2554 2.3874
-6.9270 -3.5066 2.3874
-6.7968 -3.7533 2.3874
-6.6578 -3.9951 2.3874
-6.5102 -4.2319 2.3874
-6.3542 -4.4631 2.3874
-6.1899 -4.6887 2.3874
-6.0177 -4.9081 2.3874
-5.8377 -5.1213 2.3874
-5.6501 -5.3278 2.3874
-5.4552 -5.5275 2.3874
-5.2533 -5.7201 2.3874
-5.0446 -5.9052 2.3874
-4.8293 -6.0828 2.3874
-4.6078 -6.2525 2.3874
-4.3804 -6.4141 2.3874
-4.1472 -6.5675 2.3874
-3.9087 -6.7124 2.3874
-3.6652 -6.8486 2.3874
-3.4169 -6.9760 2.3874
-3.1642 -7.0944 2.3874
-2.9073 -7.2036 2.3874
-2.6467 -7.3035 2.3874
-2.3827 -7.3940 2.3874
-2.1156 -7.4749 2.3874
-1.8458 -7.5462 2.3874
-1.5735 -7.6077 2.3874
-1.2993 -7.6594 2.3874
-1.0233 -7.7012 2.3874
-0.7460 -7.7331 2.3874
-0.4678 -7.7550 2.3874
-0.1889 -7.7668 2.3874
0.0902 -7.7686 2.3874
0.3692 -7.7604 2.3874
0.6477 -7.7422 2.3874
0.9254 -7.7139 2.3874
1.2019 -7.6757 2.3874
1.4768 -7.6276 2.3874
1.7499 -7.5696 2.3874
2.0206 -7.5019 2.3874
2.2888 -7.4244 2.3874
2.5540 -7.3374 2.3874
2.8159 -7.2409 2.3874
3.0741 -7.1350 2.3874
3.3284 -7.0199 2.3874
3.5784 -6.8958 2.3874
3.8238 -6.7627 2.3874
4.0642 -6.6209 2.3874
4.2993 -6.4706 2.3874
4.5289 -6.3119 2.3874
4.7526 -6.1450 2.3874
4.9702 -5.9702 2.3874
5.1814 -5.7877 2.3874
5.3858 -5.5978 2.3874
5.5833 -5.4006 2.3874
5.7736 -5.1965 2.3874
5.9564 -4.9854 2.3874
6.1315 -4.7683 2.3874
6.2987 -4.5449 2.3874
6.4577 -4.3156 2.3874
6.6084 -4.0807 2.3874
6.7506 -3.8406 2.3874
6.8840 -3.5955 2.3874
7.0085 -3.3458 2.3874
7.1240 -3.0918 2.3874
7.2302 -2.8339 2.3874
7.3271 -2.5722 2.3874
7.4146 -2.3072 2.3874
7.4924 -2.0393 2.3874
7.5607 -1.7688 2.3874
7.6191 -1.4961 2.3874
7.6676 -1.2214 2.3874
7.7063 -0.9451 2.3874
7.7350 -0.6677 2.3874
7.7538 -0.3894 2.3874
7.7625 -0.1106 2.3874
7.7612 0.1683 2.3874
7.7499 0.4470 2.3874
7.7286 0.7251 2.3874
7.6973 1.0022 2.3874
7.6560 1.2781 2.3874
7.6049 1.5522 2.3874
7.5440 1.8244 2.3874
7.4734 2.0941 2.3874
7.3931 2.3612 2.3874
7.3032 2.6251 2.3874
7.2040 2.8857 2.3874
7.0954 3.1425 2.3874
6.9777 3.3953 2.3874
6.8510 3.6436 2.3874
6.7155 3.8872 2.3874
6.5713 4.1259 2.3874
6.4186 4.3591 2.3874
6.2577 4.5868 2.3874
6.0887 4.8085 2.3874
5.9118 5.0239 2.3874
5.7274 5.2329 2.3874
5.5355 5.4352 2.3874
5.3365 5.6303 2.3874
5.1307 5.8183 2.3874
4.9182 5.9987 2.3874
4.6994 6.1713 2.3874
4.4746 6.3360 2.3874
4.2439 6.4925 2.3874
4.0079 6.6407 2.3874
3.7666 6.7802 2.3874
3.5206 6.9110 2.3874
3.2699 7.0329 2.3874
3.0151 7.1457 2.3874
2.7564 7.2492 2.3874
2.4941 7.3435 2.3874
0.8861 2.9533 0.9492
0.7795 2.9836 0.9493
0.6719 3.0101 0.9494
0.5634 3.0326 0.9496
0.4541 3.0512 0.9497
0.3442 3.0658 0.9498
0.2339 3.0765 0.9499
0.1232 3.0831 0.9499
0.0124 3.0857 0.9500
-0.0985 3.0843 0.9500
-0.2092 3.0789 0.9501
-0.3197 3.0695 0.9501
-0.4298 3.0560 0.9501
7.1478 -0.7197 2.3874
7.1688 -0.4625 2.3874
7.1806 -0.2046 2.3874
7.1830 0.0535 2.3874
7.1763 0.3114 2.3874
7.1602 0.5690 2.3874
7.1349 0.8258 2.3874
7.1004 1.0816 2.3874
7.0568 1.3359 2.3874
7.0040 1.5885 2.3874
6.9422 1.8390 2.3874
6.8714 2.0872 2.3874
6.7918 2.3326 2.3874
6.7034 2.5750 2.3874
6.6064 2.8141 2.3874
6.5008 3.0495 2.3874
6.3869 3.2809 2.3874
6.2647 3.5082 2.3874
6.1344 3.7308 2.3874
5.9963 3.9487 2.3874
5.8504 4.1614 2.3874
5.6969 4.3688 2.3874
5.5362 4.5705 2.3874
5.3682 4.7663 2.3874
5.1934 4.9559 2.3874
5.0119 5.1392 2.3874
4.8239 5.3158 2.3874
4.6297 5.4855 2.3874
4.4295 5.6482 2.3874
4.2237 5.8035 2.3874
4.0123 5.9514 2.3874
3.7959 6.0915 2.3874
3.5745 6.2238 2.3874
3.3485 6.3481 2.3874
3.1182 6.4642 2.3874
2.8839 6.5719 2.3874
2.6459 6.6712 2.3874
2.4045 6.7618 2.3874
0.8581 2.7188 0.9484
0.7600 2.7483 0.9486
0.6608 2.7741 0.9487
0.5608 2.7964 0.9488
0.4600 2.8150 0.9489
0.3586 2.8300 0.9490
0.2567 2.8413 0.9491
0.1545 2.8489 0.9492
0.0521 2.8527 0.9493
-0.0505 2.8529 0.9493
-0.1529 2.8493 0.9493
-0.2552 2.8421 0.9494
-0.3571 2.8311 0.9494
-0.4586 2.8165 0.9494
-0.5595 2.7982 0.9494
-0.6597 2.7762 0.9494
-0.7590 2.7506 0.9493
-0.8573 2.7215 0.9493
-2.4004 6.7625 2.3874
-2.6419 6.6719 2.3874
-2.8799 6.5727 2.3874
-3.1142 6.4651 2.3874
-3.3445 6.3491 2.3874
-3.5704 6.2249 2.3874
-3.7918 6.0927 2.3874
-4.0083 5.9526 2.3874
-4.2196 5.8048 2.3874
-4.4255 5.6496 2.3874
-4.6257 5.4870 2.3874
-4.8199 5.3174 2.3874
-5.0079 5.1409 2.3874
-5.1895 4.9577 2.3874
-5.3643 4.7682 2.3874
-5.5323 4.5725 2.3874
-5.6931 4.3709 2.3874
-5.8466 4.1636 2.3874
-5.9925 3.9510 2.3874
-6.1307 3.7332 2.3874
-6.2610 3.5106 2.3874
-6.3833 3.2835 2.3874
-6.4973 3.0522 2.3874
-6.6029 2.8169 2.3874
-6.7000 2.5779 2.3874
-6.7885 2.3356 2.3874
-6.8682 2.0903 2.3874
-6.9391 1.8422 2.3874
-7.0010 1.5918 2.3874
-7.0539 1.3393 2.3874
-7.0976 1.0851 2.3874
-7.1323 0.8294 2.3874
-7.1577 0.5727 2.3874
-7.1739 0.3152 2.3874
-7.1808 0.0573 2.3874
-7.1784 -0.2007 2.3874
-7.1668 -0.4585 2.3874
-7.1459 -0.7157 2.3874
-7.1158 -0.9719 2.3874
-7.0766 -1.2270 2.3874
-7.0281 -1.4804 2.3874
-6.9706 -1.7320 2.3874
-6.9041 -1.9814 2.3874
-6.8287 -2.2282 2.3874
-6.7445 -2.4721 2.3874
-6.6515 -2.7129 2.3874
-6.5500 -2.9502 2.3874
-6.4400 -3.1837 2.3874
-6.3216 -3.4131 2.3874
-6.1951 -3.6381 2.3874
-6.0606 -3.8584 2.3874
-5.9183 -4.0737 2.3874
-5.7683 -4.2838 2.3874
-5.6109 -4.4884 2.3874
-5.4462 -4.6871 2.3874
-5.2744 -4.8799 2.3874
-5.0959 -5.0663 2.3874
-4.9107 -5.2463 2.3874
-4.7192 -5.4194 2.3874
-4.5216 -5.5856 2.3874
-4.3182 -5.7445 2.3874
-4.1091 -5.8961 2.3874
-3.8948 -6.0400 2.3874
-3.6754 -6.1761 2.3874
-3.4512 -6.3043 2.3874
-3.2226 -6.4243 2.3874
-2.9898 -6.5361 2.3874
-2.7532 -6.6394 2.3874
-2.5129 -6.7341 2.3874
-2.2694 -6.8201 2.3874
-2.0230 -6.8973 2.3874
-1.7740 -6.9657 2.3874
-1.5227 -7.0250 2.3874
-1.2694 -7.0752 2.3874
-1.0144 -7.1163 2.3874
-0.7581 -7.1482 2.3874
-0.5009 -7.1709 2.3874
-0.2430 -7.1843 2.3874
0.0153 -7.1885 2.3874
0.2735 -7.1833 2.3874
0.5313 -7.1689 2.3874
0.7885 -7.1452 2.3874
1.0446 -7.1123 2.3874
1.2994 -7.0702 2.3874
1.5525 -7.0189 2.3874
1.8036 -6.9586 2.3874
2.0524 -6.8893 2.3874
2.2986 -6.8111 2.3874
2.5417 -6.7241 2.3874
2.7816 -6.6284 2.3874
3.0179 -6.5242 2.3874
3.2502 -6.4115 2.3874
3.4784 -6.2906 2.3874
3.7021 -6.1615 2.3874
3.9210 -6.0245 2.3874
4.1348 -5.8797 2.3874
4.3433 -5.7273 2.3874
4.5461 -5.5675 2.3874
4.7431 -5.4005 2.3874
4.9340 -5.2265 2.3874
5.1184 -5.0459 2.3874
5.2963 -4.8586 2.3874
5.4673 -4.6652 2.3874
5.6312 -4.4657 2.3874
5.7878 -4.2604 2.3874
5.9370 -4.0497 2.3874
6.0785 -3.8337 2.3874
6.2122 -3.6127 2.3874
6.3378 -3.3872 2.3874
6.4552 -3.1573 2.3874
6.5643 -2.9233 2.3874
6.6648 -2.6856 2.3874
6.7568 -2.4444 2.3874
6.8401 -2.2000 2.3874
6.9145 -1.9528 2.3874
6.9800 -1.7031 2.3874
7.0364 -1.4512 2.3874
7.0838 -1.1975 2.3874
7.1221 -0.9422 2.3874
7.1511 -0.6858 2.3874
7.1709 -0.4284 2.3874
7.1814 -0.1705 2.3874
7.1827 0.0875 2.3874
7.1747 0.3455 2.3874
7.1574 0.6030 2.3874
7.1309 0.8596 2.3874
7.0952 1.1153 2.3874
7.0503 1.3694 2.3874
6.9964 1.6217 2.3874
6.9334 1.8719 2.3874
6.8614 2.1197 2.3874
6.7806 2.3648 2.3874
6.6911 2.6068 2.3874
6.5929 2.8454 2.3874
6.4862 3.0803 2.3874
6.3712 3.3112 2.3874
6.2479 3.5378 2.3874
6.1166 3.7599 2.3874
5.9774 3.9771 2.3874
5.8305 4.1891 2.3874
5.6761 4.3958 2.3874
5.5144 4.5967 2.3874
5.3456 4.7917 2.3874
5.1698 4.9805 2.3874
4.9874 5.1629 2.3874
4.7986 5.3386 2.3874
4.6036 5.5074 2.3874
4.4027 5.6691 2.3874
4.1961 5.8235 2.3874
3.9840 5.9703 2.3874
3.7669 6.1095 2.3874
3.5449 6.2407 2.3874
3.3184 6.3639 2.3874
3.0875 6.4789 2.3874
2.8527 6.5855 2.3874
2.6142 6.6836 2.3874
2.3724 6.7731 2.3874
0.8452 2.7229 0.9485
0.7469 2.7519 0.9486
0.6477 2.7773 0.9487
0.5475 2.7991 0.9488
0.4467 2.8172 0.9490
0.3452 2.8317 0.9490
0.2433 2.8425 0.9491
0.1410 2.8496 0.9492
0.0385 2.8530 0.9493
-0.0640 2.8526 0.9493
-0.1664 2.8486 0.9493
-0.2687 2.8409 0.9494
-0.3706 2.8294 0.9494
-0.4720 2.8143 0.9494
-0.5728 2.7955 0.9494
-0.6728 2.7730 0.9494
-0.7720 2.7470 0.9493
-0.8701 2.7173 0.9493
-2.4325 6.7510 2.3874
-2.6735 6.6593 2.3874
-2.9110 6.5590 2.3874
-3.1448 6.4502 2.3874
-3.3745 6.3331 2.3874
-3.5999 6.2079 2.3874
-3.8207 6.0746 2.3874
-4.0365 5.9335 2.3874
-4.2471 5.7847 2.3874
-4.4523 5.6285 2.3874
-4.6517 5.4650 2.3874
-4.8451 5.2944 2.3874
-5.0323 5.1170 2.3874
-5.2129 4.9331 2.3874
-5.3869 4.7427 2.3874
-5.5539 4.5462 2.3874
-5.7138 4.3438 2.3874
-5.8663 4.1358 2.3874
-6.0112 3.9225 2.3874
-6.1484 3.7041 2.3874
-6.2776 3.4809 2.3874
-6.3988 3.2532 2.3874
-6.5117 3.0213 2.3874
-6.6163 2.7855 2.3874
-6.7122 2.5461 2.3874
-6.7995 2.3034 2.3874
-6.8781 2.0577 2.3874
-6.9478 1.8093 2.3874
-7.0085 1.5586 2.3874
-7.0602 1.3058 2.3874
-7.1027 1.0514 2.3874
-7.1361 0.7956 2.3874
-7.1603 0.5387 2.3874
-7.1753 0.2811 2.3874
-7.1810 0.0232 2.3874
-7.1774 -0.2348 2.3874
-7.1646 -0.4925 2.3874
-7.1425 -0.7496 2.3874
-7.1112 -1.0057 2.3874
-7.0707 -1.2605 2.3874
-7.0211 -1.5138 2.3874
-6.9624 -1.7651 2.3874
-6.8947 -2.0141 2.3874
-6.8181 -2.2606 2.3874
-6.7327 -2.5041 2.3874
-6.6386 -2.7444 2.3874
-6.5359 -2.9812 2.3874
-6.4248 -3.2142 2.3874
-6.3054 -3.4430 2.3874
-6.1778 -3.6674 2.3874
-6.0423 -3.8871 2.3874
-5.8989 -4.1018 2.3874
-5.7480 -4.3111 2.3874
-5.5895 -4.5150 2.3874
-5.4239 -4.7130 2.3874
-5.2512 -4.9049 2.3874
-5.0718 -5.0905 2.3874
-4.8858 -5.2695 2.3874
-4.6935 -5.4418 2.3874
-4.4951 -5.6070 2.3874
-4.2909 -5.7650 2.3874
-4.0811 -5.9155 2.3874
-3.8661 -6.0584 2.3874
-3.6460 -6.1935 2.3874
-3.4213 -6.3206 2.3874
-3.1921 -6.4396 2.3874
-2.9588 -6.5502 2.3874
-2.7216 -6.6524 2.3874
-2.4809 -6.7459 2.3874
-2.2371 -6.8308 2.3874
-1.9903 -6.9069 2.3874
-1.7409 -6.9740 2.3874
-1.4893 -7.0321 2.3874
-1.2358 -7.0812 2.3874
-0.9806 -7.1211 2.3874
-0.7242 -7.1518 2.3874
-0.4668 -7.1732 2.3874
-0.2089 -7.1854 2.3874
0.0493 -7.1883 2.3874
0.3075 -7.1819 2.3874
0.5653 -7.1663 2.3874
0.8224 -7.1414 2.3874
1.0783 -7.1072 2.3874
1.3330 -7.0639 2.3874
1.5858 -7.0115 2.3874
1.8366 -6.9500 2.3874
2.0851 -6.8795 2.3874
2.3309 -6.8001 2.3874
2.5736 -6.7120 2.3874
2.8130 -6.6152 2.3874
3.0488 -6.5098 2.3874
3.2806 -6.3960 2.3874
3.5082 -6.2740 2.3874
3.7313 -6.1438 2.3874
3.9495 -6.0058 2.3874
4.1626 -5.8600 2.3874
4.3704 -5.7066 2.3874
4.5725 -5.5458 2.3874
4.7687 -5.3779 2.3874
4.9587 -5.2030 2.3874
5.1423 -5.0215 2.3874
5.3192 -4.8334 2.3874
5.4893 -4.6392 2.3874
5.6523 -4.4389 2.3874
5.8080 -4.2329 2.3874
5.9561 -4.0214 2.3874
6.0966 -3.8048 2.3874
6.2292 -3.5833 2.3874
6.3537 -3.3571 2.3874
6.4701 -3.1266 2.3874
6.5780 -2.8921 2.3874
6.6775 -2.6539 2.3874
6.7683 -2.4122 2.3874
6.8504 -2.1675 2.3874
6.9237 -1.9200 2.3874
6.9880 -1.6700 2.3874
7.0432 -1.4178 2.3874
7.0894 -1.1639 2.3874
7.1264 -0.9084 2.3874
7.1542 -0.6518 2.3874
7.1728 -0.3944 2.3874
7.1821 -0.1365 2.3874
7.1822 0.1216 2.3874
7.1729 0.3795 2.3874
7.1544 0.6370 2.3874
7.1267 0.8935 2.3874
7.0898 1.1489 2.3874
7.0437 1.4028 2.3874
6.9886 1.6549 2.3874
6.9244 1.9048 2.3874
6.8513 2.1523 2.3874
6.7693 2.3969 2.3874
6.6786 2.6385 2.3874
6.5793 2.8766 2.3874
6.4715 3.1110 2.3874
6.3554 3.3414 2.3874
6.2311 3.5674 2.3874
6.0987 3.7889 2.3874
5.9585 4.0054 2.3874
5.8106 4.2167 2.3874
5.6552 4.4226 2.3874
5.4925 4.6228 2.3874
5.3227 4.8170 2.3874
5.1461 5.0050 2.3874
4.9628 5.1865 2.3874
4.7732 5.3613 2.3874
4.5774 5.5292 2.3874
4.3757 5.6899 2.3874
4.1683 5.8433 2.3874
3.9556 5.9892 2.3874
3.7378 6.1273 2.3874
3.5152 6.2575 2.3874
3.2881 6.3796 2.3874
3.0567 6.4935 2.3874
2.8214 6.5990 2.3874
2.5825 6.6960 2.3874
0.9296 2.6949 0.9483
0.8323 2.7270 0.9485
0.7339 2.7555 0.9486
0.6345 2.7804 0.9487
0.5343 2.8017 0.9489
0.4333 2.8193 0.9490
0.3318 2.8333 0.9491
0.2298 2.8436 0.9491
0.1275 2.8502 0.9492
0.0250 2.8531 0.9493
-0.0775 2.8523 0.9493
-0.1800 2.8478 0.9493
-0.2822 2.8396 0.9494
-0.3840 2.8276 0.9494
-0.4853 2.8120 0.9494
-0.5860 2.7927 0.9494
-0.6860 2.7698 0.9493
-0.7850 2.7433 0.9493
-0.8830 2.7132 0.9493
-2.4645 6.7394 2.3874
-2.7051 6.6465 2.3874
-2.9421 6.5451 2.3874
-3.1754 6.4352 2.3874
-3.4046 6.3171 2.3874
-3.6294 6.1907 2.3874
-3.8495 6.0564 2.3874
-4.0646 5.9143 2.3874
-4.2745 5.7645 2.3874
-4.4789 5.6073 2.3874
-4.6776 5.4429 2.3874
-4.8702 5.2714 2.3874
-5.0565 5.0931 2.3874
-5.2363 4.9083 2.3874
-5.4094 4.7171 2.3874
-5.5755 4.5198 2.3874
-5.7344 4.3167 2.3874
-5.8859 4.1079 2.3874
-6.0298 3.8939 2.3874
-6.1659 3.6749 2.3874
-6.2941 3.4511 2.3874
-6.4142 3.2228 2.3874
-6.5260 2.9904 2.3874
-6.6294 2.7541 2.3874
-6.7242 2.5142 2.3874
-6.8104 2.2711 2.3874
-6.8878 2.0250 2.3874
-6.9563 1.7763 2.3874
-7.0158 1.5253 2.3874
-7.0663 1.2723 2.3874
-7.1077 1.0177 2.3874
-7.1399 0.7617 2.3874
-7.1628 0.5047 2.3874
-7.1766 0.2471 2.3874
-7.1810 -0.0109 2.3874
-7.1762 -0.2688 2.3874
-7.1622 -0.5265 2.3874
-7.1389 -0.7835 2.3874
-7.1063 -1.0395 2.3874
-7.0647 -1.2941 2.3874
-7.0138 -1.5471 2.3874
-6.9539 -1.7981 2.3874
-6.8851 -2.0468 2.3874
-6.8073 -2.2929 2.3874
-6.7208 -2.5361 2.3874
-6.6255 -2.7759 2.3874
-6.5217 -3.0122 2.3874
-6.4095 -3.2447 2.3874
-6.2890 -3.4729 2.3874
-6.1604 -3.6967 2.3874
-6.0238 -3.9157 2.3874
-5.8794 -4.1297 2.3874
-5.7275 -4.3384 2.3874
-5.5681 -4.5414 2.3874
-5.4015 -4.7387 2.3874
-5.2279 -4.9298 2.3874
-5.0476 -5.1145 2.3874
-4.8607 -5.2927 2.3874
-4.6676 -5.4640 2.3874
-4.4684 -5.6283 2.3874
-4.2635 -5.7853 2.3874
-4.0530 -5.9348 2.3874
-3.8373 -6.0767 2.3874
-3.6166 -6.2108 2.3874
-3.3912 -6.3368 2.3874
-3.1615 -6.4547 2.3874
-2.9277 -6.5642 2.3874
-2.6900 -6.6652 2.3874
-2.4489 -6.7577 2.3874
-2.2046 -6.8414 2.3874
-1.9575 -6.9163 2.3874
-1.7078 -6.9822 2.3874
-1.4559 -7.0391 2.3874
-1.2021 -7.0870 2.3874
-0.9468 -7.1256 2.3874
-0.6902 -7.1551 2.3874
-0.4328 -7.1754 2.3874
-0.1748 -7.1863 2.3874
0.0835 -7.1880 2.3874
0.3416 -7.1804 2.3874
0.5993 -7.1635 2.3874
0.8562 -7.1374 2.3874
1.1121 -7.1020 2.3874
1.3665 -7.0575 2.3874
1.6191 -7.0039 2.3874
1.8696 -6.9412 2.3874
2.1177 -6.8695 2.3874
2.3631 -6.7890 2.3874
2.6054 -6.6997 2.3874
2.8444 -6.6017 2.3874
3.0796 -6.4952 2.3874
3.3110 -6.3804 2.3874
3.5380 -6.2573 2.3874
3.7604 -6.1261 2.3874
3.9780 -5.9870 2.3874
4.1904 -5.8401 2.3874
4.3974 -5.6858 2.3874
4.5987 -5.5241 2.3874
4.7941 -5.3552 2.3874
4.9833 -5.1795 2.3874
5.1660 -4.9970 2.3874
5.3421 -4.8081 2.3874
5.5113 -4.6130 2.3874
5.6733 -4.4120 2.3874
5.8280 -4.2053 2.3874
5.9751 -3.9931 2.3874
6.1146 -3.7758 2.3874
6.2461 -3.5537 2.3874
6.3696 -3.3269 2.3874
6.4848 -3.0959 2.3874
6.5917 -2.8609 2.3874
6.6900 -2.6222 2.3874
6.7797 -2.3801 2.3874
6.8606 -2.1350 2.3874
6.9327 -1.8871 2.3874
6.9958 -1.6368 2.3874
7.0498 -1.3844 2.3874
7.0948 -1.1302 2.3874
7.1306 -0.8746 2.3874
7.1572 -0.6178 2.3874
7.1746 -0.3603 2.3874
7.1827 -0.1024 2.3874
7.1815 0.1557 2.3874
7.1710 0.4136 2.3874
7.1513 0.6709 2.3874
7.1224 0.9274 2.3874
7.0842 1.1825 2.3874
7.0369 1.4362 2.3874
6.9806 1.6880 2.3874
6.9152 1.9376 2.3874
6.8409 2.1847 2.3874
6.7578 2.4290 2.3874
6.6660 2.6701 2.3874
6.5656 2.9078 2.3874
6.4567 3.1417 2.3874
6.3394 3.3715 2.3874
6.2140 3.5969 2.3874
6.0806 3.8177 2.3874
5.9394 4.0336 2.3874
5.7905 4.2443 2.3874
5.6341 4.4494 2.3874
5.4705 4.6488 2.3874
5.2998 4.8422 2.3874
5.1223 5.0293 2.3874
4.9382 5.2100 2.3874
4.7477 5.3839 2.3874
4.5511 5.5508 2.3874
4.3486 5.7106 2.3874
4.1406 5.8630 2.3874
3.9272 6.0078 2.3874
3.7087 6.1449 2.3874
3.4855 6.2741 2.3874
3.2578 6.3951 2.3874
3.0259 6.5079 2.3874
2.7901 6.6123 2.3874
2.5507 6.7081 2.3874
0.9168 2.6994 0.9484
0.8194 2.7309 0.9485
0.7208 2.7590 0.9486
0.6213 2.7834 0.9488
0.5210 2.8042 0.9489
0.4199 2.8214 0.9490
0.3183 2.8349 0.9491
0.2163 2.8447 0.9491
0.1139 2.8508 0.9492
0.0114 2.8532 0.9493
-0.0911 2.8519 0.9493
-0.1935 2.8469 0.9494
-0.2956 2.8382 0.9494
-0.3974 2.8258 0.9494
6.6440 -0.6690 2.3874
6.6635 -0.4299 2.3874
6.6745 -0.1902 2.3874
6.6768 0.0496 2.3874
6.6705 0.2894 2.3874
6.6556 0.5289 2.3874
6.6321 0.7676 2.3874
6.6000 1.0053 2.3874
6.5595 1.2417 2.3874
6.5104 1.4765 2.3874
6.4530 1.7094 2.3874
6.3872 1.9400 2.3874
6.3132 2.1682 2.3874
6.2311 2.3935 2.3874
6.1409 2.6157 2.3874
6.0428 2.8346 2.3874
5.9369 3.0497 2.3874
5.8233 3.2609 2.3874
5.7022 3.4679 2.3874
5.5738 3.6704 2.3874
5.4382 3.8682 2.3874
5.2956 4.0610 2.3874
5.1462 4.2485 2.3874
4.9901 4.4305 2.3874
4.8276 4.6068 2.3874
4.6588 4.7771 2.3874
4.4841 4.9413 2.3874
4.3036 5.0991 2.3874
4.1175 5.2503 2.3874
3.9262 5.3947 2.3874
3.7297 5.5321 2.3874
3.5285 5.6624 2.3874
3.3227 5.7854 2.3874
3.1127 5.9010 2.3874
2.8986 6.0089 2.3874
2.6808 6.1090 2.3874
2.4596 6.2013 2.3874
0.8873 2.4952 0.9477
0.7972 2.5258 0.9479
0.7060 2.5531 0.9480
0.6139 2.5772 0.9481
0.5210 2.5978 0.9482
0.4274 2.6151 0.9483
0.3332 2.6290 0.9484
0.2385 2.6394 0.9485
0.1435 2.6465 0.9486
0.0484 2.6501 0.9486
-0.0469 2.6502 0.9487
-0.1421 2.6469 0.9487
-0.2371 2.6402 0.9487
-0.3318 2.6300 0.9487
-0.4260 2.6164 0.9487
-0.5198 2.5993 0.9487
-0.6128 2.5789 0.9487
-0.7050 2.5552 0.9487
-0.7963 2.5281 0.9487
-0.8866 2.4977 0.9486
-2.4558 6.2020 2.3874
-2.6771 6.1098 2.3874
-2.8949 6.0097 2.3874
-3.1089 5.9019 2.3874
-3.3190 5.7865 2.3874
-3.5248 5.6636 2.3874
-3.7260 5.5333 2.3874
-3.9224 5.3960 2.3874
-4.1138 5.2516 2.3874
-4.2999 5.1005 2.3874
-4.4804 4.9428 2.3874
-4.6552 4.7788 2.3874
-4.8240 4.6085 2.3874
-4.9865 4.4323 2.3874
-5.1426 4.2504 2.3874
-5.2921 4.0630 2.3874
-5.4348 3.8703 2.3874
-5.5704 3.6726 2.3874
-5.6989 3.4702 2.3874
-5.8200 3.2633 2.3874
-5.9336 3.0522 2.3874
-6.0396 2.8371 2.3874
-6.1378 2.6184 2.3874
-6.2280 2.3963 2.3874
-6.3103 2.1710 2.3874
-6.3844 1.9430 2.3874
-6.4502 1.7124 2.3874
-6.5077 1.4796 2.3874
-6.5569 1.2449 2.3874
