ply
format ascii 1.0
element vertex 2177
property float32 x
property float32 y
property float32 z
end_header
2.5253 7.9760 2.3893
0.8946 3.2241 0.9556
0.7782 3.2545 0.9558
0.6608 3.2808 0.9560
0.5425 3.3027 0.9562
0.4234 3.3204 0.9563
0.3038 3.3338 0.9564
0.1838 3.3428 0.9565
0.0635 3.3475 0.9566
-0.0569 3.3478 0.9566
-0.1773 3.3437 0.9567
-0.2974 3.3353 0.9567
-0.4171 3.3226 0.9567
-0.5363 3.3055 0.9566
-0.6548 3.2841 0.9566
-0.7724 3.2585 0.9565
-0.8891 3.2286 0.9565
-2.5096 7.9809 2.3893
-2.7952 7.8863 2.3893
-3.0773 7.7817 2.3893
-3.3555 7.6670 2.3893
-3.6294 7.5424 2.3893
-3.8988 7.4082 2.3893
-4.1632 7.2644 2.3893
-4.4224 7.1112 2.3893
-4.6760 6.9489 2.3893
-4.9237 6.7776 2.3893
-5.1652 6.5976 2.3893
-5.4001 6.4090 2.3893
-5.6282 6.2121 2.3893
-5.8492 6.0071 2.3893
-6.0628 5.7944 2.3893
-6.2686 5.5740 2.3893
-6.4666 5.3465 2.3893
-6.6563 5.1119 2.3893
-6.8375 4.8707 2.3893
-7.0100 4.6231 2.3893
-7.1737 4.3694 2.3893
-7.3282 4.1099 2.3893
-7.4733 3.8450 2.3893
-7.6089 3.5750 2.3893
-7.7348 3.3003 2.3893
-7.8508 3.0211 2.3893
-7.9568 2.7379 2.3893
-8.0526 2.4510 2.3893
-8.1380 2.1607 2.3893
-8.2130 1.8675 2.3893
-8.2775 1.5717 2.3893
-8.3314 1.2737 2.3893
-8.3745 0.9739 2.3893
-8.4069 0.6726 2.3893
-8.4284 0.3702 2.3893
-8.4391 0.0672 2.3893
-8.4388 -0.2361 2.3893
-8.4277 -0.5393 2.3893
-8.4057 -0.8420 2.3893
-8.3728 -1.1437 2.3893
-8.3290 -1.4443 2.3893
-8.2744 -1.7431 2.3893
-8.2092 -2.0398 2.3893
-8.1332 -2.3341 2.3893
-8.0467 -2.6256 2.3893
-7.9497 -2.9138 2.3893
-7.8423 -3.1985 2.3893
-7.7247 -3.4791 2.3893
-7.5971 -3.7555 2.3893
-7.4595 -4.0271 2.3893
-7.3122 -4.2936 2.3893
-7.1553 -4.5548 2.3893
-6.9890 -4.8101 2.3893
-6.8136 -5.0594 2.3893
-6.6293 -5.3022 2.3893
-6.4362 -5.5383 2.3893
-6.2348 -5.7673 2.3893
-6.0251 -5.9889 2.3893
-5.8076 -6.2028 2.3893
-5.5823 -6.4088 2.3893
-5.3498 -6.6065 2.3893
-5.1101 -6.7957 2.3893
-4.8638 -6.9762 2.3893
-4.6110 -7.1477 2.3893
-4.3522 -7.3099 2.3893
-4.0876 -7.4627 2.3893
-3.8176 -7.6058 2.3893
-3.5426 -7.7391 2.3893
-3.2629 -7.8624 2.3893
-2.9788 -7.9754 2.3893
-2.6909 -8.0781 2.3893
-2.3994 -8.1703 2.3893
-2.1047 -8.2519 2.3893
-1.8072 -8.3228 2.3893
-1.5073 -8.3829 2.3893
-1.2054 -8.4321 2.3893
-0.9020 -8.4702 2.3893
-0.5973 -8.4974 2.3893
-0.2919 -8.5135 2.3893
0.0140 -8.5186 2.3893
0.3198 -8.5125 2.3893
0.6252 -8.4954 2.3893
0.9298 -8.4672 2.3893
1.2331 -8.4280 2.3893
1.5348 -8.3778 2.3893
1.8345 -8.3168 2.3893
2.1317 -8.2449 2.3893
2.4261 -8.1624 2.3893
2.7174 -8.0692 2.3893
3.0050 -7.9655 2.3893
3.2886 -7.8515 2.3893
3.5679 -7.7273 2.3893
3.8425 -7.5931 2.3893
4.1120 -7.4491 2.3893
4.3761 -7.2955 2.3893
4.6344 -7.1324 2.3893
4.5749 -6.5161 2.2369
4.8050 -6.3464 2.2369
5.0287 -6.1685 2.2369
5.2458 -5.9827 2.2369
5.4560 -5.7891 2.2369
5.6591 -5.5882 2.2369
5.0268 -4.6193 1.9206
5.2554 -4.4922 1.9455
6.2226 -4.9435 2.2369
6.3944 -4.7156 2.2369
6.5578 -4.4817 2.2369
6.7187 -4.2459 2.2389
6.8612 -3.9986 2.2377
6.9977 -3.7482 2.2375
7.1298 -3.4954 2.2388
7.2526 -3.2379 2.2400
7.3663 -2.9761 2.2413
7.4691 -2.7099 2.2422
7.5592 -2.4391 2.2422
7.6395 -2.1653 2.2422
7.7099 -1.8889 2.2422
7.7702 -1.6102 2.2422
7.8205 -1.3296 2.2422
7.8606 -1.0475 2.2422
7.8906 -0.7642 2.2422
7.9103 -0.4801 2.2422
7.9198 -0.1955 2.2422
7.9191 0.0891 2.2422
6.9165 0.3266 1.9611
5.5416 0.4617 1.5754
5.5522 0.6642 1.5847
5.5629 0.8692 1.5962
6.2499 1.2080 1.8052
6.2623 1.4456 1.8232
6.2750 1.6882 1.8440
6.2881 1.9365 1.8677
6.3014 2.1915 1.8944
6.3152 2.4540 1.9244
6.3294 2.7252 1.9580
6.3441 3.0062 1.9953
6.3594 3.2984 2.0367
6.3754 3.6031 2.0826
6.3921 3.9222 2.1333
6.4097 4.2574 2.1895
6.4014 4.5918 2.2422
6.2306 4.8177 2.2422
6.0519 5.0372 2.2422
5.8654 5.2502 2.2422
5.6714 5.4560 2.2422
5.4694 5.6541 2.2418
5.2605 5.8447 2.2414
5.0451 6.0277 2.2410
4.8233 6.2027 2.2406
4.5954 6.3696 2.2402
4.3618 6.5282 2.2397
4.1228 6.6783 2.2393
3.8786 6.8197 2.2389
3.6297 6.9522 2.2384
3.3762 7.0757 2.2379
3.1186 7.1900 2.2375
2.8571 7.2950 2.2370
2.6404 7.5281 2.2781
2.4834 7.9890 2.3893
0.8777 3.2288 0.9557
0.7612 3.2586 0.9559
0.6436 3.2842 0.9560
0.5251 3.3056 0.9562
0.4060 3.3226 0.9563
0.2863 3.3354 0.9564
0.1662 3.3437 0.9565
0.0459 3.3478 0.9566
-0.0745 3.3475 0.9566
-0.1948 3.3428 0.9567
-0.3148 3.3337 0.9567
-0.4345 3.3203 0.9567
-0.5536 3.3026 0.9566
-0.6720 3.2806 0.9566
-0.7895 3.2544 0.9565
-2.2632 8.0536 2.3893
-2.5515 7.9677 2.3893
-2.8366 7.8717 2.3893
-3.1181 7.7656 2.3893
-3.3957 7.6494 2.3893
-3.6690 7.5235 2.3893
-3.9377 7.3878 2.3893
-4.2013 7.2427 2.3893
-4.4597 7.0881 2.3893
-4.7125 6.9245 2.3893
-4.9593 6.7519 2.3893
-5.1999 6.5706 2.3893
-5.4338 6.3809 2.3893
-5.6609 6.1827 2.3893
-5.8808 5.9766 2.3893
-6.0933 5.7627 2.3893
-6.2980 5.5413 2.3893
-6.4947 5.3127 2.3893
-6.6832 5.0772 2.3893
-6.8632 4.8350 2.3893
-7.0345 4.5865 2.3893
-7.1968 4.3319 2.3893
-7.3499 4.0716 2.3893
-7.4937 3.8060 2.3893
-7.6279 3.5353 2.3893
-7.7523 3.2598 2.3893
-7.8669 2.9801 2.3893
-7.9714 2.6963 2.3893
-8.0657 2.4089 2.3893
-8.1496 2.1182 2.3893
-8.2231 1.8246 2.3893
-8.2860 1.5284 2.3893
-8.3383 1.2301 2.3893
-8.3799 0.9300 2.3893
-8.4107 0.6286 2.3893
-8.4306 0.3261 2.3893
-8.4397 0.0230 2.3893
-8.4379 -0.2803 2.3893
-8.4252 -0.5834 2.3893
-8.4015 -0.8860 2.3893
-8.3671 -1.1877 2.3893
-8.3217 -1.4879 2.3893
-8.2656 -1.7865 2.3893
-8.1987 -2.0829 2.3893
-8.1212 -2.3768 2.3893
-8.0332 -2.6678 2.3893
-7.9347 -2.9556 2.3893
-7.8259 -3.2396 2.3893
-7.7067 -3.5197 2.3893
-7.5776 -3.7954 2.3893
-7.4386 -4.0663 2.3893
-7.2899 -4.3320 2.3893
-7.1316 -4.5924 2.3893
-6.9640 -4.8468 2.3893
-6.7873 -5.0952 2.3893
-6.6017 -5.3370 2.3893
-6.4075 -5.5721 2.3893
-6.2047 -5.8000 2.3893
-5.9939 -6.0205 2.3893
-5.7752 -6.2333 2.3893
-5.5489 -6.4381 2.3893
-5.3152 -6.6346 2.3893
-5.0746 -6.8226 2.3893
-1.7422 -7.6376 2.3893
-1.4670 -7.6957 2.3893
-1.1898 -7.7439 2.3893
-0.9111 -7.7819 2.3893
-0.6312 -7.8098 2.3893
-0.3504 -7.8276 2.3893
-0.0692 -7.8352 2.3893
0.2122 -7.8326 2.3893
0.4932 -7.8198 2.3893
0.7736 -7.7969 2.3893
1.0530 -7.7638 2.3893
1.3309 -7.7206 2.3893
1.6072 -7.6674 2.3893
1.8813 -7.6043 2.3893
2.1529 -7.5312 2.3893
2.4216 -7.4484 2.3893
2.6872 -7.3559 2.3893
2.9492 -7.2539 2.3893
3.2074 -7.1425 2.3893
3.4613 -7.0218 2.3893
3.7106 -6.8920 2.3893
3.9550 -6.7533 2.3893
3.9267 -6.1845 2.2369
4.1456 -6.0385 2.2369
4.3589 -5.8847 2.2369
4.5665 -5.7233 2.2369
4.7681 -5.5546 2.2369
4.9635 -5.3787 2.2369
5.1523 -5.1958 2.2369
5.3343 -5.0064 2.2369
5.1368 -4.4852 2.0856
5.6772 -4.6084 2.2369
5.8376 -4.4005 2.2369
5.9904 -4.1870 2.2369
6.1356 -3.9683 2.2370
6.2729 -3.7447 2.2371
6.4044 -3.5176 2.2381
6.5282 -3.2861 2.2393
6.6436 -3.0503 2.2404
6.7505 -2.8104 2.2416
6.8470 -2.5661 2.2422
6.9327 -2.3178 2.2422
7.0094 -2.0667 2.2422
7.0770 -1.8131 2.2422
7.1354 -1.5572 2.2422
7.1845 -1.2995 2.2422
7.2244 -1.0403 2.2422
7.2549 -0.7798 2.2422
7.2759 -0.5186 2.2422
7.2876 -0.2568 2.2422
7.2899 0.0052 2.2422
7.2827 0.2670 2.2422
5.5385 0.4027 1.7091
5.5490 0.6046 1.7185
5.5597 0.8088 1.7302
5.5706 1.0160 1.7444
6.2586 1.3755 1.9746
6.2713 1.6165 1.9963
6.2842 1.8631 2.0210
6.2975 2.1160 2.0490
6.3111 2.3762 2.0805
6.3252 2.6448 2.1157
6.3397 2.9228 2.1550
6.4811 3.2753 2.2422
6.3574 3.5052 2.2422
6.2257 3.7304 2.2422
6.0860 3.9507 2.2422
5.9386 4.1658 2.2422
5.7836 4.3755 2.2422
5.6210 4.5792 2.2421
5.4507 4.7765 2.2418
5.2735 4.9675 2.2415
5.0896 5.1519 2.2411
4.8993 5.3295 2.2408
4.7029 5.5002 2.2404
4.5005 5.6636 2.2401
4.2924 5.8197 2.2397
4.0790 5.9681 2.2393
3.8605 6.1088 2.2389
3.6371 6.2415 2.2385
3.4093 6.3660 2.2381
3.1772 6.4824 2.2376
2.9411 6.5903 2.2372
2.7016 6.6899 2.2369
2.6068 7.1897 2.3713
2.3642 7.3331 2.3893
0.8384 2.9612 0.9544
0.7315 2.9897 0.9546
0.6236 3.0144 0.9548
0.5149 3.0351 0.9549
0.4055 3.0520 0.9551
0.2955 3.0648 0.9552
0.1851 3.0737 0.9553
0.0745 3.0785 0.9553
-0.0362 3.0794 0.9554
-0.1469 3.0762 0.9554
-0.2574 3.0691 0.9554
-0.3676 3.0579 0.9554
-0.4773 3.0428 0.9554
-0.5864 3.0237 0.9554
-0.6948 3.0007 0.9553
-0.8022 2.9737 0.9552
-2.2728 7.3618 2.3893
-2.5362 7.2760 2.3893
-2.7964 7.1809 2.3893
-3.0532 7.0765 2.3893
-3.3060 6.9631 2.3893
-3.5547 6.8407 2.3893
-3.7989 6.7094 2.3893
-4.0382 6.5695 2.3893
-4.2725 6.4212 2.3893
-4.5014 6.2646 2.3893
-4.7245 6.0998 2.3893
-4.9417 5.9272 2.3893
-5.1526 5.7469 2.3893
-5.3570 5.5591 2.3893
-5.5545 5.3641 2.3893
-5.7450 5.1622 2.3893
-5.9283 4.9535 2.3893
-6.1039 4.7384 2.3893
-6.2718 4.5170 2.3893
-6.4318 4.2898 2.3893
-6.5835 4.0569 2.3893
-6.7268 3.8187 2.3893
-6.8616 3.5754 2.3893
-6.9876 3.3274 2.3893
-7.1046 3.0750 2.3893
-7.2126 2.8185 2.3893
-7.3114 2.5583 2.3893
-7.4007 2.2946 2.3893
-7.4806 2.0278 2.3893
-7.5509 1.7582 2.3893
-7.6115 1.4862 2.3893
-7.6623 1.2121 2.3893
-7.7033 0.9363 2.3893
-7.7344 0.6591 2.3893
-7.7554 0.3809 2.3893
-7.7665 0.1021 2.3893
-7.7676 -0.1771 2.3893
-7.7586 -0.4561 2.3893
-7.7396 -0.7348 2.3893
-7.7106 -1.0126 2.3893
-7.6716 -1.2894 2.3893
-7.6226 -1.5646 2.3893
-7.5638 -1.8379 2.3893
-7.4952 -2.1091 2.3893
-7.4168 -2.3776 2.3893
-7.3287 -2.6433 2.3893
-7.2312 -2.9056 2.3893
-7.1242 -3.1644 2.3893
-7.0079 -3.4191 2.3893
-6.8825 -3.6696 2.3893
-6.7481 -3.9155 2.3893
-6.6049 -4.1564 2.3893
-6.4530 -4.3920 2.3893
-6.2927 -4.6221 2.3893
-6.1242 -4.8463 2.3893
-5.9477 -5.0643 2.3893
-5.7632 -5.2759 2.3893
-5.5714 -5.4806 2.3893
-5.3722 -5.6784 2.3893
-5.1659 -5.8689 2.3893
-4.9529 -6.0518 2.3893
-4.7333 -6.2269 2.3893
-4.5075 -6.3940 2.3893
-4.2758 -6.5529 2.3893
-4.0384 -6.7033 2.3893
-3.7957 -6.8450 2.3893
-3.5480 -6.9779 2.3893
-3.2957 -7.1018 2.3893
-3.0390 -7.2164 2.3893
-2.7783 -7.3217 2.3893
-2.5139 -7.4175 2.3893
-2.2462 -7.5037 2.3893
-1.9755 -7.5801 2.3893
-1.7022 -7.6467 2.3893
-1.4267 -7.7034 2.3893
-1.1493 -7.7500 2.3893
-0.8704 -7.7866 2.3893
-0.5903 -7.8131 2.3893
-0.3094 -7.8294 2.3893
-0.0281 -7.8355 2.3893
0.2532 -7.8314 2.3893
0.5341 -7.8171 2.3893
0.8144 -7.7927 2.3893
1.0936 -7.7582 2.3893
1.3713 -7.7135 2.3893
1.6473 -7.6589 2.3893
1.9210 -7.5942 2.3893
2.1922 -7.5198 2.3893
2.4606 -7.4355 2.3893
2.7256 -7.3416 2.3893
2.9871 -7.2379 2.3893
3.2446 -7.1254 2.3893
3.4979 -7.0034 2.3893
3.7465 -6.8723 2.3893
3.9902 -6.7323 2.3893
3.9592 -6.1641 2.2370
4.1770 -6.0166 2.2369
4.3895 -5.8616 2.2369
4.5963 -5.6992 2.2369
4.7970 -5.5293 2.2369
4.9914 -5.3524 2.2369
5.1793 -5.1686 2.2369
5.0349 -4.6760 2.1011
5.1803 -4.4755 2.0938
5.7011 -4.5785 2.2369
5.8604 -4.3698 2.2369
6.0120 -4.1554 2.2369
6.1562 -3.9361 2.2370
6.2922 -3.7117 2.2371
6.4230 -3.4841 2.2383
6.5455 -3.2520 2.2394
6.6597 -3.0156 2.2406
6.7654 -2.7751 2.2418
6.8600 -2.5301 2.2422
6.9444 -2.2814 2.2422
7.0198 -2.0299 2.2422
7.0861 -1.7759 2.2422
7.1431 -1.5198 2.2422
7.1909 -1.2618 2.2422
7.2294 -1.0024 2.2422
7.2585 -0.7418 2.2422
7.2782 -0.4804 2.2422
7.2885 -0.2186 2.2422
7.2894 0.0434 2.2422
7.2809 0.3052 2.2422
5.5400 0.4320 1.7103
5.5506 0.6342 1.7200
5.5613 0.8388 1.7321
6.2481 1.1734 1.9585
6.2605 1.4103 1.9776
6.2731 1.6521 1.9997
6.2861 1.8995 2.0249
6.2994 2.1535 2.0534
6.3131 2.4148 2.0854
6.3273 2.6847 2.1212
6.3419 2.9642 2.1611
6.4636 3.3091 2.2422
6.3387 3.5383 2.2422
6.2058 3.7628 2.2422
6.0650 3.9824 2.2422
5.9164 4.1967 2.2422
5.7604 4.4056 2.2422
5.5966 4.6084 2.2421
5.4253 4.8047 2.2418
5.2471 4.9948 2.2414
5.0623 5.1782 2.2411
4.8711 5.3549 2.2407
4.6737 5.5245 2.2404
4.4705 5.6869 2.2400
4.2617 5.8418 2.2396
4.0475 5.9891 2.2392
3.8282 6.1286 2.2388
3.6042 6.2601 2.2384
3.3757 6.3835 2.2380
3.1430 6.4986 2.2376
2.9064 6.6053 2.2371
2.6665 6.7040 2.2369
2.5886 7.2577 2.3893
0.9289 2.9337 0.9543
0.8229 2.9656 0.9545
0.7158 2.9936 0.9547
0.6078 3.0177 0.9548
0.4990 3.0378 0.9550
0.3895 3.0541 0.9551
0.2794 3.0663 0.9552
0.1690 3.0746 0.9553
0.0584 3.0789 0.9553
-0.0524 3.0792 0.9554
-0.1630 3.0754 0.9554
-0.2735 3.0677 0.9554
-0.3836 3.0560 0.9554
-0.4933 3.0403 0.9554
-0.6023 3.0206 0.9554
-0.7105 2.9970 0.9553
-0.8178 2.9695 0.9552
-2.3114 7.3498 2.3893
-2.5743 7.2627 2.3893
-2.8341 7.1662 2.3893
-3.0903 7.0605 2.3893
-3.3425 6.9458 2.3893
-3.5906 6.8221 2.3893
-3.8341 6.6896 2.3893
-4.0727 6.5484 2.3893
-4.3062 6.3989 2.3893
-4.5343 6.2410 2.3893
-4.7565 6.0751 2.3893
-4.9728 5.9014 2.3893
-5.1828 5.7200 2.3893
-5.3862 5.5311 2.3893
-5.5827 5.3352 2.3893
-5.7722 5.1322 2.3893
-5.9543 4.9225 2.3893
-6.1289 4.7065 2.3893
-6.2957 4.4843 2.3893
-6.4544 4.2562 2.3893
-6.6049 4.0225 2.3893
-6.7470 3.7835 2.3893
-6.8805 3.5396 2.3893
-7.0052 3.2909 2.3893
-7.1210 3.0379 2.3893
-7.2276 2.7808 2.3893
-7.3250 2.5201 2.3893
-7.4130 2.2559 2.3893
-7.4915 1.9886 2.3893
-7.5604 1.7187 2.3893
-7.6195 1.4463 2.3893
-7.6689 1.1720 2.3893
-7.7085 0.8960 2.3893
-7.7380 0.6186 2.3893
-7.7577 0.3403 2.3893
-7.7673 0.0614 2.3893
-7.7669 -0.2177 2.3893
-7.7565 -0.4968 2.3893
-7.7360 -0.7753 2.3893
-7.7055 -1.0531 2.3893
-7.6651 -1.3296 2.3893
-7.6147 -1.6046 2.3893
-7.5544 -1.8776 2.3893
-7.4843 -2.1484 2.3893
-7.4045 -2.4165 2.3893
-7.3151 -2.6817 2.3893
-7.2161 -2.9436 2.3893
-7.1078 -3.2017 2.3893
-6.9902 -3.4559 2.3893
-6.8635 -3.7058 2.3893
-6.7277 -3.9509 2.3893
-6.5833 -4.1911 2.3893
-6.4302 -4.4259 2.3893
-6.2687 -4.6552 2.3893
-6.0990 -4.8785 2.3893
-5.9213 -5.0956 2.3893
-5.7358 -5.3061 2.3893
-5.5428 -5.5099 2.3893
-5.3425 -5.7066 2.3893
-5.1353 -5.8960 2.3893
-4.9213 -6.0778 2.3893
-4.7008 -6.2518 2.3893
-4.4741 -6.4177 2.3893
-4.2415 -6.5753 2.3893
-4.0034 -6.7245 2.3893
-3.7599 -6.8649 2.3893
-3.5115 -6.9965 2.3893
-3.2585 -7.1190 2.3893
-3.0012 -7.2323 2.3893
-2.7399 -7.3363 2.3893
-2.4751 -7.4307 2.3893
-2.2069 -7.5154 2.3893
-1.9358 -7.5904 2.3893
-1.6622 -7.6556 2.3893
-1.3864 -7.7108 2.3893
-1.1087 -7.7560 2.3893
-0.8296 -7.7911 2.3893
-0.5494 -7.8161 2.3893
-0.2684 -7.8309 2.3893
0.0129 -7.8355 2.3893
0.2942 -7.8299 2.3893
0.5750 -7.8142 2.3893
0.8552 -7.7883 2.3893
1.1342 -7.7523 2.3893
1.4117 -7.7062 2.3893
1.6873 -7.6501 2.3893
1.9607 -7.5840 2.3893
2.2315 -7.5081 2.3893
2.4994 -7.4224 2.3893
2.7640 -7.3272 2.3893
3.0249 -7.2224 2.3893
3.2818 -7.1082 2.3893
3.5344 -6.9849 2.3893
3.7824 -6.8525 2.3893
4.0253 -6.7112 2.3893
3.9911 -6.1428 2.2369
4.2083 -5.9945 2.2369
4.4200 -5.8384 2.2369
4.6259 -5.6749 2.2369
4.8257 -5.5040 2.2369
5.0192 -5.3261 2.2369
5.2061 -5.1413 2.2369
5.0267 -4.6196 2.0876
5.2546 -4.4919 2.1144
5.7248 -4.5484 2.2369
5.8830 -4.3388 2.2369
6.0334 -4.1238 2.2369
6.1766 -3.9038 2.2371
6.3117 -3.6788 2.2373
6.4414 -3.4506 2.2385
6.5627 -3.2178 2.2396
6.6757 -2.9808 2.2408
6.7801 -2.7398 2.2420
6.8729 -2.4940 2.2422
6.9560 -2.2449 2.2422
7.0300 -1.9930 2.2422
7.0950 -1.7387 2.2422
7.1507 -1.4823 2.2422
7.1971 -1.2241 2.2422
7.2342 -0.9645 2.2422
7.2620 -0.7037 2.2422
7.2803 -0.4423 2.2422
7.2892 -0.1804 2.2422
7.2888 0.0816 2.2422
6.9206 0.3264 2.1319
5.5415 0.4613 1.7116
5.5521 0.6638 1.7216
5.5629 0.8689 1.7341
6.2499 1.2076 1.9611
6.2623 1.4452 1.9806
6.2750 1.6878 2.0031
6.2880 1.9361 2.0288
6.3014 2.1911 2.0578
6.3152 2.4536 2.0904
6.3294 2.7248 2.1267
6.3441 3.0058 2.1672
6.4459 3.3428 2.2422
6.3199 3.5713 2.2422
6.1858 3.7952 2.2422
6.0438 4.0140 2.2422
5.8942 4.2275 2.2422
5.7370 4.4356 2.2422
5.5720 4.6374 2.2420
5.3997 4.8329 2.2417
5.2206 5.0219 2.2414
5.0348 5.2044 2.2410
4.8427 5.3800 2.2407
4.6445 5.5486 2.2403
4.4404 5.7099 2.2399
4.2308 5.8637 2.2396
4.0158 6.0099 2.2392
3.7959 6.1483 2.2388
3.5712 6.2786 2.2384
3.3420 6.4008 2.2379
3.1087 6.5147 2.2375
2.8716 6.6201 2.2371
2.6312 6.7176 2.2369
2.5504 7.2711 2.3893
0.9135 2.9386 0.9543
0.8074 2.9699 0.9545
0.7002 2.9973 0.9547
0.5920 3.0208 0.9548
0.4831 3.0405 0.9550
0.3735 3.0561 0.9551
0.2634 3.0678 0.9552
0.1529 3.0755 0.9553
0.0422 3.0792 0.9553
-0.0685 3.0789 0.9554
-0.1792 3.0746 0.9554
-0.2896 3.0662 0.9554
-0.3997 3.0539 0.9554
-0.5092 3.0376 0.9554
-0.6181 3.0174 0.9554
-0.7262 2.9932 0.9553
-0.8333 2.9652 0.9552
-2.3499 7.3377 2.3893
-2.6124 7.2492 2.3893
-2.8717 7.1514 2.3893
-3.1273 7.0444 2.3893
-3.3789 6.9283 2.3893
-3.6264 6.8033 2.3893
-3.8692 6.6695 2.3893
-4.1071 6.5272 2.3893
-4.3398 6.3764 2.3893
-4.5670 6.2174 2.3893
-4.7885 6.0503 2.3893
-5.0038 5.8754 2.3893
-5.2129 5.6929 2.3893
-5.4153 5.5030 2.3893
-5.6108 5.3059 2.3893
-5.7992 5.1020 2.3893
-5.9803 4.8914 2.3893
-6.1537 4.6745 2.3893
-6.3193 4.4514 2.3893
-6.4769 4.2224 2.3893
-6.6262 3.9880 2.3893
-6.7670 3.7483 2.3893
-6.8992 3.5036 2.3893
-7.0226 3.2543 2.3893
-7.1371 3.0007 2.3893
-7.2424 2.7430 2.3893
-7.3384 2.4817 2.3893
-7.4250 2.2171 2.3893
-7.5021 1.9494 2.3893
-7.5696 1.6791 2.3893
-7.6274 1.4065 2.3893
-7.6753 1.1319 2.3893
-7.7134 0.8556 2.3893
-7.7415 0.5781 2.3893
-7.7597 0.2997 2.3893
-7.7679 0.0207 2.3893
-7.7660 -0.2584 2.3893
-7.7541 -0.5374 2.3893
-7.7322 -0.8159 2.3893
-7.7002 -1.0935 2.3893
-7.6583 -1.3698 2.3893
-7.6065 -1.6445 2.3893
-7.5448 -1.9172 2.3893
-7.4733 -2.1876 2.3893
-7.3921 -2.4554 2.3893
-7.3013 -2.7201 2.3893
-7.2009 -2.9814 2.3893
-7.0912 -3.2391 2.3893
-6.9723 -3.4926 2.3893
-6.8442 -3.7418 2.3893
-6.7072 -3.9862 2.3893
-6.5615 -4.2257 2.3893
-6.4072 -4.4597 2.3893
-6.2444 -4.6881 2.3893
-6.0736 -4.9105 2.3893
-5.8947 -5.1267 2.3893
-5.7081 -5.3363 2.3893
-5.5140 -5.5390 2.3893
-5.3128 -5.7347 2.3893
-5.1045 -5.9230 2.3893
-4.8895 -6.1037 2.3893
-4.6681 -6.2765 2.3893
-1.6112 -7.0635 2.3893
-1.3566 -7.1172 2.3893
-1.1003 -7.1617 2.3893
-0.8426 -7.1969 2.3893
-0.5837 -7.2227 2.3893
-0.3240 -7.2391 2.3893
-0.0640 -7.2461 2.3893
0.1962 -7.2437 2.3893
0.4561 -7.2319 2.3893
0.7154 -7.2107 2.3893
0.9738 -7.1802 2.3893
1.2308 -7.1403 2.3893
1.4863 -7.0911 2.3893
1.7398 -7.0327 2.3893
1.9909 -6.9652 2.3893
2.2395 -6.8886 2.3893
2.4851 -6.8032 2.3893
2.7275 -6.7089 2.3893
2.9662 -6.6059 2.3893
3.2010 -6.4943 2.3893
3.4317 -6.3743 2.3893
3.6578 -6.2461 2.3893
3.6316 -5.7202 2.2369
3.8340 -5.5852 2.2369
4.0314 -5.4430 2.2369
4.2235 -5.2938 2.2369
4.4100 -5.1378 2.2369
4.5908 -4.9752 2.2369
4.7655 -4.8062 2.2369
4.9339 -4.6310 2.2369
5.0959 -4.4499 2.2369
5.2513 -4.2631 2.2369
5.3997 -4.0708 2.2369
5.5411 -3.8734 2.2369
5.6752 -3.6710 2.2369
5.8046 -3.4656 2.2379
5.9267 -3.2556 2.2390
6.0411 -3.0413 2.2400
6.1478 -2.8230 2.2411
6.2465 -2.6010 2.2422
6.3343 -2.3743 2.2422
6.4137 -2.1447 2.2422
6.4848 -1.9124 2.2422
6.5475 -1.6778 2.2422
6.6016 -1.4411 2.2422
6.6472 -1.2027 2.2422
6.6842 -0.9629 2.2422
6.7126 -0.7220 2.2422
6.7322 -0.4802 2.2422
6.7432 -0.2380 2.2422
6.7454 0.0044 2.2422
6.7389 0.2467 2.2422
5.5384 0.4024 1.8469
5.5490 0.6042 1.8571
5.5597 0.8084 1.8697
5.5706 1.0156 1.8850
6.2586 1.3751 2.1337
6.2713 1.6161 2.1571
6.2842 1.8627 2.1837
6.3778 2.1426 2.2422
6.2950 2.3698 2.2422
6.2041 2.5938 2.2422
6.1053 2.8143 2.2422
5.9986 3.0311 2.2422
5.8843 3.2439 2.2422
5.7624 3.4524 2.2422
5.6333 3.6564 2.2422
5.4962 3.8551 2.2420
5.3522 4.0488 2.2417
5.2014 4.2370 2.2414
5.0440 4.4197 2.2411
4.8801 4.5965 2.2408
4.7101 4.7673 2.2405
4.5341 4.9319 2.2402
4.3524 5.0899 2.2398
4.1652 5.2413 2.2395
3.9728 5.3859 2.2391
3.7753 5.5234 2.2388
3.5732 5.6537 2.2384
3.3665 5.7767 2.2380
3.1557 5.8921 2.2376
2.9409 5.9999 2.2373
2.7226 6.1007 2.2369
2.5802 6.3889 2.3076
2.4318 6.7064 2.3893
0.8733 2.7086 0.9533
0.7754 2.7385 0.9535
0.6765 2.7649 0.9536
0.5767 2.7877 0.9538
0.4762 2.8069 0.9539
0.3750 2.8224 0.9540
0.2733 2.8342 0.9541
0.1712 2.8424 0.9542
0.0689 2.8469 0.9543
-0.0335 2.8477 0.9543
-0.1359 2.8448 0.9543
-0.2381 2.8381 0.9544
-0.3400 2.8278 0.9544
-0.4414 2.8138 0.9543
-0.5423 2.7962 0.9543
-0.6425 2.7749 0.9543
-0.7419 2.7500 0.9542
-0.8403 2.7215 0.9541
-2.3481 6.7358 2.3893
-2.5890 6.6477 2.3893
-2.8266 6.5511 2.3893
-3.0607 6.4460 2.3893
-3.2909 6.3326 2.3893
-3.5169 6.2110 2.3893
-3.7385 6.0815 2.3893
-3.9553 5.9441 2.3893
-4.1671 5.7990 2.3893
-4.3737 5.6464 2.3893
-4.5747 5.4865 2.3893
-4.7698 5.3195 2.3893
-4.9589 5.1456 2.3893
-5.1418 4.9651 2.3893
-5.3180 4.7781 2.3893
-5.4875 4.5848 2.3893
-5.6501 4.3856 2.3893
-5.8054 4.1806 2.3893
-5.9533 3.9702 2.3893
-6.0937 3.7546 2.3893
-6.2262 3.5341 2.3893
-6.3508 3.3088 2.3893
-6.4673 3.0793 2.3893
-6.5755 2.8456 2.3893
-6.6753 2.6082 2.3893
-6.7666 2.3672 2.3893
-6.8492 2.1231 2.3893
-6.9230 1.8762 2.3893
-6.9879 1.6266 2.3893
-7.0438 1.3749 2.3893
-7.0907 1.1212 2.3893
-7.1285 0.8660 2.3893
-7.1570 0.6095 2.3893
-7.1764 0.3521 2.3893
-7.1865 0.0940 2.3893
-7.1873 -0.1643 2.3893
-7.1789 -0.4225 2.3893
-7.1611 -0.6803 2.3893
-7.1341 -0.9374 2.3893
-7.0979 -1.1934 2.3893
-7.0525 -1.4480 2.3893
-6.9979 -1.7009 2.3893
-6.9342 -1.9517 2.3893
-6.8616 -2.2001 2.3893
-6.7800 -2.4458 2.3893
-6.6896 -2.6884 2.3893
-6.5905 -2.9277 2.3893
-6.4828 -3.1634 2.3893
-6.3667 -3.3950 2.3893
-6.2422 -3.6224 2.3893
-6.1096 -3.8452 2.3893
-5.9691 -4.0631 2.3893
-5.8207 -4.2758 2.3893
-5.6647 -4.4831 2.3893
-5.5013 -4.6847 2.3893
-5.3307 -4.8803 2.3893
-5.1531 -5.0696 2.3893
-4.9688 -5.2525 2.3893
-4.7779 -5.4285 2.3893
-4.5808 -5.5977 2.3893
-4.3776 -5.7596 2.3893
-4.1688 -5.9140 2.3893
-3.9545 -6.0609 2.3893
-3.7349 -6.1999 2.3893
-3.5104 -6.3309 2.3893
-3.2813 -6.4538 2.3893
-3.0479 -6.5682 2.3893
-2.8105 -6.6742 2.3893
-2.5693 -6.7715 2.3893
-2.3248 -6.8601 2.3893
-2.0772 -6.9397 2.3893
-1.8269 -7.0104 2.3893
-1.5742 -7.0719 2.3893
-1.3194 -7.1243 2.3893
-1.0628 -7.1674 2.3893
-0.8049 -7.2012 2.3893
-0.5459 -7.2257 2.3893
-0.2861 -7.2407 2.3893
-0.0260 -7.2464 2.3893
0.2341 -7.2426 2.3893
0.4939 -7.2294 2.3893
0.7531 -7.2069 2.3893
1.0113 -7.1749 2.3893
1.2682 -7.1337 2.3893
1.5234 -7.0831 2.3893
1.7765 -7.0234 2.3893
2.0273 -6.9546 2.3893
2.2755 -6.8767 2.3893
2.5207 -6.7900 2.3893
2.7625 -6.6944 2.3893
3.0007 -6.5901 2.3893
3.2349 -6.4773 2.3893
3.4649 -6.3562 2.3893
3.4550 -5.8296 2.2369
3.6614 -5.7009 2.2369
3.8631 -5.5649 2.2369
4.0598 -5.4217 2.2369
4.2510 -5.2715 2.2369
4.4367 -5.1145 2.2369
4.6166 -4.9509 2.2369
4.7904 -4.7810 2.2369
4.9579 -4.6050 2.2369
5.1190 -4.4230 2.2369
5.2733 -4.2354 2.2369
5.4208 -4.0424 2.2369
5.5611 -3.8442 2.2369
5.6942 -3.6411 2.2369
5.8229 -3.4352 2.2381
5.9438 -3.2246 2.2391
6.0571 -3.0098 2.2402
6.1627 -2.7909 2.2413
6.2599 -2.5682 2.2422
6.3464 -2.3411 2.2422
6.4246 -2.1110 2.2422
6.4945 -1.8784 2.2422
6.5559 -1.6434 2.2422
6.6088 -1.4065 2.2422
6.6532 -1.1679 2.2422
6.6889 -0.9279 2.2422
6.7160 -0.6868 2.2422
6.7344 -0.4449 2.2422
6.7440 -0.2026 2.2422
6.7450 0.0398 2.2422
6.7373 0.2820 2.2422
5.5400 0.4317 1.8483
5.5506 0.6338 1.8587
5.5613 0.8384 1.8718
6.2480 1.1730 2.1163
6.2605 1.4099 2.1369
6.2731 1.6517 2.1607
6.2861 1.8991 2.1879
6.3663 2.1759 2.2422
6.2822 2.4026 2.2422
6.1902 2.6261 2.2422
6.0902 2.8461 2.2422
5.9824 3.0624 2.2422
5.8670 3.2746 2.2422
5.7441 3.4824 2.2422
5.6137 3.6857 2.2422
5.4757 3.8837 2.2419
5.3307 4.0766 2.2417
5.1789 4.2640 2.2414
5.0205 4.4458 2.2411
4.8557 4.6218 2.2408
4.6848 4.7917 2.2405
4.5080 4.9553 2.2401
4.3254 5.1124 2.2398
4.1375 5.2628 2.2394
3.9443 5.4063 2.2391
3.7462 5.5428 2.2387
3.5433 5.6721 2.2384
3.3360 5.7940 2.2380
3.1246 5.9083 2.2376
2.9093 6.0150 2.2372
2.6905 6.1142 2.2369
2.5793 6.4844 2.3372
2.3965 6.7189 2.3893
0.8591 2.7131 0.9533
0.7611 2.7426 0.9535
0.6621 2.7684 0.9536
0.5621 2.7907 0.9538
0.4615 2.8094 0.9539
0.3602 2.8243 0.9540
0.2584 2.8357 0.9541
0.1563 2.8433 0.9542
0.0540 2.8473 0.9543
-0.0484 2.8475 0.9543
-0.1508 2.8440 0.9544
-0.2530 2.8369 0.9544
-0.3548 2.8260 0.9544
-0.4562 2.8115 0.9543
-0.5570 2.7933 0.9543
-0.6571 2.7715 0.9542
-0.7563 2.7460 0.9542
-0.8545 2.7170 0.9541
-2.3834 6.7235 2.3893
-2.6238 6.6342 2.3893
-2.8610 6.5363 2.3893
-3.0945 6.4300 2.3893
-3.3241 6.3154 2.3893
-3.5495 6.1926 2.3893
-3.7704 6.0619 2.3893
-3.9865 5.9234 2.3893
-4.1976 5.7772 2.3893
-4.4033 5.6236 2.3893
-4.6035 5.4626 2.3893
-4.7978 5.2946 2.3893
-4.9860 5.1197 2.3893
-5.1679 4.9382 2.3893
-5.3432 4.7503 2.3893
-5.5117 4.5561 2.3893
-5.6732 4.3561 2.3893
-5.8274 4.1503 2.3893
-5.9743 3.9391 2.3893
-6.1135 3.7228 2.3893
-6.2449 3.5015 2.3893
-6.3683 3.2756 2.3893
-6.4836 3.0454 2.3893
-6.5906 2.8112 2.3893
-6.6892 2.5733 2.3893
-6.7792 2.3318 2.3893
-6.8605 2.0873 2.3893
-6.9330 1.8399 2.3893
-6.9966 1.5901 2.3893
-7.0512 1.3380 2.3893
-7.0968 1.0841 2.3893
-7.1332 0.8287 2.3893
-7.1604 0.5720 2.3893
-7.1784 0.3145 2.3893
-7.1872 0.0564 2.3893
-7.1867 -0.2019 2.3893
-7.1769 -0.4601 2.3893
-7.1578 -0.7178 2.3893
-7.1294 -0.9748 2.3893
-7.0919 -1.2306 2.3893
-7.0451 -1.4850 2.3893
-6.9892 -1.7376 2.3893
-6.9242 -1.9880 2.3893
-6.8502 -2.2361 2.3893
-6.7674 -2.4813 2.3893
-6.6757 -2.7235 2.3893
-6.5753 -2.9623 2.3893
-6.4664 -3.1974 2.3893
-6.3490 -3.4285 2.3893
-6.2234 -3.6552 2.3893
-6.0896 -3.8773 2.3893
-5.9479 -4.0944 2.3893
-5.7984 -4.3064 2.3893
-5.6414 -4.5129 2.3893
-5.4769 -4.7136 2.3893
-5.3053 -4.9083 2.3893
-5.1267 -5.0967 2.3893
-4.9414 -5.2785 2.3893
-4.7496 -5.4536 2.3893
-4.5516 -5.6217 2.3893
-4.3476 -5.7825 2.3893
-4.1379 -5.9359 2.3893
-3.9228 -6.0816 2.3893
-3.7025 -6.2195 2.3893
-3.4773 -6.3493 2.3893
-3.2475 -6.4710 2.3893
-3.0135 -6.5842 2.3893
-2.7755 -6.6889 2.3893
-2.5339 -6.7850 2.3893
-2.2889 -6.8723 2.3893
-2.0409 -6.9506 2.3893
-1.7902 -7.0199 2.3893
-1.5372 -7.0801 2.3893
-1.2821 -7.1312 2.3893
-1.0253 -7.1729 2.3893
-0.7672 -7.2054 2.3893
-0.5081 -7.2284 2.3893
-0.2482 -7.2421 2.3893
0.0119 -7.2464 2.3893
0.2720 -7.2413 2.3893
0.5318 -7.2267 2.3893
0.7908 -7.2028 2.3893
1.0488 -7.1695 2.3893
1.3055 -7.1269 2.3893
1.5604 -7.0750 2.3893
1.8132 -7.0140 2.3893
2.0637 -6.9438 2.3893
2.3114 -6.8646 2.3893
2.5561 -6.7766 2.3893
2.7974 -6.6797 2.3893
3.0351 -6.5741 2.3893
3.2687 -6.4602 2.3893
3.4981 -6.3378 2.3893
3.4854 -5.8113 2.2369
3.6912 -5.6815 2.2369
3.8921 -5.5445 2.2369
4.0880 -5.4002 2.2369
4.2785 -5.2490 2.2369
4.4633 -5.0911 2.2369
4.6423 -4.9265 2.2369
4.8152 -4.7557 2.2369
4.9818 -4.5788 2.2369
5.1419 -4.3960 2.2369
5.2953 -4.2076 2.2369
5.4417 -4.0138 2.2369
5.5810 -3.8149 2.2369
5.7137 -3.6116 2.2372
5.8410 -3.4048 2.2382
5.9608 -3.1936 2.2393
6.0730 -2.9781 2.2404
6.1774 -2.7587 2.2414
6.2730 -2.5353 2.2422
6.3583 -2.3077 2.2422
6.4353 -2.0773 2.2422
6.5039 -1.8443 2.2422
6.5641 -1.6090 2.2422
6.6158 -1.3718 2.2422
6.6589 -1.1329 2.2422
6.6934 -0.8928 2.2422
6.7192 -0.6515 2.2422
6.7363 -0.4096 2.2422
6.7447 -0.1673 2.2422
6.7444 0.0751 2.2422
6.7354 0.3173 2.2422
5.5415 0.4610 1.8496
5.5521 0.6635 1.8605
5.5629 0.8685 1.8739
6.2498 1.2073 2.1191
6.2623 1.4448 2.1402
6.2750 1.6874 2.1645
6.4316 1.9799 2.2422
6.3545 2.2091 2.2422
6.2693 2.4354 2.2422
6.1761 2.6584 2.2422
6.0750 2.8779 2.2422
5.9661 3.0936 2.2422
5.8495 3.3052 2.2422
5.7255 3.5124 2.2422
5.5941 3.7149 2.2422
5.4550 3.9121 2.2419
5.3089 4.1042 2.2416
5.1562 4.2909 2.2413
4.9968 4.4719 2.2410
4.8312 4.6470 2.2407
4.6594 4.8159 2.2404
4.4817 4.9786 2.2401
4.2984 5.1347 2.2397
4.1096 5.2842 2.2394
3.9157 5.4267 2.2390
3.7169 5.5621 2.2387
3.5134 5.6903 2.2383
3.3055 5.8111 2.2379
3.0935 5.9244 2.2375
2.8776 6.0299 2.2371
2.6583 6.1280 2.2369
2.5784 6.5824 2.3676
2.3613 6.7313 2.3893
0.8449 2.7177 0.9533
0.7467 2.7466 0.9535
0.6475 2.7719 0.9537
0.5475 2.7937 0.9538
0.4467 2.8118 0.9539
0.3454 2.8262 0.9540
0.2436 2.8370 0.9541
0.1414 2.8441 0.9542
0.0391 2.8475 0.9543
-0.0634 2.8472 0.9543
-0.1657 2.8432 0.9544
-0.2678 2.8355 0.9544
-0.3696 2.8241 0.9544
-0.4709 2.8091 0.9543
-0.5716 2.7903 0.9543
-0.6716 2.7680 0.9542
-0.7707 2.7420 0.9542
-0.8687 2.7125 0.9541
-2.4186 6.7110 2.3893
-2.6586 6.6204 2.3893
-2.8953 6.5213 2.3893
-3.1282 6.4138 2.3893
-3.3572 6.2980 2.3893
-3.5820 6.1741 2.3893
-3.8022 6.0422 2.3893
-4.0176 5.9026 2.3893
-4.2279 5.7553 2.3893
-4.4329 5.6005 2.3893
-4.6322 5.4386 2.3893
-4.8256 5.2695 2.3893
-5.0129 5.0937 2.3893
-5.1938 4.9112 2.3893
-5.3682 4.7225 2.3893
-5.5357 4.5273 2.3893
-5.6961 4.3264 2.3893
-5.8493 4.1199 2.3893
-5.9950 3.9079 2.3893
-6.1331 3.6908 2.3893
-6.2634 3.4689 2.3893
-6.3856 3.2423 2.3893
-6.4997 3.0116 2.3893
-6.6055 2.7768 2.3893
-6.7028 2.5383 2.3893
-6.7916 2.2964 2.3893
-6.8716 2.0514 2.3893
-6.9428 1.8037 2.3893
-7.0051 1.5535 2.3893
-7.0584 1.3011 2.3893
-7.1027 1.0470 2.3893
-7.1377 0.7913 2.3893
-7.1636 0.5345 2.3893
-7.1803 0.2769 2.3893
-7.1877 0.0187 2.3893
-7.1858 -0.2396 2.3893
-7.1747 -0.4977 2.3893
-7.1542 -0.7553 2.3893
-7.1245 -1.0121 2.3893
-7.0856 -1.2678 2.3893
-7.0375 -1.5219 2.3893
-6.9803 -1.7742 2.3893
-6.9140 -2.0244 2.3893
-6.8387 -2.2720 2.3893
-6.7546 -2.5168 2.3893
-6.6616 -2.7586 2.3893
-6.5600 -2.9968 2.3893
-6.4498 -3.2313 2.3893
-6.3312 -3.4618 2.3893
-6.2044 -3.6878 2.3893
-6.0695 -3.9093 2.3893
-5.9266 -4.1257 2.3893
-5.7760 -4.3369 2.3893
-5.6178 -4.5425 2.3893
-5.4523 -4.7424 2.3893
-5.2797 -4.9361 2.3893
-5.1001 -5.1236 2.3893
-4.9138 -5.3045 2.3893
-4.7211 -5.4786 2.3893
-4.5222 -5.6456 2.3893
-4.3173 -5.8054 2.3893
-1.4969 -6.5628 2.3893
-1.2604 -6.6127 2.3893
-1.0223 -6.6540 2.3893
-0.7828 -6.6867 2.3893
-0.5423 -6.7106 2.3893
-0.3010 -6.7259 2.3893
-0.0594 -6.7324 2.3893
0.1823 -6.7302 2.3893
0.4237 -6.7192 2.3893
0.6646 -6.6995 2.3893
0.9047 -6.6712 2.3893
1.1435 -6.6341 2.3893
1.3808 -6.5884 2.3893
1.6163 -6.5342 2.3893
1.8497 -6.4715 2.3893
2.0807 -6.4004 2.3893
2.3089 -6.3211 2.3893
2.5340 -6.2335 2.3893
2.7559 -6.1378 2.3893
2.9741 -6.0342 2.3893
3.1884 -5.9228 2.3893
3.1817 -5.4336 2.2369
3.3742 -5.3151 2.2369
3.5623 -5.1898 2.2369
3.7458 -5.0577 2.2369
3.9243 -4.9191 2.2369
4.0976 -4.7742 2.2369
4.2656 -4.6232 2.2369
4.4280 -4.4662 2.2369
4.5846 -4.3035 2.2369
4.7352 -4.1353 2.2369
4.8796 -3.9617 2.2369
5.0176 -3.7832 2.2369
5.1491 -3.5997 2.2369
5.2738 -3.4117 2.2369
5.3917 -3.2194 2.2369
5.5093 -3.0267 2.2396
5.6157 -2.8276 2.2407
5.7148 -2.6246 2.2417
5.8052 -2.4176 2.2422
5.8868 -2.2070 2.2422
5.9607 -1.9936 2.2422
6.0269 -1.7778 2.2422
6.0853 -1.5598 2.2422
6.1357 -1.3398 2.2422
6.1782 -1.1183 2.2422
6.2127 -0.8954 2.2422
6.2392 -0.6714 2.2422
6.2576 -0.4467 2.2422
6.2679 -0.2216 2.2422
6.2700 0.0037 2.2422
6.2641 0.2289 2.2422
5.5384 0.4020 1.9869
5.5490 0.6039 1.9977
5.5597 0.8081 2.0113
5.5706 1.0153 2.0277
6.1141 1.3430 2.2422
6.0602 1.5614 2.2422
5.9986 1.7777 2.2422
5.9293 1.9916 2.2422
5.8524 2.2028 2.2422
5.7680 2.4111 2.2422
5.6762 2.6162 2.2422
5.5771 2.8177 2.2422
5.4704 3.0153 2.2420
5.3567 3.2089 2.2418
5.2361 3.3983 2.2416
5.1089 3.5831 2.2413
4.9751 3.7631 2.2411
4.8350 3.9382 2.2408
4.6888 4.1081 2.2405
4.5366 4.2726 2.2402
4.3787 4.4315 2.2399
4.2152 4.5845 2.2396
4.0463 4.7316 2.2393
3.8724 4.8725 2.2390
3.6935 5.0069 2.2387
3.5101 5.1349 2.2383
3.3222 5.2562 2.2380
3.1301 5.3706 2.2376
2.9341 5.4781 2.2373
2.7345 5.5784 2.2369
2.5574 5.7297 2.2595
2.4845 6.1516 2.3893
0.9013 2.4854 0.9522
0.8114 2.5165 0.9524
0.7205 2.5443 0.9526
0.6286 2.5688 0.9527
0.5359 2.5899 0.9529
0.4424 2.6077 0.9530
0.3484 2.6222 0.9531
0.2539 2.6332 0.9532
0.1591 2.6407 0.9533
0.0640 2.6449 0.9533
-0.0311 2.6456 0.9534
-0.1262 2.6429 0.9534
-0.2212 2.6367 0.9534
-0.3159 2.6271 0.9534
-0.4101 2.6141 0.9534
-0.5039 2.5977 0.9534
-0.5970 2.5779 0.9533
-0.6893 2.5548 0.9533
-0.7807 2.5283 0.9532
-0.8711 2.4986 0.9531
-2.4077 6.1818 2.3893
-2.6287 6.0918 2.3893
-2.8463 5.9941 2.3893
-3.0604 5.8886 2.3893
-3.2705 5.7755 2.3893
-3.4765 5.6549 2.3893
-3.6781 5.5271 2.3893
-3.8751 5.3921 2.3893
-4.0671 5.2502 2.3893
-4.2539 5.1015 2.3893
-4.4354 4.9461 2.3893
-4.6112 4.7844 2.3893
-4.7811 4.6164 2.3893
-4.9449 4.4424 2.3893
-5.1025 4.2627 2.3893
-5.2535 4.0774 2.3893
-5.3979 3.8869 2.3893
-5.5353 3.6911 2.3893
-5.6657 3.4906 2.3893
-5.7889 3.2854 2.3893
-5.9047 3.0760 2.3893
-6.0129 2.8625 2.3893
-6.1134 2.6452 2.3893
-6.2061 2.4244 2.3893
-6.2908 2.2004 2.3893
-6.3675 1.9734 2.3893
-6.4360 1.7438 2.3893
-6.4962 1.5118 2.3893
-6.5481 1.2777 2.3893
-6.5915 1.0419 2.3893
-6.6265 0.8046 2.3893
-6.6530 0.5662 2.3893
-6.6708 0.3269 2.3893
-6.6801 0.0870 2.3893
-6.6807 -0.1531 2.3893
-6.6728 -0.3931 2.3893
-6.6562 -0.6327 2.3893
-6.6309 -0.8717 2.3893
-6.5971 -1.1096 2.3893
-6.5548 -1.3462 2.3893
-6.5040 -1.5812 2.3893
-6.4447 -1.8143 2.3893
-6.3770 -2.0451 2.3893
-6.3011 -2.2734 2.3893
-6.2170 -2.4989 2.3893
-6.1248 -2.7213 2.3893
-6.0246 -2.9402 2.3893
-5.9166 -3.1554 2.3893
-5.8008 -3.3667 2.3893
-5.6775 -3.5736 2.3893
-5.5468 -3.7761 2.3893
-5.4089 -3.9737 2.3893
-5.2638 -4.1663 2.3893
-5.1119 -4.3535 2.3893
-4.9533 -4.5352 2.3893
-4.7883 -4.7111 2.3893
-4.6169 -4.8809 2.3893
-4.4395 -5.0444 2.3893
-4.2563 -5.2015 2.3893
-4.0674 -5.3519 2.3893
-3.8734 -5.4953 2.3893
-3.6741 -5.6317 2.3893
-3.4702 -5.7608 2.3893
-3.2615 -5.8825 2.3893
-3.0487 -5.9966 2.3893
-2.8318 -6.1029 2.3893
-2.6112 -6.2013 2.3893
-2.3871 -6.2917 2.3893
-2.1599 -6.3739 2.3893
-1.9299 -6.4479 2.3893
-1.6973 -6.5135 2.3893
-1.4625 -6.5707 2.3893
-1.2258 -6.6193 2.3893
-0.9874 -6.6593 2.3893
-0.7478 -6.6907 2.3893
-0.5072 -6.7134 2.3893
-0.2658 -6.7274 2.3893
-0.0242 -6.7326 2.3893
0.2175 -6.7291 2.3893
0.4589 -6.7169 2.3893
0.6997 -6.6959 2.3893
0.9396 -6.6663 2.3893
1.1782 -6.6280 2.3893
1.4153 -6.5811 2.3893
1.6505 -6.5256 2.3893
1.8835 -6.4617 2.3893
2.1141 -6.3894 2.3893
2.3419 -6.3088 2.3893
2.5666 -6.2201 2.3893
2.7879 -6.1232 2.3893
3.0056 -6.0185 2.3893
3.2193 -5.9060 2.3893
3.2100 -5.4168 2.2369
3.4019 -5.2973 2.2369
3.5894 -5.1709 2.2369
3.7721 -5.0379 2.2369
3.9499 -4.8984 2.2369
4.1225 -4.7526 2.2369
4.2896 -4.6007 2.2369
4.4512 -4.4429 2.2369
4.6069 -4.2793 2.2369
4.7566 -4.1103 2.2369
4.9001 -3.9360 2.2369
5.0372 -3.7567 2.2369
5.1677 -3.5726 2.2369
5.2914 -3.3840 2.2369
5.4088 -3.1913 2.2371
5.5254 -2.9980 2.2399
5.6306 -2.7982 2.2409
5.7286 -2.5947 2.2419
5.8176 -2.3871 2.2422
5.8981 -2.1761 2.2422
5.9709 -1.9623 2.2422
6.0359 -1.7461 2.2422
6.0931 -1.5278 2.2422
6.1424 -1.3076 2.2422
6.1838 -1.0858 2.2422
6.2171 -0.8628 2.2422
6.2424 -0.6387 2.2422
6.2596 -0.4139 2.2422
6.2687 -0.1887 2.2422
6.2697 0.0366 2.2422
6.2626 0.2617 2.2422
5.5400 0.4313 1.9883
5.5506 0.6335 1.9995
5.5613 0.8381 2.0135
6.1538 1.1549 2.2422
6.1067 1.3749 2.2422
6.0517 1.5930 2.2422
5.9890 1.8090 2.2422
5.9186 2.0225 2.2422
5.8406 2.2333 2.2422
5.7551 2.4412 2.2422
5.6622 2.6458 2.2422
5.5620 2.8468 2.2422
5.4543 3.0438 2.2420
5.3395 3.2368 2.2418
5.2180 3.4255 2.2415
5.0898 3.6096 2.2413
4.9551 3.7890 2.2410
4.8141 3.9633 2.2408
4.6670 4.1324 2.2405
4.5139 4.2961 2.2402
4.3552 4.4542 2.2399
4.1909 4.6064 2.2396
4.0213 4.7525 2.2393
3.8466 4.8925 2.2390
3.6671 5.0260 2.2386
3.4829 5.1530 2.2383
3.2944 5.2733 2.2379
3.1018 5.3867 2.2376
2.9053 5.4932 2.2372
2.7138 5.6107 2.2440
2.5564 5.8092 2.2855
2.4522 6.1644 2.3893
0.8883 2.4901 0.9523
0.7982 2.5207 0.9524
0.7071 2.5480 0.9526
0.6151 2.5721 0.9528
0.5223 2.5927 0.9529
0.4288 2.6100 0.9530
0.3347 2.6240 0.9531
0.2401 2.6345 0.9532
0.1452 2.6416 0.9533
0.0502 2.6452 0.9533
-0.0450 2.6454 0.9534
-0.1401 2.6422 0.9534
-0.2350 2.6355 0.9534
-0.3296 2.6254 0.9534
-0.4238 2.6119 0.9534
-0.5175 2.5950 0.9534
-0.6105 2.5748 0.9533
-0.7026 2.5511 0.9533
-0.7939 2.5242 0.9532
-0.8841 2.4940 0.9531
-2.4401 6.1691 2.3893
-2.6606 6.0781 2.3893
-2.8777 5.9792 2.3893
-3.0912 5.8725 2.3893
-3.3008 5.7584 2.3893
-3.5062 5.6368 2.3893
-3.7071 5.5079 2.3893
-3.9034 5.3719 2.3893
-4.0946 5.2289 2.3893
-4.2807 5.0792 2.3893
-4.4614 4.9229 2.3893
-4.6363 4.7603 2.3893
-4.8054 4.5914 2.3893
-4.9683 4.4166 2.3893
-5.1249 4.2360 2.3893
-5.2750 4.0499 2.3893
-5.4184 3.8586 2.3893
-5.5548 3.6621 2.3893
-5.6841 3.4609 2.3893
-5.8062 3.2551 2.3893
-5.9209 3.0451 2.3893
-6.0280 2.8310 2.3893
-6.1274 2.6132 2.3893
-6.2189 2.3919 2.3893
-6.3025 2.1675 2.3893
-6.3780 1.9401 2.3893
-6.4453 1.7101 2.3893
-6.5043 1.4778 2.3893
-6.5549 1.2434 2.3893
-6.5972 1.0074 2.3893
-6.6309 0.7699 2.3893
-6.6561 0.5313 2.3893
-6.6727 0.2919 2.3893
-6.6807 0.0520 2.3893
-6.6801 -0.1881 2.3893
-6.6709 -0.4281 2.3893
-6.6530 -0.6676 2.3893
-6.6265 -0.9064 2.3893
-6.5915 -1.1442 2.3893
-6.5479 -1.3806 2.3893
-6.4958 -1.6153 2.3893
-6.4353 -1.8481 2.3893
-6.3665 -2.0786 2.3893
-6.2893 -2.3065 2.3893
-6.2040 -2.5315 2.3893
-6.1107 -2.7534 2.3893
-6.0093 -2.9718 2.3893
-5.9002 -3.1865 2.3893
-5.7833 -3.3971 2.3893
-5.6589 -3.6035 2.3893
-5.5271 -3.8052 2.3893
-5.3882 -4.0021 2.3893
-5.2421 -4.1939 2.3893
-5.0892 -4.3804 2.3893
-4.9297 -4.5612 2.3893
-4.7637 -4.7362 2.3893
-4.5914 -4.9051 2.3893
-4.4132 -5.0677 2.3893
-4.2291 -5.2238 2.3893
-4.0396 -5.3732 2.3893
-3.8447 -5.5157 2.3893
-3.6447 -5.6510 2.3893
-3.4400 -5.7790 2.3893
-3.2307 -5.8996 2.3893
-3.0173 -6.0126 2.3893
-2.7998 -6.1177 2.3893
-2.5787 -6.2150 2.3893
-2.3542 -6.3042 2.3893
-2.1266 -6.3852 2.3893
-1.8961 -6.4580 2.3893
-1.6632 -6.5224 2.3893
-1.4281 -6.5783 2.3893
-1.1911 -6.6257 2.3893
-0.9526 -6.6644 2.3893
-0.7127 -6.6946 2.3893
-0.4720 -6.7160 2.3893
-0.2306 -6.7287 2.3893
0.0111 -6.7327 2.3893
0.2527 -6.7279 2.3893
0.4940 -6.7144 2.3893
0.7347 -6.6922 2.3893
0.9744 -6.6612 2.3893
1.2129 -6.6217 2.3893
1.4497 -6.5735 2.3893
1.6846 -6.5168 2.3893
1.9173 -6.4517 2.3893
2.1475 -6.3782 2.3893
2.3748 -6.2964 2.3893
2.5991 -6.2064 2.3893
2.8199 -6.1085 2.3893
3.0370 -6.0026 2.3893
3.2501 -5.8889 2.3893
3.2433 -5.4081 2.2403
3.4296 -5.2793 2.2369
3.6163 -5.1519 2.2369
3.7983 -5.0180 2.2369
3.9753 -4.8775 2.2369
4.1472 -4.7308 2.2369
4.3135 -4.5780 2.2369
4.4743 -4.4194 2.2369
4.6291 -4.2550 2.2369
4.7780 -4.0852 2.2369
4.9205 -3.9102 2.2369
5.0566 -3.7302 2.2369
5.1862 -3.5454 2.2369
5.3089 -3.3561 2.2369
5.4265 -3.1636 2.2376
5.5412 -2.9691 2.2400
5.6454 -2.7688 2.2410
5.7423 -2.5648 2.2420
5.8298 -2.3565 2.2422
5.9092 -2.1451 2.2422
5.9808 -1.9310 2.2422
6.0447 -1.7144 2.2422
6.1008 -1.4958 2.2422
6.1489 -1.2754 2.2422
6.1891 -1.0534 2.2422
6.2213 -0.8302 2.2422
6.2454 -0.6060 2.2422
6.2614 -0.3811 2.2422
6.2693 -0.1559 2.2422
6.2692 0.0694 2.2422
6.2609 0.2945 2.2422
5.5415 0.4607 1.9898
5.5521 0.6631 2.0014
5.5629 0.8682 2.0158
6.1474 1.1871 2.2422
6.0992 1.4068 2.2422
6.0431 1.6247 2.2422
5.9792 1.8403 2.2422
5.9077 2.0534 2.2422
5.8286 2.2638 2.2422
5.7420 2.4712 2.2422
5.6481 2.6753 2.2422
5.5467 2.8758 2.2421
5.4380 3.0722 2.2419
5.3222 3.2646 2.2417
5.1997 3.4526 2.2415
5.0706 3.6361 2.2412
4.9349 3.8147 2.2410
4.7930 3.9883 2.2407
4.6450 4.1566 2.2404
4.4911 4.3195 2.2402
4.3316 4.4767 2.2399
4.1665 4.6280 2.2395
3.9961 4.7733 2.2392
3.8207 4.9123 2.2389
3.6405 5.0449 2.2386
3.4557 5.1710 2.2382
3.2666 5.2903 2.2379
3.0734 5.4027 2.2375
2.8763 5.5081 2.2372
2.6757 5.6066 2.2369
2.5554 5.8903 2.3122
2.4198 6.1771 2.3893
0.8752 2.4948 0.9523
0.7850 2.5249 0.9525
0.6938 2.5518 0.9526
0.6017 2.5753 0.9528
0.5087 2.5955 0.9529
0.4151 2.6123 0.9530
0.3209 2.6257 0.9531
0.2263 2.6357 0.9532
0.1314 2.6423 0.9533
0.0363 2.6455 0.9534
-0.0589 2.6452 0.9534
-0.1539 2.6414 0.9534
-0.2488 2.6343 0.9534
-0.3434 2.6237 0.9534
-0.4375 2.6097 0.9534
-0.5311 2.5923 0.9534
-0.6239 2.5715 0.9533
-0.7160 2.5474 0.9532
-0.8071 2.5200 0.9532
-0.8972 2.4893 0.9531
-2.4724 6.1564 2.3893
-2.6925 6.0641 2.3893
-2.9091 5.9641 2.3893
-3.1220 5.8564 2.3893
-3.3310 5.7411 2.3893
-3.5358 5.6184 2.3893
-3.7360 5.4885 2.3893
-3.9316 5.3515 2.3893
-4.1221 5.2075 2.3893
-4.3074 5.0568 2.3893
-4.4872 4.8996 2.3893
-4.6613 4.7360 2.3893
-4.8295 4.5663 2.3893
-4.9915 4.3906 2.3893
-5.1472 4.2092 2.3893
-5.2963 4.0224 2.3893
-5.4387 3.8302 2.3893
-5.5741 3.6331 2.3893
-5.7024 3.4312 2.3893
-5.8234 3.2248 2.3893
-5.9370 3.0141 2.3893
-6.0430 2.7995 2.3893
-6.1412 2.5812 2.3893
-6.2316 2.3594 2.3893
-6.3140 2.1345 2.3893
-6.3883 1.9067 2.3893
-6.4544 1.6764 2.3893
-6.5122 1.4437 2.3893
-6.5616 1.2091 2.3893
-6.6026 0.9729 2.3893
-6.6351 0.7352 2.3893
-6.6591 0.4965 2.3893
-6.6744 0.2570 2.3893
-6.6812 0.0170 2.3893
-6.6793 -0.2231 2.3893
-6.6688 -0.4630 2.3893
-6.6497 -0.7025 2.3893
-6.6220 -0.9412 2.3893
-6.5857 -1.1787 2.3893
-6.5408 -1.4149 2.3893
-6.4875 -1.6494 2.3893
-6.4258 -1.8818 2.3893
-6.3557 -2.1120 2.3893
-6.2774 -2.3395 2.3893
-6.1909 -2.5641 2.3893
-6.0964 -2.7855 2.3893
-5.9939 -3.0033 2.3893
-5.8836 -3.2174 2.3893
-5.7656 -3.4275 2.3893
-5.6402 -3.6332 2.3893
-5.5073 -3.8342 2.3893
-5.3673 -4.0304 2.3893
-5.2202 -4.2214 2.3893
-5.0664 -4.4071 2.3893
-4.9059 -4.5871 2.3893
-4.7389 -4.7612 2.3893
-4.5658 -4.9292 2.3893
-4.3867 -5.0909 2.3893
-4.2018 -5.2460 2.3893
-4.0115 -5.3944 2.3893
-1.3962 -6.1219 2.3893
-1.1756 -6.1684 2.3893
-0.9535 -6.2069 2.3893
-0.7301 -6.2374 2.3893
-0.5058 -6.2597 2.3893
-0.2808 -6.2739 2.3893
-0.0554 -6.2800 2.3893
0.1700 -6.2779 2.3893
0.3952 -6.2677 2.3893
0.6199 -6.2494 2.3893
0.8438 -6.2229 2.3893
1.0666 -6.1883 2.3893
1.2880 -6.1458 2.3893
1.5076 -6.0952 2.3893
1.7253 -6.0368 2.3893
1.9408 -5.9705 2.3893
2.1536 -5.8965 2.3893
2.3637 -5.8148 2.3893
2.5706 -5.7257 2.3893
2.7742 -5.6291 2.3893
2.9741 -5.5252 2.3893
2.9679 -5.0688 2.2369
3.1475 -4.9584 2.2369
3.3230 -4.8415 2.2369
3.4941 -4.7183 2.2369
3.6607 -4.5891 2.2369
3.8225 -4.4540 2.2369
3.9792 -4.3131 2.2369
4.1307 -4.1668 2.2369
4.2769 -4.0150 2.2369
4.4174 -3.8581 2.2369
4.5522 -3.6963 2.2369
4.6810 -3.5297 2.2369
4.8037 -3.3587 2.2369
4.9202 -3.1833 2.2369
5.0302 -3.0039 2.2369
5.1337 -2.8207 2.2369
5.2426 -2.6400 2.2421
5.3331 -2.4496 2.2422
5.4163 -2.2560 2.2422
5.4925 -2.0595 2.2422
5.5616 -1.8605 2.2422
5.6234 -1.6591 2.2422
5.6779 -1.4557 2.2422
5.7251 -1.2505 2.2422
5.7649 -1.0438 2.2422
5.7971 -0.8358 2.2422
5.8219 -0.6269 2.2422
5.8392 -0.4172 2.2422
5.8489 -0.2071 2.2422
5.8510 0.0031 2.2422
5.8456 0.2133 2.2422
5.5384 0.4017 2.1291
5.5490 0.6035 2.1407
5.5597 0.8077 2.1552
5.5705 1.0149 2.1727
5.7060 1.2530 2.2422
5.6559 1.4568 2.2422
5.5985 1.6587 2.2422
5.5338 1.8583 2.2422
5.4618 2.0554 2.2421
5.3827 2.2496 2.2419
5.2967 2.4409 2.2417
5.2039 2.6288 2.2416
5.1045 2.8133 2.2414
4.9985 2.9940 2.2412
4.8861 3.1707 2.2410
4.7675 3.3432 2.2407
4.6427 3.5113 2.2405
4.5121 3.6748 2.2402
4.3757 3.8334 2.2400
4.2338 3.9870 2.2397
4.0864 4.1354 2.2394
3.9339 4.2783 2.2392
3.7764 4.4156 2.2389
3.6142 4.5472 2.2386
3.4473 4.6728 2.2383
3.2761 4.7923 2.2380
3.1008 4.9056 2.2376
2.9216 5.0125 2.2373
2.7388 5.1129 2.2370
2.5528 5.2073 2.2369
2.5246 5.6559 2.3893
0.9235 2.2864 0.9513
0.8408 2.3183 0.9515
0.7569 2.3473 0.9517
0.6721 2.3732 0.9518
0.5864 2.3960 0.9520
0.4999 2.4158 0.9521
0.4127 2.4324 0.9522
0.3250 2.4458 0.9523
0.2368 2.4560 0.9524
0.1484 2.4631 0.9525
0.0597 2.4670 0.9525
-0.0290 2.4676 0.9526
-0.1177 2.4651 0.9526
-0.2063 2.4593 0.9526
-0.2946 2.4504 0.9526
-0.3826 2.4382 0.9526
-0.4700 2.4229 0.9526
-0.5568 2.4045 0.9525
-0.6429 2.3829 0.9525
-0.7282 2.3582 0.9524
-0.8125 2.3305 0.9523
-0.8958 2.2997 0.9522
-2.4540 5.6867 2.3893
-2.6572 5.5954 2.3893
-2.8570 5.4968 2.3893
-3.0532 5.3912 2.3893
-3.2454 5.2787 2.3893
-3.4336 5.1593 2.3893
-3.6174 5.0332 2.3893
-3.7966 4.9007 2.3893
-3.9710 4.7618 2.3893
-4.1403 4.6167 2.3893
-4.3044 4.4657 2.3893
-4.4630 4.3089 2.3893
-4.6159 4.1464 2.3893
-4.7629 3.9786 2.3893
-4.9038 3.8056 2.3893
-5.0385 3.6276 2.3893
-5.1667 3.4449 2.3893
-5.2883 3.2577 2.3893
-5.4032 3.0661 2.3893
-5.5112 2.8708 2.3893
-5.6121 2.6713 2.3893
-5.7058 2.4684 2.3893
-5.7923 2.2624 2.3893
-5.8713 2.0532 2.3893
-5.9427 1.8414 2.3893
-6.0065 1.6270 2.3893
-6.0627 1.4105 2.3893
-6.1110 1.1920 2.3893
-6.1515 0.9719 2.3893
-6.1840 0.7505 2.3893
-6.2086 0.5280 2.3893
-6.2251 0.3046 2.3893
-6.2337 0.0808 2.3893
-6.2342 -0.1432 2.3893
-6.2266 -0.3672 2.3893
-6.2110 -0.5908 2.3893
-6.1874 -0.8138 2.3893
-6.1558 -1.0358 2.3893
-6.1162 -1.2565 2.3893
-6.0686 -1.4758 2.3893
-6.0132 -1.6932 2.3893
-5.9500 -1.9086 2.3893
-5.8791 -2.1216 2.3893
-5.8005 -2.3319 2.3893
-5.7144 -2.5393 2.3893
-5.6208 -2.7435 2.3893
-5.5200 -2.9443 2.3893
-5.4119 -3.1413 2.3893
-5.2968 -3.3344 2.3893
-5.1748 -3.5232 2.3893
-5.0460 -3.7075 2.3893
-4.9107 -3.8871 2.3893
-4.7689 -4.0618 2.3893
-4.6209 -4.2312 2.3893
-4.4668 -4.3952 2.3893
-4.3070 -4.5536 2.3893
-4.1414 -4.7061 2.3893
-3.9705 -4.8526 2.3893
-3.7943 -4.9928 2.3893
-3.6132 -5.1266 2.3893
-3.4273 -5.2537 2.3893
-3.2370 -5.3741 2.3893
-3.0424 -5.4876 2.3893
-2.8438 -5.5939 2.3893
-2.6414 -5.6931 2.3893
-2.4356 -5.7848 2.3893
-2.2266 -5.8691 2.3893
-2.0147 -5.9458 2.3893
-1.8001 -6.0147 2.3893
-1.5832 -6.0759 2.3893
-1.3642 -6.1292 2.3893
-1.1433 -6.1745 2.3893
-0.9210 -6.2119 2.3893
-0.6975 -6.2411 2.3893
-0.4730 -6.2623 2.3893
-0.2480 -6.2753 2.3893
-0.0226 -6.2802 2.3893
0.2029 -6.2769 2.3893
0.4280 -6.2655 2.3893
0.6526 -6.2460 2.3893
0.8764 -6.2184 2.3893
1.0990 -6.1826 2.3893
1.3201 -6.1389 2.3893
1.5395 -6.0872 2.3893
1.7569 -6.0276 2.3893
1.9720 -5.9602 2.3893
2.1844 -5.8851 2.3893
2.3940 -5.8023 2.3893
2.6005 -5.7120 2.3893
2.8036 -5.6144 2.3893
3.0029 -5.5094 2.3893
2.9988 -5.0607 2.2402
3.1734 -4.9417 2.2369
3.3482 -4.8239 2.2369
3.5187 -4.6999 2.2369
3.6846 -4.5698 2.2369
3.8456 -4.4338 2.2369
4.0016 -4.2921 2.2369
4.1524 -4.1450 2.2369
4.2977 -3.9924 2.2369
4.4374 -3.8348 2.2369
4.5714 -3.6723 2.2369
4.6993 -3.5051 2.2369
4.8211 -3.3334 2.2369
4.9366 -3.1574 2.2369
5.0457 -2.9775 2.2369
5.1482 -2.7937 2.2369
5.2562 -2.6125 2.2421
5.3457 -2.4216 2.2422
5.4279 -2.2275 2.2422
5.5030 -2.0307 2.2422
5.5710 -1.8313 2.2422
5.6318 -1.6296 2.2422
5.6853 -1.4259 2.2422
5.7314 -1.2205 2.2422
5.7700 -1.0136 2.2422
5.8012 -0.8054 2.2422
5.8249 -0.5964 2.2422
5.8411 -0.3866 2.2422
5.8497 -0.1765 2.2422
5.8507 0.0338 2.2422
5.8442 0.2439 2.2422
5.5399 0.4310 2.1306
5.5505 0.6331 2.1426
5.5613 0.8377 2.1576
5.7430 1.0775 2.2422
5.6992 1.2828 2.2422
5.6480 1.4864 2.2422
5.5895 1.6880 2.2422
5.5238 1.8872 2.2422
5.4507 2.0839 2.2420
5.3706 2.2777 2.2419
5.2836 2.4685 2.2417
5.1898 2.6560 2.2415
5.0894 2.8399 2.2413
4.9825 3.0200 2.2411
4.8692 3.1961 2.2409
4.7496 3.3680 2.2407
4.6241 3.5355 2.2405
4.4926 3.6982 2.2402
4.3554 3.8561 2.2399
4.2126 4.0090 2.2397
4.0645 4.1565 2.2394
3.9113 4.2987 2.2391
3.7531 4.4352 2.2388
3.5901 4.5659 2.2385
3.4226 4.6906 2.2382
3.2508 4.8092 2.2379
3.0749 4.9216 2.2376
2.8952 5.0276 2.2373
2.7118 5.1270 2.2369
2.5389 5.2486 2.2489
2.4949 5.6690 2.3893
0.9115 2.2912 0.9513
0.8286 2.3227 0.9515
0.7446 2.3513 0.9517
0.6596 2.3767 0.9518
0.5738 2.3991 0.9520
0.4872 2.4184 0.9521
0.4000 2.4345 0.9522
0.3122 2.4475 0.9523
0.2240 2.4573 0.9524
0.1355 2.4639 0.9525
0.0468 2.4673 0.9525
-0.0420 2.4675 0.9526
-0.1307 2.4644 0.9526
-0.2192 2.4582 0.9526
-0.3075 2.4488 0.9526
-0.3953 2.4362 0.9526
-0.4827 2.4204 0.9526
-0.5694 2.4015 0.9525
-0.6554 2.3795 0.9524
-0.7405 2.3544 0.9524
-0.8247 2.3262 0.9523
-0.9078 2.2950 0.9522
-2.4838 5.6738 2.3893
-2.6865 5.5814 2.3893
-2.8858 5.4819 2.3893
-3.0814 5.3752 2.3893
-3.2731 5.2617 2.3893
-3.4607 5.1413 2.3893
-3.6438 5.0143 2.3893
-3.8223 4.8808 2.3893
-3.9960 4.7410 2.3893
-4.1646 4.5951 2.3893
-4.3278 4.4432 2.3893
-4.4856 4.2855 2.3893
-4.6377 4.1223 2.3893
-4.7838 3.9537 2.3893
-4.9238 3.7799 2.3893
-5.0576 3.6012 2.3893
-5.1849 3.4179 2.3893
-5.3055 3.2300 2.3893
-5.4194 3.0380 2.3893
-5.5263 2.8418 2.3893
-5.6262 2.6420 2.3893
-5.7189 2.4386 2.3893
-5.8042 2.2321 2.3893
-5.8821 2.0225 2.3893
-5.9525 1.8103 2.3893
-6.0152 1.5956 2.3893
-6.0702 1.3788 2.3893
-6.1174 1.1601 2.3893
-6.1567 0.9397 2.3893
-6.1881 0.7181 2.3893
-6.2115 0.4954 2.3893
-6.2269 0.2720 2.3893
-6.2343 0.0482 2.3893
-6.2336 -0.1759 2.3893
-6.2249 -0.3998 2.3893
-6.2081 -0.6233 2.3893
-6.1833 -0.8462 2.3893
-6.1505 -1.0680 2.3893
-6.1097 -1.2886 2.3893
-6.0610 -1.5076 2.3893
-6.0045 -1.7247 2.3893
-5.9402 -1.9398 2.3893
-5.8681 -2.1524 2.3893
-5.7884 -2.3623 2.3893
-5.7012 -2.5693 2.3893
-5.6066 -2.7730 2.3893
-5.5047 -2.9733 2.3893
-5.3956 -3.1698 2.3893
-5.2794 -3.3622 2.3893
-5.1564 -3.5504 2.3893
-5.0267 -3.7340 2.3893
-4.8904 -3.9129 2.3893
-4.7477 -4.0868 2.3893
-4.5988 -4.2555 2.3893
-4.4439 -4.4187 2.3893
-4.2832 -4.5762 2.3893
-4.1168 -4.7278 2.3893
-3.9451 -4.8734 2.3893
-3.7682 -5.0127 2.3893
-3.5864 -5.1455 2.3893
-3.3998 -5.2717 2.3893
-3.2089 -5.3911 2.3893
-3.0137 -5.5035 2.3893
-2.8145 -5.6089 2.3893
-2.6116 -5.7069 2.3893
-2.4053 -5.7976 2.3893
-2.1959 -5.8808 2.3893
-1.9836 -5.9563 2.3893
-1.7686 -6.0241 2.3893
-1.5514 -6.0842 2.3893
-1.3321 -6.1363 2.3893
-1.1110 -6.1805 2.3893
-0.8885 -6.2166 2.3893
-0.6648 -6.2447 2.3893
-0.4403 -6.2647 2.3893
-0.2151 -6.2765 2.3893
0.0103 -6.2802 2.3893
0.2357 -6.2758 2.3893
0.4608 -6.2632 2.3893
0.6853 -6.2425 2.3893
0.9089 -6.2137 2.3893
1.1313 -6.1768 2.3893
1.3522 -6.1319 2.3893
1.5713 -6.0790 2.3893
1.7884 -6.0183 2.3893
2.0031 -5.9497 2.3893
2.2152 -5.8735 2.3893
2.4243 -5.7896 2.3893
2.6303 -5.6983 2.3893
2.8329 -5.5995 2.3893
3.0317 -5.4935 2.3893
3.0207 -5.0373 2.2369
3.1991 -4.9249 2.2369
3.3734 -4.8062 2.2369
3.5432 -4.6813 2.2369
3.7084 -4.5503 2.2369
3.8687 -4.4135 2.2369
4.0239 -4.2710 2.2369
4.1739 -4.1231 2.2369
4.3184 -3.9698 2.2369
4.4573 -3.8114 2.2369
