ply
format ascii 1.0
element vertex 2185
property float32 x
property float32 y
property float32 z
end_header
3.3595 -5.7658 2.3836
3.5784 -5.6682 2.3836
3.7942 -5.5620 2.3836
4.0066 -5.4473 2.3836
4.2151 -5.3242 2.3836
4.4196 -5.1927 2.3836
4.6194 -5.0530 2.3836
4.8144 -4.9051 2.3836
5.0041 -4.7494 2.3836
5.1881 -4.5859 2.3836
5.3661 -4.4148 2.3836
5.5377 -4.2364 2.3836
5.7026 -4.0509 2.3836
5.8604 -3.8586 2.3836
6.0109 -3.6596 2.3836
6.1536 -3.4544 2.3836
6.2883 -3.2432 2.3836
6.4147 -3.0263 2.3836
6.5324 -2.8041 2.3836
6.6414 -2.5770 2.3836
6.7412 -2.3453 2.3836
6.8318 -2.1095 2.3836
6.9128 -1.8698 2.3836
6.9840 -1.6268 2.3836
7.0454 -1.3809 2.3836
7.0968 -1.1324 2.3836
7.1381 -0.8819 2.3836
7.1691 -0.6298 2.3836
7.1898 -0.3766 2.3836
7.2001 -0.1226 2.3836
7.2001 0.1316 2.3836
7.1896 0.3855 2.3836
7.1688 0.6388 2.3836
7.1377 0.8909 2.3836
7.0964 1.1414 2.3836
7.0449 1.3899 2.3836
6.9834 1.6358 2.3836
6.9120 1.8788 2.3836
6.8309 2.1185 2.3836
6.7402 2.3544 2.3836
6.6402 2.5861 2.3836
6.5312 2.8132 2.3836
6.4132 3.0353 2.3836
6.2867 3.2522 2.3836
6.1518 3.4634 2.3836
6.0090 3.6686 2.3836
5.8584 3.8676 2.3836
5.7004 4.0599 2.3836
5.5353 4.2454 2.3836
5.3635 4.4238 2.3836
5.1853 4.5948 2.3836
5.0011 4.7582 2.3836
4.8112 4.9139 2.3836
4.6161 5.0617 2.3836
4.4160 5.2013 2.3836
4.2113 5.3327 2.3836
4.0026 5.4558 2.3836
3.7900 5.5703 2.3836
3.5739 5.6764 2.3836
3.3549 5.7738 2.3836
3.1332 5.8626 2.3836
2.9091 5.9427 2.3836
2.6832 6.0141 2.3836
0.9306 2.3030 0.9033
0.8476 2.3336 0.9073
0.7635 2.3613 0.9113
0.6785 2.3858 0.9153
0.5926 2.4073 0.9194
0.5061 2.4257 0.9235
0.4189 2.4409 0.9276
0.3312 2.4530 0.9317
0.2431 2.4619 0.9358
0.1547 2.4676 0.9400
0.0662 2.4701 0.9441
-0.0223 2.4694 0.9483
-0.1108 2.4655 0.9524
-0.1991 2.4584 0.9565
-0.2870 2.4482 0.9606
-0.3746 2.4347 0.9647
-0.4616 2.4182 0.9687
-0.5479 2.3984 0.9727
-0.6335 2.3756 0.9767
-0.7182 2.3497 0.9806
-0.8019 2.3208 0.9845
-2.1332 5.5204 2.3836
-2.3208 5.4157 2.3836
-2.5039 5.3052 2.3836
-2.6825 5.1890 2.3836
-2.8564 5.0674 2.3836
-3.0255 4.9405 2.3836
-3.1897 4.8085 2.3836
-3.3488 4.6716 2.3836
-3.5027 4.5300 2.3836
-3.6514 4.3839 2.3836
-3.7946 4.2335 2.3836
-3.9324 4.0789 2.3836
-4.0646 3.9204 2.3836
-4.1911 3.7582 2.3836
-4.3120 3.5923 2.3836
-4.4270 3.4231 2.3836
-4.5361 3.2506 2.3836
-4.6393 3.0752 2.3836
-4.7366 2.8969 2.3836
-4.8278 2.7160 2.3836
-4.9129 2.5325 2.3836
-4.9919 2.3468 2.3836
-5.0647 2.1588 2.3836
-5.1313 1.9693 2.3836
-5.1916 1.7778 2.3836
-5.2457 1.5847 2.3836
-5.2935 1.3903 2.3836
-5.3350 1.1946 2.3836
5.5727 3.4388 2.3836
5.4326 3.6235 2.3836
5.2857 3.8021 2.3836
5.1322 3.9744 2.3836
4.9725 4.1402 2.3836
4.8069 4.2992 2.3836
4.6357 4.4512 2.3836
4.4592 4.5960 2.3836
4.2778 4.7336 2.3836
4.0918 4.8636 2.3836
3.9016 4.9861 2.3836
3.7074 5.1009 2.3836
3.5097 5.2078 2.3836
3.3087 5.3068 2.3836
3.1049 5.3979 2.3836
2.8985 5.4810 2.3836
2.6899 5.5560 2.3836
0.9389 2.1293 0.9026
0.8621 2.1603 0.9063
0.7843 2.1885 0.9100
0.7054 2.2139 0.9137
0.6257 2.2364 0.9175
0.5452 2.2561 0.9213
0.4641 2.2728 0.9251
0.3824 2.2866 0.9290
0.3002 2.2975 0.9328
0.2177 2.3053 0.9367
0.1350 2.3102 0.9406
0.0521 2.3121 0.9445
-0.0307 2.3110 0.9483
-0.1135 2.3069 0.9522
-0.1961 2.2998 0.9561
-0.2784 2.2897 0.9599
-0.3602 2.2767 0.9637
-0.4416 2.2607 0.9675
-0.5223 2.2418 0.9712
-0.6023 2.2200 0.9749
-0.6814 2.1954 0.9786
-0.7596 2.1678 0.9822
-0.8367 2.1375 0.9857
-2.1993 5.0708 2.3836
-2.3712 4.9673 2.3836
-2.5390 4.8585 2.3836
-2.7023 4.7445 2.3836
-2.8611 4.6254 2.3836
-3.0154 4.5016 2.3836
-3.1649 4.3730 2.3836
-3.3095 4.2401 2.3836
-3.4492 4.1028 2.3836
-3.5838 3.9614 2.3836
-3.7133 3.8160 2.3836
-3.8376 3.6669 2.3836
-3.9565 3.5142 2.3836
-4.0700 3.3581 2.3836
-4.1781 3.1987 2.3836
-4.2806 3.0363 2.3836
-4.3775 2.8710 2.3836
-4.4688 2.7030 2.3836
-4.5544 2.5325 2.3836
-4.6342 2.3596 2.3836
-4.7082 2.1845 2.3836
-4.7763 2.0075 2.3836
-4.8386 1.8286 2.3836
-4.8949 1.6480 2.3836
-4.9454 1.4659 2.3836
-4.9898 1.2825 2.3836
-5.0282 1.0980 2.3836
-5.0607 0.9124 2.3836
-5.0871 0.7261 2.3836
-5.1074 0.5391 2.3836
-5.1217 0.3516 2.3836
-5.1300 0.1638 2.3836
-5.1321 -0.0242 2.3836
-5.1283 -0.2121 2.3836
-5.1183 -0.3998 2.3836
-5.1023 -0.5871 2.3836
-5.0803 -0.7739 2.3836
-5.0522 -0.9600 2.3836
-5.0180 -1.1453 2.3836
-4.9779 -1.3295 2.3836
-4.9318 -1.5125 2.3836
-4.8797 -1.6941 2.3836
-4.8217 -1.8742 2.3836
-4.7578 -2.0526 2.3836
-4.6881 -2.2290 2.3836
-4.6125 -2.4035 2.3836
-4.5311 -2.5756 2.3836
-4.4440 -2.7454 2.3836
-4.3511 -2.9126 2.3836
-4.2527 -3.0770 2.3836
-4.1487 -3.2385 2.3836
-4.0392 -3.3969 2.3836
-3.9242 -3.5520 2.3836
-3.8038 -3.7036 2.3836
-3.6782 -3.8516 2.3836
-3.5474 -3.9958 2.3836
-3.4114 -4.1360 2.3836
-3.2704 -4.2721 2.3836
-3.1246 -4.4038 2.3836
-2.9738 -4.5309 2.3836
-2.8184 -4.6534 2.3836
-2.6585 -4.7710 2.3836
-2.4940 -4.8836 2.3836
-2.3253 -4.9909 2.3836
-2.1524 -5.0928 2.3836
-1.9754 -5.1892 2.3836
-1.7946 -5.2798 2.3836
-1.6101 -5.3646 2.3836
-1.4220 -5.4432 2.3836
-1.2306 -5.5157 2.3836
-1.0360 -5.5817 2.3836
-0.8385 -5.6412 2.3836
-0.6382 -5.6941 2.3836
-0.4354 -5.7400 2.3836
-0.2302 -5.7791 2.3836
-0.0229 -5.8110 2.3836
0.1862 -5.8357 2.3836
0.3970 -5.8530 2.3836
0.6091 -5.8629 2.3836
0.8222 -5.8652 2.3836
1.0362 -5.8598 2.3836
1.2508 -5.8467 2.3836
1.4656 -5.8257 2.3836
1.6803 -5.7968 2.3836
1.8947 -5.7600 2.3836
2.1085 -5.7152 2.3836
2.3213 -5.6623 2.3836
2.5327 -5.6014 2.3836
2.7426 -5.5325 2.3836
2.9505 -5.4555 2.3836
3.1561 -5.3704 2.3836
3.3592 -5.2774 2.3836
3.5592 -5.1764 2.3836
3.7560 -5.0676 2.3836
3.9491 -4.9510 2.3836
4.1382 -4.8267 2.3836
4.3230 -4.6948 2.3836
4.5031 -4.5555 2.3836
4.6782 -4.4089 2.3836
4.8480 -4.2553 2.3836
5.0121 -4.0947 2.3836
5.1702 -3.9274 2.3836
5.3221 -3.7536 2.3836
5.4673 -3.5735 2.3836
5.6056 -3.3875 2.3836
5.7367 -3.1957 2.3836
5.8604 -2.9985 2.3836
5.9763 -2.7961 2.3836
6.0843 -2.5890 2.3836
6.1840 -2.3774 2.3836
6.2754 -2.1616 2.3836
6.3581 -1.9420 2.3836
6.4320 -1.7191 2.3836
6.4969 -1.4931 2.3836
6.5527 -1.2645 2.3836
6.5993 -1.0336 2.3836
6.6365 -0.8009 2.3836
6.6644 -0.5667 2.3836
6.6827 -0.3316 2.3836
6.6914 -0.0958 2.3836
6.6907 0.1401 2.3836
6.6803 0.3758 2.3836
6.6605 0.6109 2.3836
6.6311 0.8448 2.3836
6.5923 1.0773 2.3836
6.5442 1.3078 2.3836
6.4869 1.5361 2.3836
6.4205 1.7617 2.3836
6.3451 1.9841 2.3836
6.2609 2.2031 2.3836
6.1682 2.4183 2.3836
6.0670 2.6292 2.3836
5.9577 2.8357 2.3836
5.8404 3.0373 2.3836
5.7154 3.2336 2.3836
5.5831 3.4245 2.3836
5.4435 3.6097 2.3836
5.2971 3.7888 2.3836
5.1441 3.9615 2.3836
4.9849 4.1278 2.3836
4.8197 4.2873 2.3836
4.6489 4.4398 2.3836
4.4729 4.5853 2.3836
4.2918 4.7234 2.3836
4.1062 4.8540 2.3836
3.9162 4.9771 2.3836
3.7223 5.0924 2.3836
3.5249 5.1999 2.3836
3.3242 5.2996 2.3836
3.1205 5.3913 2.3836
2.9143 5.4749 2.3836
2.7059 5.5506 2.3836
0.9447 2.1268 0.9023
0.8680 2.1580 0.9060
0.7902 2.1865 0.9097
0.7114 2.2121 0.9134
0.6318 2.2348 0.9172
0.5514 2.2547 0.9210
0.4703 2.2717 0.9248
0.3886 2.2857 0.9287
0.3065 2.2967 0.9325
0.2240 2.3048 0.9364
0.1413 2.3099 0.9403
0.0584 2.3121 0.9442
-0.0244 2.3112 0.9480
-0.1072 2.3073 0.9519
-0.1898 2.3005 0.9558
-0.2721 2.2906 0.9596
-0.3540 2.2778 0.9634
-0.4354 2.2621 0.9672
-0.5162 2.2434 0.9709
-0.5962 2.2218 0.9746
-0.6754 2.1973 0.9783
-0.7537 2.1700 0.9819
-0.8309 2.1399 0.9854
-2.1861 5.0785 2.3836
-2.3583 4.9754 2.3836
-2.5263 4.8670 2.3836
-2.6900 4.7533 2.3836
-2.8492 4.6347 2.3836
-3.0038 4.5112 2.3836
-3.1537 4.3830 2.3836
-3.2987 4.2503 2.3836
-3.4387 4.1134 2.3836
-3.5738 3.9723 2.3836
-3.7037 3.8272 2.3836
-3.8283 3.6784 2.3836
-3.9476 3.5259 2.3836
-4.0616 3.3701 2.3836
-4.1701 3.2109 2.3836
-4.2730 3.0488 2.3836
-4.3704 2.8837 2.3836
-4.4621 2.7159 2.3836
-4.5481 2.5456 2.3836
-4.6283 2.3729 2.3836
-4.7027 2.1980 2.3836
-4.7713 2.0210 2.3836
-4.8340 1.8422 2.3836
-4.8909 1.6618 2.3836
-4.9417 1.4798 2.3836
-4.9866 1.2965 2.3836
-5.0255 1.1120 2.3836
-5.0584 0.9266 2.3836
-5.0853 0.7403 2.3836
-5.1061 0.5533 2.3836
-5.1209 0.3659 2.3836
-5.1296 0.1781 2.3836
-5.1322 -0.0098 2.3836
-5.1288 -0.1977 2.3836
-5.1193 -0.3855 2.3836
-5.1037 -0.5729 2.3836
-5.0821 -0.7597 2.3836
-5.0545 -0.9459 2.3836
-5.0208 -1.1312 2.3836
-4.9812 -1.3155 2.3836
-4.9355 -1.4986 2.3836
-4.8839 -1.6804 2.3836
-4.8264 -1.8606 2.3836
-4.7629 -2.0390 2.3836
-4.6936 -2.2157 2.3836
-4.6184 -2.3902 2.3836
-4.5375 -2.5626 2.3836
-4.4508 -2.7325 2.3836
-4.3584 -2.8999 2.3836
-4.2604 -3.0646 2.3836
-4.1568 -3.2263 2.3836
-4.0477 -3.3849 2.3836
-3.9331 -3.5403 2.3836
-3.8132 -3.6922 2.3836
-3.6880 -3.8405 2.3836
-3.5575 -3.9850 2.3836
-3.4220 -4.1255 2.3836
-3.2814 -4.2619 2.3836
-3.1358 -4.3939 2.3836
-2.9855 -4.5214 2.3836
-2.8304 -4.6443 2.3836
-2.6708 -4.7622 2.3836
-2.5067 -4.8752 2.3836
-2.3383 -4.9829 2.3836
-2.1657 -5.0853 2.3836
-1.9890 -5.1821 2.3836
-1.8085 -5.2731 2.3836
-1.6243 -5.3583 2.3836
-1.4365 -5.4374 2.3836
-1.2453 -5.5104 2.3836
-1.0510 -5.5769 2.3836
-0.8537 -5.6369 2.3836
-0.6536 -5.6903 2.3836
-0.4509 -5.7368 2.3836
-0.2459 -5.7763 2.3836
-0.0388 -5.8088 2.3836
0.1702 -5.8340 2.3836
0.3809 -5.8519 2.3836
0.5929 -5.8624 2.3836
0.8060 -5.8653 2.3836
1.0199 -5.8605 2.3836
1.2345 -5.8479 2.3836
1.4492 -5.8276 2.3836
1.6640 -5.7993 2.3836
1.8784 -5.7631 2.3836
2.0922 -5.7189 2.3836
2.3051 -5.6667 2.3836
2.5167 -5.6064 2.3836
2.7267 -5.5380 2.3836
2.9348 -5.4616 2.3836
3.1406 -5.3772 2.3836
3.3438 -5.2848 2.3836
3.5441 -5.1844 2.3836
3.7411 -5.0762 2.3836
3.9345 -4.9601 2.3836
4.1239 -4.8364 2.3836
4.3091 -4.7051 2.3836
4.4896 -4.5664 2.3836
4.6651 -4.4204 2.3836
4.8353 -4.2672 2.3836
4.9998 -4.1071 2.3836
5.1584 -3.9403 2.3836
5.3107 -3.7670 2.3836
5.4565 -3.5874 2.3836
5.5953 -3.4018 2.3836
5.7270 -3.2105 2.3836
5.8512 -3.0137 2.3836
5.9678 -2.8117 2.3836
6.0763 -2.6049 2.3836
6.1767 -2.3936 2.3836
6.2687 -2.1782 2.3836
6.3521 -1.9589 2.3836
6.4267 -1.7362 2.3836
6.4923 -1.5104 2.3836
6.5488 -1.2820 2.3836
6.5961 -1.0512 2.3836
6.6340 -0.8187 2.3836
6.6626 -0.5846 2.3836
6.6816 -0.3495 2.3836
6.6911 -0.1138 2.3836
6.6911 0.1222 2.3836
6.6814 0.3579 2.3836
6.6623 0.5930 2.3836
6.6337 0.8270 2.3836
6.5956 1.0596 2.3836
6.5482 1.2904 2.3836
6.4916 1.5188 2.3836
6.4258 1.7446 2.3836
6.3511 1.9673 2.3836
6.2676 2.1866 2.3836
6.1755 2.4020 2.3836
6.0750 2.6133 2.3836
5.9663 2.8201 2.3836
5.8496 3.0221 2.3836
5.7252 3.2189 2.3836
5.5934 3.4102 2.3836
5.4544 3.5958 2.3836
5.3085 3.7753 2.3836
5.1560 3.9486 2.3836
4.9972 4.1154 2.3836
4.8325 4.2754 2.3836
4.6621 4.4285 2.3836
4.4864 4.5744 2.3836
4.3058 4.7131 2.3836
4.1205 4.8443 2.3836
3.9308 4.9679 2.3836
3.7372 5.0839 2.3836
3.5400 5.1920 2.3836
3.3395 5.2923 2.3836
3.1361 5.3845 2.3836
2.9301 5.4688 2.3836
2.7219 5.5451 2.3836
0.9505 2.1243 0.9020
0.8739 2.1557 0.9057
0.7962 2.1844 0.9094
0.7175 2.2102 0.9131
0.6379 2.2332 0.9169
0.5575 2.2533 0.9207
0.4765 2.2705 0.9245
0.3948 2.2847 0.9284
0.3128 2.2960 0.9322
0.2303 2.3043 0.9361
0.1476 2.3097 0.9400
0.0648 2.3120 0.9439
-0.0181 2.3113 0.9478
-0.1009 2.3077 0.9516
-0.1835 2.3011 0.9555
-0.2659 2.2915 0.9593
-0.3478 2.2789 0.9631
-0.4292 2.2634 0.9669
-0.5100 2.2449 0.9706
-0.5901 2.2235 0.9743
-0.6694 2.1993 0.9780
-0.7477 2.1722 0.9816
-0.8250 2.1423 0.9852
-2.1728 5.0861 2.3836
-2.3453 4.9835 2.3836
-2.5137 4.8754 2.3836
-2.6777 4.7622 2.3836
-2.8372 4.6439 2.3836
-2.9922 4.5207 2.3836
-3.1424 4.3929 2.3836
-3.2878 4.2606 2.3836
-3.4283 4.1240 2.3836
-3.5637 3.9832 2.3836
-3.6939 3.8384 2.3836
-3.8190 3.6898 2.3836
-3.9387 3.5377 2.3836
-4.0531 3.3820 2.3836
-4.1620 3.2232 2.3836
-4.2654 3.0612 2.3836
-4.3631 2.8964 2.3836
-4.4553 2.7288 2.3836
-4.5417 2.5586 2.3836
-4.6224 2.3861 2.3836
-4.6973 2.2114 2.3836
-4.7663 2.0346 2.3836
-4.8295 1.8559 2.3836
-4.8867 1.6756 2.3836
-4.9381 1.4937 2.3836
-4.9834 1.3105 2.3836
-5.0228 1.1261 2.3836
5.2070 3.2087 2.3836
5.0772 3.3816 2.3836
4.9409 3.5488 2.3836
4.7985 3.7103 2.3836
4.6503 3.8658 2.3836
4.4965 4.0150 2.3836
4.3374 4.1578 2.3836
4.1734 4.2940 2.3836
4.0048 4.4235 2.3836
3.8318 4.5460 2.3836
3.6547 4.6615 2.3836
3.4740 4.7699 2.3836
3.2898 4.8710 2.3836
3.1026 4.9648 2.3836
2.9126 5.0512 2.3836
2.7201 5.1302 2.3836
0.9552 1.9674 0.9015
0.8842 1.9990 0.9049
0.8121 2.0282 0.9083
0.7389 2.0546 0.9118
0.6649 2.0785 0.9153
0.5901 2.0996 0.9189
0.5145 2.1181 0.9224
0.4383 2.1338 0.9260
0.3616 2.1467 0.9296
0.2845 2.1569 0.9333
0.2071 2.1642 0.9369
0.1294 2.1688 0.9406
0.0516 2.1706 0.9442
-0.0262 2.1695 0.9478
-0.1039 2.1657 0.9515
-0.1814 2.1590 0.9551
-0.2587 2.1496 0.9587
-0.3355 2.1374 0.9623
-0.4119 2.1224 0.9658
-0.4876 2.1046 0.9693
-0.5627 2.0841 0.9728
-0.6370 2.0610 0.9762
-0.7104 2.0352 0.9796
-0.7828 2.0067 0.9829
-0.8542 1.9756 0.9862
-2.2269 4.6785 2.3836
-2.3854 4.5769 2.3836
-2.5398 4.4703 2.3836
-2.6900 4.3590 2.3836
-2.8358 4.2430 2.3836
-2.9773 4.1226 2.3836
-3.1142 3.9979 2.3836
-3.2465 3.8691 2.3836
-3.3740 3.7364 2.3836
-3.4967 3.5998 2.3836
-3.6145 3.4597 2.3836
-3.7272 3.3161 2.3836
-3.8349 3.1692 2.3836
-3.9374 3.0192 2.3836
-4.0347 2.8662 2.3836
-4.1266 2.7105 2.3836
-4.2133 2.5522 2.3836
-4.2945 2.3914 2.3836
-4.3703 2.2284 2.3836
-4.4406 2.0632 2.3836
-4.5053 1.8962 2.3836
-4.5645 1.7273 2.3836
-4.6180 1.5568 2.3836
-4.6660 1.3849 2.3836
-4.7082 1.2117 2.3836
-4.7447 1.0374 2.3836
-4.7756 0.8621 2.3836
-4.8007 0.6861 2.3836
-4.8200 0.5094 2.3836
-4.8336 0.3322 2.3836
-4.8415 0.1548 2.3836
-4.8436 -0.0228 2.3836
-4.8399 -0.2004 2.3836
-4.8304 -0.3777 2.3836
-4.8152 -0.5548 2.3836
-4.7942 -0.7313 2.3836
-4.7675 -0.9071 2.3836
-4.7351 -1.0821 2.3836
-4.6970 -1.2561 2.3836
-4.6531 -1.4289 2.3836
-4.6037 -1.6004 2.3836
-4.5485 -1.7704 2.3836
-4.4878 -1.9387 2.3836
-4.4216 -2.1052 2.3836
-4.3498 -2.2697 2.3836
-4.2725 -2.4321 2.3836
-4.1898 -2.5921 2.3836
-4.1017 -2.7497 2.3836
-4.0083 -2.9046 2.3836
-3.9096 -3.0567 2.3836
-3.8057 -3.2057 2.3836
-3.6967 -3.3517 2.3836
-3.5826 -3.4943 2.3836
-3.4635 -3.6334 2.3836
-3.3396 -3.7688 2.3836
-3.2108 -3.9004 2.3836
-3.0773 -4.0280 2.3836
-2.9392 -4.1515 2.3836
-2.7967 -4.2706 2.3836
-2.6497 -4.3853 2.3836
-2.4984 -4.4952 2.3836
-2.3430 -4.6004 2.3836
-2.1836 -4.7005 2.3836
-2.0203 -4.7956 2.3836
-1.8533 -4.8853 2.3836
-1.6827 -4.9695 2.3836
-1.5086 -5.0482 2.3836
-1.3313 -5.1211 2.3836
-1.1510 -5.1881 2.3836
-0.9677 -5.2490 2.3836
-0.7817 -5.3037 2.3836
-0.5932 -5.3521 2.3836
-0.4025 -5.3940 2.3836
-0.2096 -5.4294 2.3836
-0.0148 -5.4580 2.3836
0.1816 -5.4799 2.3836
0.3794 -5.4948 2.3836
0.5784 -5.5027 2.3836
0.7783 -5.5034 2.3836
0.9789 -5.4970 2.3836
1.1799 -5.4833 2.3836
1.3811 -5.4623 2.3836
1.5820 -5.4338 2.3836
1.7826 -5.3979 2.3836
1.9824 -5.3546 2.3836
2.1812 -5.3037 2.3836
2.3788 -5.2454 2.3836
2.5747 -5.1795 2.3836
2.7687 -5.1062 2.3836
2.9605 -5.0254 2.3836
3.1497 -4.9371 2.3836
3.3361 -4.8415 2.3836
3.5193 -4.7386 2.3836
3.6991 -4.6285 2.3836
3.8751 -4.5113 2.3836
4.0469 -4.3871 2.3836
4.2144 -4.2560 2.3836
4.3771 -4.1182 2.3836
4.5348 -3.9739 2.3836
4.6872 -3.8232 2.3836
4.8339 -3.6663 2.3836
4.9748 -3.5034 2.3836
5.1095 -3.3348 2.3836
5.2377 -3.1607 2.3836
5.3592 -2.9813 2.3836
5.4738 -2.7969 2.3836
5.5812 -2.6078 2.3836
5.6812 -2.4143 2.3836
5.7735 -2.2167 2.3836
5.8581 -2.0153 2.3836
5.9346 -1.8104 2.3836
6.0030 -1.6024 2.3836
6.0631 -1.3916 2.3836
6.1147 -1.1785 2.3836
6.1578 -0.9632 2.3836
6.1922 -0.7463 2.3836
6.2179 -0.5281 2.3836
6.2348 -0.3090 2.3836
6.2430 -0.0892 2.3836
6.2422 0.1306 2.3836
6.2327 0.3502 2.3836
6.2143 0.5693 2.3836
6.1871 0.7873 2.3836
6.1513 1.0040 2.3836
6.1068 1.2189 2.3836
6.0537 1.4318 2.3836
5.9923 1.6421 2.3836
5.9225 1.8497 2.3836
5.8446 2.0540 2.3836
5.7587 2.2549 2.3836
5.6651 2.4519 2.3836
5.5638 2.6447 2.3836
5.4552 2.8331 2.3836
5.3394 3.0167 2.3836
5.2167 3.1953 2.3836
5.0873 3.3686 2.3836
4.9515 3.5363 2.3836
4.8096 3.6982 2.3836
4.6618 3.8542 2.3836
4.5084 4.0039 2.3836
4.3497 4.1472 2.3836
4.1861 4.2839 2.3836
4.0178 4.4138 2.3836
3.8451 4.5369 2.3836
3.6684 4.6530 2.3836
3.4879 4.7619 2.3836
3.3040 4.8635 2.3836
3.1170 4.9579 2.3836
2.9271 5.0449 2.3836
2.7348 5.1244 2.3836
0.9605 1.9648 0.9013
0.8896 1.9967 0.9046
0.8176 2.0260 0.9081
0.7445 2.0527 0.9115
0.6706 2.0767 0.9150
0.5958 2.0981 0.9186
0.5203 2.1168 0.9222
0.4442 2.1327 0.9258
0.3675 2.1458 0.9294
0.2904 2.1562 0.9330
0.2130 2.1638 0.9366
0.1353 2.1686 0.9403
0.0575 2.1705 0.9439
-0.0203 2.1697 0.9476
-0.0980 2.1661 0.9512
-0.1755 2.1596 0.9548
-0.2528 2.1504 0.9584
-0.3297 2.1384 0.9620
-0.4061 2.1236 0.9655
-0.4819 2.1061 0.9690
-0.5570 2.0858 0.9725
-0.6314 2.0628 0.9760
-0.7049 2.0372 0.9793
-0.7774 2.0090 0.9827
-0.8488 1.9781 0.9860
-2.2147 4.6860 2.3836
-2.3734 4.5848 2.3836
-2.5281 4.4786 2.3836
-2.6787 4.3676 2.3836
-2.8249 4.2520 2.3836
-2.9667 4.1320 2.3836
-3.1039 4.0076 2.3836
-3.2366 3.8791 2.3836
-3.3645 3.7466 2.3836
-3.4875 3.6104 2.3836
-3.6057 3.4705 2.3836
-3.7188 3.3271 2.3836
-3.8269 3.1805 2.3836
-3.9298 3.0307 2.3836
-4.0274 2.8780 2.3836
-4.1198 2.7225 2.3836
-4.2069 2.5644 2.3836
-4.2885 2.4038 2.3836
-4.3647 2.2409 2.3836
-4.4354 2.0759 2.3836
-4.5006 1.9090 2.3836
-4.5602 1.7402 2.3836
-4.6142 1.5699 2.3836
-4.6625 1.3980 2.3836
-4.7052 1.2249 2.3836
-4.7422 1.0507 2.3836
-4.7734 0.8755 2.3836
-4.7990 0.6995 2.3836
-4.8188 0.5229 2.3836
-4.8328 0.3457 2.3836
-4.8411 0.1683 2.3836
-4.8436 -0.0093 2.3836
-4.8404 -0.1868 2.3836
-4.8313 -0.3642 2.3836
-4.8166 -0.5413 2.3836
-4.7960 -0.7178 2.3836
-4.7698 -0.8937 2.3836
-4.7378 -1.0688 2.3836
-4.7001 -1.2429 2.3836
-4.6567 -1.4158 2.3836
-4.6076 -1.5874 2.3836
-4.5529 -1.7575 2.3836
-4.4927 -1.9260 2.3836
-4.4268 -2.0926 2.3836
-4.3554 -2.2573 2.3836
-4.2786 -2.4198 2.3836
-4.1963 -2.5800 2.3836
-4.1086 -2.7378 2.3836
-4.0156 -2.8929 2.3836
-3.9173 -3.0452 2.3836
-3.8138 -3.1945 2.3836
-3.7052 -3.3407 2.3836
-3.5915 -3.4835 2.3836
-3.4728 -3.6229 2.3836
-3.3492 -3.7586 2.3836
-3.2208 -3.8905 2.3836
-3.0877 -4.0185 2.3836
-2.9499 -4.1422 2.3836
-2.8077 -4.2617 2.3836
-2.6610 -4.3767 2.3836
-2.5101 -4.4870 2.3836
-2.3550 -4.5925 2.3836
-2.1959 -4.6931 2.3836
-2.0329 -4.7885 2.3836
-1.8661 -4.8786 2.3836
-1.6958 -4.9633 2.3836
-1.5220 -5.0424 2.3836
-1.3449 -5.1157 2.3836
-1.1648 -5.1832 2.3836
-0.9818 -5.2446 2.3836
-0.7960 -5.2998 2.3836
-0.6077 -5.3486 2.3836
-0.4171 -5.3911 2.3836
-0.2243 -5.4269 2.3836
-0.0297 -5.4561 2.3836
0.1666 -5.4785 2.3836
0.3643 -5.4939 2.3836
0.5632 -5.5023 2.3836
0.7631 -5.5036 2.3836
0.9636 -5.4978 2.3836
1.1646 -5.4846 2.3836
1.3657 -5.4641 2.3836
1.5667 -5.4362 2.3836
1.7673 -5.4009 2.3836
1.9672 -5.3582 2.3836
2.1661 -5.3079 2.3836
2.3638 -5.2501 2.3836
2.5598 -5.1848 2.3836
2.7540 -5.1120 2.3836
2.9460 -5.0318 2.3836
3.1354 -4.9441 2.3836
3.3220 -4.8491 2.3836
3.5055 -4.7467 2.3836
3.6855 -4.6372 2.3836
3.8618 -4.5205 2.3836
4.0340 -4.3968 2.3836
4.2018 -4.2663 2.3836
4.3649 -4.1289 2.3836
4.5230 -3.9851 2.3836
4.6758 -3.8349 2.3836
4.8230 -3.6785 2.3836
4.9643 -3.5160 2.3836
5.0994 -3.3478 2.3836
5.2282 -3.1741 2.3836
5.3502 -2.9951 2.3836
5.4653 -2.8111 2.3836
5.5733 -2.6223 2.3836
5.6738 -2.4292 2.3836
5.7668 -2.2319 2.3836
5.8519 -2.0307 2.3836
5.9291 -1.8261 2.3836
5.9981 -1.6184 2.3836
6.0588 -1.4078 2.3836
6.1111 -1.1948 2.3836
6.1548 -0.9797 2.3836
6.1899 -0.7629 2.3836
6.2163 -0.5448 2.3836
6.2339 -0.3257 2.3836
6.2427 -0.1060 2.3836
6.2426 0.1139 2.3836
6.2337 0.3335 2.3836
6.2160 0.5526 2.3836
6.1895 0.7708 2.3836
6.1543 0.9876 2.3836
6.1105 1.2026 2.3836
6.0581 1.4156 2.3836
5.9972 1.6262 2.3836
5.9281 1.8340 2.3836
5.8508 2.0386 2.3836
5.7656 2.2397 2.3836
5.6725 2.4370 2.3836
5.5718 2.6302 2.3836
5.4637 2.8189 2.3836
5.3485 3.0029 2.3836
5.2263 3.1819 2.3836
5.0974 3.3556 2.3836
4.9621 3.5237 2.3836
4.8206 3.6861 2.3836
4.6732 3.8425 2.3836
4.5203 3.9927 2.3836
4.3620 4.1365 2.3836
4.1987 4.2737 2.3836
4.0308 4.4042 2.3836
3.8584 4.5278 2.3836
3.6820 4.6444 2.3836
3.5018 4.7538 2.3836
3.3181 4.8560 2.3836
3.1313 4.9510 2.3836
2.9417 5.0385 2.3836
2.7495 5.1186 2.3836
0.9659 1.9623 0.9010
0.8951 1.9944 0.9044
0.8231 2.0239 0.9078
0.7501 2.0508 0.9113
0.6763 2.0750 0.9148
0.6015 2.0966 0.9183
0.5261 2.1154 0.9219
0.4500 2.1315 0.9255
0.3733 2.1449 0.9291
0.2963 2.1555 0.9327
0.2189 2.1633 0.9364
0.1412 2.1683 0.9400
0.0635 2.1705 0.9437
-0.0143 2.1699 0.9473
-0.0921 2.1665 0.9509
-0.1696 2.1602 0.9545
-0.2469 2.1512 0.9581
-0.3238 2.1394 0.9617
-0.4003 2.1248 0.9653
-0.4761 2.1075 0.9688
-0.5513 2.0874 0.9723
-0.6257 2.0647 0.9757
-0.6993 2.0393 0.9791
-0.7719 2.0112 0.9824
-0.8434 1.9805 0.9857
-2.2024 4.6935 2.3836
-2.3615 4.5927 2.3836
-2.5165 4.4869 2.3836
-2.6674 4.3762 2.3836
-2.8139 4.2610 2.3836
-2.9560 4.1413 2.3836
-3.0937 4.0172 2.3836
-3.2266 3.8890 2.3836
-3.3549 3.7568 2.3836
-3.4783 3.6209 2.3836
-3.5968 3.4812 2.3836
-3.7104 3.3382 2.3836
-3.8188 3.1918 2.3836
-3.9221 3.0422 2.3836
-4.0202 2.8897 2.3836
-4.1130 2.7344 2.3836
-4.2004 2.5765 2.3836
-4.2825 2.4161 2.3836
-4.3591 2.2534 2.3836
-4.4302 2.0885 2.3836
-4.4958 1.9217 2.3836
-4.5558 1.7531 2.3836
-4.6102 1.5829 2.3836
-4.6590 1.4112 2.3836
-4.7021 1.2382 2.3836
-4.7395 1.0640 2.3836
4.8814 3.0037 2.3836
4.7605 3.1659 2.3836
4.6336 3.3231 2.3836
4.5009 3.4749 2.3836
4.3628 3.6210 2.3836
4.2195 3.7615 2.3836
4.0712 3.8960 2.3836
3.9182 4.0243 2.3836
3.7609 4.1464 2.3836
3.5994 4.2621 2.3836
3.4341 4.3713 2.3836
3.2652 4.4738 2.3836
3.0931 4.5696 2.3836
2.9180 4.6586 2.3836
2.7403 4.7407 2.3836
2.5602 4.8159 2.3836
0.9017 1.8519 0.9038
0.8348 1.8817 0.9070
0.7669 1.9091 0.9102
0.6981 1.9340 0.9135
0.6284 1.9564 0.9168
0.5580 1.9763 0.9201
0.4869 1.9937 0.9235
0.4151 2.0084 0.9269
0.3429 2.0206 0.9303
0.2704 2.0302 0.9337
0.1975 2.0371 0.9371
0.1244 2.0414 0.9405
0.0511 2.0431 0.9440
-0.0221 2.0421 0.9474
-0.0952 2.0384 0.9508
-0.1682 2.0322 0.9542
-0.2409 2.0233 0.9576
-0.3132 2.0118 0.9610
-0.3851 1.9977 0.9643
-0.4564 1.9810 0.9676
-0.5271 1.9617 0.9709
-0.5970 1.9399 0.9741
-0.6661 1.9156 0.9773
-0.7343 1.8888 0.9804
-0.8015 1.8596 0.9835
-0.8675 1.8279 0.9865
-2.2460 4.3214 2.3836
-2.3923 4.2216 2.3836
-2.5346 4.1171 2.3836
-2.6728 4.0083 2.3836
-2.8069 3.8952 2.3836
-2.9368 3.7780 2.3836
-3.0622 3.6568 2.3836
-3.1832 3.5318 2.3836
-3.2997 3.4032 2.3836
-3.4115 3.2712 2.3836
-3.5186 3.1358 2.3836
-3.6208 2.9973 2.3836
-3.7182 2.8557 2.3836
-3.8107 2.7114 2.3836
-3.8981 2.5643 2.3836
-3.9805 2.4148 2.3836
-4.0577 2.2629 2.3836
-4.1298 2.1088 2.3836
-4.1967 1.9527 2.3836
-4.2583 1.7947 2.3836
-4.3146 1.6350 2.3836
-4.3655 1.4737 2.3836
-4.4111 1.3110 2.3836
-4.4513 1.1471 2.3836
-4.4861 0.9822 2.3836
-4.5155 0.8163 2.3836
-4.5394 0.6496 2.3836
-4.5578 0.4823 2.3836
-4.5708 0.3146 2.3836
-4.5782 0.1466 2.3836
-4.5802 -0.0216 2.3836
-4.5767 -0.1897 2.3836
-4.5677 -0.3576 2.3836
-4.5532 -0.5252 2.3836
-4.5333 -0.6923 2.3836
-4.5079 -0.8588 2.3836
-4.4770 -1.0244 2.3836
-4.4407 -1.1891 2.3836
-4.3990 -1.3526 2.3836
-4.3519 -1.5149 2.3836
-4.2994 -1.6757 2.3836
-4.2417 -1.8349 2.3836
-4.1786 -1.9924 2.3836
-4.1103 -2.1479 2.3836
-4.0368 -2.3013 2.3836
-3.9582 -2.4525 2.3836
-3.8745 -2.6013 2.3836
-3.7857 -2.7476 2.3836
-3.6919 -2.8911 2.3836
-3.5932 -3.0318 2.3836
-3.4896 -3.1694 2.3836
-3.3813 -3.3038 2.3836
-3.2683 -3.4348 2.3836
-3.1506 -3.5624 2.3836
-3.0285 -3.6863 2.3836
-2.9019 -3.8063 2.3836
-2.7709 -3.9223 2.3836
-2.6358 -4.0342 2.3836
-2.4965 -4.1418 2.3836
-2.3532 -4.2450 2.3836
-2.2060 -4.3435 2.3836
-2.0551 -4.4373 2.3836
-1.9006 -4.5261 2.3836
-1.7426 -4.6099 2.3836
-1.5813 -4.6885 2.3836
-1.4168 -4.7618 2.3836
-1.2493 -4.8296 2.3836
-1.0789 -4.8917 2.3836
-0.9059 -4.9482 2.3836
-0.7304 -4.9987 2.3836
-0.5526 -5.0432 2.3836
-0.3728 -5.0817 2.3836
-0.1910 -5.1139 2.3836
-0.0075 -5.1397 2.3836
0.1774 -5.1591 2.3836
0.3636 -5.1720 2.3836
0.5508 -5.1782 2.3836
0.7388 -5.1778 2.3836
0.9274 -5.1705 2.3836
1.1162 -5.1565 2.3836
1.3052 -5.1353 2.3836
1.4937 -5.1076 2.3836
1.6819 -5.0727 2.3836
1.8693 -5.0309 2.3836
2.0556 -4.9820 2.3836
2.2407 -4.9260 2.3836
2.4242 -4.8631 2.3836
2.6058 -4.7932 2.3836
2.7852 -4.7163 2.3836
2.9622 -4.6325 2.3836
3.1365 -4.5418 2.3836
3.3077 -4.4444 2.3836
3.4756 -4.3402 2.3836
3.6399 -4.2295 2.3836
3.8003 -4.1122 2.3836
3.9565 -3.9886 2.3836
4.1083 -3.8588 2.3836
4.2553 -3.7229 2.3836
4.3973 -3.5810 2.3836
4.5341 -3.4335 2.3836
4.6653 -3.2805 2.3836
4.7907 -3.1221 2.3836
4.9100 -2.9586 2.3836
5.0231 -2.7903 2.3836
5.1297 -2.6174 2.3836
5.2296 -2.4401 2.3836
5.3225 -2.2588 2.3836
5.4084 -2.0737 2.3836
5.4870 -1.8851 2.3836
5.5581 -1.6933 2.3836
5.6216 -1.4987 2.3836
5.6774 -1.3015 2.3836
5.7254 -1.1020 2.3836
5.7654 -0.9007 2.3836
5.7973 -0.6978 2.3836
5.8212 -0.4938 2.3836
5.8369 -0.2888 2.3836
5.8445 -0.0834 2.3836
5.8438 0.1221 2.3836
5.8349 0.3275 2.3836
5.8178 0.5323 2.3836
5.7926 0.7362 2.3836
5.7593 0.9389 2.3836
5.7179 1.1399 2.3836
5.6687 1.3390 2.3836
5.6116 1.5359 2.3836
5.5468 1.7301 2.3836
5.4744 1.9214 2.3836
5.3945 2.1095 2.3836
5.3075 2.2940 2.3836
5.2133 2.4747 2.3836
5.1123 2.6513 2.3836
5.0045 2.8235 2.3836
4.8903 2.9911 2.3836
4.7699 3.1538 2.3836
4.6434 3.3113 2.3836
4.5112 3.4635 2.3836
4.3735 3.6101 2.3836
4.2306 3.7510 2.3836
4.0827 3.8859 2.3836
3.9300 4.0148 2.3836
3.7730 4.1373 2.3836
3.6118 4.2535 2.3836
3.4468 4.3632 2.3836
3.2782 4.4662 2.3836
3.1063 4.5625 2.3836
2.9315 4.6520 2.3836
2.7539 4.7347 2.3836
2.5740 4.8104 2.3836
0.9067 1.8495 0.9035
0.8399 1.8795 0.9067
0.7721 1.9071 0.9100
0.7034 1.9322 0.9132
0.6338 1.9548 0.9165
0.5634 1.9749 0.9199
0.4923 1.9924 0.9232
0.4206 2.0074 0.9266
0.3485 2.0198 0.9300
0.2759 2.0295 0.9334
0.2030 2.0367 0.9368
0.1299 2.0412 0.9403
0.0567 2.0430 0.9437
-0.0165 2.0422 0.9471
-0.0897 2.0388 0.9506
-0.1627 2.0328 0.9540
-0.2354 2.0241 0.9573
-0.3077 2.0127 0.9607
-0.3796 1.9988 0.9640
-0.4510 1.9823 0.9673
-0.5217 1.9633 0.9706
-0.5917 1.9416 0.9738
-0.6609 1.9175 0.9770
-0.7291 1.8909 0.9802
-0.7964 1.8619 0.9833
-0.8625 1.8304 0.9863
-2.2348 4.3288 2.3836
-2.3813 4.2293 2.3836
-2.5239 4.1252 2.3836
-2.6624 4.0167 2.3836
-2.7968 3.9039 2.3836
-2.9270 3.7870 2.3836
-3.0528 3.6661 2.3836
-3.1742 3.5415 2.3836
-3.2910 3.4131 2.3836
-3.4031 3.2813 2.3836
-3.5106 3.1462 2.3836
-3.6132 3.0079 2.3836
-3.7110 2.8666 2.3836
-3.8038 2.7225 2.3836
-3.8916 2.5756 2.3836
-3.9744 2.4263 2.3836
-4.0520 2.2745 2.3836
-4.1245 2.1206 2.3836
-4.1917 1.9647 2.3836
-4.2537 1.8068 2.3836
-4.3105 1.6472 2.3836
-4.3618 1.4860 2.3836
-4.4078 1.3235 2.3836
-4.4485 1.1597 2.3836
-4.4837 0.9948 2.3836
-4.5134 0.8289 2.3836
-4.5378 0.6623 2.3836
-4.5566 0.4951 2.3836
-4.5700 0.3274 2.3836
-4.5779 0.1594 2.3836
-4.5803 -0.0088 2.3836
-4.5772 -0.1769 2.3836
-4.5686 -0.3448 2.3836
-4.5545 -0.5125 2.3836
-4.5350 -0.6796 2.3836
-4.5100 -0.8461 2.3836
-4.4795 -1.0119 2.3836
-4.4436 -1.1766 2.3836
-4.4023 -1.3402 2.3836
-4.3557 -1.5026 2.3836
-4.3036 -1.6635 2.3836
-4.2463 -1.8229 2.3836
-4.1836 -1.9804 2.3836
-4.1157 -2.1361 2.3836
-4.0426 -2.2897 2.3836
-3.9644 -2.4411 2.3836
-3.8810 -2.5901 2.3836
-3.7926 -2.7365 2.3836
-3.6992 -2.8803 2.3836
-3.6009 -3.0212 2.3836
-3.4977 -3.1590 2.3836
-3.3897 -3.2937 2.3836
-3.2771 -3.4250 2.3836
-3.1598 -3.5528 2.3836
-3.0379 -3.6770 2.3836
-2.9117 -3.7973 2.3836
-2.7810 -3.9136 2.3836
-2.6462 -4.0259 2.3836
-2.5072 -4.1338 2.3836
-2.3642 -4.2373 2.3836
-2.2174 -4.3362 2.3836
-2.0667 -4.4303 2.3836
-1.9125 -4.5195 2.3836
-1.7547 -4.6037 2.3836
-1.5937 -4.6828 2.3836
-1.4294 -4.7564 2.3836
-1.2621 -4.8246 2.3836
-1.0920 -4.8872 2.3836
-0.9192 -4.9441 2.3836
-0.7439 -4.9951 2.3836
-0.5663 -5.0401 2.3836
-0.3865 -5.0790 2.3836
-0.2049 -5.1116 2.3836
-0.0215 -5.1380 2.3836
0.1633 -5.1579 2.3836
0.3494 -5.1712 2.3836
0.5366 -5.1780 2.3836
0.7245 -5.1780 2.3836
0.9130 -5.1713 2.3836
1.1018 -5.1578 2.3836
1.2907 -5.1372 2.3836
1.4793 -5.1100 2.3836
1.6675 -5.0756 2.3836
1.8550 -5.0343 2.3836
2.0415 -4.9859 2.3836
2.2266 -4.9306 2.3836
2.4103 -4.8682 2.3836
2.5920 -4.7988 2.3836
2.7716 -4.7224 2.3836
2.9488 -4.6391 2.3836
3.1233 -4.5490 2.3836
3.2948 -4.4521 2.3836
3.4629 -4.3484 2.3836
3.6275 -4.2382 2.3836
3.7882 -4.1214 2.3836
3.9447 -3.9986 2.3836
4.0969 -3.8689 2.3836
4.2443 -3.7334 2.3836
4.3867 -3.5921 2.3836
4.5239 -3.4449 2.3836
4.6555 -3.2923 2.3836
4.7813 -3.1343 2.3836
4.9011 -2.9713 2.3836
5.0147 -2.8033 2.3836
5.1218 -2.6307 2.3836
5.2222 -2.4538 2.3836
5.3157 -2.2728 2.3836
5.4021 -2.0879 2.3836
5.4812 -1.8996 2.3836
5.5529 -1.7080 2.3836
5.6171 -1.5136 2.3836
5.6734 -1.3166 2.3836
5.7220 -1.1173 2.3836
5.7626 -0.9161 2.3836
5.7952 -0.7133 2.3836
5.8197 -0.5093 2.3836
5.8360 -0.3045 2.3836
5.8442 -0.0991 2.3836
5.8441 0.1065 2.3836
5.8359 0.3119 2.3836
5.8194 0.5167 2.3836
5.7948 0.7207 2.3836
5.7621 0.9235 2.3836
5.7214 1.1247 2.3836
5.6727 1.3239 2.3836
5.6162 1.5210 2.3836
5.5520 1.7154 2.3836
5.4801 1.9070 2.3836
5.4009 2.0953 2.3836
5.3144 2.2801 2.3836
5.2207 2.4611 2.3836
5.1202 2.6380 2.3836
5.0130 2.8106 2.3836
4.8992 2.9784 2.3836
4.7793 3.1416 2.3836
4.6533 3.2995 2.3836
4.5215 3.4521 2.3836
4.3842 3.5991 2.3836
4.2417 3.7405 2.3836
4.0941 3.8759 2.3836
3.9418 4.0052 2.3836
3.7851 4.1282 2.3836
3.6242 4.2449 2.3836
3.4595 4.3551 2.3836
3.2912 4.4586 2.3836
3.1195 4.5554 2.3836
2.9449 4.6455 2.3836
2.7675 4.7286 2.3836
2.5878 4.8049 2.3836
0.9117 1.8471 0.9033
0.8451 1.8773 0.9065
0.7773 1.9051 0.9097
0.7087 1.9304 0.9130
0.6391 1.9532 0.9163
0.5688 1.9735 0.9196
0.4977 1.9912 0.9230
0.4261 2.0064 0.9263
0.3540 2.0189 0.9297
0.2814 2.0289 0.9332
0.2086 2.0362 0.9366
0.1355 2.0409 0.9400
0.0623 2.0430 0.9434
-0.0109 2.0424 0.9469
-0.0841 2.0392 0.9503
-0.1571 2.0333 0.9537
-0.2298 2.0248 0.9571
-0.3022 2.0137 0.9604
-0.3742 2.0000 0.9638
-0.4456 1.9837 0.9671
-0.5164 1.9648 0.9704
-0.5864 1.9434 0.9736
-0.6556 1.9195 0.9768
-0.7240 1.8930 0.9799
-0.7913 1.8642 0.9830
-0.8575 1.8329 0.9861
-2.2234 4.3362 2.3836
-2.3702 4.2371 2.3836
-2.5131 4.1333 2.3836
-2.6520 4.0251 2.3836
-2.7868 3.9127 2.3836
-2.9173 3.7961 2.3836
-3.0434 3.6755 2.3836
-3.1651 3.5511 2.3836
-3.2822 3.4230 2.3836
-3.3947 3.2915 2.3836
-3.5025 3.1566 2.3836
-3.6056 3.0186 2.3836
-3.7037 2.8775 2.3836
-3.7969 2.7335 2.3836
-3.8851 2.5869 2.3836
-3.9682 2.4377 2.3836
-4.0463 2.2862 2.3836
-4.1192 2.1324 2.3836
-4.1868 1.9766 2.3836
-4.2492 1.8189 2.3836
-4.3063 1.6594 2.3836
-4.3581 1.4984 2.3836
-4.4045 1.3359 2.3836
-4.4456 1.1722 2.3836
-4.4812 1.0074 2.3836
4.5891 2.8197 2.3836
4.4762 2.9724 2.3836
4.3577 3.1204 2.3836
4.2337 3.2634 2.3836
4.1046 3.4012 2.3836
3.9706 3.5336 2.3836
3.8319 3.6606 2.3836
3.6887 3.7818 2.3836
3.5414 3.8972 2.3836
3.3902 4.0066 2.3836
3.2354 4.1100 2.3836
3.0772 4.2072 2.3836
2.9159 4.2981 2.3836
2.7517 4.3826 2.3836
2.5850 4.4607 2.3836
0.9151 1.7168 0.9029
0.8531 1.7472 0.9058
0.7901 1.7753 0.9088
0.7260 1.8011 0.9119
0.6611 1.8246 0.9150
0.5953 1.8458 0.9181
0.5289 1.8645 0.9212
0.4618 1.8809 0.9244
0.3941 1.8948 0.9276
0.3260 1.9063 0.9308
0.2575 1.9153 0.9341
0.1887 1.9218 0.9373
0.1198 1.9259 0.9405
0.0507 1.9274 0.9438
-0.0184 1.9265 0.9470
-0.0874 1.9231 0.9502
-0.1562 1.9172 0.9534
-0.2248 1.9088 0.9566
-0.2930 1.8979 0.9598
-0.3608 1.8846 0.9629
-0.4281 1.8688 0.9660
-0.4948 1.8507 0.9691
-0.5608 1.8301 0.9722
-0.6259 1.8072 0.9752
-0.6903 1.7819 0.9781
-0.7536 1.7543 0.9810
-0.8160 1.7245 0.9839
-2.1190 4.0884 2.3836
-2.2577 3.9946 2.3836
-2.3927 3.8964 2.3836
-2.5240 3.7939 2.3836
-2.6513 3.6874 2.3836
-2.7746 3.5770 2.3836
-2.8938 3.4627 2.3836
-3.0088 3.3448 2.3836
-3.1195 3.2235 2.3836
-3.2258 3.0988 2.3836
-3.3277 2.9709 2.3836
-3.4250 2.8400 2.3836
-3.5176 2.7061 2.3836
-3.6056 2.5696 2.3836
-3.6888 2.4305 2.3836
-3.7673 2.2890 2.3836
-3.8408 2.1452 2.3836
-3.9095 1.9993 2.3836
-3.9732 1.8514 2.3836
-4.0319 1.7017 2.3836
-4.0855 1.5504 2.3836
-4.1341 1.3975 2.3836
-4.1775 1.2433 2.3836
-4.2159 1.0879 2.3836
-4.2490 0.9315 2.3836
-4.2770 0.7742 2.3836
-4.2998 0.6161 2.3836
-4.3174 0.4575 2.3836
-4.3297 0.2984 2.3836
-4.3369 0.1391 2.3836
-4.3388 -0.0204 2.3836
-4.3354 -0.1799 2.3836
-4.3268 -0.3392 2.3836
-4.3130 -0.4982 2.3836
-4.2940 -0.6566 2.3836
-4.2698 -0.8145 2.3836
-4.2403 -0.9716 2.3836
-4.2057 -1.1277 2.3836
-4.1660 -1.2827 2.3836
-4.1211 -1.4365 2.3836
-4.0712 -1.5889 2.3836
-4.0161 -1.7398 2.3836
-3.9561 -1.8890 2.3836
-3.8910 -2.0363 2.3836
-3.8210 -2.1816 2.3836
-3.7461 -2.3247 2.3836
-3.6664 -2.4655 2.3836
-3.5819 -2.6039 2.3836
-3.4927 -2.7396 2.3836
-3.3988 -2.8726 2.3836
-3.3003 -3.0026 2.3836
-3.1972 -3.1296 2.3836
-3.0898 -3.2534 2.3836
-2.9779 -3.3737 2.3836
-2.8618 -3.4906 2.3836
-2.7416 -3.6037 2.3836
-2.6172 -3.7131 2.3836
-2.4889 -3.8184 2.3836
-2.3567 -3.9197 2.3836
-2.2207 -4.0167 2.3836
-2.0811 -4.1092 2.3836
-1.9380 -4.1972 2.3836
-1.7915 -4.2806 2.3836
-1.6418 -4.3591 2.3836
-1.4889 -4.4326 2.3836
-1.3332 -4.5011 2.3836
-1.1746 -4.5643 2.3836
-1.0134 -4.6222 2.3836
-0.8497 -4.6746 2.3836
-0.6838 -4.7215 2.3836
-0.5157 -4.7626 2.3836
-0.3458 -4.7979 2.3836
-0.1741 -4.8274 2.3836
-0.0009 -4.8508 2.3836
0.1737 -4.8681 2.3836
0.3493 -4.8793 2.3836
0.5258 -4.8842 2.3836
0.7030 -4.8827 2.3836
0.8807 -4.8749 2.3836
1.0585 -4.8607 2.3836
1.2363 -4.8398 2.3836
1.4138 -4.8126 2.3836
1.5908 -4.7789 2.3836
1.7670 -4.7384 2.3836
1.9422 -4.6913 2.3836
2.1160 -4.6377 2.3836
2.2883 -4.5776 2.3836
2.4588 -4.5109 2.3836
2.6272 -4.4376 2.3836
2.7932 -4.3580 2.3836
2.9566 -4.2719 2.3836
3.1171 -4.1794 2.3836
3.2744 -4.0807 2.3836
3.4283 -3.9759 2.3836
3.5785 -3.8650 2.3836
3.7247 -3.7482 2.3836
3.8667 -3.6255 2.3836
4.0042 -3.4973 2.3836
4.1370 -3.3635 2.3836
4.2648 -3.2245 2.3836
4.3874 -3.0803 2.3836
4.5045 -2.9312 2.3836
4.6160 -2.7774 2.3836
4.7216 -2.6190 2.3836
4.8211 -2.4565 2.3836
4.9143 -2.2898 2.3836
5.0010 -2.1195 2.3836
5.0811 -1.9456 2.3836
5.1544 -1.7685 2.3836
5.2207 -1.5884 2.3836
5.2800 -1.4057 2.3836
5.3320 -1.2207 2.3836
5.3767 -1.0336 2.3836
5.4140 -0.8447 2.3836
5.4438 -0.6544 2.3836
5.4660 -0.4630 2.3836
5.4807 -0.2709 2.3836
5.4877 -0.0782 2.3836
5.4870 0.1146 2.3836
5.4787 0.3072 2.3836
5.4628 0.4992 2.3836
5.4393 0.6905 2.3836
5.4083 0.8806 2.3836
5.3697 1.0692 2.3836
5.3238 1.2560 2.3836
5.2706 1.4407 2.3836
5.2101 1.6230 2.3836
5.1426 1.8026 2.3836
5.0681 1.9792 2.3836
4.9869 2.1526 2.3836
4.8990 2.3223 2.3836
4.8047 2.4883 2.3836
4.7041 2.6503 2.3836
4.5975 2.8079 2.3836
4.4850 2.9610 2.3836
4.3669 3.1093 2.3836
4.2433 3.2527 2.3836
4.1146 3.3909 2.3836
3.9810 3.5238 2.3836
3.8426 3.6511 2.3836
3.6998 3.7728 2.3836
3.5528 3.8886 2.3836
3.4019 3.9985 2.3836
3.2473 4.1023 2.3836
3.0893 4.2000 2.3836
2.9282 4.2914 2.3836
2.7643 4.3764 2.3836
2.5977 4.4550 2.3836
0.9198 1.7144 0.9027
0.8579 1.7449 0.9056
0.7949 1.7732 0.9086
0.7309 1.7992 0.9117
0.6661 1.8229 0.9147
0.6004 1.8442 0.9179
0.5340 1.8632 0.9210
0.4669 1.8797 0.9242
0.3993 1.8938 0.9274
0.3312 1.9055 0.9306
0.2628 1.9147 0.9338
0.1940 1.9214 0.9370
0.1250 1.9257 0.9403
0.0560 1.9274 0.9435
-0.0131 1.9267 0.9467
-0.0821 1.9234 0.9500
-0.1510 1.9177 0.9532
-0.2196 1.9095 0.9564
-0.2879 1.8988 0.9595
-0.3557 1.8857 0.9627
-0.4230 1.8701 0.9658
-0.4897 1.8521 0.9689
-0.5558 1.8318 0.9719
-0.6210 1.8090 0.9750
-0.6854 1.7839 0.9779
-0.7488 1.7565 0.9808
-0.8112 1.7268 0.9837
-0.8725 1.6949 0.9865
-2.2473 4.0019 2.3836
-2.3826 3.9040 2.3836
-2.5141 3.8019 2.3836
-2.6417 3.6957 2.3836
-2.7654 3.5855 2.3836
-2.8849 3.4716 2.3836
-3.0002 3.3539 2.3836
-3.1113 3.2328 2.3836
-3.2179 3.1084 2.3836
-3.3201 2.9807 2.3836
-3.4177 2.8500 2.3836
-3.5107 2.7164 2.3836
-3.5991 2.5801 2.3836
-3.6827 2.4412 2.3836
-3.7615 2.2998 2.3836
-3.8354 2.1562 2.3836
-3.9044 2.0104 2.3836
-3.9685 1.8627 2.3836
-4.0276 1.7132 2.3836
-4.0816 1.5620 2.3836
-4.1306 1.4092 2.3836
-4.1744 1.2551 2.3836
-4.2131 1.0998 2.3836
-4.2467 0.9435 2.3836
-4.2751 0.7862 2.3836
-4.2983 0.6282 2.3836
-4.3162 0.4696 2.3836
-4.3290 0.3105 2.3836
-4.3365 0.1512 2.3836
-4.3388 -0.0083 2.3836
-4.3358 -0.1678 2.3836
-4.3277 -0.3271 2.3836
-4.3143 -0.4861 2.3836
-4.2956 -0.6446 2.3836
-4.2718 -0.8025 2.3836
-4.2428 -0.9596 2.3836
-4.2086 -1.1158 2.3836
-4.1692 -1.2710 2.3836
-4.1247 -1.4249 2.3836
-4.0751 -1.5774 2.3836
-4.0205 -1.7284 2.3836
-3.9608 -1.8777 2.3836
-3.8961 -2.0251 2.3836
-3.8265 -2.1706 2.3836
-3.7520 -2.3139 2.3836
-3.6727 -2.4549 2.3836
-3.5885 -2.5934 2.3836
-3.4996 -2.7294 2.3836
-3.4061 -2.8626 2.3836
-3.3079 -2.9928 2.3836
-3.2052 -3.1201 2.3836
-3.0981 -3.2440 2.3836
-2.9866 -3.3647 2.3836
-2.8708 -3.4818 2.3836
-2.7509 -3.5952 2.3836
-2.6268 -3.7049 2.3836
-2.4988 -3.8105 2.3836
-2.3669 -3.9121 2.3836
-2.2312 -4.0094 2.3836
-2.0918 -4.1023 2.3836
-1.9490 -4.1907 2.3836
-1.8028 -4.2744 2.3836
-1.6533 -4.3533 2.3836
-1.5007 -4.4272 2.3836
-1.3451 -4.4960 2.3836
-1.1868 -4.5597 2.3836
-1.0258 -4.6180 2.3836
-0.8623 -4.6708 2.3836
-0.6965 -4.7181 2.3836
-0.5286 -4.7597 2.3836
-0.3588 -4.7954 2.3836
-0.1872 -4.8253 2.3836
-0.0141 -4.8492 2.3836
0.1603 -4.8670 2.3836
0.3359 -4.8787 2.3836
0.5124 -4.8840 2.3836
0.6895 -4.8831 2.3836
0.8671 -4.8757 2.3836
1.0450 -4.8620 2.3836
1.2228 -4.8417 2.3836
1.4003 -4.8149 2.3836
1.5773 -4.7816 2.3836
1.7536 -4.7417 2.3836
1.9289 -4.6952 2.3836
2.1028 -4.6421 2.3836
2.2753 -4.5824 2.3836
2.4459 -4.5162 2.3836
2.6144 -4.4435 2.3836
2.7807 -4.3642 2.3836
2.9443 -4.2786 2.3836
3.1050 -4.1867 2.3836
3.2625 -4.0885 2.3836
3.4167 -3.9841 2.3836
3.5672 -3.8736 2.3836
3.7137 -3.7573 2.3836
3.8560 -3.6351 2.3836
3.9939 -3.5072 2.3836
4.1270 -3.3739 2.3836
4.2552 -3.2353 2.3836
4.3782 -3.0915 2.3836
4.4958 -2.9427 2.3836
4.6077 -2.7892 2.3836
4.7138 -2.6313 2.3836
4.8137 -2.4690 2.3836
4.9074 -2.3027 2.3836
4.9947 -2.1326 2.3836
5.0753 -1.9590 2.3836
5.1491 -1.7821 2.3836
5.2159 -1.6022 2.3836
5.2757 -1.4197 2.3836
5.3283 -1.2349 2.3836
5.3735 -1.0479 2.3836
5.4114 -0.8591 2.3836
5.4418 -0.6690 2.3836
5.4646 -0.4776 2.3836
5.4798 -0.2855 2.3836
5.4874 -0.0929 2.3836
5.4873 0.0999 2.3836
5.4796 0.2925 2.3836
5.4643 0.4846 2.3836
5.4414 0.6760 2.3836
5.4109 0.8661 2.3836
5.3729 1.0549 2.3836
5.3276 1.2418 2.3836
5.2749 1.4267 2.3836
5.2150 1.6092 2.3836
5.1480 1.7890 2.3836
5.0740 1.9659 2.3836
4.9933 2.1395 2.3836
4.9060 2.3095 2.3836
4.8121 2.4758 2.3836
4.7120 2.6381 2.3836
4.6058 2.7960 2.3836
4.4938 2.9495 2.3836
4.3761 3.0982 2.3836
4.2529 3.2419 2.3836
4.1246 3.3805 2.3836
3.9913 3.5138 2.3836
3.8533 3.6416 2.3836
3.7108 3.7637 2.3836
3.5641 3.8800 2.3836
3.4135 3.9904 2.3836
3.2592 4.0947 2.3836
3.1015 4.1928 2.3836
2.9406 4.2846 2.3836
2.7769 4.3701 2.3836
2.6105 4.4492 2.3836
0.9245 1.7120 0.9024
0.8626 1.7427 0.9054
0.7997 1.7711 0.9084
0.7358 1.7973 0.9114
0.6710 1.8212 0.9145
0.6054 1.8427 0.9176
0.5390 1.8618 0.9208
0.4720 1.8785 0.9239
0.4045 1.8928 0.9271
0.3364 1.9047 0.9303
0.2680 1.9141 0.9336
0.1992 1.9210 0.9368
0.1303 1.9254 0.9400
0.0612 1.9274 0.9433
-0.0078 1.9268 0.9465
-0.0769 1.9238 0.9497
-0.1457 1.9182 0.9529
-0.2144 1.9102 0.9561
-0.2827 1.8997 0.9593
-0.3505 1.8868 0.9625
-0.4179 1.8714 0.9656
-0.4847 1.8536 0.9687
-0.5508 1.8334 0.9717
-0.6161 1.8108 0.9747
-0.6805 1.7859 0.9777
-0.7440 1.7587 0.9806
-0.8065 1.7292 0.9835
-0.8679 1.6975 0.9863
-2.2368 4.0092 2.3836
-2.3724 3.9116 2.3836
-2.5042 3.8098 2.3836
-2.6322 3.7039 2.3836
-2.7561 3.5940 2.3836
-2.8759 3.4804 2.3836
-2.9916 3.3630 2.3836
-3.1030 3.2422 2.3836
-3.2099 3.1180 2.3836
-3.3125 2.9906 2.3836
-3.4104 2.8601 2.3836
-3.5038 2.7267 2.3836
-3.5925 2.5906 2.3836
-3.6765 2.4519 2.3836
-3.7556 2.3107 2.3836
-3.8299 2.1672 2.3836
-3.8993 2.0216 2.3836
-3.9638 1.8740 2.3836
-4.0232 1.7246 2.3836
-4.0777 1.5735 2.3836
-4.1270 1.4209 2.3836
-4.1712 1.2669 2.3836
-4.2104 1.1117 2.3836
-4.2443 0.9554 2.3836
4.3252 2.6536 2.3836
4.2194 2.7976 2.3836
4.1083 2.9373 2.3836
3.9922 3.0722 2.3836
3.8711 3.2024 2.3836
3.7455 3.3276 2.3836
3.6153 3.4476 2.3836
3.4810 3.5623 2.3836
3.3428 3.6716 2.3836
3.2008 3.7753 2.3836
3.0554 3.8733 2.3836
2.9068 3.9656 2.3836
2.7552 4.0519 2.3836
2.6008 4.1323 2.3836
0.9250 1.5922 0.9022
0.8675 1.6230 0.9049
0.8089 1.6517 0.9077
0.7493 1.6782 0.9106
0.6887 1.7027 0.9134
0.6273 1.7249 0.9164
0.5652 1.7448 0.9193
0.5023 1.7626 0.9223
0.4389 1.7780 0.9253
0.3750 1.7912 0.9283
0.3106 1.8020 0.9313
0.2458 1.8106 0.9344
0.1808 1.8167 0.9374
0.1156 1.8206 0.9405
0.0503 1.8220 0.9436
-0.0150 1.8211 0.9466
-0.0802 1.8179 0.9497
-0.1453 1.8123 0.9527
-0.2101 1.8044 0.9557
-0.2746 1.7941 0.9587
-0.3387 1.7815 0.9617
-0.4023 1.7666 0.9646
-0.4653 1.7494 0.9675
-0.5277 1.7300 0.9704
-0.5893 1.7083 0.9733
-0.6501 1.6844 0.9761
-0.7100 1.6584 0.9788
-0.7689 1.6302 0.9815
-0.8268 1.5999 0.9842
-2.1343 3.7864 2.3836
-2.2626 3.6939 2.3836
-2.3874 3.5973 2.3836
-2.5085 3.4968 2.3836
-2.6258 3.3925 2.3836
-2.7392 3.2845 2.3836
-2.8487 3.1731 2.3836
-2.9540 3.0583 2.3836
-3.0553 2.9403 2.3836
-3.1522 2.8193 2.3836
-3.2449 2.6953 2.3836
-3.3332 2.5686 2.3836
-3.4170 2.4392 2.3836
-3.4964 2.3074 2.3836
-3.5711 2.1732 2.3836
-3.6413 2.0368 2.3836
-3.7067 1.8985 2.3836
-3.7675 1.7581 2.3836
-3.8234 1.6161 2.3836
-3.8746 1.4725 2.3836
-3.9210 1.3274 2.3836
-3.9624 1.1810 2.3836
-3.9990 1.0334 2.3836
-4.0306 0.8849 2.3836
-4.0574 0.7355 2.3836
-4.0791 0.5853 2.3836
-4.0959 0.4346 2.3836
-4.1077 0.2835 2.3836
-4.1145 0.1321 2.3836
-4.1163 -0.0194 2.3836
-4.1131 -0.1709 2.3836
-4.1049 -0.3222 2.3836
-4.0917 -0.4732 2.3836
-4.0736 -0.6238 2.3836
-4.0505 -0.7737 2.3836
-4.0224 -0.9229 2.3836
-3.9894 -1.0712 2.3836
-3.9514 -1.2184 2.3836
-3.9086 -1.3644 2.3836
-3.8610 -1.5091 2.3836
-3.8085 -1.6522 2.3836
-3.7512 -1.7938 2.3836
-3.6892 -1.9335 2.3836
-3.6224 -2.0713 2.3836
-3.5510 -2.2071 2.3836
-3.4750 -2.3406 2.3836
-3.3945 -2.4717 2.3836
-3.3095 -2.6003 2.3836
-3.2200 -2.7262 2.3836
-3.1262 -2.8494 2.3836
-3.0281 -2.9695 2.3836
-2.9258 -3.0866 2.3836
-2.8193 -3.2004 2.3836
-2.7088 -3.3109 2.3836
-2.5944 -3.4178 2.3836
-2.4761 -3.5210 2.3836
-2.3541 -3.6204 2.3836
-2.2284 -3.7159 2.3836
-2.0992 -3.8073 2.3836
-1.9666 -3.8945 2.3836
-1.8306 -3.9773 2.3836
-1.6915 -4.0556 2.3836
-1.5494 -4.1294 2.3836
-1.4044 -4.1983 2.3836
-1.2566 -4.2625 2.3836
-1.1063 -4.3216 2.3836
-0.9535 -4.3757 2.3836
-0.7984 -4.4245 2.3836
-0.6412 -4.4681 2.3836
-0.4820 -4.5062 2.3836
-0.3211 -4.5389 2.3836
-0.1587 -4.5659 2.3836
0.0052 -4.5872 2.3836
0.1702 -4.6027 2.3836
0.3362 -4.6124 2.3836
0.5030 -4.6162 2.3836
0.6704 -4.6140 2.3836
0.8381 -4.6057 2.3836
1.0060 -4.5914 2.3836
1.1737 -4.5709 2.3836
1.3412 -4.5443 2.3836
1.5080 -4.5115 2.3836
1.6741 -4.4725 2.3836
1.8391 -4.4273 2.3836
2.0028 -4.3759 2.3836
2.1650 -4.3184 2.3836
2.3254 -4.2547 2.3836
2.4838 -4.1849 2.3836
2.6400 -4.1090 2.3836
2.7936 -4.0271 2.3836
2.9444 -3.9393 2.3836
3.0922 -3.8456 2.3836
3.2367 -3.7462 2.3836
3.3776 -3.6412 2.3836
3.5149 -3.5305 2.3836
3.6481 -3.4145 2.3836
3.7771 -3.2933 2.3836
3.9016 -3.1669 2.3836
4.0214 -3.0355 2.3836
4.1363 -2.8994 2.3836
4.2460 -2.7587 2.3836
4.3505 -2.6136 2.3836
4.4493 -2.4644 2.3836
4.5425 -2.3111 2.3836
4.6297 -2.1542 2.3836
4.7109 -1.9937 2.3836
4.7859 -1.8300 2.3836
4.8544 -1.6633 2.3836
4.9165 -1.4938 2.3836
4.9719 -1.3220 2.3836
5.0205 -1.1478 2.3836
5.0623 -0.9718 2.3836
5.0972 -0.7942 2.3836
5.1250 -0.6153 2.3836
5.1458 -0.4353 2.3836
5.1595 -0.2546 2.3836
5.1661 -0.0735 2.3836
5.1655 0.1077 2.3836
5.1577 0.2888 2.3836
5.1428 0.4694 2.3836
5.1208 0.6492 2.3836
5.0918 0.8280 2.3836
5.0558 1.0054 2.3836
5.0128 1.1811 2.3836
4.9630 1.3548 2.3836
4.9065 1.5264 2.3836
4.8433 1.6954 2.3836
4.7736 1.8617 2.3836
4.6976 2.0249 2.3836
4.6154 2.1848 2.3836
4.5271 2.3412 2.3836
4.4329 2.4938 2.3836
4.3331 2.6424 2.3836
4.2277 2.7868 2.3836
4.1170 2.9268 2.3836
4.0012 3.0621 2.3836
3.8805 3.1927 2.3836
3.7552 3.3182 2.3836
3.6254 3.4386 2.3836
3.4914 3.5538 2.3836
3.3535 3.6635 2.3836
3.2118 3.7676 2.3836
3.0666 3.8661 2.3836
2.9182 3.9587 2.3836
2.7668 4.0455 2.3836
2.6127 4.1264 2.3836
0.9294 1.5898 0.9019
0.8719 1.6207 0.9047
0.8134 1.6496 0.9075
0.7538 1.6763 0.9103
0.6934 1.7009 0.9132
0.6320 1.7232 0.9161
0.5699 1.7434 0.9191
0.5072 1.7613 0.9221
0.4438 1.7769 0.9251
0.3798 1.7903 0.9281
0.3155 1.8013 0.9311
0.2508 1.8100 0.9342
0.1858 1.8163 0.9372
0.1206 1.8203 0.9403
0.0553 1.8220 0.9433
-0.0100 1.8213 0.9464
-0.0752 1.8182 0.9494
-0.1403 1.8128 0.9525
-0.2052 1.8051 0.9555
-0.2697 1.7950 0.9585
-0.3339 1.7826 0.9615
-0.3975 1.7678 0.9644
-0.4606 1.7508 0.9673
-0.5230 1.7316 0.9702
-0.5847 1.7101 0.9730
-0.6455 1.6863 0.9758
-0.7055 1.6604 0.9786
-0.7645 1.6324 0.9813
-0.8224 1.6023 0.9840
-2.1244 3.7933 2.3836
-2.2530 3.7011 2.3836
-2.3780 3.6048 2.3836
-2.4994 3.5045 2.3836
-2.6170 3.4005 2.3836
-2.7307 3.2929 2.3836
-2.8405 3.1817 2.3836
-2.9462 3.0672 2.3836
-3.0477 2.9494 2.3836
-3.1450 2.8286 2.3836
-3.2380 2.7049 2.3836
-3.3266 2.5783 2.3836
-3.4108 2.4492 2.3836
-3.4905 2.3175 2.3836
-3.5656 2.1835 2.3836
-3.6361 2.0473 2.3836
-3.7019 1.9091 2.3836
-3.7630 1.7689 2.3836
-3.8193 1.6270 2.3836
-3.8709 1.4835 2.3836
-3.9176 1.3385 2.3836
-3.9594 1.1922 2.3836
-3.9964 1.0447 2.3836
-4.0284 0.8962 2.3836
-4.0555 0.7469 2.3836
-4.0776 0.5968 2.3836
-4.0948 0.4461 2.3836
-4.1070 0.2950 2.3836
-4.1141 0.1436 2.3836
-4.1163 -0.0079 2.3836
-4.1135 -0.1594 2.3836
-4.1057 -0.3107 2.3836
-4.0929 -0.4617 2.3836
-4.0751 -0.6123 2.3836
-4.0524 -0.7623 2.3836
-4.0247 -0.9115 2.3836
-3.9921 -1.0599 2.3836
-3.9545 -1.2072 2.3836
-3.9121 -1.3533 2.3836
-3.8648 -1.4981 2.3836
-3.8126 -1.6414 2.3836
-3.7557 -1.7831 2.3836
-3.6941 -1.9229 2.3836
-3.6277 -2.0609 2.3836
-3.5566 -2.1968 2.3836
-3.4810 -2.3305 2.3836
-3.4008 -2.4618 2.3836
-3.3161 -2.5906 2.3836
-3.2270 -2.7168 2.3836
-3.1335 -2.8401 2.3836
-3.0357 -2.9605 2.3836
-2.9337 -3.0778 2.3836
-2.8276 -3.1919 2.3836
-2.7174 -3.3026 2.3836
-2.6033 -3.4098 2.3836
-2.4853 -3.5133 2.3836
-2.3635 -3.6130 2.3836
-2.2381 -3.7088 2.3836
-2.1092 -3.8005 2.3836
-1.9768 -3.8880 2.3836
-1.8411 -3.9711 2.3836
-1.7022 -4.0498 2.3836
-1.5603 -4.1239 2.3836
-1.4155 -4.1933 2.3836
-1.2680 -4.2578 2.3836
-1.1178 -4.3173 2.3836
-0.9652 -4.3718 2.3836
-0.8103 -4.4210 2.3836
-0.6532 -4.4650 2.3836
-0.4942 -4.5035 2.3836
-0.3335 -4.5366 2.3836
-0.1711 -4.5640 2.3836
-0.0073 -4.5858 2.3836
0.1576 -4.6017 2.3836
0.3236 -4.6119 2.3836
0.4903 -4.6161 2.3836
0.6577 -4.6144 2.3836
0.8254 -4.6066 2.3836
0.9932 -4.5927 2.3836
1.1610 -4.5727 2.3836
1.3284 -4.5465 2.3836
1.4953 -4.5142 2.3836
1.6615 -4.4757 2.3836
1.8266 -4.4310 2.3836
1.9904 -4.3801 2.3836
2.1527 -4.3230 2.3836
2.3133 -4.2597 2.3836
2.4719 -4.1904 2.3836
2.6282 -4.1150 2.3836
2.7819 -4.0335 2.3836
2.9330 -3.9462 2.3836
3.0810 -3.8530 2.3836
3.2258 -3.7540 2.3836
3.3670 -3.6494 2.3836
3.5046 -3.5392 2.3836
3.6381 -3.4236 2.3836
3.7674 -3.3027 2.3836
3.8923 -3.1767 2.3836
4.0124 -3.0457 2.3836
4.1277 -2.9100 2.3836
4.2379 -2.7696 2.3836
4.3427 -2.6249 2.3836
4.4420 -2.4759 2.3836
4.5356 -2.3230 2.3836
4.6233 -2.1663 2.3836
4.7050 -2.0061 2.3836
4.7804 -1.8426 2.3836
4.8494 -1.6761 2.3836
4.9120 -1.5068 2.3836
4.9679 -1.3351 2.3836
5.0171 -1.1612 2.3836
5.0594 -0.9853 2.3836
5.0948 -0.8078 2.3836
5.1232 -0.6289 2.3836
5.1445 -0.4490 2.3836
5.1587 -0.2684 2.3836
5.1658 -0.0873 2.3836
5.1658 0.0939 2.3836
5.1586 0.2750 2.3836
5.1442 0.4557 2.3836
5.1228 0.6356 2.3836
5.0943 0.8144 2.3836
5.0588 0.9919 2.3836
5.0163 1.1678 2.3836
4.9670 1.3417 2.3836
4.9110 1.5134 2.3836
4.8484 1.6826 2.3836
4.7792 1.8491 2.3836
4.7036 2.0126 2.3836
4.6219 2.1727 2.3836
4.5340 2.3294 2.3836
4.4403 2.4823 2.3836
4.3409 2.6312 2.3836
4.2359 2.7760 2.3836
4.1256 2.9163 2.3836
4.0102 3.0520 2.3836
3.8899 3.1829 2.3836
3.7649 3.3088 2.3836
3.6354 3.4297 2.3836
3.5018 3.5452 2.3836
3.3641 3.6553 2.3836
3.2227 3.7599 2.3836
3.0778 3.8588 2.3836
2.9296 3.9519 2.3836
2.7785 4.0391 2.3836
2.6245 4.1205 2.3836
0.9337 1.5873 0.9017
0.8763 1.6184 0.9045
0.8179 1.6474 0.9073
0.7584 1.6743 0.9101
0.6980 1.6991 0.9130
0.6367 1.7216 0.9159
0.5747 1.7419 0.9189
0.5120 1.7600 0.9218
0.4486 1.7758 0.9248
0.3847 1.7893 0.9278
0.3204 1.8005 0.9309
0.2557 1.8094 0.9339
0.1907 1.8159 0.9370
0.1256 1.8201 0.9400
0.0603 1.8219 0.9431
-0.0050 1.8214 0.9461
-0.0703 1.8185 0.9492
-0.1354 1.8133 0.9522
-0.2003 1.8057 0.9553
-0.2648 1.7958 0.9583
-0.3290 1.7836 0.9612
-0.3927 1.7690 0.9642
-0.4558 1.7522 0.9671
-0.5183 1.7331 0.9700
-0.5800 1.7118 0.9728
-0.6409 1.6882 0.9756
-0.7010 1.6625 0.9784
-0.7600 1.6346 0.9811
-0.8181 1.6046 0.9838
-2.1144 3.8002 2.3836
-2.2433 3.7083 2.3836
-2.3686 3.6123 2.3836
-2.4903 3.5123 2.3836
-2.6082 3.4086 2.3836
-2.7222 3.3012 2.3836
-2.8322 3.1903 2.3836
-2.9382 3.0760 2.3836
-3.0401 2.9585 2.3836
-3.1377 2.8379 2.3836
-3.2311 2.7144 2.3836
-3.3200 2.5881 2.3836
