ply
format ascii 1.0
element vertex 2175
property float32 x
property float32 y
property float32 z
end_header
-6.5211 1.4710 2.3958
-6.5729 1.2366 2.3957
-6.6162 1.0003 2.3956
-6.6511 0.7625 2.3954
-6.6775 0.5235 2.3953
-6.6952 0.2836 2.3952
-6.7043 0.0431 2.3951
-6.7048 -0.1976 2.3949
-6.6966 -0.4383 2.3948
-6.6798 -0.6787 2.3947
-6.6543 -0.9184 2.3945
-6.6202 -1.1571 2.3944
-6.5775 -1.3945 2.3943
-6.5262 -1.6304 2.3941
-6.4665 -1.8643 2.3940
-6.3983 -2.0960 2.3939
-6.3218 -2.3252 2.3937
-6.2371 -2.5516 2.3936
-6.1441 -2.7749 2.3935
-6.0432 -2.9947 2.3933
-5.9343 -3.2108 2.3932
-5.8177 -3.4229 2.3931
-5.6934 -3.6308 2.3930
-5.5616 -3.8340 2.3928
-5.4226 -4.0325 2.3927
-5.2764 -4.2258 2.3926
-5.1232 -4.4138 2.3925
-4.9633 -4.5961 2.3924
-4.7969 -4.7726 2.3922
-4.6241 -4.9430 2.3921
-4.4452 -5.1070 2.3920
-4.2604 -5.2645 2.3919
-4.0700 -5.4153 2.3918
-3.8743 -5.5590 2.3917
-3.6733 -5.6956 2.3916
-3.4676 -5.8249 2.3915
-3.2583 -5.9485 2.3922
-3.0445 -6.0644 2.3929
-2.8257 -6.1709 2.3929
-2.6032 -6.2693 2.3929
-2.3773 -6.3596 2.3929
-2.1481 -6.4417 2.3929
-1.9161 -6.5153 2.3929
-1.6816 -6.5804 2.3929
-1.4448 -6.6370 2.3929
-1.2061 -6.6849 2.3929
-0.9658 -6.7241 2.3928
-0.7242 -6.7545 2.3928
-0.4817 -6.7761 2.3928
-0.2386 -6.7889 2.3928
0.0042 -6.3335 2.3926
0.2311 -6.3289 2.3926
0.4577 -6.3160 2.3925
0.6836 -6.2949 2.3925
0.9087 -6.2656 2.3925
1.1324 -6.2282 2.3924
1.3547 -6.1826 2.3924
1.5751 -6.1290 2.3923
1.7933 -6.0675 2.3923
2.0092 -5.9980 2.3923
2.2223 -5.9208 2.3922
2.4325 -5.8359 2.3921
2.6394 -5.7434 2.3921
2.8427 -5.6436 2.3920
3.0423 -5.5364 2.3920
3.2377 -5.4221 2.3919
3.4288 -5.3008 2.3919
3.6154 -5.1727 2.3918
3.7971 -5.0379 2.3917
3.9738 -4.8967 2.3917
4.1451 -4.7492 2.3916
4.3110 -4.5957 2.3915
4.4711 -4.4364 2.3914
4.6253 -4.2714 2.3914
4.7734 -4.1010 2.3913
4.9152 -3.9254 2.3912
5.0504 -3.7448 2.3911
5.1790 -3.5596 2.3911
5.3008 -3.3700 2.3910
5.4156 -3.1761 2.3909
5.5233 -2.9783 2.3908
5.6237 -2.7769 2.3908
5.7167 -2.5720 2.3907
5.8023 -2.3641 2.3906
5.8803 -2.1532 2.3905
5.9506 -1.9399 2.3904
6.0132 -1.7242 2.3904
6.0679 -1.5065 2.3903
6.1147 -1.2871 2.3902
6.1537 -1.0662 2.3901
6.1846 -0.8442 2.3901
6.2075 -0.6213 2.3900
6.2224 -0.3979 2.3899
6.2293 -0.1742 2.3898
6.2282 0.0496 2.3898
6.2190 0.2730 2.3897
6.2019 0.4958 2.3896
6.1768 0.7178 2.3895
6.1438 0.9387 2.3895
6.1029 1.1581 2.3894
6.0542 1.3758 2.3893
5.9978 1.5916 2.3893
5.9338 1.8051 2.3892
5.8622 2.0160 2.3891
5.7831 2.2242 2.3891
5.6968 2.4294 2.3890
5.6050 2.6321 2.3898
5.5133 2.8351 2.3936
5.4093 3.0322 2.3953
5.2949 3.2235 2.3954
5.1738 3.4104 2.3955
5.0461 3.5929 2.3956
4.9121 3.7707 2.3958
4.7718 3.9435 2.3959
4.6255 4.1111 2.3960
4.4734 4.2735 2.3961
4.3157 4.4302 2.3962
4.1525 4.5812 2.3963
3.9889 4.7320 2.3993
3.8217 4.8794 2.4035
3.6469 5.0179 2.4062
3.4642 5.1458 2.4068
3.2770 5.2671 2.4074
3.0855 5.3816 2.4080
2.8900 5.4892 2.4085
2.6908 5.5896 2.4090
2.4882 5.6829 2.4095
0.9063 2.2909 0.9570
0.8234 2.3222 0.9573
0.7395 2.3506 0.9575
0.6545 2.3758 0.9576
0.5687 2.3980 0.9578
0.4821 2.4171 0.9579
0.3949 2.4331 0.9581
0.3072 2.4458 0.9582
0.2190 2.4555 0.9582
0.1306 2.4619 0.9583
0.0420 2.4651 0.9583
-0.0467 2.4652 0.9583
-0.1353 2.4620 0.9583
-0.2238 2.4556 0.9583
-0.3120 2.4461 0.9582
-0.3997 2.4333 0.9581
-0.4870 2.4174 0.9580
-0.5736 2.3984 0.9579
-0.6595 2.3762 0.9578
-0.7445 2.3510 0.9576
-0.8286 2.3227 0.9574
-0.9115 2.2914 0.9572
-2.5012 5.6836 2.4097
-2.7041 5.5903 2.4092
-2.9035 5.4898 2.4087
-3.0992 5.3822 2.4082
-3.2909 5.2676 2.4076
-3.4783 5.1462 2.4070
-3.6613 5.0181 2.4064
-3.8343 4.8770 2.4025
-4.0012 4.7289 2.3980
-4.1687 4.5822 2.3972
-4.3322 4.4309 2.3972
-4.4903 4.2739 2.3971
-4.6427 4.1113 2.3970
-4.7892 3.9433 2.3969
-4.9298 3.7702 2.3969
-5.0641 3.5920 2.3968
-5.1920 3.4092 2.3967
-5.3133 3.2218 2.3966
-5.4279 3.0301 2.3965
-5.5356 2.8344 2.3964
-5.6363 2.6348 2.3963
-5.7298 2.4318 2.3962
-5.8161 2.2254 2.3961
-5.8949 2.0160 2.3960
-5.9662 1.8038 2.3959
-6.0299 1.5891 2.3958
-6.0858 1.3722 2.3957
-6.1340 1.1534 2.3956
-6.1743 0.9328 2.3955
-6.2067 0.7109 2.3954
-6.2311 0.4879 2.3952
-6.2475 0.2640 2.3951
-6.2558 0.0396 2.3950
-6.2561 -0.1850 2.3949
-6.2483 -0.4096 2.3948
-6.2324 -0.6338 2.3946
-6.2085 -0.8575 2.3945
-6.1765 -1.0802 2.3944
-6.1365 -1.3016 2.3943
-6.0885 -1.5216 2.3941
-6.0326 -1.7398 2.3940
-5.9689 -1.9559 2.3939
-5.8973 -2.1697 2.3938
-5.8181 -2.3808 2.3936
-5.7313 -2.5890 2.3935
-5.6370 -2.7940 2.3934
-5.5353 -2.9955 2.3933
-5.4264 -3.1933 2.3932
-5.3104 -3.3871 2.3930
-5.1874 -3.5766 2.3929
-5.0576 -3.7616 2.3928
-4.9211 -3.9418 2.3927
-4.7782 -4.1170 2.3926
-4.6290 -4.2870 2.3925
-4.4737 -4.4515 2.3924
-4.3124 -4.6103 2.3923
-4.1455 -4.7633 2.3922
-3.9732 -4.9101 2.3921
-3.7956 -5.0506 2.3920
-3.6130 -5.1845 2.3919
-3.4256 -5.3119 2.3918
-3.2337 -5.4323 2.3917
-3.0389 -5.5482 2.3927
-2.8403 -5.6581 2.3941
-2.6347 -5.7539 2.3927
-2.4272 -5.8456 2.3927
-2.2165 -5.9298 2.3927
-2.0029 -6.0062 2.3927
-1.7866 -6.0748 2.3927
-1.5679 -6.1355 2.3927
-1.3472 -6.1882 2.3927
-1.1246 -6.2329 2.3927
-0.9006 -6.2694 2.3927
-0.6754 -6.2978 2.3927
-0.4493 -6.3179 2.3926
-0.2226 -6.3298 2.3926
0.0043 -6.3335 2.3926
0.2312 -6.3289 2.3926
0.4578 -6.3160 2.3925
0.6838 -6.2949 2.3925
0.9088 -6.2656 2.3925
1.1326 -6.2282 2.3924
1.3548 -6.1826 2.3924
1.5752 -6.1290 2.3923
1.7935 -6.0674 2.3923
2.0093 -5.9980 2.3923
2.2225 -5.9208 2.3922
2.4326 -5.8358 2.3921
2.6395 -5.7434 2.3921
2.8429 -5.6435 2.3920
3.0424 -5.5363 2.3920
3.2378 -5.4220 2.3919
3.4290 -5.3007 2.3919
3.6155 -5.1726 2.3918
3.7972 -5.0378 2.3917
3.9739 -4.8966 2.3917
4.1453 -4.7491 2.3916
4.3111 -4.5956 2.3915
4.4712 -4.4363 2.3914
4.6254 -4.2712 2.3914
4.7735 -4.1008 2.3913
4.9152 -3.9253 2.3912
5.0505 -3.7447 2.3911
5.1791 -3.5595 2.3911
5.3009 -3.3698 2.3910
5.4157 -3.1760 2.3909
5.5233 -2.9782 2.3908
5.6237 -2.7768 2.3908
5.7168 -2.5719 2.3907
5.8024 -2.3639 2.3906
5.8803 -2.1531 2.3905
5.9507 -1.9397 2.3904
6.0132 -1.7240 2.3904
6.0679 -1.5063 2.3903
6.1148 -1.2869 2.3902
6.1537 -1.0660 2.3901
6.1846 -0.8440 2.3901
6.2075 -0.6212 2.3900
6.2224 -0.3977 2.3899
6.2293 -0.1740 2.3898
6.2282 0.0497 2.3898
6.2190 0.2731 2.3897
6.2019 0.4960 2.3896
6.1768 0.7180 2.3895
6.1437 0.9388 2.3895
6.1028 1.1583 2.3894
6.0542 1.3760 2.3893
5.9978 1.5917 2.3893
5.9337 1.8052 2.3892
5.8621 2.0162 2.3891
5.7831 2.2244 2.3891
5.6967 2.4295 2.3890
5.6050 2.6323 2.3898
5.5132 2.8353 2.3936
5.4093 3.0324 2.3953
5.2949 3.2236 2.3954
5.1737 3.4106 2.3955
5.0461 3.5930 2.3956
4.9120 3.7708 2.3958
4.7717 3.9436 2.3959
4.6255 4.1113 2.3960
4.4733 4.2736 2.3961
4.3156 4.4303 2.3962
4.1524 4.5813 2.3963
3.9888 4.7321 2.3993
3.8216 4.8795 2.4035
3.6468 5.0180 2.4062
3.4641 5.1459 2.4068
3.2768 5.2672 2.4074
3.0854 5.3817 2.4080
2.8899 5.4892 2.4085
2.6907 5.5897 2.4090
2.4880 5.6830 2.4095
0.9063 2.2909 0.9570
0.8234 2.3223 0.9573
0.7394 2.3506 0.9575
0.6545 2.3758 0.9576
0.5686 2.3980 0.9578
0.4821 2.4171 0.9579
0.3949 2.4331 0.9581
0.3071 2.4458 0.9582
0.2190 2.4555 0.9582
0.1305 2.4619 0.9583
0.0419 2.4651 0.9583
-0.0468 2.4652 0.9583
-0.1354 2.4620 0.9583
-0.2238 2.4556 0.9583
-0.3120 2.4460 0.9582
-0.3998 2.4333 0.9581
-0.4870 2.4174 0.9580
-0.5737 2.3984 0.9579
-0.6595 2.3762 0.9578
-0.7446 2.3510 0.9576
-0.8286 2.3227 0.9574
-0.9116 2.2914 0.9572
-2.5014 5.6835 2.4097
-2.7043 5.5902 2.4092
-2.9037 5.4897 2.4087
-3.0993 5.3821 2.4082
-3.2910 5.2675 2.4076
-3.4784 5.1461 2.4070
-3.6614 5.0180 2.4064
-3.8345 4.8769 2.4025
-4.0013 4.7288 2.3980
-4.1688 4.5821 2.3972
-4.3323 4.4308 2.3972
-4.4904 4.2738 2.3971
-4.6428 4.1112 2.3970
-4.7893 3.9432 2.3969
-4.9299 3.7701 2.3969
-5.0642 3.5919 2.3968
-5.1920 3.4090 2.3967
-5.3134 3.2216 2.3966
-5.4280 3.0300 2.3965
-5.5357 2.8342 2.3964
-5.6364 2.6347 2.3963
-5.7299 2.4316 2.3962
-5.8161 2.2253 2.3961
-5.8949 2.0158 2.3960
-5.9662 1.8037 2.3959
-6.0299 1.5890 2.3958
-6.0859 1.3721 2.3957
-6.1340 1.1532 2.3956
-6.1743 0.9327 2.3955
-6.2067 0.7108 2.3954
-6.2311 0.4877 2.3952
-6.2475 0.2639 2.3951
-6.2558 0.0395 2.3950
-6.2561 -0.1852 2.3949
-6.2483 -0.4097 2.3948
-6.2324 -0.6340 2.3946
-6.2084 -0.8576 2.3945
-6.1764 -1.0803 2.3944
-6.1364 -1.3018 2.3943
-6.0884 -1.5218 2.3941
-6.0326 -1.7400 2.3940
-5.9688 -1.9561 2.3939
-5.8973 -2.1698 2.3938
-5.8181 -2.3809 2.3936
-5.7313 -2.5891 2.3935
-5.6369 -2.7941 2.3934
-5.5353 -2.9956 2.3933
-5.4263 -3.1934 2.3932
-5.3103 -3.3872 2.3930
-5.1873 -3.5767 2.3929
-5.0575 -3.7617 2.3928
-4.9210 -3.9419 2.3927
-4.7781 -4.1171 2.3926
-4.6289 -4.2871 2.3925
-4.4735 -4.4516 2.3924
-4.3123 -4.6104 2.3923
-4.1454 -4.7634 2.3922
-3.9731 -4.9102 2.3921
-3.7955 -5.0506 2.3920
-3.6128 -5.1846 2.3919
-3.4255 -5.3119 2.3918
-3.2335 -5.4324 2.3917
-3.0386 -5.5482 2.3927
-2.8402 -5.6582 2.3941
-2.6345 -5.7540 2.3927
-2.4271 -5.8457 2.3927
-2.2164 -5.9298 2.3927
-2.0027 -6.0062 2.3927
-1.7864 -6.0749 2.3927
-1.5678 -6.1356 2.3927
-1.3470 -6.1883 2.3927
-1.1245 -6.2329 2.3927
-0.9005 -6.2694 2.3927
-0.6752 -6.2978 2.3927
-0.4492 -6.3179 2.3926
-0.2225 -6.3298 2.3926
0.0038 -5.9259 2.3925
0.2161 -5.9216 2.3924
0.4281 -5.9096 2.3924
0.6395 -5.8899 2.3924
0.8500 -5.8626 2.3923
1.0594 -5.8276 2.3923
1.2673 -5.7850 2.3923
1.4735 -5.7349 2.3922
1.6778 -5.6774 2.3922
1.8797 -5.6125 2.3921
2.0792 -5.5403 2.3921
2.2758 -5.4609 2.3920
2.4695 -5.3745 2.3920
2.6597 -5.2812 2.3919
2.8465 -5.1810 2.3919
3.0294 -5.0741 2.3918
3.2083 -4.9607 2.3918
3.3829 -4.8409 2.3917
3.5531 -4.7149 2.3916
3.7184 -4.5829 2.3916
3.8789 -4.4450 2.3915
4.0342 -4.3014 2.3915
4.1841 -4.1524 2.3914
4.3286 -3.9981 2.3913
4.4672 -3.8387 2.3912
4.6000 -3.6745 2.3912
4.7267 -3.5056 2.3911
4.8472 -3.3324 2.3910
4.9613 -3.1549 2.3910
5.0689 -2.9736 2.3909
5.1698 -2.7885 2.3908
5.2640 -2.6000 2.3907
5.3513 -2.4084 2.3907
5.4315 -2.2138 2.3906
5.5047 -2.0165 2.3905
5.5707 -1.8167 2.3904
5.6294 -1.6149 2.3904
5.6808 -1.4111 2.3903
5.7248 -1.2057 2.3902
5.7615 -0.9990 2.3902
5.7906 -0.7911 2.3901
5.8122 -0.5825 2.3900
5.8264 -0.3733 2.3899
5.8330 -0.1638 2.3899
5.8321 0.0457 2.3898
5.8237 0.2549 2.3897
5.8078 0.4636 2.3897
5.7845 0.6715 2.3896
5.7537 0.8784 2.3895
5.7156 1.0839 2.3895
5.6702 1.2879 2.3894
5.6176 1.4900 2.3893
5.5577 1.6900 2.3893
5.4908 1.8876 2.3892
5.4169 2.0827 2.3892
5.3362 2.2749 2.3891
5.2558 2.4674 2.3923
5.1676 2.6567 2.3951
5.0670 2.8396 2.3952
4.9599 3.0188 2.3953
4.8465 3.1940 2.3955
4.7270 3.3650 2.3956
4.6015 3.5316 2.3957
4.4702 3.6936 2.3958
4.3333 3.8507 2.3959
4.1908 4.0028 2.3960
4.0431 4.1497 2.3961
3.8903 4.2913 2.3962
3.7325 4.4272 2.3962
3.5701 4.5575 2.3963
3.4050 4.6844 2.3977
3.2386 4.8102 2.4015
3.0669 4.9290 2.4047
2.8890 5.0383 2.4063
2.7060 5.1390 2.4068
2.5195 5.2330 2.4073
0.9248 2.1120 0.9558
0.8483 2.1441 0.9560
0.7707 2.1734 0.9562
0.6921 2.1999 0.9564
0.6126 2.2235 0.9566
0.5323 2.2443 0.9567
0.4513 2.2622 0.9569
0.3696 2.2771 0.9570
0.2875 2.2890 0.9571
0.2050 2.2980 0.9571
0.1222 2.3040 0.9572
0.0393 2.3071 0.9572
-0.0437 2.3071 0.9572
-0.1267 2.3041 0.9572
-0.2095 2.2981 0.9572
-0.2920 2.2892 0.9571
-0.3742 2.2773 0.9570
-0.4558 2.2624 0.9569
-0.5369 2.2446 0.9568
-0.6173 2.2238 0.9567
-0.6969 2.2002 0.9565
-0.7755 2.1737 0.9564
-0.8532 2.1445 0.9562
-2.3419 5.3207 2.4078
-2.5319 5.2333 2.4074
-2.7186 5.1392 2.4069
-2.9018 5.0384 2.4064
-3.0786 4.9271 2.4039
-3.2502 4.8079 2.4006
-3.4172 4.6828 2.3972
-3.5844 4.5583 2.3971
-3.7471 4.4279 2.3971
-3.9051 4.2917 2.3970
-4.0582 4.1500 2.3970
-4.2062 4.0028 2.3969
-4.3489 3.8504 2.3968
-4.4861 3.6930 2.3968
-4.6176 3.5307 2.3967
-4.7433 3.3638 2.3966
-4.8630 3.1924 2.3965
-4.9765 3.0168 2.3965
-5.0838 2.8372 2.3964
-5.1845 2.6538 2.3963
-5.2787 2.4669 2.3962
-5.3662 2.2767 2.3961
-5.4468 2.0834 2.3960
-5.5205 1.8872 2.3959
-5.5871 1.6885 2.3958
-5.6466 1.4874 2.3957
-5.6989 1.2842 2.3956
-5.7438 1.0793 2.3955
-5.7814 0.8727 2.3954
-5.8116 0.6649 2.3953
-5.8343 0.4561 2.3952
-5.8495 0.2465 2.3951
-5.8572 0.0364 2.3950
-5.8573 -0.1739 2.3948
-5.8498 -0.3842 2.3947
-5.8348 -0.5941 2.3946
-5.8122 -0.8035 2.3945
-5.7821 -1.0119 2.3944
-5.7446 -1.2192 2.3943
-5.6995 -1.4251 2.3942
-5.6470 -1.6293 2.3940
-5.5872 -1.8316 2.3939
-5.5202 -2.0316 2.3938
-5.4459 -2.2292 2.3937
-5.3645 -2.4240 2.3936
-5.2762 -2.6158 2.3935
-5.1809 -2.8044 2.3933
-5.0788 -2.9894 2.3932
-4.9701 -3.1707 2.3931
-4.8549 -3.3480 2.3930
-4.7333 -3.5211 2.3929
-4.6055 -3.6897 2.3928
-4.4717 -3.8536 2.3927
-4.3320 -4.0126 2.3926
-4.1866 -4.1665 2.3925
-4.0356 -4.3151 2.3924
-3.8794 -4.4581 2.3923
-3.7181 -4.5954 2.3922
-3.5518 -4.7268 2.3921
-3.3809 -4.8522 2.3920
-3.2055 -4.9712 2.3920
-3.0259 -5.0839 2.3919
-2.8423 -5.1900 2.3918
-2.6565 -5.2925 2.3931
-2.4654 -5.3849 2.3930
-2.2709 -5.4697 2.3926
-2.0737 -5.5484 2.3926
-1.8738 -5.6198 2.3926
-1.6715 -5.6840 2.3926
-1.4669 -5.7408 2.3926
-1.2604 -5.7900 2.3926
-1.0522 -5.8318 2.3926
-0.8426 -5.8660 2.3925
-0.6319 -5.8925 2.3925
-0.4204 -5.9113 2.3925
-0.2083 -5.9225 2.3925
0.0040 -5.9259 2.3925
0.2163 -5.9216 2.3924
0.4283 -5.9096 2.3924
0.6397 -5.8899 2.3924
0.8502 -5.8625 2.3923
1.0595 -5.8276 2.3923
1.2675 -5.7850 2.3923
1.4737 -5.7349 2.3922
1.6779 -5.6773 2.3922
1.8799 -5.6124 2.3921
2.0793 -5.5403 2.3921
2.2760 -5.4609 2.3920
2.4696 -5.3745 2.3920
2.6599 -5.2811 2.3919
2.8466 -5.1809 2.3919
3.0295 -5.0740 2.3918
3.2084 -4.9606 2.3918
3.3831 -4.8408 2.3917
3.5532 -4.7148 2.3916
3.7185 -4.5828 2.3916
3.8790 -4.4449 2.3915
4.0343 -4.3013 2.3915
4.1842 -4.1523 2.3914
4.3286 -3.9980 2.3913
4.4673 -3.8386 2.3912
4.6001 -3.6744 2.3912
4.7268 -3.5055 2.3911
4.8473 -3.3322 2.3910
4.9614 -3.1548 2.3910
5.0690 -2.9735 2.3909
5.1699 -2.7884 2.3908
5.2641 -2.5999 2.3907
5.3513 -2.4082 2.3907
5.4316 -2.2136 2.3906
5.5047 -2.0163 2.3905
5.5707 -1.8166 2.3904
5.6294 -1.6147 2.3904
5.6808 -1.4110 2.3903
5.7249 -1.2056 2.3902
5.7615 -0.9988 2.3902
5.7906 -0.7910 2.3901
5.8123 -0.5823 2.3900
5.8264 -0.3731 2.3899
5.8330 -0.1637 2.3899
5.8321 0.0458 2.3898
5.8237 0.2551 2.3897
5.8078 0.4638 2.3897
5.7845 0.6717 2.3896
5.7537 0.8785 2.3895
5.7156 1.0840 2.3895
5.6702 1.2880 2.3894
5.6175 1.4901 2.3893
5.5577 1.6901 2.3893
5.4908 1.8878 2.3892
5.4169 2.0828 2.3892
5.3361 2.2750 2.3891
5.2557 2.4675 2.3923
5.1676 2.6568 2.3951
5.0669 2.8398 2.3952
4.9598 3.0189 2.3953
4.8465 3.1941 2.3955
4.7269 3.3651 2.3956
4.6015 3.5317 2.3957
4.4701 3.6937 2.3958
4.3332 3.8508 2.3959
4.1907 4.0029 2.3960
4.0430 4.1498 2.3961
3.8902 4.2914 2.3962
3.7324 4.4273 2.3962
3.5700 4.5576 2.3963
3.4049 4.6845 2.3977
3.2385 4.8102 2.4015
3.0669 4.9291 2.4047
2.8889 5.0383 2.4063
2.7059 5.1390 2.4068
2.5193 5.2331 2.4073
0.9248 2.1120 0.9558
0.8483 2.1441 0.9560
0.7707 2.1734 0.9562
0.6921 2.1999 0.9564
0.6126 2.2236 0.9566
0.5322 2.2443 0.9567
0.4512 2.2622 0.9569
0.3696 2.2771 0.9570
0.2874 2.2890 0.9571
0.2049 2.2980 0.9571
0.1222 2.3040 0.9572
0.0392 2.3071 0.9572
-0.0438 2.3071 0.9572
-0.1267 2.3041 0.9572
-0.2095 2.2981 0.9572
-0.2921 2.2892 0.9571
-0.3742 2.2773 0.9570
-0.4559 2.2624 0.9569
-0.5370 2.2446 0.9568
-0.6173 2.2238 0.9567
-0.6969 2.2002 0.9565
-0.7756 2.1737 0.9564
-0.8533 2.1444 0.9562
-2.3420 5.3206 2.4078
-2.5320 5.2333 2.4074
-2.7187 5.1391 2.4069
-2.9018 5.0384 2.4064
-3.0787 4.9270 2.4039
-3.2503 4.8078 2.4006
-3.4173 4.6827 2.3972
-3.5845 4.5582 2.3971
-3.7472 4.4278 2.3971
-3.9052 4.2916 2.3970
-4.0583 4.1499 2.3970
-4.2063 4.0027 2.3969
-4.3490 3.8503 2.3968
-4.4862 3.6929 2.3968
-4.6177 3.5306 2.3967
-4.7434 3.3637 2.3966
-4.8631 3.1923 2.3965
-4.9766 3.0167 2.3965
-5.0838 2.8371 2.3964
-5.1846 2.6537 2.3963
-5.2788 2.4668 2.3962
-5.3662 2.2766 2.3961
-5.4468 2.0832 2.3960
-5.5205 1.8871 2.3959
-5.5871 1.6883 2.3958
-5.6466 1.4873 2.3957
-5.6989 1.2841 2.3956
-5.7438 1.0791 2.3955
-5.7814 0.8726 2.3954
-5.8116 0.6648 2.3953
-5.8343 0.4559 2.3952
-5.8495 0.2463 2.3951
-5.8572 0.0362 2.3950
-5.8573 -0.1741 2.3948
-5.8498 -0.3843 2.3947
-5.8348 -0.5943 2.3946
-5.8122 -0.8036 2.3945
-5.7821 -1.0121 2.3944
-5.7445 -1.2194 2.3943
-5.6995 -1.4253 2.3942
-5.6470 -1.6295 2.3940
-5.5872 -1.8317 2.3939
-5.5201 -2.0318 2.3938
-5.4459 -2.2293 2.3937
-5.3645 -2.4241 2.3936
-5.2761 -2.6159 2.3935
-5.1808 -2.8045 2.3933
-5.0788 -2.9895 2.3932
-4.9701 -3.1708 2.3931
-4.8548 -3.3481 2.3930
-4.7332 -3.5212 2.3929
-4.6054 -3.6898 2.3928
-4.4716 -3.8537 2.3927
-4.3319 -4.0127 2.3926
-4.1865 -4.1666 2.3925
-4.0355 -4.3152 2.3924
-3.8793 -4.4582 2.3923
-3.7179 -4.5955 2.3922
-3.5517 -4.7269 2.3921
-3.3808 -4.8522 2.3920
-3.2054 -4.9713 2.3920
-3.0258 -5.0840 2.3919
-2.8421 -5.1900 2.3918
-2.6563 -5.2925 2.3931
-2.4653 -5.3849 2.3930
-2.2707 -5.4698 2.3926
-2.0736 -5.5484 2.3926
-1.8737 -5.6199 2.3926
-1.6713 -5.6840 2.3926
-1.4668 -5.7408 2.3926
-1.2602 -5.7901 2.3926
-1.0520 -5.8318 2.3926
-0.8425 -5.8660 2.3925
-0.6318 -5.8925 2.3925
-0.4202 -5.9113 2.3925
-0.2082 -5.9225 2.3925
0.0036 -5.5614 2.3923
0.2028 -5.5574 2.3923
0.4017 -5.5462 2.3923
0.6001 -5.5278 2.3923
0.7976 -5.5021 2.3922
0.9941 -5.4693 2.3922
1.1892 -5.4294 2.3922
1.3828 -5.3825 2.3921
1.5744 -5.3285 2.3921
1.7640 -5.2677 2.3920
1.9512 -5.2000 2.3920
2.1357 -5.1256 2.3919
2.3175 -5.0446 2.3919
2.4961 -4.9570 2.3918
2.6714 -4.8630 2.3918
2.8431 -4.7628 2.3917
3.0111 -4.6565 2.3917
3.1750 -4.5441 2.3916
3.3347 -4.4260 2.3916
3.4900 -4.3021 2.3915
3.6407 -4.1728 2.3915
3.7865 -4.0381 2.3914
3.9274 -3.8983 2.3913
4.0630 -3.7535 2.3913
4.1933 -3.6040 2.3912
4.3180 -3.4499 2.3911
4.4371 -3.2915 2.3911
4.5503 -3.1290 2.3910
4.6575 -2.9625 2.3909
4.7586 -2.7923 2.3909
4.8535 -2.6186 2.3908
4.9420 -2.4417 2.3907
5.0241 -2.2618 2.3907
5.0996 -2.0792 2.3906
5.1684 -1.8940 2.3905
5.2305 -1.7065 2.3905
5.2858 -1.5170 2.3904
5.3342 -1.3257 2.3903
5.3757 -1.1329 2.3902
5.4102 -0.9388 2.3902
5.4377 -0.7436 2.3901
5.4582 -0.5477 2.3900
5.4716 -0.3513 2.3900
5.4780 -0.1545 2.3899
5.4773 0.0422 2.3898
5.4696 0.2387 2.3898
5.4548 0.4348 2.3897
5.4330 0.6300 2.3896
5.4043 0.8244 2.3896
5.3686 1.0174 2.3895
5.3261 1.2090 2.3895
5.2768 1.3989 2.3894
5.2207 1.5868 2.3894
5.1580 1.7725 2.3893
5.0887 1.9558 2.3892
5.0175 2.1384 2.3914
4.9417 2.3193 2.3944
4.8546 2.4951 2.3951
4.7601 2.6670 2.3952
4.6596 2.8354 2.3953
4.5532 3.0000 2.3954
4.4410 3.1607 2.3955
4.3231 3.3173 2.3956
4.1998 3.4695 2.3957
4.0712 3.6172 2.3958
3.9374 3.7602 2.3959
3.7987 3.8983 2.3960
3.6552 4.0313 2.3960
3.5070 4.1591 2.3961
3.3544 4.2815 2.3962
3.1976 4.3984 2.3963
3.0367 4.5097 2.3964
2.8720 4.6151 2.3964
2.7062 4.7188 2.3987
2.5373 4.8180 2.4016
2.3644 4.9105 2.4041
0.8682 1.9826 0.9549
0.7964 2.0127 0.9551
0.7236 2.0402 0.9553
0.6498 2.0650 0.9555
0.5751 2.0872 0.9556
0.4997 2.1067 0.9558
0.4236 2.1235 0.9559
0.3470 2.1375 0.9560
0.2699 2.1487 0.9561
0.1924 2.1571 0.9562
0.1147 2.1627 0.9562
0.0368 2.1656 0.9562
-0.0411 2.1656 0.9562
-0.1190 2.1628 0.9562
-0.1967 2.1572 0.9562
-0.2742 2.1488 0.9561
-0.3513 2.1376 0.9561
-0.4279 2.1236 0.9560
-0.5041 2.1069 0.9559
-0.5795 2.0874 0.9557
-0.6542 2.0653 0.9556
-0.7281 2.0404 0.9554
-0.8010 2.0129 0.9552
-0.8729 1.9828 0.9550
-2.3754 4.9090 2.4035
-2.5482 4.8163 2.4009
-2.7171 4.7167 2.3978
-2.8846 4.6158 2.3971
-3.0495 4.5103 2.3971
-3.2106 4.3989 2.3970
-3.3677 4.2819 2.3970
-3.5205 4.1593 2.3969
-3.6689 4.0313 2.3969
-3.8126 3.8981 2.3968
-3.9516 3.7598 2.3968
-4.0856 3.6165 2.3967
-4.2144 3.4686 2.3966
-4.3379 3.3161 2.3966
-4.4559 3.1592 2.3965
-4.5682 2.9981 2.3964
-4.6748 2.8332 2.3963
-4.7754 2.6644 2.3963
-4.8699 2.4921 2.3962
-4.9583 2.3165 2.3961
-5.0403 2.1377 2.3960
-5.1159 1.9561 2.3959
-5.1850 1.7718 2.3958
-5.2475 1.5851 2.3957
-5.3032 1.3962 2.3956
-5.3522 1.2054 2.3955
-5.3943 1.0129 2.3954
-5.4295 0.8189 2.3953
-5.4577 0.6237 2.3952
-5.4789 0.4276 2.3951
-5.4931 0.2308 2.3950
-5.5001 0.0335 2.3949
-5.5001 -0.1640 2.3948
-5.4930 -0.3614 2.3947
-5.4788 -0.5586 2.3946
-5.4575 -0.7551 2.3945
-5.4291 -0.9508 2.3944
-5.3937 -1.1454 2.3943
-5.3513 -1.3387 2.3942
-5.3019 -1.5304 2.3940
-5.2456 -1.7203 2.3939
-5.1826 -1.9081 2.3938
-5.1127 -2.0935 2.3937
-5.0362 -2.2763 2.3936
-4.9532 -2.4564 2.3935
-4.8636 -2.6333 2.3934
-4.7678 -2.8070 2.3933
-4.6656 -2.9771 2.3932
-4.5574 -3.1435 2.3931
-4.4432 -3.3059 2.3930
-4.3232 -3.4641 2.3929
-4.1975 -3.6179 2.3928
-4.0662 -3.7671 2.3927
-3.9297 -3.9115 2.3926
-3.7880 -4.0509 2.3925
-3.6413 -4.1851 2.3924
-3.4898 -4.3139 2.3923
-3.3337 -4.4372 2.3923
-3.1733 -4.5548 2.3922
-3.0086 -4.6665 2.3921
-2.8400 -4.7722 2.3920
-2.6676 -4.8717 2.3920
-2.4921 -4.9657 2.3922
-2.3136 -5.0539 2.3928
-2.1311 -5.1335 2.3924
-1.9460 -5.2073 2.3924
-1.7585 -5.2743 2.3924
-1.5686 -5.3345 2.3924
-1.3766 -5.3877 2.3924
-1.1828 -5.4340 2.3924
-0.9874 -5.4731 2.3924
-0.7907 -5.5052 2.3924
-0.5930 -5.5301 2.3924
-0.3945 -5.5477 2.3924
-0.1955 -5.5582 2.3924
0.0037 -5.5614 2.3923
0.2029 -5.5574 2.3923
0.4018 -5.5462 2.3923
0.6002 -5.5277 2.3923
0.7977 -5.5021 2.3922
0.9942 -5.4693 2.3922
1.1894 -5.4294 2.3922
1.3829 -5.3824 2.3921
1.5745 -5.3285 2.3921
1.7641 -5.2676 2.3920
1.9513 -5.1999 2.3920
2.1359 -5.1255 2.3919
2.3176 -5.0445 2.3919
2.4962 -4.9569 2.3918
2.6715 -4.8630 2.3918
2.8432 -4.7628 2.3917
3.0112 -4.6564 2.3917
3.1751 -4.5441 2.3916
3.3348 -4.4259 2.3916
3.4901 -4.3020 2.3915
3.6408 -4.1727 2.3915
3.7866 -4.0380 2.3914
3.9274 -3.8982 2.3913
4.0631 -3.7535 2.3913
4.1934 -3.6039 2.3912
4.3181 -3.4498 2.3911
4.4371 -3.2914 2.3911
4.5503 -3.1288 2.3910
4.6576 -2.9623 2.3909
4.7587 -2.7922 2.3909
4.8536 -2.6185 2.3908
4.9421 -2.4416 2.3907
5.0241 -2.2617 2.3907
5.0996 -2.0790 2.3906
5.1684 -1.8939 2.3905
5.2305 -1.7064 2.3905
5.2858 -1.5169 2.3904
5.3342 -1.3256 2.3903
5.3757 -1.1328 2.3902
5.4102 -0.9386 2.3902
5.4377 -0.7435 2.3901
5.4582 -0.5476 2.3900
5.4716 -0.3511 2.3900
5.4780 -0.1544 2.3899
5.4773 0.0423 2.3898
5.4696 0.2389 2.3898
5.4548 0.4349 2.3897
5.4330 0.6302 2.3896
5.4043 0.8245 2.3896
5.3686 1.0176 2.3895
5.3261 1.2091 2.3895
5.2767 1.3990 2.3894
5.2207 1.5869 2.3894
5.1580 1.7727 2.3893
5.0887 1.9559 2.3892
5.0175 2.1385 2.3914
4.9416 2.3194 2.3944
4.8545 2.4952 2.3951
4.7600 2.6671 2.3952
4.6595 2.8355 2.3953
4.5531 3.0001 2.3954
4.4409 3.1608 2.3955
4.3231 3.3174 2.3956
4.1998 3.4696 2.3957
4.0711 3.6173 2.3958
3.9374 3.7603 2.3959
3.7986 3.8983 2.3960
3.6551 4.0314 2.3960
3.5069 4.1592 2.3961
3.3543 4.2816 2.3962
3.1975 4.3985 2.3963
3.0366 4.5097 2.3964
2.8719 4.6151 2.3964
2.7061 4.7189 2.3987
2.5371 4.8181 2.4016
2.3643 4.9105 2.4041
0.8682 1.9826 0.9549
0.7964 2.0127 0.9551
0.7235 2.0402 0.9553
0.6497 2.0651 0.9555
0.5751 2.0872 0.9556
0.4996 2.1067 0.9558
0.4236 2.1235 0.9559
0.3469 2.1375 0.9560
0.2698 2.1487 0.9561
0.1924 2.1571 0.9562
0.1147 2.1627 0.9562
0.0368 2.1656 0.9562
-0.0411 2.1656 0.9562
-0.1190 2.1628 0.9562
-0.1967 2.1572 0.9562
-0.2742 2.1488 0.9561
-0.3513 2.1376 0.9561
-0.4280 2.1236 0.9560
-0.5041 2.1069 0.9559
-0.5796 2.0874 0.9557
-0.6543 2.0653 0.9556
-0.7281 2.0404 0.9554
-0.8011 2.0129 0.9552
-0.8729 1.9828 0.9550
-2.3754 4.9089 2.4035
-2.5483 4.8163 2.4009
-2.7171 4.7166 2.3978
-2.8847 4.6157 2.3971
-3.0497 4.5102 2.3971
-3.2107 4.3989 2.3970
-3.3678 4.2818 2.3970
-3.5206 4.1592 2.3969
-3.6690 4.0312 2.3969
-3.8127 3.8980 2.3968
-3.9517 3.7597 2.3968
-4.0857 3.6164 2.3967
-4.2145 3.4685 2.3966
-4.3380 3.3160 2.3966
-4.4559 3.1591 2.3965
-4.5683 2.9980 2.3964
-4.6748 2.8330 2.3963
-4.7754 2.6643 2.3963
-4.8700 2.4920 2.3962
-4.9583 2.3163 2.3961
-5.0404 2.1376 2.3960
-5.1160 1.9560 2.3959
-5.1851 1.7717 2.3958
-5.2475 1.5850 2.3957
-5.3033 1.3961 2.3956
-5.3522 1.2053 2.3955
-5.3943 1.0128 2.3954
-5.4295 0.8188 2.3953
-5.4577 0.6236 2.3952
-5.4789 0.4275 2.3951
-5.4931 0.2306 2.3950
-5.5001 0.0333 2.3949
-5.5001 -0.1642 2.3948
-5.4930 -0.3616 2.3947
-5.4788 -0.5587 2.3946
-5.4574 -0.7552 2.3945
-5.4291 -0.9509 2.3944
-5.3937 -1.1456 2.3943
-5.3512 -1.3389 2.3942
-5.3019 -1.5306 2.3940
-5.2456 -1.7204 2.3939
-5.1825 -1.9082 2.3938
-5.1127 -2.0936 2.3937
-5.0362 -2.2765 2.3936
-4.9531 -2.4565 2.3935
-4.8636 -2.6334 2.3934
-4.7677 -2.8071 2.3933
-4.6656 -2.9772 2.3932
-4.5573 -3.1436 2.3931
-4.4431 -3.3060 2.3930
-4.3231 -3.4642 2.3929
-4.1974 -3.6180 2.3928
-4.0662 -3.7672 2.3927
-3.9296 -3.9116 2.3926
-3.7879 -4.0510 2.3925
-3.6412 -4.1852 2.3924
-3.4897 -4.3140 2.3923
-3.3336 -4.4373 2.3923
-3.1731 -4.5549 2.3922
-3.0085 -4.6666 2.3921
-2.8399 -4.7723 2.3920
-2.6675 -4.8718 2.3920
-2.4920 -4.9658 2.3922
-2.3135 -5.0539 2.3928
-2.1309 -5.1336 2.3924
-1.9459 -5.2073 2.3924
-1.7583 -5.2744 2.3924
-1.5684 -5.3345 2.3924
-1.3764 -5.3878 2.3924
-1.1826 -5.4340 2.3924
-0.9873 -5.4732 2.3924
-0.7906 -5.5052 2.3924
-0.5929 -5.5301 2.3924
-0.3944 -5.5478 2.3924
-0.1954 -5.5582 2.3924
0.0033 -5.2333 2.3922
0.1907 -5.2295 2.3922
0.3779 -5.2190 2.3922
0.5645 -5.2016 2.3922
0.7504 -5.1775 2.3921
0.9353 -5.1467 2.3921
1.1189 -5.1092 2.3921
1.3010 -5.0651 2.3920
1.4813 -5.0144 2.3920
1.6597 -4.9572 2.3919
1.8359 -4.8935 2.3919
2.0096 -4.8236 2.3919
2.1806 -4.7474 2.3918
2.3487 -4.6651 2.3918
2.5137 -4.5767 2.3917
2.6753 -4.4825 2.3917
2.8334 -4.3825 2.3916
2.9877 -4.2768 2.3916
3.1381 -4.1657 2.3915
3.2843 -4.0492 2.3915
3.4261 -3.9276 2.3914
3.5634 -3.8009 2.3913
3.6960 -3.6694 2.3913
3.8238 -3.5332 2.3912
3.9464 -3.3926 2.3912
4.0639 -3.2476 2.3911
4.1761 -3.0986 2.3910
4.2827 -2.9457 2.3910
4.3837 -2.7890 2.3909
4.4790 -2.6289 2.3908
4.5684 -2.4655 2.3908
4.6518 -2.2990 2.3907
4.7292 -2.1298 2.3906
4.8004 -1.9579 2.3906
4.8653 -1.7836 2.3905
4.9238 -1.6071 2.3905
4.9760 -1.4288 2.3904
5.0217 -1.2487 2.3903
5.0609 -1.0672 2.3903
5.0935 -0.8845 2.3902
5.1196 -0.7008 2.3901
5.1390 -0.5163 2.3901
5.1517 -0.3314 2.3900
5.1579 -0.1462 2.3899
5.1573 0.0391 2.3899
5.1502 0.2241 2.3898
5.1364 0.4087 2.3898
5.1160 0.5926 2.3897
5.0891 0.7756 2.3896
5.0556 0.9575 2.3896
5.0157 1.1379 2.3895
4.9693 1.3167 2.3895
4.9167 1.4937 2.3894
4.8577 1.6687 2.3894
4.7948 1.8423 2.3903
4.7285 2.0146 2.3929
4.6551 2.1842 2.3949
4.5721 2.3492 2.3950
4.4832 2.5112 2.3951
4.3886 2.6698 2.3952
4.2884 2.8250 2.3953
4.1828 2.9764 2.3954
4.0719 3.1239 2.3955
3.9558 3.2673 2.3956
3.8347 3.4064 2.3957
3.7088 3.5412 2.3958
3.5781 3.6713 2.3959
3.4429 3.7966 2.3959
3.3034 3.9171 2.3960
3.1597 4.0324 2.3961
3.0120 4.1426 2.3962
2.8605 4.2474 2.3962
2.7054 4.3468 2.3963
2.5469 4.4405 2.3964
2.3851 4.5285 2.3965
0.8838 1.8352 0.9539
0.8172 1.8659 0.9541
0.7496 1.8943 0.9543
0.6811 1.9201 0.9545
0.6116 1.9435 0.9546
0.5413 1.9644 0.9548
0.4703 1.9827 0.9549
0.3987 1.9985 0.9550
0.3266 2.0116 0.9551
0.2540 2.0222 0.9552
0.1811 2.0301 0.9553
0.1080 2.0354 0.9553
0.0347 2.0381 0.9554
-0.0387 2.0381 0.9554
-0.1120 2.0355 0.9553
-0.1851 2.0302 0.9553
-0.2581 2.0223 0.9553
-0.3307 2.0117 0.9552
-0.4028 1.9986 0.9551
-0.4745 1.9828 0.9550
-0.5455 1.9645 0.9549
-0.6158 1.9437 0.9547
-0.6853 1.9203 0.9546
-0.7540 1.8944 0.9544
-0.8216 1.8660 0.9542
-0.8882 1.8353 0.9540
-2.3966 4.5290 2.3970
-2.5585 4.4409 2.3970
-2.7172 4.3471 2.3969
-2.8725 4.2477 2.3969
-3.0242 4.1428 2.3969
-3.1721 4.0325 2.3968
-3.3160 3.9169 2.3968
-3.4557 3.7963 2.3967
-3.5910 3.6708 2.3967
-3.7219 3.5404 2.3966
-3.8480 3.4055 2.3965
-3.9692 3.2661 2.3965
-4.0855 3.1224 2.3964
-4.1965 2.9746 2.3964
-4.3022 2.8229 2.3963
-4.4025 2.6674 2.3962
-4.4972 2.5085 2.3961
-4.5861 2.3462 2.3961
-4.6692 2.1807 2.3960
-4.7464 2.0124 2.3959
-4.8175 1.8413 2.3958
-4.8825 1.6677 2.3957
-4.9412 1.4919 2.3956
-4.9936 1.3140 2.3955
-5.0396 1.1343 2.3955
-5.0791 0.9530 2.3954
-5.1122 0.7704 2.3953
-5.1386 0.5866 2.3952
-5.1585 0.4019 2.3951
-5.1717 0.2166 2.3950
-5.1783 0.0308 2.3949
-5.1781 -0.1551 2.3948
-5.1713 -0.3409 2.3947
-5.1578 -0.5265 2.3946
-5.1377 -0.7115 2.3945
-5.1108 -0.8957 2.3944
-5.0774 -1.0789 2.3943
-5.0374 -1.2609 2.3942
-4.9908 -1.4413 2.3941
-4.9378 -1.6200 2.3940
-4.8783 -1.7967 2.3939
-4.8125 -1.9712 2.3938
-4.7404 -2.1433 2.3937
-4.6621 -2.3127 2.3936
-4.5778 -2.4792 2.3935
-4.4875 -2.6426 2.3934
-4.3913 -2.8027 2.3933
-4.2893 -2.9592 2.3932
-4.1818 -3.1121 2.3931
-4.0687 -3.2609 2.3930
-3.9504 -3.4056 2.3929
-3.8268 -3.5460 2.3928
-3.6983 -3.6818 2.3927
-3.5649 -3.8130 2.3926
-3.4268 -3.9392 2.3925
-3.2842 -4.0604 2.3925
-3.1373 -4.1764 2.3924
-2.9862 -4.2870 2.3923
-2.8313 -4.3920 2.3922
-2.6726 -4.4915 2.3922
-2.5104 -4.5851 2.3921
-2.3449 -4.6728 2.3920
-2.1781 -4.7585 2.3940
-2.0067 -4.8345 2.3941
-1.8311 -4.9002 2.3923
-1.6546 -4.9632 2.3923
-1.4759 -5.0198 2.3923
-1.2952 -5.0699 2.3923
-1.1129 -5.1134 2.3923
-0.9291 -5.1502 2.3923
-0.7440 -5.1803 2.3923
-0.5580 -5.2037 2.3923
-0.3713 -5.2204 2.3923
-0.1840 -5.2302 2.3923
0.0034 -5.2333 2.3922
0.1909 -5.2295 2.3922
0.3780 -5.2190 2.3922
0.5647 -5.2016 2.3922
0.7505 -5.1775 2.3921
0.9354 -5.1467 2.3921
1.1190 -5.1092 2.3921
1.3011 -5.0650 2.3920
1.4815 -5.0143 2.3920
1.6598 -4.9571 2.3919
1.8360 -4.8935 2.3919
2.0097 -4.8235 2.3919
2.1807 -4.7473 2.3918
2.3488 -4.6650 2.3918
2.5138 -4.5767 2.3917
2.6754 -4.4824 2.3917
2.8335 -4.3824 2.3916
2.9878 -4.2768 2.3916
3.1382 -4.1656 2.3915
3.2844 -4.0491 2.3915
3.4262 -3.9275 2.3914
3.5635 -3.8008 2.3913
3.6961 -3.6693 2.3913
3.8238 -3.5332 2.3912
3.9465 -3.3925 2.3912
4.0640 -3.2476 2.3911
4.1761 -3.0985 2.3910
4.2828 -2.9456 2.3910
4.3838 -2.7889 2.3909
4.4791 -2.6288 2.3908
4.5685 -2.4654 2.3908
4.6519 -2.2989 2.3907
4.7292 -2.1297 2.3906
4.8004 -1.9578 2.3906
4.8653 -1.7835 2.3905
4.9239 -1.6070 2.3905
4.9760 -1.4287 2.3904
5.0217 -1.2486 2.3903
5.0609 -1.0671 2.3903
5.0935 -0.8844 2.3902
5.1196 -0.7007 2.3901
5.1390 -0.5162 2.3901
5.1517 -0.3313 2.3900
5.1579 -0.1460 2.3899
5.1573 0.0392 2.3899
5.1502 0.2243 2.3898
5.1364 0.4088 2.3898
5.1160 0.5927 2.3897
5.0890 0.7757 2.3896
5.0556 0.9576 2.3896
5.0157 1.1380 2.3895
4.9693 1.3169 2.3895
4.9166 1.4939 2.3894
4.8577 1.6688 2.3894
4.7946 1.8423 2.3903
4.7285 2.0147 2.3929
4.6551 2.1843 2.3949
4.5720 2.3494 2.3950
4.4831 2.5113 2.3951
4.3885 2.6699 2.3952
4.2883 2.8251 2.3953
4.1827 2.9765 2.3954
4.0718 3.1240 2.3955
3.9557 3.2674 2.3956
3.8346 3.4065 2.3957
3.7087 3.5412 2.3958
3.5780 3.6714 2.3959
3.4429 3.7967 2.3959
3.3033 3.9172 2.3960
3.1596 4.0325 2.3961
3.0119 4.1427 2.3962
2.8604 4.2475 2.3962
2.7053 4.3468 2.3963
2.5468 4.4406 2.3964
2.3850 4.5286 2.3965
0.8837 1.8352 0.9539
0.8172 1.8659 0.9541
0.7496 1.8943 0.9543
0.6810 1.9201 0.9545
0.6116 1.9435 0.9546
0.5413 1.9644 0.9548
0.4703 1.9827 0.9549
0.3987 1.9985 0.9550
0.3265 2.0116 0.9551
0.2540 2.0222 0.9552
0.1811 2.0301 0.9553
0.1079 2.0354 0.9553
0.0346 2.0381 0.9554
-0.0387 2.0381 0.9554
-0.1120 2.0354 0.9553
-0.1852 2.0302 0.9553
-0.2581 2.0223 0.9553
-0.3307 2.0117 0.9552
-0.4029 1.9986 0.9551
-0.4745 1.9828 0.9550
-0.5455 1.9645 0.9549
-0.6159 1.9436 0.9547
-0.6854 1.9202 0.9546
-0.7540 1.8944 0.9544
-0.8217 1.8660 0.9542
-0.8882 1.8353 0.9540
-2.3967 4.5290 2.3970
-2.5586 4.4409 2.3970
-2.7173 4.3471 2.3969
-2.8726 4.2476 2.3969
-3.0243 4.1427 2.3969
-3.1722 4.0324 2.3968
-3.3161 3.9169 2.3968
-3.4558 3.7962 2.3967
-3.5911 3.6707 2.3967
-3.7219 3.5404 2.3966
-3.8481 3.4054 2.3965
-3.9693 3.2660 2.3965
-4.0855 3.1223 2.3964
-4.1966 2.9745 2.3964
-4.3023 2.8228 2.3963
-4.4026 2.6673 2.3962
-4.4972 2.5084 2.3961
-4.5862 2.3461 2.3961
-4.6693 2.1806 2.3960
-4.7465 2.0123 2.3959
-4.8176 1.8412 2.3958
-4.8825 1.6676 2.3957
-4.9412 1.4918 2.3956
-4.9936 1.3139 2.3955
-5.0396 1.1342 2.3955
-5.0792 0.9529 2.3954
-5.1122 0.7703 2.3953
-5.1386 0.5865 2.3952
-5.1585 0.4018 2.3951
-5.1717 0.2165 2.3950
-5.1783 0.0307 2.3949
-5.1781 -0.1552 2.3948
-5.1713 -0.3411 2.3947
-5.1578 -0.5266 2.3946
-5.1376 -0.7116 2.3945
-5.1108 -0.8959 2.3944
-5.0774 -1.0791 2.3943
-5.0374 -1.2610 2.3942
-4.9908 -1.4414 2.3941
-4.9377 -1.6201 2.3940
-4.8783 -1.7968 2.3939
-4.8124 -1.9713 2.3938
-4.7404 -2.1434 2.3937
-4.6621 -2.3128 2.3936
-4.5777 -2.4793 2.3935
-4.4874 -2.6427 2.3934
-4.3912 -2.8028 2.3933
-4.2893 -2.9594 2.3932
-4.1817 -3.1121 2.3931
-4.0687 -3.2610 2.3930
-3.9503 -3.4057 2.3929
-3.8268 -3.5461 2.3928
-3.6982 -3.6819 2.3927
-3.5648 -3.8130 2.3926
-3.4267 -3.9393 2.3925
-3.2841 -4.0605 2.3925
-3.1372 -4.1764 2.3924
-2.9861 -4.2870 2.3923
-2.8312 -4.3921 2.3922
-2.6725 -4.4915 2.3922
-2.5103 -4.5851 2.3921
-2.3447 -4.6728 2.3920
-2.1780 -4.7585 2.3940
-2.0066 -4.8345 2.3942
-1.8310 -4.9002 2.3923
-1.6545 -4.9632 2.3923
-1.4758 -5.0198 2.3923
-1.2951 -5.0699 2.3923
-1.1128 -5.1134 2.3923
-0.9289 -5.1502 2.3923
-0.7439 -5.1804 2.3923
-0.5579 -5.2038 2.3923
-0.3711 -5.2204 2.3923
-0.1839 -5.2302 2.3923
0.0031 -4.9360 2.3921
0.1798 -4.9324 2.3921
0.3563 -4.9225 2.3921
0.5324 -4.9062 2.3921
0.7077 -4.8835 2.3920
0.8820 -4.8544 2.3920
1.0552 -4.8191 2.3920
1.2269 -4.7775 2.3919
1.3970 -4.7297 2.3919
1.5653 -4.6758 2.3919
1.7314 -4.6159 2.3918
1.8952 -4.5499 2.3918
2.0566 -4.4781 2.3917
2.2151 -4.4005 2.3917
2.3708 -4.3172 2.3917
2.5232 -4.2284 2.3916
2.6724 -4.1342 2.3916
2.8180 -4.0346 2.3915
2.9598 -3.9298 2.3915
3.0978 -3.8200 2.3914
3.2316 -3.7053 2.3913
3.3612 -3.5859 2.3913
3.4863 -3.4619 2.3912
3.6069 -3.3335 2.3912
3.7227 -3.2009 2.3911
3.8336 -3.0643 2.3911
3.9394 -2.9237 2.3910
4.0401 -2.7795 2.3909
4.1355 -2.6318 2.3909
4.2255 -2.4808 2.3908
4.3099 -2.3267 2.3908
4.3887 -2.1697 2.3907
4.4618 -2.0100 2.3906
4.5290 -1.8479 2.3906
4.5904 -1.6835 2.3905
4.6457 -1.5170 2.3905
4.6951 -1.3488 2.3904
4.7383 -1.1789 2.3903
4.7754 -1.0077 2.3903
4.8063 -0.8353 2.3902
4.8309 -0.6619 2.3901
4.8493 -0.4879 2.3901
4.8615 -0.3134 2.3900
4.8674 -0.1386 2.3900
4.8670 0.0362 2.3899
4.8604 0.2109 2.3899
4.8475 0.3851 2.3898
4.8283 0.5587 2.3897
4.8030 0.7314 2.3897
4.7715 0.9030 2.3896
4.7339 1.0734 2.3896
4.6903 1.2422 2.3895
4.6407 1.4093 2.3895
4.5851 1.5744 2.3894
4.5295 1.7396 2.3925
4.4675 1.9028 2.3952
4.3940 2.0610 2.3949
4.3156 2.2169 2.3950
4.2318 2.3698 2.3951
4.1426 2.5196 2.3952
4.0481 2.6660 2.3953
3.9484 2.8090 2.3953
3.8438 2.9483 2.3954
3.7342 3.0837 2.3955
3.6200 3.2151 2.3956
3.5011 3.3423 2.3957
3.3778 3.4652 2.3958
3.2503 3.5836 2.3958
3.1186 3.6973 2.3959
2.9829 3.8063 2.3960
2.8435 3.9103 2.3961
2.7005 4.0093 2.3961
2.5541 4.1031 2.3962
2.4045 4.1916 2.3963
0.8955 1.6999 0.9529
0.8338 1.7312 0.9532
0.7710 1.7602 0.9534
0.7072 1.7869 0.9536
0.6425 1.8113 0.9537
0.5770 1.8333 0.9539
0.5107 1.8530 0.9540
0.4437 1.8703 0.9542
0.3761 1.8851 0.9543
0.3081 1.8976 0.9544
0.2396 1.9075 0.9544
0.1708 1.9150 0.9545
0.1018 1.9200 0.9545
0.0327 1.9225 0.9545
-0.0365 1.9225 0.9546
-0.1057 1.9200 0.9545
-0.1747 1.9150 0.9545
-0.2435 1.9075 0.9545
-0.3120 1.8976 0.9544
-0.3800 1.8852 0.9543
-0.4476 1.8704 0.9542
-0.5146 1.8531 0.9541
-0.5810 1.8334 0.9540
-0.6466 1.8113 0.9538
-0.7113 1.7869 0.9537
-0.7751 1.7602 0.9535
-0.8380 1.7312 0.9533
-0.8997 1.6999 0.9531
-2.4154 4.1918 2.3968
-2.5652 4.1032 2.3968
-2.7118 4.0093 2.3967
-2.8549 3.9102 2.3967
-2.9945 3.8060 2.3967
-3.1303 3.6969 2.3966
-3.2621 3.5830 2.3966
-3.3898 3.4644 2.3965
-3.5133 3.3414 2.3965
-3.6323 3.2139 2.3964
-3.7467 3.0823 2.3964
-3.8563 2.9466 2.3963
-3.9611 2.8071 2.3962
-4.0608 2.6638 2.3962
-4.1554 2.5171 2.3961
-4.2447 2.3670 2.3960
-4.3286 2.2137 2.3960
-4.4069 2.0576 2.3959
-4.4797 1.8986 2.3958
-4.5467 1.7371 2.3957
-4.6079 1.5733 2.3956
-4.6633 1.4073 2.3956
-4.7126 1.2394 2.3955
-4.7560 1.0698 2.3954
-4.7932 0.8987 2.3953
-4.8243 0.7263 2.3952
-4.8492 0.5529 2.3951
-4.8678 0.3786 2.3950
-4.8802 0.2037 2.3949
-4.8863 0.0285 2.3948
-4.8861 -0.1470 2.3947
-4.8795 -0.3224 2.3947
-4.8667 -0.4974 2.3946
-4.8476 -0.6720 2.3945
-4.8222 -0.8458 2.3944
-4.7906 -1.0186 2.3943
-4.7527 -1.1903 2.3942
-4.7087 -1.3605 2.3941
-4.6586 -1.5290 2.3940
-4.6024 -1.6957 2.3939
-4.5403 -1.8603 2.3938
-4.4722 -2.0226 2.3937
-4.3983 -2.1824 2.3936
-4.3186 -2.3395 2.3935
-4.2333 -2.4936 2.3934
-4.1425 -2.6446 2.3933
-4.0463 -2.7922 2.3932
-3.9448 -2.9363 2.3931
-3.8381 -3.0767 2.3931
-3.7264 -3.2131 2.3930
-3.6099 -3.3455 2.3929
-3.4885 -3.4736 2.3928
-3.3627 -3.5973 2.3927
-3.2324 -3.7163 2.3926
-3.0978 -3.8306 2.3926
-2.9592 -3.9399 2.3925
-2.8167 -4.0442 2.3924
-2.6705 -4.1433 2.3923
-2.5208 -4.2370 2.3923
-2.3678 -4.3253 2.3922
-2.2117 -4.4080 2.3921
-2.0527 -4.4850 2.3921
-1.8915 -4.5575 2.3928
-1.7275 -4.6236 2.3931
-1.5604 -4.6813 2.3922
-1.3919 -4.7347 2.3922
-1.2215 -4.7819 2.3922
-1.0496 -4.8229 2.3922
-0.8762 -4.8576 2.3922
-0.7017 -4.8860 2.3922
-0.5263 -4.9081 2.3922
-0.3502 -4.9238 2.3922
-0.1736 -4.9331 2.3922
0.0032 -4.9360 2.3921
0.1799 -4.9324 2.3921
0.3564 -4.9225 2.3921
0.5325 -4.9062 2.3921
0.7078 -4.8835 2.3920
0.8821 -4.8544 2.3920
1.0553 -4.8191 2.3920
1.2270 -4.7775 2.3919
1.3971 -4.7297 2.3919
1.5654 -4.6758 2.3919
1.7315 -4.6158 2.3918
1.8953 -4.5499 2.3918
2.0567 -4.4781 2.3917
2.2152 -4.4005 2.3917
2.3709 -4.3172 2.3917
2.5233 -4.2284 2.3916
2.6725 -4.1341 2.3916
2.8181 -4.0345 2.3915
2.9599 -3.9297 2.3915
3.0979 -3.8199 2.3914
3.2317 -3.7053 2.3913
3.3613 -3.5858 2.3913
3.4864 -3.4618 2.3912
3.6070 -3.3335 2.3912
3.7228 -3.2008 2.3911
3.8337 -3.0642 2.3911
3.9395 -2.9236 2.3910
4.0402 -2.7794 2.3909
4.1356 -2.6317 2.3909
4.2255 -2.4807 2.3908
4.3100 -2.3266 2.3908
4.3888 -2.1696 2.3907
4.4618 -2.0099 2.3906
4.5291 -1.8478 2.3906
4.5904 -1.6834 2.3905
4.6458 -1.5169 2.3905
4.6951 -1.3487 2.3904
4.7383 -1.1788 2.3903
4.7754 -1.0076 2.3903
4.8063 -0.8352 2.3902
4.8309 -0.6618 2.3901
4.8494 -0.4878 2.3901
4.8615 -0.3132 2.3900
4.8674 -0.1385 2.3900
4.8670 0.0364 2.3899
4.8604 0.2110 2.3899
4.8474 0.3852 2.3898
4.8283 0.5588 2.3897
4.8030 0.7315 2.3897
4.7715 0.9031 2.3896
4.7339 1.0735 2.3896
4.6903 1.2423 2.3895
4.6406 1.4094 2.3895
4.5851 1.5745 2.3894
4.5296 1.7398 2.3925
4.4676 1.9029 2.3952
4.3939 2.0611 2.3949
4.3156 2.2170 2.3950
4.2317 2.3699 2.3951
4.1425 2.5197 2.3952
4.0480 2.6661 2.3953
3.9484 2.8091 2.3953
3.8437 2.9484 2.3954
3.7342 3.0838 2.3955
3.6199 3.2152 2.3956
3.5010 3.3424 2.3957
3.3777 3.4653 2.3958
3.2502 3.5836 2.3958
3.1185 3.6974 2.3959
2.9828 3.8063 2.3960
2.8434 3.9104 2.3961
2.7004 4.0094 2.3961
2.5540 4.1032 2.3962
2.4044 4.1917 2.3963
0.8954 1.6999 0.9529
0.8337 1.7312 0.9532
0.7710 1.7602 0.9534
0.7072 1.7869 0.9536
0.6425 1.8113 0.9537
0.5769 1.8333 0.9539
0.5106 1.8530 0.9540
0.4437 1.8703 0.9542
0.3761 1.8851 0.9543
0.3080 1.8976 0.9544
0.2396 1.9075 0.9544
0.1708 1.9150 0.9545
0.1018 1.9200 0.9545
0.0326 1.9225 0.9545
-0.0366 1.9225 0.9546
-0.1057 1.9200 0.9545
-0.1747 1.9150 0.9545
-0.2435 1.9075 0.9545
-0.3120 1.8976 0.9544
-0.3801 1.8852 0.9543
-0.4477 1.8703 0.9542
-0.5147 1.8531 0.9541
-0.5810 1.8334 0.9540
-0.6466 1.8113 0.9538
-0.7114 1.7869 0.9537
-0.7752 1.7602 0.9535
-0.8380 1.7312 0.9533
-0.8997 1.6999 0.9531
-2.4155 4.1918 2.3968
-2.5653 4.1031 2.3968
-2.7119 4.0092 2.3967
-2.8550 3.9101 2.3967
-2.9946 3.8059 2.3967
-3.1304 3.6968 2.3966
-3.2622 3.5829 2.3966
-3.3899 3.4644 2.3965
-3.5134 3.3413 2.3965
-3.6324 3.2138 2.3964
-3.7468 3.0822 2.3964
-3.8564 2.9465 2.3963
-3.9612 2.8070 2.3962
-4.0609 2.6637 2.3962
-4.1554 2.5170 2.3961
-4.2447 2.3669 2.3960
-4.3286 2.2136 2.3960
-4.4070 2.0574 2.3959
-4.4797 1.8985 2.3958
-4.5468 1.7370 2.3957
-4.6080 1.5732 2.3956
-4.6633 1.4072 2.3956
-4.7127 1.2393 2.3955
-4.7560 1.0697 2.3954
-4.7932 0.8986 2.3953
-4.8243 0.7262 2.3952
-4.8492 0.5528 2.3951
-4.8678 0.3785 2.3950
-4.8802 0.2036 2.3949
-4.8863 0.0283 2.3948
-4.8861 -0.1471 2.3947
-4.8795 -0.3225 2.3947
-4.8667 -0.4975 2.3946
-4.8476 -0.6721 2.3945
-4.8222 -0.8459 2.3944
-4.7906 -1.0187 2.3943
-4.7527 -1.1904 2.3942
-4.7087 -1.3606 2.3941
-4.6586 -1.5291 2.3940
-4.6024 -1.6958 2.3939
-4.5402 -1.8604 2.3938
-4.4721 -2.0227 2.3937
-4.3982 -2.1825 2.3936
-4.3186 -2.3396 2.3935
-4.2333 -2.4937 2.3934
-4.1425 -2.6447 2.3933
-4.0462 -2.7923 2.3932
-3.9447 -2.9364 2.3931
-3.8381 -3.0768 2.3931
-3.7264 -3.2132 2.3930
-3.6098 -3.3456 2.3929
-3.4885 -3.4737 2.3928
-3.3626 -3.5973 2.3927
-3.2323 -3.7164 2.3926
-3.0977 -3.8306 2.3926
-2.9591 -3.9400 2.3925
-2.8166 -4.0443 2.3924
-2.6704 -4.1433 2.3923
-2.5207 -4.2371 2.3923
-2.3677 -4.3253 2.3922
-2.2116 -4.4080 2.3921
-2.0526 -4.4850 2.3921
-1.8914 -4.5576 2.3928
-1.7274 -4.6237 2.3931
-1.5603 -4.6814 2.3922
-1.3918 -4.7347 2.3922
-1.2214 -4.7819 2.3922
-1.0495 -4.8229 2.3922
-0.8761 -4.8576 2.3922
-0.7016 -4.8860 2.3922
-0.5262 -4.9081 2.3922
-0.3501 -4.9238 2.3922
-0.1735 -4.9331 2.3922
0.0028 -4.6651 2.3920
0.1699 -4.6618 2.3920
0.3367 -4.6524 2.3920
0.5030 -4.6370 2.3920
0.6687 -4.6155 2.3919
0.8335 -4.5881 2.3919
0.9971 -4.5548 2.3919
1.1594 -4.5155 2.3919
1.3202 -4.4704 2.3918
1.4792 -4.4195 2.3918
1.6362 -4.3628 2.3918
1.7911 -4.3006 2.3917
1.9435 -4.2327 2.3917
2.0934 -4.1594 2.3916
2.2405 -4.0808 2.3916
2.3847 -3.9969 2.3915
2.5256 -3.9079 2.3915
2.6633 -3.8138 2.3914
2.7974 -3.7148 2.3914
2.9278 -3.6111 2.3914
3.0544 -3.5028 2.3913
3.1769 -3.3899 2.3912
3.2952 -3.2728 2.3912
3.4092 -3.1515 2.3911
3.5187 -3.0262 2.3911
3.6236 -2.8971 2.3910
3.7237 -2.7643 2.3910
3.8190 -2.6280 2.3909
3.9092 -2.4884 2.3909
3.9943 -2.3457 2.3908
4.0742 -2.2001 2.3907
4.1488 -2.0517 2.3907
4.2179 -1.9008 2.3906
4.2816 -1.7476 2.3906
4.3397 -1.5922 2.3905
4.3921 -1.4349 2.3905
4.4388 -1.2758 2.3904
4.4798 -1.1152 2.3903
4.5149 -0.9533 2.3903
4.5442 -0.7904 2.3902
4.5677 -0.6265 2.3902
4.5852 -0.4619 2.3901
4.5968 -0.2969 2.3901
4.6024 -0.1316 2.3900
4.6021 0.0337 2.3899
4.5959 0.1988 2.3899
4.5838 0.3635 2.3898
4.5658 0.5277 2.3898
4.5420 0.6910 2.3897
4.5123 0.8534 2.3897
4.4769 1.0145 2.3896
4.4357 1.1741 2.3896
4.3888 1.3322 2.3895
4.3409 1.4900 2.3920
4.2866 1.6458 2.3940
4.2244 1.7986 2.3948
4.1556 1.9486 2.3949
4.0816 2.0961 2.3949
4.0024 2.2407 2.3950
3.9180 2.3824 2.3951
3.8287 2.5210 2.3952
3.7345 2.6562 2.3953
3.6356 2.7880 2.3954
3.5320 2.9161 2.3955
3.4240 3.0404 2.3955
3.3116 3.1608 2.3956
3.1950 3.2771 2.3957
3.0743 3.3891 2.3958
2.9498 3.4967 2.3958
2.8215 3.5998 2.3959
2.6897 3.6982 2.3960
2.5544 3.7919 2.3960
2.4160 3.8806 2.3961
0.9037 1.5752 0.9521
0.8465 1.6068 0.9523
0.7882 1.6363 0.9525
0.7288 1.6637 0.9527
0.6686 1.6889 0.9529
0.6074 1.7120 0.9530
0.5454 1.7328 0.9532
0.4827 1.7514 0.9533
0.4194 1.7678 0.9534
0.3556 1.7818 0.9535
0.2912 1.7935 0.9536
0.2265 1.8029 0.9537
0.1615 1.8100 0.9538
0.0962 1.8147 0.9538
0.0309 1.8171 0.9538
-0.0345 1.8171 0.9538
-0.0999 1.8147 0.9538
-0.1651 1.8100 0.9538
-0.2302 1.8030 0.9537
-0.2949 1.7936 0.9537
-0.3593 1.7818 0.9536
-0.4232 1.7678 0.9535
-0.4865 1.7515 0.9534
-0.5492 1.7329 0.9533
-0.6112 1.7120 0.9531
-0.6724 1.6889 0.9530
-0.7328 1.6637 0.9528
-0.7921 1.6362 0.9526
-0.8505 1.6067 0.9524
-0.9077 1.5751 0.9522
-2.4264 3.8805 2.3966
-2.5650 3.7916 2.3966
-2.7004 3.6979 2.3966
-2.8324 3.5993 2.3965
-2.9608 3.4961 2.3965
-3.0855 3.3883 2.3965
-3.2062 3.2761 2.3964
-3.3229 3.1596 2.3964
-3.4354 3.0391 2.3963
-3.5436 2.9145 2.3962
-3.6472 2.7862 2.3962
-3.7462 2.6542 2.3961
-3.8405 2.5186 2.3961
-3.9299 2.3798 2.3960
-4.0143 2.2378 2.3959
-4.0935 2.0929 2.3959
-4.1676 1.9452 2.3958
-4.2363 1.7948 2.3957
-4.2996 1.6421 2.3956
-4.3575 1.4872 2.3956
-4.4097 1.3302 2.3955
-4.4563 1.1714 2.3954
-4.4972 1.0110 2.3953
-4.5323 0.8492 2.3952
-4.5616 0.6862 2.3952
-4.5851 0.5222 2.3951
-4.6026 0.3574 2.3950
-4.6143 0.1920 2.3949
-4.6199 0.0263 2.3948
-4.6197 -0.1396 2.3947
-4.6134 -0.3054 2.3946
-4.6012 -0.4709 2.3945
-4.5831 -0.6359 2.3945
-4.5590 -0.8002 2.3944
-4.5290 -0.9636 2.3943
-4.4932 -1.1259 2.3942
-4.4515 -1.2868 2.3941
-4.4040 -1.4461 2.3940
-4.3509 -1.6036 2.3939
-4.2920 -1.7592 2.3938
-4.2276 -1.9126 2.3937
-4.1577 -2.0636 2.3936
-4.0823 -2.2121 2.3935
-4.0017 -2.3577 2.3935
-3.9158 -2.5004 2.3934
-3.8248 -2.6399 2.3933
-3.7288 -2.7761 2.3932
-3.6279 -2.9088 2.3931
-3.5223 -3.0377 2.3930
-3.4121 -3.1628 2.3930
-3.2974 -3.2838 2.3929
-3.1783 -3.4007 2.3928
-3.0552 -3.5131 2.3927
-2.9280 -3.6211 2.3927
-2.7969 -3.7244 2.3926
-2.6623 -3.8230 2.3925
-2.5241 -3.9166 2.3924
-2.3826 -4.0051 2.3924
-2.2379 -4.0885 2.3923
-2.0904 -4.1667 2.3923
-1.9400 -4.2394 2.3922
-1.7879 -4.3085 2.3932
-1.6323 -4.3693 2.3927
-1.4747 -4.4247 2.3922
-1.3154 -4.4749 2.3921
-1.1544 -4.5195 2.3921
-0.9919 -4.5582 2.3921
-0.8281 -4.5910 2.3921
-0.6632 -4.6179 2.3921
-0.4974 -4.6387 2.3921
-0.3310 -4.6536 2.3921
-0.1641 -4.6624 2.3921
0.0029 -4.6651 2.3920
0.1700 -4.6618 2.3920
0.3368 -4.6524 2.3920
0.5031 -4.6370 2.3920
0.6688 -4.6155 2.3919
0.8336 -4.5881 2.3919
0.9972 -4.5547 2.3919
1.1595 -4.5155 2.3919
1.3203 -4.4703 2.3918
1.4793 -4.4194 2.3918
1.6363 -4.3628 2.3918
1.7912 -4.3005 2.3917
1.9436 -4.2327 2.3917
2.0935 -4.1594 2.3916
2.2406 -4.0807 2.3916
2.3848 -3.9968 2.3915
2.5257 -3.9078 2.3915
2.6634 -3.8137 2.3914
2.7975 -3.7148 2.3914
2.9279 -3.6110 2.3914
3.0544 -3.5027 2.3913
3.1770 -3.3899 2.3912
3.2953 -3.2727 2.3912
3.4093 -3.1514 2.3911
3.5188 -3.0261 2.3911
3.6237 -2.8970 2.3910
3.7238 -2.7642 2.3910
3.8190 -2.6279 2.3909
3.9093 -2.4883 2.3909
3.9944 -2.3456 2.3908
4.0743 -2.2000 2.3907
4.1488 -2.0516 2.3907
4.2180 -1.9007 2.3906
4.2816 -1.7475 2.3906
4.3397 -1.5921 2.3905
4.3921 -1.4347 2.3905
4.4389 -1.2757 2.3904
4.4798 -1.1151 2.3903
4.5150 -0.9532 2.3903
4.5443 -0.7903 2.3902
4.5677 -0.6264 2.3902
4.5852 -0.4618 2.3901
4.5968 -0.2968 2.3901
4.6024 -0.1315 2.3900
4.6021 0.0338 2.3899
4.5959 0.1989 2.3899
4.5838 0.3636 2.3898
4.5658 0.5278 2.3898
4.5420 0.6911 2.3897
4.5123 0.8535 2.3897
4.4768 1.0146 2.3896
4.4356 1.1742 2.3896
4.3888 1.3323 2.3895
4.3409 1.4901 2.3920
4.2865 1.6459 2.3940
4.2243 1.7987 2.3948
4.1556 1.9487 2.3949
4.0816 2.0962 2.3949
4.0023 2.2408 2.3950
3.9180 2.3825 2.3951
3.8286 2.5211 2.3952
3.7344 2.6563 2.3953
3.6355 2.7881 2.3954
3.5319 2.9162 2.3955
3.4239 3.0405 2.3955
3.3115 3.1609 2.3956
3.1949 3.2771 2.3957
3.0743 3.3891 2.3958
2.9497 3.4968 2.3958
2.8215 3.5998 2.3959
2.6896 3.6983 2.3960
2.5544 3.7919 2.3960
2.4159 3.8807 2.3961
0.9037 1.5752 0.9521
0.8465 1.6068 0.9523
0.7881 1.6363 0.9525
0.7288 1.6637 0.9527
0.6685 1.6890 0.9529
0.6073 1.7120 0.9530
0.5454 1.7329 0.9532
0.4827 1.7515 0.9533
0.4194 1.7678 0.9534
0.3555 1.7818 0.9535
0.2912 1.7935 0.9536
0.2265 1.8029 0.9537
0.1614 1.8100 0.9538
0.0962 1.8147 0.9538
0.0308 1.8171 0.9538
-0.0346 1.8171 0.9538
-0.0999 1.8147 0.9538
-0.1652 1.8100 0.9538
-0.2302 1.8030 0.9537
-0.2950 1.7936 0.9537
-0.3593 1.7818 0.9536
-0.4232 1.7678 0.9535
-0.4865 1.7515 0.9534
-0.5493 1.7328 0.9533
-0.6113 1.7120 0.9531
-0.6725 1.6889 0.9530
-0.7328 1.6636 0.9528
-0.7922 1.6362 0.9526
-0.8505 1.6067 0.9524
-0.9078 1.5750 0.9522
-2.4265 3.8805 2.3966
-2.5651 3.7916 2.3966
-2.7005 3.6978 2.3966
-2.8325 3.5992 2.3965
-2.9609 3.4960 2.3965
-3.0855 3.3882 2.3965
-3.2063 3.2760 2.3964
-3.3230 3.1596 2.3964
-3.4355 3.0390 2.3963
-3.5436 2.9144 2.3962
-3.6473 2.7861 2.3962
-3.7463 2.6541 2.3961
-3.8406 2.5186 2.3961
-3.9299 2.3797 2.3960
-4.0143 2.2377 2.3959
-4.0936 2.0928 2.3959
-4.1676 1.9451 2.3958
-4.2363 1.7947 2.3957
-4.2997 1.6420 2.3956
-4.3575 1.4871 2.3956
-4.4097 1.3301 2.3955
-4.4563 1.1713 2.3954
-4.4972 1.0109 2.3953
-4.5324 0.8491 2.3952
-4.5617 0.6861 2.3952
-4.5851 0.5221 2.3951
-4.6027 0.3573 2.3950
-4.6143 0.1919 2.3949
-4.6199 0.0262 2.3948
-4.6197 -0.1397 2.3947
-4.6134 -0.3055 2.3946
-4.6012 -0.4710 2.3945
-4.5831 -0.6360 2.3945
-4.5590 -0.8003 2.3944
-4.5290 -0.9637 2.3943
-4.4932 -1.1260 2.3942
-4.4515 -1.2869 2.3941
-4.4040 -1.4462 2.3940
-4.3508 -1.6037 2.3939
-4.2920 -1.7593 2.3938
-4.2276 -1.9127 2.3937
-4.1576 -2.0637 2.3936
-4.0823 -2.2122 2.3935
-4.0016 -2.3578 2.3935
-3.9157 -2.5005 2.3934
-3.8247 -2.6400 2.3933
-3.7287 -2.7762 2.3932
-3.6278 -2.9088 2.3931
-3.5222 -3.0378 2.3930
-3.4120 -3.1629 2.3930
-3.2973 -3.2839 2.3929
-3.1783 -3.4007 2.3928
-3.0551 -3.5132 2.3927
-2.9279 -3.6212 2.3927
-2.7969 -3.7245 2.3926
-2.6622 -3.8230 2.3925
-2.5240 -3.9166 2.3924
-2.3825 -4.0052 2.3924
-2.2378 -4.0886 2.3923
-2.0903 -4.1667 2.3923
-1.9399 -4.2394 2.3922
-1.7878 -4.3085 2.3932
-1.6323 -4.3694 2.3927
-1.4746 -4.4247 2.3922
-1.3153 -4.4749 2.3921
-1.1543 -4.5195 2.3921
-0.9918 -4.5582 2.3921
-0.8280 -4.5911 2.3921
-0.6630 -4.6179 2.3921
-0.4973 -4.6387 2.3921
-0.3308 -4.6536 2.3921
-0.1640 -4.6624 2.3921
0.0026 -4.4170 2.3920
0.1608 -4.4139 2.3919
0.3187 -4.4050 2.3919
0.4762 -4.3904 2.3919
0.6330 -4.3702 2.3919
0.7890 -4.3442 2.3918
0.9439 -4.3127 2.3918
1.0976 -4.2755 2.3918
1.2498 -4.2328 2.3918
1.4003 -4.1847 2.3917
1.5490 -4.1311 2.3917
1.6956 -4.0722 2.3916
1.8400 -4.0080 2.3916
1.9819 -3.9386 2.3916
2.1212 -3.8642 2.3915
2.2577 -3.7848 2.3915
2.3912 -3.7006 2.3914
2.5216 -3.6115 2.3914
2.6486 -3.5179 2.3914
2.7721 -3.4197 2.3913
2.8920 -3.3172 2.3913
3.0080 -3.2104 2.3912
3.1201 -3.0996 2.3912
3.2281 -2.9847 2.3911
3.3318 -2.8661 2.3911
