ply
format ascii 1.0
element vertex 2178
property float32 x
property float32 y
property float32 z
end_header
7.3550 2.2096 2.2561
7.2578 2.4686 2.2564
7.1519 2.7236 2.2567
7.0375 2.9744 2.2570
6.9147 3.2208 2.2573
5.6240 2.8705 1.8716
6.6447 3.6990 2.2578
6.4978 3.9304 2.2581
6.3433 4.1563 2.2584
6.1814 4.3765 2.2587
6.0122 4.5908 2.2590
5.4184 4.4555 2.0975
5.6519 4.9997 2.2591
5.4608 5.1934 2.2587
5.2614 5.3782 2.2574
5.0525 5.5517 2.2545
4.8443 5.7247 2.2544
4.6308 5.8908 2.2544
4.4119 6.0493 2.2544
4.1879 6.2002 2.2544
3.9591 6.3434 2.2544
3.7257 6.4786 2.2544
3.4880 6.6059 2.2544
3.2462 6.7249 2.2544
3.2035 7.2978 2.4068
2.9375 7.4071 2.4068
2.6680 7.5073 2.4068
2.3952 7.5983 2.4068
0.8862 3.2110 1.0063
0.7699 3.2413 1.0063
0.6525 3.2674 1.0062
0.5343 3.2892 1.0061
0.4153 3.3068 1.0058
0.2958 3.3200 1.0055
0.1758 3.3289 1.0051
0.0556 3.3335 1.0046
-0.0646 3.3337 1.0040
-0.1849 3.3296 1.0034
-0.3049 3.3211 1.0026
-0.4245 3.3083 1.0018
-0.5436 3.2912 1.0009
-0.6619 3.2697 0.9999
-0.7795 3.2440 0.9989
-0.8960 3.2141 0.9978
-2.4425 7.6799 2.4068
-2.7213 7.5971 2.4068
-2.9976 7.5048 2.4068
-3.2709 7.4029 2.4068
-3.5410 7.2915 2.4068
-3.8076 7.1708 2.4068
-4.0702 7.0407 2.4068
-4.3285 6.9015 2.4068
-4.5825 6.7532 2.4068
-4.8315 6.5960 2.4068
-5.0754 6.4300 2.4068
-5.3140 6.2553 2.4068
-5.5466 6.0721 2.4068
-5.7732 5.8806 2.4068
-5.9935 5.6809 2.4068
-6.2072 5.4733 2.4068
-6.4138 5.2579 2.4068
-6.6132 5.0349 2.4068
-6.8051 4.8046 2.4068
-6.9891 4.5672 2.4068
-7.1652 4.3230 2.4068
-7.3327 4.0721 2.4068
-7.4918 3.8150 2.4068
-7.6419 3.5518 2.4068
-7.7829 3.2828 2.4068
-7.9146 3.0084 2.4068
-8.0367 2.7289 2.4068
-8.1489 2.4445 2.4068
-8.2512 2.1557 2.4068
-8.3433 1.8627 2.4068
-8.4249 1.5660 2.4068
-8.4959 1.2659 2.4068
-8.5563 0.9627 2.4068
-8.6057 0.6568 2.4068
-8.6441 0.3487 2.4068
-8.6713 0.0388 2.4068
-8.6872 -0.2726 2.4068
-8.6918 -0.5851 2.4068
-8.6849 -0.8981 2.4068
-8.6665 -1.2113 2.4068
-8.6366 -1.5243 2.4068
-8.5951 -1.8365 2.4068
-8.5420 -2.1477 2.4068
-8.4773 -2.4572 2.4068
-8.4010 -2.7647 2.4068
-8.3132 -3.0697 2.4068
-8.2140 -3.3717 2.4068
-8.1034 -3.6704 2.4068
-7.9815 -3.9652 2.4068
-7.8484 -4.2557 2.4068
-7.7043 -4.5414 2.4068
-7.5494 -4.8220 2.4068
-7.3838 -5.0969 2.4068
-7.2077 -5.3658 2.4068
-7.0213 -5.6282 2.4068
-6.8250 -5.8836 2.4068
-6.6188 -6.1317 2.4068
-6.4032 -6.3721 2.4068
-6.1784 -6.6044 2.4068
-5.9447 -6.8281 2.4068
-5.7024 -7.0431 2.4068
-5.4519 -7.2488 2.4068
-5.1936 -7.4449 2.4068
-4.9278 -7.6312 2.4068
-4.6549 -7.8074 2.4068
-4.3754 -7.9730 2.4068
-4.0896 -8.1280 2.4068
-3.7980 -8.2719 2.4068
-3.5010 -8.4046 2.4068
-3.1991 -8.5259 2.4068
-2.8927 -8.6356 2.4068
-2.5824 -8.7334 2.4068
-2.2685 -8.8193 2.4068
-1.9517 -8.8931 2.4068
-1.6323 -8.9548 2.4068
-1.3109 -9.0041 2.4068
-0.9879 -9.0412 2.4068
-0.6639 -9.0658 2.4068
-0.3393 -9.0781 2.4068
-0.0144 -8.3171 2.4068
0.2824 -8.3061 2.4068
0.5785 -8.2840 2.4068
0.8732 -8.2506 2.4068
1.1663 -8.2062 2.4068
1.4572 -8.1507 2.4068
1.7455 -8.0844 2.4068
2.0309 -8.0073 2.4068
2.3128 -7.9196 2.4068
2.5909 -7.8214 2.4068
2.8648 -7.7130 2.4068
3.1342 -7.5947 2.4068
3.3985 -7.4663 2.4068
3.6575 -7.3284 2.4068
3.9108 -7.1811 2.4068
3.9834 -6.7296 2.3057
4.1235 -6.4301 2.2561
4.3399 -6.2625 2.2545
4.5532 -6.0924 2.2547
4.7605 -5.9159 2.2552
4.9608 -5.7321 2.2558
5.1538 -5.5412 2.2564
5.3394 -5.3437 2.2569
5.5173 -5.1397 2.2574
5.6872 -4.9297 2.2579
5.8491 -4.7138 2.2584
5.9951 -4.4869 2.2560
6.1228 -4.2489 2.2502
6.2586 -4.0188 2.2506
6.3851 -3.7839 2.2507
6.5028 -3.5450 2.2509
6.6116 -3.3025 2.2511
6.7114 -3.0567 2.2513
6.8022 -2.8080 2.2515
6.8838 -2.5566 2.2518
6.9562 -2.3030 2.2520
7.0193 -2.0475 2.2522
6.1204 -1.5492 1.9490
7.1179 -1.5320 2.2527
7.1532 -1.2727 2.2529
7.1793 -1.0129 2.2531
7.1961 -0.7527 2.2534
7.2037 -0.4926 2.2536
7.2021 -0.2329 2.2539
7.1914 0.0260 2.2541
7.1717 0.2840 2.2544
7.1429 0.5407 2.2546
7.1053 0.7957 2.2549
7.0589 1.0489 2.2551
7.0037 1.2998 2.2554
6.9399 1.5482 2.2557
6.8677 1.7939 2.2559
6.7871 2.0364 2.2562
6.6982 2.2757 2.2565
6.6013 2.5114 2.2567
6.4964 2.7433 2.2570
5.6330 2.6216 1.9918
6.2635 3.1945 2.2575
6.1357 3.4133 2.2578
6.0007 3.6274 2.2581
5.8586 3.8364 2.2583
5.7095 4.0402 2.2586
5.5537 4.2385 2.2588
5.3913 4.4312 2.2591
5.2227 4.6180 2.2593
5.0464 4.7973 2.2589
4.8554 4.9613 2.2544
4.6689 5.1284 2.2544
4.4770 5.2889 2.2544
4.2799 5.4427 2.2544
4.0777 5.5896 2.2544
3.8709 5.7294 2.2544
3.6595 5.8620 2.2544
3.4438 5.9872 2.2544
3.2241 6.1050 2.2544
3.0006 6.2153 2.2544
2.9611 6.7449 2.4068
2.7152 6.8461 2.4068
2.4660 6.9388 2.4068
0.9207 2.9207 1.0009
0.8148 2.9524 1.0010
0.7078 2.9803 1.0011
0.5998 3.0043 1.0010
0.4910 3.0243 1.0008
0.3816 3.0405 1.0006
0.2717 3.0526 1.0003
0.1613 3.0608 1.0000
0.0508 3.0650 0.9995
-0.0599 3.0652 0.9990
-0.1705 3.0614 0.9984
-0.2808 3.0536 0.9977
-0.3909 3.0418 0.9969
-0.5004 3.0260 0.9961
-0.6093 3.0063 0.9952
-0.7174 2.9826 0.9943
-0.8245 2.9551 0.9932
-2.2577 7.0927 2.4068
-2.5152 7.0156 2.4068
-2.7701 6.9296 2.4068
-3.0222 6.8347 2.4068
-3.2715 6.7311 2.4068
-3.5172 6.6188 2.4068
-3.7592 6.4980 2.4068
-3.9973 6.3687 2.4068
-4.2311 6.2310 2.4068
-4.4606 6.0850 2.4068
-4.6851 5.9310 2.4068
-4.9044 5.7690 2.4068
-5.1185 5.5991 2.4068
-5.3268 5.4217 2.4068
-5.5291 5.2367 2.4068
-5.7253 5.0444 2.4068
-5.9150 4.8450 2.4068
-6.0979 4.6386 2.4068
-6.2738 4.4256 2.4068
-6.4424 4.2061 2.4068
-6.6034 3.9803 2.4068
-6.7568 3.7485 2.4068
-6.9021 3.5110 2.4068
-7.0392 3.2680 2.4068
-7.1679 3.0197 2.4068
-7.2878 2.7666 2.4068
-7.3989 2.5087 2.4068
-7.5010 2.2466 2.4068
-7.5937 1.9804 2.4068
-7.6771 1.7105 2.4068
-7.7508 1.4372 2.4068
-7.8148 1.1609 2.4068
-7.8688 0.8819 2.4068
-7.9129 0.6006 2.4068
-7.9468 0.3172 2.4068
-7.9704 0.0323 2.4068
-7.9836 -0.2538 2.4068
-7.9865 -0.5405 2.4068
-7.9788 -0.8283 2.4068
-7.9606 -1.1158 2.4068
-7.9317 -1.4030 2.4068
-7.8923 -1.6895 2.4068
-7.8423 -1.9749 2.4068
-7.7816 -2.2586 2.4068
-7.7104 -2.5405 2.4068
-7.6287 -2.8199 2.4068
-7.5365 -3.0966 2.4068
-7.4340 -3.3701 2.4068
-7.3211 -3.6400 2.4068
-7.1981 -3.9059 2.4068
-7.0650 -4.1674 2.4068
-6.9221 -4.4241 2.4068
-6.7691 -4.6767 2.4068
-6.6072 -4.9214 2.4068
-6.4357 -5.1613 2.4068
-6.2551 -5.3948 2.4068
-6.0656 -5.6216 2.4068
-5.8674 -5.8413 2.4068
-5.6610 -6.0536 2.4068
-5.4464 -6.2581 2.4068
-5.2241 -6.4545 2.4068
-4.9943 -6.6424 2.4068
-4.7574 -6.8217 2.4068
-4.5137 -6.9919 2.4068
-4.2636 -7.1528 2.4068
-4.0075 -7.3044 2.4068
-3.7457 -7.4458 2.4068
-3.4786 -7.5774 2.4068
-3.2066 -7.6987 2.4068
-2.9301 -7.8097 2.4068
-2.6496 -7.9100 2.4068
-2.3654 -7.9996 2.4068
-2.0781 -8.0783 2.4068
-1.7880 -8.1460 2.4068
-1.4956 -8.2026 2.4068
-1.2013 -8.2480 2.4068
-0.9056 -8.2822 2.4068
-0.6089 -8.3052 2.4068
-0.3118 -8.3168 2.4068
-0.0145 -8.3171 2.4068
0.2824 -8.3062 2.4068
0.5784 -8.2840 2.4068
0.8732 -8.2506 2.4068
1.1662 -8.2062 2.4068
1.4572 -8.1507 2.4068
1.7455 -8.0844 2.4068
2.0308 -8.0073 2.4068
2.3128 -7.9196 2.4068
2.5909 -7.8214 2.4068
2.8648 -7.7130 2.4068
3.1341 -7.5946 2.4068
3.3984 -7.4663 2.4068
3.6574 -7.3284 2.4068
3.9107 -7.1811 2.4068
3.9834 -6.7297 2.3057
4.1235 -6.4301 2.2562
4.3398 -6.2625 2.2545
4.5531 -6.0925 2.2547
4.7604 -5.9160 2.2552
4.9607 -5.7321 2.2558
5.1538 -5.5413 2.2564
5.3394 -5.3437 2.2569
5.5173 -5.1397 2.2574
5.6872 -4.9297 2.2579
5.8490 -4.7139 2.2584
5.9951 -4.4870 2.2560
6.1228 -4.2490 2.2502
6.2586 -4.0189 2.2506
6.3851 -3.7839 2.2507
6.5028 -3.5450 2.2509
6.6116 -3.3025 2.2511
6.7114 -3.0568 2.2513
6.8022 -2.8080 2.2515
6.8838 -2.5567 2.2518
6.9562 -2.3031 2.2520
7.0193 -2.0476 2.2522
6.1203 -1.5492 1.9490
7.1179 -1.5321 2.2527
7.1532 -1.2728 2.2529
7.1793 -1.0129 2.2531
7.1961 -0.7528 2.2534
7.2037 -0.4927 2.2536
7.2021 -0.2330 2.2539
7.1914 0.0260 2.2541
7.1717 0.2840 2.2544
7.1429 0.5406 2.2546
7.1053 0.7957 2.2549
7.0589 1.0488 2.2551
7.0037 1.2997 2.2554
6.9399 1.5482 2.2557
6.8677 1.7938 2.2559
6.7871 2.0364 2.2562
6.6983 2.2757 2.2565
6.6013 2.5114 2.2567
6.4965 2.7432 2.2570
5.6330 2.6216 1.9918
6.2635 3.1944 2.2575
6.1358 3.4133 2.2578
6.0007 3.6274 2.2581
5.8586 3.8364 2.2583
5.7095 4.0402 2.2586
5.5537 4.2385 2.2588
5.3914 4.4312 2.2591
5.2227 4.6179 2.2593
5.0464 4.7973 2.2589
4.8554 4.9612 2.2544
4.6689 5.1284 2.2544
4.4770 5.2889 2.2544
4.2799 5.4427 2.2544
4.0778 5.5895 2.2544
3.8709 5.7293 2.2544
3.6595 5.8619 2.2544
3.4439 5.9872 2.2544
3.2242 6.1050 2.2544
3.0007 6.2153 2.2544
2.9611 6.7449 2.4068
2.7152 6.8461 2.4068
2.4661 6.9388 2.4068
0.9207 2.9207 1.0009
0.8148 2.9524 1.0010
0.7078 2.9803 1.0011
0.5998 3.0043 1.0010
0.4911 3.0243 1.0008
0.3816 3.0405 1.0006
0.2717 3.0526 1.0003
0.1613 3.0608 1.0000
0.0508 3.0650 0.9995
-0.0599 3.0652 0.9990
-0.1704 3.0614 0.9984
-0.2808 3.0536 0.9977
-0.3908 3.0418 0.9969
-0.5004 3.0260 0.9961
-0.6093 3.0063 0.9952
-0.7174 2.9827 0.9943
-0.8245 2.9551 0.9932
-2.2576 7.0927 2.4068
-2.5151 7.0156 2.4068
-2.7701 6.9296 2.4068
-3.0222 6.8347 2.4068
-3.2713 6.7311 2.4068
-3.5171 6.6189 2.4068
-3.7592 6.4980 2.4068
-3.9973 6.3687 2.4068
-4.2311 6.2310 2.4068
-4.4604 6.0851 2.4068
-4.6850 5.9310 2.4068
-4.9044 5.7690 2.4068
-5.1185 5.5992 2.4068
-5.3267 5.4217 2.4068
-5.5291 5.2367 2.4068
-5.7253 5.0444 2.4068
-5.9149 4.8450 2.4068
-6.0978 4.6387 2.4068
-6.2737 4.4256 2.4068
-6.4423 4.2061 2.4068
-6.6034 3.9803 2.4068
-6.7568 3.7486 2.4068
-6.9021 3.5110 2.4068
-7.0392 3.2680 2.4068
-7.1678 3.0198 2.4068
-7.2878 2.7666 2.4068
-7.3989 2.5088 2.4068
-7.5009 2.2466 2.4068
-7.5937 1.9805 2.4068
-7.6771 1.7106 2.4068
-7.7508 1.4373 2.4068
-7.8148 1.1610 2.4068
-7.8688 0.8820 2.4068
-7.9129 0.6006 2.4068
-7.9468 0.3173 2.4068
-7.9704 0.0324 2.4068
-7.9836 -0.2538 2.4068
-7.9864 -0.5410 2.4068
-7.9788 -0.8283 2.4068
-7.9606 -1.1158 2.4068
-7.9317 -1.4030 2.4068
-7.8923 -1.6895 2.4068
-7.8423 -1.9748 2.4068
-7.7817 -2.2586 2.4068
-7.7105 -2.5404 2.4068
-7.6287 -2.8199 2.4068
-7.5365 -3.0966 2.4068
-7.4340 -3.3701 2.4068
-7.3211 -3.6400 2.4068
-7.1981 -3.9059 2.4068
-7.0651 -4.1673 2.4068
-6.9221 -4.4240 2.4068
-6.7694 -4.6759 2.4068
-6.6073 -4.9214 2.4068
-6.4357 -5.1613 2.4068
-6.2551 -5.3948 2.4068
-6.0656 -5.6216 2.4068
-5.8675 -5.8413 2.4068
-5.6610 -6.0536 2.4068
-5.4464 -6.2581 2.4068
-5.2241 -6.4544 2.4068
-4.9944 -6.6424 2.4068
-4.7575 -6.8216 2.4068
-4.5138 -6.9919 2.4068
-4.2637 -7.1528 2.4068
-4.0075 -7.3044 2.4068
-3.7457 -7.4458 2.4068
-3.4786 -7.5774 2.4068
-3.2066 -7.6987 2.4068
-2.9301 -7.8097 2.4068
-2.6496 -7.9100 2.4068
-2.3655 -7.9996 2.4068
-2.0781 -8.0783 2.4068
-1.7880 -8.1460 2.4068
-1.4956 -8.2026 2.4068
-1.2014 -8.2480 2.4068
-0.9057 -8.2822 2.4068
-0.6090 -8.3052 2.4068
-0.3118 -8.3168 2.4068
-0.0143 -7.6662 2.4068
0.2592 -7.6565 2.4068
0.5320 -7.6365 2.4068
0.8037 -7.6063 2.4068
1.0739 -7.5658 2.4068
1.3421 -7.5153 2.4068
1.6079 -7.4548 2.4068
1.8711 -7.3843 2.4068
2.1312 -7.3041 2.4068
2.3878 -7.2143 2.4068
2.6406 -7.1151 2.4068
2.8892 -7.0066 2.4068
3.1333 -6.8891 2.4068
3.3726 -6.7627 2.4068
3.6066 -6.6276 2.4068
3.8352 -6.4841 2.4068
3.9107 -6.1027 2.3195
4.0040 -5.7820 2.2544
4.2010 -5.6254 2.2544
4.3919 -5.4619 2.2545
4.5773 -5.2929 2.2550
4.7560 -5.1174 2.2555
4.9279 -4.9356 2.2560
5.0928 -4.7480 2.2565
5.2503 -4.5546 2.2570
5.4005 -4.3559 2.2574
5.5430 -4.1522 2.2578
5.6777 -3.9436 2.2582
5.8046 -3.7307 2.2586
5.9117 -3.5066 2.2546
6.0113 -3.2804 2.2509
6.1141 -3.0572 2.2516
6.2073 -2.8303 2.2517
6.2921 -2.6006 2.2519
6.3686 -2.3684 2.2521
6.4365 -2.1341 2.2523
6.4959 -1.8979 2.2525
6.1150 -1.5507 2.1042
6.5890 -1.4212 2.2530
6.6227 -1.1813 2.2532
6.6478 -0.9408 2.2534
6.6643 -0.7000 2.2537
6.6723 -0.4591 2.2539
6.6717 -0.2186 2.2541
6.6627 0.0214 2.2544
6.6453 0.2605 2.2546
6.6195 0.4984 2.2548
6.5855 0.7349 2.2551
6.5432 0.9696 2.2553
6.4929 1.2024 2.2555
6.4345 1.4329 2.2558
6.3682 1.6609 2.2560
6.2942 1.8861 2.2563
6.2125 2.1082 2.2565
6.1232 2.3271 2.2568
5.6608 2.3882 2.1201
5.9226 2.7541 2.2573
5.8115 2.9617 2.2575
5.6935 3.1651 2.2578
5.5686 3.3640 2.2580
5.4371 3.5583 2.2583
5.2992 3.7478 2.2585
5.1550 3.9322 2.2587
5.0046 4.1113 2.2590
4.8483 4.2850 2.2592
4.6850 4.4519 2.2588
4.5082 4.6047 2.2544
4.3353 4.7602 2.2544
4.1573 4.9095 2.2544
3.9744 5.0526 2.2544
3.7868 5.1893 2.2544
3.5948 5.3193 2.2544
3.3986 5.4427 2.2544
3.1984 5.5593 2.2544
2.9944 5.6689 2.2544
2.8824 5.9694 2.3318
2.7500 6.2634 2.4068
2.5216 6.3574 2.4068
2.2901 6.4436 2.4068
0.8512 2.7001 0.9964
0.7532 2.7294 0.9965
0.6542 2.7552 0.9965
0.5544 2.7773 0.9965
0.4538 2.7959 0.9963
0.3525 2.8107 0.9961
0.2509 2.8220 0.9959
0.1488 2.8295 0.9955
0.0466 2.8334 0.9951
-0.0557 2.8335 0.9946
-0.1580 2.8300 0.9941
-0.2601 2.8228 0.9934
-0.3618 2.8119 0.9927
-0.4631 2.7973 0.9920
-0.5638 2.7790 0.9911
-0.6638 2.7572 0.9903
-0.7629 2.7317 0.9893
-0.8611 2.7027 0.9883
-2.3357 6.5099 2.4068
-2.5722 6.4295 2.4068
-2.8060 6.3409 2.4068
-3.0370 6.2441 2.4068
-3.2648 6.1393 2.4068
-3.4890 6.0265 2.4068
-3.7096 5.9059 2.4068
-3.9261 5.7775 2.4068
-4.1384 5.6415 2.4068
-4.3462 5.4979 2.4068
-4.5491 5.3470 2.4068
-4.7470 5.1889 2.4068
-4.9396 5.0237 2.4068
-5.1265 4.8515 2.4068
-5.3077 4.6726 2.4068
-5.4828 4.4872 2.4068
-5.6515 4.2954 2.4068
-5.8136 4.0974 2.4068
-5.9690 3.8935 2.4068
-6.1174 3.6838 2.4068
-6.2585 3.4686 2.4068
-6.3921 3.2481 2.4068
-6.5181 3.0226 2.4068
-6.6362 2.7924 2.4068
-6.7463 2.5576 2.4068
-6.8481 2.3186 2.4068
-6.9414 2.0757 2.4068
-7.0262 1.8291 2.4068
-7.1022 1.5792 2.4068
-7.1693 1.3262 2.4068
-7.2274 1.0705 2.4068
-7.2763 0.8124 2.4068
-7.3159 0.5521 2.4068
-7.3461 0.2902 2.4068
-7.3668 0.0268 2.4068
-7.3779 -0.2376 2.4068
-7.3794 -0.5027 2.4068
-7.3713 -0.7682 2.4068
-7.3533 -1.0337 2.4068
-7.3257 -1.2987 2.4068
-7.2882 -1.5631 2.4068
-7.2410 -1.8263 2.4068
-7.1841 -2.0880 2.4068
-7.1174 -2.3478 2.4068
-7.0410 -2.6054 2.4068
-6.9551 -2.8604 2.4068
-6.8596 -3.1124 2.4068
-6.7547 -3.3610 2.4068
-6.6404 -3.6059 2.4068
-6.5169 -3.8466 2.4068
-6.3844 -4.0829 2.4068
-6.2430 -4.3144 2.4068
-6.0928 -4.5406 2.4068
-5.9341 -4.7613 2.4068
-5.7670 -4.9762 2.4068
-5.5919 -5.1848 2.4068
-5.4088 -5.3869 2.4068
-5.2181 -5.5821 2.4068
-5.0200 -5.7702 2.4068
-4.8148 -5.9507 2.4068
-4.6028 -6.1236 2.4068
-4.3843 -6.2884 2.4068
-4.1596 -6.4450 2.4068
-3.9290 -6.5929 2.4068
-3.6929 -6.7321 2.4068
-3.4516 -6.8624 2.4068
-3.2054 -6.9834 2.4068
-2.9548 -7.0951 2.4068
-2.7001 -7.1972 2.4068
-2.4417 -7.2895 2.4068
-2.1799 -7.3721 2.4068
-1.9153 -7.4446 2.4068
-1.6481 -7.5071 2.4068
-1.3787 -7.5593 2.4068
-1.1077 -7.6014 2.4068
-0.8353 -7.6331 2.4068
-0.5620 -7.6545 2.4068
-0.2882 -7.6655 2.4068
-0.0144 -7.6662 2.4068
0.2592 -7.6565 2.4068
0.5320 -7.6365 2.4068
0.8037 -7.6063 2.4068
1.0738 -7.5659 2.4068
1.3420 -7.5153 2.4068
1.6079 -7.4548 2.4068
1.8711 -7.3843 2.4068
2.1311 -7.3042 2.4068
2.3878 -7.2144 2.4068
2.6406 -7.1151 2.4068
2.8892 -7.0067 2.4068
3.1333 -6.8891 2.4068
3.3725 -6.7627 2.4068
3.6066 -6.6276 2.4068
3.8352 -6.4841 2.4068
3.9107 -6.1027 2.3195
4.0039 -5.7820 2.2544
4.2010 -5.6254 2.2544
4.3919 -5.4619 2.2545
4.5772 -5.2929 2.2550
4.7560 -5.1174 2.2555
4.9279 -4.9357 2.2560
5.0927 -4.7480 2.2565
5.2503 -4.5547 2.2570
5.4005 -4.3560 2.2574
5.5430 -4.1522 2.2578
5.6777 -3.9437 2.2582
5.8045 -3.7307 2.2586
5.9117 -3.5066 2.2546
6.0113 -3.2804 2.2509
6.1140 -3.0573 2.2516
6.2073 -2.8304 2.2517
6.2921 -2.6007 2.2519
6.3685 -2.3685 2.2521
6.4365 -2.1341 2.2523
6.4959 -1.8979 2.2525
6.1151 -1.5507 2.1042
6.5890 -1.4212 2.2530
6.6227 -1.1813 2.2532
6.6477 -0.9408 2.2534
6.6643 -0.7000 2.2537
6.6723 -0.4592 2.2539
6.6717 -0.2186 2.2541
6.6627 0.0213 2.2544
6.6453 0.2604 2.2546
6.6195 0.4983 2.2548
6.5855 0.7348 2.2551
6.5432 0.9696 2.2553
6.4929 1.2023 2.2555
6.4345 1.4329 2.2558
6.3683 1.6608 2.2560
6.2942 1.8860 2.2563
6.2125 2.1082 2.2565
6.1232 2.3271 2.2568
5.6608 2.3882 2.1201
5.9226 2.7540 2.2573
5.8115 2.9616 2.2575
5.6935 3.1650 2.2578
5.5686 3.3640 2.2580
5.4372 3.5583 2.2583
5.2992 3.7477 2.2585
5.1550 3.9321 2.2587
5.0046 4.1113 2.2590
4.8483 4.2849 2.2592
4.6851 4.4519 2.2588
4.5082 4.6046 2.2544
4.3353 4.7601 2.2544
4.1573 4.9095 2.2544
3.9744 5.0526 2.2544
3.7868 5.1892 2.2544
3.5948 5.3193 2.2544
3.3986 5.4427 2.2544
3.1984 5.5592 2.2544
2.9944 5.6688 2.2544
2.8824 5.9693 2.3317
2.7501 6.2633 2.4068
2.5217 6.3574 2.4068
2.2902 6.4436 2.4068
0.8512 2.7001 0.9964
0.7532 2.7294 0.9965
0.6542 2.7552 0.9965
0.5544 2.7773 0.9965
0.4538 2.7959 0.9963
0.3526 2.8107 0.9961
0.2509 2.8220 0.9959
0.1488 2.8295 0.9955
0.0466 2.8334 0.9951
-0.0557 2.8335 0.9946
-0.1580 2.8300 0.9941
-0.2601 2.8228 0.9934
-0.3618 2.8119 0.9927
-0.4631 2.7973 0.9920
-0.5638 2.7791 0.9911
-0.6638 2.7572 0.9903
-0.7629 2.7317 0.9893
-0.8610 2.7027 0.9883
-2.3357 6.5099 2.4068
-2.5722 6.4295 2.4068
-2.8060 6.3409 2.4068
-3.0370 6.2441 2.4068
-3.2648 6.1393 2.4068
-3.4889 6.0266 2.4068
-3.7095 5.9059 2.4068
-3.9261 5.7775 2.4068
-4.1384 5.6415 2.4068
-4.3461 5.4980 2.4068
-4.5491 5.3471 2.4068
-4.7469 5.1889 2.4068
-4.9395 5.0237 2.4068
-5.1265 4.8516 2.4068
-5.3076 4.6727 2.4068
-5.4827 4.4872 2.4068
-5.6514 4.2954 2.4068
-5.8136 4.0974 2.4068
-5.9690 3.8935 2.4068
-6.1173 3.6838 2.4068
-6.2585 3.4686 2.4068
-6.3921 3.2482 2.4068
-6.5181 3.0227 2.4068
-6.6362 2.7924 2.4068
-6.7463 2.5577 2.4068
-6.8481 2.3187 2.4068
-6.9414 2.0758 2.4068
-7.0262 1.8292 2.4068
-7.1022 1.5792 2.4068
-7.1693 1.3263 2.4068
-7.2274 1.0705 2.4068
-7.2762 0.8124 2.4068
-7.3158 0.5522 2.4068
-7.3460 0.2902 2.4068
-7.3668 0.0269 2.4068
-7.3779 -0.2375 2.4068
-7.3794 -0.5027 2.4068
-7.3713 -0.7682 2.4068
-7.3533 -1.0336 2.4068
-7.3257 -1.2987 2.4068
-7.2882 -1.5630 2.4068
-7.2410 -1.8262 2.4068
-7.1841 -2.0879 2.4068
-7.1174 -2.3478 2.4068
-7.0411 -2.6054 2.4068
-6.9551 -2.8604 2.4068
-6.8596 -3.1124 2.4068
-6.7547 -3.3609 2.4068
-6.6404 -3.6058 2.4068
-6.5169 -3.8466 2.4068
-6.3844 -4.0829 2.4068
-6.2430 -4.3143 2.4068
-6.0928 -4.5406 2.4068
-5.9341 -4.7613 2.4068
-5.7671 -4.9761 2.4068
-5.5919 -5.1848 2.4068
-5.4088 -5.3868 2.4068
-5.2181 -5.5821 2.4068
-5.0200 -5.7701 2.4068
-4.8149 -5.9507 2.4068
-4.6029 -6.1235 2.4068
-4.3843 -6.2884 2.4068
-4.1596 -6.4448 2.4068
-3.9290 -6.5929 2.4068
-3.6929 -6.7321 2.4068
-3.4516 -6.8623 2.4068
-3.2055 -6.9834 2.4068
-2.9549 -7.0950 2.4068
-2.7001 -7.1971 2.4068
-2.4417 -7.2895 2.4068
-2.1800 -7.3721 2.4068
-1.9153 -7.4446 2.4068
-1.6481 -7.5071 2.4068
-1.3788 -7.5593 2.4068
-1.1077 -7.6014 2.4068
-0.8353 -7.6331 2.4068
-0.5620 -7.6545 2.4068
-0.2883 -7.6655 2.4068
-0.0142 -7.1024 2.4068
0.2391 -7.0938 2.4068
0.4918 -7.0756 2.4068
0.7435 -7.0480 2.4068
0.9938 -7.0110 2.4068
1.2423 -6.9646 2.4068
1.4887 -6.9090 2.4068
1.7326 -6.8443 2.4068
1.9737 -6.7705 2.4068
2.2117 -6.6879 2.4068
2.4461 -6.5965 2.4068
2.6768 -6.4966 2.4068
2.9033 -6.3882 2.4068
3.1253 -6.2717 2.4068
3.3426 -6.1471 2.4068
3.5549 -6.0147 2.4068
3.7618 -5.8747 2.4068
3.8469 -5.5592 2.3362
3.8954 -5.2201 2.2544
4.0728 -5.0689 2.2544
4.2444 -4.9117 2.2545
4.4103 -4.7491 2.2548
4.5703 -4.5810 2.2553
4.7237 -4.4074 2.2557
4.8704 -4.2285 2.2561
5.0103 -4.0446 2.2565
5.1431 -3.8560 2.2569
5.2688 -3.6629 2.2573
5.3872 -3.4657 2.2577
5.4981 -3.2645 2.2580
5.6014 -3.0598 2.2584
5.6971 -2.8518 2.2587
5.7784 -2.6378 2.2564
5.8473 -2.4197 2.2524
5.9180 -2.2039 2.2522
5.9826 -1.9865 2.2527
6.0386 -1.7672 2.2528
6.0867 -1.5463 2.2530
6.1267 -1.3243 2.2532
6.1588 -1.1013 2.2535
6.1829 -0.8777 2.2537
6.1990 -0.6538 2.2539
6.2072 -0.4298 2.2541
6.2075 -0.2060 2.2543
6.1998 0.0173 2.2545
6.1843 0.2398 2.2548
6.1610 0.4613 2.2550
6.1300 0.6815 2.2552
6.0914 0.9002 2.2554
6.0451 1.1170 2.2557
5.9914 1.3318 2.2559
5.9303 1.5443 2.2561
5.8619 1.7542 2.2563
5.7863 1.9613 2.2566
5.7037 2.1654 2.2568
5.6141 2.3663 2.2570
5.5178 2.5636 2.2573
5.4147 2.7573 2.2575
5.3051 2.9471 2.2577
5.1892 3.1327 2.2579
5.0678 3.3146 2.2585
4.9404 3.4920 2.2591
4.8051 3.6634 2.2589
4.6642 3.8297 2.2586
4.5177 3.9910 2.2583
4.3659 4.1469 2.2579
4.2089 4.2973 2.2576
4.0470 4.4420 2.2572
3.8761 4.5760 2.2544
3.7058 4.7096 2.2544
3.5310 4.8372 2.2544
3.3520 4.9587 2.2544
3.1691 5.0740 2.2544
2.9825 5.1828 2.2544
2.7922 5.2852 2.2544
2.7744 5.7447 2.4068
2.5644 5.8398 2.4068
2.3513 5.9276 2.4068
0.8805 2.4772 0.9924
0.7905 2.5077 0.9925
0.6995 2.5349 0.9926
0.6075 2.5588 0.9926
0.5147 2.5794 0.9926
0.4212 2.5966 0.9924
0.3272 2.6104 0.9922
0.2327 2.6208 0.9920
0.1379 2.6278 0.9917
0.0429 2.6314 0.9913
-0.0521 2.6315 0.9908
-0.1472 2.6282 0.9903
-0.2420 2.6215 0.9897
-0.3365 2.6114 0.9891
-0.4306 2.5978 0.9884
-0.5242 2.5809 0.9876
-0.6171 2.5605 0.9868
-0.7092 2.5369 0.9859
-0.8003 2.5099 0.9849
-0.8905 2.4797 0.9839
-2.3985 5.9902 2.4068
-2.6162 5.9072 2.4068
-2.8312 5.8165 2.4068
-3.0432 5.7183 2.4068
-3.2519 5.6127 2.4068
-3.4571 5.4998 2.4068
-3.6585 5.3797 2.4068
-3.8559 5.2524 2.4068
-4.0490 5.1182 2.4068
-4.2376 4.9771 2.4068
-4.4214 4.8293 2.4068
-4.6002 4.6749 2.4068
-4.7738 4.5141 2.4068
-4.9417 4.3471 2.4068
-5.1042 4.1739 2.4068
-5.2607 3.9949 2.4068
-5.4109 3.8102 2.4068
-5.5548 3.6199 2.4068
-5.6922 3.4244 2.4068
-5.8227 3.2238 2.4068
-5.9463 3.0183 2.4068
-6.0627 2.8082 2.4068
-6.1717 2.5937 2.4068
-6.2732 2.3751 2.4068
-6.3670 2.1526 2.4068
-6.4530 1.9265 2.4068
-6.5309 1.6971 2.4068
-6.6006 1.4646 2.4068
-6.6621 1.2294 2.4068
-6.7151 0.9916 2.4068
-6.7597 0.7517 2.4068
-6.7955 0.5099 2.4068
-6.8227 0.2666 2.4068
-6.8410 0.0220 2.4068
-6.8505 -0.2235 2.4068
-6.8510 -0.4696 2.4068
-6.8425 -0.7159 2.4068
-6.8250 -0.9622 2.4068
-6.7985 -1.2080 2.4068
-6.7629 -1.4531 2.4068
-6.7183 -1.6971 2.4068
-6.6647 -1.9397 2.4068
-6.6021 -2.1805 2.4068
-6.5305 -2.4191 2.4068
-6.4501 -2.6553 2.4068
-6.3608 -2.8886 2.4068
-6.2629 -3.1188 2.4068
-6.1563 -3.3454 2.4068
-6.0413 -3.5683 2.4068
-5.9179 -3.7869 2.4068
-5.7863 -4.0011 2.4068
-5.6466 -4.2104 2.4068
-5.4991 -4.4146 2.4068
-5.3439 -4.6132 2.4068
-5.1812 -4.8062 2.4068
-5.0113 -4.9930 2.4068
-4.8343 -5.1735 2.4068
-4.6506 -5.3474 2.4068
-4.4603 -5.5143 2.4068
-4.2637 -5.6741 2.4068
-4.0611 -5.8266 2.4068
-3.8529 -5.9712 2.4068
-3.6392 -6.1080 2.4068
-3.4204 -6.2367 2.4068
-3.1969 -6.3572 2.4068
-2.9689 -6.4691 2.4068
-2.7368 -6.5724 2.4068
-2.5010 -6.6669 2.4068
-2.2617 -6.7524 2.4068
-2.0193 -6.8288 2.4068
-1.7743 -6.8960 2.4068
-1.5269 -6.9539 2.4068
-1.2775 -7.0024 2.4068
-1.0266 -7.0415 2.4068
-0.7744 -7.0710 2.4068
-0.5213 -7.0911 2.4068
-0.2678 -7.1015 2.4068
-0.0142 -7.1024 2.4068
0.2391 -7.0938 2.4068
0.4918 -7.0757 2.4068
0.7434 -7.0480 2.4068
0.9937 -7.0110 2.4068
1.2422 -6.9647 2.4068
1.4886 -6.9090 2.4068
1.7326 -6.8443 2.4068
1.9737 -6.7706 2.4068
2.2116 -6.6879 2.4068
2.4461 -6.5965 2.4068
2.6767 -6.4966 2.4068
2.9032 -6.3882 2.4068
3.1253 -6.2717 2.4068
3.3426 -6.1471 2.4068
3.5549 -6.0147 2.4068
3.7618 -5.8747 2.4068
3.8469 -5.5593 2.3362
3.8953 -5.2200 2.2544
4.0728 -5.0689 2.2544
4.2443 -4.9117 2.2545
4.4103 -4.7491 2.2548
4.5702 -4.5810 2.2553
4.7237 -4.4074 2.2557
4.8704 -4.2285 2.2561
5.0103 -4.0446 2.2565
5.1431 -3.8560 2.2569
5.2688 -3.6629 2.2573
5.3871 -3.4657 2.2577
5.4980 -3.2646 2.2580
5.6014 -3.0599 2.2584
5.6971 -2.8519 2.2587
5.7784 -2.6378 2.2564
5.8473 -2.4197 2.2524
5.9180 -2.2039 2.2522
5.9826 -1.9866 2.2527
6.0386 -1.7672 2.2528
6.0867 -1.5464 2.2530
6.1267 -1.3243 2.2532
6.1588 -1.1014 2.2535
6.1829 -0.8778 2.2537
6.1990 -0.6539 2.2539
6.2072 -0.4299 2.2541
6.2075 -0.2061 2.2543
6.1998 0.0172 2.2545
6.1843 0.2398 2.2548
6.1610 0.4613 2.2550
6.1300 0.6815 2.2552
6.0914 0.9001 2.2554
6.0451 1.1170 2.2557
5.9914 1.3318 2.2559
5.9303 1.5443 2.2561
5.8619 1.7542 2.2563
5.7864 1.9613 2.2566
5.7037 2.1654 2.2568
5.6142 2.3662 2.2570
5.5178 2.5636 2.2573
5.4147 2.7573 2.2575
5.3052 2.9470 2.2577
5.1892 3.1327 2.2579
5.0678 3.3146 2.2585
4.9404 3.4920 2.2591
4.8051 3.6633 2.2589
4.6642 3.8297 2.2586
4.5177 3.9909 2.2583
4.3659 4.1468 2.2579
4.2090 4.2973 2.2576
4.0471 4.4420 2.2572
3.8762 4.5759 2.2544
3.7058 4.7096 2.2544
3.5310 4.8372 2.2544
3.3521 4.9587 2.2544
3.1692 5.0740 2.2544
2.9825 5.1828 2.2544
2.7923 5.2852 2.2544
2.7744 5.7447 2.4068
2.5644 5.8397 2.4068
2.3514 5.9275 2.4068
0.8805 2.4772 0.9924
0.7905 2.5077 0.9925
0.6995 2.5349 0.9926
0.6075 2.5588 0.9926
0.5147 2.5793 0.9926
0.4213 2.5966 0.9924
0.3272 2.6104 0.9922
0.2327 2.6208 0.9920
0.1379 2.6278 0.9917
0.0429 2.6314 0.9913
-0.0521 2.6315 0.9908
-0.1471 2.6282 0.9903
-0.2420 2.6215 0.9897
-0.3365 2.6114 0.9891
-0.4306 2.5978 0.9884
-0.5242 2.5809 0.9876
-0.6171 2.5606 0.9868
-0.7092 2.5369 0.9859
-0.8003 2.5099 0.9849
-0.8905 2.4797 0.9839
-2.3984 5.9903 2.4068
-2.6162 5.9072 2.4068
-2.8312 5.8165 2.4068
-3.0432 5.7184 2.4068
-3.2519 5.6128 2.4068
-3.4571 5.4998 2.4068
-3.6584 5.3797 2.4068
-3.8559 5.2525 2.4068
-4.0490 5.1182 2.4068
-4.2375 4.9771 2.4068
-4.4214 4.8293 2.4068
-4.6002 4.6749 2.4068
-4.7737 4.5141 2.4068
-4.9417 4.3471 2.4068
-5.1042 4.1740 2.4068
-5.2606 3.9949 2.4068
-5.4109 3.8102 2.4068
-5.5548 3.6200 2.4068
-5.6922 3.4244 2.4068
-5.8227 3.2238 2.4068
-5.9463 3.0184 2.4068
-6.0627 2.8083 2.4068
-6.1717 2.5938 2.4068
-6.2732 2.3752 2.4068
-6.3670 2.1527 2.4068
-6.4529 1.9266 2.4068
-6.5309 1.6972 2.4068
-6.6006 1.4647 2.4068
-6.6621 1.2294 2.4068
-6.7151 0.9917 2.4068
-6.7596 0.7518 2.4068
-6.7955 0.5100 2.4068
-6.8227 0.2666 2.4068
-6.8410 0.0221 2.4068
-6.8505 -0.2234 2.4068
-6.8510 -0.4695 2.4068
-6.8425 -0.7158 2.4068
-6.8250 -0.9621 2.4068
-6.7985 -1.2080 2.4068
-6.7629 -1.4531 2.4068
-6.7183 -1.6971 2.4068
-6.6647 -1.9396 2.4068
-6.6021 -2.1804 2.4068
-6.5305 -2.4191 2.4068
-6.4501 -2.6552 2.4068
-6.3609 -2.8886 2.4068
-6.2629 -3.1187 2.4068
-6.1564 -3.3454 2.4068
-6.0413 -3.5682 2.4068
-5.9179 -3.7869 2.4068
-5.7863 -4.0010 2.4068
-5.6467 -4.2104 2.4068
-5.4991 -4.4145 2.4068
-5.3439 -4.6132 2.4068
-5.1813 -4.8061 2.4068
-5.0113 -4.9930 2.4068
-4.8343 -5.1735 2.4068
-4.6506 -5.3474 2.4068
-4.4603 -5.5143 2.4068
-4.2637 -5.6741 2.4068
-4.0612 -5.8264 2.4068
-3.8529 -5.9712 2.4068
-3.6392 -6.1080 2.4068
-3.4205 -6.2367 2.4068
-3.1969 -6.3572 2.4068
-2.9690 -6.4691 2.4068
-2.7369 -6.5724 2.4068
-2.5010 -6.6668 2.4068
-2.2617 -6.7524 2.4068
-2.0194 -6.8288 2.4068
-1.7743 -6.8960 2.4068
-1.5269 -6.9539 2.4068
-1.2776 -7.0024 2.4068
-1.0266 -7.0415 2.4068
-0.7744 -7.0710 2.4068
-0.5214 -7.0910 2.4068
-0.2679 -7.1015 2.4068
-0.0141 -6.6089 2.4068
0.2216 -6.6012 2.4068
0.4566 -6.5846 2.4068
0.6907 -6.5592 2.4068
0.9236 -6.5251 2.4068
1.1549 -6.4824 2.4068
1.3842 -6.4310 2.4068
1.6112 -6.3712 2.4068
1.8357 -6.3030 2.4068
2.0573 -6.2266 2.4068
2.2757 -6.1420 2.4068
2.4905 -6.0494 2.4068
2.7016 -5.9491 2.4068
2.9085 -5.8411 2.4068
3.1111 -5.7256 2.4068
3.3090 -5.6029 2.4068
3.5020 -5.4730 2.4068
3.6899 -5.3364 2.4068
3.7900 -5.0826 2.3556
3.7928 -4.7241 2.2544
3.9529 -4.5779 2.2544
4.1074 -4.4263 2.2544
4.2562 -4.2696 2.2546
4.3996 -4.1083 2.2550
4.5367 -3.9420 2.2554
4.6675 -3.7711 2.2558
4.7917 -3.5957 2.2562
4.9094 -3.4161 2.2565
5.0202 -3.2326 2.2569
5.1241 -3.0455 2.2572
5.2210 -2.8550 2.2575
5.3108 -2.6614 2.2578
5.3933 -2.4649 2.2581
5.4686 -2.2659 2.2583
5.5366 -2.0646 2.2586
5.5971 -1.8613 2.2588
5.6467 -1.6553 2.2576
5.6842 -1.4467 2.2546
5.7182 -1.2387 2.2532
5.7490 -1.0306 2.2535
5.7726 -0.8221 2.2539
5.7883 -0.6131 2.2541
5.7965 -0.4039 2.2543
5.7974 -0.1949 2.2545
5.7908 0.0137 2.2547
5.7769 0.2216 2.2549
5.7558 0.4285 2.2551
5.7273 0.6344 2.2553
5.6918 0.8388 2.2555
5.6491 1.0415 2.2557
5.5994 1.2424 2.2559
5.5428 1.4411 2.2562
5.4793 1.6375 2.2564
5.4091 1.8313 2.2566
5.3323 2.0223 2.2568
5.2486 2.2101 2.2569
5.1632 2.3969 2.2590
5.0670 2.5782 2.2591
4.9639 2.7555 2.2589
4.8548 2.9289 2.2587
4.7398 3.0981 2.2585
4.6192 3.2631 2.2582
4.4931 3.4236 2.2580
4.3616 3.5795 2.2577
4.2249 3.7305 2.2574
4.0831 3.8766 2.2571
3.9366 4.0175 2.2568
3.7853 4.1532 2.2565
3.6296 4.2834 2.2562
3.4675 4.4053 2.2544
3.3040 4.5250 2.2544
3.1367 4.6388 2.2544
2.9655 4.7468 2.2544
2.7909 4.8488 2.2544
2.7309 5.1681 2.3562
2.5962 5.3748 2.4068
2.3996 5.4639 2.4068
0.9039 2.2784 0.9887
0.8210 2.3098 0.9889
0.7371 2.3382 0.9891
0.6521 2.3635 0.9891
0.5663 2.3858 0.9891
0.4798 2.4050 0.9891
0.3926 2.4210 0.9890
0.3049 2.4339 0.9888
0.2168 2.4436 0.9886
0.1283 2.4501 0.9883
0.0397 2.4535 0.9879
-0.0490 2.4536 0.9875
-0.1376 2.4505 0.9870
-0.2261 2.4442 0.9864
-0.3142 2.4348 0.9858
-0.4020 2.4221 0.9852
-0.4893 2.4063 0.9845
-0.5759 2.3874 0.9837
-0.6618 2.3653 0.9829
-0.7469 2.3402 0.9820
-0.8310 2.3120 0.9810
-0.9140 2.2808 0.9801
-2.4480 5.5229 2.4068
-2.6489 5.4377 2.4068
-2.8470 5.3455 2.4068
-3.0420 5.2463 2.4068
-3.2336 5.1403 2.4068
-3.4217 5.0275 2.4068
-3.6059 4.9081 2.4068
-3.7860 4.7822 2.4068
-3.9620 4.6498 2.4068
-4.1334 4.5112 2.4068
-4.3001 4.3665 2.4068
-4.4617 4.2158 2.4068
-4.6185 4.0592 2.4068
-4.7697 3.8971 2.4068
-4.9153 3.7294 2.4068
-5.0552 3.5564 2.4068
-5.1891 3.3784 2.4068
-5.3167 3.1954 2.4068
-5.4380 3.0077 2.4068
-5.5528 2.8155 2.4068
-5.6608 2.6190 2.4068
-5.7620 2.4185 2.4068
-5.8560 2.2142 2.4068
-5.9429 2.0063 2.4068
-6.0224 1.7951 2.4068
-6.0944 1.5808 2.4068
-6.1587 1.3637 2.4068
-6.2153 1.1441 2.4068
-6.2641 0.9222 2.4068
-6.3049 0.6983 2.4068
-6.3376 0.4728 2.4068
-6.3622 0.2459 2.4068
-6.3785 0.0178 2.4068
-6.3866 -0.2110 2.4068
-6.3864 -0.4404 2.4068
-6.3777 -0.6699 2.4068
-6.3607 -0.8993 2.4068
-6.3353 -1.1283 2.4068
-6.3015 -1.3565 2.4068
-6.2593 -1.5837 2.4068
-6.2087 -1.8095 2.4068
-6.1497 -2.0335 2.4068
-6.0825 -2.2556 2.4068
-6.0070 -2.4753 2.4068
-5.9233 -2.6923 2.4068
-5.8316 -2.9063 2.4068
-5.7319 -3.1171 2.4068
-5.6243 -3.3242 2.4068
-5.5090 -3.5275 2.4068
-5.3860 -3.7265 2.4068
-5.2557 -3.9210 2.4068
-5.1180 -4.1107 2.4068
-4.9732 -4.2953 2.4068
-4.8216 -4.4745 2.4068
-4.6632 -4.6481 2.4068
-4.4982 -4.8158 2.4068
-4.3271 -4.9773 2.4068
-4.1498 -5.1322 2.4068
-3.9668 -5.2806 2.4068
-3.7782 -5.4222 2.4068
-3.5844 -5.5566 2.4068
-3.3856 -5.6836 2.4068
-3.1820 -5.8032 2.4068
-2.9740 -5.9151 2.4068
-2.7620 -6.0191 2.4068
-2.5461 -6.1150 2.4068
-2.3267 -6.2028 2.4068
-2.1042 -6.2823 2.4068
-1.8788 -6.3534 2.4068
-1.6509 -6.4159 2.4068
-1.4209 -6.4698 2.4068
-1.1890 -6.5150 2.4068
-0.9556 -6.5515 2.4068
-0.7211 -6.5791 2.4068
-0.4858 -6.5979 2.4068
-0.2500 -6.6079 2.4068
-0.0141 -6.6089 2.4068
0.2215 -6.6012 2.4068
0.4566 -6.5846 2.4068
0.6907 -6.5592 2.4068
0.9236 -6.5251 2.4068
1.1548 -6.4824 2.4068
1.3841 -6.4310 2.4068
1.6112 -6.3712 2.4068
1.8357 -6.3030 2.4068
2.0573 -6.2266 2.4068
2.2756 -6.1420 2.4068
2.4905 -6.0495 2.4068
2.7015 -5.9491 2.4068
2.9085 -5.8411 2.4068
3.1110 -5.7256 2.4068
3.3090 -5.6029 2.4068
3.5020 -5.4731 2.4068
3.6898 -5.3364 2.4068
3.7900 -5.0827 2.3557
3.7927 -4.7240 2.2544
3.9529 -4.5779 2.2544
4.1074 -4.4263 2.2544
4.2562 -4.2696 2.2546
4.3995 -4.1083 2.2550
4.5367 -3.9420 2.2554
4.6674 -3.7711 2.2558
4.7917 -3.5957 2.2562
4.9093 -3.4161 2.2565
5.0202 -3.2327 2.2569
5.1241 -3.0455 2.2572
5.2210 -2.8550 2.2575
5.3107 -2.6614 2.2578
5.3933 -2.4650 2.2581
5.4686 -2.2660 2.2583
5.5365 -2.0646 2.2586
5.5971 -1.8613 2.2588
5.6467 -1.6550 2.2576
5.6842 -1.4468 2.2546
5.7182 -1.2386 2.2532
5.7490 -1.0308 2.2535
5.7726 -0.8221 2.2539
5.7883 -0.6131 2.2541
5.7965 -0.4040 2.2543
5.7974 -0.1950 2.2545
5.7908 0.0136 2.2547
5.7769 0.2215 2.2549
5.7558 0.4285 2.2551
5.7273 0.6343 2.2553
5.6918 0.8387 2.2555
5.6491 1.0415 2.2557
5.5994 1.2423 2.2559
5.5428 1.4411 2.2562
5.4793 1.6374 2.2564
5.4091 1.8312 2.2566
5.3323 2.0222 2.2568
5.2486 2.2102 2.2569
5.1633 2.3967 2.2590
5.0670 2.5781 2.2591
4.9639 2.7554 2.2589
4.8548 2.9288 2.2587
4.7399 3.0981 2.2585
4.6193 3.2631 2.2582
4.4931 3.4236 2.2580
4.3616 3.5795 2.2577
4.2249 3.7305 2.2574
4.0832 3.8766 2.2571
3.9366 4.0175 2.2568
3.7853 4.1532 2.2565
3.6296 4.2834 2.2562
3.4675 4.4053 2.2544
3.3041 4.5249 2.2544
3.1367 4.6388 2.2544
2.9656 4.7468 2.2544
2.7909 4.8488 2.2544
2.7309 5.1680 2.3562
2.5962 5.3748 2.4068
2.3997 5.4638 2.4068
0.9039 2.2784 0.9887
0.8210 2.3098 0.9889
0.7371 2.3382 0.9891
0.6522 2.3635 0.9891
0.5664 2.3858 0.9891
0.4798 2.4050 0.9891
0.3926 2.4210 0.9890
0.3049 2.4339 0.9888
0.2168 2.4436 0.9886
0.1283 2.4501 0.9883
0.0397 2.4535 0.9879
-0.0490 2.4536 0.9875
-0.1376 2.4505 0.9870
-0.2260 2.4442 0.9864
-0.3142 2.4348 0.9858
-0.4020 2.4221 0.9852
-0.4893 2.4063 0.9845
-0.5759 2.3874 0.9837
-0.6618 2.3653 0.9829
-0.7469 2.3402 0.9820
-0.8309 2.3120 0.9810
-0.9139 2.2808 0.9801
-2.4480 5.5229 2.4068
-2.6489 5.4377 2.4068
-2.8469 5.3455 2.4068
-3.0419 5.2463 2.4068
-3.2335 5.1403 2.4068
-3.4216 5.0275 2.4068
-3.6058 4.9081 2.4068
-3.7860 4.7822 2.4068
-3.9620 4.6498 2.4068
-4.1334 4.5112 2.4068
-4.3001 4.3665 2.4068
-4.4618 4.2158 2.4068
-4.6185 4.0593 2.4068
-4.7697 3.8971 2.4068
-4.9153 3.7294 2.4068
-5.0552 3.5565 2.4068
-5.1890 3.3784 2.4068
-5.3167 3.1954 2.4068
-5.4380 3.0077 2.4068
-5.5528 2.8155 2.4068
-5.6608 2.6191 2.4068
-5.7619 2.4185 2.4068
-5.8560 2.2142 2.4068
-5.9429 2.0063 2.4068
-6.0224 1.7951 2.4068
-6.0944 1.5808 2.4068
-6.1587 1.3637 2.4068
-6.2153 1.1441 2.4068
-6.2641 0.9222 2.4068
-6.3049 0.6984 2.4068
-6.3376 0.4728 2.4068
-6.3622 0.2459 2.4068
-6.3785 0.0179 2.4068
-6.3866 -0.2110 2.4068
-6.3864 -0.4403 2.4068
-6.3777 -0.6699 2.4068
-6.3607 -0.8993 2.4068
-6.3353 -1.1283 2.4068
-6.3015 -1.3565 2.4068
-6.2593 -1.5837 2.4068
-6.2087 -1.8094 2.4068
-6.1497 -2.0335 2.4068
-6.0825 -2.2555 2.4068
-6.0070 -2.4752 2.4068
-5.9233 -2.6922 2.4068
-5.8316 -2.9063 2.4068
-5.7319 -3.1171 2.4068
-5.6243 -3.3242 2.4068
-5.5090 -3.5274 2.4068
-5.3861 -3.7265 2.4068
-5.2557 -3.9210 2.4068
-5.1180 -4.1107 2.4068
-4.9733 -4.2953 2.4068
-4.8216 -4.4745 2.4068
-4.6632 -4.6481 2.4068
-4.4983 -4.8157 2.4068
-4.3271 -4.9774 2.4068
-4.1499 -5.1322 2.4068
-3.9668 -5.2806 2.4068
-3.7783 -5.4221 2.4068
-3.5844 -5.5565 2.4068
-3.3856 -5.6836 2.4068
-3.1820 -5.8032 2.4068
-2.9741 -5.9151 2.4068
-2.7620 -6.0190 2.4068
-2.5461 -6.1150 2.4068
-2.3268 -6.2028 2.4068
-2.1042 -6.2823 2.4068
-1.8788 -6.3534 2.4068
-1.6509 -6.4159 2.4068
-1.4209 -6.4698 2.4068
-1.1890 -6.5150 2.4068
-0.9556 -6.5515 2.4068
-0.7211 -6.5791 2.4068
-0.4858 -6.5979 2.4068
-0.2500 -6.6079 2.4068
-0.0140 -6.1729 2.4068
0.2060 -6.1659 2.4068
0.4255 -6.1507 2.4068
0.6441 -6.1272 2.4068
0.8616 -6.0957 2.4068
1.0776 -6.0561 2.4068
1.2918 -6.0085 2.4068
1.5040 -5.9529 2.4068
1.7137 -5.8896 2.4068
1.9208 -5.8186 2.4068
2.1249 -5.7400 2.4068
2.3258 -5.6539 2.4068
2.5231 -5.5606 2.4068
2.7166 -5.4601 2.4068
2.9061 -5.3526 2.4068
3.0913 -5.2383 2.4068
3.2720 -5.1175 2.4068
3.4478 -4.9901 2.4068
3.6187 -4.8566 2.4068
3.7386 -4.6602 2.3778
3.7198 -4.3112 2.2697
3.8394 -4.1408 2.2544
3.9788 -3.9945 2.2544
4.1125 -3.8434 2.2545
4.2409 -3.6881 2.2548
4.3636 -3.5286 2.2551
4.4802 -3.3649 2.2555
4.5906 -3.1973 2.2558
4.6947 -3.0260 2.2561
4.7923 -2.8512 2.2564
4.8834 -2.6733 2.2567
4.9679 -2.4924 2.2570
5.0457 -2.3088 2.2573
5.1166 -2.1228 2.2575
5.1807 -1.9346 2.2577
5.2379 -1.7445 2.2580
5.2881 -1.5527 2.2581
5.3313 -1.3596 2.2583
5.3675 -1.1652 2.2585
5.3966 -0.9700 2.2586
5.4187 -0.7742 2.2588
5.4338 -0.5780 2.2589
5.4418 -0.3816 2.2590
5.4426 -0.1854 2.2590
5.4358 0.0105 2.2587
5.4222 0.2057 2.2584
5.4020 0.3999 2.2583
5.3759 0.5931 2.2585
5.3433 0.7852 2.2589
5.3038 0.9756 2.2591
5.2569 1.1642 2.2591
5.2036 1.3508 2.2590
5.1437 1.5351 2.2589
5.0775 1.7169 2.2588
5.0051 1.8961 2.2587
4.9265 2.0724 2.2586
4.8418 2.2456 2.2584
4.7513 2.4156 2.2583
4.6549 2.5821 2.2581
4.5530 2.7449 2.2579
4.4455 2.9039 2.2577
4.3326 3.0588 2.2575
4.2145 3.2096 2.2572
4.0914 3.3561 2.2570
3.9634 3.4980 2.2567
3.8306 3.6352 2.2564
3.6933 3.7677 2.2561
3.5516 3.8952 2.2558
3.4056 4.0176 2.2555
3.2556 4.1348 2.2552
3.1017 4.2466 2.2548
2.9441 4.3528 2.2544
2.7835 4.4543 2.2544
2.7181 4.7213 2.3392
2.6183 4.9540 2.4068
2.4368 5.0440 2.4068
2.2523 5.1277 2.4068
0.8457 2.1317 0.9857
0.7682 2.1610 0.9859
0.6896 2.1876 0.9860
0.6101 2.2113 0.9861
0.5298 2.2322 0.9861
0.4488 2.2501 0.9860
0.3672 2.2651 0.9859
0.2851 2.2771 0.9857
0.2026 2.2862 0.9855
0.1198 2.2923 0.9852
0.0369 2.2954 0.9849
-0.0462 2.2955 0.9845
-0.1291 2.2926 0.9840
-0.2119 2.2868 0.9835
-0.2944 2.2779 0.9830
-0.3766 2.2661 0.9824
-0.4583 2.2513 0.9817
-0.5394 2.2335 0.9810
-0.6198 2.2129 0.9802
-0.6994 2.1894 0.9794
-0.7781 2.1630 0.9785
-0.8558 2.1338 0.9776
-2.2978 5.1798 2.4068
-2.4862 5.0995 2.4068
-2.6718 5.0126 2.4068
-2.8545 4.9192 2.4068
-3.0340 4.8194 2.4068
-3.2102 4.7133 2.4068
-3.3828 4.6009 2.4068
-3.5515 4.4824 2.4068
-3.7162 4.3579 2.4068
-3.8766 4.2276 2.4068
-4.0326 4.0915 2.4068
-4.1839 3.9498 2.4068
-4.3303 3.8028 2.4068
-4.4717 3.6504 2.4068
-4.6077 3.4929 2.4068
-4.7384 3.3305 2.4068
-4.8633 3.1633 2.4068
-4.9825 2.9915 2.4068
-5.0957 2.8153 2.4068
-5.2026 2.6350 2.4068
-5.3033 2.4507 2.4068
-5.3975 2.2626 2.4068
-5.4850 2.0710 2.4068
-5.5658 1.8761 2.4068
-5.6396 1.6782 2.4068
-5.7064 1.4774 2.4068
-5.7661 1.2740 2.4068
-5.8185 1.0683 2.4068
-5.8635 0.8605 2.4068
-5.9010 0.6509 2.4068
-5.9311 0.4398 2.4068
-5.9534 0.2274 2.4068
-5.9681 0.0141 2.4068
-5.9751 -0.2000 2.4068
-5.9742 -0.4145 2.4068
-5.9656 -0.6291 2.4068
-5.9491 -0.8436 2.4068
-5.9248 -1.0576 2.4068
-5.8926 -1.2709 2.4068
-5.8525 -1.4832 2.4068
-5.8047 -1.6941 2.4068
-5.7491 -1.9034 2.4068
-5.6857 -2.1108 2.4068
-5.6147 -2.3159 2.4068
-5.5360 -2.5185 2.4068
-5.4498 -2.7183 2.4068
-5.3562 -2.9150 2.4068
-5.2553 -3.1083 2.4068
-5.1472 -3.2979 2.4068
-5.0320 -3.4836 2.4068
-4.9099 -3.6651 2.4068
-4.7810 -3.8420 2.4068
-4.6455 -4.0142 2.4068
-4.5036 -4.1813 2.4068
-4.3555 -4.3430 2.4068
-4.2012 -4.4996 2.4068
-4.0412 -4.6502 2.4068
-3.8755 -4.7947 2.4068
-3.7045 -4.9330 2.4068
-3.5283 -5.0649 2.4068
-3.3472 -5.1903 2.4068
-3.1615 -5.3088 2.4068
-2.9714 -5.4202 2.4068
-2.7772 -5.5246 2.4068
-2.5792 -5.6215 2.4068
-2.3776 -5.7111 2.4068
-2.1728 -5.7930 2.4068
-1.9651 -5.8671 2.4068
-1.7547 -5.9335 2.4068
-1.5420 -5.9919 2.4068
-1.3272 -6.0422 2.4068
-1.1108 -6.0845 2.4068
-0.8929 -6.1186 2.4068
-0.6740 -6.1446 2.4068
-0.4543 -6.1623 2.4068
-0.2342 -6.1717 2.4068
-0.0140 -6.1729 2.4068
0.2060 -6.1659 2.4068
0.4255 -6.1507 2.4068
0.6441 -6.1272 2.4068
0.8616 -6.0957 2.4068
1.0776 -6.0561 2.4068
1.2918 -6.0085 2.4068
1.5039 -5.9529 2.4068
1.7137 -5.8896 2.4068
1.9208 -5.8186 2.4068
2.1249 -5.7400 2.4068
2.3257 -5.6539 2.4068
2.5231 -5.5606 2.4068
2.7166 -5.4601 2.4068
2.9061 -5.3526 2.4068
3.0913 -5.2384 2.4068
3.2719 -5.1175 2.4068
3.4478 -4.9902 2.4068
3.6186 -4.8566 2.4068
3.7387 -4.6603 2.3778
3.7198 -4.3113 2.2697
3.8394 -4.1409 2.2544
3.9787 -3.9945 2.2544
4.1125 -3.8434 2.2545
4.2409 -3.6881 2.2548
4.3636 -3.5286 2.2551
4.4802 -3.3649 2.2555
4.5906 -3.1973 2.2558
4.6947 -3.0260 2.2561
4.7923 -2.8512 2.2564
4.8834 -2.6733 2.2567
4.9679 -2.4924 2.2570
5.0456 -2.3088 2.2573
5.1166 -2.1228 2.2575
5.1807 -1.9346 2.2577
5.2378 -1.7445 2.2580
5.2881 -1.5528 2.2581
5.3313 -1.3596 2.2583
5.3674 -1.1653 2.2585
5.3966 -0.9701 2.2586
5.4187 -0.7742 2.2588
5.4337 -0.5780 2.2589
5.4418 -0.3817 2.2590
5.4426 -0.1854 2.2590
5.4358 0.0104 2.2587
5.4222 0.2056 2.2584
5.4020 0.3998 2.2583
5.3759 0.5932 2.2585
5.3433 0.7852 2.2589
5.3038 0.9756 2.2591
5.2570 1.1642 2.2591
5.2036 1.3507 2.2590
5.1438 1.5350 2.2589
5.0776 1.7169 2.2588
5.0051 1.8961 2.2587
4.9265 2.0724 2.2586
4.8418 2.2456 2.2584
4.7513 2.4156 2.2583
4.6550 2.5820 2.2581
4.5530 2.7449 2.2579
4.4455 2.9038 2.2577
4.3326 3.0588 2.2575
4.2146 3.2096 2.2572
4.0914 3.3560 2.2570
3.9634 3.4979 2.2567
3.8306 3.6352 2.2564
3.6933 3.7677 2.2561
3.5516 3.8952 2.2558
3.4056 4.0176 2.2555
3.2556 4.1347 2.2552
3.1018 4.2466 2.2548
2.9441 4.3528 2.2544
2.7836 4.4543 2.2544
2.7181 4.7212 2.3391
2.6184 4.9540 2.4068
2.4368 5.0440 2.4068
2.2524 5.1277 2.4068
0.8458 2.1316 0.9857
0.7682 2.1610 0.9859
0.6896 2.1876 0.9860
0.6101 2.2113 0.9861
0.5298 2.2322 0.9861
0.4488 2.2501 0.9860
0.3672 2.2651 0.9859
0.2851 2.2771 0.9857
0.2026 2.2862 0.9855
0.1198 2.2923 0.9852
0.0369 2.2954 0.9849
-0.0461 2.2955 0.9845
-0.1291 2.2926 0.9840
-0.2119 2.2868 0.9835
-0.2944 2.2779 0.9830
-0.3766 2.2661 0.9824
-0.4583 2.2513 0.9817
-0.5394 2.2335 0.9810
-0.6198 2.2129 0.9802
-0.6994 2.1894 0.9794
-0.7781 2.1630 0.9785
-0.8558 2.1338 0.9776
-2.2978 5.1798 2.4068
-2.4861 5.0995 2.4068
-2.6718 5.0127 2.4068
-2.8545 4.9193 2.4068
-3.0340 4.8194 2.4068
-3.2102 4.7133 2.4068
-3.3828 4.6009 2.4068
-3.5515 4.4824 2.4068
-3.7162 4.3579 2.4068
-3.8766 4.2276 2.4068
-4.0326 4.0915 2.4068
-4.1839 3.9499 2.4068
-4.3303 3.8028 2.4068
-4.4716 3.6504 2.4068
-4.6077 3.4929 2.4068
-4.7383 3.3305 2.4068
-4.8633 3.1633 2.4068
-4.9825 2.9915 2.4068
-5.0956 2.8154 2.4068
-5.2026 2.6350 2.4068
-5.3033 2.4507 2.4068
-5.3975 2.2627 2.4068
-5.4850 2.0711 2.4068
-5.5658 1.8762 2.4068
-5.6396 1.6782 2.4068
-5.7064 1.4774 2.4068
-5.7661 1.2740 2.4068
-5.8185 1.0683 2.4068
-5.8635 0.8606 2.4068
-5.9010 0.6510 2.4068
-5.9310 0.4399 2.4068
-5.9534 0.2275 2.4068
-5.9681 0.0141 2.4068
-5.9751 -0.2000 2.4068
-5.9742 -0.4145 2.4068
-5.9656 -0.6291 2.4068
-5.9491 -0.8436 2.4068
-5.9248 -1.0576 2.4068
-5.8926 -1.2709 2.4068
-5.8525 -1.4832 2.4068
-5.8047 -1.6941 2.4068
-5.7491 -1.9034 2.4068
-5.6857 -2.1107 2.4068
-5.6147 -2.3159 2.4068
-5.5360 -2.5185 2.4068
-5.4499 -2.7183 2.4068
-5.3563 -2.9150 2.4068
-5.2554 -3.1083 2.4068
-5.1472 -3.2979 2.4068
-5.0320 -3.4836 2.4068
-4.9099 -3.6650 2.4068
-4.7810 -3.8420 2.4068
-4.6456 -4.0142 2.4068
-4.5036 -4.1813 2.4068
-4.3555 -4.3432 2.4068
-4.2012 -4.4996 2.4068
-4.0412 -4.6501 2.4068
-3.8756 -4.7946 2.4068
-3.7045 -4.9330 2.4068
-3.5283 -5.0649 2.4068
-3.3472 -5.1902 2.4068
-3.1615 -5.3087 2.4068
-2.9714 -5.4202 2.4068
-2.7772 -5.5245 2.4068
-2.5792 -5.6215 2.4068
-2.3777 -5.7110 2.4068
-2.1729 -5.7930 2.4068
-1.9651 -5.8671 2.4068
-1.7547 -5.9335 2.4068
-1.5420 -5.9919 2.4068
-1.3272 -6.0422 2.4068
-1.1108 -6.0845 2.4068
-0.8930 -6.1186 2.4068
-0.6740 -6.1446 2.4068
-0.4544 -6.1623 2.4068
-0.2343 -6.1717 2.4068
-0.0139 -5.7846 2.4068
0.1922 -5.7782 2.4068
0.3978 -5.7641 2.4068
0.6026 -5.7424 2.4068
0.8064 -5.7130 2.4068
1.0088 -5.6762 2.4068
1.2095 -5.6318 2.4068
1.4083 -5.5801 2.4068
1.6049 -5.5211 2.4068
1.7991 -5.4548 2.4068
1.9905 -5.3815 2.4068
2.1788 -5.3012 2.4068
2.3639 -5.2140 2.4068
2.5455 -5.1202 2.4068
2.7233 -5.0198 2.4068
2.8971 -4.9130 2.4068
3.0667 -4.8001 2.4068
3.2318 -4.6811 2.4068
3.3922 -4.5562 2.4068
3.5478 -4.4258 2.4068
3.6918 -4.2823 2.4026
3.6754 -3.9671 2.3015
3.7311 -3.7490 2.2544
3.8569 -3.6075 2.2544
3.9772 -3.4617 2.2544
4.0921 -3.3120 2.2545
4.2018 -3.1587 2.2549
4.3058 -3.0017 2.2552
4.4038 -2.8412 2.2555
4.4958 -2.6775 2.2558
4.5816 -2.5108 2.2560
4.6613 -2.3412 2.2563
4.7347 -2.1691 2.2565
4.8017 -1.9947 2.2568
4.8623 -1.8183 2.2570
4.9164 -1.6399 2.2572
4.9639 -1.4601 2.2574
5.0049 -1.2788 2.2575
5.0394 -1.0965 2.2577
5.0672 -0.9132 2.2578
5.0884 -0.7294 2.2580
5.1030 -0.5451 2.2581
5.1109 -0.3608 2.2581
5.1123 -0.1764 2.2582
5.1072 0.0075 2.2583
5.0955 0.1910 2.2583
5.0773 0.3737 2.2583
5.0526 0.5553 2.2583
5.0216 0.7358 2.2583
4.9843 0.9147 2.2583
4.9407 1.0921 2.2582
4.8909 1.2675 2.2582
4.8350 1.4409 2.2581
4.7731 1.6120 2.2580
4.7054 1.7806 2.2579
4.6318 1.9465 2.2578
4.5525 2.1095 2.2577
4.4677 2.2695 2.2575
4.3774 2.4262 2.2573
4.2817 2.5795 2.2572
4.1809 2.7293 2.2570
4.0750 2.8752 2.2567
3.9641 3.0172 2.2565
3.8485 3.1552 2.2563
3.7283 3.2889 2.2560
3.6035 3.4182 2.2558
3.4745 3.5430 2.2555
3.3413 3.6631 2.2552
3.2041 3.7784 2.2549
3.0630 3.8889 2.2546
2.9185 3.9945 2.2544
2.7833 4.1138 2.2646
2.7350 4.3755 2.3536
2.6321 4.5708 2.4068
2.4642 4.6614 2.4068
2.2933 4.7463 2.4068
0.8655 1.9701 0.9827
0.7937 2.0003 0.9830
0.7209 2.0279 0.9831
0.6471 2.0528 0.9832
0.5725 2.0751 0.9833
0.4971 2.0946 0.9833
0.4210 2.1115 0.9833
0.3444 2.1255 0.9832
0.2673 2.1368 0.9830
0.1899 2.1453 0.9828
0.1122 2.1510 0.9825
0.0343 2.1540 0.9822
-0.0436 2.1541 0.9818
-0.1215 2.1513 0.9814
-0.1992 2.1458 0.9809
-0.2767 2.1375 0.9804
-0.3539 2.1264 0.9798
-0.4305 2.1125 0.9792
-0.5067 2.0959 0.9785
-0.5821 2.0765 0.9778
-0.6569 2.0544 0.9770
-0.7308 2.0296 0.9762
-0.8037 2.0022 0.9753
-0.8756 1.9722 0.9744
-2.3398 4.7954 2.4068
-2.5143 4.7134 2.4068
-2.6861 4.6252 2.4068
-2.8548 4.5310 2.4068
-3.0203 4.4309 2.4068
-3.1823 4.3248 2.4068
-3.3408 4.2131 2.4068
-3.4954 4.0957 2.4068
-3.6460 3.9729 2.4068
-3.7924 3.8446 2.4068
-3.9343 3.7111 2.4068
-4.0716 3.5725 2.4068
-4.2042 3.4290 2.4068
-4.3317 3.2807 2.4068
-4.4541 3.1277 2.4068
-4.5712 2.9703 2.4068
-4.6827 2.8086 2.4068
-4.7886 2.6429 2.4068
-4.8887 2.4732 2.4068
-4.9828 2.2998 2.4068
-5.0708 2.1229 2.4068
-5.1526 1.9428 2.4068
-5.2280 1.7596 2.4068
-5.2968 1.5735 2.4068
-5.3591 1.3848 2.4068
-5.4146 1.1937 2.4068
-5.4633 1.0005 2.4068
-5.5050 0.8053 2.4068
-5.5397 0.6085 2.4068
-5.5674 0.4103 2.4068
-5.5879 0.2110 2.4068
-5.6011 0.0107 2.4068
-5.6072 -0.1901 2.4068
-5.6059 -0.3914 2.4068
-5.5972 -0.5927 2.4068
-5.5813 -0.7938 2.4068
-5.5580 -0.9945 2.4068
-5.5273 -1.1945 2.4068
-5.4893 -1.3934 2.4068
-5.4440 -1.5911 2.4068
-5.3914 -1.7872 2.4068
-5.3315 -1.9815 2.4068
-5.2645 -2.1737 2.4068
-5.1904 -2.3634 2.4068
-5.1093 -2.5506 2.4068
-5.0212 -2.7347 2.4068
-4.9263 -2.9157 2.4068
-4.8246 -3.0933 2.4068
-4.7164 -3.2671 2.4068
-4.6016 -3.4369 2.4068
-4.4806 -3.6025 2.4068
-4.3534 -3.7636 2.4068
-4.2202 -3.9200 2.4068
-4.0812 -4.0715 2.4068
-3.9366 -4.2178 2.4068
-3.7865 -4.3586 2.4068
-3.6311 -4.4939 2.4068
-3.4708 -4.6233 2.4068
-3.3057 -4.7468 2.4068
-3.1360 -4.8640 2.4068
-2.9619 -4.9748 2.4068
-2.7838 -5.0792 2.4068
-2.6019 -5.1768 2.4068
-2.4164 -5.2675 2.4068
-2.2276 -5.3513 2.4068
-2.0358 -5.4280 2.4068
-1.8412 -5.4974 2.4068
-1.6442 -5.5595 2.4068
-1.4449 -5.6143 2.4068
-1.2438 -5.6615 2.4068
-1.0411 -5.7011 2.4068
-0.8371 -5.7332 2.4068
-0.6321 -5.7575 2.4068
-0.4263 -5.7743 2.4068
-0.2202 -5.7833 2.4068
-0.0139 -5.7846 2.4068
0.1921 -5.7782 2.4068
0.3977 -5.7641 2.4068
0.6026 -5.7424 2.4068
0.8063 -5.7131 2.4068
1.0087 -5.6762 2.4068
1.2095 -5.6318 2.4068
1.4083 -5.5801 2.4068
1.6049 -5.5211 2.4068
1.7990 -5.4548 2.4068
1.9904 -5.3815 2.4068
2.1788 -5.3012 2.4068
2.3639 -5.2141 2.4068
2.5455 -5.1202 2.4068
2.7233 -5.0198 2.4068
2.8971 -4.9131 2.4068
3.0666 -4.8001 2.4068
3.2318 -4.6811 2.4068
3.3922 -4.5563 2.4068
3.5478 -4.4258 2.4068
3.6918 -4.2824 2.4026
3.6754 -3.9672 2.3015
3.7311 -3.7490 2.2544
3.8568 -3.6075 2.2544
3.9772 -3.4618 2.2544
4.0921 -3.3120 2.2545
4.2018 -3.1587 2.2549
4.3057 -3.0017 2.2552
4.4038 -2.8413 2.2555
4.4958 -2.6775 2.2558
4.5816 -2.5108 2.2560
4.6613 -2.3413 2.2563
4.7347 -2.1692 2.2565
4.8017 -1.9948 2.2568
4.8622 -1.8183 2.2570
4.9163 -1.6400 2.2572
4.9639 -1.4601 2.2574
5.0049 -1.2788 2.2575
5.0394 -1.0965 2.2577
5.0672 -0.9133 2.2578
5.0884 -0.7294 2.2580
5.1030 -0.5452 2.2581
5.1110 -0.3608 2.2581
5.1123 -0.1765 2.2582
5.1072 0.0075 2.2583
5.0955 0.1910 2.2583
5.0773 0.3736 2.2583
5.0526 0.5553 2.2583
5.0216 0.7357 2.2583
4.9843 0.9147 2.2583
4.9407 1.0920 2.2582
4.8909 1.2675 2.2582
4.8350 1.4409 2.2581
4.7731 1.6120 2.2580
4.7054 1.7806 2.2579
4.6318 1.9465 2.2578
4.5525 2.1095 2.2577
4.4677 2.2695 2.2575
4.3774 2.4262 2.2573
4.2817 2.5795 2.2572
4.1809 2.7292 2.2570
4.0750 2.8752 2.2567
3.9641 3.0172 2.2565
3.8485 3.1551 2.2563
3.7283 3.2888 2.2560
3.6036 3.4182 2.2558
3.4745 3.5429 2.2555
3.3413 3.6631 2.2552
3.2041 3.7784 2.2549
3.0631 3.8889 2.2546
2.9186 3.9945 2.2544
2.7833 4.1138 2.2646
2.7350 4.3754 2.3536
2.6321 4.5708 2.4068
2.4642 4.6614 2.4068
2.2934 4.7462 2.4068
0.8655 1.9701 0.9827
0.7937 2.0003 0.9830
0.7209 2.0279 0.9831
0.6471 2.0528 0.9832
0.5725 2.0751 0.9833
0.4971 2.0946 0.9833
0.4210 2.1114 0.9833
0.3444 2.1255 0.9832
0.2673 2.1368 0.9830
0.1899 2.1453 0.9828
0.1122 2.1510 0.9825
0.0343 2.1540 0.9822
-0.0436 2.1541 0.9818
-0.1215 2.1513 0.9814
-0.1992 2.1458 0.9809
-0.2767 2.1375 0.9804
-0.3538 2.1264 0.9798
-0.4305 2.1125 0.9792
-0.5067 2.0959 0.9785
-0.5821 2.0765 0.9778
-0.6569 2.0544 0.9770
-0.7307 2.0296 0.9762
-0.8037 2.0022 0.9753
-0.8756 1.9722 0.9744
-2.3398 4.7954 2.4068
-2.5142 4.7134 2.4068
-2.6860 4.6252 2.4068
-2.8547 4.5310 2.4068
-3.0202 4.4309 2.4068
-3.1823 4.3249 2.4068
-3.3408 4.2131 2.4068
-3.4954 4.0957 2.4068
-3.6460 3.9729 2.4068
-3.7923 3.8446 2.4068
-3.9343 3.7111 2.4068
-4.0716 3.5725 2.4068
-4.2041 3.4290 2.4068
-4.3317 3.2807 2.4068
-4.4541 3.1277 2.4068
-4.5711 2.9703 2.4068
-4.6827 2.8087 2.4068
-4.7886 2.6429 2.4068
-4.8887 2.4732 2.4068
-4.9828 2.2999 2.4068
-5.0708 2.1230 2.4068
-5.1526 1.9428 2.4068
-5.2280 1.7596 2.4068
-5.2968 1.5735 2.4068
-5.3591 1.3848 2.4068
-5.4146 1.1937 2.4068
-5.4632 1.0005 2.4068
-5.5050 0.8054 2.4068
-5.5397 0.6086 2.4068
-5.5674 0.4104 2.4068
