ply
format ascii 1.0
element vertex 2195
property float32 x
property float32 y
property float32 z
end_header
9.3015 0.5110 0.3334
8.8902 1.7874 0.3213
8.7819 2.4321 0.3191
8.8411 2.7937 0.3223
8.8234 3.8737 0.3252
8.6316 -4.8512 0.5328
8.9150 -4.1997 0.5409
8.9546 -3.8319 0.5393
8.9518 -3.4560 0.5357
8.6057 -2.9721 0.5120
8.7280 -2.6678 0.5168
8.7759 -2.3415 0.5174
8.8156 -2.0161 0.5179
8.6772 -1.6592 0.5083
8.6298 -1.3310 0.5045
8.6385 -1.0164 0.5042
8.7150 -0.7093 0.5082
8.6562 -0.3924 0.5046
8.7162 -0.0819 0.5083
8.7870 0.2331 0.5129
8.6011 0.5376 0.5029
8.4729 0.8359 0.4965
8.5325 1.1524 0.5014
8.6162 1.4803 0.5081
8.6156 1.8008 0.5102
8.6627 2.1379 0.5154
8.4183 2.4012 0.5037
8.3782 2.7186 0.5044
8.6036 3.1374 0.5216
8.6880 3.5264 0.5308
8.4511 3.7890 0.5208
8.3679 4.1185 0.5206
8.7415 4.6994 0.5495
8.4413 4.9365 0.5366
8.2433 5.2265 0.5305
8.5980 -4.9179 0.5318
8.9949 -4.3204 0.5466
8.9037 -3.8897 0.5370
8.8491 -3.4932 0.5302
8.5359 -3.0202 0.5085
8.7116 -2.7347 0.5163
8.9781 -2.4681 0.5298
8.7643 -2.0740 0.5153
8.6517 -1.7220 0.5071
8.6492 -1.4008 0.5058
8.6132 -1.0793 0.5029
8.5525 -0.7610 0.4988
8.5962 -0.4546 0.5011
8.7001 -0.1473 0.5073
8.9027 0.1690 0.5196
8.6659 0.4761 0.5065
8.5124 0.7750 0.4985
8.5542 1.0897 0.5024
8.6555 1.4200 0.5100
8.6633 1.7427 0.5125
8.6709 2.0707 0.5154
8.4586 2.3440 0.5055
8.3365 2.6358 0.5012
8.6074 3.0655 0.5211
8.7430 3.4722 0.5333
8.5674 3.7638 0.5270
8.4034 4.0576 0.5217
8.2606 4.3610 0.5181
8.5364 4.9062 0.5413
8.3094 5.1811 0.5333
8.6231 -4.8505 0.7561
8.8307 -4.5579 0.7650
8.9954 -4.2410 0.7708
8.8970 -3.8103 0.7548
8.8558 -3.4218 0.7447
8.5544 -2.9568 0.7138
8.7210 -2.6678 0.7227
8.7086 -2.3255 0.7174
8.7085 -1.9933 0.7138
8.6233 -1.6503 0.7039
8.6017 -1.3278 0.6998
8.5884 -1.0114 0.6970
8.5900 -0.6999 0.6959
8.5541 -0.3883 0.6925
8.6320 -0.0814 0.6988
8.8831 0.2355 0.7196
8.5959 0.5374 0.6975
8.4370 0.8326 0.6862
8.5291 1.1523 0.6960
8.5736 1.4737 0.7025
8.6017 1.7989 0.7082
8.6366 2.1327 0.7152
8.3473 2.3824 0.6959
8.3444 2.7093 0.7009
8.4444 3.0813 0.7154
8.6121 3.4978 0.7365
8.4774 3.8033 0.7327
8.3315 4.1034 0.7285
8.7625 4.7140 0.7759
8.4648 4.9539 0.7600
8.2387 5.2275 0.7510
8.6405 -4.9464 0.7596
8.7780 -4.6148 0.7623
8.9850 -4.3192 0.7716
8.7907 -3.8435 0.7473
8.8722 -3.5052 0.7474
8.7528 -3.0994 0.7315
8.7067 -2.7354 0.7225
8.7152 -2.3978 0.7188
8.7174 -2.0646 0.7152
8.5695 -1.7071 0.7000
8.5712 -1.3894 0.6977
8.5397 -1.0710 0.6933
8.5335 -0.7601 0.6916
8.5352 -0.4520 0.6910
8.5858 -0.1457 0.6950
8.8630 0.1681 0.7179
8.5707 0.4710 0.6952
8.4249 0.7673 0.6849
8.5150 1.0852 0.6943
8.5743 1.4073 0.7019
8.5147 1.7138 0.7003
8.6247 2.0608 0.7133
8.3602 2.3181 0.6959
8.2233 2.6016 0.6896
8.4600 3.0149 0.7154
8.6294 3.4293 0.7365
8.4360 3.7086 0.7274
8.3390 4.0293 0.7273
8.2918 4.3805 0.7322
8.4592 4.8653 0.7572
8.2696 5.1601 0.7513
8.6343 -4.8609 0.9821
8.7704 -4.5305 0.9839
8.9547 -4.2253 0.9921
8.7900 -3.7676 0.9629
8.8825 -3.4349 0.9633
8.6412 -2.9892 0.9287
8.7208 -2.6699 0.9298
8.8632 -2.3687 0.9385
8.7526 -2.0051 0.9213
8.5941 -1.6461 0.9002
8.5389 -1.3193 0.8909
8.6291 -1.0172 0.8976
8.5228 -0.6951 0.8847
8.5746 -0.3898 0.8891
8.5487 -0.0809 0.8862
8.7307 0.2314 0.9057
8.5793 0.5365 0.8914
8.4222 0.8315 0.8773
8.5588 1.1570 0.8946
8.5463 1.4698 0.8972
8.5275 1.7843 0.9000
8.6396 2.1346 0.9176
8.4265 2.4065 0.9015
8.3358 2.7082 0.8993
8.4840 3.0977 0.9239
8.5830 3.4883 0.9445
8.4175 3.7790 0.9371
8.2950 4.0883 0.9353
8.2298 4.4306 0.9410
8.3879 4.9124 0.9739
8.2428 5.2340 0.9731
8.5669 -4.9084 0.9774
8.7535 -4.6058 0.9848
8.9405 -4.3013 0.9930
8.8086 -3.8545 0.9672
8.8582 -3.5025 0.9626
8.5990 -3.0475 0.9258
8.6887 -2.7320 0.9279
8.8531 -2.4377 0.9387
8.7642 -2.0774 0.9236
8.5869 -1.7120 0.9003
8.6533 -1.4039 0.9035
8.5804 -1.0771 0.8930
8.5921 -0.7661 0.8922
8.5433 -0.4530 0.8860
8.6381 -0.1470 0.8954
8.8262 0.1673 0.9154
8.5497 0.4699 0.8880
8.3669 0.7623 0.8710
8.5372 1.0885 0.8916
8.5380 1.4021 0.8954
8.5367 1.7191 0.8999
8.5734 2.0497 0.9093
8.4713 2.3503 0.9048
8.3241 2.6351 0.8964
8.4676 3.0195 0.9202
8.6616 3.4443 0.9510
8.4714 3.7266 0.9407
8.2934 4.0100 0.9325
8.2675 4.3708 0.9425
8.3866 4.8271 0.9705
8.2397 5.1453 0.9692
8.9107 -4.2080 1.2121
8.8329 -3.7891 1.1869
8.8729 -3.4340 1.1793
8.6376 -2.9904 1.1369
8.7386 -2.6776 1.1403
8.8649 -2.3711 1.1481
8.6885 -1.9921 1.1180
8.5947 -1.6476 1.1000
8.6069 -1.3310 1.0967
8.5958 -1.0142 1.0917
8.6002 -0.7022 1.0897
8.5636 -0.3898 1.0836
8.6105 -0.0818 1.0891
8.8114 0.2334 1.1152
8.5200 0.5329 1.0800
8.4726 0.8368 1.0768
8.6210 1.1659 1.0996
8.5359 1.4688 1.0937
8.5593 1.7920 1.1029
8.6025 2.1267 1.1159
8.3664 2.3907 1.0936
8.2471 2.6811 1.0876
8.5326 3.1174 1.1365
8.5555 3.4794 1.1522
8.4379 3.7907 1.1504
8.3225 4.1047 1.1502
8.3965 4.5236 1.1777
8.3905 4.9176 1.1961
8.1914 5.2054 1.1885
8.9074 -4.2890 1.2149
8.8110 -3.8587 1.1869
8.8634 -3.5075 1.1806
8.6039 -3.0517 1.1346
8.7203 -2.7442 1.1398
8.8865 -2.4489 1.1526
8.6739 -2.0578 1.1175
8.6637 -1.7288 1.1100
8.5999 -1.3965 1.0967
8.6404 -1.0857 1.0980
8.6059 -0.7681 1.0908
8.5837 -0.4557 1.0863
8.6060 -0.1468 1.0885
8.8249 0.1671 1.1167
8.5607 0.4706 1.0847
8.4402 0.7693 1.0720
8.4245 1.0746 1.0736
8.6068 1.4141 1.1017
8.5787 1.7285 1.1040
8.5341 2.0415 1.1054
8.4592 2.3483 1.1039
8.2646 2.6179 1.0878
8.5027 3.0339 1.1300
8.5509 3.4025 1.1488
8.5209 3.7509 1.1586
8.3694 4.0496 1.1532
8.3046 4.3935 1.1611
8.4332 4.8575 1.1980
8.2261 5.1407 1.1890
8.2041 5.5467 1.2084
8.7570 -4.5312 1.4335
8.8611 -4.1880 1.4302
8.8079 -3.7815 1.4035
8.7830 -3.4020 1.3835
8.6744 -3.0056 1.3523
8.6912 -2.6652 1.3427
8.7797 -2.3503 1.3456
8.7200 -2.0010 1.3273
8.5876 -1.6477 1.2997
8.6348 -1.3365 1.3008
8.6697 -1.0239 1.3014
8.5431 -0.6983 1.2791
8.5349 -0.3890 1.2760
8.6453 -0.0825 1.2919
8.8045 0.2331 1.3165
8.5456 0.5346 1.2798
8.4589 0.8358 1.2701
8.5032 1.1505 1.2815
8.5359 1.4695 1.2925
8.5928 1.8000 1.3087
8.5789 2.1221 1.3156
8.3137 2.3771 1.2852
8.3402 2.7130 1.3011
8.6004 3.1442 1.3557
8.5374 3.4744 1.3613
8.4743 3.8097 1.3686
8.2620 4.0777 1.3532
8.4119 4.5352 1.3992
8.3577 4.9020 1.4138
8.1472 5.1812 1.4037
8.5673 -4.9170 1.4294
8.7538 -4.6137 1.4375
8.8042 -3.8589 1.4065
8.7495 -3.4653 1.3814
8.6932 -3.0859 1.3581
8.5908 -2.7056 1.3296
8.9309 -2.4632 1.3709
8.6688 -2.0583 1.3213
8.6168 -1.7209 1.3056
8.6330 -1.4031 1.3017
8.6489 -1.0878 1.2991
8.5418 -0.7632 1.2795
8.5498 -0.4545 1.2785
8.6324 -0.1476 1.2900
8.8116 0.1667 1.3172
8.5551 0.4703 1.2807
8.4397 0.7695 1.2664
8.5191 1.0872 1.2828
8.4854 1.3949 1.2835
8.5871 1.7312 1.3061
8.5956 2.0574 1.3162
8.4501 2.3472 1.3040
8.1883 2.5954 1.2749
8.4382 3.0128 1.3271
8.5260 3.3949 1.3561
8.4898 3.7398 1.3673
8.2985 4.0181 1.3551
8.3264 4.4082 1.3803
8.3998 4.8418 1.4157
8.1610 5.1038 1.4005
8.7423 -4.5274 1.6585
8.7768 -3.7713 1.6192
8.8223 -3.4200 1.6082
8.6330 -2.9938 1.5570
8.7428 -2.6833 1.5619
8.9516 -2.3983 1.5860
8.7454 -2.0085 1.5385
8.6253 -1.6563 1.5083
8.5401 -1.3230 1.4862
8.6346 -1.0207 1.4970
8.5511 -0.6997 1.4786
8.5500 -0.3902 1.4760
8.5491 -0.0819 1.4751
8.8086 0.2331 1.5207
8.4811 0.5307 1.4665
8.3901 0.8293 1.4546
8.5182 1.1531 1.4824
8.5626 1.4749 1.4973
8.5044 1.7825 1.4960
8.5715 2.1215 1.5185
8.4493 2.4174 1.5092
8.2970 2.7007 1.4960
8.4336 3.0853 1.5369
8.5995 3.5019 1.5857
8.4487 3.8008 1.5785
8.2035 4.0517 1.5550
8.4563 4.5623 1.6286
8.3432 4.8971 1.6349
8.1265 5.1720 1.6227
8.7900 -3.8559 1.6260
8.7822 -3.4810 1.6048
8.5786 -3.0477 1.5505
8.6551 -2.7281 1.5492
8.9033 -2.4576 1.5801
8.7643 -2.0827 1.5440
8.6550 -1.7300 1.5153
8.5278 -1.3872 1.4854
8.5668 -1.0785 1.4863
8.6184 -0.7708 1.4909
8.5899 -0.4572 1.4833
8.5828 -0.1471 1.4809
8.8615 0.1675 1.5295
8.5207 0.4685 1.4727
8.3833 0.7646 1.4525
8.4871 1.0836 1.4757
8.5097 1.3996 1.4864
8.4886 1.7122 1.4912
8.5686 2.0522 1.5156
8.4132 2.3384 1.5000
8.2540 2.6178 1.4852
8.4279 3.0111 1.5322
8.6666 3.4531 1.5940
8.3934 3.6998 1.5637
8.2815 4.0126 1.5649
8.2143 4.3520 1.5765
8.3690 4.8275 1.6338
8.1873 5.1241 1.6281
8.8641 -4.1966 1.8855
8.8123 -3.7897 1.8491
8.8946 -3.4509 1.8435
8.6042 -2.9863 1.7638
8.6937 -2.6705 1.7649
8.9150 -2.3905 1.7944
8.7637 -2.0144 1.7511
8.6771 -1.6677 1.7231
8.6181 -1.3363 1.7028
8.6827 -1.0274 1.7089
8.6089 -0.7052 1.6897
8.5477 -0.3907 1.6748
8.6278 -0.0830 1.6896
8.8350 0.2337 1.7310
8.4939 0.5316 1.6668
8.3689 0.8275 1.6468
8.5240 1.1544 1.6837
8.5632 1.4758 1.6998
8.5106 1.7848 1.6996
8.5688 2.1221 1.7236
8.4281 2.4128 1.7096
8.1830 2.6653 1.6759
8.5045 3.1132 1.7607
8.6098 3.5085 1.8041
8.3986 3.7808 1.7837
8.2385 4.0718 1.7757
8.4523 4.5635 1.8515
8.3642 4.9131 1.8649
8.2205 5.2359 1.8684
8.8294 -3.8764 1.8578
8.8874 -3.5257 1.8466
8.6166 -3.0638 1.7703
8.6981 -2.7440 1.7692
8.8465 -2.4440 1.7837
8.8048 -2.0941 1.7619
8.6192 -1.7243 1.7137
8.6148 -1.4026 1.7038
8.6701 -1.0925 1.7077
8.6276 -0.7725 1.6942
8.6143 -0.4591 1.6883
8.5729 -0.1473 1.6789
8.8623 0.1673 1.7360
8.5268 0.4689 1.6726
8.4037 0.7668 1.6525
8.5022 1.0860 1.6779
8.5680 1.4099 1.6988
8.5120 1.7179 1.6976
8.5471 2.0482 1.7165
8.4874 2.3604 1.7184
8.2461 2.6170 1.6852
8.4989 3.0384 1.7553
8.6669 3.4556 1.8113
8.4830 3.7419 1.7963
8.2965 4.0227 1.7824
8.3436 4.4237 1.8213
8.4238 4.8628 1.8710
8.2586 5.1727 1.8693
8.9094 -3.8347 2.0973
8.8991 -3.4556 2.0687
8.5099 -2.9560 1.9561
8.6912 -2.6719 1.9779
8.8876 -2.3852 2.0051
8.7736 -2.0184 1.9645
8.7684 -1.6868 1.9510
8.6596 -1.3440 1.9169
8.6607 -1.0258 1.9095
8.5919 -0.7045 1.8888
8.6353 -0.3952 1.8951
8.7558 -0.0845 1.9203
8.8007 0.2327 1.9311
8.5413 0.5347 1.8772
8.4881 0.8396 1.8706
8.5608 1.1599 1.8939
8.5475 1.4738 1.9004
8.5948 1.8034 1.9227
8.6431 2.1418 1.9477
8.4360 2.4165 1.9173
8.2932 2.7029 1.9033
8.6140 3.1554 1.9988
8.5738 3.4962 2.0141
8.4846 3.8222 2.0205
8.3449 4.1274 2.0173
8.3584 4.5162 2.0541
8.0962 5.1607 2.0657
8.9329 -3.9252 2.1087
8.8931 -3.5309 2.0725
8.5447 -3.0408 1.9685
8.6712 -2.7378 1.9773
8.9383 -2.4715 2.0200
8.7681 -2.0872 1.9662
8.7960 -1.7612 1.9596
8.5863 -1.3993 1.9025
8.7232 -1.1002 1.9247
8.6269 -0.7732 1.8975
8.6798 -0.4631 1.9054
8.5749 -0.1477 1.8807
8.7867 0.1657 1.9277
8.6026 0.4731 1.8899
8.4937 0.7753 1.8706
8.5767 1.0961 1.8957
8.5284 1.4041 1.8940
8.5286 1.7222 1.9053
8.5292 2.0451 1.9189
8.5759 2.3865 1.9455
8.2097 2.6071 1.8801
8.4359 3.0179 1.9528
8.6128 3.4363 2.0178
8.4518 3.7307 2.0067
8.3476 4.0504 2.0114
8.4877 4.5034 2.0785
8.4064 4.8564 2.0952
8.1260 5.0936 2.0645
6.2129 -7.4438 2.2360
6.4518 -7.1874 2.2360
6.6814 -6.9245 2.2360
6.9014 -6.6554 2.2360
7.1118 -6.3803 2.2360
7.3126 -6.0996 2.2360
7.5035 -5.8135 2.2360
7.6846 -5.5224 2.2360
7.8557 -5.2266 2.2360
8.0167 -4.9264 2.2360
8.1677 -4.6221 2.2360
8.3086 -4.3139 2.2360
8.4392 -4.0022 2.2360
8.5596 -3.6873 2.2360
8.6697 -3.3694 2.2360
8.6319 -3.0009 2.2009
8.7788 -2.7012 2.2158
8.9194 -2.3957 2.2313
8.8106 -2.0287 2.1873
8.8287 -1.6999 2.1777
8.7063 -1.3525 2.1362
8.6937 -1.0307 2.1244
8.6686 -0.7116 2.1121
8.6481 -0.3964 2.1033
8.7810 -0.0851 2.1342
8.8656 0.2343 2.1558
8.6519 0.5417 2.1072
8.4881 0.8399 2.0730
8.6423 1.1716 2.1189
8.5504 1.4751 2.1069
8.6117 1.8080 2.1353
8.6289 2.1395 2.1555
8.4958 2.4352 2.1406
8.3404 2.7200 2.1223
8.6017 3.1530 2.2133
8.5707 3.4973 2.2330
8.4643 3.8157 2.2360
8.3365 4.1262 2.2360
8.1986 4.4331 2.2360
8.0507 4.7361 2.2360
7.8929 5.0350 2.2360
7.7253 5.3295 2.2360
7.5479 5.6192 2.2360
7.3608 5.9040 2.2360
7.1641 6.1835 2.2360
6.9579 6.4573 2.2360
6.7423 6.7253 2.2360
6.5175 6.9872 2.2360
6.2834 7.2425 2.2360
6.0404 7.4911 2.2360
5.7884 7.7325 2.2360
5.5276 7.9666 2.2360
6.1678 -7.5042 2.2382
6.4024 -7.2417 2.2360
6.6340 -6.9802 2.2360
6.8560 -6.7124 2.2360
7.0685 -6.4385 2.2360
7.2713 -6.1590 2.2360
7.4642 -5.8740 2.2360
7.6474 -5.5839 2.2360
7.8206 -5.2891 2.2360
7.9838 -4.9898 2.2360
8.1369 -4.6863 2.2360
8.2798 -4.3789 2.2360
8.4126 -4.0679 2.2360
8.5352 -3.7536 2.2360
8.6474 -3.4363 2.2360
8.7494 -3.1163 2.2360
8.6521 -2.7341 2.1882
8.9223 -2.4691 2.2360
8.8432 -2.1069 2.1987
8.8007 -1.7637 2.1735
8.7722 -1.4309 2.1546
8.7525 -1.1050 2.1404
8.6480 -0.7759 2.1081
8.7086 -0.4653 2.1186
8.7306 -0.1508 2.1220
8.9269 0.1682 2.1703
8.7146 0.4793 2.1215
8.5196 0.7779 2.0793
8.6245 1.1027 2.1126
8.5471 1.4079 2.1037
8.5840 1.7344 2.1254
8.6405 2.0730 2.1548
8.4755 2.3600 2.1314
8.1707 2.5964 2.0746
8.4428 3.0224 2.1672
8.6055 3.4357 2.2360
8.4899 3.7501 2.2360
8.3463 4.0526 2.2312
8.2284 4.3690 2.2360
8.0826 4.6728 2.2360
7.9269 4.9726 2.2360
7.7613 5.2680 2.2360
7.5859 5.5588 2.2360
7.4009 5.8446 2.2360
7.2062 6.1252 2.2360
7.0020 6.4003 2.2360
6.7884 6.6696 2.2360
6.5654 6.9328 2.2360
6.3333 7.1895 2.2360
6.0921 7.4395 2.2360
5.8420 7.6825 2.2360
5.5831 7.9181 2.2360
3.8376 -8.8990 2.3884
4.1371 -8.7177 2.3884
4.4290 -8.5272 2.3884
4.7132 -8.3279 2.3884
4.9894 -8.1200 2.3884
5.2574 -7.9039 2.3884
5.5170 -7.6799 2.3884
5.7681 -7.4484 2.3884
6.0105 -7.2095 2.3884
6.1060 -6.8097 2.3356
6.0984 -6.3272 2.2517
6.2575 -6.0407 2.2360
6.4505 -5.7928 2.2360
6.6347 -5.5396 2.2360
6.8100 -5.2813 2.2360
6.9763 -5.0182 2.2360
7.1336 -4.7506 2.2360
7.2818 -4.4788 2.2360
7.4207 -4.2031 2.2360
7.5504 -3.9237 2.2360
7.6707 -3.6409 2.2360
7.7817 -3.3550 2.2360
7.8832 -3.0663 2.2360
7.9753 -2.7750 2.2360
8.0578 -2.4815 2.2360
8.1309 -2.1858 2.2360
8.1943 -1.8885 2.2360
8.2482 -1.5896 2.2360
8.2925 -1.2894 2.2360
8.3272 -0.9883 2.2360
8.3522 -0.6864 2.2360
8.3677 -0.3841 2.2360
8.3735 -0.0815 2.2360
8.3697 0.2210 2.2360
8.3562 0.5232 2.2360
8.3332 0.8249 2.2360
8.3006 1.1257 2.2360
8.2584 1.4255 2.2360
8.2066 1.7240 2.2360
8.1454 2.0208 2.2360
8.0746 2.3159 2.2360
7.9944 2.6088 2.2360
7.9048 2.8994 2.2360
7.8058 3.1874 2.2360
7.6975 3.4725 2.2360
7.5800 3.7545 2.2360
7.4532 4.0330 2.2360
7.3173 4.3080 2.2360
7.1724 4.5790 2.2360
7.0184 4.8457 2.2360
6.8555 5.1081 2.2360
6.6838 5.3656 2.2360
6.5034 5.6182 2.2360
6.3144 5.8655 2.2360
6.1168 6.1073 2.2360
5.9109 6.3432 2.2360
5.6966 6.5730 2.2360
5.4823 6.8064 2.2393
5.4357 7.2698 2.3178
5.3468 7.7153 2.3884
5.0841 7.9318 2.3884
4.8135 8.1402 2.3884
4.5349 8.3402 2.3884
4.2488 8.5317 2.3884
3.9552 8.7142 2.3884
3.6544 8.8876 2.3884
3.3467 9.0514 2.3884
3.0324 9.2054 2.3884
3.7739 -8.9359 2.3884
4.0748 -8.7565 2.3884
4.3684 -8.5680 2.3884
4.6542 -8.3705 2.3884
4.9320 -8.1644 2.3884
5.2018 -7.9500 2.3884
5.4632 -7.7276 2.3884
5.7161 -7.4976 2.3884
5.9604 -7.2602 2.3884
6.1076 -6.9159 2.3544
6.1000 -6.4254 2.2686
6.2159 -6.0921 2.2360
6.4107 -5.8453 2.2360
6.5968 -5.5932 2.2360
6.7739 -5.3359 2.2360
6.9422 -5.0738 2.2360
7.1014 -4.8071 2.2360
7.2514 -4.5362 2.2360
7.3923 -4.2612 2.2360
7.5239 -3.9826 2.2360
7.6462 -3.7005 2.2360
7.7592 -3.4153 2.2360
7.8627 -3.1271 2.2360
7.9567 -2.8364 2.2360
8.0413 -2.5433 2.2360
8.1163 -2.2480 2.2360
8.1818 -1.9510 2.2360
8.2377 -1.6524 2.2360
8.2840 -1.3525 2.2360
8.3207 -1.0515 2.2360
8.3478 -0.7498 2.2360
8.3652 -0.4475 2.2360
8.3731 -0.1450 2.2360
8.3713 0.1575 2.2360
8.3598 0.4598 2.2360
8.3388 0.7616 2.2360
8.3082 1.0627 2.2360
8.2680 1.3627 2.2360
8.2183 1.6615 2.2360
8.1590 1.9587 2.2360
8.0902 2.2541 2.2360
8.0120 2.5475 2.2360
7.9244 2.8387 2.2360
7.8274 3.1272 2.2360
7.7210 3.4129 2.2360
7.6054 3.6956 2.2360
7.4806 3.9749 2.2360
7.3466 4.2506 2.2360
7.2035 4.5224 2.2360
7.0514 4.7901 2.2360
6.8904 5.0534 2.2360
6.7206 5.3120 2.2360
6.5420 5.5656 2.2360
6.3547 5.8141 2.2360
6.1590 6.0570 2.2360
5.9548 6.2942 2.2360
5.7422 6.5253 2.2360
5.5216 6.7501 2.2360
5.4440 7.1672 2.2998
5.4009 7.6689 2.3884
5.1399 7.8870 2.3884
4.8709 8.0971 2.3884
4.5940 8.2989 2.3884
4.3095 8.4922 2.3884
4.0174 8.6767 2.3884
3.7181 8.8520 2.3884
3.4119 9.0178 2.3884
3.0989 9.1739 2.3884
-3.2837 -9.1025 2.3884
-2.9435 -9.1743 2.3884
-2.6023 -9.2334 2.3884
-2.2606 -9.2796 2.3884
-1.9187 -9.3133 2.3884
-1.5773 -9.3344 2.3884
-1.2367 -9.3430 2.3884
-0.8975 -9.3394 2.3884
-0.5600 -9.3238 2.3884
-0.2247 -9.2961 2.3884
0.1080 -9.2567 2.3884
0.4376 -9.2058 2.3884
0.7639 -9.1435 2.3884
1.0864 -9.0701 2.3884
1.4048 -8.9857 2.3884
1.7188 -8.8908 2.3884
2.0280 -8.7854 2.3884
2.3320 -8.6698 2.3884
2.6306 -8.5444 2.3884
2.9236 -8.4093 2.3884
3.2106 -8.2648 2.3884
3.4914 -8.1112 2.3884
3.7657 -7.9488 2.3884
4.0333 -7.7779 2.3884
4.2940 -7.5987 2.3884
4.5475 -7.4115 2.3884
4.7937 -7.2166 2.3884
5.0324 -7.0143 2.3884
5.2634 -6.8049 2.3884
5.4865 -6.5886 2.3884
5.7015 -6.3657 2.3884
5.9084 -6.1367 2.3884
6.0541 -5.8505 2.3677
6.0480 -5.4369 2.2939
6.0654 -5.0695 2.2360
6.2273 -4.8340 2.2360
6.3809 -4.5942 2.2360
6.5263 -4.3502 2.2360
6.6633 -4.1021 2.2360
6.7919 -3.8504 2.2360
6.9119 -3.5951 2.2360
7.0233 -3.3365 2.2360
7.1261 -3.0751 2.2360
7.2202 -2.8109 2.2360
7.3056 -2.5442 2.2360
7.3822 -2.2754 2.2360
7.4499 -2.0045 2.2360
7.5089 -1.7320 2.2360
7.5589 -1.4580 2.2360
7.6001 -1.1829 2.2360
7.6324 -0.9067 2.2360
7.6557 -0.6299 2.2360
7.6701 -0.3525 2.2360
7.6756 -0.0750 2.2360
7.6722 0.2025 2.2360
7.6599 0.4797 2.2360
7.6387 0.7564 2.2360
7.6086 1.0324 2.2360
7.5696 1.3073 2.2360
7.5217 1.5810 2.2360
7.4651 1.8532 2.2360
7.3997 2.1237 2.2360
7.3255 2.3921 2.2360
7.2426 2.6584 2.2360
7.1511 2.9221 2.2360
7.0509 3.1831 2.2360
6.9422 3.4411 2.2360
6.8251 3.6960 2.2360
6.6995 3.9473 2.2360
6.5655 4.1949 2.2360
6.4233 4.4385 2.2360
6.2729 4.6779 2.2360
6.1144 4.9129 2.2360
5.9480 5.1430 2.2360
5.7736 5.3682 2.2360
5.5915 5.5882 2.2360
5.5075 5.9164 2.2798
5.4746 6.3236 2.3521
5.3404 6.6376 2.3884
5.1139 6.8474 2.3884
4.8799 7.0503 2.3884
4.6385 7.2459 2.3884
4.3898 7.4340 2.3884
4.1341 7.6143 2.3884
3.8716 7.7866 2.3884
3.6024 7.9505 2.3884
3.3268 8.1059 2.3884
3.0451 8.2524 2.3884
2.7574 8.3899 2.3884
2.4641 8.5179 2.3884
0.8889 3.5452 0.9804
0.7613 3.5763 0.9768
0.6327 3.6028 0.9730
0.5031 3.6246 0.9693
0.3729 3.6417 0.9655
0.2421 3.6541 0.9616
0.1109 3.6618 0.9578
-0.0204 3.6647 0.9539
-0.1518 3.6628 0.9500
-0.2831 3.6562 0.9460
-0.4140 3.6449 0.9421
-0.5444 3.6288 0.9382
-0.6742 3.6080 0.9343
-0.8031 3.5826 0.9304
-2.4002 9.1581 2.3884
-2.7385 9.1068 2.3884
-3.0760 9.0429 2.3884
-3.4124 8.9665 2.3884
-3.7470 8.8774 2.3884
-4.0795 8.7756 2.3884
-3.3549 -9.0858 2.3884
-3.0151 -9.1603 2.3884
-2.6740 -9.2220 2.3884
-2.3323 -9.2710 2.3884
-1.9905 -9.3073 2.3884
-1.6489 -9.3310 2.3884
-1.3081 -9.3422 2.3884
-0.9685 -9.3412 2.3884
-0.6307 -9.3280 2.3884
-0.2949 -9.3029 2.3884
0.0384 -9.2660 2.3884
0.3687 -9.2174 2.3884
0.6957 -9.1575 2.3884
1.0191 -9.0864 2.3884
1.3384 -9.0043 2.3884
1.6533 -8.9116 2.3884
1.9635 -8.8083 2.3884
2.2686 -8.6949 2.3884
2.5684 -8.5715 2.3884
2.8626 -8.4384 2.3884
3.1509 -8.2959 2.3884
3.4330 -8.1442 2.3884
3.7087 -7.9836 2.3884
3.9777 -7.8144 2.3884
4.2399 -7.6369 2.3884
4.4949 -7.4514 2.3884
4.7427 -7.2581 2.3884
4.9829 -7.0573 2.3884
5.2155 -6.8494 2.3884
5.4403 -6.6345 2.3884
5.6571 -6.4131 2.3884
5.8657 -6.1853 2.3884
6.0554 -5.9411 2.3842
6.0493 -5.5215 2.3088
6.0496 -5.1343 2.2431
6.1939 -4.8838 2.2360
6.3494 -4.6449 2.2360
6.4965 -4.4018 2.2360
6.6353 -4.1545 2.2360
6.7656 -3.9035 2.2360
6.8874 -3.6489 2.2360
7.0007 -3.3911 2.2360
7.1053 -3.1302 2.2360
7.2012 -2.8665 2.2360
7.2884 -2.6004 2.2360
7.3668 -2.3319 2.2360
7.4364 -2.0615 2.2360
7.4972 -1.7893 2.2360
7.5491 -1.5156 2.2360
7.5922 -1.2407 2.2360
7.6263 -0.9647 2.2360
7.6515 -0.6880 2.2360
7.6678 -0.4108 2.2360
7.6752 -0.1333 2.2360
7.6737 0.1443 2.2360
7.6632 0.4216 2.2360
7.6439 0.6984 2.2360
7.6156 0.9746 2.2360
7.5785 1.2497 2.2360
7.5325 1.5237 2.2360
7.4777 1.7962 2.2360
7.4141 2.0671 2.2360
7.3418 2.3360 2.2360
7.2607 2.6027 2.2360
7.1710 2.8670 2.2360
7.0727 3.1286 2.2360
6.9658 3.3872 2.2360
6.8504 3.6427 2.2360
6.7265 3.8948 2.2360
6.5943 4.1432 2.2360
6.4538 4.3877 2.2360
6.3052 4.6281 2.2360
6.1484 4.8639 2.2360
5.9836 5.0951 2.2360
5.8108 5.3214 2.2360
5.6303 5.5425 2.2360
5.5141 5.8343 2.2656
5.4818 6.2359 2.3363
5.3869 6.5927 2.3884
5.1621 6.8039 2.3884
4.9296 7.0083 2.3884
4.6897 7.2054 2.3884
4.4426 7.3951 2.3884
4.1883 7.5771 2.3884
3.9272 7.7511 2.3884
3.6594 7.9168 2.3884
3.3852 8.0740 2.3884
3.1047 8.2224 2.3884
2.8183 8.3618 2.3884
2.5261 8.4918 2.3884
2.2285 8.6123 2.3884
0.7882 3.5702 0.9775
0.6597 3.5976 0.9738
0.5304 3.6204 0.9701
0.4003 3.6385 0.9663
0.2696 3.6519 0.9624
0.1385 3.6606 0.9586
0.0072 3.6645 0.9547
-0.1243 3.6636 0.9508
-0.2555 3.6580 0.9469
-0.3865 3.6477 0.9429
-0.5171 3.6326 0.9390
-0.6470 3.6128 0.9351
-0.7761 3.5883 0.9312
-0.9043 3.5592 0.9273
-2.6675 9.1186 2.3884
-3.0052 9.0574 2.3884
-3.3419 8.9836 2.3884
-3.6769 8.8971 2.3884
-4.0099 8.7980 2.3884
-4.3402 8.6862 2.3884
-9.5216 -0.1202 2.3884
-9.5119 -0.4588 2.3884
-9.4887 -0.7967 2.3884
-9.4518 -1.1334 2.3884
-9.4015 -1.4682 2.3884
-9.3379 -1.8006 2.3884
-9.2610 -2.1300 2.3884
-9.1711 -2.4559 2.3884
-9.0682 -2.7776 2.3884
-8.9528 -3.0947 2.3884
-8.8248 -3.4065 2.3884
-8.6848 -3.7127 2.3884
-8.5329 -4.0127 2.3884
-8.3694 -4.3059 2.3884
-8.1948 -4.5920 2.3884
-8.0092 -4.8705 2.3884
-7.8132 -5.1410 2.3884
-7.6072 -5.4031 2.3884
-7.3914 -5.6563 2.3884
-7.1664 -5.9004 2.3884
-6.9326 -6.1350 2.3884
-6.6904 -6.3598 2.3884
-6.4404 -6.5745 2.3884
-6.1829 -6.7789 2.3884
-5.9184 -6.9727 2.3884
-5.6475 -7.1557 2.3884
-5.3706 -7.3277 2.3884
-5.0881 -7.4885 2.3884
-4.8007 -7.6380 2.3884
-4.5087 -7.7762 2.3884
-4.2127 -7.9028 2.3884
-3.9132 -8.0179 2.3884
-3.6106 -8.1213 2.3884
-3.3054 -8.2131 2.3884
-2.9981 -8.2932 2.3884
-2.6891 -8.3617 2.3884
-2.3790 -8.4185 2.3884
-2.0681 -8.4638 2.3884
-1.7569 -8.4976 2.3884
-1.4459 -8.5199 2.3884
-1.1354 -8.5310 2.3884
-0.8260 -8.5308 2.3884
-0.5179 -8.5196 2.3884
-0.2116 -8.4974 2.3884
0.0926 -8.4644 2.3884
0.3942 -8.4208 2.3884
0.6929 -8.3668 2.3884
0.9884 -8.3026 2.3884
1.2803 -8.2282 2.3884
1.5683 -8.1440 2.3884
1.8522 -8.0502 2.3884
2.1315 -7.9470 2.3884
2.4061 -7.8346 2.3884
2.6756 -7.7132 2.3884
2.9398 -7.5831 2.3884
3.1984 -7.4445 2.3884
3.4512 -7.2977 2.3884
3.6980 -7.1428 2.3884
3.9385 -6.9803 2.3884
4.1726 -6.8103 2.3884
4.4001 -6.6330 2.3884
4.6207 -6.4488 2.3884
4.8343 -6.2579 2.3884
5.0408 -6.0606 2.3884
5.2399 -5.8570 2.3884
5.4315 -5.6476 2.3884
5.6156 -5.4325 2.3884
5.7919 -5.2121 2.3884
5.9603 -4.9865 2.3884
6.0021 -4.6638 2.3421
5.9967 -4.3217 2.2831
6.0080 -4.0087 2.2360
6.1422 -3.7848 2.2385
6.2547 -3.5491 2.2360
6.3663 -3.3143 2.2360
6.4700 -3.0764 2.2360
6.5656 -2.8357 2.2360
6.6532 -2.5924 2.2360
6.7327 -2.3468 2.2360
6.8040 -2.0990 2.2360
6.8672 -1.8494 2.2360
6.9221 -1.5981 2.2360
6.9688 -1.3454 2.2360
7.0072 -1.0916 2.2360
7.0374 -0.8369 2.2360
7.0592 -0.5814 2.2360
7.0728 -0.3256 2.2360
7.0780 -0.0694 2.2360
7.0749 0.1866 2.2360
7.0635 0.4425 2.2360
7.0439 0.6978 2.2360
7.0159 0.9525 2.2360
6.9797 1.2061 2.2360
6.9353 1.4586 2.2360
6.8827 1.7097 2.2360
6.8219 1.9591 2.2360
6.7530 2.2066 2.2360
6.6759 2.4520 2.2360
6.5909 2.6951 2.2360
6.4978 2.9355 2.2360
6.3969 3.1732 2.2360
6.2880 3.4077 2.2360
6.1714 3.6390 2.2360
6.0470 3.8667 2.2360
5.9150 4.0907 2.2360
5.7754 4.3107 2.2360
5.6284 4.5264 2.2360
5.5618 4.8135 2.2718
5.5349 5.1512 2.3296
5.4942 5.4964 2.3884
5.3063 5.7062 2.3884
5.1111 5.9101 2.3884
4.9087 6.1080 2.3884
4.6992 6.2996 2.3884
4.4828 6.4847 2.3884
4.2597 6.6629 2.3884
4.0299 6.8341 2.3884
3.7938 6.9980 2.3884
3.5515 7.1544 2.3884
3.3032 7.3030 2.3884
3.0492 7.4435 2.3884
2.7896 7.5758 2.3884
2.5247 7.6996 2.3884
2.2548 7.8147 2.3884
0.8100 3.2402 0.9770
0.6934 3.2686 0.9737
0.5758 3.2928 0.9703
0.4574 3.3127 0.9668
0.3384 3.3283 0.9633
0.2188 3.3396 0.9598
0.0989 3.3466 0.9563
-0.0211 3.3492 0.9527
-0.1412 3.3475 0.9492
-0.2611 3.3414 0.9456
-0.3808 3.3311 0.9420
-0.5000 3.3164 0.9384
-0.6186 3.2974 0.9348
-0.7364 3.2741 0.9313
-0.8534 3.2466 0.9277
-2.5048 8.3086 2.3884
-2.8118 8.2473 2.3884
-3.1175 8.1746 2.3884
-3.4213 8.0904 2.3884
-3.7230 7.9948 2.3884
-4.0220 7.8877 2.3884
-4.3178 7.7691 2.3884
-4.6101 7.6392 2.3884
-4.8983 7.4980 2.3884
-5.1819 7.3455 2.3884
-5.4604 7.1820 2.3884
-5.7334 7.0075 2.3884
-6.0005 6.8222 2.3884
-6.2611 6.6263 2.3884
-6.5147 6.4199 2.3884
-6.7609 6.2034 2.3884
-6.9992 5.9769 2.3884
-7.2292 5.7408 2.3884
-7.4505 5.4954 2.3884
-7.6625 5.2409 2.3884
-7.8649 4.9778 2.3884
-8.0573 4.7064 2.3884
-8.2393 4.4270 2.3884
-8.4105 4.1402 2.3884
-8.5705 3.8463 2.3884
-8.7191 3.5458 2.3884
-8.8558 3.2391 2.3884
-8.9805 2.9269 2.3884
-9.0928 2.6095 2.3884
-9.1924 2.2874 2.3884
-9.2793 1.9614 2.3884
-9.3531 1.6318 2.3884
-9.4137 1.2992 2.3884
-9.4610 0.9643 2.3884
-9.4949 0.6275 2.3884
-9.5152 0.2895 2.3884
-9.5219 -0.0491 2.3884
-9.5151 -0.3877 2.3884
-9.4947 -0.7259 2.3884
-9.4607 -1.0629 2.3884
-9.4132 -1.3981 2.3884
-9.3524 -1.7311 2.3884
-9.2782 -2.0612 2.3884
-9.1910 -2.3878 2.3884
-9.0909 -2.7105 2.3884
-8.9780 -3.0285 2.3884
-8.8527 -3.3416 2.3884
-8.7152 -3.6489 2.3884
-8.5657 -3.9502 2.3884
-8.4047 -4.2449 2.3884
-8.2323 -4.5326 2.3884
-8.0490 -4.8127 2.3884
-7.8552 -5.0849 2.3884
-7.6512 -5.3488 2.3884
-7.4375 -5.6039 2.3884
-7.2144 -5.8500 2.3884
-6.9824 -6.0866 2.3884
-6.7419 -6.3135 2.3884
-6.4935 -6.5303 2.3884
-6.2375 -6.7369 2.3884
-5.9745 -6.9329 2.3884
-5.7049 -7.1182 2.3884
-5.4292 -7.2925 2.3884
-5.1478 -7.4557 2.3884
-4.8614 -7.6076 2.3884
-4.5704 -7.7481 2.3884
-4.2752 -7.8772 2.3884
-3.9763 -7.9947 2.3884
-3.6743 -8.1006 2.3884
-3.3696 -8.1948 2.3884
-3.0627 -8.2774 2.3884
-2.7541 -8.3483 2.3884
-2.4441 -8.4076 2.3884
-2.1334 -8.4553 2.3884
-1.8222 -8.4914 2.3884
-1.5111 -8.5162 2.3884
-1.2005 -8.5296 2.3884
-0.8908 -8.5318 2.3884
-0.5824 -8.5228 2.3884
-0.2757 -8.5029 2.3884
0.0289 -8.4722 2.3884
0.3311 -8.4309 2.3884
0.6305 -8.3790 2.3884
0.9266 -8.3169 2.3884
1.2193 -8.2446 2.3884
1.5082 -8.1625 2.3884
1.7930 -8.0707 2.3884
2.0733 -7.9694 2.3884
2.3489 -7.8589 2.3884
2.6194 -7.7394 2.3884
2.8848 -7.6111 2.3884
3.1446 -7.4743 2.3884
3.3986 -7.3291 2.3884
3.6467 -7.1760 2.3884
3.8886 -7.0150 2.3884
4.1241 -6.8466 2.3884
4.3529 -6.6708 2.3884
4.5750 -6.4880 2.3884
4.7901 -6.2985 2.3884
4.9980 -6.1025 2.3884
5.1987 -5.9003 2.3884
5.3919 -5.6920 2.3884
5.5776 -5.4781 2.3884
5.7555 -5.2588 2.3884
5.9256 -5.0342 2.3884
6.0032 -4.7381 2.3552
5.9978 -4.3920 2.2950
5.9988 -4.0684 2.2429
6.1092 -3.8287 2.2360
6.2303 -3.5979 2.2360
6.3436 -3.3638 2.2360
6.4489 -3.1266 2.2360
6.5462 -2.8864 2.2360
6.6355 -2.6437 2.2360
6.7167 -2.3985 2.2360
6.7897 -2.1512 2.2360
6.8546 -1.9019 2.2360
6.9113 -1.6510 2.2360
6.9597 -1.3986 2.2360
6.9999 -1.1450 2.2360
7.0317 -0.8904 2.2360
7.0553 -0.6351 2.2360
7.0706 -0.3793 2.2360
7.0776 -0.1232 2.2360
7.0762 0.1329 2.2360
7.0666 0.3888 2.2360
7.0487 0.6443 2.2360
7.0225 0.8991 2.2360
6.9880 1.1530 2.2360
6.9453 1.4057 2.2360
6.8944 1.6571 2.2360
6.8353 1.9069 2.2360
6.7681 2.1549 2.2360
6.6928 2.4007 2.2360
6.6094 2.6443 2.2360
6.5180 2.8853 2.2360
6.4187 3.1235 2.2360
6.3115 3.3588 2.2360
6.1965 3.5907 2.2360
6.0738 3.8192 2.2360
5.9433 4.0440 2.2360
5.8054 4.2648 2.2360
5.6599 4.4815 2.2360
5.5672 4.7449 2.2604
5.5407 5.0788 2.3170
5.5122 5.4316 2.3796
5.3464 5.6626 2.3884
5.1527 5.8678 2.3884
4.9518 6.0670 2.3884
4.7438 6.2599 2.3884
4.5288 6.4464 2.3884
4.3071 6.6261 2.3884
4.0787 6.7988 2.3884
3.8439 6.9642 2.3884
3.6029 7.1222 2.3884
3.3558 7.2724 2.3884
3.1030 7.4147 2.3884
2.8445 7.5488 2.3884
2.5808 7.6744 2.3884
2.3119 7.7913 2.3884
0.8343 3.2337 0.9777
0.7179 3.2630 0.9744
0.6005 3.2880 0.9710
0.4823 3.3088 0.9675
0.3634 3.3254 0.9641
0.2439 3.3376 0.9606
0.1241 3.3455 0.9570
0.0041 3.3490 0.9535
-0.1160 3.3482 0.9499
-0.2360 3.3431 0.9463
-0.3557 3.3336 0.9428
-0.4750 3.3198 0.9392
-0.5938 3.3017 0.9356
-0.7118 3.2793 0.9320
-0.8289 3.2527 0.9284
-2.4403 8.3200 2.3884
-2.7475 8.2611 2.3884
-3.0534 8.1908 2.3884
-3.3577 8.1090 2.3884
-3.6599 8.0158 2.3884
-3.9595 7.9111 2.3884
-4.2560 7.7949 2.3884
-4.5491 7.6674 2.3884
-4.8382 7.5285 2.3884
-5.1227 7.3785 2.3884
-5.4024 7.2172 2.3884
-5.6766 7.0450 2.3884
-5.9450 6.8620 2.3884
-6.2069 6.6682 2.3884
-6.4620 6.4641 2.3884
-6.7098 6.2497 2.3884
-6.9498 6.0253 2.3884
-7.1816 5.7912 2.3884
-7.4048 5.5477 2.3884
-7.6188 5.2951 2.3884
-7.8232 5.0337 2.3884
-8.0178 4.7640 2.3884
-8.2020 4.4863 2.3884
-8.3755 4.2010 2.3884
-8.5378 3.9085 2.3884
-8.6888 3.6094 2.3884
-8.8281 3.3040 2.3884
-8.9553 2.9928 2.3884
-9.0702 2.6765 2.3884
-9.1726 2.3554 2.3884
-9.2621 2.0301 2.3884
-9.3387 1.7012 2.3884
-9.4021 1.3692 2.3884
-9.4522 1.0347 2.3884
-9.4889 0.6983 2.3884
-9.5121 0.3605 2.3884
-8.6877 -0.1099 2.3884
-8.6788 -0.4186 2.3884
-8.6576 -0.7267 2.3884
-8.6242 -1.0337 2.3884
-8.5787 -1.3390 2.3884
-8.5211 -1.6422 2.3884
-8.4515 -1.9427 2.3884
-8.3701 -2.2400 2.3884
-8.2770 -2.5336 2.3884
-8.1725 -2.8231 2.3884
-8.0567 -3.1079 2.3884
-7.9300 -3.3876 2.3884
-7.7924 -3.6618 2.3884
-7.6444 -3.9300 2.3884
-7.4862 -4.1917 2.3884
-7.3181 -4.4467 2.3884
-7.1405 -4.6945 2.3884
-6.9536 -4.9348 2.3884
-6.7580 -5.1671 2.3884
-6.5538 -5.3912 2.3884
-6.3416 -5.6068 2.3884
-6.1217 -5.8136 2.3884
-5.8945 -6.0113 2.3884
-5.6605 -6.1997 2.3884
-5.4200 -6.3785 2.3884
-5.1735 -6.5476 2.3884
-4.9214 -6.7068 2.3884
-4.6642 -6.8559 2.3884
-4.4022 -6.9947 2.3884
-4.1360 -7.1233 2.3884
-3.8660 -7.2413 2.3884
-3.5926 -7.3489 2.3884
-3.3162 -7.4460 2.3884
-3.0373 -7.5324 2.3884
-2.7562 -7.6081 2.3884
-2.4736 -7.6733 2.3884
-2.1896 -7.7278 2.3884
-1.9048 -7.7718 2.3884
-1.6196 -7.8052 2.3884
-1.3343 -7.8282 2.3884
-1.0494 -7.8408 2.3884
-0.7652 -7.8431 2.3884
-0.4820 -7.8351 2.3884
-0.2004 -7.8171 2.3884
0.0794 -7.7892 2.3884
0.3571 -7.7515 2.3884
0.6323 -7.7041 2.3884
0.9046 -7.6472 2.3884
1.1739 -7.5810 2.3884
1.4397 -7.5056 2.3884
1.7018 -7.4213 2.3884
1.9599 -7.3282 2.3884
2.2137 -7.2266 2.3884
2.4630 -7.1166 2.3884
2.7075 -6.9985 2.3884
2.9470 -6.8724 2.3884
3.1812 -6.7386 2.3884
3.4099 -6.5973 2.3884
3.6330 -6.4488 2.3884
3.8503 -6.2933 2.3884
4.0614 -6.1309 2.3884
4.2663 -5.9620 2.3884
4.4648 -5.7868 2.3884
4.6567 -5.6056 2.3884
4.8419 -5.4185 2.3884
5.0202 -5.2258 2.3884
5.1916 -5.0278 2.3884
5.3557 -4.8246 2.3884
5.5127 -4.6167 2.3884
5.6622 -4.4041 2.3884
5.8043 -4.1871 2.3884
5.9388 -3.9661 2.3884
5.9542 -3.6724 2.3445
5.9489 -3.3786 2.2973
5.9434 -3.0969 2.2546
5.9911 -2.8513 2.2360
6.0871 -2.6314 2.2384
6.1623 -2.4033 2.2360
6.2366 -2.1758 2.2360
6.3033 -1.9463 2.2360
6.3624 -1.7150 2.2360
6.4138 -1.4821 2.2360
6.4574 -1.2479 2.2360
6.4934 -1.0126 2.2360
6.5217 -0.7763 2.2360
6.5422 -0.5395 2.2360
6.5549 -0.3022 2.2360
6.5599 -0.0646 2.2360
6.5571 0.1729 2.2360
6.5465 0.4102 2.2360
6.5282 0.6470 2.2360
6.5022 0.8832 2.2360
6.4685 1.1184 2.2360
6.4270 1.3525 2.2360
6.3779 1.5853 2.2360
6.3212 1.8165 2.2360
6.2569 2.0459 2.2360
6.1850 2.2733 2.2360
6.1057 2.4985 2.2360
6.0188 2.7212 2.2360
5.9247 2.9412 2.2360
5.8232 3.1583 2.2360
5.7144 3.3722 2.2360
5.6273 3.6013 2.2475
5.6034 3.8785 2.2883
5.5810 4.1691 2.3346
5.5569 4.4729 2.3857
5.4097 4.6863 2.3884
5.2489 4.8898 2.3884
5.0811 5.0883 2.3884
4.9063 5.2815 2.3884
4.7247 5.4693 2.3884
4.5365 5.6513 2.3884
4.3418 5.8274 2.3884
4.1407 5.9973 2.3884
3.9334 6.1609 2.3884
3.7202 6.3177 2.3884
3.5010 6.4678 2.3884
3.2763 6.6107 2.3884
3.0461 6.7464 2.3884
2.8107 6.8745 2.3884
2.5703 6.9949 2.3884
2.3251 7.1074 2.3884
0.8491 2.9505 0.9772
0.7428 2.9805 0.9741
0.6355 3.0066 0.9710
0.5274 3.0288 0.9679
0.4185 3.0471 0.9647
0.3090 3.0614 0.9615
0.1990 3.0718 0.9583
0.0887 3.0782 0.9551
-0.0217 3.0806 0.9518
-0.1321 3.0790 0.9485
-0.2425 3.0734 0.9452
-0.3525 3.0639 0.9419
-0.4622 3.0503 0.9386
-0.5713 3.0329 0.9353
-0.6797 3.0115 0.9320
-0.7872 2.9861 0.9287
-0.8937 2.9570 0.9255
-2.5877 7.5725 2.3884
-2.8675 7.5034 2.3884
-3.1455 7.4238 2.3884
-3.4213 7.3338 2.3884
-3.6945 7.2333 2.3884
-3.9646 7.1225 2.3884
-4.2313 7.0013 2.3884
-4.4941 6.8698 2.3884
-4.7526 6.7282 2.3884
-5.0064 6.5765 2.3884
-5.2549 6.4149 2.3884
-5.4979 6.2436 2.3884
-5.7348 6.0626 2.3884
-5.9654 5.8723 2.3884
-6.1890 5.6728 2.3884
-6.4054 5.4643 2.3884
-6.6141 5.2472 2.3884
-6.8148 5.0217 2.3884
-7.0070 4.7881 2.3884
-7.1904 4.5467 2.3884
-7.3647 4.2979 2.3884
-7.5295 4.0420 2.3884
-7.6844 3.7794 2.3884
-7.8291 3.5105 2.3884
-7.9635 3.2356 2.3884
-8.0871 2.9554 2.3884
-8.1997 2.6701 2.3884
-8.3011 2.3802 2.3884
-8.3911 2.0862 2.3884
-8.4695 1.7886 2.3884
-8.5361 1.4878 2.3884
-8.5907 1.1845 2.3884
-8.6333 0.8790 2.3884
-8.6638 0.5719 2.3884
-8.6820 0.2637 2.3884
-8.6880 -0.0450 2.3884
-8.6817 -0.3538 2.3884
-8.6631 -0.6621 2.3884
-8.6323 -0.9694 2.3884
-8.5892 -1.2751 2.3884
-8.5342 -1.5788 2.3884
-8.4671 -1.8798 2.3884
-8.3881 -2.1779 2.3884
-8.2975 -2.4723 2.3884
-8.1954 -2.7627 2.3884
-8.0820 -3.0485 2.3884
-7.9575 -3.3293 2.3884
-7.8222 -3.6047 2.3884
-7.6763 -3.8742 2.3884
-7.5202 -4.1373 2.3884
-7.3542 -4.3938 2.3884
-7.1785 -4.6431 2.3884
-6.9936 -4.8850 2.3884
-6.7998 -5.1190 2.3884
-6.5974 -5.3449 2.3884
-6.3868 -5.5623 2.3884
-6.1685 -5.7709 2.3884
-5.9428 -5.9706 2.3884
-5.7101 -6.1609 2.3884
-5.4710 -6.3418 2.3884
-5.2257 -6.5129 2.3884
-4.9747 -6.6742 2.3884
-4.7186 -6.8254 2.3884
-4.4576 -6.9664 2.3884
-4.1923 -7.0971 2.3884
-3.9230 -7.2174 2.3884
-3.6502 -7.3272 2.3884
-3.3744 -7.4265 2.3884
-3.0960 -7.5151 2.3884
-2.8154 -7.5931 2.3884
-2.5330 -7.6605 2.3884
-2.2493 -7.7173 2.3884
-1.9646 -7.7635 2.3884
-1.6795 -7.7991 2.3884
-1.3942 -7.8243 2.3884
-1.1091 -7.8390 2.3884
-0.8247 -7.8434 2.3884
-0.5414 -7.8376 2.3884
-0.2594 -7.8218 2.3884
0.0209 -7.7959 2.3884
0.2990 -7.7602 2.3884
0.5747 -7.7148 2.3884
0.8477 -7.6599 2.3884
1.1177 -7.5956 2.3884
1.3842 -7.5222 2.3884
1.6471 -7.4397 2.3884
1.9061 -7.3485 2.3884
2.1608 -7.2486 2.3884
2.4110 -7.1404 2.3884
2.6565 -7.0239 2.3884
2.8971 -6.8995 2.3884
3.1325 -6.7673 2.3884
3.3624 -6.6276 2.3884
3.5867 -6.4806 2.3884
3.8052 -6.3265 2.3884
4.0176 -6.1655 2.3884
4.2238 -5.9980 2.3884
4.4237 -5.8241 2.3884
4.6170 -5.6441 2.3884
4.8036 -5.4582 2.3884
4.9834 -5.2667 2.3884
5.1562 -5.0698 2.3884
5.3219 -4.8677 2.3884
5.4803 -4.6607 2.3884
5.6314 -4.4490 2.3884
5.7751 -4.2330 2.3884
5.9112 -4.0128 2.3884
5.9553 -3.7357 2.3550
5.9501 -3.4393 2.3068
5.9446 -3.1551 2.2632
5.9714 -2.8977 2.2360
6.0623 -2.6755 2.2360
6.1458 -2.4507 2.2360
6.2216 -2.2237 2.2360
6.2899 -1.9946 2.2360
6.3506 -1.7636 2.2360
6.4036 -1.5311 2.2360
6.4489 -1.2971 2.2360
6.4865 -1.0620 2.2360
6.5164 -0.8260 2.2360
6.5385 -0.5892 2.2360
6.5529 -0.3520 2.2360
6.5595 -0.1145 2.2360
6.5583 0.1230 2.2360
6.5494 0.3604 2.2360
6.5327 0.5974 2.2360
6.5083 0.8337 2.2360
6.4762 1.0691 2.2360
6.4363 1.3035 2.2360
6.3889 1.5366 2.2360
6.3337 1.7681 2.2360
6.2710 1.9979 2.2360
6.2007 2.2258 2.2360
6.1229 2.4514 2.2360
6.0377 2.6746 2.2360
5.9450 2.8952 2.2360
5.8451 3.1129 2.2360
5.7378 3.3276 2.2360
5.6363 3.5470 2.2411
5.6080 3.8190 2.2791
5.5858 4.1071 2.3245
5.5621 4.4080 2.3745
5.4425 4.6430 2.3884
5.2832 4.8475 2.3884
5.1169 5.0470 2.3884
4.9435 5.2414 2.3884
4.7634 5.4303 2.3884
4.5766 5.6136 2.3884
4.3832 5.7909 2.3884
4.1834 5.9622 2.3884
3.9774 6.1271 2.3884
3.7654 6.2854 2.3884
3.5475 6.4369 2.3884
3.3239 6.5813 2.3884
3.0949 6.7185 2.3884
2.8606 6.8483 2.3884
2.6211 6.9703 2.3884
2.3769 7.0845 2.3884
0.8712 2.9438 0.9778
0.7652 2.9745 0.9748
0.6581 3.0014 0.9717
0.5501 3.0244 0.9686
0.4414 3.0435 0.9654
0.3320 3.0587 0.9622
0.2221 3.0699 0.9590
0.1119 3.0771 0.9557
0.0015 3.0804 0.9525
-0.1090 3.0796 0.9492
-0.2193 3.0749 0.9459
-0.3295 3.0662 0.9426
-0.4392 3.0535 0.9393
-0.5484 3.0369 0.9360
-0.6570 3.0163 0.9327
-0.7647 2.9918 0.9294
-0.8715 2.9634 0.9262
-2.5288 7.5856 2.3884
-2.8089 7.5187 2.3884
-3.0873 7.4414 2.3884
-3.3636 7.3536 2.3884
-3.6374 7.2553 2.3884
-3.9082 7.1466 2.3884
-4.1756 7.0276 2.3884
-4.4393 6.8983 2.3884
-4.6987 6.7588 2.3884
-4.9535 6.6092 2.3884
-5.2032 6.4497 2.3884
-5.4474 6.2803 2.3884
-5.6856 6.1014 2.3884
-5.9175 5.9130 2.3884
-6.1427 5.7154 2.3884
-6.3606 5.5088 2.3884
-6.5710 5.2935 2.3884
-6.7734 5.0697 2.3884
-6.9674 4.8378 2.3884
-7.1527 4.5980 2.3884
-7.3289 4.3507 2.3884
-7.4957 4.0963 2.3884
-7.6527 3.8350 2.3884
-7.7996 3.5674 2.3884
-7.9362 3.2938 2.3884
-8.0620 3.0146 2.3884
-8.1770 2.7303 2.3884
-8.2808 2.4414 2.3884
-8.3732 2.1482 2.3884
-8.4540 1.8513 2.3884
-8.5231 1.5512 2.3884
-8.5803 1.2483 2.3884
-8.6254 0.9433 2.3884
-8.6584 0.6364 2.3884
-8.6792 0.3285 2.3884
-7.9800 -0.1011 2.3884
-7.9718 -0.3845 2.3884
-7.9525 -0.6673 2.3884
-7.9220 -0.9491 2.3884
-7.8804 -1.2294 2.3884
-7.8278 -1.5077 2.3884
-7.7643 -1.7836 2.3884
-7.6901 -2.0567 2.3884
-7.6052 -2.3264 2.3884
-7.5099 -2.5924 2.3884
-7.4043 -2.8542 2.3884
-7.2887 -3.1114 2.3884
-7.1632 -3.3636 2.3884
-7.0281 -3.6104 2.3884
-6.8837 -3.8514 2.3884
-6.7303 -4.0862 2.3884
-6.5681 -4.3146 2.3884
-6.3974 -4.5361 2.3884
-6.2186 -4.7505 2.3884
-6.0320 -4.9575 2.3884
-5.8380 -5.1567 2.3884
-5.6368 -5.3479 2.3884
-5.4289 -5.5309 2.3884
-5.2147 -5.7054 2.3884
-4.9945 -5.8713 2.3884
-4.7686 -6.0282 2.3884
-4.5376 -6.1762 2.3884
-4.3017 -6.3150 2.3884
-4.0614 -6.4444 2.3884
-3.8171 -6.5644 2.3884
-3.5691 -6.6749 2.3884
-3.3179 -6.7758 2.3884
-3.0638 -6.8670 2.3884
-2.8073 -6.9485 2.3884
-2.5487 -7.0202 2.3884
-2.2885 -7.0822 2.3884
-2.0269 -7.1344 2.3884
-1.7645 -7.1769 2.3884
-1.5014 -7.2097 2.3884
-1.2383 -7.2328 2.3884
-0.9752 -7.2464 2.3884
-0.7128 -7.2504 2.3884
-0.4511 -7.2450 2.3884
-0.1908 -7.2303 2.3884
0.0681 -7.2064 2.3884
0.3251 -7.1733 2.3884
0.5799 -7.1313 2.3884
0.8322 -7.0805 2.3884
1.0818 -7.0210 2.3884
1.3284 -6.9530 2.3884
1.5715 -6.8766 2.3884
1.8111 -6.7920 2.3884
2.0469 -6.6995 2.3884
2.2786 -6.5991 2.3884
2.5059 -6.4911 2.3884
2.7286 -6.3756 2.3884
2.9466 -6.2529 2.3884
3.1596 -6.1232 2.3884
3.3674 -5.9866 2.3884
3.5698 -5.8435 2.3884
3.7666 -5.6939 2.3884
3.9578 -5.5382 2.3884
4.1429 -5.3765 2.3884
4.3221 -5.2091 2.3884
4.4950 -5.0362 2.3884
4.6616 -4.8579 2.3884
4.8217 -4.6746 2.3884
4.9751 -4.4865 2.3884
5.1218 -4.2938 2.3884
5.2617 -4.0967 2.3884
5.3947 -3.8955 2.3884
5.5206 -3.6903 2.3884
5.6394 -3.4815 2.3884
5.7509 -3.2692 2.3884
5.8552 -3.0537 2.3884
5.9083 -2.8144 2.3708
5.9028 -2.5540 2.3335
5.8969 -2.3018 2.3000
5.8908 -2.0570 2.2700
5.8890 -1.8200 2.2451
5.9204 -1.5973 2.2360
5.9686 -1.3805 2.2360
6.0167 -1.1638 2.2386
6.0434 -0.9433 2.2360
6.0700 -0.7233 2.2360
6.0893 -0.5027 2.2360
6.1013 -0.2817 2.2360
6.1060 -0.0604 2.2360
6.1035 0.1608 2.2360
6.0936 0.3819 2.2360
6.0765 0.6025 2.2360
6.0522 0.8225 2.2360
6.0206 1.0416 2.2360
5.9818 1.2596 2.2360
5.9358 1.4764 2.2360
5.8827 1.6916 2.2360
5.8225 1.9052 2.2360
5.7552 2.1168 2.2360
5.6943 2.3318 2.2413
5.6707 2.5657 2.2644
5.6536 2.8088 2.2937
5.6356 3.0589 2.3265
5.6165 3.3171 2.3630
5.5610 3.5618 2.3884
5.4380 3.7672 2.3884
5.3080 3.9688 2.3884
5.1712 4.1662 2.3884
5.0276 4.3594 2.3884
4.8773 4.5480 2.3884
4.7205 4.7319 2.3884
4.5572 4.9109 2.3884
4.3876 5.0846 2.3884
4.2119 5.2530 2.3884
4.0302 5.4157 2.3884
3.8425 5.5727 2.3884
3.6492 5.7235 2.3884
3.4504 5.8681 2.3884
3.2462 6.0063 2.3884
3.0369 6.1378 2.3884
2.8225 6.2624 2.3884
2.6034 6.3800 2.3884
2.3798 6.4903 2.3884
0.8804 2.6976 0.9772
0.7832 2.7288 0.9744
0.6849 2.7564 0.9716
0.5857 2.7805 0.9688
0.4856 2.8010 0.9659
0.3849 2.8179 0.9629
0.2836 2.8312 0.9600
0.1819 2.8408 0.9570
0.0799 2.8467 0.9540
-0.0222 2.8489 0.9510
-0.1243 2.8474 0.9479
-0.2264 2.8422 0.9449
-0.3282 2.8334 0.9418
-0.4296 2.8209 0.9388
-0.5304 2.8047 0.9357
-0.6307 2.7849 0.9327
-0.7301 2.7615 0.9296
-0.8287 2.7345 0.9266
-0.9262 2.7040 0.9236
-2.6527 6.9266 2.3884
-2.9086 6.8514 2.3884
-3.1623 6.7665 2.3884
-3.4135 6.6721 2.3884
-3.6618 6.5682 2.3884
-3.9067 6.4547 2.3884
-4.1480 6.3319 2.3884
-4.3852 6.1999 2.3884
-4.6179 6.0586 2.3884
-4.8458 5.9083 2.3884
-5.0684 5.7491 2.3884
-5.2854 5.5812 2.3884
-5.4964 5.4048 2.3884
-5.7010 5.2200 2.3884
-5.8990 5.0271 2.3884
-6.0898 4.8264 2.3884
-6.2731 4.6180 2.3884
-6.4487 4.4024 2.3884
-6.6162 4.1797 2.3884
-6.7752 3.9502 2.3884
-6.9255 3.7144 2.3884
-7.0668 3.4725 2.3884
-7.1988 3.2249 2.3884
-7.3212 2.9721 2.3884
-7.4338 2.7142 2.3884
-7.5364 2.4519 2.3884
-7.6287 2.1854 2.3884
-7.7106 1.9153 2.3884
-7.7819 1.6419 2.3884
-7.8425 1.3657 2.3884
-7.8921 1.0871 2.3884
-7.9308 0.8066 2.3884
-7.9585 0.5247 2.3884
-7.9750 0.2418 2.3884
-7.9803 -0.0416 2.3884
-7.9745 -0.3250 2.3884
-7.9575 -0.6080 2.3884
-7.9293 -0.8900 2.3884
-7.8900 -1.1707 2.3884
-7.8397 -1.4495 2.3884
-7.7785 -1.7259 2.3884
-7.7066 -1.9996 2.3884
-7.6239 -2.2701 2.3884
-7.5308 -2.5369 2.3884
-7.4273 -2.7996 2.3884
-7.3138 -3.0578 2.3884
-7.1903 -3.3111 2.3884
-7.0573 -3.5591 2.3884
-6.9148 -3.8013 2.3884
-6.7632 -4.0375 2.3884
-6.6028 -4.2672 2.3884
-6.4339 -4.4902 2.3884
-6.2568 -4.7061 2.3884
-6.0718 -4.9147 2.3884
-5.8793 -5.1155 2.3884
-5.6796 -5.3084 2.3884
-5.4731 -5.4932 2.3884
-5.2602 -5.6695 2.3884
-5.0412 -5.8372 2.3884
-4.8165 -5.9960 2.3884
-4.5865 -6.1459 2.3884
-4.3516 -6.2866 2.3884
-4.1122 -6.4180 2.3884
-3.8687 -6.5400 2.3884
-3.6214 -6.6525 2.3884
-3.3709 -6.7554 2.3884
-3.1174 -6.8486 2.3884
-2.8613 -6.9322 2.3884
-2.6032 -7.0059 2.3884
-2.3432 -7.0700 2.3884
-2.0819 -7.1242 2.3884
-1.8196 -7.1688 2.3884
-1.5567 -7.2036 2.3884
-1.2935 -7.2288 2.3884
-1.0304 -7.2443 2.3884
-0.7678 -7.2504 2.3884
-0.5060 -7.2469 2.3884
-0.2453 -7.2342 2.3884
0.0139 -7.2122 2.3884
0.2713 -7.1810 2.3884
0.5266 -7.1409 2.3884
0.7795 -7.0919 2.3884
1.0297 -7.0342 2.3884
1.2769 -6.9680 2.3884
1.5208 -6.8933 2.3884
1.7612 -6.8105 2.3884
1.9977 -6.7196 2.3884
2.2303 -6.6208 2.3884
2.4585 -6.5143 2.3884
2.6823 -6.4005 2.3884
2.9013 -6.2793 2.3884
3.1153 -6.1510 2.3884
3.3242 -6.0159 2.3884
3.5278 -5.8741 2.3884
3.7258 -5.7258 2.3884
3.9181 -5.5714 2.3884
4.1046 -5.4109 2.3884
4.2850 -5.2447 2.3884
4.4592 -5.0729 2.3884
4.6272 -4.8958 2.3884
4.7886 -4.7135 2.3884
4.9435 -4.5264 2.3884
5.0916 -4.3346 2.3884
5.2330 -4.1384 2.3884
5.3674 -3.9381 2.3884
5.4948 -3.7337 2.3884
5.6150 -3.5256 2.3884
5.7281 -3.3141 2.3884
5.8339 -3.0992 2.3884
5.9094 -2.8703 2.3792
5.9040 -2.6079 2.3410
5.8982 -2.3541 2.3068
5.8921 -2.1078 2.2761
5.8872 -1.8686 2.2493
5.9093 -1.6426 2.2360
5.9591 -1.4261 2.2360
6.0016 -1.2083 2.2360
6.0369 -0.9894 2.2360
6.0650 -0.7696 2.2360
6.0858 -0.5491 2.2360
6.0994 -0.3281 2.2360
6.1056 -0.1069 2.2360
6.1046 0.1144 2.2360
6.0963 0.3355 2.2360
6.0807 0.5562 2.2360
6.0579 0.7764 2.2360
6.0278 0.9957 2.2360
5.9905 1.2139 2.2360
5.9461 1.4310 2.2360
5.8945 1.6466 2.2360
5.8357 1.8605 2.2360
5.7699 2.0726 2.2360
5.7005 2.2839 2.2373
5.6741 2.5154 2.2586
5.6573 2.7572 2.2872
5.6395 3.0058 2.3193
5.6206 3.2622 2.3550
5.5859 3.5182 2.3884
5.4644 3.7244 2.3884
5.3359 3.9268 2.3884
5.2005 4.1251 2.3884
5.0583 4.3192 2.3884
4.9094 4.5088 2.3884
4.7539 4.6938 2.3884
4.5920 4.8738 2.3884
4.4237 5.0486 2.3884
4.2493 5.2181 2.3884
4.0688 5.3821 2.3884
3.8824 5.5402 2.3884
3.6903 5.6924 2.3884
3.4926 5.8383 2.3884
3.2895 5.9778 2.3884
3.0812 6.1108 2.3884
2.8679 6.2368 2.3884
2.6498 6.3559 2.3884
2.4271 6.4677 2.3884
0.9006 2.6906 0.9778
0.8037 2.7225 0.9750
0.7056 2.7509 0.9722
0.6066 2.7758 0.9694
0.5067 2.7970 0.9665
0.4061 2.8147 0.9635
0.3049 2.8287 0.9606
0.2033 2.8390 0.9576
0.1014 2.8457 0.9546
-0.0007 2.8487 0.9516
-0.1029 2.8480 0.9486
-0.2050 2.8436 0.9455
-0.3068 2.8356 0.9425
-0.4083 2.8238 0.9394
-0.5093 2.8084 0.9364
-0.6097 2.7894 0.9333
-0.7093 2.7667 0.9303
-0.8081 2.7405 0.9273
-0.9058 2.7107 0.9242
-2.5987 6.9412 2.3884
-2.8550 6.8680 2.3884
-3.1093 6.7851 2.3884
-3.3610 6.6927 2.3884
-3.6099 6.5908 2.3884
-3.8556 6.4793 2.3884
-4.0977 6.3585 2.3884
-4.3358 6.2283 2.3884
-4.5695 6.0890 2.3884
-4.7984 5.9406 2.3884
-5.0221 5.7833 2.3884
-5.2404 5.6172 2.3884
-5.4526 5.4425 2.3884
-5.6587 5.2595 2.3884
-5.8580 5.0683 2.3884
-6.0503 4.8692 2.3884
-6.2353 4.6624 2.3884
-6.4125 4.4482 2.3884
-6.5817 4.2270 2.3884
-6.7425 3.9989 2.3884
-6.8947 3.7644 2.3884
-7.0379 3.5238 2.3884
-7.1719 3.2774 2.3884
-7.2963 3.0256 2.3884
-7.4110 2.7687 2.3884
-7.5157 2.5073 2.3884
-7.6102 2.2417 2.3884
-7.6943 1.9723 2.3884
-7.7678 1.6995 2.3884
-7.8307 1.4239 2.3884
-7.8826 1.1457 2.3884
-7.9236 0.8656 2.3884
-7.9536 0.5839 2.3884
-7.9724 0.3012 2.3884
-7.3714 -0.0936 2.3884
-7.3638 -0.3551 2.3884
-7.3460 -0.6162 2.3884
-7.3180 -0.8763 2.3884
-7.2798 -1.1350 2.3884
-7.2315 -1.3920 2.3884
-7.1732 -1.6468 2.3884
-7.1051 -1.8990 2.3884
-7.0272 -2.1482 2.3884
-6.9397 -2.3939 2.3884
-6.8428 -2.6359 2.3884
-6.7366 -2.8736 2.3884
-6.6214 -3.1068 2.3884
-6.4973 -3.3351 2.3884
-6.3647 -3.5581 2.3884
-6.2237 -3.7756 2.3884
-6.0746 -3.9871 2.3884
-5.9177 -4.1924 2.3884
-5.7534 -4.3912 2.3884
-5.5818 -4.5832 2.3884
-5.4032 -4.7681 2.3884
-5.2181 -4.9458 2.3884
-5.0268 -5.1159 2.3884
-4.8295 -5.2783 2.3884
-4.6266 -5.4327 2.3884
-4.4185 -5.5791 2.3884
-4.2055 -5.7171 2.3884
-3.9879 -5.8468 2.3884
-3.7662 -5.9678 2.3884
-3.5407 -6.0803 2.3884
-3.3117 -6.1839 2.3884
-3.0797 -6.2787 2.3884
-2.8449 -6.3647 2.3884
-2.6077 -6.4416 2.3884
-2.3685 -6.5096 2.3884
-2.1277 -6.5685 2.3884
-1.8855 -6.6185 2.3884
-1.6424 -6.6595 2.3884
-1.3986 -6.6914 2.3884
-1.1546 -6.7145 2.3884
-0.9107 -6.7286 2.3884
-0.6671 -6.7339 2.3884
-0.4242 -6.7305 2.3884
-0.1823 -6.7184 2.3884
0.0582 -6.6977 2.3884
0.2971 -6.6685 2.3884
0.5341 -6.6310 2.3884
0.7690 -6.5852 2.3884
1.0013 -6.5313 2.3884
1.2309 -6.4695 2.3884
1.4575 -6.3998 2.3884
1.6809 -6.3225 2.3884
1.9008 -6.2377 2.3884
2.1169 -6.1455 2.3884
2.3291 -6.0461 2.3884
2.5371 -5.9398 2.3884
2.7407 -5.8266 2.3884
2.9398 -5.7069 2.3884
3.1341 -5.5807 2.3884
3.3234 -5.4483 2.3884
3.5075 -5.3098 2.3884
3.6864 -5.1655 2.3884
3.8598 -5.0155 2.3884
4.0276 -4.8602 2.3884
4.1896 -4.6996 2.3884
4.3457 -4.5340 2.3884
4.4958 -4.3636 2.3884
4.6397 -4.1886 2.3884
4.7774 -4.0092 2.3884
4.9086 -3.8257 2.3884
5.0335 -3.6383 2.3884
5.1517 -3.4471 2.3884
5.2632 -3.2524 2.3884
5.3680 -3.0545 2.3884
5.4659 -2.8534 2.3884
5.5570 -2.6495 2.3884
5.6411 -2.4430 2.3884
5.7182 -2.2341 2.3884
5.7882 -2.0230 2.3884
5.8510 -1.8099 2.3884
5.8502 -1.5798 2.3655
5.8434 -1.3528 2.3436
5.8363 -1.1300 2.3246
5.8288 -0.9107 2.3085
5.8209 -0.6944 2.2952
5.8126 -0.4804 2.2846
5.8040 -0.2683 2.2767
5.7949 -0.0576 2.2713
5.7853 0.1524 2.2685
5.7754 0.3620 2.2683
5.7649 0.5718 2.2705
5.7539 0.7823 2.2754
5.7424 0.9940 2.2828
5.7304 1.2074 2.2929
5.7177 1.4230 2.3056
5.7044 1.6414 2.3211
5.6904 1.8633 2.3395
5.6756 2.0890 2.3608
5.6600 2.3195 2.3853
5.5857 2.5291 2.3884
5.4973 2.7332 2.3884
5.4019 2.9345 2.3884
5.2999 3.1327 2.3884
5.1911 3.3277 2.3884
5.0756 3.5193 2.3884
4.9537 3.7072 2.3884
4.8253 3.8912 2.3884
4.6906 4.0711 2.3884
4.5496 4.2467 2.3884
4.4026 4.4179 2.3884
4.2496 4.5843 2.3884
4.0907 4.7458 2.3884
3.9260 4.9023 2.3884
3.7558 5.0534 2.3884
3.5802 5.1989 2.3884
3.3993 5.3388 2.3884
3.2132 5.4728 2.3884
3.0222 5.6006 2.3884
2.8265 5.7222 2.3884
2.6261 5.8373 2.3884
2.4214 5.9458 2.3884
2.2125 6.0474 2.3884
0.8160 2.5063 0.9746
0.7257 2.5353 0.9720
0.6343 2.5610 0.9694
0.5421 2.5834 0.9668
0.4492 2.6024 0.9641
0.3556 2.6181 0.9614
0.2615 2.6304 0.9586
0.1670 2.6393 0.9558
0.0723 2.6447 0.9530
-0.0226 2.6468 0.9502
-0.1175 2.6454 0.9474
-0.2123 2.6406 0.9446
-0.3069 2.6324 0.9417
-0.4011 2.6208 0.9389
-0.4948 2.6057 0.9361
-0.5880 2.5873 0.9332
-0.6804 2.5656 0.9304
-0.7719 2.5405 0.9276
-0.8625 2.5122 0.9248
-2.4660 6.4253 2.3884
-2.7028 6.3540 2.3884
-2.9374 6.2739 2.3884
-3.1696 6.1849 2.3884
-3.3990 6.0872 2.3884
-3.6253 5.9808 2.3884
-3.8480 5.8657 2.3884
-4.0669 5.7421 2.3884
-4.2816 5.6101 2.3884
-4.4917 5.4698 2.3884
-4.6968 5.3213 2.3884
-4.8967 5.1649 2.3884
-5.0910 5.0006 2.3884
-5.2794 4.8288 2.3884
-5.4615 4.6495 2.3884
-5.6370 4.4630 2.3884
-5.8056 4.2696 2.3884
-5.9670 4.0695 2.3884
-6.1208 3.8631 2.3884
-6.2669 3.6505 2.3884
-6.4049 3.4320 2.3884
-6.5346 3.2081 2.3884
-6.6557 2.9790 2.3884
-6.7680 2.7450 2.3884
-6.8713 2.5066 2.3884
-6.9653 2.2641 2.3884
-7.0499 2.0178 2.3884
-7.1250 1.7683 2.3884
-7.1903 1.5156 2.3884
-7.2457 1.2605 2.3884
-7.2912 1.0033 2.3884
-7.3266 0.7443 2.3884
-7.3519 0.4841 2.3884
-7.3669 0.2229 2.3884
-7.3717 -0.0386 2.3884
-7.3663 -0.3002 2.3884
-7.3506 -0.5614 2.3884
-7.3247 -0.8218 2.3884
-7.2886 -1.0809 2.3884
-7.2425 -1.3383 2.3884
-7.1863 -1.5935 2.3884
-7.1202 -1.8463 2.3884
-7.0443 -2.0961 2.3884
-6.9588 -2.3426 2.3884
-6.8639 -2.5854 2.3884
-6.7596 -2.8241 2.3884
-6.6463 -3.0583 2.3884
-6.5241 -3.2876 2.3884
-6.3932 -3.5118 2.3884
-6.2540 -3.7304 2.3884
-6.1066 -3.9432 2.3884
-5.9513 -4.1498 2.3884
-5.7885 -4.3500 2.3884
-5.6184 -4.5435 2.3884
-5.4413 -4.7299 2.3884
-5.2575 -4.9091 2.3884
-5.0674 -5.0808 2.3884
-4.8714 -5.2449 2.3884
-4.6696 -5.4010 2.3884
-4.4626 -5.5490 2.3884
-4.2506 -5.6888 2.3884
-4.0340 -5.8203 2.3884
-3.8131 -5.9431 2.3884
-3.5883 -6.0574 2.3884
-3.3601 -6.1629 2.3884
-3.1286 -6.2596 2.3884
