ply
format ascii 1.0
element vertex 2175
property float32 x
property float32 y
property float32 z
end_header
-5.9607 2.3220 2.3947
-6.0417 2.1058 2.3947
-6.1152 1.8870 2.3947
-6.1812 1.6657 2.3947
-6.2395 1.4421 2.3947
-6.2900 1.2167 2.3947
-6.3328 0.9895 2.3947
-6.3678 0.7608 2.3947
-6.3948 0.5310 2.3947
-6.4139 0.3003 2.3947
-6.4250 0.0688 2.3947
-6.4281 -0.1630 2.3947
-6.4231 -0.3949 2.3947
-6.4102 -0.6267 2.3947
-6.3892 -0.8581 2.3947
-6.3601 -1.0888 2.3947
-6.3230 -1.3186 2.3947
-6.2780 -1.5472 2.3947
-6.2249 -1.7743 2.3947
-6.1640 -1.9996 2.3947
-6.0951 -2.2229 2.3947
-6.0184 -2.4439 2.3947
-5.9340 -2.6624 2.3947
-5.8419 -2.8780 2.3947
-5.7421 -3.0905 2.3947
-5.6349 -3.2996 2.3947
-5.5203 -3.5051 2.3947
-5.3983 -3.7068 2.3947
-5.2692 -3.9042 2.3947
-5.1331 -4.0973 2.3947
-4.9900 -4.2857 2.3947
-4.8402 -4.4692 2.3947
-4.6837 -4.6476 2.3947
-4.5209 -4.8205 2.3947
-4.3517 -4.9878 2.3947
-4.1765 -5.1493 2.3947
-3.9954 -5.3046 2.3947
-3.8086 -5.4536 2.3947
-3.6164 -5.5961 2.3947
-3.4189 -5.7319 2.3947
-3.2164 -5.8607 2.3947
-3.0090 -5.9823 2.3947
-2.7972 -6.0967 2.3947
-2.5811 -6.2035 2.3947
-2.3609 -6.3026 2.3947
-2.1370 -6.3939 2.3947
-1.9096 -6.4772 2.3947
-1.6790 -6.5523 2.3947
-1.4455 -6.6191 2.3947
-1.2094 -6.6776 2.3947
-0.9710 -6.7275 2.3947
-0.7306 -6.7688 2.3947
-0.4886 -6.8014 2.3947
-0.2451 -6.8251 2.3947
-0.0007 -6.8400 2.3947
0.2445 -6.8460 2.3947
0.4901 -6.8430 2.3947
0.7357 -6.8310 2.3947
0.9810 -6.8100 2.3947
1.2256 -6.7799 2.3947
1.4693 -6.7409 2.3947
1.7116 -6.6928 2.3947
1.9523 -6.6358 2.3947
2.1407 -6.4191 2.3398
2.2728 -6.0817 2.2423
2.4916 -6.0035 2.2423
2.7076 -5.9173 2.2424
2.9204 -5.8230 2.2424
3.1298 -5.7208 2.2425
3.3354 -5.6107 2.2425
3.5370 -5.4931 2.2425
3.7341 -5.3679 2.2426
3.9269 -5.2356 2.2427
4.1152 -5.0968 2.2432
4.2983 -4.9509 2.2436
4.4760 -4.7981 2.2440
4.6454 -4.6362 2.2432
4.8046 -4.4644 2.2405
4.9470 -4.2779 2.2332
5.0851 -4.0893 2.2272
5.2187 -3.8983 2.2226
5.3458 -3.7035 2.2184
5.4661 -3.5050 2.2145
5.5834 -3.3049 2.2125
5.6958 -3.1025 2.2115
5.8008 -2.8962 2.2107
5.9008 -2.6873 2.2109
5.9931 -2.4750 2.2111
5.6121 -2.0864 2.0421
6.1541 -2.0410 2.2119
6.2229 -1.8200 2.2124
6.2831 -1.5965 2.2130
6.3349 -1.3709 2.2134
6.3779 -1.1433 2.2138
5.7944 -0.8266 2.0008
5.8077 -0.6178 1.9977
6.4545 -0.4544 2.2146
6.4625 -0.2233 2.2147
6.4616 0.0076 2.2148
6.4519 0.2382 2.2148
6.4335 0.4681 2.2147
6.4064 0.6969 2.2146
6.0060 0.8714 2.0876
6.0431 1.0986 2.1150
6.2776 1.3746 2.2152
6.2211 1.5973 2.2165
6.1567 1.8176 2.2179
6.0891 2.0369 2.2210
6.0166 2.2549 2.2253
5.9370 2.4706 2.2300
5.8524 2.6850 2.2359
5.7615 2.8970 2.2424
5.6526 3.1002 2.2449
5.5293 3.2952 2.2445
5.3990 3.4852 2.2441
5.2621 3.6701 2.2438
5.1187 3.8495 2.2433
4.9690 4.0233 2.2429
4.8133 4.1913 2.2425
4.6526 4.3540 2.2425
4.4864 4.5105 2.2424
4.3149 4.6607 2.2424
4.1383 4.8043 2.2424
3.9569 4.9413 2.2423
3.7709 5.0715 2.2423
3.7844 5.4902 2.3699
3.6166 5.6719 2.3947
3.4052 5.7882 2.3947
3.1900 5.8967 2.3947
2.9714 5.9973 2.3947
2.7497 6.0898 2.3947
2.5251 6.1742 2.3947
0.9125 2.4819 0.9509
0.8227 2.5128 0.9524
0.7319 2.5405 0.9539
0.6401 2.5650 0.9553
0.5475 2.5861 0.9568
0.4542 2.6038 0.9582
0.3603 2.6182 0.9596
0.2659 2.6291 0.9610
0.1712 2.6367 0.9624
0.0763 2.6408 0.9637
-0.0187 2.6415 0.9650
-0.1137 2.6388 0.9663
-0.2085 2.6326 0.9675
-0.3031 2.6230 0.9688
-0.3972 2.6100 0.9699
-0.4908 2.5937 0.9711
-0.5838 2.5739 0.9722
-0.6760 2.5508 0.9732
-0.7673 2.5244 0.9742
-0.8576 2.4947 0.9752
-2.3226 6.0395 2.3947
-2.5359 5.9455 2.3947
-2.7456 5.8442 2.3947
-2.9516 5.7359 2.3947
-3.1534 5.6205 2.3947
-3.3510 5.4984 2.3947
-3.5440 5.3695 2.3947
-3.7324 5.2341 2.3947
-3.9158 5.0925 2.3947
-4.0941 4.9446 2.3947
-4.2671 4.7908 2.3947
-4.4346 4.6311 2.3947
-4.5964 4.4659 2.3947
-4.7523 4.2953 2.3947
-4.9022 4.1194 2.3947
-5.0459 3.9385 2.3947
-5.1832 3.7529 2.3947
-5.3140 3.5627 2.3947
-5.4382 3.3681 2.3947
-5.5555 3.1693 2.3947
-5.6659 2.9667 2.3947
-5.7693 2.7604 2.3947
-5.8655 2.5506 2.3947
-5.9545 2.3376 2.3947
-6.0360 2.1217 2.3947
-6.1101 1.9030 2.3947
-6.1766 1.6819 2.3947
-6.2355 1.4585 2.3947
-6.2866 1.2332 2.3947
-6.3300 1.0061 2.3947
-6.3655 0.7775 2.3947
-6.3931 0.5478 2.3947
-6.4128 0.3171 2.3947
-6.4244 0.0857 2.3947
-6.4281 -0.1461 2.3947
-6.4238 -0.3780 2.3947
-6.4114 -0.6098 2.3947
-6.3910 -0.8413 2.3947
-6.3625 -1.0720 2.3947
-6.3260 -1.3019 2.3947
-6.2815 -1.5306 2.3947
-6.2291 -1.7578 2.3947
-6.1687 -1.9832 2.3947
-6.1004 -2.2067 2.3947
-6.0243 -2.4279 2.3947
-5.9404 -2.6465 2.3947
-5.8488 -2.8624 2.3947
-5.7497 -3.0751 2.3947
-5.6430 -3.2845 2.3947
-5.5289 -3.4903 2.3947
-5.4075 -3.6922 2.3947
-5.2789 -3.8900 2.3947
-4.5085 -4.1879 2.3947
-4.3615 -4.3537 2.3947
-4.2086 -4.5143 2.3947
-4.0498 -4.6699 2.3947
-3.8854 -4.8198 2.3947
-3.7156 -4.9639 2.3947
-3.5405 -5.1021 2.3947
-3.3603 -5.2342 2.3947
-3.1753 -5.3599 2.3947
-2.9856 -5.4791 2.3947
-2.7916 -5.5916 2.3947
-2.5933 -5.6972 2.3947
-2.3911 -5.7958 2.3947
-2.1852 -5.8872 2.3947
-1.9759 -5.9712 2.3947
-1.7634 -6.0477 2.3947
-1.5479 -6.1166 2.3947
-1.3299 -6.1778 2.3947
-1.1094 -6.2311 2.3947
-0.8869 -6.2765 2.3947
-0.6626 -6.3138 2.3947
-0.4368 -6.3429 2.3947
-0.2097 -6.3639 2.3947
0.0182 -6.3766 2.3947
0.2467 -6.3810 2.3947
0.4755 -6.3770 2.3947
0.7043 -6.3646 2.3947
0.9327 -6.3439 2.3947
1.1605 -6.3147 2.3947
1.3873 -6.2772 2.3947
1.6128 -6.2313 2.3947
1.8367 -6.1771 2.3947
2.0587 -6.1147 2.3947
2.2170 -5.8810 2.3302
2.3369 -5.5856 2.2423
2.5376 -5.5043 2.2423
2.7353 -5.4156 2.2424
2.9298 -5.3195 2.2424
3.1208 -5.2163 2.2424
3.3079 -5.1059 2.2425
3.4910 -4.9886 2.2425
3.6696 -4.8645 2.2425
3.8437 -4.7338 2.2426
4.0132 -4.5969 2.2428
4.1779 -4.4541 2.2431
4.3372 -4.3051 2.2435
4.4909 -4.1502 2.2438
4.6388 -3.9896 2.2442
4.7771 -3.8206 2.2428
4.9074 -3.6455 2.2408
5.0235 -3.4605 2.2353
5.1328 -3.2721 2.2302
5.2388 -3.0820 2.2266
5.3383 -2.8896 2.2235
5.4313 -2.6940 2.2208
5.5176 -2.4956 2.2183
5.5971 -2.2948 2.2161
5.6700 -2.0915 2.2144
5.7388 -1.8871 2.2140
5.8001 -1.6804 2.2137
5.8540 -1.4717 2.2135
5.9003 -1.2613 2.2135
5.9389 -1.0497 2.2135
5.9700 -0.8366 2.2136
5.9933 -0.6224 2.2139
6.0089 -0.4082 2.2142
6.0168 -0.1932 2.2146
6.0170 0.0217 2.2152
6.0095 0.2364 2.2158
5.9943 0.4506 2.2165
5.9726 0.6644 2.2178
5.9459 0.8773 2.2202
5.9122 1.0893 2.2229
5.8713 1.3002 2.2258
5.8236 1.5096 2.2291
5.7692 1.7178 2.2328
5.7113 1.9254 2.2382
5.6430 2.1298 2.2425
5.5619 2.3296 2.2447
5.4678 2.5237 2.2446
5.3664 2.7137 2.2443
5.2582 2.8996 2.2439
5.1434 3.0812 2.2436
5.0221 3.2582 2.2433
4.8946 3.4304 2.2429
4.7611 3.5975 2.2425
4.6224 3.7601 2.2425
4.4781 3.9173 2.2425
4.3284 4.0689 2.2424
4.1735 4.2148 2.2424
4.0136 4.3548 2.2424
3.8489 4.4888 2.2423
3.6939 4.6354 2.2507
3.7184 5.0243 2.3778
3.5554 5.1828 2.3947
3.3619 5.2985 2.3947
3.1647 5.4071 2.3947
2.9640 5.5083 2.3947
2.7601 5.6022 2.3947
2.5532 5.6886 2.3947
0.9287 2.2853 0.9489
0.8460 2.3169 0.9503
0.7622 2.3456 0.9517
0.6774 2.3712 0.9531
0.5917 2.3938 0.9545
0.5052 2.4132 0.9558
0.4181 2.4295 0.9572
0.3305 2.4427 0.9585
0.2425 2.4526 0.9598
0.1541 2.4594 0.9610
0.0655 2.4630 0.9623
-0.0231 2.4635 0.9635
-0.1117 2.4607 0.9647
-0.2001 2.4547 0.9659
-0.2883 2.4455 0.9670
-0.3761 2.4332 0.9681
-0.4634 2.4176 0.9691
-0.5500 2.3990 0.9701
-0.6360 2.3772 0.9711
-0.7210 2.3524 0.9721
-0.8052 2.3245 0.9730
-0.8883 2.2935 0.9738
-2.3837 5.5519 2.3947
-2.5797 5.4571 2.3947
-2.7722 5.3555 2.3947
-2.9608 5.2475 2.3947
-3.1454 5.1330 2.3947
-3.3259 5.0123 2.3947
-3.5019 4.8855 2.3947
-3.6733 4.7527 2.3947
-3.8398 4.6142 2.3947
-4.0014 4.4700 2.3947
-4.1579 4.3204 2.3947
-4.3090 4.1656 2.3947
-4.4545 4.0057 2.3947
-4.5945 3.8409 2.3947
-4.7285 3.6714 2.3947
-4.8567 3.4975 2.3947
-4.9787 3.3192 2.3947
-5.0944 3.1369 2.3947
-5.2038 2.9507 2.3947
-5.3066 2.7608 2.3947
-5.4029 2.5675 2.3947
-5.4924 2.3710 2.3947
-5.5750 2.1715 2.3947
-5.6508 1.9693 2.3947
-5.7195 1.7645 2.3947
-5.7811 1.5574 2.3947
-5.8356 1.3482 2.3947
-5.8827 1.1372 2.3947
-5.9226 0.9246 2.3947
-5.9551 0.7107 2.3947
-5.9802 0.4957 2.3947
-5.9978 0.2798 2.3947
-6.0080 0.0634 2.3947
-6.0106 -0.1535 2.3947
-6.0057 -0.3704 2.3947
-5.9933 -0.5872 2.3947
-5.9733 -0.8036 2.3947
-5.9459 -1.0193 2.3947
-5.9108 -1.2341 2.3947
-5.8684 -1.4478 2.3947
-5.8184 -1.6600 2.3947
-5.7610 -1.8706 2.3947
-5.6962 -2.0792 2.3947
-5.6242 -2.2857 2.3947
-5.5448 -2.4897 2.3947
-5.4583 -2.6911 2.3947
-5.3647 -2.8895 2.3947
-5.2640 -3.0847 2.3947
-5.1565 -3.2765 2.3947
-5.0421 -3.4646 2.3947
-4.9211 -3.6489 2.3947
-4.7934 -3.8289 2.3947
-4.6593 -4.0046 2.3947
-4.5190 -4.1756 2.3947
-4.3724 -4.3418 2.3947
-4.2199 -4.5029 2.3947
-4.0616 -4.6588 2.3947
-3.8976 -4.8091 2.3947
-3.7282 -4.9536 2.3947
-3.5534 -5.0923 2.3947
-3.3736 -5.2248 2.3947
-3.1889 -5.3510 2.3947
-2.9996 -5.4707 2.3947
-2.8059 -5.5836 2.3947
-2.6079 -5.6898 2.3947
-2.4060 -5.7889 2.3947
-2.2004 -5.8808 2.3947
-1.9913 -5.9653 2.3947
-1.7790 -6.0424 2.3947
-1.5637 -6.1119 2.3947
-1.3459 -6.1736 2.3947
-1.1256 -6.2275 2.3947
-0.9032 -6.2734 2.3947
-0.6790 -6.3113 2.3947
-0.4533 -6.3411 2.3947
-0.2263 -6.3627 2.3947
0.0015 -6.3759 2.3947
0.2300 -6.3809 2.3947
0.4588 -6.3775 2.3947
0.6876 -6.3658 2.3947
0.9161 -6.3457 2.3947
1.1439 -6.3171 2.3947
1.3708 -6.2802 2.3947
1.5964 -6.2350 2.3947
1.8205 -6.1814 2.3947
2.0426 -6.1195 2.3947
2.2110 -5.9115 2.3401
2.3221 -5.5912 2.2423
2.5230 -5.5104 2.2423
2.7210 -5.4223 2.2424
2.9158 -5.3268 2.2424
3.1070 -5.2240 2.2424
3.2944 -5.1142 2.2425
3.4778 -4.9974 2.2425
3.6568 -4.8738 2.2425
3.8312 -4.7435 2.2426
4.0010 -4.6071 2.2427
4.1660 -4.4647 2.2431
4.3258 -4.3162 2.2435
4.4799 -4.1617 2.2438
4.6282 -4.0015 2.2442
4.7674 -3.8332 2.2430
4.8981 -3.6585 2.2409
5.0152 -3.4741 2.2357
5.1250 -3.2856 2.2305
5.2312 -3.0963 2.2269
5.3312 -2.9038 2.2237
5.4247 -2.7084 2.2210
5.5116 -2.5102 2.2185
5.5916 -2.3092 2.2163
5.6121 -2.0867 2.1938
5.7340 -1.9020 2.2140
5.7959 -1.6955 2.2137
5.8503 -1.4870 2.2136
5.8972 -1.2767 2.2135
5.9364 -1.0651 2.2135
5.9680 -0.8520 2.2136
5.8076 -0.6186 2.1458
6.0080 -0.4239 2.2142
6.0165 -0.2089 2.2146
6.0173 0.0061 2.2151
6.0103 0.2208 2.2158
5.9956 0.4350 2.2165
5.9742 0.6486 2.2177
5.9481 0.8618 2.2200
5.9149 1.0739 2.2227
5.8746 1.2849 2.2256
5.8272 1.4942 2.2289
5.7734 1.7028 2.2326
5.7158 1.9103 2.2378
5.6487 2.1151 2.2424
5.5681 2.3152 2.2446
5.4749 2.5096 2.2446
5.3740 2.7000 2.2443
5.2663 2.8862 2.2440
5.1520 3.0681 2.2436
5.0312 3.2454 2.2433
4.9041 3.4180 2.2429
4.7710 3.5855 2.2425
4.6327 3.7484 2.2425
4.4888 3.9060 2.2425
4.3395 4.0580 2.2424
4.1849 4.2044 2.2424
4.0254 4.3448 2.2424
3.8611 4.4792 2.2423
3.6966 4.6128 2.2449
3.7160 4.9938 2.3677
3.5694 5.1741 2.3947
3.3762 5.2903 2.3947
3.1792 5.3994 2.3947
2.9788 5.5012 2.3947
2.7751 5.5956 2.3947
2.5684 5.6825 2.3947
0.9347 2.2829 0.9488
0.8520 2.3147 0.9502
0.7683 2.3436 0.9516
0.6836 2.3694 0.9530
0.5980 2.3922 0.9544
0.5116 2.4119 0.9557
0.4245 2.4284 0.9571
0.3369 2.4418 0.9584
0.2489 2.4520 0.9597
0.1605 2.4590 0.9610
0.0720 2.4629 0.9622
-0.0166 2.4635 0.9634
-0.1052 2.4610 0.9646
-0.1937 2.4552 0.9658
-0.2819 2.4463 0.9669
-0.3697 2.4342 0.9680
-0.4570 2.4189 0.9691
-0.5437 2.4005 0.9701
-0.6297 2.3789 0.9711
-0.7149 2.3543 0.9720
-0.7991 2.3266 0.9729
-0.8822 2.2959 0.9738
-2.3693 5.5586 2.3947
-2.5655 5.4642 2.3947
-2.7583 5.3632 2.3947
-2.9472 5.2556 2.3947
-3.1321 5.1416 2.3947
-3.3129 5.0213 2.3947
-3.4892 4.8949 2.3947
-3.6609 4.7626 2.3947
-3.8279 4.6245 2.3947
-3.9898 4.4807 2.3947
-4.1466 4.3315 2.3947
-4.2981 4.1771 2.3947
-4.4441 4.0175 2.3947
-4.5844 3.8531 2.3947
-4.7190 3.6839 2.3947
-4.8475 3.5103 2.3947
-4.9700 3.3324 2.3947
-5.0862 3.1503 2.3947
-5.1960 2.9644 2.3947
-5.2994 2.7748 2.3947
-5.3961 2.5817 2.3947
-5.4861 2.3855 2.3947
-5.5693 2.1862 2.3947
-5.6455 1.9841 2.3947
-5.7147 1.7795 2.3947
-5.7769 1.5726 2.3947
-5.8318 1.3635 2.3947
-5.8795 1.1527 2.3947
-5.9199 0.9402 2.3947
-5.9530 0.7264 2.3947
-5.9786 0.5114 2.3947
-5.9968 0.2956 2.3947
-6.0075 0.0792 2.3947
-6.0107 -0.1377 2.3947
-6.0063 -0.3546 2.3947
-5.9945 -0.5714 2.3947
-5.9751 -0.7878 2.3947
-5.9481 -1.0036 2.3947
-5.9137 -1.2185 2.3947
-5.8717 -1.4323 2.3947
-5.8223 -1.6446 2.3947
-5.7654 -1.8553 2.3947
-5.7012 -2.0641 2.3947
-5.6297 -2.2707 2.3947
-5.5509 -2.4750 2.3947
-5.4649 -2.6765 2.3947
-5.3717 -2.8751 2.3947
-5.2716 -3.0706 2.3947
-5.1646 -3.2627 2.3947
-5.0507 -3.4511 2.3947
-4.9301 -3.6356 2.3947
-4.2231 -3.9255 2.3947
-4.0850 -4.0807 2.3947
-3.9414 -4.2309 2.3947
-3.7923 -4.3762 2.3947
-3.6380 -4.5163 2.3947
-3.4786 -4.6510 2.3947
-3.3142 -4.7800 2.3947
-3.1452 -4.9033 2.3947
-2.9716 -5.0206 2.3947
-2.7938 -5.1318 2.3947
-2.6118 -5.2366 2.3947
-2.4260 -5.3351 2.3947
-2.2365 -5.4269 2.3947
-2.0435 -5.5119 2.3947
-1.8474 -5.5901 2.3947
-1.6484 -5.6612 2.3947
-1.4466 -5.7252 2.3947
-1.2424 -5.7819 2.3947
-1.0360 -5.8314 2.3947
-0.8277 -5.8733 2.3947
-0.6178 -5.9076 2.3947
-0.4065 -5.9345 2.3947
-0.1941 -5.9535 2.3947
0.0191 -5.9649 2.3947
0.2328 -5.9685 2.3947
0.4467 -5.9643 2.3947
0.6606 -5.9523 2.3947
0.8741 -5.9325 2.3947
1.0870 -5.9048 2.3947
1.2990 -5.8692 2.3947
1.5097 -5.8260 2.3947
1.7189 -5.7749 2.3947
1.9263 -5.7161 2.3947
2.1315 -5.6497 2.3947
2.2772 -5.4391 2.3360
2.3732 -5.1446 2.2423
2.5578 -5.0613 2.2423
2.7394 -4.9713 2.2424
2.9177 -4.8746 2.2424
3.0924 -4.7712 2.2424
3.2633 -4.6614 2.2425
3.4300 -4.5453 2.2425
3.5925 -4.4229 2.2425
3.7504 -4.2946 2.2425
3.9034 -4.1605 2.2426
4.0517 -4.0208 2.2427
4.1951 -3.8760 2.2430
4.3331 -3.7259 2.2433
4.4653 -3.5707 2.2436
4.5918 -3.4105 2.2439
4.7122 -3.2457 2.2442
4.8255 -3.0759 2.2440
4.9293 -2.9001 2.2424
5.0268 -2.7209 2.2410
5.1130 -2.5361 2.2376
5.1922 -2.3485 2.2343
5.2652 -2.1586 2.2313
5.3333 -1.9675 2.2294
5.3952 -1.7744 2.2278
5.4505 -1.5797 2.2265
5.4994 -1.3831 2.2256
5.5417 -1.1853 2.2250
5.5773 -0.9862 2.2247
5.6061 -0.7862 2.2247
5.6283 -0.5855 2.2249
5.6437 -0.3841 2.2255
5.6523 -0.1824 2.2263
5.6542 0.0196 2.2274
5.6494 0.2209 2.2289
5.6380 0.4227 2.2306
5.6202 0.6238 2.2328
5.5973 0.8245 2.2360
5.5679 1.0245 2.2395
5.5291 1.2226 2.2422
5.4802 1.4193 2.2438
5.4225 1.6131 2.2447
5.3551 1.8037 2.2445
5.2807 1.9914 2.2442
5.1996 2.1761 2.2440
5.1117 2.3574 2.2437
5.0174 2.5352 2.2434
4.9167 2.7092 2.2431
4.8098 2.8792 2.2428
4.6969 3.0449 2.2425
4.5787 3.2067 2.2425
4.4549 3.3638 2.2425
4.3256 3.5161 2.2424
4.1910 3.6634 2.2424
4.0513 3.8056 2.2424
3.9067 3.9425 2.2424
3.7574 4.0738 2.2423
3.6307 4.2309 2.2591
3.6571 4.5844 2.3798
3.5070 4.7350 2.3947
3.3300 4.8503 2.3947
3.1492 4.9590 2.3947
2.9649 5.0611 2.3947
2.7772 5.1564 2.3947
2.5865 5.2447 2.3947
2.3930 5.3261 2.3947
0.8701 2.1387 0.9484
0.7927 2.1683 0.9497
0.7142 2.1952 0.9510
0.6348 2.2191 0.9523
0.5546 2.2402 0.9536
0.4737 2.2584 0.9549
0.3922 2.2736 0.9561
0.3102 2.2859 0.9574
0.2277 2.2953 0.9586
0.1450 2.3016 0.9598
0.0621 2.3050 0.9609
-0.0208 2.3054 0.9621
-0.1037 2.3028 0.9632
-0.1865 2.2971 0.9643
-0.2690 2.2886 0.9653
-0.3512 2.2770 0.9663
-0.4329 2.2625 0.9673
-0.5140 2.2450 0.9683
-0.5944 2.2247 0.9692
-0.6741 2.2014 0.9701
-0.7528 2.1753 0.9709
-0.8306 2.1463 0.9717
-2.2341 5.2070 2.3947
-2.4181 5.1183 2.3947
-2.5988 5.0234 2.3947
-2.7759 4.9222 2.3947
-2.9492 4.8150 2.3947
-3.1187 4.7020 2.3947
-3.2839 4.5831 2.3947
-3.4449 4.4587 2.3947
-3.6013 4.3289 2.3947
-3.7531 4.1937 2.3947
-3.9000 4.0535 2.3947
-4.0419 3.9083 2.3947
-4.1786 3.7583 2.3947
-4.3100 3.6037 2.3947
-4.4359 3.4447 2.3947
-4.5562 3.2815 2.3947
-4.6708 3.1142 2.3947
-4.7794 2.9432 2.3947
-4.8821 2.7684 2.3947
-4.9787 2.5902 2.3947
-5.0690 2.4088 2.3947
-5.1530 2.2244 2.3947
-5.2305 2.0371 2.3947
-5.3016 1.8473 2.3947
-5.3660 1.6550 2.3947
-5.4237 1.4606 2.3947
-5.4747 1.2643 2.3947
-5.5189 1.0663 2.3947
-5.5562 0.8668 2.3947
-5.5865 0.6660 2.3947
-5.6099 0.4642 2.3947
-5.6262 0.2616 2.3947
-5.6356 0.0585 2.3947
-5.6378 -0.1450 2.3947
-5.6330 -0.3485 2.3947
-5.6211 -0.5519 2.3947
-5.6021 -0.7549 2.3947
-5.5761 -0.9573 2.3947
-5.5430 -1.1587 2.3947
-5.5028 -1.3591 2.3947
-5.4556 -1.5581 2.3947
-5.4015 -1.7555 2.3947
-5.3404 -1.9511 2.3947
-5.2725 -2.1446 2.3947
-5.1978 -2.3358 2.3947
-5.1163 -2.5244 2.3947
-5.0281 -2.7103 2.3947
-4.9334 -2.8931 2.3947
-4.8322 -3.0727 2.3947
-4.7247 -3.2489 2.3947
-4.6108 -3.4213 2.3947
-4.4908 -3.5898 2.3947
-4.3648 -3.7542 2.3947
-4.2329 -3.9142 2.3947
-4.0953 -4.0696 2.3947
-3.9520 -4.2200 2.3947
-3.8033 -4.3658 2.3947
-3.6494 -4.5063 2.3947
-3.4903 -4.6413 2.3947
-3.3264 -4.7708 2.3947
-3.1577 -4.8945 2.3947
-2.9844 -5.0122 2.3947
-2.8069 -5.1239 2.3947
-2.6252 -5.2292 2.3947
-2.4396 -5.3281 2.3947
-2.2504 -5.4204 2.3947
-2.0577 -5.5060 2.3947
-1.8618 -5.5846 2.3947
-1.6630 -5.6563 2.3947
-1.4614 -5.7208 2.3947
-1.2574 -5.7781 2.3947
-1.0511 -5.8280 2.3947
-0.8430 -5.8705 2.3947
-0.6332 -5.9054 2.3947
-0.4220 -5.9328 2.3947
-0.2096 -5.9524 2.3947
0.0035 -5.9644 2.3947
0.2172 -5.9685 2.3947
0.4311 -5.9649 2.3947
0.6450 -5.9535 2.3947
0.8586 -5.9342 2.3947
1.0715 -5.9071 2.3947
1.2836 -5.8721 2.3947
1.4944 -5.8294 2.3947
1.7037 -5.7790 2.3947
1.9112 -5.7207 2.3947
2.1166 -5.6548 2.3947
2.2717 -5.4660 2.3452
2.3596 -5.1504 2.2423
2.5445 -5.0676 2.2423
2.7263 -4.9781 2.2424
2.9048 -4.8819 2.2424
3.0798 -4.7790 2.2424
3.2509 -4.6696 2.2425
3.4180 -4.5539 2.2425
3.5808 -4.4321 2.2425
3.7390 -4.3042 2.2425
3.8925 -4.1704 2.2426
4.0411 -4.0312 2.2427
4.1848 -3.8868 2.2430
4.3232 -3.7370 2.2433
4.4559 -3.5821 2.2436
4.5828 -3.4224 2.2439
4.7036 -3.2579 2.2442
4.8177 -3.0886 2.2441
4.9220 -2.9131 2.2425
5.0198 -2.7343 2.2411
5.1070 -2.5497 2.2379
5.1866 -2.3623 2.2345
5.2601 -2.1724 2.2315
5.3285 -1.9815 2.2295
5.3909 -1.7886 2.2279
5.4468 -1.5937 2.2266
5.4961 -1.3975 2.2257
5.5388 -1.1997 2.2251
5.5749 -1.0008 2.2247
5.6043 -0.8008 2.2247
5.6269 -0.6001 2.2249
5.6428 -0.3988 2.2254
5.6519 -0.1971 2.2262
5.6542 0.0045 2.2273
5.6500 0.2062 2.2288
5.6390 0.4080 2.2305
5.6216 0.6091 2.2326
5.5992 0.8099 2.2357
5.5703 1.0100 2.2392
5.5324 1.2084 2.2421
5.4840 1.4050 2.2436
5.4272 1.5991 2.2447
5.3603 1.7899 2.2445
5.2864 1.9778 2.2443
5.2057 2.1627 2.2440
5.1184 2.3443 2.2437
5.0245 2.5224 2.2435
4.9242 2.6967 2.2432
4.8178 2.8669 2.2429
4.7053 3.0330 2.2425
4.5875 3.1950 2.2425
4.4641 3.3525 2.2425
4.3352 3.5052 2.2424
4.2010 3.6529 2.2424
4.0616 3.7954 2.2424
3.9174 3.9327 2.2424
3.7745 4.0709 2.2459
3.6326 4.2111 2.2532
3.6551 4.5575 2.3705
3.5198 4.7263 2.3947
3.3431 4.8421 2.3947
3.1625 4.9514 2.3947
2.9784 5.0539 2.3947
2.7910 5.1497 2.3947
2.6005 5.2385 2.3947
2.4072 5.3204 2.3947
0.8757 2.1365 0.9483
0.7983 2.1663 0.9496
0.7200 2.1933 0.9509
0.6406 2.2175 0.9522
0.5605 2.2388 0.9535
0.4796 2.2571 0.9548
0.3981 2.2726 0.9560
0.3162 2.2851 0.9573
0.2338 2.2947 0.9585
0.1511 2.3013 0.9597
0.0682 2.3048 0.9608
-0.0148 2.3054 0.9620
-0.0977 2.3030 0.9631
-0.1805 2.2977 0.9642
-0.2630 2.2893 0.9652
-0.3452 2.2779 0.9663
-0.4270 2.2636 0.9673
-0.5081 2.2464 0.9682
-0.5886 2.2262 0.9691
-0.6683 2.2032 0.9700
-0.7471 2.1773 0.9709
-0.8250 2.1485 0.9717
-2.2205 5.2133 2.3947
-2.4048 5.1250 2.3947
-2.5857 5.0305 2.3947
-2.7631 4.9298 2.3947
-2.9367 4.8231 2.3947
-3.1064 4.7104 2.3947
-3.2720 4.5920 2.3947
-3.4333 4.4680 2.3947
-3.5901 4.3385 2.3947
-3.7422 4.2038 2.3947
-3.8894 4.0639 2.3947
-4.0317 3.9190 2.3947
-4.1688 3.7694 2.3947
-4.3006 3.6151 2.3947
-4.4269 3.4565 2.3947
-4.5476 3.2936 2.3947
-4.6626 3.1266 2.3947
-4.7717 2.9557 2.3947
-4.8748 2.7813 2.3947
-4.9718 2.6033 2.3947
-5.0626 2.4221 2.3947
-5.1471 2.2379 2.3947
-5.2251 2.0509 2.3947
-5.2966 1.8612 2.3947
-5.3615 1.6691 2.3947
-5.4197 1.4749 2.3947
-5.4712 1.2787 2.3947
-5.5159 1.0808 2.3947
-5.5537 0.8814 2.3947
-5.5845 0.6807 2.3947
-5.6084 0.4789 2.3947
-5.6253 0.2764 2.3947
-5.6351 0.0733 2.3947
-5.6379 -0.1302 2.3947
-5.6336 -0.3337 2.3947
-5.6222 -0.5371 2.3947
-5.6038 -0.7401 2.3947
-5.5782 -0.9425 2.3947
-5.5456 -1.1441 2.3947
-5.5060 -1.3445 2.3947
-5.4593 -1.5436 2.3947
-5.4057 -1.7412 2.3947
-5.3451 -1.9369 2.3947
-5.2777 -2.1305 2.3947
-5.2034 -2.3219 2.3947
-5.1224 -2.5108 2.3947
-5.0348 -2.6968 2.3947
-4.9405 -2.8799 2.3947
-4.8398 -3.0598 2.3947
-4.7327 -3.2362 2.3947
-4.6193 -3.4089 2.3947
-3.9670 -3.6903 2.3947
-3.8370 -3.8358 2.3947
-3.7017 -3.9769 2.3947
-3.5614 -4.1129 2.3947
-3.4161 -4.2442 2.3947
-3.2661 -4.3703 2.3947
-3.1114 -4.4913 2.3947
-2.9524 -4.6068 2.3947
-2.7892 -4.7166 2.3947
-2.6219 -4.8206 2.3947
-2.4508 -4.9187 2.3947
-2.2761 -5.0107 2.3947
-2.0980 -5.0965 2.3947
-1.9167 -5.1760 2.3947
-1.7324 -5.2490 2.3947
-1.5454 -5.3153 2.3947
-1.3559 -5.3749 2.3947
-1.1641 -5.4278 2.3947
-0.9704 -5.4738 2.3947
-0.7748 -5.5127 2.3947
-0.5778 -5.5445 2.3947
-0.3795 -5.5692 2.3947
-0.1802 -5.5867 2.3947
0.0198 -5.5970 2.3947
0.2203 -5.6000 2.3947
0.4210 -5.5956 2.3947
0.6216 -5.5840 2.3947
0.8218 -5.5650 2.3947
1.0214 -5.5386 2.3947
1.2201 -5.5050 2.3947
1.4176 -5.4640 2.3947
1.6137 -5.4158 2.3947
1.8080 -5.3604 2.3947
2.0004 -5.2978 2.3947
2.1904 -5.2281 2.3947
2.3296 -5.0468 2.3461
2.4012 -4.7487 2.2439
2.5696 -4.6607 2.2423
2.7366 -4.5698 2.2424
2.9002 -4.4727 2.2424
3.0602 -4.3696 2.2424
3.2164 -4.2606 2.2424
3.3685 -4.1458 2.2425
3.5163 -4.0254 2.2425
3.6596 -3.8995 2.2425
3.7983 -3.7684 2.2425
3.9320 -3.6322 2.2426
4.0607 -3.4910 2.2426
4.1845 -3.3455 2.2429
4.3028 -3.1954 2.2431
4.4155 -3.0410 2.2434
4.5224 -2.8824 2.2436
4.6233 -2.7199 2.2438
4.7180 -2.5537 2.2440
4.8065 -2.3841 2.2442
4.8886 -2.2113 2.2443
4.9636 -2.0353 2.2442
5.0305 -1.8561 2.2434
5.0909 -1.6747 2.2427
5.1448 -1.4913 2.2422
5.1922 -1.3064 2.2417
5.2329 -1.1201 2.2415
5.2670 -0.9321 2.2413
5.2945 -0.7433 2.2413
5.3152 -0.5537 2.2414
5.3293 -0.3635 2.2417
5.3365 -0.1733 2.2421
5.3371 0.0174 2.2426
5.3309 0.2077 2.2433
5.3180 0.3976 2.2441
5.2976 0.5869 2.2446
5.2686 0.7749 2.2445
5.2326 0.9616 2.2444
5.1898 1.1466 2.2442
5.1402 1.3298 2.2441
5.0840 1.5109 2.2439
5.0211 1.6896 2.2437
4.9517 1.8657 2.2434
4.8760 2.0389 2.2432
4.7940 2.2091 2.2430
4.7059 2.3760 2.2427
4.6120 2.5394 2.2425
4.5127 2.6993 2.2425
4.4076 2.8553 2.2425
4.2971 3.0072 2.2424
4.1813 3.1548 2.2424
4.0602 3.2980 2.2424
3.9342 3.4365 2.2424
3.8034 3.5702 2.2423
3.6681 3.6989 2.2423
3.5788 3.8773 2.2745
3.6018 4.1941 2.3864
3.4563 4.3293 2.3947
3.2942 4.4440 2.3947
3.1283 4.5526 2.3947
2.9588 4.6551 2.3947
2.7859 4.7513 2.3947
2.6099 4.8412 2.3947
2.4310 4.9245 2.3947
0.8893 1.9772 0.9467
0.8176 2.0075 0.9480
0.7449 2.0353 0.9492
0.6713 2.0605 0.9504
0.5967 2.0830 0.9516
0.5215 2.1027 0.9529
0.4455 2.1198 0.9540
0.3689 2.1341 0.9552
0.2919 2.1457 0.9564
0.2146 2.1544 0.9575
0.1369 2.1604 0.9586
0.0591 2.1635 0.9597
-0.0188 2.1639 0.9608
-0.0966 2.1614 0.9618
-0.1743 2.1561 0.9628
-0.2518 2.1481 0.9638
-0.3289 2.1372 0.9648
-0.4056 2.1236 0.9657
-0.4818 2.1072 0.9666
-0.5573 2.0881 0.9675
-0.6321 2.0663 0.9683
-0.7060 2.0417 0.9691
-0.7790 2.0146 0.9699
-0.8510 1.9848 0.9706
-2.2728 4.8139 2.3947
-2.4429 4.7247 2.3947
-2.6096 4.6298 2.3947
-2.7728 4.5291 2.3947
-2.9323 4.4229 2.3947
-3.0879 4.3113 2.3947
-3.2395 4.1944 2.3947
-3.3868 4.0723 2.3947
-3.5297 3.9452 2.3947
-3.6680 3.8134 2.3947
-3.8016 3.6768 2.3947
-3.9303 3.5358 2.3947
-4.0541 3.3904 2.3947
-4.1726 3.2408 2.3947
-4.2859 3.0872 2.3947
-4.3937 2.9299 2.3947
-4.4960 2.7688 2.3947
-4.5927 2.6044 2.3947
-4.6836 2.4367 2.3947
-4.7686 2.2660 2.3947
-4.8476 2.0924 2.3947
-4.9206 1.9162 2.3947
-4.9874 1.7375 2.3947
-5.0479 1.5566 2.3947
-5.1022 1.3736 2.3947
-5.1501 1.1888 2.3947
-5.1916 1.0025 2.3947
-5.2265 0.8147 2.3947
-5.2550 0.6257 2.3947
-5.2768 0.4358 2.3947
-5.2921 0.2452 2.3947
-5.3007 0.0541 2.3947
-5.3026 -0.1374 2.3947
-5.2979 -0.3289 2.3947
-5.2865 -0.5202 2.3947
-5.2684 -0.7111 2.3947
-5.2437 -0.9015 2.3947
-5.2123 -1.0909 2.3947
-5.1742 -1.2794 2.3947
-5.1296 -1.4665 2.3947
-5.0784 -1.6521 2.3947
-5.0207 -1.8359 2.3947
-4.9566 -2.0178 2.3947
-4.8860 -2.1975 2.3947
-4.8091 -2.3748 2.3947
-4.7259 -2.5493 2.3947
-4.6366 -2.7211 2.3947
-4.5411 -2.8898 2.3947
-4.4397 -3.0552 2.3947
-4.3324 -3.2171 2.3947
-4.2193 -3.3750 2.3947
-4.1006 -3.5295 2.3947
-3.9763 -3.6796 2.3947
-3.8466 -3.8252 2.3947
-3.7118 -3.9666 2.3947
-3.5718 -4.1032 2.3947
-3.4269 -4.2348 2.3947
-3.2772 -4.3614 2.3947
-3.1229 -4.4827 2.3947
-2.9642 -4.5985 2.3947
-2.8012 -4.7087 2.3947
-2.6342 -4.8132 2.3947
-2.4634 -4.9118 2.3947
-2.2890 -5.0042 2.3947
-2.1111 -5.0905 2.3947
-1.9300 -5.1704 2.3947
-1.7459 -5.2439 2.3947
-1.5591 -5.3107 2.3947
-1.3698 -5.3709 2.3947
-1.1782 -5.4242 2.3947
-0.9845 -5.4706 2.3947
-0.7891 -5.5101 2.3947
-0.5922 -5.5424 2.3947
-0.3940 -5.5676 2.3947
-0.1947 -5.5857 2.3947
0.0052 -5.5965 2.3947
0.2057 -5.6000 2.3947
0.4064 -5.5962 2.3947
0.6070 -5.5851 2.3947
0.8072 -5.5666 2.3947
1.0069 -5.5408 2.3947
1.2057 -5.5077 2.3947
1.4033 -5.4673 2.3947
1.5995 -5.4196 2.3947
1.7939 -5.3647 2.3947
1.9864 -5.3026 2.3947
2.1766 -5.2335 2.3947
2.3247 -5.0708 2.3546
2.3941 -4.7638 2.2488
2.5623 -4.6762 2.2467
2.7245 -4.5766 2.2424
2.8884 -4.4800 2.2424
3.0486 -4.3773 2.2424
3.2051 -4.2687 2.2424
3.3575 -4.1544 2.2425
3.5057 -4.0344 2.2425
3.6494 -3.9089 2.2425
3.7883 -3.7781 2.2425
3.9224 -3.6422 2.2426
4.0514 -3.5015 2.2426
4.1756 -3.3563 2.2429
4.2944 -3.2065 2.2431
4.4075 -3.0524 2.2434
4.5148 -2.8941 2.2436
4.6161 -2.7319 2.2438
4.7113 -2.5660 2.2440
4.8003 -2.3966 2.2442
4.8829 -2.2240 2.2443
4.9585 -2.0483 2.2443
5.0258 -1.8692 2.2434
5.0867 -1.6880 2.2428
5.1411 -1.5048 2.2422
5.1889 -1.3198 2.2418
5.2301 -1.1337 2.2415
5.2648 -0.9458 2.2413
5.2927 -0.7570 2.2413
5.3139 -0.5678 2.2414
5.3285 -0.3775 2.2417
5.3362 -0.1872 2.2421
5.3373 0.0035 2.2426
5.3316 0.1938 2.2432
5.3192 0.3838 2.2440
5.2994 0.5731 2.2446
5.2709 0.7612 2.2445
5.2355 0.9480 2.2444
5.1932 1.1332 2.2442
5.1441 1.3165 2.2441
5.0883 1.4978 2.2439
5.0259 1.6766 2.2437
4.9570 1.8529 2.2435
4.8817 2.0264 2.2432
4.8002 2.1968 2.2430
4.7125 2.3639 2.2427
4.6190 2.5276 2.2425
4.5201 2.6878 2.2425
4.4155 2.8441 2.2425
4.3054 2.9963 2.2425
4.1899 3.1442 2.2424
4.0692 3.2877 2.2424
3.9436 3.4266 2.2424
3.8131 3.5606 2.2423
3.6781 3.6897 2.2423
3.5772 3.8552 2.2668
3.6001 4.1700 2.3778
3.4680 4.3207 2.3947
3.3062 4.4358 2.3947
3.1405 4.5450 2.3947
2.9712 4.6479 2.3947
2.7986 4.7445 2.3947
2.6228 4.8348 2.3947
2.4441 4.9186 2.3947
0.8944 1.9748 0.9466
0.8229 2.0054 0.9479
0.7503 2.0334 0.9491
0.6767 2.0587 0.9503
0.6022 2.0814 0.9516
0.5270 2.1014 0.9528
0.4510 2.1187 0.9540
0.3745 2.1332 0.9551
0.2976 2.1449 0.9563
0.2202 2.1539 0.9574
0.1426 2.1600 0.9585
0.0648 2.1634 0.9596
-0.0131 2.1639 0.9607
-0.0910 2.1617 0.9618
-0.1687 2.1566 0.9628
-0.2462 2.1488 0.9638
-0.3233 2.1381 0.9647
-0.4001 2.1247 0.9657
-0.4763 2.1085 0.9666
-0.5518 2.0896 0.9674
-0.6266 2.0679 0.9683
-0.7006 2.0436 0.9691
-0.7737 2.0166 0.9698
-0.8458 1.9871 0.9705
-2.2603 4.8201 2.3947
-2.4306 4.7314 2.3947
-2.5976 4.6369 2.3947
-2.7610 4.5366 2.3947
-2.9208 4.4308 2.3947
-3.0767 4.3196 2.3947
-3.2286 4.2031 2.3947
-3.3762 4.0814 2.3947
-3.5194 3.9547 2.3947
-3.6581 3.8231 2.3947
-3.7920 3.6869 2.3947
-3.9211 3.5462 2.3947
-4.0452 3.4011 2.3947
-4.1641 3.2518 2.3947
-4.2778 3.0985 2.3947
-4.3861 2.9414 2.3947
-4.4888 2.7807 2.3947
-4.5858 2.6165 2.3947
-4.6771 2.4491 2.3947
-4.7626 2.2785 2.3947
-4.8420 2.1052 2.3947
-4.9154 1.9291 2.3947
-4.9827 1.7506 2.3947
-5.0437 1.5698 2.3947
-5.0985 1.3870 2.3947
-5.1468 1.2024 2.3947
-5.1888 1.0161 2.3947
-5.2242 0.8284 2.3947
-5.2531 0.6395 2.3947
-5.2754 0.4497 2.3947
-5.2912 0.2591 2.3947
-5.3003 0.0680 2.3947
-5.3027 -0.1234 2.3947
-5.2985 -0.3149 2.3947
-5.2875 -0.5063 2.3947
-5.2700 -0.6972 2.3947
-5.2457 -0.8876 2.3947
-5.2148 -1.0772 2.3947
-5.1772 -1.2657 2.3947
-5.1331 -1.4529 2.3947
-5.0824 -1.6386 2.3947
-5.0252 -1.8226 2.3947
-4.9615 -2.0046 2.3947
-4.8913 -2.1845 2.3947
-4.8149 -2.3619 2.3947
-4.7322 -2.5367 2.3947
-4.6433 -2.7087 2.3947
-4.5483 -2.8776 2.3947
-4.4473 -3.0432 2.3947
-4.3404 -3.2054 2.3947
-3.7358 -3.4780 2.3947
-3.6130 -3.6147 2.3947
-3.4854 -3.7472 2.3947
-3.3529 -3.8753 2.3947
-3.2159 -3.9986 2.3947
-3.0743 -4.1172 2.3947
-2.9285 -4.2308 2.3947
-2.7785 -4.3392 2.3947
-2.6246 -4.4423 2.3947
-2.4669 -4.5400 2.3947
-2.3057 -4.6320 2.3947
-2.1410 -4.7183 2.3947
-1.9732 -4.7988 2.3947
-1.8024 -4.8732 2.3947
-1.6288 -4.9415 2.3947
-1.4527 -5.0036 2.3947
-1.2742 -5.0594 2.3947
-1.0936 -5.1088 2.3947
-0.9112 -5.1517 2.3947
-0.7272 -5.1879 2.3947
-0.5417 -5.2176 2.3947
-0.3551 -5.2405 2.3947
-0.1676 -5.2565 2.3947
0.0205 -5.2659 2.3947
0.2091 -5.2683 2.3947
0.3979 -5.2639 2.3947
0.5865 -5.2526 2.3947
0.7747 -5.2344 2.3947
0.9624 -5.2093 2.3947
1.1492 -5.1774 2.3947
1.3348 -5.1386 2.3947
1.5191 -5.0930 2.3947
1.7017 -5.0406 2.3947
1.8825 -4.9815 2.3947
2.0610 -4.9158 2.3947
2.2372 -4.8434 2.3947
2.3757 -4.6954 2.3599
2.4339 -4.4125 2.2580
2.5738 -4.2960 2.2423
2.7275 -4.2046 2.2423
2.8778 -4.1075 2.2424
3.0244 -4.0049 2.2424
3.1673 -3.8969 2.2424
3.3061 -3.7836 2.2424
3.4407 -3.6653 2.2425
3.5709 -3.5419 2.2425
3.6965 -3.4138 2.2425
3.8173 -3.2811 2.2425
3.9331 -3.1440 2.2425
4.0437 -3.0026 2.2426
4.1493 -2.8573 2.2427
4.2496 -2.7083 2.2429
4.3443 -2.5557 2.2431
4.4333 -2.3996 2.2433
4.5164 -2.2402 2.2434
4.5935 -2.0779 2.2436
4.6645 -1.9128 2.2437
4.7293 -1.7452 2.2438
4.7878 -1.5753 2.2439
4.8400 -1.4034 2.2440
4.8856 -1.2296 2.2441
4.9248 -1.0544 2.2441
4.9574 -0.8778 2.2442
4.9834 -0.7002 2.2442
5.0028 -0.5218 2.2442
5.0155 -0.3429 2.2442
5.0216 -0.1637 2.2441
5.0209 0.0154 2.2441
5.0137 0.1944 2.2440
4.9998 0.3728 2.2440
4.9793 0.5505 2.2439
4.9523 0.7272 2.2437
4.9187 0.9026 2.2436
4.8788 1.0766 2.2435
4.8324 1.2488 2.2433
4.7798 1.4191 2.2431
4.7210 1.5871 2.2429
4.6561 1.7527 2.2427
4.5852 1.9157 2.2425
4.5089 2.0760 2.2425
4.4268 2.2332 2.2425
4.3391 2.3872 2.2425
4.2459 2.5378 2.2425
4.1474 2.6847 2.2424
4.0437 2.8277 2.2424
3.9350 2.9668 2.2424
3.8214 3.1017 2.2424
3.7031 3.2322 2.2423
3.5803 3.3583 2.2423
3.5312 3.5582 2.2930
3.5477 3.8406 2.3947
3.4033 3.9598 2.3947
3.2548 4.0736 2.3947
3.1024 4.1818 2.3947
2.9465 4.2844 2.3947
2.7871 4.3812 2.3947
2.6245 4.4721 2.3947
2.4590 4.5569 2.3947
0.9042 1.8297 0.9452
0.8378 1.8607 0.9464
0.7704 1.8893 0.9475
0.7019 1.9154 0.9487
0.6326 1.9391 0.9499
0.5624 1.9603 0.9510
0.4916 1.9789 0.9522
0.4201 1.9949 0.9533
0.3480 2.0084 0.9544
0.2755 2.0192 0.9555
0.2027 2.0275 0.9565
0.1296 2.0331 0.9576
0.0564 2.0360 0.9586
-0.0169 2.0364 0.9596
-0.0902 2.0340 0.9606
-0.1634 2.0291 0.9616
-0.2363 2.0215 0.9625
-0.3089 2.0113 0.9634
-0.3811 1.9984 0.9643
-0.4527 1.9830 0.9651
-0.5238 1.9650 0.9659
-0.5942 1.9445 0.9667
-0.6638 1.9214 0.9675
-0.7325 1.8958 0.9682
-0.8002 1.8678 0.9689
-0.8669 1.8374 0.9695
-2.3018 4.4545 2.3947
-2.4592 4.3652 2.3947
-2.6132 4.2704 2.3947
-2.7637 4.1704 2.3947
-2.9105 4.0652 2.3947
-3.0536 3.9551 2.3947
-3.1926 3.8401 2.3947
-3.3275 3.7203 2.3947
-3.4580 3.5960 2.3947
-3.5841 3.4673 2.3947
-3.7056 3.3343 2.3947
-3.8224 3.1972 2.3947
-3.9343 3.0561 2.3947
-4.0412 2.9113 2.3947
-4.1429 2.7629 2.3947
-4.2395 2.6110 2.3947
-4.3307 2.4559 2.3947
-4.4164 2.2977 2.3947
-4.4966 2.1367 2.3947
-4.5711 1.9729 2.3947
-4.6399 1.8067 2.3947
-4.7029 1.6381 2.3947
-4.7600 1.4674 2.3947
-4.8111 1.2948 2.3947
-4.8562 1.1205 2.3947
-4.8953 0.9447 2.3947
-4.9281 0.7675 2.3947
-4.9549 0.5893 2.3947
-4.9754 0.4102 2.3947
-4.9896 0.2304 2.3947
-4.9976 0.0501 2.3947
-4.9993 -0.1305 2.3947
-4.9946 -0.3111 2.3947
-4.9837 -0.4915 2.3947
-4.9665 -0.6715 2.3947
-4.9429 -0.8510 2.3947
-4.9131 -1.0296 2.3947
-4.8771 -1.2073 2.3947
-4.8348 -1.3836 2.3947
-4.7863 -1.5585 2.3947
-4.7316 -1.7318 2.3947
-4.6709 -1.9032 2.3947
-4.6041 -2.0724 2.3947
-4.5314 -2.2394 2.3947
-4.4527 -2.4039 2.3947
-4.3683 -2.5657 2.3947
-4.2781 -2.7245 2.3947
-4.1822 -2.8802 2.3947
-4.0808 -3.0325 2.3947
-3.9740 -3.1813 2.3947
-3.8619 -3.3265 2.3947
-3.7445 -3.4678 2.3947
-3.6222 -3.6049 2.3947
-3.4948 -3.7377 2.3947
-3.3627 -3.8661 2.3947
-3.2260 -3.9898 2.3947
-3.0848 -4.1087 2.3947
-2.9393 -4.2227 2.3947
-2.7896 -4.3315 2.3947
-2.6360 -4.4350 2.3947
-2.4785 -4.5330 2.3947
-2.3175 -4.6255 2.3947
-2.1531 -4.7122 2.3947
-1.9855 -4.7931 2.3947
-1.8149 -4.8680 2.3947
-1.6415 -4.9368 2.3947
-1.4656 -4.9994 2.3947
-1.2873 -5.0556 2.3947
-1.1069 -5.1054 2.3947
-0.9246 -5.1487 2.3947
-0.7406 -5.1855 2.3947
-0.5553 -5.2156 2.3947
-0.3688 -5.2390 2.3947
-0.1813 -5.2556 2.3947
0.0068 -5.2654 2.3947
0.1954 -5.2684 2.3947
0.3841 -5.2645 2.3947
0.5727 -5.2537 2.3947
0.7610 -5.2360 2.3947
0.9488 -5.2114 2.3947
1.1356 -5.1800 2.3947
1.3214 -5.1417 2.3947
1.5057 -5.0965 2.3947
1.6885 -5.0446 2.3947
1.8693 -4.9861 2.3947
2.0481 -4.9208 2.3947
2.2244 -4.8489 2.3947
2.3712 -4.7170 2.3678
2.4299 -4.4320 2.2651
2.5625 -4.3024 2.2423
2.7164 -4.2114 2.2423
2.8669 -4.1148 2.2424
3.0139 -4.0126 2.2424
3.1570 -3.9050 2.2424
3.2961 -3.7921 2.2424
3.4311 -3.6741 2.2425
3.5616 -3.5511 2.2425
3.6875 -3.4233 2.2425
3.8086 -3.2909 2.2425
3.9248 -3.1541 2.2425
4.0359 -3.0131 2.2426
4.1418 -2.8681 2.2426
4.2425 -2.7193 2.2429
4.3376 -2.5669 2.2431
4.4270 -2.4111 2.2432
4.5105 -2.2520 2.2434
4.5881 -2.0898 2.2436
4.6596 -1.9249 2.2437
4.7248 -1.7575 2.2438
4.7838 -1.5878 2.2439
4.8364 -1.4160 2.2440
4.8825 -1.2424 2.2441
4.9222 -1.0672 2.2441
4.9553 -0.8907 2.2442
4.9817 -0.7132 2.2442
5.0016 -0.5348 2.2442
5.0148 -0.3560 2.2442
5.0213 -0.1768 2.2441
5.0212 0.0024 2.2441
5.0144 0.1813 2.2440
5.0010 0.3598 2.2440
4.9810 0.5376 2.2439
4.9545 0.7144 2.2437
4.9214 0.8899 2.2436
4.8819 1.0640 2.2435
4.8360 1.2363 2.2433
4.7839 1.4067 2.2431
4.7255 1.5749 2.2430
4.6610 1.7407 2.2427
4.5905 1.9039 2.2425
4.5146 2.0644 2.2425
4.4329 2.2219 2.2425
4.3457 2.3761 2.2425
4.2529 2.5269 2.2425
4.1547 2.6741 2.2424
4.0514 2.8175 2.2424
3.9431 2.9568 2.2424
3.8298 3.0920 2.2424
3.7119 3.2228 2.2423
3.5894 3.3489 2.2423
3.5298 3.5381 2.2858
3.5499 3.8228 2.3892
3.4139 3.9513 2.3947
3.2657 4.0655 2.3947
3.1137 4.1741 2.3947
2.9580 4.2771 2.3947
2.7988 4.3743 2.3947
2.6365 4.4656 2.3947
2.4712 4.5510 2.3947
0.9089 1.8274 0.9451
0.8427 1.8585 0.9463
0.7753 1.8873 0.9475
0.7069 1.9136 0.9486
0.6377 1.9375 0.9498
0.5676 1.9588 0.9509
0.4967 1.9776 0.9521
0.4253 1.9938 0.9532
0.3533 2.0075 0.9543
0.2808 2.0185 0.9554
0.2080 2.0270 0.9565
0.1349 2.0328 0.9575
0.0617 2.0359 0.9585
-0.0116 2.0364 0.9596
-0.0849 2.0343 0.9605
-0.1580 2.0295 0.9615
-0.2310 2.0221 0.9624
-0.3036 2.0121 0.9633
-0.3758 1.9995 0.9642
-0.4475 1.9842 0.9651
-0.5187 1.9664 0.9659
-0.5891 1.9461 0.9667
-0.6587 1.9232 0.9674
-0.7275 1.8978 0.9681
-0.7953 1.8699 0.9688
-0.8621 1.8397 0.9695
-2.2903 4.4608 2.3947
-2.4478 4.3719 2.3947
-2.6021 4.2775 2.3947
-2.7528 4.1778 2.3947
-2.9000 4.0731 2.3947
-3.0433 3.9633 2.3947
-3.1826 3.8486 2.3947
-3.3178 3.7292 2.3947
-3.4486 3.6052 2.3947
-3.5751 3.4768 2.3947
-3.6969 3.3441 2.3947
-3.8140 3.2073 2.3947
-3.9263 3.0666 2.3947
-4.0335 2.9220 2.3947
-4.1357 2.7738 2.3947
-4.2326 2.6222 2.3947
-4.3242 2.4673 2.3947
-4.4103 2.3094 2.3947
-4.4909 2.1485 2.3947
-4.5659 1.9850 2.3947
-4.6351 1.8189 2.3947
-4.6985 1.6505 2.3947
-4.7560 1.4799 2.3947
-4.8076 1.3075 2.3947
-4.8531 1.1333 2.3947
-4.8926 0.9575 2.3947
-4.9260 0.7805 2.3947
-4.9531 0.6023 2.3947
-4.9741 0.4233 2.3947
-4.9888 0.2435 2.3947
-4.9972 0.0632 2.3947
-4.9993 -0.1173 2.3947
-4.9952 -0.2979 2.3947
-4.9847 -0.4784 2.3947
-4.9679 -0.6584 2.3947
-4.9449 -0.8379 2.3947
-4.9155 -1.0166 2.3947
-4.8799 -1.1943 2.3947
-4.8381 -1.3708 2.3947
-4.7900 -1.5458 2.3947
-4.7358 -1.7192 2.3947
-4.6755 -1.8908 2.3947
-4.6092 -2.0602 2.3947
-4.5369 -2.2274 2.3947
-4.4587 -2.3920 2.3947
-4.3746 -2.5540 2.3947
-4.2848 -2.7130 2.3947
-4.1894 -2.8689 2.3947
-4.0884 -3.0216 2.3947
-3.5257 -3.2849 2.3947
-3.4096 -3.4139 2.3947
-3.2889 -3.5388 2.3947
-3.1636 -3.6594 2.3947
-3.0340 -3.7757 2.3947
-2.9003 -3.8874 2.3947
-2.7624 -3.9943 2.3947
-2.6207 -4.0964 2.3947
-2.4753 -4.1935 2.3947
-2.3263 -4.2853 2.3947
-2.1740 -4.3719 2.3947
-2.0185 -4.4531 2.3947
-1.8600 -4.5287 2.3947
-1.6987 -4.5986 2.3947
-1.5348 -4.6628 2.3947
-1.3686 -4.7211 2.3947
-1.2001 -4.7734 2.3947
-1.0298 -4.8197 2.3947
-0.8576 -4.8598 2.3947
-0.6840 -4.8937 2.3947
-0.5091 -4.9213 2.3947
-0.3331 -4.9426 2.3947
-0.1562 -4.9575 2.3947
0.0212 -4.9660 2.3947
0.1990 -4.9680 2.3947
0.3769 -4.9636 2.3947
0.5547 -4.9526 2.3947
0.7321 -4.9352 2.3947
0.9090 -4.9113 2.3947
1.0850 -4.8809 2.3947
1.2599 -4.8441 2.3947
1.4335 -4.8009 2.3947
1.6056 -4.7513 2.3947
1.7758 -4.6954 2.3947
1.9440 -4.6332 2.3947
2.1099 -4.5649 2.3947
2.2733 -4.4904 2.3947
2.4164 -4.3780 2.3774
2.4698 -4.1204 2.2822
2.5714 -3.9621 2.2423
2.7129 -3.8705 2.2423
2.8509 -3.7738 2.2424
2.9854 -3.6719 2.2424
3.1161 -3.5651 2.2424
3.2428 -3.4535 2.2424
3.3654 -3.3373 2.2424
3.4836 -3.2165 2.2425
3.5973 -3.0915 2.2425
3.7063 -2.9623 2.2425
3.8105 -2.8290 2.2425
3.9098 -2.6921 2.2425
4.0039 -2.5515 2.2425
4.0927 -2.4075 2.2426
4.1762 -2.2603 2.2426
4.2544 -2.1103 2.2427
4.3270 -1.9575 2.2429
4.3939 -1.8020 2.2430
4.4549 -1.6442 2.2431
4.5100 -1.4842 2.2432
4.5592 -1.3223 2.2433
4.6022 -1.1587 2.2434
4.6392 -0.9937 2.2434
4.6700 -0.8275 2.2434
4.6946 -0.6602 2.2435
4.7129 -0.4923 2.2435
4.7250 -0.3238 2.2434
4.7308 -0.1551 2.2434
4.7304 0.0137 2.2434
4.7237 0.1822 2.2433
4.7108 0.3503 2.2432
4.6917 0.5176 2.2431
4.6664 0.6841 2.2430
4.6351 0.8494 2.2429
4.5976 1.0133 2.2428
4.5542 1.1756 2.2426
4.5050 1.3361 2.2425
4.4501 1.4946 2.2425
4.3895 1.6509 2.2425
4.3233 1.8047 2.2425
4.2516 1.9559 2.2425
4.1744 2.1042 2.2424
4.0920 2.2495 2.2424
4.0044 2.3916 2.2424
3.9118 2.5302 2.2424
3.8142 2.6652 2.2424
3.7119 2.7965 2.2423
3.6144 2.9314 2.2481
3.4938 3.0471 2.2423
3.4870 3.2682 2.3145
3.4800 3.5039 2.3947
3.3480 3.6215 2.3947
3.2119 3.7342 2.3947
3.0721 3.8418 2.3947
2.9286 3.9441 2.3947
2.7816 4.0412 2.3947
2.6314 4.1329 2.3947
2.4782 4.2187 2.3947
0.9152 1.6944 0.9438
0.8537 1.7259 0.9450
0.7911 1.7551 0.9461
0.7275 1.7821 0.9472
0.6629 1.8067 0.9483
0.5975 1.8291 0.9494
0.5313 1.8490 0.9505
0.4645 1.8666 0.9515
0.3970 1.8817 0.9526
0.3290 1.8944 0.9536
0.2606 1.9046 0.9547
0.1919 1.9124 0.9557
0.1230 1.9177 0.9567
0.0539 1.9205 0.9576
-0.0153 1.9208 0.9586
-0.0844 1.9186 0.9595
-0.1534 1.9139 0.9604
-0.2222 1.9067 0.9613
-0.2907 1.8971 0.9621
-0.3588 1.8850 0.9630
-0.4264 1.8704 0.9638
-0.4935 1.8534 0.9645
-0.5599 1.8341 0.9653
-0.6255 1.8123 0.9660
-0.6903 1.7882 0.9666
-0.7542 1.7617 0.9673
-0.8172 1.7330 0.9679
-0.8790 1.7021 0.9685
-2.3223 4.1244 2.3947
-2.4679 4.0350 2.3947
-2.6102 3.9405 2.3947
-2.7491 3.8413 2.3947
-2.8844 3.7373 2.3947
-3.0158 3.6287 2.3947
-3.1434 3.5156 2.3947
-3.2668 3.3981 2.3947
-3.3861 3.2765 2.3947
-3.5010 3.1509 2.3947
-3.6114 3.0213 2.3947
-3.7172 2.8880 2.3947
-3.8183 2.7512 2.3947
-3.9146 2.6109 2.3947
-4.0059 2.4673 2.3947
-4.0921 2.3207 2.3947
-4.1731 2.1712 2.3947
-4.2489 2.0189 2.3947
-4.3194 1.8642 2.3947
-4.3844 1.7070 2.3947
-4.4439 1.5476 2.3947
-4.4978 1.3863 2.3947
-4.5461 1.2231 2.3947
-4.5887 1.0583 2.3947
-4.6255 0.8921 2.3947
-4.6565 0.7246 2.3947
-4.6817 0.5561 2.3947
-4.7009 0.3868 2.3947
-4.7143 0.2168 2.3947
-4.7217 0.0465 2.3947
-4.7232 -0.1242 2.3947
-4.7186 -0.2948 2.3947
-4.7082 -0.4654 2.3947
-4.6917 -0.6355 2.3947
-4.6693 -0.8050 2.3947
-4.6410 -0.9738 2.3947
-4.6067 -1.1416 2.3947
-4.5665 -1.3082 2.3947
-4.5205 -1.4735 2.3947
-4.4687 -1.6371 2.3947
-4.4111 -1.7989 2.3947
-4.3478 -1.9588 2.3947
-4.2789 -2.1164 2.3947
-4.2044 -2.2714 2.3947
-4.1244 -2.4243 2.3947
-4.0389 -2.5742 2.3947
-3.9482 -2.7211 2.3947
-3.8522 -2.8649 2.3947
-3.7511 -3.0052 2.3947
-3.6450 -3.1422 2.3947
-3.5340 -3.2753 2.3947
-3.4182 -3.4046 2.3947
-3.2978 -3.5298 2.3947
-3.1729 -3.6508 2.3947
-3.0436 -3.7674 2.3947
-2.9101 -3.8794 2.3947
-2.7726 -3.9867 2.3947
-2.6312 -4.0891 2.3947
-2.4860 -4.1866 2.3947
-2.3373 -4.2788 2.3947
-2.1852 -4.3658 2.3947
-2.0299 -4.4474 2.3947
-1.8716 -4.5234 2.3947
-1.7105 -4.5937 2.3947
-1.5468 -4.6583 2.3947
-1.3808 -4.7171 2.3947
-1.2125 -4.7698 2.3947
-1.0422 -4.8165 2.3947
-0.8702 -4.8571 2.3947
-0.6967 -4.8914 2.3947
-0.5219 -4.9195 2.3947
-0.3459 -4.9413 2.3947
-0.1692 -4.9566 2.3947
0.0082 -4.9656 2.3947
0.1860 -4.9681 2.3947
0.3639 -4.9641 2.3947
0.5418 -4.9537 2.3947
0.7192 -4.9367 2.3947
0.8961 -4.9133 2.3947
1.0722 -4.8834 2.3947
1.2472 -4.8470 2.3947
1.4209 -4.8042 2.3947
1.5931 -4.7551 2.3947
1.7635 -4.6997 2.3947
1.9318 -4.6379 2.3947
2.0979 -4.5700 2.3947
2.2615 -4.4960 2.3947
2.4123 -4.3976 2.3847
2.4661 -4.1385 2.2888
2.5610 -3.9686 2.2423
2.7027 -3.8774 2.2423
2.8410 -3.7810 2.2424
2.9757 -3.6795 2.2424
3.1067 -3.5731 2.2424
3.2337 -3.4618 2.2424
3.3566 -3.3459 2.2424
3.4751 -3.2255 2.2425
3.5892 -3.1007 2.2425
3.6986 -2.9718 2.2425
3.8031 -2.8389 2.2425
3.9027 -2.7022 2.2425
3.9972 -2.5619 2.2425
4.0864 -2.4181 2.2426
4.1703 -2.2712 2.2426
4.2489 -2.1213 2.2427
4.3219 -1.9687 2.2429
4.3892 -1.8134 2.2430
4.4507 -1.6558 2.2431
4.5062 -1.4959 2.2432
4.5558 -1.3342 2.2433
4.5993 -1.1707 2.2433
4.6367 -1.0058 2.2434
4.6679 -0.8396 2.2434
4.6930 -0.6725 2.2435
4.7118 -0.5045 2.2435
4.7243 -0.3361 2.2434
4.7306 -0.1674 2.2434
4.7306 0.0014 2.2434
4.7244 0.1699 2.2433
4.7120 0.3380 2.2432
4.6933 0.5055 2.2432
4.6685 0.6720 2.2430
4.6376 0.8374 2.2429
4.6006 1.0014 2.2428
4.5576 1.1638 2.2426
4.5087 1.3245 2.2425
4.4543 1.4831 2.2425
4.3941 1.6396 2.2425
4.3283 1.7936 2.2425
4.2570 1.9450 2.2425
4.1802 2.0935 2.2425
4.0982 2.2390 2.2424
4.0110 2.3813 2.2424
3.9187 2.5202 2.2424
3.8215 2.6555 2.2424
3.7196 2.7871 2.2423
3.6163 2.9173 2.2443
3.5020 3.0383 2.2423
3.4857 3.2499 2.3078
3.4895 3.4951 2.3947
3.3577 3.6131 2.3947
3.2220 3.7261 2.3947
3.0824 3.8341 2.3947
2.9391 3.9368 2.3947
2.7924 4.0343 2.3947
2.6425 4.1262 2.3947
2.4895 4.2127 2.3947
0.9197 1.6920 0.9438
0.8583 1.7237 0.9449
0.7957 1.7531 0.9460
0.7322 1.7802 0.9471
0.6677 1.8050 0.9482
0.6023 1.8275 0.9493
0.5362 1.8476 0.9504
0.4693 1.8654 0.9515
0.4019 1.8807 0.9525
0.3340 1.8935 0.9536
0.2656 1.9040 0.9546
0.1969 1.9119 0.9556
0.1280 1.9174 0.9566
0.0589 1.9203 0.9576
-0.0102 1.9208 0.9585
-0.0794 1.9188 0.9594
-0.1484 1.9143 0.9603
-0.2172 1.9073 0.9612
-0.2857 1.8979 0.9621
-0.3538 1.8859 0.9629
-0.4215 1.8716 0.9637
-0.4886 1.8548 0.9645
-0.5550 1.8356 0.9652
-0.6208 1.8140 0.9659
-0.6856 1.7900 0.9666
-0.7496 1.7637 0.9672
-0.8126 1.7352 0.9678
-0.8745 1.7044 0.9684
-2.3115 4.1307 2.3947
-2.4574 4.0416 2.3947
-2.6000 3.9476 2.3947
-2.7391 3.8487 2.3947
-2.8746 3.7450 2.3947
-3.0064 3.6367 2.3947
-3.1342 3.5240 2.3947
-3.2580 3.4069 2.3947
-3.3775 3.2855 2.3947
-3.4928 3.1602 2.3947
-3.6035 3.0309 2.3947
-3.7097 2.8979 2.3947
-3.8111 2.7613 2.3947
-3.9077 2.6212 2.3947
-3.9994 2.4779 2.3947
-4.0860 2.3315 2.3947
-4.1674 2.1822 2.3947
-4.2436 2.0301 2.3947
-4.3144 1.8755 2.3947
-4.3798 1.7185 2.3947
-4.4397 1.5593 2.3947
-4.4941 1.3981 2.3947
-4.5428 1.2350 2.3947
-4.5858 1.0704 2.3947
-4.6230 0.9043 2.3947
-4.6544 0.7369 2.3947
-4.6800 0.5684 2.3947
-4.6997 0.3992 2.3947
-4.7135 0.2293 2.3947
-4.7214 0.0589 2.3947
-4.7232 -0.1118 2.3947
-4.7192 -0.2824 2.3947
-4.7091 -0.4530 2.3947
-4.6931 -0.6231 2.3947
-4.6711 -0.7927 2.3947
-4.6432 -0.9616 2.3947
-4.6094 -1.1295 2.3947
-4.5697 -1.2961 2.3947
-4.5241 -1.4615 2.3947
-4.4727 -1.6252 2.3947
-4.4155 -1.7872 2.3947
-4.3526 -1.9472 2.3947
-4.2841 -2.1050 2.3947
-4.2100 -2.2605 2.3947
-4.1304 -2.4133 2.3947
-4.0454 -2.5634 2.3947
-3.9550 -2.7105 2.3947
-3.8594 -2.8545 2.3947
-3.3339 -3.1086 2.3947
-3.2239 -3.2305 2.3947
-3.1095 -3.3484 2.3947
-2.9908 -3.4624 2.3947
-2.8681 -3.5722 2.3947
-2.7414 -3.6776 2.3947
-2.6109 -3.7785 2.3947
-2.4767 -3.8748 2.3947
-2.3390 -3.9664 2.3947
-2.1980 -4.0531 2.3947
-2.0538 -4.1347 2.3947
-1.9067 -4.2112 2.3947
-1.7567 -4.2824 2.3947
-1.6041 -4.3482 2.3947
-1.4491 -4.4087 2.3947
-1.2919 -4.4635 2.3947
-1.1326 -4.5127 2.3947
-0.9715 -4.5562 2.3947
-0.8088 -4.5938 2.3947
-0.6447 -4.6256 2.3947
-0.4793 -4.6514 2.3947
-0.3130 -4.6713 2.3947
-0.1459 -4.6851 2.3947
0.0218 -4.6929 2.3947
0.1897 -4.6945 2.3947
0.3578 -4.6901 2.3947
0.5258 -4.6795 2.3947
0.6934 -4.6628 2.3947
0.8604 -4.6400 2.3947
1.0266 -4.6111 2.3947
1.1917 -4.5761 2.3947
1.3557 -4.5351 2.3947
1.5181 -4.4880 2.3947
1.6788 -4.4350 2.3947
1.8375 -4.3761 2.3947
1.9941 -4.3114 2.3947
2.1484 -4.2410 2.3947
2.3000 -4.1649 2.3947
2.4488 -4.0832 2.3947
2.5018 -3.8532 2.3091
2.5629 -3.6551 2.2423
2.6932 -3.5636 2.2423
2.8201 -3.4673 2.2423
2.9434 -3.3664 2.2424
3.0630 -3.2610 2.2424
3.1786 -3.1512 2.2424
3.2901 -3.0372 2.2424
3.3974 -2.9191 2.2424
3.5003 -2.7970 2.2425
3.5986 -2.6713 2.2425
3.6922 -2.5420 2.2425
3.7810 -2.4093 2.2425
3.8648 -2.2733 2.2425
3.9436 -2.1344 2.2425
4.0172 -1.9926 2.2425
4.0855 -1.8483 2.2425
4.1484 -1.7015 2.2425
4.2058 -1.5525 2.2426
4.2577 -1.4014 2.2426
4.3041 -1.2487 2.2426
4.3448 -1.0943 2.2427
4.3797 -0.9386 2.2427
4.4088 -0.7817 2.2428
4.4321 -0.6239 2.2428
4.4495 -0.4654 2.2428
4.4610 -0.3064 2.2428
4.4667 -0.1472 2.2428
4.4664 0.0121 2.2427
4.4602 0.1711 2.2427
4.4482 0.3298 2.2426
4.4304 0.4878 2.2425
4.4069 0.6450 2.2425
4.3776 0.8011 2.2425
4.3427 0.9559 2.2425
4.3021 1.1092 2.2425
4.2560 1.2609 2.2425
4.2044 1.4107 2.2425
4.1473 1.5583 2.2425
4.0850 1.7037 2.2424
4.0174 1.8466 2.2424
3.9448 1.9868 2.2424
3.8671 2.1241 2.2424
3.7845 2.2584 2.2424
3.6972 2.3895 2.2424
3.6052 2.5172 2.2423
3.5088 2.6414 2.2423
3.4305 2.7801 2.2571
3.4457 3.0028 2.3391
3.4112 3.1946 2.3947
3.2906 3.3105 2.3947
3.1660 3.4219 2.3947
3.0376 3.5285 2.3947
2.9055 3.6305 2.3947
2.7700 3.7274 2.3947
2.6313 3.8193 2.3947
2.4895 3.9062 2.3947
0.9229 1.5697 0.9426
0.8659 1.6015 0.9437
0.8078 1.6312 0.9447
0.7486 1.6588 0.9458
0.6884 1.6843 0.9468
0.6274 1.7076 0.9479
0.5655 1.7287 0.9489
0.5029 1.7476 0.9499
0.4397 1.7642 0.9510
0.3760 1.7784 0.9520
0.3117 1.7904 0.9529
0.2471 1.8001 0.9539
0.1821 1.8074 0.9549
0.1169 1.8124 0.9558
0.0516 1.8151 0.9567
-0.0138 1.8154 0.9576
-0.0791 1.8133 0.9585
-0.1443 1.8089 0.9594
-0.2094 1.8021 0.9602
-0.2741 1.7930 0.9610
-0.3385 1.7815 0.9618
-0.4024 1.7678 0.9625
-0.4658 1.7517 0.9632
-0.5286 1.7334 0.9639
-0.5906 1.7128 0.9646
-0.6519 1.6900 0.9652
-0.7123 1.6650 0.9658
-0.7718 1.6379 0.9664
-0.8302 1.6086 0.9670
-0.8876 1.5773 0.9675
-2.3350 3.8196 2.3947
-2.4698 3.7303 2.3947
-2.6014 3.6364 2.3947
-2.7295 3.5380 2.3947
-2.8541 3.4352 2.3947
-2.9749 3.3282 2.3947
-3.0919 3.2171 2.3947
-3.2049 3.1020 2.3947
-3.3138 2.9830 2.3947
-3.4184 2.8604 2.3947
-3.5186 2.7342 2.3947
-3.6144 2.6046 2.3947
-3.7056 2.4718 2.3947
-3.7920 2.3358 2.3947
-3.8737 2.1970 2.3947
-3.9505 2.0554 2.3947
-4.0223 1.9112 2.3947
-4.0890 1.7646 2.3947
-4.1505 1.6157 2.3947
-4.2068 1.4648 2.3947
-4.2579 1.3120 2.3947
-4.3036 1.1574 2.3947
-4.3438 1.0014 2.3947
-4.3786 0.8440 2.3947
-4.4079 0.6853 2.3947
-4.4317 0.5258 2.3947
-4.4498 0.3654 2.3947
-4.4624 0.2045 2.3947
-4.4693 0.0431 2.3947
-4.4705 -0.1184 2.3947
-4.4661 -0.2800 2.3947
-4.4561 -0.4415 2.3947
-4.4404 -0.6026 2.3947
-4.4190 -0.7630 2.3947
-4.3920 -0.9228 2.3947
-4.3594 -1.0816 2.3947
-4.3213 -1.2393 2.3947
-4.2775 -1.3957 2.3947
-4.2283 -1.5507 2.3947
-4.1736 -1.7037 2.3947
-4.1135 -1.8548 2.3947
-4.0481 -2.0039 2.3947
-3.9774 -2.1508 2.3947
-3.9015 -2.2953 2.3947
-3.8205 -2.4369 2.3947
-3.7344 -2.5758 2.3947
-3.6434 -2.7117 2.3947
-3.5475 -2.8444 2.3947
-3.4470 -2.9738 2.3947
-3.3418 -3.0996 2.3947
-3.2320 -3.2217 2.3947
-3.1180 -3.3400 2.3947
-2.9996 -3.4542 2.3947
-2.8772 -3.5643 2.3947
-2.7507 -3.6701 2.3947
-2.6205 -3.7713 2.3947
-2.4866 -3.8680 2.3947
-2.3491 -3.9599 2.3947
-2.2084 -4.0469 2.3947
-2.0644 -4.1289 2.3947
-1.9175 -4.2058 2.3947
-1.7677 -4.2774 2.3947
-1.6154 -4.3437 2.3947
-1.4605 -4.4044 2.3947
-1.3034 -4.4597 2.3947
-1.1443 -4.5093 2.3947
-0.9833 -4.5532 2.3947
-0.8207 -4.5913 2.3947
-0.6567 -4.6235 2.3947
-0.4914 -4.6498 2.3947
-0.3251 -4.6700 2.3947
-0.1581 -4.6843 2.3947
0.0095 -4.6925 2.3947
0.1775 -4.6946 2.3947
0.3456 -4.6906 2.3947
0.5135 -4.6805 2.3947
0.6812 -4.6642 2.3947
0.8482 -4.6419 2.3947
1.0145 -4.6134 2.3947
1.1797 -4.5789 2.3947
1.3438 -4.5383 2.3947
1.5063 -4.4917 2.3947
1.6671 -4.4391 2.3947
1.8260 -4.3806 2.3947
1.9828 -4.3163 2.3947
2.1372 -4.2463 2.3947
2.2890 -4.1706 2.3947
2.4380 -4.0893 2.3947
2.4984 -3.8698 2.3153
2.5533 -3.6616 2.2423
2.6838 -3.5704 2.2423
2.8109 -3.4745 2.2423
2.9345 -3.3739 2.2424
3.0544 -3.2688 2.2424
3.1703 -3.1593 2.2424
3.2821 -3.0456 2.2424
3.3897 -2.9278 2.2424
3.4929 -2.8061 2.2424
3.5916 -2.6806 2.2425
3.6855 -2.5515 2.2425
3.7747 -2.4190 2.2425
3.8589 -2.2834 2.2425
3.9380 -2.1446 2.2425
4.0120 -2.0030 2.2425
4.0807 -1.8589 2.2425
