ply
format ascii 1.0
element vertex 2177
property float32 x
property float32 y
property float32 z
end_header
-7.6667 -3.3809 2.3916
-7.5560 -3.6639 2.3916
-7.4358 -3.9438 2.3916
-7.3061 -4.2203 2.3916
-7.1671 -4.4930 2.3916
-7.0188 -4.7617 2.3916
-6.8613 -5.0261 2.3916
-6.6946 -5.2858 2.3916
-6.5189 -5.5407 2.3916
-6.3343 -5.7903 2.3916
-6.1408 -6.0344 2.3916
-5.9386 -6.2727 2.3916
-5.7279 -6.5049 2.3916
-5.5088 -6.7306 2.3916
-5.2814 -6.9496 2.3916
-5.0458 -7.1615 2.3916
-4.8024 -7.3662 2.3916
-4.5512 -7.5631 2.3916
-4.2925 -7.7520 2.3916
-4.0264 -7.9328 2.3916
-3.7533 -8.1049 2.3916
-3.4733 -8.2682 2.3916
-3.1867 -8.4223 2.3916
-2.8937 -8.5670 2.3916
-2.5947 -8.7019 2.3916
-2.2899 -8.8268 2.3916
-1.9797 -8.9415 2.3916
-1.6644 -9.0456 2.3916
-1.3442 -9.1388 2.3916
-1.0196 -9.2211 2.3916
-0.6910 -9.2919 2.3916
-0.3587 -9.3513 2.3916
-0.0231 -9.3989 2.3916
0.3154 -9.4345 2.3916
0.6563 -9.4579 2.3916
0.9992 -9.4690 2.3916
1.3437 -9.4675 2.3916
1.6892 -9.4534 2.3916
2.0353 -9.4265 2.3916
2.3816 -9.3867 2.3916
5.9819 -7.4315 2.2529
6.2250 -7.1916 2.2392
6.4974 -6.9856 2.2392
6.7621 -6.7685 2.2392
7.0187 -6.5406 2.2392
7.2667 -6.3022 2.2392
7.5056 -6.0537 2.2392
7.7349 -5.7954 2.2392
7.9542 -5.5277 2.2392
8.1630 -5.2510 2.2392
8.3609 -4.9657 2.2392
8.5475 -4.6722 2.2392
9.5143 2.0618 2.2392
9.4179 2.3958 2.2392
9.3083 2.7250 2.2392
4.2537 -7.9813 2.3916
4.5515 -7.8505 2.3916
4.8449 -7.7081 2.3916
5.1336 -7.5541 2.3916
5.4168 -7.3888 2.3916
5.6943 -7.2121 2.3916
5.9654 -7.0244 2.3916
6.0042 -6.5789 2.3051
6.0732 -6.1952 2.2392
6.3065 -5.9897 2.2392
6.5321 -5.7748 2.2392
6.7495 -5.5508 2.2392
6.9583 -5.3180 2.2392
7.1582 -5.0768 2.2392
7.3487 -4.8274 2.2392
7.5294 -4.5703 2.2392
7.7001 -4.3058 2.2392
7.8603 -4.0345 2.2392
8.0098 -3.7566 2.2392
8.1483 -3.4728 2.2392
8.2754 -3.1833 2.2392
8.3910 -2.8888 2.2392
8.4947 -2.5897 2.2392
8.5865 -2.2865 2.2392
8.6661 -1.9798 2.2392
8.7334 -1.6701 2.2392
8.7882 -1.3578 2.2392
8.8304 -1.0436 2.2392
8.8600 -0.7280 2.2392
8.8770 -0.4116 2.2392
8.8813 -0.0949 2.2392
8.8729 0.2217 2.2392
8.8518 0.5374 2.2392
8.8182 0.8518 2.2392
8.7721 1.1643 2.2392
8.7137 1.4744 2.2392
8.6431 1.7816 2.2392
8.5604 2.0854 2.2392
8.4658 2.3852 2.2392
8.3597 2.6806 2.2392
8.2421 2.9711 2.2392
8.1135 3.2562 2.2392
7.9739 3.5356 2.2392
7.8239 3.8087 2.2392
7.6636 4.0752 2.2392
7.4934 4.3348 2.2392
7.3137 4.5868 2.2392
7.1248 4.8312 2.2392
6.9271 5.0674 2.2392
6.7210 5.2953 2.2392
6.5068 5.5147 2.2392
6.4896 5.9111 2.3121
6.4684 6.3293 2.3916
6.2166 6.5339 2.3916
5.9581 6.7285 2.3916
5.6933 6.9124 2.3916
5.4226 7.0858 2.3916
5.1465 7.2484 2.3916
4.8655 7.4001 2.3916
4.5800 7.5407 2.3916
4.2905 7.6702 2.3916
3.9975 7.7886 2.3916
3.7014 7.8957 2.3916
3.4026 7.9916 2.3916
3.1016 8.0763 2.3916
2.7988 8.1496 2.3916
2.4948 8.2118 2.3916
0.8585 3.2394 0.9376
0.7416 3.2675 0.9412
0.6237 3.2915 0.9449
0.5050 3.3111 0.9485
0.3857 3.3264 0.9521
0.2659 3.3374 0.9557
0.1458 3.3440 0.9592
0.0255 3.3463 0.9628
-0.0949 3.3442 0.9663
-0.2150 3.3378 0.9698
-0.3349 3.3270 0.9732
-0.4543 3.3119 0.9766
-0.5731 3.2925 0.9800
-0.6911 3.2688 0.9833
-0.8081 3.2408 0.9865
-2.2331 7.7537 2.3916
-2.5025 7.6416 2.3916
-2.7670 7.5209 2.3916
-3.0264 7.3917 2.3916
-3.2804 7.2542 2.3916
-3.5289 7.1086 2.3916
-3.7716 6.9552 2.3916
-4.0083 6.7943 2.3916
-4.2388 6.6260 2.3916
-4.4630 6.4505 2.3916
-4.6805 6.2682 2.3916
-4.8914 6.0792 2.3916
-5.0953 5.8838 2.3916
-5.2921 5.6822 2.3916
-5.4817 5.4747 2.3916
-5.6640 5.2612 2.3916
-5.8388 5.0430 2.3916
-6.0059 4.8189 2.3916
-6.1653 4.5897 2.3916
-6.3168 4.3567 2.3916
-6.4603 4.1187 2.3916
-6.5958 3.8765 2.3916
-6.7230 3.6303 2.3916
-6.8420 3.3804 2.3916
-6.9526 3.1271 2.3916
-7.0548 2.8705 2.3916
-7.1485 2.6109 2.3916
-7.2336 2.3487 2.3916
-7.3101 2.0839 2.3916
-7.3779 1.8169 2.3916
-7.4369 1.5479 2.3916
-7.4870 1.2772 2.3916
-7.5284 1.0051 2.3916
-7.5608 0.7317 2.3916
-7.5844 0.4573 2.3916
-7.5990 0.1823 2.3916
-7.6046 -0.0933 2.3916
-7.6012 -0.3690 2.3916
-7.5888 -0.6446 2.3916
-7.5674 -0.9200 2.3916
-7.5370 -1.1948 2.3916
-7.4976 -1.4687 2.3916
-7.4492 -1.7415 2.3916
-7.3918 -2.0130 2.3916
-7.3254 -2.2828 2.3916
-7.2501 -2.5508 2.3916
-7.1658 -2.8166 2.3916
-7.0727 -3.0799 2.3916
-6.9708 -3.3406 2.3916
-6.8601 -3.5983 2.3916
-6.7407 -3.8527 2.3916
-6.6126 -4.1036 2.3916
-6.4759 -4.3508 2.3916
-6.3308 -4.5938 2.3916
-6.1772 -4.8325 2.3916
-6.0153 -5.0666 2.3916
-5.8452 -5.2957 2.3916
-5.6670 -5.5197 2.3916
-5.4808 -5.7382 2.3916
-5.2868 -5.9509 2.3916
-5.0851 -6.1576 2.3916
-4.8758 -6.3581 2.3916
-4.6591 -6.5519 2.3916
-4.4353 -6.7388 2.3916
-4.2044 -6.9187 2.3916
-3.9666 -7.0910 2.3916
-3.7223 -7.2557 2.3916
-3.4715 -7.4125 2.3916
-3.2145 -7.5610 2.3916
-2.9516 -7.7010 2.3916
-2.6830 -7.8323 2.3916
-2.4090 -7.9546 2.3916
-2.1298 -8.0676 2.3916
-1.8458 -8.1711 2.3916
-1.5572 -8.2650 2.3916
-1.2644 -8.3488 2.3916
-0.9677 -8.4225 2.3916
-0.6675 -8.4858 2.3916
-0.3640 -8.5385 2.3916
-0.0577 -8.5805 2.3916
0.2511 -8.6115 2.3916
0.5619 -8.6314 2.3916
0.8744 -8.6400 2.3916
1.1881 -8.6372 2.3916
1.5027 -8.6229 2.3916
1.8176 -8.5970 2.3916
2.1324 -8.5593 2.3916
2.4467 -8.5099 2.3916
2.7601 -8.4486 2.3916
3.0720 -8.3754 2.3916
3.3819 -8.2903 2.3916
3.6894 -8.1933 2.3916
3.9940 -8.0845 2.3916
4.2951 -7.9639 2.3916
4.5924 -7.8315 2.3916
4.8852 -7.6874 2.3916
5.1731 -7.5319 2.3916
5.4556 -7.3649 2.3916
5.7322 -7.1868 2.3916
5.9751 -6.9657 2.3808
6.0086 -6.5188 2.2935
6.1060 -6.1672 2.2392
6.3382 -5.9605 2.2392
6.5627 -5.7444 2.2392
6.7789 -5.5191 2.2392
6.9865 -5.2851 2.2392
7.1851 -5.0427 2.2392
7.3743 -4.7923 2.2392
7.5536 -4.5341 2.2392
7.7229 -4.2687 2.2392
7.8817 -3.9964 2.2392
8.0296 -3.7177 2.2392
8.1666 -3.4330 2.2392
8.2921 -3.1428 2.2392
8.4060 -2.8477 2.2392
8.5082 -2.5480 2.2392
8.5983 -2.2443 2.2392
8.6762 -1.9371 2.2392
8.7417 -1.6270 2.2392
8.7948 -1.3145 2.2392
8.8353 -1.0000 2.2392
8.8632 -0.6843 2.2392
8.8783 -0.3678 2.2392
8.8809 -0.0510 2.2392
8.8707 0.2654 2.2392
8.8479 0.5810 2.2392
8.8126 0.8951 2.2392
8.7648 1.2074 2.2392
8.7046 1.5171 2.2392
8.6323 1.8239 2.2392
8.5480 2.1271 2.2392
8.4518 2.4264 2.2392
8.3441 2.7211 2.2392
8.2250 3.0109 2.2392
8.0948 3.2953 2.2392
7.9538 3.5738 2.2392
7.8023 3.8461 2.2392
7.6406 4.1116 2.2392
7.4691 4.3701 2.2392
7.2881 4.6211 2.2392
7.0979 4.8644 2.2392
6.8990 5.0995 2.2392
6.6918 5.3262 2.2392
6.4953 5.5609 2.2457
6.4897 5.9702 2.3237
6.4339 6.3582 2.3916
6.1812 6.5616 2.3916
5.9218 6.7546 2.3916
5.6562 6.9373 2.3916
5.3847 7.1090 2.3916
5.1079 7.2700 2.3916
4.8263 7.4202 2.3916
4.5402 7.5593 2.3916
4.2502 7.6873 2.3916
3.9567 7.8047 2.3916
3.6601 7.9097 2.3916
3.3610 8.0040 2.3916
3.0598 8.0871 2.3916
2.7568 8.1589 2.3916
0.9583 3.2118 0.9345
0.8424 3.2435 0.9381
0.7253 3.2711 0.9417
0.6073 3.2944 0.9454
0.4885 3.3135 0.9490
0.3691 3.3282 0.9526
0.2493 3.3386 0.9561
0.1291 3.3446 0.9597
0.0088 3.3463 0.9632
-0.1115 3.3436 0.9668
-0.2316 3.3366 0.9702
-0.3515 3.3252 0.9737
-0.4708 3.3095 0.9771
-0.5895 3.2895 0.9804
-0.7073 3.2651 0.9837
-0.8243 3.2366 0.9870
-2.2707 7.7387 2.3916
-2.5394 7.6254 2.3916
-2.8032 7.5035 2.3916
-3.0619 7.3731 2.3916
-3.3152 7.2345 2.3916
-3.5629 7.0879 2.3916
-3.8047 6.9334 2.3916
-4.0406 6.7714 2.3916
-4.2703 6.6021 2.3916
-4.4935 6.4257 2.3916
-4.7101 6.2424 2.3916
-4.9200 6.0525 2.3916
-5.1230 5.8562 2.3916
-5.3188 5.6538 2.3916
-5.5074 5.4455 2.3916
-5.6886 5.2310 2.3916
-5.8624 5.0121 2.3916
-6.0284 4.7879 2.3916
-6.1867 4.5582 2.3916
-6.3371 4.3240 2.3916
-6.4795 4.0854 2.3916
-6.6139 3.8427 2.3916
-6.7400 3.5960 2.3916
-6.8578 3.3456 2.3916
-6.9673 3.0918 2.3916
-7.0683 2.8348 2.3916
-7.1608 2.5748 2.3916
-7.2447 2.3122 2.3916
-7.3200 2.0471 2.3916
-7.3865 1.7798 2.3916
-7.4443 1.5105 2.3916
-7.4933 1.2396 2.3916
-7.5334 0.9673 2.3916
-7.5646 0.6937 2.3916
-7.5869 0.4193 2.3916
-7.6003 0.1441 2.3916
-7.6046 -0.1314 2.3916
-7.6000 -0.4072 2.3916
-7.5864 -0.6828 2.3916
-7.5637 -0.9581 2.3916
-7.5321 -1.2327 2.3916
-7.4914 -1.5065 2.3916
-7.4418 -1.7792 2.3916
-7.3831 -2.0505 2.3916
-7.3155 -2.3201 2.3916
-7.2389 -2.5877 2.3916
-7.1535 -2.8532 2.3916
-7.0591 -3.1162 2.3916
-6.9560 -3.3764 2.3916
-6.8441 -3.6337 2.3916
-6.7234 -3.8877 2.3916
-6.5942 -4.1381 2.3916
-6.4563 -4.3846 2.3916
-6.3100 -4.6271 2.3916
-6.1553 -4.8652 2.3916
-5.9922 -5.0986 2.3916
-5.8210 -5.3271 2.3916
-5.6417 -5.5503 2.3916
-5.4544 -5.7680 2.3916
-5.2593 -5.9799 2.3916
-5.0565 -6.1858 2.3916
-4.8462 -6.3853 2.3916
-4.6286 -6.5782 2.3916
-4.4037 -6.7641 2.3916
-4.1719 -6.9429 2.3916
-3.9332 -7.1143 2.3916
-3.6879 -7.2779 2.3916
-3.4363 -7.4335 2.3916
-3.1785 -7.5809 2.3916
-2.9147 -7.7197 2.3916
-2.6454 -7.8498 2.3916
-2.3706 -7.9708 2.3916
-2.0908 -8.0825 2.3916
-1.8061 -8.1847 2.3916
-1.5169 -8.2772 2.3916
-1.2236 -8.3596 2.3916
-0.9264 -8.4319 2.3916
-0.6256 -8.4937 2.3916
-0.3217 -8.5450 2.3916
-0.0151 -8.5854 2.3916
0.2940 -8.6149 2.3916
0.6051 -8.6332 2.3916
0.9177 -8.6403 2.3916
1.2316 -8.6359 2.3916
1.5462 -8.6200 2.3916
1.8612 -8.5925 2.3916
2.1760 -8.5532 2.3916
2.4902 -8.5021 2.3916
2.8034 -8.4391 2.3916
3.1150 -8.3643 2.3916
3.4246 -8.2776 2.3916
3.7317 -8.1790 2.3916
4.0359 -8.0685 2.3916
4.3365 -7.9462 2.3916
4.6332 -7.8122 2.3916
4.9254 -7.6666 2.3916
5.2126 -7.5094 2.3916
5.4943 -7.3410 2.3916
5.7700 -7.1613 2.3916
5.9799 -6.9020 2.3681
6.0131 -6.4592 2.2822
6.1386 -6.1392 2.2392
6.3698 -5.9311 2.2392
6.5931 -5.7137 2.2392
6.8082 -5.4872 2.2392
7.0146 -5.2521 2.2392
7.2119 -5.0085 2.2392
7.3997 -4.7570 2.2392
7.5777 -4.4978 2.2392
7.7455 -4.2314 2.2392
7.9028 -3.9582 2.2392
8.0493 -3.6786 2.2392
8.1846 -3.3931 2.2392
8.3086 -3.1023 2.2392
8.4209 -2.8064 2.2392
8.5214 -2.5062 2.2392
8.6098 -2.2019 2.2392
8.6860 -1.8943 2.2392
8.7498 -1.5838 2.2392
8.8011 -1.2710 2.2392
8.8399 -0.9564 2.2392
8.8660 -0.6405 2.2392
8.8795 -0.3239 2.2392
8.8802 -0.0072 2.2392
8.8683 0.3092 2.2392
8.8438 0.6246 2.2392
8.8067 0.9385 2.2392
8.7572 1.2504 2.2392
8.6954 1.5598 2.2392
8.6214 1.8661 2.2392
8.5354 2.1688 2.2392
8.4376 2.4674 2.2392
3.9007 -7.3090 2.3916
4.1723 -7.1873 2.3916
4.4398 -7.0551 2.3916
4.7028 -6.9125 2.3916
4.9608 -6.7595 2.3916
5.2133 -6.5963 2.3916
5.4600 -6.4232 2.3916
5.7003 -6.2404 2.3916
5.9339 -6.0479 2.3916
6.0308 -5.7232 2.3413
6.0582 -5.3518 2.2713
6.1702 -5.0706 2.2392
6.3598 -4.8572 2.2392
6.5413 -4.6361 2.2392
6.7142 -4.4077 2.2392
6.8782 -4.1724 2.2392
7.0330 -3.9305 2.2392
7.1784 -3.6824 2.2392
7.3140 -3.4285 2.2392
7.4397 -3.1692 2.2392
7.5550 -2.9049 2.2392
7.6599 -2.6360 2.2392
7.7541 -2.3630 2.2392
7.8374 -2.0864 2.2392
7.9098 -1.8066 2.2392
7.9710 -1.5241 2.2392
8.0209 -1.2393 2.2392
8.0595 -0.9527 2.2392
8.0866 -0.6649 2.2392
8.1023 -0.3763 2.2392
8.1066 -0.0874 2.2392
8.0994 0.2013 2.2392
8.0807 0.4894 2.2392
8.0507 0.7762 2.2392
8.0095 1.0614 2.2392
7.9570 1.3445 2.2392
7.8935 1.6251 2.2392
7.8190 1.9025 2.2392
7.7338 2.1765 2.2392
7.6381 2.4465 2.2392
7.5320 2.7122 2.2392
7.4158 2.9731 2.2392
7.2897 3.2289 2.2392
7.1540 3.4791 2.2392
7.0089 3.7233 2.2392
6.8549 3.9613 2.2392
6.6921 4.1927 2.2392
6.5208 4.4170 2.2392
6.4493 4.7130 2.2773
6.4506 5.0769 2.3470
6.3657 5.3891 2.3916
6.1506 5.5962 2.3916
5.9283 5.7942 2.3916
5.6994 5.9833 2.3916
5.4641 6.1631 2.3916
5.2229 6.3334 2.3916
4.9763 6.4942 2.3916
4.7245 6.6451 2.3916
4.4682 6.7861 2.3916
4.2075 6.9172 2.3916
3.9431 7.0381 2.3916
3.6752 7.1488 2.3916
3.4044 7.2494 2.3916
3.1310 7.3397 2.3916
2.8553 7.4196 2.3916
2.5779 7.4893 2.3916
0.8984 2.9498 0.9346
0.7919 2.9795 0.9379
0.6843 3.0054 0.9412
0.5759 3.0273 0.9445
0.4667 3.0454 0.9479
0.3570 3.0594 0.9512
0.2468 3.0695 0.9545
0.1363 3.0756 0.9577
0.0256 3.0777 0.9610
-0.0851 3.0758 0.9642
-0.1956 3.0698 0.9674
-0.3059 3.0599 0.9706
-0.4157 3.0460 0.9737
-0.5249 3.0281 0.9768
-0.6335 3.0063 0.9799
-0.7412 2.9806 0.9828
-0.8478 2.9510 0.9858
-2.3063 7.0578 2.3916
-2.5512 6.9479 2.3916
-2.7915 6.8301 2.3916
-3.0270 6.7045 2.3916
-3.2574 6.5714 2.3916
-3.4825 6.4310 2.3916
-3.7022 6.2834 2.3916
-3.9162 6.1290 2.3916
-4.1244 5.9678 2.3916
-4.3265 5.8002 2.3916
-4.5224 5.6262 2.3916
-4.7120 5.4463 2.3916
-4.8950 5.2605 2.3916
-5.0713 5.0692 2.3916
-5.2409 4.8724 2.3916
-5.4035 4.6705 2.3916
-5.5591 4.4638 2.3916
-5.7074 4.2525 2.3916
-5.8485 4.0366 2.3916
-5.9821 3.8166 2.3916
-6.1082 3.5921 2.3916
-6.2267 3.3645 2.3916
-6.3375 3.1329 2.3916
-6.4405 2.8983 2.3916
-6.5357 2.6606 2.3916
-6.6229 2.4200 2.3916
-6.7021 2.1769 2.3916
-6.7732 1.9315 2.3916
-6.8362 1.6840 2.3916
-6.8911 1.4346 2.3916
-6.9377 1.1836 2.3916
-6.9760 0.9312 2.3916
-7.0060 0.6777 2.3916
-7.0277 0.4233 2.3916
-7.0411 0.1682 2.3916
-7.0460 -0.0872 2.3916
-7.0426 -0.3429 2.3916
-7.0307 -0.5984 2.3916
-7.0105 -0.8537 2.3916
-6.9818 -1.1083 2.3916
-6.9447 -1.3622 2.3916
-6.8992 -1.6149 2.3916
-6.8454 -1.8663 2.3916
-6.7831 -2.1162 2.3916
-6.7126 -2.3642 2.3916
-6.6337 -2.6102 2.3916
-6.5466 -2.8538 2.3916
-6.4513 -3.0949 2.3916
-6.3478 -3.3330 2.3916
-6.2363 -3.5681 2.3916
-6.1167 -3.7998 2.3916
-5.9891 -4.0280 2.3916
-5.8537 -4.2523 2.3916
-5.7105 -4.4723 2.3916
-5.5597 -4.6879 2.3916
-5.4012 -4.8990 2.3916
-5.2353 -5.1051 2.3916
-5.0621 -5.3060 2.3916
-4.8816 -5.5015 2.3916
-4.6941 -5.6913 2.3916
-4.4996 -5.8752 2.3916
-4.2984 -6.0528 2.3916
-4.0906 -6.2240 2.3916
-3.8764 -6.3885 2.3916
-3.6560 -6.5460 2.3916
-3.4295 -6.6963 2.3916
-3.1972 -6.8391 2.3916
-2.9593 -6.9742 2.3916
-2.7161 -7.1015 2.3916
-2.4677 -7.2205 2.3916
-2.2145 -7.3311 2.3916
-1.9567 -7.4332 2.3916
-1.6945 -7.5264 2.3916
-1.4283 -7.6106 2.3916
-1.1584 -7.6856 2.3916
-0.8850 -7.7511 2.3916
-0.6085 -7.8070 2.3916
-0.3292 -7.8532 2.3916
-0.0475 -7.8894 2.3916
0.2363 -7.9155 2.3916
0.5219 -7.9314 2.3916
0.8088 -7.9370 2.3916
1.0966 -7.9320 2.3916
1.3851 -7.9165 2.3916
1.6737 -7.8904 2.3916
1.9621 -7.8535 2.3916
2.2498 -7.8058 2.3916
2.5365 -7.7474 2.3916
2.8216 -7.6781 2.3916
3.1049 -7.5979 2.3916
3.3857 -7.5070 2.3916
3.6638 -7.4052 2.3916
3.9385 -7.2928 2.3916
4.2096 -7.1696 2.3916
4.4765 -7.0360 2.3916
4.7388 -6.8919 2.3916
4.9961 -6.7375 2.3916
5.2478 -6.5730 2.3916
5.4936 -6.3985 2.3916
5.7331 -6.2143 2.3916
5.9657 -6.0205 2.3916
6.0347 -5.6705 2.3312
6.0619 -5.3019 2.2621
6.1969 -5.0417 2.2392
6.3855 -4.8270 2.2392
6.5657 -4.6049 2.2392
6.7374 -4.3756 2.2392
6.9002 -4.1393 2.2392
7.0537 -3.8965 2.2392
7.1978 -3.6476 2.2392
7.3320 -3.3929 2.2392
7.4562 -3.1329 2.2392
7.5702 -2.8679 2.2392
7.6736 -2.5985 2.2392
7.7663 -2.3250 2.2392
7.8481 -2.0479 2.2392
7.9189 -1.7676 2.2392
7.9785 -1.4847 2.2392
8.0269 -1.1997 2.2392
8.0639 -0.9129 2.2392
8.0895 -0.6250 2.2392
8.1036 -0.3363 2.2392
8.1063 -0.0474 2.2392
8.0975 0.2413 2.2392
8.0773 0.5292 2.2392
8.0457 0.8158 2.2392
8.0029 1.1008 2.2392
7.9488 1.3835 2.2392
7.8838 1.6637 2.2392
7.8078 1.9407 2.2392
7.7212 2.2141 2.2392
7.6240 2.4836 2.2392
7.5165 2.7487 2.2392
7.3989 3.0089 2.2392
7.2714 3.2639 2.2392
7.1344 3.5132 2.2392
6.9881 3.7567 2.2392
6.8328 3.9937 2.2392
6.6688 4.2242 2.2392
6.4965 4.4476 2.2392
6.4495 4.7622 2.2865
6.4507 5.1288 2.3572
6.3364 5.4185 2.3916
6.1202 5.6241 2.3916
5.8970 5.8210 2.3916
5.6672 6.0088 2.3916
5.4310 6.1873 2.3916
5.1891 6.3563 2.3916
4.9417 6.5156 2.3916
4.6893 6.6652 2.3916
4.4323 6.8049 2.3916
4.1711 6.9345 2.3916
3.9062 7.0540 2.3916
3.6379 7.1634 2.3916
3.3667 7.2625 2.3916
3.0929 7.3513 2.3916
2.8170 7.4299 2.3916
2.5394 7.4981 2.3916
0.8837 2.9541 0.9350
0.7770 2.9833 0.9383
0.6694 3.0086 0.9417
0.5608 3.0301 0.9450
0.4516 3.0475 0.9483
0.3417 3.0611 0.9516
0.2315 3.0706 0.9549
0.1209 3.0761 0.9582
0.0103 3.0777 0.9614
-0.1004 3.0752 0.9647
-0.2109 3.0687 0.9679
-0.3211 3.0582 0.9710
-0.4309 3.0438 0.9742
-0.5400 3.0254 0.9772
-0.6484 3.0030 0.9803
-0.7560 2.9767 0.9833
-0.8625 2.9466 0.9862
-2.3404 7.0430 2.3916
-2.5847 6.9321 2.3916
-2.8244 6.8131 2.3916
-3.0592 6.6865 2.3916
-3.2889 6.5524 2.3916
-3.5133 6.4110 2.3916
-3.7322 6.2625 2.3916
-3.9454 6.1070 2.3916
-4.1527 5.9450 2.3916
-4.3540 5.7764 2.3916
-4.5490 5.6017 2.3916
-4.7377 5.4209 2.3916
-4.9198 5.2343 2.3916
-5.0952 5.0422 2.3916
-5.2638 4.8448 2.3916
-5.4255 4.6422 2.3916
-5.5800 4.4348 2.3916
-5.7274 4.2227 2.3916
-5.8674 4.0063 2.3916
-6.0000 3.7853 2.3916
-6.1251 3.5613 2.3916
-6.2425 3.3325 2.3916
-6.3522 3.1006 2.3916
-6.4542 2.8655 2.3916
-6.5482 2.6274 2.3916
-6.6343 2.3865 2.3916
-6.7124 2.1431 2.3916
-6.7824 1.8974 2.3916
-6.8443 1.6496 2.3916
-6.8980 1.3999 2.3916
-6.9435 1.1487 2.3916
-6.9807 0.8962 2.3916
-7.0095 0.6425 2.3916
-7.0301 0.3880 2.3916
-7.0423 0.1329 2.3916
-7.0461 -0.1226 2.3916
-7.0415 -0.3783 2.3916
-7.0284 -0.6338 2.3916
-7.0070 -0.8889 2.3916
-6.9772 -1.1435 2.3916
-6.9389 -1.3972 2.3916
-6.8923 -1.6498 2.3916
-6.8372 -1.9010 2.3916
-6.7739 -2.1507 2.3916
-6.7022 -2.3984 2.3916
-6.6222 -2.6441 2.3916
-6.5339 -2.8874 2.3916
-6.4375 -3.1280 2.3916
-6.3329 -3.3658 2.3916
-6.2202 -3.6004 2.3916
-6.0995 -3.8317 2.3916
-5.9709 -4.0591 2.3916
-5.8344 -4.2829 2.3916
-5.6901 -4.5024 2.3916
-5.5382 -4.7175 2.3916
-5.3787 -4.9278 2.3916
-5.2118 -5.1332 2.3916
-5.0375 -5.3334 2.3916
-4.8561 -5.5282 2.3916
-4.6676 -5.7171 2.3916
-4.4722 -5.9002 2.3916
-4.2700 -6.0769 2.3916
-4.0613 -6.2472 2.3916
-3.8463 -6.4107 2.3916
-3.6250 -6.5672 2.3916
-3.3977 -6.7165 2.3916
-3.1646 -6.8583 2.3916
-2.9260 -6.9923 2.3916
-2.6820 -7.1184 2.3916
-2.4330 -7.2363 2.3916
-2.1791 -7.3458 2.3916
-1.9206 -7.4466 2.3916
-1.6579 -7.5386 2.3916
-1.3911 -7.6215 2.3916
-1.1207 -7.6952 2.3916
-0.8469 -7.7594 2.3916
-0.5700 -7.8140 2.3916
-0.2903 -7.8588 2.3916
-0.0083 -7.8936 2.3916
0.2758 -7.9183 2.3916
0.5615 -7.9328 2.3916
0.8486 -7.9369 2.3916
1.1365 -7.9305 2.3916
1.4250 -7.9135 2.3916
1.7136 -7.8859 2.3916
2.0019 -7.8475 2.3916
2.2896 -7.7984 2.3916
2.5760 -7.7384 2.3916
2.8610 -7.6676 2.3916
3.1439 -7.5860 2.3916
3.4244 -7.4935 2.3916
3.7020 -7.3903 2.3916
3.9763 -7.2764 2.3916
4.2468 -7.1518 2.3916
4.5131 -7.0167 2.3916
4.7747 -6.8711 2.3916
5.0313 -6.7153 2.3916
5.2822 -6.5494 2.3916
5.5272 -6.3736 2.3916
5.7657 -6.1880 2.3916
5.9974 -5.9930 2.3916
6.0386 -5.6183 2.3212
6.0663 -5.2531 2.2534
6.2235 -5.0123 2.2392
6.4109 -4.7967 2.2392
6.5900 -4.5736 2.2392
6.7605 -4.3433 2.2392
6.9220 -4.1061 2.2392
7.0743 -3.8624 2.2392
7.2170 -3.6127 2.2392
7.3498 -3.3572 2.2392
7.4726 -3.0965 2.2392
7.5851 -2.8309 2.2392
7.6871 -2.5608 2.2392
7.7783 -2.2868 2.2392
7.8586 -2.0092 2.2392
7.9278 -1.7286 2.2392
7.9859 -1.4454 2.2392
8.0327 -1.1601 2.2392
8.0681 -0.8731 2.2392
8.0921 -0.5850 2.2392
8.1047 -0.2963 2.2392
8.1057 -0.0074 2.2392
8.0954 0.2812 2.2392
8.0736 0.5689 2.2392
8.0404 0.8554 2.2392
7.9960 1.1401 2.2392
7.9405 1.4225 2.2392
7.8739 1.7022 2.2392
7.7965 1.9788 2.2392
7.7083 2.2517 2.2392
3.5988 -6.7340 2.3916
3.8482 -6.6204 2.3916
4.0937 -6.4972 2.3916
4.3349 -6.3645 2.3916
4.5714 -6.2223 2.3916
4.8029 -6.0709 2.3916
5.0289 -5.9105 2.3916
5.2491 -5.7411 2.3916
5.4630 -5.5631 2.3916
5.6702 -5.3766 2.3916
5.8705 -5.1819 2.3916
6.0517 -4.9695 2.3870
6.0760 -4.6372 2.3255
6.0987 -4.3195 2.2699
6.1745 -4.0507 2.2392
6.3245 -3.8341 2.2392
6.4660 -3.6115 2.2392
6.5989 -3.3832 2.2392
6.7228 -3.1497 2.2392
6.8377 -2.9113 2.2392
6.9431 -2.6684 2.2392
7.0390 -2.4213 2.2392
7.1251 -2.1706 2.2392
7.2014 -1.9165 2.2392
7.2676 -1.6595 2.2392
7.3236 -1.4001 2.2392
7.3694 -1.1386 2.2392
7.4049 -0.8755 2.2392
7.4299 -0.6113 2.2392
7.4445 -0.3463 2.2392
7.4487 -0.0810 2.2392
7.4425 0.1841 2.2392
7.4258 0.4486 2.2392
7.3988 0.7121 2.2392
7.3614 0.9741 2.2392
7.3139 1.2342 2.2392
7.2563 1.4920 2.2392
7.1887 1.7471 2.2392
7.1113 1.9990 2.2392
7.0242 2.2474 2.2392
6.9276 2.4920 2.2392
6.8218 2.7321 2.2392
6.7070 2.9677 2.2392
6.5833 3.1982 2.2392
6.4511 3.4235 2.2392
6.4103 3.7006 2.2747
6.4122 4.0132 2.3302
6.4137 4.3405 2.3914
6.2393 4.5547 2.3916
6.0567 4.7617 2.3916
5.8668 4.9613 2.3916
5.6700 5.1530 2.3916
5.4665 5.3367 2.3916
5.2568 5.5121 2.3916
5.0411 5.6791 2.3916
4.8200 5.8375 2.3916
4.5937 5.9871 2.3916
4.3627 6.1278 2.3916
4.1273 6.2595 2.3916
3.8878 6.3819 2.3916
3.6447 6.4952 2.3916
3.3983 6.5991 2.3916
3.1491 6.6936 2.3916
2.8973 6.7788 2.3916
2.6434 6.8544 2.3916
0.9304 2.6968 0.9320
0.8330 2.7278 0.9350
0.7344 2.7553 0.9381
0.6349 2.7792 0.9412
0.5346 2.7995 0.9443
0.4337 2.8162 0.9473
0.3322 2.8291 0.9504
0.2303 2.8385 0.9534
0.1281 2.8441 0.9565
0.0257 2.8460 0.9595
-0.0766 2.8442 0.9625
-0.1789 2.8387 0.9654
-0.2808 2.8295 0.9684
-0.3824 2.8167 0.9713
-0.4834 2.8001 0.9741
-0.5838 2.7800 0.9769
-0.6834 2.7562 0.9797
-0.7820 2.7288 0.9824
-0.8796 2.6979 0.9851
-2.3635 6.4496 2.3916
-2.5872 6.3414 2.3916
-2.8064 6.2261 2.3916
-3.0210 6.1036 2.3916
-3.2307 5.9743 2.3916
-3.4355 5.8382 2.3916
-3.6350 5.6957 2.3916
-3.8291 5.5468 2.3916
-4.0176 5.3918 2.3916
-4.2004 5.2309 2.3916
-4.3773 5.0643 2.3916
-4.5482 4.8923 2.3916
-4.7129 4.7149 2.3916
-4.8712 4.5325 2.3916
-5.0231 4.3452 2.3916
-5.1684 4.1532 2.3916
-5.3071 3.9569 2.3916
-5.4389 3.7563 2.3916
-5.5638 3.5519 2.3916
-5.6816 3.3434 2.3916
-5.7924 3.1316 2.3916
-5.8960 2.9160 2.3916
-5.9923 2.6981 2.3916
-6.0812 2.4767 2.3916
-6.1627 2.2532 2.3916
-6.2367 2.0266 2.3916
-6.3031 1.7981 2.3916
-6.3620 1.5676 2.3916
-6.4131 1.3354 2.3916
-6.4566 1.1016 2.3916
-6.4923 0.8666 2.3916
-6.5202 0.6305 2.3916
-6.5403 0.3935 2.3916
-6.5526 0.1560 2.3916
-6.5570 -0.0820 2.3916
-6.5536 -0.3200 2.3916
-6.5422 -0.5580 2.3916
-6.5230 -0.7956 2.3916
-6.4959 -1.0327 2.3916
-6.4609 -1.2689 2.3916
-6.4181 -1.5041 2.3916
-6.3674 -1.7380 2.3916
-6.3089 -1.9705 2.3916
-6.2426 -2.2011 2.3916
-6.1686 -2.4298 2.3916
-6.0868 -2.6562 2.3916
-5.9974 -2.8800 2.3916
-5.9004 -3.1014 2.3916
-5.7958 -3.3196 2.3916
-5.6838 -3.5347 2.3916
-5.5643 -3.7462 2.3916
-5.4376 -3.9541 2.3916
-5.3036 -4.1581 2.3916
-5.1625 -4.3579 2.3916
-5.0143 -4.5532 2.3916
-4.8593 -4.7439 2.3916
-4.6974 -4.9297 2.3916
-4.5289 -5.1103 2.3916
-4.3539 -5.2856 2.3916
-4.1725 -5.4552 2.3916
-3.9848 -5.6190 2.3916
-3.7911 -5.7766 2.3916
-3.5916 -5.9280 2.3916
-3.3863 -6.0728 2.3916
-3.1755 -6.2108 2.3916
-2.9594 -6.3418 2.3916
-2.7382 -6.4656 2.3916
-2.5121 -6.5820 2.3916
-2.2813 -6.6907 2.3916
-2.0462 -6.7916 2.3916
-1.8069 -6.8844 2.3916
-1.5637 -6.9690 2.3916
-1.3169 -7.0452 2.3916
-1.0668 -7.1127 2.3916
-0.8135 -7.1716 2.3916
-0.5576 -7.2214 2.3916
-0.2992 -7.2623 2.3916
-0.0387 -7.2939 2.3916
0.2237 -7.3161 2.3916
0.4874 -7.3289 2.3916
0.7523 -7.3322 2.3916
1.0180 -7.3257 2.3916
1.2840 -7.3095 2.3916
1.5501 -7.2835 2.3916
1.8158 -7.2476 2.3916
2.0808 -7.2019 2.3916
2.3447 -7.1461 2.3916
2.6071 -7.0805 2.3916
2.8676 -7.0049 2.3916
3.1258 -6.9194 2.3916
3.3812 -6.8240 2.3916
3.6336 -6.7188 2.3916
3.8824 -6.6039 2.3916
4.1273 -6.4794 2.3916
4.3679 -6.3453 2.3916
4.6038 -6.2019 2.3916
4.8345 -6.0493 2.3916
5.0597 -5.8876 2.3916
5.2791 -5.7170 2.3916
5.4921 -5.5378 2.3916
5.6984 -5.3501 2.3916
5.8977 -5.1543 2.3916
6.0552 -4.9226 2.3781
6.0793 -4.5923 2.3175
6.1017 -4.2766 2.2626
6.1958 -4.0212 2.2392
6.3446 -3.8036 2.2392
6.4849 -3.5802 2.2392
6.6166 -3.3512 2.2392
6.7393 -3.1170 2.2392
6.8528 -2.8779 2.2392
6.9569 -2.6344 2.2392
7.0515 -2.3868 2.2392
7.1363 -2.1356 2.2392
7.2111 -1.8811 2.2392
7.2759 -1.6237 2.2392
7.3306 -1.3640 2.2392
7.3749 -1.1023 2.2392
7.4090 -0.8390 2.2392
7.4326 -0.5746 2.2392
7.4457 -0.3096 2.2392
7.4485 -0.0443 2.2392
7.4408 0.2207 2.2392
7.4227 0.4851 2.2392
7.3942 0.7484 2.2392
7.3555 1.0102 2.2392
7.3065 1.2700 2.2392
7.2475 1.5275 2.2392
7.1785 1.7822 2.2392
7.0998 2.0336 2.2392
7.0114 2.2815 2.2392
6.9135 2.5255 2.2392
6.8065 2.7650 2.2392
6.6904 2.9999 2.2392
6.5655 3.2298 2.2392
6.4321 3.4540 2.2392
6.4106 3.7432 2.2820
6.4125 4.0576 2.3383
6.3905 4.3704 2.3916
6.2145 4.5837 2.3916
6.0309 4.7899 2.3916
5.8400 4.9883 2.3916
5.6422 5.1789 2.3916
5.4378 5.3615 2.3916
5.2272 5.5358 2.3916
5.0108 5.7016 2.3916
4.7890 5.8588 2.3916
4.5620 6.0071 2.3916
4.3304 6.1466 2.3916
4.0943 6.2770 2.3916
3.8543 6.3982 2.3916
3.6108 6.5098 2.3916
3.3640 6.6127 2.3916
3.1144 6.7060 2.3916
2.8623 6.7898 2.3916
2.6081 6.8641 2.3916
0.9170 2.7013 0.9324
0.8194 2.7318 0.9355
0.7207 2.7588 0.9385
0.6211 2.7822 0.9416
0.5207 2.8020 0.9447
0.4197 2.8182 0.9477
0.3181 2.8307 0.9508
0.2161 2.8395 0.9539
0.1139 2.8446 0.9569
0.0115 2.8460 0.9599
-0.0908 2.8437 0.9629
-0.1930 2.8377 0.9658
-0.2949 2.8280 0.9688
-0.3964 2.8146 0.9716
-0.4974 2.7976 0.9745
-0.5976 2.7769 0.9773
-0.6971 2.7526 0.9801
-0.7956 2.7247 0.9828
-2.1675 6.5367 2.3916
-2.3948 6.4350 2.3916
-2.6178 6.3259 2.3916
-2.8364 6.2095 2.3916
-3.0503 6.0861 2.3916
-3.2594 5.9558 2.3916
-3.4634 5.8189 2.3916
-3.6622 5.6754 2.3916
-3.8555 5.5257 2.3916
-4.0433 5.3699 2.3916
-4.2253 5.2082 2.3916
-4.4013 5.0408 2.3916
-4.5714 4.8680 2.3916
-4.7352 4.6899 2.3916
-4.8926 4.5068 2.3916
-5.0436 4.3189 2.3916
-5.1880 4.1263 2.3916
-5.3257 3.9294 2.3916
-5.4566 3.7282 2.3916
-5.5805 3.5234 2.3916
-5.6974 3.3144 2.3916
-5.8072 3.1024 2.3916
-5.9097 2.8861 2.3916
-6.0050 2.6676 2.3916
-6.0929 2.4461 2.3916
-6.1734 2.2214 2.3916
-6.2463 1.9951 2.3916
-6.3117 1.7663 2.3916
-6.3695 1.5356 2.3916
-6.4196 1.3031 2.3916
-6.4620 1.0692 2.3916
-6.4966 0.8340 2.3916
-6.5235 0.5977 2.3916
-6.5425 0.3607 2.3916
-6.5537 0.1231 2.3916
-6.5570 -0.1149 2.3916
-6.5525 -0.3530 2.3916
-6.5400 -0.5909 2.3916
-6.5197 -0.8285 2.3916
-6.4915 -1.0654 2.3916
-6.4555 -1.3015 2.3916
-6.4115 -1.5366 2.3916
-6.3598 -1.7703 2.3916
-6.3002 -2.0025 2.3916
-6.2328 -2.2329 2.3916
-6.1577 -2.4613 2.3916
-6.0749 -2.6873 2.3916
-5.9844 -2.9109 2.3916
-5.8863 -3.1317 2.3916
-5.7807 -3.3496 2.3916
-5.6677 -3.5642 2.3916
-5.5472 -3.7752 2.3916
-5.4195 -3.9826 2.3916
-5.2845 -4.1860 2.3916
-5.1424 -4.3852 2.3916
-4.9933 -4.5799 2.3916
-4.8373 -4.7699 2.3916
-4.6745 -4.9550 2.3916
-4.5051 -5.1350 2.3916
-4.3291 -5.3094 2.3916
-4.1469 -5.4782 2.3916
-3.9584 -5.6412 2.3916
-3.7639 -5.7980 2.3916
-3.5635 -5.9484 2.3916
-3.3574 -6.0923 2.3916
-3.1459 -6.2294 2.3916
-2.9290 -6.3594 2.3916
-2.7071 -6.4822 2.3916
-2.4804 -6.5975 2.3916
-2.2490 -6.7051 2.3916
-2.0133 -6.8049 2.3916
-1.7735 -6.8966 2.3916
-1.5298 -6.9800 2.3916
-1.2825 -7.0550 2.3916
-1.0319 -7.1214 2.3916
-0.7783 -7.1790 2.3916
-0.5220 -7.2276 2.3916
-0.2632 -7.2672 2.3916
-0.0024 -7.2975 2.3916
0.2601 -7.3185 2.3916
0.5241 -7.3300 2.3916
0.7891 -7.3318 2.3916
1.0548 -7.3241 2.3916
1.3209 -7.3065 2.3916
1.5869 -7.2791 2.3916
1.8526 -7.2419 2.3916
2.1174 -7.1947 2.3916
2.3811 -7.1376 2.3916
2.6433 -7.0706 2.3916
2.9035 -6.9936 2.3916
3.1613 -6.9068 2.3916
3.4163 -6.8100 2.3916
3.6682 -6.7035 2.3916
3.9166 -6.5872 2.3916
4.1609 -6.4614 2.3916
4.4009 -6.3260 2.3916
4.6360 -6.1813 2.3916
4.8660 -6.0274 2.3916
5.0905 -5.8645 2.3916
5.3089 -5.6927 2.3916
5.5210 -5.5123 2.3916
5.7264 -5.3235 2.3916
5.9247 -5.1266 2.3916
6.0586 -4.8759 2.3694
6.0825 -4.5478 2.3096
6.1047 -4.2339 2.2554
6.2169 -3.9914 2.2392
6.3645 -3.7731 2.2392
6.5037 -3.5488 2.2392
6.6341 -3.3191 2.2392
6.7556 -3.0842 2.2392
6.8678 -2.8445 2.2392
6.9706 -2.6004 2.2392
7.0638 -2.3522 2.2392
7.1472 -2.1005 2.2392
7.2207 -1.8456 2.2392
7.2841 -1.5879 2.2392
7.3373 -1.3279 2.2392
7.3803 -1.0659 2.2392
7.4128 -0.8024 2.2392
7.4350 -0.5379 2.2392
7.4467 -0.2729 2.2392
7.4480 -0.0076 2.2392
7.4389 0.2574 2.2392
7.4193 0.5217 2.2392
7.3894 0.7848 2.2392
7.3493 1.0463 2.2392
7.2989 1.3058 2.2392
7.2385 1.5629 2.2392
7.1682 1.8172 2.2392
7.0881 2.0682 2.2392
3.3374 -6.2361 2.3916
3.5676 -6.1297 2.3916
3.7942 -6.0145 2.3916
4.0167 -5.8906 2.3916
4.2349 -5.7580 2.3916
4.4483 -5.6169 2.3916
4.6566 -5.4675 2.3916
4.8594 -5.3100 2.3916
5.0564 -5.1446 2.3916
5.2473 -4.9714 2.3916
5.4317 -4.7907 2.3916
5.6093 -4.6027 2.3916
5.7797 -4.4078 2.3916
5.9428 -4.2061 2.3916
6.0895 -3.9924 2.3883
6.1098 -3.7017 2.3397
6.1289 -3.4212 2.2959
6.1468 -3.1497 2.2565
6.2138 -2.9096 2.2392
6.3292 -2.6934 2.2427
6.4164 -2.4648 2.2392
6.5046 -2.2365 2.2392
6.5838 -2.0049 2.2392
6.6540 -1.7702 2.2392
6.7150 -1.5329 2.2392
6.7666 -1.2934 2.2392
6.8089 -1.0520 2.2392
6.8416 -0.8091 2.2392
6.8648 -0.5651 2.2392
6.8785 -0.3205 2.2392
6.8826 -0.0756 2.2392
6.8771 0.1692 2.2392
6.8620 0.4135 2.2392
6.8375 0.6568 2.2392
6.8035 0.8988 2.2392
6.7601 1.1392 2.2392
6.7074 1.3774 2.2392
6.6456 1.6132 2.2392
6.5748 1.8461 2.2392
6.4951 2.0758 2.2392
6.4067 2.3020 2.2392
6.3682 2.5478 2.2600
6.3713 2.8163 2.2995
6.3740 3.0932 2.3433
6.3758 3.3800 2.3916
6.2380 3.5973 2.3916
6.0922 3.8089 2.3916
5.9387 4.0143 2.3916
5.7779 4.2133 2.3916
5.6099 4.4057 2.3916
5.4352 4.5912 2.3916
5.2540 4.7695 2.3916
5.0666 4.9405 2.3916
4.8734 5.1040 2.3916
4.6746 5.2598 2.3916
4.4707 5.4076 2.3916
4.2620 5.5474 2.3916
4.0487 5.6790 2.3916
3.8313 5.8022 2.3916
3.6101 5.9171 2.3916
3.3854 6.0234 2.3916
3.1576 6.1211 2.3916
2.9270 6.2102 2.3916
2.6940 6.2906 2.3916
0.9559 2.4734 0.9298
0.8664 2.5054 0.9326
0.7759 2.5342 0.9354
0.6843 2.5597 0.9383
0.5919 2.5819 0.9412
0.4987 2.6008 0.9440
0.4049 2.6162 0.9469
0.3105 2.6283 0.9497
0.2159 2.6369 0.9525
0.1209 2.6421 0.9554
0.0258 2.6439 0.9582
-0.0693 2.6422 0.9609
-0.1643 2.6371 0.9637
-0.2590 2.6286 0.9664
-0.3534 2.6166 0.9691
-0.4472 2.6013 0.9717
-0.5405 2.5825 0.9744
-0.6330 2.5604 0.9769
-0.7247 2.5350 0.9794
-0.8153 2.5063 0.9819
-2.1987 6.0117 2.3916
-2.4076 5.9120 2.3916
-2.6125 5.8054 2.3916
-2.8130 5.6922 2.3916
-3.0092 5.5725 2.3916
-3.2007 5.4464 2.3916
-3.3873 5.3142 2.3916
-3.5690 5.1761 2.3916
-3.7455 5.0321 2.3916
-3.9167 4.8826 2.3916
-4.0824 4.7277 2.3916
-4.2424 4.5676 2.3916
-4.3967 4.4025 2.3916
-4.5451 4.2326 2.3916
-4.6875 4.0581 2.3916
-4.8237 3.8792 2.3916
-4.9537 3.6961 2.3916
-5.0773 3.5090 2.3916
-5.1944 3.3182 2.3916
-5.3050 3.1237 2.3916
-5.4088 2.9259 2.3916
-5.5060 2.7246 2.3916
-5.5963 2.5211 2.3916
-5.6797 2.3143 2.3916
-5.7561 2.1054 2.3916
-5.8254 1.8937 2.3916
-5.8877 1.6803 2.3916
-5.9428 1.4650 2.3916
-5.9907 1.2475 2.3916
-6.0314 1.0289 2.3916
-6.0648 0.8094 2.3916
-6.0909 0.5890 2.3916
-6.1096 0.3677 2.3916
-6.1209 0.1451 2.3916
-6.1249 -0.0773 2.3916
-6.1214 -0.2998 2.3916
-6.1106 -0.5222 2.3916
-6.0923 -0.7440 2.3916
-6.0667 -0.9659 2.3916
-6.0336 -1.1864 2.3916
-5.9932 -1.4061 2.3916
-5.9454 -1.6248 2.3916
-5.8902 -1.8417 2.3916
-5.8278 -2.0571 2.3916
-5.7581 -2.2706 2.3916
-5.6811 -2.4818 2.3916
-5.5970 -2.6907 2.3916
-5.5058 -2.8970 2.3916
-5.4075 -3.1005 2.3916
-5.3022 -3.3009 2.3916
-5.1900 -3.4980 2.3916
-5.0710 -3.6916 2.3916
-4.9452 -3.8814 2.3916
-4.8128 -4.0673 2.3916
-4.6738 -4.2489 2.3916
-4.5284 -4.4261 2.3916
-4.3767 -4.5987 2.3916
-4.2188 -4.7664 2.3916
-4.0549 -4.9290 2.3916
-3.8851 -5.0863 2.3916
-3.7094 -5.2380 2.3916
-3.5282 -5.3839 2.3916
-3.3416 -5.5239 2.3916
-3.1497 -5.6578 2.3916
-2.9527 -5.7852 2.3916
-2.7509 -5.9060 2.3916
-2.5444 -6.0201 2.3916
-2.3334 -6.1271 2.3916
-2.1182 -6.2270 2.3916
-1.8990 -6.3195 2.3916
-1.6759 -6.4045 2.3916
-1.4494 -6.4818 2.3916
-1.2196 -6.5512 2.3916
-0.9868 -6.6126 2.3916
-0.7512 -6.6658 2.3916
-0.5132 -6.7106 2.3916
-0.2730 -6.7470 2.3916
-0.0310 -6.7749 2.3916
0.2126 -6.7940 2.3916
0.4575 -6.8044 2.3916
0.7032 -6.8058 2.3916
0.9496 -6.7983 2.3916
1.1962 -6.7818 2.3916
1.4427 -6.7562 2.3916
1.6888 -6.7214 2.3916
1.9341 -6.6775 2.3916
2.1783 -6.6244 2.3916
2.4210 -6.5621 2.3916
2.6619 -6.4907 2.3916
2.9005 -6.4102 2.3916
3.1365 -6.3206 2.3916
3.3695 -6.2219 2.3916
3.5992 -6.1143 2.3916
3.8253 -5.9979 2.3916
4.0472 -5.8727 2.3916
4.2647 -5.7389 2.3916
4.4774 -5.5967 2.3916
4.6850 -5.4462 2.3916
4.8870 -5.2876 2.3916
5.0832 -5.1211 2.3916
5.2732 -4.9468 2.3916
5.4567 -4.7651 2.3916
5.6333 -4.5762 2.3916
5.8028 -4.3803 2.3916
5.9647 -4.1777 2.3916
6.0924 -3.9515 2.3813
6.1126 -3.6623 2.3334
6.1314 -3.3831 2.2902
6.1510 -3.1136 2.2520
6.2289 -2.8794 2.2392
6.3333 -2.6584 2.2392
6.4291 -2.4334 2.2392
6.5161 -2.2047 2.2392
6.5941 -1.9726 2.2392
6.6630 -1.7375 2.2392
6.7227 -1.4999 2.2392
6.7730 -1.2601 2.2392
6.8140 -1.0184 2.2392
6.8454 -0.7753 2.2392
6.8673 -0.5313 2.2392
6.8796 -0.2866 2.2392
6.8824 -0.0417 2.2392
6.8756 0.2031 2.2392
6.8592 0.4472 2.2392
6.8333 0.6904 2.2392
6.7980 0.9322 2.2392
6.7534 1.1723 2.2392
6.6994 1.4102 2.2392
6.6364 1.6456 2.2392
6.5643 1.8781 2.2392
6.4834 2.1088 2.2392
6.3937 2.3331 2.2392
6.3686 2.5844 2.2652
6.3717 2.8541 2.3053
6.3743 3.1324 2.3497
6.3572 3.4104 2.3916
6.2183 3.6270 2.3916
6.0714 3.8377 2.3916
5.9169 4.0422 2.3916
5.7551 4.2403 2.3916
5.5862 4.4318 2.3916
5.4105 4.6163 2.3916
5.2284 4.7937 2.3916
5.0402 4.9636 2.3916
4.8462 5.1260 2.3916
4.6467 5.2807 2.3916
4.4421 5.4274 2.3916
4.2327 5.5660 2.3916
4.0189 5.6965 2.3916
3.8009 5.8183 2.3916
3.5792 5.9320 2.3916
3.3540 6.0373 2.3916
3.1258 6.1340 2.3916
2.8949 6.2219 2.3916
2.6615 6.3011 2.3916
0.9436 2.4780 0.9302
0.8540 2.5096 0.9330
0.7632 2.5380 0.9358
0.6715 2.5630 0.9387
0.5790 2.5847 0.9415
0.4857 2.6031 0.9444
0.3918 2.6181 0.9473
0.2975 2.6297 0.9501
0.2027 2.6379 0.9529
0.1077 2.6426 0.9557
0.0126 2.6439 0.9585
-0.0824 2.6417 0.9613
-0.1774 2.6362 0.9641
-0.2721 2.6271 0.9668
-0.3664 2.6147 0.9695
-0.4602 2.5989 0.9721
-0.5533 2.5797 0.9747
-0.6457 2.5571 0.9773
-0.7373 2.5312 0.9798
-0.8278 2.5020 0.9823
-2.2278 5.9984 2.3916
-2.4362 5.8977 2.3916
-2.6405 5.7902 2.3916
-2.8405 5.6760 2.3916
-3.0360 5.5554 2.3916
-3.2268 5.4285 2.3916
-3.4128 5.2954 2.3916
-3.5937 5.1565 2.3916
-3.7695 5.0117 2.3916
-3.9399 4.8615 2.3916
-4.1049 4.7058 2.3916
-4.2641 4.5450 2.3916
-4.4176 4.3793 2.3916
-4.5652 4.2087 2.3916
-4.7067 4.0336 2.3916
-4.8421 3.8541 2.3916
-4.9712 3.6705 2.3916
-5.0939 3.4828 2.3916
-5.2101 3.2914 2.3916
-5.3197 3.0965 2.3916
-5.4227 2.8982 2.3916
-5.5189 2.6971 2.3916
-5.6082 2.4929 2.3916
-5.6907 2.2856 2.3916
-5.7661 2.0762 2.3916
-5.8345 1.8642 2.3916
-5.8958 1.6505 2.3916
-5.9499 1.4349 2.3916
-5.9968 1.2174 2.3916
-6.0365 0.9984 2.3916
-6.0688 0.7787 2.3916
-6.0939 0.5582 2.3916
-6.1116 0.3365 2.3916
-6.1219 0.1145 2.3916
-6.1249 -0.1081 2.3916
-6.1204 -0.3306 2.3916
-6.1085 -0.5530 2.3916
-6.0892 -0.7743 2.3916
-6.0625 -0.9965 2.3916
-6.0284 -1.2173 2.3916
-5.9870 -1.4366 2.3916
-5.9382 -1.6550 2.3916
-5.8820 -1.8718 2.3916
-5.8186 -2.0868 2.3916
-5.7478 -2.3000 2.3916
-5.6699 -2.5109 2.3916
-5.5848 -2.7195 2.3916
-5.4926 -2.9254 2.3916
-5.3933 -3.1284 2.3916
-5.2871 -3.3284 2.3916
-5.1739 -3.5250 2.3916
-5.0539 -3.7181 2.3916
-4.9272 -3.9074 2.3916
-4.7939 -4.0927 2.3916
-4.6541 -4.2737 2.3916
-4.5078 -4.4503 2.3916
-4.3552 -4.6223 2.3916
-4.1965 -4.7892 2.3916
-4.0317 -4.9511 2.3916
-3.8611 -5.1076 2.3916
-3.6847 -5.2585 2.3916
-3.5027 -5.4037 2.3916
-3.3153 -5.5428 2.3916
-3.1227 -5.6758 2.3916
-2.9251 -5.8023 2.3916
-2.7226 -5.9222 2.3916
-2.5154 -6.0353 2.3916
-2.3039 -6.1414 2.3916
-2.0881 -6.2402 2.3916
-1.8683 -6.3317 2.3916
-1.6448 -6.4157 2.3916
-1.4178 -6.4919 2.3916
-1.1875 -6.5602 2.3916
-0.9543 -6.6204 2.3916
-0.7184 -6.6725 2.3916
-0.4801 -6.7162 2.3916
-0.2396 -6.7514 2.3916
0.0027 -6.7781 2.3916
0.2464 -6.7960 2.3916
0.4914 -6.8051 2.3916
0.7373 -6.8053 2.3916
0.9837 -6.7966 2.3916
1.2303 -6.7788 2.3916
1.4768 -6.7519 2.3916
1.7228 -6.7159 2.3916
1.9680 -6.6707 2.3916
2.2120 -6.6163 2.3916
2.4545 -6.5528 2.3916
2.6950 -6.4801 2.3916
2.9333 -6.3983 2.3916
3.1689 -6.3074 2.3916
3.4015 -6.2075 2.3916
3.6308 -6.0987 2.3916
3.8562 -5.9811 2.3916
4.0776 -5.8547 2.3916
4.2944 -5.7198 2.3916
4.5065 -5.5764 2.3916
4.7133 -5.4247 2.3916
4.9145 -5.2650 2.3916
5.1099 -5.0974 2.3916
5.2990 -4.9221 2.3916
5.4816 -4.7394 2.3916
5.6572 -4.5494 2.3916
5.8256 -4.3526 2.3916
5.9866 -4.1491 2.3916
6.0953 -3.9108 2.3743
6.1152 -3.6230 2.3271
6.1340 -3.3451 2.2846
6.1564 -3.0783 2.2481
6.2439 -2.8490 2.2392
6.3471 -2.6275 2.2392
6.4417 -2.4019 2.2392
6.5274 -2.1727 2.2392
6.6042 -1.9402 2.2392
6.6718 -1.7048 2.2392
6.7302 -1.4668 2.2392
6.7793 -1.2267 2.2392
6.8189 -0.9848 2.2392
6.8490 -0.7416 2.2392
6.8696 -0.4974 2.2392
6.8806 -0.2527 2.2392
6.8820 -0.0078 2.2392
6.8739 0.2369 2.2392
6.8562 0.4810 2.2392
6.8290 0.7240 2.2392
6.7924 0.9656 2.2392
6.7464 1.2054 2.2392
6.6912 1.4429 2.2392
6.6269 1.6779 2.2392
6.5536 1.9100 2.2392
3.1087 -5.8004 2.3916
3.3222 -5.7005 2.3916
3.5323 -5.5924 2.3916
3.7386 -5.4763 2.3916
3.9407 -5.3522 2.3916
4.1385 -5.2203 2.3916
4.3314 -5.0807 2.3916
4.5192 -4.9337 2.3916
4.7016 -4.7793 2.3916
4.8782 -4.6178 2.3916
5.0489 -4.4494 2.3916
5.2132 -4.2744 2.3916
5.3708 -4.0929 2.3916
5.5216 -3.9053 2.3916
5.6652 -3.7117 2.3916
5.8014 -3.5126 2.3916
5.9300 -3.3081 2.3916
6.0507 -3.0986 2.3916
6.1347 -2.8710 2.3806
6.1508 -2.6162 2.3471
6.1660 -2.3675 2.3175
6.1803 -2.1241 2.2915
6.1937 -1.8855 2.2690
6.2093 -1.6506 2.2507
6.2340 -1.4228 2.2392
6.2818 -1.2005 2.2392
6.3210 -0.9766 2.2392
6.3513 -0.7516 2.2392
6.3730 -0.5239 2.2392
6.3858 -0.2978 2.2392
6.3898 -0.0700 2.2392
6.3849 0.1563 2.2392
6.3712 0.3828 2.2392
6.3487 0.6085 2.2392
6.3176 0.8337 2.2392
6.3136 1.0609 2.2521
6.3173 1.2956 2.2709
6.3224 1.5327 2.2936
6.3269 1.7744 2.3198
6.3310 2.0211 2.3495
6.3347 2.2738 2.3830
6.2621 2.5026 2.3916
6.1584 2.7191 2.3916
6.0466 2.9313 2.3916
5.9270 3.1387 2.3916
5.7997 3.3411 2.3916
5.6651 3.5379 2.3916
5.5233 3.7292 2.3916
5.3747 3.9150 2.3916
5.2194 4.0944 2.3916
5.0578 4.2675 2.3916
4.8901 4.4341 2.3916
4.7167 4.5939 2.3916
4.5378 4.7468 2.3916
4.3537 4.8925 2.3916
4.1647 5.0309 2.3916
3.9712 5.1620 2.3916
3.7734 5.2858 2.3916
3.5717 5.4012 2.3916
3.3664 5.5092 2.3916
3.1578 5.6094 2.3916
2.9462 5.7014 2.3916
2.7319 5.7855 2.3916
2.5152 5.8616 2.3916
0.8935 2.3070 0.9305
0.8101 2.3369 0.9332
0.7256 2.3637 0.9358
0.6401 2.3875 0.9385
0.5539 2.4082 0.9411
0.4670 2.4257 0.9438
0.3795 2.4401 0.9465
0.2915 2.4514 0.9491
0.2032 2.4594 0.9517
0.1146 2.4643 0.9544
0.0259 2.4659 0.9570
-0.0628 2.4644 0.9596
-0.1514 2.4596 0.9621
-0.2398 2.4516 0.9647
-0.3278 2.4405 0.9672
-0.4153 2.4261 0.9697
-0.5023 2.4087 0.9721
-0.5886 2.3880 0.9745
-0.6741 2.3643 0.9768
-0.7587 2.3375 0.9791
-0.8423 2.3077 0.9814
-2.2484 5.5313 2.3916
-2.4405 5.4324 2.3916
-2.6286 5.3272 2.3916
-2.8126 5.2159 2.3916
-2.9923 5.0986 2.3916
-3.1675 4.9755 2.3916
-3.3380 4.8467 2.3916
-3.5037 4.7125 2.3916
-3.6645 4.5731 2.3916
-3.8202 4.4285 2.3916
-3.9706 4.2790 2.3916
-4.1156 4.1247 2.3916
-4.2551 3.9659 2.3916
-4.3889 3.8027 2.3916
-4.5170 3.6354 2.3916
-4.6392 3.4640 2.3916
-4.7554 3.2889 2.3916
-4.8656 3.1102 2.3916
-4.9696 2.9281 2.3916
-5.0673 2.7428 2.3916
-5.1586 2.5545 2.3916
-5.2435 2.3634 2.3916
-5.3220 2.1697 2.3916
-5.3938 1.9737 2.3916
-5.4591 1.7757 2.3916
-5.5176 1.5758 2.3916
-5.5694 1.3733 2.3916
-5.6144 1.1696 2.3916
-5.6526 0.9646 2.3916
-5.6839 0.7587 2.3916
-5.7083 0.5518 2.3916
-5.7258 0.3438 2.3916
-5.7363 0.1354 2.3916
-5.7399 -0.0731 2.3916
-5.7365 -0.2820 2.3916
-5.7261 -0.4905 2.3916
-5.7087 -0.6989 2.3916
-5.6844 -0.9063 2.3916
-5.6531 -1.1133 2.3916
-5.6148 -1.3189 2.3916
-5.5696 -1.5239 2.3916
-5.5175 -1.7273 2.3916
-5.4586 -1.9290 2.3916
-5.3928 -2.1289 2.3916
-5.3202 -2.3267 2.3916
-5.2408 -2.5222 2.3916
-5.1548 -2.7153 2.3916
-5.0622 -2.9057 2.3916
-4.9630 -3.0931 2.3916
-4.8573 -3.2774 2.3916
-4.7452 -3.4583 2.3916
-4.6268 -3.6356 2.3916
-4.5022 -3.8092 2.3916
-4.3715 -3.9788 2.3916
-4.2348 -4.1441 2.3916
-4.0922 -4.3051 2.3916
-3.9438 -4.4614 2.3916
-3.7898 -4.6128 2.3916
-3.6303 -4.7592 2.3916
-3.4654 -4.9004 2.3916
-3.2954 -5.0361 2.3916
-3.1203 -5.1662 2.3916
-2.9403 -5.2904 2.3916
-2.7557 -5.4086 2.3916
-2.5665 -5.5206 2.3916
-2.3731 -5.6262 2.3916
-2.1755 -5.7251 2.3916
-1.9741 -5.8174 2.3916
-1.7689 -5.9027 2.3916
-1.5603 -5.9809 2.3916
-1.3485 -6.0519 2.3916
-1.1338 -6.1155 2.3916
-0.9162 -6.1716 2.3916
-0.6963 -6.2201 2.3916
-0.4741 -6.2607 2.3916
-0.2500 -6.2934 2.3916
-0.0242 -6.3181 2.3916
0.2029 -6.3347 2.3916
0.4311 -6.3431 2.3916
0.6600 -6.3432 2.3916
0.8895 -6.3350 2.3916
1.1190 -6.3183 2.3916
1.3484 -6.2932 2.3916
1.5774 -6.2596 2.3916
1.8055 -6.2176 2.3916
2.0324 -6.1670 2.3916
2.2579 -6.1079 2.3916
2.4816 -6.0403 2.3916
2.7032 -5.9642 2.3916
2.9222 -5.8798 2.3916
3.1385 -5.7870 2.3916
3.3515 -5.6860 2.3916
3.5611 -5.5768 2.3916
3.7668 -5.4596 2.3916
3.9684 -5.3344 2.3916
4.1655 -5.2014 2.3916
4.3577 -5.0608 2.3916
4.5448 -4.9127 2.3916
4.7264 -4.7574 2.3916
4.9022 -4.5949 2.3916
5.0720 -4.4256 2.3916
5.2354 -4.2497 2.3916
5.3921 -4.0673 2.3916
5.5419 -3.8789 2.3916
5.6845 -3.6845 2.3916
5.8197 -3.4846 2.3916
5.9472 -3.2794 2.3916
6.0667 -3.0692 2.3916
6.1369 -2.8353 2.3757
6.1529 -2.5814 2.3428
6.1680 -2.3335 2.3137
6.1822 -2.0908 2.2882
6.1955 -1.8527 2.2661
6.2124 -1.6189 2.2488
6.2411 -1.3920 2.2392
6.2878 -1.1694 2.2392
6.3257 -0.9454 2.2392
6.3549 -0.7202 2.2392
6.3753 -0.4935 2.2392
6.3868 -0.2674 2.2392
6.3897 -0.0373 2.2392
6.3835 0.1878 2.2392
6.3686 0.4143 2.2392
6.3449 0.6399 2.2392
6.3172 0.8653 2.2409
6.3129 1.0919 2.2540
6.3181 1.3282 2.2738
6.3230 1.5659 2.2970
6.3275 1.8082 2.3237
6.3316 2.0557 2.3539
6.3351 2.3091 2.3880
6.2482 2.5330 2.3916
6.1434 2.7488 2.3916
6.0305 2.9603 2.3916
5.9098 3.1671 2.3916
5.7815 3.3686 2.3916
5.6459 3.5649 2.3916
5.5031 3.7555 2.3916
5.3536 3.9402 2.3916
5.1974 4.1188 2.3916
5.0349 4.2910 2.3916
4.8665 4.4566 2.3916
4.6922 4.6155 2.3916
4.5126 4.7674 2.3916
4.3278 4.9121 2.3916
4.1382 5.0495 2.3916
3.9441 5.1795 2.3916
3.7457 5.3019 2.3916
3.5435 5.4166 2.3916
3.3377 5.5235 2.3916
3.1286 5.6225 2.3916
2.9166 5.7135 2.3916
2.7020 5.7966 2.3916
2.4851 5.8715 2.3916
0.8820 2.3113 0.9309
0.7984 2.3408 0.9335
0.7138 2.3672 0.9362
0.6283 2.3906 0.9388
0.5419 2.4108 0.9415
0.4549 2.4279 0.9442
0.3673 2.4419 0.9468
0.2793 2.4527 0.9495
0.1909 2.4603 0.9521
0.1023 2.4647 0.9547
0.0136 2.4659 0.9573
-0.0751 2.4639 0.9599
-0.1636 2.4587 0.9625
-0.2520 2.4503 0.9650
-0.3399 2.4387 0.9675
-0.4274 2.4239 0.9700
-0.5143 2.4060 0.9724
-0.6005 2.3849 0.9748
-0.6859 2.3608 0.9772
-0.7703 2.3336 0.9795
-0.8537 2.3033 0.9817
-2.2752 5.5179 2.3916
-2.4667 5.4182 2.3916
-2.6543 5.3122 2.3916
-2.8377 5.2000 2.3916
-3.0168 5.0819 2.3916
-3.1914 4.9580 2.3916
-3.3612 4.8285 2.3916
-3.5263 4.6936 2.3916
-3.6864 4.5533 2.3916
-3.8413 4.4081 2.3916
-3.9910 4.2579 2.3916
-4.1352 4.1030 2.3916
-4.2740 3.9435 2.3916
-4.4070 3.7798 2.3916
-4.5343 3.6119 2.3916
-4.6557 3.4400 2.3916
-4.7711 3.2644 2.3916
-4.8804 3.0852 2.3916
-4.9835 2.9026 2.3916
-5.0803 2.7169 2.3916
-5.1708 2.5282 2.3916
-5.2548 2.3368 2.3916
-5.3323 2.1427 2.3916
-5.4033 1.9463 2.3916
-5.4675 1.7475 2.3916
-5.5252 1.5470 2.3916
-5.5760 1.3452 2.3916
-5.6201 1.1412 2.3916
-5.6573 0.9363 2.3916
-5.6877 0.7305 2.3916
-5.7111 0.5229 2.3916
-5.7276 0.3147 2.3916
-5.7372 0.1065 2.3916
-5.7398 -0.1022 2.3916
-5.7355 -0.3106 2.3916
-5.7241 -0.5194 2.3916
-5.7058 -0.7273 2.3916
-5.6805 -0.9353 2.3916
-5.6482 -1.1417 2.3916
-5.6090 -1.3473 2.3916
-5.5628 -1.5520 2.3916
-5.5098 -1.7553 2.3916
-5.4499 -1.9568 2.3916
-5.3831 -2.1564 2.3916
-5.3096 -2.3539 2.3916
-5.2293 -2.5491 2.3916
-5.1424 -2.7418 2.3916
-5.0488 -2.9318 2.3916
-4.9487 -3.1188 2.3916
-4.8422 -3.3026 2.3916
-4.7292 -3.4830 2.3916
-4.6100 -3.6599 2.3916
-4.4845 -3.8329 2.3916
-4.3530 -4.0019 2.3916
-4.2154 -4.1667 2.3916
-4.0720 -4.3270 2.3916
-3.9228 -4.4826 2.3916
-3.7680 -4.6334 2.3916
-3.6078 -4.7791 2.3916
-3.4422 -4.9195 2.3916
-3.2714 -5.0545 2.3916
-3.0957 -5.1837 2.3916
-2.9151 -5.3071 2.3916
-2.7298 -5.4245 2.3916
-2.5400 -5.5356 2.3916
-2.3460 -5.6402 2.3916
-2.1479 -5.7383 2.3916
-1.9459 -5.8296 2.3916
-1.7403 -5.9140 2.3916
-1.5312 -5.9912 2.3916
-1.3190 -6.0612 2.3916
-1.1038 -6.1238 2.3916
-0.8859 -6.1788 2.3916
-0.6656 -6.2261 2.3916
-0.4432 -6.2657 2.3916
-0.2188 -6.2973 2.3916
0.0071 -6.3209 2.3916
0.2344 -6.3364 2.3916
0.4627 -6.3436 2.3916
0.6918 -6.3426 2.3916
0.9212 -6.3332 2.3916
1.1508 -6.3153 2.3916
1.3802 -6.2891 2.3916
1.6090 -6.2543 2.3916
1.8370 -6.2111 2.3916
2.0638 -6.1593 2.3916
2.2890 -6.0990 2.3916
2.5124 -6.0302 2.3916
2.7336 -5.9530 2.3916
2.9523 -5.8675 2.3916
3.1682 -5.7735 2.3916
3.3808 -5.6714 2.3916
3.5898 -5.5611 2.3916
3.7950 -5.4427 2.3916
3.9960 -5.3164 2.3916
4.1924 -5.1824 2.3916
4.3839 -5.0407 2.3916
4.5703 -4.8916 2.3916
4.7511 -4.7353 2.3916
4.9261 -4.5719 2.3916
5.0950 -4.4019 2.3916
5.2575 -4.2248 2.3916
5.4133 -4.0416 2.3916
5.5621 -3.8523 2.3916
5.7037 -3.6572 2.3916
5.8378 -3.4565 2.3916
5.9642 -3.2505 2.3916
6.0826 -3.0397 2.3916
6.1392 -2.7998 2.3709
6.1551 -2.5467 2.3385
6.1700 -2.2996 2.3099
6.1841 -2.0576 2.2849
6.1973 -1.8201 2.2633
6.2155 -1.5879 2.2470
6.2481 -1.3617 2.2392
6.2935 -1.1384 2.2392
6.3303 -0.9143 2.2392
6.3582 -0.6887 2.2392
6.3774 -0.4624 2.2392
6.3878 -0.2346 2.2392
6.3893 -0.0075 2.2392
6.3820 0.2188 2.2392
6.3658 0.4453 2.2392
6.3410 0.6707 2.2392
6.3168 0.8968 2.2426
6.3134 1.1264 2.2565
6.3188 1.3609 2.2768
6.3237 1.5993 2.3005
6.3281 1.8422 2.3276
2.9067 -5.4155 2.3916
3.1055 -5.3214 2.3916
3.3011 -5.2198 2.3916
3.4931 -5.1107 2.3916
3.6813 -4.9942 2.3916
3.8652 -4.8705 2.3916
4.0447 -4.7397 2.3916
4.2193 -4.6019 2.3916
4.3889 -4.4574 2.3916
4.5531 -4.3063 2.3916
4.7117 -4.1489 2.3916
4.8643 -3.9853 2.3916
5.0108 -3.8157 2.3916
5.1509 -3.6405 2.3916
5.2843 -3.4598 2.3916
5.4108 -3.2739 2.3916
5.5302 -3.0831 2.3916
5.6422 -2.8877 2.3916
5.7468 -2.6880 2.3916
5.8436 -2.4842 2.3916
5.9325 -2.2767 2.3916
6.0134 -2.0658 2.3916
6.0862 -1.8519 2.3916
6.1506 -1.6352 2.3916
6.1906 -1.4121 2.3855
6.2020 -1.1854 2.3717
6.2127 -0.9597 2.3611
6.2228 -0.7361 2.3536
6.2323 -0.5137 2.3492
6.2412 -0.2918 2.3478
6.2496 -0.0699 2.3494
6.2574 0.1523 2.3541
6.2646 0.3755 2.3618
6.2714 0.6003 2.3726
6.2776 0.8269 2.3865
6.2518 1.0505 2.3916
6.2041 1.2705 2.3916
6.1480 1.4887 2.3916
6.0836 1.7042 2.3916
6.0110 1.9167 2.3916
5.9304 2.1262 2.3916
5.8420 2.3321 2.3916
5.7459 2.5342 2.3916
5.6423 2.7324 2.3916
5.5314 2.9260 2.3916
5.4134 3.1148 2.3916
5.2885 3.2992 2.3916
5.1570 3.4782 2.3916
5.0190 3.6518 2.3916
4.8748 3.8198 2.3916
4.7247 3.9819 2.3916
4.5689 4.1379 2.3916
4.4076 4.2877 2.3916
4.2413 4.4311 2.3916
4.0700 4.5679 2.3916
3.8942 4.6979 2.3916
3.7140 4.8212 2.3916
3.5299 4.9374 2.3916
3.3420 5.0462 2.3916
3.1506 5.1480 2.3916
2.9562 5.2425 2.3916
2.7588 5.3295 2.3916
2.5589 5.4091 2.3916
0.9152 2.1284 0.9287
0.8381 2.1592 0.9312
0.7600 2.1871 0.9336
0.6809 2.2122 0.9361
0.6009 2.2345 0.9386
0.5202 2.2538 0.9411
0.4389 2.2703 0.9436
0.3569 2.2837 0.9461
0.2746 2.2942 0.9486
0.1919 2.3018 0.9510
0.1090 2.3063 0.9535
0.0260 2.3078 0.9559
-0.0570 2.3064 0.9584
-0.1400 2.3019 0.9608
-0.2227 2.2944 0.9632
-0.3051 2.2840 0.9655
-0.3870 2.2706 0.9678
-0.4684 2.2542 0.9701
-0.5492 2.2349 0.9723
-0.6292 2.2127 0.9745
-0.7084 2.1876 0.9767
-0.7866 2.1597 0.9788
-0.8638 2.1290 0.9809
-2.2867 5.0989 2.3916
-2.4636 5.0009 2.3916
-2.6367 4.8970 2.3916
-2.8058 4.7874 2.3916
-2.9707 4.6724 2.3916
-3.1313 4.5520 2.3916
-3.2873 4.4265 2.3916
-3.4387 4.2959 2.3916
-3.5854 4.1605 2.3916
-3.7271 4.0204 2.3916
-3.8637 3.8758 2.3916
-3.9952 3.7269 2.3916
-4.1213 3.5738 2.3916
-4.2420 3.4168 2.3916
-4.3572 3.2560 2.3916
-4.4668 3.0915 2.3916
-4.5707 2.9237 2.3916
-4.6687 2.7527 2.3916
-4.7608 2.5785 2.3916
-4.8470 2.4016 2.3916
-4.9271 2.2220 2.3916
-5.0010 2.0399 2.3916
-5.0688 1.8556 2.3916
-5.1303 1.6692 2.3916
-5.1854 1.4809 2.3916
-5.2342 1.2909 2.3916
-5.2766 1.0994 2.3916
-5.3126 0.9067 2.3916
-5.3420 0.7128 2.3916
-5.3650 0.5184 2.3916
-5.3813 0.3227 2.3916
-5.3912 0.1270 2.3916
-5.3944 -0.0697 2.3916
-5.3911 -0.2655 2.3916
-5.3811 -0.4617 2.3916
-5.3646 -0.6579 2.3916
-5.3415 -0.8528 2.3916
-5.3117 -1.0474 2.3916
-5.2755 -1.2410 2.3916
-5.2327 -1.4335 2.3916
-5.1834 -1.6246 2.3916
-5.1276 -1.8141 2.3916
-5.0653 -2.0019 2.3916
-4.9967 -2.1877 2.3916
-4.9217 -2.3713 2.3916
-4.8404 -2.5525 2.3916
-4.7529 -2.7311 2.3916
-4.6592 -2.9070 2.3916
-4.5594 -3.0798 2.3916
-4.4536 -3.2494 2.3916
-4.3419 -3.4157 2.3916
-4.2244 -3.5783 2.3916
-4.1011 -3.7371 2.3916
-3.9722 -3.8919 2.3916
-3.8378 -4.0425 2.3916
-3.6980 -4.1887 2.3916
-3.5529 -4.3303 2.3916
-3.4027 -4.4671 2.3916
-3.2475 -4.5989 2.3916
-3.0875 -4.7256 2.3916
-2.9228 -4.8469 2.3916
-2.7535 -4.9627 2.3916
-2.5799 -5.0727 2.3916
-2.4022 -5.1769 2.3916
-2.2204 -5.2751 2.3916
-2.0349 -5.3670 2.3916
-1.8457 -5.4525 2.3916
-1.6532 -5.5316 2.3916
-1.4575 -5.6039 2.3916
-1.2588 -5.6695 2.3916
-1.0574 -5.7281 2.3916
-0.8536 -5.7796 2.3916
-0.6475 -5.8239 2.3916
-0.4394 -5.8610 2.3916
-0.2295 -5.8905 2.3916
-0.0182 -5.9126 2.3916
0.1943 -5.9271 2.3916
0.4077 -5.9339 2.3916
0.6218 -5.9330 2.3916
0.8362 -5.9243 2.3916
1.0507 -5.9077 2.3916
1.2649 -5.8832 2.3916
1.4787 -5.8508 2.3916
1.6916 -5.8105 2.3916
1.9034 -5.7622 2.3916
2.1137 -5.7061 2.3916
2.3223 -5.6420 2.3916
2.5288 -5.5701 2.3916
2.7329 -5.4904 2.3916
2.9344 -5.4030 2.3916
3.1328 -5.3078 2.3916
