ply
format ascii 1.0
element vertex 2176
property float32 x
property float32 y
property float32 z
end_header
-5.5107 -2.7536 2.3989
-5.4162 -2.9545 2.3989
-5.3145 -3.1519 2.3989
-5.2057 -3.3461 2.3989
-5.0900 -3.5365 2.3989
-4.9673 -3.7230 2.3989
-4.8380 -3.9052 2.3989
-4.7020 -4.0829 2.3989
-4.5596 -4.2559 2.3989
-4.4109 -4.4239 2.3989
-4.2561 -4.5868 2.3989
-4.0953 -4.7442 2.3989
-3.9288 -4.8959 2.3989
-3.7566 -5.0418 2.3989
-3.5791 -5.1816 2.3989
-3.3964 -5.3151 2.3989
-3.2087 -5.4421 2.3989
-3.0163 -5.5624 2.3989
-2.8194 -5.6758 2.3989
-2.6183 -5.7821 2.3989
-2.4132 -5.8812 2.3989
-2.2043 -5.9729 2.3989
-1.9920 -6.0571 2.3989
-1.7764 -6.1336 2.3989
-1.5580 -6.2022 2.3989
-1.3369 -6.2629 2.3989
-1.1134 -6.3155 2.3989
-0.8879 -6.3600 2.3989
-0.6607 -6.3962 2.3989
-0.4321 -6.4241 2.3989
-0.2023 -6.4436 2.3989
0.0279 -6.0348 2.3989
0.2439 -6.0368 2.3989
0.4600 -6.0308 2.3989
0.6759 -6.0168 2.3989
0.8914 -5.9949 2.3989
1.1060 -5.9650 2.3989
1.3196 -5.9271 2.3989
1.5318 -5.8814 2.3989
1.7423 -5.8278 2.3989
1.9508 -5.7663 2.3989
2.1571 -5.6972 2.3989
2.3607 -5.6204 2.3989
2.5615 -5.5361 2.3989
2.7591 -5.4443 2.3989
2.9532 -5.3451 2.3989
3.1436 -5.2388 2.3989
3.3300 -5.1255 2.3989
3.5120 -5.0052 2.3989
3.6896 -4.8782 2.3989
3.8623 -4.7447 2.3989
4.0300 -4.6047 2.3989
4.1923 -4.4587 2.3989
4.3491 -4.3066 2.3989
4.5002 -4.1488 2.3989
4.6452 -3.9855 2.3989
4.7841 -3.8169 2.3989
4.9166 -3.6433 2.3989
5.0425 -3.4649 2.3989
5.1617 -3.2819 2.3989
5.2739 -3.0947 2.3989
5.3791 -2.9035 2.3989
5.4770 -2.7085 2.3989
5.5676 -2.5101 2.3989
5.6507 -2.3086 2.3989
5.7262 -2.1042 2.3989
5.7941 -1.8973 2.3989
5.8542 -1.6881 2.3989
5.9064 -1.4770 2.3989
5.9508 -1.2638 2.3989
5.9872 -1.0499 2.3989
6.0157 -0.8347 2.3989
6.0361 -0.6187 2.3989
6.0486 -0.4023 2.3989
6.0530 -0.1857 2.3989
6.0495 0.0307 2.3989
6.0380 0.2466 2.3989
6.0185 0.4617 2.3989
5.9912 0.6758 2.3989
5.9561 0.8885 2.3989
5.9133 1.0996 2.3989
5.8627 1.3087 2.3989
5.8047 1.5156 2.3989
5.7391 1.7200 2.3989
5.6663 1.9218 2.3989
5.5862 2.1205 2.3989
5.4990 2.3159 2.3989
5.4048 2.5077 2.3989
5.3039 2.6957 2.3989
5.1964 2.8798 2.3989
5.0824 3.0596 2.3989
4.9621 3.2350 2.3989
4.8357 3.4056 2.3989
4.7034 3.5714 2.3989
4.5654 3.7321 2.3989
4.4218 3.8875 2.3989
4.2730 4.0374 2.3989
4.1191 4.1817 2.3989
3.9603 4.3202 2.3989
3.7968 4.4528 2.3989
3.6290 4.5793 2.3989
3.4569 4.6995 2.3989
3.2809 4.8133 2.3989
3.1012 4.9207 2.3989
2.9180 5.0214 2.3989
2.7316 5.1155 2.3989
2.5422 5.2028 2.3989
2.3501 5.2832 2.3989
0.8605 2.1385 0.9577
0.7829 2.1678 0.9590
0.7043 2.1944 0.9602
0.6248 2.2181 0.9614
0.5445 2.2389 0.9626
0.4635 2.2568 0.9637
0.3819 2.2717 0.9648
0.2998 2.2837 0.9659
0.2173 2.2928 0.9670
0.1345 2.2988 0.9680
0.0516 2.3019 0.9690
-0.0314 2.3020 0.9699
-0.1143 2.2990 0.9709
-0.1971 2.2931 0.9717
-0.2797 2.2842 0.9726
-0.3618 2.2723 0.9734
-0.4435 2.2575 0.9741
-0.5246 2.2397 0.9748
-0.6050 2.2191 0.9755
-0.6846 2.1955 0.9761
-0.7633 2.1690 0.9767
-0.8409 2.1398 0.9772
-2.2512 5.1715 2.3989
-2.4350 5.0839 2.3989
-2.6156 4.9900 2.3989
-2.7927 4.8900 2.3989
-2.9662 4.7839 2.3989
-3.1358 4.6719 2.3989
-3.3015 4.5541 2.3989
-3.4628 4.4307 2.3989
-3.6198 4.3018 2.3989
-3.7722 4.1675 2.3989
-3.9198 4.0281 2.3989
-4.0625 3.8837 2.3989
-4.2002 3.7344 2.3989
-4.3325 3.5804 2.3989
-4.4595 3.4219 2.3989
-4.5809 3.2591 2.3989
-4.6966 3.0922 2.3989
-4.8065 2.9213 2.3989
-4.9104 2.7467 2.3989
-5.0082 2.5685 2.3989
-5.0998 2.3870 2.3989
-5.1851 2.2023 2.3989
-5.2640 2.0147 2.3989
-5.3364 1.8244 2.3989
-5.4021 1.6316 2.3989
-5.4611 1.4365 2.3989
-5.5134 1.2394 2.3989
-5.5588 1.0403 2.3989
-5.5972 0.8398 2.3989
-5.6287 0.6379 2.3989
-5.6531 0.4348 2.3989
-5.6705 0.2308 2.3989
-5.6807 0.0262 2.3989
-5.6838 -0.1790 2.3989
-5.6797 -0.3840 2.3989
-5.6684 -0.5891 2.3989
-5.6499 -0.7939 2.3989
-5.6243 -0.9981 2.3989
-5.5914 -1.2017 2.3989
-5.5514 -1.4041 2.3989
-5.5043 -1.6051 2.3989
-5.4500 -1.8046 2.3989
-5.3887 -2.0023 2.3989
-5.3203 -2.1978 2.3989
-5.2450 -2.3912 2.3989
-5.1628 -2.5820 2.3989
-5.0739 -2.7699 2.3989
-4.9782 -2.9549 2.3989
-4.8758 -3.1365 2.3989
-4.7670 -3.3146 2.3989
-4.6517 -3.4890 2.3989
-4.5301 -3.6594 2.3989
-4.4024 -3.8255 2.3989
-4.2687 -3.9872 2.3989
-4.1290 -4.1442 2.3989
-3.9837 -4.2963 2.3989
-3.8328 -4.4433 2.3989
-3.6765 -4.5850 2.3989
-3.5150 -4.7212 2.3989
-3.3485 -4.8516 2.3989
-3.1772 -4.9761 2.3989
-3.0013 -5.0945 2.3989
-2.8210 -5.2066 2.3989
-2.6366 -5.3123 2.3989
-2.4482 -5.4113 2.3989
-2.2560 -5.5036 2.3989
-2.0605 -5.5889 2.3989
-1.8617 -5.6672 2.3989
-1.6599 -5.7382 2.3989
-1.4555 -5.8020 2.3989
-1.2486 -5.8583 2.3989
-1.0395 -5.9070 2.3989
-0.8286 -5.9481 2.3989
-0.6161 -5.9816 2.3989
-0.4023 -6.0072 2.3989
-0.1875 -6.0250 2.3989
0.0280 -6.0348 2.3989
0.2440 -6.0368 2.3989
0.4601 -6.0308 2.3989
0.6760 -6.0168 2.3989
0.8915 -5.9949 2.3989
1.1062 -5.9650 2.3989
1.3197 -5.9271 2.3989
1.5319 -5.8814 2.3989
1.7425 -5.8277 2.3989
1.9510 -5.7663 2.3989
2.1572 -5.6972 2.3989
2.3608 -5.6204 2.3989
2.5616 -5.5360 2.3989
2.7592 -5.4442 2.3989
2.9533 -5.3450 2.3989
3.1437 -5.2388 2.3989
3.3301 -5.1254 2.3989
3.5122 -5.0051 2.3989
3.6897 -4.8781 2.3989
3.8624 -4.7446 2.3989
4.0301 -4.6047 2.3989
4.1924 -4.4586 2.3989
4.3492 -4.3065 2.3989
4.5003 -4.1487 2.3989
4.6453 -3.9854 2.3989
4.7842 -3.8168 2.3989
4.9167 -3.6432 2.3989
5.0426 -3.4647 2.3989
5.1618 -3.2818 2.3989
5.2740 -3.0946 2.3989
5.3791 -2.9033 2.3989
5.4771 -2.7084 2.3989
5.5676 -2.5100 2.3989
5.6507 -2.3085 2.3989
5.7263 -2.1040 2.3989
5.7941 -1.8972 2.3989
5.8542 -1.6879 2.3989
5.9065 -1.4767 2.3989
5.9508 -1.2639 2.3989
5.9872 -1.0498 2.3989
6.0157 -0.8345 2.3989
6.0361 -0.6185 2.3989
6.0486 -0.4021 2.3989
6.0530 -0.1856 2.3989
6.0495 0.0308 2.3989
6.0380 0.2467 2.3989
6.0185 0.4619 2.3989
5.9912 0.6759 2.3989
5.9561 0.8887 2.3989
5.9132 1.0997 2.3989
5.8627 1.3089 2.3989
5.8046 1.5159 2.3989
5.7391 1.7202 2.3989
5.6662 1.9219 2.3989
5.5861 2.1206 2.3989
5.4989 2.3162 2.3989
5.4048 2.5078 2.3989
5.3039 2.6959 2.3989
5.1963 2.8799 2.3989
5.0823 3.0597 2.3989
4.9620 3.2351 2.3989
4.8356 3.4057 2.3989
4.7033 3.5715 2.3989
4.5653 3.7322 2.3989
4.4217 3.8876 2.3989
4.2729 4.0375 2.3989
4.1190 4.1818 2.3989
3.9602 4.3203 2.3989
3.7967 4.4529 2.3989
3.6289 4.5793 2.3989
3.4568 4.6996 2.3989
3.2808 4.8134 2.3989
3.1011 4.9208 2.3989
2.9179 5.0215 2.3989
2.7315 5.1156 2.3989
2.5421 5.2028 2.3989
2.3499 5.2832 2.3989
0.8604 2.1385 0.9577
0.7829 2.1679 0.9590
0.7043 2.1944 0.9602
0.6248 2.2181 0.9614
0.5445 2.2389 0.9626
0.4635 2.2568 0.9637
0.3819 2.2717 0.9648
0.2997 2.2837 0.9659
0.2173 2.2928 0.9670
0.1345 2.2988 0.9680
0.0515 2.3019 0.9690
-0.0314 2.3020 0.9699
-0.1144 2.2990 0.9709
-0.1972 2.2931 0.9717
-0.2797 2.2842 0.9726
-0.3619 2.2723 0.9734
-0.4436 2.2575 0.9741
-0.5246 2.2397 0.9748
-0.6050 2.2190 0.9755
-0.6846 2.1955 0.9761
-0.7633 2.1690 0.9767
-0.8410 2.1398 0.9772
-2.2513 5.1715 2.3989
-2.4351 5.0839 2.3989
-2.6157 4.9900 2.3989
-2.7928 4.8899 2.3989
-2.9663 4.7838 2.3989
-3.1360 4.6718 2.3989
-3.3016 4.5540 2.3989
-3.4629 4.4306 2.3989
-3.6199 4.3017 2.3989
-3.7723 4.1675 2.3989
-3.9199 4.0280 2.3989
-4.0626 3.8836 2.3989
-4.2002 3.7343 2.3989
-4.3326 3.5803 2.3989
-4.4595 3.4218 2.3989
-4.5810 3.2590 2.3989
-4.6967 3.0921 2.3989
-4.8065 2.9212 2.3989
-4.9104 2.7466 2.3989
-5.0083 2.5684 2.3989
-5.0999 2.3868 2.3989
-5.1852 2.2022 2.3989
-5.2641 2.0146 2.3989
-5.3364 1.8242 2.3989
-5.4021 1.6314 2.3989
-5.4612 1.4363 2.3989
-5.5134 1.2393 2.3989
-5.5588 1.0403 2.3989
-5.5972 0.8396 2.3989
-5.6287 0.6377 2.3989
-5.6531 0.4347 2.3989
-5.6705 0.2309 2.3989
-5.6807 0.0261 2.3989
-5.6838 -0.1790 2.3989
-5.6797 -0.3842 2.3989
-5.6684 -0.5892 2.3989
-5.6499 -0.7941 2.3989
-5.6243 -0.9984 2.3989
-5.5914 -1.2017 2.3989
-5.5514 -1.4040 2.3989
-5.5042 -1.6052 2.3989
-5.4500 -1.8047 2.3989
-5.3886 -2.0024 2.3989
-5.3203 -2.1980 2.3989
-5.2450 -2.3913 2.3989
-5.1628 -2.5821 2.3989
-5.0738 -2.7701 2.3989
-4.9781 -2.9550 2.3989
-4.8758 -3.1366 2.3989
-4.7669 -3.3148 2.3989
-4.6516 -3.4891 2.3989
-4.5300 -3.6595 2.3989
-4.4023 -3.8256 2.3989
-4.2686 -3.9873 2.3989
-4.1289 -4.1443 2.3989
-3.9836 -4.2964 2.3989
-3.8327 -4.4434 2.3989
-3.6764 -4.5851 2.3989
-3.5149 -4.7213 2.3989
-3.3484 -4.8517 2.3989
-3.1771 -4.9762 2.3989
-3.0012 -5.0946 2.3989
-2.8209 -5.2067 2.3989
-2.6364 -5.3124 2.3989
-2.4480 -5.4114 2.3989
-2.2559 -5.5037 2.3989
-2.0603 -5.5890 2.3989
-1.8615 -5.6672 2.3989
-1.6598 -5.7383 2.3989
-1.4553 -5.8020 2.3989
-1.2484 -5.8583 2.3989
-1.0394 -5.9070 2.3989
-0.8285 -5.9482 2.3989
-0.6160 -5.9816 2.3989
-0.4022 -6.0072 2.3989
-0.1874 -6.0250 2.3989
0.0278 -5.6601 2.3989
0.2303 -5.6616 2.3989
0.4329 -5.6556 2.3989
0.6353 -5.6422 2.3989
0.8372 -5.6214 2.3989
1.0384 -5.5930 2.3989
1.2386 -5.5573 2.3989
1.4374 -5.5141 2.3989
1.6347 -5.4636 2.3989
1.8300 -5.4058 2.3989
2.0232 -5.3408 2.3989
2.2140 -5.2686 2.3989
2.4020 -5.1894 2.3989
2.5871 -5.1032 2.3989
2.7690 -5.0102 2.3989
2.9473 -4.9105 2.3989
3.1219 -4.8041 2.3989
3.2924 -4.6914 2.3989
3.4587 -4.5723 2.3989
3.6205 -4.4471 2.3989
3.7775 -4.3159 2.3989
3.9296 -4.1790 2.3989
4.0765 -4.0366 2.3989
4.2180 -3.8887 2.3989
4.3540 -3.7357 2.3989
4.4841 -3.5778 2.3989
4.6083 -3.4151 2.3989
4.7263 -3.2480 2.3989
4.8380 -3.0766 2.3989
4.9432 -2.9012 2.3989
5.0419 -2.7221 2.3989
5.1338 -2.5395 2.3989
5.2188 -2.3536 2.3989
5.2967 -2.1632 2.3989
5.3677 -1.9734 2.3989
5.4315 -1.7795 2.3989
5.4880 -1.5835 2.3989
5.5372 -1.3857 2.3989
5.5790 -1.1863 2.3989
5.6134 -0.9856 2.3989
5.6403 -0.7837 2.3989
5.6598 -0.5814 2.3989
5.6718 -0.3786 2.3989
5.6762 -0.1756 2.3989
5.6732 0.0273 2.3989
5.6628 0.2297 2.3989
5.6449 0.4316 2.3989
5.6196 0.6324 2.3989
5.5871 0.8318 2.3989
5.5472 1.0298 2.3989
5.5002 1.2258 2.3989
5.4461 1.4201 2.3989
5.3851 1.6120 2.3989
5.3171 1.8013 2.3989
5.2423 1.9878 2.3989
5.1609 2.1713 2.3989
5.0730 2.3515 2.3989
4.9787 2.5281 2.3989
4.8781 2.7010 2.3989
4.7715 2.8700 2.3989
4.6590 3.0348 2.3989
4.5407 3.1952 2.3989
4.4169 3.3511 2.3989
4.2876 3.5022 2.3989
4.1532 3.6484 2.3989
4.0138 3.7895 2.3989
3.8696 3.9253 2.3989
3.7207 4.0557 2.3989
3.5675 4.1805 2.3989
3.4102 4.2996 2.3989
3.2488 4.4129 2.3989
3.0837 4.5202 2.3989
2.9151 4.6214 2.3989
2.7432 4.7165 2.3989
2.5683 4.8052 2.3989
2.3905 4.8876 2.3989
0.8803 1.9770 0.9555
0.8085 2.0071 0.9567
0.7357 2.0347 0.9579
0.6619 2.0596 0.9590
0.5873 2.0818 0.9601
0.5119 2.1013 0.9612
0.4358 2.1181 0.9623
0.3592 2.1321 0.9634
0.2821 2.1434 0.9644
0.2046 2.1519 0.9654
0.1269 2.1575 0.9664
0.0491 2.1604 0.9673
-0.0288 2.1605 0.9682
-0.1067 2.1577 0.9690
-0.1844 2.1522 0.9699
-0.2619 2.1438 0.9706
-0.3390 2.1327 0.9714
-0.4157 2.1187 0.9721
-0.4918 2.1021 0.9728
-0.5673 2.0826 0.9734
-0.6420 2.0605 0.9740
-0.7159 2.0357 0.9745
-0.7888 2.0082 0.9750
-0.8607 1.9782 0.9755
-2.2897 4.7824 2.3989
-2.4597 4.6942 2.3989
-2.6265 4.6002 2.3989
-2.7898 4.5004 2.3989
-2.9495 4.3951 2.3989
-3.1054 4.2844 2.3989
-3.2573 4.1683 2.3989
-3.4051 4.0470 2.3989
-3.5485 3.9207 2.3989
-3.6875 3.7895 2.3989
-3.8218 3.6536 2.3989
-3.9513 3.5131 2.3989
-4.0758 3.3681 2.3989
-4.1953 3.2190 2.3989
-4.3095 3.0657 2.3989
-4.4184 2.9086 2.3989
-4.5217 2.7478 2.3989
-4.6194 2.5834 2.3989
-4.7114 2.4156 2.3989
-4.7975 2.2448 2.3989
-4.8777 2.0709 2.3989
-4.9518 1.8944 2.3989
-5.0197 1.7152 2.3989
-5.0814 1.5337 2.3989
-5.1368 1.3501 2.3989
-5.1858 1.1646 2.3989
-5.2283 0.9773 2.3989
-5.2642 0.7886 2.3989
-5.2936 0.5986 2.3989
-5.3164 0.4075 2.3989
-5.3324 0.2157 2.3989
-5.3418 0.0232 2.3989
-5.3444 -0.1697 2.3989
-5.3403 -0.3627 2.3989
-5.3294 -0.5556 2.3989
-5.3117 -0.7481 2.3989
-5.2872 -0.9401 2.3989
-5.2560 -1.1314 2.3989
-5.2180 -1.3216 2.3989
-5.1734 -1.5105 2.3989
-5.1220 -1.6979 2.3989
-5.0640 -1.8837 2.3989
-4.9994 -2.0674 2.3989
-4.9283 -2.2490 2.3989
-4.8507 -2.4281 2.3989
-4.7667 -2.6046 2.3989
-4.6764 -2.7782 2.3989
-4.5799 -2.9487 2.3989
-4.4773 -3.1158 2.3989
-4.3686 -3.2794 2.3989
-4.2541 -3.4392 2.3989
-4.1338 -3.5950 2.3989
-4.0078 -3.7465 2.3989
-3.8764 -3.8937 2.3989
-3.7396 -4.0363 2.3989
-3.5976 -4.1740 2.3989
-3.4505 -4.3067 2.3989
-3.2986 -4.4342 2.3989
-3.1421 -4.5563 2.3989
-2.9810 -4.6728 2.3989
-2.8157 -4.7836 2.3989
-2.6462 -4.8884 2.3989
-2.4729 -4.9872 2.3989
-2.2958 -5.0798 2.3989
-2.1154 -5.1660 2.3989
-1.9317 -5.2456 2.3989
-1.7450 -5.3187 2.3989
-1.5556 -5.3849 2.3989
-1.3637 -5.4443 2.3989
-1.1696 -5.4967 2.3989
-0.9734 -5.5421 2.3989
-0.7755 -5.5803 2.3989
-0.5762 -5.6112 2.3989
-0.3756 -5.6349 2.3989
-0.1742 -5.6512 2.3989
0.0279 -5.6601 2.3989
0.2304 -5.6616 2.3989
0.4330 -5.6556 2.3989
0.6354 -5.6422 2.3989
0.8374 -5.6213 2.3989
1.0386 -5.5930 2.3989
1.2387 -5.5573 2.3989
1.4375 -5.5141 2.3989
1.6348 -5.4636 2.3989
1.8301 -5.4058 2.3989
2.0233 -5.3408 2.3989
2.2141 -5.2686 2.3989
2.4022 -5.1894 2.3989
2.5872 -5.1032 2.3989
2.7691 -5.0102 2.3989
2.9474 -4.9105 2.3989
3.1220 -4.8040 2.3989
3.2925 -4.6913 2.3989
3.4588 -4.5722 2.3989
3.6206 -4.4470 2.3989
3.7776 -4.3159 2.3989
3.9297 -4.1789 2.3989
4.0766 -4.0365 2.3989
4.2181 -3.8886 2.3989
4.3541 -3.7356 2.3989
4.4842 -3.5777 2.3989
4.6084 -3.4150 2.3989
4.7264 -3.2478 2.3989
4.8381 -3.0765 2.3989
4.9433 -2.9011 2.3989
5.0419 -2.7220 2.3989
5.1338 -2.5394 2.3989
5.2188 -2.3535 2.3989
5.2968 -2.1640 2.3989
5.3678 -1.9733 2.3989
5.4315 -1.7794 2.3989
5.4881 -1.5834 2.3989
5.5372 -1.3856 2.3989
5.5790 -1.1861 2.3989
5.6134 -0.9854 2.3989
5.6404 -0.7837 2.3989
5.6598 -0.5813 2.3989
5.6718 -0.3783 2.3989
5.6762 -0.1755 2.3989
5.6732 0.0274 2.3989
5.6628 0.2298 2.3989
5.6449 0.4317 2.3989
5.6196 0.6324 2.3989
5.5870 0.8319 2.3989
5.5472 1.0299 2.3989
5.5002 1.2262 2.3989
5.4461 1.4202 2.3989
5.3850 1.6121 2.3989
5.3170 1.8014 2.3989
5.2423 1.9879 2.3989
5.1608 2.1714 2.3989
5.0729 2.3515 2.3989
4.9786 2.5282 2.3989
4.8781 2.7011 2.3989
4.7714 2.8701 2.3989
4.6589 3.0349 2.3989
4.5406 3.1953 2.3989
4.4168 3.3512 2.3989
4.2876 3.5023 2.3989
4.1531 3.6485 2.3989
4.0137 3.7896 2.3989
3.8695 3.9254 2.3989
3.7207 4.0558 2.3989
3.5674 4.1806 2.3989
3.4100 4.2997 2.3989
3.2487 4.4130 2.3989
3.0836 4.5203 2.3989
2.9150 4.6215 2.3989
2.7431 4.7165 2.3989
2.5682 4.8053 2.3989
2.3904 4.8876 2.3989
0.8802 1.9770 0.9555
0.8085 2.0071 0.9567
0.7356 2.0347 0.9579
0.6618 2.0596 0.9590
0.5872 2.0818 0.9601
0.5118 2.1013 0.9612
0.4357 2.1181 0.9623
0.3591 2.1321 0.9634
0.2820 2.1434 0.9644
0.2046 2.1519 0.9654
0.1269 2.1575 0.9664
0.0490 2.1604 0.9673
-0.0289 2.1605 0.9682
-0.1068 2.1577 0.9690
-0.1845 2.1522 0.9699
-0.2620 2.1438 0.9706
-0.3391 2.1327 0.9714
-0.4158 2.1187 0.9721
-0.4919 2.1020 0.9728
-0.5674 2.0826 0.9734
-0.6421 2.0605 0.9740
-0.7160 2.0357 0.9745
-0.7889 2.0082 0.9750
-0.8608 1.9782 0.9755
-2.2898 4.7824 2.3989
-2.4598 4.6942 2.3989
-2.6266 4.6001 2.3989
-2.7899 4.5004 2.3989
-2.9496 4.3951 2.3989
-3.1055 4.2843 2.3989
-3.2574 4.1682 2.3989
-3.4052 4.0469 2.3989
-3.5486 3.9206 2.3989
-3.6876 3.7894 2.3989
-3.8219 3.6535 2.3989
-3.9514 3.5130 2.3989
-4.0759 3.3681 2.3989
-4.1954 3.2189 2.3989
-4.3096 3.0656 2.3989
-4.4184 2.9085 2.3989
-4.5218 2.7477 2.3989
-4.6195 2.5833 2.3989
-4.7115 2.4155 2.3989
-4.7976 2.2447 2.3989
-4.8777 2.0708 2.3989
-4.9518 1.8942 2.3989
-5.0198 1.7151 2.3989
-5.0815 1.5336 2.3989
-5.1368 1.3500 2.3989
-5.1858 1.1645 2.3989
-5.2283 0.9772 2.3989
-5.2643 0.7885 2.3989
-5.2936 0.5985 2.3989
-5.3164 0.4074 2.3989
-5.3324 0.2155 2.3989
-5.3418 0.0230 2.3989
-5.3444 -0.1698 2.3989
-5.3403 -0.3628 2.3989
-5.3293 -0.5557 2.3989
-5.3117 -0.7483 2.3989
-5.2872 -0.9403 2.3989
-5.2560 -1.1315 2.3989
-5.2180 -1.3217 2.3989
-5.1733 -1.5106 2.3989
-5.1220 -1.6981 2.3989
-5.0640 -1.8838 2.3989
-4.9994 -2.0675 2.3989
-4.9282 -2.2491 2.3989
-4.8506 -2.4282 2.3989
-4.7667 -2.6047 2.3989
-4.6764 -2.7783 2.3989
-4.5798 -2.9488 2.3989
-4.4772 -3.1159 2.3989
-4.3686 -3.2795 2.3989
-4.2540 -3.4393 2.3989
-4.1337 -3.5951 2.3989
-4.0077 -3.7466 2.3989
-3.8763 -3.8938 2.3989
-3.7395 -4.0364 2.3989
-3.5975 -4.1741 2.3989
-3.4504 -4.3068 2.3989
-3.2985 -4.4343 2.3989
-3.1420 -4.5564 2.3989
-2.9809 -4.6729 2.3989
-2.8156 -4.7837 2.3989
-2.6461 -4.8885 2.3989
-2.4727 -4.9873 2.3989
-2.2957 -5.0798 2.3989
-2.1153 -5.1660 2.3989
-1.9316 -5.2457 2.3989
-1.7449 -5.3187 2.3989
-1.5555 -5.3850 2.3989
-1.3636 -5.4444 2.3989
-1.1694 -5.4968 2.3989
-0.9733 -5.5421 2.3989
-0.7754 -5.5803 2.3989
-0.5761 -5.6113 2.3989
-0.3755 -5.6349 2.3989
-0.1740 -5.6512 2.3989
0.0277 -5.3232 2.3989
0.2181 -5.3243 2.3989
0.4086 -5.3184 2.3989
0.5988 -5.3055 2.3989
0.7886 -5.2857 2.3989
0.9777 -5.2588 2.3989
1.1658 -5.2249 2.3989
1.3526 -5.1842 2.3989
1.5379 -5.1365 2.3989
1.7215 -5.0820 2.3989
1.9030 -5.0207 2.3989
2.0822 -4.9527 2.3989
2.2589 -4.8781 2.3989
2.4327 -4.7970 2.3989
2.6035 -4.7095 2.3989
2.7710 -4.6155 2.3989
2.9350 -4.5156 2.3989
3.0952 -4.4095 2.3989
3.2516 -4.2986 2.3989
3.4034 -4.1799 2.3989
3.5509 -4.0566 2.3989
3.6938 -3.9280 2.3989
3.8318 -3.7941 2.3989
3.9648 -3.6552 2.3989
4.0925 -3.5114 2.3989
4.2148 -3.3630 2.3989
4.3315 -3.2102 2.3989
4.4424 -3.0532 2.3989
4.5474 -2.8922 2.3989
4.6463 -2.7275 2.3989
4.7391 -2.5592 2.3989
4.8255 -2.3877 2.3989
4.9055 -2.2131 2.3989
4.9790 -2.0358 2.3989
5.0458 -1.8559 2.3989
5.1059 -1.6738 2.3989
5.1591 -1.4897 2.3989
5.2056 -1.3038 2.3989
5.2450 -1.1163 2.3989
5.2776 -0.9278 2.3989
5.3031 -0.7382 2.3989
5.3216 -0.5480 2.3989
5.3331 -0.3574 2.3989
5.3376 -0.1665 2.3989
5.3350 0.0242 2.3989
5.3255 0.2145 2.3989
5.3090 0.4042 2.3989
5.2855 0.5930 2.3989
5.2552 0.7806 2.3989
5.2180 0.9669 2.3989
5.1742 1.1515 2.3989
5.1236 1.3342 2.3989
5.0665 1.5147 2.3989
5.0029 1.6929 2.3989
4.9329 1.8684 2.3989
4.8566 2.0411 2.3989
4.7742 2.2108 2.3989
4.6858 2.3772 2.3989
4.5915 2.5400 2.3989
4.4915 2.6992 2.3989
4.3859 2.8545 2.3989
4.2749 3.0057 2.3989
4.1587 3.1526 2.3989
4.0373 3.2951 2.3989
3.9111 3.4329 2.3989
3.7801 3.5660 2.3989
3.6446 3.6941 2.3989
3.5048 3.8172 2.3989
3.3607 3.9350 2.3989
3.2128 4.0474 2.3989
3.0611 4.1544 2.3989
2.9058 4.2557 2.3989
2.7472 4.3514 2.3989
2.5855 4.4412 2.3989
2.4208 4.5251 2.3989
0.8957 1.8296 0.9535
0.8292 1.8604 0.9546
0.7616 1.8887 0.9558
0.6931 1.9146 0.9569
0.6236 1.9381 0.9580
0.5534 1.9590 0.9590
0.4824 1.9773 0.9601
0.4108 1.9931 0.9611
0.3387 2.0063 0.9621
0.2661 2.0169 0.9630
0.1932 2.0249 0.9640
0.1201 2.0302 0.9649
0.0468 2.0329 0.9657
-0.0265 2.0330 0.9666
-0.0998 2.0304 0.9674
-0.1730 2.0252 0.9682
-0.2459 2.0173 0.9689
-0.3185 2.0068 0.9696
-0.3907 1.9937 0.9703
-0.4623 1.9780 0.9709
-0.5334 1.9597 0.9715
-0.6037 1.9389 0.9721
-0.6732 1.9155 0.9726
-0.7419 1.8897 0.9730
-0.8095 1.8614 0.9735
-0.8761 1.8307 0.9738
-2.3186 4.4264 2.3989
-2.4760 4.3378 2.3989
-2.6301 4.2438 2.3989
-2.7807 4.1446 2.3989
-2.9279 4.0401 2.3989
-3.0712 3.9307 2.3989
-3.2106 3.8163 2.3989
-3.3460 3.6972 2.3989
-3.4771 3.5735 2.3989
-3.6038 3.4452 2.3989
-3.7260 3.3127 2.3989
-3.8434 3.1760 2.3989
-3.9561 3.0352 2.3989
-4.0638 2.8907 2.3989
-4.1665 2.7424 2.3989
-4.2639 2.5906 2.3989
-4.3560 2.4355 2.3989
-4.4427 2.2773 2.3989
-4.5239 2.1161 2.3989
-4.5994 1.9520 2.3989
-4.6692 1.7854 2.3989
-4.7331 1.6164 2.3989
-4.7912 1.4452 2.3989
-4.8433 1.2720 2.3989
-4.8893 1.0970 2.3989
-4.9292 0.9203 2.3989
-4.9629 0.7423 2.3989
-4.9905 0.5631 2.3989
-5.0117 0.3829 2.3989
-5.0266 0.2020 2.3989
-5.0352 0.0205 2.3989
-5.0375 -0.1614 2.3989
-5.0333 -0.3433 2.3989
-5.0228 -0.5251 2.3989
-5.0058 -0.7067 2.3989
-4.9825 -0.8876 2.3989
-4.9528 -1.0678 2.3989
-4.9167 -1.2470 2.3989
-4.8744 -1.4250 2.3989
-4.8257 -1.6016 2.3989
-4.7707 -1.7765 2.3989
-4.7095 -1.9496 2.3989
-4.6422 -2.1205 2.3989
-4.5688 -2.2892 2.3989
-4.4894 -2.4553 2.3989
-4.4040 -2.6187 2.3989
-4.3128 -2.7791 2.3989
-4.2158 -2.9363 2.3989
-4.1132 -3.0902 2.3989
-4.0050 -3.2405 2.3989
-3.8914 -3.3870 2.3989
-3.7726 -3.5295 2.3989
-3.6485 -3.6678 2.3989
-3.5194 -3.8018 2.3989
-3.3855 -3.9311 2.3989
-3.2468 -4.0558 2.3989
-3.1036 -4.1755 2.3989
-2.9560 -4.2901 2.3989
-2.8042 -4.3995 2.3989
-2.6484 -4.5034 2.3989
-2.4887 -4.6018 2.3989
-2.3254 -4.6944 2.3989
-2.1587 -4.7812 2.3989
-1.9887 -4.8619 2.3989
-1.8158 -4.9366 2.3989
-1.6401 -5.0049 2.3989
-1.4618 -5.0669 2.3989
-1.2812 -5.1225 2.3989
-1.0985 -5.1714 2.3989
-0.9139 -5.2138 2.3989
-0.7278 -5.2493 2.3989
-0.5403 -5.2781 2.3989
-0.3517 -5.3001 2.3989
-0.1622 -5.3151 2.3989
0.0279 -5.3232 2.3989
0.2182 -5.3243 2.3989
0.4087 -5.3184 2.3989
0.5989 -5.3055 2.3989
0.7887 -5.2856 2.3989
0.9778 -5.2588 2.3989
1.1659 -5.2249 2.3989
1.3527 -5.1841 2.3989
1.5381 -5.1365 2.3989
1.7216 -5.0819 2.3989
1.9031 -5.0206 2.3989
2.0823 -4.9526 2.3989
2.2590 -4.8781 2.3989
2.4328 -4.7969 2.3989
2.6036 -4.7094 2.3989
2.7711 -4.6155 2.3989
2.9351 -4.5155 2.3989
3.0953 -4.4094 2.3989
3.2514 -4.2969 2.3989
3.4035 -4.1798 2.3989
3.5510 -4.0566 2.3989
3.6939 -3.9279 2.3989
3.8319 -3.7940 2.3989
3.9648 -3.6551 2.3989
4.0926 -3.5113 2.3989
4.2148 -3.3629 2.3989
4.3315 -3.2101 2.3989
4.4425 -3.0531 2.3989
4.5475 -2.8921 2.3989
4.6464 -2.7274 2.3989
4.7392 -2.5591 2.3989
4.8256 -2.3876 2.3989
4.9056 -2.2130 2.3989
4.9790 -2.0357 2.3989
5.0458 -1.8558 2.3989
5.1059 -1.6737 2.3989
5.1592 -1.4895 2.3989
5.2056 -1.3036 2.3989
5.2451 -1.1163 2.3989
5.2776 -0.9277 2.3989
5.3031 -0.7381 2.3989
5.3216 -0.5479 2.3989
5.3331 -0.3572 2.3989
5.3376 -0.1664 2.3989
5.3350 0.0243 2.3989
5.3255 0.2146 2.3989
5.3089 0.4043 2.3989
5.2855 0.5931 2.3989
5.2552 0.7808 2.3989
5.2180 0.9670 2.3989
5.1741 1.1516 2.3989
5.1236 1.3343 2.3989
5.0664 1.5148 2.3989
5.0028 1.6930 2.3989
4.9328 1.8686 2.3989
4.8565 2.0413 2.3989
4.7742 2.2109 2.3989
4.6857 2.3773 2.3989
4.5915 2.5401 2.3989
4.4915 2.6993 2.3989
4.3859 2.8546 2.3989
4.2749 3.0058 2.3989
4.1586 3.1527 2.3989
4.0373 3.2952 2.3989
3.9110 3.4330 2.3989
3.7800 3.5661 2.3989
3.6445 3.6942 2.3989
3.5047 3.8172 2.3989
3.3606 3.9351 2.3989
3.2127 4.0475 2.3989
3.0610 4.1544 2.3989
2.9057 4.2558 2.3989
2.7471 4.3514 2.3989
2.5854 4.4412 2.3989
2.4207 4.5251 2.3989
0.8957 1.8296 0.9535
0.8292 1.8604 0.9546
0.7616 1.8887 0.9558
0.6930 1.9146 0.9569
0.6236 1.9381 0.9580
0.5533 1.9590 0.9590
0.4824 1.9773 0.9601
0.4108 1.9931 0.9611
0.3386 2.0063 0.9621
0.2661 2.0169 0.9630
0.1932 2.0249 0.9640
0.1200 2.0302 0.9649
0.0468 2.0329 0.9657
-0.0266 2.0330 0.9666
-0.0999 2.0304 0.9674
-0.1730 2.0251 0.9682
-0.2460 2.0173 0.9689
-0.3186 2.0068 0.9696
-0.3907 1.9937 0.9703
-0.4624 1.9780 0.9709
-0.5334 1.9597 0.9715
-0.6037 1.9389 0.9721
-0.6733 1.9155 0.9726
-0.7419 1.8897 0.9730
-0.8096 1.8614 0.9735
-0.8762 1.8306 0.9738
-2.3187 4.4264 2.3989
-2.4761 4.3378 2.3989
-2.6302 4.2438 2.3989
-2.7808 4.1445 2.3989
-2.9279 4.0401 2.3989
-3.0713 3.9306 2.3989
-3.2107 3.8162 2.3989
-3.3461 3.6971 2.3989
-3.4772 3.5734 2.3989
-3.6039 3.4451 2.3989
-3.7260 3.3126 2.3989
-3.8435 3.1759 2.3989
-3.9562 3.0351 2.3989
-4.0639 2.8906 2.3989
-4.1665 2.7423 2.3989
-4.2640 2.5905 2.3989
-4.3561 2.4354 2.3989
-4.4428 2.2772 2.3989
-4.5239 2.1160 2.3989
-4.5994 1.9519 2.3989
-4.6692 1.7853 2.3989
-4.7332 1.6163 2.3989
-4.7912 1.4451 2.3989
-4.8433 1.2719 2.3989
-4.8893 1.0969 2.3989
-4.9292 0.9202 2.3989
-4.9630 0.7422 2.3989
-4.9905 0.5630 2.3989
-5.0117 0.3828 2.3989
-5.0266 0.2018 2.3989
-5.0352 0.0203 2.3989
-5.0375 -0.1615 2.3989
-5.0333 -0.3434 2.3989
-5.0228 -0.5253 2.3989
-5.0058 -0.7068 2.3989
-4.9825 -0.8877 2.3989
-4.9528 -1.0679 2.3989
-4.9167 -1.2471 2.3989
-4.8743 -1.4252 2.3989
-4.8256 -1.6017 2.3989
-4.7707 -1.7766 2.3989
-4.7095 -1.9497 2.3989
-4.6422 -2.1206 2.3989
-4.5688 -2.2893 2.3989
-4.4893 -2.4554 2.3989
-4.4040 -2.6188 2.3989
-4.3127 -2.7792 2.3989
-4.2158 -2.9364 2.3989
-4.1131 -3.0903 2.3989
-4.0050 -3.2406 2.3989
-3.8914 -3.3871 2.3989
-3.7725 -3.5296 2.3989
-3.6484 -3.6679 2.3989
-3.5193 -3.8018 2.3989
-3.3854 -3.9312 2.3989
-3.2467 -4.0559 2.3989
-3.1035 -4.1756 2.3989
-2.9559 -4.2902 2.3989
-2.8041 -4.3996 2.3989
-2.6483 -4.5035 2.3989
-2.4886 -4.6019 2.3989
-2.3253 -4.6945 2.3989
-2.1586 -4.7812 2.3989
-1.9886 -4.8620 2.3989
-1.8157 -4.9366 2.3989
-1.6400 -5.0050 2.3989
-1.4617 -5.0670 2.3989
-1.2811 -5.1225 2.3989
-1.0984 -5.1715 2.3989
-0.9138 -5.2138 2.3989
-0.7277 -5.2494 2.3989
-0.5401 -5.2782 2.3989
-0.3515 -5.3001 2.3989
-0.1621 -5.3151 2.3989
0.0277 -5.0183 2.3989
0.2071 -5.0191 2.3989
0.3865 -5.0134 2.3989
0.5658 -5.0010 2.3989
0.7446 -4.9820 2.3989
0.9228 -4.9565 2.3989
1.0999 -4.9244 2.3989
1.2759 -4.8858 2.3989
1.4505 -4.8407 2.3989
1.6234 -4.7892 2.3989
1.7943 -4.7313 2.3989
1.9631 -4.6671 2.3989
2.1294 -4.5967 2.3989
2.2932 -4.5202 2.3989
2.4540 -4.4376 2.3989
2.6117 -4.3491 2.3989
2.7661 -4.2548 2.3989
2.9170 -4.1549 2.3989
3.0641 -4.0493 2.3989
3.2072 -3.9385 2.3989
3.3461 -3.8223 2.3989
3.4807 -3.7011 2.3989
3.6106 -3.5750 2.3989
3.7359 -3.4442 2.3989
3.8562 -3.3088 2.3989
3.9714 -3.1690 2.3989
4.0813 -3.0251 2.3989
4.1858 -2.8772 2.3989
4.2848 -2.7256 2.3989
4.3780 -2.5705 2.3989
4.4655 -2.4120 2.3989
4.5470 -2.2505 2.3989
4.6224 -2.0861 2.3989
4.6917 -1.9191 2.3989
4.7548 -1.7497 2.3989
4.8115 -1.5782 2.3989
4.8618 -1.4048 2.3989
4.9057 -1.2297 2.3989
4.9431 -1.0532 2.3989
4.9739 -0.8755 2.3989
4.9982 -0.6970 2.3989
5.0158 -0.5178 2.3989
5.0269 -0.3381 2.3989
5.0313 -0.1583 2.3989
5.0291 0.0214 2.3989
5.0203 0.2007 2.3989
5.0050 0.3795 2.3989
4.9832 0.5575 2.3989
4.9548 0.7344 2.3989
4.9201 0.9100 2.3989
4.8790 1.0841 2.3989
4.8316 1.2563 2.3989
4.7780 1.4266 2.3989
4.7183 1.5947 2.3989
4.6526 1.7603 2.3989
4.5810 1.9233 2.3989
4.5036 2.0834 2.3989
4.4205 2.2404 2.3989
4.3318 2.3942 2.3989
4.2378 2.5445 2.3989
4.1385 2.6911 2.3989
4.0340 2.8339 2.3989
3.9246 2.9727 2.3989
3.8104 3.1073 2.3989
3.6915 3.2375 2.3989
3.5682 3.3633 2.3989
3.4406 3.4844 2.3989
3.3088 3.6008 2.3989
3.1731 3.7122 2.3989
3.0337 3.8185 2.3989
2.8907 3.9197 2.3989
2.7443 4.0157 2.3989
2.5947 4.1062 2.3989
2.4422 4.1913 2.3989
0.9073 1.6943 0.9517
0.8456 1.7256 0.9528
0.7829 1.7546 0.9539
0.7192 1.7814 0.9549
0.6545 1.8058 0.9560
0.5889 1.8279 0.9570
0.5227 1.8476 0.9580
0.4557 1.8649 0.9590
0.3882 1.8798 0.9599
0.3201 1.8923 0.9609
0.2517 1.9023 0.9618
0.1829 1.9098 0.9627
0.1139 1.9148 0.9635
0.0447 1.9173 0.9643
-0.0244 1.9174 0.9651
-0.0936 1.9149 0.9659
-0.1626 1.9100 0.9666
-0.2314 1.9026 0.9673
-0.2999 1.8927 0.9680
-0.3680 1.8803 0.9686
-0.4356 1.8655 0.9692
-0.5026 1.8482 0.9698
-0.5689 1.8286 0.9703
-0.6345 1.8066 0.9708
-0.6993 1.7822 0.9712
-0.7631 1.7555 0.9716
-0.8260 1.7265 0.9720
-0.8877 1.6953 0.9723
-2.3389 4.0990 2.3989
-2.4846 4.0102 2.3989
-2.6271 3.9164 2.3989
-2.7662 3.8178 2.3989
-2.9018 3.7143 2.3989
-3.0336 3.6063 2.3989
-3.1615 3.4937 2.3989
-3.2855 3.3767 2.3989
-3.4053 3.2555 2.3989
-3.5208 3.1302 2.3989
-3.6318 3.0010 2.3989
-3.7383 2.8679 2.3989
-3.8401 2.7312 2.3989
-3.9371 2.5911 2.3989
-4.0292 2.4476 2.3989
-4.1162 2.3009 2.3989
-4.1981 2.1513 2.3989
-4.2747 1.9989 2.3989
-4.3460 1.8438 2.3989
-4.4119 1.6863 2.3989
-4.4722 1.5265 2.3989
-4.5270 1.3646 2.3989
-4.5761 1.2009 2.3989
-4.6195 1.0354 2.3989
-4.6570 0.8685 2.3989
-4.6888 0.7002 2.3989
-4.7146 0.5308 2.3989
-4.7345 0.3605 2.3989
-4.7484 0.1895 2.3989
-4.7563 0.0180 2.3989
-4.7583 -0.1538 2.3989
-4.7541 -0.3257 2.3989
-4.7439 -0.4975 2.3989
-4.7277 -0.6689 2.3989
-4.7055 -0.8399 2.3989
-4.6772 -1.0100 2.3989
-4.6428 -1.1793 2.3989
-4.6026 -1.3473 2.3989
-4.5563 -1.5140 2.3989
-4.5041 -1.6792 2.3989
-4.4461 -1.8425 2.3989
-4.3823 -2.0038 2.3989
-4.3127 -2.1629 2.3989
-4.2375 -2.3197 2.3989
-4.1566 -2.4738 2.3989
-4.0702 -2.6251 2.3989
-3.9784 -2.7734 2.3989
-3.8813 -2.9184 2.3989
-3.7789 -3.0601 2.3989
-3.6715 -3.1982 2.3989
-3.5590 -3.3325 2.3989
-3.4417 -3.4628 2.3989
-3.3197 -3.5890 2.3989
-3.1931 -3.7109 2.3989
-3.0621 -3.8282 2.3989
-2.9267 -3.9409 2.3989
-2.7873 -4.0488 2.3989
-2.6439 -4.1517 2.3989
-2.4967 -4.2495 2.3989
-2.3460 -4.3420 2.3989
-2.1918 -4.4291 2.3989
-2.0344 -4.5106 2.3989
-1.8740 -4.5865 2.3989
-1.7108 -4.6566 2.3989
-1.5450 -4.7208 2.3989
-1.3768 -4.7790 2.3989
-1.2064 -4.8310 2.3989
-1.0341 -4.8769 2.3989
-0.8601 -4.9165 2.3989
-0.6845 -4.9499 2.3989
-0.5078 -4.9766 2.3989
-0.3299 -4.9971 2.3989
-0.1513 -5.0110 2.3989
0.0278 -5.0183 2.3989
0.2072 -5.0191 2.3989
0.3867 -5.0134 2.3989
0.5659 -5.0010 2.3989
0.7447 -4.9820 2.3989
0.9229 -4.9565 2.3989
1.1001 -4.9244 2.3989
1.2760 -4.8858 2.3989
1.4506 -4.8407 2.3989
1.6235 -4.7892 2.3989
1.7944 -4.7313 2.3989
1.9632 -4.6671 2.3989
2.1296 -4.5967 2.3989
2.2933 -4.5201 2.3989
2.4541 -4.4375 2.3989
2.6118 -4.3491 2.3989
2.7662 -4.2547 2.3989
2.9171 -4.1548 2.3989
3.0642 -4.0492 2.3989
3.2073 -3.9385 2.3989
3.3462 -3.8223 2.3989
3.4808 -3.7011 2.3989
3.6107 -3.5749 2.3989
3.7360 -3.4441 2.3989
3.8562 -3.3087 2.3989
3.9714 -3.1689 2.3989
4.0814 -3.0250 2.3989
4.1859 -2.8771 2.3989
4.2848 -2.7255 2.3989
4.3781 -2.5704 2.3989
4.4655 -2.4119 2.3989
4.5470 -2.2504 2.3989
4.6225 -2.0860 2.3989
4.6918 -1.9190 2.3989
4.7548 -1.7496 2.3989
4.8115 -1.5781 2.3989
4.8619 -1.4046 2.3989
4.9057 -1.2296 2.3989
4.9431 -1.0531 2.3989
4.9739 -0.8754 2.3989
4.9982 -0.6969 2.3989
5.0158 -0.5176 2.3989
5.0269 -0.3380 2.3989
5.0313 -0.1582 2.3989
5.0291 0.0215 2.3989
5.0203 0.2009 2.3989
5.0050 0.3796 2.3989
4.9832 0.5576 2.3989
4.9548 0.7345 2.3989
4.9201 0.9101 2.3989
4.8790 1.0842 2.3989
4.8316 1.2565 2.3989
4.7780 1.4267 2.3989
4.7183 1.5948 2.3989
4.6526 1.7604 2.3989
4.5809 1.9234 2.3989
4.5035 2.0835 2.3989
4.4204 2.2405 2.3989
4.3318 2.3943 2.3989
4.2377 2.5446 2.3989
4.1384 2.6912 2.3989
4.0340 2.8340 2.3989
3.9245 2.9728 2.3989
3.8103 3.1074 2.3989
3.6915 3.2376 2.3989
3.5681 3.3634 2.3989
3.4405 3.4845 2.3989
3.3087 3.6008 2.3989
3.1730 3.7122 2.3989
3.0336 3.8186 2.3989
2.8906 3.9198 2.3989
2.7442 4.0157 2.3989
2.5946 4.1063 2.3989
2.4421 4.1913 2.3989
0.9073 1.6943 0.9517
0.8456 1.7256 0.9528
0.7829 1.7546 0.9539
0.7191 1.7814 0.9549
0.6544 1.8058 0.9560
0.5889 1.8279 0.9570
0.5226 1.8476 0.9580
0.4557 1.8649 0.9590
0.3881 1.8798 0.9599
0.3201 1.8923 0.9609
0.2516 1.9023 0.9618
0.1828 1.9098 0.9627
0.1138 1.9148 0.9635
0.0447 1.9173 0.9643
-0.0245 1.9174 0.9651
-0.0936 1.9149 0.9659
-0.1627 1.9100 0.9666
-0.2315 1.9026 0.9673
-0.2999 1.8927 0.9680
-0.3680 1.8803 0.9686
-0.4356 1.8655 0.9692
-0.5026 1.8482 0.9698
-0.5690 1.8286 0.9703
-0.6346 1.8066 0.9708
-0.6993 1.7822 0.9712
-0.7632 1.7555 0.9716
-0.8260 1.7265 0.9720
-0.8878 1.6953 0.9723
-2.3390 4.0989 2.3989
-2.4847 4.0102 2.3989
-2.6272 3.9164 2.3989
-2.7663 3.8177 2.3989
-2.9018 3.7143 2.3989
-3.0337 3.6062 2.3989
-3.1616 3.4936 2.3989
-3.2856 3.3767 2.3989
-3.4054 3.2554 2.3989
-3.5209 3.1301 2.3989
-3.6319 3.0009 2.3989
-3.7384 2.8679 2.3989
-3.8402 2.7312 2.3989
-3.9372 2.5910 2.3989
-4.0293 2.4475 2.3989
-4.1163 2.3008 2.3989
-4.1982 2.1512 2.3989
-4.2748 1.9988 2.3989
-4.3461 1.8437 2.3989
-4.4119 1.6862 2.3989
-4.4723 1.5264 2.3989
-4.5270 1.3645 2.3989
-4.5761 1.2008 2.3989
-4.6195 1.0353 2.3989
-4.6571 0.8684 2.3989
-4.6888 0.7001 2.3989
-4.7146 0.5307 2.3989
-4.7345 0.3604 2.3989
-4.7484 0.1894 2.3989
-4.7563 0.0179 2.3989
-4.7583 -0.1539 2.3989
-4.7541 -0.3258 2.3989
-4.7439 -0.4976 2.3989
-4.7277 -0.6690 2.3989
-4.7054 -0.8400 2.3989
-4.6771 -1.0102 2.3989
-4.6428 -1.1794 2.3989
-4.6025 -1.3475 2.3989
-4.5563 -1.5142 2.3989
-4.5041 -1.6793 2.3989
-4.4461 -1.8426 2.3989
-4.3823 -2.0039 2.3989
-4.3127 -2.1630 2.3989
-4.2374 -2.3198 2.3989
-4.1565 -2.4739 2.3989
-4.0702 -2.6252 2.3989
-3.9784 -2.7734 2.3989
-3.8812 -2.9185 2.3989
-3.7789 -3.0602 2.3989
-3.6714 -3.1983 2.3989
-3.5590 -3.3326 2.3989
-3.4417 -3.4629 2.3989
-3.3196 -3.5891 2.3989
-3.1930 -3.7109 2.3989
-3.0620 -3.8283 2.3989
-2.9266 -3.9410 2.3989
-2.7872 -4.0489 2.3989
-2.6438 -4.1518 2.3989
-2.4966 -4.2496 2.3989
-2.3459 -4.3421 2.3989
-2.1917 -4.4292 2.3989
-2.0343 -4.5107 2.3989
-1.8739 -4.5866 2.3989
-1.7107 -4.6566 2.3989
-1.5449 -4.7208 2.3989
-1.3767 -4.7790 2.3989
-1.2063 -4.8311 2.3989
-1.0340 -4.8769 2.3989
-0.8600 -4.9166 2.3989
-0.6844 -4.9499 2.3989
-0.5076 -4.9767 2.3989
-0.3298 -4.9971 2.3989
-0.1512 -5.0110 2.3989
0.0276 -4.7409 2.3989
0.1970 -4.7415 2.3989
0.3665 -4.7358 2.3989
0.5358 -4.7239 2.3989
0.7046 -4.7058 2.3989
0.8728 -4.6816 2.3989
1.0401 -4.6511 2.3989
1.2062 -4.6145 2.3989
1.3710 -4.5717 2.3989
1.5341 -4.5230 2.3989
1.6955 -4.4682 2.3989
1.8548 -4.4074 2.3989
2.0118 -4.3409 2.3989
2.1663 -4.2685 2.3989
2.3181 -4.1905 2.3989
2.4669 -4.1068 2.3989
2.6127 -4.0178 2.3989
2.7550 -3.9234 2.3989
2.8938 -3.8237 2.3989
3.0288 -3.7189 2.3989
3.1600 -3.6093 2.3989
3.2870 -3.4949 2.3989
3.4096 -3.3759 2.3989
3.5278 -3.2524 2.3989
3.6414 -3.1246 2.3989
3.7501 -2.9927 2.3989
3.8539 -2.8568 2.3989
3.9526 -2.7173 2.3989
4.0461 -2.5742 2.3989
4.1342 -2.4278 2.3989
4.2168 -2.2782 2.3989
4.2938 -2.1258 2.3989
4.3651 -1.9706 2.3989
4.4306 -1.8130 2.3989
4.4902 -1.6532 2.3989
4.5439 -1.4913 2.3989
4.5915 -1.3276 2.3989
4.6331 -1.1623 2.3989
4.6685 -0.9957 2.3989
4.6978 -0.8280 2.3989
4.7208 -0.6595 2.3989
4.7376 -0.4902 2.3989
4.7483 -0.3206 2.3989
4.7526 -0.1509 2.3989
4.7508 0.0188 2.3989
4.7427 0.1882 2.3989
4.7284 0.3571 2.3989
4.7080 0.5252 2.3989
4.6815 0.6923 2.3989
4.6489 0.8582 2.3989
4.6103 1.0227 2.3989
4.5658 1.1855 2.3989
4.5154 1.3464 2.3989
4.4592 1.5053 2.3989
4.3974 1.6619 2.3989
4.3299 1.8159 2.3989
4.2570 1.9673 2.3989
4.1787 2.1158 2.3989
4.0952 2.2612 2.3989
4.0066 2.4034 2.3989
3.9129 2.5422 2.3989
3.8144 2.6773 2.3989
3.7112 2.8086 2.3989
3.6035 2.9360 2.3989
3.4913 3.0594 2.3989
3.3749 3.1784 2.3989
3.2544 3.2932 2.3989
3.1301 3.4034 2.3989
3.0019 3.5089 2.3989
2.8702 3.6097 2.3989
2.7352 3.7056 2.3989
2.5969 3.7966 2.3989
2.4556 3.8824 2.3989
0.9155 1.5696 0.9501
0.8583 1.6012 0.9511
0.8000 1.6308 0.9522
0.7407 1.6582 0.9532
0.6804 1.6835 0.9542
0.6193 1.7066 0.9552
0.5573 1.7274 0.9561
0.4946 1.7461 0.9571
0.4313 1.7624 0.9580
0.3675 1.7765 0.9589
0.3032 1.7883 0.9598
0.2385 1.7977 0.9607
0.1735 1.8048 0.9615
0.1082 1.8096 0.9623
0.0429 1.8119 0.9631
-0.0225 1.8120 0.9638
-0.0879 1.8097 0.9645
-0.1532 1.8050 0.9652
-0.2182 1.7980 0.9659
-0.2829 1.7886 0.9665
-0.3473 1.7769 0.9671
-0.4112 1.7629 0.9677
-0.4745 1.7466 0.9682
-0.5373 1.7281 0.9687
-0.5993 1.7072 0.9692
-0.6605 1.6842 0.9696
-0.7208 1.6590 0.9700
-0.7802 1.6316 0.9703
-0.8386 1.6021 0.9706
-0.8959 1.5705 0.9709
-2.3516 3.7964 2.3989
-2.4865 3.7076 2.3989
-2.6183 3.6143 2.3989
-2.7467 3.5163 2.3989
-2.8715 3.4140 2.3989
-2.9927 3.3074 2.3989
-3.1102 3.1967 2.3989
-3.2236 3.0819 2.3989
-3.3330 2.9632 2.3989
-3.4382 2.8408 2.3989
-3.5390 2.7148 2.3989
-3.6354 2.5853 2.3989
-3.7272 2.4526 2.3989
-3.8144 2.3167 2.3989
-3.8967 2.1778 2.3989
-3.9742 2.0360 2.3989
-4.0467 1.8916 2.3989
-4.1142 1.7448 2.3989
-4.1765 1.5956 2.3989
-4.2335 1.4442 2.3989
-4.2853 1.2909 2.3989
-4.3317 1.1358 2.3989
-4.3726 0.9791 2.3989
-4.4081 0.8210 2.3989
-4.4379 0.6617 2.3989
-4.4623 0.5013 2.3989
-4.4809 0.3400 2.3989
-4.4940 0.1781 2.3989
-4.5013 0.0158 2.3989
-4.5029 -0.1469 2.3989
-4.4988 -0.3096 2.3989
-4.4890 -0.4722 2.3989
-4.4735 -0.6345 2.3989
-4.4522 -0.7962 2.3989
-4.4252 -0.9572 2.3989
-4.3925 -1.1174 2.3989
-4.3542 -1.2764 2.3989
-4.3102 -1.4340 2.3989
-4.2606 -1.5902 2.3989
-4.2055 -1.7447 2.3989
-4.1449 -1.8972 2.3989
-4.0788 -2.0477 2.3989
-4.0074 -2.1958 2.3989
-3.9307 -2.3415 2.3989
-3.8488 -2.4845 2.3989
-3.7617 -2.6246 2.3989
-3.6696 -2.7617 2.3989
-3.5726 -2.8955 2.3989
-3.4708 -3.0259 2.3989
-3.3642 -3.1527 2.3989
-3.2531 -3.2758 2.3989
-3.1375 -3.3949 2.3989
-3.0176 -3.5099 2.3989
-2.8935 -3.6207 2.3989
-2.7654 -3.7270 2.3989
-2.6335 -3.8288 2.3989
-2.4977 -3.9258 2.3989
-2.3585 -4.0180 2.3989
-2.2159 -4.1052 2.3989
-2.0700 -4.1873 2.3989
-1.9212 -4.2641 2.3989
-1.7695 -4.3356 2.3989
-1.6152 -4.4015 2.3989
-1.4584 -4.4619 2.3989
-1.2994 -4.5167 2.3989
-1.1384 -4.5656 2.3989
-0.9755 -4.6087 2.3989
-0.8110 -4.6459 2.3989
-0.6452 -4.6771 2.3989
-0.4781 -4.7022 2.3989
-0.3102 -4.7213 2.3989
-0.1415 -4.7342 2.3989
0.0277 -4.7409 2.3989
0.1971 -4.7415 2.3989
0.3666 -4.7358 2.3989
0.5359 -4.7239 2.3989
0.7047 -4.7058 2.3989
0.8729 -4.6815 2.3989
1.0402 -4.6511 2.3989
1.2063 -4.6144 2.3989
1.3711 -4.5717 2.3989
1.5342 -4.5229 2.3989
1.6956 -4.4681 2.3989
1.8549 -4.4074 2.3989
2.0119 -4.3408 2.3989
2.1664 -4.2685 2.3989
2.3182 -4.1904 2.3989
2.4670 -4.1068 2.3989
2.6127 -4.0178 2.3989
2.7551 -3.9233 2.3989
2.8939 -3.8237 2.3989
3.0289 -3.7189 2.3989
3.1601 -3.6093 2.3989
3.2870 -3.4949 2.3989
3.4097 -3.3758 2.3989
3.5279 -3.2523 2.3989
3.6415 -3.1245 2.3989
3.7502 -2.9926 2.3989
3.8540 -2.8567 2.3989
3.9527 -2.7172 2.3989
4.0461 -2.5741 2.3989
4.1342 -2.4277 2.3989
4.2168 -2.2781 2.3989
4.2938 -2.1257 2.3989
4.3651 -1.9705 2.3989
4.4306 -1.8129 2.3989
4.4902 -1.6531 2.3989
4.5439 -1.4912 2.3989
4.5915 -1.3275 2.3989
4.6331 -1.1622 2.3989
4.6685 -0.9956 2.3989
4.6978 -0.8279 2.3989
4.7208 -0.6593 2.3989
4.7377 -0.4901 2.3989
4.7483 -0.3205 2.3989
4.7526 -0.1508 2.3989
4.7508 0.0189 2.3989
4.7427 0.1883 2.3989
4.7284 0.3572 2.3989
4.7080 0.5253 2.3989
4.6815 0.6924 2.3989
4.6489 0.8583 2.3989
4.6103 1.0228 2.3989
4.5657 1.1856 2.3989
4.5153 1.3465 2.3989
4.4592 1.5054 2.3989
4.3973 1.6620 2.3989
4.3299 1.8160 2.3989
4.2570 1.9674 2.3989
4.1787 2.1159 2.3989
4.0952 2.2613 2.3989
4.0065 2.4035 2.3989
3.9129 2.5422 2.3989
3.8144 2.6774 2.3989
3.7112 2.8087 2.3989
3.6034 2.9361 2.3989
3.4913 3.0594 2.3989
3.3748 3.1785 2.3989
3.2544 3.2932 2.3989
3.1300 3.4034 2.3989
3.0018 3.5090 2.3989
2.8701 3.6098 2.3989
2.7351 3.7057 2.3989
2.5968 3.7966 2.3989
2.4555 3.8825 2.3989
0.9154 1.5696 0.9501
0.8582 1.6012 0.9511
0.8000 1.6308 0.9522
0.7406 1.6582 0.9532
0.6804 1.6835 0.9542
0.6192 1.7066 0.9552
0.5573 1.7274 0.9561
0.4946 1.7461 0.9571
0.4313 1.7624 0.9580
0.3675 1.7765 0.9589
0.3031 1.7883 0.9598
0.2384 1.7977 0.9607
0.1734 1.8048 0.9615
0.1082 1.8096 0.9623
0.0428 1.8119 0.9631
-0.0226 1.8120 0.9638
-0.0880 1.8097 0.9645
-0.1532 1.8050 0.9652
-0.2182 1.7980 0.9659
-0.2830 1.7886 0.9665
-0.3473 1.7769 0.9671
-0.4112 1.7629 0.9677
-0.4746 1.7466 0.9682
-0.5373 1.7280 0.9687
-0.5993 1.7072 0.9692
-0.6605 1.6842 0.9696
-0.7209 1.6589 0.9700
-0.7803 1.6316 0.9703
-0.8386 1.6020 0.9706
-0.8959 1.5705 0.9709
-2.3517 3.7963 2.3989
-2.4866 3.7076 2.3989
-2.6184 3.6142 2.3989
-2.7468 3.5163 2.3989
-2.8716 3.4140 2.3989
-2.9928 3.3074 2.3989
-3.1102 3.1966 2.3989
-3.2237 3.0818 2.3989
-3.3331 2.9631 2.3989
-3.4382 2.8407 2.3989
-3.5391 2.7147 2.3989
-3.6355 2.5853 2.3989
-3.7273 2.4525 2.3989
-3.8144 2.3166 2.3989
-3.8968 2.1777 2.3989
-3.9743 2.0359 2.3989
-4.0468 1.8915 2.3989
-4.1142 1.7447 2.3989
-4.1765 1.5955 2.3989
-4.2336 1.4441 2.3989
-4.2853 1.2908 2.3989
-4.3317 1.1357 2.3989
-4.3726 0.9790 2.3989
-4.4081 0.8209 2.3989
-4.4380 0.6616 2.3989
-4.4623 0.5012 2.3989
-4.4810 0.3399 2.3989
-4.4940 0.1780 2.3989
-4.5013 0.0156 2.3989
-4.5029 -0.1470 2.3989
-4.4988 -0.3097 2.3989
-4.4890 -0.4723 2.3989
-4.4735 -0.6346 2.3989
-4.4522 -0.7963 2.3989
-4.4252 -0.9573 2.3989
-4.3925 -1.1175 2.3989
-4.3541 -1.2765 2.3989
-4.3102 -1.4341 2.3989
-4.2606 -1.5903 2.3989
-4.2055 -1.7448 2.3989
-4.1448 -1.8973 2.3989
-4.0788 -2.0478 2.3989
-4.0074 -2.1959 2.3989
-3.9306 -2.3416 2.3989
-3.8487 -2.4846 2.3989
-3.7616 -2.6247 2.3989
-3.6696 -2.7617 2.3989
-3.5725 -2.8956 2.3989
-3.4707 -3.0260 2.3989
-3.3642 -3.1528 2.3989
-3.2530 -3.2759 2.3989
-3.1374 -3.3950 2.3989
-3.0175 -3.5100 2.3989
-2.8935 -3.6207 2.3989
-2.7654 -3.7271 2.3989
-2.6334 -3.8288 2.3989
-2.4977 -3.9259 2.3989
-2.3584 -4.0181 2.3989
-2.2158 -4.1053 2.3989
-2.0699 -4.1873 2.3989
-1.9211 -4.2642 2.3989
-1.7694 -4.3356 2.3989
-1.6151 -4.4016 2.3989
-1.4583 -4.4620 2.3989
-1.2993 -4.5167 2.3989
-1.1382 -4.5656 2.3989
-0.9754 -4.6087 2.3989
-0.8109 -4.6459 2.3989
-0.6451 -4.6771 2.3989
-0.4780 -4.7023 2.3989
-0.3101 -4.7213 2.3989
-0.1414 -4.7342 2.3989
0.0275 -4.4872 2.3989
0.1878 -4.4875 2.3989
0.3482 -4.4820 2.3989
0.5083 -4.4706 2.3989
0.6680 -4.4533 2.3989
0.8271 -4.4301 2.3989
0.9853 -4.4012 2.3989
1.1424 -4.3664 2.3989
1.2983 -4.3258 2.3989
1.4526 -4.2796 2.3989
1.6051 -4.2276 2.3989
1.7558 -4.1701 2.3989
1.9042 -4.1070 2.3989
2.0503 -4.0385 2.3989
2.1938 -3.9647 2.3989
2.3346 -3.8854 2.3989
2.4724 -3.8012 2.3989
2.6070 -3.7118 2.3989
2.7382 -3.6176 2.3989
2.8659 -3.5185 2.3989
2.9899 -3.4147 2.3989
3.1100 -3.3065 2.3989
3.2260 -3.1939 2.3989
3.3377 -3.0771 2.3989
3.4451 -2.9562 2.3989
3.5480 -2.8315 2.3989
3.6462 -2.7031 2.3989
3.7395 -2.5711 2.3989
3.8279 -2.4358 2.3989
3.9113 -2.2974 2.3989
3.9895 -2.1560 2.3989
4.0623 -2.0118 2.3989
4.1298 -1.8651 2.3989
4.1919 -1.7161 2.3989
4.2484 -1.5649 2.3989
4.2992 -1.4118 2.3989
4.3444 -1.2570 2.3989
4.3838 -1.1007 2.3989
4.4175 -0.9432 2.3989
4.4453 -0.7846 2.3989
4.4672 -0.6251 2.3989
4.4833 -0.4651 2.3989
4.4935 -0.3046 2.3989
4.4978 -0.1440 2.3989
4.4962 0.0165 2.3989
4.4887 0.1768 2.3989
4.4754 0.3366 2.3989
4.4563 0.4957 2.3989
4.4314 0.6538 2.3989
4.4007 0.8108 2.3989
4.3644 0.9665 2.3989
4.3225 1.1207 2.3989
4.2750 1.2730 2.3989
4.2220 1.4235 2.3989
4.1637 1.5717 2.3989
4.1001 1.7177 2.3989
4.0313 1.8611 2.3989
3.9574 2.0017 2.3989
3.8785 2.1395 2.3989
3.7948 2.2742 2.3989
3.7063 2.4057 2.3989
3.6132 2.5338 2.3989
3.5157 2.6583 2.3989
3.4139 2.7791 2.3989
3.3078 2.8961 2.3989
3.1978 3.0090 2.3989
3.0838 3.1178 2.3989
2.9662 3.2224 2.3989
2.8450 3.3225 2.3989
2.7204 3.4182 2.3989
2.5926 3.5093 2.3989
2.4617 3.5956 2.3989
0.9206 1.4541 0.9486
0.8675 1.4859 0.9496
0.8134 1.5159 0.9506
0.7582 1.5438 0.9516
0.7020 1.5698 0.9525
0.6449 1.5938 0.9535
0.5870 1.6156 0.9544
0.5283 1.6354 0.9553
0.4690 1.6530 0.9562
0.4090 1.6685 0.9571
0.3486 1.6818 0.9580
0.2876 1.6930 0.9588
0.2264 1.7019 0.9596
0.1648 1.7086 0.9604
0.1030 1.7131 0.9612
0.0411 1.7154 0.9619
-0.0208 1.7154 0.9626
-0.0827 1.7132 0.9633
-0.1445 1.7088 0.9640
-0.2061 1.7021 0.9646
-0.2674 1.6933 0.9652
-0.3283 1.6822 0.9657
-0.3888 1.6689 0.9663
-0.4488 1.6535 0.9668
-0.5082 1.6359 0.9672
-0.5669 1.6162 0.9677
-0.6249 1.5944 0.9681
-0.6821 1.5705 0.9684
-0.7383 1.5446 0.9688
-0.7936 1.5166 0.9690
-0.8478 1.4867 0.9693
-0.9009 1.4549 0.9695
-2.3573 3.5157 2.3989
-2.4823 3.4271 2.3989
-2.6041 3.3343 2.3989
-2.7225 3.2372 2.3989
-2.8375 3.1361 2.3989
-2.9489 3.0311 2.3989
-3.0565 2.9222 2.3989
-3.1603 2.8097 2.3989
-3.2601 2.6935 2.3989
-3.3557 2.5740 2.3989
-3.4471 2.4512 2.3989
-3.5342 2.3252 2.3989
-3.6168 2.1963 2.3989
-3.6949 2.0645 2.3989
-3.7684 1.9300 2.3989
-3.8371 1.7930 2.3989
-3.9010 1.6537 2.3989
-3.9600 1.5121 2.3989
-4.0141 1.3686 2.3989
-4.0631 1.2231 2.3989
-4.1069 1.0760 2.3989
-4.1457 0.9274 2.3989
-4.1792 0.7774 2.3989
-4.2074 0.6262 2.3989
-4.2304 0.4741 2.3989
-4.2479 0.3212 2.3989
-4.2601 0.1677 2.3989
-4.2670 0.0137 2.3989
-4.2683 -0.1405 2.3989
-4.2643 -0.2948 2.3989
-4.2548 -0.4490 2.3989
-4.2399 -0.6028 2.3989
-4.2196 -0.7561 2.3989
-4.1938 -0.9087 2.3989
-4.1626 -1.0605 2.3989
-4.1261 -1.2112 2.3989
-4.0842 -1.3606 2.3989
-4.0370 -1.5085 2.3989
-3.9846 -1.6549 2.3989
-3.9269 -1.7994 2.3989
-3.8642 -1.9419 2.3989
-3.7963 -2.0822 2.3989
-3.7234 -2.2201 2.3989
-3.6456 -2.3555 2.3989
-3.5629 -2.4881 2.3989
-3.4754 -2.6178 2.3989
-3.3833 -2.7445 2.3989
-3.2867 -2.8679 2.3989
-3.1856 -2.9879 2.3989
-3.0801 -3.1043 2.3989
-2.9705 -3.2170 2.3989
-2.8568 -3.3257 2.3989
-2.7391 -3.4304 2.3989
-2.6176 -3.5310 2.3989
-2.4925 -3.6271 2.3989
-2.3638 -3.7188 2.3989
-2.2319 -3.8059 2.3989
-2.0967 -3.8883 2.3989
-1.9585 -3.9658 2.3989
-1.8174 -4.0383 2.3989
-1.6737 -4.1058 2.3989
-1.5276 -4.1680 2.3989
-1.3791 -4.2250 2.3989
-1.2285 -4.2765 2.3989
-1.0760 -4.3227 2.3989
-0.9218 -4.3633 2.3989
-0.7661 -4.3982 2.3989
-0.6091 -4.4275 2.3989
-0.4511 -4.4511 2.3989
-0.2921 -4.4689 2.3989
-0.1325 -4.4810 2.3989
0.0276 -4.4872 2.3989
0.1880 -4.4875 2.3989
0.3483 -4.4820 2.3989
0.5084 -4.4705 2.3989
0.6681 -4.4533 2.3989
0.8272 -4.4301 2.3989
0.9854 -4.4011 2.3989
1.1425 -4.3664 2.3989
1.2984 -4.3258 2.3989
1.4527 -4.2795 2.3989
1.6052 -4.2276 2.3989
1.7559 -4.1701 2.3989
1.9043 -4.1070 2.3989
2.0504 -4.0385 2.3989
2.1939 -3.9646 2.3989
2.3347 -3.8854 2.3989
2.4725 -3.8012 2.3989
2.6071 -3.7118 2.3989
2.7383 -3.6175 2.3989
2.8660 -3.5184 2.3989
2.9899 -3.4146 2.3989
3.1100 -3.3065 2.3989
3.2260 -3.1938 2.3989
3.3378 -3.0770 2.3989
3.4452 -2.9562 2.3989
3.5481 -2.8314 2.3989
3.6462 -2.7030 2.3989
3.7396 -2.5710 2.3989
3.8280 -2.4357 2.3989
3.9113 -2.2973 2.3989
3.9895 -2.1559 2.3989
4.0624 -2.0117 2.3989
4.1299 -1.8650 2.3989
4.1919 -1.7160 2.3989
4.2484 -1.5648 2.3989
4.2992 -1.4117 2.3989
4.3444 -1.2569 2.3989
4.3838 -1.1006 2.3989
4.4175 -0.9431 2.3989
4.4453 -0.7845 2.3989
4.4672 -0.6250 2.3989
4.4833 -0.4650 2.3989
4.4935 -0.3045 2.3989
4.4978 -0.1439 2.3989
4.4962 0.0166 2.3989
4.4887 0.1769 2.3989
4.4754 0.3367 2.3989
4.4563 0.4958 2.3989
4.4314 0.6539 2.3989
4.4007 0.8109 2.3989
4.3644 0.9666 2.3989
4.3224 1.1208 2.3989
4.2749 1.2731 2.3989
4.2220 1.4236 2.3989
4.1637 1.5718 2.3989
4.1000 1.7178 2.3989
4.0312 1.8611 2.3989
3.9573 2.0018 2.3989
3.8784 2.1396 2.3989
3.7947 2.2743 2.3989
3.7062 2.4058 2.3989
3.6132 2.5339 2.3989
3.5157 2.6584 2.3989
3.4138 2.7792 2.3989
3.3078 2.8961 2.3989
3.1977 3.0091 2.3989
3.0838 3.1179 2.3989
2.9661 3.2224 2.3989
2.8449 3.3226 2.3989
2.7203 3.4183 2.3989
2.5925 3.5093 2.3989
2.4616 3.5957 2.3989
0.9205 1.4541 0.9486
0.8675 1.4860 0.9496
0.8133 1.5159 0.9506
0.7581 1.5439 0.9516
0.7019 1.5698 0.9525
0.6449 1.5938 0.9535
0.5870 1.6156 0.9544
0.5283 1.6354 0.9553
0.4689 1.6530 0.9562
0.4090 1.6685 0.9571
0.3485 1.6818 0.9580
0.2876 1.6930 0.9588
0.2263 1.7019 0.9596
0.1648 1.7086 0.9604
0.1030 1.7131 0.9612
0.0411 1.7154 0.9619
-0.0208 1.7154 0.9626
-0.0827 1.7132 0.9633
-0.1445 1.7088 0.9640
-0.2061 1.7021 0.9646
-0.2674 1.6933 0.9652
-0.3284 1.6822 0.9657
-0.3889 1.6689 0.9663
-0.4489 1.6535 0.9668
-0.5083 1.6359 0.9672
-0.5670 1.6162 0.9677
-0.6249 1.5944 0.9681
-0.6821 1.5705 0.9684
-0.7383 1.5446 0.9688
-0.7936 1.5166 0.9690
-0.8478 1.4867 0.9693
-0.9010 1.4548 0.9695
-2.3573 3.5156 2.3989
-2.4823 3.4271 2.3989
-2.6041 3.3342 2.3989
-2.7226 3.2372 2.3989
-2.8376 3.1361 2.3989
-2.9490 3.0310 2.3989
-3.0566 2.9221 2.3989
-3.1604 2.8096 2.3989
-3.2601 2.6935 2.3989
-3.3558 2.5739 2.3989
-3.4472 2.4511 2.3989
-3.5343 2.3251 2.3989
-3.6169 2.1962 2.3989
-3.6950 2.0644 2.3989
-3.7684 1.9299 2.3989
-3.8371 1.7929 2.3989
-3.9011 1.6536 2.3989
-3.9601 1.5120 2.3989
-4.0141 1.3685 2.3989
-4.0631 1.2230 2.3989
-4.1070 1.0759 2.3989
-4.1457 0.9273 2.3989
-4.1792 0.7773 2.3989
-4.2074 0.6261 2.3989
-4.2304 0.4740 2.3989
-4.2479 0.3211 2.3989
-4.2602 0.1676 2.3989
-4.2670 0.0136 2.3989
-4.2683 -0.1406 2.3989
-4.2643 -0.2949 2.3989
-4.2548 -0.4491 2.3989
-4.2399 -0.6029 2.3989
-4.2195 -0.7562 2.3989
-4.1938 -0.9088 2.3989
-4.1626 -1.0606 2.3989
-4.1261 -1.2113 2.3989
-4.0842 -1.3607 2.3989
-4.0370 -1.5086 2.3989
-3.9846 -1.6550 2.3989
-3.9269 -1.7995 2.3989
-3.8641 -1.9419 2.3989
-3.7962 -2.0822 2.3989
-3.7233 -2.2202 2.3989
-3.6455 -2.3555 2.3989
-3.5628 -2.4882 2.3989
-3.4754 -2.6179 2.3989
-3.3833 -2.7446 2.3989
-3.2866 -2.8680 2.3989
-3.1855 -2.9880 2.3989
-3.0801 -3.1044 2.3989
-2.9704 -3.2170 2.3989
-2.8567 -3.3258 2.3989
-2.7390 -3.4305 2.3989
-2.6175 -3.5310 2.3989
-2.4924 -3.6272 2.3989
-2.3638 -3.7189 2.3989
-2.2318 -3.8060 2.3989
-2.0966 -3.8883 2.3989
-1.9584 -3.9658 2.3989
-1.8174 -4.0384 2.3989
-1.6737 -4.1058 2.3989
-1.5275 -4.1680 2.3989
-1.3790 -4.2250 2.3989
-1.2284 -4.2766 2.3989
-1.0759 -4.3227 2.3989
-0.9217 -4.3633 2.3989
-0.7660 -4.3983 2.3989
-0.6090 -4.4276 2.3989
-0.4510 -4.4511 2.3989
-0.2920 -4.4690 2.3989
-0.1324 -4.4810 2.3989
0.0275 -4.2539 2.3989
0.1794 -4.2541 2.3989
0.3313 -4.2487 2.3989
0.4831 -4.2377 2.3989
0.6344 -4.2212 2.3989
0.7851 -4.1991 2.3989
0.9350 -4.1716 2.3989
1.0839 -4.1385 2.3989
1.2315 -4.0999 2.3989
1.3776 -4.0560 2.3989
1.5222 -4.0067 2.3989
1.6648 -3.9521 2.3989
1.8054 -3.8922 2.3989
1.9438 -3.8273 2.3989
2.0798 -3.7572 2.3989
2.2131 -3.6822 2.3989
2.3435 -3.6022 2.3989
2.4710 -3.5175 2.3989
2.5953 -3.4282 2.3989
2.7163 -3.3344 2.3989
2.8337 -3.2360 2.3989
2.9474 -3.1335 2.3989
3.0573 -3.0269 2.3989
3.1632 -2.9162 2.3989
3.2649 -2.8017 2.3989
3.3624 -2.6835 2.3989
3.4554 -2.5619 2.3989
3.5438 -2.4369 2.3989
3.6276 -2.3087 2.3989
3.7066 -2.1776 2.3989
3.7807 -2.0437 2.3989
3.8498 -1.9072 2.3989
3.9138 -1.7682 2.3989
3.9727 -1.6270 2.3989
4.0262 -1.4839 2.3989
4.0745 -1.3389 2.3989
4.1174 -1.1922 2.3989
4.1549 -1.0442 2.3989
4.1868 -0.8949 2.3989
4.2133 -0.7447 2.3989
4.2342 -0.5936 2.3989
4.2496 -0.4420 2.3989
4.2594 -0.2900 2.3989
4.2636 -0.1378 2.3989
4.2622 0.0144 2.3989
