ply
format ascii 1.0
element vertex 2181
property float32 x
property float32 y
property float32 z
end_header
-5.7928 -4.1502 2.3931
-5.6364 -4.3501 2.3931
-5.4726 -4.5437 2.3931
-5.3017 -4.7308 2.3931
-5.1240 -4.9112 2.3931
-4.9399 -5.0846 2.3931
-4.7495 -5.2507 2.3931
-4.5532 -5.4093 2.3931
-4.3514 -5.5603 2.3931
-4.1442 -5.7034 2.3931
-3.9321 -5.8385 2.3931
-3.7154 -5.9654 2.3931
-3.4944 -6.0839 2.3931
-3.2695 -6.1940 2.3931
-3.0410 -6.2954 2.3931
-2.8092 -6.3881 2.3931
-2.5745 -6.4720 2.3931
-2.3373 -6.5470 2.3931
-2.0978 -6.6131 2.3931
-1.8566 -6.6702 2.3931
-1.6137 -6.7182 2.3931
-1.3698 -6.7573 2.3931
-1.1250 -6.7873 2.3931
-0.8797 -6.8083 2.3931
-0.6344 -6.8202 2.3931
-0.3892 -6.8233 2.3931
-0.1445 -6.8174 2.3931
0.0992 -6.8026 2.3931
0.3418 -6.7791 2.3931
0.5829 -6.7468 2.3931
0.8222 -6.7060 2.3931
1.0594 -6.6567 2.3931
1.2941 -6.5990 2.3931
1.5262 -6.5330 2.3931
1.7553 -6.4590 2.3931
1.9811 -6.3769 2.3931
2.2033 -6.2871 2.3931
2.4218 -6.1896 2.3931
2.6362 -6.0847 2.3931
2.8464 -5.9724 2.3931
3.0520 -5.8530 2.3931
3.2529 -5.7267 2.3931
3.4488 -5.5937 2.3931
3.6395 -5.4541 2.3931
3.8248 -5.3082 2.3931
4.0046 -5.1562 2.3931
4.1786 -4.9984 2.3931
4.3466 -4.8348 2.3931
4.5086 -4.6658 2.3931
4.6643 -4.4916 2.3931
4.8135 -4.3124 2.3931
4.9562 -4.1285 2.3931
5.0923 -3.9401 2.3931
5.2215 -3.7473 2.3931
5.3438 -3.5506 2.3931
5.4590 -3.3501 2.3931
5.5672 -3.1460 2.3931
5.6680 -2.9386 2.3931
5.7616 -2.7282 2.3931
5.8478 -2.5151 2.3931
5.9265 -2.2993 2.3931
5.9977 -2.0813 2.3931
6.0613 -1.8612 2.3931
6.1174 -1.6393 2.3931
6.1657 -1.4159 2.3931
6.2064 -1.1911 2.3931
6.2393 -0.9654 2.3931
6.2646 -0.7388 2.3931
6.2821 -0.5117 2.3931
6.2918 -0.2842 2.3931
6.2595 -0.0564 2.3801
6.2156 0.1686 2.3655
6.1718 0.3909 2.3539
6.1279 0.6110 2.3451
6.0839 0.8296 2.3389
6.0395 1.0470 2.3355
5.9948 1.2639 2.3348
5.9495 1.4808 2.3367
5.9037 1.6981 2.3414
5.8571 1.9164 2.3487
5.8097 2.1362 2.3588
5.7614 2.3581 2.3717
5.7119 2.5826 2.3875
5.6303 2.7949 2.3931
5.5282 2.9978 2.3931
5.4192 3.1973 2.3931
5.3034 3.3930 2.3931
5.1810 3.5849 2.3931
5.0520 3.7725 2.3931
4.9167 3.9559 2.3931
4.1185 -4.4608 2.3931
4.2682 -4.3014 2.3931
4.4120 -4.1372 2.3931
4.5497 -3.9684 2.3931
4.6813 -3.7952 2.3931
4.8066 -3.6178 2.3931
4.9255 -3.4364 2.3931
5.0379 -3.2513 2.3931
5.1437 -3.0627 2.3931
5.2427 -2.8709 2.3931
5.3350 -2.6760 2.3931
5.4204 -2.4783 2.3931
5.4988 -2.2780 2.3931
5.5703 -2.0754 2.3931
5.6346 -1.8707 2.3931
5.6919 -1.6641 2.3931
5.7419 -1.4559 2.3931
5.7848 -1.2463 2.3931
5.8205 -1.0356 2.3931
5.8489 -0.8239 2.3931
5.8700 -0.6116 2.3931
5.8839 -0.3988 2.3931
5.8905 -0.1858 2.3931
5.8898 0.0272 2.3931
5.8819 0.2399 2.3931
5.8668 0.4521 2.3931
5.8444 0.6637 2.3931
5.8149 0.8742 2.3931
5.7782 1.0836 2.3931
5.7344 1.2916 2.3931
5.6836 1.4980 2.3931
5.6258 1.7025 2.3931
5.5610 1.9049 2.3931
5.4894 2.1051 2.3931
5.4110 2.3027 2.3931
5.3259 2.4976 2.3931
5.2342 2.6895 2.3931
5.1360 2.8783 2.3931
5.0313 3.0636 2.3931
4.9203 3.2455 2.3931
4.8032 3.4235 2.3931
4.6799 3.5975 2.3931
4.5507 3.7674 2.3931
4.4156 3.9329 2.3931
4.2749 4.0938 2.3931
4.1285 4.2499 2.3931
3.9768 4.4011 2.3931
3.8198 4.5471 2.3931
3.6578 4.6879 2.3931
3.4908 4.8231 2.3931
3.3190 4.9527 2.3931
3.1427 5.0764 2.3931
2.9620 5.1942 2.3931
2.7771 5.3058 2.3931
2.5881 5.4111 2.3931
2.3954 5.5099 2.3931
0.8974 2.2861 0.9766
0.8147 2.3178 0.9752
0.7310 2.3465 0.9738
0.6463 2.3721 0.9724
0.5606 2.3946 0.9709
0.4743 2.4141 0.9693
0.3873 2.4304 0.9678
0.2997 2.4436 0.9661
0.2117 2.4536 0.9645
0.1234 2.4605 0.9628
0.0349 2.4641 0.9611
-0.0536 2.4646 0.9594
-0.1422 2.4618 0.9577
-0.2305 2.4559 0.9559
-0.3187 2.4468 0.9541
-0.4064 2.4345 0.9523
-0.4936 2.4191 0.9505
-0.5802 2.4005 0.9487
-0.6661 2.3788 0.9468
-0.7511 2.3540 0.9450
-0.8352 2.3262 0.9431
-0.9182 2.2954 0.9412
-2.5478 5.7614 2.3931
-2.7585 5.6790 2.3931
-2.9665 5.5889 2.3931
-3.1715 5.4911 2.3931
-3.3732 5.3858 2.3931
-3.5714 5.2731 2.3931
-3.7656 5.1529 2.3931
-3.9558 5.0256 2.3931
-4.1414 4.8911 2.3931
-4.3223 4.7497 2.3931
-4.4983 4.6016 2.3931
-4.6689 4.4467 2.3931
-4.8341 4.2855 2.3931
-4.9934 4.1180 2.3931
-5.1467 3.9444 2.3931
-5.2937 3.7651 2.3931
-5.4342 3.5801 2.3931
-5.5679 3.3898 2.3931
-5.6946 3.1943 2.3931
-5.8141 2.9940 2.3931
-5.9262 2.7891 2.3931
-6.0308 2.5800 2.3931
-6.1275 2.3668 2.3931
-6.2163 2.1498 2.3931
-6.2970 1.9295 2.3931
-6.3695 1.7060 2.3931
-6.4335 1.4798 2.3931
-6.4891 1.2511 2.3931
-6.5360 1.0202 2.3931
-6.5743 0.7876 2.3931
-6.6037 0.5535 2.3931
-6.6244 0.3183 2.3931
-6.6361 0.0824 2.3931
-6.6389 -0.1539 2.3931
-6.6327 -0.3903 2.3931
-6.6176 -0.6264 2.3931
-6.5936 -0.8618 2.3931
-6.5606 -1.0962 2.3931
-6.5188 -1.3292 2.3931
-6.4682 -1.5605 2.3931
-6.4088 -1.7898 2.3931
-6.3408 -2.0166 2.3931
-6.2642 -2.2406 2.3931
-6.1792 -2.4616 2.3931
-6.0860 -2.6792 2.3931
-5.9845 -2.8930 2.3931
-5.8751 -3.1027 2.3931
-5.7579 -3.3080 2.3931
-5.6330 -3.5087 2.3931
-5.5008 -3.7044 2.3931
-5.3613 -3.8949 2.3931
-5.2148 -4.0798 2.3931
-5.0615 -4.2589 2.3931
-4.9018 -4.4320 2.3931
-4.7357 -4.5988 2.3931
-4.5637 -4.7591 2.3931
-4.3860 -4.9127 2.3931
-4.2028 -5.0593 2.3931
-4.0144 -5.1988 2.3931
-3.8212 -5.3311 2.3931
-3.6234 -5.4558 2.3931
-3.4214 -5.5729 2.3931
-3.2154 -5.6823 2.3931
-3.0057 -5.7838 2.3931
-2.7927 -5.8773 2.3931
-2.5768 -5.9627 2.3931
-2.3581 -6.0399 2.3931
-2.1371 -6.1089 2.3931
-1.9140 -6.1696 2.3931
-1.6893 -6.2220 2.3931
-1.4631 -6.2659 2.3931
-1.2358 -6.3015 2.3931
-1.0078 -6.3287 2.3931
-0.7794 -6.3475 2.3931
-0.5508 -6.3579 2.3931
-0.3225 -6.3600 2.3931
-0.0946 -6.3538 2.3931
0.1325 -6.3393 2.3931
0.3585 -6.3167 2.3931
0.5831 -6.2860 2.3931
0.8060 -6.2473 2.3931
1.0269 -6.2006 2.3931
1.2456 -6.1462 2.3931
1.4618 -6.0841 2.3931
1.6752 -6.0144 2.3931
1.8856 -5.9372 2.3931
2.0927 -5.8528 2.3931
2.2963 -5.7613 2.3931
2.4960 -5.6627 2.3931
2.6918 -5.5574 2.3931
2.8834 -5.4454 2.3931
3.0705 -5.3269 2.3931
3.2530 -5.2021 2.3931
3.4307 -5.0712 2.3931
3.6034 -4.9344 2.3931
3.7708 -4.7919 2.3931
3.9328 -4.6439 2.3931
4.0893 -4.4906 2.3931
4.2401 -4.3322 2.3931
4.3850 -4.1689 2.3931
4.5239 -4.0010 2.3931
4.6567 -3.8285 2.3931
4.7832 -3.6519 2.3931
4.9034 -3.4713 2.3931
5.0170 -3.2869 2.3931
5.1240 -3.0989 2.3931
5.2244 -2.9077 2.3931
5.3180 -2.7133 2.3931
5.4046 -2.5162 2.3931
5.4844 -2.3164 2.3931
5.5572 -2.1142 2.3931
5.6229 -1.9099 2.3931
5.6815 -1.7036 2.3931
5.7329 -1.4957 2.3931
5.7772 -1.2864 2.3931
5.8142 -1.0758 2.3931
5.8440 -0.8643 2.3931
5.8666 -0.6521 2.3931
5.8818 -0.4394 2.3931
5.8898 -0.2264 2.3931
5.8905 -0.0134 2.3931
5.8840 0.1994 2.3931
5.8702 0.4117 2.3931
5.8492 0.6234 2.3931
5.8210 0.8342 2.3931
5.7857 1.0438 2.3931
5.7433 1.2521 2.3931
5.6938 1.4588 2.3931
5.6373 1.6637 2.3931
5.5739 1.8665 2.3931
5.5036 2.0671 2.3931
5.4265 2.2652 2.3931
5.3426 2.4606 2.3931
5.2522 2.6531 2.3931
5.1552 2.8425 2.3931
5.0517 3.0286 2.3931
4.9420 3.2111 2.3931
4.8260 3.3899 2.3931
4.7039 3.5647 2.3931
4.5757 3.7354 2.3931
4.4418 3.9017 2.3931
4.3021 4.0635 2.3931
4.1569 4.2205 2.3931
4.0062 4.3727 2.3931
3.8502 4.5197 2.3931
3.6890 4.6615 2.3931
3.5230 4.7978 2.3931
3.3521 4.9284 2.3931
3.1767 5.0533 2.3931
2.9967 5.1722 2.3931
2.8126 5.2850 2.3931
2.6244 5.3915 2.3931
2.4324 5.4916 2.3931
2.2367 5.5851 2.3931
0.8306 2.3120 0.9755
0.7470 2.3412 0.9741
0.6625 2.3674 0.9726
0.5770 2.3906 0.9711
0.4908 2.4106 0.9696
0.4039 2.4276 0.9681
0.3164 2.4413 0.9665
0.2285 2.4520 0.9648
0.1403 2.4594 0.9632
0.0518 2.4637 0.9615
-0.0368 2.4647 0.9598
-0.1253 2.4626 0.9580
-0.2137 2.4573 0.9562
-0.3019 2.4488 0.9545
-0.3897 2.4371 0.9527
-0.4770 2.4222 0.9508
-0.5637 2.4043 0.9490
-0.6498 2.3832 0.9472
-0.7350 2.3590 0.9453
-0.8192 2.3317 0.9435
-0.9025 2.3015 0.9416
-2.5073 5.7762 2.3931
-2.7185 5.6953 2.3931
-2.9271 5.6067 2.3931
-3.1327 5.5104 2.3931
-3.3351 5.4065 2.3931
-3.5339 5.2951 2.3931
-3.7289 5.1764 2.3931
-3.9198 5.0504 2.3931
-4.1064 4.9173 2.3931
-4.2882 4.7772 2.3931
-4.4651 4.6303 2.3931
-4.6368 4.4768 2.3931
-4.8030 4.3167 2.3931
-4.9635 4.1504 2.3931
-5.1180 3.9780 2.3931
-5.2662 3.7997 2.3931
-5.4079 3.6158 2.3931
-5.5429 3.4265 2.3931
-5.6710 3.2320 2.3931
-5.7919 3.0326 2.3931
-5.9055 2.8285 2.3931
-6.0115 2.6201 2.3931
-6.1097 2.4077 2.3931
-6.2000 2.1914 2.3931
-6.2823 1.9717 2.3931
-6.3563 1.7488 2.3931
-6.4220 1.5231 2.3931
-6.4792 1.2948 2.3931
-6.5278 1.0644 2.3931
-6.5677 0.8321 2.3931
-6.5988 0.5982 2.3931
-6.6211 0.3632 2.3931
-6.6345 0.1274 2.3931
-6.6390 -0.1088 2.3931
-6.6346 -0.3452 2.3931
-6.6212 -0.5814 2.3931
-6.5988 -0.8170 2.3931
-6.5676 -1.0516 2.3931
-6.5275 -1.2849 2.3931
-6.4785 -1.5166 2.3931
-6.4208 -1.7462 2.3931
-6.3544 -1.9735 2.3931
-6.2795 -2.1982 2.3931
-6.1961 -2.4197 2.3931
-6.1044 -2.6380 2.3931
-6.0045 -2.8525 2.3931
-5.8966 -3.0630 2.3931
-5.7808 -3.2693 2.3931
-5.6574 -3.4708 2.3931
-5.5265 -3.6675 2.3931
-5.3884 -3.8590 2.3931
-5.2432 -4.0450 2.3931
-5.0912 -4.2252 2.3931
-4.9327 -4.3995 2.3931
-4.7679 -4.5675 2.3931
-4.5970 -4.7291 2.3931
-4.4203 -4.8839 2.3931
-4.2381 -5.0319 2.3931
-4.0507 -5.1728 2.3931
-3.8584 -5.3064 2.3931
-3.6615 -5.4326 2.3931
-3.4602 -5.5512 2.3931
-3.2549 -5.6620 2.3931
-3.0459 -5.7651 2.3931
-2.8336 -5.8601 2.3931
-2.6182 -5.9470 2.3931
-2.4000 -6.0258 2.3931
-2.1794 -6.0964 2.3931
-1.9567 -6.1587 2.3931
-1.7322 -6.2126 2.3931
-1.5063 -6.2582 2.3931
-1.2792 -6.2954 2.3931
-1.0513 -6.3242 2.3931
-0.8230 -6.3445 2.3931
-0.5944 -6.3566 2.3931
-0.3660 -6.3602 2.3931
-0.1380 -6.3556 2.3931
0.0893 -6.3427 2.3931
0.3155 -6.3216 2.3931
0.5404 -6.2925 2.3931
0.7636 -6.2553 2.3931
0.9850 -6.2101 2.3931
1.2041 -6.1572 2.3931
1.4208 -6.0965 2.3931
1.6348 -6.0282 2.3931
1.8458 -5.9525 2.3931
2.0535 -5.8695 2.3931
2.2577 -5.7793 2.3931
2.4583 -5.6820 2.3931
2.6548 -5.5780 2.3931
2.8472 -5.4672 2.3931
3.0352 -5.3500 2.3931
3.2186 -5.2264 2.3931
3.3972 -5.0966 2.3931
3.5708 -4.9610 2.3931
3.7393 -4.8195 2.3931
3.9024 -4.6726 2.3931
4.0599 -4.5202 2.3931
4.2118 -4.3628 2.3931
4.3578 -4.2004 2.3931
4.4979 -4.0333 2.3931
4.6319 -3.8617 2.3931
4.7596 -3.6859 2.3931
4.8810 -3.5060 2.3931
4.9958 -3.3223 2.3931
5.1041 -3.1350 2.3931
5.2058 -2.9444 2.3931
5.3006 -2.7506 2.3931
5.3887 -2.5540 2.3931
5.4698 -2.3546 2.3931
5.5439 -2.1529 2.3931
5.6109 -1.9490 2.3931
5.6709 -1.7431 2.3931
5.7237 -1.5355 2.3931
5.7693 -1.3264 2.3931
5.8077 -1.1160 2.3931
5.8389 -0.9047 2.3931
5.8628 -0.6926 2.3931
5.8795 -0.4800 2.3931
5.8888 -0.2670 2.3931
5.8910 -0.0540 2.3931
5.8858 0.1589 2.3931
5.8734 0.3713 2.3931
5.8538 0.5831 2.3931
5.8270 0.7941 2.3931
5.7930 1.0040 2.3931
5.7519 1.2125 2.3931
5.7038 1.4195 2.3931
5.6486 1.6248 2.3931
5.5865 1.8280 2.3931
5.5175 2.0290 2.3931
5.4417 2.2276 2.3931
5.3591 2.4236 2.3931
5.2699 2.6167 2.3931
5.1742 2.8067 2.3931
5.0719 2.9934 2.3931
4.9634 3.1766 2.3931
4.8486 3.3561 2.3931
4.7276 3.5317 2.3931
4.6006 3.7032 2.3931
3.8593 -4.1841 2.3931
4.0001 -4.0351 2.3931
4.1354 -3.8815 2.3931
4.2650 -3.7235 2.3931
4.3889 -3.5613 2.3931
4.5069 -3.3952 2.3931
4.6189 -3.2253 2.3931
4.7247 -3.0519 2.3931
4.8244 -2.8752 2.3931
4.9178 -2.6953 2.3931
5.0048 -2.5126 2.3931
5.0853 -2.3272 2.3931
5.1593 -2.1394 2.3931
5.2267 -1.9493 2.3931
5.2875 -1.7572 2.3931
5.3415 -1.5634 2.3931
5.3889 -1.3679 2.3931
5.4294 -1.1712 2.3931
5.4632 -0.9733 2.3931
5.4901 -0.7746 2.3931
5.5102 -0.5752 2.3931
5.5235 -0.3754 2.3931
5.5299 -0.1753 2.3931
5.5294 0.0247 2.3931
5.5221 0.2245 2.3931
5.5080 0.4239 2.3931
5.4871 0.6226 2.3931
5.4595 0.8204 2.3931
5.4251 1.0172 2.3931
5.3840 1.2126 2.3931
5.3363 1.4064 2.3931
5.2819 1.5985 2.3931
5.2211 1.7887 2.3931
5.1538 1.9767 2.3931
5.0801 2.1623 2.3931
5.0001 2.3453 2.3931
4.9138 2.5255 2.3931
4.8214 2.7028 2.3931
4.7230 2.8769 2.3931
4.6186 3.0475 2.3931
4.5084 3.2146 2.3931
4.3924 3.3780 2.3931
4.2708 3.5373 2.3931
4.1438 3.6926 2.3931
4.0114 3.8435 2.3931
3.8738 3.9899 2.3931
3.7311 4.1316 2.3931
3.5835 4.2685 2.3931
3.4311 4.4003 2.3931
3.2741 4.5270 2.3931
3.1127 4.6483 2.3931
2.9469 4.7641 2.3931
2.7770 4.8742 2.3931
2.6033 4.9786 2.3931
2.4257 5.0769 2.3931
2.2447 5.1693 2.3931
0.8388 2.1396 0.9743
0.7614 2.1692 0.9730
0.6830 2.1960 0.9717
0.6037 2.2200 0.9703
0.5236 2.2411 0.9689
0.4427 2.2593 0.9675
0.3613 2.2746 0.9660
0.2793 2.2869 0.9645
0.1970 2.2963 0.9630
0.1143 2.3027 0.9614
0.0315 2.3061 0.9599
-0.0514 2.3065 0.9582
-0.1343 2.3039 0.9566
-0.2170 2.2984 0.9549
-0.2995 2.2898 0.9533
-0.3816 2.2783 0.9516
-0.4632 2.2639 0.9499
-0.5443 2.2465 0.9482
-0.6246 2.2262 0.9464
-0.7042 2.2030 0.9447
-0.7829 2.1770 0.9430
-0.8607 2.1481 0.9412
-2.3875 5.3912 2.3931
-2.5844 5.3134 2.3931
-2.7787 5.2285 2.3931
-2.9702 5.1364 2.3931
-3.1585 5.0372 2.3931
-3.3435 4.9311 2.3931
-3.5247 4.8182 2.3931
-3.7021 4.6985 2.3931
-3.8752 4.5723 2.3931
-4.0440 4.4395 2.3931
-4.2079 4.3005 2.3931
-4.3670 4.1553 2.3931
-4.5208 4.0042 2.3931
-4.6692 3.8472 2.3931
-4.8120 3.6846 2.3931
-4.9488 3.5167 2.3931
-5.0795 3.3435 2.3931
-5.2039 3.1654 2.3931
-5.3218 2.9826 2.3931
-5.4329 2.7952 2.3931
-5.5372 2.6036 2.3931
-5.6343 2.4081 2.3931
-5.7241 2.2088 2.3931
-5.8066 2.0061 2.3931
-5.8815 1.8003 2.3931
-5.9487 1.5916 2.3931
-6.0081 1.3803 2.3931
-6.0596 1.1667 2.3931
-6.1030 0.9513 2.3931
-6.1384 0.7341 2.3931
-6.1656 0.5156 2.3931
-6.1845 0.2962 2.3931
-6.1952 0.0760 2.3931
-6.1976 -0.1445 2.3931
-6.1917 -0.3651 2.3931
-6.1774 -0.5853 2.3931
-6.1549 -0.8049 2.3931
-6.1240 -1.0236 2.3931
-6.0849 -1.2410 2.3931
-6.0376 -1.4568 2.3931
-5.9822 -1.6706 2.3931
-5.9188 -1.8822 2.3931
-5.8474 -2.0913 2.3931
-5.7682 -2.2975 2.3931
-5.6813 -2.5005 2.3931
-5.5867 -2.7000 2.3931
-5.4848 -2.8958 2.3931
-5.3756 -3.0875 2.3931
-5.2593 -3.2748 2.3931
-5.1361 -3.4576 2.3931
-5.0061 -3.6355 2.3931
-4.8697 -3.8082 2.3931
-4.7269 -3.9756 2.3931
-4.5781 -4.1374 2.3931
-4.4234 -4.2933 2.3931
-4.2631 -4.4433 2.3931
-4.0975 -4.5869 2.3931
-3.9268 -4.7242 2.3931
-3.7512 -4.8548 2.3931
-3.5711 -4.9786 2.3931
-3.3868 -5.0956 2.3931
-3.1983 -5.2054 2.3931
-3.0062 -5.3080 2.3931
-2.8107 -5.4033 2.3931
-2.6120 -5.4912 2.3931
-2.4105 -5.5716 2.3931
-2.2065 -5.6443 2.3931
-2.0002 -5.7094 2.3931
-1.7919 -5.7667 2.3931
-1.5820 -5.8163 2.3931
-1.3708 -5.8581 2.3931
-1.1585 -5.8920 2.3931
-0.9454 -5.9181 2.3931
-0.7319 -5.9364 2.3931
-0.5182 -5.9468 2.3931
-0.3047 -5.9495 2.3931
-0.0916 -5.9444 2.3931
0.1209 -5.9316 2.3931
0.3324 -5.9112 2.3931
0.5426 -5.8832 2.3931
0.7512 -5.8476 2.3931
0.9582 -5.8047 2.3931
1.1630 -5.7545 2.3931
1.3656 -5.6970 2.3931
1.5656 -5.6324 2.3931
1.7628 -5.5609 2.3931
1.9570 -5.4825 2.3931
2.1479 -5.3974 2.3931
2.3353 -5.3058 2.3931
2.5190 -5.2077 2.3931
2.6989 -5.1034 2.3931
2.8746 -4.9929 2.3931
3.0459 -4.8765 2.3931
3.2128 -4.7544 2.3931
3.3750 -4.6267 2.3931
3.5324 -4.4936 2.3931
3.6847 -4.3553 2.3931
3.8319 -4.2120 2.3931
3.9737 -4.0639 2.3931
4.1100 -3.9111 2.3931
4.2407 -3.7539 2.3931
4.3657 -3.5926 2.3931
4.4848 -3.4272 2.3931
4.5980 -3.2580 2.3931
4.7050 -3.0852 2.3931
4.8059 -2.9091 2.3931
4.9005 -2.7298 2.3931
4.9887 -2.5477 2.3931
5.0704 -2.3627 2.3931
5.1457 -2.1753 2.3931
5.2144 -1.9857 2.3931
5.2764 -1.7940 2.3931
5.3318 -1.6004 2.3931
5.3804 -1.4053 2.3931
5.4222 -1.2088 2.3931
5.4573 -1.0111 2.3931
5.4855 -0.8125 2.3931
5.5069 -0.6133 2.3931
5.5215 -0.4135 2.3931
5.5292 -0.2135 2.3931
5.5300 -0.0134 2.3931
5.5240 0.1865 2.3931
5.5113 0.3860 2.3931
5.4917 0.5848 2.3931
5.4653 0.7828 2.3931
5.4321 0.9798 2.3931
5.3923 1.1754 2.3931
5.3459 1.3696 2.3931
5.2928 1.5620 2.3931
5.2332 1.7526 2.3931
5.1671 1.9410 2.3931
5.0946 2.1271 2.3931
5.0158 2.3106 2.3931
4.9307 2.4914 2.3931
4.8395 2.6692 2.3931
4.7422 2.8439 2.3931
4.6389 3.0153 2.3931
4.5298 3.1831 2.3931
4.4149 3.3471 2.3931
4.2945 3.5073 2.3931
4.1684 3.6633 2.3931
4.0371 3.8151 2.3931
3.9004 3.9623 2.3931
3.7587 4.1050 2.3931
3.6120 4.2428 2.3931
3.4605 4.3756 2.3931
3.3044 4.5032 2.3931
3.1438 4.6256 2.3931
2.9788 4.7424 2.3931
2.8097 4.8537 2.3931
2.6367 4.9591 2.3931
2.4599 5.0587 2.3931
2.2794 5.1521 2.3931
0.8534 2.1336 0.9745
0.7762 2.1638 0.9733
0.6980 2.1911 0.9720
0.6189 2.2156 0.9706
0.5389 2.2373 0.9692
0.4582 2.2560 0.9678
0.3768 2.2719 0.9663
0.2950 2.2848 0.9648
0.2127 2.2947 0.9633
0.1301 2.3017 0.9617
0.0473 2.3056 0.9602
-0.0356 2.3066 0.9585
-0.1185 2.3046 0.9569
-0.2012 2.2997 0.9553
-0.2838 2.2917 0.9536
-0.3659 2.2807 0.9519
-0.4477 2.2669 0.9502
-0.5289 2.2500 0.9485
-0.6094 2.2303 0.9468
-0.6891 2.2076 0.9450
-0.7680 2.1821 0.9433
-0.8459 2.1538 0.9416
-0.9228 2.1227 0.9398
-2.5471 5.3288 2.3931
-2.7419 5.2452 2.3931
-2.9339 5.1545 2.3931
-3.1229 5.0567 2.3931
-3.3085 4.9519 2.3931
-3.4905 4.8402 2.3931
-3.6686 4.7218 2.3931
-3.8426 4.5968 2.3931
-4.0121 4.4653 2.3931
-4.1771 4.3275 2.3931
-4.3371 4.1835 2.3931
-4.4919 4.0334 2.3931
-4.6414 3.8775 2.3931
-4.7852 3.7160 2.3931
-4.9232 3.5491 2.3931
-5.0551 3.3769 2.3931
-5.1807 3.1997 2.3931
-5.2998 3.0178 2.3931
-5.4123 2.8313 2.3931
-5.5178 2.6405 2.3931
-5.6163 2.4457 2.3931
-5.7076 2.2471 2.3931
-5.7915 2.0450 2.3931
-5.8678 1.8397 2.3931
-5.9365 1.6316 2.3931
-5.9974 1.4208 2.3931
-6.0504 1.2076 2.3931
-6.0954 0.9925 2.3931
-6.1323 0.7756 2.3931
-6.1610 0.5574 2.3931
-6.1816 0.3381 2.3931
-6.1938 0.1180 2.3931
-6.1978 -0.1025 2.3931
-6.1934 -0.3230 2.3931
-6.1808 -0.5434 2.3931
-6.1598 -0.7631 2.3931
-6.1305 -0.9820 2.3931
-6.0930 -1.1997 2.3931
-6.0473 -1.4158 2.3931
-5.9934 -1.6300 2.3931
-5.9315 -1.8421 2.3931
-5.8616 -2.0517 2.3931
-5.7839 -2.2584 2.3931
-5.6984 -2.4621 2.3931
-5.6053 -2.6623 2.3931
-5.5048 -2.8588 2.3931
-5.3970 -3.0513 2.3931
-5.2820 -3.2395 2.3931
-5.1601 -3.4231 2.3931
-5.0314 -3.6019 2.3931
-4.8962 -3.7757 2.3931
-4.7546 -3.9441 2.3931
-4.6069 -4.1070 2.3931
-4.4533 -4.2641 2.3931
-4.2941 -4.4152 2.3931
-4.1295 -4.5600 2.3931
-3.9597 -4.6985 2.3931
-3.7851 -4.8304 2.3931
-3.6058 -4.9556 2.3931
-3.4222 -5.0738 2.3931
-3.2346 -5.1850 2.3931
-3.0431 -5.2890 2.3931
-2.8482 -5.3858 2.3931
-2.6501 -5.4751 2.3931
-2.4491 -5.5568 2.3931
-2.2455 -5.6310 2.3931
-2.0396 -5.6976 2.3931
-1.8317 -5.7564 2.3931
-1.6221 -5.8075 2.3931
-1.4111 -5.8507 2.3931
-1.1990 -5.8861 2.3931
-0.9861 -5.9137 2.3931
-0.7726 -5.9335 2.3931
-0.5590 -5.9454 2.3931
-0.3454 -5.9496 2.3931
-0.1321 -5.9460 2.3931
0.0804 -5.9346 2.3931
0.2921 -5.9156 2.3931
0.5026 -5.8891 2.3931
0.7116 -5.8550 2.3931
0.9189 -5.8135 2.3931
1.1241 -5.7646 2.3931
1.3271 -5.7085 2.3931
1.5277 -5.6453 2.3931
1.7254 -5.5751 2.3931
1.9202 -5.4980 2.3931
2.1118 -5.4142 2.3931
2.2999 -5.3237 2.3931
2.4843 -5.2269 2.3931
2.6649 -5.1237 2.3931
2.8414 -5.0144 2.3931
3.0136 -4.8992 2.3931
3.1814 -4.7781 2.3931
3.3445 -4.6515 2.3931
3.5028 -4.5194 2.3931
3.6561 -4.3821 2.3931
3.8042 -4.2397 2.3931
3.9471 -4.0925 2.3931
4.0845 -3.9406 2.3931
4.2163 -3.7842 2.3931
4.3423 -3.6236 2.3931
4.4626 -3.4590 2.3931
4.5769 -3.2905 2.3931
4.6851 -3.1184 2.3931
4.7871 -2.9429 2.3931
4.8829 -2.7643 2.3931
4.9724 -2.5826 2.3931
5.0554 -2.3982 2.3931
5.1318 -2.2113 2.3931
5.2018 -2.0220 2.3931
5.2651 -1.8307 2.3931
5.3217 -1.6375 2.3931
5.3716 -1.4426 2.3931
5.4148 -1.2463 2.3931
5.4511 -1.0489 2.3931
5.4807 -0.8505 2.3931
5.5034 -0.6513 2.3931
5.5192 -0.4516 2.3931
5.5282 -0.2516 2.3931
5.5304 -0.0515 2.3931
5.5257 0.1484 2.3931
5.5142 0.3480 2.3931
5.4959 0.5470 2.3931
5.4708 0.7451 2.3931
5.4390 0.9423 2.3931
5.4004 1.1382 2.3931
5.3552 1.3327 2.3931
5.3034 1.5255 2.3931
5.2450 1.7164 2.3931
5.1802 1.9053 2.3931
5.1089 2.0918 2.3931
5.0313 2.2758 2.3931
4.9474 2.4572 2.3931
4.8573 2.6356 2.3931
4.7612 2.8109 2.3931
4.6591 2.9829 2.3931
4.5511 3.1514 2.3931
4.4373 3.3162 2.3931
4.3178 3.4771 2.3931
3.6265 -3.9356 2.3931
3.7592 -3.7958 2.3931
3.8868 -3.6516 2.3931
4.0091 -3.5033 2.3931
4.1260 -3.3511 2.3931
4.2373 -3.1951 2.3931
4.3431 -3.0355 2.3931
4.4430 -2.8726 2.3931
4.5372 -2.7065 2.3931
4.6254 -2.5374 2.3931
4.7076 -2.3656 2.3931
4.7837 -2.1912 2.3931
4.8537 -2.0146 2.3931
4.9174 -1.8358 2.3931
4.9749 -1.6550 2.3931
5.0261 -1.4726 2.3931
5.0709 -1.2887 2.3931
5.1094 -1.1035 2.3931
5.1414 -0.9173 2.3931
5.1670 -0.7302 2.3931
5.1861 -0.5424 2.3931
5.1987 -0.3543 2.3931
5.2049 -0.1659 2.3931
5.2047 0.0225 2.3931
5.1979 0.2107 2.3931
5.1847 0.3985 2.3931
5.1652 0.5856 2.3931
5.1392 0.7719 2.3931
5.1068 0.9572 2.3931
5.0682 1.1413 2.3931
5.0232 1.3239 2.3931
4.9721 1.5048 2.3931
4.9147 1.6839 2.3931
4.8513 1.8609 2.3931
4.7818 2.0357 2.3931
4.7064 2.2081 2.3931
4.6251 2.3778 2.3931
4.5379 2.5447 2.3931
4.4451 2.7085 2.3931
4.3467 2.8692 2.3931
4.2428 3.0265 2.3931
4.1334 3.1802 2.3931
4.0188 3.3301 2.3931
3.8990 3.4761 2.3931
3.7742 3.6181 2.3931
3.6444 3.7557 2.3931
3.5099 3.8890 2.3931
3.3707 4.0176 2.3931
3.2271 4.1414 2.3931
3.0791 4.2604 2.3931
2.9269 4.3743 2.3931
2.7707 4.4830 2.3931
2.6107 4.5863 2.3931
2.4469 4.6842 2.3931
2.2797 4.7764 2.3931
0.8579 1.9780 0.9734
0.7863 2.0084 0.9723
0.7137 2.0362 0.9711
0.6401 2.0614 0.9698
0.5656 2.0839 0.9686
0.4904 2.1036 0.9672
0.4145 2.1207 0.9659
0.3380 2.1351 0.9645
0.2611 2.1466 0.9631
0.1838 2.1554 0.9617
0.1062 2.1614 0.9602
0.0284 2.1646 0.9587
-0.0494 2.1650 0.9572
-0.1272 2.1626 0.9556
-0.2049 2.1574 0.9541
-0.2823 2.1493 0.9525
-0.3593 2.1385 0.9509
-0.4360 2.1250 0.9493
-0.5121 2.1086 0.9477
-0.5875 2.0896 0.9461
-0.6623 2.0678 0.9445
-0.7362 2.0434 0.9428
-0.8091 2.0163 0.9412
-0.8810 1.9866 0.9396
-2.4286 4.9863 2.3931
-2.6108 4.9060 2.3931
-2.7901 4.8191 2.3931
-2.9665 4.7255 2.3931
-3.1397 4.6255 2.3931
-3.3095 4.5191 2.3931
-3.4755 4.4063 2.3931
-3.6375 4.2874 2.3931
-3.7953 4.1625 2.3931
-3.9487 4.0317 2.3931
-4.0975 3.8952 2.3931
-4.2413 3.7531 2.3931
-4.3800 3.6056 2.3931
-4.5134 3.4529 2.3931
-4.6412 3.2951 2.3931
-4.7633 3.1325 2.3931
-4.8794 2.9654 2.3931
-4.9895 2.7938 2.3931
-5.0932 2.6180 2.3931
-5.1904 2.4383 2.3931
-5.2810 2.2550 2.3931
-5.3648 2.0682 2.3931
-5.4416 1.8782 2.3931
-5.5114 1.6852 2.3931
-5.5740 1.4897 2.3931
-5.6293 1.2917 2.3931
-5.6772 1.0917 2.3931
-5.7176 0.8899 2.3931
-5.7504 0.6865 2.3931
-5.7756 0.4819 2.3931
-5.7932 0.2764 2.3931
-5.8030 0.0703 2.3931
-5.8050 -0.1361 2.3931
-5.7993 -0.3426 2.3931
-5.7858 -0.5487 2.3931
-5.7646 -0.7543 2.3931
-5.7356 -0.9590 2.3931
-5.6990 -1.1625 2.3931
-5.6547 -1.3645 2.3931
-5.6028 -1.5647 2.3931
-5.5434 -1.7627 2.3931
-5.4766 -1.9585 2.3931
-5.4025 -2.1515 2.3931
-5.3212 -2.3415 2.3931
-5.2329 -2.5284 2.3931
-5.1376 -2.7117 2.3931
-5.0355 -2.8912 2.3931
-4.9268 -3.0667 2.3931
-4.8116 -3.2379 2.3931
-4.6901 -3.4046 2.3931
-4.5625 -3.5665 2.3931
-4.4291 -3.7234 2.3931
-4.2900 -3.8751 2.3931
-4.1454 -4.0214 2.3931
-3.9955 -4.1620 2.3931
-3.8406 -4.2968 2.3931
-3.6810 -4.4256 2.3931
-3.5168 -4.5483 2.3931
-3.3483 -4.6647 2.3931
-3.1759 -4.7746 2.3931
-2.9996 -4.8779 2.3931
-2.8198 -4.9744 2.3931
-2.6368 -5.0642 2.3931
-2.4509 -5.1470 2.3931
-2.2622 -5.2227 2.3931
-2.0712 -5.2914 2.3931
-1.8780 -5.3529 2.3931
-1.6829 -5.4072 2.3931
-1.4863 -5.4542 2.3931
-1.2883 -5.4939 2.3931
-1.0894 -5.5263 2.3931
-0.8897 -5.5513 2.3931
-0.6895 -5.5691 2.3931
-0.4891 -5.5795 2.3931
-0.2888 -5.5826 2.3931
-0.0889 -5.5784 2.3931
0.1105 -5.5670 2.3931
0.3090 -5.5484 2.3931
0.5063 -5.5228 2.3931
0.7023 -5.4900 2.3931
0.8966 -5.4503 2.3931
1.0891 -5.4038 2.3931
1.2794 -5.3504 2.3931
1.4674 -5.2904 2.3931
1.6528 -5.2238 2.3931
1.8353 -5.1507 2.3931
2.0149 -5.0713 2.3931
2.1912 -4.9858 2.3931
2.3641 -4.8941 2.3931
2.5333 -4.7966 2.3931
2.6987 -4.6933 2.3931
2.8601 -4.5844 2.3931
3.0173 -4.4701 2.3931
3.1701 -4.3505 2.3931
3.3183 -4.2258 2.3931
3.4619 -4.0961 2.3931
3.6006 -3.9617 2.3931
3.7343 -3.8228 2.3931
3.8629 -3.6794 2.3931
3.9862 -3.5319 2.3931
4.1041 -3.3804 2.3931
4.2166 -3.2251 2.3931
4.3233 -3.0662 2.3931
4.4244 -2.9039 2.3931
4.5197 -2.7384 2.3931
4.6090 -2.5698 2.3931
4.6924 -2.3985 2.3931
4.7697 -2.2247 2.3931
4.8408 -2.0484 2.3931
4.9057 -1.8700 2.3931
4.9644 -1.6896 2.3931
5.0168 -1.5075 2.3931
5.0629 -1.3239 2.3931
5.1025 -1.1389 2.3931
5.1358 -0.9529 2.3931
5.1626 -0.7659 2.3931
5.1829 -0.5783 2.3931
5.1968 -0.3902 2.3931
5.2043 -0.2018 2.3931
5.2052 -0.0134 2.3931
5.1997 0.1749 2.3931
5.1878 0.3627 2.3931
5.1694 0.5500 2.3931
5.1446 0.7365 2.3931
5.1135 0.9220 2.3931
5.0760 1.1063 2.3931
5.0323 1.2892 2.3931
4.9823 1.4705 2.3931
4.9261 1.6499 2.3931
4.8639 1.8274 2.3931
4.7955 2.0026 2.3931
4.7212 2.1754 2.3931
4.6410 2.3457 2.3931
4.5550 2.5131 2.3931
4.4633 2.6775 2.3931
4.3659 2.8388 2.3931
4.2630 2.9968 2.3931
4.1547 3.1512 2.3931
4.0411 3.3018 2.3931
3.9222 3.4486 2.3931
3.7983 3.5913 2.3931
3.6695 3.7298 2.3931
3.5359 3.8639 2.3931
3.3976 3.9934 2.3931
3.2548 4.1182 2.3931
3.1076 4.2381 2.3931
2.9562 4.3530 2.3931
2.8008 4.4627 2.3931
2.6415 4.5670 2.3931
2.4784 4.6660 2.3931
2.3118 4.7593 2.3931
0.8714 1.9719 0.9736
0.8001 2.0028 0.9725
0.7276 2.0311 0.9713
0.6542 2.0568 0.9701
0.5799 2.0798 0.9688
0.5048 2.1001 0.9675
0.4290 2.1177 0.9661
0.3526 2.1325 0.9648
0.2758 2.1446 0.9634
0.1985 2.1539 0.9619
0.1210 2.1605 0.9605
0.0432 2.1642 0.9590
-0.0346 2.1651 0.9575
-0.1124 2.1633 0.9559
-0.1901 2.1586 0.9544
-0.2675 2.1511 0.9528
-0.3447 2.1408 0.9512
-0.4214 2.1278 0.9496
-0.4976 2.1120 0.9480
-0.5732 2.0934 0.9464
-0.6481 2.0722 0.9448
-0.7221 2.0482 0.9432
-0.7953 2.0217 0.9415
-0.8674 1.9925 0.9399
-2.3936 5.0009 2.3931
-2.5762 4.9219 2.3931
-2.7562 4.8362 2.3931
-2.9332 4.7439 2.3931
-3.1070 4.6451 2.3931
-3.2774 4.5398 2.3931
-3.4441 4.4283 2.3931
-3.6069 4.3106 2.3931
-3.7656 4.1868 2.3931
-3.9198 4.0571 2.3931
-4.0695 3.9216 2.3931
-4.2143 3.7806 2.3931
-4.3540 3.6341 2.3931
-4.4884 3.4824 2.3931
-4.6173 3.3256 2.3931
-4.7405 3.1639 2.3931
-4.8578 2.9976 2.3931
-4.9690 2.8268 2.3931
-5.0739 2.6518 2.3931
-5.1724 2.4729 2.3931
-5.2643 2.2902 2.3931
-5.3493 2.1040 2.3931
-5.4275 1.9146 2.3931
-5.4987 1.7222 2.3931
-5.5627 1.5271 2.3931
-5.6194 1.3296 2.3931
-5.6687 1.1300 2.3931
-5.7105 0.9285 2.3931
-5.7448 0.7254 2.3931
-5.7714 0.5210 2.3931
-5.7904 0.3157 2.3931
-5.8017 0.1096 2.3931
-5.8052 -0.0968 2.3931
-5.8010 -0.3032 2.3931
-5.7890 -0.5095 2.3931
-5.7692 -0.7152 2.3931
-5.7417 -0.9201 2.3931
-5.7065 -1.1238 2.3931
-5.6637 -1.3261 2.3931
-5.6132 -1.5267 2.3931
-5.5553 -1.7252 2.3931
-5.4899 -1.9213 2.3931
-5.4172 -2.1149 2.3931
-5.3373 -2.3056 2.3931
-5.2503 -2.4930 2.3931
-5.1563 -2.6770 2.3931
-5.0555 -2.8573 2.3931
-4.9480 -3.0336 2.3931
-4.8340 -3.2056 2.3931
-4.7137 -3.3732 2.3931
-4.5873 -3.5360 2.3931
-4.4550 -3.6939 2.3931
-4.3169 -3.8466 2.3931
-4.1733 -3.9939 2.3931
-4.0245 -4.1356 2.3931
-3.8705 -4.2716 2.3931
-3.7118 -4.4016 2.3931
-3.5484 -4.5254 2.3931
-3.3808 -4.6430 2.3931
-3.2090 -4.7541 2.3931
-3.0335 -4.8587 2.3931
-2.8544 -4.9565 2.3931
-2.6719 -5.0476 2.3931
-2.4865 -5.1317 2.3931
-2.2984 -5.2088 2.3931
-2.1078 -5.2789 2.3931
-1.9149 -5.3417 2.3931
-1.7202 -5.3974 2.3931
-1.5239 -5.4458 2.3931
-1.3261 -5.4869 2.3931
-1.1274 -5.5207 2.3931
-0.9278 -5.5471 2.3931
-0.7277 -5.5662 2.3931
-0.5273 -5.5780 2.3931
-0.3270 -5.5825 2.3931
-0.1269 -5.5797 2.3931
0.0726 -5.5697 2.3931
0.2712 -5.5525 2.3931
0.4688 -5.5282 2.3931
0.6650 -5.4968 2.3931
0.8597 -5.4584 2.3931
1.0525 -5.4132 2.3931
1.2433 -5.3611 2.3931
1.4317 -5.3023 2.3931
1.6176 -5.2370 2.3931
1.8008 -5.1651 2.3931
1.9809 -5.0869 2.3931
2.1579 -5.0025 2.3931
2.3314 -4.9120 2.3931
2.5013 -4.8156 2.3931
2.6675 -4.7134 2.3931
2.8297 -4.6056 2.3931
2.9876 -4.4923 2.3931
3.1413 -4.3737 2.3931
3.2904 -4.2499 2.3931
3.4349 -4.1212 2.3931
3.5746 -3.9877 2.3931
3.7092 -3.8496 2.3931
3.8388 -3.7071 2.3931
3.9631 -3.5604 2.3931
4.0821 -3.4096 2.3931
4.1955 -3.2550 2.3931
4.3034 -3.0967 2.3931
4.4056 -2.9351 2.3931
4.5020 -2.7701 2.3931
4.5924 -2.6022 2.3931
4.6769 -2.4314 2.3931
4.7554 -2.2580 2.3931
4.8277 -2.0822 2.3931
4.8938 -1.9042 2.3931
4.9537 -1.7242 2.3931
5.0073 -1.5424 2.3931
5.0546 -1.3590 2.3931
5.0955 -1.1743 2.3931
5.1299 -0.9884 2.3931
5.1580 -0.8016 2.3931
5.1796 -0.6141 2.3931
5.1947 -0.4260 2.3931
5.2033 -0.2377 2.3931
5.2055 -0.0493 2.3931
5.2013 0.1390 2.3931
5.1905 0.3269 2.3931
5.1734 0.5144 2.3931
5.1498 0.7010 2.3931
5.1199 0.8867 2.3931
5.0836 1.0713 2.3931
5.0411 1.2544 2.3931
4.9923 1.4360 2.3931
4.9373 1.6159 2.3931
4.8762 1.7937 2.3931
4.8090 1.9694 2.3931
4.7359 2.1427 2.3931
4.6568 2.3134 2.3931
4.5719 2.4814 2.3931
4.4812 2.6464 2.3931
4.3849 2.8083 2.3931
4.2830 2.9669 2.3931
4.1757 3.1220 2.3931
4.0631 3.2734 2.3931
3.4160 -3.7109 2.3931
3.5414 -3.5794 2.3931
3.6620 -3.4438 2.3931
3.7776 -3.3042 2.3931
3.8881 -3.1609 2.3931
3.9935 -3.0140 2.3931
4.0935 -2.8637 2.3931
4.1880 -2.7102 2.3931
4.2771 -2.5537 2.3931
4.3606 -2.3944 2.3931
4.4384 -2.2325 2.3931
4.5105 -2.0681 2.3931
4.5768 -1.9015 2.3931
4.6372 -1.7329 2.3931
4.6918 -1.5625 2.3931
4.7403 -1.3904 2.3931
4.7828 -1.2169 2.3931
4.8193 -1.0422 2.3931
4.8497 -0.8665 2.3931
4.8741 -0.6899 2.3931
4.8923 -0.5127 2.3931
4.9044 -0.3351 2.3931
4.9104 -0.1573 2.3931
4.9102 0.0205 2.3931
4.9040 0.1981 2.3931
4.8917 0.3754 2.3931
4.8732 0.5521 2.3931
4.8488 0.7280 2.3931
4.8183 0.9029 2.3931
4.7818 1.0766 2.3931
4.7394 1.2490 2.3931
4.6911 1.4198 2.3931
4.6370 1.5889 2.3931
4.5770 1.7560 2.3931
4.5114 1.9210 2.3931
4.4401 2.0837 2.3931
4.3633 2.2438 2.3931
4.2810 2.4013 2.3931
4.1932 2.5559 2.3931
4.1002 2.7075 2.3931
4.0020 2.8559 2.3931
3.8987 3.0009 2.3931
3.7904 3.1423 2.3931
3.6771 3.2800 2.3931
3.5592 3.4138 2.3931
3.4366 3.5435 2.3931
3.3094 3.6691 2.3931
3.1780 3.7903 2.3931
3.0422 3.9070 2.3931
2.9024 4.0190 2.3931
2.7587 4.1262 2.3931
2.6112 4.2285 2.3931
2.4600 4.3257 2.3931
2.3054 4.4177 2.3931
0.8728 1.8306 0.9726
0.8065 1.8616 0.9715
0.7391 1.8902 0.9704
0.6707 1.9163 0.9693
0.6014 1.9400 0.9681
0.5313 1.9612 0.9669
0.4605 1.9798 0.9657
0.3890 1.9959 0.9644
0.3171 2.0093 0.9631
0.2446 2.0202 0.9618
0.1719 2.0285 0.9604
0.0988 2.0341 0.9591
0.0256 2.0371 0.9577
-0.0476 2.0375 0.9562
-0.1208 2.0352 0.9548
-0.1939 2.0303 0.9533
-0.2668 2.0227 0.9518
-0.3393 2.0126 0.9503
-0.4115 1.9998 0.9488
-0.4831 1.9844 0.9473
-0.5541 1.9665 0.9458
-0.6245 1.9460 0.9443
-0.6940 1.9230 0.9427
-0.7627 1.8975 0.9412
-0.8304 1.8696 0.9397
-0.8970 1.8392 0.9381
-2.4595 4.6157 2.3931
-2.6280 4.5334 2.3931
-2.7937 4.4449 2.3931
-2.9564 4.3504 2.3931
-3.1157 4.2498 2.3931
-3.2716 4.1434 2.3931
-3.4236 4.0312 2.3931
-3.5718 3.9134 2.3931
-3.7157 3.7900 2.3931
-3.8551 3.6613 2.3931
-3.9900 3.5274 2.3931
-4.1201 3.3884 2.3931
-4.2451 3.2446 2.3931
-4.3649 3.0961 2.3931
-4.4793 2.9431 2.3931
-4.5881 2.7857 2.3931
-4.6911 2.6243 2.3931
-4.7882 2.4590 2.3931
-4.8792 2.2900 2.3931
-4.9640 2.1176 2.3931
-5.0423 1.9419 2.3931
-5.1142 1.7633 2.3931
-5.1795 1.5820 2.3931
-5.2379 1.3983 2.3931
-5.2896 1.2123 2.3931
-5.3343 1.0244 2.3931
-5.3720 0.8348 2.3931
-5.4026 0.6438 2.3931
-5.4260 0.4517 2.3931
-5.4423 0.2587 2.3931
-5.4513 0.0652 2.3931
-5.4531 -0.1286 2.3931
-5.4476 -0.3224 2.3931
-5.4348 -0.5160 2.3931
-5.4148 -0.7090 2.3931
-5.3875 -0.9011 2.3931
-5.3530 -1.0921 2.3931
-5.3114 -1.2818 2.3931
-5.2627 -1.4697 2.3931
-5.2070 -1.6557 2.3931
-5.1443 -1.8394 2.3931
-5.0748 -2.0206 2.3931
-4.9986 -2.1991 2.3931
-4.9157 -2.3745 2.3931
-4.8263 -2.5467 2.3931
-4.7306 -2.7153 2.3931
-4.6287 -2.8802 2.3931
-4.5207 -3.0410 2.3931
-4.4068 -3.1976 2.3931
-4.2872 -3.3498 2.3931
-4.1620 -3.4972 2.3931
-4.0316 -3.6399 2.3931
-3.8960 -3.7774 2.3931
-3.7554 -3.9097 2.3931
-3.6102 -4.0366 2.3931
-3.4604 -4.1578 2.3931
-3.3064 -4.2733 2.3931
-3.1484 -4.3829 2.3931
-2.9865 -4.4864 2.3931
-2.8211 -4.5838 2.3931
-2.6525 -4.6749 2.3931
-2.4807 -4.7596 2.3931
-2.3061 -4.8377 2.3931
-2.1290 -4.9094 2.3931
-1.9496 -4.9743 2.3931
-1.7682 -5.0325 2.3931
-1.5849 -5.0840 2.3931
-1.4002 -5.1287 2.3931
-1.2142 -5.1665 2.3931
-1.0272 -5.1974 2.3931
-0.8395 -5.2214 2.3931
-0.6513 -5.2386 2.3931
-0.4629 -5.2489 2.3931
-0.2745 -5.2523 2.3931
-0.0864 -5.2489 2.3931
0.1011 -5.2387 2.3931
0.2879 -5.2217 2.3931
0.4737 -5.1981 2.3931
0.6582 -5.1678 2.3931
0.8411 -5.1310 2.3931
1.0224 -5.0876 2.3931
1.2017 -5.0379 2.3931
1.3788 -4.9819 2.3931
1.5535 -4.9197 2.3931
1.7256 -4.8513 2.3931
1.8949 -4.7771 2.3931
2.0612 -4.6969 2.3931
2.2242 -4.6111 2.3931
2.3839 -4.5196 2.3931
2.5399 -4.4227 2.3931
2.6922 -4.3205 2.3931
2.8406 -4.2132 2.3931
2.9849 -4.1008 2.3931
3.1249 -3.9837 2.3931
3.2605 -3.8618 2.3931
3.3915 -3.7355 2.3931
3.5179 -3.6048 2.3931
3.6394 -3.4699 2.3931
3.7560 -3.3311 2.3931
3.8675 -3.1885 2.3931
3.9738 -3.0423 2.3931
4.0748 -2.8926 2.3931
4.1704 -2.7397 2.3931
4.2606 -2.5838 2.3931
4.3451 -2.4250 2.3931
4.4241 -2.2635 2.3931
4.4972 -2.0996 2.3931
4.5646 -1.9335 2.3931
4.6262 -1.7652 2.3931
4.6818 -1.5951 2.3931
4.7315 -1.4233 2.3931
4.7752 -1.2501 2.3931
4.8128 -1.0756 2.3931
4.8444 -0.9000 2.3931
4.8699 -0.7236 2.3931
4.8893 -0.5465 2.3931
4.9025 -0.3690 2.3931
4.9097 -0.1912 2.3931
4.9107 -0.0134 2.3931
4.9057 0.1643 2.3931
4.8945 0.3417 2.3931
4.8772 0.5185 2.3931
4.8539 0.6945 2.3931
4.8246 0.8696 2.3931
4.7892 1.0436 2.3931
4.7480 1.2163 2.3931
4.7008 1.3874 2.3931
4.6477 1.5568 2.3931
4.5889 1.7243 2.3931
4.5244 1.8897 2.3931
4.4542 2.0529 2.3931
4.3784 2.2135 2.3931
4.2971 2.3715 2.3931
4.2104 2.5267 2.3931
4.1184 2.6789 2.3931
4.0211 2.8279 2.3931
3.9188 2.9735 2.3931
3.8114 3.1156 2.3931
3.6991 3.2540 2.3931
3.5820 3.3886 2.3931
3.4603 3.5191 2.3931
3.3340 3.6455 2.3931
3.2034 3.7675 2.3931
3.0684 3.8851 2.3931
2.9294 3.9980 2.3931
2.7864 4.1061 2.3931
2.6396 4.2094 2.3931
2.4891 4.3076 2.3931
2.3351 4.4006 2.3931
0.8853 1.8244 0.9728
0.8192 1.8559 0.9717
0.7520 1.8849 0.9706
0.6838 1.9115 0.9695
0.6147 1.9357 0.9684
0.5447 1.9573 0.9672
0.4740 1.9764 0.9659
0.4027 1.9930 0.9647
0.3308 2.0070 0.9634
0.2585 2.0183 0.9621
0.1858 2.0271 0.9607
0.1128 2.0332 0.9593
0.0396 2.0367 0.9579
-0.0337 2.0376 0.9565
-0.1069 2.0358 0.9551
-0.1800 2.0314 0.9536
-0.2529 2.0244 0.9521
-0.3255 2.0147 0.9506
-0.3978 2.0024 0.9491
-0.4695 1.9876 0.9476
-0.5406 1.9701 0.9461
-0.6111 1.9501 0.9446
-0.6808 1.9276 0.9430
-0.7497 1.9026 0.9415
-0.8176 1.8751 0.9400
-0.8844 1.8452 0.9384
-2.4270 4.6307 2.3931
-2.5961 4.5496 2.3931
-2.7624 4.4623 2.3931
-2.9256 4.3689 2.3931
-3.0856 4.2695 2.3931
-3.2421 4.1642 2.3931
-3.3950 4.0530 2.3931
-3.5438 3.9363 2.3931
-3.6886 3.8140 2.3931
-3.8289 3.6863 2.3931
-3.9647 3.5533 2.3931
-4.0957 3.4153 2.3931
-4.2216 3.2724 2.3931
-4.3425 3.1247 2.3931
-4.4579 2.9726 2.3931
-4.5677 2.8160 2.3931
-4.6719 2.6554 2.3931
-4.7701 2.4908 2.3931
-4.8623 2.3225 2.3931
-4.9483 2.1507 2.3931
-5.0279 1.9756 2.3931
-5.1010 1.7976 2.3931
-5.1675 1.6168 2.3931
-5.2273 1.4335 2.3931
-5.2803 1.2479 2.3931
-5.3263 1.0603 2.3931
-5.3654 0.8711 2.3931
-5.3973 0.6803 2.3931
-5.4221 0.4884 2.3931
-5.4398 0.2956 2.3931
-5.4502 0.1021 2.3931
-5.4533 -0.0917 2.3931
-5.4492 -0.2855 2.3931
-5.4378 -0.4791 2.3931
-5.4191 -0.6722 2.3931
-5.3933 -0.8646 2.3931
-5.3602 -1.0558 2.3931
-5.3199 -1.2457 2.3931
-5.2726 -1.4340 2.3931
-5.2182 -1.6204 2.3931
-5.1568 -1.8046 2.3931
-5.0886 -1.9863 2.3931
-5.0136 -2.1653 2.3931
-4.9320 -2.3413 2.3931
-4.8439 -2.5141 2.3931
-4.7493 -2.6834 2.3931
-4.6486 -2.8490 2.3931
-4.5417 -3.0107 2.3931
-4.4289 -3.1681 2.3931
-4.3104 -3.3211 2.3931
-4.1863 -3.4695 2.3931
-4.0568 -3.6131 2.3931
-3.9222 -3.7516 2.3931
-3.7826 -3.8849 2.3931
-3.6382 -4.0128 2.3931
-3.4893 -4.1351 2.3931
-3.3361 -4.2517 2.3931
-3.1788 -4.3625 2.3931
-3.0177 -4.4672 2.3931
-2.8529 -4.5657 2.3931
-2.6849 -4.6580 2.3931
-2.5137 -4.7439 2.3931
-2.3396 -4.8233 2.3931
-2.1629 -4.8962 2.3931
-1.9840 -4.9624 2.3931
-1.8029 -5.0220 2.3931
-1.6200 -5.0747 2.3931
-1.4355 -5.1207 2.3931
-1.2498 -5.1598 2.3931
-1.0629 -5.1920 2.3931
-0.8753 -5.2174 2.3931
-0.6872 -5.2359 2.3931
-0.4988 -5.2475 2.3931
-0.3104 -5.2522 2.3931
-0.1222 -5.2501 2.3931
0.0654 -5.2412 2.3931
0.2524 -5.2255 2.3931
0.4383 -5.2031 2.3931
0.6231 -5.1741 2.3931
0.8064 -5.1385 2.3931
0.9880 -5.0964 2.3931
1.1677 -5.0479 2.3931
1.3452 -4.9931 2.3931
1.5204 -4.9320 2.3931
1.6930 -4.8648 2.3931
1.8629 -4.7917 2.3931
2.0297 -4.7127 2.3931
2.1934 -4.6279 2.3931
2.3537 -4.5375 2.3931
2.5105 -4.4416 2.3931
2.6635 -4.3404 2.3931
2.8126 -4.2340 2.3931
2.9577 -4.1226 2.3931
3.0985 -4.0064 2.3931
3.2350 -3.8854 2.3931
3.3669 -3.7599 2.3931
3.4942 -3.6300 2.3931
3.6166 -3.4959 2.3931
3.7341 -3.3579 2.3931
3.8466 -3.2160 2.3931
3.9539 -3.0704 2.3931
4.0560 -2.9214 2.3931
4.1526 -2.7691 2.3931
4.2438 -2.6137 2.3931
4.3294 -2.4555 2.3931
4.4095 -2.2945 2.3931
4.4837 -2.1310 2.3931
4.5522 -1.9653 2.3931
4.6149 -1.7974 2.3931
4.6717 -1.6277 2.3931
4.7225 -1.4562 2.3931
4.7673 -1.2832 2.3931
4.8061 -1.1090 2.3931
4.8388 -0.9336 2.3931
4.8655 -0.7573 2.3931
4.8860 -0.5803 2.3931
4.9005 -0.4029 2.3931
4.9088 -0.2251 2.3931
4.9110 -0.0473 2.3931
4.9071 0.1305 2.3931
4.8971 0.3079 2.3931
4.8810 0.4848 2.3931
4.8588 0.6610 2.3931
4.8306 0.8363 2.3931
4.7964 1.0106 2.3931
4.7563 1.1835 2.3931
4.7102 1.3549 2.3931
4.6583 1.5247 2.3931
4.6006 1.6925 2.3931
4.5371 1.8584 2.3931
4.4680 2.0219 2.3931
4.3932 2.1831 2.3931
4.3130 2.3416 2.3931
4.2273 2.4974 2.3931
4.1363 2.6501 2.3931
4.0401 2.7997 2.3931
3.9387 2.9460 2.3931
3.8322 3.0888 2.3931
3.2246 -3.5065 2.3931
3.3433 -3.3826 2.3931
3.4575 -3.2547 2.3931
3.5670 -3.1230 2.3931
3.6717 -2.9878 2.3931
3.7715 -2.8492 2.3931
3.8663 -2.7073 2.3931
3.9559 -2.5624 2.3931
4.0404 -2.4147 2.3931
4.1196 -2.2642 2.3931
4.1934 -2.1112 2.3931
4.2618 -1.9560 2.3931
4.3247 -1.7986 2.3931
4.3820 -1.6392 2.3931
4.4338 -1.4782 2.3931
4.4799 -1.3155 2.3931
4.5203 -1.1515 2.3931
4.5550 -0.9863 2.3931
4.5839 -0.8202 2.3931
4.6071 -0.6532 2.3931
4.6245 -0.4857 2.3931
4.6360 -0.3177 2.3931
4.6418 -0.1495 2.3931
4.6418 0.0187 2.3931
4.6360 0.1867 2.3931
4.6244 0.3544 2.3931
4.6071 0.5215 2.3931
4.5840 0.6879 2.3931
4.5552 0.8534 2.3931
4.5207 1.0177 2.3931
4.4806 1.1808 2.3931
4.4349 1.3424 2.3931
4.3837 1.5023 2.3931
4.3270 1.6603 2.3931
4.2649 1.8164 2.3931
4.1974 1.9702 2.3931
4.1246 2.1217 2.3931
4.0467 2.2706 2.3931
3.9636 2.4168 2.3931
3.8755 2.5602 2.3931
3.7825 2.7004 2.3931
3.6847 2.8374 2.3931
3.5821 2.9711 2.3931
3.4749 3.1012 2.3931
3.3632 3.2276 2.3931
3.2472 3.3502 2.3931
3.1268 3.4688 2.3931
3.0024 3.5832 2.3931
2.8739 3.6933 2.3931
2.7415 3.7991 2.3931
2.6055 3.9002 2.3931
2.4659 3.9967 2.3931
2.3228 4.0884 2.3931
0.8838 1.6953 0.9718
0.8223 1.7268 0.9708
0.7598 1.7560 0.9698
0.6962 1.7830 0.9688
0.6317 1.8076 0.9677
0.5663 1.8300 0.9666
0.5002 1.8499 0.9655
0.4334 1.8675 0.9643
0.3660 1.8826 0.9631
0.2981 1.8953 0.9619
0.2297 1.9056 0.9606
0.1611 1.9134 0.9593
0.0922 1.9187 0.9580
0.0231 1.9215 0.9567
-0.0460 1.9219 0.9554
-0.1151 1.9197 0.9540
-0.1840 1.9151 0.9526
-0.2528 1.9080 0.9512
-0.3212 1.8984 0.9498
-0.3892 1.8863 0.9484
-0.4568 1.8718 0.9470
-0.5238 1.8549 0.9455
-0.5902 1.8356 0.9441
-0.6558 1.8139 0.9426
-0.7206 1.7898 0.9412
-0.7845 1.7635 0.9397
-0.8473 1.7348 0.9383
-0.9092 1.7039 0.9368
-2.4811 4.2746 2.3931
-2.6372 4.1908 2.3931
-2.7903 4.1013 2.3931
-2.9403 4.0061 2.3931
-3.0870 3.9054 2.3931
-3.2301 3.7993 2.3931
-3.3694 3.6879 2.3931
-3.5047 3.5713 2.3931
-3.6359 3.4497 2.3931
-3.7627 3.3233 2.3931
-3.8850 3.1921 2.3931
-4.0025 3.0563 2.3931
-4.1150 2.9161 2.3931
-4.2225 2.7718 2.3931
-4.3247 2.6234 2.3931
-4.4214 2.4711 2.3931
-4.5126 2.3152 2.3931
-4.5980 2.1559 2.3931
-4.6776 1.9934 2.3931
-4.7511 1.8279 2.3931
-4.8185 1.6596 2.3931
-4.8797 1.4888 2.3931
-4.9345 1.3157 2.3931
-4.9829 1.1406 2.3931
-5.0248 0.9636 2.3931
-5.0600 0.7851 2.3931
-5.0886 0.6053 2.3931
-5.1105 0.4244 2.3931
-5.1257 0.2428 2.3931
-5.1340 0.0606 2.3931
-5.1355 -0.1218 2.3931
-5.1302 -0.3043 2.3931
-5.1181 -0.4864 2.3931
-5.0992 -0.6681 2.3931
-5.0734 -0.8489 2.3931
-5.0410 -1.0287 2.3931
-5.0018 -1.2071 2.3931
-4.9559 -1.3840 2.3931
-4.9035 -1.5590 2.3931
-4.8445 -1.7320 2.3931
-4.7792 -1.9026 2.3931
-4.7075 -2.0706 2.3931
-4.6295 -2.2357 2.3931
-4.5455 -2.3978 2.3931
-4.4555 -2.5566 2.3931
-4.3597 -2.7118 2.3931
-4.2581 -2.8633 2.3931
-4.1511 -3.0108 2.3931
-4.0386 -3.1541 2.3931
-3.9210 -3.2931 2.3931
-3.7983 -3.4275 2.3931
-3.6708 -3.5572 2.3931
-3.5387 -3.6819 2.3931
-3.4021 -3.8015 2.3931
-3.2613 -3.9159 2.3931
-3.1164 -4.0249 2.3931
-2.9678 -4.1283 2.3931
-2.8155 -4.2261 2.3931
-2.6599 -4.3181 2.3931
-2.5012 -4.4042 2.3931
-2.3396 -4.4842 2.3931
-2.1753 -4.5582 2.3931
-2.0086 -4.6260 2.3931
-1.8397 -4.6876 2.3931
-1.6689 -4.7428 2.3931
-1.4963 -4.7917 2.3931
-1.3223 -4.8341 2.3931
-1.1471 -4.8702 2.3931
-0.9710 -4.8997 2.3931
-0.7941 -4.9228 2.3931
-0.6168 -4.9394 2.3931
-0.4392 -4.9495 2.3931
-0.2616 -4.9532 2.3931
-0.0842 -4.9504 2.3931
0.0927 -4.9413 2.3931
0.2688 -4.9257 2.3931
0.4441 -4.9038 2.3931
0.6182 -4.8757 2.3931
0.7908 -4.8414 2.3931
0.9619 -4.8010 2.3931
1.1312 -4.7545 2.3931
1.2984 -4.7020 2.3931
1.4634 -4.6437 2.3931
1.6260 -4.5797 2.3931
1.7860 -4.5100 2.3931
1.9431 -4.4347 2.3931
2.0972 -4.3540 2.3931
2.2481 -4.2681 2.3931
2.3957 -4.1769 2.3931
2.5397 -4.0808 2.3931
2.6801 -3.9797 2.3931
2.8166 -3.8740 2.3931
2.9490 -3.7636 2.3931
3.0774 -3.6488 2.3931
3.2014 -3.5297 2.3931
3.3210 -3.4065 2.3931
3.4361 -3.2793 2.3931
3.5465 -3.1484 2.3931
3.6521 -3.0139 2.3931
3.7529 -2.8759 2.3931
3.8486 -2.7346 2.3931
3.9392 -2.5903 2.3931
4.0247 -2.4430 2.3931
4.1049 -2.2931 2.3931
4.1797 -2.1406 2.3931
4.2491 -1.9857 2.3931
4.3131 -1.8287 2.3931
4.3715 -1.6698 2.3931
4.4243 -1.5090 2.3931
4.4715 -1.3466 2.3931
4.5130 -1.1829 2.3931
4.5488 -1.0179 2.3931
4.5788 -0.8519 2.3931
4.6031 -0.6851 2.3931
4.6216 -0.5176 2.3931
4.6343 -0.3497 2.3931
4.6412 -0.1816 2.3931
4.6423 -0.0134 2.3931
4.6376 0.1547 2.3931
4.6271 0.3225 2.3931
4.6108 0.4897 2.3931
4.5888 0.6562 2.3931
4.5611 0.8219 2.3931
4.5277 0.9865 2.3931
4.4887 1.1498 2.3931
4.4440 1.3117 2.3931
4.3939 1.4719 2.3931
4.3382 1.6304 2.3931
4.2771 1.7868 2.3931
4.2107 1.9411 2.3931
4.1389 2.0930 2.3931
4.0620 2.2425 2.3931
3.9799 2.3892 2.3931
3.8927 2.5331 2.3931
3.8006 2.6739 2.3931
3.7037 2.8116 2.3931
3.6020 2.9459 2.3931
3.4957 3.0767 2.3931
3.3849 3.2038 2.3931
3.2696 3.3271 2.3931
3.1501 3.4465 2.3931
3.0264 3.5617 2.3931
2.8987 3.6727 2.3931
2.7671 3.7793 2.3931
2.6317 3.8813 2.3931
2.4928 3.9787 2.3931
2.3504 4.0713 2.3931
0.8954 1.6891 0.9719
0.8342 1.7210 0.9710
0.7718 1.7506 0.9700
0.7084 1.7780 0.9690
0.6440 1.8031 0.9679
0.5788 1.8259 0.9668
0.5128 1.8463 0.9657
0.4461 1.8643 0.9645
0.3788 1.8799 0.9633
0.3110 1.8931 0.9621
0.2428 1.9038 0.9609
0.1742 1.9121 0.9596
0.1053 1.9179 0.9583
0.0363 1.9212 0.9570
-0.0328 1.9220 0.9556
-0.1019 1.9203 0.9543
-0.1709 1.9162 0.9529
-0.2397 1.9095 0.9515
-0.3082 1.9004 0.9501
-0.3763 1.8888 0.9487
-0.4440 1.8748 0.9472
-0.5111 1.8583 0.9458
-0.5776 1.8394 0.9444
-0.6433 1.8182 0.9429
-0.7083 1.7946 0.9415
-0.7724 1.7687 0.9400
-0.8354 1.7404 0.9386
-0.8975 1.7100 0.9371
-2.4511 4.2899 2.3931
-2.6077 4.2072 2.3931
-2.7614 4.1188 2.3931
-2.9120 4.0247 2.3931
-3.0593 3.9250 2.3931
-3.2031 3.8199 2.3931
-3.3431 3.7095 2.3931
-3.4793 3.5940 2.3931
-3.6112 3.4733 2.3931
-3.7389 3.3477 2.3931
-3.8620 3.2174 2.3931
-3.9805 3.0825 2.3931
-4.0940 2.9432 2.3931
-4.2024 2.7996 2.3931
-4.3056 2.6519 2.3931
-4.4034 2.5004 2.3931
-4.4956 2.3452 2.3931
-4.5822 2.1866 2.3931
-4.6628 2.0246 2.3931
-4.7375 1.8597 2.3931
-4.8061 1.6919 2.3931
-4.8685 1.5216 2.3931
-4.9245 1.3489 2.3931
-4.9742 1.1741 2.3931
-5.0173 0.9975 2.3931
-5.0538 0.8193 2.3931
-5.0837 0.6397 2.3931
-5.1069 0.4590 2.3931
-5.1233 0.2774 2.3931
-5.1329 0.0954 2.3931
-5.1358 -0.0871 2.3931
-5.1318 -0.2695 2.3931
-5.1209 -0.4518 2.3931
-5.1033 -0.6335 2.3931
-5.0789 -0.8145 2.3931
-5.0477 -0.9945 2.3931
-5.0098 -1.1732 2.3931
-4.9652 -1.3505 2.3931
-4.9140 -1.5258 2.3931
-4.8563 -1.6992 2.3931
-4.7921 -1.8702 2.3931
-4.7216 -2.0387 2.3931
-4.6449 -2.2045 2.3931
-4.5620 -2.3672 2.3931
-4.4731 -2.5266 2.3931
-4.3784 -2.6825 2.3931
-4.2779 -2.8347 2.3931
-4.1719 -2.9830 2.3931
-4.0605 -3.1272 2.3931
-3.9438 -3.2670 2.3931
-3.8221 -3.4023 2.3931
-3.6955 -3.5328 2.3931
-3.5642 -3.6585 2.3931
-3.4284 -3.7791 2.3931
-3.2884 -3.8945 2.3931
-3.1443 -4.0045 2.3931
-2.9964 -4.1091 2.3931
-2.8448 -4.2079 2.3931
-2.6898 -4.3010 2.3931
-2.5317 -4.3882 2.3931
-2.3706 -4.4695 2.3931
-2.2068 -4.5446 2.3931
-2.0405 -4.6136 2.3931
-1.8720 -4.6763 2.3931
-1.7016 -4.7328 2.3931
-1.5293 -4.7829 2.3931
-1.3556 -4.8265 2.3931
-1.1806 -4.8638 2.3931
-1.0046 -4.8946 2.3931
-0.8279 -4.9189 2.3931
-0.6506 -4.9368 2.3931
-0.4730 -4.9481 2.3931
-0.2954 -4.9530 2.3931
-0.1180 -4.9515 2.3931
0.0590 -4.9435 2.3931
0.2353 -4.9292 2.3931
0.4108 -4.9085 2.3931
0.5851 -4.8816 2.3931
0.7580 -4.8484 2.3931
0.9294 -4.8091 2.3931
1.0991 -4.7638 2.3931
1.2667 -4.7125 2.3931
1.4322 -4.6553 2.3931
1.5952 -4.5923 2.3931
1.7557 -4.5237 2.3931
1.9134 -4.4495 2.3931
2.0681 -4.3698 2.3931
2.2196 -4.2848 2.3931
2.3678 -4.1947 2.3931
2.5126 -4.0995 2.3931
2.6536 -3.9994 2.3931
2.7908 -3.8945 2.3931
2.9241 -3.7850 2.3931
3.0532 -3.6710 2.3931
3.1781 -3.5527 2.3931
3.2986 -3.4303 2.3931
3.4145 -3.3039 2.3931
3.5258 -3.1736 2.3931
3.6324 -3.0398 2.3931
3.7340 -2.9024 2.3931
3.8307 -2.7618 2.3931
3.9224 -2.6180 2.3931
4.0088 -2.4713 2.3931
4.0900 -2.3219 2.3931
4.1659 -2.1698 2.3931
4.2364 -2.0154 2.3931
4.3013 -1.8588 2.3931
4.3608 -1.7002 2.3931
4.4147 -1.5398 2.3931
4.4630 -1.3777 2.3931
4.5055 -1.2142 2.3931
4.5424 -1.0494 2.3931
4.5736 -0.8836 2.3931
4.5989 -0.7169 2.3931
4.6185 -0.5496 2.3931
4.6323 -0.3818 2.3931
4.6403 -0.2137 2.3931
4.6425 -0.0454 2.3931
4.6389 0.1227 2.3931
4.6295 0.2905 2.3931
4.6144 0.4579 2.3931
4.5934 0.6246 2.3931
4.5668 0.7904 2.3931
4.5345 0.9552 2.3931
4.4965 1.1188 2.3931
4.4530 1.2809 2.3931
4.4039 1.4415 2.3931
4.3492 1.6003 2.3931
4.2892 1.7572 2.3931
4.2237 1.9119 2.3931
4.1530 2.0643 2.3931
4.0770 2.2142 2.3931
3.9959 2.3614 2.3931
3.9097 2.5059 2.3931
3.8186 2.6473 2.3931
3.7226 2.7856 2.3931
3.6218 2.9206 2.3931
3.0496 -3.3197 2.3931
3.1622 -3.2026 2.3931
3.2705 -3.0818 2.3931
3.3744 -2.9573 2.3931
3.4738 -2.8295 2.3931
3.5685 -2.6984 2.3931
3.6584 -2.5643 2.3931
3.7435 -2.4272 2.3931
3.8237 -2.2874 2.3931
3.8989 -2.1450 2.3931
3.9691 -2.0003 2.3931
4.0340 -1.8533 2.3931
4.0938 -1.7043 2.3931
4.1483 -1.5535 2.3931
4.1975 -1.4009 2.3931
4.2414 -1.2469 2.3931
4.2798 -1.0916 2.3931
4.3129 -0.9351 2.3931
4.3404 -0.7778 2.3931
4.3625 -0.6196 2.3931
4.3791 -0.4609 2.3931
4.3902 -0.3017 2.3931
4.3958 -0.1424 2.3931
4.3959 0.0170 2.3931
4.3904 0.1762 2.3931
4.3795 0.3351 2.3931
4.3631 0.4935 2.3931
4.3413 0.6512 2.3931
4.3141 0.8080 2.3931
4.2814 0.9637 2.3931
4.2434 1.1182 2.3931
4.2001 1.2713 2.3931
4.1516 1.4229 2.3931
4.0978 1.5727 2.3931
4.0389 1.7205 2.3931
3.9749 1.8663 2.3931
3.9059 2.0098 2.3931
3.8320 2.1509 2.3931
3.7532 2.2894 2.3931
3.6697 2.4251 2.3931
3.5815 2.5580 2.3931
3.4887 2.6877 2.3931
3.3914 2.8143 2.3931
3.2897 2.9375 2.3931
3.1838 3.0571 2.3931
3.0737 3.1731 2.3931
2.9596 3.2853 2.3931
2.8415 3.3936 2.3931
2.7197 3.4978 2.3931
2.5942 3.5977 2.3931
2.4653 3.6934 2.3931
2.3329 3.7846 2.3931
0.8915 1.5706 0.9709
0.8345 1.6024 0.9701
0.7764 1.6321 0.9692
0.7172 1.6598 0.9682
0.6571 1.6852 0.9673
0.5961 1.7085 0.9662
0.5343 1.7296 0.9652
0.4718 1.7485 0.9641
0.4087 1.7651 0.9630
0.3449 1.7794 0.9619
0.2807 1.7914 0.9607
0.2161 1.8011 0.9595
0.1512 1.8085 0.9583
0.0861 1.8135 0.9571
0.0208 1.8161 0.9559
-0.0445 1.8165 0.9546
-0.1098 1.8144 0.9533
-0.1750 1.8100 0.9520
-0.2400 1.8033 0.9507
-0.3047 1.7942 0.9493
-0.3690 1.7828 0.9480
-0.4329 1.7691 0.9466
-0.4962 1.7531 0.9453
-0.5589 1.7349 0.9439
-0.6209 1.7144 0.9425
-0.6822 1.6916 0.9412
-0.7426 1.6667 0.9398
-0.8020 1.6396 0.9384
-0.8604 1.6104 0.9371
-0.9178 1.5791 0.9357
-2.4946 3.9592 2.3931
-2.6391 3.8743 2.3931
-2.7806 3.7841 2.3931
-2.9189 3.6887 2.3931
-3.0539 3.5882 2.3931
-3.1852 3.4827 2.3931
-3.3128 3.3723 2.3931
-3.4365 3.2572 2.3931
-3.5560 3.1376 2.3931
-3.6711 3.0134 2.3931
-3.7818 2.8850 2.3931
-3.8879 2.7525 2.3931
-3.9890 2.6160 2.3931
-4.0852 2.4757 2.3931
-4.1763 2.3319 2.3931
-4.2621 2.1846 2.3931
-4.3425 2.0341 2.3931
-4.4173 1.8806 2.3931
-4.4865 1.7243 2.3931
-4.5499 1.5654 2.3931
-4.6074 1.4042 2.3931
-4.6589 1.2408 2.3931
-4.7043 1.0755 2.3931
-4.7437 0.9085 2.3931
-4.7768 0.7400 2.3931
-4.8036 0.5703 2.3931
-4.8241 0.3997 2.3931
-4.8382 0.2283 2.3931
-4.8459 0.0564 2.3931
-4.8473 -0.1157 2.3931
-4.8422 -0.2878 2.3931
-4.8307 -0.4596 2.3931
-4.8127 -0.6309 2.3931
-4.7884 -0.8015 2.3931
-4.7577 -0.9711 2.3931
-4.7207 -1.1394 2.3931
-4.6775 -1.3062 2.3931
-4.6280 -1.4714 2.3931
-4.5724 -1.6345 2.3931
-4.5108 -1.7954 2.3931
-4.4432 -1.9539 2.3931
-4.3698 -2.1097 2.3931
-4.2906 -2.2626 2.3931
-4.2058 -2.4125 2.3931
