ply
format ascii 1.0
element vertex 2176
property float32 x
property float32 y
property float32 z
end_header
-5.1803 5.0808 2.3884
-5.3499 4.8803 2.3884
-5.5123 4.6747 2.3884
-5.6675 4.4640 2.3884
-5.8152 4.2487 2.3884
-5.9554 4.0289 2.3884
-6.0880 3.8048 2.3884
-6.2128 3.5768 2.3884
-6.3298 3.3451 2.3884
-6.4389 3.1098 2.3884
-6.5399 2.8714 2.3884
-6.6329 2.6300 2.3884
-6.7177 2.3858 2.3884
-6.7943 2.1391 2.3884
-6.8625 1.8903 2.3884
-6.9225 1.6394 2.3884
-6.9741 1.3869 2.3884
-7.0172 1.1328 2.3884
-7.0519 0.8776 2.3884
-7.0780 0.6213 2.3884
-7.0957 0.3644 2.3884
-5.7278 3.4143 2.3884
-5.8401 3.2004 2.3884
-5.9451 2.9831 2.3884
-6.0426 2.7627 2.3884
-6.1326 2.5393 2.3884
-6.2150 2.3133 2.3884
-6.2897 2.0848 2.3884
-6.3567 1.8541 2.3884
-6.4160 1.6215 2.3884
-6.4674 1.3871 2.3884
-6.5109 1.1513 2.3884
-6.5466 0.9142 2.3884
-6.5742 0.6760 2.3884
-6.5940 0.4372 2.3884
-6.6057 0.1978 2.3884
-6.6095 -0.0419 2.3884
-6.6053 -0.2816 2.3884
-6.5930 -0.5211 2.3884
-6.5728 -0.7602 2.3884
-6.5446 -0.9985 2.3884
-6.5084 -1.2359 2.3884
-6.4643 -1.4722 2.3884
-6.4123 -1.7070 2.3884
-6.3524 -1.9402 2.3884
-6.2846 -2.1714 2.3884
-6.2091 -2.4005 2.3884
-6.1258 -2.6272 2.3884
-6.0348 -2.8512 2.3884
-5.9363 -3.0724 2.3884
-5.8302 -3.2904 2.3884
-5.7166 -3.5051 2.3884
-5.5957 -3.7161 2.3884
-5.4675 -3.9233 2.3884
-5.3321 -4.1264 2.3884
-5.1897 -4.3251 2.3884
-5.0403 -4.5193 2.3884
-4.8841 -4.7087 2.3884
-4.7212 -4.8930 2.3884
-4.5518 -5.0721 2.3884
-4.3760 -5.2456 2.3884
-4.1939 -5.4134 2.3884
-4.0057 -5.5753 2.3884
-3.8117 -5.7309 2.3884
-3.6119 -5.8801 2.3884
-3.4066 -6.0228 2.3884
-3.1959 -6.1585 2.3884
-2.9801 -6.2872 2.3884
-2.7594 -6.4087 2.3884
-2.5340 -6.5227 2.3884
-2.3041 -6.6290 2.3884
-2.0700 -6.7276 2.3884
-1.8320 -6.8181 2.3884
-1.5903 -6.9004 2.3884
-1.3451 -6.9743 2.3884
-1.0968 -7.0397 2.3884
-0.8456 -7.0964 2.3884
-0.5918 -7.1443 2.3884
-0.3358 -7.1832 2.3884
-0.0778 -7.2131 2.3884
0.1818 -7.2337 2.3884
0.4427 -7.2451 2.3884
0.7046 -7.2470 2.3884
0.9671 -7.2395 2.3884
1.2298 -7.2224 2.3884
1.4926 -7.1957 2.3884
1.7548 -7.1593 2.3884
2.0163 -7.1133 2.3884
2.2766 -7.0575 2.3884
2.5354 -6.9921 2.3884
2.7922 -6.9169 2.3884
3.0468 -6.8322 2.3884
3.2986 -6.7378 2.3884
3.5474 -6.6338 2.3884
3.7927 -6.5204 2.3884
4.0341 -6.3976 2.3884
4.2714 -6.2656 2.3884
4.5040 -6.1244 2.3884
4.7316 -5.9742 2.3884
4.8584 -5.7032 2.3424
4.9177 -5.3716 2.2717
5.0375 -5.1225 2.2360
5.2285 -4.9500 2.2360
5.4130 -4.7700 2.2360
5.5909 -4.5828 2.2360
5.7618 -4.3886 2.2360
5.9253 -4.1877 2.2360
6.0812 -3.9804 2.2360
6.2292 -3.7669 2.2360
6.3691 -3.5475 2.2360
6.5006 -3.3227 2.2360
6.6234 -3.0927 2.2360
6.7374 -2.8579 2.2360
6.8422 -2.6186 2.2360
6.9378 -2.3752 2.2360
7.0239 -2.1281 2.2360
7.1004 -1.8777 2.2360
7.1671 -1.6244 2.2360
7.2239 -1.3685 2.2360
7.2707 -1.1106 2.2360
7.3075 -0.8509 2.2360
7.3341 -0.5900 2.2360
7.3505 -0.3282 2.2360
7.3567 -0.0660 2.2360
7.3527 0.1963 2.2360
7.3384 0.4580 2.2360
7.3140 0.7190 2.2360
7.2795 0.9787 2.2360
7.2349 1.2367 2.2360
7.1803 1.4926 2.2360
7.1159 1.7461 2.2360
7.0417 1.9966 2.2360
6.9580 2.2438 2.2360
6.8649 2.4874 2.2360
6.7625 2.7269 2.2360
6.6511 2.9620 2.2360
6.5308 3.1924 2.2360
6.4020 3.4176 2.2360
6.2648 3.6374 2.2360
6.2079 3.9071 2.2683
6.2419 4.2469 2.3392
6.2014 4.5515 2.3884
6.0220 4.7598 2.3884
5.8352 4.9608 2.3884
5.6412 5.1542 2.3884
5.4405 5.3397 2.3884
5.2333 5.5171 2.3884
5.0201 5.6862 2.3884
4.8011 5.8469 2.3884
4.5768 5.9989 2.3884
4.3475 6.1420 2.3884
4.1135 6.2762 2.3884
3.8754 6.4014 2.3884
3.6333 6.5172 2.3884
3.3878 6.6238 2.3884
3.1392 6.7211 2.3884
2.8878 6.8089 2.3884
2.6340 6.8872 2.3884
0.9234 2.7008 0.9274
0.8258 2.7317 0.9300
0.7272 2.7591 0.9327
0.6276 2.7828 0.9354
0.5273 2.8030 0.9382
0.4262 2.8195 0.9409
0.3246 2.8323 0.9436
0.2227 2.8414 0.9463
0.1204 2.8469 0.9490
0.0180 2.8487 0.9517
-0.0844 2.8467 0.9544
-0.1866 2.8411 0.9571
-0.2886 2.8317 0.9597
-0.3902 2.8187 0.9623
-0.4913 2.8019 0.9649
-0.5917 2.7816 0.9675
-0.6912 2.7576 0.9700
-0.7899 2.7301 0.9725
-2.1741 6.6116 2.3884
-2.4043 6.5107 2.3884
-2.6303 6.4022 2.3884
-2.8518 6.2862 2.3884
-3.0687 6.1630 2.3884
-3.2807 6.0327 2.3884
-3.4876 5.8955 2.3884
-3.6892 5.7515 2.3884
-3.8853 5.6012 2.3884
-4.0757 5.4446 2.3884
-4.2603 5.2819 2.3884
-4.4389 5.1134 2.3884
-4.6113 4.9393 2.3884
-4.7773 4.7597 2.3884
-4.9369 4.5750 2.3884
-5.0899 4.3854 2.3884
-5.2362 4.1910 2.3884
-5.3756 3.9920 2.3884
-5.5080 3.7889 2.3884
-5.6333 3.5817 2.3884
-5.7514 3.3706 2.3884
-5.8623 3.1560 2.3884
-5.9657 2.9381 2.3884
-6.0617 2.7170 2.3884
-6.1502 2.4931 2.3884
-6.2310 2.2666 2.3884
-6.3041 2.0376 2.3884
-6.3696 1.8065 2.3884
-6.4272 1.5735 2.3884
-6.4770 1.3388 2.3884
-6.5189 1.1027 2.3884
-6.5529 0.8653 2.3884
-6.5789 0.6271 2.3884
-6.5970 0.3881 2.3884
-6.6072 0.1486 2.3884
-6.6093 -0.0911 2.3884
-6.6034 -0.3308 2.3884
-6.5895 -0.5702 2.3884
-6.5677 -0.8092 2.3884
-6.5378 -1.0474 2.3884
-6.5000 -1.2846 2.3884
-6.4543 -1.5205 2.3884
-6.4006 -1.7550 2.3884
-6.3391 -1.9878 2.3884
-6.2697 -2.2186 2.3884
-6.1926 -2.4472 2.3884
-6.1077 -2.6734 2.3884
-6.0152 -2.8969 2.3884
-5.9151 -3.1174 2.3884
-5.8075 -3.3348 2.3884
-5.6924 -3.5487 2.3884
-5.5700 -3.7590 2.3884
-5.4403 -3.9653 2.3884
-5.3035 -4.1676 2.3884
-5.1596 -4.3654 2.3884
-5.0088 -4.5586 2.3884
-4.8512 -4.7470 2.3884
-4.6870 -4.9302 2.3884
-4.5162 -5.1082 2.3884
-4.3391 -5.2806 2.3884
-4.1558 -5.4472 2.3884
-3.9664 -5.6077 2.3884
-3.7711 -5.7621 2.3884
-3.5702 -5.9100 2.3884
-3.3637 -6.0512 2.3884
-3.1520 -6.1855 2.3884
-2.9352 -6.3128 2.3884
-2.7135 -6.4327 2.3884
-2.4871 -6.5452 2.3884
-2.2564 -6.6499 2.3884
-2.0215 -6.7468 2.3884
-1.7827 -6.8356 2.3884
-1.5402 -6.9162 2.3884
-1.2944 -6.9884 2.3884
-1.0454 -7.0521 2.3884
-0.7937 -7.1070 2.3884
-0.5394 -7.1530 2.3884
-0.2830 -7.1901 2.3884
-0.0247 -7.2181 2.3884
0.2352 -7.2368 2.3884
0.4964 -7.2462 2.3884
0.7584 -7.2462 2.3884
1.0210 -7.2367 2.3884
1.2838 -7.2177 2.3884
1.5465 -7.1890 2.3884
1.8086 -7.1506 2.3884
2.0699 -7.1026 2.3884
2.3299 -7.0449 2.3884
2.5883 -6.9774 2.3884
2.8447 -6.9003 2.3884
3.0987 -6.8135 2.3884
3.3500 -6.7172 2.3884
3.5980 -6.6113 2.3884
3.8426 -6.4960 2.3884
4.0832 -6.3713 2.3884
4.3195 -6.2373 2.3884
4.5512 -6.0943 2.3884
4.7777 -5.9423 2.3884
4.8709 -5.6336 2.3273
4.9294 -5.3057 2.2580
5.0772 -5.0877 2.2360
5.2669 -4.9136 2.2360
5.4501 -4.7322 2.2360
5.6266 -4.5435 2.2360
5.7959 -4.3479 2.2360
5.9579 -4.1456 2.2360
6.1123 -3.9370 2.2360
6.2587 -3.7223 2.2360
6.3968 -3.5018 2.2360
6.5265 -3.2759 2.2360
6.6475 -3.0449 2.2360
6.7596 -2.8091 2.2360
6.8626 -2.5689 2.2360
6.9562 -2.3248 2.2360
7.0404 -2.0770 2.2360
7.1148 -1.8259 2.2360
7.1795 -1.5720 2.2360
7.2343 -1.3157 2.2360
7.2791 -1.0574 2.2360
7.3138 -0.7974 2.2360
7.3383 -0.5363 2.2360
7.3526 -0.2744 2.2360
7.3567 -0.0121 2.2360
7.3506 0.2500 2.2360
7.3343 0.5117 2.2360
7.3078 0.7724 2.2360
7.2711 1.0318 2.2360
7.2245 1.2895 2.2360
7.1679 1.5449 2.2360
7.1014 1.7978 2.2360
7.0253 2.0477 2.2360
6.9396 2.2942 2.2360
6.8446 2.5369 2.2360
6.7404 2.7756 2.2360
6.6271 3.0097 2.2360
6.5051 3.2391 2.2360
6.3745 3.4632 2.2360
6.2356 3.6818 2.2360
6.2148 3.9753 2.2823
6.2490 4.3191 2.3547
6.1652 4.5949 2.3884
5.9842 4.8017 2.3884
5.7959 5.0011 2.3884
5.6005 5.1929 2.3884
5.3984 5.3768 2.3884
5.1900 5.5525 2.3884
4.9756 5.7199 2.3884
4.7555 5.8788 2.3884
4.5301 6.0290 2.3884
4.2998 6.1703 2.3884
4.0650 6.3027 2.3884
3.8260 6.4259 2.3884
3.5832 6.5399 2.3884
3.3370 6.6446 2.3884
3.0878 6.7399 2.3884
2.8358 6.8257 2.3884
2.5816 6.9021 2.3884
0.9035 2.7075 0.9279
0.8057 2.7376 0.9306
0.7068 2.7642 0.9333
0.6071 2.7872 0.9360
0.5066 2.8066 0.9387
0.4054 2.8224 0.9414
0.3037 2.8345 0.9442
0.2017 2.8429 0.9469
0.0994 2.8476 0.9496
-0.0030 2.8486 0.9523
-0.1054 2.8458 0.9550
-0.2076 2.8394 0.9576
-0.3095 2.8293 0.9603
-0.4110 2.8155 0.9629
-0.5119 2.7981 0.9655
-0.6122 2.7770 0.9680
-0.7116 2.7523 0.9705
-0.8100 2.7240 0.9730
-2.2217 6.5915 2.3884
-2.4510 6.4891 2.3884
-2.6761 6.3790 2.3884
-2.8967 6.2615 2.3884
-3.1126 6.1368 2.3884
-3.3236 6.0050 2.3884
-3.5294 5.8664 2.3884
-3.7299 5.7212 2.3884
-3.9248 5.5696 2.3884
-4.1141 5.4117 2.3884
-4.2974 5.2478 2.3884
-4.4748 5.0781 2.3884
-4.6459 4.9028 2.3884
-4.8106 4.7222 2.3884
-4.9689 4.5365 2.3884
-5.1205 4.3458 2.3884
-5.2654 4.1505 2.3884
-5.4033 3.9507 2.3884
-5.5343 3.7467 2.3884
-5.6581 3.5386 2.3884
-5.7748 3.3269 2.3884
-5.8841 3.1115 2.3884
-5.9860 2.8929 2.3884
-6.0805 2.6713 2.3884
-6.1674 2.4468 2.3884
-6.2466 2.2197 2.3884
-6.3182 1.9903 2.3884
-6.3820 1.7588 2.3884
-6.4380 1.5254 2.3884
-6.4862 1.2904 2.3884
-6.5265 1.0540 2.3884
-6.5589 0.8165 2.3884
-6.5833 0.5780 2.3884
-6.5998 0.3389 2.3884
-5.3445 3.1880 2.3884
-5.4498 2.9885 2.3884
-5.5482 2.7858 2.3884
-5.6397 2.5801 2.3884
-5.7241 2.3716 2.3884
-5.8013 2.1606 2.3884
-5.8714 1.9473 2.3884
-5.9343 1.7318 2.3884
-5.9898 1.5146 2.3884
-6.0380 1.2956 2.3884
-6.0788 1.0753 2.3884
-6.1122 0.8538 2.3884
-6.1381 0.6314 2.3884
-6.1566 0.4082 2.3884
-6.1676 0.1845 2.3884
-6.1710 -0.0394 2.3884
-6.1670 -0.2633 2.3884
-6.1554 -0.4871 2.3884
-6.1364 -0.7104 2.3884
-6.1098 -0.9331 2.3884
-6.0758 -1.1548 2.3884
-6.0343 -1.3754 2.3884
-5.9854 -1.5947 2.3884
-5.9291 -1.8124 2.3884
-5.8654 -2.0282 2.3884
-5.7945 -2.2420 2.3884
-5.7163 -2.4536 2.3884
-5.6309 -2.6626 2.3884
-5.5384 -2.8688 2.3884
-5.4388 -3.0721 2.3884
-5.3323 -3.2722 2.3884
-5.2189 -3.4688 2.3884
-5.0986 -3.6618 2.3884
-4.9717 -3.8509 2.3884
-4.8383 -4.0359 2.3884
-4.6983 -4.2166 2.3884
-4.5520 -4.3927 2.3884
-4.3994 -4.5641 2.3884
-4.2408 -4.7304 2.3884
-4.0762 -4.8916 2.3884
-3.9059 -5.0473 2.3884
-3.7299 -5.1974 2.3884
-3.5484 -5.3417 2.3884
-3.3616 -5.4799 2.3884
-3.1698 -5.6118 2.3884
-2.9730 -5.7374 2.3884
-2.7715 -5.8563 2.3884
-2.5654 -5.9684 2.3884
-2.3551 -6.0735 2.3884
-2.1407 -6.1714 2.3884
-1.9224 -6.2619 2.3884
-1.7005 -6.3450 2.3884
-1.4753 -6.4204 2.3884
-1.2469 -6.4879 2.3884
-1.0157 -6.5475 2.3884
-0.7820 -6.5990 2.3884
-0.5459 -6.6422 2.3884
-0.3078 -6.6771 2.3884
-0.0680 -6.7035 2.3884
0.1733 -6.7214 2.3884
0.4156 -6.7306 2.3884
0.6588 -6.7310 2.3884
0.9024 -6.7227 2.3884
1.1462 -6.7055 2.3884
1.3898 -6.6793 2.3884
1.6330 -6.6443 2.3884
1.8753 -6.6002 2.3884
2.1164 -6.5472 2.3884
2.3560 -6.4853 2.3884
2.5937 -6.4144 2.3884
2.8292 -6.3345 2.3884
3.0622 -6.2458 2.3884
3.2922 -6.1484 2.3884
3.5189 -6.0422 2.3884
3.7420 -5.9273 2.3884
3.9611 -5.8040 2.3884
4.1759 -5.6723 2.3884
4.3860 -5.5323 2.3884
4.5910 -5.3842 2.3884
4.7908 -5.2282 2.3884
4.9473 -5.0263 2.3704
5.0000 -4.7298 2.3086
5.0499 -4.4465 2.2525
5.1767 -4.2401 2.2360
5.3341 -4.0599 2.2360
5.4847 -3.8735 2.2360
5.6283 -3.6813 2.2360
5.7646 -3.4835 2.2360
5.8934 -3.2804 2.2360
6.0144 -3.0722 2.2360
6.1274 -2.8593 2.2360
6.2322 -2.6420 2.2360
6.3286 -2.4206 2.2360
6.4166 -2.1956 2.2360
6.4958 -1.9671 2.2360
6.5661 -1.7355 2.2360
6.6275 -1.5014 2.2360
6.6798 -1.2649 2.2360
6.7229 -1.0265 2.2360
6.7568 -0.7865 2.2360
6.7813 -0.5454 2.2360
6.7964 -0.3035 2.2360
6.8022 -0.0612 2.2360
6.7986 0.1811 2.2360
6.7856 0.4230 2.2360
6.7633 0.6642 2.2360
6.7316 0.9042 2.2360
6.6907 1.1427 2.2360
6.6407 1.3793 2.2360
6.5815 1.6136 2.2360
6.5135 1.8453 2.2360
6.4366 2.0740 2.2360
6.3511 2.2994 2.2360
6.2570 2.5211 2.2360
6.1546 2.7387 2.2360
6.0821 2.9706 2.2501
6.1109 3.2595 2.3059
6.1415 3.5628 2.3679
6.0519 3.8057 2.3884
5.9013 4.0118 2.3884
5.7433 4.2117 2.3884
5.5781 4.4051 2.3884
5.4060 4.5918 2.3884
5.2273 4.7715 2.3884
5.0422 4.9441 2.3884
4.8512 5.1092 2.3884
4.6545 5.2667 2.3884
4.4524 5.4165 2.3884
4.2453 5.5583 2.3884
4.0336 5.6919 2.3884
3.8175 5.8174 2.3884
3.5974 5.9345 2.3884
3.3736 6.0430 2.3884
3.1465 6.1431 2.3884
2.9165 6.2345 2.3884
2.6838 6.3171 2.3884
0.9493 2.4774 0.9258
0.8597 2.5093 0.9283
0.7690 2.5380 0.9308
0.6774 2.5634 0.9333
0.5849 2.5855 0.9358
0.4916 2.6042 0.9383
0.3977 2.6195 0.9409
0.3034 2.6314 0.9434
0.2086 2.6399 0.9459
0.1136 2.6450 0.9484
0.0185 2.6466 0.9510
-0.0767 2.6447 0.9534
-0.1717 2.6395 0.9559
-0.2664 2.6308 0.9584
-0.3608 2.6187 0.9608
-0.4547 2.6031 0.9632
-0.5480 2.5842 0.9656
-0.6405 2.5620 0.9680
-0.7322 2.5364 0.9703
-0.8228 2.5074 0.9726
-2.2355 6.0649 2.3884
-2.4465 5.9648 2.3884
-2.6533 5.8577 2.3884
-2.8559 5.7437 2.3884
-3.0539 5.6232 2.3884
-3.2473 5.4961 2.3884
-3.4357 5.3628 2.3884
-3.6191 5.2233 2.3884
-3.7972 5.0779 2.3884
-3.9700 4.9269 2.3884
-4.1371 4.7703 2.3884
-4.2985 4.6084 2.3884
-4.4540 4.4414 2.3884
-4.6034 4.2695 2.3884
-4.7467 4.0930 2.3884
-4.8837 3.9119 2.3884
-5.0144 3.7266 2.3884
-5.1385 3.5373 2.3884
-5.2559 3.3441 2.3884
-5.3667 3.1473 2.3884
-5.4706 2.9471 2.3884
-5.5676 2.7438 2.3884
-5.6576 2.5375 2.3884
-5.7405 2.3285 2.3884
-5.8163 2.1170 2.3884
-5.8849 1.9032 2.3884
-5.9463 1.6874 2.3884
-6.0003 1.4697 2.3884
-6.0470 1.2505 2.3884
-6.0863 1.0299 2.3884
-6.1181 0.8082 2.3884
-6.1425 0.5856 2.3884
-6.1595 0.3623 2.3884
-6.1689 0.1386 2.3884
-6.1708 -0.0854 2.3884
-6.1652 -0.3093 2.3884
-6.1521 -0.5330 2.3884
-6.1315 -0.7562 2.3884
-6.1034 -0.9787 2.3884
-6.0679 -1.2002 2.3884
-6.0249 -1.4206 2.3884
-5.9744 -1.6395 2.3884
-5.9166 -1.8569 2.3884
-5.8515 -2.0723 2.3884
-5.7790 -2.2857 2.3884
-5.6993 -2.4967 2.3884
-5.6125 -2.7051 2.3884
-5.5185 -2.9108 2.3884
-5.4175 -3.1135 2.3884
-5.3096 -3.3129 2.3884
-5.1947 -3.5088 2.3884
-5.0731 -3.7010 2.3884
-4.9449 -3.8893 2.3884
-4.8100 -4.0734 2.3884
-4.6688 -4.2532 2.3884
-4.5212 -4.4283 2.3884
-4.3673 -4.5986 2.3884
-4.2075 -4.7639 2.3884
-4.0417 -4.9240 2.3884
-3.8702 -5.0786 2.3884
-3.6931 -5.2275 2.3884
-3.5105 -5.3705 2.3884
-3.3227 -5.5075 2.3884
-3.1298 -5.6382 2.3884
-2.9320 -5.7623 2.3884
-2.7295 -5.8799 2.3884
-2.5226 -5.9905 2.3884
-2.3114 -6.0942 2.3884
-2.0962 -6.1906 2.3884
-1.8771 -6.2796 2.3884
-1.6545 -6.3611 2.3884
-1.4286 -6.4349 2.3884
-1.1997 -6.5008 2.3884
-0.9679 -6.5587 2.3884
-0.7336 -6.6085 2.3884
-0.4972 -6.6501 2.3884
-0.2587 -6.6832 2.3884
-0.0186 -6.7079 2.3884
0.2229 -6.7240 2.3884
0.4655 -6.7314 2.3884
0.7087 -6.7300 2.3884
0.9525 -6.7199 2.3884
1.1963 -6.7008 2.3884
1.4398 -6.6729 2.3884
1.6828 -6.6360 2.3884
1.9249 -6.5901 2.3884
2.1658 -6.5352 2.3884
2.4050 -6.4714 2.3884
2.6423 -6.3987 2.3884
2.8773 -6.3170 2.3884
3.1096 -6.2265 2.3884
3.3390 -6.1273 2.3884
3.5650 -6.0193 2.3884
3.7873 -5.9027 2.3884
4.0056 -5.7776 2.3884
4.2194 -5.6442 2.3884
4.4285 -5.5025 2.3884
4.6325 -5.3528 2.3884
4.8311 -5.1952 2.3884
4.9583 -4.9643 2.3572
5.0105 -4.6706 2.2966
5.0648 -4.3941 2.2439
5.2096 -4.2036 2.2360
5.3656 -4.0221 2.2360
5.5148 -3.8346 2.2360
5.6569 -3.6412 2.2360
5.7917 -3.4422 2.2360
5.9188 -3.2380 2.2360
6.0382 -3.0289 2.2360
6.1495 -2.8150 2.2360
6.2527 -2.5969 2.2360
6.3474 -2.3747 2.2360
6.4335 -2.1489 2.2360
6.5109 -1.9198 2.2360
6.5795 -1.6877 2.2360
6.6390 -1.4530 2.2360
6.6894 -1.2161 2.2360
6.7306 -0.9773 2.2360
6.7626 -0.7371 2.2360
6.7852 -0.4958 2.2360
6.7984 -0.2538 2.2360
6.8023 -0.0115 2.2360
6.7967 0.2308 2.2360
6.7818 0.4726 2.2360
6.7575 0.7136 2.2360
6.7240 0.9533 2.2360
6.6812 1.1914 2.2360
6.6293 1.4276 2.2360
6.5683 1.6614 2.2360
6.4984 1.8925 2.2360
6.4197 2.1206 2.2360
6.3324 2.3452 2.2360
6.2366 2.5661 2.2360
6.1326 2.7829 2.2360
6.0872 3.0285 2.2608
6.1171 3.3206 2.3182
6.1478 3.6270 2.3814
6.0216 3.8485 2.3884
5.8695 4.0533 2.3884
5.7100 4.2519 2.3884
5.5433 4.4440 2.3884
5.3698 4.6293 2.3884
5.1898 4.8075 2.3884
5.0035 4.9786 2.3884
4.8112 5.1422 2.3884
4.6134 5.2981 2.3884
4.4103 5.4462 2.3884
4.2022 5.5864 2.3884
3.9896 5.7184 2.3884
3.7726 5.8421 2.3884
3.5517 5.9574 2.3884
3.3273 6.0643 2.3884
3.0995 6.1625 2.3884
2.8689 6.2521 2.3884
2.6357 6.3330 2.3884
0.9310 2.4842 0.9263
0.8412 2.5155 0.9288
0.7503 2.5435 0.9313
0.6585 2.5682 0.9338
0.5658 2.5896 0.9363
0.4724 2.6076 0.9389
0.3784 2.6222 0.9414
0.2839 2.6334 0.9439
0.1891 2.6412 0.9464
0.0941 2.6456 0.9490
-0.0011 2.6465 0.9515
-0.0962 2.6439 0.9540
-0.1912 2.6380 0.9564
-0.2859 2.6286 0.9589
-0.3802 2.6158 0.9613
-0.4739 2.5995 0.9637
-0.5670 2.5799 0.9661
-0.6594 2.5570 0.9684
-0.7509 2.5307 0.9707
-0.8413 2.5011 0.9730
-2.2791 6.0449 2.3884
-2.4893 5.9434 2.3884
-2.6953 5.8348 2.3884
-2.8969 5.7195 2.3884
-3.0940 5.5976 2.3884
-3.2864 5.4692 2.3884
-3.4738 5.3346 2.3884
-3.6561 5.1939 2.3884
-3.8331 5.0474 2.3884
-4.0047 4.8952 2.3884
-4.1707 4.7375 2.3884
-4.3309 4.5745 2.3884
-4.4851 4.4065 2.3884
-4.6334 4.2337 2.3884
-4.7754 4.0561 2.3884
-4.9111 3.8742 2.3884
-5.0404 3.6881 2.3884
-5.1631 3.4979 2.3884
-5.2792 3.3040 2.3884
-5.3886 3.1065 2.3884
-5.4910 2.9056 2.3884
-5.5866 2.7016 2.3884
-5.6752 2.4948 2.3884
-5.7567 2.2853 2.3884
-5.8310 2.0733 2.3884
-5.8981 1.8590 2.3884
-5.9580 1.6428 2.3884
-6.0105 1.4249 2.3884
-6.0557 1.2053 2.3884
-6.0934 0.9845 2.3884
-6.1238 0.7626 2.3884
-6.1466 0.5398 2.3884
-6.1620 0.3164 2.3884
-5.0037 2.9868 2.3884
-5.1027 2.8000 2.3884
-5.1953 2.6103 2.3884
-5.2813 2.4176 2.3884
-5.3606 2.2224 2.3884
-5.4333 2.0247 2.3884
-5.4992 1.8249 2.3884
-5.5583 1.6230 2.3884
-5.6106 1.4194 2.3884
-5.6559 1.2142 2.3884
-5.6943 1.0077 2.3884
-5.7256 0.8001 2.3884
-5.7500 0.5916 2.3884
-5.7673 0.3824 2.3884
-5.7776 0.1727 2.3884
-5.7808 -0.0372 2.3884
-5.7770 -0.2471 2.3884
-5.7660 -0.4568 2.3884
-5.7480 -0.6661 2.3884
-5.7229 -0.8748 2.3884
-5.6908 -1.0826 2.3884
-5.6517 -1.2894 2.3884
-5.6056 -1.4948 2.3884
-5.5526 -1.6987 2.3884
-5.4926 -1.9009 2.3884
-5.4258 -2.1011 2.3884
-5.3522 -2.2992 2.3884
-5.2718 -2.4948 2.3884
-5.1847 -2.6879 2.3884
-5.0910 -2.8781 2.3884
-4.9908 -3.0653 2.3884
-4.8841 -3.2492 2.3884
-4.7710 -3.4296 2.3884
-4.6517 -3.6063 2.3884
-4.5262 -3.7792 2.3884
-4.3947 -3.9479 2.3884
-4.2572 -4.1123 2.3884
-4.1139 -4.2722 2.3884
-3.9650 -4.4274 2.3884
-3.8105 -4.5776 2.3884
-3.6505 -4.7227 2.3884
-3.4854 -4.8625 2.3884
-3.3152 -4.9968 2.3884
-3.1400 -5.1253 2.3884
-2.9601 -5.2480 2.3884
-2.7757 -5.3646 2.3884
-2.5869 -5.4750 2.3884
-2.3939 -5.5789 2.3884
-2.1969 -5.6762 2.3884
-1.9962 -5.7668 2.3884
-1.7919 -5.8505 2.3884
-1.5844 -5.9271 2.3884
-1.3738 -5.9965 2.3884
-1.1603 -6.0586 2.3884
-0.9442 -6.1132 2.3884
-0.7258 -6.1602 2.3884
-0.5053 -6.1995 2.3884
-0.2831 -6.2310 2.3884
-0.0593 -6.2545 2.3884
0.1658 -6.2701 2.3884
0.3918 -6.2775 2.3884
0.6185 -6.2769 2.3884
0.8455 -6.2680 2.3884
1.0726 -6.2508 2.3884
1.2995 -6.2254 2.3884
1.5259 -6.1916 2.3884
1.7514 -6.1495 2.3884
1.9757 -6.0991 2.3884
2.1985 -6.0404 2.3884
2.4195 -5.9733 2.3884
2.6384 -5.8980 2.3884
2.8548 -5.8145 2.3884
3.0684 -5.7228 2.3884
3.2789 -5.6231 2.3884
3.4860 -5.5154 2.3884
3.6893 -5.3998 2.3884
3.8886 -5.2764 2.3884
4.0834 -5.1455 2.3884
4.2736 -5.0071 2.3884
4.4587 -4.8613 2.3884
4.6385 -4.7085 2.3884
4.8127 -4.5487 2.3884
4.9810 -4.3822 2.3884
5.0718 -4.1508 2.3553
5.1169 -3.8916 2.3065
5.1599 -3.6415 2.2623
5.2329 -3.4203 2.2360
5.3590 -3.2362 2.2360
5.4781 -3.0472 2.2360
5.5900 -2.8536 2.2360
5.6946 -2.6557 2.2360
5.7915 -2.4537 2.2360
5.8807 -2.2480 2.2360
5.9620 -2.0388 2.2360
6.0352 -1.8266 2.2360
6.1003 -1.6116 2.2360
6.1571 -1.3941 2.2360
6.2054 -1.1745 2.2360
6.2453 -0.9532 2.2360
6.2767 -0.7304 2.2360
6.2994 -0.5066 2.2360
6.3135 -0.2820 2.2360
6.3189 -0.0571 2.2360
6.3156 0.1678 2.2360
6.3037 0.3924 2.2360
6.2831 0.6164 2.2360
6.2539 0.8392 2.2360
6.2162 1.0607 2.2360
6.1701 1.2804 2.2360
6.1155 1.4981 2.2360
6.0527 1.7133 2.2360
5.9817 1.9259 2.2360
5.9664 2.1584 2.2601
5.9935 2.4130 2.3043
6.0211 2.6771 2.3532
6.0020 2.9291 2.3884
5.8851 3.1365 2.3884
5.7604 3.3390 2.3884
5.6284 3.5364 2.3884
5.4891 3.7283 2.3884
5.3429 3.9146 2.3884
5.1900 4.0949 2.3884
5.0306 4.2690 2.3884
4.8651 4.4367 2.3884
4.6937 4.5978 2.3884
4.5167 4.7521 2.3884
4.3343 4.8993 2.3884
4.1470 5.0394 2.3884
3.9549 5.1721 2.3884
3.7585 5.2974 2.3884
3.5579 5.4150 2.3884
3.3535 5.5249 2.3884
3.1457 5.6269 2.3884
2.9347 5.7210 2.3884
2.7209 5.8071 2.3884
2.5046 5.8852 2.3884
0.8871 2.3109 0.9268
0.8036 2.3407 0.9292
0.7190 2.3674 0.9315
0.6335 2.3911 0.9338
0.5472 2.4117 0.9362
0.4602 2.4291 0.9385
0.3726 2.4434 0.9409
0.2846 2.4545 0.9432
0.1962 2.4624 0.9456
0.1076 2.4671 0.9479
0.0189 2.4686 0.9503
-0.0699 2.4669 0.9526
-0.1585 2.4620 0.9549
-0.2469 2.4538 0.9572
-0.3349 2.4425 0.9595
-0.4225 2.4281 0.9617
-0.5095 2.4104 0.9640
-0.5958 2.3896 0.9661
-0.6813 2.3658 0.9683
-0.7659 2.3388 0.9704
-0.8494 2.3088 0.9725
-2.2837 5.5775 2.3884
-2.4775 5.4781 2.3884
-2.6673 5.3723 2.3884
-2.8530 5.2603 2.3884
-3.0343 5.1421 2.3884
-3.2110 5.0180 2.3884
-3.3831 4.8881 2.3884
-3.5502 4.7527 2.3884
-3.7123 4.6118 2.3884
-3.8692 4.4658 2.3884
-4.0208 4.3147 2.3884
-4.1668 4.1587 2.3884
-4.3072 3.9982 2.3884
-4.4418 3.8332 2.3884
-4.5706 3.6640 2.3884
-4.6934 3.4907 2.3884
-4.8100 3.3136 2.3884
-4.9204 3.1329 2.3884
-5.0245 2.9487 2.3884
-5.1222 2.7613 2.3884
-5.2135 2.5709 2.3884
-5.2981 2.3778 2.3884
-5.3761 2.1820 2.3884
-5.4474 1.9839 2.3884
-5.5119 1.7836 2.3884
-5.5696 1.5814 2.3884
-5.6204 1.3774 2.3884
-5.6643 1.1720 2.3884
-5.7013 0.9652 2.3884
-5.7312 0.7574 2.3884
-5.7541 0.5487 2.3884
-5.7700 0.3394 2.3884
-5.7788 0.1297 2.3884
-5.7806 -0.0803 2.3884
-5.7753 -0.2902 2.3884
-5.7629 -0.4998 2.3884
-5.7434 -0.7090 2.3884
-5.7169 -0.9175 2.3884
-5.6834 -1.1252 2.3884
-5.6428 -1.3317 2.3884
-5.5953 -1.5368 2.3884
-5.5408 -1.7404 2.3884
-5.4795 -1.9422 2.3884
-5.4112 -2.1420 2.3884
-5.3362 -2.3396 2.3884
-5.2544 -2.5347 2.3884
-5.1660 -2.7272 2.3884
-5.0710 -2.9168 2.3884
-4.9694 -3.1033 2.3884
-4.8614 -3.2865 2.3884
-4.7470 -3.4662 2.3884
-4.6264 -3.6421 2.3884
-4.4997 -3.8142 2.3884
-4.3669 -3.9820 2.3884
-4.2283 -4.1455 2.3884
-4.0838 -4.3045 2.3884
-3.9337 -4.4586 2.3884
-3.7781 -4.6078 2.3884
-3.6171 -4.7519 2.3884
-3.4509 -4.8905 2.3884
-3.2796 -5.0236 2.3884
-3.1035 -5.1510 2.3884
-2.9226 -5.2725 2.3884
-2.7373 -5.3878 2.3884
-2.5476 -5.4968 2.3884
-2.3537 -5.5994 2.3884
-2.1560 -5.6954 2.3884
-1.9545 -5.7846 2.3884
-1.7496 -5.8668 2.3884
-1.5414 -5.9419 2.3884
-1.3301 -6.0099 2.3884
-1.1161 -6.0704 2.3884
-0.8996 -6.1235 2.3884
-0.6807 -6.1689 2.3884
-0.4598 -6.2066 2.3884
-0.2372 -6.2364 2.3884
-0.0132 -6.2584 2.3884
0.2121 -6.2723 2.3884
0.4383 -6.2781 2.3884
0.6651 -6.2757 2.3884
0.8922 -6.2651 2.3884
1.1193 -6.2463 2.3884
1.3461 -6.2191 2.3884
1.5723 -6.1837 2.3884
1.7976 -6.1399 2.3884
2.0216 -6.0877 2.3884
2.2441 -6.0273 2.3884
2.4647 -5.9585 2.3884
2.6831 -5.8815 2.3884
2.8989 -5.7963 2.3884
3.1119 -5.7030 2.3884
3.3218 -5.6016 2.3884
3.5281 -5.4923 2.3884
3.7306 -5.3751 2.3884
3.9290 -5.2502 2.3884
4.1229 -5.1177 2.3884
4.3120 -4.9777 2.3884
4.4960 -4.8305 2.3884
4.6747 -4.6762 2.3884
4.8477 -4.5151 2.3884
5.0148 -4.3472 2.3884
5.0812 -4.0968 2.3449
5.1259 -3.8395 2.2970
5.1685 -3.5912 2.2537
5.2593 -3.3829 2.2360
5.3899 -3.2013 2.2385
5.5017 -3.0078 2.2360
5.6121 -2.8133 2.2360
5.7151 -2.6145 2.2360
5.8104 -2.4117 2.2360
5.8980 -2.2053 2.2360
5.9777 -1.9955 2.2360
6.0493 -1.7827 2.2360
6.1127 -1.5671 2.2360
6.1677 -1.3492 2.2360
6.2143 -1.1292 2.2360
6.2525 -0.9076 2.2360
6.2820 -0.6845 2.2360
6.3030 -0.4605 2.2360
6.3153 -0.2359 2.2360
6.3189 -0.0109 2.2360
6.3138 0.2140 2.2360
6.3001 0.4385 2.2360
6.2778 0.6622 2.2360
6.2469 0.8848 2.2360
6.2074 1.1060 2.2360
6.1595 1.3253 2.2360
6.1033 1.5425 2.2360
6.0388 1.7572 2.2360
5.9661 1.9691 2.2360
5.9719 2.2099 2.2688
5.9991 2.4664 2.3140
6.0268 2.7327 2.3639
5.9787 2.9721 2.3884
5.8601 3.1785 2.3884
5.7339 3.3800 2.3884
5.6004 3.5762 2.3884
5.4596 3.7670 2.3884
5.3121 3.9521 2.3884
5.1578 4.1311 2.3884
4.9971 4.3040 2.3884
4.8304 4.4703 2.3884
4.6578 4.6300 2.3884
4.4796 4.7829 2.3884
4.2963 4.9287 2.3884
4.1079 5.0673 2.3884
3.9149 5.1985 2.3884
3.7176 5.3222 2.3884
3.5162 5.4382 2.3884
3.3112 5.5465 2.3884
3.1027 5.6469 2.3884
2.8911 5.7394 2.3884
2.6767 5.8238 2.3884
2.4599 5.9002 2.3884
0.8701 2.3173 0.9273
0.7863 2.3464 0.9296
0.7015 2.3725 0.9320
0.6159 2.3956 0.9343
0.5294 2.4155 0.9366
0.4423 2.4323 0.9390
0.3546 2.4459 0.9414
0.2665 2.4563 0.9437
0.1780 2.4636 0.9461
0.0894 2.4677 0.9484
0.0006 2.4685 0.9508
-0.0881 2.4661 0.9531
-0.1767 2.4606 0.9554
-0.2650 2.4518 0.9577
-0.3530 2.4398 0.9599
-0.4404 2.4247 0.9622
-0.5273 2.4064 0.9644
-0.6134 2.3850 0.9666
-0.6987 2.3605 0.9687
-0.7831 2.3329 0.9709
-0.8664 2.3023 0.9729
-2.3238 5.5576 2.3884
-2.5168 5.4569 2.3884
-2.7058 5.3498 2.3884
-2.8906 5.2365 2.3884
-3.0710 5.1171 2.3884
-3.2468 4.9918 2.3884
-3.4178 4.8607 2.3884
-3.5839 4.7242 2.3884
-3.7450 4.5822 2.3884
-3.9008 4.4351 2.3884
-4.0512 4.2830 2.3884
-4.1961 4.1262 2.3884
-4.3353 3.9647 2.3884
-4.4688 3.7988 2.3884
-4.5963 3.6287 2.3884
-4.7178 3.4546 2.3884
-4.8332 3.2768 2.3884
-4.9423 3.0953 2.3884
-5.0451 2.9105 2.3884
-5.1415 2.7225 2.3884
-5.2314 2.5315 2.3884
-5.3147 2.3378 2.3884
-5.3913 2.1415 2.3884
-5.4612 1.9429 2.3884
-5.5243 1.7422 2.3884
-5.5806 1.5396 2.3884
-5.6300 1.3353 2.3884
-5.6725 1.1296 2.3884
-5.7080 0.9226 2.3884
-5.7365 0.7146 2.3884
-5.7580 0.5058 2.3884
-5.7724 0.2964 2.3884
-4.6984 2.8065 2.3884
-4.7917 2.6312 2.3884
-4.8790 2.4530 2.3884
-4.9601 2.2721 2.3884
-5.0349 2.0887 2.3884
-5.1035 1.9030 2.3884
-5.1656 1.7152 2.3884
-5.2213 1.5255 2.3884
-5.2706 1.3341 2.3884
-5.3133 1.1413 2.3884
-5.3495 0.9472 2.3884
-5.3791 0.7520 2.3884
-5.4020 0.5560 2.3884
-5.4183 0.3593 2.3884
-5.4280 0.1622 2.3884
-5.4309 -0.0352 2.3884
-5.4272 -0.2325 2.3884
-5.4169 -0.4297 2.3884
-5.3998 -0.6264 2.3884
-5.3761 -0.8226 2.3884
-5.3458 -1.0179 2.3884
-5.3088 -1.2122 2.3884
-5.2653 -1.4053 2.3884
-5.2152 -1.5968 2.3884
-5.1586 -1.7868 2.3884
-5.0955 -1.9749 2.3884
-5.0260 -2.1609 2.3884
-4.9501 -2.3446 2.3884
-4.8679 -2.5258 2.3884
-4.7795 -2.7044 2.3884
-4.6850 -2.8800 2.3884
-4.5844 -3.0525 2.3884
-4.4778 -3.2217 2.3884
-4.3653 -3.3874 2.3884
-4.2471 -3.5495 2.3884
-4.1231 -3.7076 2.3884
-3.9936 -3.8616 2.3884
-3.8586 -4.0113 2.3884
-3.7184 -4.1565 2.3884
-3.5729 -4.2970 2.3884
-3.4224 -4.4327 2.3884
-3.2670 -4.5634 2.3884
-3.1069 -4.6888 2.3884
-2.9422 -4.8088 2.3884
-2.7730 -4.9233 2.3884
-2.5996 -5.0320 2.3884
-2.4222 -5.1348 2.3884
-2.2409 -5.2316 2.3884
-2.0559 -5.3221 2.3884
-1.8674 -5.4063 2.3884
-1.6757 -5.4839 2.3884
-1.4810 -5.5549 2.3884
-1.2834 -5.6191 2.3884
-1.0831 -5.6764 2.3884
-0.8806 -5.7267 2.3884
-0.6759 -5.7699 2.3884
-0.4693 -5.8058 2.3884
-0.2611 -5.8344 2.3884
-0.0516 -5.8555 2.3884
0.1591 -5.8692 2.3884
0.3706 -5.8752 2.3884
0.5827 -5.8737 2.3884
0.7950 -5.8645 2.3884
1.0074 -5.8475 2.3884
1.2194 -5.8228 2.3884
1.4309 -5.7904 2.3884
1.6416 -5.7501 2.3884
1.8510 -5.7021 2.3884
2.0590 -5.6463 2.3884
2.2653 -5.5828 2.3884
2.4695 -5.5116 2.3884
2.6713 -5.4328 2.3884
2.8705 -5.3464 2.3884
3.0668 -5.2525 2.3884
3.2597 -5.1511 2.3884
3.4492 -5.0425 2.3884
3.6347 -4.9267 2.3884
3.8162 -4.8038 2.3884
3.9932 -4.6740 2.3884
4.1655 -4.5374 2.3884
4.3328 -4.3943 2.3884
4.4949 -4.2447 2.3884
4.6514 -4.0888 2.3884
4.8021 -3.9270 2.3884
4.9469 -3.7593 2.3884
5.0853 -3.5861 2.3884
5.1761 -3.3807 2.3696
5.2156 -3.1474 2.3317
5.2535 -2.9203 2.2978
5.2900 -2.6986 2.2676
5.3308 -2.4844 2.2434
5.4033 -2.2878 2.2360
5.4862 -2.0959 2.2360
5.5696 -1.9035 2.2392
5.6297 -1.7029 2.2360
5.6902 -1.5024 2.2360
5.7429 -1.2997 2.2360
5.7878 -1.0950 2.2360
5.8249 -0.8887 2.2360
5.8540 -0.6810 2.2360
5.8752 -0.4724 2.2360
5.8883 -0.2631 2.2360
5.8934 -0.0534 2.2360
5.8904 0.1562 2.2360
5.8794 0.3656 2.2360
5.8603 0.5743 2.2360
5.8333 0.7820 2.2360
5.8148 0.9913 2.2423
5.8334 1.2095 2.2662
5.8590 1.4340 2.2963
5.8847 1.6644 2.3302
5.9105 1.9014 2.3680
5.8831 2.1265 2.3884
5.7969 2.3319 2.3884
5.7031 2.5337 2.3884
5.6019 2.7315 2.3884
5.4932 2.9252 2.3884
5.3775 3.1144 2.3884
5.2548 3.2988 2.3884
5.1255 3.4782 2.3884
4.9896 3.6524 2.3884
4.8474 3.8211 2.3884
4.6993 3.9840 2.3884
4.5453 4.1411 2.3884
4.3858 4.2920 2.3884
4.2211 4.4366 2.3884
4.0514 4.5746 2.3884
3.8770 4.7061 2.3884
3.6981 4.8307 2.3884
3.5151 4.9484 2.3884
3.3282 5.0590 2.3884
3.1377 5.1624 2.3884
2.9439 5.2585 2.3884
2.7472 5.3473 2.3884
2.5477 5.4286 2.3884
0.9091 2.1324 0.9256
0.8320 2.1630 0.9277
0.7537 2.1909 0.9299
0.6746 2.2159 0.9321
0.5945 2.2380 0.9343
0.5138 2.2573 0.9365
0.4323 2.2736 0.9387
0.3504 2.2869 0.9409
0.2679 2.2973 0.9431
0.1852 2.3047 0.9453
0.1023 2.3091 0.9475
0.0192 2.3105 0.9497
-0.0639 2.3089 0.9518
-0.1468 2.3043 0.9540
-0.2295 2.2967 0.9562
-0.3119 2.2861 0.9583
-0.3939 2.2725 0.9604
-0.4753 2.2560 0.9625
-0.5561 2.2366 0.9645
-0.6361 2.2142 0.9665
-0.7153 2.1890 0.9685
-0.7935 2.1609 0.9705
-0.8706 2.1300 0.9724
-2.3206 5.1393 2.3884
-2.4990 5.0407 2.3884
-2.6735 4.9361 2.3884
-2.8440 4.8258 2.3884
-3.0102 4.7099 2.3884
-3.1721 4.5885 2.3884
-3.3294 4.4618 2.3884
-3.4819 4.3300 2.3884
-3.6296 4.1933 2.3884
-3.7723 4.0519 2.3884
-3.9098 3.9058 2.3884
-4.0421 3.7553 2.3884
-4.1689 3.6007 2.3884
-4.2902 3.4420 2.3884
-4.4059 3.2794 2.3884
-4.5158 3.1133 2.3884
-4.6199 2.9437 2.3884
-4.7181 2.7708 2.3884
-4.8102 2.5948 2.3884
-4.8961 2.4161 2.3884
-4.9760 2.2346 2.3884
-5.0495 2.0507 2.3884
-5.1167 1.8646 2.3884
-5.1776 1.6764 2.3884
-5.2320 1.4863 2.3884
-5.2799 1.2946 2.3884
-5.3213 1.1015 2.3884
-5.3561 0.9072 2.3884
-5.3843 0.7118 2.3884
-5.4059 0.5156 2.3884
-5.4208 0.3188 2.3884
-5.4291 0.1217 2.3884
-5.4307 -0.0757 2.3884
-5.4257 -0.2730 2.3884
-5.4139 -0.4701 2.3884
-5.3955 -0.6668 2.3884
-5.3704 -0.8628 2.3884
-5.3387 -1.0579 2.3884
-5.3004 -1.2519 2.3884
-5.2555 -1.4447 2.3884
-5.2041 -1.6360 2.3884
-5.1461 -1.8256 2.3884
-5.0817 -2.0132 2.3884
-5.0109 -2.1988 2.3884
-4.9337 -2.3820 2.3884
-4.8503 -2.5627 2.3884
-4.7606 -2.7407 2.3884
-4.6648 -2.9157 2.3884
-4.5630 -3.0875 2.3884
-4.4552 -3.2561 2.3884
-4.3415 -3.4210 2.3884
-4.2221 -3.5822 2.3884
-4.0970 -3.7395 2.3884
-3.9663 -3.8927 2.3884
-3.8303 -4.0415 2.3884
-3.6889 -4.1857 2.3884
-3.5424 -4.3253 2.3884
-3.3909 -4.4600 2.3884
-3.2345 -4.5896 2.3884
-3.0734 -4.7139 2.3884
-2.9078 -4.8328 2.3884
-2.7377 -4.9461 2.3884
-2.5635 -5.0536 2.3884
-2.3853 -5.1552 2.3884
-2.2032 -5.2507 2.3884
-2.0175 -5.3399 2.3884
-1.8283 -5.4227 2.3884
-1.6360 -5.4990 2.3884
-1.4406 -5.5687 2.3884
-1.2425 -5.6315 2.3884
-1.0418 -5.6873 2.3884
-0.8387 -5.7362 2.3884
-0.6336 -5.7778 2.3884
-0.4267 -5.8123 2.3884
-0.2182 -5.8393 2.3884
-0.0084 -5.8589 2.3884
0.2025 -5.8710 2.3884
0.4141 -5.8756 2.3884
0.6262 -5.8724 2.3884
0.8386 -5.8616 2.3884
1.0509 -5.8431 2.3884
1.2629 -5.8168 2.3884
1.4743 -5.7827 2.3884
1.6847 -5.7409 2.3884
1.8939 -5.6913 2.3884
2.1016 -5.6339 2.3884
2.3074 -5.5688 2.3884
2.5111 -5.4961 2.3884
2.7125 -5.4157 2.3884
2.9111 -5.3277 2.3884
3.1067 -5.2323 2.3884
3.2989 -5.1294 2.3884
3.4876 -5.0193 2.3884
3.6723 -4.9020 2.3884
3.8529 -4.7777 2.3884
4.0290 -4.6465 2.3884
4.2003 -4.5086 2.3884
4.3665 -4.3641 2.3884
4.5275 -4.2132 2.3884
4.6828 -4.0561 2.3884
4.8324 -3.8930 2.3884
4.9758 -3.7242 2.3884
5.1129 -3.5499 2.3884
5.1844 -3.3322 2.3615
5.2235 -3.1003 2.3245
5.2611 -2.8743 2.2913
5.2973 -2.6537 2.2619
5.3406 -2.4417 2.2395
5.4209 -2.2487 2.2360
5.5023 -2.0561 2.2360
5.5763 -1.8604 2.2360
5.6428 -1.6620 2.2360
5.7016 -1.4610 2.2360
5.7528 -1.2578 2.2360
5.7961 -1.0527 2.2360
5.8315 -0.8461 2.2360
5.8590 -0.6382 2.2360
5.8785 -0.4295 2.2360
5.8900 -0.2201 2.2360
5.8934 -0.0104 2.2360
5.8888 0.1992 2.2360
5.8761 0.4085 2.2360
5.8554 0.6170 2.2360
5.8268 0.8245 2.2360
5.8170 1.0355 2.2463
5.8386 1.2552 2.2721
5.8642 1.4808 2.3030
5.8899 1.7125 2.3376
5.9159 1.9509 2.3763
5.8660 2.1689 2.3884
5.7783 2.3736 2.3884
5.6830 2.5746 2.3884
5.5802 2.7717 2.3884
5.4701 2.9644 2.3884
5.3529 3.1527 2.3884
5.2288 3.3361 2.3884
5.0981 3.5144 2.3884
4.9609 3.6875 2.3884
4.8175 3.8550 2.3884
4.6681 4.0168 2.3884
4.5130 4.1726 2.3884
4.3524 4.3222 2.3884
4.1867 4.4654 2.3884
4.0160 4.6022 2.3884
3.8406 4.7322 2.3884
3.6608 4.8554 2.3884
3.4770 4.9717 2.3884
3.2894 5.0808 2.3884
3.0982 5.1827 2.3884
2.9038 5.2773 2.3884
2.7064 5.3646 2.3884
2.5064 5.4443 2.3884
0.8933 2.1389 0.9260
0.8160 2.1690 0.9282
0.7376 2.1962 0.9304
0.6582 2.2207 0.9325
0.5780 2.2422 0.9347
0.4971 2.2608 0.9369
0.4155 2.2765 0.9391
0.3335 2.2893 0.9413
0.2510 2.2990 0.9435
0.1682 2.3058 0.9457
0.0852 2.3096 0.9479
0.0022 2.3104 0.9501
-0.0809 2.3082 0.9523
-0.1638 2.3030 0.9545
-0.2465 2.2947 0.9566
-0.3288 2.2835 0.9587
-0.4107 2.2694 0.9608
-0.4920 2.2523 0.9629
-0.5726 2.2322 0.9649
-0.6525 2.2093 0.9670
-0.7314 2.1835 0.9689
-0.8094 2.1548 0.9709
-0.8863 2.1234 0.9728
-2.3575 5.1195 2.3884
-2.5351 5.0197 2.3884
-2.7088 4.9139 2.3884
-2.8785 4.8025 2.3884
-3.0439 4.6854 2.3884
-3.2048 4.5629 2.3884
-3.3611 4.4352 2.3884
-3.5127 4.3024 2.3884
-3.6593 4.1647 2.3884
-3.8010 4.0222 2.3884
-3.9374 3.8753 2.3884
-4.0686 3.7239 2.3884
-4.1943 3.5684 2.3884
-4.3144 3.4089 2.3884
-4.4289 3.2456 2.3884
-4.5377 3.0787 2.3884
-4.6405 2.9084 2.3884
-4.7375 2.7349 2.3884
-4.8283 2.5584 2.3884
-4.9130 2.3790 2.3884
-4.9916 2.1971 2.3884
-5.0638 2.0127 2.3884
-5.1298 1.8261 2.3884
-5.1893 1.6375 2.3884
-5.2424 1.4471 2.3884
-5.2889 1.2551 2.3884
-5.3290 1.0617 2.3884
-5.3624 0.8671 2.3884
-5.3893 0.6716 2.3884
-5.4095 0.4753 2.3884
-5.4231 0.2784 2.3884
-4.4230 2.6440 2.3884
-4.5113 2.4789 2.3884
-4.5937 2.3111 2.3884
-4.6703 2.1408 2.3884
-4.7411 1.9680 2.3884
-4.8058 1.7931 2.3884
-4.8646 1.6162 2.3884
-4.9172 1.4375 2.3884
-4.9638 1.2571 2.3884
-5.0041 1.0754 2.3884
-5.0383 0.8925 2.3884
-5.0662 0.7085 2.3884
-5.0879 0.5238 2.3884
-5.1033 0.3384 2.3884
-5.1124 0.1526 2.3884
-5.1151 -0.0334 2.3884
-5.1116 -0.2194 2.3884
-5.1018 -0.4052 2.3884
-5.0856 -0.5906 2.3884
-5.0631 -0.7754 2.3884
-5.0344 -0.9595 2.3884
-4.9994 -1.1426 2.3884
-4.9582 -1.3245 2.3884
-4.9108 -1.5050 2.3884
-4.8572 -1.6839 2.3884
-4.7975 -1.8610 2.3884
-4.7318 -2.0361 2.3884
-4.6600 -2.2091 2.3884
-4.5823 -2.3797 2.3884
-4.4988 -2.5477 2.3884
-4.4094 -2.7130 2.3884
-4.3143 -2.8753 2.3884
-4.2136 -3.0344 2.3884
-4.1073 -3.1902 2.3884
-3.9956 -3.3425 2.3884
-3.8785 -3.4911 2.3884
-3.7562 -3.6358 2.3884
-3.6288 -3.7763 2.3884
-3.4964 -3.9127 2.3884
-3.3592 -4.0446 2.3884
-3.2172 -4.1718 2.3884
-3.0706 -4.2943 2.3884
-2.9196 -4.4119 2.3884
-2.7643 -4.5243 2.3884
-2.6048 -4.6314 2.3884
-2.4414 -4.7331 2.3884
-2.2743 -4.8292 2.3884
-2.1035 -4.9196 2.3884
-1.9293 -5.0041 2.3884
-1.7519 -5.0826 2.3884
-1.5714 -5.1549 2.3884
-1.3882 -5.2210 2.3884
-1.2023 -5.2806 2.3884
-1.0140 -5.3338 2.3884
-0.8235 -5.3803 2.3884
-0.6311 -5.4201 2.3884
-0.4370 -5.4531 2.3884
-0.2415 -5.4792 2.3884
-0.0446 -5.4983 2.3884
0.1532 -5.5103 2.3884
0.3517 -5.5153 2.3884
0.5507 -5.5130 2.3884
0.7499 -5.5036 2.3884
0.9490 -5.4869 2.3884
1.1479 -5.4630 2.3884
1.3461 -5.4318 2.3884
1.5435 -5.3933 2.3884
1.7397 -5.3475 2.3884
1.9345 -5.2945 2.3884
2.1276 -5.2343 2.3884
2.3188 -5.1669 2.3884
2.5077 -5.0923 2.3884
2.6941 -5.0107 2.3884
2.8776 -4.9220 2.3884
3.0581 -4.8265 2.3884
3.2351 -4.7242 2.3884
3.4086 -4.6151 2.3884
3.5782 -4.4995 2.3884
3.7435 -4.3774 2.3884
3.9045 -4.2491 2.3884
4.0607 -4.1146 2.3884
4.2121 -3.9741 2.3884
4.3582 -3.8279 2.3884
4.4989 -3.6760 2.3884
4.6339 -3.5188 2.3884
4.7631 -3.3564 2.3884
4.8862 -3.1890 2.3884
5.0030 -3.0169 2.3884
5.1132 -2.8403 2.3884
5.2168 -2.6595 2.3884
5.3005 -2.4687 2.3825
5.3344 -2.2572 2.3580
5.3673 -2.0492 2.3368
5.3991 -1.8442 2.3189
5.4301 -1.6416 2.3041
5.4601 -1.4409 2.2923
5.4895 -1.2417 2.2836
5.5181 -1.0435 2.2777
5.5461 -0.8458 2.2748
5.5736 -0.6482 2.2747
5.6006 -0.4502 2.2775
5.6272 -0.2515 2.2832
5.6533 -0.0515 2.2919
5.6792 0.1503 2.3035
5.7048 0.3542 2.3182
5.7302 0.5609 2.3360
5.7554 0.7708 2.3571
5.7806 0.9845 2.3815
5.7547 1.1921 2.3884
5.7044 1.3950 2.3884
5.6465 1.5957 2.3884
5.5810 1.7938 2.3884
5.5081 1.9893 2.3884
5.4279 2.1816 2.3884
5.3405 2.3706 2.3884
5.2461 2.5559 2.3884
5.1449 2.7373 2.3884
5.0370 2.9146 2.3884
4.9226 3.0875 2.3884
4.8019 3.2558 2.3884
4.6751 3.4191 2.3884
4.5425 3.5774 2.3884
4.4042 3.7304 2.3884
4.2605 3.8778 2.3884
4.1116 4.0196 2.3884
3.9578 4.1555 2.3884
3.7993 4.2853 2.3884
3.6363 4.4090 2.3884
3.4691 4.5263 2.3884
3.2980 4.6372 2.3884
3.1233 4.7414 2.3884
2.9451 4.8390 2.3884
2.7639 4.9297 2.3884
2.5797 5.0136 2.3884
0.9263 1.9705 0.9245
0.8550 2.0019 0.9265
0.7826 2.0306 0.9285
0.7091 2.0568 0.9306
0.6348 2.0802 0.9326
0.5597 2.1010 0.9347
0.4838 2.1191 0.9367
0.4074 2.1343 0.9388
0.3304 2.1469 0.9409
0.2530 2.1566 0.9429
0.1754 2.1635 0.9450
0.0975 2.1677 0.9471
0.0195 2.1690 0.9491
-0.0585 2.1675 0.9512
-0.1363 2.1631 0.9532
-0.2140 2.1560 0.9552
-0.2914 2.1461 0.9572
-0.3683 2.1333 0.9592
-0.4448 2.1178 0.9612
-0.5206 2.0996 0.9631
-0.5957 2.0786 0.9650
-0.6700 2.0549 0.9668
-0.7434 2.0286 0.9687
-0.8158 1.9996 0.9705
-0.8872 1.9680 0.9722
-2.3476 4.7424 2.3884
-2.5121 4.6446 2.3884
-2.6728 4.5413 2.3884
-2.8295 4.4326 2.3884
-2.9822 4.3188 2.3884
-3.1306 4.2000 2.3884
-3.2745 4.0763 2.3884
-3.4139 3.9480 2.3884
-3.5485 3.8151 2.3884
-3.6783 3.6779 2.3884
-3.8032 3.5365 2.3884
-3.9229 3.3911 2.3884
-4.0375 3.2419 2.3884
-4.1467 3.0890 2.3884
-4.2506 2.9327 2.3884
-4.3489 2.7730 2.3884
-4.4416 2.6103 2.3884
-4.5287 2.4447 2.3884
-4.6099 2.2764 2.3884
-4.6853 2.1055 2.3884
-4.7548 1.9323 2.3884
-4.8184 1.7569 2.3884
-4.8759 1.5796 2.3884
-4.9273 1.4006 2.3884
-4.9726 1.2199 2.3884
-5.0117 1.0379 2.3884
-5.0445 0.8548 2.3884
-5.0712 0.6707 2.3884
-5.0916 0.4858 2.3884
-5.1057 0.3003 2.3884
-5.1135 0.1145 2.3884
-5.1149 -0.0715 2.3884
-5.1101 -0.2575 2.3884
-5.0990 -0.4433 2.3884
-5.0815 -0.6286 2.3884
-5.0577 -0.8133 2.3884
-5.0277 -0.9972 2.3884
-4.9915 -1.1800 2.3884
-4.9489 -1.3616 2.3884
-4.9003 -1.5418 2.3884
-4.8454 -1.7204 2.3884
-4.7845 -1.8971 2.3884
-4.7175 -2.0718 2.3884
-4.6445 -2.2443 2.3884
-4.5657 -2.4144 2.3884
-4.4809 -2.5819 2.3884
-4.3903 -2.7465 2.3884
-4.2941 -2.9082 2.3884
-4.1922 -3.0667 2.3884
-4.0848 -3.2218 2.3884
-3.9720 -3.3733 2.3884
-3.8538 -3.5211 2.3884
-3.7305 -3.6650 2.3884
-3.6021 -3.8047 2.3884
-3.4686 -3.9401 2.3884
-3.3304 -4.0711 2.3884
-3.1875 -4.1974 2.3884
-3.0399 -4.3189 2.3884
-2.8880 -4.4354 2.3884
-2.7319 -4.5467 2.3884
-2.5716 -4.6527 2.3884
-2.4074 -4.7533 2.3884
-2.2395 -4.8483 2.3884
-2.0680 -4.9375 2.3884
-1.8931 -5.0207 2.3884
-1.7151 -5.0980 2.3884
-1.5340 -5.1690 2.3884
-1.3502 -5.2338 2.3884
-1.1638 -5.2921 2.3884
-0.9751 -5.3439 2.3884
-0.7842 -5.3890 2.3884
-0.5914 -5.4274 2.3884
-0.3970 -5.4590 2.3884
-0.2011 -5.4837 2.3884
-0.0041 -5.5013 2.3884
0.1939 -5.5119 2.3884
0.3925 -5.5154 2.3884
0.5916 -5.5117 2.3884
0.7908 -5.5008 2.3884
0.9899 -5.4826 2.3884
1.1886 -5.4572 2.3884
1.3867 -5.4245 2.3884
1.5839 -5.3845 2.3884
1.7798 -5.3372 2.3884
1.9743 -5.2827 2.3884
2.1671 -5.2210 2.3884
2.3578 -5.1521 2.3884
2.5462 -5.0761 2.3884
2.7320 -4.9930 2.3884
2.9149 -4.9030 2.3884
3.0947 -4.8060 2.3884
3.2711 -4.7023 2.3884
3.4437 -4.5919 2.3884
3.6125 -4.4750 2.3884
3.7770 -4.3516 2.3884
3.9370 -4.2220 2.3884
4.0922 -4.0862 2.3884
4.2425 -3.9446 2.3884
4.3875 -3.7971 2.3884
4.5271 -3.6442 2.3884
4.6610 -3.4859 2.3884
4.7889 -3.3224 2.3884
4.9107 -3.1540 2.3884
5.0261 -2.9810 2.3884
5.1351 -2.8035 2.3884
5.2372 -2.6219 2.3884
5.3075 -2.4249 2.3772
5.3413 -2.2142 2.3534
5.3739 -2.0069 2.3329
5.4056 -1.8024 2.3156
5.4363 -1.6002 2.3014
5.4662 -1.3999 2.2903
5.4954 -1.2009 2.2821
5.5239 -1.0028 2.2769
5.5518 -0.8052 2.2745
5.5792 -0.6076 2.2751
5.6061 -0.4095 2.2785
5.6326 -0.2105 2.2848
5.6587 -0.0102 2.2940
5.6845 0.1919 2.3062
5.7101 0.3964 2.3216
5.7354 0.6037 2.3400
5.7606 0.8144 2.3618
5.7857 1.0289 2.3870
5.7450 1.2339 2.3884
5.6932 1.4364 2.3884
5.6337 1.6366 2.3884
5.5667 1.8342 2.3884
5.4922 2.0290 2.3884
5.4105 2.2207 2.3884
5.3217 2.4089 2.3884
5.2259 2.5935 2.3884
5.1233 2.7741 2.3884
5.0140 2.9505 2.3884
4.8983 3.1224 2.3884
4.7764 3.2897 2.3884
4.6484 3.4520 2.3884
4.5146 3.6092 2.3884
4.3752 3.7611 2.3884
4.2304 3.9074 2.3884
4.0805 4.0480 2.3884
3.9256 4.1826 2.3884
3.7662 4.3112 2.3884
3.6023 4.4336 2.3884
3.4343 4.5496 2.3884
3.2624 4.6591 2.3884
3.0870 4.7620 2.3884
2.9082 4.8582 2.3884
2.7263 4.9475 2.3884
2.5416 5.0299 2.3884
0.9118 1.9772 0.9249
0.8402 2.0080 0.9269
0.7676 2.0362 0.9290
0.6939 2.0618 0.9310
0.6194 2.0847 0.9330
0.5441 2.1049 0.9351
0.4682 2.1224 0.9372
0.3916 2.1371 0.9392
0.3145 2.1491 0.9413
0.2371 2.1583 0.9434
0.1594 2.1646 0.9454
0.0815 2.1682 0.9475
0.0035 2.1689 0.9496
-0.0745 2.1668 0.9516
-0.1523 2.1619 0.9536
-0.2299 2.1542 0.9556
-0.3072 2.1437 0.9576
-0.3840 2.1304 0.9596
-0.4604 2.1143 0.9615
-0.5361 2.0955 0.9635
-0.6110 2.0740 0.9654
-0.6852 2.0497 0.9672
-0.7584 2.0228 0.9690
-0.8306 1.9933 0.9708
-2.2142 4.8162 2.3884
-2.3816 4.7228 2.3884
-2.5454 4.6238 2.3884
-2.7053 4.5194 2.3884
-2.8612 4.4097 2.3884
-3.0130 4.2948 2.3884
-3.1605 4.1750 2.3884
-3.3035 4.0504 2.3884
-3.4419 3.9211 2.3884
-3.5756 3.7873 2.3884
-3.7044 3.6492 2.3884
-3.8282 3.5070 2.3884
-3.9469 3.3608 2.3884
-4.0604 3.2108 2.3884
-4.1685 3.0572 2.3884
-4.2712 2.9002 2.3884
-4.3684 2.7399 2.3884
-4.4600 2.5766 2.3884
-4.5458 2.4104 2.3884
-4.6259 2.2415 2.3884
-4.7001 2.0701 2.3884
-4.7684 1.8965 2.3884
-4.8307 1.7207 2.3884
-4.8869 1.5430 2.3884
-4.9371 1.3636 2.3884
-4.9811 1.1827 2.3884
-5.0189 1.0004 2.3884
-5.0505 0.8171 2.3884
-5.0759 0.6328 2.3884
-5.0950 0.4477 2.3884
-5.1078 0.2622 2.3884
-4.1732 2.4965 2.3884
-4.2567 2.3408 2.3884
-4.3348 2.1824 2.3884
-4.4074 2.0216 2.3884
-4.4743 1.8585 2.3884
-4.5356 1.6934 2.3884
-4.5913 1.5263 2.3884
-4.6411 1.3575 2.3884
-4.6852 1.1872 2.3884
-4.7234 1.0156 2.3884
-4.7558 0.8428 2.3884
-4.7822 0.6691 2.3884
-4.8027 0.4946 2.3884
-4.8173 0.3195 2.3884
-4.8258 0.1440 2.3884
-4.8284 -0.0317 2.3884
-4.8250 -0.2074 2.3884
-4.8157 -0.3829 2.3884
-4.8003 -0.5581 2.3884
-4.7790 -0.7327 2.3884
-4.7517 -0.9065 2.3884
-4.7186 -1.0794 2.3884
-4.6795 -1.2511 2.3884
-4.6345 -1.4215 2.3884
-4.5837 -1.5904 2.3884
-4.5271 -1.7577 2.3884
-4.4648 -1.9230 2.3884
-4.3968 -2.0862 2.3884
-4.3232 -2.2471 2.3884
-4.2441 -2.4057 2.3884
-4.1594 -2.5615 2.3884
-4.0694 -2.7146 2.3884
-3.9740 -2.8646 2.3884
-3.8734 -3.0115 2.3884
-3.7677 -3.1550 2.3884
-3.6569 -3.2949 2.3884
-3.5412 -3.4312 2.3884
-3.4206 -3.5635 2.3884
-3.2954 -3.6918 2.3884
-3.1656 -3.8159 2.3884
-3.0313 -3.9356 2.3884
-2.8928 -4.0508 2.3884
-2.7501 -4.1612 2.3884
-2.6033 -4.2668 2.3884
-2.4527 -4.3674 2.3884
-2.2984 -4.4628 2.3884
-2.1405 -4.5529 2.3884
-1.9793 -4.6376 2.3884
-1.8149 -4.7167 2.3884
-1.6474 -4.7902 2.3884
-1.4772 -4.8578 2.3884
-1.3044 -4.9194 2.3884
-1.1291 -4.9750 2.3884
-0.9516 -5.0245 2.3884
-0.7721 -5.0677 2.3884
-0.5908 -5.1045 2.3884
-0.4079 -5.1350 2.3884
-0.2237 -5.1589 2.3884
-0.0384 -5.1762 2.3884
0.1478 -5.1869 2.3884
0.3346 -5.1909 2.3884
0.5218 -5.1882 2.3884
0.7092 -5.1786 2.3884
0.8965 -5.1623 2.3884
1.0834 -5.1392 2.3884
1.2698 -5.1092 2.3884
1.4552 -5.0723 2.3884
1.6396 -5.0287 2.3884
1.8226 -4.9782 2.3884
2.0039 -4.9210 2.3884
2.1834 -4.8570 2.3884
2.3606 -4.7864 2.3884
2.5355 -4.7091 2.3884
2.7077 -4.6253 2.3884
2.8770 -4.5351 2.3884
3.0430 -4.4384 2.3884
3.2057 -4.3355 2.3884
3.3646 -4.2265 2.3884
3.5196 -4.1114 2.3884
3.6704 -3.9905 2.3884
3.8168 -3.8638 2.3884
3.9585 -3.7316 2.3884
4.0954 -3.5940 2.3884
4.2271 -3.4511 2.3884
4.3536 -3.3032 2.3884
4.4745 -3.1505 2.3884
4.5897 -2.9932 2.3884
4.6990 -2.8315 2.3884
4.8022 -2.6657 2.3884
4.8991 -2.4958 2.3884
4.9896 -2.3224 2.3884
5.0735 -2.1454 2.3884
5.1507 -1.9653 2.3884
5.2211 -1.7823 2.3884
5.2845 -1.5967 2.3884
5.3408 -1.4086 2.3884
5.3899 -1.2185 2.3884
5.4318 -1.0267 2.3884
5.4664 -0.8333 2.3884
5.4935 -0.6387 2.3884
5.5133 -0.4431 2.3884
5.5256 -0.2470 2.3884
5.5304 -0.0505 2.3884
5.5277 0.1459 2.3884
5.5176 0.3421 2.3884
5.5000 0.5378 2.3884
5.4749 0.7325 2.3884
5.4425 0.9261 2.3884
5.4028 1.1182 2.3884
5.3559 1.3086 2.3884
5.3017 1.4969 2.3884
5.2406 1.6830 2.3884
5.1724 1.8664 2.3884
5.0974 2.0470 2.3884
5.0157 2.2245 2.3884
4.9275 2.3986 2.3884
4.8328 2.5691 2.3884
4.7319 2.7357 2.3884
4.6248 2.8982 2.3884
4.5119 3.0564 2.3884
4.3933 3.2100 2.3884
4.2691 3.3589 2.3884
4.1397 3.5029 2.3884
4.0051 3.6417 2.3884
3.8657 3.7752 2.3884
3.7215 3.9033 2.3884
3.5730 4.0257 2.3884
3.4203 4.1423 2.3884
3.2635 4.2530 2.3884
3.1031 4.3576 2.3884
2.9392 4.4561 2.3884
2.7721 4.5483 2.3884
2.6020 4.6342 2.3884
0.9394 1.8228 0.9236
0.8734 1.8547 0.9255
0.8062 1.8842 0.9274
0.7380 1.9113 0.9293
0.6689 1.9359 0.9312
0.5989 1.9580 0.9331
0.5282 1.9775 0.9350
0.4568 1.9945 0.9370
0.3849 2.0089 0.9389
0.3124 2.0207 0.9409
0.2396 2.0298 0.9428
0.1665 2.0363 0.9448
0.0932 2.0402 0.9467
0.0198 2.0415 0.9486
-0.0536 2.0400 0.9506
-0.1269 2.0360 0.9525
-0.2000 2.0292 0.9544
-0.2728 2.0199 0.9563
-0.3452 2.0079 0.9581
-0.4172 1.9933 0.9600
-0.4886 1.9761 0.9618
-0.5593 1.9564 0.9636
-0.6292 1.9341 0.9653
-0.6983 1.9093 0.9670
-0.7665 1.8820 0.9687
-0.8336 1.8523 0.9704
-2.2105 4.4725 2.3884
-2.3659 4.3807 2.3884
-2.5178 4.2836 2.3884
-2.6659 4.1816 2.3884
-2.8102 4.0746 2.3884
-2.9504 3.9628 2.3884
-3.0865 3.8465 2.3884
-3.2183 3.7257 2.3884
-3.3457 3.6006 2.3884
-3.4685 3.4713 2.3884
-3.5866 3.3381 2.3884
-3.6999 3.2011 2.3884
-3.8083 3.0604 2.3884
-3.9117 2.9163 2.3884
-4.0100 2.7688 2.3884
-4.1031 2.6183 2.3884
-4.1908 2.4647 2.3884
-4.2732 2.3085 2.3884
-4.3502 2.1496 2.3884
-4.4216 1.9883 2.3884
-4.4874 1.8248 2.3884
-4.5475 1.6592 2.3884
-4.6020 1.4918 2.3884
-4.6507 1.3227 2.3884
-4.6935 1.1521 2.3884
-4.7306 0.9802 2.3884
-4.7617 0.8072 2.3884
-4.7869 0.6333 2.3884
-4.8062 0.4587 2.3884
-4.8195 0.2835 2.3884
-4.8268 0.1079 2.3884
-4.8282 -0.0678 2.3884
-4.8236 -0.2435 2.3884
-4.8130 -0.4189 2.3884
-4.7964 -0.5940 2.3884
-4.7739 -0.7684 2.3884
-4.7454 -0.9421 2.3884
-4.7110 -1.1147 2.3884
-4.6707 -1.2862 2.3884
-4.6246 -1.4564 2.3884
-4.5726 -1.6249 2.3884
-4.5148 -1.7918 2.3884
-4.4513 -1.9567 2.3884
-4.3822 -2.1194 2.3884
-4.3074 -2.2799 2.3884
-4.2271 -2.4379 2.3884
-4.1414 -2.5932 2.3884
-4.0502 -2.7456 2.3884
-3.9538 -2.8950 2.3884
-3.8521 -3.0412 2.3884
-3.7453 -3.1840 2.3884
-3.6335 -3.3232 2.3884
-3.5168 -3.4587 2.3884
-3.3953 -3.5902 2.3884
-3.2691 -3.7177 2.3884
-3.1384 -3.8409 2.3884
-3.0033 -3.9596 2.3884
-2.8638 -4.0738 2.3884
-2.7202 -4.1833 2.3884
-2.5727 -4.2879 2.3884
-2.4213 -4.3874 2.3884
-2.2662 -4.4818 2.3884
-2.1077 -4.5708 2.3884
-1.9458 -4.6543 2.3884
-1.7807 -4.7323 2.3884
-1.6127 -4.8045 2.3884
-1.4419 -4.8709 2.3884
-1.2686 -4.9313 2.3884
-1.0928 -4.9857 2.3884
-0.9149 -5.0339 2.3884
-0.7350 -5.0758 2.3884
-0.5534 -5.1113 2.3884
-0.3702 -5.1404 2.3884
-0.1858 -5.1630 2.3884
-0.0002 -5.1790 2.3884
0.1861 -5.1883 2.3884
0.3730 -5.1909 2.3884
0.5603 -5.1868 2.3884
0.7477 -5.1758 2.3884
0.9349 -5.1581 2.3884
1.1217 -5.1336 2.3884
1.3079 -5.1022 2.3884
1.4932 -5.0639 2.3884
1.6773 -5.0189 2.3884
1.8600 -4.9670 2.3884
2.0409 -4.9084 2.3884
2.2200 -4.8431 2.3884
2.3968 -4.7711 2.3884
2.5711 -4.6925 2.3884
2.7427 -4.6073 2.3884
2.9114 -4.5157 2.3884
3.0767 -4.4178 2.3884
3.2386 -4.3136 2.3884
3.3967 -4.2033 2.3884
3.5509 -4.0871 2.3884
3.7008 -3.9649 2.3884
3.8463 -3.8371 2.3884
3.9870 -3.7038 2.3884
4.1229 -3.5651 2.3884
4.2535 -3.4212 2.3884
4.3789 -3.2723 2.3884
4.4986 -3.1186 2.3884
4.6126 -2.9604 2.3884
4.7207 -2.7978 2.3884
4.8226 -2.6311 2.3884
4.9182 -2.4605 2.3884
5.0074 -2.2863 2.3884
5.0899 -2.1087 2.3884
5.1658 -1.9280 2.3884
5.2347 -1.7444 2.3884
5.2966 -1.5582 2.3884
5.3515 -1.3698 2.3884
5.3991 -1.1793 2.3884
5.4395 -0.9871 2.3884
5.4725 -0.7934 2.3884
5.4982 -0.5986 2.3884
5.5164 -0.4029 2.3884
5.5272 -0.2067 2.3884
5.5305 -0.0102 2.3884
5.5262 0.1862 2.3884
5.5146 0.3824 2.3884
5.4954 0.5778 2.3884
5.4689 0.7724 2.3884
5.4350 0.9657 2.3884
5.3938 1.1574 2.3884
5.3453 1.3474 2.3884
5.2897 1.5353 2.3884
5.2271 1.7208 2.3884
5.1576 1.9037 2.3884
5.0812 2.0837 2.3884
4.9981 2.2605 2.3884
4.9085 2.4339 2.3884
4.8126 2.6036 2.3884
4.7104 2.7694 2.3884
4.6021 2.9310 2.3884
4.4880 3.0883 2.3884
4.3683 3.2410 2.3884
4.2430 3.3889 2.3884
4.1125 3.5318 2.3884
3.9769 3.6696 2.3884
3.8364 3.8020 2.3884
3.6914 3.9288 2.3884
3.5420 4.0501 2.3884
3.3884 4.1655 2.3884
3.2309 4.2749 2.3884
3.0697 4.3783 2.3884
2.9051 4.4755 2.3884
2.7374 4.5665 2.3884
2.5667 4.6510 2.3884
0.9259 1.8296 0.9240
0.8597 1.8610 0.9259
0.7923 1.8900 0.9278
0.7239 1.9166 0.9297
0.6546 1.9406 0.9316
0.5845 1.9622 0.9335
0.5136 1.9812 0.9354
0.4421 1.9977 0.9374
0.3700 2.0115 0.9393
0.2975 2.0228 0.9413
0.2246 2.0314 0.9432
0.1515 2.0374 0.9452
0.0781 2.0407 0.9471
0.0047 2.0414 0.9490
-0.0687 2.0394 0.9510
-0.1419 2.0348 0.9529
-0.2150 2.0275 0.9548
-0.2877 2.0176 0.9566
-0.3600 2.0051 0.9585
-0.4319 1.9900 0.9603
-0.5031 1.9723 0.9621
-0.5737 1.9520 0.9639
-0.6435 1.9292 0.9657
-0.7124 1.9039 0.9674
-0.7804 1.8761 0.9691
-0.8473 1.8459 0.9707
-2.2427 4.4541 2.3884
