ply
format ascii 1.0
element vertex 2171
property float32 x
property float32 y
property float32 z
end_header
-4.2743 5.9973 2.3718
-4.4812 5.8340 2.3718
-4.6818 5.6632 2.3718
-4.8758 5.4854 2.3718
-5.0629 5.3008 2.3718
-5.2429 5.1096 2.3718
-5.4155 4.9122 2.3718
-5.5806 4.7088 2.3718
-5.7380 4.4997 2.3718
-5.8874 4.2853 2.3718
-6.0287 4.0658 2.3718
-6.1618 3.8417 2.3718
-6.2864 3.6131 2.3718
-6.4025 3.3804 2.3718
-6.5099 3.1440 2.3718
-6.6086 2.9041 2.3718
-6.6983 2.6612 2.3718
-6.7791 2.4155 2.3718
-6.8509 2.1674 2.3718
-6.9136 1.9172 2.3718
-6.9672 1.6653 2.3718
-7.0116 1.4119 2.3718
-7.0468 1.1575 2.3718
-7.0728 0.9024 2.3718
-7.0897 0.6468 2.3718
-7.0974 0.3911 2.3718
-7.0960 0.1357 2.3718
-7.0854 -0.1192 2.3718
-7.0658 -0.3731 2.3718
-7.0373 -0.6259 2.3718
-6.9998 -0.8771 2.3718
-6.9535 -1.1265 2.3718
-6.8984 -1.3738 2.3718
-6.8347 -1.6187 2.3718
-6.7625 -1.8608 2.3718
-6.6819 -2.0999 2.3718
-6.5930 -2.3358 2.3718
-6.4960 -2.5681 2.3718
-6.3910 -2.7965 2.3718
-6.2782 -3.0208 2.3718
-6.1577 -3.2408 2.3718
-6.0297 -3.4562 2.3718
-5.8944 -3.6667 2.3718
-5.7519 -3.8722 2.3718
-5.6025 -4.0723 2.3718
-5.4464 -4.2669 2.3718
-5.2837 -4.4558 2.3718
-5.1147 -4.6386 2.3718
-4.9396 -4.8154 2.3718
-4.7586 -4.9858 2.3718
-4.5719 -5.1496 2.3718
-4.3798 -5.3067 2.3718
-4.1825 -5.4570 2.3718
-3.9802 -5.6002 2.3718
-3.7732 -5.7362 2.3718
-3.5618 -5.8649 2.3718
-3.3461 -5.9861 2.3718
-3.1265 -6.0998 2.3718
-2.9032 -6.2057 2.3718
-2.6764 -6.3037 2.3718
-2.4464 -6.3938 2.3718
-2.2136 -6.4759 2.3718
-1.9781 -6.5499 2.3718
-1.7402 -6.6156 2.3718
-1.5003 -6.6731 2.3718
-1.2585 -6.7222 2.3718
-1.0152 -6.7630 2.3718
-0.7706 -6.7953 2.3718
-0.5251 -6.8192 2.3718
-0.2788 -6.8345 2.3718
-0.0322 -6.8413 2.3718
0.2146 -6.8396 2.3718
0.4613 -6.8294 2.3718
0.7075 -6.8106 2.3718
0.9530 -6.7833 2.3718
1.1975 -6.7475 2.3718
1.4408 -6.7033 2.3718
1.6825 -6.6506 2.3718
1.9223 -6.5895 2.3718
2.1600 -6.5201 2.3718
2.3953 -6.4425 2.3718
2.6279 -6.3567 2.3718
2.8576 -6.2628 2.3718
3.0840 -6.1609 2.3718
3.3069 -6.0511 2.3718
3.5260 -5.9335 2.3718
3.7411 -5.8082 2.3718
3.9520 -5.6754 2.3718
4.1582 -5.5352 2.3718
4.3596 -5.3877 2.3718
4.5559 -5.2331 2.3718
4.7469 -5.0716 2.3718
4.9323 -4.9033 2.3718
5.1120 -4.7284 2.3718
5.2855 -4.5471 2.3718
5.4528 -4.3595 2.3718
5.6136 -4.1660 2.3718
5.7677 -3.9667 2.3718
5.9148 -3.7619 2.3718
6.0548 -3.5517 2.3718
6.1874 -3.3364 2.3718
6.3125 -3.1163 2.3718
6.4299 -2.8915 2.3718
6.5393 -2.6626 2.3718
6.6408 -2.4294 2.3718
6.7340 -2.1925 2.3718
6.8188 -1.9521 2.3718
6.8951 -1.7085 2.3718
6.9627 -1.4619 2.3718
7.0216 -1.2128 2.3718
7.0715 -0.9614 2.3718
7.1125 -0.7080 2.3718
7.1444 -0.4529 2.3718
7.1672 -0.1965 2.3718
7.1807 0.0609 2.3718
7.1849 0.3190 2.3718
7.1798 0.5774 2.3718
7.1654 0.8360 2.3718
7.1415 1.0940 2.3718
7.1083 1.3514 2.3718
7.0657 1.6077 2.3718
7.0137 1.8627 2.3718
6.9524 2.1160 2.3718
6.8818 2.3671 2.3718
6.8020 2.6158 2.3718
6.7131 2.8618 2.3718
6.6151 3.1046 2.3718
6.5082 3.3439 2.3718
6.3923 3.5794 2.3718
6.2678 3.8108 2.3718
6.1348 4.0377 2.3718
5.9933 4.2597 2.3718
5.8435 4.4766 2.3718
5.6858 4.6881 2.3718
5.5201 4.8937 2.3718
5.3468 5.0933 2.3718
5.1661 5.2865 2.3718
4.9782 5.4730 2.3718
4.7834 5.6526 2.3718
4.5818 5.8249 2.3718
4.3739 5.9897 2.3718
4.1598 6.1469 2.3718
3.9399 6.2960 2.3718
3.7145 6.4369 2.3718
3.4839 6.5694 2.3718
3.2484 6.6933 2.3718
3.0083 6.8083 2.3718
2.7641 6.9143 2.3718
2.5159 7.0112 2.3718
0.8691 2.7247 0.9104
0.7712 2.7544 0.9103
0.6723 2.7805 0.9102
0.5725 2.8031 0.9102
0.4719 2.8221 0.9102
0.3707 2.8374 0.9103
0.2691 2.8490 0.9104
0.1670 2.8570 0.9105
0.0647 2.8612 0.9107
-0.0376 2.8618 0.9110
-0.1399 2.8587 0.9112
-0.2421 2.8519 0.9115
-0.3439 2.8413 0.9119
-0.4453 2.8272 0.9122
-0.5461 2.8093 0.9127
-0.6462 2.7878 0.9131
-0.7455 2.7627 0.9136
-0.8437 2.7341 0.9141
-2.4398 7.0061 2.3718
-2.6868 6.9090 2.3718
-2.9299 6.8030 2.3718
-3.1688 6.6880 2.3718
-3.4030 6.5645 2.3718
-3.6323 6.4323 2.3718
-3.8563 6.2920 2.3718
-4.0748 6.1435 2.3718
-4.2875 5.9873 2.3718
-4.4941 5.8234 2.3718
-4.6942 5.6522 2.3718
-4.8878 5.4740 2.3718
-5.0744 5.2889 2.3718
-5.2539 5.0973 2.3718
-5.4261 4.8995 2.3718
-5.5908 4.6958 2.3718
-5.7476 4.4864 2.3718
-5.8965 4.2716 2.3718
-6.0373 4.0518 2.3718
-6.1699 3.8274 2.3718
-6.2940 3.5985 2.3718
-6.4095 3.3656 2.3718
-6.5164 3.1290 2.3718
-6.6145 2.8889 2.3718
-6.7037 2.6458 2.3718
-6.7839 2.3999 2.3718
-6.8551 2.1517 2.3718
-6.9172 1.9014 2.3718
-6.9702 1.6493 2.3718
-7.0141 1.3959 2.3718
-7.0487 1.1414 2.3718
-7.0742 0.8861 2.3718
-7.0905 0.6306 2.3718
-7.0976 0.3750 2.3718
-7.0956 0.1196 2.3718
-7.0845 -0.1352 2.3718
-7.0643 -0.3891 2.3718
-7.0352 -0.6418 2.3718
-6.9971 -0.8929 2.3718
-6.9503 -1.1422 2.3718
-6.8947 -1.3893 2.3718
-6.8304 -1.6340 2.3718
-6.7577 -1.8760 2.3718
-6.6765 -2.1149 2.3718
-6.5871 -2.3505 2.3718
-6.4896 -2.5826 2.3718
-6.3841 -2.8108 2.3718
-6.2708 -3.0348 2.3718
-6.1498 -3.2545 2.3718
-6.0214 -3.4696 2.3718
-5.8856 -3.6798 2.3718
-5.7427 -3.8850 2.3718
-5.5929 -4.0847 2.3718
-5.4363 -4.2790 2.3718
-5.2732 -4.4675 2.3718
-5.1039 -4.6500 2.3718
-6.5133 -0.7991 2.3718
-6.4713 -1.0313 2.3718
-6.4212 -1.2616 2.3718
-6.3630 -1.4897 2.3718
-6.2969 -1.7153 2.3718
-6.2229 -1.9382 2.3718
-6.1412 -2.1580 2.3718
-6.0519 -2.3746 2.3718
-5.9551 -2.5877 2.3718
-5.8510 -2.7970 2.3718
-5.7397 -3.0023 2.3718
-5.6214 -3.2033 2.3718
-5.4962 -3.3999 2.3718
-5.3644 -3.5918 2.3718
-5.2260 -3.7787 2.3718
-5.0814 -3.9605 2.3718
-4.9306 -4.1370 2.3718
-4.7738 -4.3079 2.3718
-4.6113 -4.4732 2.3718
-4.4433 -4.6325 2.3718
-4.2700 -4.7858 2.3718
-4.0915 -4.9328 2.3718
-3.9082 -5.0735 2.3718
-3.7202 -5.2075 2.3718
-3.5277 -5.3349 2.3718
-3.3311 -5.4555 2.3718
-3.1305 -5.5691 2.3718
-2.9261 -5.6756 2.3718
-2.7183 -5.7749 2.3718
-2.5072 -5.8668 2.3718
-2.2932 -5.9514 2.3718
-2.0764 -6.0285 2.3718
-1.8571 -6.0980 2.3718
-1.6356 -6.1598 2.3718
-1.4121 -6.2140 2.3718
-1.1869 -6.2603 2.3718
-0.9602 -6.2988 2.3718
-0.7323 -6.3294 2.3718
-0.5035 -6.3521 2.3718
-0.2741 -6.3669 2.3718
-0.0442 -6.3737 2.3718
0.1858 -6.3725 2.3718
0.4157 -6.3633 2.3718
0.6452 -6.3462 2.3718
0.8740 -6.3211 2.3718
1.1019 -6.2881 2.3718
1.3286 -6.2471 2.3718
1.5539 -6.1983 2.3718
1.7774 -6.1417 2.3718
1.9989 -6.0773 2.3718
2.2182 -6.0052 2.3718
2.4350 -5.9255 2.3718
2.6490 -5.8382 2.3718
2.8600 -5.7434 2.3718
3.0677 -5.6413 2.3718
3.2719 -5.5319 2.3718
3.4723 -5.4153 2.3718
3.6687 -5.2917 2.3718
3.8608 -5.1612 2.3718
4.0484 -5.0240 2.3718
4.2312 -4.8801 2.3718
4.4091 -4.7297 2.3718
4.5817 -4.5731 2.3718
4.7490 -4.4103 2.3718
4.9105 -4.2415 2.3718
5.0662 -4.0670 2.3718
5.2158 -3.8869 2.3718
5.3592 -3.7014 2.3718
5.4960 -3.5108 2.3718
5.6262 -3.3152 2.3718
5.7496 -3.1149 2.3718
5.8659 -2.9101 2.3718
5.9750 -2.7010 2.3718
6.0767 -2.4879 2.3718
6.1710 -2.2711 2.3718
6.2575 -2.0508 2.3718
6.3363 -1.8273 2.3718
6.4071 -1.6008 2.3718
6.4699 -1.3716 2.3718
6.5245 -1.1400 2.3718
6.5708 -0.9063 2.3718
6.6088 -0.6708 2.3718
6.6383 -0.4338 2.3718
6.6593 -0.1955 2.3718
6.6718 0.0436 2.3718
6.6756 0.2834 2.3718
6.6708 0.5235 2.3718
6.6572 0.7635 2.3718
6.6350 1.0032 2.3718
6.6040 1.2421 2.3718
6.5644 1.4802 2.3718
6.5161 1.7169 2.3718
6.4591 1.9520 2.3718
6.3935 2.1851 2.3718
6.3194 2.4159 2.3718
6.2368 2.6442 2.3718
6.1459 2.8695 2.3718
6.0466 3.0916 2.3718
5.9392 3.3101 2.3718
5.8237 3.5248 2.3718
5.7002 3.7353 2.3718
5.5690 3.9413 2.3718
5.4302 4.1425 2.3718
5.2839 4.3387 2.3718
5.1303 4.5295 2.3718
4.9697 4.7146 2.3718
4.8022 4.8939 2.3718
4.6281 5.0670 2.3718
4.4475 5.2336 2.3718
4.2608 5.3935 2.3718
4.0682 5.5465 2.3718
3.8699 5.6924 2.3718
3.6661 5.8309 2.3718
3.4573 5.9618 2.3718
3.2437 6.0849 2.3718
3.0255 6.2000 2.3718
2.8032 6.3070 2.3718
2.5769 6.4056 2.3718
0.9031 2.4996 0.9127
0.8133 2.5306 0.9125
0.7224 2.5584 0.9124
0.6306 2.5829 0.9124
0.5379 2.6041 0.9124
0.4445 2.6219 0.9124
0.3505 2.6363 0.9125
0.2561 2.6473 0.9126
0.1613 2.6549 0.9127
0.0663 2.6591 0.9129
-0.0288 2.6598 0.9131
-0.1239 2.6571 0.9133
-0.2188 2.6510 0.9136
-0.3134 2.6414 0.9139
-0.4077 2.6285 0.9143
-0.5014 2.6121 0.9147
-0.5944 2.5923 0.9151
-0.6867 2.5693 0.9155
-0.7781 2.5428 0.9160
-0.8684 2.5131 0.9165
-2.4767 6.4144 2.3718
-2.7025 6.3169 2.3718
-2.9244 6.2112 2.3718
-3.1420 6.0975 2.3718
-3.3552 5.9758 2.3718
-3.5635 5.8465 2.3718
-3.7668 5.7097 2.3718
-3.9647 5.5656 2.3718
-4.1569 5.4144 2.3718
-4.3434 5.2564 2.3718
-4.5237 5.0918 2.3718
-4.6976 4.9209 2.3718
-4.8650 4.7439 2.3718
-5.0257 4.5611 2.3718
-5.1794 4.3727 2.3718
-5.3259 4.1790 2.3718
-5.4651 3.9803 2.3718
-5.5968 3.7769 2.3718
-5.7208 3.5691 2.3718
-5.8371 3.3572 2.3718
-5.9455 3.1414 2.3718
-6.0458 2.9221 2.3718
-6.1380 2.6996 2.3718
-6.2220 2.4742 2.3718
-6.2977 2.2462 2.3718
-6.3650 2.0159 2.3718
-6.4239 1.7836 2.3718
-6.4743 1.5497 2.3718
-6.5162 1.3144 2.3718
-6.5496 1.0780 2.3718
-6.5745 0.8409 2.3718
-6.5908 0.6034 2.3718
-6.5985 0.3658 2.3718
-6.5979 0.1283 2.3718
-6.5887 -0.1087 2.3718
-6.5711 -0.3449 2.3718
-6.5451 -0.5800 2.3718
-6.5109 -0.8138 2.3718
-6.4684 -1.0459 2.3718
-6.4178 -1.2760 2.3718
-6.3591 -1.5040 2.3718
-6.2925 -1.7294 2.3718
-6.2180 -1.9521 2.3718
-6.1358 -2.1718 2.3718
-6.0460 -2.3882 2.3718
-5.9488 -2.6010 2.3718
-5.8442 -2.8101 2.3718
-5.7324 -3.0151 2.3718
-5.6137 -3.2159 2.3718
-5.4881 -3.4121 2.3718
-5.3559 -3.6037 2.3718
-5.2171 -3.7903 2.3718
-5.0720 -3.9718 2.3718
-4.9208 -4.1479 2.3718
-4.7637 -4.3185 2.3718
-4.6009 -4.4834 2.3718
-4.4325 -4.6424 2.3718
-4.2589 -4.7953 2.3718
-4.0801 -4.9419 2.3718
-3.8965 -5.0821 2.3718
-3.7082 -5.2158 2.3718
-3.5155 -5.3427 2.3718
-3.3186 -5.4628 2.3718
-3.1177 -5.5760 2.3718
-2.9131 -5.6820 2.3718
-2.7051 -5.7809 2.3718
-2.4938 -5.8724 2.3718
-2.2796 -5.9565 2.3718
-2.0626 -6.0331 2.3718
-1.8432 -6.1021 2.3718
-1.6215 -6.1635 2.3718
-1.3979 -6.2171 2.3718
-1.1726 -6.2630 2.3718
-0.9459 -6.3010 2.3718
-0.7179 -6.3311 2.3718
-0.4891 -6.3533 2.3718
-0.2596 -6.3675 2.3718
-0.0297 -6.3738 2.3718
0.2003 -6.3721 2.3718
0.4302 -6.3625 2.3718
0.6596 -6.3448 2.3718
0.8884 -6.3193 2.3718
1.1162 -6.2857 2.3718
1.3429 -6.2443 2.3718
1.5680 -6.1950 2.3718
1.7914 -6.1379 2.3718
2.0128 -6.0730 2.3718
2.2320 -6.0004 2.3718
2.4486 -5.9202 2.3718
2.6624 -5.8324 2.3718
2.8732 -5.7372 2.3718
3.0807 -5.6346 2.3718
3.2847 -5.5247 2.3718
3.4848 -5.4077 2.3718
3.6809 -5.2837 2.3718
3.8728 -5.1528 2.3718
4.0601 -5.0151 2.3718
4.2426 -4.8708 2.3718
4.4201 -4.7200 2.3718
4.5924 -4.5630 2.3718
4.7593 -4.3998 2.3718
4.9205 -4.2307 2.3718
5.0758 -4.0558 2.3718
5.2251 -3.8754 2.3718
5.3680 -3.6895 2.3718
5.5044 -3.4986 2.3718
5.6342 -3.3027 2.3718
5.7571 -3.1021 2.3718
5.8730 -2.8970 2.3718
5.9816 -2.6877 2.3718
6.0829 -2.4744 2.3718
6.1766 -2.2573 2.3718
6.2627 -2.0368 2.3718
6.3410 -1.8131 2.3718
6.4113 -1.5864 2.3718
6.4736 -1.3571 2.3718
6.5276 -1.1253 2.3718
6.5735 -0.8915 2.3718
6.6109 -0.6559 2.3718
6.6399 -0.4188 2.3718
6.6604 -0.1805 2.3718
6.6723 0.0587 2.3718
6.6755 0.2985 2.3718
6.6702 0.5386 2.3718
6.6561 0.7786 2.3718
6.6333 1.0182 2.3718
6.6018 1.2572 2.3718
6.5616 1.4951 2.3718
6.5127 1.7317 2.3718
6.4552 1.9667 2.3718
6.3891 2.1997 2.3718
6.3145 2.4304 2.3718
6.2314 2.6585 2.3718
6.1399 2.8836 2.3718
6.0401 3.1055 2.3718
5.9321 3.3237 2.3718
5.8161 3.5382 2.3718
5.6922 3.7484 2.3718
5.5605 3.9541 2.3718
5.4212 4.1550 2.3718
5.2744 4.3509 2.3718
5.1204 4.5413 2.3718
4.9593 4.7261 2.3718
4.7914 4.9050 2.3718
4.6169 5.0777 2.3718
4.4359 5.2439 2.3718
4.2488 5.4034 2.3718
4.0558 5.5559 2.3718
3.8572 5.7013 2.3718
3.6531 5.8393 2.3718
3.4440 5.9698 2.3718
3.2301 6.0924 2.3718
3.0117 6.2070 2.3718
2.7890 6.3134 2.3718
2.5625 6.4116 2.3718
0.8975 2.5016 0.9127
0.8076 2.5325 0.9125
0.7166 2.5600 0.9124
0.6247 2.5843 0.9124
0.5320 2.6053 0.9124
0.4386 2.6229 0.9124
0.3446 2.6371 0.9125
0.2501 2.6479 0.9126
0.1553 2.6553 0.9127
0.0603 2.6592 0.9129
-0.0348 2.6597 0.9131
-0.1299 2.6568 0.9133
-0.2248 2.6505 0.9136
-0.3194 2.6407 0.9139
-0.4136 2.6275 0.9143
-0.5073 2.6109 0.9147
-0.6002 2.5910 0.9151
-0.6925 2.5677 0.9156
-0.7838 2.5411 0.9161
-0.8741 2.5112 0.9166
-2.4910 6.4085 2.3718
-2.7166 6.3105 2.3718
-2.9382 6.2043 2.3718
-3.1556 6.0900 2.3718
-3.3684 5.9679 2.3718
-3.5765 5.8381 2.3718
-3.7794 5.7008 2.3718
-3.9769 5.5562 2.3718
-4.1689 5.4047 2.3718
-4.3549 5.2462 2.3718
-4.5348 5.0812 2.3718
-4.7084 4.9099 2.3718
-4.8754 4.7325 2.3718
-5.0356 4.5493 2.3718
-5.1888 4.3606 2.3718
-5.3349 4.1666 2.3718
-5.4736 3.9676 2.3718
-5.6048 3.7640 2.3718
-5.7284 3.5559 2.3718
-5.8442 3.3437 2.3718
-5.9520 3.1277 2.3718
-6.0519 2.9082 2.3718
-6.1435 2.6855 2.3718
-6.2270 2.4599 2.3718
-6.3022 2.2318 2.3718
-6.3689 2.0013 2.3718
-6.4273 1.7689 2.3718
-6.4772 1.5349 2.3718
-6.5186 1.2995 2.3718
-6.5514 1.0631 2.3718
-6.5757 0.8260 2.3718
-6.5915 0.5884 2.3718
-6.5988 0.3508 2.3718
-6.5975 0.1134 2.3718
-6.5878 -0.1236 2.3718
-6.5697 -0.3597 2.3718
-6.5432 -0.5948 2.3718
-6.5084 -0.8285 2.3718
-6.4655 -1.0604 2.3718
-6.4143 -1.2905 2.3718
-6.3551 -1.5183 2.3718
-6.2880 -1.7436 2.3718
-6.2130 -1.9661 2.3718
-6.1304 -2.1855 2.3718
-6.0401 -2.4017 2.3718
-5.9424 -2.6143 2.3718
-5.8374 -2.8231 2.3718
-5.7252 -3.0279 2.3718
-5.6060 -3.2284 2.3718
-5.4800 -3.4243 2.3718
-5.3473 -3.6156 2.3718
-5.2082 -3.8019 2.3718
-5.0627 -3.9830 2.3718
-4.9111 -4.1588 2.3718
-4.7537 -4.3291 2.3718
-6.0816 -0.7441 2.3718
-6.0429 -0.9611 2.3718
-5.9966 -1.1762 2.3718
-5.9427 -1.3894 2.3718
-5.8814 -1.6002 2.3718
-5.8127 -1.8085 2.3718
-5.7368 -2.0141 2.3718
-5.6538 -2.2166 2.3718
-5.5638 -2.4158 2.3718
-5.4669 -2.6115 2.3718
-5.3633 -2.8035 2.3718
-5.2531 -2.9916 2.3718
-5.1364 -3.1755 2.3718
-5.0135 -3.3550 2.3718
-4.8845 -3.5300 2.3718
-4.7496 -3.7001 2.3718
-4.6089 -3.8653 2.3718
-4.4626 -4.0253 2.3718
-4.3109 -4.1800 2.3718
-4.1540 -4.3292 2.3718
-3.9921 -4.4727 2.3718
-3.8254 -4.6104 2.3718
-3.6542 -4.7421 2.3718
-3.4785 -4.8677 2.3718
-3.2987 -4.9870 2.3718
-3.1149 -5.0999 2.3718
-2.9274 -5.2063 2.3718
-2.7363 -5.3060 2.3718
-2.5420 -5.3990 2.3718
-2.3447 -5.4852 2.3718
-2.1445 -5.5644 2.3718
-1.9418 -5.6366 2.3718
-1.7367 -5.7017 2.3718
-1.5295 -5.7596 2.3718
-1.3205 -5.8102 2.3718
-1.1098 -5.8536 2.3718
-0.8978 -5.8896 2.3718
-0.6847 -5.9182 2.3718
-0.4707 -5.9395 2.3718
-0.2560 -5.9532 2.3718
-0.0410 -5.9595 2.3718
0.1741 -5.9583 2.3718
0.3891 -5.9497 2.3718
0.6037 -5.9335 2.3718
0.8177 -5.9100 2.3718
1.0309 -5.8789 2.3718
1.2428 -5.8405 2.3718
1.4534 -5.7947 2.3718
1.6624 -5.7415 2.3718
1.8695 -5.6811 2.3718
2.0745 -5.6135 2.3718
2.2772 -5.5387 2.3718
2.4772 -5.4568 2.3718
2.6743 -5.3680 2.3718
2.8684 -5.2722 2.3718
3.0592 -5.1697 2.3718
3.2463 -5.0605 2.3718
3.4297 -4.9446 2.3718
3.6091 -4.8224 2.3718
3.7842 -4.6938 2.3718
3.9549 -4.5590 2.3718
4.1208 -4.4182 2.3718
4.2819 -4.2715 2.3718
4.4379 -4.1191 2.3718
4.5885 -3.9612 2.3718
4.7337 -3.7978 2.3718
4.8731 -3.6293 2.3718
5.0066 -3.4557 2.3718
5.1341 -3.2774 2.3718
5.2553 -3.0945 2.3718
5.3701 -2.9071 2.3718
5.4783 -2.7156 2.3718
5.5797 -2.5202 2.3718
5.6743 -2.3210 2.3718
5.7618 -2.1184 2.3718
5.8421 -1.9126 2.3718
5.9151 -1.7037 2.3718
5.9808 -1.4922 2.3718
6.0388 -1.2781 2.3718
6.0893 -1.0619 2.3718
6.1320 -0.8437 2.3718
6.1669 -0.6239 2.3718
6.1939 -0.4027 2.3718
6.2130 -0.1804 2.3718
6.2240 0.0428 2.3718
6.2270 0.2664 2.3718
6.2220 0.4903 2.3718
6.2088 0.7141 2.3718
6.1876 0.9375 2.3718
6.1582 1.1603 2.3718
6.1207 1.3821 2.3718
6.0752 1.6027 2.3718
6.0216 1.8217 2.3718
5.9600 2.0389 2.3718
5.8904 2.2539 2.3718
5.8130 2.4664 2.3718
5.7278 2.6762 2.3718
5.6348 2.8830 2.3718
5.5343 3.0864 2.3718
5.4263 3.2862 2.3718
5.3109 3.4820 2.3718
5.1883 3.6737 2.3718
5.0587 3.8609 2.3718
4.9221 4.0434 2.3718
4.7788 4.2209 2.3718
4.6289 4.3931 2.3718
4.4726 4.5598 2.3718
4.3102 4.7207 2.3718
4.1419 4.8757 2.3718
3.9678 5.0244 2.3718
3.7882 5.1666 2.3718
3.6035 5.3022 2.3718
3.4136 5.4309 2.3718
3.2191 5.5526 2.3718
3.0201 5.6670 2.3718
2.8169 5.7740 2.3718
2.6099 5.8734 2.3718
0.9253 2.3005 0.9147
0.8426 2.3325 0.9146
0.7588 2.3614 0.9145
0.6740 2.3873 0.9144
0.5883 2.4102 0.9143
0.5019 2.4299 0.9143
0.4147 2.4465 0.9143
0.3271 2.4599 0.9144
0.2390 2.4702 0.9145
0.1506 2.4773 0.9146
0.0619 2.4812 0.9148
-0.0268 2.4818 0.9150
-0.1155 2.4793 0.9152
-0.2040 2.4736 0.9155
-0.2923 2.4647 0.9157
-0.3802 2.4526 0.9161
-0.4675 2.4373 0.9164
-0.5543 2.4189 0.9168
-0.6404 2.3974 0.9173
-0.7256 2.3727 0.9177
-0.8099 2.3450 0.9182
-0.8932 2.3143 0.9187
-2.5162 5.8843 2.3718
-2.7230 5.7862 2.3718
-2.9258 5.6806 2.3718
-3.1245 5.5676 2.3718
-3.3187 5.4474 2.3718
-3.5082 5.3203 2.3718
-3.6928 5.1864 2.3718
-3.8721 5.0459 2.3718
-4.0461 4.8991 2.3718
-4.2144 4.7461 2.3718
-4.3767 4.5871 2.3718
-4.5330 4.4225 2.3718
-4.6831 4.2525 2.3718
-4.8267 4.0772 2.3718
-4.9636 3.8970 2.3718
-5.0937 3.7121 2.3718
-5.2169 3.5228 2.3718
-5.3330 3.3294 2.3718
-5.4418 3.1321 2.3718
-5.5433 2.9311 2.3718
-5.6373 2.7269 2.3718
-5.7238 2.5196 2.3718
-5.8026 2.3096 2.3718
-5.8737 2.0972 2.3718
-5.9370 1.8825 2.3718
-5.9925 1.6660 2.3718
-6.0400 1.4478 2.3718
-6.0796 1.2284 2.3718
-6.1113 1.0080 2.3718
-6.1351 0.7868 2.3718
-6.1508 0.5652 2.3718
-6.1586 0.3434 2.3718
-6.1585 0.1218 2.3718
-6.1505 -0.0995 2.3718
-6.1346 -0.3200 2.3718
-6.1108 -0.5395 2.3718
-6.0794 -0.7579 2.3718
-6.0402 -0.9747 2.3718
-5.9934 -1.1897 2.3718
-5.9391 -1.4027 2.3718
-5.8773 -1.6134 2.3718
-5.8082 -1.8216 2.3718
-5.7318 -2.0269 2.3718
-5.6483 -2.2292 2.3718
-5.5579 -2.4282 2.3718
-5.4606 -2.6238 2.3718
-5.3565 -2.8155 2.3718
-5.2459 -3.0033 2.3718
-5.1289 -3.1870 2.3718
-5.0056 -3.3662 2.3718
-4.8762 -3.5408 2.3718
-4.7409 -3.7107 2.3718
-4.5998 -3.8756 2.3718
-4.4532 -4.0353 2.3718
-4.3012 -4.1896 2.3718
-4.1439 -4.3384 2.3718
-3.9818 -4.4816 2.3718
-3.8148 -4.6189 2.3718
-3.6432 -4.7502 2.3718
-3.4673 -4.8754 2.3718
-3.2872 -4.9943 2.3718
-3.1032 -5.1068 2.3718
-2.9154 -5.2127 2.3718
-2.7242 -5.3121 2.3718
-2.5297 -5.4046 2.3718
-2.3322 -5.4904 2.3718
-2.1318 -5.5691 2.3718
-1.9289 -5.6409 2.3718
-1.7237 -5.7055 2.3718
-1.5164 -5.7630 2.3718
-1.3073 -5.8132 2.3718
-1.0965 -5.8561 2.3718
-0.8844 -5.8916 2.3718
-0.6712 -5.9198 2.3718
-0.4572 -5.9405 2.3718
-0.2425 -5.9538 2.3718
-0.0275 -5.9597 2.3718
0.1877 -5.9580 2.3718
0.4026 -5.9489 2.3718
0.6172 -5.9323 2.3718
0.8312 -5.9082 2.3718
1.0442 -5.8767 2.3718
1.2561 -5.8378 2.3718
1.4667 -5.7915 2.3718
1.6755 -5.7379 2.3718
1.8825 -5.6771 2.3718
2.0874 -5.6090 2.3718
2.2898 -5.5337 2.3718
2.4897 -5.4514 2.3718
2.6867 -5.3621 2.3718
2.8805 -5.2660 2.3718
3.0711 -5.1630 2.3718
3.2580 -5.0534 2.3718
3.4412 -4.9371 2.3718
3.6203 -4.8145 2.3718
3.7951 -4.6855 2.3718
3.9655 -4.5503 2.3718
4.1311 -4.4092 2.3718
4.2919 -4.2621 2.3718
4.4475 -4.1093 2.3718
4.5978 -3.9510 2.3718
4.7426 -3.7873 2.3718
4.8817 -3.6185 2.3718
5.0149 -3.4446 2.3718
5.1419 -3.2660 2.3718
5.2627 -3.0828 2.3718
5.3771 -2.8952 2.3718
5.4849 -2.7034 2.3718
5.5859 -2.5078 2.3718
5.6800 -2.3084 2.3718
5.7671 -2.1055 2.3718
5.8469 -1.8995 2.3718
5.9195 -1.6905 2.3718
5.9846 -1.4787 2.3718
6.0422 -1.2645 2.3718
6.0922 -1.0482 2.3718
6.1344 -0.8299 2.3718
6.1688 -0.6100 2.3718
6.1953 -0.3887 2.3718
6.2139 -0.1663 2.3718
6.2245 0.0568 2.3718
6.2270 0.2805 2.3718
6.2214 0.5044 2.3718
6.2077 0.7282 2.3718
6.1860 0.9516 2.3718
6.1561 1.1743 2.3718
6.1181 1.3961 2.3718
6.0720 1.6165 2.3718
6.0179 1.8354 2.3718
5.9558 2.0525 2.3718
5.8858 2.2673 2.3718
5.8078 2.4797 2.3718
5.7221 2.6893 2.3718
5.6287 2.8959 2.3718
5.5277 3.0991 2.3718
5.4192 3.2986 2.3718
5.3034 3.4942 2.3718
5.1804 3.6857 2.3718
5.0503 3.8726 2.3718
4.9132 4.0548 2.3718
4.7695 4.2319 2.3718
4.6192 4.4038 2.3718
4.4626 4.5701 2.3718
4.2998 4.7307 2.3718
4.1311 4.8852 2.3718
3.9567 5.0335 2.3718
3.7768 5.1754 2.3718
3.5916 5.3105 2.3718
3.4015 5.4388 2.3718
3.2067 5.5600 2.3718
3.0074 5.6740 2.3718
2.8040 5.7805 2.3718
2.5967 5.8794 2.3718
0.9201 2.3026 0.9147
0.8373 2.3344 0.9146
0.7535 2.3632 0.9144
0.6686 2.3889 0.9144
0.5829 2.4115 0.9143
0.4964 2.4310 0.9143
0.4092 2.4474 0.9143
0.3215 2.4607 0.9144
0.2334 2.4707 0.9145
0.1450 2.4776 0.9146
0.0563 2.4813 0.9148
-0.0324 2.4818 0.9150
-0.1210 2.4791 0.9152
-0.2096 2.4731 0.9155
-0.2978 2.4640 0.9158
-0.3857 2.4517 0.9161
-0.4730 2.4362 0.9165
-0.5598 2.4176 0.9169
-0.6458 2.3959 0.9173
-0.7310 2.3711 0.9177
-0.8152 2.3432 0.9182
-0.8984 2.3123 0.9187
-2.5294 5.8784 2.3718
-2.7359 5.7798 2.3718
-2.9384 5.6736 2.3718
-3.1368 5.5602 2.3718
-3.3308 5.4396 2.3718
-3.5200 5.3121 2.3718
-3.7042 5.1777 2.3718
-3.8833 5.0369 2.3718
-4.0569 4.8896 2.3718
-4.2248 4.7362 2.3718
-4.3868 4.5769 2.3718
-4.5427 4.4119 2.3718
-4.6923 4.2416 2.3718
-4.8355 4.0660 2.3718
-4.9720 3.8855 2.3718
-5.1017 3.7003 2.3718
-5.2244 3.5108 2.3718
-5.3400 3.3171 2.3718
-5.4484 3.1195 2.3718
-5.5494 2.9184 2.3718
-5.6430 2.7139 2.3718
-5.7290 2.5065 2.3718
-5.8073 2.2963 2.3718
-5.8779 2.0837 2.3718
-5.9407 1.8689 2.3718
-5.9957 1.6523 2.3718
-6.0427 1.4341 2.3718
-6.0819 1.2145 2.3718
-6.1131 0.9940 2.3718
-6.1363 0.7728 2.3718
-6.1515 0.5512 2.3718
-6.1588 0.3294 2.3718
-6.1582 0.1078 2.3718
-6.1497 -0.1134 2.3718
-6.1333 -0.3338 2.3718
-6.1091 -0.5533 2.3718
-6.0771 -0.7716 2.3718
-6.0375 -0.9883 2.3718
-5.9902 -1.2032 2.3718
-5.9354 -1.4161 2.3718
-5.8731 -1.6266 2.3718
-5.8036 -1.8346 2.3718
-5.7268 -2.0397 2.3718
-5.6428 -2.2419 2.3718
-5.5519 -2.4407 2.3718
-5.4542 -2.6360 2.3718
-5.3497 -2.8275 2.3718
-5.2387 -3.0150 2.3718
-5.1213 -3.1984 2.3718
-4.9976 -3.3773 2.3718
-4.8678 -3.5517 2.3718
-4.7322 -3.7212 2.3718
-4.5907 -3.8858 2.3718
-4.4437 -4.0451 2.3718
-5.6973 -0.6953 2.3718
-5.6615 -0.8985 2.3718
-5.6185 -1.1002 2.3718
-5.5684 -1.3000 2.3718
-5.5113 -1.4977 2.3718
-5.4474 -1.6930 2.3718
-5.3766 -1.8858 2.3718
-5.2991 -2.0757 2.3718
-5.2151 -2.2626 2.3718
-5.1246 -2.4462 2.3718
-5.0278 -2.6264 2.3718
-4.9247 -2.8029 2.3718
-4.8157 -2.9755 2.3718
-4.7007 -3.1440 2.3718
-4.5800 -3.3082 2.3718
-4.4537 -3.4679 2.3718
-4.3219 -3.6230 2.3718
-4.1849 -3.7733 2.3718
-4.0429 -3.9185 2.3718
-3.8959 -4.0586 2.3718
-3.7442 -4.1934 2.3718
-3.5880 -4.3227 2.3718
-3.4275 -4.4464 2.3718
-3.2628 -4.5643 2.3718
-3.0942 -4.6764 2.3718
-2.9219 -4.7825 2.3718
-2.7461 -4.8824 2.3718
-2.5669 -4.9761 2.3718
-2.3847 -5.0635 2.3718
-2.1996 -5.1444 2.3718
-2.0118 -5.2188 2.3718
-1.8216 -5.2866 2.3718
-1.6292 -5.3478 2.3718
-1.4348 -5.4021 2.3718
-1.2387 -5.4497 2.3718
-1.0411 -5.4904 2.3718
-0.8421 -5.5242 2.3718
-0.6422 -5.5511 2.3718
-0.4414 -5.5710 2.3718
-0.2400 -5.5839 2.3718
-0.0382 -5.5897 2.3718
0.1636 -5.5886 2.3718
0.3653 -5.5804 2.3718
0.5667 -5.5652 2.3718
0.7675 -5.5429 2.3718
0.9674 -5.5137 2.3718
1.1663 -5.4775 2.3718
1.3638 -5.4344 2.3718
1.5598 -5.3844 2.3718
1.7541 -5.3275 2.3718
1.9463 -5.2639 2.3718
2.1363 -5.1935 2.3718
2.3238 -5.1166 2.3718
2.5087 -5.0330 2.3718
2.6906 -4.9430 2.3718
2.8694 -4.8466 2.3718
3.0448 -4.7439 2.3718
3.2166 -4.6351 2.3718
3.3846 -4.5202 2.3718
3.5487 -4.3994 2.3718
3.7085 -4.2728 2.3718
3.8639 -4.1405 2.3718
4.0147 -4.0028 2.3718
4.1606 -3.8596 2.3718
4.3016 -3.7113 2.3718
4.4374 -3.5580 2.3718
4.5678 -3.3998 2.3718
4.6926 -3.2369 2.3718
4.8118 -3.0696 2.3718
4.9250 -2.8979 2.3718
5.0322 -2.7222 2.3718
5.1333 -2.5426 2.3718
5.2279 -2.3593 2.3718
5.3161 -2.1725 2.3718
5.3977 -1.9825 2.3718
5.4725 -1.7896 2.3718
5.5405 -1.5938 2.3718
5.6016 -1.3956 2.3718
5.6555 -1.1950 2.3718
5.7023 -0.9924 2.3718
5.7418 -0.7881 2.3718
5.7741 -0.5822 2.3718
5.7989 -0.3750 2.3718
5.8163 -0.1669 2.3718
5.8262 0.0420 2.3718
5.8286 0.2513 2.3718
5.8235 0.4608 2.3718
5.8107 0.6702 2.3718
5.7904 0.8792 2.3718
5.7624 1.0876 2.3718
5.7269 1.2951 2.3718
5.6839 1.5014 2.3718
5.6333 1.7061 2.3718
5.5753 1.9091 2.3718
5.5099 2.1101 2.3718
5.4371 2.3088 2.3718
5.3570 2.5048 2.3718
5.2697 2.6980 2.3718
5.1754 2.8880 2.3718
5.0741 3.0747 2.3718
4.9659 3.2576 2.3718
4.8510 3.4366 2.3718
4.7295 3.6115 2.3718
4.6015 3.7819 2.3718
4.4673 3.9476 2.3718
4.3270 4.1083 2.3718
4.1808 4.2639 2.3718
4.0288 4.4141 2.3718
3.8712 4.5587 2.3718
3.7084 4.6975 2.3718
3.5404 4.8302 2.3718
3.3676 4.9568 2.3718
3.1902 5.0769 2.3718
3.0083 5.1904 2.3718
2.8223 5.2972 2.3718
2.6323 5.3970 2.3718
2.4388 5.4898 2.3718
0.8662 2.1542 0.9164
0.7888 2.1841 0.9163
0.7104 2.2111 0.9162
0.6310 2.2354 0.9161
0.5508 2.2567 0.9160
0.4699 2.2752 0.9160
0.3883 2.2907 0.9160
0.3063 2.3033 0.9161
0.2238 2.3129 0.9162
0.1410 2.3195 0.9163
0.0581 2.3231 0.9165
-0.0250 2.3238 0.9166
-0.1080 2.3214 0.9168
-0.1908 2.3160 0.9171
-0.2734 2.3077 0.9174
-0.3557 2.2963 0.9177
-0.4375 2.2821 0.9180
-0.5187 2.2648 0.9184
-0.5993 2.2447 0.9188
-0.6791 2.2216 0.9192
-0.7580 2.1957 0.9197
-0.8359 2.1669 0.9201
-2.3513 5.5013 2.3718
-2.5446 5.4098 2.3718
-2.7343 5.3113 2.3718
-2.9202 5.2060 2.3718
-3.1019 5.0940 2.3718
-3.2792 4.9754 2.3718
-3.4519 4.8505 2.3718
-3.6198 4.7194 2.3718
-3.7826 4.5824 2.3718
-3.9402 4.4396 2.3718
-4.0923 4.2913 2.3718
-4.2387 4.1376 2.3718
-4.3793 3.9788 2.3718
-4.5139 3.8152 2.3718
-4.6423 3.6469 2.3718
-4.7643 3.4742 2.3718
-4.8799 3.2974 2.3718
-4.9888 3.1166 2.3718
-5.0910 2.9323 2.3718
-5.1864 2.7445 2.3718
-5.2747 2.5536 2.3718
-5.3560 2.3598 2.3718
-5.4302 2.1635 2.3718
-5.4972 1.9648 2.3718
-5.5568 1.7640 2.3718
-5.6092 1.5614 2.3718
-5.6541 1.3573 2.3718
-5.6916 1.1520 2.3718
-5.7218 0.9457 2.3718
-5.7444 0.7386 2.3718
-5.7596 0.5312 2.3718
-5.7674 0.3235 2.3718
-5.7677 0.1160 2.3718
-5.7606 -0.0912 2.3718
-5.7461 -0.2978 2.3718
-5.7243 -0.5035 2.3718
-5.6953 -0.7081 2.3718
-5.6590 -0.9113 2.3718
-5.6155 -1.1128 2.3718
-5.5650 -1.3125 2.3718
-5.5075 -1.5101 2.3718
-5.4431 -1.7053 2.3718
-5.3719 -1.8978 2.3718
-5.2940 -2.0876 2.3718
-5.2096 -2.2743 2.3718
-5.1187 -2.4577 2.3718
-5.0215 -2.6376 2.3718
-4.9180 -2.8139 2.3718
-4.8086 -2.9862 2.3718
-4.6932 -3.1544 2.3718
-4.5722 -3.3184 2.3718
-4.4455 -3.4778 2.3718
-4.3134 -3.6326 2.3718
-4.1761 -3.7826 2.3718
-4.0337 -3.9275 2.3718
-3.8865 -4.0673 2.3718
-3.7345 -4.2017 2.3718
-3.5780 -4.3307 2.3718
-3.4172 -4.4540 2.3718
-3.2523 -4.5716 2.3718
-3.0835 -4.6833 2.3718
-2.9109 -4.7889 2.3718
-2.7349 -4.8885 2.3718
-2.5555 -4.9818 2.3718
-2.3731 -5.0688 2.3718
-2.1878 -5.1493 2.3718
-1.9999 -5.2233 2.3718
-1.8096 -5.2907 2.3718
-1.6170 -5.3514 2.3718
-1.4225 -5.4053 2.3718
-1.2263 -5.4525 2.3718
-1.0286 -5.4928 2.3718
-0.8296 -5.5261 2.3718
-0.6295 -5.5526 2.3718
-0.4287 -5.5720 2.3718
-0.2273 -5.5844 2.3718
-0.0255 -5.5899 2.3718
0.1763 -5.5883 2.3718
0.3780 -5.5796 2.3718
0.5794 -5.5639 2.3718
0.7801 -5.5413 2.3718
0.9800 -5.5116 2.3718
1.1787 -5.4750 2.3718
1.3762 -5.4314 2.3718
1.5721 -5.3810 2.3718
1.7662 -5.3237 2.3718
1.9583 -5.2597 2.3718
2.1482 -5.1889 2.3718
2.3356 -5.1115 2.3718
2.5202 -5.0275 2.3718
2.7019 -4.9371 2.3718
2.8805 -4.8403 2.3718
3.0557 -4.7373 2.3718
3.2273 -4.6280 2.3718
3.3951 -4.5128 2.3718
3.5589 -4.3916 2.3718
3.7184 -4.2646 2.3718
3.8735 -4.1320 2.3718
4.0240 -3.9939 2.3718
4.1697 -3.8504 2.3718
4.3103 -3.7018 2.3718
4.4458 -3.5481 2.3718
4.5758 -3.3897 2.3718
4.7003 -3.2265 2.3718
4.8191 -3.0589 2.3718
4.9320 -2.8870 2.3718
5.0388 -2.7110 2.3718
5.1394 -2.5311 2.3718
5.2337 -2.3476 2.3718
5.3215 -2.1606 2.3718
5.4026 -1.9705 2.3718
5.4770 -1.7773 2.3718
5.5446 -1.5814 2.3718
5.6052 -1.3830 2.3718
5.6587 -1.1823 2.3718
5.7050 -0.9796 2.3718
5.7441 -0.7751 2.3718
5.7759 -0.5692 2.3718
5.8002 -0.3620 2.3718
5.8172 -0.1538 2.3718
5.8266 0.0551 2.3718
5.8285 0.2645 2.3718
5.8229 0.4740 2.3718
5.8096 0.6834 2.3718
5.7888 0.8924 2.3718
5.7604 1.1007 2.3718
5.7245 1.3081 2.3718
5.6809 1.5143 2.3718
5.6299 1.7190 2.3718
5.5714 1.9219 2.3718
5.5055 2.1227 2.3718
5.4323 2.3212 2.3718
5.3517 2.5171 2.3718
5.2640 2.7101 2.3718
5.1692 2.8999 2.3718
5.0675 3.0863 2.3718
4.9589 3.2690 2.3718
4.8435 3.4478 2.3718
4.7216 3.6223 2.3718
4.5933 3.7924 2.3718
4.4587 3.9578 2.3718
4.3180 4.1183 2.3718
4.1713 4.2735 2.3718
4.0190 4.4234 2.3718
3.8611 4.5676 2.3718
3.6980 4.7060 2.3718
3.5297 4.8384 2.3718
3.3566 4.9645 2.3718
3.1788 5.0842 2.3718
2.9967 5.1973 2.3718
2.8104 5.3037 2.3718
2.6202 5.4030 2.3718
2.4265 5.4954 2.3718
0.8614 2.1561 0.9164
0.7839 2.1859 0.9163
0.7054 2.2128 0.9162
0.6260 2.2368 0.9161
0.5457 2.2580 0.9160
0.4647 2.2763 0.9160
0.3832 2.2916 0.9160
0.3011 2.3040 0.9161
0.2186 2.3134 0.9162
0.1358 2.3198 0.9163
0.0528 2.3233 0.9165
-0.0302 2.3237 0.9166
-0.1132 2.3211 0.9169
-0.1960 2.3156 0.9171
-0.2786 2.3070 0.9174
-0.3609 2.2955 0.9177
-0.4426 2.2811 0.9180
-0.5238 2.2636 0.9184
-0.6044 2.2433 0.9188
-0.6841 2.2201 0.9192
-0.7629 2.1940 0.9197
-0.8407 2.1650 0.9202
-2.3636 5.4958 2.3718
-2.5567 5.4038 2.3718
-2.7462 5.3049 2.3718
-2.9317 5.1991 2.3718
-3.1132 5.0867 2.3718
-3.2902 4.9677 2.3718
-3.4626 4.8424 2.3718
-3.6302 4.7109 2.3718
-3.7927 4.5736 2.3718
-3.9499 4.4304 2.3718
-4.1017 4.2817 2.3718
-4.2478 4.1277 2.3718
-4.3880 3.9687 2.3718
-4.5222 3.8047 2.3718
-4.6502 3.6361 2.3718
-4.7718 3.4632 2.3718
-4.8869 3.2861 2.3718
-4.9955 3.1051 2.3718
-5.0972 2.9205 2.3718
-5.1921 2.7325 2.3718
-5.2801 2.5415 2.3718
-5.3609 2.3475 2.3718
-5.4346 2.1510 2.3718
-5.5011 1.9521 2.3718
-5.5603 1.7513 2.3718
-5.6122 1.5486 2.3718
-5.6567 1.3444 2.3718
-5.6938 1.1390 2.3718
-5.7234 0.9327 2.3718
-5.7456 0.7256 2.3718
-5.7603 0.5181 2.3718
-5.7676 0.3105 2.3718
-5.7675 0.1029 2.3718
-5.7599 -0.1043 2.3718
-5.7450 -0.3108 2.3718
-5.7227 -0.5165 2.3718
-5.6932 -0.7210 2.3718
-5.6564 -0.9240 2.3718
-5.6126 -1.1255 2.3718
-5.5616 -1.3250 2.3718
-5.5037 -1.5224 2.3718
-5.4388 -1.7175 2.3718
-5.3672 -1.9099 2.3718
-5.2889 -2.0994 2.3718
-5.2040 -2.2859 2.3718
-5.1127 -2.4692 2.3718
-5.0151 -2.6489 2.3718
-4.9113 -2.8249 2.3718
-4.8015 -2.9969 2.3718
-4.6858 -3.1649 2.3718
-4.5643 -3.3286 2.3718
-4.4373 -3.4877 2.3718
-4.3049 -3.6422 2.3718
-4.1673 -3.7918 2.3718
-5.3528 -0.6514 2.3718
-5.3195 -0.8425 2.3718
-5.2794 -1.0320 2.3718
-5.2327 -1.2198 2.3718
-5.1794 -1.4057 2.3718
-5.1196 -1.5894 2.3718
-5.0534 -1.7707 2.3718
-4.9808 -1.9493 2.3718
-4.9021 -2.1251 2.3718
-4.8173 -2.2979 2.3718
-4.7266 -2.4674 2.3718
-4.6299 -2.6334 2.3718
-4.5276 -2.7958 2.3718
-4.4197 -2.9544 2.3718
-4.3064 -3.1090 2.3718
-4.1878 -3.2593 2.3718
-4.0641 -3.4053 2.3718
-3.9355 -3.5468 2.3718
-3.8020 -3.6836 2.3718
-3.6640 -3.8155 2.3718
-3.5214 -3.9424 2.3718
-3.3746 -4.0641 2.3718
-3.2237 -4.1806 2.3718
-3.0689 -4.2917 2.3718
-2.9104 -4.3972 2.3718
-2.7484 -4.4971 2.3718
-2.5831 -4.5913 2.3718
-2.4146 -4.6795 2.3718
-2.2432 -4.7618 2.3718
-2.0691 -4.8380 2.3718
-1.8925 -4.9081 2.3718
-1.7136 -4.9720 2.3718
-1.5326 -5.0296 2.3718
-1.3497 -5.0808 2.3718
-1.1652 -5.1256 2.3718
-0.9793 -5.1639 2.3718
-0.7921 -5.1957 2.3718
-0.6039 -5.2210 2.3718
-0.4150 -5.2397 2.3718
-0.2255 -5.2518 2.3718
-0.0357 -5.2572 2.3718
0.1542 -5.2561 2.3718
0.3440 -5.2483 2.3718
0.5334 -5.2339 2.3718
0.7223 -5.2129 2.3718
0.9104 -5.1853 2.3718
1.0974 -5.1512 2.3718
1.2832 -5.1105 2.3718
1.4676 -5.0633 2.3718
1.6503 -5.0097 2.3718
1.8310 -4.9497 2.3718
2.0097 -4.8833 2.3718
2.1860 -4.8108 2.3718
2.3598 -4.7320 2.3718
2.5308 -4.6472 2.3718
2.6988 -4.5563 2.3718
2.8637 -4.4596 2.3718
3.0251 -4.3570 2.3718
3.1830 -4.2488 2.3718
3.3371 -4.1350 2.3718
3.4872 -4.0157 2.3718
3.6331 -3.8912 2.3718
3.7747 -3.7614 2.3718
3.9117 -3.6267 2.3718
4.0440 -3.4871 2.3718
4.1715 -3.3427 2.3718
4.2938 -3.1938 2.3718
4.4109 -3.0406 2.3718
4.5226 -2.8831 2.3718
4.6287 -2.7216 2.3718
4.7292 -2.5563 2.3718
4.8238 -2.3873 2.3718
4.9125 -2.2149 2.3718
4.9950 -2.0393 2.3718
5.0713 -1.8607 2.3718
5.1413 -1.6793 2.3718
5.2048 -1.4953 2.3718
5.2617 -1.3090 2.3718
5.3121 -1.1205 2.3718
5.3557 -0.9302 2.3718
5.3924 -0.7382 2.3718
5.4223 -0.5448 2.3718
5.4453 -0.3503 2.3718
5.4613 -0.1549 2.3718
5.4702 0.0413 2.3718
5.4720 0.2378 2.3718
5.4668 0.4344 2.3718
5.4544 0.6309 2.3718
5.4350 0.8271 2.3718
5.4084 1.0226 2.3718
5.3748 1.2173 2.3718
5.3340 1.4107 2.3718
5.2862 1.6028 2.3718
5.2314 1.7932 2.3718
5.1697 1.9816 2.3718
5.1011 2.1679 2.3718
5.0257 2.3516 2.3718
4.9435 2.5327 2.3718
4.8548 2.7108 2.3718
4.7594 2.8857 2.3718
4.6577 3.0572 2.3718
4.5497 3.2249 2.3718
4.4355 3.3887 2.3718
4.3153 3.5483 2.3718
4.1893 3.7035 2.3718
4.0575 3.8541 2.3718
3.9202 3.9998 2.3718
3.7775 4.1405 2.3718
3.6297 4.2759 2.3718
3.4769 4.4058 2.3718
3.3193 4.5301 2.3718
3.1572 4.6485 2.3718
2.9907 4.7610 2.3718
2.8202 4.8673 2.3718
2.6457 4.9672 2.3718
2.4676 5.0607 2.3718
0.8849 1.9925 0.9181
0.8133 2.0232 0.9179
0.7406 2.0512 0.9178
0.6670 2.0766 0.9177
0.5925 2.0994 0.9176
0.5172 2.1194 0.9176
0.4412 2.1367 0.9176
0.3647 2.1513 0.9176
0.2876 2.1631 0.9176
0.2102 2.1721 0.9177
0.1325 2.1783 0.9178
0.0546 2.1817 0.9180
-0.0233 2.1823 0.9181
-0.1012 2.1800 0.9183
-0.1790 2.1750 0.9186
-0.2566 2.1672 0.9188
-0.3338 2.1565 0.9191
-0.4106 2.1431 0.9194
-0.4869 2.1269 0.9198
-0.5625 2.1080 0.9201
-0.6374 2.0864 0.9205
-0.7115 2.0620 0.9210
-0.7846 2.0350 0.9214
-0.8567 2.0054 0.9219
-2.3855 5.0739 2.3718
-2.5634 4.9818 2.3718
-2.7378 4.8832 2.3718
-2.9083 4.7784 2.3718
-3.0747 4.6674 2.3718
-3.2368 4.5505 2.3718
-3.3944 4.4278 2.3718
-3.5473 4.2995 2.3718
-3.6953 4.1658 2.3718
-3.8382 4.0269 2.3718
-3.9757 3.8830 2.3718
-4.1078 3.7343 2.3718
-4.2343 3.5810 2.3718
-4.3551 3.4234 2.3718
-4.4698 3.2615 2.3718
-4.5786 3.0958 2.3718
-4.6811 2.9264 2.3718
-4.7773 2.7536 2.3718
-4.8671 2.5775 2.3718
-4.9503 2.3985 2.3718
-5.0270 2.2168 2.3718
-5.0970 2.0326 2.3718
-5.1602 1.8463 2.3718
-5.2165 1.6579 2.3718
-5.2660 1.4678 2.3718
-5.3086 1.2763 2.3718
-5.3442 1.0836 2.3718
-5.3729 0.8899 2.3718
-5.3945 0.6955 2.3718
-5.4092 0.5007 2.3718
-5.4168 0.3057 2.3718
-5.4175 0.1108 2.3718
-5.4112 -0.0839 2.3718
-5.3980 -0.2779 2.3718
-5.3778 -0.4712 2.3718
-5.3509 -0.6635 2.3718
-5.3171 -0.8545 2.3718
-5.2767 -1.0439 2.3718
-5.2295 -1.2316 2.3718
-5.1758 -1.4174 2.3718
-5.1156 -1.6009 2.3718
-5.0490 -1.7820 2.3718
-4.9761 -1.9605 2.3718
-4.8970 -2.1361 2.3718
-4.8118 -2.3087 2.3718
-4.7206 -2.4780 2.3718
-4.6237 -2.6438 2.3718
-4.5210 -2.8060 2.3718
-4.4128 -2.9643 2.3718
-4.2991 -3.1186 2.3718
-4.1802 -3.2687 2.3718
-4.0562 -3.4144 2.3718
-3.9272 -3.5556 2.3718
-3.7935 -3.6920 2.3718
-3.6551 -3.8236 2.3718
-3.5123 -3.9502 2.3718
-3.3652 -4.0716 2.3718
-3.2141 -4.1878 2.3718
-3.0591 -4.2985 2.3718
-2.9003 -4.4037 2.3718
-2.7381 -4.5032 2.3718
-2.5725 -4.5970 2.3718
-2.4039 -4.6849 2.3718
-2.2323 -4.7668 2.3718
-2.0580 -4.8426 2.3718
-1.8813 -4.9123 2.3718
-1.7022 -4.9758 2.3718
-1.5211 -5.0330 2.3718
-1.3381 -5.0838 2.3718
-1.1535 -5.1282 2.3718
-0.9675 -5.1661 2.3718
-0.7803 -5.1975 2.3718
-0.5920 -5.2223 2.3718
-0.4031 -5.2406 2.3718
-0.2136 -5.2523 2.3718
-0.0237 -5.2574 2.3718
0.1661 -5.2558 2.3718
0.3559 -5.2476 2.3718
0.5453 -5.2328 2.3718
0.7342 -5.2114 2.3718
0.9222 -5.1834 2.3718
1.1092 -5.1488 2.3718
1.2949 -5.1077 2.3718
1.4792 -5.0601 2.3718
1.6617 -5.0061 2.3718
1.8424 -4.9457 2.3718
2.0209 -4.8790 2.3718
2.1971 -4.8060 2.3718
2.3706 -4.7268 2.3718
2.5415 -4.6416 2.3718
2.7093 -4.5504 2.3718
2.8739 -4.4533 2.3718
3.0352 -4.3504 2.3718
3.1928 -4.2418 2.3718
3.3467 -4.1276 2.3718
3.4965 -4.0080 2.3718
3.6422 -3.8832 2.3718
3.7835 -3.7531 2.3718
3.9202 -3.6180 2.3718
4.0522 -3.4781 2.3718
4.1793 -3.3335 2.3718
4.3013 -3.1843 2.3718
4.4181 -3.0307 2.3718
4.5294 -2.8730 2.3718
4.6352 -2.7113 2.3718
4.7353 -2.5457 2.3718
4.8296 -2.3766 2.3718
4.9178 -2.2040 2.3718
5.0000 -2.0282 2.3718
5.0759 -1.8494 2.3718
5.1455 -1.6678 2.3718
5.2086 -1.4836 2.3718
5.2651 -1.2972 2.3718
5.3150 -1.1086 2.3718
5.3582 -0.9181 2.3718
5.3945 -0.7261 2.3718
5.4240 -0.5326 2.3718
5.4465 -0.3380 2.3718
5.4620 -0.1425 2.3718
5.4705 0.0536 2.3718
5.4719 0.2501 2.3718
5.4662 0.4468 2.3718
5.4534 0.6433 2.3718
5.4335 0.8394 2.3718
5.4065 1.0349 2.3718
5.3724 1.2295 2.3718
5.3312 1.4229 2.3718
5.2830 1.6148 2.3718
5.2278 1.8051 2.3718
5.1656 1.9934 2.3718
5.0966 2.1795 2.3718
5.0207 2.3631 2.3718
4.9381 2.5440 2.3718
4.8489 2.7220 2.3718
4.7532 2.8966 2.3718
4.6511 3.0678 2.3718
4.5427 3.2353 2.3718
4.4281 3.3989 2.3718
4.3075 3.5582 2.3718
4.1811 3.7131 2.3718
4.0490 3.8634 2.3718
3.9114 4.0088 2.3718
3.7683 4.1492 2.3718
3.6202 4.2842 2.3718
3.4671 4.4138 2.3718
3.3092 4.5377 2.3718
3.1468 4.6558 2.3718
2.9801 4.7679 2.3718
2.8093 4.8738 2.3718
2.6346 4.9733 2.3718
2.4563 5.0663 2.3718
0.8805 1.9945 0.9181
0.8088 2.0250 0.9179
0.7360 2.0529 0.9178
0.6623 2.0781 0.9177
0.5878 2.1007 0.9176
0.5124 2.1206 0.9176
0.4364 2.1377 0.9176
0.3598 2.1521 0.9176
0.2827 2.1637 0.9176
0.2053 2.1726 0.9177
0.1276 2.1786 0.9178
0.0497 2.1818 0.9180
-0.0282 2.1822 0.9181
-0.1062 2.1798 0.9183
-0.1839 2.1746 0.9186
-0.2615 2.1666 0.9188
-0.3387 2.1558 0.9191
-0.4154 2.1422 0.9194
-0.4917 2.1258 0.9198
-0.5673 2.1067 0.9202
-0.6421 2.0849 0.9206
-0.7161 2.0604 0.9210
-0.7892 2.0333 0.9215
-0.8612 2.0035 0.9219
-2.3968 5.0683 2.3718
-2.5745 4.9757 2.3718
-2.7486 4.8768 2.3718
-2.9189 4.7715 2.3718
-3.0850 4.6602 2.3718
-3.2469 4.5429 2.3718
-3.4042 4.4199 2.3718
-3.5568 4.2913 2.3718
-3.7044 4.1572 2.3718
-3.8470 4.0180 2.3718
-3.9842 3.8738 2.3718
-4.1160 3.7248 2.3718
-4.2421 3.5712 2.3718
-4.3625 3.4133 2.3718
-4.4769 3.2512 2.3718
-4.5852 3.0853 2.3718
-4.6873 2.9156 2.3718
-4.7831 2.7426 2.3718
-4.8725 2.5663 2.3718
-4.9554 2.3872 2.3718
-5.0316 2.2053 2.3718
-5.1011 2.0210 2.3718
-5.1639 1.8344 2.3718
-5.2199 1.6460 2.3718
-5.2689 1.4558 2.3718
-5.3110 1.2642 2.3718
-5.3462 1.0714 2.3718
-5.3744 0.8777 2.3718
-5.3956 0.6833 2.3718
-5.4098 0.4884 2.3718
-5.4171 0.2934 2.3718
-5.4173 0.0985 2.3718
-5.4106 -0.0961 2.3718
-5.3969 -0.2902 2.3718
-5.3764 -0.4834 2.3718
-5.3490 -0.6756 2.3718
-5.3148 -0.8664 2.3718
-5.2739 -1.0558 2.3718
-5.2263 -1.2434 2.3718
-5.1722 -1.4290 2.3718
-5.1116 -1.6124 2.3718
-5.0446 -1.7933 2.3718
-4.9713 -1.9716 2.3718
-4.8918 -2.1471 2.3718
-4.8062 -2.3194 2.3718
-4.7147 -2.4885 2.3718
-4.6174 -2.6541 2.3718
-4.5143 -2.8160 2.3718
-4.4058 -2.9741 2.3718
-4.2918 -3.1282 2.3718
-4.1725 -3.2780 2.3718
-4.0482 -3.4234 2.3718
-3.9189 -3.5643 2.3718
-5.0418 -0.6118 2.3718
-5.0107 -0.7918 2.3718
-4.9733 -0.9705 2.3718
-4.9295 -1.1475 2.3718
-4.8796 -1.3227 2.3718
-4.8235 -1.4958 2.3718
-4.7614 -1.6667 2.3718
-4.6933 -1.8351 2.3718
-4.6194 -2.0009 2.3718
-4.5397 -2.1638 2.3718
-4.4544 -2.3237 2.3718
-4.3635 -2.4803 2.3718
-4.2673 -2.6335 2.3718
-4.1658 -2.7831 2.3718
-4.0592 -2.9289 2.3718
-3.9476 -3.0708 2.3718
-3.8311 -3.2085 2.3718
-3.7099 -3.3420 2.3718
-3.5843 -3.4711 2.3718
-3.4542 -3.5956 2.3718
-3.3199 -3.7153 2.3718
-3.1816 -3.8303 2.3718
-3.0394 -3.9402 2.3718
-2.8936 -4.0451 2.3718
-2.7442 -4.1447 2.3718
-2.5915 -4.2390 2.3718
-2.4356 -4.3279 2.3718
-2.2768 -4.4112 2.3718
-2.1152 -4.4889 2.3718
-1.9510 -4.5608 2.3718
-1.7845 -4.6270 2.3718
-1.6158 -4.6873 2.3718
-1.4451 -4.7416 2.3718
-1.2727 -4.7899 2.3718
-1.0986 -4.8322 2.3718
-0.9233 -4.8684 2.3718
-0.7468 -4.8984 2.3718
-0.5693 -4.9222 2.3718
-0.3911 -4.9398 2.3718
-0.2124 -4.9512 2.3718
-0.0334 -4.9564 2.3718
0.1457 -4.9552 2.3718
0.3246 -4.9478 2.3718
0.5033 -4.9342 2.3718
0.6814 -4.9143 2.3718
0.8587 -4.8882 2.3718
1.0351 -4.8559 2.3718
1.2103 -4.8174 2.3718
1.3842 -4.7728 2.3718
1.5564 -4.7221 2.3718
1.7268 -4.6654 2.3718
1.8952 -4.6028 2.3718
2.0614 -4.5342 2.3718
2.2251 -4.4598 2.3718
2.3863 -4.3797 2.3718
2.5446 -4.2938 2.3718
2.6999 -4.2025 2.3718
2.8520 -4.1056 2.3718
3.0008 -4.0034 2.3718
3.1459 -3.8960 2.3718
3.2872 -3.7834 2.3718
3.4246 -3.6658 2.3718
3.5579 -3.5434 2.3718
3.6868 -3.4162 2.3718
3.8113 -3.2845 2.3718
3.9312 -3.1483 2.3718
4.0463 -3.0078 2.3718
4.1564 -2.8632 2.3718
4.2614 -2.7147 2.3718
4.3612 -2.5624 2.3718
4.4556 -2.4065 2.3718
4.5445 -2.2472 2.3718
4.6277 -2.0847 2.3718
4.7052 -1.9191 2.3718
4.7768 -1.7508 2.3718
4.8424 -1.5798 2.3718
4.9019 -1.4065 2.3718
4.9552 -1.2309 2.3718
5.0023 -1.0534 2.3718
5.0430 -0.8741 2.3718
5.0774 -0.6933 2.3718
5.1052 -0.5112 2.3718
5.1265 -0.3280 2.3718
5.1412 -0.1440 2.3718
5.1493 0.0406 2.3718
5.1507 0.2256 2.3718
5.1455 0.4106 2.3718
5.1335 0.5956 2.3718
5.1149 0.7801 2.3718
5.0896 0.9641 2.3718
5.0576 1.1472 2.3718
5.0190 1.3291 2.3718
4.9737 1.5098 2.3718
4.9219 1.6888 2.3718
4.8635 1.8660 2.3718
4.7987 2.0411 2.3718
4.7275 2.2138 2.3718
4.6500 2.3840 2.3718
4.5663 2.5514 2.3718
4.4764 2.7158 2.3718
4.3805 2.8769 2.3718
4.2787 3.0345 2.3718
4.1712 3.1883 2.3718
4.0579 3.3383 2.3718
3.9392 3.4840 2.3718
3.8152 3.6255 2.3718
3.6859 3.7623 2.3718
3.5517 3.8944 2.3718
3.4126 4.0216 2.3718
3.2688 4.1436 2.3718
3.1206 4.2603 2.3718
2.9681 4.3715 2.3718
2.8115 4.4771 2.3718
2.6511 4.5769 2.3718
2.4871 4.6707 2.3718
0.8994 1.8450 0.9196
0.8331 1.8762 0.9194
0.7657 1.9051 0.9193
0.6973 1.9315 0.9192
0.6279 1.9554 0.9191
0.5578 1.9768 0.9190
0.4869 1.9956 0.9190
0.4154 2.0119 0.9189
0.3433 2.0256 0.9190
0.2708 2.0367 0.9190
0.1980 2.0452 0.9191
0.1248 2.0510 0.9192
0.0515 2.0542 0.9193
-0.0218 2.0548 0.9195
-0.0952 2.0527 0.9197
-0.1684 2.0479 0.9199
-0.2414 2.0405 0.9201
-0.3141 2.0305 0.9204
-0.3864 2.0179 0.9207
-0.4582 2.0026 0.9210
-0.5294 1.9848 0.9214
-0.5999 1.9645 0.9218
-0.6696 1.9416 0.9222
-0.7384 1.9162 0.9226
-0.8063 1.8883 0.9230
-0.8731 1.8580 0.9235
-2.4098 4.6855 2.3718
-2.5738 4.5930 2.3718
-2.7342 4.4946 2.3718
-2.8908 4.3905 2.3718
-3.0434 4.2807 2.3718
-3.1917 4.1656 2.3718
-3.3357 4.0451 2.3718
-3.4750 3.9196 2.3718
-3.6095 3.7891 2.3718
-3.7391 3.6540 2.3718
-3.8636 3.5143 2.3718
-3.9828 3.3703 2.3718
-4.0966 3.2222 2.3718
-4.2048 3.0701 2.3718
-4.3073 2.9144 2.3718
-4.4040 2.7552 2.3718
-4.4948 2.5927 2.3718
-4.5795 2.4272 2.3718
-4.6582 2.2589 2.3718
-4.7306 2.0880 2.3718
-4.7967 1.9148 2.3718
-4.8565 1.7395 2.3718
-4.9099 1.5623 2.3718
-4.9568 1.3835 2.3718
-4.9971 1.2033 2.3718
-5.0310 1.0219 2.3718
-5.0583 0.8396 2.3718
-5.0790 0.6567 2.3718
-5.0931 0.4733 2.3718
-5.1006 0.2897 2.3718
-5.1015 0.1061 2.3718
-5.0959 -0.0772 2.3718
-5.0838 -0.2600 2.3718
-5.0651 -0.4421 2.3718
-5.0400 -0.6232 2.3718
-5.0085 -0.8032 2.3718
-4.9707 -0.9817 2.3718
-4.9266 -1.1586 2.3718
-4.8762 -1.3336 2.3718
-4.8198 -1.5067 2.3718
-4.7573 -1.6774 2.3718
-4.6888 -1.8457 2.3718
-4.6145 -2.0113 2.3718
-4.5345 -2.1740 2.3718
-4.4488 -2.3337 2.3718
-4.3576 -2.4901 2.3718
-4.2611 -2.6430 2.3718
-4.1592 -2.7924 2.3718
-4.0523 -2.9380 2.3718
-3.9404 -3.0796 2.3718
-3.8236 -3.2171 2.3718
-3.7022 -3.3503 2.3718
-3.5762 -3.4791 2.3718
-3.4459 -3.6033 2.3718
-3.3113 -3.7227 2.3718
-3.1728 -3.8374 2.3718
-3.0304 -3.9470 2.3718
-2.8843 -4.0515 2.3718
-2.7347 -4.1508 2.3718
-2.5817 -4.2448 2.3718
-2.4257 -4.3333 2.3718
-2.2667 -4.4162 2.3718
-2.1049 -4.4936 2.3718
-1.9406 -4.5652 2.3718
-1.7739 -4.6310 2.3718
-1.6051 -4.6909 2.3718
-1.4343 -4.7448 2.3718
-1.2617 -4.7928 2.3718
-1.0876 -4.8347 2.3718
-0.9122 -4.8705 2.3718
-0.7356 -4.9001 2.3718
-0.5581 -4.9235 2.3718
-0.3799 -4.9407 2.3718
-0.2012 -4.9517 2.3718
-0.0222 -4.9565 2.3718
0.1569 -4.9549 2.3718
0.3359 -4.9472 2.3718
0.5145 -4.9331 2.3718
0.6926 -4.9129 2.3718
0.8699 -4.8863 2.3718
1.0462 -4.8537 2.3718
1.2213 -4.8148 2.3718
1.3951 -4.7698 2.3718
1.5672 -4.7188 2.3718
1.7375 -4.6617 2.3718
1.9057 -4.5986 2.3718
2.0718 -4.5297 2.3718
2.2354 -4.4549 2.3718
2.3964 -4.3744 2.3718
2.5545 -4.2882 2.3718
2.7096 -4.1965 2.3718
2.8615 -4.0994 2.3718
3.0100 -3.9968 2.3718
3.1549 -3.8890 2.3718
3.2960 -3.7761 2.3718
3.4331 -3.6583 2.3718
3.5662 -3.5355 2.3718
3.6948 -3.4080 2.3718
3.8190 -3.2760 2.3718
3.9386 -3.1395 2.3718
4.0534 -2.9988 2.3718
4.1632 -2.8540 2.3718
4.2679 -2.7052 2.3718
4.3673 -2.5527 2.3718
4.4614 -2.3965 2.3718
4.5499 -2.2370 2.3718
4.6328 -2.0743 2.3718
4.7099 -1.9086 2.3718
4.7811 -1.7401 2.3718
4.8463 -1.5690 2.3718
4.9054 -1.3955 2.3718
4.9584 -1.2198 2.3718
5.0051 -1.0421 2.3718
5.0454 -0.8627 2.3718
5.0793 -0.6818 2.3718
5.1067 -0.4997 2.3718
5.1276 -0.3164 2.3718
5.1419 -0.1324 2.3718
5.1496 0.0523 2.3718
5.1506 0.2372 2.3718
5.1449 0.4223 2.3718
5.1325 0.6072 2.3718
5.1135 0.7917 2.3718
5.0878 0.9756 2.3718
5.0554 1.1587 2.3718
5.0163 1.3406 2.3718
4.9706 1.5211 2.3718
4.9184 1.7000 2.3718
4.8597 1.8771 2.3718
4.7944 2.0520 2.3718
4.7228 2.2246 2.3718
4.6449 2.3946 2.3718
4.5608 2.5619 2.3718
4.4705 2.7260 2.3718
4.3743 2.8869 2.3718
4.2721 3.0443 2.3718
4.1642 3.1979 2.3718
4.0506 3.3476 2.3718
3.9316 3.4931 2.3718
3.8072 3.6342 2.3718
3.6776 3.7708 2.3718
3.5431 3.9026 2.3718
3.4037 4.0294 2.3718
3.2596 4.1511 2.3718
3.1111 4.2675 2.3718
2.9583 4.3784 2.3718
2.8015 4.4836 2.3718
2.6409 4.5830 2.3718
2.4766 4.6764 2.3718
0.8952 1.8470 0.9196
0.8289 1.8781 0.9194
0.7614 1.9068 0.9193
0.6929 1.9331 0.9192
0.6235 1.9568 0.9191
0.5533 1.9780 0.9190
0.4824 1.9967 0.9190
0.4109 2.0129 0.9189
0.3388 2.0264 0.9190
0.2662 2.0373 0.9190
0.1933 2.0456 0.9191
0.1202 2.0513 0.9192
0.0469 2.0543 0.9193
-0.0265 2.0547 0.9195
-0.0998 2.0524 0.9197
-0.1730 2.0475 0.9199
-0.2460 2.0400 0.9201
-0.3187 2.0298 0.9204
-0.3909 2.0170 0.9207
-0.4627 2.0016 0.9210
-0.5338 1.9836 0.9214
-0.6043 1.9631 0.9218
-0.6739 1.9400 0.9222
-0.7427 1.9145 0.9226
-0.8105 1.8865 0.9231
-0.8773 1.8560 0.9235
-2.4202 4.6798 2.3718
-2.5840 4.5870 2.3718
-2.7442 4.4882 2.3718
-2.9005 4.3837 2.3718
-3.0529 4.2736 2.3718
-3.2009 4.1581 2.3718
-3.3446 4.0374 2.3718
-3.4836 3.9115 2.3718
-3.6178 3.7808 2.3718
-3.7471 3.6453 2.3718
-3.8712 3.5053 2.3718
-3.9901 3.3611 2.3718
-4.1035 3.2127 2.3718
-4.2114 3.0604 2.3718
-4.3136 2.9044 2.3718
-4.4099 2.7450 2.3718
-4.5003 2.5823 2.3718
-4.5847 2.4167 2.3718
-4.6629 2.2482 2.3718
-4.7349 2.0772 2.3718
-4.8007 1.9038 2.3718
-4.8600 1.7284 2.3718
-4.9130 1.5511 2.3718
-4.9595 1.3722 2.3718
-4.9995 1.1919 2.3718
-5.0329 1.0104 2.3718
-5.0598 0.8281 2.3718
-5.0801 0.6451 2.3718
-5.0937 0.4617 2.3718
-5.1009 0.2781 2.3718
-5.1014 0.0945 2.3718
-5.0954 -0.0888 2.3718
-5.0828 -0.2715 2.3718
-5.0638 -0.4535 2.3718
-5.0382 -0.6346 2.3718
-5.0064 -0.8144 2.3718
-4.9681 -0.9929 2.3718
-4.9236 -1.1697 2.3718
-4.8729 -1.3446 2.3718
-4.8160 -1.5175 2.3718
-4.7531 -1.6881 2.3718
-4.6843 -1.8562 2.3718
-4.6096 -2.0216 2.3718
-4.5292 -2.1841 2.3718
-4.4432 -2.3436 2.3718
-4.3517 -2.4998 2.3718
-4.2548 -2.6525 2.3718
-4.1526 -2.8017 2.3718
-4.0454 -2.9470 2.3718
-3.9331 -3.0884 2.3718
-3.8161 -3.2256 2.3718
-3.6944 -3.3585 2.3718
-4.7595 -0.5759 2.3718
-4.7304 -0.7459 2.3718
-4.6953 -0.9146 2.3718
-4.6542 -1.0818 2.3718
-4.6073 -1.2472 2.3718
-4.5545 -1.4108 2.3718
-4.4961 -1.5722 2.3718
-4.4320 -1.7314 2.3718
-4.3624 -1.8880 2.3718
-4.2874 -2.0420 2.3718
-4.2070 -2.1931 2.3718
-4.1214 -2.3411 2.3718
-4.0306 -2.4859 2.3718
-3.9349 -2.6273 2.3718
-3.8343 -2.7652 2.3718
-3.7290 -2.8993 2.3718
-3.6192 -3.0295 2.3718
-3.5048 -3.1558 2.3718
-3.3862 -3.2778 2.3718
-3.2634 -3.3955 2.3718
-3.1367 -3.5088 2.3718
-3.0061 -3.6175 2.3718
-2.8718 -3.7215 2.3718
-2.7340 -3.8207 2.3718
-2.5929 -3.9149 2.3718
-2.4487 -4.0041 2.3718
-2.3014 -4.0882 2.3718
-2.1514 -4.1670 2.3718
-1.9987 -4.2405 2.3718
-1.8436 -4.3086 2.3718
-1.6862 -4.3711 2.3718
-1.5268 -4.4282 2.3718
-1.3655 -4.4796 2.3718
-1.2025 -4.5253 2.3718
-1.0381 -4.5653 2.3718
-0.8724 -4.5994 2.3718
-0.7055 -4.6278 2.3718
-0.5378 -4.6503 2.3718
-0.3694 -4.6670 2.3718
-0.2005 -4.6777 2.3718
-0.0314 -4.6825 2.3718
0.1379 -4.6814 2.3718
0.3070 -4.6744 2.3718
0.4759 -4.6615 2.3718
0.6442 -4.6426 2.3718
0.8118 -4.6178 2.3718
0.9785 -4.5872 2.3718
1.1440 -4.5508 2.3718
1.3082 -4.5085 2.3718
1.4710 -4.4606 2.3718
1.6319 -4.4069 2.3718
1.7910 -4.3475 2.3718
1.9480 -4.2826 2.3718
2.1027 -4.2122 2.3718
2.2549 -4.1363 2.3718
2.4044 -4.0551 2.3718
2.5510 -3.9686 2.3718
2.6946 -3.8770 2.3718
2.8350 -3.7803 2.3718
2.9720 -3.6787 2.3718
3.1054 -3.5722 2.3718
3.2350 -3.4610 2.3718
3.3608 -3.3452 2.3718
3.4824 -3.2249 2.3718
3.5999 -3.1003 2.3718
3.7129 -2.9715 2.3718
3.8214 -2.8388 2.3718
3.9252 -2.7021 2.3718
4.0242 -2.5617 2.3718
4.1182 -2.4178 2.3718
4.2071 -2.2704 2.3718
4.2908 -2.1199 2.3718
4.3691 -1.9664 2.3718
4.4420 -1.8100 2.3718
4.5094 -1.6510 2.3718
4.5711 -1.4895 2.3718
4.6270 -1.3258 2.3718
4.6771 -1.1600 2.3718
4.7212 -0.9924 2.3718
4.7594 -0.8232 2.3718
4.7915 -0.6525 2.3718
4.8175 -0.4806 2.3718
4.8373 -0.3078 2.3718
4.8509 -0.1341 2.3718
4.8583 0.0400 2.3718
4.8594 0.2145 2.3718
4.8541 0.3891 2.3718
4.8426 0.5635 2.3718
4.8248 0.7376 2.3718
4.8006 0.9110 2.3718
4.7702 1.0836 2.3718
4.7335 1.2552 2.3718
4.6906 1.4255 2.3718
4.6415 1.5942 2.3718
4.5862 1.7612 2.3718
4.5249 1.9262 2.3718
4.4575 2.0890 2.3718
4.3842 2.2494 2.3718
4.3051 2.4071 2.3718
4.2202 2.5619 2.3718
4.1296 2.7136 2.3718
4.0335 2.8621 2.3718
3.9319 3.0070 2.3718
3.8250 3.1482 2.3718
3.7130 3.2855 2.3718
3.5959 3.4186 2.3718
3.4740 3.5475 2.3718
3.3474 3.6719 2.3718
