ply
format ascii 1.0
element vertex 2178
property float32 x
property float32 y
property float32 z
end_header
-2.0960 -6.1327 2.3947
-1.8722 -6.1930 2.3947
-1.6467 -6.2449 2.3947
-1.4198 -6.2883 2.3947
-1.1917 -6.3234 2.3947
-0.9629 -6.3500 2.3947
-0.7337 -6.3681 2.3947
-0.5043 -6.3778 2.3947
-0.2751 -6.3789 2.3946
-0.0464 -6.3708 2.3942
0.1815 -6.3557 2.3943
0.4083 -6.3332 2.3947
0.6337 -6.3015 2.3947
0.8574 -6.2617 2.3947
1.0791 -6.2139 2.3947
1.2985 -6.1583 2.3947
1.5154 -6.0949 2.3947
1.7294 -6.0239 2.3947
1.9404 -5.9453 2.3947
2.1481 -5.8595 2.3947
2.3522 -5.7664 2.3947
2.5524 -5.6663 2.3947
2.7486 -5.5593 2.3947
2.9406 -5.4457 2.3947
3.1280 -5.3254 2.3947
3.3107 -5.1989 2.3947
3.4885 -5.0662 2.3947
3.6612 -4.9276 2.3947
3.8286 -4.7832 2.3947
3.9906 -4.6332 2.3947
4.1469 -4.4780 2.3947
4.2974 -4.3176 2.3947
4.4419 -4.1523 2.3947
4.5804 -3.9823 2.3947
4.6882 -3.7881 2.3823
4.6978 -3.5237 2.3251
4.7064 -3.2718 2.2733
4.7479 -3.0527 2.2423
4.8473 -2.8748 2.2423
4.9403 -2.6939 2.2423
5.0268 -2.5101 2.2423
5.1069 -2.3237 2.2423
5.1803 -2.1348 2.2423
5.2471 -1.9437 2.2424
5.3072 -1.7507 2.2424
5.3605 -1.5560 2.2424
5.4071 -1.3597 2.2424
5.4468 -1.1621 2.2424
5.4797 -0.9635 2.2424
5.5057 -0.7641 2.2424
5.5248 -0.5640 2.2424
5.5371 -0.3635 2.2424
5.5424 -0.1629 2.2424
5.5409 0.0376 2.2424
5.5325 0.2379 2.2424
5.5172 0.4376 2.2424
5.4952 0.6367 2.2424
5.4663 0.8347 2.2424
5.4308 1.0316 2.2424
5.3885 1.2271 2.2424
5.3395 1.4211 2.2424
5.2840 1.6132 2.2424
5.2219 1.8032 2.2424
5.1534 1.9911 2.2423
5.0785 2.1765 2.2423
4.9973 2.3592 2.2423
4.9099 2.5392 2.2423
4.8163 2.7160 2.2423
4.7168 2.8897 2.2423
4.6818 3.1066 2.2765
4.6714 3.3493 2.3277
4.6600 3.6033 2.3840
4.5501 3.7889 2.3947
4.4134 3.9541 2.3947
4.2710 4.1145 2.3947
4.1231 4.2700 2.3947
3.9698 4.4205 2.3947
3.8113 4.5657 2.3947
3.6478 4.7056 2.3947
3.4793 4.8398 2.3947
3.3062 4.9684 2.3947
3.1285 5.0910 2.3947
2.9465 5.2075 2.3947
2.7603 5.3178 2.3947
2.5702 5.4218 2.3947
2.3764 5.5192 2.3947
0.8891 2.2892 0.9771
0.8062 2.3205 0.9759
0.7222 2.3488 0.9746
0.6373 2.3741 0.9733
0.5514 2.3964 0.9720
0.4649 2.4155 0.9706
0.3776 2.4314 0.9691
0.2899 2.4442 0.9676
0.2017 2.4539 0.9661
0.1133 2.4603 0.9646
0.0246 2.4635 0.9630
-0.0641 2.4636 0.9614
-0.1527 2.4604 0.9598
-0.2412 2.4540 0.9581
-0.3294 2.4445 0.9564
-0.4171 2.4317 0.9547
-0.5044 2.4158 0.9530
-0.5910 2.3968 0.9513
-0.6769 2.3746 0.9495
-0.7620 2.3494 0.9478
-0.8460 2.3211 0.9460
-0.9290 2.2898 0.9443
-2.5683 5.7308 2.3947
-2.7781 5.6469 2.3947
-2.9851 5.5552 2.3947
-3.1890 5.4560 2.3947
-3.3896 5.3493 2.3947
-3.5865 5.2352 2.3947
-3.7795 5.1138 2.3947
-3.9682 4.9853 2.3947
-4.1525 4.8497 2.3947
-4.3321 4.7073 2.3947
-4.5066 4.5581 2.3947
-4.6758 4.4024 2.3947
-4.8394 4.2403 2.3947
-4.9972 4.0720 2.3947
-5.1490 3.8978 2.3947
-5.2945 3.7178 2.3947
-5.4334 3.5323 2.3947
-5.5655 3.3415 2.3947
-5.6907 3.1456 2.3947
-5.8087 2.9450 2.3947
-5.9192 2.7399 2.3947
-6.0222 2.5305 2.3947
-6.1175 2.3171 2.3947
-6.2048 2.1001 2.3947
-6.2840 1.8798 2.3947
-6.3550 1.6563 2.3947
-6.4177 1.4302 2.3947
-6.4718 1.2016 2.3947
-6.5174 0.9710 2.3947
-6.5543 0.7386 2.3947
-6.5825 0.5048 2.3947
-6.6019 0.2700 2.3947
-6.6123 0.0344 2.3947
-6.6139 -0.2016 2.3947
-6.6067 -0.4376 2.3947
-6.5904 -0.6732 2.3947
-6.5653 -0.9082 2.3947
-6.5313 -1.1421 2.3947
-6.4885 -1.3746 2.3947
-6.4368 -1.6054 2.3947
-6.3765 -1.8342 2.3947
-6.3076 -2.0605 2.3947
-6.2301 -2.2840 2.3947
-6.1442 -2.5044 2.3947
-6.0501 -2.7214 2.3947
-5.9478 -2.9347 2.3947
-5.8376 -3.1439 2.3947
-5.7196 -3.3487 2.3947
-5.5939 -3.5488 2.3947
-5.4608 -3.7440 2.3947
-5.3206 -3.9339 2.3947
-5.1733 -4.1182 2.3947
-5.0193 -4.2968 2.3947
-4.8587 -4.4693 2.3947
-4.6920 -4.6355 2.3947
-4.5192 -4.7953 2.3947
-4.3406 -4.9482 2.3947
-4.1567 -5.0942 2.3947
-3.9675 -5.2331 2.3947
-3.7735 -5.3647 2.3947
-3.5749 -5.4888 2.3947
-3.3721 -5.6052 2.3947
-3.1653 -5.7139 2.3947
-2.9548 -5.8147 2.3947
-2.7410 -5.9074 2.3947
-2.5242 -5.9920 2.3947
-2.3047 -6.0684 2.3947
-2.0828 -6.1365 2.3947
-1.8589 -6.1963 2.3947
-1.6333 -6.2477 2.3947
-1.4063 -6.2907 2.3947
-1.1782 -6.3252 2.3947
-0.9493 -6.3513 2.3947
-0.7201 -6.3689 2.3947
-0.4907 -6.3781 2.3947
-0.2615 -6.3786 2.3946
-0.0328 -6.3701 2.3942
0.1950 -6.3545 2.3943
0.4217 -6.3316 2.3947
0.6470 -6.2993 2.3947
0.8706 -6.2591 2.3947
1.0921 -6.2108 2.3947
1.3114 -6.1547 2.3947
1.5281 -6.0909 2.3947
1.7420 -6.0194 2.3947
1.9528 -5.9405 2.3947
2.1603 -5.8542 2.3947
2.3642 -5.7607 2.3947
2.5642 -5.6602 2.3947
2.7601 -5.5528 2.3947
2.9518 -5.4387 2.3947
3.1390 -5.3181 2.3947
3.3214 -5.1912 2.3947
3.4989 -5.0582 2.3947
3.6713 -4.9192 2.3947
3.8384 -4.7744 2.3947
4.0000 -4.6242 2.3947
4.1560 -4.4686 2.3947
4.3061 -4.3079 2.3947
4.4503 -4.1423 2.3947
4.5884 -3.9721 2.3947
4.6888 -3.7721 2.3787
4.6983 -3.5084 2.3218
4.7069 -3.2572 2.2703
4.7540 -3.0422 2.2423
4.8530 -2.8642 2.2423
4.9456 -2.6831 2.2423
5.0317 -2.4991 2.2423
5.1114 -2.3125 2.2423
5.1845 -2.1235 2.2423
5.2508 -1.9324 2.2424
5.3105 -1.7392 2.2424
5.3635 -1.5444 2.2424
5.4096 -1.3480 2.2424
5.4489 -1.1504 2.2424
5.4814 -0.9517 2.2424
5.5070 -0.7522 2.2424
5.5257 -0.5521 2.2424
5.5376 -0.3516 2.2424
5.5425 -0.1510 2.2424
5.5406 0.0495 2.2424
5.5318 0.2497 2.2424
5.5161 0.4495 2.2424
5.4937 0.6484 2.2424
5.4644 0.8464 2.2424
5.4284 1.0433 2.2424
5.3858 1.2387 2.2424
5.3364 1.4325 2.2424
5.2805 1.6245 2.2424
5.2181 1.8144 2.2424
5.1492 2.0021 2.2423
5.0739 2.1874 2.2423
4.9923 2.3700 2.2423
4.9045 2.5497 2.2423
4.8106 2.7265 2.2423
4.7107 2.8998 2.2423
4.6812 3.1207 2.2794
4.6707 3.3640 2.3308
4.6593 3.6187 2.3875
4.5422 3.7991 2.3947
4.4051 3.9637 2.3947
4.2624 4.1238 2.3947
4.1142 4.2791 2.3947
3.9606 4.4292 2.3947
3.8018 4.5742 2.3947
3.6379 4.7137 2.3947
3.4692 4.8476 2.3947
3.2958 4.9758 2.3947
3.1178 5.0981 2.3947
2.9356 5.2142 2.3947
2.7492 5.3242 2.3947
2.5588 5.4277 2.3947
2.3648 5.5248 2.3947
0.8843 2.2911 0.9771
3.1105 4.6558 2.3947
2.9437 4.7709 2.3947
2.7729 4.8803 2.3947
2.5983 4.9838 2.3947
2.4199 5.0813 2.3947
2.2380 5.1727 2.3947
0.8357 2.1405 0.9749
0.7582 2.1700 0.9738
0.6796 2.1967 0.9726
0.6001 2.2205 0.9713
0.5198 2.2415 0.9701
0.4388 2.2595 0.9687
0.3572 2.2746 0.9674
0.2751 2.2868 0.9660
0.1926 2.2960 0.9646
0.1098 2.3022 0.9632
0.0269 2.3054 0.9617
-0.0561 2.3056 0.9602
-0.1391 2.3028 0.9587
-0.2219 2.2970 0.9571
-0.3045 2.2882 0.9555
-0.3867 2.2765 0.9539
-0.4684 2.2618 0.9523
-0.5495 2.2441 0.9507
-0.6300 2.2235 0.9491
-0.7096 2.2001 0.9474
-0.7884 2.1738 0.9458
-0.8661 2.1446 0.9441
-2.3953 5.3680 2.3947
-2.5915 5.2892 2.3947
-2.7851 5.2033 2.3947
-2.9758 5.1103 2.3947
-3.1633 5.0103 2.3947
-3.3473 4.9033 2.3947
-3.5277 4.7896 2.3947
-3.7041 4.6692 2.3947
-3.8763 4.5423 2.3947
-4.0441 4.4089 2.3947
-4.2071 4.2693 2.3947
-4.3651 4.1236 2.3947
-4.5179 3.9720 2.3947
-4.6653 3.8146 2.3947
-4.8070 3.6517 2.3947
-4.9428 3.4834 2.3947
-5.0725 3.3100 2.3947
-5.1958 3.1317 2.3947
-5.3127 2.9488 2.3947
-5.4228 2.7613 2.3947
-5.5260 2.5697 2.3947
-5.6222 2.3741 2.3947
-5.7111 2.1749 2.3947
-5.7926 1.9723 2.3947
-5.8666 1.7665 2.3947
-5.9329 1.5579 2.3947
-5.9914 1.3469 2.3947
-6.0421 1.1335 2.3947
-6.0848 0.9182 2.3947
-6.1194 0.7014 2.3947
-6.1458 0.4831 2.3947
-6.1641 0.2640 2.3947
-6.1741 0.0441 2.3947
-6.1758 -0.1761 2.3947
-6.1693 -0.3963 2.3947
-6.1544 -0.6162 2.3947
-6.1313 -0.8355 2.3947
-6.0999 -1.0539 2.3947
-6.0603 -1.2710 2.3947
-6.0125 -1.4864 2.3947
-5.9567 -1.7000 2.3947
-5.8928 -1.9113 2.3947
-5.8210 -2.1200 2.3947
-5.7413 -2.3259 2.3947
-5.6540 -2.5286 2.3947
-5.5591 -2.7279 2.3947
-5.4567 -2.9234 2.3947
-5.3471 -3.1148 2.3947
-5.2304 -3.3019 2.3947
-5.1068 -3.4844 2.3947
-4.9765 -3.6621 2.3947
-4.8396 -3.8346 2.3947
-4.6965 -4.0018 2.3947
-4.5472 -4.1633 2.3947
-4.3921 -4.3191 2.3947
-4.2314 -4.4688 2.3947
-4.0653 -4.6123 2.3947
-3.8941 -4.7492 2.3947
-3.7180 -4.8797 2.3947
-3.5374 -5.0033 2.3947
-3.3524 -5.1200 2.3947
-3.1635 -5.2296 2.3947
-2.9708 -5.3319 2.3947
-2.7746 -5.4269 2.3947
-2.5753 -5.5145 2.3947
-2.3732 -5.5945 2.3947
-2.1685 -5.6668 2.3947
-1.9615 -5.7315 2.3947
-1.7525 -5.7884 2.3947
-1.5419 -5.8375 2.3947
-1.3299 -5.8787 2.3947
-1.1169 -5.9121 2.3947
-0.9031 -5.9376 2.3947
-0.6889 -5.9552 2.3947
-0.4744 -5.9649 2.3947
-0.2601 -5.9668 2.3947
-0.0463 -5.9609 2.3947
0.1669 -5.9473 2.3947
0.3791 -5.9259 2.3947
0.5900 -5.8969 2.3947
0.7994 -5.8604 2.3947
1.0070 -5.8164 2.3947
1.2125 -5.7650 2.3947
1.4157 -5.7063 2.3947
1.6163 -5.6405 2.3947
1.8140 -5.5676 2.3947
2.0087 -5.4879 2.3947
2.2000 -5.4014 2.3947
2.3879 -5.3082 2.3947
2.5720 -5.2086 2.3947
2.7521 -5.1027 2.3947
2.9280 -4.9906 2.3947
3.0995 -4.8726 2.3947
3.2665 -4.7488 2.3947
3.4287 -4.6194 2.3947
3.5860 -4.4846 2.3947
3.7382 -4.3444 2.3947
3.8852 -4.1993 2.3947
4.0267 -4.0493 2.3947
4.1627 -3.8947 2.3947
4.2929 -3.7357 2.3947
4.4173 -3.5725 2.3947
4.5358 -3.4052 2.3947
4.6482 -3.2343 2.3947
4.6891 -3.0175 2.3618
4.6965 -2.7879 2.3168
4.7032 -2.5669 2.2763
4.7190 -2.3586 2.2444
4.7900 -2.1815 2.2423
4.8681 -2.0081 2.2464
4.9223 -1.8253 2.2423
4.9791 -1.6442 2.2423
5.0295 -1.4615 2.2423
5.0735 -1.2773 2.2423
5.1110 -1.0919 2.2423
5.1422 -0.9055 2.2423
5.1669 -0.7183 2.2423
5.1851 -0.5304 2.2424
5.1968 -0.3422 2.2424
5.2020 -0.1539 2.2424
5.2008 0.0345 2.2424
5.1931 0.2225 2.2424
5.1789 0.4101 2.2424
5.1583 0.5970 2.2423
5.1313 0.7831 2.2423
5.0980 0.9680 2.2423
5.0583 1.1517 2.2423
5.0124 1.3338 2.2423
4.9603 1.5142 2.2423
4.9020 1.6928 2.2423
4.8377 1.8692 2.2423
4.7673 2.0433 2.2423
4.6997 2.2191 2.2464
4.6839 2.4227 2.2788
4.6757 2.6373 2.3190
4.6666 2.8596 2.3634
4.6224 3.0681 2.3947
4.5107 3.2350 2.3947
4.3932 3.3982 2.3947
4.2702 3.5572 2.3947
4.1416 3.7121 2.3947
4.0078 3.8625 2.3947
3.8687 4.0084 2.3947
3.7246 4.1494 2.3947
3.5756 4.2856 2.3947
3.4218 4.4166 2.3947
3.2635 4.5424 2.3947
3.1007 4.6628 2.3947
2.9337 4.7775 2.3947
2.7627 4.8866 2.3947
2.5878 4.9897 2.3947
2.4092 5.0870 2.3947
0.9076 2.1103 0.9759
0.8312 2.1424 0.9748
0.7535 2.1717 0.9737
0.6749 2.1982 0.9725
0.5954 2.2219 0.9713
0.5150 2.2426 0.9700
0.4340 2.2605 0.9687
0.3524 2.2754 0.9673
0.2702 2.2874 0.9659
0.1877 2.2964 0.9645
0.1049 2.3024 0.9631
0.0219 2.3055 0.9616
-0.0611 2.3055 0.9601
-0.1440 2.3025 0.9586
-0.2268 2.2966 0.9570
-0.3094 2.2876 0.9554
-0.3916 2.2757 0.9539
-0.4732 2.2608 0.9522
-0.5543 2.2430 0.9506
-0.6347 2.2222 0.9490
-0.7143 2.1986 0.9474
-0.7930 2.1721 0.9457
-0.8707 2.1428 0.9440
-2.4070 5.3635 2.3947
-2.6031 5.2843 2.3947
-2.7965 5.1980 2.3947
-2.9870 5.1045 2.3947
-3.1743 5.0041 2.3947
-3.3581 4.8968 2.3947
-3.5383 4.7827 2.3947
-3.7145 4.6619 2.3947
-3.8864 4.5345 2.3947
-4.0539 4.4008 2.3947
-4.2166 4.2608 2.3947
-4.3743 4.1148 2.3947
-4.5268 3.9628 2.3947
-4.6738 3.8051 2.3947
-4.8152 3.6419 2.3947
-4.9506 3.4733 2.3947
-5.0800 3.2996 2.3947
-5.2029 3.1210 2.3947
-5.3194 2.9378 2.3947
-5.4291 2.7501 2.3947
-5.5319 2.5582 2.3947
-5.6276 2.3624 2.3947
-5.7161 2.1630 2.3947
-5.7972 1.9601 2.3947
-5.8707 1.7543 2.3947
-5.9366 1.5455 2.3947
-5.9947 1.3343 2.3947
-6.0449 1.1208 2.3947
-6.0870 0.9054 2.3947
-6.1212 0.6884 2.3947
-6.1471 0.4702 2.3947
-6.1649 0.2509 2.3947
-6.1744 0.0311 2.3947
-6.1757 -0.1892 2.3947
-6.1686 -0.4094 2.3947
-6.1533 -0.6293 2.3947
-6.1297 -0.8485 2.3947
-6.0978 -1.0668 2.3947
-6.0577 -1.2838 2.3947
-6.0095 -1.4991 2.3947
-5.9531 -1.7126 2.3947
-5.8887 -1.9237 2.3947
-5.8165 -2.1323 2.3947
-5.7364 -2.3380 2.3947
-5.6486 -2.5405 2.3947
-5.5532 -2.7396 2.3947
-5.4504 -2.9348 2.3947
-5.3404 -3.1260 2.3947
-5.2233 -3.3129 2.3947
-5.0993 -3.4951 2.3947
-4.9686 -3.6724 2.3947
-4.8313 -3.8447 2.3947
-4.6878 -4.0115 2.3947
-4.5382 -4.1727 2.3947
-4.3827 -4.3281 2.3947
-4.2217 -4.4775 2.3947
-4.0553 -4.6205 2.3947
-3.8838 -4.7572 2.3947
-3.7074 -4.8872 2.3947
-3.5265 -5.0104 2.3947
-3.3413 -5.1267 2.3947
-3.1522 -5.2358 2.3947
-2.9592 -5.3377 2.3947
-2.7629 -5.4323 2.3947
-2.5634 -5.5194 2.3947
-2.3611 -5.5990 2.3947
-2.1563 -5.6709 2.3947
-1.9491 -5.7351 2.3947
-1.7401 -5.7915 2.3947
-1.5294 -5.8401 2.3947
-1.3173 -5.8809 2.3947
-1.1042 -5.9138 2.3947
-0.8904 -5.9388 2.3947
-0.6761 -5.9560 2.3947
-0.4617 -5.9653 2.3947
-0.2474 -5.9667 2.3947
-0.0336 -5.9603 2.3947
0.1795 -5.9462 2.3947
0.3917 -5.9244 2.3947
0.6025 -5.8950 2.3947
0.8118 -5.8580 2.3947
1.0192 -5.8135 2.3947
1.2246 -5.7617 2.3947
1.4276 -5.7026 2.3947
1.6281 -5.6364 2.3947
1.8256 -5.5631 2.3947
2.0201 -5.4829 2.3947
2.2113 -5.3960 2.3947
2.3989 -5.3025 2.3947
2.5827 -5.2025 2.3947
2.7626 -5.0962 2.3947
2.9383 -4.9838 2.3947
3.1096 -4.8654 2.3947
3.2763 -4.7413 2.3947
3.4382 -4.6115 2.3947
3.5952 -4.4764 2.3947
3.7471 -4.3359 2.3947
3.8937 -4.1905 2.3947
4.0349 -4.0403 2.3947
4.1705 -3.8854 2.3947
4.3005 -3.7261 2.3947
4.4245 -3.5627 2.3947
4.5426 -3.3952 2.3947
4.6547 -3.2240 2.3947
4.6895 -3.0036 2.3590
4.6970 -2.7746 2.3143
4.7036 -2.5541 2.2740
4.7205 -2.3467 2.2429
4.7943 -2.1711 2.2423
4.8693 -1.9964 2.2451
4.9259 -1.8146 2.2423
4.9822 -1.6334 2.2423
5.0322 -1.4506 2.2423
5.0759 -1.2664 2.2423
5.1131 -1.0809 2.2423
5.1438 -0.8944 2.2423
5.1681 -0.7071 2.2423
5.1859 -0.5193 2.2424
5.1973 -0.3311 2.2424
5.2021 -0.1427 2.2424
5.2005 0.0456 2.2424
5.1924 0.2337 2.2424
5.1778 0.4212 2.2424
5.1569 0.6081 2.2423
5.1295 0.7941 2.2423
5.0958 0.9790 2.2423
5.0558 1.1625 2.2423
5.0095 1.3446 2.2423
4.9570 1.5249 2.2423
4.8984 1.7033 2.2423
4.8337 1.8796 2.2423
4.7630 2.0536 2.2423
4.6982 2.2307 2.2480
4.6835 2.4353 2.2811
4.6751 2.6502 2.3215
4.6660 2.8731 2.3662
4.6160 3.0781 2.3947
4.5039 3.2448 2.3947
4.3861 3.4077 2.3947
4.2627 3.5665 2.3947
4.1338 3.7211 2.3947
3.9997 3.8713 2.3947
3.8603 4.0169 2.3947
3.7159 4.1577 2.3947
3.5666 4.2935 2.3947
3.4125 4.4242 2.3947
3.2539 4.5497 2.3947
3.0909 4.6697 2.3947
2.9237 4.7842 2.3947
2.7524 4.8929 2.3947
2.5773 4.9958 2.3947
2.3985 5.0924 2.3947
0.9031 2.1122 0.9759
0.8266 2.1442 0.9748
2.9250 4.3812 2.3947
2.7679 4.4893 2.3947
2.6070 4.5919 2.3947
2.4424 4.6891 2.3947
2.2744 4.7805 2.3947
0.8553 1.9790 0.9739
0.7835 2.0092 0.9728
0.7107 2.0369 0.9717
0.6370 2.0620 0.9706
0.5623 2.0843 0.9695
0.4870 2.1040 0.9683
0.4109 2.1209 0.9670
0.3343 2.1351 0.9658
0.2572 2.1465 0.9645
0.1797 2.1551 0.9632
0.1020 2.1609 0.9618
0.0242 2.1639 0.9604
-0.0538 2.1641 0.9590
-0.1317 2.1615 0.9576
-0.2094 2.1560 0.9561
-0.2869 2.1478 0.9546
-0.3641 2.1368 0.9532
-0.4408 2.1229 0.9517
-0.5170 2.1064 0.9501
-0.5925 2.0871 0.9486
-0.6672 2.0650 0.9471
-0.7412 2.0403 0.9455
-0.8141 2.0130 0.9439
-0.8861 1.9830 0.9424
-2.4356 4.9645 2.3947
-2.6170 4.8833 2.3947
-2.7957 4.7955 2.3947
-2.9714 4.7011 2.3947
-3.1439 4.6003 2.3947
-3.3128 4.4931 2.3947
-3.4780 4.3797 2.3947
-3.6391 4.2602 2.3947
-3.7961 4.1346 2.3947
-3.9486 4.0033 2.3947
-4.0964 3.8663 2.3947
-4.2393 3.7237 2.3947
-4.3771 3.5758 2.3947
-4.5096 3.4227 2.3947
-4.6365 3.2647 2.3947
-4.7576 3.1018 2.3947
-4.8728 2.9344 2.3947
-4.9819 2.7627 2.3947
-5.0847 2.5868 2.3947
-5.1811 2.4070 2.3947
-5.2708 2.2236 2.3947
-5.3537 2.0368 2.3947
-5.4297 1.8468 2.3947
-5.4986 1.6539 2.3947
-5.5604 1.4584 2.3947
-5.6149 1.2606 2.3947
-5.6620 1.0607 2.3947
-5.7016 0.8590 2.3947
-5.7338 0.6558 2.3947
-5.7583 0.4515 2.3947
-5.7751 0.2462 2.3947
-5.7842 0.0403 2.3947
-5.7857 -0.1659 2.3947
-5.7793 -0.3721 2.3947
-5.7653 -0.5780 2.3947
-5.7435 -0.7833 2.3947
-5.7140 -0.9877 2.3947
-5.6768 -1.1909 2.3947
-5.6320 -1.3926 2.3947
-5.5797 -1.5925 2.3947
-5.5198 -1.7904 2.3947
-5.4526 -1.9858 2.3947
-5.3780 -2.1785 2.3947
-5.2963 -2.3684 2.3947
-5.2075 -2.5549 2.3947
-5.1118 -2.7380 2.3947
-5.0093 -2.9173 2.3947
-4.9001 -3.0926 2.3947
-4.7845 -3.2636 2.3947
-4.6626 -3.4300 2.3947
-4.5346 -3.5917 2.3947
-4.4008 -3.7484 2.3947
-4.2612 -3.8998 2.3947
-4.1161 -4.0459 2.3947
-3.9658 -4.1863 2.3947
-3.8104 -4.3209 2.3947
-3.6503 -4.4495 2.3947
-3.4856 -4.5719 2.3947
-3.3166 -4.6880 2.3947
-3.1436 -4.7976 2.3947
-2.9667 -4.9007 2.3947
-2.7864 -4.9969 2.3947
-2.6028 -5.0863 2.3947
-2.4162 -5.1688 2.3947
-2.2270 -5.2442 2.3947
-2.0353 -5.3125 2.3947
-1.8414 -5.3735 2.3947
-1.6457 -5.4274 2.3947
-1.4484 -5.4739 2.3947
-1.2498 -5.5130 2.3947
-1.0501 -5.5449 2.3947
-0.8497 -5.5693 2.3947
-0.6488 -5.5864 2.3947
-0.4478 -5.5961 2.3947
-0.2468 -5.5984 2.3947
-0.0461 -5.5934 2.3947
0.1539 -5.5812 2.3947
0.3530 -5.5617 2.3947
0.5510 -5.5351 2.3947
0.7476 -5.5014 2.3947
0.9425 -5.4606 2.3947
1.1356 -5.4129 2.3947
1.3264 -5.3584 2.3947
1.5149 -5.2972 2.3947
1.7008 -5.2293 2.3947
1.8838 -5.1550 2.3947
2.0637 -5.0743 2.3947
2.2404 -4.9873 2.3947
2.4136 -4.8942 2.3947
2.5830 -4.7952 2.3947
2.7486 -4.6904 2.3947
2.9101 -4.5800 2.3947
3.0673 -4.4640 2.3947
3.2201 -4.3428 2.3947
3.3683 -4.2165 2.3947
3.5117 -4.0852 2.3947
3.6502 -3.9491 2.3947
3.7836 -3.8084 2.3947
3.9118 -3.6634 2.3947
4.0346 -3.5142 2.3947
4.1520 -3.3609 2.3947
4.2638 -3.2039 2.3947
4.3699 -3.0432 2.3947
4.4701 -2.8792 2.3947
4.5645 -2.7120 2.3947
4.6529 -2.5418 2.3947
4.6851 -2.3438 2.3694
4.6908 -2.1384 2.3347
4.6958 -1.9389 2.3037
4.7001 -1.7447 2.2762
4.7070 -1.5560 2.2534
4.7315 -1.3765 2.2423
4.7732 -1.2032 2.2423
4.8088 -1.0287 2.2423
4.8384 -0.8538 2.2423
4.8655 -0.6775 2.2440
4.8791 -0.5002 2.2423
4.8903 -0.3231 2.2423
4.8955 -0.1457 2.2423
4.8944 0.0316 2.2423
4.8873 0.2087 2.2423
4.8741 0.3853 2.2423
4.8601 0.5620 2.2447
4.8295 0.7366 2.2423
4.7982 0.9107 2.2423
4.7610 1.0837 2.2423
4.7178 1.2552 2.2423
4.6945 1.4330 2.2546
4.6871 1.6186 2.2779
4.6813 1.8089 2.3053
4.6749 2.0039 2.3362
4.6677 2.2043 2.3706
4.6326 2.3966 2.3947
4.5441 2.5636 2.3947
4.4499 2.7275 2.3947
4.3501 2.8881 2.3947
4.2448 3.0453 2.3947
4.1340 3.1988 2.3947
4.0180 3.3484 2.3947
3.8969 3.4941 2.3947
3.7707 3.6356 2.3947
3.6396 3.7728 2.3947
3.5037 3.9054 2.3947
3.3633 4.0334 2.3947
3.2184 4.1565 2.3947
3.0692 4.2747 2.3947
2.9158 4.3877 2.3947
2.7585 4.4955 2.3947
2.5974 4.5978 2.3947
2.4326 4.6946 2.3947
2.2644 4.7857 2.3947
0.8511 1.9808 0.9738
0.7793 2.0110 0.9728
0.7064 2.0385 0.9717
0.6326 2.0634 0.9706
0.5579 2.0856 0.9694
0.4825 2.1051 0.9682
0.4064 2.1218 0.9670
0.3297 2.1358 0.9657
0.2526 2.1471 0.9644
0.1751 2.1555 0.9631
0.0974 2.1611 0.9617
0.0195 2.1640 0.9603
-0.0584 2.1640 0.9589
-0.1363 2.1612 0.9575
-0.2140 2.1556 0.9560
-0.2915 2.1472 0.9546
-0.3687 2.1360 0.9531
-0.4453 2.1220 0.9516
-0.5215 2.1053 0.9500
-0.5969 2.0858 0.9485
-0.6716 2.0637 0.9470
-0.7455 2.0388 0.9454
-0.8184 2.0113 0.9439
-0.8903 1.9812 0.9423
-2.4464 4.9599 2.3947
-2.6277 4.8783 2.3947
-2.8062 4.7901 2.3947
-2.9817 4.6953 2.3947
-3.1540 4.5941 2.3947
-3.3227 4.4866 2.3947
-3.4876 4.3728 2.3947
-3.6486 4.2529 2.3947
-3.8053 4.1270 2.3947
-3.9575 3.9953 2.3947
-4.1050 3.8580 2.3947
-4.2477 3.7151 2.3947
-4.3851 3.5669 2.3947
-4.5173 3.4135 2.3947
-4.6438 3.2551 2.3947
-4.7646 3.0920 2.3947
-4.8795 2.9244 2.3947
-4.9882 2.7524 2.3947
-5.0906 2.5762 2.3947
-5.1866 2.3962 2.3947
-5.2759 2.2126 2.3947
-5.3584 2.0256 2.3947
-5.4340 1.8354 2.3947
-5.5025 1.6424 2.3947
-5.5638 1.4468 2.3947
-5.6179 1.2488 2.3947
-5.6646 1.0488 2.3947
-5.7038 0.8470 2.3947
-5.7354 0.6438 2.3947
-5.7595 0.4393 2.3947
-5.7759 0.2340 2.3947
-5.7845 0.0281 2.3947
-5.7855 -0.1781 2.3947
-5.7787 -0.3843 2.3947
-5.7642 -0.5902 2.3947
-5.7419 -0.7955 2.3947
-5.7120 -0.9998 2.3947
-5.6744 -1.2029 2.3947
-5.6291 -1.4045 2.3947
-5.5763 -1.6043 2.3947
-5.5160 -1.8020 2.3947
-5.4484 -1.9973 2.3947
-5.3734 -2.1899 2.3947
-5.2913 -2.3795 2.3947
-5.2020 -2.5659 2.3947
-5.1059 -2.7487 2.3947
-5.0030 -2.9278 2.3947
-4.8935 -3.1028 2.3947
-4.7775 -3.2735 2.3947
-4.6552 -3.4397 2.3947
-4.5269 -3.6011 2.3947
-4.3926 -3.7575 2.3947
-4.2527 -3.9086 2.3947
-4.1073 -4.0543 2.3947
-3.9567 -4.1945 2.3947
-3.8011 -4.3287 2.3947
-3.6406 -4.4569 2.3947
-3.4757 -4.5790 2.3947
-3.3064 -4.6947 2.3947
-3.1332 -4.8039 2.3947
-2.9561 -4.9066 2.3947
-2.7756 -5.0024 2.3947
-2.5918 -5.0914 2.3947
-2.4051 -5.1735 2.3947
-2.2157 -5.2485 2.3947
-2.0238 -5.3163 2.3947
-1.8299 -5.3769 2.3947
-1.6340 -5.4303 2.3947
-1.4366 -5.4764 2.3947
-1.2380 -5.5151 2.3947
-1.0383 -5.5465 2.3947
-0.8378 -5.5705 2.3947
-0.6369 -5.5871 2.3947
-0.4358 -5.5964 2.3947
-0.2349 -5.5983 2.3947
-0.0343 -5.5929 2.3947
0.1657 -5.5802 2.3947
0.3648 -5.5603 2.3947
0.5627 -5.5333 2.3947
0.7592 -5.4991 2.3947
0.9540 -5.4580 2.3947
1.1469 -5.4099 2.3947
1.3377 -5.3550 2.3947
1.5260 -5.2934 2.3947
1.7117 -5.2251 2.3947
1.8945 -5.1504 2.3947
2.0743 -5.0693 2.3947
2.2508 -4.9819 2.3947
2.4237 -4.8885 2.3947
2.5930 -4.7892 2.3947
2.7583 -4.6840 2.3947
2.9195 -4.5732 2.3947
3.0765 -4.4570 2.3947
3.2290 -4.3355 2.3947
3.3769 -4.2088 2.3947
3.5200 -4.0772 2.3947
3.6582 -3.9409 2.3947
3.7913 -3.8000 2.3947
3.9192 -3.6547 2.3947
4.0417 -3.5052 2.3947
4.1588 -3.3517 2.3947
4.2702 -3.1945 2.3947
4.3760 -3.0336 2.3947
4.4759 -2.8694 2.3947
4.5699 -2.7020 2.3947
4.6579 -2.5316 2.3947
4.6855 -2.3315 2.3672
4.6911 -2.1264 2.3328
4.6960 -1.9272 2.3020
4.7004 -1.7333 2.2746
4.7080 -1.5452 2.2524
4.7342 -1.3662 2.2423
4.7755 -1.1929 2.2423
4.8107 -1.0183 2.2423
4.8399 -0.8428 2.2423
4.8658 -0.6670 2.2436
4.8800 -0.4897 2.2423
4.8908 -0.3125 2.2423
4.8956 -0.1352 2.2423
4.8942 0.0421 2.2423
4.8867 0.2192 2.2423
4.8731 0.3958 2.2423
4.8596 0.5725 2.2451
4.8279 0.7473 2.2423
4.7962 0.9210 2.2423
4.7586 1.0939 2.2423
4.7151 1.2653 2.2423
4.6934 1.4437 2.2556
4.6868 1.6297 2.2794
4.6810 1.8203 2.3071
4.6745 2.0156 2.3381
4.6673 2.2164 2.3727
4.6275 2.4066 2.3947
4.5387 2.5734 2.3947
4.4441 2.7371 2.3947
4.3440 2.8976 2.3947
4.2383 3.0545 2.3947
4.1273 3.2078 2.3947
4.0110 3.3572 2.3947
3.8895 3.5026 2.3947
3.7630 3.6439 2.3947
3.6317 3.7808 2.3947
3.4955 3.9131 2.3947
3.3548 4.0408 2.3947
3.2097 4.1637 2.3947
3.0602 4.2816 2.3947
2.9066 4.3943 2.3947
2.7490 4.5017 2.3947
2.5877 4.6036 2.3947
2.4227 4.7002 2.3947
2.2543 4.7910 2.3947
0.8468 1.9827 0.9737
0.7750 2.0127 0.9727
2.7571 4.1325 2.3947
2.6087 4.2342 2.3947
2.4568 4.3308 2.3947
2.3014 4.4222 2.3947
0.8705 1.8315 0.9729
0.8041 1.8624 0.9719
0.7365 1.8909 0.9710
0.6680 1.9170 0.9699
0.5985 1.9405 0.9689
0.5283 1.9616 0.9678
0.4573 1.9801 0.9667
0.3857 1.9960 0.9655
0.3136 2.0093 0.9643
0.2411 2.0200 0.9631
0.1682 2.0281 0.9619
0.0950 2.0336 0.9606
0.0217 2.0364 0.9593
-0.0516 2.0366 0.9580
-0.1250 2.0341 0.9566
-0.1981 2.0290 0.9552
-0.2711 2.0212 0.9538
-0.3437 2.0108 0.9524
-0.4159 1.9978 0.9510
-0.4876 1.9822 0.9496
-0.5587 1.9641 0.9482
-0.6291 1.9434 0.9467
-0.6986 1.9201 0.9452
-0.7673 1.8944 0.9438
-0.8350 1.8661 0.9423
-0.9017 1.8355 0.9408
-2.4656 4.5950 2.3947
-2.6336 4.5119 2.3947
-2.7986 4.4227 2.3947
-2.9606 4.3274 2.3947
-3.1193 4.2262 2.3947
-3.2744 4.1191 2.3947
-3.4257 4.0063 2.3947
-3.5730 3.8879 2.3947
-3.7161 3.7640 2.3947
-3.8548 3.6348 2.3947
-3.9889 3.5004 2.3947
-4.1181 3.3611 2.3947
-4.2422 3.2169 2.3947
-4.3612 3.0680 2.3947
-4.4747 2.9147 2.3947
-4.5827 2.7572 2.3947
-4.6849 2.5955 2.3947
-4.7811 2.4300 2.3947
-4.8713 2.2609 2.3947
-4.9552 2.0884 2.3947
-5.0328 1.9127 2.3947
-5.1039 1.7341 2.3947
-5.1684 1.5528 2.3947
-5.2261 1.3691 2.3947
-5.2770 1.1832 2.3947
-5.3210 0.9954 2.3947
-5.3580 0.8059 2.3947
-5.3879 0.6150 2.3947
-5.4106 0.4231 2.3947
-5.4262 0.2303 2.3947
-5.4346 0.0369 2.3947
-5.4358 -0.1567 2.3947
-5.4297 -0.3503 2.3947
-5.4163 -0.5437 2.3947
-5.3958 -0.7364 2.3947
-5.3680 -0.9284 2.3947
-5.3330 -1.1192 2.3947
-5.2909 -1.3085 2.3947
-5.2417 -1.4962 2.3947
-5.1855 -1.6820 2.3947
-5.1223 -1.8655 2.3947
-5.0524 -2.0465 2.3947
-4.9757 -2.2247 2.3947
-4.8923 -2.3999 2.3947
-4.8025 -2.5719 2.3947
-4.7063 -2.7403 2.3947
-4.6040 -2.9049 2.3947
-4.4955 -3.0655 2.3947
-4.3812 -3.2219 2.3947
-4.2611 -3.3738 2.3947
-4.1355 -3.5211 2.3947
-4.0046 -3.6635 2.3947
-3.8685 -3.8008 2.3947
-3.7275 -3.9329 2.3947
-3.5818 -4.0595 2.3947
-3.4315 -4.1805 2.3947
-3.2770 -4.2958 2.3947
-3.1184 -4.4051 2.3947
-2.9561 -4.5083 2.3947
-2.7901 -4.6054 2.3947
-2.6209 -4.6962 2.3947
-2.4485 -4.7805 2.3947
-2.2734 -4.8583 2.3947
-2.0956 -4.9296 2.3947
-1.9156 -4.9941 2.3947
-1.7335 -5.0519 2.3947
-1.5497 -5.1029 2.3947
-1.3643 -5.1470 2.3947
-1.1777 -5.1843 2.3947
-0.9901 -5.2146 2.3947
-0.8017 -5.2381 2.3947
-0.6128 -5.2546 2.3947
-0.4238 -5.2642 2.3947
-0.2348 -5.2669 2.3947
-0.0460 -5.2627 2.3947
0.1421 -5.2516 2.3947
0.3295 -5.2338 2.3947
0.5159 -5.2092 2.3947
0.7009 -5.1780 2.3947
0.8844 -5.1401 2.3947
1.0662 -5.0957 2.3947
1.2460 -5.0449 2.3947
1.4235 -4.9877 2.3947
1.5987 -4.9243 2.3947
1.7712 -4.8548 2.3947
1.9408 -4.7792 2.3947
2.1073 -4.6977 2.3947
2.2706 -4.6105 2.3947
2.4305 -4.5177 2.3947
2.5867 -4.4194 2.3947
2.7391 -4.3157 2.3947
2.8875 -4.2069 2.3947
3.0317 -4.0930 2.3947
3.1716 -3.9743 2.3947
3.3070 -3.8509 2.3947
3.4378 -3.7229 2.3947
3.5638 -3.5907 2.3947
3.6850 -3.4543 2.3947
3.8011 -3.3138 2.3947
3.9120 -3.1696 2.3947
4.0177 -3.0218 2.3947
4.1181 -2.8705 2.3947
4.2129 -2.7160 2.3947
4.3022 -2.5585 2.3947
4.3859 -2.3982 2.3947
4.4638 -2.2352 2.3947
4.5359 -2.0698 2.3947
4.6021 -1.9021 2.3947
4.6624 -1.7325 2.3947
4.6808 -1.5491 2.3765
4.6843 -1.3643 2.3541
4.6871 -1.1830 2.3349
4.6895 -1.0045 2.3186
4.6913 -0.8286 2.3052
4.6926 -0.6546 2.2947
4.6934 -0.4823 2.2868
4.6937 -0.3110 2.2816
4.6935 -0.1406 2.2791
4.6929 0.0295 2.2792
4.6917 0.1996 2.2819
4.6901 0.3702 2.2872
4.6880 0.5415 2.2952
4.6853 0.7141 2.3059
4.6822 0.8883 2.3194
4.6785 1.0646 2.3357
4.6743 1.2434 2.3549
4.6695 1.4253 2.3772
4.6486 1.6052 2.3947
4.5875 1.7727 2.3947
4.5207 1.9380 2.3947
4.4482 2.1009 2.3947
4.3701 2.2613 2.3947
4.2865 2.4189 2.3947
4.1975 2.5735 2.3947
4.1032 2.7250 2.3947
4.0037 2.8733 2.3947
3.8991 3.0181 2.3947
3.7895 3.1593 2.3947
3.6751 3.2966 2.3947
3.5558 3.4300 2.3947
3.4320 3.5593 2.3947
3.3037 3.6844 2.3947
3.1710 3.8050 2.3947
3.0341 3.9210 2.3947
2.8932 4.0323 2.3947
2.7484 4.1387 2.3947
2.5998 4.2400 2.3947
2.4477 4.3363 2.3947
2.2921 4.4275 2.3947
0.8666 1.8334 0.9728
0.8001 1.8642 0.9719
0.7325 1.8925 0.9709
0.6639 1.9184 0.9699
0.5944 1.9418 0.9688
0.5241 1.9627 0.9677
0.4531 1.9811 0.9666
0.3815 1.9968 0.9654
0.3093 2.0100 0.9643
0.2368 2.0206 0.9630
0.1638 2.0285 0.9618
0.0907 2.0338 0.9605
0.0174 2.0365 0.9592
-0.0560 2.0365 0.9579
-0.1293 2.0339 0.9565
-0.2025 2.0286 0.9552
-0.2754 2.0207 0.9538
-0.3480 2.0101 0.9524
-0.4202 1.9970 0.9509
-0.4918 1.9812 0.9495
-0.5629 1.9629 0.9481
-0.6332 1.9420 0.9466
-0.7027 1.9186 0.9452
-0.7714 1.8927 0.9437
-0.8390 1.8644 0.9422
-0.9056 1.8336 0.9408
-2.4757 4.5903 2.3947
-2.6434 4.5068 2.3947
-2.8083 4.4172 2.3947
-2.9701 4.3216 2.3947
-3.1286 4.2200 2.3947
-3.2834 4.1126 2.3947
-3.4345 3.9994 2.3947
-3.5816 3.8807 2.3947
-3.7245 3.7565 2.3947
-3.8629 3.6270 2.3947
-3.9967 3.4923 2.3947
-4.1256 3.3527 2.3947
-4.2494 3.2082 2.3947
-4.3681 3.0591 2.3947
-4.4813 2.9055 2.3947
-4.5889 2.7477 2.3947
-4.6907 2.5858 2.3947
-4.7866 2.4201 2.3947
-4.8764 2.2508 2.3947
-4.9600 2.0781 2.3947
-5.0372 1.9022 2.3947
-5.1079 1.7234 2.3947
-5.1720 1.5420 2.3947
-5.2293 1.3581 2.3947
-5.2798 1.1721 2.3947
-5.3234 0.9842 2.3947
-5.3599 0.7946 2.3947
-5.3894 0.6037 2.3947
-5.4118 0.4117 2.3947
-5.4269 0.2188 2.3947
-5.4349 0.0255 2.3947
-5.4356 -0.1682 2.3947
-5.4291 -0.3618 2.3947
-5.4153 -0.5551 2.3947
-5.3943 -0.7478 2.3947
-5.3661 -0.9397 2.3947
-5.3307 -1.1304 2.3947
-5.2881 -1.3197 2.3947
-5.2385 -1.5073 2.3947
-5.1819 -1.6929 2.3947
-5.1184 -1.8763 2.3947
-5.0480 -2.0571 2.3947
-4.9709 -2.2352 2.3947
-4.8872 -2.4102 2.3947
-4.7970 -2.5819 2.3947
-4.7004 -2.7501 2.3947
-4.5977 -2.9145 2.3947
-4.4889 -3.0749 2.3947
-4.3742 -3.2310 2.3947
-4.2538 -3.3827 2.3947
-4.1279 -3.5297 2.3947
-3.9967 -3.6718 2.3947
-3.8603 -3.8088 2.3947
-3.7190 -3.9405 2.3947
-3.5730 -4.0668 2.3947
-3.4225 -4.1875 2.3947
-3.2677 -4.3024 2.3947
-3.1089 -4.4114 2.3947
-2.9463 -4.5143 2.3947
-2.7802 -4.6110 2.3947
-2.6107 -4.7013 2.3947
-2.4382 -4.7853 2.3947
-2.2629 -4.8627 2.3947
-2.0850 -4.9336 2.3947
-1.9049 -4.9977 2.3947
-1.7227 -5.0551 2.3947
-1.5387 -5.1057 2.3947
-1.3533 -5.1494 2.3947
-1.1666 -5.1863 2.3947
-0.9789 -5.2162 2.3947
-0.7905 -5.2392 2.3947
-0.6016 -5.2553 2.3947
-0.4126 -5.2645 2.3947
-0.2236 -5.2668 2.3947
-0.0349 -5.2622 2.3947
0.1533 -5.2508 2.3947
0.3406 -5.2325 2.3947
0.5269 -5.2076 2.3947
0.7118 -5.1759 2.3947
0.8953 -5.1377 2.3947
1.0769 -5.0929 2.3947
1.2566 -5.0417 2.3947
1.4340 -4.9841 2.3947
1.6090 -4.9204 2.3947
1.7813 -4.8504 2.3947
1.9507 -4.7745 2.3947
2.1171 -4.6927 2.3947
2.2802 -4.6052 2.3947
2.4398 -4.5120 2.3947
2.5958 -4.4134 2.3947
2.7480 -4.3094 2.3947
2.8961 -4.2003 2.3947
3.0401 -4.0861 2.3947
3.1797 -3.9671 2.3947
3.3149 -3.8434 2.3947
3.4454 -3.7152 2.3947
3.5712 -3.5827 2.3947
3.6920 -3.4461 2.3947
3.8078 -3.3054 2.3947
3.9185 -3.1610 2.3947
4.0238 -3.0129 2.3947
4.1239 -2.8615 2.3947
4.2184 -2.7068 2.3947
4.3073 -2.5491 2.3947
4.3906 -2.3886 2.3947
4.4682 -2.2255 2.3947
4.5400 -2.0599 2.3947
4.6059 -1.8921 2.3947
4.6658 -1.7223 2.3947
4.6810 -1.5380 2.3750
4.6845 -1.3535 2.3529
4.6873 -1.1723 2.3338
4.6896 -0.9940 2.3177
4.6914 -0.8182 2.3045
4.6927 -0.6444 2.2941
4.6934 -0.4721 2.2864
4.6937 -0.3009 2.2814
4.6935 -0.1305 2.2790
4.6928 0.0396 2.2793
4.6917 0.2097 2.2821
4.6900 0.3803 2.2876
4.6878 0.5517 2.2958
4.6852 0.7244 2.3066
4.6820 0.8987 2.3202
4.6783 1.0751 2.3367
4.6740 1.2541 2.3561
4.6692 1.4361 2.3786
4.6451 1.6152 2.3947
4.5837 1.7825 2.3947
4.5165 1.9477 2.3947
4.4437 2.1105 2.3947
4.3653 2.2707 2.3947
4.2814 2.4281 2.3947
4.1921 2.5825 2.3947
4.0975 2.7339 2.3947
3.9977 2.8820 2.3947
3.8928 3.0266 2.3947
3.7829 3.1675 2.3947
3.6681 3.3047 2.3947
3.5486 3.4378 2.3947
3.4245 3.5669 2.3947
3.2959 3.6916 2.3947
3.1630 3.8120 2.3947
3.0259 3.9277 2.3947
2.8847 4.0387 2.3947
2.7397 4.1449 2.3947
2.5909 4.2459 2.3947
2.4385 4.3420 2.3947
2.2827 4.4327 2.3947
0.8627 1.8353 0.9728
0.7961 1.8659 0.9718
0.7284 1.8941 0.9708
2.6041 3.9060 2.3947
2.4637 4.0020 2.3947
2.3200 4.0932 2.3947
0.8819 1.6962 0.9719
0.8203 1.7276 0.9711
0.7576 1.7568 0.9702
0.6939 1.7836 0.9693
0.6292 1.8082 0.9683
0.5637 1.8304 0.9673
0.4974 1.8502 0.9663
0.4305 1.8677 0.9652
0.3629 1.8827 0.9641
0.2949 1.8953 0.9630
0.2264 1.9054 0.9619
0.1577 1.9130 0.9607
0.0886 1.9182 0.9595
0.0195 1.9208 0.9582
-0.0497 1.9210 0.9570
-0.1189 1.9186 0.9557
-0.1879 1.9138 0.9544
-0.2567 1.9065 0.9531
-0.3253 1.8967 0.9518
-0.3934 1.8844 0.9505
-0.4610 1.8697 0.9491
-0.5281 1.8526 0.9477
-0.5944 1.8330 0.9464
-0.6601 1.8111 0.9450
-0.7249 1.7868 0.9436
-0.7888 1.7602 0.9422
-0.8517 1.7313 0.9408
-0.9135 1.7002 0.9395
-2.4866 4.2549 2.3947
-2.6421 4.1704 2.3947
-2.7946 4.0802 2.3947
-2.9440 3.9844 2.3947
-3.0900 3.8831 2.3947
-3.2324 3.7764 2.3947
-3.3710 3.6644 2.3947
-3.5057 3.5474 2.3947
-3.6361 3.4253 2.3947
-3.7622 3.2984 2.3947
-3.8837 3.1668 2.3947
-4.0004 3.0307 2.3947
-4.1122 2.8902 2.3947
-4.2189 2.7455 2.3947
-4.3203 2.5969 2.3947
-4.4163 2.4444 2.3947
-4.5067 2.2883 2.3947
-4.5913 2.1289 2.3947
-4.6701 1.9663 2.3947
-4.7429 1.8007 2.3947
-4.8096 1.6324 2.3947
-4.8700 1.4615 2.3947
-4.9241 1.2884 2.3947
-4.9718 1.1133 2.3947
-5.0130 0.9364 2.3947
-5.0476 0.7579 2.3947
-5.0755 0.5782 2.3947
-5.0968 0.3974 2.3947
-5.1113 0.2159 2.3947
-5.1190 0.0339 2.3947
-5.1200 -0.1484 2.3947
-5.1141 -0.3307 2.3947
-5.1014 -0.5127 2.3947
-5.0819 -0.6942 2.3947
-5.0557 -0.8748 2.3947
-5.0227 -1.0544 2.3947
-4.9830 -1.2326 2.3947
-4.9366 -1.4093 2.3947
-4.8837 -1.5842 2.3947
-4.8243 -1.7569 2.3947
-4.7585 -1.9272 2.3947
-4.6863 -2.0950 2.3947
-4.6079 -2.2600 2.3947
-4.5234 -2.4219 2.3947
-4.4329 -2.5804 2.3947
-4.3366 -2.7355 2.3947
-4.2347 -2.8868 2.3947
-4.1271 -3.0341 2.3947
-4.0142 -3.1772 2.3947
-3.8961 -3.3159 2.3947
-3.7730 -3.4501 2.3947
-3.6450 -3.5796 2.3947
-3.5124 -3.7040 2.3947
-3.3753 -3.8234 2.3947
-3.2340 -3.9376 2.3947
-3.0886 -4.0463 2.3947
-2.9394 -4.1495 2.3947
-2.7867 -4.2469 2.3947
-2.6305 -4.3386 2.3947
-2.4712 -4.4244 2.3947
-2.3091 -4.5041 2.3947
-2.1442 -4.5777 2.3947
-1.9769 -4.6451 2.3947
-1.8074 -4.7062 2.3947
-1.6360 -4.7610 2.3947
-1.4629 -4.8094 2.3947
-1.2883 -4.8514 2.3947
-1.1125 -4.8868 2.3947
-0.9357 -4.9158 2.3947
-0.7582 -4.9383 2.3947
-0.5803 -4.9542 2.3947
-0.4021 -4.9637 2.3947
-0.2239 -4.9666 2.3947
-0.0459 -4.9631 2.3947
0.1315 -4.9531 2.3947
0.3082 -4.9367 2.3947
0.4840 -4.9139 2.3947
0.6586 -4.8849 2.3947
0.8318 -4.8496 2.3947
1.0033 -4.8081 2.3947
1.1730 -4.7606 2.3947
1.3407 -4.7070 2.3947
1.5061 -4.6476 2.3947
1.6690 -4.5824 2.3947
1.8292 -4.5114 2.3947
1.9866 -4.4349 2.3947
2.1409 -4.3530 2.3947
2.2920 -4.2657 2.3947
2.4396 -4.1732 2.3947
2.5837 -4.0757 2.3947
2.7240 -3.9733 2.3947
2.8605 -3.8661 2.3947
2.9928 -3.7543 2.3947
3.1210 -3.6380 2.3947
3.2448 -3.5174 2.3947
3.3641 -3.3928 2.3947
3.4788 -3.2642 2.3947
3.5887 -3.1317 2.3947
3.6938 -2.9956 2.3947
3.7939 -2.8561 2.3947
3.8890 -2.7134 2.3947
3.9789 -2.5676 2.3947
4.0635 -2.4189 2.3947
4.1428 -2.2675 2.3947
4.2167 -2.1136 2.3947
4.2851 -1.9573 2.3947
4.3480 -1.7989 2.3947
4.4052 -1.6386 2.3947
4.4568 -1.4766 2.3947
4.5026 -1.3129 2.3947
4.5428 -1.1480 2.3947
4.5771 -0.9818 2.3947
4.6056 -0.8147 2.3947
4.6283 -0.6468 2.3947
4.6452 -0.4784 2.3947
4.6562 -0.3096 2.3947
4.6614 -0.1405 2.3947
4.6606 0.0285 2.3947
4.6541 0.1973 2.3947
4.6417 0.3657 2.3947
4.6235 0.5335 2.3947
4.5996 0.7006 2.3947
4.5699 0.8666 2.3947
4.5344 1.0315 2.3947
4.4933 1.1951 2.3947
4.4466 1.3571 2.3947
4.3943 1.5174 2.3947
4.3365 1.6759 2.3947
4.2733 1.8322 2.3947
4.2047 1.9862 2.3947
4.1308 2.1379 2.3947
4.0517 2.2869 2.3947
3.9675 2.4331 2.3947
3.8783 2.5764 2.3947
3.7841 2.7166 2.3947
3.6851 2.8534 2.3947
3.5813 2.9868 2.3947
3.4730 3.1167 2.3947
3.3601 3.2427 2.3947
3.2429 3.3649 2.3947
3.1214 3.4830 2.3947
2.9959 3.5968 2.3947
2.8663 3.7064 2.3947
2.7330 3.8114 2.3947
2.5959 3.9118 2.3947
2.4553 4.0076 2.3947
2.3113 4.0983 2.3947
0.8783 1.6981 0.9719
0.8166 1.7294 0.9710
0.7538 1.7584 0.9701
0.6901 1.7852 0.9692
0.6253 1.8096 0.9682
0.5598 1.8316 0.9673
0.4935 1.8513 0.9662
0.4265 1.8686 0.9652
0.3589 1.8835 0.9641
0.2908 1.8959 0.9629
0.2224 1.9059 0.9618
0.1536 1.9134 0.9606
0.0846 1.9184 0.9594
0.0154 1.9209 0.9582
-0.0538 1.9209 0.9569
-0.1230 1.9184 0.9556
-0.1920 1.9134 0.9544
-0.2608 1.9060 0.9530
-0.3293 1.8960 0.9517
-0.3974 1.8836 0.9504
-0.4650 1.8688 0.9490
-0.5320 1.8515 0.9477
-0.5984 1.8318 0.9463
-0.6640 1.8097 0.9449
-0.7287 1.7853 0.9435
-0.7925 1.7585 0.9422
-0.8554 1.7295 0.9408
-0.9171 1.6982 0.9394
-2.4959 4.2501 2.3947
-2.6512 4.1652 2.3947
-2.8036 4.0747 2.3947
-2.9527 3.9785 2.3947
-3.0985 3.8769 2.3947
-3.2407 3.7699 2.3947
-3.3791 3.6577 2.3947
-3.5135 3.5403 2.3947
-3.6437 3.4179 2.3947
-3.7695 3.2907 2.3947
-3.8907 3.1588 2.3947
-4.0072 3.0225 2.3947
-4.1187 2.8817 2.3947
-4.2250 2.7368 2.3947
-4.3261 2.5879 2.3947
-4.4218 2.4352 2.3947
-4.5118 2.2790 2.3947
-4.5961 2.1193 2.3947
-4.6746 1.9565 2.3947
-4.7470 1.7908 2.3947
-4.8133 1.6223 2.3947
-4.8734 1.4513 2.3947
-4.9271 1.2781 2.3947
-4.9744 1.1029 2.3947
-5.0152 0.9258 2.3947
-5.0494 0.7473 2.3947
-5.0770 0.5675 2.3947
-5.0978 0.3867 2.3947
-5.1119 0.2051 2.3947
-5.1193 0.0231 2.3947
-5.1198 -0.1592 2.3947
-5.1135 -0.3415 2.3947
-5.1005 -0.5235 2.3947
-5.0806 -0.7049 2.3947
-5.0539 -0.8855 2.3947
-5.0205 -1.0650 2.3947
-4.9804 -1.2432 2.3947
-4.9337 -1.4197 2.3947
-4.8804 -1.5944 2.3947
-4.8206 -1.7670 2.3947
-4.7543 -1.9373 2.3947
-4.6818 -2.1049 2.3947
-4.6031 -2.2697 2.3947
-4.5182 -2.4314 2.3947
-4.4274 -2.5897 2.3947
-4.3308 -2.7446 2.3947
-4.2284 -2.8956 2.3947
-4.1206 -3.0427 2.3947
-4.0074 -3.1855 2.3947
-3.8890 -3.3240 2.3947
-3.7655 -3.4579 2.3947
-3.6373 -3.5871 2.3947
-3.5044 -3.7113 2.3947
-3.3670 -3.8304 2.3947
-3.2255 -3.9442 2.3947
-3.0799 -4.0526 2.3947
-2.9305 -4.1554 2.3947
-2.7775 -4.2525 2.3947
-2.6212 -4.3439 2.3947
-2.4617 -4.4293 2.3947
-2.2993 -4.5086 2.3947
-2.1343 -4.5819 2.3947
-1.9669 -4.6489 2.3947
-1.7973 -4.7096 2.3947
-1.6258 -4.7641 2.3947
-1.4525 -4.8121 2.3947
-1.2779 -4.8536 2.3947
-1.1020 -4.8887 2.3947
-0.9252 -4.9173 2.3947
-0.7477 -4.9394 2.3947
-0.5697 -4.9550 2.3947
-0.3915 -4.9640 2.3947
-0.2133 -4.9666 2.3947
-0.0354 -4.9627 2.3947
0.1420 -4.9523 2.3947
0.3187 -4.9355 2.3947
0.4944 -4.9124 2.3947
0.6689 -4.8830 2.3947
0.8420 -4.8473 2.3947
1.0134 -4.8055 2.3947
1.1830 -4.7576 2.3947
1.3506 -4.7037 2.3947
1.5158 -4.6439 2.3947
1.6785 -4.5783 2.3947
1.8386 -4.5071 2.3947
1.9958 -4.4302 2.3947
2.1499 -4.3480 2.3947
2.3008 -4.2604 2.3947
2.4483 -4.1676 2.3947
2.5921 -4.0698 2.3947
2.7322 -3.9670 2.3947
2.8684 -3.8596 2.3947
3.0005 -3.7475 2.3947
3.1284 -3.6310 2.3947
3.2520 -3.5101 2.3947
3.3710 -3.3852 2.3947
3.4854 -3.2565 2.3947
3.5951 -3.1237 2.3947
3.6999 -2.9874 2.3947
3.7997 -2.8478 2.3947
3.8945 -2.7048 2.3947
3.9840 -2.5588 2.3947
4.0684 -2.4100 2.3947
4.1474 -2.2584 2.3947
4.2209 -2.1043 2.3947
4.2890 -1.9480 2.3947
4.3515 -1.7895 2.3947
4.4084 -1.6291 2.3947
4.4597 -1.4669 2.3947
4.5052 -1.3032 2.3947
4.5450 -1.1381 2.3947
4.5790 -0.9719 2.3947
4.6071 -0.8048 2.3947
4.6295 -0.6369 2.3947
4.6460 -0.4684 2.3947
4.6567 -0.2995 2.3947
4.6615 -0.1305 2.3947
4.6604 0.0385 2.3947
4.6535 0.2073 2.3947
4.6408 0.3757 2.3947
4.6223 0.5434 2.3947
4.5980 0.7103 2.3947
4.5679 0.8764 2.3947
4.5321 1.0413 2.3947
4.4907 1.2048 2.3947
4.4437 1.3667 2.3947
4.3911 1.5269 2.3947
4.3329 1.6852 2.3947
4.2694 1.8414 2.3947
4.2005 1.9954 2.3947
4.1263 2.1468 2.3947
4.0469 2.2956 2.3947
3.9624 2.4417 2.3947
3.8728 2.5848 2.3947
3.7783 2.7240 2.3947
3.6790 2.8614 2.3947
3.5750 2.9946 2.3947
3.4664 3.1243 2.3947
3.3533 3.2501 2.3947
3.2358 3.3720 2.3947
3.1141 3.4898 2.3947
2.9883 3.6035 2.3947
2.8585 3.7127 2.3947
2.7249 3.8175 2.3947
2.5877 3.9176 2.3947
2.4469 4.0131 2.3947
2.3027 4.1036 2.3947
0.8747 1.7001 0.9718
0.8129 1.7312 0.9710
0.7501 1.7601 0.9701
0.6862 1.7867 0.9692
2.4641 3.6988 2.3947
2.3310 3.7895 2.3947
0.8899 1.5715 0.9710
0.8328 1.6032 0.9702
0.7745 1.6329 0.9694
0.7152 1.6604 0.9686
0.6550 1.6858 0.9677
0.5939 1.7090 0.9668
0.5319 1.7300 0.9659
0.4693 1.7488 0.9649
0.4060 1.7652 0.9639
0.3421 1.7794 0.9629
0.2778 1.7913 0.9618
0.2131 1.8008 0.9607
0.1481 1.8081 0.9596
0.0828 1.8129 0.9585
0.0175 1.8154 0.9573
-0.0479 1.8156 0.9561
-0.1133 1.8134 0.9549
-0.1786 1.8088 0.9537
-0.2437 1.8019 0.9525
-0.3084 1.7926 0.9512
-0.3728 1.7810 0.9499
-0.4367 1.7671 0.9487
-0.5001 1.7509 0.9474
-0.5629 1.7324 0.9461
-0.6249 1.7117 0.9448
-0.6862 1.6887 0.9435
-0.7466 1.6636 0.9422
-0.8060 1.6363 0.9409
-0.8644 1.6068 0.9395
-0.9218 1.5753 0.9382
-2.4994 3.9405 2.3947
-2.6434 3.8550 2.3947
-2.7843 3.7641 2.3947
-2.9220 3.6681 2.3947
-3.0564 3.5670 2.3947
-3.1871 3.4610 2.3947
-3.3141 3.3502 2.3947
-3.4371 3.2346 2.3947
-3.5559 3.1145 2.3947
-3.6704 2.9900 2.3947
-3.7804 2.8612 2.3947
-3.8857 2.7284 2.3947
-3.9862 2.5916 2.3947
-4.0817 2.4511 2.3947
-4.1720 2.3070 2.3947
-4.2571 2.1595 2.3947
-4.3368 2.0089 2.3947
-4.4109 1.8552 2.3947
-4.4794 1.6988 2.3947
-4.5421 1.5399 2.3947
-4.5989 1.3785 2.3947
-4.6497 1.2151 2.3947
-4.6945 1.0498 2.3947
-4.7332 0.8828 2.3947
-4.7657 0.7144 2.3947
-4.7919 0.5447 2.3947
-4.8117 0.3742 2.3947
-4.8253 0.2029 2.3947
-4.8324 0.0311 2.3947
-4.8332 -0.1409 2.3947
-4.8275 -0.3129 2.3947
-4.8155 -0.4846 2.3947
-4.7970 -0.6558 2.3947
-4.7722 -0.8262 2.3947
-4.7410 -0.9956 2.3947
-4.7035 -1.1638 2.3947
-4.6597 -1.3304 2.3947
-4.6098 -1.4954 2.3947
-4.5537 -1.6583 2.3947
-4.4916 -1.8190 2.3947
-4.4236 -1.9773 2.3947
-4.3496 -2.1330 2.3947
-4.2700 -2.2857 2.3947
-4.1847 -2.4354 2.3947
-4.0939 -2.5817 2.3947
-3.9978 -2.7244 2.3947
-3.8964 -2.8635 2.3947
-3.7900 -2.9986 2.3947
-3.6787 -3.1296 2.3947
-3.5626 -3.2563 2.3947
-3.4420 -3.3786 2.3947
-3.3169 -3.4962 2.3947
-3.1877 -3.6090 2.3947
-3.0545 -3.7169 2.3947
-2.9174 -3.8196 2.3947
-2.7768 -3.9172 2.3947
-2.6327 -4.0094 2.3947
-2.4855 -4.0961 2.3947
-2.3352 -4.1773 2.3947
-2.1823 -4.2528 2.3947
-2.0267 -4.3225 2.3947
-1.8689 -4.3864 2.3947
-1.7090 -4.4444 2.3947
-1.5473 -4.4964 2.3947
-1.3839 -4.5424 2.3947
-1.2191 -4.5823 2.3947
-1.0531 -4.6162 2.3947
-0.8862 -4.6439 2.3947
-0.7187 -4.6654 2.3947
-0.5506 -4.6808 2.3947
-0.3823 -4.6901 2.3947
-0.2140 -4.6932 2.3947
-0.0459 -4.6902 2.3947
0.1218 -4.6811 2.3947
0.2888 -4.6660 2.3947
0.4550 -4.6449 2.3947
0.6200 -4.6177 2.3947
0.7838 -4.5847 2.3947
0.9460 -4.5459 2.3947
1.1065 -4.5013 2.3947
1.2651 -4.4511 2.3947
1.4216 -4.3952 2.3947
1.5757 -4.3339 2.3947
1.7274 -4.2671 2.3947
1.8764 -4.1951 2.3947
2.0225 -4.1179 2.3947
2.1655 -4.0357 2.3947
2.3054 -3.9485 2.3947
2.4419 -3.8565 2.3947
2.5748 -3.7599 2.3947
2.7041 -3.6588 2.3947
2.8295 -3.5532 2.3947
2.9510 -3.4434 2.3947
3.0683 -3.3296 2.3947
3.1815 -3.2118 2.3947
3.2902 -3.0902 2.3947
3.3945 -2.9652 2.3947
3.4942 -2.8365 2.3947
3.5892 -2.7046 2.3947
3.6795 -2.5697 2.3947
3.7648 -2.4318 2.3947
3.8452 -2.2911 2.3947
3.9205 -2.1479 2.3947
3.9906 -2.0022 2.3947
4.0556 -1.8544 2.3947
4.1153 -1.7045 2.3947
4.1698 -1.5527 2.3947
4.2188 -1.3993 2.3947
4.2624 -1.2444 2.3947
4.3006 -1.0882 2.3947
4.3333 -0.9308 2.3947
4.3605 -0.7726 2.3947
4.3821 -0.6136 2.3947
4.3983 -0.4540 2.3947
4.4088 -0.2941 2.3947
4.4138 -0.1339 2.3947
4.4133 0.0262 2.3947
4.4071 0.1861 2.3947
4.3955 0.3457 2.3947
4.3784 0.5047 2.3947
4.3557 0.6630 2.3947
4.3276 0.8203 2.3947
4.2941 0.9766 2.3947
4.2552 1.1316 2.3947
4.2109 1.2850 2.3947
4.1614 1.4370 2.3947
4.1066 1.5871 2.3947
4.0467 1.7352 2.3947
3.9817 1.8812 2.3947
3.9116 2.0248 2.3947
3.8366 2.1660 2.3947
3.7568 2.3045 2.3947
3.6722 2.4402 2.3947
3.5828 2.5730 2.3947
3.4890 2.7026 2.3947
3.3906 2.8289 2.3947
3.2878 2.9518 2.3947
3.1808 3.0712 2.3947
3.0697 3.1868 2.3947
2.9545 3.2985 2.3947
2.8355 3.4062 2.3947
2.7127 3.5099 2.3947
2.5862 3.6092 2.3947
2.4563 3.7043 2.3947
2.3230 3.7947 2.3947
0.8866 1.5734 0.9709
0.8294 1.6050 0.9702
0.7710 1.6346 0.9694
0.7117 1.6620 0.9685
0.6514 1.6872 0.9677
0.5902 1.7103 0.9668
0.5282 1.7312 0.9658
0.4655 1.7498 0.9648
0.4022 1.7661 0.9638
0.3383 1.7802 0.9628
0.2740 1.7919 0.9617
0.2093 1.8013 0.9606
0.1442 1.8084 0.9595
0.0790 1.8131 0.9584
0.0136 1.8155 0.9572
-0.0518 1.8155 0.9560
-0.1172 1.8131 0.9548
-0.1825 1.8084 0.9536
-0.2475 1.8014 0.9524
-0.3122 1.7920 0.9511
-0.3766 1.7802 0.9499
-0.4405 1.7662 0.9486
-0.5039 1.7499 0.9473
-0.5666 1.7313 0.9460
-0.6286 1.7104 0.9447
-0.6898 1.6873 0.9434
-0.7501 1.6620 0.9421
-0.8095 1.6346 0.9408
-0.8679 1.6050 0.9395
-0.9251 1.5734 0.9382
-2.5080 3.9356 2.3947
-2.6518 3.8497 2.3947
-2.7926 3.7586 2.3947
-2.9301 3.6623 2.3947
-3.0642 3.5609 2.3947
-3.1948 3.4546 2.3947
-3.3215 3.3434 2.3947
-3.4442 3.2276 2.3947
-3.5628 3.1073 2.3947
-3.6770 2.9825 2.3947
-3.7867 2.8535 2.3947
-3.8918 2.7204 2.3947
-3.9920 2.5834 2.3947
-4.0872 2.4426 2.3947
-4.1772 2.2983 2.3947
-4.2620 2.1507 2.3947
-4.3413 1.9998 2.3947
-4.4151 1.8460 2.3947
-4.4833 1.6895 2.3947
-4.5456 1.5304 2.3947
-4.6021 1.3689 2.3947
-4.6526 1.2054 2.3947
-4.6970 1.0399 2.3947
-4.7353 0.8728 2.3947
-4.7674 0.7043 2.3947
-4.7932 0.5346 2.3947
-4.8127 0.3640 2.3947
-4.8259 0.1927 2.3947
-4.8326 0.0209 2.3947
-4.8330 -0.1511 2.3947
-4.8270 -0.3231 2.3947
-4.8145 -0.4947 2.3947
-4.7957 -0.6659 2.3947
-4.7705 -0.8362 2.3947
-4.7389 -1.0056 2.3947
-4.7011 -1.1737 2.3947
-4.6569 -1.3402 2.3947
-4.6066 -1.5050 2.3947
-4.5502 -1.6679 2.3947
-4.4877 -1.8285 2.3947
-4.4193 -1.9866 2.3947
-4.3451 -2.1421 2.3947
-4.2651 -2.2947 2.3947
-4.1795 -2.4441 2.3947
-4.0884 -2.5902 2.3947
-3.9919 -2.7328 2.3947
-3.8903 -2.8716 2.3947
-3.7836 -3.0065 2.3947
-3.6719 -3.1373 2.3947
-3.5556 -3.2637 2.3947
-3.4347 -3.3857 2.3947
-3.3094 -3.5030 2.3947
-3.1799 -3.6155 2.3947
-3.0465 -3.7231 2.3947
-2.9092 -3.8255 2.3947
-2.7683 -3.9228 2.3947
-2.6241 -4.0147 2.3947
-2.4766 -4.1011 2.3947
-2.3262 -4.1819 2.3947
-2.1731 -4.2571 2.3947
-2.0175 -4.3265 2.3947
-1.8595 -4.3900 2.3947
-1.6995 -4.4477 2.3947
-1.5376 -4.4993 2.3947
-1.3741 -4.5450 2.3947
-1.2093 -4.5845 2.3947
-1.0433 -4.6180 2.3947
-0.8763 -4.6453 2.3947
-0.7087 -4.6665 2.3947
-0.5406 -4.6815 2.3947
-0.3723 -4.6904 2.3947
-0.2040 -4.6932 2.3947
-0.0359 -4.6899 2.3947
0.1317 -4.6804 2.3947
0.2987 -4.6649 2.3947
0.4648 -4.6434 2.3947
0.6298 -4.6160 2.3947
0.7934 -4.5826 2.3947
0.9556 -4.5434 2.3947
1.1160 -4.4985 2.3947
1.2745 -4.4479 2.3947
1.4308 -4.3917 2.3947
1.5848 -4.3301 2.3947
1.7363 -4.2630 2.3947
1.8851 -4.1907 2.3947
2.0310 -4.1132 2.3947
2.1739 -4.0306 2.3947
2.3136 -3.9432 2.3947
2.4498 -3.8509 2.3947
2.5826 -3.7540 2.3947
2.7116 -3.6526 2.3947
2.8368 -3.5468 2.3947
2.9580 -3.4368 2.3947
3.0752 -3.3227 2.3947
3.1880 -3.2047 2.3947
3.2965 -3.0829 2.3947
3.4006 -2.9576 2.3947
3.5000 -2.8288 2.3947
3.5947 -2.6967 2.3947
3.6847 -2.5616 2.3947
3.7697 -2.4235 2.3947
3.8498 -2.2827 2.3947
3.9248 -2.1393 2.3947
3.9946 -1.9935 2.3947
4.0593 -1.8455 2.3947
4.1187 -1.6955 2.3947
4.1728 -1.5437 2.3947
4.2215 -1.3901 2.3947
4.2648 -1.2352 2.3947
4.3027 -1.0789 2.3947
4.3351 -0.9215 2.3947
4.3619 -0.7632 2.3947
4.3833 -0.6041 2.3947
4.3990 -0.4445 2.3947
4.4093 -0.2846 2.3947
4.4139 -0.1245 2.3947
4.4130 0.0357 2.3947
4.4066 0.1956 2.3947
4.3946 0.3551 2.3947
4.3772 0.5141 2.3947
4.3542 0.6723 2.3947
4.3258 0.8296 2.3947
4.2919 0.9858 2.3947
4.2527 1.1407 2.3947
4.2081 1.2942 2.3947
4.1583 1.4460 2.3947
4.1032 1.5959 2.3947
4.0430 1.7439 2.3947
3.9777 1.8898 2.3947
3.9073 2.0333 2.3947
3.8320 2.1743 2.3947
3.7519 2.3126 2.3947
3.6670 2.4482 2.3947
3.5774 2.5807 2.3947
3.4833 2.7102 2.3947
3.3846 2.8363 2.3947
3.2816 2.9590 2.3947
3.1744 3.0781 2.3947
3.0630 3.1935 2.3947
2.9476 3.3050 2.3947
2.8283 3.4127 2.3947
2.7053 3.5159 2.3947
2.5786 3.6150 2.3947
2.4485 3.7098 2.3947
2.3150 3.7999 2.3947
0.8832 1.5753 0.9709
0.8259 1.6068 0.9701
0.7675 1.6362 0.9693
0.7081 1.6635 0.9685
0.6478 1.6887 0.9676
2.3353 3.5080 2.3947
0.8949 1.4559 0.9701
0.8419 1.4879 0.9694
0.7877 1.5179 0.9687
0.7326 1.5460 0.9679
0.6764 1.5721 0.9671
0.6194 1.5962 0.9663
0.5615 1.6181 0.9654
0.5028 1.6380 0.9646
0.4435 1.6557 0.9636
0.3835 1.6713 0.9627
0.3231 1.6848 0.9617
0.2622 1.6960 0.9607
0.2009 1.7051 0.9597
0.1393 1.7119 0.9586
0.0775 1.7165 0.9575
0.0156 1.7188 0.9564
-0.0463 1.7190 0.9553
-0.1082 1.7169 0.9542
-0.1700 1.7126 0.9530
-0.2317 1.7060 0.9519
-0.2930 1.6972 0.9507
-0.3540 1.6863 0.9495
-0.4145 1.6731 0.9483
-0.4745 1.6577 0.9470
-0.5340 1.6402 0.9458
-0.5927 1.6206 0.9446
-0.6507 1.5989 0.9433
-0.7079 1.5751 0.9421
-0.7642 1.5492 0.9409
-0.8195 1.5213 0.9396
-0.8738 1.4915 0.9384
-0.9270 1.4597 0.9372
-2.5048 3.6487 2.3947
-2.6381 3.5624 2.3947
-2.7683 3.4713 2.3947
-2.8953 3.3754 2.3947
-3.0188 3.2748 2.3947
-3.1387 3.1697 2.3947
-3.2549 3.0601 2.3947
-3.3671 2.9463 2.3947
-3.4753 2.8283 2.3947
-3.5791 2.7063 2.3947
-3.6785 2.5804 2.3947
-3.7734 2.4509 2.3947
-3.8635 2.3178 2.3947
-3.9487 2.1814 2.3947
-4.0290 2.0417 2.3947
-4.1041 1.8991 2.3947
-4.1740 1.7537 2.3947
-4.2386 1.6058 2.3947
-4.2977 1.4553 2.3947
-4.3512 1.3027 2.3947
-4.3991 1.1481 2.3947
-4.4413 0.9918 2.3947
-4.4777 0.8338 2.3947
-4.5082 0.6746 2.3947
-4.5328 0.5142 2.3947
-4.5514 0.3529 2.3947
-4.5641 0.1909 2.3947
-4.5707 0.0286 2.3947
-4.5713 -0.1340 2.3947
-4.5659 -0.2966 2.3947
-4.5544 -0.4589 2.3947
-4.5369 -0.6207 2.3947
-4.5133 -0.7818 2.3947
-4.4838 -0.9419 2.3947
-4.4483 -1.1009 2.3947
-4.4069 -1.2584 2.3947
-4.3597 -1.4143 2.3947
-4.3067 -1.5683 2.3947
-4.2480 -1.7203 2.3947
-4.1837 -1.8699 2.3947
-4.1139 -2.0170 2.3947
-4.0387 -2.1614 2.3947
-3.9581 -2.3029 2.3947
-3.8724 -2.4412 2.3947
-3.7815 -2.5763 2.3947
-3.6858 -2.7078 2.3947
-3.5853 -2.8356 2.3947
-3.4801 -2.9595 2.3947
-3.3705 -3.0794 2.3947
-3.2566 -3.1950 2.3947
-3.1385 -3.3063 2.3947
-3.0164 -3.4131 2.3947
-2.8905 -3.5152 2.3947
-2.7611 -3.6126 2.3947
-2.6282 -3.7050 2.3947
-2.4921 -3.7923 2.3947
-2.3529 -3.8745 2.3947
-2.2110 -3.9515 2.3947
-2.0664 -4.0231 2.3947
-1.9194 -4.0893 2.3947
-1.7702 -4.1499 2.3947
-1.6191 -4.2050 2.3947
-1.4661 -4.2545 2.3947
-1.3116 -4.2983 2.3947
-1.1558 -4.3363 2.3947
-0.9988 -4.3686 2.3947
-0.8410 -4.3951 2.3947
-0.6825 -4.4157 2.3947
-0.5234 -4.4306 2.3947
-0.3642 -4.4397 2.3947
-0.2049 -4.4429 2.3947
-0.0458 -4.4404 2.3947
0.1129 -4.4321 2.3947
0.2711 -4.4181 2.3947
0.4284 -4.3984 2.3947
0.5847 -4.3730 2.3947
0.7398 -4.3421 2.3947
0.8935 -4.3056 2.3947
1.0456 -4.2637 2.3947
1.1958 -4.2164 2.3947
1.3441 -4.1638 2.3947
1.4903 -4.1060 2.3947
1.6340 -4.0431 2.3947
1.7753 -3.9751 2.3947
1.9138 -3.9023 2.3947
2.0495 -3.8246 2.3947
2.1822 -3.7423 2.3947
2.3117 -3.6554 2.3947
2.4378 -3.5641 2.3947
2.5605 -3.4684 2.3947
2.6796 -3.3686 2.3947
2.7949 -3.2648 2.3947
2.9063 -3.1571 2.3947
3.0137 -3.0456 2.3947
3.1171 -2.9306 2.3947
3.2161 -2.8121 2.3947
3.3109 -2.6904 2.3947
3.4012 -2.5655 2.3947
