ply
format ascii 1.0
element vertex 2185
property float32 x
property float32 y
property float32 z
end_header
-6.5601 1.3777 2.4015
-6.6149 1.1431 2.4015
-6.6613 0.9063 2.4015
-6.6993 0.6677 2.4015
-6.7287 0.4275 2.4015
-6.7494 0.1862 2.4015
-6.7615 -0.0561 2.4015
-6.7649 -0.2989 2.4015
-6.7594 -0.5420 2.4015
-6.7452 -0.7850 2.4015
-6.7221 -1.0277 2.4015
-6.6902 -1.2696 2.4015
-6.6496 -1.5106 2.4015
-6.6001 -1.7502 2.4015
-6.5419 -1.9881 2.4015
-6.4749 -2.2240 2.4015
-6.3994 -2.4575 2.4015
-6.3152 -2.6885 2.4015
-6.2226 -2.9164 2.4015
-6.1216 -3.1410 2.4015
-6.0123 -3.3620 2.4015
-5.8949 -3.5791 2.4015
-5.7694 -3.7919 2.4015
-5.6361 -4.0002 2.4015
-5.4951 -4.2036 2.4015
-5.3466 -4.4018 2.4015
-5.1907 -4.5946 2.4015
-5.0277 -4.7817 2.4015
-4.8577 -4.9627 2.4015
-4.6811 -5.1375 2.4015
-4.4979 -5.3058 2.4015
-4.3086 -5.4672 2.4015
-4.1133 -5.6217 2.4015
-3.9123 -5.7688 2.4015
-3.7058 -5.9085 2.4015
-3.4942 -6.0405 2.4015
-3.2778 -6.1646 2.4015
-3.0568 -6.2807 2.4015
-2.8315 -6.3885 2.4015
-2.6024 -6.4878 2.4015
-2.3696 -6.5786 2.4015
-2.1336 -6.6607 2.4015
-1.8946 -6.7340 2.4015
-1.6530 -6.7983 2.4015
-1.4092 -6.8536 2.4015
-1.1635 -6.8998 2.4015
-0.9162 -6.9368 2.4015
-0.6677 -6.9646 2.4015
-0.4184 -6.9831 2.4015
-0.1686 -6.9923 2.4015
0.0813 -6.9922 2.4015
0.3310 -6.9828 2.4015
0.5801 -6.9642 2.4015
0.8283 -6.9363 2.4015
1.0751 -6.8992 2.4015
1.3203 -6.8530 2.4015
1.5636 -6.7977 2.4015
1.8044 -6.7335 2.4015
2.0426 -6.6604 2.4015
2.2778 -6.5786 2.4015
2.5097 -6.4882 2.4015
2.7379 -6.3894 2.4015
2.9622 -6.2822 2.4015
3.1821 -6.1669 2.4015
3.3975 -6.0437 2.4015
3.6081 -5.9127 2.4015
3.5714 -5.4077 2.2491
3.7587 -5.2710 2.2491
3.9407 -5.1277 2.2491
4.1171 -4.9780 2.2491
4.2877 -4.8220 2.2491
4.4523 -4.6600 2.2491
4.6107 -4.4923 2.2491
4.7627 -4.3191 2.2491
4.9081 -4.1406 2.2491
5.0468 -3.9571 2.2491
5.1785 -3.7689 2.2491
5.3031 -3.5763 2.2491
5.4205 -3.3795 2.2491
5.5305 -3.1788 2.2491
5.6353 -2.9756 2.2500
5.7339 -2.7696 2.2514
5.8239 -2.5599 2.2524
5.9063 -2.3472 2.2535
5.9806 -2.1318 2.2544
6.0446 -1.9132 2.2545
6.1005 -1.6928 2.2545
6.1483 -1.4707 2.2545
6.1881 -1.2474 2.2545
6.2199 -1.0230 2.2545
6.2435 -0.7980 2.2545
6.2591 -0.5725 2.2545
6.2666 -0.3470 2.2545
6.2660 -0.1216 2.2545
6.2574 0.1034 2.2545
6.2408 0.3276 2.2545
6.2163 0.5508 2.2545
6.1839 0.7728 2.2545
5.5639 0.8994 2.0417
5.5723 1.1076 2.0608
5.5809 1.3195 2.0830
5.9771 1.6422 2.2545
5.9066 1.8536 2.2545
5.8287 2.0623 2.2545
5.7437 2.2678 2.2545
5.6515 2.4699 2.2545
5.5524 2.6685 2.2544
5.4460 2.8630 2.2542
5.3329 3.0534 2.2540
5.2134 3.2396 2.2538
5.0875 3.4212 2.2536
4.9555 3.5981 2.2533
4.8174 3.7701 2.2531
4.6736 3.9369 2.2528
4.5241 4.0985 2.2525
4.3692 4.2546 2.2522
4.2091 4.4051 2.2519
4.0440 4.5497 2.2516
3.8741 4.6884 2.2513
3.6995 4.8209 2.2510
3.5206 4.9472 2.2507
3.3376 5.0671 2.2503
3.1506 5.1805 2.2500
2.9598 5.2872 2.2497
2.7656 5.3872 2.2493
2.5684 5.4807 2.2491
2.4901 5.8543 2.3649
2.3121 6.0304 2.4015
0.8536 2.4918 0.9797
0.7633 2.5211 0.9799
0.6720 2.5472 0.9802
0.5797 2.5700 0.9804
0.4867 2.5895 0.9805
0.3931 2.6055 0.9806
0.2989 2.6182 0.9806
0.2043 2.6275 0.9806
0.1095 2.6334 0.9805
0.0144 2.6358 0.9804
-0.0806 2.6348 0.9802
-0.1756 2.6304 0.9800
-0.2703 2.6225 0.9797
-0.3647 2.6112 0.9794
-0.4586 2.5966 0.9791
-0.5519 2.5785 0.9786
-0.6445 2.5571 0.9782
-0.7363 2.5323 0.9776
-0.8271 2.5043 0.9771
-2.2550 6.0821 2.4015
-2.4745 6.0012 2.4015
-2.6912 5.9127 2.4015
-2.9048 5.8166 2.4015
-3.1151 5.7131 2.4015
-3.3218 5.6022 2.4015
-3.5247 5.4840 2.4015
-3.7235 5.3588 2.4015
-3.9179 5.2265 2.4015
-4.1078 5.0873 2.4015
-4.2929 4.9415 2.4015
-4.4730 4.7891 2.4015
-4.6477 4.6304 2.4015
-4.8170 4.4654 2.4015
-4.9805 4.2944 2.4015
-5.1381 4.1175 2.4015
-5.2895 3.9350 2.4015
-5.4346 3.7471 2.4015
-5.5731 3.5539 2.4015
-5.7048 3.3557 2.4015
-5.8296 3.1528 2.4015
-5.9473 2.9453 2.4015
-6.0576 2.7334 2.4015
-6.1605 2.5176 2.4015
-6.2558 2.2979 2.4015
-6.3433 2.0747 2.4015
-6.4229 1.8483 2.4015
-6.4945 1.6188 2.4015
-6.5579 1.3866 2.4015
-6.6130 1.1520 2.4015
-6.6597 0.9153 2.4015
-6.6980 0.6768 2.4015
-6.7277 0.4367 2.4015
-6.7488 0.1954 2.4015
-6.7612 -0.0468 2.4015
-6.7649 -0.2896 2.4015
-6.7598 -0.5327 2.4015
-6.7459 -0.7757 2.4015
-6.7232 -1.0184 2.4015
-6.6916 -1.2604 2.4015
-6.6513 -1.5014 2.4015
-6.6021 -1.7410 2.4015
-6.5442 -1.9790 2.4015
-6.4776 -2.2150 2.4015
-6.4024 -2.4487 2.4015
-6.3186 -2.6797 2.4015
-6.2263 -2.9078 2.4015
-6.1256 -3.1325 2.4015
-6.0166 -3.3537 2.4015
-5.8995 -3.5709 2.4015
-5.7743 -3.7839 2.4015
-5.6413 -3.9923 2.4015
-5.5006 -4.1959 2.4015
-5.3524 -4.3943 2.4015
-5.1968 -4.5874 2.4015
-5.0340 -4.7746 2.4015
-4.8643 -4.9559 2.4015
-4.6879 -5.1310 2.4015
-4.5050 -5.2995 2.4015
-4.3159 -5.4612 2.4015
-4.1209 -5.6159 2.4015
-3.9201 -5.7634 2.4015
-3.7138 -5.9033 2.4015
-3.5024 -6.0356 2.4015
-3.2861 -6.1601 2.4015
-3.0653 -6.2764 2.4015
-2.8402 -6.3845 2.4015
-2.6112 -6.4842 2.4015
-2.3785 -6.5753 2.4015
-2.1426 -6.6577 2.4015
-1.9037 -6.7313 2.4015
-1.6623 -6.7960 2.4015
-1.4185 -6.8517 2.4015
-1.1729 -6.8982 2.4015
-0.9256 -6.9356 2.4015
-0.6772 -6.9637 2.4015
-0.4279 -6.9825 2.4015
-0.1781 -6.9921 2.4015
0.0718 -6.9924 2.4015
0.3215 -6.9834 2.4015
0.5706 -6.9650 2.4015
0.8188 -6.9375 2.4015
1.0657 -6.9008 2.4015
1.3110 -6.8549 2.4015
1.5543 -6.8000 2.4015
1.7953 -6.7361 2.4015
2.0336 -6.6634 2.4015
2.2689 -6.5819 2.4015
2.5009 -6.4918 2.4015
2.7293 -6.3933 2.4015
2.9537 -6.2864 2.4015
3.1738 -6.1714 2.4015
3.3894 -6.0485 2.4015
3.6001 -5.9178 2.4015
3.5642 -5.4128 2.2491
3.7517 -5.2764 2.2491
3.9338 -5.1333 2.2491
4.1105 -4.9838 2.2491
4.2813 -4.8281 2.2491
4.4462 -4.6663 2.2491
4.6048 -4.4988 2.2491
4.7570 -4.3258 2.2491
4.9027 -4.1475 2.2491
5.0416 -3.9642 2.2491
5.1736 -3.7762 2.2491
5.2985 -3.5837 2.2491
5.4162 -3.3871 2.2491
5.5265 -3.1865 2.2491
5.6313 -2.9833 2.2499
5.7303 -2.7776 2.2514
5.8207 -2.5680 2.2524
5.9033 -2.3554 2.2534
5.9780 -2.1401 2.2544
6.0423 -1.9216 2.2545
6.0985 -1.7012 2.2545
6.1467 -1.4792 2.2545
6.1868 -1.2559 2.2545
6.2188 -1.0316 2.2545
6.2428 -0.8066 2.2545
6.2586 -0.5811 2.2545
6.2664 -0.3556 2.2545
6.2662 -0.1301 2.2545
6.2579 0.0948 2.2545
6.2416 0.3191 2.2545
6.2174 0.5423 2.2545
6.1853 0.7643 2.2545
5.5635 0.8915 2.0410
5.5720 1.0996 2.0601
5.5806 1.3113 2.0821
5.9797 1.6340 2.2545
5.9094 1.8456 2.2545
5.8318 2.0544 2.2545
5.7470 2.2600 2.2545
5.6552 2.4623 2.2545
5.5563 2.6610 2.2544
5.4502 2.8557 2.2542
5.3374 3.0463 2.2540
5.2181 3.2325 2.2538
5.0924 3.4143 2.2536
4.9606 3.5914 2.2533
4.8228 3.7636 2.2531
4.6792 3.9307 2.2528
4.5299 4.0924 2.2525
4.3752 4.2488 2.2522
4.2153 4.3994 2.2519
4.0504 4.5443 2.2516
3.8806 4.6832 2.2513
3.7063 4.8160 2.2510
3.5275 4.9425 2.2507
3.3446 5.0627 2.2504
3.1578 5.1763 2.2500
2.9672 5.2832 2.2497
2.7731 5.3835 2.2493
2.5759 5.4772 2.2491
2.4907 5.8333 2.3577
2.3204 6.0273 2.4015
0.8571 2.4906 0.9796
0.7668 2.5201 0.9799
0.6755 2.5463 0.9802
0.5833 2.5692 0.9804
0.4903 2.5888 0.9805
0.3967 2.6050 0.9806
0.3025 2.6178 0.9806
0.2079 2.6272 0.9806
0.1131 2.6332 0.9805
0.0181 2.6358 0.9804
-0.0770 2.6349 0.9802
-0.1719 2.6306 0.9800
2.1290 -6.1247 2.4015
2.3448 -6.0405 2.4015
2.5573 -5.9484 2.4015
2.7661 -5.8486 2.4015
2.9710 -5.7413 2.4015
3.1716 -5.6265 2.4015
3.3677 -5.5046 2.4015
3.3401 -5.0448 2.2537
3.5077 -4.9072 2.2491
3.6772 -4.7738 2.2491
3.8416 -4.6344 2.2491
4.0007 -4.4891 2.2491
4.1541 -4.3383 2.2491
4.3018 -4.1821 2.2491
4.4436 -4.0208 2.2491
4.5792 -3.8546 2.2491
4.7085 -3.6837 2.2491
4.8314 -3.5084 2.2491
4.9477 -3.3290 2.2491
5.0573 -3.1456 2.2491
5.1601 -2.9586 2.2491
5.2559 -2.7682 2.2491
5.3446 -2.5747 2.2491
5.4339 -2.3817 2.2523
5.5124 -2.1840 2.2540
5.5808 -1.9827 2.2545
5.6406 -1.7789 2.2545
5.6929 -1.5733 2.2545
5.7378 -1.3662 2.2545
5.7751 -1.1579 2.2545
5.8050 -0.9486 2.2545
5.8272 -0.7386 2.2545
5.8420 -0.5282 2.2545
5.8492 -0.3177 2.2545
5.8488 -0.1074 2.2545
5.8410 0.1026 2.2545
5.8257 0.3120 2.2545
5.8030 0.5204 2.2545
5.7730 0.7276 2.2545
5.5641 0.9055 2.1870
5.6911 1.1375 2.2545
5.6393 1.3397 2.2545
5.5806 1.5397 2.2545
5.5148 1.7372 2.2544
5.4418 1.9320 2.2543
5.3621 2.1239 2.2541
5.2758 2.3126 2.2540
5.1829 2.4980 2.2538
5.0836 2.6797 2.2536
4.9782 2.8577 2.2534
4.8666 3.0317 2.2532
4.7490 3.2014 2.2530
4.6257 3.3668 2.2527
4.4968 3.5275 2.2525
4.3624 3.6835 2.2523
4.2228 3.8346 2.2520
4.0781 3.9805 2.2517
3.9285 4.1212 2.2515
3.7742 4.2564 2.2512
3.6153 4.3860 2.2509
3.4522 4.5099 2.2506
3.2849 4.6280 2.2503
3.1137 4.7401 2.2500
2.9389 4.8460 2.2497
2.7605 4.9458 2.2493
2.5790 5.0395 2.2491
2.4773 5.3041 2.3267
2.3571 5.5614 2.4015
0.8762 2.2944 0.9768
0.7930 2.3247 0.9771
0.7087 2.3520 0.9773
0.6234 2.3762 0.9776
0.5374 2.3973 0.9777
0.4506 2.4153 0.9779
0.3632 2.4302 0.9779
0.2753 2.4419 0.9780
0.1871 2.4504 0.9779
0.0986 2.4557 0.9779
0.0100 2.4579 0.9778
-0.0787 2.4568 0.9776
-0.1673 2.4525 0.9774
-0.2556 2.4451 0.9771
-0.3436 2.4344 0.9768
-0.4312 2.4206 0.9765
-0.5183 2.4037 0.9761
-0.6046 2.3836 0.9757
-0.6902 2.3604 0.9752
-0.7749 2.3341 0.9746
-0.8586 2.3048 0.9741
-2.3218 5.6062 2.4015
-2.5242 5.5230 2.4015
-2.7237 5.4326 2.4015
-2.9200 5.3353 2.4015
-3.1130 5.2311 2.4015
-3.3023 5.1201 2.4015
-3.4878 5.0024 2.4015
-3.6692 4.8783 2.4015
-3.8463 4.7477 2.4015
-4.0189 4.6109 2.4015
-4.1867 4.4679 2.4015
-4.3495 4.3191 2.4015
-4.5072 4.1644 2.4015
-4.6594 4.0041 2.4015
-4.8061 3.8384 2.4015
-4.9470 3.6674 2.4015
-5.0819 3.4914 2.4015
-5.2106 3.3105 2.4015
-5.3330 3.1250 2.4015
-5.4489 2.9351 2.4015
-5.5581 2.7409 2.4015
-5.6604 2.5427 2.4015
-5.7557 2.3408 2.4015
-5.8439 2.1354 2.4015
-5.9249 1.9267 2.4015
-5.9984 1.7151 2.4015
-6.0644 1.5007 2.4015
-6.1227 1.2838 2.4015
-6.1734 1.0647 2.4015
-6.2161 0.8436 2.4015
-6.2510 0.6209 2.4015
-6.2779 0.3968 2.4015
-6.2967 0.1716 2.4015
-6.3074 -0.0543 2.4015
-6.3100 -0.2808 2.4015
-6.3044 -0.5075 2.4015
-6.2906 -0.7341 2.4015
-6.2686 -0.9603 2.4015
-6.2383 -1.1859 2.4015
-6.1999 -1.4104 2.4015
-6.1532 -1.6336 2.4015
-6.0985 -1.8553 2.4015
-6.0356 -2.0750 2.4015
-5.9647 -2.2926 2.4015
-5.8858 -2.5076 2.4015
-5.7991 -2.7198 2.4015
-5.7045 -2.9289 2.4015
-5.6023 -3.1346 2.4015
-5.4925 -3.3367 2.4015
-5.3753 -3.5347 2.4015
-5.2507 -3.7285 2.4015
-5.1190 -3.9177 2.4015
-4.9804 -4.1021 2.4015
-4.8349 -4.2815 2.4015
-4.6828 -4.4554 2.4015
-4.5243 -4.6238 2.4015
-4.3596 -4.7864 2.4015
-4.1888 -4.9428 2.4015
-4.0123 -5.0929 2.4015
-3.8303 -5.2365 2.4015
-3.6430 -5.3733 2.4015
-3.4506 -5.5032 2.4015
-3.2535 -5.6259 2.4015
-3.0519 -5.7413 2.4015
-2.8461 -5.8491 2.4015
-2.6363 -5.9493 2.4015
-2.4229 -6.0417 2.4015
-2.2062 -6.1261 2.4015
-1.9864 -6.2024 2.4015
-1.7640 -6.2705 2.4015
-1.5391 -6.3304 2.4015
-1.3121 -6.3818 2.4015
-1.0834 -6.4248 2.4015
-0.8532 -6.4593 2.4015
-0.6219 -6.4851 2.4015
-0.3898 -6.5024 2.4015
-0.1573 -6.5111 2.4015
0.0754 -6.5111 2.4015
0.3078 -6.5025 2.4015
0.5397 -6.4852 2.4015
0.7707 -6.4594 2.4015
1.0006 -6.4251 2.4015
1.2289 -6.3822 2.4015
1.4554 -6.3310 2.4015
1.6797 -6.2714 2.4015
1.9016 -6.2037 2.4015
2.1206 -6.1278 2.4015
2.3367 -6.0438 2.4015
2.5493 -5.9521 2.4015
2.7583 -5.8526 2.4015
2.9633 -5.7455 2.4015
3.1640 -5.6310 2.4015
3.3603 -5.5093 2.4015
3.3264 -5.0392 2.2491
3.5011 -4.9122 2.2491
3.6709 -4.7790 2.2491
3.8355 -4.6398 2.2491
3.9947 -4.4948 2.2491
4.1484 -4.3442 2.2491
4.2963 -4.1882 2.2491
4.4383 -4.0271 2.2491
4.5741 -3.8610 2.2491
4.7037 -3.6903 2.2491
4.8268 -3.5152 2.2491
4.9434 -3.3359 2.2491
5.0533 -3.1527 2.2491
5.1563 -2.9658 2.2491
5.2524 -2.7755 2.2491
5.3414 -2.5821 2.2491
5.4307 -2.3891 2.2522
5.5096 -2.1916 2.2539
5.5783 -1.9904 2.2545
5.6384 -1.7867 2.2545
5.6910 -1.5812 2.2545
5.7362 -1.3741 2.2545
5.7738 -1.1658 2.2545
5.8040 -0.9566 2.2545
5.8265 -0.7466 2.2545
5.8415 -0.5363 2.2545
5.8490 -0.3258 2.2545
5.8490 -0.1154 2.2545
5.8414 0.0946 2.2545
5.8264 0.3040 2.2545
5.8040 0.5124 2.2545
5.7743 0.7197 2.2545
5.5638 0.8976 2.1863
5.6929 1.1297 2.2545
5.6414 1.3320 2.2545
5.5829 1.5321 2.2545
5.5174 1.7297 2.2544
5.4447 1.9246 2.2543
5.3653 2.1166 2.2541
5.2792 2.3055 2.2540
5.1866 2.4910 2.2538
5.0875 2.6729 2.2536
4.9823 2.8510 2.2534
4.8709 3.0251 2.2532
4.7536 3.1950 2.2530
4.6305 3.3605 2.2528
4.5018 3.5215 2.2525
4.3677 3.6777 2.2523
4.2282 3.8289 2.2520
4.0837 3.9750 2.2517
3.9343 4.1159 2.2515
3.7801 4.2513 2.2512
3.6215 4.3812 2.2509
3.4585 4.5053 2.2506
3.2914 4.6236 2.2503
3.1203 4.7359 2.2500
2.9456 4.8421 2.2497
2.7674 4.9421 2.2493
2.5860 5.0360 2.2491
2.4778 5.2863 2.3204
2.3647 5.5582 2.4015
0.8794 2.2932 0.9768
0.7962 2.3236 0.9771
0.7119 2.3510 0.9773
0.6267 2.3753 0.9776
0.5407 2.3965 0.9777
0.4539 2.4147 0.9779
0.3665 2.4296 0.9779
0.2787 2.4415 0.9780
0.1905 2.4501 0.9779
0.1020 2.4556 0.9779
0.0133 2.4578 0.9778
-0.0753 2.4569 0.9776
-0.1639 2.4528 0.9774
-0.2522 2.4454 0.9771
-0.3403 2.4349 0.9768
-0.4279 2.4212 0.9765
-0.5150 2.4044 0.9761
-0.6013 2.3844 0.9757
-0.6870 2.3613 0.9752
-0.7717 2.3352 0.9747
-0.8554 2.3060 0.9741
-2.3140 5.6093 2.4015
-2.5165 5.5263 2.4015
-2.7161 5.4362 2.4015
-2.9126 5.3391 2.4015
-3.1057 5.2352 2.4015
-3.2952 5.1244 2.4015
-3.4808 5.0070 2.4015
-3.6624 4.8831 2.4015
-3.8396 4.7528 2.4015
-4.0124 4.6162 2.4015
-4.1804 4.4735 2.4015
-4.3434 4.3249 2.4015
-4.5013 4.1704 2.4015
-4.6537 4.0103 2.4015
-4.8006 3.8448 2.4015
-4.9417 3.6741 2.4015
-5.0769 3.4982 2.4015
-5.2058 3.3175 2.4015
-5.3285 3.1322 2.4015
-5.4446 2.9424 2.4015
-5.5540 2.7483 2.4015
-5.6566 2.5503 2.4015
-5.7522 2.3486 2.4015
-5.8407 2.1433 2.4015
-5.9219 1.9348 2.4015
-5.9957 1.7232 2.4015
-6.0620 1.5089 2.4015
-6.1207 1.2921 2.4015
-6.1716 1.0731 2.4015
-6.2147 0.8521 2.4015
-6.2498 0.6294 2.4015
-6.2770 0.4054 2.4015
-6.2961 0.1803 2.4015
-6.3072 -0.0457 2.4015
-6.3101 -0.2722 2.4015
-6.3048 -0.4988 2.4015
-6.2913 -0.7255 2.4015
-6.2695 -0.9517 2.4015
-6.2396 -1.1773 2.4015
-6.2015 -1.4019 2.4015
-6.1552 -1.6252 2.4015
-6.1007 -1.8469 2.4015
-6.0382 -2.0667 2.4015
-5.9676 -2.2843 2.4015
-5.8890 -2.4994 2.4015
-5.8025 -2.7118 2.4015
-5.7083 -2.9210 2.4015
-5.6063 -3.1269 2.4015
-5.4968 -3.3290 2.4015
-5.3799 -3.5272 2.4015
-5.2556 -3.7212 2.4015
-5.1242 -3.9106 2.4015
-4.9858 -4.0952 2.4015
-4.8406 -4.2747 2.4015
-4.6887 -4.4489 2.4015
-4.5305 -4.6175 2.4015
-4.3660 -4.7803 2.4015
-4.1955 -4.9369 2.4015
-4.0191 -5.0873 2.4015
-3.8374 -5.2311 2.4015
-3.6502 -5.3682 2.4015
-3.4580 -5.4984 2.4015
-3.2612 -5.6213 2.4015
-3.0597 -5.7370 2.4015
-2.8540 -5.8451 2.4015
-2.6444 -5.9456 2.4015
-2.4311 -6.0383 2.4015
-2.2145 -6.1230 2.4015
-1.9949 -6.1997 2.4015
-1.7725 -6.2681 2.4015
-1.5477 -6.3282 2.4015
-1.3208 -6.3800 2.4015
-1.0921 -6.4233 2.4015
-0.8620 -6.4581 2.4015
-0.6307 -6.4843 2.4015
-0.3987 -6.5019 2.4015
-0.1662 -6.5109 2.4015
0.0665 -6.5112 2.4015
0.2989 -6.5030 2.4015
0.5309 -6.4861 2.4015
0.7619 -6.4606 2.4015
0.9918 -6.4265 2.4015
1.2202 -6.3840 2.4015
1.4468 -6.3331 2.4015
1.6712 -6.2739 2.4015
1.8932 -6.2064 2.4015
2.1124 -6.1308 2.4015
2.3285 -6.0472 2.4015
2.5412 -5.9557 2.4015
2.7504 -5.8565 2.4015
2.9555 -5.7497 2.4015
3.1565 -5.6355 2.4015
3.3529 -5.5141 2.4015
3.3197 -5.0439 2.2491
3.4945 -4.9171 2.2491
3.6645 -4.7842 2.2491
3.8293 -4.6452 2.2491
3.9887 -4.5004 2.2491
4.1426 -4.3500 2.2491
4.2907 -4.1942 2.2491
4.4330 -4.0333 2.2491
4.5691 -3.8674 2.2491
4.6989 -3.6969 2.2491
4.8223 -3.5219 2.2491
4.9391 -3.3428 2.2491
5.0492 -3.1597 2.2491
5.1525 -2.9730 2.2491
5.2488 -2.7828 2.2491
5.3381 -2.5895 2.2491
5.4274 -2.3965 2.2521
5.5068 -2.1992 2.2539
5.5759 -1.9982 2.2545
5.6362 -1.7945 2.2545
5.6892 -1.5890 2.2545
5.7346 -1.3820 2.2545
5.7726 -1.1738 2.2545
5.8029 -0.9646 2.2545
5.8258 -0.7547 2.2545
5.8411 -0.5443 2.2545
5.8489 -0.3338 2.2545
5.8491 -0.1234 2.2545
5.8419 0.0866 2.2545
5.8272 0.2960 2.2545
5.8050 0.5045 2.2545
5.7755 0.7118 2.2545
5.5635 0.8897 2.1856
5.6947 1.1220 2.2545
5.6435 1.3243 2.2545
5.5853 1.5245 2.2545
5.5200 1.7222 2.2544
5.4476 1.9172 2.2543
5.3684 2.1093 2.2541
5.2826 2.2983 2.2540
5.1902 2.4839 2.2538
5.0914 2.6660 2.2536
4.9864 2.8443 2.2534
4.8753 3.0185 2.2532
4.7582 3.1886 2.2530
4.6353 3.3543 2.2528
4.5068 3.5154 2.2525
4.3729 3.6718 2.2523
4.2336 3.8232 2.2520
4.0893 3.9695 2.2518
3.9401 4.1106 2.2515
3.7861 4.2463 2.2512
3.6276 4.3763 2.2509
3.4648 4.5007 2.2506
3.2978 4.6192 2.2503
3.1269 4.7317 2.2500
2.9523 4.8382 2.2497
2.7742 4.9384 2.2494
2.5930 5.0325 2.2491
2.4784 5.2685 2.3140
2.3724 5.5550 2.4015
0.8825 2.2920 0.9767
0.7994 2.3225 0.9771
0.7151 2.3500 0.9773
0.6300 2.3744 0.9775
0.5439 2.3958 0.9777
0.4572 2.4140 0.9778
0.3699 2.4291 0.9779
0.2820 2.4411 0.9780
0.1938 2.4498 0.9779
0.1053 2.4554 0.9779
0.0167 2.4578 0.9778
-0.0719 2.4570 0.9776
-0.1605 2.4530 0.9774
1.9893 -5.7257 2.4015
2.1911 -5.6473 2.4015
2.3898 -5.5614 2.4015
2.5851 -5.4684 2.4015
2.7767 -5.3683 2.4015
2.9643 -5.2614 2.4015
3.1478 -5.1476 2.4015
3.1157 -4.7083 2.2491
3.2790 -4.5896 2.2491
3.4377 -4.4651 2.2491
3.5916 -4.3350 2.2491
3.7406 -4.1995 2.2491
3.8843 -4.0587 2.2491
4.0227 -3.9129 2.2491
4.1555 -3.7623 2.2491
4.2827 -3.6071 2.2491
4.4039 -3.4475 2.2491
4.5192 -3.2837 2.2491
4.6283 -3.1161 2.2491
4.7312 -2.9448 2.2491
4.8277 -2.7700 2.2491
4.9177 -2.5920 2.2491
5.0011 -2.4111 2.2491
5.0886 -2.2323 2.2539
5.1590 -2.0459 2.2540
5.2225 -1.8573 2.2541
5.2791 -1.6668 2.2542
5.3287 -1.4745 2.2543
5.3712 -1.2808 2.2544
5.4067 -1.0859 2.2544
5.4352 -0.8900 2.2545
5.4564 -0.6935 2.2545
5.4707 -0.4965 2.2545
5.4778 -0.2994 2.2545
5.4779 -0.1024 2.2545
5.4710 0.0943 2.2545
5.4570 0.2904 2.2544
5.4360 0.4857 2.2544
5.4081 0.6799 2.2543
5.3733 0.8727 2.2542
5.3317 1.0639 2.2541
5.2834 1.2534 2.2540
5.2284 1.4408 2.2539
5.1669 1.6259 2.2538
5.0989 1.8086 2.2537
5.0246 1.9885 2.2535
4.9440 2.1655 2.2534
4.8573 2.3394 2.2532
4.7646 2.5099 2.2530
4.6660 2.6769 2.2529
4.5617 2.8401 2.2527
4.4518 2.9994 2.2525
4.3364 3.1546 2.2522
4.2158 3.3055 2.2520
4.0900 3.4520 2.2518
3.9593 3.5938 2.2515
3.8238 3.7308 2.2513
3.6837 3.8629 2.2510
3.5392 3.9899 2.2508
3.3904 4.1117 2.2505
3.2375 4.2281 2.2502
3.0807 4.3390 2.2499
2.9203 4.4443 2.2496
2.7564 4.5439 2.2493
2.5893 4.6378 2.2491
2.4660 4.8175 2.2926
2.3986 5.1344 2.4015
0.8969 2.1158 0.9741
0.8201 2.1469 0.9745
0.7421 2.1752 0.9748
0.6632 2.2007 0.9750
0.5834 2.2234 0.9752
0.5028 2.2431 0.9754
0.4216 2.2600 0.9755
0.3398 2.2739 0.9756
0.2576 2.2848 0.9756
0.1750 2.2928 0.9756
0.0922 2.2978 0.9755
0.0092 2.2998 0.9754
-0.0738 2.2988 0.9753
-0.1567 2.2948 0.9751
-0.2394 2.2878 0.9748
-0.3218 2.2778 0.9745
-0.4038 2.2649 0.9742
-0.4852 2.2490 0.9739
-0.5660 2.2302 0.9734
-0.6462 2.2085 0.9730
-0.7254 2.1839 0.9725
-0.8037 2.1565 0.9720
-0.8810 2.1263 0.9714
-2.3679 5.1784 2.4015
-2.5549 5.0934 2.4015
-2.7389 5.0019 2.4015
-2.9197 4.9039 2.4015
-3.0972 4.7996 2.4015
-3.2710 4.6891 2.4015
-3.4409 4.5724 2.4015
-3.6068 4.4497 2.4015
-3.7684 4.3212 2.4015
-3.9255 4.1869 2.4015
-4.0779 4.0471 2.4015
-4.2254 3.9019 2.4015
-4.3679 3.7514 2.4015
-4.5051 3.5958 2.4015
-4.6368 3.4354 2.4015
-4.7629 3.2702 2.4015
-4.8833 3.1004 2.4015
-4.9976 2.9264 2.4015
-5.1058 2.7482 2.4015
-5.2078 2.5660 2.4015
-5.3033 2.3802 2.4015
-5.3922 2.1909 2.4015
-5.4744 1.9983 2.4015
-5.5498 1.8029 2.4015
-5.6182 1.6044 2.4015
-5.6796 1.4034 2.4015
-5.7338 1.2002 2.4015
-5.7808 0.9950 2.4015
-5.8204 0.7879 2.4015
-5.8526 0.5794 2.4015
-5.8773 0.3695 2.4015
-5.8945 0.1587 2.4015
-5.9041 -0.0528 2.4015
-5.9060 -0.2648 2.4015
-5.9003 -0.4769 2.4015
-5.8870 -0.6889 2.4015
-5.8659 -0.9005 2.4015
-5.8372 -1.1115 2.4015
-5.8008 -1.3215 2.4015
-5.7568 -1.5303 2.4015
-5.7051 -1.7375 2.4015
-5.6459 -1.9429 2.4015
-5.5792 -2.1462 2.4015
-5.5051 -2.3472 2.4015
-5.4236 -2.5455 2.4015
-5.3348 -2.7409 2.4015
-5.2389 -2.9331 2.4015
-5.1359 -3.1218 2.4015
-5.0260 -3.3068 2.4015
-4.9092 -3.4877 2.4015
-4.7859 -3.6645 2.4015
-4.6560 -3.8367 2.4015
-4.5198 -4.0041 2.4015
-4.3774 -4.1665 2.4015
-4.2290 -4.3237 2.4015
-4.0749 -4.4754 2.4015
-3.9151 -4.6214 2.4015
-3.7500 -4.7615 2.4015
-3.5798 -4.8955 2.4015
-3.4046 -5.0232 2.4015
-3.2247 -5.1444 2.4015
-3.0405 -5.2589 2.4015
-2.8520 -5.3665 2.4015
-2.6596 -5.4672 2.4015
-2.4635 -5.5607 2.4015
-2.2641 -5.6469 2.4015
-2.0616 -5.7257 2.4015
-1.8563 -5.7969 2.4015
-1.6484 -5.8605 2.4015
-1.4382 -5.9163 2.4015
-1.2262 -5.9644 2.4015
-1.0125 -6.0045 2.4015
-0.7974 -6.0367 2.4015
-0.5813 -6.0609 2.4015
-0.3645 -6.0771 2.4015
-0.1473 -6.0853 2.4015
0.0701 -6.0854 2.4015
0.2872 -6.0774 2.4015
0.5039 -6.0614 2.4015
0.7198 -6.0374 2.4015
0.9346 -6.0055 2.4015
1.1480 -5.9656 2.4015
1.3596 -5.9179 2.4015
1.5693 -5.8624 2.4015
1.7767 -5.7993 2.4015
1.9815 -5.7286 2.4015
2.1834 -5.6504 2.4015
2.3823 -5.5649 2.4015
2.5777 -5.4721 2.4015
2.7694 -5.3723 2.4015
2.9572 -5.2656 2.4015
3.1409 -5.1521 2.4015
3.1094 -4.7127 2.2491
3.2729 -4.5942 2.2491
3.4318 -4.4700 2.2491
3.5859 -4.3401 2.2491
3.7350 -4.2047 2.2491
3.8789 -4.0642 2.2491
4.0175 -3.9186 2.2491
4.1506 -3.7681 2.2491
4.2779 -3.6131 2.2491
4.3994 -3.4537 2.2491
4.5149 -3.2901 2.2491
4.6243 -3.1226 2.2491
4.7274 -2.9514 2.2491
4.8241 -2.7767 2.2491
4.9144 -2.5989 2.2491
4.9980 -2.4181 2.2491
5.0858 -2.2393 2.2539
5.1564 -2.0531 2.2540
5.2202 -1.8646 2.2541
5.2770 -1.6741 2.2542
5.3269 -1.4819 2.2543
5.3697 -1.2882 2.2544
5.4055 -1.0933 2.2544
5.4342 -0.8975 2.2545
5.4558 -0.7010 2.2545
5.4702 -0.5040 2.2545
5.4777 -0.3069 2.2545
5.4780 -0.1099 2.2545
5.4714 0.0868 2.2545
5.4576 0.2830 2.2544
5.4369 0.4783 2.2544
5.4093 0.6725 2.2543
5.3748 0.8654 2.2542
5.3334 1.0567 2.2541
5.2854 1.2462 2.2541
5.2307 1.4337 2.2539
5.1694 1.6189 2.2538
5.1016 1.8017 2.2537
5.0275 1.9817 2.2535
4.9472 2.1588 2.2534
4.8607 2.3328 2.2532
4.7682 2.5035 2.2531
4.6698 2.6706 2.2529
4.5658 2.8340 2.2527
4.4561 2.9934 2.2525
4.3409 3.1488 2.2523
4.2205 3.2999 2.2520
4.0949 3.4465 2.2518
3.9644 3.5885 2.2516
3.8291 3.7257 2.2513
3.6891 3.8580 2.2510
3.5448 3.9852 2.2508
3.3961 4.1072 2.2505
3.2434 4.2238 2.2502
3.0868 4.3349 2.2499
2.9265 4.4404 2.2497
2.7627 4.5402 2.2494
2.5957 4.6343 2.2491
2.4665 4.8022 2.2869
2.4057 5.1312 2.4015
0.8998 2.1145 0.9741
0.8230 2.1458 0.9745
0.7451 2.1742 0.9748
0.6662 2.1998 0.9750
0.5865 2.2226 0.9752
0.5059 2.2424 0.9754
0.4247 2.2594 0.9755
0.3430 2.2734 0.9756
0.2607 2.2845 0.9756
0.1781 2.2926 0.9756
0.0953 2.2976 0.9755
0.0124 2.2998 0.9754
-0.0706 2.2989 0.9753
-0.1535 2.2950 0.9751
-0.2362 2.2881 0.9748
-0.3186 2.2783 0.9746
-0.4006 2.2655 0.9742
-0.4821 2.2497 0.9739
-0.5630 2.2310 0.9735
-0.6431 2.2094 0.9730
-0.7224 2.1849 0.9725
-0.8008 2.1576 0.9720
-0.8781 2.1275 0.9714
-2.3607 5.1815 2.4015
-2.5478 5.0968 2.4015
-2.7319 5.0055 2.4015
-2.9129 4.9078 2.4015
-3.0905 4.8037 2.4015
-3.2644 4.6934 2.4015
-3.4345 4.5770 2.4015
-3.6005 4.4545 2.4015
-3.7623 4.3262 2.4015
-3.9196 4.1922 2.4015
-4.0722 4.0526 2.4015
-4.2199 3.9075 2.4015
-4.3626 3.7572 2.4015
-4.5000 3.6019 2.4015
-4.6319 3.4416 2.4015
-4.7582 3.2765 2.4015
-4.8788 3.1070 2.4015
-4.9934 2.9331 2.4015
-5.1018 2.7550 2.4015
-5.2040 2.5731 2.4015
-5.2997 2.3874 2.4015
-5.3889 2.1982 2.4015
-5.4714 2.0058 2.4015
-5.5470 1.8103 2.4015
-5.6157 1.6120 2.4015
-5.6774 1.4111 2.4015
-5.7319 1.2080 2.4015
-5.7791 1.0028 2.4015
-5.8190 0.7959 2.4015
-5.8515 0.5874 2.4015
-5.8765 0.3776 2.4015
-5.8940 0.1668 2.4015
-5.9039 -0.0447 2.4015
-5.9061 -0.2567 2.4015
-5.9007 -0.4688 2.4015
-5.8876 -0.6808 2.4015
-5.8669 -0.8925 2.4015
-5.8384 -1.1035 2.4015
-5.8023 -1.3135 2.4015
-5.7586 -1.5223 2.4015
-5.7072 -1.7296 2.4015
-5.6483 -1.9351 2.4015
-5.5819 -2.1385 2.4015
-5.5080 -2.3396 2.4015
-5.4268 -2.5380 2.4015
-5.3383 -2.7335 2.4015
-5.2427 -2.9258 2.4015
-5.1398 -3.1147 2.4015
-5.0303 -3.2998 2.4015
-4.9138 -3.4809 2.4015
-4.7907 -3.6578 2.4015
-4.6611 -3.8302 2.4015
-4.5251 -3.9978 2.4015
-4.3829 -4.1604 2.4015
-4.2348 -4.3178 2.4015
-4.0808 -4.4697 2.4015
-3.9213 -4.6159 2.4015
-3.7564 -4.7563 2.4015
-3.5864 -4.8905 2.4015
-3.4114 -5.0185 2.4015
-3.2317 -5.1399 2.4015
-3.0476 -5.2547 2.4015
-2.8593 -5.3626 2.4015
-2.6670 -5.4635 2.4015
-2.4711 -5.5573 2.4015
-2.2718 -5.6437 2.4015
-2.0694 -5.7228 2.4015
-1.8641 -5.7943 2.4015
-1.6563 -5.8582 2.4015
-1.4463 -5.9144 2.4015
-1.2343 -5.9627 2.4015
-1.0207 -6.0031 2.4015
-0.8057 -6.0356 2.4015
-0.5896 -6.0602 2.4015
-0.3728 -6.0766 2.4015
-0.1556 -6.0851 2.4015
0.0618 -6.0855 2.4015
0.2790 -6.0779 2.4015
0.4957 -6.0622 2.4015
0.7116 -6.0385 2.4015
0.9264 -6.0068 2.4015
1.1398 -5.9673 2.4015
1.3516 -5.9199 2.4015
1.5613 -5.8647 2.4015
1.7688 -5.8018 2.4015
1.9737 -5.7314 2.4015
2.1758 -5.6535 2.4015
2.3747 -5.5683 2.4015
2.5703 -5.4758 2.4015
2.7622 -5.3762 2.4015
2.9502 -5.2698 2.4015
3.1339 -5.1565 2.4015
3.1031 -4.7171 2.2491
3.2667 -4.5989 2.2491
3.4258 -4.4748 2.2491
3.5801 -4.3451 2.2491
3.7294 -4.2100 2.2491
3.8735 -4.0696 2.2491
4.0123 -3.9242 2.2491
4.1456 -3.7739 2.2491
4.2731 -3.6191 2.2491
4.3949 -3.4598 2.2491
4.5106 -3.2964 2.2491
4.6202 -3.1290 2.2491
4.7236 -2.9580 2.2491
4.8205 -2.7835 2.2491
4.9110 -2.6057 2.2491
4.9949 -2.4250 2.2491
5.0830 -2.2464 2.2539
5.1539 -2.0602 2.2540
5.2179 -1.8718 2.2541
5.2750 -1.6814 2.2542
5.3251 -1.4892 2.2543
5.3682 -1.2956 2.2544
5.4043 -1.1008 2.2544
5.4332 -0.9050 2.2545
5.4551 -0.7085 2.2545
5.4698 -0.5115 2.2545
5.4775 -0.3144 2.2545
5.4781 -0.1174 2.2545
5.4718 0.0793 2.2545
5.4583 0.2755 2.2544
5.4378 0.4708 2.2544
5.4105 0.6651 2.2543
5.3762 0.8580 2.2542
5.3351 1.0494 2.2542
5.2873 1.2390 2.2541
5.2329 1.4266 2.2539
5.1718 1.6119 2.2538
5.1043 1.7947 2.2537
5.0305 1.9749 2.2536
4.9504 2.1521 2.2534
4.8641 2.3262 2.2532
4.7718 2.4970 2.2531
4.6737 2.6643 2.2529
4.5698 2.8278 2.2527
4.4603 2.9874 2.2525
4.3454 3.1429 2.2523
4.2252 3.2942 2.2520
4.0998 3.4410 2.2518
3.9695 3.5832 2.2516
3.8343 3.7206 2.2513
3.6946 3.8530 2.2511
3.5504 3.9804 2.2508
3.4019 4.1026 2.2505
3.2493 4.2194 2.2502
3.0928 4.3307 2.2500
2.9327 4.4365 2.2497
2.7690 4.5365 2.2494
2.6021 4.6307 2.2491
2.4670 4.7869 2.2812
2.4128 5.1279 2.4015
0.9027 2.1133 0.9741
0.8260 2.1446 0.9745
0.7481 2.1732 0.9748
0.6693 2.1989 0.9750
0.5895 2.2218 0.9752
0.5090 2.2417 0.9754
0.4278 2.2588 0.9755
0.3461 2.2729 0.9756
0.2639 2.2841 0.9756
0.1813 2.2923 0.9756
0.0985 2.2975 0.9755
0.0155 2.2997 0.9754
-0.0675 2.2990 0.9753
-0.1504 2.2952 0.9751
1.8646 -5.3697 2.4015
2.0539 -5.2963 2.4015
2.2402 -5.2161 2.4015
2.4234 -5.1291 2.4015
2.6032 -5.0354 2.4015
2.7793 -4.9353 2.4015
2.9019 -4.7479 2.3612
2.9215 -4.4170 2.2491
3.0748 -4.3059 2.2491
3.2238 -4.1894 2.2491
3.3683 -4.0676 2.2491
3.5082 -3.9407 2.2491
3.6432 -3.8089 2.2491
3.7732 -3.6723 2.2491
3.8981 -3.5312 2.2491
4.0176 -3.3858 2.2491
4.1316 -3.2363 2.2491
4.2401 -3.0829 2.2491
4.3427 -2.9258 2.2491
4.4395 -2.7652 2.2491
4.5304 -2.6013 2.2491
4.6151 -2.4345 2.2491
4.7023 -2.2690 2.2532
4.7750 -2.0966 2.2534
4.8414 -1.9218 2.2535
4.9013 -1.7450 2.2536
4.9547 -1.5662 2.2536
5.0016 -1.3858 2.2537
5.0419 -1.2041 2.2538
5.0756 -1.0212 2.2538
5.1026 -0.8373 2.2539
5.1230 -0.6529 2.2539
5.1367 -0.4679 2.2539
5.1438 -0.2829 2.2539
5.1442 -0.0978 2.2539
5.1380 0.0869 2.2539
5.1252 0.2711 2.2538
5.1058 0.4545 2.2538
5.0799 0.6369 2.2537
5.0476 0.8181 2.2537
5.0088 0.9979 2.2536
4.9638 1.1759 2.2535
4.9124 1.3521 2.2534
4.8549 1.5261 2.2533
4.7914 1.6979 2.2531
4.7218 1.8671 2.2530
4.6463 2.0336 2.2529
4.5651 2.1971 2.2527
4.4782 2.3575 2.2525
4.3858 2.5146 2.2524
4.2880 2.6682 2.2522
4.1849 2.8181 2.2520
4.0767 2.9642 2.2518
3.9635 3.1062 2.2516
3.8454 3.2441 2.2514
3.7227 3.3776 2.2511
3.5955 3.5066 2.2509
3.4639 3.6310 2.2507
3.3281 3.7506 2.2504
3.1882 3.8652 2.2502
3.0446 3.9749 2.2499
2.8973 4.0793 2.2496
2.7465 4.1785 2.2494
2.5924 4.2724 2.2491
2.4555 4.3969 2.2675
2.4299 4.7457 2.4015
0.9130 1.9539 0.9718
0.8419 1.9857 0.9721
0.7698 2.0149 0.9724
0.6966 2.0414 0.9727
0.6225 2.0654 0.9730
0.5476 2.0866 0.9731
0.4720 2.1052 0.9733
0.3957 2.1210 0.9734
0.3189 2.1340 0.9735
0.2417 2.1443 0.9735
0.1642 2.1517 0.9735
0.0864 2.1564 0.9734
0.0085 2.1583 0.9733
-0.0694 2.1573 0.9732
-0.1472 2.1536 0.9730
-0.2248 2.1470 0.9728
-0.3022 2.1377 0.9725
-0.3792 2.1255 0.9722
-0.4556 2.1106 0.9718
-0.5315 2.0930 0.9715
-0.6067 2.0726 0.9710
-0.6811 2.0495 0.9706
-0.7547 2.0238 0.9701
-0.8272 1.9954 0.9695
-0.8987 1.9644 0.9689
-2.4032 4.7886 2.4015
-2.5762 4.7024 2.4015
-2.7461 4.6101 2.4015
-2.9129 4.5118 2.4015
-3.0762 4.4076 2.4015
-3.2358 4.2977 2.4015
-3.3916 4.1821 2.4015
-3.5434 4.0611 2.4015
-3.6909 3.9346 2.4015
-3.8340 3.8030 2.4015
-3.9725 3.6662 2.4015
-4.1062 3.5246 2.4015
-4.2349 3.3781 2.4015
-4.3585 3.2271 2.4015
-4.4768 3.0717 2.4015
-4.5896 2.9119 2.4015
-4.6968 2.7482 2.4015
-4.7982 2.5806 2.4015
-4.8936 2.4093 2.4015
-4.9830 2.2345 2.4015
-5.0663 2.0565 2.4015
-5.1432 1.8755 2.4015
-5.2136 1.6916 2.4015
-5.2776 1.5052 2.4015
-5.3349 1.3163 2.4015
-5.3854 1.1254 2.4015
-5.4292 0.9325 2.4015
-5.4660 0.7381 2.4015
-5.4958 0.5422 2.4015
-5.5187 0.3451 2.4015
-5.5344 0.1472 2.4015
-5.5430 -0.0514 2.4015
-5.5445 -0.2504 2.4015
-5.5388 -0.4495 2.4015
-5.5259 -0.6485 2.4015
-5.5057 -0.8471 2.4015
-5.4784 -1.0450 2.4015
-5.4439 -1.2420 2.4015
-5.4022 -1.4378 2.4015
-5.3534 -1.6322 2.4015
-5.2976 -1.8248 2.4015
-5.2346 -2.0154 2.4015
-5.1648 -2.2039 2.4015
-5.0880 -2.3898 2.4015
-5.0045 -2.5729 2.4015
-4.9142 -2.7530 2.4015
-4.8173 -2.9299 2.4015
-4.7140 -3.1032 2.4015
-4.6043 -3.2727 2.4015
-4.4883 -3.4383 2.4015
-4.3663 -3.5996 2.4015
-4.2384 -3.7564 2.4015
-4.1047 -3.9086 2.4015
-3.9654 -4.0558 2.4015
-3.8207 -4.1979 2.4015
-3.6708 -4.3346 2.4015
-3.5159 -4.4658 2.4015
-3.3562 -4.5912 2.4015
-3.1919 -4.7108 2.4015
-3.0232 -4.8243 2.4015
-2.8504 -4.9315 2.4015
-2.6736 -5.0323 2.4015
-2.4932 -5.1265 2.4015
-2.3095 -5.2140 2.4015
-2.1225 -5.2947 2.4015
-1.9326 -5.3685 2.4015
-1.7401 -5.4352 2.4015
-1.5453 -5.4947 2.4015
-1.3483 -5.5470 2.4015
-1.1496 -5.5920 2.4015
-0.9493 -5.6297 2.4015
-0.7477 -5.6598 2.4015
-0.5452 -5.6826 2.4015
-0.3420 -5.6978 2.4015
-0.1384 -5.7054 2.4015
0.0654 -5.7056 2.4015
0.2689 -5.6982 2.4015
0.4720 -5.6833 2.4015
0.6744 -5.6610 2.4015
0.8757 -5.6311 2.4015
1.0757 -5.5939 2.4015
1.2742 -5.5493 2.4015
1.4708 -5.4975 2.4015
1.6652 -5.4385 2.4015
1.8573 -5.3723 2.4015
2.0467 -5.2992 2.4015
2.2332 -5.2192 2.4015
2.4165 -5.1325 2.4015
2.5964 -5.0391 2.4015
2.7726 -4.9393 2.4015
2.9449 -4.8331 2.4015
2.9193 -4.4268 2.2520
3.0690 -4.3103 2.2491
3.2182 -4.1940 2.2491
3.3629 -4.0723 2.2491
3.5029 -3.9456 2.2491
3.6382 -3.8140 2.2491
3.7684 -3.6776 2.2491
3.8934 -3.5367 2.2491
4.0131 -3.3915 2.2491
4.1274 -3.2421 2.2491
4.2360 -3.0888 2.2491
4.3389 -2.9318 2.2491
4.4359 -2.7714 2.2491
4.5270 -2.6076 2.2491
4.6120 -2.4409 2.2491
4.6994 -2.2755 2.2532
4.7724 -2.1032 2.2534
4.8390 -1.9285 2.2535
4.8991 -1.7517 2.2536
4.9528 -1.5731 2.2536
4.9999 -1.3927 2.2537
5.0405 -1.2110 2.2538
5.0744 -1.0282 2.2538
5.1017 -0.8444 2.2539
5.1223 -0.6599 2.2539
5.1363 -0.4750 2.2539
5.1436 -0.2899 2.2539
5.1443 -0.1049 2.2539
5.1383 0.0798 2.2539
5.1258 0.2641 2.2538
5.1067 0.4475 2.2538
5.0810 0.6300 2.2537
5.0489 0.8112 2.2537
5.0104 0.9910 2.2536
4.9656 1.1692 2.2535
4.9145 1.3454 2.2534
4.8572 1.5195 2.2533
4.7939 1.6914 2.2532
4.7245 1.8607 2.2530
4.6493 2.0273 2.2529
4.5683 2.1909 2.2527
4.4816 2.3514 2.2526
4.3894 2.5087 2.2524
4.2918 2.6624 2.2522
4.1889 2.8125 2.2520
4.0809 2.9587 2.2518
3.9679 3.1009 2.2516
3.8500 3.2389 2.2514
3.7275 3.3726 2.2511
3.6004 3.5018 2.2509
3.4690 3.6263 2.2507
3.3333 3.7461 2.2504
3.1937 3.8609 2.2502
3.0501 3.9708 2.2499
2.9030 4.0754 2.2496
2.7523 4.1748 2.2494
2.5984 4.2689 2.2491
2.4568 4.3851 2.2632
2.4365 4.7424 2.4015
0.9157 1.9526 0.9718
0.8447 1.9845 0.9721
0.7726 2.0138 0.9724
0.6994 2.0405 0.9727
0.6254 2.0645 0.9729
0.5505 2.0859 0.9731
0.4749 2.1045 0.9733
0.3986 2.1204 0.9734
0.3218 2.1336 0.9735
0.2446 2.1439 0.9735
0.1671 2.1515 0.9735
0.0894 2.1563 0.9734
0.0115 2.1583 0.9733
-0.0664 2.1574 0.9732
-0.1442 2.1538 0.9730
-0.2219 2.1473 0.9728
-0.2993 2.1381 0.9725
-0.3762 2.1260 0.9722
-0.4527 2.1112 0.9719
-0.5286 2.0937 0.9715
-0.6039 2.0734 0.9711
-0.6783 2.0504 0.9706
-0.7519 2.0248 0.9701
-0.8245 1.9965 0.9695
-0.8960 1.9656 0.9690
-2.3965 4.7918 2.4015
-2.5696 4.7058 2.4015
-2.7397 4.6137 2.4015
-2.9066 4.5156 2.4015
-3.0700 4.4117 2.4015
-3.2298 4.3020 2.4015
-3.3858 4.1866 2.4015
-3.5377 4.0658 2.4015
-3.6854 3.9396 2.4015
-3.8286 3.8081 2.4015
-3.9673 3.6716 2.4015
-4.1012 3.5301 2.4015
-4.2301 3.3838 2.4015
-4.3539 3.2330 2.4015
-4.4724 3.0777 2.4015
-4.5854 2.9181 2.4015
-4.6928 2.7545 2.4015
-4.7944 2.5870 2.4015
-4.8901 2.4159 2.4015
-4.9797 2.2413 2.4015
-5.0632 2.0634 2.4015
-5.1403 1.8824 2.4015
-5.2111 1.6987 2.4015
-5.2753 1.5123 2.4015
-5.3328 1.3236 2.4015
-5.3836 1.1327 2.4015
-5.4276 0.9399 2.4015
-5.4647 0.7455 2.4015
-5.4948 0.5497 2.4015
-5.5179 0.3527 2.4015
-5.5340 0.1547 2.4015
-5.5428 -0.0438 2.4015
-5.5446 -0.2428 2.4015
-5.5391 -0.4419 2.4015
-5.5265 -0.6409 2.4015
-5.5066 -0.8395 2.4015
-5.4796 -1.0375 2.4015
-5.4453 -1.2345 2.4015
-5.4039 -1.4304 2.4015
-5.3554 -1.6248 2.4015
-5.2998 -1.8175 2.4015
-5.2372 -2.0082 2.4015
-5.1676 -2.1967 2.4015
-5.0911 -2.3827 2.4015
-5.0078 -2.5660 2.4015
-4.9178 -2.7462 2.4015
-4.8211 -2.9232 2.4015
-4.7180 -3.0966 2.4015
-4.6086 -3.2663 2.4015
-4.4929 -3.4321 2.4015
-4.3711 -3.5935 2.4015
-4.2434 -3.7505 2.4015
-4.1099 -3.9029 2.4015
-3.9708 -4.0503 2.4015
-3.8264 -4.1925 2.4015
-3.6766 -4.3295 2.4015
-3.5219 -4.4609 2.4015
-3.3624 -4.5866 2.4015
-3.1982 -4.7063 2.4015
-3.0297 -4.8200 2.4015
-2.8570 -4.9275 2.4015
-2.6804 -5.0285 2.4015
-2.5002 -5.1230 2.4015
-2.3165 -5.2108 2.4015
-2.1297 -5.2918 2.4015
-1.9399 -5.3658 2.4015
-1.7475 -5.4328 2.4015
-1.5528 -5.4926 2.4015
-1.3559 -5.5452 2.4015
-1.1572 -5.5905 2.4015
-0.9569 -5.6284 2.4015
-0.7554 -5.6588 2.4015
-0.5529 -5.6818 2.4015
-0.3497 -5.6973 2.4015
-0.1461 -5.7053 2.4015
0.0576 -5.7057 2.4015
0.2612 -5.6986 2.4015
0.4643 -5.6840 2.4015
0.6667 -5.6619 2.4015
0.8681 -5.6324 2.4015
1.0682 -5.5955 2.4015
1.2667 -5.5512 2.4015
1.4633 -5.4996 2.4015
1.6579 -5.4408 2.4015
1.8500 -5.3750 2.4015
2.0395 -5.3022 2.4015
2.2261 -5.2224 2.4015
2.4096 -5.1359 2.4015
2.5896 -5.0428 2.4015
2.7660 -4.9432 2.4015
2.9384 -4.8372 2.4015
2.9168 -4.4362 2.2547
3.0632 -4.3146 2.2491
3.2126 -4.1985 2.2491
3.3575 -4.0771 2.2491
3.4977 -3.9506 2.2491
3.6331 -3.8191 2.2491
3.7635 -3.6829 2.2491
3.8887 -3.5422 2.2491
4.0087 -3.3971 2.2491
4.1231 -3.2479 2.2491
4.2320 -3.0947 2.2491
4.3351 -2.9379 2.2491
4.4323 -2.7775 2.2491
4.5237 -2.6139 2.2491
4.6089 -2.4473 2.2491
4.6965 -2.2820 2.2532
4.7697 -2.1098 2.2534
4.8365 -1.9352 2.2535
4.8969 -1.7585 2.2536
4.9509 -1.5799 2.2536
4.9982 -1.3996 2.2537
5.0390 -1.2180 2.2538
5.0732 -1.0351 2.2538
5.1008 -0.8514 2.2539
5.1217 -0.6670 2.2539
5.1359 -0.4821 2.2539
5.1435 -0.2970 2.2539
5.1444 -0.1120 2.2539
5.1387 0.0728 2.2539
5.1264 0.2570 2.2538
5.1075 0.4405 2.2538
5.0821 0.6230 2.2537
5.0503 0.8043 2.2537
5.0120 0.9842 2.2536
4.9674 1.1624 2.2535
4.9166 1.3387 2.2534
4.8595 1.5129 2.2533
4.7964 1.6849 2.2532
4.7273 1.8543 2.2530
4.6523 2.0210 2.2529
4.5715 2.1847 2.2527
4.4850 2.3454 2.2526
4.3930 2.5027 2.2524
4.2956 2.6566 2.2522
4.1929 2.8068 2.2520
4.0851 2.9532 2.2518
3.9723 3.0955 2.2516
3.8546 3.2337 2.2514
3.7322 3.3675 2.2512
3.6053 3.4969 2.2509
3.4740 3.6216 2.2507
3.3386 3.7416 2.2504
3.1991 3.8567 2.2502
3.0557 3.9667 2.2499
2.9086 4.0715 2.2496
2.7581 4.1711 2.2494
2.6125 4.2788 2.2562
2.4596 4.3759 2.2601
2.4430 4.7391 2.4015
0.9184 1.9513 0.9717
0.8474 1.9833 0.9721
0.7753 2.0127 0.9724
0.7022 2.0395 0.9727
0.6282 2.0637 0.9729
0.5533 2.0851 0.9731
0.4778 2.1038 0.9733
0.4015 2.1199 0.9734
0.3248 2.1331 0.9735
0.2476 2.1436 0.9735
0.1701 2.1513 0.9735
0.0923 2.1562 0.9734
0.0145 2.1582 0.9733
-0.0634 2.1575 0.9732
-0.1413 2.1540 0.9730
1.7525 -5.0497 2.4015
1.9305 -4.9809 2.4015
2.1058 -4.9056 2.4015
2.2781 -4.8240 2.4015
2.4472 -4.7361 2.4015
2.6129 -4.6422 2.4015
2.7416 -4.4879 2.3727
2.7469 -4.1551 2.2491
2.8911 -4.0508 2.2491
3.0314 -3.9414 2.2491
3.1675 -3.8271 2.2491
3.2992 -3.7079 2.2491
3.4263 -3.5841 2.2491
3.5488 -3.4558 2.2491
3.6664 -3.3233 2.2491
3.7790 -3.1867 2.2491
3.8865 -3.0462 2.2491
3.9887 -2.9020 2.2491
4.0856 -2.7544 2.2491
4.1769 -2.6034 2.2491
4.2626 -2.4494 2.2491
4.3494 -2.2961 2.2526
4.4239 -2.1365 2.2527
4.4926 -1.9744 2.2529
4.5553 -1.8101 2.2530
4.6120 -1.6437 2.2530
4.6625 -1.4756 2.2531
4.7069 -1.3059 2.2532
4.7451 -1.1349 2.2532
4.7771 -0.9628 2.2533
4.8028 -0.7899 2.2533
4.8223 -0.6162 2.2533
4.8355 -0.4422 2.2534
4.8425 -0.2680 2.2534
4.8432 -0.0938 2.2534
4.8376 0.0801 2.2533
4.8259 0.2536 2.2533
4.8079 0.4263 2.2533
4.7838 0.5982 2.2532
4.7537 0.7689 2.2531
4.7175 0.9382 2.2531
4.6753 1.1060 2.2530
4.6272 1.2720 2.2529
4.5733 1.4360 2.2528
4.5137 1.5979 2.2527
4.4484 1.7574 2.2525
4.3775 1.9144 2.2524
4.3012 2.0686 2.2523
4.2196 2.2199 2.2521
4.1327 2.3680 2.2519
4.0407 2.5129 2.2518
3.9438 2.6543 2.2516
3.8420 2.7921 2.2514
3.7354 2.9261 2.2512
3.6243 3.0561 2.2510
3.5088 3.1821 2.2508
3.3890 3.3039 2.2506
3.2651 3.4213 2.2503
3.1372 3.5341 2.2501
3.0055 3.6424 2.2498
2.8702 3.7459 2.2496
2.7314 3.8445 2.2493
2.5893 3.9382 2.2491
2.4517 4.0392 2.2558
2.4326 4.3548 2.3825
2.2912 4.4736 2.4015
0.8593 1.8385 0.9700
0.7924 1.8684 0.9703
0.7245 1.8959 0.9706
0.6556 1.9209 0.9709
0.5858 1.9434 0.9711
0.5153 1.9634 0.9713
0.4441 1.9808 0.9714
0.3723 1.9957 0.9715
0.3001 2.0080 0.9716
0.2274 2.0176 0.9716
0.1544 2.0246 0.9716
0.0812 2.0290 0.9715
0.0079 2.0308 0.9714
-0.0654 2.0299 0.9713
-0.1387 2.0263 0.9711
-0.2118 2.0202 0.9709
-0.2846 2.0114 0.9707
-0.3570 1.9999 0.9704
-0.4290 1.9859 0.9700
-0.5004 1.9693 0.9697
-0.5712 1.9501 0.9693
-0.6412 1.9284 0.9688
-0.7104 1.9042 0.9684
-0.7787 1.8774 0.9679
-0.8460 1.8483 0.9673
-0.9122 1.8167 0.9667
-2.4290 4.4315 2.4015
-2.5892 4.3443 2.4015
-2.7463 4.2515 2.4015
-2.9001 4.1531 2.4015
-3.0505 4.0494 2.4015
-3.1972 3.9403 2.4015
-3.3401 3.8260 2.4015
-3.4790 3.7066 2.4015
-3.6137 3.5824 2.4015
-3.7440 3.4533 2.4015
-3.8698 3.3197 2.4015
-3.9909 3.1815 2.4015
-4.1071 3.0390 2.4015
-4.2184 2.8924 2.4015
-4.3244 2.7418 2.4015
-4.4251 2.5873 2.4015
-4.5204 2.4293 2.4015
-4.6101 2.2678 2.4015
-4.6940 2.1030 2.4015
-4.7721 1.9352 2.4015
-4.8443 1.7646 2.4015
-4.9104 1.5913 2.4015
-4.9703 1.4157 2.4015
-5.0239 1.2378 2.4015
-5.0712 1.0579 2.4015
-5.1121 0.8763 2.4015
-5.1464 0.6931 2.4015
-5.1742 0.5086 2.4015
-5.1954 0.3231 2.4015
-5.2099 0.1368 2.4015
-5.2177 -0.0502 2.4015
-5.2188 -0.2375 2.4015
-5.2130 -0.4248 2.4015
-5.2006 -0.6121 2.4015
-5.1813 -0.7989 2.4015
-5.1553 -0.9851 2.4015
-5.1225 -1.1704 2.4015
-5.0830 -1.3546 2.4015
-5.0368 -1.5373 2.4015
-4.9840 -1.7185 2.4015
-4.9245 -1.8977 2.4015
-4.8585 -2.0749 2.4015
-4.7861 -2.2496 2.4015
-4.7072 -2.4217 2.4015
-4.6221 -2.5910 2.4015
-4.5308 -2.7572 2.4015
-4.4334 -2.9201 2.4015
-4.3300 -3.0794 2.4015
-4.2208 -3.2349 2.4015
-4.1059 -3.3865 2.4015
-3.9854 -3.5338 2.4015
-3.8596 -3.6767 2.4015
-3.7285 -3.8149 2.4015
-3.5923 -3.9484 2.4015
-3.4513 -4.0768 2.4015
-3.3055 -4.2000 2.4015
-3.1553 -4.3178 2.4015
-3.0007 -4.4300 2.4015
-2.8421 -4.5366 2.4015
-2.6796 -4.6372 2.4015
-2.5134 -4.7319 2.4015
-2.3438 -4.8204 2.4015
-2.1710 -4.9025 2.4015
-1.9952 -4.9783 2.4015
-1.8167 -5.0476 2.4015
-1.6358 -5.1102 2.4015
-1.4527 -5.1662 2.4015
-1.2675 -5.2153 2.4015
-1.0807 -5.2576 2.4015
-0.8925 -5.2929 2.4015
-0.7030 -5.3213 2.4015
-0.5127 -5.3426 2.4015
-0.3217 -5.3570 2.4015
-0.1303 -5.3642 2.4015
0.0611 -5.3644 2.4015
0.2525 -5.3576 2.4015
0.4434 -5.3436 2.4015
0.6336 -5.3227 2.4015
0.8228 -5.2948 2.4015
1.0109 -5.2599 2.4015
1.1974 -5.2181 2.4015
1.3823 -5.1695 2.4015
1.5651 -5.1142 2.4015
1.7457 -5.0522 2.4015
1.9238 -4.9836 2.4015
2.0992 -4.9086 2.4015
2.2716 -4.8272 2.4015
2.4408 -4.7396 2.4015
2.6066 -4.6459 2.4015
2.7680 -4.5451 2.4009
2.7413 -4.1590 2.2491
2.8857 -4.0549 2.2491
3.0261 -3.9457 2.2491
3.1623 -3.8315 2.2491
3.2942 -3.7125 2.2491
3.4216 -3.5889 2.2491
3.5442 -3.4608 2.2491
3.6620 -3.3285 2.2491
3.7748 -3.1920 2.2491
3.8825 -3.0517 2.2491
3.9849 -2.9076 2.2491
4.0820 -2.7601 2.2491
4.1735 -2.6093 2.2491
4.2594 -2.4554 2.2491
4.3464 -2.3022 2.2526
4.4212 -2.1426 2.2527
4.4901 -1.9806 2.2528
4.5530 -1.8164 2.2529
4.6099 -1.6501 2.2530
4.6607 -1.4821 2.2531
4.7053 -1.3124 2.2532
4.7438 -1.1415 2.2532
4.7760 -0.9694 2.2533
4.8020 -0.7965 2.2533
4.8217 -0.6229 2.2533
4.8352 -0.4489 2.2534
4.8423 -0.2746 2.2534
4.8433 -0.1004 2.2534
4.8380 0.0735 2.2533
4.8264 0.2470 2.2533
4.8087 0.4198 2.2533
4.7849 0.5916 2.2532
4.7549 0.7624 2.2531
4.7190 0.9318 2.2531
4.6770 1.0996 2.2530
4.6291 1.2657 2.2529
4.5755 1.4298 2.2528
4.5160 1.5918 2.2527
4.4510 1.7514 2.2525
4.3803 1.9084 2.2524
4.3042 2.0627 2.2523
4.2228 2.2141 2.2521
4.1361 2.3624 2.2519
4.0443 2.5074 2.2518
3.9476 2.6489 2.2516
3.8459 2.7869 2.2514
3.7396 2.9210 2.2512
3.6287 3.0513 2.2510
3.5133 3.1774 2.2508
3.3937 3.2993 2.2506
3.2699 3.4169 2.2503
3.1421 3.5299 2.2501
3.0106 3.6383 2.2499
2.8754 3.7420 2.2496
2.7367 3.8408 2.2494
2.6016 3.9454 2.2550
2.4542 4.0308 2.2530
2.4332 4.3417 2.3771
2.2974 4.4705 2.4015
0.8618 1.8373 0.9700
0.7950 1.8673 0.9703
0.7271 1.8949 0.9706
0.6582 1.9200 0.9709
0.5885 1.9426 0.9711
0.5180 1.9627 0.9713
0.4469 1.9802 0.9714
0.3751 1.9952 0.9715
0.3028 2.0075 0.9716
0.2302 2.0173 0.9716
0.1572 2.0244 0.9716
0.0840 2.0289 0.9715
0.0107 2.0308 0.9714
-0.0626 2.0300 0.9713
-0.1359 2.0265 0.9711
-0.2090 2.0205 0.9709
-0.2818 2.0117 0.9707
-0.3542 2.0004 0.9704
-0.4262 1.9865 0.9701
-0.4977 1.9700 0.9697
-0.5685 1.9509 0.9693
-0.6386 1.9293 0.9689
-0.7078 1.9051 0.9684
-0.7761 1.8785 0.9679
-0.8435 1.8494 0.9673
-0.9097 1.8180 0.9668
-2.4229 4.4348 2.4015
-2.5831 4.3478 2.4015
-2.7403 4.2552 2.4015
-2.8943 4.1570 2.4015
-3.0448 4.0534 2.4015
-3.1917 3.9445 2.4015
-3.3347 3.8304 2.4015
-3.4738 3.7113 2.4015
-3.6086 3.5872 2.4015
-3.7391 3.4583 2.4015
-3.8651 3.3248 2.4015
-3.9864 3.1869 2.4015
-4.1028 3.0445 2.4015
-4.2142 2.8980 2.4015
-4.3205 2.7476 2.4015
-4.4214 2.5933 2.4015
-4.5169 2.4354 2.4015
-4.6068 2.2740 2.4015
-4.6909 2.1094 2.4015
-4.7693 1.9417 2.4015
-4.8416 1.7712 2.4015
-4.9079 1.5980 2.4015
-4.9681 1.4224 2.4015
-5.0220 1.2446 2.4015
-5.0695 1.0648 2.4015
-5.1106 0.8832 2.4015
-5.1452 0.7001 2.4015
-5.1733 0.5157 2.4015
-5.1947 0.3302 2.4015
-5.2095 0.1439 2.4015
-5.2175 -0.0430 2.4015
-5.2188 -0.2303 2.4015
-5.2134 -0.4177 2.4015
-5.2012 -0.6049 2.4015
-5.1822 -0.7918 2.4015
-5.1564 -0.9780 2.4015
-5.1239 -1.1633 2.4015
-5.0846 -1.3476 2.4015
-5.0387 -1.5304 2.4015
-4.9861 -1.7116 2.4015
-4.9269 -1.8909 2.4015
-4.8612 -2.0681 2.4015
-4.7889 -2.2430 2.4015
-4.7104 -2.4152 2.4015
-4.6255 -2.5846 2.4015
-4.5344 -2.7509 2.4015
-4.4372 -2.9139 2.4015
-4.3340 -3.0734 2.4015
-4.2250 -3.2291 2.4015
-4.1104 -3.3808 2.4015
-3.9901 -3.5282 2.4015
-3.8645 -3.6713 2.4015
-3.7336 -3.8097 2.4015
-3.5976 -3.9434 2.4015
-3.4567 -4.0720 2.4015
-3.3112 -4.1954 2.4015
-3.1611 -4.3134 2.4015
-3.0067 -4.4259 2.4015
-2.8482 -4.5326 2.4015
-2.6858 -4.6335 2.4015
-2.5198 -4.7284 2.4015
-2.3503 -4.8171 2.4015
-2.1776 -4.8995 2.4015
-2.0020 -4.9756 2.4015
-1.8236 -5.0451 2.4015
-1.6428 -5.1080 2.4015
-1.4597 -5.1641 2.4015
-1.2746 -5.2135 2.4015
-1.0878 -5.2561 2.4015
-0.8997 -5.2917 2.4015
-0.7103 -5.3203 2.4015
-0.5200 -5.3420 2.4015
-0.3290 -5.3565 2.4015
-0.1376 -5.3641 2.4015
0.0538 -5.3645 2.4015
0.2452 -5.3580 2.4015
0.4361 -5.3443 2.4015
0.6263 -5.3236 2.4015
0.8157 -5.2960 2.4015
1.0037 -5.2613 2.4015
1.1903 -5.2198 2.4015
1.3752 -5.1715 2.4015
1.5582 -5.1164 2.4015
1.7388 -5.0547 2.4015
1.9170 -4.9863 2.4015
2.0925 -4.9116 2.4015
2.2651 -4.8304 2.4015
2.4344 -4.7430 2.4015
2.6003 -4.6496 2.4015
2.7626 -4.5501 2.4015
2.7357 -4.1628 2.2491
2.8803 -4.0590 2.2491
3.0208 -3.9500 2.2491
3.1572 -3.8360 2.2491
3.2893 -3.7172 2.2491
3.4168 -3.5937 2.2491
3.5396 -3.4658 2.2491
3.6576 -3.3336 2.2491
3.7706 -3.1973 2.2491
3.8785 -3.0571 2.2491
3.9811 -2.9132 2.2491
4.0784 -2.7658 2.2491
4.1701 -2.6151 2.2491
4.2563 -2.4613 2.2491
4.3434 -2.3082 2.2526
4.4185 -2.1488 2.2527
4.4876 -1.9868 2.2528
4.5507 -1.8227 2.2529
4.6078 -1.6565 2.2530
4.6589 -1.4885 2.2531
4.7037 -1.3189 2.2532
4.7424 -1.1480 2.2532
4.7749 -0.9760 2.2533
4.8011 -0.8031 2.2533
4.8211 -0.6295 2.2533
4.8348 -0.4555 2.2534
4.8422 -0.2813 2.2534
4.8433 -0.1071 2.2534
4.8383 0.0669 2.2533
4.8270 0.2404 2.2533
4.8095 0.4132 2.2533
4.7859 0.5851 2.2532
4.7562 0.7559 2.2531
4.7204 0.9253 2.2531
4.6787 1.0932 2.2530
4.6311 1.2594 2.2529
4.5776 1.4236 2.2528
4.5184 1.5857 2.2527
4.4535 1.7453 2.2525
4.3831 1.9025 2.2524
4.3072 2.0569 2.2523
4.2260 2.2084 2.2521
4.1395 2.3568 2.2519
4.0479 2.5019 2.2518
3.9513 2.6436 2.2516
3.8499 2.7817 2.2514
3.7437 2.9160 2.2512
3.6330 3.0464 2.2510
3.5178 3.1727 2.2508
3.3983 3.2947 2.2506
3.2747 3.4125 2.2503
3.1471 3.5257 2.2501
3.0157 3.6343 2.2499
2.8806 3.7381 2.2496
2.7421 3.8371 2.2494
2.6040 3.9370 2.2523
2.4567 4.0225 2.2502
2.4337 4.3286 2.3717
2.3035 4.4674 2.4015
0.8643 1.8361 0.9699
0.7975 1.8662 0.9703
0.7297 1.8938 0.9706
0.6609 1.9190 0.9708
0.5912 1.9418 0.9711
0.5207 1.9619 0.9712
0.4496 1.9796 0.9714
0.3778 1.9946 0.9715
0.3056 2.0071 0.9716
0.2329 2.0170 0.9716
0.1600 2.0242 0.9716
0.0868 2.0288 0.9715
0.0135 2.0307 0.9714
-0.0598 2.0300 0.9713
-0.1331 2.0267 0.9711
1.6512 -4.7602 2.4015
1.8190 -4.6955 2.4015
1.9842 -4.6247 2.4015
2.1467 -4.5480 2.4015
2.3061 -4.4653 2.4015
2.4623 -4.3769 2.4015
2.6151 -4.2830 2.4015
2.5888 -3.9180 2.2491
2.7249 -3.8199 2.2491
2.8572 -3.7170 2.2491
2.9856 -3.6093 2.2491
3.1099 -3.4971 2.2491
3.2300 -3.3806 2.2491
3.3456 -3.2598 2.2491
3.4566 -3.1350 2.2491
3.5630 -3.0064 2.2491
3.6645 -2.8740 2.2491
3.7611 -2.7382 2.2491
3.8526 -2.5991 2.2491
3.9389 -2.4569 2.2491
4.0200 -2.3118 2.2491
4.1012 -2.1669 2.2522
4.1718 -2.0164 2.2523
4.2367 -1.8637 2.2524
4.2961 -1.7088 2.2525
4.3497 -1.5520 2.2526
4.3977 -1.3935 2.2526
4.4398 -1.2335 2.2527
4.4761 -1.0723 2.2528
4.5065 -0.9100 2.2528
4.5310 -0.7468 2.2528
4.5497 -0.5830 2.2529
4.5624 -0.4189 2.2529
4.5692 -0.2545 2.2529
4.5701 -0.0901 2.2529
4.5651 0.0740 2.2528
4.5543 0.2377 2.2528
4.5376 0.4008 2.2528
4.5151 0.5630 2.2527
4.4869 0.7242 2.2527
4.4529 0.8840 2.2526
4.4134 1.0425 2.2525
4.3682 1.1993 2.2524
4.3175 1.3542 2.2523
4.2614 1.5071 2.2522
4.2000 1.6578 2.2521
4.1333 1.8061 2.2520
4.0615 1.9518 2.2518
3.9845 2.0948 2.2517
3.9027 2.2348 2.2515
3.8160 2.3717 2.2514
3.7246 2.5054 2.2512
3.6286 2.6356 2.2510
3.5281 2.7623 2.2508
3.4233 2.8853 2.2506
3.3143 3.0044 2.2504
3.2013 3.1196 2.2502
3.0843 3.2306 2.2500
2.9636 3.3373 2.2498
2.8393 3.4397 2.2496
2.7115 3.5376 2.2493
2.5805 3.6309 2.2491
2.4467 3.7200 2.2492
2.4236 3.9918 2.3601
2.3170 4.1466 2.4015
0.8726 1.7034 0.9680
0.8106 1.7338 0.9683
0.7475 1.7620 0.9687
0.6834 1.7880 0.9689
0.6184 1.8115 0.9692
0.5526 1.8328 0.9694
0.4861 1.8516 0.9696
0.4189 1.8681 0.9697
0.3512 1.8821 0.9698
0.2830 1.8937 0.9698
0.2144 1.9028 0.9699
0.1455 1.9094 0.9699
0.0765 1.9135 0.9698
0.0073 1.9152 0.9697
-0.0618 1.9143 0.9696
-0.1309 1.9110 0.9694
-0.1999 1.9052 0.9692
-0.2686 1.8968 0.9690
-0.3369 1.8861 0.9687
-0.4048 1.8728 0.9684
-0.4722 1.8571 0.9681
-0.5390 1.8391 0.9677
-0.6050 1.8186 0.9673
-0.6703 1.7957 0.9668
-0.7348 1.7705 0.9663
-0.7982 1.7430 0.9658
-0.8607 1.7132 0.9653
-2.2952 4.1852 2.4015
-2.4464 4.1027 2.4015
-2.5948 4.0148 2.4015
-2.7400 3.9218 2.4015
-2.8819 3.8236 2.4015
-3.0204 3.7204 2.4015
-3.1553 3.6123 2.4015
-3.2863 3.4994 2.4015
-3.4134 3.3819 2.4015
-3.5363 3.2598 2.4015
-3.6550 3.1334 2.4015
-3.7692 3.0028 2.4015
-3.8788 2.8681 2.4015
-3.9836 2.7295 2.4015
-4.0835 2.5872 2.4015
-4.1784 2.4412 2.4015
-4.2681 2.2919 2.4015
-4.3526 2.1393 2.4015
-4.4316 1.9836 2.4015
-4.5051 1.8251 2.4015
-4.5730 1.6640 2.4015
-4.6351 1.5003 2.4015
-4.6914 1.3344 2.4015
-4.7417 1.1665 2.4015
-4.7861 0.9966 2.4015
-4.8244 0.8252 2.4015
-4.8566 0.6523 2.4015
-4.8825 0.4782 2.4015
-4.9022 0.3031 2.4015
-4.9156 0.1273 2.4015
-4.9227 -0.0491 2.4015
-4.9234 -0.2257 2.4015
-4.9178 -0.4025 2.4015
-4.9057 -0.5791 2.4015
-4.8873 -0.7553 2.4015
-4.8625 -0.9308 2.4015
-4.8313 -1.1055 2.4015
-4.7938 -1.2791 2.4015
-4.7500 -1.4514 2.4015
-4.6999 -1.6222 2.4015
-4.6436 -1.7911 2.4015
-4.5812 -1.9580 2.4015
-4.5127 -2.1227 2.4015
-4.4381 -2.2849 2.4015
-4.3577 -2.4444 2.4015
-4.2714 -2.6009 2.4015
-4.1794 -2.7543 2.4015
-4.0818 -2.9044 2.4015
-3.9786 -3.0509 2.4015
-3.8702 -3.1936 2.4015
-3.7565 -3.3323 2.4015
-3.6378 -3.4668 2.4015
-3.5141 -3.5970 2.4015
-3.3857 -3.7227 2.4015
