ply
format ascii 1.0
element vertex 2178
property float32 x
property float32 y
property float32 z
end_header
5.9643 -3.2340 2.3938
6.0659 -3.0108 2.3938
6.1597 -2.7848 2.3938
6.2457 -2.5560 2.3938
6.3238 -2.3249 2.3938
6.3940 -2.0916 2.3938
6.4561 -1.8564 2.3938
6.5102 -1.6195 2.3938
6.5563 -1.3813 2.3938
6.5943 -1.1419 2.3938
6.6242 -0.9016 2.3938
6.6459 -0.6607 2.3938
6.6596 -0.4194 2.3938
6.6652 -0.1780 2.3938
6.6627 0.0633 2.3938
6.6521 0.3043 2.3938
6.6335 0.5446 2.3938
6.6068 0.7841 2.3938
6.5722 1.0224 2.3938
6.5296 1.2594 2.3938
6.4792 1.4949 2.3938
6.4209 1.7285 2.3938
6.3548 1.9600 2.3938
6.2810 2.1892 2.3938
6.1995 2.4159 2.3938
6.1105 2.6398 2.3938
6.0140 2.8608 2.3938
5.9101 3.0784 2.3938
5.7989 3.2926 2.3938
5.6805 3.5032 2.3938
5.5551 3.7098 2.3938
5.4226 3.9122 2.3938
5.2833 4.1103 2.3938
5.1372 4.3038 2.3938
4.9846 4.4925 2.3938
4.8255 4.6762 2.3938
4.6600 4.8546 2.3938
4.4884 5.0277 2.3938
4.3108 5.1950 2.3938
4.1273 5.3566 2.3938
3.9382 5.5120 2.3938
3.7435 5.6613 2.3938
3.5436 5.8041 2.3938
3.3385 5.9403 2.3938
3.1284 6.0696 2.3938
2.9137 6.1920 2.3938
2.6945 6.3072 2.3938
2.4709 6.4150 2.3938
2.2433 6.5153 2.3938
0.8260 2.7129 0.9828
0.7280 2.7420 0.9807
0.6290 2.7675 0.9786
0.5291 2.7894 0.9764
0.4285 2.8076 0.9742
0.3272 2.8223 0.9720
0.2255 2.8332 0.9697
0.1235 2.8405 0.9673
0.0213 2.8441 0.9649
-0.0810 2.8440 0.9625
-0.1832 2.8402 0.9601
-0.2853 2.8327 0.9577
-0.3870 2.8215 0.9552
-0.4882 2.8067 0.9527
-0.5888 2.7882 0.9502
-0.6887 2.7660 0.9476
-0.7877 2.7403 0.9451
-0.8857 2.7110 0.9426
-2.5023 6.8202 2.3938
-2.7533 6.7460 2.3938
-3.0022 6.6626 2.3938
-3.2485 6.5700 2.3938
-3.4919 6.4683 2.3938
-3.7320 6.3575 2.3938
-3.9686 6.2377 2.3938
-4.2012 6.1091 2.3938
-4.4296 5.9716 2.3938
-4.6533 5.8255 2.3938
-4.8720 5.6709 2.3938
-5.0853 5.5079 2.3938
-5.2929 5.3368 2.3938
-5.4945 5.1576 2.3938
-5.6897 4.9706 2.3938
-5.8783 4.7761 2.3938
-6.0598 4.5742 2.3938
-6.2339 4.3652 2.3938
-6.4004 4.1494 2.3938
-6.5590 3.9270 2.3938
-6.7093 3.6984 2.3938
-6.8512 3.4638 2.3938
-6.9842 3.2236 2.3938
-7.1083 2.9781 2.3938
-7.2231 2.7277 2.3938
-7.3284 2.4727 2.3938
-7.4240 2.2134 2.3938
-7.5098 1.9504 2.3938
-7.5855 1.6839 2.3938
-7.6509 1.4144 2.3938
-7.7061 1.1423 2.3938
-7.7507 0.8680 2.3938
-7.7848 0.5919 2.3938
-7.8082 0.3145 2.3938
-7.8209 0.0361 2.3938
-7.8228 -0.2427 2.3938
-7.8140 -0.5215 2.3938
-7.7943 -0.7998 2.3938
-7.7638 -1.0774 2.3938
-7.7226 -1.3536 2.3938
-7.6707 -1.6280 2.3938
-7.6082 -1.9002 2.3938
-7.5352 -2.1699 2.3938
-7.4518 -2.4364 2.3938
-7.3582 -2.6995 2.3938
-7.2544 -2.9586 2.3938
-7.1408 -3.2135 2.3938
-7.0174 -3.4636 2.3938
-6.8845 -3.7087 2.3938
-6.7423 -3.9482 2.3938
-6.5911 -4.1820 2.3938
-6.4311 -4.4095 2.3938
-6.2626 -4.6305 2.3938
-6.0859 -4.8445 2.3938
-5.9013 -5.0515 2.3938
-5.7092 -5.2509 2.3938
-5.5098 -5.4426 2.3938
-5.3035 -5.6263 2.3938
-5.0906 -5.8017 2.3938
-4.8715 -5.9686 2.3938
-4.6466 -6.1268 2.3938
-4.4162 -6.2760 2.3938
-4.1807 -6.4162 2.3938
-3.9406 -6.5472 2.3938
-3.6961 -6.6688 2.3938
-3.4477 -6.7808 2.3938
-3.1958 -6.8832 2.3938
-2.9408 -6.9760 2.3938
-2.6830 -7.0589 2.3938
-2.4229 -7.1320 2.3938
-2.1608 -7.1952 2.3938
-1.8972 -7.2486 2.3938
-1.6324 -7.2920 2.3938
-1.3668 -7.3256 2.3938
-1.1008 -7.3493 2.3938
-0.8348 -7.3632 2.3938
-0.5691 -7.3673 2.3938
-0.3041 -7.3617 2.3938
-0.0401 -6.8211 2.3938
0.2037 -6.7995 2.3938
0.4459 -6.7690 2.3938
0.6863 -6.7299 2.3938
0.9245 -6.6824 2.3938
1.1603 -6.6264 2.3938
1.3933 -6.5621 2.3938
1.6233 -6.4898 2.3938
1.8500 -6.4094 2.3938
2.0732 -6.3213 2.3938
2.2926 -6.2256 2.3938
2.5078 -6.1223 2.3938
2.7188 -6.0119 2.3938
2.9253 -5.8943 2.3938
3.1270 -5.7698 2.3938
3.3237 -5.6387 2.3938
3.5153 -5.5011 2.3938
3.7015 -5.3572 2.3938
3.8821 -5.2072 2.3938
4.0570 -5.0514 2.3938
4.2260 -4.8900 2.3938
4.3890 -4.7232 2.3938
4.5457 -4.5512 2.3938
4.6962 -4.3743 2.3938
4.8401 -4.1927 2.3938
4.9774 -4.0066 2.3938
5.1079 -3.8163 2.3938
5.2317 -3.6220 2.3938
5.3485 -3.4240 2.3938
5.4582 -3.2224 2.3938
5.5608 -3.0176 2.3938
5.6563 -2.8097 2.3938
5.7445 -2.5990 2.3938
5.8253 -2.3858 2.3938
5.8987 -2.1703 2.3938
5.9647 -1.9527 2.3938
6.0232 -1.7333 2.3938
6.0742 -1.5123 2.3938
6.1176 -1.2900 2.3938
6.1535 -1.0665 2.3938
6.1818 -0.8422 2.3938
6.2025 -0.6173 2.3938
6.2155 -0.3920 2.3938
6.2210 -0.1665 2.3938
6.2189 0.0588 2.3938
6.2092 0.2838 2.3938
6.1920 0.5083 2.3938
6.1672 0.7320 2.3938
6.1349 0.9547 2.3938
6.0952 1.1761 2.3938
6.0481 1.3960 2.3938
5.9936 1.6142 2.3938
5.9318 1.8304 2.3938
5.8628 2.0445 2.3938
5.7866 2.2562 2.3938
5.7033 2.4653 2.3938
5.6130 2.6715 2.3938
5.5157 2.8747 2.3938
5.4116 3.0746 2.3938
5.3008 3.2711 2.3938
5.1833 3.4638 2.3938
5.0593 3.6526 2.3938
4.9289 3.8374 2.3938
4.7921 4.0177 2.3938
4.6493 4.1936 2.3938
4.5003 4.3647 2.3938
4.3455 4.5309 2.3938
4.1849 4.6919 2.3938
4.0187 4.8477 2.3938
3.8471 4.9979 2.3938
3.6702 5.1424 2.3938
3.4882 5.2811 2.3938
3.3012 5.4136 2.3938
3.1095 5.5400 2.3938
2.9132 5.6599 2.3938
2.7126 5.7732 2.3938
2.5078 5.8798 2.3938
2.2990 5.9795 2.3938
0.8557 2.4902 0.9817
0.7656 2.5204 0.9798
0.6745 2.5473 0.9779
0.5825 2.5710 0.9759
0.4897 2.5913 0.9739
0.3962 2.6083 0.9718
0.3022 2.6218 0.9697
0.2077 2.6320 0.9676
0.1129 2.6387 0.9654
0.0179 2.6421 0.9632
-0.0771 2.6419 0.9610
-0.1721 2.6384 0.9587
-0.2669 2.6314 0.9565
-0.3614 2.6210 0.9542
-0.4554 2.6072 0.9518
-0.5489 2.5900 0.9495
-0.6417 2.5694 0.9472
-0.7337 2.5455 0.9448
-0.8248 2.5183 0.9424
-0.9148 2.4878 0.9401
-2.5621 6.2648 2.3938
-2.7927 6.1862 2.3938
-3.0209 6.0990 2.3938
-3.2463 6.0034 2.3938
-3.4686 5.8994 2.3938
-3.6875 5.7872 2.3938
-3.9027 5.6667 2.3938
-4.1137 5.5381 2.3938
-4.3204 5.4016 2.3938
-4.5224 5.2572 2.3938
-4.7194 5.1051 2.3938
-4.9111 4.9456 2.3938
-5.0971 4.7786 2.3938
-5.2771 4.6045 2.3938
-5.4509 4.4235 2.3938
-5.6181 4.2357 2.3938
-5.7785 4.0415 2.3938
-5.9318 3.8410 2.3938
-6.0777 3.6345 2.3938
-6.2160 3.4223 2.3938
-6.3464 3.2046 2.3938
-6.4687 2.9819 2.3938
-6.5827 2.7543 2.3938
-6.6881 2.5222 2.3938
-6.7847 2.2860 2.3938
-6.8723 2.0459 2.3938
-6.9509 1.8024 2.3938
-7.0202 1.5557 2.3938
-7.0801 1.3063 2.3938
-7.1305 1.0546 2.3938
-7.1712 0.8008 2.3938
-7.2022 0.5455 2.3938
-7.2233 0.2890 2.3938
-7.2346 0.0317 2.3938
-7.2360 -0.2261 2.3938
-7.2275 -0.4838 2.3938
-7.2090 -0.7411 2.3938
-7.1807 -0.9976 2.3938
-7.1424 -1.2529 2.3938
-7.0943 -1.5065 2.3938
-7.0365 -1.7582 2.3938
-6.9691 -2.0074 2.3938
-6.8920 -2.2538 2.3938
-6.8056 -2.4970 2.3938
-6.7098 -2.7366 2.3938
-6.6050 -2.9723 2.3938
-6.4912 -3.2036 2.3938
-6.3686 -3.4303 2.3938
-6.2375 -3.6520 2.3938
-6.0981 -3.8683 2.3938
-5.9505 -4.0789 2.3938
-5.7952 -4.2836 2.3938
-5.6323 -4.4819 2.3938
-5.4621 -4.6737 2.3938
-5.2848 -4.8587 2.3938
-5.1009 -5.0365 2.3938
-4.9106 -5.2070 2.3938
-4.7141 -5.3699 2.3938
-4.5120 -5.5250 2.3938
-4.3044 -5.6721 2.3938
-4.0917 -5.8110 2.3938
-3.8742 -5.9416 2.3938
-3.6524 -6.0637 2.3938
-3.4266 -6.1772 2.3938
-3.1970 -6.2819 2.3938
-2.9641 -6.3777 2.3938
-2.7283 -6.4647 2.3938
-2.4899 -6.5426 2.3938
-2.2492 -6.6114 2.3938
-2.0066 -6.6712 2.3938
-1.7625 -6.7218 2.3938
-1.5173 -6.7632 2.3938
-1.2712 -6.7956 2.3938
-1.0247 -6.8188 2.3938
-0.7780 -6.8329 2.3938
-0.5316 -6.8379 2.3938
-0.2857 -6.8340 2.3938
-0.0407 -6.8212 2.3938
0.2030 -6.7995 2.3938
0.4453 -6.7691 2.3938
0.6856 -6.7301 2.3938
0.9239 -6.6825 2.3938
1.1597 -6.6265 2.3938
1.3927 -6.5623 2.3938
1.6227 -6.4900 2.3938
1.8495 -6.4097 2.3938
2.0726 -6.3216 2.3938
2.2920 -6.2258 2.3938
2.5073 -6.1226 2.3938
2.7183 -6.0122 2.3938
2.9247 -5.8946 2.3938
3.1264 -5.7702 2.3938
3.3232 -5.6391 2.3938
3.5148 -5.5015 2.3938
3.7010 -5.3576 2.3938
3.8816 -5.2076 2.3938
4.0566 -5.0519 2.3938
4.2256 -4.8905 2.3938
4.3886 -4.7237 2.3938
4.5453 -4.5517 2.3938
4.6958 -4.3748 2.3938
4.8397 -4.1932 2.3938
4.9770 -4.0072 2.3938
5.1076 -3.8169 2.3938
5.2313 -3.6226 2.3938
5.3481 -3.4245 2.3938
5.4579 -3.2230 2.3938
5.5606 -3.0181 2.3938
5.6560 -2.8103 2.3938
5.7442 -2.5996 2.3938
5.8251 -2.3864 2.3938
5.8985 -2.1709 2.3938
5.9645 -1.9533 2.3938
6.0230 -1.7339 2.3938
6.0741 -1.5129 2.3938
6.1175 -1.2906 2.3938
6.1534 -1.0671 2.3938
6.1817 -0.8428 2.3938
6.2024 -0.6179 2.3938
6.2155 -0.3926 2.3938
6.2210 -0.1671 2.3938
6.2189 0.0582 2.3938
6.2092 0.2833 2.3938
6.1920 0.5077 2.3938
6.1673 0.7314 2.3938
6.1350 0.9541 2.3938
6.0953 1.1755 2.3938
6.0482 1.3954 2.3938
5.9938 1.6136 2.3938
5.9320 1.8298 2.3938
5.8630 2.0439 2.3938
5.7868 2.2556 2.3938
5.7035 2.4647 2.3938
5.6132 2.6710 2.3938
5.5160 2.8742 2.3938
5.4119 3.0741 2.3938
5.3011 3.2706 2.3938
5.1836 3.4633 2.3938
5.0597 3.6521 2.3938
4.9292 3.8369 2.3938
4.7925 4.0173 2.3938
4.6496 4.1931 2.3938
4.5007 4.3643 2.3938
4.3459 4.5305 2.3938
4.1853 4.6915 2.3938
4.0192 4.8473 2.3938
3.8475 4.9975 2.3938
3.6706 5.1421 2.3938
3.4886 5.2807 2.3938
3.3017 5.4133 2.3938
3.1100 5.5396 2.3938
2.9137 5.6596 2.3938
2.7131 5.7729 2.3938
2.5083 5.8796 2.3938
2.2996 5.9793 2.3938
0.8559 2.4901 0.9817
0.7659 2.5203 0.9798
0.6748 2.5473 0.9779
0.5828 2.5709 0.9759
0.4900 2.5913 0.9739
0.3965 2.6082 0.9719
0.3024 2.6218 0.9698
0.2079 2.6320 0.9676
0.1131 2.6387 0.9654
0.0182 2.6421 0.9632
-0.0769 2.6419 0.9610
-0.1718 2.6384 0.9587
-0.2666 2.6314 0.9565
-0.3611 2.6210 0.9542
-0.4552 2.6072 0.9518
-0.5487 2.5901 0.9495
-0.6415 2.5695 0.9472
-0.7335 2.5456 0.9448
-0.8245 2.5184 0.9424
-0.9146 2.4879 0.9401
-2.5615 6.2650 2.3938
-2.7921 6.1864 2.3938
-3.0203 6.0993 2.3938
-3.2457 6.0037 2.3938
-3.4680 5.8997 2.3938
-3.6869 5.7875 2.3938
-3.9021 5.6670 2.3938
-4.1132 5.5385 2.3938
-4.3199 5.4019 2.3938
-4.5219 5.2576 2.3938
-4.7189 5.1056 2.3938
-4.9106 4.9460 2.3938
-5.0966 4.7791 2.3938
-5.2766 4.6050 2.3938
-5.4504 4.4240 2.3938
-5.6177 4.2362 2.3938
-5.7781 4.0420 2.3938
-5.9314 3.8415 2.3938
-6.0773 3.6350 2.3938
-6.2157 3.4229 2.3938
-6.3461 3.2052 2.3938
-6.4684 2.9825 2.3938
-6.5824 2.7549 2.3938
-6.6878 2.5228 2.3938
-6.7844 2.2866 2.3938
-6.8721 2.0466 2.3938
-6.9507 1.8030 2.3938
-7.0201 1.5564 2.3938
-7.0800 1.3070 2.3938
-7.1304 1.0552 2.3938
-7.1711 0.8015 2.3938
-7.2021 0.5462 2.3938
-7.2233 0.2897 2.3938
-7.2346 0.0323 2.3938
-7.2360 -0.2254 2.3938
-7.2275 -0.4831 2.3938
-7.2091 -0.7404 2.3938
-7.1807 -0.9969 2.3938
-7.1425 -1.2522 2.3938
-7.0945 -1.5058 2.3938
-7.0367 -1.7575 2.3938
-6.9693 -2.0067 2.3938
-6.8922 -2.2531 2.3938
-6.8058 -2.4963 2.3938
-6.7101 -2.7360 2.3938
-6.6053 -2.9716 2.3938
-6.4915 -3.2030 2.3938
-6.3690 -3.4297 2.3938
-6.2379 -3.6514 2.3938
-6.0985 -3.8677 2.3938
-5.9509 -4.0783 2.3938
-5.7956 -4.2831 2.3938
-5.6327 -4.4814 2.3938
-5.4625 -4.6732 2.3938
-5.2853 -4.8582 2.3938
-5.1014 -5.0360 2.3938
-4.9111 -5.2065 2.3938
-4.7147 -5.3695 2.3938
-4.5125 -5.5246 2.3938
-4.3049 -5.6717 2.3938
-4.0922 -5.8107 2.3938
-3.8748 -5.9413 2.3938
-3.6530 -6.0634 2.3938
-3.4272 -6.1769 2.3938
-3.1976 -6.2816 2.3938
-2.9647 -6.3775 2.3938
-2.7289 -6.4645 2.3938
-2.4905 -6.5424 2.3938
-2.2498 -6.6113 2.3938
-2.0073 -6.6710 2.3938
-1.7632 -6.7217 2.3938
-1.5179 -6.7631 2.3938
-1.2718 -6.7955 2.3938
-1.0253 -6.8187 2.3938
-0.7787 -6.8329 2.3938
-0.5322 -6.8379 2.3938
-0.2864 -6.8341 2.3938
-0.0412 -6.3592 2.3938
0.1860 -6.3400 2.3938
0.4119 -6.3127 2.3938
0.6362 -6.2773 2.3938
0.8585 -6.2340 2.3938
1.0786 -6.1828 2.3938
1.2962 -6.1239 2.3938
1.5111 -6.0573 2.3938
1.7230 -5.9834 2.3938
1.9316 -5.9021 2.3938
2.1367 -5.8136 2.3938
2.3381 -5.7182 2.3938
2.5355 -5.6159 2.3938
2.7288 -5.5070 2.3938
2.9177 -5.3915 2.3938
3.1020 -5.2698 2.3938
3.2815 -5.1420 2.3938
3.4560 -5.0082 2.3938
3.6254 -4.8688 2.3938
3.7894 -4.7238 2.3938
3.9480 -4.5735 2.3938
4.1010 -4.4182 2.3938
4.2481 -4.2579 2.3938
4.3894 -4.0930 2.3938
4.5246 -3.9236 2.3938
4.6536 -3.7499 2.3938
4.7764 -3.5723 2.3938
4.8927 -3.3908 2.3938
5.0026 -3.2058 2.3938
5.1059 -3.0175 2.3938
5.2025 -2.8260 2.3938
5.2924 -2.6317 2.3938
5.3754 -2.4346 2.3938
5.4516 -2.2352 2.3938
5.5209 -2.0335 2.3938
5.5831 -1.8299 2.3938
5.6384 -1.6245 2.3938
5.6865 -1.4176 2.3938
5.7276 -1.2094 2.3938
5.7615 -1.0001 2.3938
5.7884 -0.7900 2.3938
5.8080 -0.5793 2.3938
5.8206 -0.3682 2.3938
5.8259 -0.1570 2.3938
5.8242 0.0542 2.3938
5.8153 0.2651 2.3938
5.7993 0.4755 2.3938
5.7762 0.6851 2.3938
5.7460 0.8938 2.3938
5.7088 1.1013 2.3938
5.6647 1.3074 2.3938
5.6136 1.5119 2.3938
5.5557 1.7146 2.3938
5.4910 1.9152 2.3938
5.4195 2.1136 2.3938
5.3413 2.3095 2.3938
5.2565 2.5027 2.3938
5.1652 2.6930 2.3938
5.0675 2.8803 2.3938
4.9634 3.0642 2.3938
4.8531 3.2447 2.3938
4.7366 3.4214 2.3938
4.6142 3.5943 2.3938
4.4858 3.7630 2.3938
4.3516 3.9275 2.3938
4.2118 4.0875 2.3938
4.0665 4.2428 2.3938
3.9157 4.3933 2.3938
3.7598 4.5388 2.3938
3.5987 4.6791 2.3938
3.4327 4.8139 2.3938
3.2620 4.9432 2.3938
3.0866 5.0668 2.3938
2.9068 5.1845 2.3938
2.7228 5.2962 2.3938
2.5347 5.4016 2.3938
2.3428 5.5007 2.3938
0.8796 2.2914 0.9806
0.7967 2.3225 0.9789
0.7127 2.3507 0.9772
0.6277 2.3758 0.9754
0.5419 2.3979 0.9736
0.4553 2.4168 0.9717
0.3681 2.4326 0.9698
0.2804 2.4453 0.9678
0.1922 2.4547 0.9658
0.1038 2.4610 0.9638
0.0152 2.4641 0.9617
-0.0735 2.4640 0.9596
-0.1620 2.4607 0.9575
-0.2505 2.4542 0.9554
-0.3386 2.4445 0.9533
-0.4263 2.4316 0.9511
-0.5135 2.4155 0.9489
-0.6001 2.3963 0.9467
-0.6859 2.3741 0.9445
-0.7708 2.3487 0.9423
-0.8548 2.3202 0.9401
-2.3932 5.8415 2.3938
-2.6079 5.7671 2.3938
-2.8201 5.6849 2.3938
-3.0298 5.5949 2.3938
-3.2365 5.4970 2.3938
-3.4399 5.3915 2.3938
-3.6398 5.2784 2.3938
-3.8359 5.1578 2.3938
-4.0278 5.0298 2.3938
-4.2152 4.8945 2.3938
-4.3980 4.7522 2.3938
-4.5757 4.6029 2.3938
-4.7481 4.4468 2.3938
-4.9150 4.2841 2.3938
-5.0760 4.1151 2.3938
-5.2309 3.9398 2.3938
-5.3794 3.7585 2.3938
-5.5212 3.5715 2.3938
-5.6562 3.3790 2.3938
-5.7841 3.1813 2.3938
-5.9047 2.9786 2.3938
-6.0176 2.7711 2.3938
-6.1229 2.5592 2.3938
-6.2202 2.3433 2.3938
-6.3093 2.1235 2.3938
-6.3902 1.9002 2.3938
-6.4626 1.6737 2.3938
-6.5265 1.4444 2.3938
-6.5816 1.2126 2.3938
-6.6279 0.9786 2.3938
-6.6653 0.7429 2.3938
-6.6936 0.5057 2.3938
-6.7129 0.2674 2.3938
-6.7231 0.0284 2.3938
-6.7241 -0.2110 2.3938
-6.7159 -0.4503 2.3938
-6.6986 -0.6892 2.3938
-6.6721 -0.9274 2.3938
-6.6364 -1.1644 2.3938
-6.5918 -1.3999 2.3938
-6.5380 -1.6336 2.3938
-6.4754 -1.8650 2.3938
-6.4040 -2.0938 2.3938
-6.3238 -2.3197 2.3938
-6.2350 -2.5423 2.3938
-6.1378 -2.7612 2.3938
-6.0324 -2.9762 2.3938
-5.9188 -3.1868 2.3938
-5.7974 -3.3929 2.3938
-5.6682 -3.5940 2.3938
-5.5315 -3.7899 2.3938
-5.3876 -3.9803 2.3938
-5.2366 -4.1649 2.3938
-5.0789 -4.3434 2.3938
-4.9146 -4.5156 2.3938
-4.7442 -4.6813 2.3938
-4.5677 -4.8402 2.3938
-4.3857 -4.9921 2.3938
-4.1982 -5.1368 2.3938
-4.0057 -5.2742 2.3938
-3.8084 -5.4040 2.3938
-3.6066 -5.5260 2.3938
-3.4008 -5.6403 2.3938
-3.1911 -5.7466 2.3938
-2.9780 -5.8448 2.3938
-2.7618 -5.9348 2.3938
-2.5427 -6.0165 2.3938
-2.3212 -6.0899 2.3938
-2.0975 -6.1549 2.3938
-1.8720 -6.2114 2.3938
-1.6450 -6.2595 2.3938
-1.4169 -6.2991 2.3938
-1.1879 -6.3302 2.3938
-0.9584 -6.3528 2.3938
-0.7288 -6.3670 2.3938
-0.4992 -6.3728 2.3938
-0.2702 -6.3701 2.3938
-0.0419 -6.3592 2.3938
0.1854 -6.3401 2.3938
0.4113 -6.3128 2.3938
0.6356 -6.2774 2.3938
0.8579 -6.2341 2.3938
1.0780 -6.1829 2.3938
1.2956 -6.1240 2.3938
1.5105 -6.0575 2.3938
1.7224 -5.9836 2.3938
1.9310 -5.9023 2.3938
2.1362 -5.8139 2.3938
2.3376 -5.7184 2.3938
2.5350 -5.6162 2.3938
2.7283 -5.5073 2.3938
2.9172 -5.3918 2.3938
3.1015 -5.2701 2.3938
3.2810 -5.1423 2.3938
3.4555 -5.0086 2.3938
3.6249 -4.8692 2.3938
3.7890 -4.7242 2.3938
3.9476 -4.5739 2.3938
4.1006 -4.4186 2.3938
4.2478 -4.2583 2.3938
4.3890 -4.0934 2.3938
4.5243 -3.9240 2.3938
4.6533 -3.7504 2.3938
4.7761 -3.5728 2.3938
4.8924 -3.3913 2.3938
5.0023 -3.2063 2.3938
5.1056 -3.0180 2.3938
5.2023 -2.8265 2.3938
5.2922 -2.6322 2.3938
5.3752 -2.4352 2.3938
5.4514 -2.2357 2.3938
5.5207 -2.0340 2.3938
5.5830 -1.8304 2.3938
5.6382 -1.6250 2.3938
5.6864 -1.4181 2.3938
5.7275 -1.2099 2.3938
5.7615 -1.0007 2.3938
5.7883 -0.7906 2.3938
5.8080 -0.5799 2.3938
5.8205 -0.3688 2.3938
5.8259 -0.1575 2.3938
5.8242 0.0537 2.3938
5.8153 0.2646 2.3938
5.7993 0.4749 2.3938
5.7762 0.6846 2.3938
5.7461 0.8933 2.3938
5.7090 1.1008 2.3938
5.6648 1.3069 2.3938
5.6138 1.5114 2.3938
5.5559 1.7140 2.3938
5.4911 1.9147 2.3938
5.4197 2.1130 2.3938
5.3415 2.3089 2.3938
5.2567 2.5022 2.3938
5.1654 2.6925 2.3938
5.0677 2.8798 2.3938
4.9637 3.0637 2.3938
4.8534 3.2442 2.3938
4.7369 3.4209 2.3938
4.6145 3.5938 2.3938
4.4861 3.7626 2.3938
4.3520 3.9271 2.3938
4.2122 4.0871 2.3938
4.0669 4.2424 2.3938
3.9161 4.3929 2.3938
3.7602 4.5384 2.3938
3.5991 4.6787 2.3938
3.4332 4.8136 2.3938
3.2624 4.9429 2.3938
3.0871 5.0665 2.3938
2.9073 5.1842 2.3938
2.7233 5.2959 2.3938
2.5352 5.4014 2.3938
2.3433 5.5005 2.3938
0.8798 2.2913 0.9806
0.7969 2.3225 0.9789
0.7129 2.3506 0.9772
0.6279 2.3758 0.9754
0.5421 2.3978 0.9736
0.4555 2.4168 0.9717
0.3683 2.4326 0.9698
0.2806 2.4452 0.9678
0.1925 2.4547 0.9658
0.1040 2.4610 0.9638
0.0154 2.4641 0.9617
-0.0732 2.4640 0.9597
-0.1618 2.4607 0.9575
-0.2502 2.4542 0.9554
-0.3384 2.4445 0.9533
-0.4261 2.4316 0.9511
-0.5133 2.4156 0.9489
-0.5999 2.3964 0.9467
-0.6857 2.3741 0.9445
-0.7706 2.3487 0.9423
-0.8546 2.3203 0.9401
-2.3927 5.8416 2.3938
-2.6073 5.7674 2.3938
-2.8196 5.6851 2.3938
-3.0292 5.5951 2.3938
-3.2359 5.4973 2.3938
-3.4394 5.3918 2.3938
-3.6393 5.2787 2.3938
-3.8353 5.1581 2.3938
-4.0273 5.0301 2.3938
-4.2148 4.8949 2.3938
-4.3975 4.7526 2.3938
-4.5753 4.6033 2.3938
-4.7477 4.4472 2.3938
-4.9146 4.2846 2.3938
-5.0756 4.1155 2.3938
-5.2305 3.9403 2.3938
-5.3790 3.7590 2.3938
-5.5209 3.5721 2.3938
-5.6559 3.3796 2.3938
-5.7838 3.1818 2.3938
-5.9043 2.9791 2.3938
-6.0174 2.7717 2.3938
-6.1226 2.5598 2.3938
-6.2199 2.3438 2.3938
-6.3091 2.1241 2.3938
-6.3900 1.9008 2.3938
-6.4625 1.6743 2.3938
-6.5263 1.4450 2.3938
-6.5815 1.2132 2.3938
-6.6278 0.9793 2.3938
-6.6652 0.7435 2.3938
-6.6936 0.5063 2.3938
-6.7128 0.2680 2.3938
-6.7230 0.0290 2.3938
-6.7241 -0.2103 2.3938
-6.7159 -0.4496 2.3938
-6.6986 -0.6886 2.3938
-6.6721 -0.9267 2.3938
-6.6365 -1.1638 2.3938
-6.5919 -1.3993 2.3938
-6.5382 -1.6330 2.3938
-6.4756 -1.8644 2.3938
-6.4042 -2.0932 2.3938
-6.3240 -2.3191 2.3938
-6.2353 -2.5417 2.3938
-6.1381 -2.7606 2.3938
-6.0327 -2.9756 2.3938
-5.9191 -3.1863 2.3938
-5.7977 -3.3923 2.3938
-5.6685 -3.5935 2.3938
-5.5319 -3.7894 2.3938
-5.3879 -3.9798 2.3938
-5.2370 -4.1644 2.3938
-5.0793 -4.3429 2.3938
-4.9151 -4.5152 2.3938
-4.7446 -4.6808 2.3938
-4.5682 -4.8398 2.3938
-4.3861 -4.9917 2.3938
-4.1987 -5.1364 2.3938
-4.0062 -5.2738 2.3938
-3.8089 -5.4036 2.3938
-3.6072 -5.5257 2.3938
-3.4014 -5.6400 2.3938
-3.1917 -5.7463 2.3938
-2.9786 -5.8445 2.3938
-2.7624 -5.9345 2.3938
-2.5433 -6.0163 2.3938
-2.3218 -6.0897 2.3938
-2.0981 -6.1547 2.3938
-1.8726 -6.2113 2.3938
-1.6456 -6.2594 2.3938
-1.4175 -6.2990 2.3938
-1.1885 -6.3301 2.3938
-0.9590 -6.3528 2.3938
-0.7294 -6.3670 2.3938
-0.4999 -6.3727 2.3938
-0.2708 -6.3702 2.3938
-0.0423 -5.9494 2.3938
0.1703 -5.9323 2.3938
0.3817 -5.9076 2.3938
0.5917 -5.8754 2.3938
0.7998 -5.8357 2.3938
1.0060 -5.7886 2.3938
1.2099 -5.7343 2.3938
1.4113 -5.6729 2.3938
1.6100 -5.6044 2.3938
1.8056 -5.5291 2.3938
1.9980 -5.4470 2.3938
2.1870 -5.3584 2.3938
2.3723 -5.2633 2.3938
2.5538 -5.1619 2.3938
2.7312 -5.0545 2.3938
2.9043 -4.9410 2.3938
3.0730 -4.8219 2.3938
3.2371 -4.6971 2.3938
3.3964 -4.5669 2.3938
3.5507 -4.4315 2.3938
3.6999 -4.2911 2.3938
3.8439 -4.1458 2.3938
3.9824 -3.9960 2.3938
4.1154 -3.8417 2.3938
4.2428 -3.6831 2.3938
4.3644 -3.5206 2.3938
4.4801 -3.3542 2.3938
4.5898 -3.1842 2.3938
4.6934 -3.0108 2.3938
4.7908 -2.8342 2.3938
4.8820 -2.6547 2.3938
4.9668 -2.4724 2.3938
5.0453 -2.2875 2.3938
5.1172 -2.1004 2.3938
5.1827 -1.9111 2.3938
5.2415 -1.7199 2.3938
5.2938 -1.5271 2.3938
5.3394 -1.3328 2.3938
5.3783 -1.1372 2.3938
5.4105 -0.9406 2.3938
5.4360 -0.7432 2.3938
5.4547 -0.5452 2.3938
5.4667 -0.3469 2.3938
5.4719 -0.1484 2.3938
5.4705 0.0501 2.3938
5.4622 0.2483 2.3938
5.4473 0.4461 2.3938
5.4257 0.6431 2.3938
5.3975 0.8393 2.3938
5.3626 1.0343 2.3938
5.3211 1.2281 2.3938
5.2731 1.4203 2.3938
5.2186 1.6108 2.3938
5.1577 1.7993 2.3938
5.0904 1.9857 2.3938
5.0168 2.1698 2.3938
4.9370 2.3514 2.3938
4.8511 2.5302 2.3938
4.7591 2.7061 2.3938
4.6611 2.8789 2.3938
4.5572 3.0483 2.3938
4.4476 3.2143 2.3938
4.3323 3.3765 2.3938
4.2114 3.5349 2.3938
4.0851 3.6892 2.3938
3.9535 3.8393 2.3938
3.8167 3.9850 2.3938
3.6748 4.1261 2.3938
3.5280 4.2624 2.3938
3.3764 4.3938 2.3938
3.2203 4.5200 2.3938
3.0596 4.6411 2.3938
2.8947 4.7567 2.3938
2.7256 4.8667 2.3938
2.5526 4.9711 2.3938
2.3758 5.0695 2.3938
0.8984 2.1125 0.9796
0.8219 2.1445 0.9781
0.7443 2.1736 0.9765
0.6657 2.2000 0.9749
0.5861 2.2235 0.9732
0.5058 2.2441 0.9715
0.4247 2.2618 0.9697
0.3431 2.2766 0.9679
0.2610 2.2884 0.9661
0.1785 2.2973 0.9642
0.0957 2.3032 0.9623
0.0128 2.3060 0.9604
-0.0702 2.3059 0.9584
-0.1531 2.3028 0.9565
-0.2359 2.2967 0.9545
-0.3184 2.2876 0.9525
-0.4005 2.2756 0.9504
-0.4821 2.2605 0.9484
-0.5631 2.2426 0.9464
-0.6434 2.2217 0.9443
-0.7229 2.1980 0.9422
-0.8016 2.1714 0.9402
-0.8791 2.1419 0.9381
-2.4438 5.3952 2.3938
-2.6420 5.3175 2.3938
-2.8377 5.2325 2.3938
-3.0306 5.1402 2.3938
-3.2204 5.0407 2.3938
-3.4069 4.9343 2.3938
-3.5897 4.8208 2.3938
-3.7685 4.7005 2.3938
-3.9432 4.5734 2.3938
-4.1135 4.4398 2.3938
-4.2790 4.2997 2.3938
-4.4395 4.1533 2.3938
-4.5948 4.0008 2.3938
-4.7445 3.8424 2.3938
-4.8886 3.6782 2.3938
-5.0266 3.5085 2.3938
-5.1585 3.3335 2.3938
-5.2839 3.1534 2.3938
-5.4027 2.9685 2.3938
-5.5146 2.7789 2.3938
-5.6195 2.5851 2.3938
-5.7172 2.3871 2.3938
-5.8074 2.1854 2.3938
-5.8901 1.9801 2.3938
-5.9650 1.7716 2.3938
-6.0321 1.5602 2.3938
-6.0912 1.3462 2.3938
-6.1421 1.1300 2.3938
-6.1849 0.9117 2.3938
-6.2194 0.6918 2.3938
-6.2455 0.4706 2.3938
-6.2632 0.2484 2.3938
-6.2724 0.0255 2.3938
-6.2731 -0.1976 2.3938
-6.2653 -0.4208 2.3938
-6.2489 -0.6435 2.3938
-6.2241 -0.8655 2.3938
-6.1908 -1.0865 2.3938
-6.1491 -1.3060 2.3938
-6.0990 -1.5239 2.3938
-6.0406 -1.7396 2.3938
-5.9741 -1.9530 2.3938
-5.8994 -2.1636 2.3938
-5.8168 -2.3711 2.3938
-5.7263 -2.5753 2.3938
-5.6282 -2.7758 2.3938
-5.5225 -2.9723 2.3938
-5.4095 -3.1646 2.3938
-5.2893 -3.3523 2.3938
-5.1622 -3.5352 2.3938
-5.0283 -3.7129 2.3938
-4.8878 -3.8853 2.3938
-4.7410 -4.0521 2.3938
-4.5882 -4.2131 2.3938
-4.4295 -4.3680 2.3938
-4.2653 -4.5166 2.3938
-4.0958 -4.6587 2.3938
-3.9213 -4.7942 2.3938
-3.7420 -4.9229 2.3938
-3.5582 -5.0446 2.3938
-3.3703 -5.1591 2.3938
-3.1785 -5.2663 2.3938
-2.9832 -5.3661 2.3938
-2.7845 -5.4585 2.3938
-2.5829 -5.5432 2.3938
-2.3786 -5.6202 2.3938
-2.1720 -5.6895 2.3938
-1.9633 -5.7510 2.3938
-1.7528 -5.8046 2.3938
-1.5410 -5.8503 2.3938
-1.3279 -5.8881 2.3938
-1.1141 -5.9180 2.3938
-0.8997 -5.9400 2.3938
-0.6851 -5.9541 2.3938
-0.4706 -5.9603 2.3938
-0.2564 -5.9588 2.3938
-0.0428 -5.9494 2.3938
0.1698 -5.9324 2.3938
0.3812 -5.9077 2.3938
0.5911 -5.8755 2.3938
0.7993 -5.8358 2.3938
1.0055 -5.7888 2.3938
1.2094 -5.7345 2.3938
1.4108 -5.6731 2.3938
1.6094 -5.6046 2.3938
1.8051 -5.5293 2.3938
1.9975 -5.4473 2.3938
2.1865 -5.3586 2.3938
2.3719 -5.2636 2.3938
2.5533 -5.1622 2.3938
2.7307 -5.0548 2.3938
2.9039 -4.9414 2.3938
3.0726 -4.8222 2.3938
3.2367 -4.6974 2.3938
3.3960 -4.5673 2.3938
3.5503 -4.4319 2.3938
3.6995 -4.2915 2.3938
3.8435 -4.1462 2.3938
3.9820 -3.9964 2.3938
4.1151 -3.8421 2.3938
4.2425 -3.6835 2.3938
4.3641 -3.5210 2.3938
4.4798 -3.3546 2.3938
4.5895 -3.1846 2.3938
4.6931 -3.0112 2.3938
4.7906 -2.8347 2.3938
4.8818 -2.6551 2.3938
4.9666 -2.4729 2.3938
5.0451 -2.2880 2.3938
5.1170 -2.1009 2.3938
5.1825 -1.9116 2.3938
5.2414 -1.7204 2.3938
5.2936 -1.5276 2.3938
5.3393 -1.3333 2.3938
5.3782 -1.1377 2.3938
5.4104 -0.9411 2.3938
5.4359 -0.7438 2.3938
5.4547 -0.5458 2.3938
5.4667 -0.3474 2.3938
5.4719 -0.1489 2.3938
5.4705 0.0496 2.3938
5.4623 0.2478 2.3938
5.4474 0.4455 2.3938
5.4258 0.6426 2.3938
5.3975 0.8388 2.3938
5.3627 1.0338 2.3938
5.3212 1.2276 2.3938
5.2732 1.4198 2.3938
5.2188 1.6103 2.3938
5.1579 1.7988 2.3938
5.0906 1.9852 2.3938
5.0170 2.1693 2.3938
4.9373 2.3509 2.3938
4.8513 2.5297 2.3938
4.7593 2.7056 2.3938
4.6614 2.8784 2.3938
4.5575 3.0479 2.3938
4.4479 3.2138 2.3938
4.3326 3.3761 2.3938
4.2117 3.5345 2.3938
4.0854 3.6888 2.3938
3.9538 3.8389 2.3938
3.8170 3.9846 2.3938
3.6752 4.1257 2.3938
3.5284 4.2620 2.3938
3.3768 4.3934 2.3938
3.2207 4.5197 2.3938
3.0601 4.6408 2.3938
2.8951 4.7564 2.3938
2.7261 4.8664 2.3938
2.5531 4.9708 2.3938
2.3762 5.0693 2.3938
0.8986 2.1124 0.9796
0.8221 2.1444 0.9781
0.7445 2.1736 0.9765
0.6659 2.1999 0.9749
0.5863 2.2234 0.9732
0.5060 2.2441 0.9715
0.4250 2.2618 0.9697
0.3433 2.2766 0.9679
0.2612 2.2884 0.9661
0.1787 2.2973 0.9642
0.0959 2.3031 0.9623
0.0130 2.3060 0.9604
-0.0700 2.3059 0.9585
-0.1529 2.3028 0.9565
-0.2357 2.2967 0.9545
-0.3181 2.2876 0.9525
-0.4002 2.2756 0.9505
-0.4819 2.2606 0.9484
-0.5629 2.2426 0.9464
-0.6432 2.2218 0.9443
-0.7227 2.1980 0.9423
-0.8013 2.1714 0.9402
-0.8789 2.1420 0.9381
-2.4432 5.3954 2.3938
-2.6415 5.3177 2.3938
-2.8372 5.2327 2.3938
-3.0301 5.1404 2.3938
-3.2199 5.0410 2.3938
-3.4064 4.9346 2.3938
-3.5892 4.8211 2.3938
-3.7681 4.7008 2.3938
-3.9428 4.5738 2.3938
-4.1130 4.4401 2.3938
-4.2785 4.3000 2.3938
-4.4391 4.1537 2.3938
-4.5943 4.0012 2.3938
-4.7441 3.8428 2.3938
-4.8882 3.6786 2.3938
-5.0263 3.5090 2.3938
-5.1581 3.3340 2.3938
-5.2836 3.1539 2.3938
-5.4024 2.9690 2.3938
-5.5143 2.7795 2.3938
-5.6192 2.5856 2.3938
-5.7169 2.3876 2.3938
-5.8072 2.1859 2.3938
-5.8898 1.9807 2.3938
-5.9648 1.7722 2.3938
-6.0319 1.5608 2.3938
-6.0910 1.3468 2.3938
-6.1420 1.1305 2.3938
-6.1848 0.9123 2.3938
-6.2193 0.6924 2.3938
-6.2454 0.4712 2.3938
-6.2631 0.2490 2.3938
-6.2723 0.0261 2.3938
-6.2731 -0.1970 2.3938
-6.2653 -0.4202 2.3938
-6.2490 -0.6429 2.3938
-6.2242 -0.8649 2.3938
-6.1909 -1.0859 2.3938
-6.1492 -1.3055 2.3938
-6.0991 -1.5233 2.3938
-6.0408 -1.7390 2.3938
-5.9743 -1.9524 2.3938
-5.8996 -2.1630 2.3938
-5.8170 -2.3706 2.3938
-5.7266 -2.5748 2.3938
-5.6285 -2.7753 2.3938
-5.5228 -2.9718 2.3938
-5.4098 -3.1641 2.3938
-5.2897 -3.3518 2.3938
-5.1625 -3.5347 2.3938
-5.0286 -3.7125 2.3938
-4.8882 -3.8849 2.3938
-4.7414 -4.0517 2.3938
-4.5886 -4.2127 2.3938
-4.4300 -4.3676 2.3938
-4.2658 -4.5162 2.3938
-4.0963 -4.6584 2.3938
-3.9217 -4.7939 2.3938
-3.7425 -4.9226 2.3938
-3.5587 -5.0442 2.3938
-3.3708 -5.1588 2.3938
-3.1791 -5.2660 2.3938
-2.9837 -5.3659 2.3938
-2.7851 -5.4582 2.3938
-2.5834 -5.5430 2.3938
-2.3792 -5.6200 2.3938
-2.1725 -5.6893 2.3938
-1.9638 -5.7508 2.3938
-1.7534 -5.8044 2.3938
-1.5415 -5.8502 2.3938
-1.3285 -5.8880 2.3938
-1.1147 -5.9179 2.3938
-0.9003 -5.9399 2.3938
-0.6857 -5.9541 2.3938
-0.4711 -5.9603 2.3938
-0.2570 -5.9588 2.3938
-0.0432 -5.5830 2.3938
0.1563 -5.5677 2.3938
0.3548 -5.5453 2.3938
0.5518 -5.5158 2.3938
0.7474 -5.4792 2.3938
0.9410 -5.4358 2.3938
1.1326 -5.3855 2.3938
1.3219 -5.3285 2.3938
1.5087 -5.2649 2.3938
1.6927 -5.1948 2.3938
1.8737 -5.1184 2.3938
2.0515 -5.0357 2.3938
2.2260 -4.9470 2.3938
2.3968 -4.8524 2.3938
2.5639 -4.7520 2.3938
2.7269 -4.6459 2.3938
2.8859 -4.5344 2.3938
3.0405 -4.4176 2.3938
3.1907 -4.2957 2.3938
3.3362 -4.1689 2.3938
3.4769 -4.0372 2.3938
3.6127 -3.9010 2.3938
3.7435 -3.7604 2.3938
3.8690 -3.6156 2.3938
3.9893 -3.4668 2.3938
4.1041 -3.3141 2.3938
4.2134 -3.1579 2.3938
4.3170 -2.9981 2.3938
4.4150 -2.8352 2.3938
4.5071 -2.6692 2.3938
4.5933 -2.5003 2.3938
4.6736 -2.3289 2.3938
4.7478 -2.1550 2.3938
4.8159 -1.9789 2.3938
4.8779 -1.8007 2.3938
4.9336 -1.6208 2.3938
4.9832 -1.4392 2.3938
5.0264 -1.2563 2.3938
5.0633 -1.0721 2.3938
5.0939 -0.8870 2.3938
5.1181 -0.7010 2.3938
5.1360 -0.5145 2.3938
5.1475 -0.3277 2.3938
5.1526 -0.1406 2.3938
5.1514 0.0464 2.3938
5.1438 0.2332 2.3938
5.1298 0.4195 2.3938
5.1095 0.6052 2.3938
5.0830 0.7901 2.3938
5.0501 0.9739 2.3938
5.0111 1.1565 2.3938
4.9658 1.3376 2.3938
4.9145 1.5171 2.3938
4.8570 1.6948 2.3938
4.7936 1.8704 2.3938
4.7242 2.0438 2.3938
4.6489 2.2149 2.3938
4.5677 2.3833 2.3938
4.4809 2.5490 2.3938
4.3884 2.7117 2.3938
4.2904 2.8712 2.3938
4.1869 3.0275 2.3938
4.0781 3.1802 2.3938
3.9640 3.3292 2.3938
3.8448 3.4744 2.3938
3.7206 3.6156 2.3938
3.5915 3.7526 2.3938
3.4577 3.8852 2.3938
3.3192 4.0133 2.3938
3.1762 4.1367 2.3938
3.0289 4.2553 2.3938
2.8774 4.3689 2.3938
2.7219 4.4774 2.3938
2.5625 4.5806 2.3938
2.3994 4.6784 2.3938
2.2327 4.7707 2.3938
0.8421 1.9830 0.9773
0.7703 2.0130 0.9758
0.6974 2.0403 0.9743
0.6236 2.0651 0.9728
0.5489 2.0871 0.9712
0.4735 2.1065 0.9696
0.3974 2.1231 0.9680
0.3207 2.1370 0.9663
0.2436 2.1480 0.9645
0.1662 2.1563 0.9628
0.0885 2.1619 0.9610
0.0106 2.1646 0.9592
-0.0673 2.1644 0.9574
-0.1451 2.1615 0.9555
-0.2228 2.1558 0.9537
-0.3003 2.1472 0.9518
-0.3773 2.1359 0.9499
-0.4540 2.1218 0.9479
-0.5300 2.1050 0.9460
-0.6054 2.0854 0.9441
-0.6801 2.0631 0.9422
-0.7539 2.0381 0.9402
-0.8267 2.0105 0.9383
-0.8985 1.9803 0.9364
-2.4827 4.9889 2.3938
-2.6660 4.9085 2.3938
-2.8466 4.8213 2.3938
-3.0243 4.7274 2.3938
-3.1988 4.6269 2.3938
-3.3698 4.5199 2.3938
-3.5371 4.4065 2.3938
-3.7005 4.2868 2.3938
-3.8596 4.1610 2.3938
-4.0143 4.0292 2.3938
-4.1642 3.8915 2.3938
-4.3092 3.7482 2.3938
-4.4491 3.5993 2.3938
-4.5835 3.4451 2.3938
-4.7124 3.2857 2.3938
-4.8354 3.1215 2.3938
-4.9524 2.9525 2.3938
-5.0631 2.7790 2.3938
-5.1674 2.6012 2.3938
-5.2652 2.4195 2.3938
-5.3561 2.2339 2.3938
-5.4401 2.0449 2.3938
-5.5171 1.8526 2.3938
-5.5868 1.6573 2.3938
-5.6492 1.4594 2.3938
-5.7041 1.2590 2.3938
-5.7515 1.0565 2.3938
-5.7911 0.8522 2.3938
-5.8231 0.6464 2.3938
-5.8472 0.4394 2.3938
-5.8635 0.2315 2.3938
-5.8719 0.0230 2.3938
-5.8724 -0.1858 2.3938
-5.8649 -0.3945 2.3938
-5.8495 -0.6029 2.3938
-5.8261 -0.8106 2.3938
-5.7949 -1.0173 2.3938
-5.7559 -1.2227 2.3938
-5.7090 -1.4264 2.3938
-5.6544 -1.6282 2.3938
-5.5922 -1.8278 2.3938
-5.5224 -2.0249 2.3938
-5.4453 -2.2191 2.3938
-5.3608 -2.4101 2.3938
-5.2691 -2.5978 2.3938
-5.1704 -2.7818 2.3938
-5.0649 -2.9617 2.3938
-4.9527 -3.1375 2.3938
-4.8339 -3.3088 2.3938
-4.7089 -3.4753 2.3938
-4.5777 -3.6368 2.3938
-4.4406 -3.7931 2.3938
-4.2979 -3.9440 2.3938
-4.1497 -4.0893 2.3938
-3.9963 -4.2288 2.3938
-3.8379 -4.3622 2.3938
-3.6748 -4.4894 2.3938
-3.5073 -4.6103 2.3938
-3.3356 -4.7246 2.3938
-3.1599 -4.8323 2.3938
-2.9806 -4.9332 2.3938
-2.7979 -5.0272 2.3938
-2.6121 -5.1143 2.3938
-2.4235 -5.1942 2.3938
-2.2324 -5.2670 2.3938
-2.0390 -5.3325 2.3938
-1.8436 -5.3907 2.3938
-1.6466 -5.4416 2.3938
-1.4481 -5.4851 2.3938
-1.2486 -5.5212 2.3938
-1.0482 -5.5500 2.3938
-0.8473 -5.5713 2.3938
-0.6461 -5.5852 2.3938
-0.4450 -5.5918 2.3938
-0.2441 -5.5911 2.3938
-0.0437 -5.5831 2.3938
0.1558 -5.5678 2.3938
0.3542 -5.5454 2.3938
0.5513 -5.5159 2.3938
0.7468 -5.4793 2.3938
0.9405 -5.4359 2.3938
1.1321 -5.3856 2.3938
1.3214 -5.3287 2.3938
1.5082 -5.2651 2.3938
1.6922 -5.1950 2.3938
1.8732 -5.1186 2.3938
2.0511 -5.0360 2.3938
2.2255 -4.9473 2.3938
2.3963 -4.8526 2.3938
2.5634 -4.7522 2.3938
2.7265 -4.6462 2.3938
2.8855 -4.5347 2.3938
3.0401 -4.4179 2.3938
3.1903 -4.2961 2.3938
3.3358 -4.1692 2.3938
3.4765 -4.0376 2.3938
3.6124 -3.9014 2.3938
3.7431 -3.7608 2.3938
3.8687 -3.6160 2.3938
3.9890 -3.4672 2.3938
4.1038 -3.3146 2.3938
4.2131 -3.1583 2.3938
4.3168 -2.9986 2.3938
4.4147 -2.8356 2.3938
4.5069 -2.6696 2.3938
4.5931 -2.5008 2.3938
4.6734 -2.3293 2.3938
4.7476 -2.1555 2.3938
4.8157 -1.9793 2.3938
4.8777 -1.8012 2.3938
4.9335 -1.6213 2.3938
4.9830 -1.4397 2.3938
5.0263 -1.2568 2.3938
5.0632 -1.0726 2.3938
5.0938 -0.8875 2.3938
5.1181 -0.7015 2.3938
5.1360 -0.5150 2.3938
5.1475 -0.3282 2.3938
5.1526 -0.1411 2.3938
5.1514 0.0459 2.3938
5.1438 0.2327 2.3938
5.1299 0.4190 2.3938
5.1096 0.6047 2.3938
5.0831 0.7896 2.3938
5.0502 0.9734 2.3938
5.0112 1.1560 2.3938
4.9660 1.3371 2.3938
4.9146 1.5166 2.3938
4.8572 1.6943 2.3938
4.7938 1.8699 2.3938
4.7244 2.0434 2.3938
4.6491 2.2144 2.3938
4.5680 2.3829 2.3938
4.4811 2.5485 2.3938
4.3887 2.7112 2.3938
4.2907 2.8708 2.3938
4.1872 3.0270 2.3938
4.0784 3.1798 2.3938
3.9643 3.3288 2.3938
3.8451 3.4740 2.3938
3.7210 3.6152 2.3938
3.5919 3.7522 2.3938
3.4580 3.8848 2.3938
3.3196 4.0130 2.3938
3.1766 4.1364 2.3938
3.0293 4.2550 2.3938
2.8778 4.3686 2.3938
2.7223 4.4771 2.3938
2.5629 4.5804 2.3938
2.3998 4.6782 2.3938
2.2332 4.7704 2.3938
0.8423 1.9829 0.9773
0.7705 2.0129 0.9758
0.6976 2.0403 0.9743
0.6238 2.0650 0.9728
0.5491 2.0871 0.9712
0.4737 2.1064 0.9696
0.3976 2.1231 0.9680
0.3209 2.1369 0.9663
0.2438 2.1480 0.9645
0.1664 2.1563 0.9628
0.0887 2.1618 0.9610
0.0108 2.1645 0.9592
-0.0671 2.1644 0.9574
-0.1449 2.1615 0.9555
-0.2226 2.1558 0.9537
-0.3000 2.1473 0.9518
-0.3771 2.1360 0.9499
-0.4538 2.1219 0.9480
-0.5298 2.1050 0.9460
-0.6052 2.0854 0.9441
-0.6799 2.0632 0.9422
-0.7537 2.0382 0.9402
-0.8265 2.0106 0.9383
-0.8983 1.9804 0.9364
-2.4822 4.9891 2.3938
-2.6655 4.9087 2.3938
-2.8462 4.8215 2.3938
-3.0239 4.7276 2.3938
-3.1983 4.6272 2.3938
-3.3694 4.5202 2.3938
-3.5367 4.4068 2.3938
-3.7000 4.2871 2.3938
-3.8592 4.1613 2.3938
-4.0138 4.0295 2.3938
-4.1638 3.8919 2.3938
-4.3088 3.7485 2.3938
-4.4487 3.5997 2.3938
-4.5832 3.4455 2.3938
-4.7120 3.2862 2.3938
-4.8351 3.1219 2.3938
-4.9521 2.9529 2.3938
-5.0628 2.7795 2.3938
-5.1672 2.6017 2.3938
-5.2649 2.4200 2.3938
-5.3559 2.2344 2.3938
-5.4399 2.0454 2.3938
-5.5169 1.8531 2.3938
-5.5866 1.6578 2.3938
-5.6490 1.4599 2.3938
-5.7040 1.2595 2.3938
-5.7513 1.0570 2.3938
-5.7910 0.8528 2.3938
-5.8230 0.6469 2.3938
-5.8472 0.4399 2.3938
-5.8635 0.2320 2.3938
-5.8719 0.0235 2.3938
-5.8724 -0.1852 2.3938
-5.8649 -0.3940 2.3938
-5.8495 -0.6024 2.3938
-5.8262 -0.8100 2.3938
-5.7950 -1.0167 2.3938
-5.7560 -1.2221 2.3938
-5.7091 -1.4259 2.3938
-5.6546 -1.6277 2.3938
-5.5924 -1.8273 2.3938
-5.5226 -2.0243 2.3938
-5.4455 -2.2186 2.3938
-5.3610 -2.4096 2.3938
-5.2694 -2.5973 2.3938
-5.1707 -2.7813 2.3938
-5.0652 -2.9613 2.3938
-4.9530 -3.1370 2.3938
-4.8342 -3.3083 2.3938
-4.7092 -3.4748 2.3938
-4.5781 -3.6364 2.3938
-4.4410 -3.7927 2.3938
-4.2983 -3.9437 2.3938
-4.1501 -4.0889 2.3938
-3.9967 -4.2284 2.3938
-3.8384 -4.3618 2.3938
-3.6753 -4.4891 2.3938
-3.5078 -4.6099 2.3938
-3.3360 -4.7243 2.3938
-3.1604 -4.8320 2.3938
-2.9811 -4.9330 2.3938
-2.7984 -5.0270 2.3938
-2.6126 -5.1140 2.3938
-2.4240 -5.1940 2.3938
-2.2329 -5.2668 2.3938
-2.0395 -5.3323 2.3938
-1.8441 -5.3906 2.3938
-1.6471 -5.4415 2.3938
-1.4487 -5.4850 2.3938
-1.2491 -5.5212 2.3938
-1.0488 -5.5499 2.3938
-0.8479 -5.5712 2.3938
-0.6467 -5.5852 2.3938
-0.4455 -5.5918 2.3938
-0.2446 -5.5911 2.3938
-0.0440 -5.2532 2.3938
0.1437 -5.2395 2.3938
0.3304 -5.2190 2.3938
0.5160 -5.1918 2.3938
0.7001 -5.1580 2.3938
0.8825 -5.1177 2.3938
1.0630 -5.0710 2.3938
1.2413 -5.0179 2.3938
1.4174 -4.9586 2.3938
1.5908 -4.8932 2.3938
1.7615 -4.8218 2.3938
1.9292 -4.7445 2.3938
2.0938 -4.6615 2.3938
2.2550 -4.5728 2.3938
2.4127 -4.4787 2.3938
2.5666 -4.3793 2.3938
2.7167 -4.2746 2.3938
2.8628 -4.1650 2.3938
3.0046 -4.0505 2.3938
3.1422 -3.9313 2.3938
3.2752 -3.8076 2.3938
3.4036 -3.6796 2.3938
3.5272 -3.5473 2.3938
3.6460 -3.4111 2.3938
3.7598 -3.2710 2.3938
3.8684 -3.1273 2.3938
3.9719 -2.9801 2.3938
4.0700 -2.8296 2.3938
4.1628 -2.6761 2.3938
4.2500 -2.5196 2.3938
4.3317 -2.3605 2.3938
4.4078 -2.1988 2.3938
4.4782 -2.0348 2.3938
4.5427 -1.8687 2.3938
4.6015 -1.7007 2.3938
4.6544 -1.5309 2.3938
4.7015 -1.3596 2.3938
4.7425 -1.1869 2.3938
4.7776 -1.0131 2.3938
4.8067 -0.8383 2.3938
4.8298 -0.6628 2.3938
4.8469 -0.4867 2.3938
4.8579 -0.3102 2.3938
4.8629 -0.1336 2.3938
4.8618 0.0430 2.3938
4.8547 0.2195 2.3938
4.8417 0.3954 2.3938
4.8226 0.5708 2.3938
4.7975 0.7454 2.3938
4.7666 0.9190 2.3938
4.7297 1.0915 2.3938
4.6870 1.2626 2.3938
4.6384 1.4321 2.3938
4.5841 1.5999 2.3938
4.5241 1.7657 2.3938
4.4585 1.9295 2.3938
4.3873 2.0910 2.3938
4.3106 2.2500 2.3938
4.2285 2.4064 2.3938
4.1410 2.5600 2.3938
4.0483 2.7106 2.3938
3.9504 2.8580 2.3938
3.8475 3.0021 2.3938
3.7396 3.1427 2.3938
3.6269 3.2796 2.3938
3.5094 3.4127 2.3938
3.3874 3.5418 2.3938
3.2608 3.6668 2.3938
3.1299 3.7875 2.3938
2.9947 3.9037 2.3938
2.8555 4.0154 2.3938
2.7123 4.1223 2.3938
2.5653 4.2244 2.3938
2.4147 4.3214 2.3938
2.2606 4.4134 2.3938
0.8579 1.8356 0.9764
0.7914 1.8662 0.9751
0.7237 1.8944 0.9738
0.6551 1.9202 0.9724
0.5856 1.9435 0.9709
0.5153 1.9642 0.9694
0.4443 1.9824 0.9679
0.3727 1.9981 0.9664
0.3006 2.0111 0.9648
0.2280 2.0215 0.9632
0.1551 2.0293 0.9615
0.0820 2.0345 0.9598
0.0087 2.0371 0.9581
-0.0646 2.0369 0.9564
-0.1379 2.0342 0.9547
-0.2111 2.0288 0.9529
-0.2839 2.0208 0.9511
-0.3565 2.0101 0.9493
-0.4286 1.9968 0.9475
-0.5002 1.9810 0.9457
-0.5712 1.9625 0.9439
-0.6414 1.9415 0.9421
-0.7109 1.9180 0.9403
-0.7794 1.8920 0.9384
-0.8470 1.8636 0.9366
-0.9135 1.8327 0.9348
-2.5115 4.6168 2.3938
-2.6811 4.5343 2.3938
-2.8479 4.4454 2.3938
-3.0116 4.3504 2.3938
-3.1721 4.2493 2.3938
-3.3291 4.1422 2.3938
-3.4822 4.0292 2.3938
-3.6315 3.9105 2.3938
-3.7764 3.7862 2.3938
-3.9170 3.6564 2.3938
-4.0528 3.5213 2.3938
-4.1838 3.3810 2.3938
-4.3097 3.2358 2.3938
-4.4303 3.0858 2.3938
-4.5455 2.9312 2.3938
-4.6549 2.7722 2.3938
-4.7585 2.6090 2.3938
-4.8561 2.4419 2.3938
-4.9474 2.2710 2.3938
-5.0325 2.0966 2.3938
-5.1110 1.9190 2.3938
-5.1828 1.7383 2.3938
-5.2479 1.5549 2.3938
-5.3061 1.3690 2.3938
-5.3574 1.1808 2.3938
-5.4015 0.9907 2.3938
-5.4385 0.7989 2.3938
-5.4682 0.6057 2.3938
-5.4906 0.4114 2.3938
-5.5057 0.2163 2.3938
-5.5134 0.0207 2.3938
-5.5136 -0.1752 2.3938
-5.5065 -0.3711 2.3938
-5.4919 -0.5666 2.3938
-5.4699 -0.7614 2.3938
-5.4406 -0.9553 2.3938
-5.4039 -1.1480 2.3938
-5.3599 -1.3392 2.3938
-5.3087 -1.5285 2.3938
-5.2504 -1.7158 2.3938
-5.1850 -1.9007 2.3938
-5.1127 -2.0830 2.3938
-5.0335 -2.2623 2.3938
-4.9476 -2.4384 2.3938
-4.8552 -2.6111 2.3938
-4.7563 -2.7801 2.3938
-4.6512 -2.9451 2.3938
-4.5400 -3.1060 2.3938
-4.4228 -3.2624 2.3938
-4.2999 -3.4142 2.3938
-4.1715 -3.5611 2.3938
-4.0378 -3.7030 2.3938
-3.8990 -3.8396 2.3938
-3.7552 -3.9708 2.3938
-3.6068 -4.0963 2.3938
-3.4539 -4.2161 2.3938
-3.2969 -4.3299 2.3938
-3.1359 -4.4377 2.3938
-2.9712 -4.5392 2.3938
-2.8030 -4.6344 2.3938
-2.6317 -4.7232 2.3938
-2.4574 -4.8054 2.3938
-2.2804 -4.8809 2.3938
-2.1010 -4.9498 2.3938
-1.9195 -5.0119 2.3938
-1.7361 -5.0671 2.3938
-1.5511 -5.1155 2.3938
-1.3647 -5.1570 2.3938
-1.1773 -5.1915 2.3938
-0.9890 -5.2191 2.3938
-0.8002 -5.2397 2.3938
-0.6111 -5.2535 2.3938
-0.4219 -5.2603 2.3938
-0.2330 -5.2602 2.3938
-0.0445 -5.2532 2.3938
0.1432 -5.2395 2.3938
0.3299 -5.2190 2.3938
0.5155 -5.1919 2.3938
0.6996 -5.1581 2.3938
0.8820 -5.1178 2.3938
1.0625 -5.0711 2.3938
1.2409 -5.0181 2.3938
1.4169 -4.9588 2.3938
1.5904 -4.8934 2.3938
1.7610 -4.8220 2.3938
1.9288 -4.7447 2.3938
2.0933 -4.6617 2.3938
2.2546 -4.5731 2.3938
2.4123 -4.4790 2.3938
2.5662 -4.3795 2.3938
2.7163 -4.2749 2.3938
2.8624 -4.1653 2.3938
3.0043 -4.0508 2.3938
3.1418 -3.9317 2.3938
3.2748 -3.8080 2.3938
3.4033 -3.6799 2.3938
3.5269 -3.5477 2.3938
3.6457 -3.4114 2.3938
3.7595 -3.2714 2.3938
3.8682 -3.1276 2.3938
3.9716 -2.9805 2.3938
4.0698 -2.8300 2.3938
4.1625 -2.6765 2.3938
4.2498 -2.5201 2.3938
4.3315 -2.3609 2.3938
4.4076 -2.1993 2.3938
4.4780 -2.0353 2.3938
4.5426 -1.8692 2.3938
4.6014 -1.7011 2.3938
4.6543 -1.5314 2.3938
4.7013 -1.3600 2.3938
4.7424 -1.1874 2.3938
4.7775 -1.0136 2.3938
4.8067 -0.8388 2.3938
4.8297 -0.6632 2.3938
4.8468 -0.4871 2.3938
4.8579 -0.3107 2.3938
4.8629 -0.1340 2.3938
4.8618 0.0426 2.3938
4.8548 0.2190 2.3938
4.8417 0.3950 2.3938
4.8226 0.5704 2.3938
4.7976 0.7450 2.3938
4.7666 0.9186 2.3938
4.7298 1.0910 2.3938
4.6871 1.2621 2.3938
4.6386 1.4316 2.3938
4.5843 1.5994 2.3938
4.5243 1.7653 2.3938
4.4587 1.9291 2.3938
4.3875 2.0906 2.3938
4.3108 2.2496 2.3938
4.2287 2.4060 2.3938
4.1412 2.5596 2.3938
4.0485 2.7102 2.3938
3.9507 2.8576 2.3938
3.8478 3.0017 2.3938
3.7399 3.1423 2.3938
3.6272 3.2792 2.3938
3.5097 3.4123 2.3938
3.3877 3.5415 2.3938
3.2611 3.6665 2.3938
3.1302 3.7872 2.3938
2.9951 3.9034 2.3938
2.8559 4.0151 2.3938
2.7127 4.1221 2.3938
2.5657 4.2241 2.3938
2.4151 4.3212 2.3938
2.2610 4.4131 2.3938
0.8581 1.8355 0.9765
0.7915 1.8661 0.9751
0.7239 1.8944 0.9738
0.6553 1.9201 0.9724
0.5858 1.9434 0.9709
0.5155 1.9642 0.9694
0.4445 1.9824 0.9679
0.3729 1.9980 0.9664
0.3008 2.0111 0.9648
0.2282 2.0215 0.9632
0.1553 2.0293 0.9615
0.0821 2.0345 0.9598
0.0089 2.0370 0.9581
-0.0645 2.0369 0.9564
-0.1377 2.0342 0.9547
-0.2109 2.0288 0.9529
-0.2837 2.0208 0.9511
-0.3563 2.0101 0.9493
-0.4284 1.9969 0.9475
-0.5000 1.9810 0.9457
-0.5710 1.9626 0.9439
-0.6412 1.9416 0.9421
-0.7107 1.9181 0.9403
-0.7793 1.8921 0.9385
-0.8468 1.8637 0.9366
-0.9134 1.8328 0.9348
-2.5110 4.6170 2.3938
-2.6806 4.5345 2.3938
-2.8475 4.4457 2.3938
-3.0112 4.3507 2.3938
-3.1717 4.2495 2.3938
-3.3287 4.1425 2.3938
-3.4819 4.0295 2.3938
-3.6311 3.9108 2.3938
-3.7760 3.7865 2.3938
-3.9166 3.6567 2.3938
-4.0525 3.5216 2.3938
-4.1835 3.3814 2.3938
-4.3094 3.2362 2.3938
-4.4300 3.0862 2.3938
-4.5452 2.9316 2.3938
-4.6546 2.7727 2.3938
-4.7582 2.6095 2.3938
-4.8558 2.4424 2.3938
-4.9472 2.2715 2.3938
-5.0323 2.0971 2.3938
-5.1108 1.9195 2.3938
-5.1827 1.7388 2.3938
-5.2478 1.5554 2.3938
-5.3060 1.3695 2.3938
-5.3572 1.1813 2.3938
-5.4014 0.9912 2.3938
-5.4384 0.7994 2.3938
-5.4681 0.6063 2.3938
-5.4906 0.4120 2.3938
-5.5057 0.2168 2.3938
-5.5134 0.0212 2.3938
-5.5136 -0.1747 2.3938
-5.5065 -0.3705 2.3938
-5.4920 -0.5660 2.3938
-5.4700 -0.7609 2.3938
-5.4407 -0.9548 2.3938
-5.4040 -1.1475 2.3938
-5.3600 -1.3387 2.3938
-5.3089 -1.5280 2.3938
-5.2505 -1.7153 2.3938
-5.1852 -1.9002 2.3938
-5.1129 -2.0825 2.3938
-5.0337 -2.2618 2.3938
-4.9479 -2.4380 2.3938
-4.8554 -2.6107 2.3938
-4.7566 -2.7797 2.3938
-4.6515 -2.9447 2.3938
-4.5403 -3.1056 2.3938
-4.4231 -3.2620 2.3938
-4.3003 -3.4138 2.3938
-4.1719 -3.5608 2.3938
-4.0382 -3.7026 2.3938
-3.8993 -3.8393 2.3938
-3.7556 -3.9704 2.3938
-3.6072 -4.0960 2.3938
-3.4544 -4.2158 2.3938
-3.2973 -4.3296 2.3938
-3.1363 -4.4374 2.3938
-2.9716 -4.5389 2.3938
-2.8035 -4.6342 2.3938
-2.6321 -4.7229 2.3938
-2.4578 -4.8052 2.3938
-2.2809 -4.8807 2.3938
-2.1015 -4.9496 2.3938
-1.9200 -5.0117 2.3938
-1.7366 -5.0670 2.3938
-1.5516 -5.1154 2.3938
-1.3652 -5.1569 2.3938
-1.1778 -5.1914 2.3938
-0.9895 -5.2190 2.3938
-0.8007 -5.2397 2.3938
-0.6116 -5.2534 2.3938
-0.4224 -5.2603 2.3938
-0.2335 -5.2602 2.3938
-0.0448 -4.9545 2.3938
0.1322 -4.9420 2.3938
0.3084 -4.9232 2.3938
0.4835 -4.8981 2.3938
0.6572 -4.8668 2.3938
0.8294 -4.8293 2.3938
0.9998 -4.7857 2.3938
1.1682 -4.7362 2.3938
1.3345 -4.6807 2.3938
1.4983 -4.6195 2.3938
1.6596 -4.5525 2.3938
1.8182 -4.4800 2.3938
1.9737 -4.4021 2.3938
2.1262 -4.3188 2.3938
2.2753 -4.2304 2.3938
2.4210 -4.1369 2.3938
2.5630 -4.0385 2.3938
2.7012 -3.9353 2.3938
2.8355 -3.8275 2.3938
2.9657 -3.7153 2.3938
3.0917 -3.5987 2.3938
3.2133 -3.4780 2.3938
3.3304 -3.3533 2.3938
3.4430 -3.2248 2.3938
3.5508 -3.0927 2.3938
3.6538 -2.9571 2.3938
3.7519 -2.8182 2.3938
3.8450 -2.6761 2.3938
3.9330 -2.5311 2.3938
4.0158 -2.3834 2.3938
4.0933 -2.2330 2.3938
4.1655 -2.0803 2.3938
4.2324 -1.9253 2.3938
4.2937 -1.7683 2.3938
4.3496 -1.6095 2.3938
4.3998 -1.4489 2.3938
4.4445 -1.2869 2.3938
4.4836 -1.1236 2.3938
4.5170 -0.9592 2.3938
4.5447 -0.7939 2.3938
4.5668 -0.6279 2.3938
4.5830 -0.4613 2.3938
4.5936 -0.2943 2.3938
4.5985 -0.1271 2.3938
4.5976 0.0400 2.3938
4.5910 0.2069 2.3938
4.5787 0.3735 2.3938
4.5607 0.5394 2.3938
4.5370 0.7047 2.3938
4.5078 0.8690 2.3938
4.4729 1.0322 2.3938
4.4324 1.1941 2.3938
4.3865 1.3545 2.3938
4.3351 1.5133 2.3938
4.2782 1.6702 2.3938
4.2161 1.8252 2.3938
4.1486 1.9780 2.3938
4.0759 2.1284 2.3938
3.9981 2.2763 2.3938
3.9153 2.4216 2.3938
3.8274 2.5640 2.3938
3.7347 2.7034 2.3938
3.6372 2.8396 2.3938
3.5349 2.9725 2.3938
3.4281 3.1019 2.3938
3.3168 3.2277 2.3938
3.2012 3.3496 2.3938
3.0813 3.4677 2.3938
2.9573 3.5816 2.3938
2.8293 3.6914 2.3938
2.6974 3.7967 2.3938
2.5618 3.8976 2.3938
2.4227 3.9938 2.3938
2.2801 4.0853 2.3938
0.8698 1.7004 0.9756
0.8081 1.7315 0.9744
0.7453 1.7604 0.9732
0.6815 1.7870 0.9719
0.6168 1.8113 0.9706
0.5512 1.8332 0.9692
0.4849 1.8528 0.9678
0.4179 1.8700 0.9664
0.3503 1.8847 0.9649
0.2823 1.8970 0.9634
0.2138 1.9068 0.9619
0.1450 1.9142 0.9603
0.0760 1.9191 0.9588
0.0069 1.9214 0.9572
-0.0623 1.9213 0.9555
-0.1314 1.9187 0.9539
-0.2004 1.9136 0.9522
-0.2691 1.9061 0.9505
-0.3376 1.8960 0.9489
-0.4056 1.8835 0.9472
-0.4732 1.8685 0.9455
-0.5401 1.8511 0.9437
-0.6064 1.8313 0.9420
-0.6719 1.8092 0.9403
-0.7366 1.7846 0.9386
-0.8004 1.7578 0.9369
-0.8631 1.7287 0.9352
-0.9248 1.6973 0.9335
-2.5311 4.2743 2.3938
-2.6882 4.1901 2.3938
-2.8422 4.1001 2.3938
-2.9932 4.0044 2.3938
-3.1408 3.9030 2.3938
-3.2849 3.7962 2.3938
-3.4251 3.6839 2.3938
-3.5614 3.5664 2.3938
-3.6934 3.4438 2.3938
-3.8211 3.3162 2.3938
-3.9441 3.1838 2.3938
-4.0623 3.0467 2.3938
-4.1756 2.9052 2.3938
-4.2836 2.7594 2.3938
-4.3863 2.6094 2.3938
-4.4835 2.4556 2.3938
-4.5750 2.2981 2.3938
-4.6607 2.1370 2.3938
-4.7404 1.9727 2.3938
-4.8140 1.8054 2.3938
-4.8813 1.6352 2.3938
-4.9423 1.4625 2.3938
-4.9968 1.2874 2.3938
-5.0447 1.1103 2.3938
-5.0860 0.9314 2.3938
-5.1205 0.7509 2.3938
-5.1483 0.5691 2.3938
-5.1691 0.3863 2.3938
-5.1831 0.2027 2.3938
-5.1902 0.0186 2.3938
-5.1903 -0.1657 2.3938
-5.1835 -0.3499 2.3938
-5.1696 -0.5338 2.3938
-5.1489 -0.7171 2.3938
-5.1212 -0.8995 2.3938
-5.0867 -1.0807 2.3938
-5.0453 -1.2606 2.3938
-4.9972 -1.4387 2.3938
-4.9423 -1.6149 2.3938
-4.8809 -1.7888 2.3938
-4.8129 -1.9603 2.3938
-4.7385 -2.1290 2.3938
-4.6579 -2.2948 2.3938
-4.5710 -2.4573 2.3938
-4.4782 -2.6164 2.3938
-4.3794 -2.7717 2.3938
-4.2749 -2.9232 2.3938
-4.1649 -3.0705 2.3938
-4.0495 -3.2135 2.3938
-3.9289 -3.3519 2.3938
-3.8032 -3.4856 2.3938
-3.6728 -3.6144 2.3938
-3.5377 -3.7381 2.3938
-3.3982 -3.8565 2.3938
-3.2546 -3.9695 2.3938
-3.1070 -4.0769 2.3938
-2.9556 -4.1787 2.3938
-2.8008 -4.2746 2.3938
-2.6427 -4.3646 2.3938
-2.4815 -4.4485 2.3938
-2.3176 -4.5263 2.3938
-2.1511 -4.5979 2.3938
-1.9823 -4.6632 2.3938
-1.8115 -4.7221 2.3938
-1.6389 -4.7746 2.3938
-1.4647 -4.8206 2.3938
-1.2893 -4.8602 2.3938
-1.1127 -4.8932 2.3938
-0.9354 -4.9197 2.3938
-0.7575 -4.9397 2.3938
-0.5793 -4.9531 2.3938
-0.4011 -4.9601 2.3938
-0.2230 -4.9605 2.3938
-0.0453 -4.9545 2.3938
0.1318 -4.9421 2.3938
0.3079 -4.9233 2.3938
0.4830 -4.8982 2.3938
0.6567 -4.8669 2.3938
0.8289 -4.8294 2.3938
0.9993 -4.7859 2.3938
1.1678 -4.7363 2.3938
1.3340 -4.6809 2.3938
1.4979 -4.6196 2.3938
1.6592 -4.5527 2.3938
1.8177 -4.4802 2.3938
1.9733 -4.4023 2.3938
2.1258 -4.3191 2.3938
2.2749 -4.2306 2.3938
2.4206 -4.1372 2.3938
2.5626 -4.0388 2.3938
2.7008 -3.9356 2.3938
2.8351 -3.8278 2.3938
2.9654 -3.7156 2.3938
3.0913 -3.5990 2.3938
3.2130 -3.4783 2.3938
3.3301 -3.3537 2.3938
3.4427 -3.2252 2.3938
3.5505 -3.0931 2.3938
3.6536 -2.9575 2.3938
3.7517 -2.8185 2.3938
3.8448 -2.6765 2.3938
3.9328 -2.5315 2.3938
4.0156 -2.3838 2.3938
4.0931 -2.2335 2.3938
4.1654 -2.0807 2.3938
4.2322 -1.9257 2.3938
4.2936 -1.7687 2.3938
4.3494 -1.6099 2.3938
4.3997 -1.4494 2.3938
4.4444 -1.2874 2.3938
4.4835 -1.1241 2.3938
4.5169 -0.9597 2.3938
4.5447 -0.7944 2.3938
4.5667 -0.6283 2.3938
4.5830 -0.4617 2.3938
4.5936 -0.2947 2.3938
4.5985 -0.1276 2.3938
4.5976 0.0395 2.3938
4.5910 0.2065 2.3938
4.5787 0.3730 2.3938
4.5607 0.5390 2.3938
4.5371 0.7042 2.3938
4.5079 0.8685 2.3938
4.4730 1.0317 2.3938
4.4326 1.1936 2.3938
4.3866 1.3541 2.3938
4.3352 1.5128 2.3938
4.2784 1.6698 2.3938
4.2162 1.8248 2.3938
4.1488 1.9775 2.3938
4.0762 2.1280 2.3938
3.9983 2.2759 2.3938
3.9155 2.4212 2.3938
3.8276 2.5636 2.3938
3.7349 2.7030 2.3938
3.6374 2.8392 2.3938
3.5352 2.9721 2.3938
3.4284 3.1015 2.3938
3.3172 3.2273 2.3938
3.2015 3.3493 2.3938
3.0816 3.4674 2.3938
2.9576 3.5813 2.3938
2.8296 3.6911 2.3938
2.6978 3.7965 2.3938
2.5622 3.8973 2.3938
2.4230 3.9936 2.3938
2.2805 4.0851 2.3938
0.8700 1.7003 0.9756
0.8083 1.7314 0.9744
0.7455 1.7603 0.9732
0.6817 1.7869 0.9719
0.6170 1.8112 0.9706
0.5514 1.8332 0.9692
0.4851 1.8527 0.9678
0.4181 1.8699 0.9664
0.3505 1.8847 0.9649
0.2825 1.8970 0.9634
0.2140 1.9068 0.9619
0.1452 1.9142 0.9603
0.0762 1.9191 0.9588
0.0071 1.9214 0.9572
-0.0621 1.9213 0.9555
-0.1312 1.9187 0.9539
-0.2002 1.9137 0.9522
-0.2690 1.9061 0.9506
-0.3374 1.8960 0.9489
-0.4054 1.8835 0.9472
-0.4730 1.8686 0.9455
-0.5399 1.8512 0.9437
-0.6062 1.8314 0.9420
-0.6718 1.8092 0.9403
-0.7364 1.7847 0.9386
-0.8002 1.7579 0.9369
-0.8629 1.7288 0.9352
-0.9246 1.6974 0.9335
-2.5307 4.2746 2.3938
-2.6877 4.1904 2.3938
-2.8418 4.1004 2.3938
-2.9928 4.0046 2.3938
-3.1404 3.9033 2.3938
-3.2845 3.7965 2.3938
