ply
format ascii 1.0
element vertex 2179
property float32 x
property float32 y
property float32 z
end_header
-4.7776 5.1944 2.3964
-4.9500 5.0052 2.3963
-5.1157 4.8110 2.3962
-5.2746 4.6119 2.3961
-5.4266 4.4082 2.3960
-5.5716 4.2001 2.3960
-5.7096 3.9878 2.3959
-5.8403 3.7716 2.3958
-5.9638 3.5516 2.3957
-6.0799 3.3281 2.3956
-6.1886 3.1012 2.3955
-6.2898 2.8712 2.3954
-6.3834 2.6384 2.3952
-6.4694 2.4028 2.3951
-6.5477 2.1649 2.3950
-6.6183 1.9246 2.3949
-6.6811 1.6824 2.3948
-6.7360 1.4383 2.3947
-6.7830 1.1926 2.3945
-6.8222 0.9456 2.3944
-6.8533 0.6974 2.3943
-6.8765 0.4483 2.3942
-6.8917 0.1984 2.3940
-6.8988 -0.0519 2.3939
-6.8979 -0.3026 2.3938
-6.8888 -0.5533 2.3936
-6.8717 -0.8038 2.3935
-6.8465 -1.0539 2.3933
-6.8132 -1.3034 2.3932
-6.7718 -1.5521 2.3931
-6.7223 -1.7996 2.3929
-6.6647 -2.0459 2.3928
-6.5990 -2.2906 2.3927
-6.5253 -2.5336 2.3925
-6.4435 -2.7745 2.3924
-6.3537 -3.0132 2.3922
-6.2560 -3.2494 2.3921
-6.1503 -3.4828 2.3920
-6.0385 -3.7144 2.3925
-5.9267 -3.9481 2.3962
-5.7980 -4.1728 2.3964
-5.6613 -4.3936 2.3965
-5.5170 -4.6105 2.3965
-5.3650 -4.8232 2.3966
-5.2056 -5.0315 2.3966
-5.0387 -5.2350 2.3967
-4.8644 -5.4335 2.3967
-4.6830 -5.6268 2.3968
-4.4945 -5.8146 2.3968
-4.2990 -5.9966 2.3969
-4.0967 -6.1725 2.3969
-3.8877 -6.3422 2.3970
-3.6723 -6.5053 2.3970
-3.4505 -6.6616 2.3970
-3.2225 -6.8108 2.3971
-2.9885 -6.9527 2.3971
-2.7489 -7.0870 2.3971
-2.5037 -7.2134 2.3971
-2.2531 -7.3317 2.3971
-1.9975 -7.4417 2.3972
-1.7397 -7.5540 2.4006
-1.4765 -7.6577 2.4041
-1.2079 -7.7510 2.4071
-0.9347 -7.8333 2.4095
-0.6570 -7.9049 2.4114
-0.3755 -7.9655 2.4130
-0.0905 -8.0150 2.4142
0.1974 -8.0537 2.4153
0.4878 -8.0815 2.4161
0.7802 -8.0976 2.4166
1.0742 -8.1025 2.4169
1.3693 -8.0960 2.4170
1.6651 -8.0781 2.4170
1.9611 -8.0485 2.4168
2.2567 -8.0073 2.4165
2.5513 -7.9540 2.4159
2.8446 -7.8885 2.4149
3.1359 -7.8111 2.4138
3.4244 -7.7216 2.4124
3.7094 -7.6190 2.4105
3.9906 -7.5045 2.4082
4.2662 -7.3764 2.4051
4.5363 -7.2358 2.4015
4.8000 -7.0828 2.3972
5.0650 -6.9293 2.3963
5.3263 -6.7673 2.3962
5.5818 -6.5948 2.3961
5.8310 -6.4120 2.3961
6.0734 -6.2190 2.3960
6.3086 -6.0161 2.3959
6.5361 -5.8035 2.3958
6.7554 -5.5816 2.3957
6.9661 -5.3507 2.3956
7.1678 -5.1111 2.3955
7.3601 -4.8632 2.3954
7.5426 -4.6073 2.3953
7.7148 -4.3440 2.3952
7.8766 -4.0735 2.3951
8.0274 -3.7964 2.3950
8.1671 -3.5131 2.3948
8.2953 -3.2242 2.3947
8.4092 -2.9291 2.3939
8.5018 -2.6268 2.3905
8.5839 -2.3215 2.3876
8.6551 -2.0140 2.3851
8.7157 -1.7043 2.3832
8.7646 -1.3928 2.3816
8.8023 -1.0799 2.3804
8.8287 -0.7661 2.3796
8.8431 -0.4517 2.3790
8.8451 -0.1372 2.3785
8.8353 0.1768 2.3783
8.8135 0.4900 2.3783
8.7799 0.8017 2.3784
8.7342 1.1116 2.3787
8.6767 1.4192 2.3792
8.6080 1.7240 2.3800
8.5282 2.0258 2.3810
8.4380 2.3239 2.3825
8.3371 2.6185 2.3843
8.2261 2.9086 2.3865
8.1059 3.1946 2.3893
7.9755 3.4758 2.3924
7.8243 3.7464 2.3924
7.6625 4.0100 2.3923
7.4910 4.2664 2.3923
7.3101 4.5153 2.3922
7.1201 4.7562 2.3921
6.9216 4.9888 2.3921
6.7148 5.2129 2.3920
6.5002 5.4282 2.3920
6.2783 5.6345 2.3919
6.0494 5.8314 2.3919
5.8140 6.0189 2.3918
5.5726 6.1966 2.3918
5.3255 6.3645 2.3918
5.0732 6.5224 2.3917
4.8162 6.6702 2.3917
4.5548 6.8079 2.3917
4.2896 6.9352 2.3917
4.0213 7.0527 2.3918
3.7567 7.1729 2.3964
3.4818 7.2690 2.3963
3.2049 7.3552 2.3964
2.9263 7.4310 2.3964
2.6462 7.4964 2.3965
0.9217 2.9427 0.9339
0.8155 2.9730 0.9380
0.7082 2.9995 0.9421
0.6001 3.0220 0.9462
0.4912 3.0407 0.9503
0.3817 3.0554 0.9544
0.2717 3.0661 0.9585
0.1614 3.0729 0.9625
0.0509 3.0756 0.9665
-0.0596 3.0744 0.9705
-0.1701 3.0691 0.9744
-0.2802 3.0599 0.9783
-0.3900 3.0467 0.9822
-0.4992 3.0295 0.9860
-0.6077 3.0084 0.9897
-0.7154 2.9834 0.9934
-0.8221 2.9545 0.9970
-2.2225 6.9997 2.3970
-2.4640 6.8884 2.3969
-2.7007 6.7694 2.3969
-2.9324 6.6430 2.3969
-3.1590 6.5095 2.3968
-3.3803 6.3689 2.3968
-3.5960 6.2216 2.3967
-3.8061 6.0676 2.3967
-4.0103 5.9074 2.3966
-4.2086 5.7409 2.3966
-4.4006 5.5686 2.3965
-4.5864 5.3905 2.3964
-4.7658 5.2070 2.3964
-4.9386 5.0181 2.3963
-5.1047 4.8242 2.3962
-5.2641 4.6255 2.3961
-5.4166 4.4221 2.3961
-5.5621 4.2143 2.3960
-5.7005 4.0023 2.3959
-5.8317 3.7863 2.3958
-5.9557 3.5666 2.3957
-6.0723 3.3433 2.3956
-6.1815 3.1166 2.3955
-6.2832 2.8869 2.3954
-6.3773 2.6542 2.3953
-6.4639 2.4188 2.3951
-6.5427 2.1810 2.3950
-6.6138 1.9409 2.3949
-6.6771 1.6988 2.3948
-6.7325 1.4548 2.3947
-6.7801 1.2093 2.3945
3.1863 6.7203 2.3960
2.9314 6.8007 2.3961
2.6747 6.8716 2.3962
0.9391 2.6941 0.9312
0.8418 2.7251 0.9349
0.7434 2.7527 0.9387
0.6441 2.7766 0.9425
0.5439 2.7970 0.9463
0.4431 2.8137 0.9501
0.3418 2.8268 0.9539
0.2400 2.8362 0.9576
0.1380 2.8420 0.9614
0.0358 2.8440 0.9651
-0.0664 2.8423 0.9687
-0.1685 2.8370 0.9724
-0.2704 2.8279 0.9760
-0.3718 2.8152 0.9795
-0.4727 2.7988 0.9830
-0.5730 2.7788 0.9865
-0.6725 2.7552 0.9899
-0.7710 2.7280 0.9932
-0.8685 2.6973 0.9964
-2.3133 6.3847 2.3966
-2.5333 6.2747 2.3966
-2.7487 6.1578 2.3966
-2.9593 6.0341 2.3966
-3.1651 5.9039 2.3965
-3.3658 5.7672 2.3965
-3.5612 5.6244 2.3964
-3.7512 5.4755 2.3964
-3.9357 5.3209 2.3963
-4.1144 5.1607 2.3963
-4.2873 4.9951 2.3962
-4.4542 4.8244 2.3961
-4.6151 4.6486 2.3961
-4.7697 4.4680 2.3960
-4.9180 4.2829 2.3959
-5.0598 4.0934 2.3958
-5.1952 3.8997 2.3957
-5.3239 3.7021 2.3957
-5.4458 3.5007 2.3956
-5.5610 3.2957 2.3955
-5.6693 3.0874 2.3954
-5.7706 2.8759 2.3953
-5.8649 2.6615 2.3952
-5.9521 2.4444 2.3951
-6.0321 2.2247 2.3950
-6.1049 2.0027 2.3949
-6.1704 1.7786 2.3948
-6.2286 1.5526 2.3946
-6.2795 1.3249 2.3945
-6.3229 1.0957 2.3944
-6.3588 0.8652 2.3943
-6.3873 0.6337 2.3942
-6.4083 0.4013 2.3941
-6.4217 0.1682 2.3939
-6.4276 -0.0653 2.3938
-6.4259 -0.2990 2.3937
-6.4166 -0.5327 2.3936
-6.3997 -0.7662 2.3934
-6.3752 -0.9993 2.3933
-6.3431 -1.2318 2.3932
-6.3034 -1.4634 2.3931
-6.2561 -1.6939 2.3929
-6.2012 -1.9231 2.3928
-6.1388 -2.1508 2.3927
-6.0688 -2.3768 2.3925
-5.9913 -2.6008 2.3924
-5.9063 -2.8225 2.3923
-5.8138 -3.0419 2.3921
-5.7140 -3.2586 2.3920
-5.6126 -3.4760 2.3944
-5.5026 -3.6900 2.3962
-5.3810 -3.8980 2.3963
-5.2523 -4.1025 2.3963
-5.1164 -4.3031 2.3964
-4.9735 -4.4998 2.3964
-4.8237 -4.6921 2.3965
-4.6669 -4.8799 2.3965
-4.5035 -5.0629 2.3966
-4.3333 -5.2409 2.3966
-4.1567 -5.4137 2.3967
-3.9736 -5.5809 2.3967
-3.7843 -5.7424 2.3968
-3.5889 -5.8980 2.3968
-3.3876 -6.0473 2.3968
-3.1804 -6.1902 2.3968
-2.9677 -6.3263 2.3969
-2.7496 -6.4555 2.3969
-2.5263 -6.5776 2.3969
-2.2979 -6.6923 2.3969
-2.0649 -6.7993 2.3969
-1.8272 -6.8986 2.3970
-1.5853 -6.9897 2.3970
-1.3393 -7.0726 2.3970
-1.0896 -7.1471 2.3970
-0.8364 -7.2129 2.3970
-0.5800 -7.2698 2.3970
-0.3207 -7.3177 2.3970
-0.0588 -7.3579 2.3974
0.2055 -7.3919 2.3989
0.4719 -7.4155 2.4001
0.7404 -7.4283 2.4010
1.0099 -7.4304 2.4015
1.2801 -7.4215 2.4017
1.5507 -7.4016 2.4015
1.8212 -7.3705 2.4010
2.0909 -7.3283 2.4002
2.3592 -7.2748 2.3990
2.6259 -7.2100 2.3974
2.8915 -7.1372 2.3966
3.1560 -7.0564 2.3965
3.4181 -6.9654 2.3965
3.6774 -6.8642 2.3964
3.9334 -6.7529 2.3963
4.1857 -6.6314 2.3963
4.4339 -6.5000 2.3962
4.6774 -6.3587 2.3961
4.9160 -6.2077 2.3961
5.1491 -6.0471 2.3960
5.3763 -5.8771 2.3959
5.5972 -5.6980 2.3958
5.8114 -5.5100 2.3957
6.0185 -5.3132 2.3957
6.2180 -5.1080 2.3956
6.4097 -4.8948 2.3955
6.5930 -4.6736 2.3954
6.7677 -4.4451 2.3953
6.9334 -4.2094 2.3952
7.0898 -3.9669 2.3951
7.2365 -3.7181 2.3950
7.3733 -3.4634 2.3949
7.4999 -3.2031 2.3948
7.6161 -2.9377 2.3947
7.7215 -2.6677 2.3946
7.8161 -2.3935 2.3945
7.8996 -2.1156 2.3944
7.9718 -1.8345 2.3943
8.0327 -1.5507 2.3942
8.0821 -1.2646 2.3941
8.1199 -0.9768 2.3940
8.1461 -0.6878 2.3939
8.1607 -0.3981 2.3938
8.1635 -0.1082 2.3937
8.1547 0.1813 2.3936
8.1344 0.4701 2.3935
8.1024 0.7575 2.3934
8.0591 1.0432 2.3933
8.0044 1.3265 2.3932
7.9386 1.6070 2.3931
7.8617 1.8843 2.3930
7.7740 2.1579 2.3930
7.6758 2.4274 2.3929
7.5671 2.6922 2.3928
7.4483 2.9521 2.3927
7.3196 3.2065 2.3926
7.1814 3.4551 2.3926
7.0339 3.6976 2.3925
6.8774 3.9336 2.3924
6.7123 4.1628 2.3924
6.5389 4.3848 2.3923
6.3576 4.5993 2.3923
6.1686 4.8062 2.3922
5.9725 5.0050 2.3922
5.7696 5.1956 2.3921
5.5601 5.3778 2.3921
5.3447 5.5514 2.3920
5.1236 5.7162 2.3920
4.8971 5.8720 2.3920
4.6659 6.0188 2.3920
4.4301 6.1563 2.3919
4.1902 6.2845 2.3919
3.9467 6.4033 2.3919
3.6999 6.5127 2.3919
3.4542 6.6203 2.3947
3.2034 6.7145 2.3960
2.9486 6.7956 2.3961
2.6921 6.8672 2.3962
0.9456 2.6919 0.9309
0.8484 2.7232 0.9347
0.7501 2.7509 0.9385
0.6508 2.7751 0.9423
0.5507 2.7957 0.9461
0.4500 2.8127 0.9498
0.3486 2.8260 0.9536
0.2469 2.8357 0.9574
0.1449 2.8417 0.9611
0.0427 2.8440 0.9648
-0.0595 2.8426 0.9685
-0.1616 2.8375 0.9721
-0.2635 2.8287 0.9757
-0.3650 2.8162 0.9793
-0.4659 2.8001 0.9828
-0.5662 2.7803 0.9862
-0.6658 2.7569 0.9896
-0.7644 2.7300 0.9930
-0.8620 2.6995 0.9962
-2.2983 6.3919 2.3966
-2.5186 6.2824 2.3966
-2.7343 6.1659 2.3966
-2.9453 6.0427 2.3966
-3.1514 5.9128 2.3965
-3.3524 5.7766 2.3965
-3.5482 5.6342 2.3964
-3.7385 5.4858 2.3964
-3.9234 5.3316 2.3963
-4.1025 5.1717 2.3963
-4.2758 5.0065 2.3962
-4.4431 4.8360 2.3961
-4.6044 4.6606 2.3961
-4.7594 4.4804 2.3960
-4.9082 4.2955 2.3959
-5.0505 4.1063 2.3958
-5.1862 3.9129 2.3957
-5.3154 3.7155 2.3957
-5.4378 3.5144 2.3956
-5.5534 3.3096 2.3955
-5.6622 3.1015 2.3954
-5.7640 2.8903 2.3953
-5.8587 2.6761 2.3952
-5.9464 2.4591 2.3951
-6.0269 2.2396 2.3950
-6.1002 2.0178 2.3949
-6.1662 1.7938 2.3948
-6.2249 1.5679 2.3947
-6.2763 1.3403 2.3945
-6.3202 1.1112 2.3944
-6.3567 0.8808 2.3943
-6.3856 0.6494 2.3942
-6.4071 0.4170 2.3941
-6.4211 0.1840 2.3939
-6.4275 -0.0495 2.3938
-6.4263 -0.2832 2.3937
-6.4175 -0.5169 2.3936
-6.4011 -0.7505 2.3934
-6.3771 -0.9836 2.3933
-6.3455 -1.2161 2.3932
-6.3063 -1.4478 2.3931
-6.2595 -1.6784 2.3929
-6.2052 -1.9077 2.3928
-6.1432 -2.1355 2.3927
-6.0737 -2.3616 2.3925
-5.9967 -2.5857 2.3924
-5.9122 -2.8076 2.3923
-5.8203 -3.0272 2.3922
-5.7210 -3.2441 2.3920
-5.6194 -3.4613 2.3941
-5.5105 -3.6758 2.3962
-5.3895 -3.8841 2.3963
-5.2612 -4.0888 2.3963
-5.1258 -4.2897 2.3964
-4.9834 -4.4866 2.3964
-4.8340 -4.6792 2.3965
-4.6777 -4.8673 2.3965
-4.5147 -5.0507 2.3966
-4.3450 -5.2291 2.3966
-4.1688 -5.4022 2.3967
-3.9862 -5.5698 2.3967
-3.7973 -5.7317 2.3967
-3.6023 -5.8877 2.3968
-3.4013 -6.0374 2.3968
-3.1946 -6.1807 2.3968
-2.9823 -6.3173 2.3969
-2.7645 -6.4470 2.3969
-2.5415 -6.5696 2.3969
-2.3135 -6.6848 2.3969
-2.0807 -6.7924 2.3969
-1.8434 -6.8921 2.3970
-1.6018 -6.9838 2.3970
-1.3561 -7.0673 2.3970
-1.1066 -7.1423 2.3970
-0.8536 -7.2087 2.3970
-0.5974 -7.2662 2.3970
-0.3383 -7.3148 2.3970
-0.0766 -7.3541 2.3969
0.1876 -7.3899 2.3988
0.4539 -7.4142 2.4000
0.7223 -7.4278 2.4009
0.9915 -7.4306 2.4014
1.2620 -7.4225 2.4017
1.5325 -7.4033 2.4015
1.8029 -7.3730 2.4010
2.0725 -7.3315 2.4002
2.3411 -7.2787 2.3991
2.6079 -7.2147 2.3975
2.8736 -7.1422 2.3966
3.1382 -7.0622 2.3965
3.4005 -6.9719 2.3965
3.6600 -6.8714 2.3964
3.9162 -6.7607 2.3964
4.1688 -6.6399 2.3963
4.4173 -6.5092 2.3962
4.6611 -6.3685 2.3961
4.9001 -6.2182 2.3961
5.1335 -6.0582 2.3960
5.3612 -5.8889 2.3959
5.5825 -5.7104 2.3958
5.7972 -5.5229 2.3958
6.0047 -5.3268 2.3957
6.2048 -5.1222 2.3956
6.3970 -4.9094 2.3955
6.5809 -4.6888 2.3954
6.7562 -4.4607 2.3953
6.9225 -4.2255 2.3952
7.0795 -3.9835 2.3951
7.2269 -3.7351 2.3950
7.3644 -3.4807 2.3949
7.4917 -3.2208 2.3948
7.6086 -2.9558 2.3947
7.7148 -2.6860 2.3946
7.8101 -2.4121 2.3945
7.8943 -2.1345 2.3944
7.9673 -1.8536 2.3943
8.0290 -1.5699 2.3942
8.0791 -1.2840 2.3941
8.1177 -0.9963 2.3940
8.1447 -0.7074 2.3939
8.1600 -0.4177 2.3938
8.1637 -0.1278 2.3937
8.1557 0.1618 2.3936
8.1361 0.4506 2.3935
8.1050 0.7382 2.3934
8.0624 1.0239 2.3933
8.0085 1.3074 2.3932
7.9434 1.5882 2.3931
7.8672 1.8657 2.3931
7.7803 2.1396 2.3930
7.6827 2.4093 2.3929
7.5747 2.6745 2.3928
7.4566 2.9347 2.3927
7.3286 3.1895 2.3927
7.1910 3.4386 2.3926
7.0441 3.6815 2.3925
6.8882 3.9179 2.3924
6.7237 4.1475 2.3924
6.5509 4.3700 2.3923
6.3700 4.5851 2.3923
6.1816 4.7924 2.3922
5.9860 4.9918 2.3922
5.7835 5.1830 2.3921
5.5745 5.3658 2.3921
5.3594 5.5400 2.3920
5.1387 5.7054 2.3920
4.9126 5.8618 2.3920
4.6816 6.0092 2.3920
4.4461 6.1473 2.3919
4.2066 6.2761 2.3919
3.9633 6.3956 2.3919
3.7166 6.5056 2.3919
3.4710 6.6136 2.3946
3.2205 6.7087 2.3960
2.9659 6.7904 2.3961
2.7094 6.8626 2.3962
0.9521 2.6896 0.9306
0.8550 2.7212 0.9344
0.7567 2.7492 0.9382
0.6575 2.7736 0.9420
0.5575 2.7945 0.9458
0.4568 2.8117 0.9496
0.3555 2.8253 0.9534
0.2538 2.8352 0.9571
0.1518 2.8414 0.9609
0.0496 2.8439 0.9646
-0.0526 2.8428 0.9682
-0.1547 2.8379 0.9719
-0.2566 2.8294 0.9755
-0.3581 2.8172 0.9791
-0.4591 2.8013 0.9826
-0.5595 2.7817 0.9860
-0.6591 2.7586 0.9894
-0.7578 2.7319 0.9927
-0.8554 2.7016 0.9960
-2.2833 6.3990 2.3967
-2.5038 6.2900 2.3966
-2.7199 6.1740 2.3966
-2.9312 6.0512 2.3966
-3.1376 5.9218 2.3965
-3.3390 5.7860 2.3965
-3.5351 5.6440 2.3964
-3.7259 5.4960 2.3964
-3.9111 5.3421 2.3963
-4.0906 5.1827 2.3963
-4.2643 5.0178 2.3962
-4.4320 4.8477 2.3961
-4.5937 4.6726 2.3961
-4.7492 4.4927 2.3960
-4.8983 4.3082 2.3959
-5.0411 4.1192 2.3958
-5.1773 3.9261 2.3958
-5.3069 3.7290 2.3957
-5.4298 3.5281 2.3956
-5.5458 3.3236 2.3955
-5.6551 3.1157 2.3954
-5.7573 2.9046 2.3953
-5.8526 2.6906 2.3952
-5.9407 2.4738 2.3951
-6.0217 2.2545 2.3950
-6.0955 2.0328 2.3949
-6.1620 1.8090 2.3948
-6.2212 1.5832 2.3947
-6.2730 1.3557 2.3945
-6.3175 1.1267 2.3944
2.9615 6.2321 2.3956
2.7261 6.3091 2.3959
2.4886 6.3767 2.3959
0.8749 2.5028 0.9318
0.7845 2.5316 0.9353
0.6931 2.5572 0.9389
0.6008 2.5794 0.9424
0.5078 2.5983 0.9459
0.4141 2.6138 0.9494
0.3199 2.6260 0.9529
0.2254 2.6347 0.9564
0.1306 2.6400 0.9599
0.0356 2.6419 0.9633
-0.0593 2.6404 0.9667
-0.1542 2.6354 0.9701
-0.2488 2.6270 0.9735
-0.3431 2.6152 0.9768
-0.4368 2.5999 0.9800
-0.5300 2.5813 0.9832
-0.6224 2.5594 0.9864
-0.7140 2.5341 0.9895
-0.8046 2.5056 0.9925
-2.1524 5.9552 2.3964
-2.3581 5.8539 2.3964
-2.5596 5.7460 2.3963
-2.7568 5.6317 2.3963
-2.9495 5.5111 2.3963
-3.1374 5.3846 2.3962
-3.3205 5.2521 2.3962
-3.4986 5.1140 2.3961
-3.6715 4.9704 2.3961
-3.8392 4.8215 2.3960
-4.0014 4.6675 2.3960
-4.1580 4.5085 2.3959
-4.3089 4.3448 2.3959
-4.4541 4.1766 2.3958
-4.5933 4.0040 2.3957
-4.7265 3.8272 2.3956
-4.8536 3.6465 2.3956
-4.9745 3.4620 2.3955
-5.0891 3.2739 2.3954
-5.1973 3.0824 2.3953
-5.2990 2.8877 2.3952
-5.3942 2.6900 2.3951
-5.4828 2.4896 2.3950
-5.5646 2.2865 2.3949
-5.6398 2.0810 2.3948
-5.7081 1.8734 2.3947
-5.7696 1.6637 2.3946
-5.8242 1.4522 2.3945
-5.8719 1.2391 2.3944
-5.9126 1.0246 2.3943
-5.9462 0.8088 2.3942
-5.9728 0.5921 2.3941
-5.9923 0.3746 2.3940
-6.0048 0.1565 2.3939
-6.0100 -0.0621 2.3938
-6.0082 -0.2808 2.3936
-5.9992 -0.4995 2.3935
-5.9830 -0.7180 2.3934
-5.9597 -0.9360 2.3933
-5.9292 -1.1534 2.3932
-5.8916 -1.3700 2.3930
-5.8468 -1.5855 2.3929
-5.7948 -1.7998 2.3928
-5.7358 -2.0126 2.3927
-5.6697 -2.2236 2.3926
-5.5965 -2.4328 2.3924
-5.5163 -2.6399 2.3923
-5.4292 -2.8446 2.3922
-5.3405 -3.0498 2.3945
-5.2448 -3.2527 2.3969
-5.1354 -3.4486 2.3961
-5.0210 -3.6423 2.3962
-4.8999 -3.8326 2.3962
-4.7721 -4.0193 2.3963
-4.6378 -4.2021 2.3963
-4.4970 -4.3808 2.3964
-4.3498 -4.5552 2.3964
-4.1963 -4.7250 2.3964
-4.0367 -4.8901 2.3965
-3.8710 -5.0501 2.3965
-3.6994 -5.2050 2.3966
-3.5221 -5.3543 2.3966
-3.3391 -5.4980 2.3966
-3.1507 -5.6359 2.3967
-2.9569 -5.7676 2.3967
-2.7581 -5.8929 2.3967
-2.5542 -6.0118 2.3967
-2.3457 -6.1238 2.3967
-2.1326 -6.2290 2.3968
-1.9151 -6.3269 2.3968
-1.6936 -6.4175 2.3968
-1.4681 -6.5005 2.3968
-1.2390 -6.5758 2.3968
-1.0066 -6.6432 2.3968
-0.7710 -6.7025 2.3968
-0.5326 -6.7535 2.3968
-0.2917 -6.7961 2.3968
-0.0485 -6.8301 2.3968
0.1967 -6.8554 2.3967
0.4435 -6.8719 2.3967
0.6916 -6.8794 2.3967
0.9408 -6.8778 2.3967
1.1905 -6.8671 2.3967
1.4406 -6.8471 2.3966
1.6905 -6.8178 2.3966
1.9401 -6.7792 2.3966
2.1888 -6.7311 2.3965
2.4364 -6.6735 2.3965
2.6824 -6.6066 2.3964
2.9265 -6.5302 2.3964
3.1683 -6.4443 2.3963
3.4073 -6.3492 2.3963
3.6431 -6.2446 2.3962
3.8755 -6.1309 2.3961
4.1040 -6.0080 2.3961
4.3281 -5.8761 2.3960
4.5475 -5.7354 2.3959
4.7619 -5.5859 2.3959
4.9707 -5.4278 2.3958
5.1737 -5.2614 2.3957
5.3705 -5.0868 2.3956
5.5606 -4.9044 2.3956
5.7438 -4.7143 2.3955
5.9197 -4.5168 2.3954
6.0880 -4.3122 2.3953
6.2483 -4.1008 2.3952
6.4003 -3.8829 2.3951
6.5438 -3.6589 2.3951
6.6784 -3.4292 2.3950
6.8039 -3.1940 2.3949
6.9201 -2.9538 2.3948
7.0267 -2.7090 2.3947
7.1235 -2.4600 2.3946
7.2103 -2.2072 2.3945
7.2871 -1.9510 2.3944
7.3535 -1.6919 2.3943
7.4096 -1.4303 2.3942
7.4551 -1.1667 2.3941
7.4901 -0.9015 2.3940
7.5145 -0.6351 2.3939
7.5282 -0.3682 2.3938
7.5312 -0.1010 2.3937
7.5236 0.1659 2.3937
7.5054 0.4322 2.3936
7.4767 0.6972 2.3935
7.4374 0.9606 2.3934
7.3878 1.2220 2.3933
7.3280 1.4809 2.3932
7.2581 1.7369 2.3932
7.1783 1.9895 2.3931
7.0887 2.2384 2.3930
6.9896 2.4832 2.3929
6.8811 2.7235 2.3929
6.7636 2.9589 2.3928
6.6372 3.1890 2.3927
6.5023 3.4136 2.3927
6.3591 3.6323 2.3926
6.2080 3.8448 2.3925
6.0491 4.0508 2.3925
5.8829 4.2501 2.3924
5.7096 4.4423 2.3924
5.5296 4.6273 2.3923
5.3432 4.8048 2.3923
5.1508 4.9746 2.3923
4.9527 5.1365 2.3922
4.7493 5.2904 2.3922
4.5409 5.4361 2.3922
4.3278 5.5735 2.3921
4.1106 5.7024 2.3921
3.8894 5.8228 2.3921
3.6647 5.9346 2.3921
3.4368 6.0376 2.3921
3.2061 6.1319 2.3921
2.9769 6.2258 2.3953
2.7420 6.3042 2.3959
2.5047 6.3724 2.3959
0.8810 2.5007 0.9316
0.7906 2.5298 0.9351
0.6993 2.5555 0.9386
0.6071 2.5780 0.9421
0.5141 2.5971 0.9457
0.4204 2.6129 0.9492
0.3263 2.6253 0.9527
0.2318 2.6342 0.9562
0.1370 2.6398 0.9596
0.0420 2.6419 0.9631
-0.0529 2.6406 0.9665
-0.1478 2.6358 0.9699
-0.2424 2.6276 0.9732
-0.3367 2.6161 0.9765
-0.4305 2.6011 0.9798
-0.5237 2.5827 0.9830
-0.6162 2.5610 0.9862
-0.7078 2.5359 0.9893
-0.7985 2.5076 0.9923
-2.1383 5.9619 2.3964
-2.3443 5.8609 2.3964
-2.5461 5.7535 2.3963
-2.7436 5.6396 2.3963
-2.9366 5.5195 2.3963
-3.1249 5.3933 2.3962
-3.3083 5.2613 2.3962
-3.4868 5.1235 2.3961
-3.6600 4.9803 2.3961
-3.8280 4.8317 2.3960
-3.9906 4.6781 2.3960
-4.1476 4.5194 2.3959
-4.2989 4.3560 2.3959
-4.4445 4.1881 2.3958
-4.5841 4.0158 2.3957
-4.7177 3.8393 2.3956
-4.8452 3.6588 2.3956
-4.9666 3.4745 2.3955
-5.0816 3.2867 2.3954
-5.1902 3.0954 2.3953
-5.2923 2.9010 2.3952
-5.3880 2.7035 2.3951
-5.4770 2.5032 2.3950
-5.5593 2.3003 2.3949
-5.6349 2.0950 2.3948
-5.7037 1.8874 2.3947
-5.7657 1.6779 2.3946
-5.8208 1.4665 2.3945
-5.8689 1.2535 2.3944
-5.9100 1.0391 2.3943
-5.9442 0.8234 2.3942
-5.9713 0.6068 2.3941
-5.9913 0.3893 2.3940
-6.0041 0.1712 2.3939
-6.0099 -0.0473 2.3938
-6.0085 -0.2660 2.3936
-6.0000 -0.4847 2.3935
-5.9843 -0.7032 2.3934
-5.9615 -0.9213 2.3933
-5.9315 -1.1388 2.3932
-5.8943 -1.3554 2.3931
-5.8500 -1.5710 2.3929
-5.7986 -1.7854 2.3928
-5.7400 -1.9983 2.3927
-5.6744 -2.2095 2.3926
-5.6017 -2.4188 2.3924
-5.5220 -2.6259 2.3923
-5.4353 -2.8308 2.3922
-5.3463 -3.0357 2.3942
-5.2518 -3.2393 2.3968
-5.1429 -3.4354 2.3961
-5.0290 -3.6293 2.3962
-4.9083 -3.8199 2.3962
-4.7809 -4.0068 2.3963
-4.6470 -4.1899 2.3963
-4.5067 -4.3689 2.3964
-4.3599 -4.5436 2.3964
-4.2068 -4.7137 2.3964
-4.0476 -4.8791 2.3965
-3.8824 -5.0395 2.3965
-3.7112 -5.1947 2.3966
-3.5342 -5.3444 2.3966
-3.3516 -5.4885 2.3966
-3.1636 -5.6267 2.3967
-2.9702 -5.7589 2.3967
-2.7716 -5.8847 2.3967
-2.5682 -6.0040 2.3967
-2.3599 -6.1165 2.3967
-2.1471 -6.2221 2.3968
-1.9299 -6.3205 2.3968
-1.7086 -6.4116 2.3968
-1.4835 -6.4952 2.3968
-1.2546 -6.5710 2.3968
-1.0224 -6.6389 2.3968
-0.7870 -6.6988 2.3968
-0.5488 -6.7503 2.3968
-0.3080 -6.7935 2.3968
-0.0649 -6.8281 2.3968
0.1801 -6.8540 2.3967
0.4268 -6.8711 2.3967
0.6749 -6.8792 2.3967
0.9239 -6.8782 2.3967
1.1736 -6.8681 2.3967
1.4237 -6.8488 2.3966
1.6737 -6.8201 2.3966
1.9233 -6.7821 2.3966
2.1721 -6.7346 2.3965
2.4197 -6.6777 2.3965
2.6659 -6.6114 2.3964
2.9101 -6.5356 2.3964
3.1520 -6.4504 2.3963
3.3912 -6.3559 2.3963
3.6273 -6.2520 2.3962
3.8599 -6.1389 2.3961
4.0887 -6.0166 2.3961
4.3131 -5.8853 2.3960
4.5329 -5.7451 2.3960
4.7476 -5.5962 2.3959
4.9568 -5.4387 2.3958
5.1602 -5.2729 2.3957
5.3574 -5.0989 2.3957
5.5480 -4.9169 2.3956
5.7317 -4.7273 2.3955
5.9081 -4.5303 2.3954
6.0769 -4.3262 2.3953
6.2377 -4.1152 2.3952
6.3903 -3.8978 2.3951
6.5344 -3.6742 2.3951
6.6696 -3.4448 2.3950
6.7957 -3.2100 2.3949
6.9125 -2.9702 2.3948
7.0198 -2.7257 2.3947
7.1173 -2.4769 2.3946
7.2048 -2.2243 2.3945
7.2822 -1.9684 2.3944
7.3493 -1.7094 2.3943
7.4061 -1.4480 2.3942
7.4524 -1.1845 2.3941
7.4881 -0.9194 2.3940
7.5132 -0.6532 2.3939
7.5276 -0.3862 2.3938
7.5314 -0.1190 2.3938
7.5245 0.1479 2.3937
7.5070 0.4142 2.3936
7.4789 0.6793 2.3935
7.4404 0.9429 2.3934
7.3915 1.2044 2.3933
7.3324 1.4635 2.3932
7.2631 1.7197 2.3932
7.1840 1.9726 2.3931
7.0950 2.2217 2.3930
6.9965 2.4668 2.3929
6.8887 2.7074 2.3929
6.7718 2.9431 2.3928
6.6461 3.1736 2.3927
6.5117 3.3986 2.3927
6.3691 3.6177 2.3926
6.2184 3.8307 2.3925
6.0601 4.0371 2.3925
5.8943 4.2368 2.3924
5.7215 4.4296 2.3924
5.5419 4.6150 2.3923
5.3560 4.7930 2.3923
5.1640 4.9634 2.3923
4.9662 5.1258 2.3922
4.7632 5.2803 2.3922
4.5551 5.4265 2.3922
4.3424 5.5645 2.3921
4.1254 5.6940 2.3921
3.9045 5.8150 2.3921
3.6800 5.9273 2.3921
3.4523 6.0309 2.3921
3.2218 6.1258 2.3921
2.9923 6.2194 2.3949
2.7580 6.2993 2.3959
2.5207 6.3680 2.3959
0.8870 2.4986 0.9314
0.7968 2.5279 0.9349
0.7055 2.5539 0.9384
0.6133 2.5766 0.9419
0.5204 2.5960 0.9454
0.4268 2.6119 0.9489
0.3327 2.6245 0.9525
0.2382 2.6337 0.9559
0.1434 2.6395 0.9594
0.0484 2.6419 0.9629
-0.0465 2.6408 0.9663
-0.1414 2.6362 0.9697
-0.2360 2.6283 0.9730
-0.3304 2.6170 0.9763
-0.4242 2.6022 0.9796
-0.5174 2.5841 0.9828
-0.6100 2.5626 0.9860
-0.7017 2.5377 0.9890
-0.7924 2.5096 0.9921
-2.1243 5.9684 2.3964
-2.3305 5.8680 2.3964
-2.5327 5.7609 2.3963
-2.7304 5.6475 2.3963
-2.9237 5.5278 2.3963
-3.1123 5.4020 2.3962
-3.2961 5.2704 2.3962
-3.4749 5.1330 2.3962
-3.6485 4.9901 2.3961
-3.8169 4.8419 2.3960
-3.9798 4.6886 2.3960
-4.1372 4.5303 2.3959
-4.2889 4.3672 2.3959
-4.4348 4.1996 2.3958
-4.5749 4.0275 2.3957
-4.7089 3.8513 2.3956
-4.8368 3.6711 2.3956
-4.9586 3.4871 2.3955
-5.0740 3.2995 2.3954
-5.1830 3.1084 2.3953
-5.2856 2.9142 2.3952
-5.3817 2.7169 2.3951
-5.4712 2.5168 2.3950
-5.5540 2.3141 2.3950
-5.6300 2.1089 2.3949
-5.6993 1.9015 2.3948
-5.7617 1.6921 2.3947
-5.8173 1.4808 2.3945
-5.8659 1.2679 2.3944
-5.9075 1.0536 2.3943
2.7636 5.8022 2.3947
2.5465 5.8788 2.3963
0.9017 2.3043 0.9291
0.8184 2.3342 0.9324
0.7340 2.3611 0.9357
0.6488 2.3850 0.9390
0.5627 2.4057 0.9423
0.4759 2.4233 0.9455
0.3885 2.4378 0.9488
0.3007 2.4491 0.9521
0.2125 2.4572 0.9553
0.1240 2.4622 0.9586
0.0355 2.4639 0.9618
-0.0531 2.4625 0.9650
-0.1416 2.4578 0.9681
-0.2298 2.4500 0.9713
-0.3177 2.4390 0.9743
-0.4052 2.4248 0.9774
-0.4921 2.4074 0.9804
-0.5783 2.3869 0.9833
-0.6637 2.3634 0.9862
-0.7482 2.3367 0.9890
-0.8317 2.3071 0.9918
-2.2025 5.4803 2.3962
-2.3917 5.3802 2.3961
-2.5768 5.2741 2.3961
-2.7578 5.1621 2.3961
-2.9344 5.0443 2.3960
-3.1064 4.9210 2.3960
-3.2739 4.7923 2.3959
-3.4365 4.6584 2.3959
-3.5941 4.5195 2.3958
-3.7467 4.3757 2.3958
-3.8941 4.2272 2.3957
-4.0362 4.0742 2.3957
-4.1728 3.9168 2.3956
-4.3039 3.7553 2.3955
-4.4293 3.5899 2.3955
-4.5490 3.4206 2.3954
-4.6629 3.2478 2.3953
-4.7708 3.0715 2.3952
-4.8727 2.8921 2.3952
-4.9685 2.7095 2.3951
-5.0582 2.5242 2.3950
-5.1416 2.3361 2.3949
-5.2187 2.1456 2.3948
-5.2895 1.9528 2.3947
-5.3539 1.7579 2.3946
-5.4117 1.5610 2.3945
-5.4631 1.3625 2.3944
-5.5079 1.1624 2.3943
-5.5461 0.9610 2.3942
-5.5777 0.7585 2.3941
-5.6027 0.5550 2.3940
-5.6209 0.3508 2.3939
-5.6324 0.1460 2.3938
-5.6372 -0.0592 2.3937
-5.6352 -0.2645 2.3936
-5.6265 -0.4698 2.3935
-5.6110 -0.6749 2.3934
-5.5888 -0.8795 2.3933
-5.5598 -1.0836 2.3931
-5.5241 -1.2867 2.3930
-5.4816 -1.4889 2.3929
-5.4324 -1.6898 2.3928
-5.3765 -1.8893 2.3927
-5.3139 -2.0871 2.3926
-5.2447 -2.2831 2.3925
-5.1689 -2.4771 2.3924
-5.0885 -2.6698 2.3932
-5.0043 -2.8618 2.3953
-4.9103 -3.0495 2.3959
-4.8087 -3.2337 2.3960
-4.7007 -3.4148 2.3960
-4.5864 -3.5926 2.3961
-4.4660 -3.7670 2.3961
-4.3393 -3.9376 2.3962
-4.2067 -4.1043 2.3962
-4.0680 -4.2669 2.3963
-3.9236 -4.4251 2.3963
-3.7734 -4.5788 2.3964
-3.6176 -4.7277 2.3964
-3.4563 -4.8716 2.3964
-3.2897 -5.0104 2.3965
-3.1178 -5.1437 2.3965
-2.9409 -5.2715 2.3965
-2.7591 -5.3935 2.3965
-2.5726 -5.5095 2.3966
-2.3815 -5.6193 2.3966
-2.1861 -5.7228 2.3966
-1.9865 -5.8196 2.3966
-1.7829 -5.9098 2.3966
-1.5756 -5.9929 2.3966
-1.3647 -6.0690 2.3966
-1.1506 -6.1379 2.3966
-0.9334 -6.1992 2.3966
-0.7135 -6.2530 2.3966
-0.4909 -6.2991 2.3966
-0.2662 -6.3372 2.3966
-0.0394 -6.3674 2.3966
0.1891 -6.3894 2.3966
0.4190 -6.4031 2.3966
0.6501 -6.4085 2.3965
0.8819 -6.4055 2.3965
1.1142 -6.3940 2.3965
1.3467 -6.3738 2.3965
1.5790 -6.3450 2.3964
1.8108 -6.3075 2.3964
2.0417 -6.2613 2.3964
2.2714 -6.2064 2.3963
2.4996 -6.1427 2.3963
2.7259 -6.0703 2.3962
2.9500 -5.9892 2.3962
3.1714 -5.8994 2.3961
3.3898 -5.8011 2.3961
3.6049 -5.6943 2.3960
3.8163 -5.5791 2.3960
4.0236 -5.4555 2.3959
4.2265 -5.3239 2.3958
4.4246 -5.1842 2.3958
4.6176 -5.0366 2.3957
4.8052 -4.8814 2.3956
4.9869 -4.7188 2.3956
5.1625 -4.5489 2.3955
5.3316 -4.3719 2.3954
5.4939 -4.1883 2.3953
5.6492 -3.9981 2.3953
5.7971 -3.8017 2.3952
5.9374 -3.5994 2.3951
6.0697 -3.3915 2.3950
6.1939 -3.1783 2.3949
6.3097 -2.9602 2.3948
6.4169 -2.7375 2.3948
6.5153 -2.5105 2.3947
6.6046 -2.2797 2.3946
6.6848 -2.0455 2.3945
6.7557 -1.8082 2.3944
6.8171 -1.5682 2.3943
6.8690 -1.3259 2.3942
6.9112 -1.0817 2.3941
6.9438 -0.8361 2.3941
6.9665 -0.5894 2.3940
6.9795 -0.3422 2.3939
6.9826 -0.0947 2.3938
6.9760 0.1526 2.3937
6.9596 0.3992 2.3936
6.9334 0.6448 2.3936
6.8977 0.8890 2.3935
6.8524 1.1313 2.3934
6.7977 1.3713 2.3933
6.7337 1.6088 2.3932
6.6605 1.8432 2.3932
6.5783 2.0742 2.3931
6.4874 2.3015 2.3930
6.3878 2.5246 2.3930
6.2798 2.7434 2.3929
6.1636 2.9574 2.3928
6.0395 3.1663 2.3928
5.9077 3.3698 2.3927
5.7684 3.5677 2.3927
5.6221 3.7597 2.3926
5.4688 3.9454 2.3926
5.3090 4.1248 2.3925
5.1429 4.2975 2.3925
4.9708 4.4634 2.3924
4.7931 4.6222 2.3924
4.6100 4.7738 2.3924
4.4219 4.9179 2.3923
4.2291 5.0546 2.3923
4.0319 5.1836 2.3923
3.8307 5.3048 2.3923
3.6257 5.4181 2.3923
3.4174 5.5235 2.3922
3.2061 5.6208 2.3922
2.9920 5.7100 2.3922
2.7779 5.7962 2.3943
2.5616 5.8749 2.3966
0.9073 2.3022 0.9289
0.8241 2.3323 0.9322
0.7398 2.3594 0.9355
0.6546 2.3834 0.9388
0.5685 2.4044 0.9420
0.4818 2.4222 0.9453
0.3944 2.4369 0.9486
0.3066 2.4484 0.9519
0.2185 2.4568 0.9551
0.1300 2.4619 0.9584
0.0415 2.4639 0.9616
-0.0471 2.4627 0.9648
-0.1356 2.4582 0.9679
-0.2239 2.4506 0.9710
-0.3118 2.4398 0.9741
-0.3993 2.4258 0.9772
-0.4862 2.4087 0.9802
-0.5725 2.3884 0.9831
-0.6580 2.3651 0.9860
-0.7426 2.3386 0.9888
-0.8261 2.3092 0.9916
-2.1896 5.4868 2.3962
-2.3790 5.3871 2.3961
-2.5645 5.2814 2.3961
-2.7457 5.1698 2.3961
-2.9226 5.0525 2.3960
-3.0950 4.9295 2.3960
-3.2627 4.8012 2.3959
-3.4256 4.6677 2.3959
-3.5836 4.5290 2.3958
-3.7366 4.3856 2.3958
-3.8843 4.2374 2.3957
-4.0268 4.0846 2.3957
-4.1638 3.9276 2.3956
-4.2952 3.7664 2.3955
-4.4210 3.6012 2.3955
-4.5411 3.4322 2.3954
-4.6554 3.2596 2.3953
-4.7637 3.0836 2.3952
-4.8660 2.9043 2.3952
-4.9623 2.7220 2.3951
-5.0523 2.5368 2.3950
-5.1362 2.3489 2.3949
-5.2137 2.1585 2.3948
-5.2849 1.9659 2.3947
-5.3497 1.7711 2.3946
-5.4080 1.5744 2.3945
-5.4599 1.3759 2.3944
-5.5051 1.1760 2.3943
-5.5438 0.9747 2.3942
-5.5758 0.7722 2.3941
-5.6012 0.5688 2.3940
-5.6199 0.3646 2.3939
-5.6318 0.1598 2.3938
-5.6371 -0.0453 2.3937
-5.6356 -0.2507 2.3936
-5.6273 -0.4560 2.3935
-5.6123 -0.6611 2.3934
-5.5905 -0.8657 2.3933
-5.5620 -1.0698 2.3932
-5.5267 -1.2731 2.3930
-5.4847 -1.4753 2.3929
-5.4359 -1.6763 2.3928
-5.3805 -1.8759 2.3927
-5.3183 -2.0738 2.3926
-5.2496 -2.2699 2.3925
-5.1742 -2.4640 2.3924
-5.0936 -2.6566 2.3929
-5.0099 -2.8487 2.3950
-4.9169 -3.0370 2.3959
-4.8157 -3.2214 2.3960
-4.7082 -3.4027 2.3960
-4.5943 -3.5807 2.3961
-4.4743 -3.7553 2.3961
-4.3481 -3.9262 2.3962
-4.2158 -4.0932 2.3962
-4.0776 -4.2560 2.3963
-3.9335 -4.4145 2.3963
-3.7837 -4.5685 2.3964
-3.6283 -4.7178 2.3964
-3.4674 -4.8620 2.3964
-3.3011 -5.0012 2.3965
-3.1296 -5.1349 2.3965
-2.9530 -5.2631 2.3965
-2.7715 -5.3855 2.3965
-2.5853 -5.5019 2.3966
-2.3945 -5.6121 2.3966
-2.1994 -5.7160 2.3966
-2.0001 -5.8133 2.3966
-1.7968 -5.9039 2.3966
-1.5897 -5.9876 2.3966
-1.3791 -6.0641 2.3966
-1.1652 -6.1334 2.3966
-0.9482 -6.1953 2.3966
-0.7284 -6.2496 2.3966
-0.5060 -6.2962 2.3966
-0.2814 -6.3349 2.3966
-0.0547 -6.3656 2.3966
0.1736 -6.3881 2.3966
0.4035 -6.4025 2.3966
0.6344 -6.4085 2.3966
0.8662 -6.4060 2.3965
1.0985 -6.3950 2.3965
1.3310 -6.3754 2.3965
1.5633 -6.3472 2.3964
1.7951 -6.3103 2.3964
2.0261 -6.2647 2.3964
2.2560 -6.2103 2.3963
2.4843 -6.1473 2.3963
2.7107 -6.0754 2.3962
2.9349 -5.9949 2.3962
3.1565 -5.9058 2.3961
3.3752 -5.8080 2.3961
3.5905 -5.7018 2.3960
3.8022 -5.5871 2.3960
4.0098 -5.4641 2.3959
4.2130 -5.3330 2.3958
4.4114 -5.1939 2.3958
4.6048 -5.0468 2.3957
4.7927 -4.8922 2.3956
4.9748 -4.7300 2.3956
5.1508 -4.5606 2.3955
5.3204 -4.3841 2.3954
5.4832 -4.2009 2.3953
5.6390 -4.0111 2.3953
5.7874 -3.8151 2.3952
5.9282 -3.6132 2.3951
6.0610 -3.4057 2.3950
6.1858 -3.1929 2.3949
6.3022 -2.9750 2.3948
6.4099 -2.7526 2.3948
6.5089 -2.5260 2.3947
6.5989 -2.2954 2.3946
6.6797 -2.0614 2.3945
6.7512 -1.8243 2.3944
6.8133 -1.5844 2.3943
6.8658 -1.3423 2.3942
6.9087 -1.0982 2.3941
6.9419 -0.8527 2.3941
6.9653 -0.6061 2.3940
6.9789 -0.3589 2.3939
6.9827 -0.1114 2.3938
6.9767 0.1359 2.3937
6.9610 0.3826 2.3936
6.9355 0.6283 2.3936
6.9004 0.8725 2.3935
6.8558 1.1150 2.3934
6.8017 1.3552 2.3933
6.7383 1.5928 2.3933
6.6657 1.8274 2.3932
6.5842 2.0587 2.3931
6.4938 2.2862 2.3930
6.3948 2.5097 2.3930
6.2873 2.7287 2.3929
6.1717 2.9431 2.3928
6.0481 3.1523 2.3928
5.9168 3.3562 2.3927
5.7781 3.5545 2.3927
5.6322 3.7469 2.3926
5.4794 3.9331 2.3926
5.3200 4.1129 2.3925
5.1543 4.2861 2.3925
4.9826 4.4524 2.3925
4.8052 4.6117 2.3924
4.6225 4.7638 2.3924
4.4347 4.9084 2.3924
4.2422 5.0456 2.3923
4.0453 5.1751 2.3923
3.8444 5.2969 2.3923
3.6397 5.4107 2.3923
3.4316 5.5166 2.3922
3.2204 5.6145 2.3922
3.0065 5.7043 2.3922
2.7922 5.7903 2.3940
2.5764 5.8701 2.3966
0.9129 2.3001 0.9287
0.8297 2.3304 0.9320
0.7455 2.3577 0.9352
0.6603 2.3819 0.9385
0.5744 2.4031 0.9418
0.4877 2.4211 0.9451
0.4004 2.4360 0.9484
0.3126 2.4478 0.9517
0.2244 2.4563 0.9549
0.1360 2.4617 0.9581
0.0474 2.4639 0.9614
-0.0411 2.4629 0.9646
-0.1296 2.4586 0.9677
-0.2179 2.4512 0.9708
-0.3059 2.4406 0.9739
-0.3934 2.4269 0.9770
-0.4804 2.4099 0.9800
-0.5667 2.3899 0.9829
-0.6522 2.3667 0.9858
-0.7369 2.3405 0.9886
-0.8205 2.3113 0.9914
-2.1767 5.4933 2.3962
-2.3664 5.3941 2.3961
-2.5521 5.2888 2.3961
-2.7336 5.1775 2.3961
-2.9108 5.0606 2.3960
-3.0835 4.9380 2.3960
-3.2515 4.8100 2.3959
-3.4148 4.6768 2.3959
-3.5731 4.5386 2.3958
-3.7264 4.3954 2.3958
-3.8745 4.2475 2.3957
-4.0173 4.0951 2.3957
-4.1547 3.9383 2.3956
-4.2865 3.7774 2.3955
-4.4127 3.6125 2.3955
-4.5332 3.4437 2.3954
-4.6478 3.2713 2.3953
-4.7566 3.0955 2.3953
-4.8593 2.9165 2.3952
-4.9560 2.7344 2.3951
-5.0464 2.5493 2.3950
-5.1307 2.3616 2.3949
-5.2087 2.1715 2.3948
-5.2803 1.9789 2.3947
-5.3455 1.7843 2.3946
-5.4043 1.5877 2.3945
-5.4566 1.3894 2.3944
-5.5023 1.1895 2.3943
-5.5414 0.9883 2.3942
2.5867 5.4182 2.3924
0.9231 2.1258 0.9268
0.8462 2.1566 0.9299
0.7682 2.1845 0.9329
0.6892 2.2097 0.9360
0.6094 2.2320 0.9391
0.5288 2.2514 0.9422
0.4476 2.2679 0.9452
0.3658 2.2814 0.9483
0.2836 2.2920 0.9514
0.2010 2.2996 0.9544
0.1183 2.3042 0.9574
0.0354 2.3058 0.9604
-0.0476 2.3045 0.9634
-0.1304 2.3001 0.9664
-0.2130 2.2928 0.9693
-0.2953 2.2824 0.9722
-0.3771 2.2692 0.9750
-0.4584 2.2529 0.9778
-0.5391 2.2338 0.9806
-0.6191 2.2117 0.9833
-0.6982 2.1868 0.9859
-0.7763 2.1590 0.9885
-0.8534 2.1284 0.9910
-2.2414 5.0528 2.3959
-2.4157 4.9539 2.3959
-2.5861 4.8494 2.3959
-2.7525 4.7395 2.3958
-2.9146 4.6243 2.3958
-3.0724 4.5040 2.3958
-3.2257 4.3787 2.3957
-3.3743 4.2486 2.3957
-3.5183 4.1139 2.3956
-3.6573 3.9747 2.3956
-3.7913 3.8312 2.3955
-3.9203 3.6836 2.3954
-4.0440 3.5321 2.3954
-4.1624 3.3767 2.3953
-4.2754 3.2178 2.3952
-4.3829 3.0554 2.3952
-4.4848 2.8897 2.3951
-4.5810 2.7210 2.3950
-4.6715 2.5494 2.3950
-4.7561 2.3750 2.3949
-4.8349 2.1981 2.3948
-4.9077 2.0189 2.3947
-4.9745 1.8374 2.3946
-5.0353 1.6540 2.3945
-5.0899 1.4687 2.3944
-5.1383 1.2818 2.3943
-5.1806 1.0935 2.3942
-5.2166 0.9039 2.3942
-5.2463 0.7132 2.3941
-5.2697 0.5216 2.3940
-5.2868 0.3293 2.3939
-5.2976 0.1365 2.3938
-5.3019 -0.0566 2.3937
-5.2999 -0.2499 2.3936
-5.2915 -0.4432 2.3934
-5.2766 -0.6362 2.3933
-5.2554 -0.8288 2.3932
-5.2278 -1.0207 2.3931
-5.1938 -1.2119 2.3930
-5.1535 -1.4020 2.3929
-5.1068 -1.5910 2.3928
-5.0537 -1.7785 2.3927
-4.9944 -1.9645 2.3926
-4.9288 -2.1487 2.3925
-4.8569 -2.3309 2.3924
-4.7829 -2.5131 2.3943
-4.7019 -2.6927 2.3958
-4.6118 -2.8682 2.3959
-4.5157 -3.0410 2.3959
-4.4136 -3.2109 2.3960
-4.3055 -3.3776 2.3960
-4.1917 -3.5409 2.3960
-4.0721 -3.7007 2.3961
-3.9468 -3.8567 2.3961
-3.8159 -4.0088 2.3962
-3.6796 -4.1567 2.3962
-3.5379 -4.3003 2.3962
-3.3910 -4.4394 2.3963
-3.2390 -4.5737 2.3963
-3.0820 -4.7031 2.3963
-2.9202 -4.8273 2.3964
-2.7537 -4.9463 2.3964
-2.5826 -5.0598 2.3964
-2.4071 -5.1676 2.3964
-2.2275 -5.2695 2.3964
-2.0438 -5.3654 2.3965
-1.8563 -5.4551 2.3965
-1.6652 -5.5384 2.3965
-1.4706 -5.6151 2.3965
-1.2728 -5.6852 2.3965
-1.0720 -5.7484 2.3965
-0.8684 -5.8047 2.3965
-0.6623 -5.8537 2.3965
-0.4539 -5.8955 2.3965
-0.2435 -5.9300 2.3965
-0.0313 -5.9569 2.3965
0.1824 -5.9761 2.3964
0.3973 -5.9877 2.3964
0.6132 -5.9915 2.3964
0.8298 -5.9873 2.3964
1.0467 -5.9752 2.3964
1.2636 -5.9551 2.3963
1.4803 -5.9270 2.3963
1.6965 -5.8907 2.3963
1.9117 -5.8463 2.3962
2.1258 -5.7938 2.3962
2.3383 -5.7332 2.3962
2.5490 -5.6645 2.3961
2.7575 -5.5878 2.3961
2.9635 -5.5030 2.3960
3.1666 -5.4103 2.3960
3.3666 -5.3097 2.3959
3.5630 -5.2014 2.3959
3.7557 -5.0854 2.3958
3.9441 -4.9618 2.3957
4.1281 -4.8309 2.3957
4.3072 -4.6927 2.3956
4.4812 -4.5475 2.3955
4.6498 -4.3953 2.3955
4.8127 -4.2366 2.3954
4.9696 -4.0713 2.3953
5.1201 -3.8998 2.3953
5.2641 -3.7224 2.3952
5.4012 -3.5392 2.3951
5.5312 -3.3506 2.3950
5.6539 -3.1569 2.3950
5.7690 -2.9583 2.3949
5.8763 -2.7551 2.3948
5.9757 -2.5478 2.3947
6.0669 -2.3365 2.3946
6.1498 -2.1218 2.3946
6.2242 -1.9038 2.3945
6.2900 -1.6830 2.3944
6.3470 -1.4597 2.3943
6.3952 -1.2343 2.3942
6.4345 -1.0072 2.3942
6.4649 -0.7788 2.3941
6.4862 -0.5494 2.3940
6.4984 -0.3194 2.3939
6.5016 -0.0891 2.3938
6.4957 0.1409 2.3938
6.4809 0.3704 2.3937
6.4570 0.5989 2.3936
6.4242 0.8261 2.3935
6.3826 1.0517 2.3935
6.3323 1.2752 2.3934
6.2734 1.4963 2.3933
6.2059 1.7147 2.3933
6.1302 1.9300 2.3932
6.0462 2.1418 2.3931
5.9543 2.3499 2.3931
5.8545 2.5540 2.3930
5.7471 2.7537 2.3930
5.6324 2.9487 2.3929
5.5105 3.1389 2.3928
5.3816 3.3238 2.3928
5.2461 3.5033 2.3927
5.1041 3.6771 2.3927
4.9560 3.8450 2.3927
4.8020 4.0068 2.3926
4.6424 4.1623 2.3926
4.4775 4.3113 2.3925
4.3075 4.4536 2.3925
4.1328 4.5891 2.3925
3.9537 4.7176 2.3925
3.7703 4.8391 2.3924
3.5832 4.9533 2.3924
3.3925 5.0602 2.3924
3.1986 5.1597 2.3924
3.0017 5.2518 2.3924
2.8022 5.3363 2.3924
2.6004 5.4133 2.3924
0.9283 2.1236 0.9266
0.8514 2.1546 0.9297
0.7735 2.1827 0.9327
0.6946 2.2081 0.9358
0.6148 2.2306 0.9389
0.5343 2.2502 0.9419
0.4531 2.2668 0.9450
0.3714 2.2806 0.9481
0.2892 2.2914 0.9512
0.2066 2.2992 0.9542
0.1238 2.3040 0.9572
0.0410 2.3058 0.9602
-0.0420 2.3046 0.9632
-0.1248 2.3005 0.9662
-0.2074 2.2934 0.9691
-0.2897 2.2832 0.9720
-0.3716 2.2701 0.9748
-0.4530 2.2541 0.9776
-0.5337 2.2351 0.9804
-0.6137 2.2133 0.9831
-0.6929 2.1885 0.9857
-0.7711 2.1610 0.9883
-0.8483 2.1306 0.9908
-2.2295 5.0593 2.3959
-2.4041 4.9608 2.3959
-2.5747 4.8567 2.3959
-2.7413 4.7471 2.3958
-2.9038 4.6323 2.3958
-3.0619 4.5123 2.3958
-3.2155 4.3873 2.3957
-3.3645 4.2576 2.3957
-3.5087 4.1231 2.3956
-3.6481 3.9843 2.3956
-3.7824 3.8411 2.3955
-3.9117 3.6937 2.3954
-4.0358 3.5424 2.3954
-4.1546 3.3873 2.3953
-4.2679 3.2286 2.3953
-4.3758 3.0664 2.3952
-4.4781 2.9010 2.3951
-4.5747 2.7325 2.3950
-4.6656 2.5611 2.3950
-4.7506 2.3869 2.3949
-4.8298 2.2101 2.3948
-4.9030 2.0310 2.3947
-4.9702 1.8497 2.3946
-5.0314 1.6664 2.3945
-5.0864 1.4813 2.3944
-5.1353 1.2945 2.3944
-5.1779 1.1062 2.3943
-5.2144 0.9167 2.3942
-5.2445 0.7261 2.3941
-5.2684 0.5346 2.3940
-5.2859 0.3423 2.3939
-5.2970 0.1495 2.3938
-5.3018 -0.0436 2.3937
-5.3002 -0.2369 2.3936
-5.2922 -0.4301 2.3935
-5.2778 -0.6232 2.3934
-5.2571 -0.8158 2.3932
-5.2299 -1.0078 2.3931
-5.1963 -1.1990 2.3930
-5.1564 -1.3892 2.3929
-5.1101 -1.5783 2.3928
-5.0575 -1.7659 2.3927
-4.9986 -1.9520 2.3926
-4.9334 -2.1363 2.3925
-4.8620 -2.3187 2.3924
-4.7889 -2.5012 2.3946
-4.7085 -2.6812 2.3962
-4.6181 -2.8565 2.3959
-4.5224 -3.0295 2.3959
-4.4207 -3.1995 2.3959
-4.3130 -3.3664 2.3960
-4.1995 -3.5300 2.3960
-4.0803 -3.6900 2.3961
-3.9554 -3.8463 2.3961
-3.8249 -3.9986 2.3962
-3.6890 -4.1469 2.3962
-3.5477 -4.2908 2.3962
-3.4011 -4.4301 2.3963
-3.2494 -4.5648 2.3963
-3.0928 -4.6945 2.3963
-2.9313 -4.8191 2.3964
-2.7650 -4.9384 2.3964
-2.5943 -5.0523 2.3964
-2.4191 -5.1605 2.3964
-2.2397 -5.2628 2.3964
-2.0563 -5.3591 2.3965
-1.8691 -5.4492 2.3965
-1.6782 -5.5330 2.3965
-1.4838 -5.6102 2.3965
-1.2863 -5.6807 2.3965
-1.0857 -5.7444 2.3965
-0.8823 -5.8011 2.3965
-0.6763 -5.8506 2.3965
-0.4681 -5.8930 2.3965
-0.2578 -5.9279 2.3965
-0.0457 -5.9553 2.3965
0.1679 -5.9751 2.3964
0.3828 -5.9872 2.3964
0.5986 -5.9914 2.3964
0.8151 -5.9879 2.3964
1.0320 -5.9763 2.3964
1.2490 -5.9567 2.3963
1.4657 -5.9291 2.3963
1.6819 -5.8934 2.3963
1.8972 -5.8496 2.3962
2.1114 -5.7976 2.3962
2.3240 -5.7376 2.3962
2.5348 -5.6694 2.3961
2.7435 -5.5932 2.3961
2.9497 -5.5090 2.3960
3.1530 -5.4168 2.3960
3.3532 -5.3168 2.3959
3.5499 -5.2090 2.3959
3.7428 -5.0934 2.3958
3.9315 -4.9704 2.3957
4.1158 -4.8400 2.3957
4.2953 -4.7023 2.3956
4.4697 -4.5575 2.3956
4.6386 -4.4058 2.3955
4.8019 -4.2475 2.3954
4.9592 -4.0827 2.3953
5.1101 -3.9116 2.3953
5.2546 -3.7345 2.3952
5.3921 -3.5518 2.3951
5.5226 -3.3635 2.3950
5.6458 -3.1701 2.3950
5.7615 -2.9718 2.3949
5.8693 -2.7690 2.3948
5.9692 -2.5619 2.3947
6.0610 -2.3509 2.3947
6.1444 -2.1364 2.3946
6.2194 -1.9186 2.3945
6.2858 -1.6980 2.3944
6.3434 -1.4749 2.3943
6.3922 -1.2496 2.3942
6.4322 -1.0226 2.3942
6.4631 -0.7942 2.3941
6.4850 -0.5649 2.3940
6.4979 -0.3349 2.3939
6.5017 -0.1047 2.3939
6.4964 0.1254 2.3938
6.4822 0.3549 2.3937
6.4589 0.5835 2.3936
6.4267 0.8108 2.3935
6.3857 1.0365 2.3935
6.3360 1.2602 2.3934
6.2776 1.4815 2.3933
6.2108 1.7000 2.3933
6.1355 1.9155 2.3932
6.0521 2.1276 2.3931
5.9607 2.3360 2.3931
5.8615 2.5403 2.3930
5.7546 2.7403 2.3930
5.6404 2.9357 2.3929
5.5189 3.1262 2.3928
5.3905 3.3115 2.3928
5.2554 3.4914 2.3928
5.1139 3.6656 2.3927
4.9662 3.8339 2.3927
4.8126 3.9961 2.3926
4.6534 4.1520 2.3926
4.4888 4.3014 2.3926
4.3191 4.4442 2.3925
4.1447 4.5802 2.3925
3.9659 4.7092 2.3925
3.7829 4.8311 2.3924
3.5960 4.9458 2.3924
3.4055 5.0532 2.3924
3.2118 5.1532 2.3924
3.0151 5.2458 2.3924
2.8158 5.3309 2.3924
2.6141 5.4084 2.3924
0.9334 2.1214 0.9264
0.8566 2.1526 0.9295
0.7788 2.1809 0.9325
0.6999 2.2065 0.9356
0.6202 2.2291 0.9387
0.5398 2.2489 0.9417
0.4586 2.2658 0.9448
0.3769 2.2797 0.9479
0.2947 2.2907 0.9509
0.2122 2.2987 0.9540
0.1294 2.3038 0.9570
0.0466 2.3058 0.9600
-0.0364 2.3048 0.9630
-0.1192 2.3009 0.9660
-0.2018 2.2939 0.9689
-0.2842 2.2840 0.9718
-0.3661 2.2711 0.9746
-0.4475 2.2553 0.9774
-0.5283 2.2365 0.9802
-0.6083 2.2149 0.9829
-0.6876 2.1903 0.9855
-0.7658 2.1629 0.9881
-0.8431 2.1327 0.9907
-2.2176 5.0657 2.3959
-2.3924 4.9676 2.3959
-2.5633 4.8639 2.3959
-2.7302 4.7547 2.3958
-2.8930 4.6402 2.3958
-3.0513 4.5205 2.3958
-3.2053 4.3959 2.3957
-3.3545 4.2665 2.3957
-3.4991 4.1324 2.3956
-3.6388 3.9938 2.3956
-3.7735 3.8509 2.3955
-3.9032 3.7038 2.3955
-4.0276 3.5528 2.3954
-4.1467 3.3979 2.3953
-4.2605 3.2394 2.3953
-4.3687 3.0775 2.3952
-4.4714 2.9123 2.3951
-4.5683 2.7440 2.3950
-4.6596 2.5727 2.3950
-4.7451 2.3987 2.3949
-4.8246 2.2222 2.3948
-4.8983 2.0432 2.3947
-4.9659 1.8621 2.3946
-5.0274 1.6789 2.3945
-5.0829 1.4938 2.3944
-5.1322 1.3072 2.3944
-5.1753 1.1190 2.3943
-5.2121 0.9296 2.3942
0.9398 1.9639 0.9248
0.8687 1.9954 0.9277
0.7965 2.0243 0.9305
0.7233 2.0505 0.9334
0.6491 2.0741 0.9363
0.5742 2.0951 0.9392
0.4985 2.1133 0.9421
0.4223 2.1287 0.9449
0.3455 2.1414 0.9478
0.2683 2.1513 0.9507
0.1908 2.1585 0.9536
0.1131 2.1628 0.9564
0.0352 2.1643 0.9592
-0.0426 2.1630 0.9620
-0.1203 2.1589 0.9648
-0.1979 2.1520 0.9675
-0.2751 2.1424 0.9702
-0.3520 2.1299 0.9729
-0.4283 2.1146 0.9755
-0.5041 2.0967 0.9781
-0.5791 2.0760 0.9806
-0.6534 2.0526 0.9831
-0.7268 2.0265 0.9855
-0.7991 1.9978 0.9879
-0.8704 1.9665 0.9902
-2.2705 4.6654 2.3957
-2.4313 4.5676 2.3957
-2.5884 4.4646 2.3957
-2.7415 4.3566 2.3956
-2.8906 4.2438 2.3956
-3.0354 4.1262 2.3956
-3.1759 4.0041 2.3955
-3.3120 3.8775 2.3955
-3.4434 3.7467 2.3954
-3.5701 3.6118 2.3954
-3.6921 3.4729 2.3953
-3.8091 3.3303 2.3952
-3.9211 3.1840 2.3952
-4.0280 3.0343 2.3951
-4.1297 2.8814 2.3950
-4.2261 2.7253 2.3950
-4.3172 2.5663 2.3949
-4.4028 2.4045 2.3948
-4.4829 2.2401 2.3948
-4.5574 2.0733 2.3947
-4.6263 1.9042 2.3946
-4.6895 1.7331 2.3945
-4.7470 1.5600 2.3944
-4.7986 1.3852 2.3943
-4.8444 1.2088 2.3943
-4.8843 1.0311 2.3942
-4.9183 0.8522 2.3941
-4.9464 0.6722 2.3940
-4.9684 0.4914 2.3939
-4.9845 0.3099 2.3938
-4.9945 0.1280 2.3937
-4.9985 -0.0543 2.3936
-4.9964 -0.2367 2.3935
-4.9883 -0.4191 2.3934
-4.9741 -0.6012 2.3933
-4.9538 -0.7828 2.3932
-4.9275 -0.9639 2.3931
-4.8952 -1.1442 2.3930
-4.8568 -1.3235 2.3929
-4.8123 -1.5016 2.3928
-4.7619 -1.6784 2.3927
-4.7056 -1.8537 2.3926
-4.6433 -2.0272 2.3925
-4.5798 -2.2011 2.3949
-4.5086 -2.3723 2.3963
-4.4278 -2.5394 2.3957
-4.3424 -2.7046 2.3958
-4.2512 -2.8671 2.3958
-4.1545 -3.0268 2.3959
-4.0521 -3.1835 2.3959
-3.9443 -3.3370 2.3960
-3.8311 -3.4871 2.3960
-3.7125 -3.6335 2.3960
-3.5888 -3.7762 2.3961
-3.4599 -3.9150 2.3961
-3.3259 -4.0496 2.3961
-3.1871 -4.1798 2.3962
-3.0435 -4.3056 2.3962
-2.8952 -4.4266 2.3962
-2.7425 -4.5428 2.3962
-2.5853 -4.6540 2.3963
-2.4240 -4.7599 2.3963
-2.2585 -4.8604 2.3963
-2.0892 -4.9554 2.3963
-1.9162 -5.0446 2.3963
-1.7396 -5.1280 2.3963
-1.5596 -5.2053 2.3964
-1.3765 -5.2764 2.3964
-1.1904 -5.3413 2.3964
-1.0016 -5.3996 2.3964
-0.8102 -5.4513 2.3964
-0.6166 -5.4964 2.3964
-0.4208 -5.5345 2.3964
-0.2233 -5.5658 2.3963
-0.0241 -5.5899 2.3963
0.1764 -5.6069 2.3963
0.3780 -5.6166 2.3963
0.5803 -5.6191 2.3963
0.7832 -5.6141 2.3963
0.9864 -5.6017 2.3962
1.1895 -5.5818 2.3962
1.3924 -5.5543 2.3962
1.5946 -5.5193 2.3962
1.7960 -5.4767 2.3961
1.9961 -5.4266 2.3961
2.1947 -5.3689 2.3960
2.3916 -5.3036 2.3960
2.5863 -5.2308 2.3960
2.7787 -5.1506 2.3959
2.9683 -5.0630 2.3959
3.1549 -4.9681 2.3958
3.3381 -4.8660 2.3958
3.5178 -4.7568 2.3957
3.6934 -4.6405 2.3957
3.8649 -4.5174 2.3956
4.0319 -4.3877 2.3955
4.1940 -4.2513 2.3955
4.3511 -4.1086 2.3954
4.5027 -3.9598 2.3953
4.6488 -3.8049 2.3953
4.7889 -3.6443 2.3952
4.9230 -3.4782 2.3951
5.0506 -3.3068 2.3951
5.1716 -3.1304 2.3950
5.2858 -2.9492 2.3949
5.3929 -2.7636 2.3949
5.4928 -2.5737 2.3948
5.5853 -2.3800 2.3947
5.6702 -2.1826 2.3946
5.7474 -1.9820 2.3946
5.8167 -1.7784 2.3945
5.8780 -1.5723 2.3944
5.9312 -1.3638 2.3943
5.9761 -1.1534 2.3943
6.0129 -0.9414 2.3942
6.0412 -0.7281 2.3941
6.0612 -0.5139 2.3940
6.0729 -0.2992 2.3940
6.0761 -0.0843 2.3939
6.0709 0.1305 2.3938
6.0573 0.3448 2.3937
6.0354 0.5582 2.3937
6.0052 0.7705 2.3936
5.9668 0.9812 2.3935
5.9202 1.1901 2.3935
5.8657 1.3967 2.3934
5.8033 1.6008 2.3933
5.7331 1.8022 2.3933
5.6553 2.0003 2.3932
5.5700 2.1951 2.3932
5.4775 2.3860 2.3931
5.3778 2.5730 2.3931
5.2712 2.7557 2.3930
5.1580 2.9339 2.3929
5.0382 3.1073 2.3929
4.9122 3.2757 2.3929
4.7802 3.4388 2.3928
4.6424 3.5964 2.3928
4.4990 3.7484 2.3927
4.3504 3.8946 2.3927
4.1967 4.0347 2.3927
4.0383 4.1687 2.3926
3.8755 4.2963 2.3926
3.7084 4.4175 2.3926
3.5373 4.5321 2.3926
3.3626 4.6400 2.3925
3.1846 4.7410 2.3925
3.0034 4.8352 2.3925
2.8194 4.9225 2.3925
2.6329 5.0027 2.3925
0.9446 1.9617 0.9246
0.8735 1.9934 0.9275
0.8014 2.0224 0.9303
0.7282 2.0488 0.9332
0.6542 2.0726 0.9361
0.5793 2.0937 0.9390
0.5037 2.1121 0.9419
0.4274 2.1278 0.9447
0.3507 2.1406 0.9476
0.2735 2.1508 0.9505
0.1960 2.1581 0.9534
0.1183 2.1626 0.9562
0.0405 2.1643 0.9590
-0.0373 2.1632 0.9618
-0.1151 2.1593 0.9646
-0.1927 2.1526 0.9673
-0.2699 2.1431 0.9701
-0.3468 2.1308 0.9727
-0.4232 2.1158 0.9754
-0.4990 2.0980 0.9779
-0.5741 2.0774 0.9805
-0.6484 2.0542 0.9830
-0.7218 2.0283 0.9854
-0.7943 1.9998 0.9878
-0.8657 1.9687 0.9901
-2.2595 4.6718 2.3957
-2.4206 4.5743 2.3957
-2.5779 4.4717 2.3957
-2.7313 4.3641 2.3956
-2.8806 4.2516 2.3956
-3.0258 4.1343 2.3956
-3.1666 4.0124 2.3955
-3.3029 3.8862 2.3955
-3.4347 3.7556 2.3954
-3.5617 3.6210 2.3954
-3.6840 3.4824 2.3953
-3.8014 3.3400 2.3952
-3.9137 3.1940 2.3952
-4.0210 3.0446 2.3951
-4.1230 2.8918 2.3951
-4.2198 2.7359 2.3950
-4.3112 2.5771 2.3949
-4.3972 2.4155 2.3948
-4.4777 2.2513 2.3948
-4.5526 2.0846 2.3947
-4.6219 1.9157 2.3946
-4.6854 1.7447 2.3945
-4.7433 1.5717 2.3944
-4.7953 1.3971 2.3944
-4.8415 1.2208 2.3943
-4.8818 1.0432 2.3942
-4.9162 0.8643 2.3941
-4.9447 0.6844 2.3940
-4.9671 0.5036 2.3939
-4.9836 0.3222 2.3938
-4.9940 0.1402 2.3937
-4.9984 -0.0420 2.3936
-4.9968 -0.2244 2.3935
-4.9890 -0.4068 2.3934
-4.9753 -0.5889 2.3933
-4.9554 -0.7706 2.3932
-4.9295 -0.9517 2.3931
-4.8975 -1.1321 2.3930
-4.8595 -1.3114 2.3929
-4.8155 -1.4897 2.3928
-4.7655 -1.6666 2.3927
-4.7096 -1.8419 2.3926
-4.6477 -2.0156 2.3925
-4.5841 -2.1894 2.3946
-4.5133 -2.3607 2.3960
-4.4333 -2.5282 2.3957
-4.3483 -2.6935 2.3958
-4.2576 -2.8562 2.3958
-4.1612 -3.0161 2.3959
-4.0592 -3.1730 2.3959
-3.9518 -3.3267 2.3959
-3.8389 -3.4770 2.3960
-3.7207 -3.6238 2.3960
-3.5973 -3.7667 2.3961
-3.4687 -3.9057 2.3961
-3.3351 -4.0406 2.3961
-3.1966 -4.1712 2.3962
-3.0533 -4.2972 2.3962
-2.9054 -4.4186 2.3962
-2.7529 -4.5351 2.3962
-2.5961 -4.6466 2.3963
-2.4350 -4.7529 2.3963
-2.2698 -4.8538 2.3963
-2.1008 -4.9491 2.3963
-1.9280 -5.0388 2.3963
-1.7516 -5.1225 2.3963
-1.5719 -5.2003 2.3964
-1.3889 -5.2718 2.3964
-1.2031 -5.3371 2.3964
-1.0144 -5.3959 2.3964
-0.8232 -5.4481 2.3964
-0.6297 -5.4935 2.3964
-0.4341 -5.5322 2.3964
-0.2367 -5.5639 2.3963
-0.0376 -5.5885 2.3963
0.1628 -5.6060 2.3963
0.3643 -5.6162 2.3963
0.5666 -5.6191 2.3963
0.7695 -5.6147 2.3963
0.9727 -5.6028 2.3962
1.1758 -5.5834 2.3962
1.3787 -5.5564 2.3962
1.5810 -5.5219 2.3962
1.7824 -5.4798 2.3961
1.9826 -5.4302 2.3961
2.1814 -5.3730 2.3961
2.3784 -5.3082 2.3960
2.5733 -5.2360 2.3960
2.7658 -5.1563 2.3959
2.9556 -5.0692 2.3959
3.1424 -4.9748 2.3958
3.3259 -4.8731 2.3958
3.5057 -4.7644 2.3957
3.6817 -4.6486 2.3957
3.8535 -4.5260 2.3956
4.0207 -4.3966 2.3955
4.1832 -4.2607 2.3955
4.3406 -4.1185 2.3954
4.4927 -3.9700 2.3954
4.6391 -3.8156 2.3953
4.7797 -3.6554 2.3952
4.9141 -3.4896 2.3951
5.0422 -3.3185 2.3951
5.1636 -3.1425 2.3950
5.2783 -2.9616 2.3949
5.3859 -2.7762 2.3949
5.4863 -2.5866 2.3948
5.5793 -2.3931 2.3947
5.6647 -2.1960 2.3946
5.7424 -1.9956 2.3946
5.8122 -1.7923 2.3945
5.8741 -1.5863 2.3944
5.9278 -1.3779 2.3943
5.9734 -1.1676 2.3943
6.0106 -0.9557 2.3942
6.0396 -0.7425 2.3941
6.0602 -0.5284 2.3940
6.0723 -0.3137 2.3940
6.0761 -0.0988 2.3939
6.0715 0.1160 2.3938
6.0585 0.3304 2.3937
6.0371 0.5439 2.3937
6.0075 0.7562 2.3936
5.9696 0.9670 2.3935
5.9236 1.1760 2.3935
5.8696 1.3828 2.3934
5.8077 1.5872 2.3933
5.7381 1.7887 2.3933
5.6608 1.9871 2.3932
5.5760 2.1820 2.3932
5.4839 2.3733 2.3931
5.3847 2.5605 2.3931
5.2786 2.7435 2.3930
5.1658 2.9220 2.3930
5.0465 3.0957 2.3929
4.9209 3.2645 2.3929
4.7893 3.4279 2.3928
4.6519 3.5860 2.3928
4.5089 3.7384 2.3927
4.3606 3.8849 2.3927
4.2073 4.0255 2.3927
4.0492 4.1599 2.3926
3.8866 4.2879 2.3926
3.7198 4.4095 2.3926
3.5490 4.5245 2.3926
3.3745 4.6329 2.3925
3.1967 4.7344 2.3925
3.0157 4.8291 2.3925
2.8319 4.9168 2.3925
2.6456 4.9975 2.3925
0.9493 1.9595 0.9245
0.8784 1.9913 0.9273
0.8063 2.0205 0.9301
0.7332 2.0472 0.9330
0.6592 2.0711 0.9359
0.5843 2.0924 0.9388
0.5088 2.1110 0.9417
0.4326 2.1268 0.9446
0.3559 2.1399 0.9474
0.2787 2.1502 0.9503
0.2013 2.1577 0.9532
0.1236 2.1624 0.9560
0.0458 2.1643 0.9588
-0.0321 2.1634 0.9616
-0.1098 2.1597 0.9644
-0.1874 2.1531 0.9672
-0.2647 2.1438 0.9699
-0.3416 2.1317 0.9725
-0.4180 2.1169 0.9752
-0.4939 2.0992 0.9778
-0.5690 2.0789 0.9803
-0.6434 2.0559 0.9828
-0.7169 2.0302 0.9852
-0.7894 2.0018 0.9876
-0.8609 1.9709 0.9899
-2.2485 4.6781 2.3957
-2.4098 4.5811 2.3957
