ply
format ascii 1.0
element vertex 2185
property float32 x
property float32 y
property float32 z
end_header
-0.2547 3.0659 0.9662
-0.3647 3.0555 0.9642
-0.4743 3.0411 0.9623
-0.5833 3.0228 0.9602
-0.6916 3.0005 0.9582
-0.7990 2.9743 0.9562
-0.9053 2.9443 0.9541
-2.5428 7.3235 2.3955
-2.8105 7.2448 2.3955
-3.0759 7.1565 2.3955
-3.3384 7.0586 2.3955
-3.5979 6.9510 2.3955
-3.8539 6.8340 2.3955
-4.1061 6.7076 2.3955
-4.3541 6.5718 2.3955
-4.5976 6.4269 2.3955
-4.8361 6.2730 2.3955
-5.0695 6.1101 2.3955
-5.2972 5.9385 2.3955
-5.5190 5.7583 2.3955
-5.7345 5.5699 2.3955
-5.9433 5.3731 2.3955
-6.1453 5.1685 2.3955
-6.3399 4.9562 2.3955
-6.5270 4.7365 2.3955
-6.7061 4.5095 2.3955
-6.8771 4.2757 2.3955
-7.0395 4.0353 2.3955
-7.1932 3.7885 2.3955
-7.3379 3.5358 2.3955
-7.4732 3.2775 2.3955
-7.5990 3.0138 2.3955
-7.7151 2.7453 2.3955
-7.8211 2.4721 2.3955
-7.9170 2.1948 2.3955
-8.0025 1.9137 2.3955
-8.0774 1.6292 2.3955
-8.1416 1.3417 2.3955
-8.1950 1.0517 2.3955
-8.2375 0.7595 2.3955
-8.2688 0.4656 2.3955
-8.2891 0.1705 2.3955
-8.2981 -0.1255 2.3955
-8.2959 -0.4218 2.3955
-8.2824 -0.7180 2.3955
-8.2576 -1.0137 2.3955
-8.2215 -1.3088 2.3955
-8.1742 -1.6018 2.3955
-8.1158 -1.8932 2.3955
-8.0462 -2.1822 2.3955
-7.9656 -2.4685 2.3955
-7.8742 -2.7516 2.3955
-7.7719 -3.0310 2.3955
-7.6591 -3.3063 2.3955
-7.5359 -3.5771 2.3955
-7.4024 -3.8430 2.3955
-7.2588 -4.1035 2.3955
-7.1055 -4.3583 2.3955
-6.9426 -4.6070 2.3955
-6.7704 -4.8492 2.3955
-6.5892 -5.0846 2.3955
-6.3993 -5.3127 2.3955
-6.2009 -5.5333 2.3955
-5.9944 -5.7461 2.3955
-5.7802 -5.9506 2.3955
-5.5585 -6.1468 2.3955
-5.3298 -6.3342 2.3955
-5.0943 -6.5126 2.3955
-4.8525 -6.6818 2.3955
-4.6048 -6.8416 2.3955
-4.3516 -6.9917 2.3955
-4.0931 -7.1320 2.3955
-3.8300 -7.2624 2.3955
-3.5625 -7.3825 2.3955
-3.2910 -7.4924 2.3955
-3.0161 -7.5919 2.3955
-2.7381 -7.6809 2.3955
-2.4573 -7.7594 2.3955
-2.1744 -7.8272 2.3955
-1.8896 -7.8843 2.3955
-1.6033 -7.9308 2.3955
-1.3161 -7.9666 2.3955
-1.0283 -7.9917 2.3955
-0.7403 -8.0061 2.3955
-0.4525 -8.0099 2.3955
-0.1653 -8.0032 2.3955
0.1208 -7.9860 2.3955
0.4056 -7.9584 2.3955
0.6885 -7.9205 2.3955
0.9694 -7.8725 2.3955
1.2476 -7.8143 2.3955
1.5230 -7.7462 2.3955
1.7952 -7.6685 2.3955
2.0638 -7.5811 2.3955
2.3286 -7.4843 2.3955
2.5891 -7.3784 2.3955
2.8451 -7.2634 2.3955
3.0962 -7.1396 2.3955
3.3422 -7.0072 2.3955
3.5829 -6.8664 2.3955
3.8178 -6.7175 2.3955
4.0469 -6.5607 2.3955
4.2697 -6.3962 2.3955
4.3319 -6.0104 2.3131
4.3972 -5.6608 2.2431
4.5873 -5.4869 2.2431
4.7708 -5.3067 2.2431
4.9475 -5.1207 2.2432
5.1173 -4.9289 2.2432
5.2808 -4.7326 2.2436
5.4373 -4.5312 2.2441
5.5864 -4.3248 2.2446
5.7280 -4.1137 2.2451
5.8619 -3.8981 2.2455
5.9880 -3.6783 2.2460
6.1038 -3.4535 2.2455
6.1975 -3.2179 2.2399
6.2808 -2.9789 2.2337
6.3585 -2.7400 2.2286
6.4372 -2.5034 2.2267
6.5126 -2.2660 2.2267
6.5826 -2.0271 2.2276
6.6437 -1.7870 2.2282
6.6951 -1.5445 2.2284
6.7382 -1.3007 2.2286
6.7729 -1.0558 2.2288
6.7993 -0.8101 2.2290
6.8173 -0.5639 2.2292
6.8269 -0.3175 2.2295
6.8281 -0.0711 2.2297
6.8210 0.1750 2.2299
6.8056 0.4206 2.2302
6.7818 0.6653 2.2304
5.8437 0.7870 1.9312
6.7097 1.1513 2.2309
6.6613 1.3921 2.2312
6.6049 1.6310 2.2314
6.5404 1.8678 2.2317
6.4680 2.1023 2.2319
6.3877 2.3341 2.2322
5.5561 2.2607 1.9690
5.5341 2.4880 1.9917
6.1004 3.0117 2.2329
5.9895 3.2307 2.2332
5.8712 3.4460 2.2335
5.7457 3.6572 2.2337
5.2930 3.6438 2.1066
5.4733 4.0665 2.2342
5.3268 4.2642 2.2345
5.1735 4.4570 2.2347
5.0125 4.6435 2.2345
4.8460 4.8255 2.2346
4.6799 5.0088 2.2379
4.5132 5.1940 2.2442
4.3329 5.3653 2.2469
4.1406 5.5232 2.2465
3.9428 5.6746 2.2461
3.7397 5.8192 2.2457
3.5316 5.9570 2.2453
3.3187 6.0876 2.2448
3.1011 6.2110 2.2443
2.8792 6.3269 2.2439
2.6531 6.4353 2.2434
2.4234 6.5367 2.2431
2.1902 6.6309 2.2431
0.8568 2.9461 0.9838
0.7505 2.9759 0.9823
0.6431 3.0018 0.9807
0.5348 3.0239 0.9791
0.4258 3.0420 0.9774
0.3162 3.0562 0.9757
0.2062 3.0664 0.9740
0.0959 3.0726 0.9722
-0.0146 3.0748 0.9703
-0.1251 3.0731 0.9684
-0.2355 3.0673 0.9665
-0.3456 3.0576 0.9646
-0.4553 3.0439 0.9626
-0.5644 3.0262 0.9606
-0.6728 3.0046 0.9586
-0.7803 2.9792 0.9565
-0.8869 2.9498 0.9544
-2.4960 7.3362 2.3955
-2.7641 7.2592 2.3955
-3.0299 7.1726 2.3955
-3.2930 7.0763 2.3955
-3.5530 6.9704 2.3955
-3.8096 6.8550 2.3955
-4.0625 6.7302 2.3955
-4.3112 6.5961 2.3955
-4.5555 6.4528 2.3955
-4.7950 6.3004 2.3955
-5.0292 6.1391 2.3955
-5.2580 5.9690 2.3955
-5.4808 5.7903 2.3955
-5.6974 5.6033 2.3955
-5.9075 5.4079 2.3955
-6.1106 5.2047 2.3955
-6.3066 4.9937 2.3955
-6.4950 4.7752 2.3955
-6.6755 4.5495 2.3955
-6.8479 4.3169 2.3955
-7.0119 4.0776 2.3955
-7.1671 3.8319 2.3955
-7.3134 3.5802 2.3955
-7.4503 3.3228 2.3955
-7.5778 3.0599 2.3955
-7.6956 2.7923 2.3955
-7.8034 2.5200 2.3955
-7.9010 2.2433 2.3955
-7.9883 1.9628 2.3955
-8.0651 1.6789 2.3955
-8.1312 1.3919 2.3955
-8.1865 1.1023 2.3955
-8.2309 0.8105 2.3955
-8.2642 0.5169 2.3955
-8.2863 0.2219 2.3955
-8.2973 -0.0739 2.3955
-8.2971 -0.3702 2.3955
-8.2855 -0.6665 2.3955
-8.2627 -0.9623 2.3955
-8.2286 -1.2573 2.3955
-8.1833 -1.5508 2.3955
-8.1267 -1.8426 2.3955
-8.0591 -2.1321 2.3955
-7.9804 -2.4189 2.3955
-7.8909 -2.7026 2.3955
-7.7905 -2.9827 2.3955
-7.6795 -3.2587 2.3955
-7.5581 -3.5304 2.3955
-7.4263 -3.7971 2.3955
-7.2845 -4.0586 2.3955
-7.1329 -4.3144 2.3955
-6.9716 -4.5642 2.3955
-6.8011 -4.8076 2.3955
-6.6214 -5.0441 2.3955
-6.4329 -5.2735 2.3955
-6.2360 -5.4955 2.3955
-6.0309 -5.7096 2.3955
-5.8180 -5.9156 2.3955
-5.5976 -6.1132 2.3955
-5.3701 -6.3022 2.3955
-5.1358 -6.4822 2.3955
-4.8951 -6.6530 2.3955
-4.6484 -6.8145 2.3955
-4.3960 -6.9663 2.3955
-4.1385 -7.1083 2.3955
-3.8761 -7.2404 2.3955
-3.6093 -7.3623 2.3955
-3.3385 -7.4740 2.3955
-3.0642 -7.5753 2.3955
-2.7867 -7.6662 2.3955
-2.5064 -7.7465 2.3955
-2.2238 -7.8161 2.3955
-1.9393 -7.8752 2.3955
-1.6532 -7.9235 2.3955
-1.3662 -7.9611 2.3955
-1.0784 -7.9881 2.3955
-0.7904 -8.0044 2.3955
-0.5026 -8.0100 2.3955
-0.2153 -8.0051 2.3955
0.0711 -7.9897 2.3955
0.3561 -7.9639 2.3955
0.6394 -7.9277 2.3955
0.9206 -7.8815 2.3955
1.1994 -7.8251 2.3955
1.4753 -7.7588 2.3955
1.7481 -7.6827 2.3955
2.0174 -7.5970 2.3955
2.2828 -7.5018 2.3955
2.5441 -7.3975 2.3955
2.8008 -7.2840 2.3955
3.0529 -7.1617 2.3955
3.2998 -7.0308 2.3955
3.5414 -6.8917 2.3955
3.7774 -6.7440 2.3955
4.0074 -6.5885 2.3955
4.2314 -6.4254 2.3955
4.3457 -6.1096 2.3399
4.3635 -5.6905 2.2431
4.5547 -5.5176 2.2431
4.7393 -5.3385 2.2431
4.9173 -5.1535 2.2432
5.0883 -4.9627 2.2432
5.2529 -4.7671 2.2435
5.4106 -4.5666 2.2440
5.5610 -4.3611 2.2445
5.7039 -4.1507 2.2450
5.8392 -3.9359 2.2454
5.9666 -3.7169 2.2459
6.0854 -3.4934 2.2460
6.1829 -3.2594 2.2413
6.2664 -3.0203 2.2346
6.3455 -2.7816 2.2295
6.4238 -2.5444 2.2270
6.4998 -2.3070 2.2266
6.5710 -2.0691 2.2274
6.6339 -1.8295 2.2281
6.6867 -1.5868 2.2283
6.7313 -1.3432 2.2285
6.7675 -1.0985 2.2288
6.7953 -0.8529 2.2290
6.8148 -0.6068 2.2292
6.8258 -0.3604 2.2294
6.8285 -0.1140 2.2297
6.8228 0.1322 2.2299
6.8089 0.3779 2.2301
6.7866 0.6228 2.2304
5.8509 0.7505 1.9318
6.7173 1.1093 2.2309
6.6703 1.3503 2.2311
6.6153 1.5895 2.2314
6.5522 1.8268 2.2316
6.4812 2.0616 2.2319
6.4022 2.2940 2.2321
6.3155 2.5235 2.2324
6.2210 2.7500 2.2326
6.1189 2.9732 2.2329
6.0093 3.1929 2.2332
5.8923 3.4088 2.2334
5.7680 3.6207 2.2337
5.3129 3.6085 2.1056
5.4981 4.0316 2.2342
5.3528 4.2302 2.2344
5.2006 4.4238 2.2347
5.0412 4.6117 2.2346
4.8752 4.7938 2.2344
4.7085 4.9766 2.2369
4.5421 5.1614 2.2428
4.3658 5.3372 2.2470
4.1745 5.4962 2.2466
3.9776 5.6487 2.2462
3.7755 5.7946 2.2458
3.5682 5.9335 2.2453
3.3561 6.0654 2.2449
3.1393 6.1901 2.2444
2.9181 6.3073 2.2440
2.6928 6.4170 2.2435
2.4636 6.5195 2.2431
2.2311 6.6151 2.2431
0.8752 2.9406 0.9840
0.7690 2.9710 0.9825
0.6618 2.9976 0.9810
0.5537 3.0203 0.9794
0.4448 3.0391 0.9777
0.3354 3.0540 0.9760
0.2254 3.0649 0.9743
0.1151 3.0718 0.9725
0.0046 3.0747 0.9706
-0.1059 3.0737 0.9688
-0.2163 3.0686 0.9669
-0.3265 3.0596 0.9649
-0.4362 3.0466 0.9630
-0.5454 3.0296 0.9610
-0.6540 3.0087 0.9589
-0.7617 2.9839 0.9569
-0.8684 2.9552 0.9548
-2.4491 7.3486 2.3955
-2.7176 7.2733 2.3955
-2.9838 7.1884 2.3955
-3.2474 7.0938 2.3955
-3.5080 6.9895 2.3955
-3.7652 6.8758 2.3955
-4.0188 6.7526 2.3955
-4.2683 6.6201 2.3955
-4.5133 6.4784 2.3955
-4.7537 6.3276 2.3955
-4.9888 6.1678 2.3955
-5.2186 5.9992 2.3955
-5.4424 5.8220 2.3955
-5.6602 5.6364 2.3955
-5.8714 5.4426 2.3955
-6.0758 5.2408 2.3955
-6.2730 5.0310 2.3955
-6.4627 4.8138 2.3955
-6.6447 4.5893 2.3955
-6.8185 4.3579 2.3955
-6.9840 4.1197 2.3955
5.4534 -3.5804 2.2447
5.5697 -3.3764 2.2451
5.6787 -3.1687 2.2455
5.7802 -2.9577 2.2458
5.8742 -2.7436 2.2462
5.9564 -2.5247 2.2450
6.0207 -2.3001 2.2399
6.0775 -2.0740 2.2351
6.1289 -1.8478 2.2312
6.1759 -1.6217 2.2286
6.2196 -1.3956 2.2276
6.2589 -1.1691 2.2279
6.2913 -0.9418 2.2284
6.1326 -0.6931 2.1643
6.3325 -0.4852 2.2295
6.0520 -0.2446 2.1283
6.0093 -0.0260 2.1135
5.9792 0.1900 2.1056
6.3175 0.4293 2.2304
6.2944 0.6565 2.2306
6.2636 0.8828 2.2309
6.2251 1.1078 2.2311
6.1790 1.3313 2.2313
6.1253 1.5530 2.2316
6.0642 1.7727 2.2318
5.9956 1.9902 2.2320
5.9197 2.2053 2.2323
5.5487 2.2984 2.1224
5.7463 2.6270 2.2327
5.6489 2.8333 2.2330
5.5445 3.0362 2.2332
5.4331 3.2361 2.2334
5.3144 3.4305 2.2333
5.1889 3.6211 2.2331
5.0583 3.8085 2.2336
4.9247 3.9944 2.2356
4.7894 4.1802 2.2398
4.6505 4.3644 2.2455
4.4963 4.5354 2.2468
4.3328 4.6980 2.2465
4.1638 4.8550 2.2462
3.9894 5.0062 2.2459
3.8097 5.1514 2.2455
3.6250 5.2906 2.2451
3.4354 5.4234 2.2447
3.2412 5.5496 2.2443
3.0425 5.6693 2.2439
2.8397 5.7822 2.2435
2.6329 5.8884 2.2431
2.4227 5.9883 2.2431
2.2126 6.0913 2.2468
0.8717 2.6989 0.9817
0.7742 2.7293 0.9803
0.6756 2.7562 0.9789
0.5762 2.7795 0.9775
0.4759 2.7993 0.9760
0.3750 2.8154 0.9744
0.2736 2.8278 0.9728
0.1717 2.8366 0.9712
0.0697 2.8417 0.9695
-0.0325 2.8431 0.9678
-0.1347 2.8408 0.9661
-0.2368 2.8349 0.9643
-0.3385 2.8252 0.9625
-0.4399 2.8119 0.9607
-0.5407 2.7950 0.9588
-0.6408 2.7744 0.9569
-0.7401 2.7502 0.9550
-0.8385 2.7224 0.9531
-2.3568 6.7774 2.3955
-2.6041 6.7035 2.3955
-2.8492 6.6207 2.3955
-3.0917 6.5290 2.3955
-3.3312 6.4284 2.3955
-3.5674 6.3191 2.3955
-3.8000 6.2012 2.3955
-4.0287 6.0747 2.3955
-4.2531 5.9397 2.3955
-4.4729 5.7964 2.3955
-4.6878 5.6450 2.3955
-4.8975 5.4855 2.3955
-5.1016 5.3182 2.3955
-5.2998 5.1432 2.3955
-5.4919 4.9608 2.3955
-5.6775 4.7711 2.3955
-5.8563 4.5743 2.3955
-6.0281 4.3708 2.3955
-6.1926 4.1607 2.3955
-6.3495 3.9443 2.3955
-6.4985 3.7219 2.3955
-6.6394 3.4938 2.3955
-6.7719 3.2602 2.3955
-6.8959 3.0215 2.3955
-7.0110 2.7780 2.3955
-7.1171 2.5299 2.3955
-7.2141 2.2778 2.3955
-7.3017 2.0220 2.3955
-7.3797 1.7627 2.3955
-7.4479 1.5002 2.3955
-7.5064 1.2351 2.3955
-7.5549 0.9677 2.3955
-7.5933 0.6984 2.3955
-7.6216 0.4276 2.3955
-7.6396 0.1557 2.3955
-7.6474 -0.1170 2.3955
-7.6448 -0.3899 2.3955
-7.6319 -0.6627 2.3955
-7.6087 -0.9351 2.3955
-7.5751 -1.2065 2.3955
-7.5313 -1.4765 2.3955
-7.4772 -1.7448 2.3955
-7.4129 -2.0110 2.3955
-7.3385 -2.2746 2.3955
-7.2542 -2.5352 2.3955
-7.1600 -2.7925 2.3955
-7.0561 -3.0460 2.3955
-6.9426 -3.2954 2.3955
-6.8198 -3.5402 2.3955
-6.6877 -3.7802 2.3955
-6.5467 -4.0150 2.3955
-6.3969 -4.2441 2.3955
-6.2385 -4.4673 2.3955
-6.0719 -4.6843 2.3955
-5.8973 -4.8946 2.3955
-5.7149 -5.0981 2.3955
-5.5250 -5.2944 2.3955
-5.3280 -5.4832 2.3955
-5.1242 -5.6643 2.3955
-4.9139 -5.8374 2.3955
-4.6973 -6.0023 2.3955
-4.4750 -6.1588 2.3955
-4.2471 -6.3067 2.3955
-4.0141 -6.4457 2.3955
-3.7763 -6.5757 2.3955
-3.5341 -6.6966 2.3955
-3.2879 -6.8081 2.3955
-3.0380 -6.9103 2.3955
-2.7848 -7.0029 2.3955
-2.5287 -7.0859 2.3955
-2.2701 -7.1592 2.3955
-2.0093 -7.2228 2.3955
-1.7468 -7.2765 2.3955
-1.4829 -7.3204 2.3955
-1.2180 -7.3545 2.3955
-0.9524 -7.3788 2.3955
-0.6867 -7.3932 2.3955
-0.4210 -7.3979 2.3955
-0.1559 -7.3928 2.3955
0.1084 -7.3781 2.3955
0.3715 -7.3537 2.3955
0.6330 -7.3199 2.3955
0.8927 -7.2767 2.3955
1.1501 -7.2241 2.3955
1.4049 -7.1624 2.3955
1.6568 -7.0917 2.3955
1.9055 -7.0120 2.3955
2.1506 -6.9237 2.3955
2.3920 -6.8268 2.3955
2.6292 -6.7215 2.3955
2.8621 -6.6081 2.3955
3.0902 -6.4866 2.3955
3.3135 -6.3573 2.3955
3.5316 -6.2205 2.3955
3.7442 -6.0763 2.3955
3.9512 -5.9250 2.3955
4.1523 -5.7667 2.3955
4.2211 -5.4391 2.3259
4.2474 -5.0849 2.2431
4.4181 -4.9188 2.2431
4.5825 -4.7470 2.2431
4.7405 -4.5700 2.2432
4.8920 -4.3878 2.2432
5.0370 -4.2011 2.2433
5.1758 -4.0103 2.2438
5.3077 -3.8150 2.2442
5.4324 -3.6155 2.2446
5.5500 -3.4122 2.2450
5.6602 -3.2051 2.2454
5.7631 -2.9946 2.2458
5.8584 -2.7810 2.2461
5.9432 -2.5633 2.2454
6.0107 -2.3395 2.2410
6.0679 -2.1133 2.2358
6.1205 -1.8874 2.2318
6.1676 -1.6610 2.2288
6.2126 -1.4352 2.2278
6.2526 -1.2086 2.2278
6.2860 -0.9810 2.2283
6.3126 -0.7533 2.2291
6.3302 -0.5243 2.2295
6.0595 -0.2831 2.1312
6.0167 -0.0638 2.1158
5.9811 0.1524 2.1056
6.3208 0.3896 2.2304
6.2990 0.6170 2.2306
5.8439 0.7862 2.0794
6.2323 1.0687 2.2310
6.1875 1.2925 2.2313
6.1352 1.5145 2.2315
6.0753 1.7346 2.2317
6.0081 1.9525 2.2320
5.9335 2.1680 2.2322
5.5561 2.2606 2.1197
5.7625 2.5908 2.2327
5.6663 2.7976 2.2329
5.5632 3.0011 2.2332
5.4531 3.2010 2.2334
5.3357 3.3967 2.2334
5.2110 3.5881 2.2331
5.0811 3.7760 2.2334
4.9477 3.9618 2.2349
4.8134 4.1480 2.2391
4.6749 4.3323 2.2444
4.5241 4.5065 2.2469
4.3617 4.6701 2.2466
4.1936 4.8281 2.2463
4.0201 4.9803 2.2459
3.8413 5.1266 2.2456
3.6575 5.2668 2.2452
3.4687 5.4007 2.2448
3.2753 5.5281 2.2444
3.0774 5.6490 2.2440
2.8753 5.7630 2.2435
2.6691 5.8702 2.2431
2.4596 5.9714 2.2431
2.2464 6.0655 2.2431
0.8885 2.6932 0.9819
0.7912 2.7243 0.9806
0.6928 2.7518 0.9792
0.5935 2.7757 0.9777
0.4934 2.7961 0.9762
0.3926 2.8128 0.9747
0.2913 2.8259 0.9731
0.1895 2.8353 0.9715
0.0874 2.8411 0.9698
-0.0147 2.8431 0.9681
-0.1169 2.8415 0.9664
-0.2190 2.8362 0.9646
-0.3208 2.8272 0.9628
-0.4223 2.8145 0.9610
-0.5232 2.7982 0.9591
-0.6234 2.7782 0.9573
-0.7229 2.7546 0.9554
-0.8214 2.7275 0.9534
-0.9189 2.6968 0.9515
-2.5612 6.7170 2.3955
-2.8068 6.6358 2.3955
-3.0497 6.5456 2.3955
-3.2897 6.4466 2.3955
-3.5266 6.3388 2.3955
-3.7598 6.2223 2.3955
-3.9892 6.0973 2.3955
-4.2144 5.9638 2.3955
-4.4350 5.8220 2.3955
-4.6508 5.6719 2.3955
-4.8614 5.5139 2.3955
-5.0665 5.3479 2.3955
-5.2657 5.1743 2.3955
-5.4589 4.9931 2.3955
-5.6457 4.8048 2.3955
-5.8257 4.6089 2.3955
-5.9987 4.4067 2.3955
-6.1645 4.1977 2.3955
-6.3227 3.9824 2.3955
-6.4731 3.7610 2.3955
-6.6154 3.5339 2.3955
-6.7494 3.3012 2.3955
-6.8749 3.0634 2.3955
-6.9916 2.8207 2.3955
-7.0993 2.5734 2.3955
-7.1979 2.3220 2.3955
-7.2871 2.0667 2.3955
-7.3667 1.8079 2.3955
-7.4367 1.5461 2.3955
-7.4969 1.2814 2.3955
-7.5471 1.0144 2.3955
-7.5873 0.7454 2.3955
-7.6174 0.4748 2.3955
-7.6372 0.2031 2.3955
-7.6468 -0.0695 2.3955
-7.6460 -0.3424 2.3955
-7.6349 -0.6153 2.3955
-7.6135 -0.8877 2.3955
-7.5817 -1.1593 2.3955
-7.5396 -1.4296 2.3955
-7.4873 -1.6983 2.3955
-7.4248 -1.9648 2.3955
-7.3522 -2.2289 2.3955
-7.2696 -2.4901 2.3955
-7.1771 -2.7480 2.3955
-7.0749 -3.0022 2.3955
-6.9631 -3.2523 2.3955
-6.8418 -3.4980 2.3955
-6.7114 -3.7388 2.3955
-6.5719 -3.9745 2.3955
-6.4236 -4.2046 2.3955
-6.2667 -4.4289 2.3955
-6.1015 -4.6470 2.3955
-5.9282 -4.8585 2.3955
-5.7472 -5.0632 2.3955
-5.5586 -5.2607 2.3955
-5.3628 -5.4509 2.3955
-5.1602 -5.6333 2.3955
-4.9509 -5.8079 2.3955
-4.7355 -5.9742 2.3955
-4.5141 -6.1322 2.3955
-4.2871 -6.2816 2.3955
-4.0550 -6.4221 2.3955
-3.8180 -6.5537 2.3955
-3.5766 -6.6762 2.3955
-3.3310 -6.7894 2.3955
-3.0817 -6.8932 2.3955
-2.8291 -6.9875 2.3955
-2.5735 -7.0722 2.3955
-2.3152 -7.1472 2.3955
-2.0548 -7.2124 2.3955
-1.7926 -7.2678 2.3955
-1.5289 -7.3135 2.3955
-1.2641 -7.3493 2.3955
-0.9987 -7.3753 2.3955
-0.7329 -7.3914 2.3955
-0.4672 -7.3978 2.3955
-0.2020 -7.3944 2.3955
0.0625 -7.3813 2.3955
0.3258 -7.3586 2.3955
0.5877 -7.3265 2.3955
0.8476 -7.2849 2.3955
1.1054 -7.2339 2.3955
1.3607 -7.1738 2.3955
1.6131 -7.1046 2.3955
1.8624 -7.0265 2.3955
2.1082 -6.9397 2.3955
2.3503 -6.8443 2.3955
2.5882 -6.7404 2.3955
2.8219 -6.6284 2.3955
3.0509 -6.5083 2.3955
3.2750 -6.3804 2.3955
3.4940 -6.2449 2.3955
3.7076 -6.1019 2.3955
3.9156 -5.9518 2.3955
4.1177 -5.7947 2.3955
4.2328 -5.5252 2.3505
4.2170 -5.1126 2.2431
4.3888 -4.9481 2.2431
4.5543 -4.7773 2.2431
4.7135 -4.6011 2.2431
4.8661 -4.4199 2.2432
5.0121 -4.2338 2.2433
5.1521 -4.0438 2.2437
5.2852 -3.8493 2.2441
5.4112 -3.6505 2.2446
5.5300 -3.4478 2.2450
5.6416 -3.2414 2.2453
5.7457 -3.0315 2.2457
5.8423 -2.8184 2.2461
5.9297 -2.6016 2.2458
6.0004 -2.3788 2.2421
6.0581 -2.1523 2.2366
6.1118 -1.9267 2.2325
6.1589 -1.7001 2.2289
6.2053 -1.4746 2.2279
6.2462 -1.2483 2.2278
6.2807 -1.0213 2.2281
6.3086 -0.7933 2.2290
6.3277 -0.5639 2.2295
6.3386 -0.3360 2.2297
6.0241 -0.1017 2.1183
5.9828 0.1148 2.1056
6.3238 0.3499 2.2303
6.3033 0.5775 2.2306
5.8510 0.7498 2.0800
6.2393 1.0296 2.2310
6.1959 1.2537 2.2312
6.1448 1.4760 2.2315
6.0863 1.6965 2.2317
6.0203 1.9148 2.2319
5.9470 2.1307 2.2322
5.8663 2.3440 2.2324
5.7785 2.5544 2.2327
5.6836 2.7618 2.2329
5.5816 2.9659 2.2331
5.4728 3.1665 2.2334
5.3567 3.3632 2.2335
5.2330 3.5551 2.2331
5.1041 3.7436 2.2333
4.9711 3.9297 2.2345
4.8372 4.1158 2.2383
4.6991 4.3002 2.2433
4.5518 4.4775 2.2469
4.3904 4.6420 2.2466
4.2233 4.8010 2.2463
4.0507 4.9542 2.2460
3.8728 5.1016 2.2456
3.6898 5.2428 2.2453
3.5019 5.3778 2.2449
3.3093 5.5064 2.2445
3.1122 5.6284 2.2441
2.9108 5.7437 2.2436
2.7053 5.8520 2.2432
2.4963 5.9543 2.2431
2.2837 6.0496 2.2431
0.9053 2.6874 0.9821
0.8082 2.7191 0.9808
0.7100 2.7472 0.9794
0.6109 2.7718 0.9780
0.5109 2.7928 0.9765
0.4102 2.8102 0.9750
0.3089 2.8239 0.9734
0.2072 2.8340 0.9718
0.1052 2.8403 0.9701
0.0031 2.8430 0.9684
-0.0991 2.8421 0.9667
-0.2013 2.8374 0.9649
-0.3031 2.8290 0.9631
-0.4046 2.8170 0.9613
-0.5056 2.8013 0.9595
-0.6060 2.7819 0.9576
-0.7056 2.7590 0.9557
-0.8044 2.7325 0.9538
-0.9020 2.7024 0.9518
-2.5183 6.7303 2.3955
-2.7642 6.6505 2.3955
-3.0076 6.5619 2.3955
-3.2482 6.4644 2.3955
-3.4856 6.3582 2.3955
-3.7195 6.2432 2.3955
-3.9496 6.1197 2.3955
-4.1755 5.9877 2.3955
-4.3969 5.8472 2.3955
-4.6136 5.6986 2.3955
-4.8251 5.5419 2.3955
-5.0312 5.3773 2.3955
-5.2315 5.2050 2.3955
-5.4257 5.0251 2.3955
-5.6136 4.8380 2.3955
-5.7949 4.6436 2.3955
-5.9691 4.4424 2.3955
-6.1362 4.2346 2.3955
-6.2957 4.0204 2.3955
-6.4475 3.8000 2.3955
5.0756 -3.3352 2.2439
5.1844 -3.1456 2.2443
5.2864 -2.9524 2.2446
5.3815 -2.7561 2.2450
5.4695 -2.5569 2.2453
5.5505 -2.3550 2.2456
5.6243 -2.1506 2.2459
5.6909 -1.9441 2.2462
5.7495 -1.7353 2.2462
5.7965 -1.5237 2.2445
5.8290 -1.3098 2.2400
5.8568 -1.0958 2.2367
5.8791 -0.8818 2.2340
5.8948 -0.6679 2.2317
5.9050 -0.4540 2.2301
5.9110 -0.2405 2.2296
5.9099 -0.0268 2.2292
5.9027 0.1867 2.2294
5.8886 0.3993 2.2296
5.8673 0.6113 2.2298
5.8388 0.8222 2.2301
5.8031 1.0322 2.2303
5.7603 1.2407 2.2306
5.7104 1.4474 2.2308
5.6533 1.6524 2.2310
5.5894 1.8553 2.2312
5.5186 2.0559 2.2314
5.4411 2.2538 2.2316
5.3574 2.4495 2.2321
5.2679 2.6424 2.2329
5.1732 2.8332 2.2343
5.0747 3.0224 2.2370
4.9703 3.2090 2.2399
4.8619 3.3936 2.2440
4.7440 3.5728 2.2466
4.6145 3.7439 2.2467
4.4786 3.9099 2.2465
4.3369 4.0713 2.2462
4.1898 4.2278 2.2459
4.0372 4.3792 2.2456
3.8794 4.5253 2.2453
3.7166 4.6661 2.2450
3.5489 4.8013 2.2447
3.3765 4.9306 2.2443
3.1996 5.0541 2.2440
3.0184 5.1715 2.2436
2.8330 5.2827 2.2432
2.6442 5.3883 2.2431
2.4516 5.4876 2.2431
2.2554 5.5803 2.2431
0.8983 2.4756 0.9800
0.8088 2.5071 0.9788
0.7182 2.5354 0.9775
0.6266 2.5604 0.9762
0.5342 2.5820 0.9749
0.4410 2.6004 0.9735
0.3473 2.6153 0.9721
0.2530 2.6269 0.9706
0.1584 2.6350 0.9691
0.0636 2.6397 0.9675
-0.0314 2.6410 0.9659
-0.1263 2.6389 0.9643
-0.2211 2.6334 0.9627
-0.3157 2.6244 0.9610
-0.4098 2.6120 0.9593
-0.5035 2.5963 0.9575
-0.5965 2.5771 0.9558
-0.6888 2.5547 0.9540
-0.7802 2.5289 0.9522
-0.8706 2.4998 0.9504
-2.4239 6.2308 2.3955
-2.6514 6.1529 2.3955
-2.8763 6.0668 2.3955
-3.0985 5.9725 2.3955
-3.3175 5.8701 2.3955
-3.5332 5.7596 2.3955
-3.7451 5.6413 2.3955
-3.9529 5.5151 2.3955
-4.1565 5.3813 2.3955
-4.3554 5.2399 2.3955
-4.5495 5.0911 2.3955
-4.7383 4.9351 2.3955
-4.9216 4.7721 2.3955
-5.0992 4.6021 2.3955
-5.2707 4.4255 2.3955
-5.4359 4.2424 2.3955
-5.5946 4.0531 2.3955
-5.7464 3.8576 2.3955
-5.8911 3.6565 2.3955
-6.0286 3.4498 2.3955
-6.1585 3.2378 2.3955
-6.2806 3.0209 2.3955
-6.3948 2.7993 2.3955
-6.5008 2.5733 2.3955
-6.5985 2.3432 2.3955
-6.6876 2.1093 2.3955
-6.7681 1.8720 2.3955
-6.8397 1.6316 2.3955
-6.9024 1.3884 2.3955
-6.9559 1.1427 2.3955
-7.0003 0.8950 2.3955
-7.0353 0.6455 2.3955
-7.0610 0.3947 2.3955
-7.0772 0.1428 2.3955
-7.0840 -0.1096 2.3955
-7.0812 -0.3623 2.3955
-7.0689 -0.6149 2.3955
-7.0471 -0.8670 2.3955
-7.0157 -1.1182 2.3955
-6.9748 -1.3681 2.3955
-6.9246 -1.6165 2.3955
-6.8649 -1.8628 2.3955
-6.7959 -2.1068 2.3955
-6.7178 -2.3480 2.3955
-6.6306 -2.5861 2.3955
-6.5344 -2.8207 2.3955
-6.4294 -3.0516 2.3955
-6.3157 -3.2783 2.3955
-6.1936 -3.5005 2.3955
-6.0631 -3.7178 2.3955
-5.9246 -3.9300 2.3955
-5.7782 -4.1368 2.3955
-5.6242 -4.3378 2.3955
-5.4627 -4.5327 2.3955
-5.2942 -4.7213 2.3955
-5.1187 -4.9033 2.3955
-4.9366 -5.0785 2.3955
-4.7481 -5.2465 2.3955
-4.5537 -5.4072 2.3955
-4.3535 -5.5603 2.3955
-4.1478 -5.7057 2.3955
-3.9371 -5.8431 2.3955
-3.7216 -5.9724 2.3955
-3.5016 -6.0934 2.3955
-3.2776 -6.2060 2.3955
-3.0497 -6.3100 2.3955
-2.8184 -6.4053 2.3955
-2.5841 -6.4919 2.3955
-2.3470 -6.5695 2.3955
-2.1075 -6.6382 2.3955
-1.8660 -6.6979 2.3955
-1.6227 -6.7486 2.3955
-1.3782 -6.7902 2.3955
-1.1327 -6.8227 2.3955
-0.8865 -6.8460 2.3955
-0.6401 -6.8603 2.3955
-0.3936 -6.8656 2.3955
-0.1476 -6.8618 2.3955
0.0977 -6.8491 2.3955
0.3419 -6.8275 2.3955
0.5847 -6.7970 2.3955
0.8259 -6.7578 2.3955
1.0650 -6.7099 2.3955
1.3019 -6.6536 2.3955
1.5361 -6.5888 2.3955
1.7673 -6.5158 2.3955
1.9954 -6.4346 2.3955
2.2200 -6.3455 2.3955
2.4408 -6.2485 2.3955
2.6576 -6.1440 2.3955
2.8701 -6.0319 2.3955
3.0781 -5.9126 2.3955
3.2814 -5.7861 2.3955
3.4796 -5.6528 2.3955
3.6726 -5.5128 2.3955
3.8603 -5.3664 2.3955
4.0422 -5.2136 2.3955
4.1236 -4.9413 2.3417
4.1093 -4.5788 2.2431
4.2629 -4.4198 2.2431
4.4105 -4.2555 2.2431
4.5521 -4.0865 2.2431
4.6874 -3.9129 2.2432
4.8163 -3.7349 2.2432
4.9393 -3.5533 2.2435
5.0560 -3.3679 2.2438
5.1660 -3.1788 2.2442
5.2692 -2.9863 2.2446
5.3654 -2.7905 2.2449
5.4547 -2.5918 2.2452
5.5369 -2.3903 2.2456
5.6120 -2.1864 2.2459
5.6798 -1.9802 2.2461
5.7404 -1.7720 2.2464
5.7888 -1.5606 2.2448
5.8239 -1.3471 2.2408
5.8523 -1.1330 2.2372
5.8757 -0.9189 2.2345
5.8925 -0.7048 2.2321
5.9032 -0.4909 2.2302
5.9105 -0.2776 2.2297
5.9106 -0.0639 2.2293
5.9045 0.1494 2.2293
5.8916 0.3622 2.2296
5.8715 0.5744 2.2298
5.8440 0.7855 2.2299
5.8098 0.9959 2.2303
5.7683 1.2044 2.2305
5.7196 1.4116 2.2307
5.6637 1.6168 2.2309
5.6010 1.8201 2.2312
5.5315 2.0211 2.2314
5.4550 2.2196 2.2316
5.3723 2.4155 2.2320
5.2839 2.6091 2.2328
5.1897 2.7999 2.2339
5.0923 2.9897 2.2365
4.9889 3.1767 2.2394
4.8810 3.3617 2.2432
4.7653 3.5422 2.2463
4.6376 3.7145 2.2467
4.5027 3.8813 2.2465
4.3620 4.0435 2.2462
4.2158 4.2009 2.2460
4.0642 4.3532 2.2457
3.9073 4.5003 2.2454
3.7453 4.6420 2.2451
3.5784 4.7781 2.2447
3.4069 4.9085 2.2444
3.2307 5.0331 2.2440
3.0502 5.1515 2.2436
2.8656 5.2638 2.2432
2.6773 5.3704 2.2431
2.4854 5.4708 2.2431
2.2898 5.5646 2.2431
2.1149 5.7166 2.2688
0.8244 2.5019 0.9790
0.7340 2.5307 0.9778
0.6426 2.5563 0.9765
0.5503 2.5785 0.9751
0.4573 2.5974 0.9737
0.3636 2.6129 0.9723
0.2694 2.6251 0.9708
0.1749 2.6338 0.9693
0.0801 2.6392 0.9678
-0.0148 2.6411 0.9662
-0.1098 2.6395 0.9646
-0.2046 2.6346 0.9629
-0.2992 2.6262 0.9613
-0.3935 2.6144 0.9596
-0.4872 2.5992 0.9578
-0.5804 2.5807 0.9561
-0.6728 2.5588 0.9543
-0.7643 2.5336 0.9526
-0.8549 2.5051 0.9508
-2.3841 6.2435 2.3955
-2.6119 6.1670 2.3955
-2.8374 6.0824 2.3955
-3.0600 5.9895 2.3955
-3.2796 5.8885 2.3955
-3.4959 5.7794 2.3955
-3.7085 5.6624 2.3955
-3.9171 5.5376 2.3955
-4.1214 5.4051 2.3955
-4.3212 5.2651 2.3955
-4.5160 5.1176 2.3955
-4.7058 4.9628 2.3955
-4.8901 4.8009 2.3955
-5.0687 4.6322 2.3955
-5.2413 4.4567 2.3955
-5.4076 4.2747 2.3955
-5.5674 4.0864 2.3955
-5.7204 3.8920 2.3955
-5.8665 3.6919 2.3955
-6.0052 3.4861 2.3955
-6.1364 3.2751 2.3955
-6.2599 3.0590 2.3955
-6.3755 2.8382 2.3955
-6.4830 2.6130 2.3955
-6.5821 2.3836 2.3955
-6.6727 2.1503 2.3955
-6.7547 1.9136 2.3955
-6.8279 1.6736 2.3955
-6.8921 1.4309 2.3955
-6.9473 1.1857 2.3955
-6.9932 0.9382 2.3955
-7.0299 0.6890 2.3955
-7.0572 0.4384 2.3955
-7.0751 0.1867 2.3955
-7.0835 -0.0656 2.3955
-7.0824 -0.3183 2.3955
-7.0717 -0.5709 2.3955
-7.0515 -0.8232 2.3955
-7.0218 -1.0745 2.3955
-6.9826 -1.3247 2.3955
-6.9340 -1.5734 2.3955
-6.8760 -1.8201 2.3955
-6.8086 -2.0645 2.3955
-6.7321 -2.3062 2.3955
-6.6464 -2.5449 2.3955
-6.5518 -2.7802 2.3955
-6.4483 -3.0117 2.3955
-6.3361 -3.2391 2.3955
-6.2154 -3.4621 2.3955
-6.0864 -3.6804 2.3955
-5.9493 -3.8935 2.3955
-5.8043 -4.1012 2.3955
-5.6516 -4.3032 2.3955
-5.4914 -4.4992 2.3955
-5.3240 -4.6890 2.3955
-5.1497 -4.8721 2.3955
-4.9687 -5.0485 2.3955
-4.7814 -5.2178 2.3955
-4.5879 -5.3797 2.3955
-4.3887 -5.5342 2.3955
-4.1840 -5.6809 2.3955
-3.9741 -5.8198 2.3955
-3.7594 -5.9506 2.3955
-3.5402 -6.0730 2.3955
-3.3169 -6.1870 2.3955
-3.0896 -6.2925 2.3955
-2.8589 -6.3894 2.3955
-2.6251 -6.4774 2.3955
-2.3884 -6.5566 2.3955
-2.1493 -6.6269 2.3955
-1.9081 -6.6882 2.3955
-1.6652 -6.7404 2.3955
-1.4208 -6.7836 2.3955
-1.1755 -6.8177 2.3955
-0.9294 -6.8426 2.3955
-0.6830 -6.8585 2.3955
-0.4365 -6.8653 2.3955
-0.1904 -6.8631 2.3955
0.0550 -6.8519 2.3955
0.2995 -6.8319 2.3955
0.5426 -6.8029 2.3955
0.7841 -6.7652 2.3955
1.0236 -6.7189 2.3955
1.2608 -6.6640 2.3955
1.4955 -6.6007 2.3955
1.7273 -6.5291 2.3955
1.9559 -6.4493 2.3955
2.1811 -6.3616 2.3955
2.4026 -6.2660 2.3955
2.6202 -6.1627 2.3955
2.8334 -6.0519 2.3955
3.0423 -5.9339 2.3955
3.2463 -5.8087 2.3955
3.4455 -5.6765 2.3955
3.6394 -5.5377 2.3955
3.8280 -5.3922 2.3955
4.0110 -5.2406 2.3955
4.1337 -5.0168 2.3643
4.0889 -4.6141 2.2469
4.2366 -4.4479 2.2431
4.3853 -4.2845 2.2431
4.5279 -4.1163 2.2431
4.6643 -3.9434 2.2432
4.7944 -3.7662 2.2432
4.9183 -3.5851 2.2434
5.0362 -3.4004 2.2438
5.1473 -3.2120 2.2442
5.2517 -3.0200 2.2445
5.3492 -2.8248 2.2449
5.4397 -2.6266 2.2452
5.5231 -2.4256 2.2455
5.5994 -2.2220 2.2458
5.6686 -2.0162 2.2461
5.7304 -1.8083 2.2464
5.7810 -1.5977 2.2450
5.8184 -1.3840 2.2416
5.8476 -1.1704 2.2377
5.8720 -0.9562 2.2349
5.8901 -0.7421 2.2325
5.9015 -0.5282 2.2303
5.9098 -0.3148 2.2298
5.9111 -0.1013 2.2294
5.9059 0.1123 2.2293
5.8944 0.3254 2.2295
5.8755 0.5376 2.2297
5.8495 0.7489 2.2300
5.8163 0.9593 2.2302
5.7761 1.1681 2.2305
5.7286 1.3756 2.2307
5.6740 1.5812 2.2309
5.6124 1.7849 2.2311
5.5441 1.9863 2.2313
5.4688 2.1852 2.2316
5.3870 2.3813 2.2318
5.2998 2.5755 2.2326
5.2061 2.7667 2.2335
5.1097 2.9568 2.2360
5.0073 3.1442 2.2388
4.9000 3.3294 2.2424
4.7864 3.5114 2.2460
4.6605 3.6850 2.2468
4.5266 3.8526 2.2465
4.3869 4.0156 2.2463
4.2416 4.1738 2.2460
4.0909 4.3270 2.2457
3.9349 4.4751 2.2454
3.7739 4.6177 2.2451
3.6078 4.7548 2.2448
3.4371 4.8863 2.2444
3.2617 5.0118 2.2441
3.0819 5.1313 2.2437
2.8980 5.2447 2.2433
2.7103 5.3522 2.2431
2.5190 5.4537 2.2431
2.3241 5.5487 2.2431
2.1342 5.6594 2.2520
0.8400 2.4965 0.9792
0.7498 2.5259 0.9780
0.6586 2.5521 0.9767
0.5664 2.5749 0.9754
0.4735 2.5944 0.9740
0.3800 2.6105 0.9726
0.2859 2.6232 0.9711
0.1914 2.6326 0.9696
0.0966 2.6385 0.9681
0.0017 2.6410 0.9665
-0.0933 2.6400 0.9649
-0.1881 2.6357 0.9632
-0.2828 2.6279 0.9616
-0.3771 2.6167 0.9599
-0.4709 2.6021 0.9581
-0.5642 2.5842 0.9564
-0.6568 2.5629 0.9546
-0.7485 2.5382 0.9529
-0.8392 2.5103 0.9511
-2.3442 6.2559 2.3955
-2.5724 6.1809 2.3955
-2.7983 6.0977 2.3955
-3.0215 6.0062 2.3955
-3.2416 5.9066 2.3955
-3.4585 5.7990 2.3955
-3.6717 5.6834 2.3955
-3.8810 5.5599 2.3955
-4.0861 5.4288 2.3955
-4.2867 5.2900 2.3955
-4.4825 5.1438 2.3955
-4.6731 4.9903 2.3955
-4.8584 4.8296 2.3955
-5.0380 4.6621 2.3955
-5.2117 4.4877 2.3955
-5.3791 4.3068 2.3955
-5.5401 4.1196 2.3955
-5.6943 3.9264 2.3955
-5.8416 3.7271 2.3955
-5.9816 3.5223 2.3955
4.7415 -3.1184 2.2432
4.8436 -2.9414 2.2436
4.9393 -2.7611 2.2439
5.0286 -2.5778 2.2442
5.1114 -2.3917 2.2445
5.1875 -2.2031 2.2448
5.2569 -2.0121 2.2451
5.3195 -1.8191 2.2453
5.3754 -1.6242 2.2456
5.4244 -1.4277 2.2458
5.4665 -1.2298 2.2460
5.5017 -1.0307 2.2462
5.5300 -0.8307 2.2464
5.5500 -0.6298 2.2461
5.5616 -0.4286 2.2451
5.5648 -0.2277 2.2435
5.5597 -0.0261 2.2414
5.5488 0.1741 2.2397
5.5326 0.3745 2.2387
5.5105 0.5733 2.2380
5.4823 0.7714 2.2376
5.4480 0.9685 2.2375
5.4077 1.1642 2.2377
5.3614 1.3586 2.2381
5.3091 1.5514 2.2388
5.2508 1.7428 2.2398
5.1873 1.9321 2.2412
5.1184 2.1202 2.2432
5.0433 2.3060 2.2453
4.9593 2.4879 2.2463
4.8679 2.6663 2.2467
4.7692 2.8408 2.2466
4.6645 3.0119 2.2464
4.5540 3.1794 2.2462
4.4377 3.3430 2.2460
4.3159 3.5025 2.2458
4.1885 3.6578 2.2456
4.0559 3.8087 2.2454
3.9180 3.9550 2.2451
3.7751 4.0965 2.2448
3.6273 4.2331 2.2445
3.4748 4.3646 2.2442
3.3178 4.4909 2.2439
3.1563 4.6117 2.2436
2.9907 4.7269 2.2433
2.8212 4.8370 2.2431
2.6481 4.9414 2.2431
2.4712 5.0399 2.2431
2.2909 5.1324 2.2431
2.1713 5.3774 2.3112
0.8368 2.3089 0.9774
0.7533 2.3383 0.9763
0.6688 2.3646 0.9751
0.5834 2.3879 0.9739
0.4972 2.4081 0.9726
0.4103 2.4252 0.9713
0.3228 2.4391 0.9700
0.2349 2.4499 0.9686
0.1467 2.4574 0.9672
0.0582 2.4619 0.9657
-0.0304 2.4631 0.9642
-0.1189 2.4611 0.9627
-0.2074 2.4559 0.9612
-0.2955 2.4475 0.9596
-0.3834 2.4360 0.9580
-0.4707 2.4213 0.9564
-0.5575 2.4034 0.9548
-0.6436 2.3825 0.9532
-0.7288 2.3584 0.9515
-0.8132 2.3313 0.9498
-0.8965 2.3011 0.9481
-2.4769 5.7405 2.3955
-2.6865 5.6594 2.3955
-2.8935 5.5707 2.3955
-3.0974 5.4745 2.3955
-3.2982 5.3708 2.3955
-3.4954 5.2598 2.3955
-3.6888 5.1415 2.3955
-3.8781 5.0160 2.3955
-4.0631 4.8836 2.3955
-4.2434 4.7443 2.3955
-4.4189 4.5984 2.3955
-4.5892 4.4458 2.3955
-4.7541 4.2869 2.3955
-4.9134 4.1219 2.3955
-5.0667 3.9508 2.3955
-5.2139 3.7740 2.3955
-5.3547 3.5916 2.3955
-5.4889 3.4040 2.3955
-5.6163 3.2112 2.3955
-5.7367 3.0134 2.3955
-5.8498 2.8111 2.3955
-5.9555 2.6045 2.3955
-6.0536 2.3939 2.3955
-6.1439 2.1796 2.3955
-6.2263 1.9618 2.3955
-6.3007 1.7407 2.3955
-6.3668 1.5169 2.3955
-6.4245 1.2905 2.3955
-6.4739 1.0618 2.3955
-6.5147 0.8313 2.3955
-6.5468 0.5992 2.3955
-6.5698 0.3644 2.3955
-6.5850 0.1315 2.3955
-6.5910 -0.1030 2.3955
-6.5881 -0.3380 2.3955
-6.5763 -0.5730 2.3955
-6.5557 -0.8073 2.3955
-6.5263 -1.0409 2.3955
-6.4881 -1.2734 2.3955
-6.4412 -1.5042 2.3955
-6.3856 -1.7332 2.3955
-6.3214 -1.9600 2.3955
-6.2487 -2.1842 2.3955
-6.1675 -2.4056 2.3955
-6.0781 -2.6238 2.3955
-5.9805 -2.8384 2.3955
-5.8749 -3.0492 2.3955
-5.7614 -3.2558 2.3955
-5.6402 -3.4579 2.3955
-5.5116 -3.6553 2.3955
-5.3756 -3.8477 2.3955
-5.2325 -4.0347 2.3955
-5.0826 -4.2161 2.3955
-4.9260 -4.3917 2.3955
-4.7631 -4.5611 2.3955
-4.5940 -4.7243 2.3955
-4.4190 -4.8808 2.3955
-4.2384 -5.0306 2.3955
-4.0524 -5.1733 2.3955
-3.8614 -5.3089 2.3955
-3.6656 -5.4372 2.3955
-3.4654 -5.5579 2.3955
-3.2610 -5.6709 2.3955
-3.0528 -5.7761 2.3955
-2.8410 -5.8735 2.3955
-2.6260 -5.9627 2.3955
-2.4081 -6.0438 2.3955
-2.1876 -6.1167 2.3955
-1.9649 -6.1813 2.3955
-1.7402 -6.2375 2.3955
-1.5139 -6.2854 2.3955
-1.2863 -6.3248 2.3955
-1.0578 -6.3557 2.3955
-0.8286 -6.3782 2.3955
-0.5991 -6.3923 2.3955
-0.3696 -6.3979 2.3955
-0.1404 -6.3952 2.3955
0.0882 -6.3841 2.3955
0.3159 -6.3647 2.3955
0.5423 -6.3371 2.3955
0.7672 -6.3013 2.3955
0.9902 -6.2575 2.3955
1.2112 -6.2057 2.3955
1.4298 -6.1461 2.3955
1.6457 -6.0787 2.3955
1.8586 -6.0038 2.3955
2.0684 -5.9214 2.3955
2.2747 -5.8317 2.3955
2.4774 -5.7348 2.3955
2.6760 -5.6309 2.3955
2.8705 -5.5203 2.3955
3.0606 -5.4029 2.3955
3.2461 -5.2790 2.3955
3.4267 -5.1490 2.3955
3.6024 -5.0128 2.3955
3.7728 -4.8707 2.3955
3.9378 -4.7230 2.3955
4.0369 -4.5025 2.3602
3.9954 -4.1462 2.2515
4.1249 -3.9835 2.2464
4.2515 -3.8200 2.2431
4.3784 -3.6582 2.2431
4.4994 -3.4922 2.2431
4.6144 -3.3224 2.2432
4.7232 -3.1489 2.2432
4.8263 -2.9724 2.2435
4.9231 -2.7927 2.2438
5.0136 -2.6099 2.2442
5.0974 -2.4243 2.2445
5.1747 -2.2361 2.2448
5.2453 -2.0455 2.2450
5.3091 -1.8528 2.2453
5.3662 -1.6583 2.2455
5.4164 -1.4620 2.2458
5.4597 -1.2643 2.2460
5.4961 -1.0655 2.2462
5.5256 -0.8656 2.2464
5.5474 -0.6649 2.2463
5.5601 -0.4638 2.2453
5.5650 -0.2625 2.2439
5.5610 -0.0613 2.2418
5.5511 0.1392 2.2400
5.5358 0.3399 2.2389
5.5148 0.5387 2.2381
5.4876 0.7371 2.2377
5.4544 0.9341 2.2375
5.4151 1.1302 2.2376
5.3699 1.3249 2.2380
5.3186 1.5181 2.2386
5.2614 1.7095 2.2396
5.1986 1.8994 2.2409
5.1308 2.0874 2.2429
5.0573 2.2739 2.2452
4.9744 2.4564 2.2461
4.8845 2.6355 2.2467
4.7868 2.8107 2.2466
4.6831 2.9824 2.2464
4.5736 3.1505 2.2463
4.4584 3.3148 2.2461
4.3375 3.4750 2.2459
4.2111 3.6311 2.2456
4.0793 3.7828 2.2454
3.9424 3.9299 2.2452
3.8003 4.0722 2.2449
3.6534 4.2097 2.2446
3.5017 4.3421 2.2443
3.3454 4.4693 2.2440
3.1847 4.5910 2.2437
3.0198 4.7073 2.2433
2.8510 4.8182 2.2431
2.6785 4.9237 2.2431
2.5023 5.0232 2.2431
2.3225 5.1168 2.2431
2.1862 5.3179 2.2921
0.8513 2.3035 0.9776
0.7679 2.3334 0.9765
0.6836 2.3603 0.9753
0.5983 2.3841 0.9741
0.5122 2.4048 0.9728
0.4255 2.4224 0.9715
0.3381 2.4369 0.9702
0.2502 2.4482 0.9688
0.1621 2.4564 0.9674
0.0736 2.4613 0.9660
-0.0149 2.4631 0.9645
-0.1035 2.4616 0.9630
-0.1920 2.4570 0.9615
-0.2802 2.4492 0.9599
-0.3681 2.4382 0.9583
-0.4556 2.4241 0.9567
-0.5424 2.4068 0.9551
-0.6286 2.3863 0.9534
-0.7141 2.3628 0.9518
-0.7986 2.3362 0.9501
-0.8820 2.3066 0.9484
-2.4402 5.7539 2.3955
-2.6502 5.6741 2.3955
-2.8577 5.5867 2.3955
-3.0622 5.4918 2.3955
-3.2635 5.3894 2.3955
-3.4613 5.2796 2.3955
-3.6554 5.1626 2.3955
-3.8454 5.0384 2.3955
-4.0312 4.9072 2.3955
-4.2124 4.7691 2.3955
-4.3887 4.6242 2.3955
-4.5599 4.4728 2.3955
-4.7258 4.3150 2.3955
-4.8861 4.1510 2.3955
-5.0404 3.9810 2.3955
-5.1887 3.8051 2.3955
-5.3307 3.6237 2.3955
-5.4660 3.4369 2.3955
-5.5946 3.2449 2.3955
-5.7162 3.0481 2.3955
-5.8306 2.8466 2.3955
-5.9376 2.6408 2.3955
-6.0371 2.4309 2.3955
-6.1288 2.2171 2.3955
-6.2126 1.9999 2.3955
-6.2883 1.7794 2.3955
-6.3558 1.5560 2.3955
-6.4151 1.3300 2.3955
-6.4659 1.1018 2.3955
-6.5082 0.8716 2.3955
-6.5419 0.6397 2.3955
-6.5668 0.4066 2.3955
-6.5831 0.1724 2.3955
-6.5906 -0.0621 2.3955
-6.5892 -0.2972 2.3955
-6.5790 -0.5322 2.3955
-6.5600 -0.7666 2.3955
-6.5321 -1.0004 2.3955
-6.4954 -1.2330 2.3955
-6.4500 -1.4642 2.3955
-6.3959 -1.6935 2.3955
-6.3332 -1.9207 2.3955
-6.2619 -2.1454 2.3955
-6.1822 -2.3673 2.3955
-6.0942 -2.5860 2.3955
-5.9980 -2.8013 2.3955
-5.8938 -3.0128 2.3955
-5.7817 -3.2201 2.3955
-5.6619 -3.4231 2.3955
-5.5345 -3.6213 2.3955
-5.3998 -3.8146 2.3955
-5.2579 -4.0025 2.3955
-5.1092 -4.1850 2.3955
-4.9538 -4.3616 2.3955
-4.7919 -4.5321 2.3955
-4.6238 -4.6963 2.3955
-4.4498 -4.8540 2.3955
-4.2702 -5.0050 2.3955
-4.0852 -5.1490 2.3955
-3.8950 -5.2858 2.3955
-3.7000 -5.4154 2.3955
-3.5006 -5.5374 2.3955
-3.2969 -5.6518 2.3955
-3.0893 -5.7584 2.3955
-2.8781 -5.8571 2.3955
-2.6637 -5.9478 2.3955
-2.4462 -6.0303 2.3955
-2.2262 -6.1046 2.3955
-2.0038 -6.1707 2.3955
-1.7794 -6.2283 2.3955
-1.5534 -6.2776 2.3955
-1.3260 -6.3185 2.3955
-1.0976 -6.3509 2.3955
-0.8685 -6.3749 2.3955
-0.6391 -6.3904 2.3955
-0.4095 -6.3975 2.3955
-0.1802 -6.3962 2.3955
0.0484 -6.3865 2.3955
0.2763 -6.3686 2.3955
0.5030 -6.3425 2.3955
0.7281 -6.3081 2.3955
0.9516 -6.2657 2.3955
1.1729 -6.2153 2.3955
1.3919 -6.1570 2.3955
1.6083 -6.0910 2.3955
1.8218 -6.0174 2.3955
2.0321 -5.9363 2.3955
2.2391 -5.8478 2.3955
2.4424 -5.7522 2.3955
2.6417 -5.6495 2.3955
2.8370 -5.5400 2.3955
3.0279 -5.4238 2.3955
3.2142 -5.3013 2.3955
3.3957 -5.1721 2.3955
3.5722 -5.0369 2.3955
3.7435 -4.8958 2.3955
3.9094 -4.7491 2.3955
4.0456 -4.5695 2.3812
3.9972 -4.2002 2.2666
4.0951 -4.0046 2.2431
4.2288 -3.8478 2.2431
4.3568 -3.6866 2.2431
4.4788 -3.5214 2.2431
4.5948 -3.3522 2.2432
4.7047 -3.1794 2.2432
4.8088 -3.0034 2.2434
4.9067 -2.8242 2.2438
4.9983 -2.6419 2.2441
5.0833 -2.4568 2.2444
5.1617 -2.2690 2.2447
5.2335 -2.0789 2.2450
5.2985 -1.8865 2.2453
5.3567 -1.6923 2.2455
5.4081 -1.4963 2.2457
5.4526 -1.2988 2.2460
5.4903 -1.1001 2.2462
5.5209 -0.9005 2.2463
5.5445 -0.7000 2.2464
5.5583 -0.4985 2.2454
5.5651 -0.2975 2.2443
5.5621 -0.0960 2.2421
5.5532 0.1046 2.2403
5.5389 0.3048 2.2390
5.5189 0.5041 2.2382
5.4928 0.7025 2.2377
5.4606 0.8999 2.2375
5.4224 1.0962 2.2376
5.3781 1.2912 2.2379
5.3279 1.4846 2.2385
5.2718 1.6763 2.2394
5.2099 1.8663 2.2406
5.1430 2.0549 2.2425
5.0705 2.2416 2.2448
4.9892 2.4249 2.2460
4.9008 2.6047 2.2468
4.8042 2.7804 2.2466
4.7016 2.9528 2.2465
4.5931 3.1215 2.2463
4.4788 3.2865 2.2461
4.3589 3.4474 2.2459
4.2335 3.6042 2.2457
4.1026 3.7567 2.2454
3.9666 3.9046 2.2452
3.8254 4.0478 2.2449
3.6793 4.1861 2.2446
3.5285 4.3194 2.2444
3.3730 4.4475 2.2440
3.2130 4.5702 2.2437
3.0488 4.6875 2.2434
2.8806 4.7992 2.2431
2.7088 4.9057 2.2431
2.5332 5.0063 2.2431
2.3541 5.1009 2.2431
2.2008 5.2595 2.2733
0.8657 2.2980 0.9778
0.7825 2.3284 0.9767
0.6983 2.3558 0.9755
0.6132 2.3801 0.9743
0.5273 2.4014 0.9731
0.4406 2.4196 0.9718
0.3533 2.4346 0.9704
0.2656 2.4465 0.9691
0.1774 2.4552 0.9677
0.0890 2.4607 0.9662
0.0005 2.4630 0.9648
-0.0881 2.4621 0.9633
-0.1766 2.4581 0.9617
-0.2649 2.4508 0.9602
-0.3528 2.4404 0.9586
-0.4404 2.4267 0.9570
-0.5274 2.4100 0.9554
-0.6137 2.3901 0.9537
-0.6993 2.3671 0.9521
-0.7839 2.3411 0.9504
-0.8676 2.3120 0.9487
-2.4034 5.7669 2.3955
-2.6139 5.6885 2.3955
-2.8217 5.6025 2.3955
-3.0268 5.5089 2.3955
-3.2287 5.4077 2.3955
-3.4271 5.2993 2.3955
-3.6219 5.1835 2.3955
-3.8127 5.0605 2.3955
-3.9992 4.9305 2.3955
-4.1812 4.7936 2.3955
-4.3584 4.6499 2.3955
-4.5305 4.4997 2.3955
-4.6973 4.3430 2.3955
-4.8586 4.1800 2.3955
-5.0140 4.0110 2.3955
-5.1634 3.8362 2.3955
-5.3064 3.6557 2.3955
-5.4429 3.4698 2.3955
-5.5727 3.2786 2.3955
4.4447 -2.9258 2.2432
4.5402 -2.7595 2.2432
4.6298 -2.5904 2.2432
4.7139 -2.4187 2.2435
4.7918 -2.2443 2.2438
4.8635 -2.0675 2.2441
4.9289 -1.8885 2.2443
4.9880 -1.7076 2.2446
5.0408 -1.5248 2.2448
5.0870 -1.3405 2.2450
5.1268 -1.1549 2.2452
5.1602 -0.9682 2.2454
5.1869 -0.7806 2.2456
5.2072 -0.5923 2.2457
5.2209 -0.4035 2.2459
5.2280 -0.2146 2.2460
5.2286 -0.0256 2.2461
5.2227 0.1632 2.2462
5.2102 0.3515 2.2463
5.1913 0.5393 2.2463
5.1658 0.7261 2.2464
5.1340 0.9119 2.2464
5.0958 1.0964 2.2464
5.0512 1.2795 2.2464
5.0004 1.4608 2.2464
4.9433 1.6403 2.2463
4.8801 1.8176 2.2463
4.8109 1.9927 2.2462
4.7356 2.1652 2.2461
4.6544 2.3351 2.2460
4.5674 2.5020 2.2459
4.4747 2.6659 2.2458
4.3764 2.8265 2.2456
4.2726 2.9836 2.2454
4.1634 3.1371 2.2453
4.0489 3.2868 2.2451
3.9293 3.4325 2.2448
3.8047 3.5740 2.2446
3.6752 3.7112 2.2444
3.5409 3.8439 2.2441
3.4021 3.9720 2.2438
3.2588 4.0953 2.2436
3.1113 4.2136 2.2433
2.9599 4.3271 2.2431
2.8046 4.4357 2.2431
2.6456 4.5389 2.2431
2.4871 4.6445 2.2469
2.3181 4.7315 2.2443
2.2358 5.0136 2.3354
0.8594 2.1305 0.9761
0.7823 2.1608 0.9751
0.7041 2.1883 0.9740
0.6250 2.2129 0.9729
0.5450 2.2347 0.9718
0.4643 2.2536 0.9706
0.3830 2.2695 0.9694
0.3011 2.2826 0.9681
0.2188 2.2926 0.9668
0.1362 2.2997 0.9655
0.0534 2.3038 0.9641
-0.0295 2.3050 0.9628
-0.1123 2.3031 0.9613
-0.1951 2.2982 0.9599
-0.2777 2.2904 0.9584
-0.3599 2.2796 0.9570
-0.4416 2.2658 0.9554
-0.5229 2.2491 0.9539
-0.6034 2.2295 0.9524
-0.6832 2.2070 0.9508
-0.7622 2.1816 0.9492
-0.8401 2.1534 0.9477
-0.9170 2.1224 0.9461
-2.5179 5.2974 2.3955
-2.7113 5.2138 2.3955
-2.9019 5.1231 2.3955
-3.0894 5.0255 2.3955
-3.2737 4.9210 2.3955
-3.4543 4.8098 2.3955
-3.6310 4.6919 2.3955
-3.8037 4.5675 2.3955
-3.9720 4.4367 2.3955
-4.1356 4.2997 2.3955
-4.2945 4.1566 2.3955
-4.4482 4.0075 2.3955
-4.5966 3.8528 2.3955
-4.7395 3.6924 2.3955
-4.8767 3.5268 2.3955
-5.0078 3.3559 2.3955
-5.1327 3.1801 2.3955
-5.2513 2.9997 2.3955
-5.3633 2.8148 2.3955
-5.4685 2.6255 2.3955
-5.5668 2.4322 2.3955
-5.6579 2.2352 2.3955
-5.7419 2.0348 2.3955
-5.8184 1.8312 2.3955
-5.8873 1.6246 2.3955
-5.9487 1.4154 2.3955
-6.0022 1.2039 2.3955
-6.0479 0.9904 2.3955
-6.0856 0.7750 2.3955
-6.1152 0.5583 2.3955
-6.1368 0.3404 2.3955
-6.1502 0.1217 2.3955
-6.1555 -0.0975 2.3955
-6.1525 -0.3168 2.3955
-6.1413 -0.5360 2.3955
-6.1219 -0.7548 2.3955
-6.0942 -0.9728 2.3955
-6.0578 -1.1914 2.3955
-6.0144 -1.4052 2.3955
-5.9624 -1.6189 2.3955
-5.9024 -1.8306 2.3955
-5.8345 -2.0397 2.3955
-5.7588 -2.2462 2.3955
-5.6753 -2.4499 2.3955
-5.5842 -2.6502 2.3955
-5.4857 -2.8469 2.3955
-5.3798 -3.0398 2.3955
-5.2668 -3.2285 2.3955
-5.1469 -3.4128 2.3955
-5.0201 -3.5924 2.3955
-4.8867 -3.7671 2.3955
-4.7469 -3.9365 2.3955
-4.6010 -4.1006 2.3955
-4.4490 -4.2589 2.3955
-4.2913 -4.4114 2.3955
-4.1282 -4.5578 2.3955
-3.9598 -4.6978 2.3955
-3.7864 -4.8314 2.3955
-3.6083 -4.9583 2.3955
-3.4257 -5.0783 2.3955
-3.2390 -5.1914 2.3955
-3.0483 -5.2974 2.3955
-2.8540 -5.3961 2.3955
-2.6564 -5.4874 2.3955
-2.4558 -5.5712 2.3955
-2.2524 -5.6474 2.3955
-2.0466 -5.7161 2.3955
-1.8387 -5.7769 2.3955
-1.6289 -5.8300 2.3955
-1.4176 -5.8752 2.3955
-1.2050 -5.9126 2.3955
-0.9915 -5.9421 2.3955
-0.7773 -5.9638 2.3955
-0.5628 -5.9775 2.3955
-0.3483 -5.9834 2.3955
-0.1340 -5.9814 2.3955
0.0798 -5.9717 2.3955
0.2927 -5.9542 2.3955
0.5046 -5.9290 2.3955
0.7150 -5.8962 2.3955
0.9238 -5.8559 2.3955
1.1307 -5.8081 2.3955
1.3354 -5.7529 2.3955
1.5376 -5.6906 2.3955
1.7372 -5.6210 2.3955
1.9337 -5.5445 2.3955
2.1271 -5.4612 2.3955
2.3171 -5.3711 2.3955
2.5034 -5.2744 2.3955
2.6859 -5.1713 2.3955
2.8642 -5.0619 2.3955
3.0383 -4.9465 2.3955
3.2079 -4.8252 2.3955
3.3728 -4.6981 2.3955
3.5328 -4.5654 2.3955
3.6878 -4.4274 2.3955
3.8376 -4.2843 2.3955
3.9588 -4.1120 2.3814
3.9167 -3.7860 2.2767
3.9836 -3.5825 2.2431
4.1030 -3.4311 2.2431
4.2168 -3.2758 2.2431
4.3250 -3.1168 2.2431
4.4274 -2.9544 2.2432
4.5240 -2.7887 2.2432
4.6146 -2.6200 2.2432
4.6997 -2.4487 2.2435
4.7787 -2.2748 2.2438
4.8515 -2.0985 2.2440
4.9180 -1.9199 2.2443
4.9782 -1.7392 2.2446
5.0320 -1.5568 2.2448
5.0794 -1.3727 2.2450
5.1204 -1.1873 2.2452
5.1548 -1.0008 2.2454
5.1827 -0.8133 2.2456
5.2041 -0.6251 2.2457
5.2190 -0.4364 2.2459
5.2272 -0.2475 2.2460
5.2290 -0.0585 2.2461
5.2242 0.1303 2.2462
5.2129 0.3188 2.2463
5.1950 0.5066 2.2463
5.1707 0.6937 2.2464
5.1400 0.8797 2.2464
5.1029 1.0644 2.2464
5.0594 1.2477 2.2464
5.0097 1.4294 2.2464
4.9537 1.6092 2.2463
4.8916 1.7869 2.2463
4.8234 1.9624 2.2462
4.7491 2.1354 2.2461
4.6690 2.3057 2.2460
4.5830 2.4732 2.2459
4.4913 2.6376 2.2458
4.3939 2.7987 2.2456
4.2911 2.9565 2.2455
4.1828 3.1107 2.2453
4.0692 3.2610 2.2451
3.9505 3.4074 2.2449
3.8267 3.5497 2.2447
3.6980 3.6877 2.2444
3.5646 3.8212 2.2442
3.4266 3.9501 2.2439
3.2841 4.0742 2.2436
3.1373 4.1933 2.2433
2.9865 4.3077 2.2431
2.8319 4.4171 2.2431
2.6735 4.5213 2.2431
2.5115 4.6200 2.2431
2.3459 4.7132 2.2431
2.2493 4.9599 2.3175
0.8727 2.1250 0.9762
0.7958 2.1557 0.9752
0.7178 2.1837 0.9742
0.6388 2.2088 0.9731
0.5590 2.2311 0.9720
0.4784 2.2505 0.9708
0.3972 2.2670 0.9696
0.3154 2.2805 0.9683
0.2332 2.2911 0.9671
0.1506 2.2987 0.9657
0.0679 2.3033 0.9644
-0.0150 2.3050 0.9630
-0.0979 2.3036 0.9616
-0.1807 2.2993 0.9602
-0.2633 2.2920 0.9587
-0.3456 2.2817 0.9572
-0.4274 2.2684 0.9557
-0.5088 2.2522 0.9542
-0.5894 2.2331 0.9526
-0.6694 2.2111 0.9511
-0.7485 2.1862 0.9495
-0.8266 2.1585 0.9479
-0.9037 2.1280 0.9464
-2.4839 5.3112 2.3955
-2.6778 5.2288 2.3955
-2.8689 5.1394 2.3955
-3.0570 5.0430 2.3955
-3.2418 4.9397 2.3955
-3.4231 4.8296 2.3955
-3.6005 4.7129 2.3955
-3.7739 4.5896 2.3955
-3.9430 4.4599 2.3955
-4.1075 4.3240 2.3955
-4.2672 4.1819 2.3955
-4.4218 4.0339 2.3955
-4.5712 3.8801 2.3955
-4.7151 3.7207 2.3955
-4.8532 3.5560 2.3955
-4.9854 3.3860 2.3955
-5.1114 3.2111 2.3955
-5.2311 3.0314 2.3955
-5.3443 2.8472 2.3955
-5.4507 2.6588 2.3955
-5.5502 2.4661 2.3955
-5.6426 2.2698 2.3955
-5.7278 2.0699 2.3955
-5.8056 1.8668 2.3955
-5.8759 1.6608 2.3955
-5.9385 1.4520 2.3955
-5.9934 1.2409 2.3955
-6.0405 1.0277 2.3955
-6.0796 0.8126 2.3955
-6.1107 0.5961 2.3955
-6.1336 0.3784 2.3955
-6.1485 0.1598 2.3955
-6.1551 -0.0593 2.3955
-6.1536 -0.2786 2.3955
-6.1438 -0.4979 2.3955
-6.1258 -0.7168 2.3955
-6.0996 -0.9349 2.3955
-6.0649 -1.1529 2.3955
-6.0227 -1.3677 2.3955
-5.9721 -1.5818 2.3955
-5.9135 -1.7937 2.3955
-5.8469 -2.0034 2.3955
-5.7725 -2.2105 2.3955
-5.6904 -2.4146 2.3955
-5.6006 -2.6156 2.3955
-5.5033 -2.8129 2.3955
-5.3988 -3.0065 2.3955
-5.2870 -3.1960 2.3955
-5.1682 -3.3811 2.3955
-5.0426 -3.5615 2.3955
-4.9104 -3.7370 2.3955
-4.7717 -3.9074 2.3955
-4.6268 -4.0724 2.3955
-4.4759 -4.2318 2.3955
-4.3192 -4.3853 2.3955
-4.1570 -4.5326 2.3955
-3.9895 -4.6739 2.3955
-3.8169 -4.8086 2.3955
-3.6396 -4.9367 2.3955
-3.4578 -5.0579 2.3955
-3.2717 -5.1723 2.3955
-3.0818 -5.2794 2.3955
-2.8881 -5.3794 2.3955
-2.6911 -5.4720 2.3955
-2.4909 -5.5571 2.3955
-2.2880 -5.6347 2.3955
-2.0826 -5.7046 2.3955
-1.8750 -5.7670 2.3955
-1.6655 -5.8213 2.3955
-1.4544 -5.8679 2.3955
-1.2421 -5.9067 2.3955
-1.0287 -5.9376 2.3955
-0.8146 -5.9606 2.3955
-0.6002 -5.9757 2.3955
-0.3856 -5.9829 2.3955
-0.1712 -5.9824 2.3955
0.0426 -5.9740 2.3955
0.2557 -5.9578 2.3955
0.4678 -5.9340 2.3955
0.6785 -5.9025 2.3955
0.8876 -5.8634 2.3955
1.0949 -5.8169 2.3955
1.2999 -5.7631 2.3955
1.5026 -5.7019 2.3955
1.7026 -5.6337 2.3955
1.8997 -5.5584 2.3955
2.0937 -5.4762 2.3955
2.2843 -5.3872 2.3955
2.4713 -5.2917 2.3955
2.6544 -5.1897 2.3955
2.8335 -5.0814 2.3955
3.0083 -4.9670 2.3955
3.1787 -4.8467 2.3955
3.3444 -4.7206 2.3955
3.5053 -4.5889 2.3955
3.6612 -4.4518 2.3955
3.8119 -4.3096 2.3955
3.9573 -4.1623 2.3955
3.9237 -3.8405 2.2940
3.9623 -3.6085 2.2431
4.0826 -3.4577 2.2431
4.1974 -3.3031 2.2431
4.3066 -3.1447 2.2431
4.4100 -2.9829 2.2431
4.5076 -2.8178 2.2432
4.5992 -2.6496 2.2432
4.6853 -2.4788 2.2434
4.7654 -2.3053 2.2437
4.8392 -2.1293 2.2440
4.9069 -1.9511 2.2443
4.9682 -1.7708 2.2445
5.0231 -1.5886 2.2447
5.0717 -1.4049 2.2450
5.1137 -1.2197 2.2452
5.1493 -1.0333 2.2454
5.1784 -0.8460 2.2455
5.2009 -0.6579 2.2457
5.2169 -0.4693 2.2458
5.2263 -0.2804 2.2460
5.2292 -0.0914 2.2461
5.2255 0.0975 2.2462
5.2153 0.2860 2.2463
5.1986 0.4740 2.2463
5.1754 0.6612 2.2464
5.1458 0.8474 2.2464
5.1098 1.0324 2.2464
5.0675 1.2159 2.2464
5.0188 1.3979 2.2464
4.9639 1.5780 2.2464
4.9028 1.7561 2.2463
4.8357 1.9320 2.2462
4.7625 2.1054 2.2462
4.6834 2.2762 2.2461
4.5984 2.4442 2.2459
4.5077 2.6092 2.2458
4.4113 2.7709 2.2457
4.3094 2.9293 2.2455
4.2020 3.0841 2.2453
4.0894 3.2351 2.2451
3.9715 3.3822 2.2449
3.8486 3.5252 2.2447
3.7208 3.6640 2.2445
3.5882 3.7983 2.2442
3.4509 3.9280 2.2439
3.3092 4.0529 2.2437
3.1631 4.1730 2.2434
3.0130 4.2881 2.2431
2.8591 4.3985 2.2431
2.7014 4.5035 2.2431
2.5399 4.6032 2.2431
2.3750 4.6974 2.2431
2.2627 4.9072 2.2999
0.8860 2.1193 0.9764
0.8093 2.1506 0.9754
0.7314 2.1790 0.9744
0.6526 2.2047 0.9733
0.5730 2.2274 0.9722
0.4925 2.2473 0.9710
0.4114 2.2643 0.9698
0.3297 2.2784 0.9686
0.2475 2.2895 0.9673
0.1650 2.2976 0.9660
0.0823 2.3027 0.9646
-0.0006 2.3049 0.9632
-0.0835 2.3041 0.9618
-0.1663 2.3003 0.9604
-0.2490 2.2935 0.9590
-0.3313 2.2837 0.9575
-0.4132 2.2710 0.9560
-0.4947 2.2553 0.9545
-0.5755 2.2367 0.9529
-0.6555 2.2152 0.9514
-0.7348 2.1908 0.9498
-0.8131 2.1635 0.9482
-0.8904 2.1335 0.9466
-2.4499 5.3249 2.3955
-2.6443 5.2437 2.3955
-2.8359 5.1555 2.3955
-3.0245 5.0603 2.3955
-3.2099 4.9582 2.3955
-3.3918 4.8493 2.3955
-3.5699 4.7337 2.3955
-3.7440 4.6115 2.3955
-3.9139 4.4829 2.3955
-4.0792 4.3481 2.3955
-4.2397 4.2071 2.3955
-4.3953 4.0601 2.3955
-4.5456 3.9073 2.3955
-4.6904 3.7489 2.3955
-4.8296 3.5851 2.3955
-4.9628 3.4160 2.3955
-5.0899 3.2419 2.3955
-5.2108 3.0631 2.3955
4.1780 -2.7527 2.2431
4.2681 -2.5966 2.2431
4.3527 -2.4376 2.2432
4.4316 -2.2760 2.2432
4.5046 -2.1119 2.2432
4.5724 -1.9457 2.2434
4.6342 -1.7775 2.2437
4.6901 -1.6073 2.2439
4.7399 -1.4355 2.2441
4.7837 -1.2622 2.2443
4.8214 -1.0876 2.2445
4.8530 -0.9119 2.2447
4.8784 -0.7354 2.2449
4.8977 -0.5583 2.2450
4.9107 -0.3807 2.2451
4.9177 -0.2029 2.2453
4.9184 -0.0250 2.2454
4.9130 0.1526 2.2454
4.9014 0.3299 2.2455
4.8837 0.5066 2.2456
4.8599 0.6825 2.2456
4.8300 0.8574 2.2456
4.7941 1.0311 2.2456
4.7523 1.2034 2.2456
4.7045 1.3741 2.2456
4.6508 1.5430 2.2456
4.5914 1.7100 2.2455
4.5262 1.8747 2.2454
4.4553 2.0371 2.2454
4.3789 2.1970 2.2453
4.2970 2.3541 2.2451
4.2097 2.5084 2.2450
4.1172 2.6595 2.2449
4.0194 2.8074 2.2447
3.9165 2.9518 2.2445
3.8087 3.0927 2.2444
3.6960 3.2297 2.2442
3.5786 3.3629 2.2439
3.4566 3.4919 2.2437
3.3302 3.6167 2.2435
3.1994 3.7371 2.2432
3.0648 3.8533 2.2431
2.9261 3.9649 2.2431
2.7836 4.0718 2.2431
2.6373 4.1737 2.2431
2.4875 4.2707 2.2431
2.3619 4.4141 2.2696
