ply
format ascii 1.0
element vertex 2178
property float32 x
property float32 y
property float32 z
end_header
0.7927 -9.4099 2.3914
1.1327 -9.4028 2.3914
1.4732 -9.3833 2.3914
1.8136 -9.3513 2.3914
2.1535 -9.3066 2.3914
2.4925 -9.2493 2.3914
2.8299 -9.1794 2.3914
3.0355 -8.7238 2.2933
3.2753 -8.4280 2.2390
3.5843 -8.3272 2.2390
3.8902 -8.2151 2.2392
4.1936 -8.0935 2.2400
4.4929 -7.9604 2.2407
4.7878 -7.8156 2.2415
5.0776 -7.6594 2.2423
5.3446 -7.4677 2.2357
5.5973 -7.2575 2.2266
5.8665 -7.0691 2.2271
6.1280 -6.8686 2.2272
6.3821 -6.6581 2.2274
6.6284 -6.4377 2.2275
6.8665 -6.2077 2.2277
7.0960 -5.9684 2.2278
7.3165 -5.7201 2.2280
7.5276 -5.4632 2.2282
7.7289 -5.1980 2.2284
7.9200 -4.9250 2.2287
8.1007 -4.6445 2.2289
8.2706 -4.3569 2.2291
8.4295 -4.0627 2.2294
8.5768 -3.7623 2.2296
8.7125 -3.4562 2.2299
5.5717 -1.9830 1.4062
5.5643 -1.7591 1.3869
9.0475 -2.5085 2.2307
9.1345 -2.1844 2.2309
9.2088 -1.8572 2.2312
9.2704 -1.5272 2.2315
9.3191 -1.1951 2.2318
9.3548 -0.8614 2.2321
9.3776 -0.5265 2.2325
9.3873 -0.1911 2.2328
9.3840 0.1443 2.2331
8.1888 2.2090 2.2356
5.4511 1.6815 1.5056
7.9906 2.7812 2.2362
7.8754 3.0608 2.2365
7.7497 3.3354 2.2369
7.6139 3.6047 2.2372
7.4682 3.8682 2.2375
7.3127 4.1257 2.2378
7.1479 4.3767 2.2381
6.9739 4.6209 2.2384
6.7912 4.8579 2.2387
5.3763 4.1443 1.8239
6.4006 5.3094 2.2393
6.1934 5.5232 2.2396
5.9788 5.7288 2.2399
5.7571 5.9257 2.2401
5.5286 6.1139 2.2404
5.2937 6.2930 2.2407
5.0529 6.4630 2.2409
4.8102 6.6286 2.2429
4.5586 6.7801 2.2432
4.3004 6.9189 2.2426
4.0379 7.0478 2.2419
3.7715 7.1667 2.2413
3.5018 7.2754 2.2406
3.2290 7.3739 2.2400
2.9535 7.4622 2.2393
2.6763 7.5415 2.2390
2.5528 8.1046 2.3840
0.8911 3.2290 0.9424
0.7746 3.2586 0.9450
0.6571 3.2841 0.9475
0.5388 3.3052 0.9500
0.4197 3.3220 0.9525
0.3001 3.3346 0.9550
0.1801 3.3428 0.9575
0.0599 3.3466 0.9600
-0.0604 3.3461 0.9624
-0.1805 3.3412 0.9648
-0.3005 3.3320 0.9672
-0.4200 3.3185 0.9695
-0.5390 3.3006 0.9718
-0.6572 3.2785 0.9741
-0.7746 3.2521 0.9763
-2.1773 7.8729 2.3914
-2.4534 7.7709 2.3914
-2.7251 7.6596 2.3914
-2.9923 7.5393 2.3914
-3.2546 7.4102 2.3914
-3.5117 7.2723 2.3914
-3.7635 7.1261 2.3914
-4.0096 6.9716 2.3914
-4.2497 6.8090 2.3914
-4.4838 6.6388 2.3914
-4.7115 6.4609 2.3914
-4.9327 6.2757 2.3914
-5.1470 6.0835 2.3914
-5.3544 5.8843 2.3914
-5.5545 5.6786 2.3914
-5.7473 5.4665 2.3914
-5.9326 5.2483 2.3914
-6.1102 5.0243 2.3914
-6.2799 4.7947 2.3914
-6.4415 4.5598 2.3914
-6.5950 4.3198 2.3914
-6.7402 4.0751 2.3914
-6.8769 3.8258 2.3914
-7.0051 3.5722 2.3914
-7.1246 3.3147 2.3914
-7.2354 3.0535 2.3914
-7.3372 2.7888 2.3914
-7.4300 2.5210 2.3914
-7.5138 2.2503 2.3914
-7.5885 1.9771 2.3914
-7.6539 1.7015 2.3914
-7.7101 1.4239 2.3914
-7.7569 1.1446 2.3914
-7.7943 0.8636 2.3914
-7.8224 0.5820 2.3914
-7.8409 0.2993 2.3914
-7.8500 0.0159 2.3914
-7.8495 -0.2677 2.3914
-7.8395 -0.5512 2.3914
-7.8200 -0.8344 2.3914
-7.7910 -1.1172 2.3914
-7.7524 -1.3989 2.3914
-7.7044 -1.6795 2.3914
-7.6468 -1.9585 2.3914
-7.5799 -2.2358 2.3914
-7.5035 -2.5109 2.3914
-7.4178 -2.7836 2.3914
-7.3227 -3.0538 2.3914
-7.2185 -3.3208 2.3914
-7.1051 -3.5846 2.3914
-6.9826 -3.8448 2.3914
-6.8511 -4.1011 2.3914
-6.7108 -4.3532 2.3914
-6.5617 -4.6008 2.3914
-6.4039 -4.8436 2.3914
-6.2376 -5.0813 2.3914
-6.0630 -5.3137 2.3914
-5.8801 -5.5403 2.3914
-5.6891 -5.7611 2.3914
-5.4903 -5.9755 2.3914
-5.2837 -6.1835 2.3914
-5.0696 -6.3846 2.3914
-4.8481 -6.5787 2.3914
-4.6195 -6.7654 2.3914
-4.3841 -6.9444 2.3914
-4.1419 -7.1156 2.3914
-3.8933 -7.2786 2.3914
-3.6386 -7.4331 2.3914
-3.3780 -7.5790 2.3914
-3.1117 -7.7160 2.3914
-2.8400 -7.8439 2.3914
-2.5634 -7.9624 2.3914
-2.2820 -8.0713 2.3914
-1.9962 -8.1704 2.3914
-1.7062 -8.2595 2.3914
-1.4126 -8.3384 2.3914
-1.1155 -8.4070 2.3914
-0.8154 -8.4650 2.3914
-0.5127 -8.5123 2.3914
-0.2076 -8.5488 2.3914
0.0993 -8.5743 2.3914
0.4077 -8.5887 2.3914
0.7172 -8.5919 2.3914
1.0274 -8.5838 2.3914
1.3379 -8.5643 2.3914
1.6482 -8.5335 2.3914
1.9579 -8.4912 2.3914
2.2666 -8.4373 2.3914
2.5737 -8.3720 2.3914
2.8790 -8.2953 2.3914
3.0144 -7.7753 2.2656
3.2600 -7.5908 2.2390
3.5379 -7.4870 2.2390
3.8123 -7.3729 2.2391
4.0840 -7.2503 2.2398
4.3515 -7.1172 2.2405
4.6144 -6.9739 2.2412
4.8722 -6.8204 2.2419
5.1245 -6.6569 2.2425
5.3496 -6.4579 2.2343
5.5697 -6.2544 2.2273
5.8019 -6.0639 2.2281
5.6957 -5.5423 2.1064
6.2411 -5.6532 2.2284
6.4492 -5.4351 2.2286
6.6490 -5.2089 2.2287
6.8403 -4.9750 2.2289
7.0228 -4.7336 2.2291
7.1960 -4.4852 2.2293
7.3598 -4.2300 2.2295
7.5138 -3.9685 2.2297
7.6578 -3.7011 2.2300
7.7915 -3.4281 2.2302
7.9147 -3.1500 2.2304
8.0272 -2.8672 2.2307
8.1287 -2.5801 2.2309
5.5638 -1.5496 1.5104
8.2981 -1.9949 2.2314
8.3659 -1.6977 2.2317
8.4221 -1.3981 2.2320
8.4667 -1.0965 2.2323
8.4997 -0.7935 2.2325
8.5209 -0.4894 2.2328
8.5304 -0.1848 2.2331
8.5281 0.1199 2.2334
5.5037 0.2741 1.4439
8.4884 0.7274 2.2340
8.4511 1.0294 2.2343
8.4022 1.3294 2.2346
8.3418 1.6272 2.2350
8.2702 1.9222 2.2353
8.1873 2.2140 2.2356
5.4509 1.6851 1.5059
7.9887 2.7860 2.2362
7.8733 3.0655 2.2365
7.7475 3.3400 2.2369
7.6115 3.6092 2.2372
7.4656 3.8727 2.2375
7.3100 4.1300 2.2378
7.1450 4.3809 2.2381
6.9709 4.6250 2.2384
6.7880 4.8619 2.2387
5.3762 4.1494 1.8248
6.3971 5.3131 2.2393
6.1898 5.5268 2.2396
5.9751 5.7322 2.2399
5.7532 5.9290 2.2402
5.5246 6.1170 2.2404
5.2897 6.2960 2.2407
5.0488 6.4658 2.2409
4.8065 6.6321 2.2431
4.5543 6.7826 2.2432
4.2959 6.9212 2.2426
4.0334 7.0499 2.2419
3.7670 7.1686 2.2413
3.4971 7.2771 2.2406
3.2243 7.3755 2.2399
2.9488 7.4636 2.2393
2.6716 7.5427 2.2390
2.5517 8.1186 2.3878
0.8891 3.2296 0.9425
0.7726 3.2591 0.9450
0.6551 3.2844 0.9475
0.5367 3.3055 0.9501
0.4177 3.3223 0.9526
0.2981 3.3347 0.9551
0.1781 3.3429 0.9575
0.0579 3.3466 0.9600
-0.0624 3.3460 0.9624
-0.1826 3.3411 0.9648
-0.3025 3.3318 0.9672
-0.4220 3.3182 0.9696
-0.5410 3.3003 0.9719
-0.6592 3.2781 0.9741
-0.7766 3.2516 0.9764
-2.1821 7.8713 2.3914
-2.4581 7.7691 2.3914
-2.7297 7.6577 2.3914
-2.9968 7.5372 2.3914
-3.2590 7.4079 2.3914
-3.5161 7.2699 2.3914
-3.7677 7.1235 2.3914
-4.0137 6.9689 2.3914
-4.2538 6.8062 2.3914
-4.4878 6.6358 2.3914
-4.7154 6.4578 2.3914
-4.9364 6.2725 2.3914
-5.1506 6.0802 2.3914
-5.3578 5.8809 2.3914
-5.5579 5.6750 2.3914
-5.7506 5.4629 2.3914
-5.9357 5.2446 2.3914
-6.1131 5.0205 2.3914
-6.2827 4.7908 2.3914
-6.4442 4.5558 2.3914
-6.5976 4.3157 2.3914
-6.7426 4.0708 2.3914
-6.8792 3.8215 2.3914
-7.0072 3.5679 2.3914
-7.1266 3.3103 2.3914
-7.2372 3.0490 2.3914
-7.3389 2.7843 2.3914
-7.4316 2.5164 2.3914
-7.5152 2.2457 2.3914
-7.5897 1.9724 2.3914
-7.6550 1.6968 2.3914
-7.7110 1.4192 2.3914
-7.7576 1.1399 2.3914
-7.7949 0.8591 2.3914
-7.8228 0.5772 2.3914
-7.8412 0.2945 2.3914
-7.8500 0.0111 2.3914
-7.8494 -0.2725 2.3914
-7.8393 -0.5561 2.3914
-7.8196 -0.8394 2.3914
-7.7904 -1.1220 2.3914
-7.7517 -1.4037 2.3914
-7.7035 -1.6843 2.3914
-7.6458 -1.9633 2.3914
-7.5786 -2.2405 2.3914
-7.5021 -2.5157 2.3914
-7.4162 -2.7884 2.3914
-7.3210 -3.0583 2.3914
-7.2166 -3.3254 2.3914
-7.1031 -3.5891 2.3914
-6.9804 -3.8495 2.3914
-6.8488 -4.1054 2.3914
-6.7083 -4.3574 2.3914
-6.5590 -4.6049 2.3914
-6.4011 -4.8477 2.3914
-6.2347 -5.0853 2.3914
-6.0599 -5.3176 2.3914
-5.8769 -5.5441 2.3914
-5.6858 -5.7648 2.3914
-5.4868 -5.9791 2.3914
-5.2801 -6.1870 2.3914
-5.0659 -6.3879 2.3914
-4.8443 -6.5819 2.3914
-4.6156 -6.7685 2.3914
-4.3800 -6.9474 2.3914
-4.1377 -7.1184 2.3914
-3.8891 -7.2813 2.3914
-3.6342 -7.4357 2.3914
-3.3735 -7.5815 2.3914
-3.1071 -7.7183 2.3914
-2.8354 -7.8460 2.3914
-2.5586 -7.9643 2.3914
-2.2771 -8.0731 2.3914
-1.9912 -8.1720 2.3914
-1.7013 -8.2609 2.3914
-1.4075 -8.3397 2.3914
-1.1104 -8.4081 2.3914
-0.8103 -8.4659 2.3914
-0.5075 -8.5130 2.3914
-0.2024 -8.5493 2.3914
0.1045 -8.5746 2.3914
0.4130 -8.5888 2.3914
0.7225 -8.5918 2.3914
1.0327 -8.5836 2.3914
1.3432 -8.5639 2.3914
1.6535 -8.5328 2.3914
1.9632 -8.4903 2.3914
2.2718 -8.4363 2.3914
2.5789 -8.3708 2.3914
2.8841 -8.2939 2.3914
3.0147 -7.7616 2.2621
3.2647 -7.5891 2.2390
3.5426 -7.4852 2.2390
3.8170 -7.3709 2.2391
4.0886 -7.2481 2.2398
4.3561 -7.1149 2.2405
4.6188 -6.9714 2.2412
4.8766 -6.8177 2.2419
5.1288 -6.6541 2.2425
5.3533 -6.4543 2.2341
5.5736 -6.2511 2.2272
5.8058 -6.0612 2.2281
5.6954 -5.5353 2.1050
6.2448 -5.6496 2.2284
6.4526 -5.4313 2.2286
6.6523 -5.2050 2.2287
6.8435 -4.9709 2.2289
7.0258 -4.7294 2.2291
7.1989 -4.4809 2.2293
7.3625 -4.2256 2.2295
7.5164 -3.9640 2.2297
7.6602 -3.6965 2.2300
7.7937 -3.4234 2.2302
7.9167 -3.1452 2.2304
8.0290 -2.8623 2.2307
8.1303 -2.5752 2.2309
5.5637 -1.5460 1.5101
5.5502 -1.3307 1.4923
8.3669 -1.6926 2.2317
8.4229 -1.3930 2.2320
8.4674 -1.0914 2.2323
8.5001 -0.7883 2.2325
8.5211 -0.4842 2.2328
8.5304 -0.1796 2.2331
8.5280 0.1251 2.2334
5.5036 0.2775 1.4440
8.4879 0.7326 2.2340
8.4503 1.0345 2.2343
8.4012 1.3345 2.2347
8.3407 1.6323 2.2350
8.2688 1.9272 2.2353
5.4806 1.4856 1.4968
5.4508 1.6887 1.5062
7.9868 2.7909 2.2362
7.8712 3.0702 2.2366
7.7453 3.3447 2.2369
7.6091 3.6138 2.2372
7.4630 3.8771 2.2375
7.3072 4.1344 2.2378
7.1421 4.3851 2.2381
6.9678 4.6291 2.2384
6.7848 4.8659 2.2387
5.3760 4.1545 1.8256
6.3936 5.3168 2.2393
6.1862 5.5304 2.2396
5.9713 5.7356 2.2399
5.7494 5.9323 2.2402
5.5207 6.1202 2.2404
5.2856 6.2990 2.2407
5.0446 6.4686 2.2409
4.8027 6.6353 2.2433
4.5499 6.7850 2.2432
4.2915 6.9235 2.2426
4.0289 7.0520 2.2419
3.7624 7.1705 2.2413
3.4925 7.2789 2.2406
3.2196 7.3771 2.2399
2.9441 7.4650 2.2393
2.6668 7.5440 2.2390
2.5505 8.1320 2.3914
0.8872 3.2301 0.9425
0.7706 3.2596 0.9450
0.6531 3.2848 0.9476
0.5347 3.3058 0.9501
0.4156 3.3225 0.9526
0.2960 3.3349 0.9551
0.1760 3.3430 0.9576
0.0558 3.3467 0.9600
-0.0645 3.3460 0.9625
-0.1846 3.3410 0.9649
-0.3046 3.3316 0.9673
-0.4241 3.3180 0.9696
-0.5430 3.3000 0.9719
-0.6612 3.2777 0.9742
-0.7786 3.2511 0.9764
-2.1868 7.8696 2.3914
-2.4627 7.7673 2.3914
-2.7343 7.6557 2.3914
-3.0013 7.5351 2.3914
-3.2634 7.4056 2.3914
-3.5204 7.2675 2.3914
-3.7720 7.1209 2.3914
-4.0179 6.9662 2.3914
-4.2578 6.8034 2.3914
-4.4917 6.6328 2.3914
-4.7192 6.4547 2.3914
-4.9401 6.2693 2.3914
-5.1542 6.0768 2.3914
-5.3613 5.8774 2.3914
-5.5612 5.6715 2.3914
-5.7538 5.4592 2.3914
-5.9388 5.2408 2.3914
-6.1161 5.0166 2.3914
-6.2855 4.7868 2.3914
-6.4469 4.5517 2.3914
-6.6001 4.3116 2.3914
-6.7450 4.0666 2.3914
-6.8815 3.8172 2.3914
-7.0093 3.5635 2.3914
-7.1286 3.3058 2.3914
-7.2390 3.0445 2.3914
-7.3405 2.7797 2.3914
-7.4331 2.5118 2.3914
-7.5165 2.2411 2.3914
-7.5909 1.9677 2.3914
-7.6560 1.6921 2.3914
-7.7118 1.4145 2.3914
-7.7583 1.1351 2.3914
-7.7955 0.8543 2.3914
-7.8232 0.5724 2.3914
-7.8414 0.2896 2.3914
-7.8501 0.0063 2.3914
-7.8493 -0.2773 2.3914
-7.8390 -0.5609 2.3914
-7.8192 -0.8443 2.3914
-7.7898 -1.1268 2.3914
-7.7510 -1.4085 2.3914
-7.7026 -1.6890 2.3914
-7.6447 -1.9680 2.3914
-7.5774 -2.2452 2.3914
-7.5007 -2.5205 2.3914
-7.4146 -2.7931 2.3914
-7.3193 -3.0629 2.3914
-7.2148 -3.3299 2.3914
-7.1010 -3.5935 2.3914
-6.9782 -3.8536 2.3914
-6.8464 -4.1100 2.3914
-6.7058 -4.3617 2.3914
-6.5564 -4.6091 2.3914
-6.3984 -4.8518 2.3914
-6.2318 -5.0893 2.3914
-6.0569 -5.3215 2.3914
-5.8737 -5.5479 2.3914
-5.6825 -5.7685 2.3914
-5.4833 -5.9827 2.3914
-5.2765 -6.1905 2.3914
-5.0621 -6.3914 2.3914
-4.8404 -6.5852 2.3914
-4.6116 -6.7716 2.3914
-4.3759 -6.9504 2.3914
-4.1335 -7.1213 2.3914
-3.8848 -7.2840 2.3914
-3.6298 -7.4383 2.3914
-3.3690 -7.5839 2.3914
-3.1025 -7.7206 2.3914
-2.8307 -7.8481 2.3914
-2.5538 -7.9663 2.3914
-2.2723 -8.0748 2.3914
-1.9863 -8.1736 2.3914
-1.6963 -8.2624 2.3914
-1.4025 -8.3409 2.3914
-1.1054 -8.4091 2.3914
-0.8051 -8.4668 2.3914
-0.5023 -8.5137 2.3914
-0.1972 -8.5498 2.3914
0.1098 -8.5749 2.3914
0.4183 -8.5890 2.3914
0.7278 -8.5918 2.3914
1.0380 -8.5833 2.3914
1.3485 -8.5635 2.3914
1.6588 -8.5322 2.3914
1.9684 -8.4895 2.3914
2.2771 -8.4353 2.3914
2.5842 -8.3696 2.3914
2.8893 -8.2924 2.3914
3.0150 -7.7486 2.2587
3.2695 -7.5874 2.2390
3.5473 -7.4833 2.2390
3.8217 -7.3689 2.2391
4.0933 -7.2459 2.2398
4.3606 -7.1125 2.2405
4.6233 -6.9688 2.2412
4.8809 -6.8150 2.2419
5.1330 -6.6512 2.2425
5.3570 -6.4509 2.2339
5.5774 -6.2476 2.2272
5.8096 -6.0576 2.2281
5.6952 -5.5283 2.1036
6.2484 -5.6459 2.2284
6.4561 -5.4275 2.2286
6.6557 -5.2011 2.2287
6.8467 -4.9669 2.2289
7.0288 -4.7252 2.2291
7.2018 -4.4766 2.2293
7.3652 -4.2212 2.2295
7.5189 -3.9595 2.2297
7.6626 -3.6919 2.2300
7.7959 -3.4187 2.2302
7.9187 -3.1404 2.2304
8.0308 -2.8575 2.2307
8.1319 -2.5702 2.2309
5.5635 -1.5423 1.5098
5.5501 -1.3271 1.4920
8.3680 -1.6876 2.2317
8.4238 -1.3878 2.2320
8.4680 -1.0862 2.2323
8.5006 -0.7831 2.2325
8.5214 -0.4790 2.2328
8.5305 -0.1744 2.2331
8.5278 0.1303 2.2334
7.5001 2.0215 2.2357
5.4541 1.6811 1.6447
7.3200 2.5458 2.2363
7.2153 2.8021 2.2365
7.1010 3.0539 2.2368
6.9775 3.3009 2.2371
6.8448 3.5427 2.2374
6.7033 3.7791 2.2377
6.5532 4.0096 2.2380
6.3947 4.2340 2.2383
6.2282 4.4519 2.2385
6.0538 4.6630 2.2388
5.8720 4.8672 2.2391
5.6829 5.0640 2.2393
5.4870 5.2533 2.2396
5.2845 5.4349 2.2398
5.0758 5.6084 2.2400
4.8638 5.7768 2.2414
4.6469 5.9383 2.2433
4.4198 6.0849 2.2427
4.1880 6.2227 2.2422
3.9518 6.3515 2.2416
3.7116 6.4713 2.2410
3.4678 6.5819 2.2404
3.2207 6.6833 2.2398
2.9708 6.7754 2.2392
2.7187 6.8592 2.2390
2.5830 7.2672 2.3464
0.9273 2.9389 0.9400
0.8212 2.9700 0.9423
0.7140 2.9972 0.9446
0.6059 3.0206 0.9470
0.4971 3.0400 0.9493
0.3876 3.0555 0.9516
0.2775 3.0670 0.9539
0.1672 3.0745 0.9562
0.0566 3.0780 0.9584
-0.0540 3.0775 0.9607
-0.1646 3.0730 0.9629
-0.2749 3.0646 0.9651
-0.3848 3.0521 0.9672
-0.4943 3.0357 0.9694
-0.6030 3.0153 0.9714
-0.7110 2.9910 0.9735
-0.8180 2.9628 0.9755
-2.2603 7.1704 2.3914
-2.5115 7.0688 2.3914
-2.7586 6.9589 2.3914
-3.0012 6.8408 2.3914
-3.2391 6.7146 2.3914
-3.4721 6.5805 2.3914
-3.6999 6.4387 2.3914
-3.9223 6.2895 2.3914
-4.1391 6.1329 2.3914
-4.3500 5.9693 2.3914
-4.5549 5.7990 2.3914
-4.7536 5.6220 2.3914
-4.9458 5.4386 2.3914
-5.1314 5.2489 2.3914
-5.3102 5.0534 2.3914
-5.4820 4.8521 2.3914
-5.6467 4.6455 2.3914
-5.8041 4.4335 2.3914
-5.9540 4.2166 2.3914
-6.0964 3.9949 2.3914
-6.2311 3.7688 2.3914
-6.3580 3.5384 2.3914
-6.4769 3.3040 2.3914
-6.5878 3.0659 2.3914
-6.6905 2.8244 2.3914
-6.7850 2.5796 2.3914
-6.8711 2.3319 2.3914
-6.9488 2.0815 2.3914
-7.0179 1.8287 2.3914
-7.0786 1.5737 2.3914
-7.1305 1.3169 2.3914
-7.1738 1.0585 2.3914
-7.2084 0.7987 2.3914
-7.2342 0.5378 2.3914
-7.2512 0.2762 2.3914
-7.2594 0.0141 2.3914
-7.2587 -0.2483 2.3914
-7.2491 -0.5106 2.3914
-7.2307 -0.7727 2.3914
-7.2035 -1.0341 2.3914
-7.1674 -1.2947 2.3914
-7.1225 -1.5541 2.3914
-7.0687 -1.8120 2.3914
-7.0062 -2.0683 2.3914
-6.9350 -2.3226 2.3914
-6.8551 -2.5746 2.3914
-6.7666 -2.8240 2.3914
-6.6695 -3.0706 2.3914
-6.5639 -3.3141 2.3914
-6.4500 -3.5542 2.3914
-6.3277 -3.7906 2.3914
-6.1972 -4.0231 2.3914
-6.0587 -4.2513 2.3914
-5.9121 -4.4750 2.3914
-5.7577 -4.6940 2.3914
-5.5956 -4.9079 2.3914
-5.4259 -5.1165 2.3914
-5.2487 -5.3195 2.3914
-5.0643 -5.5165 2.3914
-4.8728 -5.7076 2.3914
-4.6744 -5.8923 2.3914
-4.4693 -6.0703 2.3914
-4.2577 -6.2415 2.3914
-4.0397 -6.4055 2.3914
-3.8157 -6.5622 2.3914
-3.5858 -6.7112 2.3914
-3.3503 -6.8524 2.3914
-3.1094 -6.9856 2.3914
-2.8635 -7.1105 2.3914
-2.6127 -7.2269 2.3914
-2.3573 -7.3346 2.3914
-2.0977 -7.4335 2.3914
-1.8341 -7.5232 2.3914
-1.5669 -7.6037 2.3914
-1.2963 -7.6748 2.3914
-1.0227 -7.7363 2.3914
-0.7464 -7.7881 2.3914
-0.4677 -7.8300 2.3914
-0.1871 -7.8619 2.3914
0.0951 -7.8838 2.3914
0.3786 -7.8954 2.3914
0.6630 -7.8967 2.3914
0.9479 -7.8877 2.3914
1.2329 -7.8682 2.3914
1.5177 -7.8383 2.3914
1.8018 -7.7979 2.3914
2.0848 -7.7469 2.3914
2.3663 -7.6855 2.3914
2.6460 -7.6136 2.3914
2.9234 -7.5312 2.3914
3.0032 -6.9849 2.2456
3.2486 -6.8679 2.2390
3.4997 -6.7618 2.2390
3.7471 -6.6463 2.2391
3.9915 -6.5231 2.2397
4.2316 -6.3905 2.2403
4.4670 -6.2487 2.2409
4.6973 -6.0979 2.2415
4.9222 -5.9381 2.2421
5.1406 -5.7690 2.2425
5.3319 -5.5698 2.2340
5.5216 -5.3700 2.2282
5.7201 -5.1786 2.2290
5.9101 -4.9784 2.2292
6.0924 -4.7706 2.2293
6.2669 -4.5559 2.2295
6.4333 -4.3345 2.2297
6.5913 -4.1066 2.2299
6.7406 -3.8727 2.2300
6.8811 -3.6331 2.2302
7.0123 -3.3880 2.2305
7.1343 -3.1380 2.2307
7.2466 -2.8833 2.2309
7.3491 -2.6244 2.2311
7.4417 -2.3616 2.2314
7.5242 -2.0953 2.2316
7.5964 -1.8260 2.2319
7.6583 -1.5541 2.2321
7.7097 -1.2799 2.2324
7.7505 -1.0040 2.2326
7.7807 -0.7267 2.2329
7.8002 -0.4485 2.2331
7.8091 -0.1698 2.2334
7.8073 0.1090 2.2337
7.7948 0.3874 2.2340
7.7716 0.6650 2.2342
7.7379 0.9413 2.2345
7.6936 1.2160 2.2348
7.6389 1.4887 2.2351
5.4709 1.2705 1.6147
7.4987 2.0260 2.2357
5.4510 1.6838 1.6441
7.3183 2.5502 2.2363
7.2134 2.8064 2.2365
7.0990 3.0581 2.2368
6.9753 3.3051 2.2371
6.8425 3.5468 2.2374
6.7008 3.7831 2.2377
6.5505 4.0135 2.2380
6.3919 4.2377 2.2383
6.2252 4.4555 2.2385
6.0508 4.6666 2.2388
5.8688 4.8706 2.2391
5.6796 5.0673 2.2393
5.4836 5.2565 2.2396
5.2810 5.4379 2.2398
5.0722 5.6113 2.2400
4.8603 5.7799 2.2416
4.6431 5.9409 2.2433
4.4159 6.0873 2.2427
4.1840 6.2250 2.2422
3.9477 6.3536 2.2416
3.7075 6.4733 2.2410
3.4636 6.5837 2.2404
3.2165 6.6850 2.2398
2.9665 6.7769 2.2392
2.7144 6.8606 2.2390
2.5820 7.2787 2.3497
0.9255 2.9395 0.9400
0.8194 2.9705 0.9423
0.7122 2.9977 0.9447
0.6041 3.0209 0.9470
0.4952 3.0403 0.9493
0.3857 3.0557 0.9516
0.2757 3.0671 0.9539
0.1653 3.0746 0.9562
0.0547 3.0780 0.9585
-0.0559 3.0775 0.9607
-0.1665 3.0729 0.9629
-0.2768 3.0644 0.9651
-0.3867 3.0519 0.9673
-0.4961 3.0354 0.9694
-0.6049 3.0149 0.9715
-0.7128 2.9906 0.9735
-0.8198 2.9623 0.9755
-2.2647 7.1687 2.3914
-2.5158 7.0670 2.3914
-2.7627 6.9570 2.3914
-3.0053 6.8387 2.3914
-3.2431 6.7123 2.3914
-3.4760 6.5781 2.3914
-3.7037 6.4362 2.3914
-3.9260 6.2869 2.3914
-4.1427 6.1302 2.3914
-4.3536 5.9666 2.3914
-4.5583 5.7960 2.3914
-4.7569 5.6189 2.3914
-4.9490 5.4354 2.3914
-5.1345 5.2457 2.3914
-5.3131 5.0500 2.3914
-5.4848 4.8486 2.3914
-5.6494 4.6419 2.3914
-5.8067 4.4299 2.3914
-5.9565 4.2128 2.3914
-6.0988 3.9911 2.3914
-6.2334 3.7649 2.3914
-6.3601 3.5344 2.3914
-6.4789 3.3000 2.3914
-6.5896 3.0618 2.3914
-6.6922 2.8202 2.3914
-6.7865 2.5754 2.3914
-6.8725 2.3276 2.3914
-6.9500 2.0772 2.3914
-7.0191 1.8244 2.3914
-7.0795 1.5694 2.3914
-7.1314 1.3125 2.3914
-7.1745 1.0540 2.3914
-7.2089 0.7942 2.3914
-7.2346 0.5334 2.3914
-7.2514 0.2717 2.3914
-7.2594 0.0096 2.3914
-7.2586 -0.2528 2.3914
-7.2489 -0.5151 2.3914
-7.2304 -0.7771 2.3914
-7.2030 -1.0386 2.3914
-7.1667 -1.2991 2.3914
-7.1216 -1.5585 2.3914
-7.0677 -1.8164 2.3914
-7.0051 -2.0727 2.3914
-6.9337 -2.3269 2.3914
-6.8536 -2.5789 2.3914
-6.7650 -2.8282 2.3914
-6.6678 -3.0748 2.3914
-6.5621 -3.3182 2.3914
-6.4480 -3.5582 2.3914
-6.3256 -3.7946 2.3914
-6.1949 -4.0270 2.3914
-6.0562 -4.2552 2.3914
-5.9095 -4.4788 2.3914
-5.7550 -4.6977 2.3914
-5.5927 -4.9115 2.3914
-5.4229 -5.1200 2.3914
-5.2456 -5.3229 2.3914
-5.0611 -5.5200 2.3914
-4.8695 -5.7108 2.3914
-4.6710 -5.8954 2.3914
-4.4657 -6.0733 2.3914
-4.2540 -6.2443 2.3914
-4.0359 -6.4082 2.3914
-3.8118 -6.5648 2.3914
-3.5818 -6.7137 2.3914
-3.3462 -6.8548 2.3914
-3.1053 -6.9878 2.3914
-2.8592 -7.1126 2.3914
-2.6083 -7.2288 2.3914
-2.3529 -7.3364 2.3914
-2.0932 -7.4351 2.3914
-1.8296 -7.5247 2.3914
-1.5623 -7.6050 2.3914
-1.2916 -7.6759 2.3914
-1.0180 -7.7373 2.3914
-0.7416 -7.7889 2.3914
-0.4630 -7.8307 2.3914
-0.1823 -7.8624 2.3914
0.0999 -7.8840 2.3914
0.3834 -7.8955 2.3914
0.6678 -7.8967 2.3914
0.9527 -7.8874 2.3914
1.2378 -7.8678 2.3914
1.5225 -7.8377 2.3914
1.8066 -7.7971 2.3914
2.0896 -7.7460 2.3914
2.3711 -7.6844 2.3914
2.6508 -7.6123 2.3914
2.9281 -7.5297 2.3914
3.0050 -6.9775 2.2437
3.2529 -6.8661 2.2390
3.5040 -6.7600 2.2390
3.7513 -6.6443 2.2391
3.9957 -6.5209 2.2397
4.2357 -6.3881 2.2403
4.4710 -6.2462 2.2409
4.7012 -6.0952 2.2416
4.9259 -5.9353 2.2421
5.1441 -5.7658 2.2424
5.3351 -5.5663 2.2339
5.5249 -5.3666 2.2282
5.7234 -5.1753 2.2290
5.9133 -4.9749 2.2292
6.0954 -4.7671 2.2293
6.2698 -4.5522 2.2295
6.4361 -4.3306 2.2297
6.5939 -4.1027 2.2299
6.7431 -3.8687 2.2300
6.8834 -3.6289 2.2302
7.0145 -3.3838 2.2305
7.1362 -3.1337 2.2307
7.2484 -2.8789 2.2309
7.3508 -2.6199 2.2311
7.4432 -2.3571 2.2314
7.5255 -2.0908 2.2316
5.5502 -1.3306 1.6304
7.6593 -1.5494 2.2321
7.7105 -1.2752 2.2324
7.7511 -0.9993 2.2326
7.7811 -0.7220 2.2329
7.8005 -0.4437 2.2331
7.8092 -0.1650 2.2334
7.8071 0.1137 2.2337
7.7945 0.3921 2.2340
7.7711 0.6697 2.2342
7.7372 0.9460 2.2345
7.6928 1.2207 2.2348
7.6379 1.4933 2.2351
5.4708 1.2739 1.6149
7.4973 2.0306 2.2357
5.4509 1.6874 1.6444
7.3166 2.5546 2.2363
7.2115 2.8107 2.2366
7.0970 3.0624 2.2368
6.9731 3.3092 2.2371
6.8401 3.5509 2.2374
6.6983 3.7870 2.2377
6.5479 4.0173 2.2380
6.3892 4.2415 2.2383
6.2223 4.4592 2.2385
6.0477 4.6701 2.2388
5.8656 4.8740 2.2391
5.6763 5.0706 2.2393
5.4802 5.2596 2.2396
5.2775 5.4409 2.2398
5.0686 5.6142 2.2400
4.8569 5.7830 2.2417
4.6392 5.9434 2.2433
4.4119 6.0898 2.2427
4.1800 6.2272 2.2422
3.9436 6.3558 2.2416
3.7033 6.4752 2.2410
3.4594 6.5855 2.2404
3.2122 6.6866 2.2398
2.9622 6.7784 2.2392
2.7101 6.8620 2.2390
2.5811 7.2902 2.3530
0.9237 2.9401 0.9401
0.8176 2.9710 0.9424
0.7104 2.9981 0.9447
0.6022 3.0213 0.9470
0.4933 3.0406 0.9494
0.3838 3.0559 0.9517
0.2738 3.0673 0.9540
0.1634 3.0747 0.9563
0.0528 3.0781 0.9585
-0.0578 3.0774 0.9608
-0.1683 3.0728 0.9630
-0.2786 3.0642 0.9652
-0.3886 3.0516 0.9673
-0.4980 3.0351 0.9694
-0.6067 3.0145 0.9715
-0.7146 2.9901 0.9736
-0.8216 2.9618 0.9756
-2.2690 7.1670 2.3914
-2.5200 7.0652 2.3914
-2.7669 6.9550 2.3914
-3.0094 6.8366 2.3914
-3.2471 6.7101 2.3914
-3.4799 6.5758 2.3914
-3.7076 6.4337 2.3914
-3.9298 6.2843 2.3914
-4.1463 6.1275 2.3914
-4.3571 5.9637 2.3914
-4.5618 5.7931 2.3914
-4.7602 5.6158 2.3914
-4.9522 5.4322 2.3914
-5.1376 5.2425 2.3914
-5.3161 5.0467 2.3914
-5.4877 4.8451 2.3914
-5.6522 4.6383 2.3914
-5.8093 4.4262 2.3914
-5.9590 4.2091 2.3914
-6.1012 3.9873 2.3914
-6.2356 3.7610 2.3914
-6.3622 3.5304 2.3914
-6.4809 3.2959 2.3914
-6.5914 3.0577 2.3914
-6.6939 2.8161 2.3914
-6.7881 2.5712 2.3914
-6.8739 2.3234 2.3914
-6.9513 2.0729 2.3914
-7.0202 1.8200 2.3914
-7.0805 1.5650 2.3914
-7.1322 1.3081 2.3914
-7.1752 1.0496 2.3914
-7.2094 0.7898 2.3914
-7.2349 0.5289 2.3914
-7.2516 0.2673 2.3914
-7.2595 0.0051 2.3914
-7.2585 -0.2573 2.3914
-7.2487 -0.5196 2.3914
-7.2300 -0.7816 2.3914
-7.2024 -1.0430 2.3914
-7.1660 -1.3035 2.3914
-7.1208 -1.5629 2.3914
-7.0667 -1.8208 2.3914
-7.0039 -2.0770 2.3914
-6.9324 -2.3312 2.3914
-6.8522 -2.5831 2.3914
-6.7634 -2.8325 2.3914
-6.6660 -3.0790 2.3914
-6.5602 -3.3223 2.3914
-6.4459 -3.5623 2.3914
-6.3234 -3.7986 2.3914
-6.1926 -4.0309 2.3914
-6.0538 -4.2590 2.3914
-5.9070 -4.4826 2.3914
-5.7523 -4.7014 2.3914
-5.5899 -4.9151 2.3914
-5.4199 -5.1235 2.3914
-5.2426 -5.3263 2.3914
-5.0579 -5.5236 2.3914
-4.8662 -5.7139 2.3914
-4.6675 -5.8985 2.3914
-4.4622 -6.0763 2.3914
-4.2503 -6.2472 2.3914
-4.0322 -6.4110 2.3914
-3.8079 -6.5674 2.3914
-3.5779 -6.7162 2.3914
-3.3422 -6.8571 2.3914
-3.1011 -6.9900 2.3914
-2.8550 -7.1146 2.3914
-2.6040 -7.2307 2.3914
-2.3485 -7.3382 2.3914
-2.0888 -7.4367 2.3914
-1.8250 -7.5261 2.3914
-1.5577 -7.6063 2.3914
-1.2870 -7.6771 2.3914
-1.0133 -7.7382 2.3914
-0.7369 -7.7897 2.3914
-0.4582 -7.8313 2.3914
-0.1775 -7.8629 2.3914
0.1048 -7.8843 2.3914
0.3883 -7.8956 2.3914
0.6727 -7.8966 2.3914
0.9576 -7.8872 2.3914
1.2426 -7.8674 2.3914
1.5274 -7.8371 2.3914
1.8114 -7.7963 2.3914
2.0944 -7.7449 2.3914
2.3759 -7.6832 2.3914
2.6555 -7.6110 2.3914
2.9328 -7.5282 2.3914
3.0067 -6.9697 2.2417
3.2573 -6.8644 2.2390
3.5082 -6.7581 2.2390
3.7555 -6.6422 2.2391
3.9998 -6.5187 2.2397
4.2397 -6.3858 2.2403
4.4750 -6.2437 2.2410
4.7051 -6.0925 2.2416
4.9297 -5.9325 2.2421
5.1476 -5.7627 2.2423
5.3383 -5.5629 2.2338
5.5282 -5.3633 2.2281
5.7268 -5.1725 2.2290
5.9164 -4.9714 2.2292
5.6583 -4.4196 2.0684
6.2727 -4.5485 2.2295
6.4388 -4.3268 2.2297
6.5965 -4.0988 2.2299
6.7456 -3.8646 2.2301
6.8857 -3.6248 2.2303
7.0167 -3.3796 2.2305
7.1382 -3.1294 2.2307
7.2502 -2.8745 2.2309
7.3524 -2.6155 2.2311
7.4447 -2.3525 2.2314
7.5268 -2.0862 2.2316
5.5501 -1.3270 1.6302
7.6602 -1.5448 2.2321
7.7113 -1.2705 2.2324
7.7517 -0.9945 2.2326
7.7816 -0.7172 2.2329
7.8007 -0.4390 2.2331
7.8092 -0.1603 2.2334
7.8070 0.1185 2.2337
6.9113 1.8612 2.2357
5.4592 1.6813 1.7863
6.7465 2.3445 2.2363
6.6506 2.5808 2.2365
6.5460 2.8130 2.2368
6.4328 3.0409 2.2371
6.3113 3.2641 2.2373
6.1815 3.4823 2.2376
6.0439 3.6952 2.2378
5.8985 3.9025 2.2381
5.3945 3.8530 2.1015
5.5856 4.2991 2.2386
5.4187 4.4879 2.2388
5.2450 4.6701 2.2390
5.0651 4.8454 2.2393
4.8833 5.0182 2.2415
4.6947 5.1829 2.2433
4.4956 5.3349 2.2428
4.2915 5.4792 2.2423
4.0827 5.6155 2.2418
3.8695 5.7438 2.2413
3.6521 5.8638 2.2408
3.4310 5.9756 2.2402
3.2065 6.0789 2.2397
2.9789 6.1738 2.2391
2.7490 6.2612 2.2390
2.6073 6.5686 2.3195
2.4377 6.8476 2.3914
0.8590 2.7179 0.9400
0.7609 2.7466 0.9422
0.6618 2.7717 0.9444
0.5618 2.7933 0.9465
0.4611 2.8112 0.9487
0.3598 2.8255 0.9508
0.2581 2.8362 0.9529
0.1560 2.8431 0.9550
0.0538 2.8463 0.9571
-0.0486 2.8459 0.9592
-0.1508 2.8417 0.9612
-0.2528 2.8339 0.9633
-0.3545 2.8224 0.9653
-0.4557 2.8072 0.9672
-0.5563 2.7883 0.9692
-0.6561 2.7659 0.9710
-0.7551 2.7398 0.9729
-0.8530 2.7102 0.9747
-2.3261 6.5560 2.3914
-2.5556 6.4550 2.3914
-2.7811 6.3462 2.3914
-3.0022 6.2300 2.3914
-3.2188 6.1063 2.3914
-3.4307 5.9755 2.3914
-3.6375 5.8377 2.3914
-3.8392 5.6931 2.3914
-4.0355 5.5419 2.3914
-4.2262 5.3842 2.3914
-4.4111 5.2204 2.3914
-4.5901 5.0505 2.3914
-4.7629 4.8749 2.3914
-4.9294 4.6937 2.3914
-5.0895 4.5071 2.3914
-5.2429 4.3154 2.3914
-5.3895 4.1188 2.3914
-5.5293 3.9175 2.3914
-5.6619 3.7118 2.3914
-5.7874 3.5018 2.3914
-5.9056 3.2879 2.3914
-6.0165 3.0702 2.3914
-6.1198 2.8490 2.3914
-6.2154 2.6246 2.3914
-6.3034 2.3972 2.3914
-6.3836 2.1670 2.3914
-6.4560 1.9342 2.3914
-6.5204 1.6993 2.3914
-6.5768 1.4623 2.3914
-6.6251 1.2235 2.3914
-6.6653 0.9833 2.3914
-6.6974 0.7418 2.3914
-6.7213 0.4993 2.3914
-6.7369 0.2561 2.3914
-6.7444 0.0125 2.3914
-6.7435 -0.2314 2.3914
-6.7344 -0.4752 2.3914
-6.7170 -0.7188 2.3914
-6.6914 -0.9617 2.3914
-6.6575 -1.2038 2.3914
-6.6153 -1.4448 2.3914
-6.5650 -1.6844 2.3914
-6.5064 -1.9224 2.3914
-6.4398 -2.1585 2.3914
-6.3650 -2.3924 2.3914
-6.2822 -2.6239 2.3914
-6.1915 -2.8527 2.3914
-6.0929 -3.0786 2.3914
-5.9865 -3.3013 2.3914
-5.8723 -3.5204 2.3914
-5.7505 -3.7359 2.3914
-5.6212 -3.9474 2.3914
-5.4845 -4.1546 2.3914
-5.3405 -4.3573 2.3914
-5.1894 -4.5553 2.3914
-5.0312 -4.7481 2.3914
-4.8662 -4.9358 2.3914
-4.6945 -5.1181 2.3914
-4.5162 -5.2946 2.3914
-4.3315 -5.4651 2.3914
-4.1407 -5.6293 2.3914
-3.9439 -5.7872 2.3914
-3.7412 -5.9383 2.3914
-3.5330 -6.0826 2.3914
-3.3194 -6.2197 2.3914
-3.1006 -6.3496 2.3914
-2.8770 -6.4719 2.3914
-2.6487 -6.5865 2.3914
-2.4160 -6.6932 2.3914
-2.1791 -6.7918 2.3914
-1.9384 -6.8821 2.3914
-1.6941 -6.9640 2.3914
-1.4465 -7.0373 2.3914
-1.1958 -7.1018 2.3914
-0.9425 -7.1575 2.3914
-0.6868 -7.2041 2.3914
-0.4290 -7.2415 2.3914
-0.1695 -7.2698 2.3914
0.0915 -7.2887 2.3914
0.3535 -7.2982 2.3914
0.6163 -7.2981 2.3914
0.8794 -7.2885 2.3914
1.1426 -7.2693 2.3914
1.4054 -7.2404 2.3914
1.6675 -7.2018 2.3914
1.9285 -7.1536 2.3914
2.1882 -7.0957 2.3914
2.4460 -7.0281 2.3914
2.7016 -6.9509 2.3914
2.9546 -6.8642 2.3914
3.0005 -6.3367 2.2390
3.2316 -6.2378 2.2390
3.4593 -6.1304 2.2390
3.6832 -6.0143 2.2391
3.9038 -5.8909 2.2396
4.1202 -5.7593 2.2401
4.3317 -5.6194 2.2407
4.5383 -5.4714 2.2412
4.7394 -5.3155 2.2418
4.9347 -5.1518 2.2423
5.1232 -4.9798 2.2424
5.2875 -4.7843 2.2351
5.4483 -4.5870 2.2295
5.6151 -4.3949 2.2294
5.7765 -4.1975 2.2300
5.9293 -3.9932 2.2302
6.0743 -3.7830 2.2303
6.2114 -3.5673 2.2305
6.3403 -3.3464 2.2307
6.4608 -3.1205 2.2309
6.5727 -2.8901 2.2311
6.6758 -2.6554 2.2313
6.7699 -2.4169 2.2315
6.8549 -2.1749 2.2317
6.9306 -1.9297 2.2319
6.9970 -1.6817 2.2322
7.0538 -1.4314 2.2324
7.1011 -1.1790 2.2326
7.1387 -0.9250 2.2329
7.1666 -0.6697 2.2331
7.1847 -0.4136 2.2334
7.1930 -0.1570 2.2336
7.1915 0.0997 2.2339
7.1803 0.3560 2.2342
7.1592 0.6116 2.2344
7.1285 0.8661 2.2347
7.0881 1.1191 2.2349
7.0382 1.3702 2.2352
6.9788 1.6191 2.2355
6.9100 1.8654 2.2357
5.4510 1.6824 1.7840
6.7449 2.3486 2.2363
6.6489 2.5848 2.2365
6.5442 2.8170 2.2368
6.4308 3.0448 2.2371
6.3091 3.2679 2.2373
6.1792 3.4860 2.2376
6.0414 3.6988 2.2378
5.8959 3.9059 2.2381
5.3920 3.8561 2.1015
5.5828 4.3024 2.2386
5.4158 4.4911 2.2388
5.2420 4.6732 2.2390
5.0619 4.8484 2.2393
4.8803 5.0211 2.2416
4.6913 5.1855 2.2433
4.4922 5.3374 2.2428
4.2880 5.4816 2.2423
4.0791 5.6178 2.2418
3.8658 5.7459 2.2413
3.6484 5.8658 2.2408
3.4272 5.9774 2.2402
3.2026 6.0806 2.2397
2.9749 6.1753 2.2391
2.7450 6.2626 2.2390
2.6065 6.5783 2.3225
2.4334 6.8488 2.3914
0.8574 2.7184 0.9401
0.7592 2.7470 0.9422
0.6601 2.7721 0.9444
0.5601 2.7936 0.9466
0.4594 2.8115 0.9487
0.3581 2.8257 0.9508
0.2563 2.8363 0.9530
0.1543 2.8432 0.9551
0.0520 2.8464 0.9572
-0.0503 2.8458 0.9592
-0.1525 2.8416 0.9613
-0.2546 2.8337 0.9633
-0.3562 2.8221 0.9653
-0.4574 2.8069 0.9673
-0.5580 2.7880 0.9692
-0.6578 2.7654 0.9711
-0.7567 2.7393 0.9729
-0.8547 2.7096 0.9747
-2.3301 6.5544 2.3914
-2.5595 6.4532 2.3914
-2.7849 6.3443 2.3914
-3.0059 6.2279 2.3914
-3.2225 6.1042 2.3914
-3.4342 5.9732 2.3914
-3.6410 5.8353 2.3914
-3.8426 5.6906 2.3914
-4.0388 5.5392 2.3914
-4.2294 5.3815 2.3914
-4.4142 5.2175 2.3914
-4.5931 5.0476 2.3914
-4.7658 4.8718 2.3914
-4.9322 4.6905 2.3914
-5.0921 4.5039 2.3914
-5.2454 4.3123 2.3914
-5.3920 4.1154 2.3914
-5.5316 3.9140 2.3914
-5.6641 3.7082 2.3914
-5.7895 3.4982 2.3914
-5.9076 3.2842 2.3914
-6.0183 3.0664 2.3914
-6.1215 2.8452 2.3914
-6.2170 2.6207 2.3914
-6.3049 2.3932 2.3914
-6.3849 2.1630 2.3914
-6.4571 1.9303 2.3914
-6.5214 1.6952 2.3914
-6.5776 1.4582 2.3914
-6.6258 1.2195 2.3914
-6.6659 0.9792 2.3914
-6.6979 0.7377 2.3914
-6.7216 0.4952 2.3914
-6.7371 0.2520 2.3914
-6.7444 0.0083 2.3914
-6.7434 -0.2356 2.3914
-6.7342 -0.4794 2.3914
-6.7166 -0.7229 2.3914
-6.6909 -0.9658 2.3914
-6.6568 -1.2079 2.3914
-6.6145 -1.4489 2.3914
-6.5640 -1.6885 2.3914
-6.5054 -1.9264 2.3914
-6.4386 -2.1625 2.3914
-6.3637 -2.3964 2.3914
-6.2808 -2.6278 2.3914
-6.1899 -2.8566 2.3914
-6.0911 -3.0824 2.3914
-5.9846 -3.3050 2.3914
-5.8703 -3.5242 2.3914
-5.7484 -3.7395 2.3914
-5.6190 -3.9509 2.3914
-5.4821 -4.1581 2.3914
-5.3380 -4.3607 2.3914
-5.1868 -4.5586 2.3914
-5.0285 -4.7514 2.3914
-4.8633 -4.9391 2.3914
-4.6915 -5.1212 2.3914
-4.5131 -5.2975 2.3914
-4.3283 -5.4679 2.3914
-4.1374 -5.6321 2.3914
-3.9404 -5.7898 2.3914
-3.7377 -5.9408 2.3914
-3.5294 -6.0850 2.3914
-3.3157 -6.2220 2.3914
-3.0969 -6.3517 2.3914
-2.8731 -6.4739 2.3914
-2.6448 -6.5884 2.3914
-2.4120 -6.6949 2.3914
-2.1750 -6.7934 2.3914
-1.9343 -6.8836 2.3914
-1.6899 -6.9653 2.3914
-1.4422 -7.0385 2.3914
-1.1915 -7.1028 2.3914
-0.9382 -7.1583 2.3914
-0.6824 -7.2048 2.3914
-0.4246 -7.2422 2.3914
-0.1650 -7.2702 2.3914
0.0960 -7.2890 2.3914
0.3580 -7.2982 2.3914
0.6208 -7.2980 2.3914
0.8839 -7.2882 2.3914
1.1470 -7.2689 2.3914
1.4099 -7.2398 2.3914
1.6720 -7.2011 2.3914
1.9330 -7.1527 2.3914
2.1926 -7.0946 2.3914
2.4503 -7.0269 2.3914
2.7059 -6.9495 2.3914
2.9589 -6.8626 2.3914
3.0045 -6.3349 2.2390
3.2355 -6.2361 2.2390
3.4632 -6.1285 2.2390
3.6870 -6.0122 2.2391
3.9076 -5.8887 2.2396
4.1238 -5.7570 2.2402
4.3353 -5.6170 2.2407
4.5417 -5.4688 2.2412
4.7427 -5.3128 2.2418
4.9380 -5.1490 2.2423
5.1262 -4.9767 2.2424
5.2903 -4.7813 2.2349
5.4511 -4.5839 2.2294
5.6180 -4.3916 2.2294
5.7792 -4.1941 2.2300
5.9318 -3.9896 2.2302
6.0767 -3.7794 2.2303
6.2137 -3.5636 2.2305
6.3424 -3.3425 2.2307
6.4628 -3.1166 2.2309
6.5745 -2.8861 2.2311
6.6774 -2.6514 2.2313
6.7714 -2.4128 2.2315
6.8563 -2.1707 2.2317
6.9318 -1.9255 2.2319
5.5502 -1.3304 1.7704
7.0547 -1.4271 2.2324
7.1018 -1.1747 2.2326
7.1393 -0.9206 2.2329
7.1670 -0.6653 2.2331
7.1849 -0.4092 2.2334
7.1930 -0.1526 2.2336
7.1914 0.1041 2.2339
7.1800 0.3604 2.2342
7.1588 0.6160 2.2344
7.1279 0.8704 2.2347
7.0873 1.1234 2.2349
7.0372 1.3745 2.2352
6.9777 1.6233 2.2355
6.9088 1.8696 2.2357
5.4509 1.6860 1.7844
6.7434 2.3526 2.2363
6.6472 2.5888 2.2365
6.5423 2.8209 2.2368
6.4288 3.0486 2.2371
6.3070 3.2717 2.2373
6.1770 3.4897 2.2376
6.0390 3.7023 2.2378
5.8934 3.9094 2.2381
5.3894 3.8594 2.1015
5.5800 4.3056 2.2386
5.4128 4.4942 2.2388
5.2390 4.6762 2.2391
5.0588 4.8513 2.2393
4.8773 5.0243 2.2417
4.6880 5.1882 2.2433
4.4888 5.3400 2.2428
4.2845 5.4840 2.2423
4.0755 5.6200 2.2418
3.8621 5.7480 2.2413
3.6446 5.8678 2.2408
3.4234 5.9793 2.2402
3.1988 6.0823 2.2397
2.9710 6.1769 2.2391
2.7411 6.2640 2.2390
2.6057 6.5880 2.3254
2.4291 6.8500 2.3914
0.8557 2.7189 0.9401
0.7575 2.7475 0.9423
0.6584 2.7725 0.9444
0.5584 2.7940 0.9466
0.4577 2.8118 0.9487
0.3564 2.8260 0.9509
0.2546 2.8365 0.9530
0.1525 2.8433 0.9551
0.0503 2.8464 0.9572
-0.0520 2.8458 0.9593
-0.1543 2.8415 0.9613
-0.2563 2.8336 0.9633
-0.3580 2.8219 0.9653
-0.4591 2.8066 0.9673
-0.5597 2.7876 0.9692
-0.6595 2.7650 0.9711
-0.7584 2.7388 0.9730
-0.8563 2.7091 0.9748
-2.3340 6.5527 2.3914
-2.5634 6.4514 2.3914
-2.7887 6.3424 2.3914
-3.0097 6.2259 2.3914
-3.2261 6.1020 2.3914
-3.4378 5.9709 2.3914
-3.6445 5.8329 2.3914
-3.8460 5.6880 2.3914
-4.0421 5.5366 2.3914
-4.2326 5.3787 2.3914
-4.4173 5.2147 2.3914
-4.5961 5.0446 2.3914
-4.7687 4.8688 2.3914
-4.9350 4.6874 2.3914
-5.0948 4.5007 2.3914
-5.2480 4.3090 2.3914
-5.3944 4.1120 2.3914
-5.5339 3.9106 2.3914
-5.6663 3.7047 2.3914
-5.7916 3.4946 2.3914
-5.9096 3.2805 2.3914
-6.0201 3.0627 2.3914
-6.1231 2.8414 2.3914
-6.2186 2.6169 2.3914
-6.3063 2.3893 2.3914
-6.3862 2.1591 2.3914
-6.4583 1.9263 2.3914
-6.5224 1.6912 2.3914
-6.5785 1.4542 2.3914
-6.6266 1.2154 2.3914
-6.6666 0.9751 2.3914
-6.6983 0.7336 2.3914
-6.7220 0.4910 2.3914
-6.7373 0.2478 2.3914
-6.7445 0.0041 2.3914
-6.7433 -0.2397 2.3914
-6.7339 -0.4836 2.3914
-6.7163 -0.7271 2.3914
-6.6903 -0.9700 2.3914
-6.6561 -1.2120 2.3914
-6.6137 -1.4530 2.3914
-6.5631 -1.6925 2.3914
-6.5043 -1.9305 2.3914
-6.4374 -2.1665 2.3914
-6.3623 -2.4003 2.3914
-6.2793 -2.6318 2.3914
-6.1883 -2.8605 2.3914
-6.0894 -3.0862 2.3914
-5.9827 -3.3088 2.3914
-5.8683 -3.5279 2.3914
-5.7462 -3.7432 2.3914
-5.6167 -3.9545 2.3914
-5.4797 -4.1616 2.3914
-5.3355 -4.3641 2.3914
-5.1841 -4.5619 2.3914
-5.0257 -4.7548 2.3914
-4.8605 -4.9420 2.3914
-4.6885 -5.1242 2.3914
-4.5100 -5.3005 2.3914
-4.3251 -5.4708 2.3914
-4.1341 -5.6348 2.3914
-3.9370 -5.7924 2.3914
-3.7342 -5.9434 2.3914
-3.5258 -6.0874 2.3914
-3.3120 -6.2243 2.3914
-3.0931 -6.3539 2.3914
-2.8693 -6.4759 2.3914
-2.6408 -6.5903 2.3914
-2.4080 -6.6967 2.3914
-2.1710 -6.7950 2.3914
-1.9301 -6.8850 2.3914
-1.6857 -6.9666 2.3914
-1.4380 -7.0396 2.3914
-1.1872 -7.1039 2.3914
-0.9338 -7.1592 2.3914
-0.6780 -7.2055 2.3914
-0.4202 -7.2427 2.3914
-0.1606 -7.2706 2.3914
0.1004 -7.2892 2.3914
0.3625 -7.2983 2.3914
0.6252 -7.2979 2.3914
0.8884 -7.2880 2.3914
1.1515 -7.2684 2.3914
1.4143 -7.2392 2.3914
1.6764 -7.2003 2.3914
1.9374 -7.1518 2.3914
2.1970 -7.0935 2.3914
2.4547 -7.0256 2.3914
2.7102 -6.9481 2.3914
2.9632 -6.8611 2.3914
3.0084 -6.3334 2.2390
3.2394 -6.2343 2.2390
3.4670 -6.1265 2.2390
3.6908 -6.0102 2.2391
3.9113 -5.8866 2.2396
4.1275 -5.7547 2.2402
4.3389 -5.6145 2.2407
4.5452 -5.4663 2.2413
4.7461 -5.3100 2.2418
4.9413 -5.1461 2.2423
5.1292 -4.9735 2.2423
5.2930 -4.7778 2.2348
5.4539 -4.5805 2.2294
5.6208 -4.3883 2.2294
5.7818 -4.1907 2.2300
5.9343 -3.9861 2.2302
6.0791 -3.7757 2.2303
6.2159 -3.5598 2.2305
6.3445 -3.3387 2.2307
6.4647 -3.1127 2.2309
6.5763 -2.8822 2.2311
6.6791 -2.6474 2.2313
6.7729 -2.4087 2.2315
6.8576 -2.1666 2.2317
6.9330 -1.9213 2.2319
5.5501 -1.3268 1.7701
7.0556 -1.4228 2.2324
7.1025 -1.1703 2.2327
7.1398 -0.9162 2.2329
7.1673 -0.6610 2.2331
7.1851 -0.4048 2.2334
7.1931 -0.1482 2.2337
7.1913 0.1084 2.2339
6.4015 1.7224 2.2358
5.4643 1.6815 1.9302
6.2499 2.1702 2.2362
6.1616 2.3891 2.2365
6.0652 2.6044 2.2367
5.9609 2.8157 2.2370
5.8489 3.0227 2.2372
5.7293 3.2251 2.2375
5.6023 3.4226 2.2377
5.4682 3.6150 2.2379
5.3272 3.8020 2.2381
5.1795 3.9834 2.2384
5.0247 4.1584 2.2383
4.8743 4.3365 2.2431
4.7076 4.4998 2.2432
4.5341 4.6553 2.2428
4.3553 4.8040 2.2424
4.1715 4.9458 2.2419
3.9829 5.0804 2.2415
3.7898 5.2076 2.2410
3.5926 5.3275 2.2406
3.3916 5.4398 2.2401
3.1870 5.5444 2.2396
2.9791 5.6412 2.2391
2.7688 5.7313 2.2390
2.6271 5.9756 2.3013
2.5000 6.2892 2.3914
0.8896 2.4951 0.9381
0.7995 2.5250 0.9401
0.7083 2.5517 0.9421
0.6162 2.5750 0.9441
0.5233 2.5951 0.9461
0.4297 2.6117 0.9481
0.3356 2.6250 0.9501
0.2411 2.6348 0.9521
0.1463 2.6413 0.9540
0.0513 2.6443 0.9560
-0.0438 2.6438 0.9579
-0.1388 2.6400 0.9598
-0.2336 2.6327 0.9617
-0.3280 2.6220 0.9635
-0.4221 2.6078 0.9654
-0.5155 2.5903 0.9672
-0.6083 2.5695 0.9689
-0.7002 2.5453 0.9706
-0.7912 2.5177 0.9723
-0.8812 2.4869 0.9740
-2.3776 6.0129 2.3914
-2.5879 5.9123 2.3914
-2.7943 5.8046 2.3914
-2.9965 5.6901 2.3914
-3.1943 5.5688 2.3914
-3.3875 5.4409 2.3914
-3.5758 5.3066 2.3914
-3.7592 5.1662 2.3914
-3.9374 5.0197 2.3914
-4.1102 4.8674 2.3914
-4.2774 4.7094 2.3914
-4.4389 4.5459 2.3914
-4.5946 4.3773 2.3914
-4.7442 4.2036 2.3914
-4.8877 4.0250 2.3914
-5.0248 3.8419 2.3914
-5.1554 3.6543 2.3914
-5.2795 3.4625 2.3914
-5.3969 3.2668 2.3914
-5.5074 3.0673 2.3914
-5.6111 2.8643 2.3914
-5.7077 2.6581 2.3914
-5.7971 2.4487 2.3914
-5.8794 2.2365 2.3914
-5.9544 2.0217 2.3914
-6.0220 1.8046 2.3914
-6.0822 1.5853 2.3914
-6.1348 1.3641 2.3914
-6.1800 1.1413 2.3914
-6.2175 0.9171 2.3914
-6.2474 0.6917 2.3914
-6.2696 0.4654 2.3914
-6.2841 0.2384 2.3914
-6.2909 0.0110 2.3914
-6.2899 -0.2166 2.3914
-6.2812 -0.4441 2.3914
-6.2647 -0.6713 2.3914
-6.2405 -0.8980 2.3914
-6.2086 -1.1238 2.3914
-6.1690 -1.3486 2.3914
-6.1216 -1.5721 2.3914
-6.0667 -1.7940 2.3914
-6.0041 -2.0141 2.3914
-5.9339 -2.2322 2.3914
-5.8563 -2.4479 2.3914
-5.7712 -2.6611 2.3914
-5.6788 -2.8716 2.3914
-5.5790 -3.0789 2.3914
-5.4721 -3.2830 2.3914
-5.3580 -3.4836 2.3914
-5.2369 -3.6807 2.3914
-5.1090 -3.8733 2.3914
-4.9742 -4.0615 2.3914
-4.8328 -4.2457 2.3914
-4.6849 -4.4250 2.3914
-4.5306 -4.5994 2.3914
-4.3701 -4.7686 2.3914
-4.2034 -4.9323 2.3914
-4.0309 -5.0905 2.3914
-3.8527 -5.2428 2.3914
-3.6689 -5.3891 2.3914
-3.4797 -5.5291 2.3914
-3.2854 -5.6626 2.3914
-3.0861 -5.7895 2.3914
-2.8821 -5.9095 2.3914
-2.6736 -6.0224 2.3914
-2.4608 -6.1282 2.3914
-2.2440 -6.2265 2.3914
-2.0234 -6.3173 2.3914
-1.7992 -6.4003 2.3914
-1.5718 -6.4755 2.3914
-1.3413 -6.5426 2.3914
-1.1082 -6.6016 2.3914
-0.8726 -6.6523 2.3914
-0.6348 -6.6946 2.3914
-0.3952 -6.7284 2.3914
-0.1540 -6.7536 2.3914
0.0884 -6.7701 2.3914
0.3317 -6.7778 2.3914
0.5756 -6.7768 2.3914
0.8198 -6.7668 2.3914
1.0639 -6.7479 2.3914
1.3077 -6.7201 2.3914
1.5507 -6.6833 2.3914
1.7927 -6.6376 2.3914
2.0333 -6.5827 2.3914
2.2721 -6.5193 2.3914
2.5088 -6.4468 2.3914
2.7431 -6.3655 2.3914
2.9517 -6.2270 2.3729
2.9989 -5.7831 2.2390
3.2096 -5.6826 2.2390
3.4167 -5.5743 2.2390
3.6200 -5.4582 2.2391
3.8196 -5.3353 2.2395
4.0151 -5.2050 2.2400
4.2058 -5.0673 2.2405
4.3915 -4.9223 2.2410
4.5718 -4.7701 2.2414
4.7466 -4.6111 2.2419
4.9154 -4.4454 2.2423
5.0780 -4.2731 2.2428
5.2202 -4.0838 2.2372
5.3539 -3.8886 2.2313
5.4911 -3.6964 2.2298
5.6268 -3.5035 2.2307
5.7534 -3.3030 2.2309
5.8723 -3.0983 2.2311
5.9835 -2.8890 2.2312
6.0868 -2.6756 2.2314
6.1820 -2.4583 2.2316
6.2689 -2.2375 2.2318
6.3473 -2.0134 2.2320
6.4173 -1.7865 2.2322
6.4785 -1.5570 2.2324
6.5311 -1.3252 2.2327
6.5748 -1.0917 2.2329
6.6095 -0.8566 2.2331
6.6354 -0.6204 2.2333
6.6522 -0.3833 2.2336
6.6600 -0.1459 2.2338
6.6588 0.0916 2.2340
6.6486 0.3288 2.2343
6.6293 0.5654 2.2345
6.6012 0.8010 2.2348
6.5641 1.0352 2.2350
6.5182 1.2677 2.2353
5.4710 1.2681 1.8922
6.4004 1.7263 2.2358
5.4511 1.6810 1.9260
6.2484 2.1739 2.2363
6.1600 2.3928 2.2365
6.0635 2.6080 2.2367
5.9591 2.8192 2.2370
5.8469 3.0262 2.2372
5.7271 3.2285 2.2375
5.6001 3.4259 2.2377
5.4658 3.6182 2.2379
5.3247 3.8052 2.2382
5.1769 3.9864 2.2384
5.0220 4.1613 2.2383
4.8716 4.3394 2.2431
4.7047 4.5025 2.2432
4.5311 4.6579 2.2428
4.3522 4.8065 2.2424
4.1683 4.9481 2.2419
3.9796 5.0826 2.2415
3.7865 5.2097 2.2410
3.5892 5.3295 2.2405
3.3881 5.4416 2.2401
3.1834 5.5461 2.2396
2.9755 5.6428 2.2391
2.7652 5.7328 2.2390
2.6264 5.9839 2.3039
2.4961 6.2905 2.3914
0.8881 2.4956 0.9381
0.7979 2.5255 0.9401
0.7067 2.5521 0.9422
0.6146 2.5754 0.9442
0.5217 2.5954 0.9462
0.4281 2.6120 0.9482
0.3340 2.6252 0.9501
0.2395 2.6350 0.9521
0.1447 2.6413 0.9541
0.0496 2.6443 0.9560
-0.0454 2.6438 0.9579
-0.1404 2.6399 0.9598
-0.2352 2.6325 0.9617
-0.3296 2.6218 0.9636
-0.4237 2.6076 0.9654
-0.5171 2.5900 0.9672
-0.6098 2.5691 0.9689
-0.7018 2.5448 0.9707
-0.7927 2.5172 0.9723
-0.8827 2.4864 0.9740
-2.3812 6.0112 2.3914
-2.5915 5.9105 2.3914
-2.7978 5.8027 2.3914
-2.9999 5.6880 2.3914
-3.1976 5.5666 2.3914
-3.3907 5.4387 2.3914
-3.5790 5.3043 2.3914
-3.7623 5.1637 2.3914
-3.9404 5.0172 2.3914
-4.1130 4.8647 2.3914
-4.2802 4.7066 2.3914
-4.4416 4.5431 2.3914
-4.5972 4.3744 2.3914
-4.7467 4.2006 2.3914
-4.8900 4.0220 2.3914
-5.0271 3.8387 2.3914
-5.1576 3.6511 2.3914
-5.2816 3.4592 2.3914
-5.3988 3.2634 2.3914
-5.5093 3.0639 2.3914
-5.6128 2.8608 2.3914
-5.7093 2.6545 2.3914
-5.7986 2.4451 2.3914
-5.8808 2.2329 2.3914
-5.9556 2.0180 2.3914
-6.0231 1.8009 2.3914
-6.0831 1.5815 2.3914
-6.1357 1.3604 2.3914
-6.1807 1.1375 2.3914
-6.2181 0.9133 2.3914
-6.2478 0.6879 2.3914
-6.2699 0.4616 2.3914
-6.2843 0.2346 2.3914
-6.2909 0.0072 2.3914
-6.2898 -0.2204 2.3914
-6.2810 -0.4480 2.3914
-6.2644 -0.6752 2.3914
-6.2401 -0.9018 2.3914
-6.2080 -1.1276 2.3914
-6.1682 -1.3524 2.3914
-6.1208 -1.5759 2.3914
-6.0657 -1.7978 2.3914
-6.0030 -2.0179 2.3914
-5.9327 -2.2359 2.3914
-5.8549 -2.4516 2.3914
-5.7697 -2.6648 2.3914
-5.6771 -2.8751 2.3914
-5.5773 -3.0825 2.3914
-5.4702 -3.2865 2.3914
-5.3560 -3.4870 2.3914
-5.2348 -3.6836 2.3914
-5.1067 -3.8767 2.3914
-4.9719 -4.0646 2.3914
-4.8304 -4.2488 2.3914
-4.6823 -4.4281 2.3914
-4.5279 -4.6023 2.3914
-4.3673 -4.7714 2.3914
-4.2006 -4.9351 2.3914
-4.0279 -5.0932 2.3914
-3.8496 -5.2454 2.3914
-3.6657 -5.3915 2.3914
-3.4764 -5.5314 2.3914
-3.2820 -5.6648 2.3914
-3.0827 -5.7916 2.3914
-2.8786 -5.9115 2.3914
-2.6700 -6.0243 2.3914
-2.4572 -6.1299 2.3914
-2.2402 -6.2281 2.3914
-2.0196 -6.3188 2.3914
-1.7953 -6.4017 2.3914
-1.5679 -6.4767 2.3914
-1.3374 -6.5437 2.3914
-1.1042 -6.6025 2.3914
-0.8685 -6.6531 2.3914
-0.6307 -6.6953 2.3914
-0.3911 -6.7289 2.3914
-0.1499 -6.7540 2.3914
0.0925 -6.7703 2.3914
0.3358 -6.7779 2.3914
0.5797 -6.7767 2.3914
0.8239 -6.7666 2.3914
1.0681 -6.7475 2.3914
1.3118 -6.7195 2.3914
1.5548 -6.6826 2.3914
1.7968 -6.6367 2.3914
2.0373 -6.5819 2.3914
2.2761 -6.5181 2.3914
2.5128 -6.4455 2.3914
2.7471 -6.3641 2.3914
2.9520 -6.2177 2.3700
3.0026 -5.7815 2.2390
3.2131 -5.6809 2.2390
3.4202 -5.5724 2.2390
3.6234 -5.4562 2.2391
3.8230 -5.3331 2.2395
4.0184 -5.2027 2.2400
4.2090 -5.0649 2.2405
4.3946 -4.9197 2.2410
4.5749 -4.7675 2.2414
4.7495 -4.6083 2.2419
4.9182 -4.4425 2.2424
5.0807 -4.2701 2.2428
5.2225 -4.0805 2.2371
5.3561 -3.8853 2.2312
5.4934 -3.6932 2.2298
5.6291 -3.5001 2.2307
5.7555 -3.2995 2.2309
5.8743 -3.0947 2.2311
5.9854 -2.8854 2.2313
6.0885 -2.6719 2.2314
6.1835 -2.4546 2.2316
6.2703 -2.2337 2.2318
6.3486 -2.0096 2.2320
6.4184 -1.7826 2.2322
5.5502 -1.3303 1.9123
6.5319 -1.3213 2.2327
6.5754 -1.0877 2.2329
6.6101 -0.8526 2.2331
6.6357 -0.6163 2.2333
6.6524 -0.3793 2.2336
6.6601 -0.1418 2.2338
6.6587 0.0957 2.2340
6.6483 0.3329 2.2343
6.6289 0.5695 2.2345
6.6006 0.8050 2.2348
6.5634 1.0392 2.2350
6.5174 1.2717 2.2353
5.4709 1.2716 1.8925
6.3992 1.7302 2.2358
5.4510 1.6846 1.9263
6.2470 2.1777 2.2363
6.1584 2.3965 2.2365
6.0618 2.6117 2.2367
5.9572 2.8228 2.2370
5.8449 3.0296 2.2372
5.7250 3.2319 2.2375
5.5978 3.4293 2.2377
5.4635 3.6215 2.2379
5.3222 3.8083 2.2382
5.1743 3.9895 2.2384
5.0193 4.1642 2.2383
4.8689 4.3423 2.2432
4.7018 4.5052 2.2432
4.5281 4.6605 2.2428
4.3491 4.8090 2.2424
4.1651 4.9505 2.2419
3.9763 5.0848 2.2415
3.7832 5.2119 2.2410
3.5858 5.3314 2.2405
3.3846 5.4434 2.2400
3.1799 5.5478 2.2396
2.9720 5.6444 2.2390
2.7616 5.7343 2.2390
2.6256 5.9922 2.3066
2.4921 6.2918 2.3914
0.8866 2.4962 0.9382
0.7964 2.5260 0.9402
0.7052 2.5525 0.9422
0.6130 2.5758 0.9442
0.5201 2.5957 0.9462
0.4265 2.6122 0.9482
0.3324 2.6254 0.9502
0.2379 2.6351 0.9521
0.1430 2.6414 0.9541
0.0480 2.6443 0.9561
-0.0470 2.6438 0.9580
-0.1420 2.6398 0.9599
-0.2368 2.6324 0.9618
-0.3312 2.6215 0.9636
-0.4253 2.6073 0.9654
-0.5187 2.5897 0.9672
-0.6114 2.5687 0.9690
-0.7033 2.5444 0.9707
-0.7943 2.5167 0.9724
-0.8842 2.4858 0.9740
-2.3848 6.0096 2.3914
-2.5950 5.9087 2.3914
-2.8013 5.8008 2.3914
-3.0033 5.6860 2.3914
-3.2009 5.5645 2.3914
-3.3940 5.4364 2.3914
-3.5822 5.3020 2.3914
-3.7654 5.1613 2.3914
-3.9433 5.0146 2.3914
-4.1159 4.8621 2.3914
-4.2830 4.7039 2.3914
-4.4443 4.5403 2.3914
-4.5998 4.3714 2.3914
-4.7492 4.1976 2.3914
-4.8924 4.0189 2.3914
-5.0293 3.8355 2.3914
-5.1598 3.6478 2.3914
-5.2836 3.4559 2.3914
-5.4008 3.2601 2.3914
-5.5111 3.0605 2.3914
-5.6145 2.8574 2.3914
-5.7108 2.6510 2.3914
-5.8001 2.4415 2.3914
-5.8821 2.2292 2.3914
-5.9568 2.0144 2.3914
-6.0242 1.7971 2.3914
-6.0841 1.5778 2.3914
-6.1365 1.3566 2.3914
-6.1814 1.1337 2.3914
-6.2186 0.9094 2.3914
-6.2483 0.6840 2.3914
-6.2702 0.4577 2.3914
-6.2845 0.2307 2.3914
-6.2910 0.0033 2.3914
-6.2897 -0.2243 2.3914
-6.2808 -0.4518 2.3914
-6.2640 -0.6790 2.3914
-6.2396 -0.9057 2.3914
-6.2074 -1.1315 2.3914
-6.1675 -1.3562 2.3914
-6.1199 -1.5797 2.3914
-6.0647 -1.8015 2.3914
-6.0018 -2.0216 2.3914
-5.9314 -2.2396 2.3914
-5.8535 -2.4552 2.3914
-5.7682 -2.6684 2.3914
-5.6755 -2.8787 2.3914
-5.5755 -3.0860 2.3914
-5.4683 -3.2899 2.3914
-5.3540 -3.4904 2.3914
-5.2327 -3.6872 2.3914
-5.1045 -3.8796 2.3914
-4.9695 -4.0678 2.3914
-4.8279 -4.2519 2.3914
-4.6797 -4.4310 2.3914
-4.5252 -4.6052 2.3914
-4.3645 -4.7742 2.3914
-4.1977 -4.9378 2.3914
-4.0249 -5.0958 2.3914
-3.8465 -5.2479 2.3914
-3.6625 -5.3940 2.3914
-3.4732 -5.5337 2.3914
-3.2787 -5.6670 2.3914
-3.0793 -5.7937 2.3914
-2.8751 -5.9135 2.3914
-2.6664 -6.0262 2.3914
-2.4535 -6.1317 2.3914
-2.2365 -6.2297 2.3914
-2.0158 -6.3202 2.3914
-1.7915 -6.4030 2.3914
-1.5639 -6.4779 2.3914
-1.3334 -6.5448 2.3914
-1.1002 -6.6035 2.3914
-0.8645 -6.6539 2.3914
-0.6266 -6.6959 2.3914
-0.3870 -6.7294 2.3914
-0.1458 -6.7543 2.3914
0.0966 -6.7705 2.3914
0.3400 -6.7780 2.3914
0.5839 -6.7766 2.3914
0.8281 -6.7663 2.3914
1.0722 -6.7471 2.3914
1.3160 -6.7190 2.3914
1.5590 -6.6819 2.3914
1.8009 -6.6359 2.3914
2.0414 -6.5809 2.3914
2.2802 -6.5170 2.3914
2.5169 -6.4442 2.3914
2.7511 -6.3626 2.3914
2.9522 -6.2085 2.3671
3.0062 -5.7799 2.2390
3.2167 -5.6791 2.2390
3.4237 -5.5705 2.2390
3.6268 -5.4541 2.2391
3.8264 -5.3309 2.2395
4.0217 -5.2004 2.2400
4.2122 -5.0625 2.2405
4.3977 -4.9172 2.2410
4.5779 -4.7648 2.2414
4.7524 -4.6056 2.2419
4.9210 -4.4396 2.2424
5.0834 -4.2672 2.2428
5.2249 -4.0773 2.2370
5.3583 -3.8819 2.2311
5.4958 -3.6900 2.2298
5.6312 -3.4960 2.2307
5.7575 -3.2961 2.2309
5.8763 -3.0912 2.2311
5.9872 -2.8818 2.2313
6.0902 -2.6683 2.2314
6.1851 -2.4509 2.2316
6.2717 -2.2299 2.2318
6.3499 -2.0057 2.2320
6.4195 -1.7787 2.2322
5.5501 -1.3267 1.9119
6.5327 -1.3173 2.2327
6.5761 -1.0837 2.2329
6.6106 -0.8485 2.2331
6.6361 -0.6123 2.2333
6.6526 -0.3752 2.2336
6.6601 -0.1378 2.2338
6.6586 0.0997 2.2341
5.9555 1.6010 2.2358
5.4575 1.6779 2.0721
5.8152 2.0176 2.2362
5.7335 2.2214 2.2364
5.6443 2.4218 2.2367
5.5477 2.6185 2.2369
5.4440 2.8112 2.2371
5.3332 2.9998 2.2373
5.2155 3.1838 2.2376
5.0905 3.3627 2.2374
4.9641 3.5402 2.2396
4.8348 3.7153 2.2434
4.6904 3.8785 2.2431
4.5402 4.0359 2.2427
4.3845 4.1874 2.2424
4.2236 4.3328 2.2420
4.0577 4.4718 2.2416
3.8871 4.6044 2.2412
3.7120 4.7304 2.2408
3.5327 4.8496 2.2403
3.3495 4.9619 2.2399
3.1627 5.0672 2.2394
2.9725 5.1655 2.2390
2.7798 5.2576 2.2390
2.6433 5.4646 2.2901
2.5486 5.7891 2.3914
0.9142 2.2964 0.9364
0.8311 2.3273 0.9383
0.7470 2.3552 0.9402
0.6620 2.3800 0.9420
0.5761 2.4018 0.9439
0.4894 2.4205 0.9458
0.4021 2.4360 0.9476
0.3143 2.4483 0.9495
0.2262 2.4575 0.9513
0.1377 2.4635 0.9532
0.0491 2.4663 0.9550
-0.0396 2.4659 0.9568
-0.1282 2.4623 0.9585
-0.2166 2.4555 0.9603
-0.3047 2.4455 0.9620
-0.3924 2.4323 0.9637
-0.4796 2.4160 0.9654
-0.5661 2.3965 0.9670
-0.6519 2.3739 0.9686
-0.7368 2.3483 0.9702
-0.8207 2.3195 0.9717
-2.2200 5.6215 2.3914
-2.4169 5.5280 2.3914
-2.6102 5.4279 2.3914
-2.7995 5.3213 2.3914
-2.9848 5.2084 2.3914
-3.1658 5.0893 2.3914
-3.3424 4.9641 2.3914
-3.5142 4.8331 2.3914
-3.6812 4.6965 2.3914
-3.8432 4.5543 2.3914
-4.0001 4.4068 2.3914
-4.1515 4.2542 2.3914
