ply
format ascii 1.0
element vertex 2181
property float32 x
property float32 y
property float32 z
end_header
-4.5624 3.0256 2.3806
-4.6517 2.8434 2.3806
-4.7351 2.6599 2.3806
-4.8127 2.4743 2.3806
-4.8844 2.2876 2.3806
-4.9505 2.0990 2.3806
-5.0106 1.9094 2.3806
-5.0649 1.7187 2.3806
-5.1136 1.5263 2.3806
-5.1563 1.3337 2.3806
-5.1933 1.1399 2.3806
-5.2244 0.9456 2.3806
-5.2499 0.7503 2.3806
-5.2695 0.5549 2.3806
-5.2833 0.3591 2.3806
-5.2915 0.1629 2.3806
-5.2937 -0.0333 2.3806
-5.2902 -0.2295 2.3806
-5.2809 -0.4257 2.3806
-5.2659 -0.6215 2.3806
-5.2450 -0.8171 2.3806
-5.2183 -1.0122 2.3806
-5.1859 -1.2067 2.3806
-5.1476 -1.4005 2.3806
-5.1035 -1.5935 2.3806
-5.0536 -1.7855 2.3806
-4.9979 -1.9765 2.3806
-4.9364 -2.1663 2.3806
-4.8690 -2.3548 2.3806
-4.7958 -2.5418 2.3806
-4.7167 -2.7273 2.3806
-4.6319 -2.9110 2.3806
-4.5411 -3.0928 2.3806
-4.4445 -3.2726 2.3806
-4.3421 -3.4503 2.3806
-4.2338 -3.6257 2.3806
-4.1197 -3.7986 2.3806
-3.9997 -3.9688 2.3806
-3.8739 -4.1363 2.3806
-3.7423 -4.3007 2.3806
-3.6049 -4.4621 2.3806
-3.4617 -4.6201 2.3806
-3.3127 -4.7746 2.3806
-3.1580 -4.9254 2.3806
-2.9976 -5.0724 2.3806
-2.8315 -5.2152 2.3806
-2.6598 -5.3537 2.3806
-2.4825 -5.4877 2.3806
-2.2998 -5.6170 2.3806
-2.1115 -5.7413 2.3806
-1.9179 -5.8605 2.3806
-1.7191 -5.9743 2.3806
-1.5150 -6.0824 2.3806
-1.3058 -6.1846 2.3806
-1.0917 -6.2807 2.3806
-0.8728 -6.3704 2.3806
-0.6492 -6.4536 2.3806
-0.4210 -6.5298 2.3806
-0.1885 -6.5989 2.3806
0.0482 -6.6606 2.3806
0.2889 -6.7147 2.3806
0.5333 -6.7609 2.3806
0.7813 -6.7989 2.3806
1.0325 -6.8286 2.3806
1.2867 -6.8495 2.3806
1.5435 -6.8616 2.3806
1.8028 -6.8646 2.3806
2.0642 -6.8582 2.3806
2.3272 -6.8421 2.3806
2.5916 -6.8163 2.3806
2.8569 -6.7806 2.3806
3.1227 -6.7346 2.3806
3.3886 -6.6782 2.3806
3.6542 -6.6113 2.3806
3.9190 -6.5338 2.3806
4.1824 -6.4456 2.3806
4.4440 -6.3464 2.3806
4.7032 -6.2364 2.3806
4.9596 -6.1154 2.3806
5.2125 -5.9834 2.3806
5.4614 -5.8405 2.3806
5.7057 -5.6867 2.3806
5.9449 -5.5221 2.3806
6.1782 -5.3467 2.3806
6.4053 -5.1607 2.3806
6.6253 -4.9646 2.3806
6.8378 -4.7582 2.3806
7.0422 -4.5420 2.3806
7.1985 -4.2926 2.3676
7.3275 -4.0281 2.3496
7.4554 -3.7641 2.3351
7.5827 -3.5003 2.3241
7.7094 -3.2359 2.3166
7.8359 -2.9705 2.3126
7.9626 -2.7033 2.3121
8.0896 -2.4338 2.3152
8.2172 -2.1613 2.3218
8.3459 -1.8852 2.3321
8.4758 -1.6048 2.3461
8.6074 -1.3193 2.3640
8.7211 -1.0257 2.3806
8.7605 -0.7204 2.3806
8.7858 -0.4134 2.3806
8.7970 -0.1054 2.3806
8.7938 0.2027 2.3806
8.7764 0.5101 2.3806
8.7448 0.8163 2.3806
8.6991 1.1206 2.3806
8.6396 1.4221 2.3806
8.5663 1.7202 2.3806
8.4797 2.0142 2.3806
8.3798 2.3034 2.3806
8.2672 2.5873 2.3806
8.1421 2.8651 2.3806
8.0050 3.1363 2.3806
7.8563 3.4004 2.3806
7.6965 3.6568 2.3806
7.5261 3.9052 2.3806
7.3457 4.1449 2.3806
7.1557 4.3757 2.3806
6.9567 4.5971 2.3806
6.7493 4.8089 2.3806
6.5341 5.0108 2.3806
6.3116 5.2025 2.3806
6.0825 5.3838 2.3806
5.8474 5.5545 2.3806
5.6068 5.7145 2.3806
5.3612 5.8637 2.3806
5.1114 6.0020 2.3806
4.8579 6.1294 2.3806
4.6012 6.2460 2.3806
4.3418 6.3516 2.3806
4.0803 6.4464 2.3806
3.8173 6.5305 2.3806
3.5531 6.6039 2.3806
3.2883 6.6668 2.3806
3.0234 6.7193 2.3806
2.7587 6.7616 2.3806
0.9202 2.5059 0.8781
0.8300 2.5350 0.8854
0.7389 2.5609 0.8927
0.6468 2.5834 0.9001
0.5540 2.6025 0.9076
0.4606 2.6183 0.9151
0.3667 2.6307 0.9226
0.2723 2.6397 0.9302
0.1777 2.6452 0.9377
0.0830 2.6473 0.9453
-0.0118 2.6460 0.9528
-0.1064 2.6413 0.9604
-0.2009 2.6331 0.9679
-0.2949 2.6215 0.9754
-0.3885 2.6065 0.9828
-0.4815 2.5882 0.9902
-0.5738 2.5665 0.9975
-0.6653 2.5414 1.0047
-0.7557 2.5130 1.0118
-1.9747 5.7980 2.3806
-2.1660 5.6779 2.3806
-2.3520 5.5528 2.3806
-2.5326 5.4229 2.3806
-2.7077 5.2882 2.3806
-2.8772 5.1492 2.3806
-3.0412 5.0059 2.3806
-3.1996 4.8586 2.3806
-3.3523 4.7074 2.3806
-3.4993 4.5526 2.3806
-3.6405 4.3944 2.3806
-3.7761 4.2329 2.3806
-3.9058 4.0684 2.3806
-4.0298 3.9008 2.3806
-4.1481 3.7304 2.3806
-4.2605 3.5575 2.3806
-4.3671 3.3820 2.3806
-4.4679 3.2044 2.3806
-4.5629 3.0245 2.3806
-4.6521 2.8427 2.3806
-4.7355 2.6589 2.3806
-4.8130 2.4737 2.3806
-4.8847 2.2868 2.3806
-4.9507 2.0983 2.3806
-5.0108 1.9087 2.3806
-5.0652 1.7175 2.3806
-5.1137 1.5257 2.3806
-5.1564 1.3328 2.3806
-5.1935 1.1388 2.3806
-5.2246 0.9446 2.3806
-5.2501 0.7493 2.3806
-5.2696 0.5540 2.3806
-5.2835 0.3579 2.3806
-5.2915 0.1620 2.3806
-5.2937 -0.0342 2.3806
-5.2902 -0.2304 2.3806
-5.2809 -0.4266 2.3806
-5.2658 -0.6225 2.3806
-5.2449 -0.8180 2.3806
-5.2182 -1.0131 2.3806
-5.1857 -1.2076 2.3806
-5.1474 -1.4014 2.3806
-5.1033 -1.5944 2.3806
-5.0534 -1.7864 2.3806
-4.9976 -1.9774 2.3806
-4.9361 -2.1672 2.3806
-4.8687 -2.3557 2.3806
-4.7954 -2.5427 2.3806
-4.7164 -2.7281 2.3806
-4.6315 -2.9118 2.3806
-4.5407 -3.0936 2.3806
-4.4441 -3.2735 2.3806
-4.3416 -3.4511 2.3806
-4.2333 -3.6265 2.3806
-4.1192 -3.7993 2.3806
-3.9992 -3.9696 2.3806
-3.8734 -4.1370 2.3806
-3.7417 -4.3015 2.3806
-3.6043 -4.4628 2.3806
-3.4610 -4.6208 2.3806
-3.3120 -4.7753 2.3806
-3.1573 -4.9261 2.3806
-2.9969 -5.0730 2.3806
-2.8307 -5.2158 2.3806
-2.6590 -5.3543 2.3806
-2.4817 -5.4883 2.3806
-2.2989 -5.6176 2.3806
-2.1107 -5.7419 2.3806
-1.9170 -5.8610 2.3806
-1.7181 -5.9748 2.3806
-1.5140 -6.0829 2.3806
-1.3049 -6.1851 2.3806
-1.0907 -6.2811 2.3806
-0.8718 -6.3708 2.3806
-0.6481 -6.4539 2.3806
-0.4200 -6.5301 2.3806
-0.1874 -6.5992 2.3806
0.0493 -6.6609 2.3806
0.2900 -6.7149 2.3806
0.5344 -6.7611 2.3806
0.7824 -6.7991 2.3806
1.0336 -6.8287 2.3806
1.2878 -6.8496 2.3806
1.5447 -6.8617 2.3806
1.8040 -6.8645 2.3806
2.0653 -6.8583 2.3806
2.3284 -6.8420 2.3806
2.5928 -6.8162 2.3806
2.8581 -6.7804 2.3806
3.1239 -6.7343 2.3806
3.3899 -6.6779 2.3806
3.6554 -6.6110 2.3806
3.9202 -6.5334 2.3806
4.1836 -6.4451 2.3806
4.4452 -6.3459 2.3806
4.7044 -6.2359 2.3806
4.9608 -6.1148 2.3806
5.2137 -5.9828 2.3806
5.4625 -5.8398 2.3806
5.7068 -5.6859 2.3806
5.9460 -5.5212 2.3806
6.1793 -5.3459 2.3806
6.4063 -5.1598 2.3806
6.6263 -4.9637 2.3806
6.8388 -4.7573 2.3806
7.0431 -4.5410 2.3806
7.1987 -4.2922 2.3675
7.3281 -4.0269 2.3495
7.4560 -3.7629 2.3350
7.5832 -3.4991 2.3241
7.7100 -3.2347 2.3166
7.8365 -2.9692 2.3126
7.9631 -2.7020 2.3121
8.0902 -2.4325 2.3152
8.2178 -2.1601 2.3218
8.3465 -1.8840 2.3321
8.4764 -1.6035 2.3462
8.6080 -1.3180 2.3641
8.7213 -1.0242 2.3806
8.7607 -0.7189 2.3806
8.7859 -0.4120 2.3806
8.7970 -0.1040 2.3806
8.7937 0.2040 2.3806
8.7763 0.5115 2.3806
8.7446 0.8177 2.3806
8.6989 1.1220 2.3806
8.6393 1.4235 2.3806
8.5660 1.7216 2.3806
8.4792 2.0155 2.3806
8.3793 2.3047 2.3806
8.2666 2.5886 2.3806
8.1415 2.8663 2.3806
8.0043 3.1375 2.3806
7.8556 3.4016 2.3806
7.6958 3.6580 2.3806
7.5253 3.9063 2.3806
7.3448 4.1460 2.3806
7.1548 4.3767 2.3806
6.9557 4.5981 2.3806
6.7483 4.8099 2.3806
6.5331 5.0117 2.3806
6.3106 5.2033 2.3806
6.0815 5.3846 2.3806
5.8463 5.5552 2.3806
5.6056 5.7152 2.3806
5.3601 5.8643 2.3806
5.1103 6.0026 2.3806
4.8567 6.1300 2.3806
4.6000 6.2465 2.3806
4.3406 6.3521 2.3806
4.0791 6.4468 2.3806
3.8161 6.5309 2.3806
3.5519 6.6042 2.3806
3.2871 6.6671 2.3806
3.0221 6.7195 2.3806
2.7574 6.7618 2.3806
0.9198 2.5061 0.8781
0.8296 2.5352 0.8854
0.7384 2.5610 0.8927
0.6464 2.5835 0.9002
0.5536 2.6026 0.9076
0.4602 2.6184 0.9151
0.3662 2.6307 0.9226
0.2719 2.6397 0.9302
0.1773 2.6452 0.9378
0.0826 2.6473 0.9453
-0.0122 2.6460 0.9529
-0.1069 2.6413 0.9604
-0.2013 2.6331 0.9679
-0.2954 2.6215 0.9754
-0.3890 2.6065 0.9828
6.0295 4.6107 2.3806
5.8276 4.7895 2.3806
5.6194 4.9589 2.3806
5.4055 5.1189 2.3806
5.1864 5.2692 2.3806
4.9625 5.4097 2.3806
4.7346 5.5405 2.3806
4.5029 5.6613 2.3806
4.2681 5.7723 2.3806
4.0306 5.8733 2.3806
3.7908 5.9645 2.3806
3.5494 6.0458 2.3806
3.3066 6.1174 2.3806
3.0630 6.1793 2.3806
2.8189 6.2317 2.3806
0.9468 2.3073 0.8754
0.8637 2.3374 0.8821
0.7796 2.3646 0.8889
0.6946 2.3887 0.8957
0.6088 2.4097 0.9026
0.5222 2.4275 0.9096
0.4351 2.4422 0.9166
0.3474 2.4538 0.9236
0.2595 2.4622 0.9307
0.1712 2.4674 0.9377
0.0828 2.4694 0.9448
-0.0056 2.4681 0.9518
-0.0939 2.4637 0.9589
-0.1819 2.4561 0.9659
-0.2697 2.4453 0.9728
-0.3570 2.4314 0.9798
-0.4438 2.4142 0.9866
-0.5298 2.3940 0.9934
-0.6151 2.3706 1.0002
-0.6995 2.3442 1.0068
-0.7829 2.3147 1.0134
-2.0196 5.3273 2.3806
-2.1951 5.2121 2.3806
-2.3656 5.0921 2.3806
-2.5311 4.9677 2.3806
-2.6914 4.8389 2.3806
-2.8467 4.7060 2.3806
-2.9966 4.5691 2.3806
-3.1414 4.4285 2.3806
-3.2808 4.2843 2.3806
-3.4149 4.1367 2.3806
-3.5436 3.9859 2.3806
-3.6669 3.8320 2.3806
-3.7848 3.6752 2.3806
-3.8973 3.5157 2.3806
-4.0043 3.3536 2.3806
-4.1058 3.1890 2.3806
-4.2018 3.0222 2.3806
-4.2923 2.8533 2.3806
-4.3774 2.6823 2.3806
-4.4569 2.5095 2.3806
-4.5308 2.3352 2.3806
-4.5994 2.1589 2.3806
-4.6623 1.9814 2.3806
-4.7198 1.8026 2.3806
-4.7717 1.6225 2.3806
-4.8181 1.4414 2.3806
-4.8589 1.2593 2.3806
-4.8943 1.0764 2.3806
-4.9241 0.8928 2.3806
-4.9483 0.7087 2.3806
-4.9671 0.5240 2.3806
-4.9803 0.3390 2.3806
-4.9880 0.1538 2.3806
-4.9902 -0.0316 2.3806
-4.9868 -0.2169 2.3806
-4.9779 -0.4022 2.3806
-4.9635 -0.5872 2.3806
-4.9435 -0.7718 2.3806
-4.9180 -0.9560 2.3806
-4.8869 -1.1397 2.3806
-4.8503 -1.3226 2.3806
-4.8082 -1.5047 2.3806
-4.7605 -1.6858 2.3806
-4.7073 -1.8659 2.3806
-4.6485 -2.0447 2.3806
-4.5842 -2.2223 2.3806
-4.5143 -2.3984 2.3806
-4.4389 -2.5729 2.3806
-4.3579 -2.7456 2.3806
-4.2714 -2.9166 2.3806
-4.1794 -3.0855 2.3806
-4.0818 -3.2522 2.3806
-3.9787 -3.4166 2.3806
-3.8702 -3.5786 2.3806
-3.7561 -3.7380 2.3806
-3.6365 -3.8946 2.3806
-3.5115 -4.0483 2.3806
-3.3810 -4.1989 2.3806
-3.2452 -4.3461 2.3806
-3.1039 -4.4900 2.3806
-2.9573 -4.6302 2.3806
-2.8055 -4.7666 2.3806
-2.6483 -4.8990 2.3806
-2.4860 -5.0272 2.3806
-2.3186 -5.1510 2.3806
-2.1460 -5.2701 2.3806
-1.9685 -5.3845 2.3806
-1.7861 -5.4939 2.3806
-1.5989 -5.5981 2.3806
-1.4069 -5.6968 2.3806
-1.2104 -5.7898 2.3806
-1.0094 -5.8770 2.3806
-0.8041 -5.9580 2.3806
-0.5945 -6.0328 2.3806
-0.3809 -6.1009 2.3806
-0.1635 -6.1623 2.3806
0.0576 -6.2167 2.3806
0.2822 -6.2638 2.3806
0.5100 -6.3035 2.3806
0.7409 -6.3355 2.3806
0.9745 -6.3596 2.3806
1.2107 -6.3755 2.3806
1.4491 -6.3831 2.3806
1.6894 -6.3822 2.3806
1.9314 -6.3726 2.3806
2.1746 -6.3541 2.3806
2.4188 -6.3264 2.3806
2.6635 -6.2896 2.3806
2.9086 -6.2432 2.3806
3.1534 -6.1874 2.3806
3.3976 -6.1218 2.3806
3.6407 -6.0466 2.3806
3.8824 -5.9614 2.3806
4.1221 -5.8664 2.3806
4.3593 -5.7614 2.3806
4.5937 -5.6465 2.3806
4.8247 -5.5216 2.3806
5.0517 -5.3868 2.3806
5.2743 -5.2422 2.3806
5.4920 -5.0878 2.3806
5.7042 -4.9237 2.3806
5.9105 -4.7502 2.3806
6.1102 -4.5674 2.3806
6.3029 -4.3756 2.3806
6.4880 -4.1749 2.3806
6.6651 -3.9657 2.3806
6.8337 -3.7483 2.3806
6.9933 -3.5231 2.3806
7.1434 -3.2904 2.3806
7.2835 -3.0507 2.3806
7.4133 -2.8044 2.3806
7.5324 -2.5520 2.3806
7.6404 -2.2940 2.3806
7.7369 -2.0310 2.3806
7.8217 -1.7634 2.3806
7.8945 -1.4919 2.3806
7.9550 -1.2171 2.3806
8.0031 -0.9395 2.3806
8.0386 -0.6598 2.3806
8.0614 -0.3787 2.3806
8.0715 -0.0968 2.3806
8.0687 0.1853 2.3806
8.0531 0.4670 2.3806
8.0247 0.7475 2.3806
7.9838 1.0262 2.3806
7.9303 1.3026 2.3806
7.8644 1.5759 2.3806
7.7865 1.8456 2.3806
7.6967 2.1112 2.3806
7.5953 2.3719 2.3806
7.4826 2.6274 2.3806
7.3591 2.8770 2.3806
7.2250 3.1203 2.3806
7.0808 3.3568 2.3806
6.9269 3.5861 2.3806
6.7638 3.8078 2.3806
6.5919 4.0215 2.3806
6.4117 4.2269 2.3806
6.2238 4.4236 2.3806
6.0286 4.6115 2.3806
5.8266 4.7902 2.3806
5.6184 4.9597 2.3806
5.4045 5.1196 2.3806
5.1853 5.2699 2.3806
4.9615 5.4104 2.3806
4.7335 5.5411 2.3806
4.5018 5.6619 2.3806
4.2670 5.7728 2.3806
4.0295 5.8738 2.3806
3.7897 5.9649 2.3806
3.5483 6.0462 2.3806
3.3055 6.1177 2.3806
3.0619 6.1796 2.3806
2.8178 6.2319 2.3806
0.9464 2.3074 0.8754
0.8634 2.3376 0.8821
0.7793 2.3647 0.8889
0.6942 2.3888 0.8958
0.6084 2.4097 0.9027
0.5218 2.4276 0.9096
0.4347 2.4423 0.9166
0.3470 2.4538 0.9237
0.2590 2.4622 0.9307
0.1708 2.4674 0.9378
0.0824 2.4694 0.9448
-0.0060 2.4681 0.9519
-0.0943 2.4637 0.9589
-0.1823 2.4561 0.9659
-0.2701 2.4453 0.9729
-0.3574 2.4313 0.9798
-0.4442 2.4142 0.9867
-0.5302 2.3939 0.9935
-0.6155 2.3705 1.0002
-0.6999 2.3441 1.0069
-0.7833 2.3146 1.0134
-2.0204 5.3267 2.3806
-2.1959 5.2115 2.3806
-2.3664 5.0916 2.3806
-2.5318 4.9671 2.3806
-2.6922 4.8383 2.3806
-2.8474 4.7054 2.3806
-2.9973 4.5685 2.3806
-3.1420 4.4279 2.3806
-3.2814 4.2836 2.3806
-3.4155 4.1360 2.3806
-3.5442 3.9852 2.3806
-3.6675 3.8313 2.3806
-3.7853 3.6745 2.3806
-3.8978 3.5149 2.3806
-4.0047 3.3528 2.3806
-4.1062 3.1883 2.3806
-4.2022 3.0215 2.3806
-4.2927 2.8525 2.3806
-4.3777 2.6815 2.3806
-4.4572 2.5087 2.3806
-4.5312 2.3342 2.3806
-4.5996 2.1582 2.3806
-4.6626 1.9807 2.3806
-4.7200 1.8017 2.3806
-4.7719 1.6217 2.3806
-4.8183 1.4406 2.3806
-4.8591 1.2585 2.3806
-4.8944 1.0756 2.3806
-4.9242 0.8920 2.3806
-4.9484 0.7078 2.3806
-4.9672 0.5232 2.3806
-4.9804 0.3382 2.3806
-4.9880 0.1529 2.3806
-4.9902 -0.0324 2.3806
-4.9868 -0.2178 2.3806
-4.9778 -0.4030 2.3806
-4.9634 -0.5880 2.3806
-4.9434 -0.7727 2.3806
-4.9178 -0.9569 2.3806
-4.8867 -1.1405 2.3806
-4.8501 -1.3234 2.3806
-4.8080 -1.5055 2.3806
-4.7603 -1.6866 2.3806
-4.7070 -1.8667 2.3806
-4.6482 -2.0456 2.3806
-4.5839 -2.2231 2.3806
-4.5140 -2.3992 2.3806
-4.4385 -2.5737 2.3806
-4.3575 -2.7464 2.3806
-4.2710 -2.9173 2.3806
-4.1790 -3.0862 2.3806
-4.0814 -3.2530 2.3806
-3.9783 -3.4174 2.3806
-3.8696 -3.5794 2.3806
-3.7555 -3.7387 2.3806
-3.6359 -3.8953 2.3806
-3.5109 -4.0490 2.3806
-3.3804 -4.1995 2.3806
-3.2445 -4.3468 2.3806
-3.1032 -4.4906 2.3806
-2.9567 -4.6308 2.3806
-2.8047 -4.7672 2.3806
-2.6476 -4.8996 2.3806
-2.4853 -5.0278 2.3806
-2.3178 -5.1515 2.3806
-2.1452 -5.2707 2.3806
-1.9677 -5.3850 2.3806
-1.7853 -5.4944 2.3806
-1.5980 -5.5985 2.3806
-1.4061 -5.6972 2.3806
-1.2095 -5.7902 2.3806
-1.0085 -5.8774 2.3806
-0.8031 -5.9584 2.3806
-0.5935 -6.0331 2.3806
-0.3800 -6.1012 2.3806
-0.1625 -6.1626 2.3806
0.0586 -6.2169 2.3806
0.2832 -6.2640 2.3806
0.5111 -6.3037 2.3806
0.7419 -6.3356 2.3806
0.9756 -6.3597 2.3806
1.2117 -6.3756 2.3806
1.4501 -6.3832 2.3806
1.6905 -6.3822 2.3806
1.9325 -6.3725 2.3806
2.1757 -6.3539 2.3806
2.4199 -6.3262 2.3806
2.6648 -6.2891 2.3806
2.9097 -6.2430 2.3806
3.1545 -6.1870 2.3806
3.3987 -6.1215 2.3806
3.6418 -6.0462 2.3806
3.8835 -5.9610 2.3806
4.1232 -5.8660 2.3806
4.3604 -5.7609 2.3806
4.5948 -5.6459 2.3806
4.8257 -5.5210 2.3806
5.0528 -5.3862 2.3806
5.2754 -5.2415 2.3806
5.4930 -5.0870 2.3806
5.7052 -4.9229 2.3806
5.9116 -4.7490 2.3806
6.1109 -4.5669 2.3806
6.3038 -4.3747 2.3806
6.4889 -4.1739 2.3806
6.6659 -3.9647 2.3806
6.8344 -3.7474 2.3806
6.9940 -3.5221 2.3806
7.1440 -3.2894 2.3806
7.2842 -3.0495 2.3806
7.4139 -2.8032 2.3806
7.5329 -2.5509 2.3806
7.6408 -2.2928 2.3806
7.7373 -2.0297 2.3806
7.8221 -1.7621 2.3806
7.8948 -1.4906 2.3806
7.9553 -1.2158 2.3806
8.0033 -0.9382 2.3806
8.0388 -0.6585 2.3806
8.0615 -0.3774 2.3806
8.0715 -0.0955 2.3806
8.0686 0.1867 2.3806
8.0530 0.4683 2.3806
8.0246 0.7488 2.3806
7.9835 1.0275 2.3806
7.9300 1.3038 2.3806
7.8641 1.5772 2.3806
7.7861 1.8469 2.3806
7.6962 2.1124 2.3806
7.5948 2.3731 2.3806
7.4821 2.6285 2.3806
7.3585 2.8781 2.3806
7.2243 3.1214 2.3806
7.0801 3.3579 2.3806
6.9262 3.5871 2.3806
6.7630 3.8088 2.3806
6.5911 4.0224 2.3806
6.4109 4.2278 2.3806
6.2229 4.4245 2.3806
6.0277 4.6123 2.3806
5.8257 4.7910 2.3806
5.6174 4.9604 2.3806
5.4035 5.1203 2.3806
5.1843 5.2705 2.3806
4.9605 5.4110 2.3806
4.7324 5.5416 2.3806
4.5008 5.6624 2.3806
4.2659 5.7732 2.3806
4.0284 5.8742 2.3806
3.7886 5.9653 2.3806
3.5471 6.0465 2.3806
3.3044 6.1180 2.3806
3.0607 6.1799 2.3806
2.8167 6.2321 2.3806
0.9460 2.3076 0.8754
0.8630 2.3377 0.8822
0.7789 2.3648 0.8889
0.6938 2.3889 0.8958
0.6080 2.4098 0.9027
0.5214 2.4277 0.9097
0.4343 2.4424 0.9167
0.3466 2.4539 0.9237
0.2586 2.4622 0.9307
0.1704 2.4674 0.9378
0.0820 2.4694 0.9448
-0.0064 2.4681 0.9519
-0.0947 2.4637 0.9589
-0.1828 2.4560 0.9659
-0.2705 2.4452 0.9729
-0.3578 2.4312 0.9798
5.5916 4.2648 2.3806
5.4070 4.4321 2.3806
5.2166 4.5909 2.3806
5.0207 4.7412 2.3806
4.8199 4.8826 2.3806
4.6145 5.0152 2.3806
4.4052 5.1389 2.3806
4.1923 5.2536 2.3806
3.9762 5.3592 2.3806
3.7575 5.4557 2.3806
3.5365 5.5432 2.3806
3.3136 5.6216 2.3806
3.0894 5.6911 2.3806
2.8641 5.7516 2.3806
0.9677 2.1286 0.8732
0.8910 2.1597 0.8794
0.8133 2.1879 0.8857
0.7345 2.2133 0.8920
0.6549 2.2358 0.8985
0.5746 2.2554 0.9049
0.4936 2.2721 0.9114
0.4120 2.2859 0.9180
0.3300 2.2967 0.9246
0.2476 2.3046 0.9312
0.1650 2.3094 0.9378
0.0823 2.3113 0.9444
-0.0004 2.3101 0.9510
-0.0831 2.3060 0.9575
-0.1655 2.2989 0.9641
-0.2477 2.2887 0.9706
-0.3294 2.2757 0.9771
-0.4106 2.2596 0.9835
-0.4912 2.2407 0.9899
-0.5710 2.2188 0.9962
-0.6500 2.1941 1.0024
-0.7281 2.1665 1.0086
-0.8051 2.1361 1.0146
-2.0548 4.9053 2.3806
-2.2161 4.7941 2.3806
-2.3728 4.6786 2.3806
-2.5248 4.5588 2.3806
-2.6720 4.4351 2.3806
-2.8143 4.3074 2.3806
-2.9517 4.1761 2.3806
-3.0841 4.0414 2.3806
-3.2116 3.9032 2.3806
-3.3340 3.7619 2.3806
-3.4513 3.6176 2.3806
-3.5635 3.4704 2.3806
-3.6706 3.3206 2.3806
-3.7726 3.1682 2.3806
-3.8693 3.0134 2.3806
-3.9609 2.8563 2.3806
-4.0473 2.6972 2.3806
-4.1284 2.5360 2.3806
-4.2043 2.3730 2.3806
-4.2750 2.2084 2.3806
-4.3404 2.0421 2.3806
-4.4006 1.8744 2.3806
-4.4555 1.7054 2.3806
-4.5051 1.5352 2.3806
-4.5495 1.3640 2.3806
-4.5885 1.1918 2.3806
-4.6223 1.0188 2.3806
-4.6508 0.8450 2.3806
-4.6740 0.6707 2.3806
-4.6919 0.4960 2.3806
-4.7046 0.3208 2.3806
-4.7119 0.1455 2.3806
-4.7140 -0.0300 2.3806
-4.7107 -0.2054 2.3806
-4.7022 -0.3808 2.3806
-4.6883 -0.5559 2.3806
-4.6692 -0.7307 2.3806
-4.6448 -0.9050 2.3806
-4.6151 -1.0787 2.3806
-4.5800 -1.2517 2.3806
-4.5397 -1.4239 2.3806
-4.4941 -1.5952 2.3806
-4.4432 -1.7653 2.3806
-4.3870 -1.9343 2.3806
-4.3255 -2.1020 2.3806
-4.2588 -2.2682 2.3806
-4.1867 -2.4328 2.3806
-4.1094 -2.5957 2.3806
-4.0269 -2.7567 2.3806
-3.9390 -2.9158 2.3806
-3.8460 -3.0727 2.3806
-3.7477 -3.2274 2.3806
-3.6443 -3.3796 2.3806
-3.5356 -3.5292 2.3806
-3.4218 -3.6761 2.3806
-3.3029 -3.8202 2.3806
-3.1788 -3.9611 2.3806
-3.0497 -4.0989 2.3806
-2.9156 -4.2332 2.3806
-2.7764 -4.3641 2.3806
-2.6324 -4.4912 2.3806
-2.4834 -4.6143 2.3806
-2.3297 -4.7334 2.3806
-2.1712 -4.8483 2.3806
-2.0080 -4.9586 2.3806
-1.8402 -5.0643 2.3806
-1.6679 -5.1652 2.3806
-1.4912 -5.2610 2.3806
-1.3102 -5.3516 2.3806
-1.1251 -5.4367 2.3806
-0.9358 -5.5162 2.3806
-0.7427 -5.5899 2.3806
-0.5458 -5.6575 2.3806
-0.3452 -5.7188 2.3806
-0.1413 -5.7737 2.3806
0.0659 -5.8219 2.3806
0.2762 -5.8633 2.3806
0.4893 -5.8976 2.3806
0.7051 -5.9246 2.3806
0.9232 -5.9442 2.3806
1.1434 -5.9562 2.3806
1.3655 -5.9603 2.3806
1.5892 -5.9564 2.3806
1.8142 -5.9444 2.3806
2.0402 -5.9241 2.3806
2.2668 -5.8953 2.3806
2.4937 -5.8579 2.3806
2.7206 -5.8118 2.3806
2.9471 -5.7569 2.3806
3.1728 -5.6930 2.3806
3.3972 -5.6202 2.3806
3.6201 -5.5383 2.3806
3.8410 -5.4473 2.3806
4.0594 -5.3472 2.3806
4.2749 -5.2379 2.3806
4.4871 -5.1196 2.3806
4.6954 -4.9923 2.3806
4.8996 -4.8560 2.3806
5.0990 -4.7108 2.3806
5.2933 -4.5569 2.3806
5.4819 -4.3945 2.3806
5.6644 -4.2237 2.3806
5.8403 -4.0446 2.3806
6.0092 -3.8577 2.3806
6.1707 -3.6631 2.3806
6.3243 -3.4611 2.3806
6.4695 -3.2521 2.3806
6.6061 -3.0364 2.3806
6.7335 -2.8144 2.3806
6.8515 -2.5865 2.3806
6.9597 -2.3532 2.3806
7.0577 -2.1148 2.3806
7.1454 -1.8720 2.3806
7.2223 -1.6251 2.3806
7.2883 -1.3747 2.3806
7.3433 -1.1213 2.3806
7.3869 -0.8655 2.3806
7.4191 -0.6079 2.3806
7.4398 -0.3489 2.3806
7.4489 -0.0893 2.3806
7.4464 0.1706 2.3806
7.4324 0.4300 2.3806
7.4067 0.6884 2.3806
7.3696 0.9452 2.3806
7.3212 1.2000 2.3806
7.2615 1.4520 2.3806
7.1909 1.7008 2.3806
7.1094 1.9459 2.3806
7.0174 2.1867 2.3806
6.9151 2.4228 2.3806
6.8029 2.6537 2.3806
6.6811 2.8790 2.3806
6.5500 3.0981 2.3806
6.4100 3.3108 2.3806
6.2615 3.5167 2.3806
6.1048 3.7154 2.3806
5.9406 3.9067 2.3806
5.7691 4.0902 2.3806
5.5908 4.2656 2.3806
5.4062 4.4329 2.3806
5.2157 4.5917 2.3806
5.0198 4.7418 2.3806
4.8189 4.8833 2.3806
4.6136 5.0158 2.3806
4.4042 5.1395 2.3806
4.1913 5.2541 2.3806
3.9752 5.3596 2.3806
3.7565 5.4561 2.3806
3.5355 5.5436 2.3806
3.3126 5.6220 2.3806
3.0884 5.6914 2.3806
2.8631 5.7519 2.3806
0.9673 2.1288 0.8732
0.8906 2.1598 0.8794
0.8129 2.1880 0.8857
0.7342 2.2134 0.8921
0.6546 2.2359 0.8985
0.5742 2.2555 0.9050
0.4932 2.2722 0.9115
0.4116 2.2860 0.9180
0.3296 2.2968 0.9246
0.2472 2.3046 0.9312
0.1646 2.3094 0.9378
0.0819 2.3113 0.9444
-0.0008 2.3101 0.9510
-0.0835 2.3060 0.9576
-0.1659 2.2988 0.9641
-0.2480 2.2887 0.9707
-0.3298 2.2756 0.9771
-0.4110 2.2596 0.9836
-0.4915 2.2406 0.9899
-0.5714 2.2187 0.9962
-0.6504 2.1940 1.0025
-0.7284 2.1664 1.0086
-0.8054 2.1360 1.0147
-2.0555 4.9048 2.3806
-2.2169 4.7936 2.3806
-2.3735 4.6780 2.3806
-2.5255 4.5583 2.3806
-2.6726 4.4345 2.3806
-2.8149 4.3068 2.3806
-2.9523 4.1755 2.3806
-3.0847 4.0407 2.3806
-3.2121 3.9026 2.3806
-3.3345 3.7613 2.3806
-3.4518 3.6169 2.3806
-3.5640 3.4698 2.3806
-3.6711 3.3199 2.3806
-3.7730 3.1675 2.3806
-3.8698 3.0127 2.3806
-3.9613 2.8556 2.3806
-4.0477 2.6964 2.3806
-4.1288 2.5353 2.3806
-4.2047 2.3723 2.3806
-4.2753 2.2076 2.3806
-4.3407 2.0413 2.3806
-4.4009 1.8736 2.3806
-4.4557 1.7046 2.3806
-4.5053 1.5344 2.3806
-4.5496 1.3632 2.3806
-4.5887 1.1910 2.3806
-4.6224 1.0180 2.3806
-4.6509 0.8442 2.3806
-4.6741 0.6699 2.3806
-4.6920 0.4952 2.3806
-4.7046 0.3200 2.3806
-4.7119 0.1447 2.3806
-4.7140 -0.0308 2.3806
-4.7107 -0.2062 2.3806
-4.7021 -0.3816 2.3806
-4.6883 -0.5567 2.3806
-4.6691 -0.7315 2.3806
-4.6447 -0.9058 2.3806
-4.6149 -1.0795 2.3806
-4.5799 -1.2525 2.3806
-4.5395 -1.4247 2.3806
-4.4939 -1.5960 2.3806
-4.4430 -1.7661 2.3806
-4.3867 -1.9351 2.3806
-4.3252 -2.1027 2.3806
-4.2584 -2.2689 2.3806
-4.1864 -2.4335 2.3806
-4.1091 -2.5964 2.3806
-4.0265 -2.7575 2.3806
-3.9386 -2.9165 2.3806
-3.8456 -3.0734 2.3806
-3.7473 -3.2281 2.3806
-3.6438 -3.3803 2.3806
-3.5351 -3.5299 2.3806
-3.4213 -3.6768 2.3806
-3.3023 -3.8208 2.3806
-3.1782 -3.9618 2.3806
-3.0491 -4.0995 2.3806
-2.9149 -4.2339 2.3806
-2.7758 -4.3647 2.3806
-2.6317 -4.4917 2.3806
-2.4827 -4.6149 2.3806
-2.3290 -4.7340 2.3806
-2.1704 -4.8488 2.3806
-2.0072 -4.9591 2.3806
-1.8394 -5.0648 2.3806
-1.6671 -5.1656 2.3806
-1.4904 -5.2614 2.3806
-1.3094 -5.3520 2.3806
-1.1242 -5.4371 2.3806
-0.9349 -5.5166 2.3806
-0.7418 -5.5902 2.3806
-0.5449 -5.6578 2.3806
-0.3443 -5.7191 2.3806
-0.1403 -5.7739 2.3806
0.0669 -5.8221 2.3806
0.2772 -5.8635 2.3806
0.4903 -5.8977 2.3806
0.7061 -5.9247 2.3806
0.9242 -5.9443 2.3806
1.1444 -5.9562 2.3806
1.3666 -5.9603 2.3806
1.5903 -5.9564 2.3806
1.8153 -5.9443 2.3806
2.0412 -5.9240 2.3806
2.2679 -5.8952 2.3806
2.4948 -5.8577 2.3806
2.7217 -5.8116 2.3806
2.9485 -5.7557 2.3806
3.1738 -5.6927 2.3806
3.3983 -5.6198 2.3806
3.6211 -5.5379 2.3806
3.8420 -5.4468 2.3806
4.0604 -5.3467 2.3806
4.2759 -5.2374 2.3806
4.4880 -5.1190 2.3806
4.6964 -4.9917 2.3806
4.9005 -4.8553 2.3806
5.0999 -4.7101 2.3806
5.2941 -4.5562 2.3806
5.4827 -4.3937 2.3806
5.6652 -4.2229 2.3806
5.8411 -4.0438 2.3806
6.0100 -3.8568 2.3806
6.1714 -3.6621 2.3806
6.3250 -3.4601 2.3806
6.4702 -3.2511 2.3806
6.6067 -3.0354 2.3806
6.7341 -2.8134 2.3806
6.8520 -2.5854 2.3806
6.9602 -2.3521 2.3806
7.0582 -2.1137 2.3806
7.1457 -1.8708 2.3806
7.2226 -1.6239 2.3806
7.2886 -1.3735 2.3806
7.3435 -1.1202 2.3806
7.3871 -0.8644 2.3806
7.4192 -0.6067 2.3806
7.4399 -0.3477 2.3806
7.4489 -0.0881 2.3806
7.4464 0.1718 2.3806
7.4323 0.4312 2.3806
7.4066 0.6896 2.3806
7.3694 0.9464 2.3806
7.3209 1.2011 2.3806
7.2612 1.4531 2.3806
7.1905 1.7020 2.3806
7.1090 1.9470 2.3806
7.0170 2.1878 2.3806
6.9147 2.4239 2.3806
6.8024 2.6547 2.3806
6.6805 2.8800 2.3806
6.5493 3.0991 2.3806
6.4093 3.3118 2.3806
6.2607 3.5176 2.3806
6.1041 3.7163 2.3806
5.9398 3.9075 2.3806
5.7683 4.0910 2.3806
5.5900 4.2664 2.3806
5.4053 4.4336 2.3806
5.2148 4.5924 2.3806
5.0189 4.7425 2.3806
4.8180 4.8839 2.3806
4.6126 5.0164 2.3806
4.4032 5.1400 2.3806
4.1903 5.2546 2.3806
3.9742 5.3601 2.3806
3.7555 5.4565 2.3806
3.5344 5.5439 2.3806
3.3116 5.6223 2.3806
3.0873 5.6917 2.3806
2.8620 5.7521 2.3806
0.9670 2.1289 0.8732
0.8903 2.1599 0.8795
0.8125 2.1881 0.8857
0.7338 2.2135 0.8921
0.6542 2.2360 0.8985
0.5738 2.2556 0.9050
0.4928 2.2723 0.9115
0.4112 2.2860 0.9180
0.3292 2.2968 0.9246
0.2469 2.3046 0.9312
0.1643 2.3094 0.9378
0.0815 2.3113 0.9444
-0.0012 2.3101 0.9510
-0.0838 2.3059 0.9576
-0.1663 2.2988 0.9642
-0.2484 2.2886 0.9707
-0.3301 2.2755 0.9772
5.2083 3.9621 2.3806
5.0386 4.1191 2.3806
4.8634 4.2683 2.3806
4.6830 4.4097 2.3806
4.4980 4.5431 2.3806
4.3086 4.6685 2.3806
4.1154 4.7856 2.3806
3.9187 4.8945 2.3806
3.7190 4.9950 2.3806
3.5165 5.0872 2.3806
3.3118 5.1711 2.3806
3.1053 5.2466 2.3806
2.8972 5.3138 2.3806
0.9839 1.9667 0.8714
0.9130 1.9984 0.8772
0.8411 2.0275 0.8830
0.7681 2.0540 0.8889
0.6942 2.0778 0.8949
0.6194 2.0990 0.9009
0.5440 2.1174 0.9070
0.4679 2.1331 0.9131
0.3913 2.1460 0.9192
0.3143 2.1561 0.9254
0.2370 2.1635 0.9316
0.1595 2.1680 0.9378
0.0818 2.1698 0.9440
0.0041 2.1687 0.9502
-0.0734 2.1648 0.9564
-0.1508 2.1581 0.9625
-0.2280 2.1486 0.9686
-0.3047 2.1363 0.9747
-0.3809 2.1213 0.9808
-0.4565 2.1035 0.9867
-0.5315 2.0830 0.9927
-0.6057 2.0598 0.9985
-0.6789 2.0339 1.0043
-0.7512 2.0053 1.0100
-0.8225 1.9742 1.0156
-2.0809 4.5244 2.3806
-2.2295 4.4168 2.3806
-2.3738 4.3050 2.3806
-2.5136 4.1894 2.3806
-2.6488 4.0700 2.3806
-2.7795 3.9470 2.3806
-2.9055 3.8206 2.3806
-3.0268 3.6910 2.3806
-3.1433 3.5582 2.3806
-3.2551 3.4226 2.3806
-3.3621 3.2841 2.3806
-3.4642 3.1429 2.3806
-3.5615 2.9993 2.3806
-3.6539 2.8533 2.3806
-3.7413 2.7051 2.3806
-3.8238 2.5548 2.3806
-3.9013 2.4025 2.3806
-3.9739 2.2484 2.3806
-4.0414 2.0927 2.3806
-4.1040 1.9354 2.3806
-4.1615 1.7767 2.3806
-4.2140 1.6167 2.3806
-4.2615 1.4555 2.3806
-4.3039 1.2932 2.3806
-4.3413 1.1300 2.3806
-4.3737 0.9660 2.3806
-4.4009 0.8013 2.3806
-4.4232 0.6360 2.3806
-4.4403 0.4703 2.3806
-4.4524 0.3042 2.3806
-4.4594 0.1379 2.3806
-4.4614 -0.0285 2.3806
-4.4582 -0.1950 2.3806
-4.4500 -0.3613 2.3806
-4.4368 -0.5273 2.3806
-4.4184 -0.6931 2.3806
-4.3950 -0.8583 2.3806
-4.3665 -1.0230 2.3806
-4.3330 -1.1870 2.3806
-4.2944 -1.3501 2.3806
-4.2507 -1.5123 2.3806
-4.2020 -1.6735 2.3806
-4.1482 -1.8334 2.3806
-4.0894 -1.9921 2.3806
-4.0255 -2.1493 2.3806
-3.9566 -2.3049 2.3806
-3.8828 -2.4589 2.3806
-3.8039 -2.6110 2.3806
-3.7200 -2.7611 2.3806
-3.6311 -2.9092 2.3806
-3.5374 -3.0550 2.3806
-3.4386 -3.1984 2.3806
-3.3350 -3.3392 2.3806
-3.2266 -3.4774 2.3806
-3.1132 -3.6128 2.3806
-2.9951 -3.7451 2.3806
-2.8722 -3.8744 2.3806
-2.7446 -4.0003 2.3806
-2.6124 -4.1227 2.3806
-2.4755 -4.2415 2.3806
-2.3341 -4.3565 2.3806
-2.1882 -4.4676 2.3806
-2.0378 -4.5745 2.3806
-1.8832 -4.6770 2.3806
-1.7243 -4.7751 2.3806
-1.5612 -4.8685 2.3806
-1.3941 -4.9570 2.3806
-1.2231 -5.0405 2.3806
-1.0482 -5.1188 2.3806
-0.8696 -5.1916 2.3806
-0.6875 -5.2589 2.3806
-0.5020 -5.3204 2.3806
-0.3132 -5.3759 2.3806
-0.1214 -5.4252 2.3806
0.0734 -5.4682 2.3806
0.2709 -5.5047 2.3806
0.4708 -5.5346 2.3806
0.6731 -5.5575 2.3806
0.8774 -5.5734 2.3806
1.0835 -5.5822 2.3806
1.2911 -5.5835 2.3806
1.5001 -5.5774 2.3806
1.7101 -5.5637 2.3806
1.9208 -5.5421 2.3806
2.1319 -5.5127 2.3806
2.3431 -5.4752 2.3806
2.5541 -5.4297 2.3806
2.7645 -5.3759 2.3806
2.9740 -5.3139 2.3806
3.1822 -5.2435 2.3806
3.3887 -5.1648 2.3806
3.5931 -5.0777 2.3806
3.7951 -4.9823 2.3806
3.9943 -4.8784 2.3806
4.1902 -4.7662 2.3806
4.3825 -4.6457 2.3806
4.5707 -4.5170 2.3806
4.7544 -4.3803 2.3806
4.9331 -4.2356 2.3806
5.1066 -4.0831 2.3806
5.2743 -3.9229 2.3806
5.4359 -3.7554 2.3806
5.5910 -3.5806 2.3806
5.7391 -3.3989 2.3806
5.8798 -3.2105 2.3806
6.0129 -3.0158 2.3806
6.1379 -2.8150 2.3806
6.2546 -2.6086 2.3806
6.3625 -2.3968 2.3806
6.4614 -2.1801 2.3806
6.5510 -1.9589 2.3806
6.6311 -1.7337 2.3806
6.7014 -1.5048 2.3806
6.7617 -1.2729 2.3806
6.8119 -1.0382 2.3806
6.8517 -0.8013 2.3806
6.8811 -0.5628 2.3806
6.9000 -0.3231 2.3806
6.9084 -0.0827 2.3806
6.9061 0.1577 2.3806
6.8933 0.3979 2.3806
6.8700 0.6371 2.3806
6.8361 0.8749 2.3806
6.7920 1.1108 2.3806
6.7375 1.3443 2.3806
6.6731 1.5749 2.3806
6.5987 1.8022 2.3806
6.5147 2.0256 2.3806
6.4212 2.2447 2.3806
6.3187 2.4593 2.3806
6.2072 2.6687 2.3806
6.0872 2.8726 2.3806
5.9590 3.0707 2.3806
5.8230 3.2627 2.3806
5.6794 3.4481 2.3806
5.5287 3.6268 2.3806
5.3713 3.7985 2.3806
5.2075 3.9629 2.3806
5.0378 4.1198 2.3806
4.8626 4.2690 2.3806
4.6822 4.4104 2.3806
4.4971 4.5437 2.3806
4.3077 4.6690 2.3806
4.1145 4.7861 2.3806
3.9178 4.8949 2.3806
3.7180 4.9954 2.3806
3.5156 5.0876 2.3806
3.3109 5.1715 2.3806
3.1043 5.2469 2.3806
2.8962 5.3141 2.3806
0.9836 1.9669 0.8714
0.9127 1.9986 0.8772
0.8407 2.0277 0.8830
0.7677 2.0541 0.8889
0.6938 2.0779 0.8949
0.6191 2.0991 0.9009
0.5436 2.1175 0.9070
0.4676 2.1331 0.9131
0.3910 2.1460 0.9193
0.3140 2.1562 0.9254
0.2367 2.1635 0.9316
0.1591 2.1680 0.9378
0.0815 2.1698 0.9440
0.0038 2.1687 0.9502
-0.0738 2.1648 0.9564
-0.1512 2.1581 0.9625
-0.2283 2.1486 0.9687
-0.3050 2.1363 0.9748
-0.3813 2.1212 0.9808
-0.4569 2.1034 0.9868
-0.5318 2.0829 0.9927
-0.6060 2.0596 0.9985
-0.6793 2.0337 1.0043
-0.7516 2.0052 1.0100
-0.8228 1.9741 1.0156
-2.0816 4.5239 2.3806
-2.2302 4.4163 2.3806
-2.3744 4.3045 2.3806
-2.5142 4.1888 2.3806
-2.6494 4.0694 2.3806
-2.7800 3.9465 2.3806
-2.9060 3.8201 2.3806
-3.0273 3.6904 2.3806
-3.1439 3.5576 2.3806
-3.2556 3.4219 2.3806
-3.3626 3.2834 2.3806
-3.4647 3.1423 2.3806
-3.5619 2.9986 2.3806
-3.6543 2.8526 2.3806
-3.7417 2.7044 2.3806
-3.8241 2.5541 2.3806
-3.9017 2.4018 2.3806
-3.9742 2.2477 2.3806
-4.0417 2.0920 2.3806
-4.1042 1.9347 2.3806
-4.1618 1.7759 2.3806
-4.2142 1.6159 2.3806
-4.2617 1.4547 2.3806
-4.3041 1.2925 2.3806
-4.3415 1.1293 2.3806
-4.3738 0.9652 2.3806
-4.4010 0.8006 2.3806
-4.4232 0.6353 2.3806
-4.4404 0.4695 2.3806
-4.4524 0.3035 2.3806
-4.4594 0.1371 2.3806
-4.4614 -0.0293 2.3806
-4.4582 -0.1957 2.3806
-4.4500 -0.3620 2.3806
-4.4367 -0.5281 2.3806
-4.4183 -0.6938 2.3806
-4.3949 -0.8591 2.3806
-4.3664 -1.0237 2.3806
-4.3328 -1.1877 2.3806
-4.2942 -1.3509 2.3806
-4.2505 -1.5131 2.3806
-4.2017 -1.6742 2.3806
-4.1479 -1.8342 2.3806
-4.0891 -1.9928 2.3806
-4.0252 -2.1500 2.3806
-3.9563 -2.3057 2.3806
-3.8824 -2.4596 2.3806
-3.8035 -2.6117 2.3806
-3.7196 -2.7618 2.3806
-3.6307 -2.9099 2.3806
-3.5369 -3.0556 2.3806
-3.4382 -3.1990 2.3806
-3.3345 -3.3399 2.3806
-3.2260 -3.4781 2.3806
-3.1127 -3.6134 2.3806
-2.9946 -3.7457 2.3806
-2.8717 -3.8749 2.3806
-2.7440 -4.0008 2.3806
-2.6117 -4.1233 2.3806
-2.4748 -4.2421 2.3806
-2.3334 -4.3570 2.3806
-2.1875 -4.4681 2.3806
-2.0371 -4.5749 2.3806
-1.8825 -4.6775 2.3806
-1.7235 -4.7755 2.3806
-1.5605 -4.8689 2.3806
-1.3933 -4.9574 2.3806
-1.2223 -5.0409 2.3806
-1.0474 -5.1191 2.3806
-0.8688 -5.1919 2.3806
-0.6867 -5.2592 2.3806
-0.5011 -5.3206 2.3806
-0.3123 -5.3761 2.3806
-0.1205 -5.4254 2.3806
0.0743 -5.4684 2.3806
0.2718 -5.5049 2.3806
0.4717 -5.5347 2.3806
0.6740 -5.5576 2.3806
0.8783 -5.5735 2.3806
1.0844 -5.5822 2.3806
1.2921 -5.5835 2.3806
1.5011 -5.5774 2.3806
1.7111 -5.5636 2.3806
1.9218 -5.5420 2.3806
2.1329 -5.5125 2.3806
2.3441 -5.4750 2.3806
2.5551 -5.4294 2.3806
2.7655 -5.3756 2.3806
2.9749 -5.3136 2.3806
3.1831 -5.2432 2.3806
3.3896 -5.1644 2.3806
3.5941 -5.0773 2.3806
3.7961 -4.9818 2.3806
3.9952 -4.8779 2.3806
4.1911 -4.7656 2.3806
4.3834 -4.6451 2.3806
4.5715 -4.5164 2.3806
4.7552 -4.3796 2.3806
4.9340 -4.2349 2.3806
5.1074 -4.0823 2.3806
5.2751 -3.9222 2.3806
5.4366 -3.7546 2.3806
5.5917 -3.5798 2.3806
5.7397 -3.3980 2.3806
5.8805 -3.2096 2.3806
6.0135 -3.0149 2.3806
6.1385 -2.8141 2.3806
6.2551 -2.6076 2.3806
6.3630 -2.3958 2.3806
6.4618 -2.1791 2.3806
6.5514 -1.9579 2.3806
6.6314 -1.7327 2.3806
6.7017 -1.5038 2.3806
6.7620 -1.2718 2.3806
6.8121 -1.0371 2.3806
6.8519 -0.8002 2.3806
6.8812 -0.5617 2.3806
6.9001 -0.3220 2.3806
6.9084 -0.0816 2.3806
6.9061 0.1589 2.3806
6.8932 0.3990 2.3806
6.8698 0.6382 2.3806
6.8360 0.8760 2.3806
6.7917 1.1119 2.3806
6.7373 1.3454 2.3806
6.6727 1.5760 2.3806
6.5983 1.8032 2.3806
6.5143 2.0266 2.3806
6.4208 2.2458 2.3806
6.3182 2.4603 2.3806
6.2067 2.6696 2.3806
6.0867 2.8735 2.3806
5.9584 3.0716 2.3806
5.8223 3.2635 2.3806
5.6787 3.4490 2.3806
5.5280 3.6276 2.3806
5.3706 3.7993 2.3806
5.2068 3.9636 2.3806
5.0370 4.1205 2.3806
4.8617 4.2696 2.3806
4.6813 4.4110 2.3806
4.4962 4.5443 2.3806
4.3069 4.6696 2.3806
4.1136 4.7866 2.3806
3.9169 4.8954 2.3806
3.7171 4.9959 2.3806
3.5147 5.0880 2.3806
3.3099 5.1718 2.3806
3.1034 5.2473 2.3806
2.8953 5.3144 2.3806
0.9833 1.9670 0.8715
0.9124 1.9987 0.8772
0.8404 2.0278 0.8831
0.7674 2.0542 0.8890
0.6935 2.0780 0.8949
0.6187 2.0991 0.9009
0.5433 2.1175 0.9070
0.4672 2.1332 0.9131
0.3906 2.1461 0.9193
0.3136 2.1562 0.9255
0.2363 2.1635 0.9316
0.1588 2.1680 0.9378
0.0811 2.1698 0.9440
0.0034 2.1687 0.9502
-0.0742 2.1647 0.9564
-0.1516 2.1580 0.9626
-0.2287 2.1485 0.9687
-0.3054 2.1362 0.9748
4.8696 3.6947 2.3806
4.7128 3.8423 2.3806
4.5509 3.9828 2.3806
4.3840 4.1162 2.3806
4.2127 4.2423 2.3806
4.0373 4.3609 2.3806
3.8582 4.4720 2.3806
3.6757 4.5755 2.3806
3.4903 4.6713 2.3806
3.3022 4.7594 2.3806
3.1118 4.8398 2.3806
2.9196 4.9124 2.3806
2.7257 4.9774 2.3806
0.9305 1.8512 0.8753
0.8638 1.8811 0.8808
0.7960 1.9084 0.8862
0.7273 1.9334 0.8918
0.6578 1.9558 0.8974
0.5874 1.9756 0.9031
0.5164 1.9930 0.9088
0.4448 2.0077 0.9146
0.3727 2.0199 0.9203
0.3002 2.0294 0.9262
0.2275 2.0363 0.9320
0.1545 2.0406 0.9378
0.0814 2.0422 0.9436
0.0083 2.0412 0.9495
-0.0648 2.0376 0.9553
-0.1376 2.0312 0.9611
-0.2102 2.0223 0.9669
-0.2824 2.0108 0.9726
-0.3541 1.9966 0.9783
-0.4253 1.9799 0.9839
-0.4959 1.9605 0.9895
-0.5657 1.9387 0.9950
-0.6347 1.9143 1.0004
-0.7027 1.8875 1.0058
-0.7698 1.8582 1.0110
-0.8357 1.8265 1.0162
-2.0990 4.1783 2.3806
-2.2361 4.0737 2.3806
-2.3691 3.9654 2.3806
-2.4978 3.8534 2.3806
-2.6222 3.7379 2.3806
-2.7423 3.6191 2.3806
-2.8579 3.4971 2.3806
-2.9691 3.3721 2.3806
-3.0757 3.2442 2.3806
-3.1778 3.1135 2.3806
-3.2753 2.9803 2.3806
-3.3682 2.8446 2.3806
-3.4565 2.7066 2.3806
-3.5400 2.5664 2.3806
-3.6189 2.4242 2.3806
-3.6930 2.2801 2.3806
-3.7624 2.1342 2.3806
-3.8271 1.9866 2.3806
-3.8870 1.8375 2.3806
-3.9420 1.6870 2.3806
-3.9923 1.5352 2.3806
-4.0378 1.3822 2.3806
-4.0784 1.2282 2.3806
-4.1142 1.0733 2.3806
-4.1452 0.9176 2.3806
-4.1714 0.7611 2.3806
-4.1926 0.6042 2.3806
-4.2091 0.4467 2.3806
-4.2206 0.2889 2.3806
-4.2274 0.1309 2.3806
-4.2292 -0.0272 2.3806
-4.2262 -0.1853 2.3806
-4.2183 -0.3433 2.3806
-4.2056 -0.5011 2.3806
-4.1880 -0.6585 2.3806
-4.1656 -0.8154 2.3806
-4.1382 -0.9718 2.3806
-4.1061 -1.1275 2.3806
-4.0691 -1.2824 2.3806
-4.0272 -1.4363 2.3806
-3.9805 -1.5892 2.3806
-3.9290 -1.7409 2.3806
-3.8727 -1.8913 2.3806
-3.8116 -2.0403 2.3806
-3.7457 -2.1877 2.3806
-3.6750 -2.3335 2.3806
-3.5995 -2.4774 2.3806
-3.5193 -2.6195 2.3806
-3.4344 -2.7594 2.3806
-3.3448 -2.8972 2.3806
-3.2505 -3.0326 2.3806
-3.1516 -3.1655 2.3806
-3.0480 -3.2957 2.3806
-2.9399 -3.4233 2.3806
-2.8273 -3.5479 2.3806
-2.7102 -3.6694 2.3806
-2.5887 -3.7877 2.3806
-2.4628 -3.9026 2.3806
-2.3325 -4.0140 2.3806
-2.1980 -4.1217 2.3806
-2.0593 -4.2255 2.3806
-1.9165 -4.3253 2.3806
-1.7697 -4.4210 2.3806
-1.6189 -4.5123 2.3806
-1.4643 -4.5991 2.3806
-1.3060 -4.6812 2.3806
-1.1440 -4.7584 2.3806
-0.9785 -4.8307 2.3806
-0.8097 -4.8977 2.3806
-0.6376 -4.9594 2.3806
-0.4624 -5.0156 2.3806
-0.2843 -5.0660 2.3806
-0.1034 -5.1106 2.3806
0.0801 -5.1492 2.3806
0.2660 -5.1816 2.3806
0.4542 -5.2077 2.3806
0.6443 -5.2272 2.3806
0.8362 -5.2401 2.3806
1.0296 -5.2462 2.3806
1.2244 -5.2454 2.3806
1.4202 -5.2376 2.3806
1.6168 -5.2225 2.3806
1.8139 -5.2002 2.3806
2.0112 -5.1705 2.3806
2.2085 -5.1332 2.3806
2.4054 -5.0885 2.3806
2.6016 -5.0360 2.3806
2.7968 -4.9759 2.3806
2.9907 -4.9079 2.3806
3.1827 -4.8325 2.3806
3.3728 -4.7492 2.3806
3.5604 -4.6581 2.3806
3.7453 -4.5592 2.3806
3.9270 -4.4527 2.3806
4.1051 -4.3386 2.3806
4.2794 -4.2169 2.3806
4.4494 -4.0878 2.3806
4.6147 -3.9514 2.3806
4.7750 -3.8079 2.3806
4.9299 -3.6574 2.3806
5.0791 -3.5001 2.3806
5.2221 -3.3362 2.3806
5.3586 -3.1660 2.3806
5.4883 -2.9898 2.3806
5.6109 -2.8077 2.3806
5.7260 -2.6202 2.3806
5.8333 -2.4275 2.3806
5.9326 -2.2300 2.3806
6.0235 -2.0280 2.3806
6.1059 -1.8220 2.3806
6.1795 -1.6123 2.3806
6.2440 -1.3993 2.3806
6.2994 -1.1834 2.3806
6.3455 -0.9652 2.3806
6.3821 -0.7450 2.3806
6.4091 -0.5232 2.3806
6.4265 -0.3004 2.3806
6.4342 -0.0770 2.3806
6.4321 0.1465 2.3806
6.4204 0.3697 2.3806
6.3990 0.5920 2.3806
6.3680 0.8132 2.3806
6.3275 1.0325 2.3806
6.2775 1.2497 2.3806
6.2183 1.4643 2.3806
6.1501 1.6759 2.3806
6.0729 1.8840 2.3806
5.9870 2.0883 2.3806
5.8928 2.2883 2.3806
5.7903 2.4837 2.3806
5.6799 2.6741 2.3806
5.5619 2.8593 2.3806
5.4366 3.0388 2.3806
5.3043 3.2124 2.3806
5.1653 3.3799 2.3806
5.0201 3.5409 2.3806
4.8689 3.6954 2.3806
4.7121 3.8429 2.3806
4.5501 3.9835 2.3806
4.3833 4.1168 2.3806
4.2119 4.2429 2.3806
4.0365 4.3615 2.3806
3.8574 4.4725 2.3806
3.6749 4.5759 2.3806
3.4894 4.6717 2.3806
3.3013 4.7598 2.3806
3.1109 4.8401 2.3806
2.9187 4.9127 2.3806
2.7248 4.9777 2.3806
0.9302 1.8514 0.8754
0.8635 1.8812 0.8808
0.7957 1.9086 0.8863
0.7270 1.9335 0.8918
0.6574 1.9559 0.8974
0.5871 1.9757 0.9031
0.5161 1.9931 0.9088
0.4445 2.0078 0.9146
0.3724 2.0199 0.9204
0.2999 2.0295 0.9262
0.2271 2.0364 0.9320
0.1541 2.0406 0.9378
0.0810 2.0422 0.9437
0.0079 2.0412 0.9495
-0.0651 2.0375 0.9553
-0.1379 2.0312 0.9611
-0.2105 2.0223 0.9669
-0.2827 2.0107 0.9726
-0.3545 1.9965 0.9783
-0.4257 1.9798 0.9839
-0.4962 1.9604 0.9895
-0.5660 1.9386 0.9950
-0.6350 1.9142 1.0004
-0.7030 1.8874 1.0058
-0.7701 1.8581 1.0110
-0.8360 1.8264 1.0162
-2.0997 4.1778 2.3806
-2.2368 4.0732 2.3806
-2.3697 3.9649 2.3806
-2.4984 3.8528 2.3806
-2.6228 3.7373 2.3806
-2.7428 3.6185 2.3806
-2.8584 3.4965 2.3806
-2.9696 3.3715 2.3806
-3.0762 3.2436 2.3806
-3.1783 3.1129 2.3806
-3.2758 2.9797 2.3806
-3.3686 2.8440 2.3806
-3.4569 2.7060 2.3806
-3.5404 2.5658 2.3806
-3.6192 2.4236 2.3806
-3.6934 2.2794 2.3806
-3.7628 2.1335 2.3806
-3.8274 1.9859 2.3806
-3.8872 1.8368 2.3806
-3.9423 1.6863 2.3806
-3.9925 1.5345 2.3806
-4.0380 1.3815 2.3806
-4.0786 1.2275 2.3806
-4.1144 1.0726 2.3806
-4.1454 0.9168 2.3806
-4.1715 0.7604 2.3806
-4.1927 0.6034 2.3806
-4.2091 0.4460 2.3806
-4.2207 0.2882 2.3806
-4.2274 0.1302 2.3806
-4.2292 -0.0279 2.3806
-4.2262 -0.1860 2.3806
-4.2183 -0.3440 2.3806
-4.2055 -0.5018 2.3806
-4.1879 -0.6592 2.3806
-4.1654 -0.8162 2.3806
-4.1381 -0.9725 2.3806
-4.1059 -1.1282 2.3806
-4.0689 -1.2831 2.3806
-4.0270 -1.4370 2.3806
-3.9803 -1.5899 2.3806
-3.9288 -1.7416 2.3806
-3.8724 -1.8920 2.3806
-3.8113 -2.0410 2.3806
-3.7453 -2.1884 2.3806
-3.6746 -2.3341 2.3806
-3.5991 -2.4781 2.3806
-3.5189 -2.6201 2.3806
-3.4340 -2.7601 2.3806
-3.3443 -2.8978 2.3806
-3.2500 -3.0332 2.3806
-3.1511 -3.1661 2.3806
-3.0475 -3.2963 2.3806
-2.9394 -3.4238 2.3806
-2.8268 -3.5484 2.3806
-2.7097 -3.6699 2.3806
-2.5881 -3.7882 2.3806
-2.4622 -3.9031 2.3806
-2.3319 -4.0145 2.3806
-2.1974 -4.1222 2.3806
-2.0587 -4.2260 2.3806
-1.9159 -4.3258 2.3806
-1.7690 -4.4214 2.3806
-1.6182 -4.5127 2.3806
-1.4636 -4.5995 2.3806
-1.3053 -4.6816 2.3806
-1.1433 -4.7588 2.3806
-0.9778 -4.8310 2.3806
-0.8089 -4.8980 2.3806
-0.6368 -4.9597 2.3806
-0.4616 -5.0158 2.3806
-0.2834 -5.0663 2.3806
-0.1025 -5.1108 2.3806
0.0810 -5.1494 2.3806
0.2669 -5.1817 2.3806
0.4550 -5.2078 2.3806
0.6452 -5.2273 2.3806
0.8371 -5.2402 2.3806
1.0305 -5.2462 2.3806
1.2253 -5.2454 2.3806
1.4211 -5.2375 2.3806
1.6177 -5.2224 2.3806
1.8148 -5.2001 2.3806
2.0122 -5.1703 2.3806
2.2094 -5.1330 2.3806
2.4063 -5.0882 2.3806
2.6025 -5.0358 2.3806
2.7977 -4.9756 2.3806
2.9914 -4.9080 2.3806
3.1836 -4.8322 2.3806
3.3736 -4.7488 2.3806
3.5613 -4.6576 2.3806
3.7461 -4.5588 2.3806
3.9278 -4.4522 2.3806
4.1059 -4.3380 2.3806
4.2802 -4.2163 2.3806
4.4502 -4.0872 2.3806
4.6155 -3.9508 2.3806
4.7758 -3.8072 2.3806
4.9306 -3.6567 2.3806
5.0797 -3.4993 2.3806
5.2227 -3.3354 2.3806
5.3592 -3.1652 2.3806
5.4889 -2.9889 2.3806
5.6114 -2.8069 2.3806
5.7265 -2.6193 2.3806
5.8338 -2.4266 2.3806
5.9330 -2.2291 2.3806
6.0239 -2.0271 2.3806
6.1062 -1.8210 2.3806
6.1798 -1.6113 2.3806
6.2443 -1.3983 2.3806
6.2997 -1.1824 2.3806
6.3457 -0.9642 2.3806
6.3822 -0.7439 2.3806
6.4092 -0.5222 2.3806
6.4265 -0.2994 2.3806
6.4342 -0.0760 2.3806
6.4321 0.1475 2.3806
6.4203 0.3707 2.3806
6.3989 0.5931 2.3806
6.3678 0.8142 2.3806
6.3273 1.0335 2.3806
6.2773 1.2507 2.3806
6.2180 1.4653 2.3806
6.1497 1.6769 2.3806
6.0725 1.8850 2.3806
5.9866 2.0892 2.3806
5.8923 2.2892 2.3806
5.7898 2.4846 2.3806
5.6794 2.6750 2.3806
5.5613 2.8601 2.3806
5.4360 3.0396 2.3806
5.3036 3.2132 2.3806
5.1647 3.3807 2.3806
5.0194 3.5417 2.3806
4.8682 3.6961 2.3806
4.7114 3.8436 2.3806
4.5494 3.9841 2.3806
4.3825 4.1174 2.3806
4.2111 4.2434 2.3806
4.0357 4.3620 2.3806
3.8565 4.4730 2.3806
3.6740 4.5764 2.3806
3.4885 4.6721 2.3806
3.3004 4.7602 2.3806
3.1101 4.8405 2.3806
2.9178 4.9131 2.3806
2.7240 4.9779 2.3806
0.9299 1.8515 0.8754
0.8632 1.8813 0.8808
0.7954 1.9087 0.8863
0.7267 1.9336 0.8918
0.6571 1.9560 0.8975
0.5868 1.9758 0.9031
0.5157 1.9931 0.9089
0.4441 2.0079 0.9146
0.3721 2.0200 0.9204
0.2996 2.0295 0.9262
0.2268 2.0364 0.9320
0.1538 2.0406 0.9379
0.0807 2.0422 0.9437
0.0076 2.0412 0.9495
-0.0654 2.0375 0.9553
-0.1383 2.0312 0.9611
-0.2109 2.0222 0.9669
-0.2831 2.0106 0.9726
4.5679 3.4564 2.3806
4.4225 3.5956 2.3806
4.2721 3.7282 2.3806
4.1172 3.8543 2.3806
3.9580 3.9736 2.3806
3.7949 4.0861 2.3806
3.6282 4.1915 2.3806
3.4582 4.2900 2.3806
3.2854 4.3813 2.3806
3.1100 4.4655 2.3806
2.9324 4.5426 2.3806
2.7528 4.6124 2.3806
0.9440 1.7161 0.8739
0.8821 1.7465 0.8789
0.8192 1.7746 0.8840
0.7552 1.8005 0.8892
0.6904 1.8239 0.8944
0.6248 1.8451 0.8997
0.5584 1.8638 0.9051
0.4914 1.8802 0.9105
0.4238 1.8941 0.9159
0.3558 1.9055 0.9214
0.2875 1.9145 0.9268
0.2188 1.9210 0.9323
0.1499 1.9251 0.9378
0.0810 1.9266 0.9433
0.0120 1.9256 0.9488
-0.0569 1.9222 0.9543
-0.1256 1.9162 0.9598
-0.1941 1.9078 0.9652
-0.2622 1.8969 0.9706
-0.3299 1.8836 0.9760
-0.3971 1.8678 0.9813
-0.4636 1.8495 0.9866
-0.5295 1.8289 0.9918
-0.5945 1.8059 0.9969
-0.6587 1.7806 1.0019
-0.7220 1.7530 1.0069
-0.7842 1.7231 1.0118
-1.9795 3.9600 2.3806
-2.1101 3.8618 2.3806
-2.2367 3.7600 2.3806
-2.3594 3.6547 2.3806
-2.4780 3.5460 2.3806
-2.5925 3.4341 2.3806
-2.7028 3.3190 2.3806
-2.8090 3.2010 2.3806
-2.9108 3.0802 2.3806
-3.0084 2.9567 2.3806
-3.1016 2.8307 2.3806
-3.1904 2.7023 2.3806
-3.2748 2.5716 2.3806
-3.3547 2.4388 2.3806
-3.4302 2.3040 2.3806
-3.5012 2.1673 2.3806
-3.5676 2.0289 2.3806
-3.6296 1.8888 2.3806
-3.6869 1.7472 2.3806
-3.7397 1.6042 2.3806
-3.7879 1.4600 2.3806
-3.8314 1.3146 2.3806
-3.8704 1.1682 2.3806
-3.9047 1.0209 2.3806
-3.9344 0.8728 2.3806
-3.9595 0.7241 2.3806
-3.9799 0.5747 2.3806
-3.9956 0.4250 2.3806
-4.0067 0.2748 2.3806
-4.0132 0.1245 2.3806
-4.0149 -0.0260 2.3806
-4.0120 -0.1764 2.3806
-4.0045 -0.3267 2.3806
-3.9922 -0.4768 2.3806
-3.9754 -0.6266 2.3806
-3.9538 -0.7759 2.3806
-3.9276 -0.9246 2.3806
-3.8968 -1.0726 2.3806
-3.8613 -1.2199 2.3806
-3.8211 -1.3662 2.3806
-3.7764 -1.5114 2.3806
-3.7270 -1.6555 2.3806
-3.6730 -1.7984 2.3806
-3.6144 -1.9398 2.3806
-3.5513 -2.0797 2.3806
-3.4836 -2.2180 2.3806
-3.4113 -2.3545 2.3806
-3.3346 -2.4891 2.3806
-3.2533 -2.6216 2.3806
-3.1676 -2.7520 2.3806
-3.0775 -2.8801 2.3806
-2.9829 -3.0058 2.3806
-2.8840 -3.1289 2.3806
-2.7808 -3.2493 2.3806
-2.6733 -3.3668 2.3806
-2.5616 -3.4813 2.3806
-2.4457 -3.5927 2.3806
-2.3256 -3.7009 2.3806
-2.2015 -3.8055 2.3806
-2.0734 -3.9067 2.3806
-1.9414 -4.0040 2.3806
-1.8056 -4.0975 2.3806
-1.6660 -4.1870 2.3806
-1.5227 -4.2722 2.3806
-1.3759 -4.3531 2.3806
-1.2256 -4.4295 2.3806
-1.0720 -4.5012 2.3806
-0.9151 -4.5682 2.3806
-0.7551 -4.6301 2.3806
-0.5922 -4.6869 2.3806
-0.4264 -4.7384 2.3806
-0.2580 -4.7845 2.3806
-0.0870 -4.8250 2.3806
0.0863 -4.8597 2.3806
0.2617 -4.8886 2.3806
0.4391 -4.9115 2.3806
0.6182 -4.9282 2.3806
0.7989 -4.9385 2.3806
0.9809 -4.9425 2.3806
1.1641 -4.9400 2.3806
1.3480 -4.9308 2.3806
1.5326 -4.9148 2.3806
1.7176 -4.8920 2.3806
1.9026 -4.8623 2.3806
2.0874 -4.8255 2.3806
2.2717 -4.7817 2.3806
2.4553 -4.7307 2.3806
2.6377 -4.6725 2.3806
2.8188 -4.6072 2.3806
2.9981 -4.5346 2.3806
3.1754 -4.4549 2.3806
3.3503 -4.3679 2.3806
3.5227 -4.2732 2.3806
3.6916 -4.1725 2.3806
3.8574 -4.0642 2.3806
4.0194 -3.9490 2.3806
4.1773 -3.8269 2.3806
4.3309 -3.6981 2.3806
4.4796 -3.5627 2.3806
4.6233 -3.4209 2.3806
4.7615 -3.2729 2.3806
4.8940 -3.1189 2.3806
5.0205 -2.9590 2.3806
5.1405 -2.7937 2.3806
5.2539 -2.6230 2.3806
5.3603 -2.4473 2.3806
5.4595 -2.2669 2.3806
5.5513 -2.0821 2.3806
5.6353 -1.8932 2.3806
5.7113 -1.7006 2.3806
5.7793 -1.5047 2.3806
5.8389 -1.3058 2.3806
5.8900 -1.1043 2.3806
5.9325 -0.9006 2.3806
5.9663 -0.6951 2.3806
5.9912 -0.4882 2.3806
6.0073 -0.2804 2.3806
6.0144 -0.0720 2.3806
6.0125 0.1365 2.3806
6.0017 0.3447 2.3806
5.9820 0.5522 2.3806
5.9534 0.7585 2.3806
5.9161 0.9632 2.3806
5.8700 1.1660 2.3806
5.8155 1.3664 2.3806
5.7525 1.5640 2.3806
5.6812 1.7585 2.3806
5.6020 1.9495 2.3806
5.5149 2.1366 2.3806
5.4202 2.3195 2.3806
5.3182 2.4978 2.3806
5.2091 2.6714 2.3806
5.0931 2.8398 2.3806
4.9707 3.0028 2.3806
4.8420 3.1602 2.3806
4.7074 3.3117 2.3806
4.5672 3.4571 2.3806
4.4218 3.5962 2.3806
4.2714 3.7288 2.3806
4.1165 3.8549 2.3806
3.9572 3.9741 2.3806
3.7941 4.0866 2.3806
3.6274 4.1920 2.3806
3.4574 4.2904 2.3806
3.2846 4.3817 2.3806
3.1092 4.4659 2.3806
2.9316 4.5429 2.3806
2.7520 4.6127 2.3806
0.9438 1.7163 0.8739
0.8818 1.7466 0.8789
0.8189 1.7748 0.8840
0.7549 1.8006 0.8892
0.6901 1.8240 0.8944
0.6245 1.8452 0.8997
0.5581 1.8639 0.9051
0.4911 1.8802 0.9105
0.4235 1.8941 0.9159
0.3555 1.9056 0.9214
0.2871 1.9146 0.9269
0.2185 1.9211 0.9324
0.1496 1.9251 0.9379
0.0807 1.9266 0.9434
0.0117 1.9256 0.9489
-0.0572 1.9222 0.9544
-0.1259 1.9162 0.9598
-0.1944 1.9078 0.9653
-0.2625 1.8969 0.9707
-0.3302 1.8835 0.9760
-0.3974 1.8677 0.9813
-0.4639 1.8494 0.9866
-0.5298 1.8288 0.9918
-0.5948 1.8058 0.9969
-0.6590 1.7805 1.0020
-0.7223 1.7529 1.0069
-0.7845 1.7230 1.0118
-1.9801 3.9595 2.3806
-2.1107 3.8614 2.3806
-2.2373 3.7596 2.3806
-2.3599 3.6542 2.3806
-2.4785 3.5455 2.3806
-2.5930 3.4335 2.3806
-2.7033 3.3185 2.3806
-2.8094 3.2005 2.3806
-2.9113 3.0797 2.3806
-3.0088 2.9562 2.3806
-3.1020 2.8301 2.3806
-3.1908 2.7017 2.3806
-3.2752 2.5710 2.3806
-3.3551 2.4382 2.3806
-3.4306 2.3034 2.3806
-3.5015 2.1667 2.3806
-3.5679 2.0282 2.3806
-3.6298 1.8881 2.3806
-3.6872 1.7465 2.3806
-3.7399 1.6036 2.3806
-3.7881 1.4593 2.3806
-3.8316 1.3140 2.3806
-3.8706 1.1676 2.3806
-3.9049 1.0203 2.3806
-3.9346 0.8722 2.3806
-3.9596 0.7234 2.3806
-3.9800 0.5740 2.3806
-3.9957 0.4243 2.3806
-4.0068 0.2741 2.3806
-4.0132 0.1238 2.3806
-4.0149 -0.0266 2.3806
-4.0120 -0.1771 2.3806
-4.0044 -0.3274 2.3806
-3.9922 -0.4775 2.3806
-3.9753 -0.6273 2.3806
-3.9537 -0.7766 2.3806
-3.9275 -0.9253 2.3806
-3.8966 -1.0733 2.3806
-3.8611 -1.2205 2.3806
-3.8209 -1.3668 2.3806
-3.7761 -1.5121 2.3806
-3.7267 -1.6562 2.3806
-3.6727 -1.7990 2.3806
-3.6141 -1.9405 2.3806
-3.5510 -2.0804 2.3806
-3.4833 -2.2186 2.3806
-3.4110 -2.3551 2.3806
-3.3342 -2.4897 2.3806
-3.2529 -2.6222 2.3806
-3.1672 -2.7526 2.3806
-3.0771 -2.8807 2.3806
-2.9825 -3.0063 2.3806
-2.8836 -3.1294 2.3806
-2.7803 -3.2498 2.3806
-2.6728 -3.3673 2.3806
-2.5610 -3.4819 2.3806
-2.4451 -3.5932 2.3806
-2.3251 -3.7013 2.3806
-2.2009 -3.8060 2.3806
-2.0728 -3.9071 2.3806
-1.9408 -4.0045 2.3806
-1.8050 -4.0979 2.3806
-1.6653 -4.1874 2.3806
-1.5221 -4.2726 2.3806
-1.3752 -4.3535 2.3806
-1.2249 -4.4299 2.3806
-1.0712 -4.5016 2.3806
-0.9143 -4.5685 2.3806
-0.7544 -4.6304 2.3806
-0.5914 -4.6871 2.3806
-0.4256 -4.7386 2.3806
-0.2572 -4.7847 2.3806
-0.0862 -4.8252 2.3806
0.0871 -4.8599 2.3806
0.2625 -4.8887 2.3806
0.4399 -4.9115 2.3806
0.6190 -4.9282 2.3806
0.7997 -4.9386 2.3806
0.9818 -4.9425 2.3806
1.1649 -4.9400 2.3806
1.3489 -4.9307 2.3806
1.5335 -4.9147 2.3806
1.7184 -4.8919 2.3806
1.9034 -4.8621 2.3806
2.0883 -4.8253 2.3806
2.2726 -4.7814 2.3806
2.4561 -4.7304 2.3806
2.6386 -4.6723 2.3806
2.8196 -4.6069 2.3806
2.9989 -4.5343 2.3806
3.1762 -4.4545 2.3806
3.3511 -4.3675 2.3806
3.5233 -4.2731 2.3806
3.6924 -4.1720 2.3806
3.8581 -4.0637 2.3806
4.0201 -3.9485 2.3806
4.1781 -3.8263 2.3806
4.3315 -3.6975 2.3806
4.4803 -3.5621 2.3806
4.6239 -3.4203 2.3806
4.7622 -3.2722 2.3806
4.8946 -3.1182 2.3806
5.0210 -2.9583 2.3806
5.1410 -2.7929 2.3806
5.2544 -2.6222 2.3806
5.3608 -2.4465 2.3806
5.4600 -2.2660 2.3806
5.5517 -2.0812 2.3806
5.6356 -1.8923 2.3806
5.7117 -1.6997 2.3806
5.7796 -1.5038 2.3806
5.8391 -1.3049 2.3806
5.8902 -1.1033 2.3806
5.9327 -0.8996 2.3806
5.9664 -0.6941 2.3806
