ply
format ascii 1.0
element vertex 2179
property float32 x
property float32 y
property float32 z
end_header
8.7141 0.0924 1.8764
9.1934 1.4301 1.9967
8.7143 0.0926 1.8764
9.1930 1.4303 1.9965
8.0139 -5.4868 2.3405
8.1977 -5.1901 2.3376
8.3739 -4.8891 2.3355
8.5412 -4.5833 2.3339
8.6993 -4.2728 2.3328
8.8478 -3.9577 2.3321
8.9871 -3.6382 2.3319
9.1155 -3.3141 2.3317
9.2330 -2.9858 2.3317
9.3390 -2.6533 2.3317
8.8230 -2.1673 2.1809
8.9024 -1.8504 2.1815
8.9725 -1.5308 2.1825
9.0334 -1.2090 2.1840
9.0838 -0.8849 2.1857
9.1341 -0.5594 2.1901
9.1761 -0.2316 2.1953
8.7150 0.0933 2.0830
9.2097 0.4299 2.2019
9.1971 0.7612 2.2024
9.1746 1.0924 2.2033
9.1421 1.4232 2.2046
9.0998 1.7535 2.2064
9.0476 2.0831 2.2087
8.9855 2.4117 2.2114
8.9145 2.7395 2.2148
8.8368 3.0670 2.2196
8.7496 3.3935 2.2249
8.6502 3.7176 2.2302
8.5281 4.0339 2.2326
8.3953 4.3466 2.2353
8.2407 4.6491 2.2351
8.0758 4.9465 2.2351
7.9003 5.2381 2.2351
7.7142 5.5234 2.2350
7.5179 5.8021 2.2350
7.3115 6.0738 2.2349
7.0953 6.3382 2.2349
6.8695 6.5949 2.2349
6.6345 6.8435 2.2348
6.3905 7.0837 2.2348
6.2067 7.3973 2.2598
8.0141 -5.4867 2.3405
8.1979 -5.1899 2.3376
8.3740 -4.8889 2.3355
8.5413 -4.5831 2.3339
8.6994 -4.2726 2.3328
8.8479 -3.9574 2.3321
8.9872 -3.6380 2.3319
9.1156 -3.3139 2.3317
9.2331 -2.9856 2.3317
9.3390 -2.6531 2.3317
8.8230 -2.1671 2.1809
8.9025 -1.8502 2.1815
8.9726 -1.5306 2.1825
9.0334 -1.2088 2.1840
9.0838 -0.8847 2.1857
9.1341 -0.5592 2.1901
9.1761 -0.2313 2.1953
8.7152 0.0935 2.0830
9.2097 0.4301 2.2019
9.1971 0.7614 2.2024
9.1746 1.0926 2.2033
9.1420 1.4234 2.2046
9.0998 1.7538 2.2064
9.0476 2.0833 2.2087
8.9855 2.4119 2.2114
8.9144 2.7397 2.2148
8.8367 3.0673 2.2196
8.7495 3.3937 2.2249
8.6501 3.7178 2.2302
8.5280 4.0341 2.2326
8.3952 4.3468 2.2353
8.2406 4.6493 2.2351
8.0757 4.9467 2.2351
7.9001 5.2383 2.2351
7.7141 5.5236 2.2350
7.5177 5.8023 2.2350
7.3113 6.0740 2.2349
7.0951 6.3384 2.2349
6.8694 6.5951 2.2349
6.6344 6.8437 2.2348
6.3903 7.0839 2.2348
6.2067 7.3977 2.2599
-0.0029 -8.9387 2.3567
0.3180 -8.9249 2.3558
0.6382 -8.9029 2.3558
0.9573 -8.8697 2.3558
1.2749 -8.8252 2.3557
1.5905 -8.7696 2.3556
1.9038 -8.7029 2.3556
2.2145 -8.6253 2.3555
2.5222 -8.5368 2.3555
2.8264 -8.4375 2.3554
3.1268 -8.3277 2.3553
3.4231 -8.2074 2.3552
3.7149 -8.0768 2.3552
4.0018 -7.9360 2.3551
4.2836 -7.7853 2.3550
4.5598 -7.6247 2.3549
4.8302 -7.4546 2.3548
5.0943 -7.2752 2.3547
5.3520 -7.0866 2.3546
5.6029 -6.8890 2.3546
5.8467 -6.6828 2.3545
6.0830 -6.4682 2.3544
6.3117 -6.2454 2.3543
6.5324 -6.0147 2.3542
6.7449 -5.7763 2.3541
6.9489 -5.5307 2.3539
7.1441 -5.2780 2.3538
7.3304 -5.0185 2.3537
7.5024 -4.7494 2.3520
7.6559 -4.4694 2.3476
7.8022 -4.1862 2.3441
7.9407 -3.8997 2.3413
8.0708 -3.6095 2.3391
8.1916 -3.3157 2.3371
8.3041 -3.0185 2.3358
8.4065 -2.7178 2.3346
8.5021 -2.4149 2.3344
8.4976 -2.0867 2.3100
8.1312 -1.6893 2.1913
8.2007 -1.3984 2.1939
8.2651 -1.1054 2.1979
8.3189 -0.8095 2.2018
8.3626 -0.5113 2.2057
8.4022 -0.2111 2.2113
8.4347 0.0912 2.2179
8.4574 0.3957 2.2247
8.4663 0.7017 2.2307
8.4546 1.0076 2.2342
8.4213 1.3120 2.2348
8.3749 1.6149 2.2348
8.3190 1.9164 2.2351
8.2511 2.2157 2.2351
8.1725 2.5126 2.2351
8.0833 2.8067 2.2351
7.9836 3.0977 2.2351
7.8736 3.3851 2.2351
7.7533 3.6687 2.2350
7.6228 3.9479 2.2350
7.4823 4.2226 2.2350
7.3320 4.4923 2.2349
7.1720 4.7566 2.2349
7.0025 5.0153 2.2349
6.8237 5.2679 2.2349
6.6358 5.5141 2.2348
6.4391 5.7536 2.2348
6.2337 5.9862 2.2348
6.2042 6.4015 2.3031
6.1866 6.8596 2.3845
5.9483 7.0914 2.3872
5.6949 7.3065 2.3872
5.4336 7.5125 2.3872
5.1649 7.7091 2.3872
4.8890 7.8961 2.3872
4.6064 8.0730 2.3872
4.3173 8.2398 2.3872
4.0221 8.3962 2.3872
3.7213 8.5418 2.3872
3.4152 8.6765 2.3872
3.1041 8.8002 2.3872
2.7886 8.9125 2.3872
2.4689 9.0134 2.3872
0.8413 3.5691 0.9360
0.7128 3.5976 0.9355
0.5835 3.6214 0.9350
0.4533 3.6405 0.9345
0.3225 3.6549 0.9341
0.1913 3.6646 0.9336
0.0597 3.6695 0.9331
-0.0719 3.6696 0.9327
-0.2034 3.6650 0.9323
-0.3347 3.6556 0.9318
-0.4656 3.6415 0.9314
-0.5959 3.6226 0.9310
-0.7254 3.5990 0.9307
-0.8539 3.5708 0.9303
-2.5193 9.0819 2.3872
-2.8443 8.9890 2.3872
-3.1657 8.8842 2.3872
-3.4832 8.7677 2.3872
-3.7963 8.6395 2.3872
-4.1045 8.5000 2.3872
-4.4075 8.3491 2.3872
-4.7047 8.1873 2.3872
-4.9959 8.0146 2.3872
-5.2806 7.8313 2.3872
-5.5584 7.6376 2.3872
-5.8289 7.4339 2.3872
-6.0917 7.2204 2.3872
-6.3466 6.9973 2.3872
-6.5930 6.7651 2.3872
-6.8308 6.5240 2.3872
-7.0595 6.2743 2.3872
-7.2789 6.0164 2.3872
-7.4886 5.7507 2.3872
-7.6885 5.4775 2.3872
-7.8781 5.1972 2.3872
-8.0572 4.9102 2.3872
-8.2257 4.6169 2.3872
-8.3832 4.3177 2.3872
-8.5297 4.0131 2.3872
-8.6648 3.7033 2.3872
-8.7885 3.3889 2.3872
-8.9005 3.0704 2.3872
-9.0007 2.7480 2.3872
-9.0890 2.4225 2.3872
-9.1654 2.0939 2.3872
-9.2296 1.7630 2.3872
-9.2817 1.4302 2.3872
-9.3216 1.0958 2.3872
-9.3492 0.7604 2.3872
-9.3646 0.4244 2.3872
-9.3655 0.0882 2.3866
-9.3471 -0.2473 2.3842
-9.3054 -0.5806 2.3790
-9.2460 -0.9108 2.3724
-9.1862 -1.2390 2.3686
-9.1047 -1.5623 2.3623
-9.0352 -1.8863 2.3621
-8.9541 -2.2073 2.3619
-8.8616 -2.5249 2.3617
-8.7576 -2.8387 2.3616
-8.6425 -3.1483 2.3614
-8.5163 -3.4532 2.3612
-8.3794 -3.7532 2.3610
-8.2318 -4.0477 2.3608
-8.0738 -4.3365 2.3607
-7.9057 -4.6192 2.3605
-7.7277 -4.8954 2.3603
-7.5400 -5.1647 2.3602
-7.3429 -5.4270 2.3600
-7.1367 -5.6817 2.3598
-6.9218 -5.9287 2.3597
-6.6982 -6.1676 2.3595
-6.4665 -6.3982 2.3594
-6.2269 -6.6201 2.3592
-5.9798 -6.8331 2.3591
-5.7253 -7.0371 2.3589
-5.4640 -7.2316 2.3588
-5.1962 -7.4165 2.3587
-4.9222 -7.5916 2.3586
-4.6423 -7.7567 2.3584
-4.3570 -7.9116 2.3583
-4.0666 -8.0562 2.3582
-3.7715 -8.1903 2.3581
-3.4721 -8.3137 2.3580
-3.1687 -8.4263 2.3579
-2.8617 -8.5280 2.3578
-2.5515 -8.6188 2.3577
-2.2386 -8.6984 2.3577
-1.9232 -8.7669 2.3576
-1.6059 -8.8241 2.3575
-1.2869 -8.8701 2.3575
-0.9667 -8.9048 2.3574
-0.6457 -8.9281 2.3573
-0.3242 -8.9401 2.3573
-0.0027 -8.9387 2.3567
0.3182 -8.9249 2.3558
0.6384 -8.9029 2.3558
0.9575 -8.8697 2.3558
1.2751 -8.8252 2.3557
1.5907 -8.7696 2.3556
1.9040 -8.7029 2.3556
2.2147 -8.6252 2.3555
2.5224 -8.5367 2.3555
2.8266 -8.4375 2.3554
3.1270 -8.3276 2.3553
3.4233 -8.2073 2.3552
3.7151 -8.0767 2.3552
4.0020 -7.9359 2.3551
4.2838 -7.7852 2.3550
4.5600 -7.6246 2.3549
4.8303 -7.4545 2.3548
5.0945 -7.2751 2.3547
5.3522 -7.0864 2.3546
5.6031 -6.8889 2.3546
5.8468 -6.6827 2.3545
6.0832 -6.4680 2.3544
6.3118 -6.2452 2.3543
6.5325 -6.0145 2.3542
6.7450 -5.7762 2.3541
6.9490 -5.5305 2.3539
7.1443 -5.2778 2.3538
7.3305 -5.0184 2.3537
7.5025 -4.7492 2.3520
7.6560 -4.4692 2.3476
7.8022 -4.1861 2.3441
7.9407 -3.8995 2.3413
8.0709 -3.6093 2.3390
8.1917 -3.3154 2.3371
8.3042 -3.0183 2.3358
8.4066 -2.7176 2.3346
8.5022 -2.4147 2.3344
8.4971 -2.0863 2.3098
8.1312 -1.6891 2.1913
8.2007 -1.3982 2.1939
8.2652 -1.1052 2.1979
8.3189 -0.8094 2.2018
8.3627 -0.5111 2.2057
8.4022 -0.2110 2.2113
8.4347 0.0914 2.2179
8.4574 0.3959 2.2247
8.4663 0.7019 2.2307
8.4545 1.0078 2.2342
8.4212 1.3122 2.2348
8.3748 1.6151 2.2348
8.3189 1.9166 2.2351
8.2510 2.2159 2.2351
8.1724 2.5128 2.2351
8.0833 2.8069 2.2351
7.9836 3.0978 2.2351
7.8735 3.3853 2.2351
7.7532 3.6688 2.2350
7.6227 3.9481 2.2350
7.4822 4.2228 2.2350
7.3319 4.4925 2.2349
7.1719 4.7568 2.2349
7.0024 5.0154 2.2349
6.8236 5.2680 2.2349
6.6357 5.5143 2.2348
6.4389 5.7538 2.2348
6.2336 5.9863 2.2348
6.2042 6.4017 2.3032
6.1866 6.8599 2.3845
5.9482 7.0915 2.3872
5.6947 7.3066 2.3872
5.4334 7.5127 2.3872
5.1647 7.7093 2.3872
4.8888 7.8962 2.3872
4.6062 8.0732 2.3872
4.3171 8.2399 2.3872
4.0219 8.3962 2.3872
3.7211 8.5419 2.3872
3.4150 8.6766 2.3872
3.1039 8.8002 2.3872
2.7884 8.9126 2.3872
2.4687 9.0135 2.3872
0.8412 3.5691 0.9360
0.7128 3.5976 0.9355
0.5834 3.6214 0.9350
0.4532 3.6405 0.9345
0.3224 3.6549 0.9341
0.1912 3.6646 0.9336
0.0597 3.6695 0.9331
-0.0720 3.6696 0.9327
-0.2035 3.6650 0.9323
-0.3348 3.6556 0.9318
-0.4657 3.6415 0.9314
-0.5959 3.6226 0.9310
-0.7255 3.5990 0.9307
-0.8540 3.5708 0.9303
-2.5195 9.0818 2.3872
-2.8445 8.9889 2.3872
-3.1659 8.8841 2.3872
-3.4834 8.7676 2.3872
-3.7965 8.6394 2.3872
-4.1047 8.4999 2.3872
-4.4077 8.3490 2.3872
-4.7049 8.1871 2.3872
-4.9961 8.0144 2.3872
-5.2808 7.8311 2.3872
-5.5586 7.6375 2.3872
-5.8291 7.4337 2.3872
-6.0919 7.2202 2.3872
-6.3467 6.9972 2.3872
-6.5932 6.7649 2.3872
-6.8309 6.5238 2.3872
-7.0597 6.2741 2.3872
-7.2790 6.0162 2.3872
-7.4888 5.7505 2.3872
-7.6886 5.4773 2.3872
-7.8782 5.1970 2.3872
-8.0573 4.9100 2.3872
-8.2258 4.6168 2.3872
-8.3833 4.3176 2.3872
-8.5298 4.0130 2.3872
-8.6649 3.7031 2.3872
-8.7885 3.3887 2.3872
-8.9005 3.0702 2.3872
-9.0008 2.7478 2.3872
-9.0891 2.4222 2.3872
-9.1654 2.0937 2.3872
-9.2296 1.7628 2.3872
-9.2817 1.4300 2.3872
-9.3216 1.0956 2.3872
-9.3492 0.7602 2.3872
-9.3646 0.4242 2.3872
-9.3655 0.0880 2.3866
-9.3470 -0.2475 2.3842
-9.3054 -0.5808 2.3790
-9.2460 -0.9110 2.3724
-9.1862 -1.2392 2.3686
-9.1046 -1.5625 2.3623
-9.0352 -1.8865 2.3621
-8.9541 -2.2075 2.3619
-8.8615 -2.5251 2.3617
-8.7575 -2.8389 2.3616
-8.6424 -3.1485 2.3614
-8.5162 -3.4534 2.3612
-8.3793 -3.7533 2.3610
-8.2317 -4.0479 2.3608
-8.0737 -4.3367 2.3607
-7.9056 -4.6194 2.3605
-7.7276 -4.8955 2.3603
-7.5399 -5.1649 2.3602
-7.3428 -5.4271 2.3600
-7.1366 -5.6819 2.3598
-6.9216 -5.9289 2.3597
-6.6981 -6.1678 2.3595
-6.4664 -6.3983 2.3594
-6.2268 -6.6203 2.3592
-5.9796 -6.8333 2.3591
-5.7252 -7.0372 2.3589
-5.4639 -7.2317 2.3588
-5.1960 -7.4166 2.3587
-4.9220 -7.5917 2.3586
-4.6422 -7.7568 2.3584
-4.3569 -7.9117 2.3583
-4.0664 -8.0563 2.3582
-3.7713 -8.1904 2.3581
-3.4719 -8.3138 2.3580
-3.1685 -8.4264 2.3579
-2.8615 -8.5281 2.3578
-2.5513 -8.6188 2.3577
-2.2384 -8.6985 2.3577
-1.9230 -8.7669 2.3576
-1.6057 -8.8242 2.3575
-1.2867 -8.8701 2.3575
-0.9665 -8.9048 2.3574
-0.6455 -8.9282 2.3573
-0.3240 -8.9401 2.3573
-0.0034 -8.1896 2.3577
0.2908 -8.1802 2.3576
0.5845 -8.1633 2.3584
0.8767 -8.1304 2.3576
1.1670 -8.0828 2.3555
1.4562 -8.0322 2.3554
1.7432 -7.9714 2.3554
2.0279 -7.9005 2.3553
2.3098 -7.8197 2.3552
2.5885 -7.7290 2.3552
2.8639 -7.6285 2.3551
3.1354 -7.5185 2.3550
3.4028 -7.3990 2.3550
3.6658 -7.2702 2.3549
3.9240 -7.1322 2.3548
4.1771 -6.9852 2.3548
4.4249 -6.8295 2.3547
4.6670 -6.6651 2.3546
4.9031 -6.4923 2.3545
5.1330 -6.3114 2.3544
5.3564 -6.1225 2.3543
5.5730 -5.9258 2.3542
5.7825 -5.7216 2.3541
5.9847 -5.5102 2.3541
6.1794 -5.2918 2.3540
6.3663 -5.0667 2.3539
6.5451 -4.8351 2.3538
6.7157 -4.5973 2.3537
6.8779 -4.3537 2.3536
7.0314 -4.1044 2.3535
7.1760 -3.8498 2.3534
7.3116 -3.5902 2.3533
7.4379 -3.3259 2.3531
7.5451 -3.0533 2.3499
7.6438 -2.7779 2.3472
7.7345 -2.4999 2.3449
7.8162 -2.2194 2.3430
7.8982 -1.9388 2.3441
7.9006 -1.6407 2.3247
7.5808 -1.2920 2.2144
7.6108 -1.0172 2.2099
7.6608 -0.7448 2.2141
7.7047 -0.4703 2.2192
7.7352 -0.1936 2.2232
7.7585 0.0848 2.2281
7.7666 0.3642 2.2313
7.7619 0.6442 2.2338
7.7422 0.9237 2.2348
7.7092 1.2020 2.2348
7.6662 1.4792 2.2348
7.6134 1.7549 2.2348
7.5515 2.0289 2.2350
7.4792 2.3005 2.2350
7.3971 2.5695 2.2350
7.3054 2.8356 2.2349
7.2042 3.0985 2.2349
7.0936 3.3577 2.2349
6.9738 3.6130 2.2349
6.8448 3.8641 2.2349
6.7068 4.1106 2.2348
6.5600 4.3521 2.2348
6.4046 4.5884 2.2348
6.2407 4.8192 2.2348
6.2139 5.1650 2.2883
6.1998 5.5414 2.3530
6.0888 5.8487 2.3872
5.8797 6.0683 2.3872
5.6626 6.2804 2.3872
5.4379 6.4847 2.3872
5.2058 6.6809 2.3872
4.9666 6.8688 2.3872
4.7206 7.0482 2.3872
4.4681 7.2185 2.3872
4.2095 7.3798 2.3872
3.9450 7.5317 2.3872
3.6750 7.6741 2.3872
3.3999 7.8067 2.3872
3.1199 7.9293 2.3872
2.8355 8.0418 2.3872
2.5470 8.1440 2.3872
0.8850 3.2322 0.9369
0.7686 3.2625 0.9364
0.6512 3.2885 0.9360
0.5330 3.3102 0.9355
0.4140 3.3277 0.9351
0.2944 3.3408 0.9347
0.1745 3.3496 0.9342
0.0543 3.3540 0.9338
-0.0660 3.3542 0.9334
-0.1862 3.3499 0.9330
-0.3062 3.3413 0.9326
-0.4258 3.3284 0.9323
-0.5449 3.3112 0.9319
-0.6632 3.2896 0.9316
-0.7808 3.2638 0.9312
-0.8972 3.2338 0.9309
-2.5975 8.2074 2.3872
-2.8909 8.1116 2.3872
-3.1806 8.0050 2.3872
-3.4663 7.8878 2.3872
-3.7476 7.7602 2.3872
-4.0241 7.6224 2.3872
-4.2955 7.4746 2.3872
-4.5612 7.3168 2.3872
-4.8210 7.1494 2.3872
-5.0746 6.9726 2.3872
-5.3214 6.7866 2.3872
-5.5614 6.5917 2.3872
-5.7940 6.3881 2.3872
-6.0190 6.1761 2.3872
-6.2360 5.9561 2.3872
-6.4449 5.7282 2.3872
-6.6452 5.4929 2.3872
-6.8368 5.2504 2.3872
-7.0193 5.0011 2.3872
-7.1925 4.7453 2.3872
-7.3562 4.4834 2.3872
-7.5101 4.2158 2.3872
-7.6542 3.9427 2.3872
-7.7881 3.6647 2.3872
-7.9117 3.3820 2.3872
-8.0249 3.0951 2.3872
-8.1274 2.8043 2.3872
-8.2192 2.5101 2.3872
-8.3002 2.2129 2.3872
-8.3703 1.9130 2.3872
-8.4293 1.6109 2.3872
-8.4772 1.3070 2.3872
-8.5141 1.0017 2.3872
-8.5397 0.6954 2.3872
-8.5537 0.3885 2.3870
-8.5527 0.0815 2.3858
-8.5330 -0.2248 2.3825
-8.4912 -0.5289 2.3761
-8.4491 -0.8313 2.3727
-8.4029 -1.1323 2.3712
-8.3229 -1.4271 2.3632
-8.2567 -1.7227 2.3621
-8.1832 -2.0162 2.3619
-8.0991 -2.3065 2.3618
-8.0047 -2.5935 2.3616
-7.9000 -2.8766 2.3614
-7.7853 -3.1556 2.3613
-7.6607 -3.4300 2.3611
-7.5263 -3.6995 2.3609
-7.3825 -3.9638 2.3608
-7.2293 -4.2226 2.3606
-7.0670 -4.4755 2.3605
-6.8959 -4.7222 2.3603
-6.7162 -4.9623 2.3602
-6.5281 -5.1957 2.3600
-6.3320 -5.4220 2.3599
-6.1280 -5.6410 2.3597
-5.9165 -5.8523 2.3596
-5.6977 -6.0558 2.3595
-5.4720 -6.2511 2.3593
-5.2396 -6.4382 2.3592
-5.0008 -6.6166 2.3591
-4.7561 -6.7863 2.3590
-4.5056 -6.9471 2.3589
-4.2498 -7.0987 2.3587
-3.9889 -7.2410 2.3586
-3.7234 -7.3738 2.3585
-3.4534 -7.4970 2.3584
-3.1795 -7.6105 2.3583
-2.9019 -7.7141 2.3583
-2.6210 -7.8077 2.3582
-2.3372 -7.8913 2.3581
-2.0507 -7.9647 2.3580
-1.7620 -8.0278 2.3580
-1.4715 -8.0807 2.3579
-1.1794 -8.1233 2.3578
-0.8862 -8.1554 2.3578
-0.5922 -8.1772 2.3577
-0.2978 -8.1886 2.3577
-0.0033 -8.1896 2.3577
0.2910 -8.1802 2.3576
0.5846 -8.1633 2.3584
0.8770 -8.1303 2.3576
1.1672 -8.0828 2.3555
1.4563 -8.0321 2.3554
1.7434 -7.9713 2.3554
2.0281 -7.9004 2.3553
2.3100 -7.8196 2.3552
2.5887 -7.7289 2.3552
2.8640 -7.6285 2.3551
3.1356 -7.5184 2.3550
3.4030 -7.3989 2.3550
3.6659 -7.2701 2.3549
3.9241 -7.1321 2.3548
4.1773 -6.9851 2.3548
4.4251 -6.8294 2.3547
4.6672 -6.6650 2.3546
4.9033 -6.4922 2.3545
5.1332 -6.3113 2.3544
5.3566 -6.1223 2.3543
5.5731 -5.9257 2.3542
5.7827 -5.7215 2.3541
5.9849 -5.5101 2.3541
6.1795 -5.2917 2.3540
6.3664 -5.0665 2.3539
6.5452 -4.8349 2.3538
6.7158 -4.5972 2.3537
6.8780 -4.3535 2.3536
7.0314 -4.1042 2.3535
7.1761 -3.8496 2.3534
7.3117 -3.5901 2.3533
7.4379 -3.3258 2.3531
7.5452 -3.0532 2.3499
7.6439 -2.7777 2.3472
7.7345 -2.4997 2.3449
7.8163 -2.2192 2.3430
7.8983 -1.9386 2.3441
7.9003 -1.6405 2.3246
7.5806 -1.2918 2.2144
7.6108 -1.0170 2.2099
7.6609 -0.7446 2.2141
7.7047 -0.4701 2.2192
7.7352 -0.1934 2.2232
7.7586 0.0849 2.2281
7.7666 0.3644 2.2313
7.7619 0.6444 2.2338
7.7422 0.9239 2.2348
7.7091 1.2022 2.2348
7.6662 1.4794 2.2348
7.6134 1.7551 2.2348
7.5515 2.0291 2.2350
7.4791 2.3007 2.2350
7.3970 2.5697 2.2350
7.3053 2.8358 2.2349
7.2041 3.0986 2.2349
7.0936 3.3579 2.2349
6.9737 3.6132 2.2349
6.8447 3.8643 2.2349
6.7067 4.1107 2.2348
6.5599 4.3523 2.2348
6.4044 4.5885 2.2348
6.2406 4.8193 2.2348
6.2139 5.1652 2.2884
6.1998 5.5417 2.3531
6.0887 5.8488 2.3872
5.8795 6.0684 2.3872
5.6625 6.2805 2.3872
5.4377 6.4848 2.3872
5.2056 6.6811 2.3872
4.9664 6.8689 2.3872
4.7204 7.0483 2.3872
4.4680 7.2186 2.3872
4.2093 7.3799 2.3872
3.9448 7.5318 2.3872
3.6748 7.6741 2.3872
3.3997 7.8068 2.3872
3.1197 7.9294 2.3872
2.8353 8.0419 2.3872
2.5468 8.1440 2.3872
0.8849 3.2323 0.9369
0.7685 3.2625 0.9364
0.6511 3.2885 0.9360
0.5329 3.3102 0.9355
0.4139 3.3277 0.9351
0.2944 3.3408 0.9347
0.1744 3.3496 0.9342
0.0542 3.3541 0.9338
-0.0661 3.3542 0.9334
-0.1863 3.3499 0.9330
-0.3063 3.3413 0.9326
-0.4259 3.3284 0.9323
-0.5450 3.3111 0.9319
-0.6633 3.2896 0.9316
-0.7808 3.2638 0.9312
-0.8973 3.2337 0.9309
-2.5977 8.2074 2.3872
-2.8910 8.1115 2.3872
-3.1808 8.0049 2.3872
-3.4665 7.8877 2.3872
-3.7478 7.7601 2.3872
-4.0243 7.6223 2.3872
-4.2956 7.4745 2.3872
-4.5614 7.3167 2.3872
-4.8212 7.1493 2.3872
-5.0747 6.9725 2.3872
-5.3216 6.7865 2.3872
-5.5615 6.5916 2.3872
-5.7941 6.3880 2.3872
-6.0191 6.1760 2.3872
-6.2362 5.9559 2.3872
-6.4450 5.7281 2.3872
-6.6453 5.4927 2.3872
-6.8369 5.2502 2.3872
-7.0194 5.0009 2.3872
-7.1926 4.7451 2.3872
-7.3563 4.4833 2.3872
-7.5102 4.2156 2.3872
-7.6543 3.9426 2.3872
-7.7882 3.6645 2.3872
-7.9118 3.3818 2.3872
-8.0249 3.0949 2.3872
-8.1275 2.8041 2.3872
-8.2193 2.5100 2.3872
-8.3003 2.2127 2.3872
-8.3703 1.9128 2.3872
-8.4293 1.6107 2.3872
-8.4773 1.3068 2.3872
-8.5141 1.0015 2.3872
-8.5397 0.6952 2.3872
-8.5537 0.3883 2.3870
-8.5526 0.0813 2.3858
-8.5330 -0.2250 2.3825
-8.4912 -0.5291 2.3761
-8.4491 -0.8315 2.3727
-8.4028 -1.1325 2.3712
-8.3228 -1.4273 2.3632
-8.2566 -1.7229 2.3621
-8.1831 -2.0163 2.3619
-8.0991 -2.3067 2.3618
-8.0046 -2.5937 2.3616
-7.9000 -2.8768 2.3614
-7.7852 -3.1558 2.3613
-7.6606 -3.4302 2.3611
-7.5262 -3.6997 2.3609
-7.3824 -3.9640 2.3608
-7.2292 -4.2228 2.3606
-7.0669 -4.4756 2.3605
-6.8958 -4.7223 2.3603
-6.7161 -4.9625 2.3602
-6.5280 -5.1959 2.3600
-6.3319 -5.4222 2.3599
-6.1279 -5.6411 2.3597
-5.9163 -5.8524 2.3596
-5.6976 -6.0559 2.3595
-5.4718 -6.2513 2.3593
-5.2394 -6.4383 2.3592
-5.0007 -6.6167 2.3591
-4.7559 -6.7864 2.3590
-4.5055 -6.9472 2.3589
-4.2496 -7.0988 2.3587
-3.9888 -7.2411 2.3586
-3.7232 -7.3739 2.3585
-3.4533 -7.4971 2.3584
-3.1793 -7.6106 2.3583
-2.9017 -7.7142 2.3583
-2.6208 -7.8078 2.3582
-2.3370 -7.8913 2.3581
-2.0505 -7.9647 2.3580
-1.7619 -8.0279 2.3580
-1.4713 -8.0807 2.3579
-1.1792 -8.1233 2.3578
-0.8860 -8.1555 2.3578
-0.5920 -8.1772 2.3577
-0.2976 -8.1886 2.3577
-0.0039 -7.5472 2.3580
0.2673 -7.5388 2.3580
0.5379 -7.5209 2.3580
0.8075 -7.4935 2.3580
1.0760 -7.4565 2.3579
1.3435 -7.4128 2.3588
1.6069 -7.3506 2.3567
1.8689 -7.2831 2.3559
2.1282 -7.2064 2.3551
2.3852 -7.1230 2.3550
2.6390 -7.0306 2.3549
2.8893 -6.9293 2.3549
3.1358 -6.8193 2.3548
3.3783 -6.7006 2.3547
3.6164 -6.5735 2.3547
3.8498 -6.4381 2.3546
4.0782 -6.2947 2.3545
4.3014 -6.1432 2.3545
4.5191 -5.9840 2.3544
4.7311 -5.8172 2.3543
4.9370 -5.6431 2.3542
5.1367 -5.4618 2.3541
5.3298 -5.2736 2.3540
5.5162 -5.0787 2.3540
5.6956 -4.8773 2.3539
5.8679 -4.6698 2.3538
6.0327 -4.4562 2.3537
6.1899 -4.2370 2.3536
6.3393 -4.0124 2.3535
6.4807 -3.7825 2.3534
6.6139 -3.5478 2.3533
6.7388 -3.3085 2.3532
6.8552 -3.0648 2.3531
6.9629 -2.8172 2.3530
7.0619 -2.5658 2.3529
7.1519 -2.3110 2.3529
7.2329 -2.0532 2.3528
7.3110 -1.7940 2.3546
7.3832 -1.5326 2.3576
7.4468 -1.2685 2.3607
7.2545 -0.9688 2.2861
7.0872 -0.6883 2.2231
7.1215 -0.4340 2.2263
7.1458 -0.1781 2.2293
7.1601 0.0790 2.2319
7.1622 0.3367 2.2336
7.1529 0.5945 2.2346
7.1317 0.8517 2.2348
7.1009 1.1081 2.2348
7.0610 1.3634 2.2348
7.0120 1.6172 2.2348
6.9543 1.8694 2.2349
6.8872 2.1194 2.2349
6.8113 2.3670 2.2348
6.7265 2.6120 2.2348
6.6330 2.8539 2.2348
6.5308 3.0924 2.2348
6.4201 3.3273 2.2348
6.3010 3.5583 2.2348
6.2277 3.8181 2.2543
6.2174 4.1260 2.3010
6.2060 4.4475 2.3527
6.1354 4.7393 2.3872
5.9657 4.9602 2.3872
5.7882 5.1750 2.3872
5.6029 5.3834 2.3872
5.4101 5.5852 2.3872
5.2100 5.7801 2.3872
5.0029 5.9677 2.3872
4.7891 6.1479 2.3872
4.5687 6.3205 2.3872
4.3422 6.4850 2.3872
4.1097 6.6414 2.3872
3.8715 6.7894 2.3872
3.6280 6.9287 2.3872
3.3795 7.0593 2.3872
3.1262 7.1809 2.3872
2.8686 7.2933 2.3872
2.6069 7.3963 2.3872
0.9197 2.9420 0.9377
0.8138 2.9736 0.9372
0.7067 3.0014 0.9368
0.5987 3.0253 0.9364
0.4900 3.0452 0.9360
0.3805 3.0613 0.9356
0.2705 3.0733 0.9352
0.1602 3.0814 0.9348
0.0497 3.0855 0.9344
-0.0610 3.0856 0.9340
-0.1716 3.0817 0.9337
-0.2819 3.0737 0.9333
-0.3920 3.0618 0.9330
-0.5015 3.0460 0.9327
-0.6103 3.0262 0.9323
-0.7184 3.0024 0.9320
-0.8256 2.9748 0.9317
-2.3878 7.5433 2.3872
-2.6573 7.4550 2.3872
-2.9235 7.3569 2.3872
-3.1860 7.2491 2.3872
-3.4445 7.1318 2.3872
-3.6985 7.0050 2.3872
-3.9477 6.8691 2.3872
-4.1919 6.7241 2.3872
-4.4306 6.5702 2.3872
-4.6635 6.4077 2.3872
-4.8904 6.2368 2.3872
-5.1108 6.0577 2.3872
-5.3246 5.8706 2.3872
-5.5313 5.6758 2.3872
-5.7308 5.4737 2.3872
-5.9227 5.2643 2.3872
-6.1068 5.0481 2.3872
-6.2829 4.8254 2.3872
-6.4507 4.5964 2.3872
-6.6100 4.3614 2.3872
-6.7605 4.1208 2.3872
-6.9022 3.8749 2.3872
-7.0347 3.6241 2.3872
-7.1579 3.3687 2.3872
-7.2717 3.1090 2.3872
-7.3759 2.8454 2.3872
-7.4704 2.5782 2.3872
-7.5550 2.3079 2.3872
-7.6297 2.0348 2.3872
-7.6943 1.7592 2.3872
-7.7489 1.4816 2.3872
-7.7933 1.2023 2.3872
-7.8274 0.9217 2.3872
-7.8513 0.6402 2.3872
-7.8633 0.3580 2.3867
-7.8601 0.0757 2.3847
-7.8393 -0.2056 2.3804
-7.8025 -0.4851 2.3744
-7.7708 -0.7636 2.3730
-7.7291 -1.0406 2.3717
-7.6657 -1.3135 2.3667
-7.5940 -1.5834 2.3621
-7.5269 -1.8534 2.3619
-7.4500 -2.1206 2.3618
-7.3636 -2.3847 2.3616
-7.2678 -2.6453 2.3615
-7.1627 -2.9021 2.3613
-7.0485 -3.1547 2.3612
-6.9253 -3.4029 2.3610
-6.7934 -3.6463 2.3609
-6.6529 -3.8847 2.3607
-6.5040 -4.1176 2.3606
-6.3469 -4.3449 2.3605
-6.1819 -4.5662 2.3603
-6.0092 -4.7813 2.3602
-5.8291 -4.9899 2.3601
-5.6417 -5.1918 2.3599
-5.4473 -5.3867 2.3598
-5.2462 -5.5743 2.3597
-5.0387 -5.7545 2.3596
-4.8251 -5.9271 2.3594
-4.6055 -6.0918 2.3593
-4.3804 -6.2484 2.3592
-4.1500 -6.3969 2.3591
-3.9147 -6.5369 2.3590
-3.6746 -6.6683 2.3589
-3.4302 -6.7910 2.3588
-3.1818 -6.9049 2.3587
-2.9296 -7.0098 2.3586
-2.6741 -7.1056 2.3586
-2.4154 -7.1923 2.3585
-2.1540 -7.2696 2.3584
-1.8902 -7.3376 2.3583
-1.6243 -7.3962 2.3583
-1.3566 -7.4453 2.3582
-1.0875 -7.4848 2.3582
-0.8174 -7.5148 2.3581
-0.5465 -7.5352 2.3581
-0.2751 -7.5460 2.3580
-0.0037 -7.5472 2.3580
0.2675 -7.5388 2.3580
0.5380 -7.5209 2.3580
0.8077 -7.4934 2.3580
1.0761 -7.4565 2.3579
1.3435 -7.4129 2.3588
1.6071 -7.3505 2.3567
1.8689 -7.2832 2.3559
2.1283 -7.2063 2.3551
2.3853 -7.1229 2.3550
2.6391 -7.0305 2.3549
2.8895 -6.9292 2.3549
3.1360 -6.8192 2.3548
3.3784 -6.7005 2.3547
3.6165 -6.5735 2.3547
3.8499 -6.4381 2.3546
4.0784 -6.2946 2.3545
4.3016 -6.1431 2.3545
4.5193 -5.9839 2.3544
4.7312 -5.8171 2.3543
4.9372 -5.6430 2.3542
5.1368 -5.4617 2.3541
5.3300 -5.2735 2.3540
5.5163 -5.0786 2.3540
5.6958 -4.8772 2.3539
5.8680 -4.6696 2.3538
6.0328 -4.4561 2.3537
6.1900 -4.2369 2.3536
6.3394 -4.0122 2.3535
6.4807 -3.7824 2.3534
6.6140 -3.5476 2.3533
6.7388 -3.3083 2.3532
6.8552 -3.0647 2.3531
6.9630 -2.8170 2.3530
7.0619 -2.5657 2.3529
7.1520 -2.3109 2.3529
7.2330 -2.0530 2.3528
7.3111 -1.7938 2.3547
7.3832 -1.5324 2.3576
7.4468 -1.2683 2.3607
7.2543 -0.9686 2.2861
7.0872 -0.6881 2.2231
7.1215 -0.4338 2.2263
7.1458 -0.1779 2.2293
7.1601 0.0792 2.2319
7.1622 0.3369 2.2336
7.1529 0.5946 2.2346
7.1317 0.8519 2.2348
7.1009 1.1082 2.2348
7.0609 1.3635 2.2348
7.0119 1.6174 2.2348
6.9542 1.8696 2.2349
6.8872 2.1196 2.2349
6.8112 2.3672 2.2348
6.7264 2.6121 2.2348
6.6329 2.8540 2.2348
6.5307 3.0926 2.2348
6.4200 3.3275 2.2348
6.3009 3.5584 2.2348
6.2277 3.8183 2.2544
6.2174 4.1262 2.3011
6.2060 4.4477 2.3527
6.1353 4.7394 2.3872
5.9656 4.9603 2.3872
5.7881 5.1751 2.3872
5.6027 5.3836 2.3872
5.4099 5.5853 2.3872
5.2099 5.7802 2.3872
5.0028 5.9678 2.3872
4.7890 6.1480 2.3872
4.5686 6.3206 2.3872
4.3420 6.4851 2.3872
4.1095 6.6415 2.3872
3.8714 6.7894 2.3872
3.6279 6.9288 2.3872
3.3793 7.0594 2.3872
3.1261 7.1810 2.3872
2.8684 7.2934 2.3872
2.6067 7.3964 2.3872
0.9196 2.9420 0.9377
0.8137 2.9736 0.9372
0.7067 3.0014 0.9368
0.5987 3.0253 0.9364
0.4899 3.0452 0.9360
0.3804 3.0613 0.9356
0.2705 3.0733 0.9352
0.1601 3.0814 0.9348
0.0496 3.0855 0.9344
-0.0611 3.0856 0.9340
-0.1716 3.0816 0.9337
-0.2820 3.0737 0.9333
-0.3920 3.0618 0.9330
-0.5015 3.0460 0.9327
-0.6104 3.0261 0.9323
-0.7185 3.0024 0.9320
-0.8257 2.9748 0.9317
-2.3879 7.5433 2.3872
-2.6575 7.4550 2.3872
-2.9237 7.3568 2.3872
-3.1862 7.2490 2.3872
-3.4446 7.1317 2.3872
-3.6987 7.0050 2.3872
-3.9479 6.8690 2.3872
-4.1920 6.7240 2.3872
-4.4307 6.5701 2.3872
-4.6637 6.4076 2.3872
-4.8905 6.2367 2.3872
-5.1109 6.0575 2.3872
-5.3247 5.8705 2.3872
-5.5314 5.6757 2.3872
-5.7309 5.4735 2.3872
-5.9228 5.2642 2.3872
-6.1070 5.0480 2.3872
-6.2830 4.8252 2.3872
-6.4508 4.5962 2.3872
-6.6101 4.3612 2.3872
-6.7606 4.1206 2.3872
-6.9023 3.8748 2.3872
-7.0348 3.6239 2.3872
-7.1580 3.3685 2.3872
-7.2718 3.1088 2.3872
-7.3760 2.8452 2.3872
-7.4704 2.5781 2.3872
-7.5550 2.3077 2.3872
-7.6297 2.0346 2.3872
-7.6944 1.7591 2.3872
-7.7489 1.4814 2.3872
-7.7933 1.2021 2.3872
-7.8274 0.9215 2.3872
-7.8513 0.6400 2.3872
-7.8633 0.3578 2.3867
-7.8601 0.0756 2.3847
-7.8393 -0.2058 2.3804
-7.8025 -0.4853 2.3744
-7.7708 -0.7638 2.3730
-7.7291 -1.0407 2.3717
-7.6657 -1.3136 2.3667
-7.5940 -1.5836 2.3621
-7.5268 -1.8536 2.3619
-7.4500 -2.1208 2.3618
-7.3636 -2.3849 2.3616
-7.2677 -2.6455 2.3615
-7.1626 -2.9023 2.3613
-7.0484 -3.1549 2.3612
-6.9252 -3.4031 2.3610
-6.7933 -3.6465 2.3609
-6.6528 -3.8848 2.3607
-6.5039 -4.1178 2.3606
-6.3468 -4.3450 2.3605
-6.1818 -4.5664 2.3603
-6.0091 -4.7815 2.3602
-5.8289 -4.9901 2.3601
-5.6415 -5.1919 2.3599
-5.4472 -5.3868 2.3598
-5.2461 -5.5745 2.3597
-5.0386 -5.7547 2.3596
-4.8249 -5.9272 2.3594
-4.6054 -6.0919 2.3593
-4.3803 -6.2485 2.3592
-4.1499 -6.3970 2.3591
-3.9145 -6.5370 2.3590
-3.6745 -6.6684 2.3589
-3.4301 -6.7911 2.3588
-3.1816 -6.9050 2.3587
-2.9294 -7.0099 2.3586
-2.6739 -7.1057 2.3586
-2.4152 -7.1923 2.3585
-2.1538 -7.2697 2.3584
-1.8900 -7.3377 2.3583
-1.6241 -7.3962 2.3583
-1.3564 -7.4453 2.3582
-1.0874 -7.4848 2.3582
-0.8172 -7.5148 2.3581
-0.5463 -7.5352 2.3581
-0.2749 -7.5460 2.3580
-0.0043 -6.9911 2.3583
0.2470 -6.9835 2.3583
0.4977 -6.9671 2.3583
0.7475 -6.9419 2.3583
0.9963 -6.9079 2.3582
1.2435 -6.8651 2.3582
1.4891 -6.8136 2.3582
1.7326 -6.7536 2.3582
1.9737 -6.6849 2.3583
2.2127 -6.6090 2.3587
2.4463 -6.5181 2.3567
2.6781 -6.4235 2.3564
2.9047 -6.3172 2.3547
3.1294 -6.2074 2.3546
3.3500 -6.0898 2.3545
3.5663 -5.9644 2.3545
3.7780 -5.8315 2.3544
3.9848 -5.6912 2.3543
4.1866 -5.5437 2.3543
4.3830 -5.3892 2.3542
4.5738 -5.2279 2.3541
4.7588 -5.0599 2.3540
4.9378 -4.8856 2.3540
5.1105 -4.7050 2.3539
5.2767 -4.5184 2.3538
5.4362 -4.3260 2.3537
5.5889 -4.1282 2.3536
5.7345 -3.9250 2.3536
5.8728 -3.7168 2.3535
6.0038 -3.5038 2.3534
6.1271 -3.2863 2.3533
6.2427 -3.0645 2.3532
6.3519 -2.8394 2.3537
6.4570 -2.6120 2.3555
6.5537 -2.3806 2.3572
6.6437 -2.1463 2.3595
6.7213 -1.9073 2.3603
6.7886 -1.6652 2.3604
6.8589 -1.4231 2.3645
6.9248 -1.1789 2.3701
6.9745 -0.9308 2.3731
7.0114 -0.6802 2.3746
6.8523 -0.4169 2.3130
6.7214 -0.1668 2.2642
6.6354 0.0739 2.2335
6.6349 0.3127 2.2345
6.6239 0.5513 2.2348
6.6036 0.7894 2.2348
6.5748 1.0268 2.2348
6.5375 1.2631 2.2348
6.4919 1.4981 2.2348
6.4379 1.7315 2.2348
6.3755 1.9629 2.2348
6.3050 2.1921 2.2348
6.2449 2.4259 2.2415
6.2315 2.6821 2.2683
6.2239 2.9482 2.3011
6.2156 3.2225 2.3377
6.2065 3.5061 2.3785
6.1029 3.7428 2.3872
5.9687 3.9622 2.3872
5.8266 4.1769 2.3872
5.6769 4.3864 2.3872
5.5196 4.5906 2.3872
5.3550 4.7891 2.3872
5.1833 4.9817 2.3872
5.0047 5.1682 2.3872
4.8193 5.3482 2.3872
4.6275 5.5215 2.3872
4.4295 5.6880 2.3872
4.2254 5.8472 2.3872
4.0157 5.9991 2.3872
3.8004 6.1435 2.3872
3.5800 6.2801 2.3872
3.3546 6.4087 2.3872
3.1246 6.5291 2.3872
2.8903 6.6412 2.3872
2.6519 6.7449 2.3872
2.4098 6.8399 2.3872
0.8503 2.7213 0.9379
0.7523 2.7505 0.9375
0.6534 2.7761 0.9371
0.5535 2.7982 0.9368
0.4529 2.8167 0.9364
0.3516 2.8315 0.9360
0.2499 2.8426 0.9356
0.1479 2.8501 0.9353
0.0456 2.8538 0.9349
-0.0567 2.8539 0.9346
-0.1589 2.8503 0.9342
-0.2610 2.8429 0.9339
-0.3628 2.8319 0.9336
-0.4640 2.8173 0.9333
-0.5647 2.7989 0.9330
-0.6647 2.7770 0.9327
-0.7638 2.7514 0.9324
-0.8619 2.7223 0.9322
-2.4562 6.8897 2.3872
-2.7022 6.7990 2.3872
-2.9447 6.6992 2.3872
-3.1834 6.5907 2.3872
-3.4181 6.4735 2.3872
-3.6484 6.3478 2.3872
-3.8740 6.2138 2.3872
-4.0945 6.0716 2.3872
-4.3097 5.9214 2.3872
-4.5193 5.7634 2.3872
-4.7230 5.5979 2.3872
-4.9204 5.4251 2.3872
-5.1115 5.2452 2.3872
-5.2958 5.0584 2.3872
-5.4732 4.8650 2.3872
-5.6434 4.6652 2.3872
-5.8061 4.4595 2.3872
-5.9612 4.2479 2.3872
-6.1085 4.0308 2.3872
-6.2477 3.8086 2.3872
-6.3787 3.5815 2.3872
-6.5013 3.3497 2.3872
-6.6153 3.1138 2.3872
-6.7206 2.8738 2.3872
-6.8170 2.6303 2.3872
-6.9045 2.3835 2.3872
-6.9829 2.1338 2.3872
-7.0521 1.8814 2.3872
-7.1121 1.6268 2.3872
-7.1628 1.3702 2.3872
-7.2040 1.1121 2.3872
-7.2358 0.8528 2.3872
-7.2578 0.5925 2.3870
-7.2673 0.3316 2.3859
-7.2623 0.0708 2.3832
-7.2402 -0.1891 2.3779
-7.2147 -0.4477 2.3746
-7.1860 -0.7053 2.3733
-7.1481 -0.9614 2.3720
-7.0969 -1.2151 2.3694
-7.0227 -1.4634 2.3621
-6.9609 -1.7131 2.3620
-6.8902 -1.9603 2.3618
-6.8107 -2.2046 2.3617
-6.7224 -2.4458 2.3615
-6.6256 -2.6834 2.3614
-6.5203 -2.9172 2.3613
-6.4067 -3.1470 2.3611
-6.2850 -3.3723 2.3610
-6.1553 -3.5930 2.3608
-6.0179 -3.8087 2.3607
-5.8730 -4.0192 2.3606
-5.7206 -4.2242 2.3605
-5.5611 -4.4235 2.3603
-5.3947 -4.6167 2.3602
-5.2216 -4.8038 2.3601
-5.0420 -4.9844 2.3600
-4.8562 -5.1584 2.3599
-4.6644 -5.3255 2.3597
-4.4668 -5.4855 2.3596
-4.2639 -5.6382 2.3595
-4.0557 -5.7835 2.3594
-3.8426 -5.9212 2.3593
-3.6249 -6.0512 2.3592
-3.4029 -6.1731 2.3591
-3.1767 -6.2871 2.3591
-2.9469 -6.3929 2.3590
-2.7135 -6.4903 2.3589
-2.4769 -6.5793 2.3588
-2.2375 -6.6599 2.3588
-1.9955 -6.7318 2.3587
-1.7513 -6.7951 2.3586
-1.5051 -6.8496 2.3586
-1.2572 -6.8953 2.3585
-1.0080 -6.9322 2.3585
-0.7578 -6.9603 2.3584
-0.5069 -6.9794 2.3584
-0.2555 -6.9897 2.3583
-0.0041 -6.9910 2.3583
0.2471 -6.9835 2.3583
0.4978 -6.9671 2.3583
0.7477 -6.9419 2.3583
0.9964 -6.9078 2.3582
1.2437 -6.8651 2.3582
1.4892 -6.8136 2.3582
1.7327 -6.7535 2.3582
1.9739 -6.6849 2.3583
2.2129 -6.6089 2.3587
2.4465 -6.5181 2.3567
2.6782 -6.4235 2.3564
2.9048 -6.3172 2.3547
3.1295 -6.2073 2.3546
3.3501 -6.0897 2.3545
3.5664 -5.9643 2.3545
3.7781 -5.8314 2.3544
3.9850 -5.6911 2.3543
4.1867 -5.5436 2.3543
4.3831 -5.3891 2.3542
4.5739 -5.2278 2.3541
4.7589 -5.0598 2.3540
4.9379 -4.8854 2.3540
5.1106 -4.7048 2.3539
5.2768 -4.5183 2.3538
5.4363 -4.3259 2.3537
5.5890 -4.1280 2.3536
5.7346 -3.9249 2.3536
5.8729 -3.7167 2.3535
6.0039 -3.5037 2.3534
6.1272 -3.2861 2.3533
6.2428 -3.0644 2.3532
6.3520 -2.8392 2.3537
6.4570 -2.6118 2.3555
6.5537 -2.3805 2.3572
6.6438 -2.1461 2.3595
6.7214 -1.9072 2.3603
6.7886 -1.6650 2.3604
6.8589 -1.4230 2.3646
6.9248 -1.1787 2.3701
6.9746 -0.9306 2.3731
7.0113 -0.6800 2.3746
6.8522 -0.4167 2.3130
6.7213 -0.1666 2.2642
6.6354 0.0741 2.2335
6.6348 0.3128 2.2345
6.6239 0.5515 2.2348
6.6035 0.7896 2.2348
6.5747 1.0270 2.2348
6.5375 1.2633 2.2348
6.4918 1.4983 2.2348
6.4378 1.7316 2.2348
6.3755 1.9630 2.2348
6.3049 2.1922 2.2348
6.2449 2.4261 2.2415
6.2315 2.6823 2.2683
6.2239 2.9483 2.3011
6.2156 3.2226 2.3378
6.2065 3.5062 2.3785
6.1028 3.7429 2.3872
5.9686 3.9624 2.3872
5.8265 4.1770 2.3872
5.6768 4.3866 2.3872
5.5195 4.5907 2.3872
5.3549 4.7893 2.3872
5.1832 4.9819 2.3872
5.0046 5.1683 2.3872
4.8192 5.3483 2.3872
4.6274 5.5217 2.3872
4.4293 5.6881 2.3872
4.2253 5.8473 2.3872
4.0155 5.9992 2.3872
3.8003 6.1436 2.3872
3.5798 6.2801 2.3872
3.3544 6.4088 2.3872
3.1244 6.5292 2.3872
2.8901 6.6413 2.3872
2.6517 6.7449 2.3872
2.4096 6.8399 2.3872
0.8503 2.7213 0.9379
0.7523 2.7505 0.9375
0.6533 2.7762 0.9371
0.5534 2.7982 0.9368
0.4528 2.8167 0.9364
0.3516 2.8315 0.9360
0.2499 2.8426 0.9356
0.1478 2.8501 0.9353
0.0456 2.8538 0.9349
-0.0567 2.8539 0.9346
-0.1590 2.8503 0.9342
-0.2611 2.8429 0.9339
-0.3628 2.8319 0.9336
-0.4641 2.8172 0.9333
-0.5648 2.7989 0.9330
-0.6647 2.7770 0.9327
-0.7638 2.7514 0.9324
-0.8620 2.7223 0.9322
-2.4564 6.8897 2.3872
-2.7023 6.7989 2.3872
-2.9448 6.6992 2.3872
-3.1836 6.5906 2.3872
-3.4183 6.4734 2.3872
-3.6486 6.3477 2.3872
-3.8741 6.2137 2.3872
-4.0946 6.0715 2.3872
-4.3098 5.9213 2.3872
-4.5194 5.7633 2.3872
-4.7231 5.5978 2.3872
-4.9206 5.4250 2.3872
-5.1116 5.2450 2.3872
-5.2959 5.0582 2.3872
-5.4733 4.8648 2.3872
-5.6435 4.6651 2.3872
-5.8062 4.4593 2.3872
-5.9613 4.2478 2.3872
-6.1086 4.0307 2.3872
-6.2478 3.8085 2.3872
-6.3788 3.5813 2.3872
-6.5013 3.3496 2.3872
-6.6153 3.1136 2.3872
-6.7206 2.8737 2.3872
-6.8171 2.6302 2.3872
-6.9046 2.3833 2.3872
-6.9830 2.1336 2.3872
-7.0522 1.8812 2.3872
-7.1121 1.6266 2.3872
-7.1628 1.3701 2.3872
-7.2040 1.1119 2.3872
-7.2359 0.8526 2.3872
-7.2578 0.5923 2.3870
-7.2673 0.3315 2.3859
-7.2623 0.0706 2.3832
-7.2402 -0.1893 2.3779
-7.2147 -0.4479 2.3746
-7.1860 -0.7055 2.3733
-7.1480 -0.9616 2.3720
-7.0968 -1.2153 2.3694
-7.0226 -1.4635 2.3621
-6.9609 -1.7133 2.3620
-6.8902 -1.9605 2.3618
-6.8106 -2.2048 2.3617
-6.7223 -2.4459 2.3615
-6.6255 -2.6836 2.3614
-6.5202 -2.9174 2.3613
-6.4066 -3.1471 2.3611
-6.2849 -3.3725 2.3610
-6.1553 -3.5931 2.3608
-6.0178 -3.8088 2.3607
-5.8729 -4.0193 2.3606
-5.7205 -4.2243 2.3605
-5.5610 -4.4236 2.3603
-5.3946 -4.6169 2.3602
-5.2215 -4.8039 2.3601
-5.0419 -4.9846 2.3600
-4.8560 -5.1585 2.3599
-4.6642 -5.3256 2.3597
-4.4667 -5.4856 2.3596
-4.2637 -5.6383 2.3595
-4.0556 -5.7836 2.3594
-3.8425 -5.9213 2.3593
-3.6248 -6.0512 2.3592
-3.4027 -6.1732 2.3591
-3.1766 -6.2872 2.3591
-2.9467 -6.3929 2.3590
-2.7133 -6.4904 2.3589
-2.4768 -6.5794 2.3588
-2.2374 -6.6599 2.3588
-1.9954 -6.7318 2.3587
-1.7511 -6.7951 2.3586
-1.5049 -6.8496 2.3586
-1.2571 -6.8954 2.3585
-1.0079 -6.9323 2.3585
-0.7576 -6.9603 2.3584
-0.5067 -6.9794 2.3584
-0.2554 -6.9897 2.3583
-0.0046 -6.5044 2.3586
0.2292 -6.4976 2.3586
0.4625 -6.4825 2.3585
0.6950 -6.4592 2.3585
0.9265 -6.4277 2.3585
1.1566 -6.3880 2.3585
1.3852 -6.3402 2.3585
1.6118 -6.2845 2.3585
1.8363 -6.2207 2.3585
2.0583 -6.1491 2.3585
2.2776 -6.0697 2.3586
2.4939 -5.9826 2.3586
2.7070 -5.8880 2.3586
2.9166 -5.7859 2.3586
3.1230 -5.6775 2.3591
3.3230 -5.5579 2.3578
3.5188 -5.4317 2.3568
3.7127 -5.3024 2.3573
3.8994 -5.1635 2.3565
4.0814 -5.0184 2.3559
4.2584 -4.8674 2.3554
4.4303 -4.7105 2.3551
4.5968 -4.5481 2.3550
4.7578 -4.3801 2.3551
4.9132 -4.2069 2.3553
5.0627 -4.0286 2.3557
5.2063 -3.8453 2.3562
5.3438 -3.6572 2.3570
5.4732 -3.4635 2.3571
5.5981 -3.2667 2.3583
5.7164 -3.0656 2.3596
5.8252 -2.8591 2.3599
5.9261 -2.6486 2.3600
6.0195 -2.4345 2.3601
6.1053 -2.2173 2.3602
6.1834 -1.9970 2.3603
6.2537 -1.7741 2.3604
6.3161 -1.5487 2.3605
6.3884 -1.3249 2.3673
6.4442 -1.0964 2.3708
6.4958 -0.8662 2.3758
6.5390 -0.6337 2.3807
6.5662 -0.3987 2.3827
6.5847 -0.1627 2.3846
6.5829 0.0741 2.3822
6.4947 0.3068 2.3516
6.4222 0.5353 2.3295
6.3595 0.7610 2.3140
6.3128 0.9867 2.3071
6.2744 1.2131 2.3062
6.2448 1.4420 2.3116
6.2309 1.6767 2.3259
6.2215 1.9164 2.3452
6.2157 2.1620 2.3693
6.1840 2.4033 2.3872
6.0975 2.6255 2.3872
6.0031 2.8446 2.3872
5.9008 3.0603 2.3872
5.7908 3.2724 2.3872
5.6733 3.4805 2.3872
5.5483 3.6843 2.3872
5.4160 3.8837 2.3872
5.2765 4.0782 2.3872
5.1301 4.2679 2.3872
4.9769 4.4523 2.3872
4.8171 4.6311 2.3872
4.6508 4.8042 2.3872
4.4784 4.9713 2.3872
4.2999 5.1321 2.3872
4.1157 5.2866 2.3872
3.9259 5.4343 2.3872
3.7308 5.5753 2.3872
3.5306 5.7092 2.3872
3.3256 5.8358 2.3872
3.1161 5.9550 2.3872
2.9023 6.0667 2.3872
2.6845 6.1706 2.3872
2.4629 6.2666 2.3872
0.8798 2.4984 0.9385
0.7898 2.5287 0.9382
0.6988 2.5559 0.9378
0.6068 2.5797 0.9374
0.5140 2.6002 0.9371
0.4205 2.6173 0.9367
0.3265 2.6310 0.9364
0.2320 2.6414 0.9360
0.1372 2.6483 0.9357
0.0422 2.6518 0.9354
-0.0529 2.6518 0.9350
-0.1479 2.6484 0.9347
-0.2428 2.6416 0.9344
-0.3373 2.6314 0.9341
-0.4314 2.6178 0.9339
-0.5249 2.6007 0.9336
-0.6178 2.5803 0.9333
-0.7099 2.5566 0.9331
-0.8010 2.5296 0.9328
-0.8911 2.4992 0.9326
-2.5094 6.3130 2.3872
-2.7345 6.2204 2.3872
-2.9562 6.1196 2.3872
-3.1740 6.0107 2.3872
-3.3877 5.8939 2.3872
-3.5971 5.7694 2.3872
-3.8018 5.6374 2.3872
-4.0016 5.4979 2.3872
-4.1962 5.3513 2.3872
-4.3852 5.1976 2.3872
-4.5686 5.0372 2.3872
-4.7460 4.8701 2.3872
-4.9171 4.6968 2.3872
-5.0818 4.5172 2.3872
-5.2398 4.3319 2.3872
-5.3910 4.1408 2.3872
-5.5350 3.9445 2.3872
-5.6718 3.7430 2.3872
-5.8011 3.5367 2.3872
-5.9228 3.3259 2.3872
-6.0367 3.1108 2.3872
-6.1427 2.8918 2.3872
-6.2406 2.6691 2.3872
-6.3302 2.4430 2.3872
-6.4116 2.2139 2.3872
-6.4846 1.9820 2.3872
-6.5490 1.7477 2.3872
-6.6049 1.5113 2.3872
-6.6521 1.2732 2.3872
-6.6906 1.0335 2.3872
-6.7204 0.7927 2.3872
-6.7399 0.5509 2.3866
-6.7471 0.3086 2.3849
-6.7403 0.0664 2.3813
-6.7198 -0.1748 2.3759
-6.7023 -0.4151 2.3747
-6.6761 -0.6545 2.3735
-6.6414 -0.8925 2.3724
-6.5981 -1.1288 2.3712
-6.5336 -1.3606 2.3654
-6.4674 -1.5908 2.3620
-6.4020 -1.8205 2.3618
-6.3284 -2.0476 2.3617
-6.2467 -2.2717 2.3616
-6.1570 -2.4926 2.3614
-6.0594 -2.7100 2.3613
-5.9542 -2.9236 2.3612
-5.8413 -3.1332 2.3611
-5.7211 -3.3384 2.3609
-5.5937 -3.5391 2.3608
-5.4592 -3.7349 2.3607
-5.3179 -3.9256 2.3606
-5.1699 -4.1110 2.3605
-5.0155 -4.2909 2.3603
-4.8547 -4.4650 2.3602
-4.6880 -4.6331 2.3601
-4.5155 -4.7951 2.3600
-4.3374 -4.9507 2.3599
-4.1539 -5.0997 2.3598
-3.9654 -5.2419 2.3597
-3.7720 -5.3773 2.3596
-3.5740 -5.5056 2.3595
-3.3717 -5.6267 2.3594
-3.1653 -5.7404 2.3594
-2.9552 -5.8466 2.3593
-2.7415 -5.9452 2.3592
-2.5245 -6.0361 2.3591
-2.3046 -6.1192 2.3590
-2.0820 -6.1943 2.3590
-1.8570 -6.2615 2.3589
-1.6298 -6.3206 2.3589
-1.4008 -6.3715 2.3588
-1.1703 -6.4143 2.3588
-0.9385 -6.4489 2.3587
-0.7057 -6.4752 2.3587
-0.4722 -6.4932 2.3586
-0.2384 -6.5029 2.3586
-0.0044 -6.5044 2.3586
0.2293 -6.4976 2.3586
0.4626 -6.4825 2.3585
0.6952 -6.4592 2.3585
0.9266 -6.4277 2.3585
1.1568 -6.3880 2.3585
1.3853 -6.3402 2.3585
1.6120 -6.2844 2.3585
1.8364 -6.2207 2.3585
2.0584 -6.1491 2.3585
2.2778 -6.0697 2.3586
2.4941 -5.9826 2.3586
2.7072 -5.8880 2.3586
2.9168 -5.7859 2.3586
3.1232 -5.6774 2.3591
3.3232 -5.5578 2.3578
3.5190 -5.4317 2.3568
3.7128 -5.3024 2.3573
3.8995 -5.1634 2.3565
4.0815 -5.0183 2.3559
4.2585 -4.8673 2.3554
4.4304 -4.7104 2.3551
4.5969 -4.5480 2.3550
4.7579 -4.3800 2.3551
4.9133 -4.2068 2.3553
5.0628 -4.0285 2.3557
5.2064 -3.8452 2.3562
5.3440 -3.6570 2.3570
5.4733 -3.4634 2.3571
5.5981 -3.2665 2.3583
5.7164 -3.0655 2.3596
5.8252 -2.8590 2.3599
5.9261 -2.6484 2.3600
6.0195 -2.4344 2.3601
6.1054 -2.2171 2.3602
6.1835 -1.9969 2.3603
6.2538 -1.7740 2.3604
6.3162 -1.5486 2.3605
6.3885 -1.3248 2.3673
6.4442 -1.0963 2.3708
6.4959 -0.8661 2.3758
6.5390 -0.6335 2.3807
6.5662 -0.3986 2.3827
6.5847 -0.1625 2.3846
6.5829 0.0743 2.3822
6.4947 0.3070 2.3515
6.4221 0.5354 2.3295
6.3595 0.7612 2.3140
6.3127 0.9868 2.3071
6.2744 1.2133 2.3062
6.2448 1.4421 2.3116
6.2309 1.6769 2.3259
6.2215 1.9165 2.3452
6.2157 2.1621 2.3693
6.1840 2.4034 2.3872
6.0975 2.6256 2.3872
6.0030 2.8447 2.3872
5.9008 3.0605 2.3872
5.7908 3.2725 2.3872
5.6732 3.4806 2.3872
5.5482 3.6845 2.3872
5.4159 3.8838 2.3872
5.2764 4.0784 2.3872
5.1300 4.2681 2.3872
4.9768 4.4524 2.3872
4.8170 4.6312 2.3872
4.6507 4.8043 2.3872
4.4783 4.9714 2.3872
4.2998 5.1322 2.3872
4.1156 5.2867 2.3872
3.9258 5.4344 2.3872
3.7307 5.5754 2.3872
3.5305 5.7092 2.3872
3.3255 5.8359 2.3872
3.1160 5.9551 2.3872
2.9022 6.0668 2.3872
2.6843 6.1707 2.3872
2.4628 6.2667 2.3872
0.8798 2.4984 0.9385
0.7898 2.5288 0.9382
0.6987 2.5559 0.9378
0.6067 2.5797 0.9374
0.5139 2.6002 0.9371
0.4204 2.6173 0.9367
0.3264 2.6310 0.9364
0.2319 2.6414 0.9360
0.1371 2.6483 0.9357
0.0421 2.6518 0.9354
-0.0530 2.6518 0.9350
-0.1480 2.6484 0.9347
-0.2428 2.6416 0.9344
-0.3373 2.6314 0.9341
-0.4314 2.6178 0.9339
-0.5250 2.6007 0.9336
-0.6179 2.5803 0.9333
-0.7099 2.5566 0.9331
-0.8011 2.5295 0.9328
-0.8912 2.4992 0.9326
-2.5095 6.3130 2.3872
-2.7347 6.2203 2.3872
-2.9563 6.1195 2.3872
-3.1741 6.0106 2.3872
-3.3879 5.8939 2.3872
-3.5973 5.7694 2.3872
-3.8020 5.6373 2.3872
-4.0017 5.4978 2.3872
-4.1963 5.3512 2.3872
-4.3854 5.1975 2.3872
-4.5687 5.0371 2.3872
-4.7461 4.8700 2.3872
-4.9172 4.6966 2.3872
-5.0819 4.5171 2.3872
-5.2399 4.3317 2.3872
-5.3911 4.1407 2.3872
-5.5351 3.9443 2.3872
-5.6719 3.7429 2.3872
-5.8012 3.5366 2.3872
-5.9229 3.3258 2.3872
-6.0368 3.1107 2.3872
-6.1427 2.8916 2.3872
-6.2406 2.6689 2.3872
-6.3303 2.4429 2.3872
-6.4117 2.2137 2.3872
-6.4846 1.9819 2.3872
-6.5491 1.7476 2.3872
-6.6049 1.5112 2.3872
-6.6521 1.2730 2.3872
-6.6906 1.0333 2.3872
-6.7204 0.7925 2.3872
-6.7399 0.5508 2.3866
-6.7471 0.3085 2.3849
-6.7403 0.0663 2.3813
-6.7198 -0.1749 2.3759
-6.7023 -0.4153 2.3747
-6.6761 -0.6546 2.3735
-6.6413 -0.8926 2.3724
-6.5980 -1.1290 2.3712
-6.5335 -1.3607 2.3654
-6.4674 -1.5909 2.3620
-6.4020 -1.8206 2.3618
-6.3283 -2.0477 2.3617
-6.2466 -2.2719 2.3616
-6.1569 -2.4928 2.3614
-6.0593 -2.7102 2.3613
-5.9541 -2.9238 2.3612
-5.8413 -3.1333 2.3611
-5.7211 -3.3386 2.3609
-5.5936 -3.5392 2.3608
-5.4591 -3.7350 2.3607
-5.3178 -3.9257 2.3606
-5.1698 -4.1111 2.3605
-5.0153 -4.2910 2.3603
-4.8546 -4.4651 2.3602
-4.6879 -4.6332 2.3601
-4.5154 -4.7952 2.3600
-4.3372 -4.9507 2.3599
-4.1538 -5.0998 2.3598
-3.9652 -5.2420 2.3597
-3.7719 -5.3774 2.3596
-3.5739 -5.5057 2.3595
-3.3716 -5.6267 2.3594
-3.1652 -5.7404 2.3594
-2.9550 -5.8467 2.3593
-2.7413 -5.9453 2.3592
-2.5244 -6.0362 2.3591
-2.3045 -6.1192 2.3590
-2.0818 -6.1944 2.3590
-1.8568 -6.2615 2.3589
-1.6297 -6.3206 2.3589
-1.4007 -6.3716 2.3588
-1.1701 -6.4143 2.3588
-0.9383 -6.4489 2.3587
-0.7055 -6.4752 2.3587
-0.4721 -6.4932 2.3586
-0.2382 -6.5030 2.3586
-0.0049 -6.0746 2.3588
0.2135 -6.0684 2.3588
0.4314 -6.0544 2.3588
0.6486 -6.0328 2.3588
0.8648 -6.0035 2.3588
1.0799 -5.9665 2.3587
1.2934 -5.9220 2.3587
1.5051 -5.8700 2.3587
1.7148 -5.8106 2.3588
1.9223 -5.7438 2.3588
2.1272 -5.6697 2.3588
2.3293 -5.5884 2.3588
2.5284 -5.5000 2.3588
2.7242 -5.4047 2.3589
2.9165 -5.3026 2.3589
3.1051 -5.1937 2.3589
3.2897 -5.0782 2.3590
3.4701 -4.9563 2.3590
3.6460 -4.8281 2.3591
3.8173 -4.6938 2.3591
3.9838 -4.5535 2.3592
4.1452 -4.4074 2.3592
4.3014 -4.2557 2.3593
4.4521 -4.0986 2.3594
4.5972 -3.9362 2.3594
4.7365 -3.7688 2.3595
4.8698 -3.5965 2.3596
4.9970 -3.4196 2.3597
5.1178 -3.2383 2.3598
5.2322 -3.0528 2.3598
5.3399 -2.8633 2.3599
5.4410 -2.6701 2.3600
5.5351 -2.4734 2.3601
5.6223 -2.2734 2.3602
5.7023 -2.0705 2.3603
5.7752 -1.8647 2.3604
5.8407 -1.6564 2.3605
5.9065 -1.4477 2.3637
5.9719 -1.2380 2.3696
6.0189 -1.0235 2.3712
6.0570 -0.8071 2.3723
6.0979 -0.5903 2.3775
6.1318 -0.3717 2.3828
6.1511 -0.1513 2.3856
6.1584 0.0700 2.3867
6.1557 0.2915 2.3871
6.1446 0.5129 2.3872
6.1253 0.7338 2.3872
6.0981 0.9540 2.3872
6.0632 1.1731 2.3872
6.0204 1.3910 2.3872
5.9699 1.6073 2.3872
5.9116 1.8218 2.3872
5.8457 2.0342 2.3872
5.7722 2.2442 2.3872
5.6913 2.4515 2.3872
5.6029 2.6560 2.3872
5.5072 2.8572 2.3872
5.4044 3.0550 2.3872
5.2945 3.2491 2.3872
5.1776 3.4393 2.3872
5.0539 3.6252 2.3872
4.9236 3.8067 2.3872
4.7868 3.9835 2.3872
4.6436 4.1554 2.3872
4.4943 4.3221 2.3872
4.3390 4.4834 2.3872
4.1779 4.6391 2.3872
4.0112 4.7890 2.3872
3.8392 4.9329 2.3872
3.6620 5.0706 2.3872
3.4798 5.2019 2.3872
3.2930 5.3266 2.3872
3.1016 5.4445 2.3872
2.9061 5.5555 2.3872
2.7065 5.6595 2.3872
2.5033 5.7562 2.3872
0.9034 2.2995 0.9391
0.8205 2.3308 0.9387
0.7365 2.3592 0.9384
0.6516 2.3844 0.9380
0.5658 2.4066 0.9377
0.4792 2.4257 0.9373
0.3920 2.4417 0.9370
0.3043 2.4545 0.9367
0.2161 2.4641 0.9364
0.1277 2.4706 0.9361
0.0391 2.4738 0.9358
-0.0496 2.4739 0.9355
-0.1382 2.4707 0.9352
-0.2267 2.4643 0.9349
-0.3149 2.4548 0.9346
-0.4026 2.4421 0.9343
-0.4899 2.4262 0.9341
-0.5765 2.4072 0.9338
-0.6624 2.3850 0.9336
-0.7474 2.3598 0.9334
-0.8315 2.3315 0.9332
-0.9145 2.3002 0.9329
-2.5497 5.7992 2.3872
-2.7563 5.7052 2.3872
-2.9593 5.6036 2.3872
-3.1585 5.4948 2.3872
-3.3537 5.3787 2.3872
-3.5445 5.2556 2.3872
-3.7307 5.1256 2.3872
-3.9120 4.9888 2.3872
-4.0882 4.8456 2.3872
-4.2592 4.6960 2.3872
-4.4245 4.5404 2.3872
-4.5840 4.3787 2.3872
-4.7376 4.2114 2.3872
-4.8849 4.0387 2.3872
-5.0258 3.8606 2.3872
-5.1602 3.6776 2.3872
-5.2877 3.4899 2.3872
-5.4083 3.2976 2.3872
-5.5218 3.1011 2.3872
-5.6281 2.9006 2.3872
-5.7270 2.6965 2.3872
-5.8183 2.4889 2.3872
-5.9020 2.2782 2.3872
-5.9780 2.0647 2.3872
-6.0462 1.8486 2.3872
-6.1064 1.6302 2.3872
-6.1586 1.4098 2.3872
-6.2028 1.1878 2.3872
-6.2388 0.9643 2.3872
-6.2663 0.7398 2.3870
-6.2833 0.5143 2.3860
-6.2884 0.2883 2.3835
-6.2798 0.0626 2.3790
-6.2671 -0.1623 2.3760
-6.2511 -0.3864 2.3749
-6.2272 -0.6097 2.3737
-6.1952 -0.8317 2.3726
-6.1552 -1.0522 2.3715
-6.1010 -1.2697 2.3680
-6.0328 -1.4830 2.3620
-5.9720 -1.6974 2.3619
-5.9036 -1.9092 2.3617
-5.8276 -2.1184 2.3616
-5.7442 -2.3246 2.3615
-5.6534 -2.5275 2.3614
-5.5555 -2.7269 2.3612
-5.4504 -2.9225 2.3611
-5.3385 -3.1141 2.3610
-5.2198 -3.3014 2.3609
-5.0946 -3.4843 2.3608
-4.9629 -3.6624 2.3607
-4.8250 -3.8356 2.3606
-4.6811 -4.0036 2.3605
-4.5313 -4.1663 2.3604
-4.3759 -4.3234 2.3603
-4.2150 -4.4747 2.3602
-4.0490 -4.6201 2.3601
-3.8779 -4.7594 2.3600
-3.7021 -4.8924 2.3599
-3.5217 -5.0189 2.3598
-3.3370 -5.1389 2.3597
-3.1483 -5.2521 2.3596
-2.9557 -5.3585 2.3595
-2.7596 -5.4579 2.3595
-2.5602 -5.5501 2.3594
-2.3577 -5.6352 2.3593
-2.1525 -5.7130 2.3593
-1.9447 -5.7834 2.3592
-1.7346 -5.8463 2.3591
-1.5226 -5.9017 2.3591
-1.3088 -5.9494 2.3590
-1.0935 -5.9896 2.3590
-0.8771 -6.0220 2.3589
-0.6597 -6.0468 2.3589
-0.4417 -6.0638 2.3589
-0.2232 -6.0731 2.3588
-0.0047 -6.0746 2.3588
0.2136 -6.0684 2.3588
0.4315 -6.0544 2.3588
0.6487 -6.0328 2.3588
0.8650 -6.0035 2.3588
1.0800 -5.9665 2.3587
1.2935 -5.9220 2.3587
1.5052 -5.8700 2.3587
1.7150 -5.8105 2.3588
1.9224 -5.7437 2.3588
2.1273 -5.6696 2.3588
2.3294 -5.5883 2.3588
2.5285 -5.5000 2.3588
2.7243 -5.4047 2.3589
2.9167 -5.3025 2.3589
3.1052 -5.1936 2.3589
3.2898 -5.0781 2.3590
3.4702 -4.9562 2.3590
3.6461 -4.8280 2.3591
3.8175 -4.6937 2.3591
3.9839 -4.5534 2.3592
4.1453 -4.4073 2.3592
4.3015 -4.2556 2.3593
4.4522 -4.0985 2.3594
4.5973 -3.9361 2.3594
4.7366 -3.7687 2.3595
4.8699 -3.5964 2.3596
4.9970 -3.4195 2.3597
5.1179 -3.2382 2.3598
5.2322 -3.0527 2.3598
5.3400 -2.8632 2.3599
5.4410 -2.6700 2.3600
5.5352 -2.4733 2.3601
5.6223 -2.2733 2.3602
5.7024 -2.0703 2.3603
5.7752 -1.8646 2.3604
5.8408 -1.6563 2.3605
5.9066 -1.4476 2.3637
5.9720 -1.2378 2.3696
6.0189 -1.0233 2.3712
6.0570 -0.8069 2.3723
6.0980 -0.5902 2.3775
6.1318 -0.3716 2.3828
6.1511 -0.1511 2.3856
6.1584 0.0702 2.3867
6.1557 0.2917 2.3871
6.1445 0.5130 2.3872
6.1253 0.7339 2.3872
6.0981 0.9541 2.3872
6.0631 1.1733 2.3872
6.0204 1.3911 2.3872
5.9698 1.6075 2.3872
5.9116 1.8219 2.3872
5.8457 2.0343 2.3872
5.7722 2.2443 2.3872
5.6912 2.4517 2.3872
5.6029 2.6561 2.3872
5.5072 2.8573 2.3872
5.4043 3.0552 2.3872
5.2944 3.2493 2.3872
5.1775 3.4394 2.3872
5.0538 3.6253 2.3872
4.9235 3.8068 2.3872
4.7867 3.9836 2.3872
4.6435 4.1555 2.3872
4.4942 4.3222 2.3872
4.3389 4.4835 2.3872
4.1778 4.6392 2.3872
4.0111 4.7891 2.3872
3.8391 4.9330 2.3872
3.6619 5.0707 2.3872
3.4797 5.2019 2.3872
3.2928 5.3266 2.3872
3.1015 5.4446 2.3872
2.9059 5.5556 2.3872
2.7064 5.6595 2.3872
2.5031 5.7563 2.3872
0.9033 2.2995 0.9391
0.8205 2.3308 0.9387
0.7365 2.3592 0.9384
0.6515 2.3845 0.9380
0.5657 2.4067 0.9377
0.4792 2.4258 0.9373
0.3920 2.4417 0.9370
0.3042 2.4545 0.9367
0.2161 2.4641 0.9364
0.1276 2.4706 0.9361
0.0390 2.4738 0.9358
-0.0497 2.4739 0.9355
-0.1383 2.4707 0.9352
-0.2267 2.4643 0.9349
-0.3149 2.4548 0.9346
-0.4027 2.4421 0.9343
-0.4899 2.4262 0.9341
-0.5766 2.4072 0.9338
-0.6624 2.3850 0.9336
-0.7475 2.3598 0.9334
-0.8315 2.3315 0.9332
-0.9145 2.3002 0.9329
-2.5498 5.7992 2.3872
-2.7564 5.7051 2.3872
-2.9594 5.6036 2.3872
-3.1586 5.4947 2.3872
-3.3538 5.3786 2.3872
-3.5446 5.2555 2.3872
-3.7308 5.1255 2.3872
-3.9121 4.9888 2.3872
-4.0884 4.8455 2.3872
-4.2593 4.6959 2.3872
-4.4246 4.5403 2.3872
-4.5841 4.3786 2.3872
-4.7377 4.2113 2.3872
-4.8850 4.0385 2.3872
-5.0259 3.8605 2.3872
-5.1603 3.6775 2.3872
-5.2878 3.4897 2.3872
-5.4084 3.2975 2.3872
-5.5219 3.1010 2.3872
-5.6282 2.9005 2.3872
-5.7270 2.6964 2.3872
-5.8184 2.4888 2.3872
-5.9021 2.2781 2.3872
-5.9781 2.0645 2.3872
-6.0462 1.8484 2.3872
-6.1064 1.6300 2.3872
-6.1586 1.4097 2.3872
-6.2028 1.1876 2.3872
-6.2389 0.9642 2.3872
-6.2663 0.7396 2.3870
-6.2833 0.5141 2.3859
-6.2884 0.2882 2.3835
-6.2798 0.0624 2.3790
-6.2670 -0.1624 2.3760
-6.2511 -0.3866 2.3749
-6.2271 -0.6098 2.3737
-6.1951 -0.8319 2.3726
-6.1552 -1.0524 2.3715
-6.1010 -1.2698 2.3680
-6.0328 -1.4832 2.3620
-5.9720 -1.6975 2.3619
-5.9036 -1.9094 2.3617
-5.8276 -2.1185 2.3616
-5.7441 -2.3247 2.3615
-5.6534 -2.5276 2.3614
-5.5554 -2.7270 2.3612
-5.4504 -2.9226 2.3611
-5.3384 -3.1142 2.3610
-5.2198 -3.3016 2.3609
-5.0945 -3.4844 2.3608
-4.9628 -3.6625 2.3607
-4.8249 -3.8357 2.3606
-4.6810 -4.0037 2.3605
-4.5312 -4.1664 2.3604
-4.3758 -4.3235 2.3603
-4.2149 -4.4748 2.3602
-4.0489 -4.6202 2.3601
-3.8778 -4.7595 2.3600
-3.7019 -4.8925 2.3599
-3.5216 -5.0190 2.3598
-3.3369 -5.1390 2.3597
-3.1482 -5.2522 2.3596
-2.9556 -5.3586 2.3595
-2.7595 -5.4579 2.3595
-2.5601 -5.5502 2.3594
-2.3576 -5.6353 2.3593
-2.1524 -5.7130 2.3593
