ply
format ascii 1.0
element vertex 2194
property float32 x
property float32 y
property float32 z
end_header
7.8113 4.5212 0.2410
7.8064 4.9002 0.2490
7.8013 5.2962 0.2576
7.7959 5.7114 0.2670
7.7903 6.1484 0.2772
6.4476 -4.9248 0.3435
7.9175 -3.7000 0.3752
7.9130 -3.3578 0.3703
7.9088 -3.0262 0.3660
7.9046 -2.7040 0.3624
7.9005 -2.3899 0.3594
7.8966 -2.0828 0.3570
7.8927 -1.7819 0.3552
7.8889 -1.4860 0.3539
7.8851 -1.1944 0.3532
7.8814 -0.9062 0.3530
7.8777 -0.6206 0.3533
7.8740 -0.3369 0.3542
7.8704 -0.0543 0.3555
7.8667 0.2278 0.3574
7.8631 0.5103 0.3597
7.8594 0.7939 0.3626
7.8558 1.0792 0.3661
7.8520 1.3671 0.3700
7.8483 1.6584 0.3746
7.8445 1.9538 0.3797
7.8406 2.2542 0.3855
7.8366 2.5606 0.3919
7.8326 2.8740 0.3990
7.8284 3.1954 0.4069
7.8242 3.5260 0.4155
7.8198 3.8671 0.4249
7.8152 4.2201 0.4353
7.8105 4.5866 0.4467
7.8055 4.9685 0.4591
7.8004 5.3677 0.4727
7.7950 5.7865 0.4877
7.7893 6.2276 0.5040
6.3975 -4.9526 0.3424
7.9183 -3.7632 0.3762
7.9138 -3.4189 0.3711
7.9095 -3.0855 0.3667
7.9053 -2.7617 0.3630
7.9013 -2.4462 0.3599
7.8973 -2.1380 0.3574
7.8934 -1.8360 0.3555
7.8896 -1.5392 0.3541
7.8858 -1.2469 0.3533
7.8821 -0.9581 0.3530
7.8784 -0.6722 0.3532
7.8747 -0.3882 0.3540
7.8710 -0.1055 0.3552
7.8674 0.1767 0.3570
7.8638 0.4591 0.3593
7.8601 0.7424 0.3621
7.8564 1.0274 0.3654
7.8527 1.3148 0.3693
7.8490 1.6053 0.3737
7.8452 1.8999 0.3788
7.8413 2.1994 0.3844
7.8373 2.5047 0.3907
7.8333 2.8167 0.3977
7.8292 3.1365 0.4054
7.8249 3.4654 0.4139
7.8206 3.8045 0.4232
7.8160 4.1552 0.4334
7.8113 4.5192 0.4445
7.8064 4.8981 0.4568
7.8013 5.2940 0.4702
7.7960 5.7091 0.4849
7.7903 6.1459 0.5010
6.4472 -4.9249 0.5267
7.9175 -3.7008 0.5727
7.9130 -3.3586 0.5644
7.9088 -3.0271 0.5573
7.9046 -2.7049 0.5511
7.9006 -2.3908 0.5458
7.8966 -2.0838 0.5415
7.8927 -1.7828 0.5380
7.8889 -1.4870 0.5353
7.8851 -1.1954 0.5334
7.8814 -0.9072 0.5322
7.8777 -0.6217 0.5319
7.8740 -0.3380 0.5322
7.8704 -0.0555 0.5333
7.8668 0.2266 0.5352
7.8631 0.5091 0.5378
7.8595 0.7926 0.5411
7.8558 1.0779 0.5452
7.8521 1.3658 0.5501
7.8483 1.6570 0.5558
7.8445 1.9523 0.5624
7.8406 2.2527 0.5698
7.8366 2.5591 0.5782
7.8326 2.8724 0.5875
7.8285 3.1937 0.5979
7.8242 3.5243 0.6094
7.8198 3.8653 0.6221
7.8152 4.2182 0.6360
7.8105 4.5846 0.6513
7.8056 4.9664 0.6682
7.8004 5.3655 0.6867
7.7950 5.7842 0.7070
7.7893 6.2252 0.7294
6.3973 -4.9528 0.5252
7.9183 -3.7640 0.5743
7.9138 -3.4198 0.5658
7.9095 -3.0864 0.5585
7.9054 -2.7626 0.5521
7.9013 -2.4471 0.5467
7.8973 -2.1389 0.5422
7.8934 -1.8369 0.5385
7.8896 -1.5402 0.5357
7.8858 -1.2479 0.5337
7.8821 -0.9592 0.5324
7.8784 -0.6733 0.5319
7.8747 -0.3893 0.5321
7.8711 -0.1066 0.5331
7.8674 0.1755 0.5348
7.8638 0.4579 0.5372
7.8601 0.7411 0.5404
7.8564 1.0261 0.5444
7.8527 1.3134 0.5492
7.8490 1.6039 0.5547
7.8452 1.8985 0.5611
7.8413 2.1979 0.5684
7.8374 2.5031 0.5766
7.8333 2.8151 0.5858
7.8292 3.1349 0.5959
7.8250 3.4637 0.6072
7.8206 3.8027 0.6197
7.8161 4.1533 0.6334
7.8114 4.5172 0.6484
7.8065 4.8960 0.6650
7.8014 5.2918 0.6832
7.7960 5.7068 0.7032
7.7904 6.1435 0.7252
6.4468 -4.9250 0.7105
7.9175 -3.7016 0.7707
7.9131 -3.3594 0.7592
7.9088 -3.0280 0.7491
7.9046 -2.7058 0.7404
7.9006 -2.3917 0.7329
7.8966 -2.0848 0.7265
7.8927 -1.7838 0.7213
7.8889 -1.4880 0.7172
7.8851 -1.1964 0.7141
7.8814 -0.9083 0.7120
7.8777 -0.6228 0.7109
7.8741 -0.3392 0.7108
7.8704 -0.0567 0.7117
7.8668 0.2254 0.7135
7.8631 0.5078 0.7163
7.8595 0.7913 0.7201
7.8558 1.0766 0.7249
7.8521 1.3644 0.7307
7.8483 1.6556 0.7376
7.8445 1.9509 0.7456
7.8406 2.2512 0.7547
7.8367 2.5575 0.7650
7.8326 2.8708 0.7766
7.8285 3.1921 0.7895
7.8242 3.5225 0.8039
7.8198 3.8634 0.8198
7.8152 4.2163 0.8373
7.8105 4.5827 0.8566
7.8056 4.9643 0.8779
7.8004 5.3633 0.9013
7.7950 5.7818 0.9270
6.3970 -4.9531 0.7084
7.9183 -3.7648 0.7729
7.9138 -3.4206 0.7612
7.9095 -3.0873 0.7509
7.9054 -2.7635 0.7419
7.9013 -2.4481 0.7341
7.8973 -2.1399 0.7276
7.8934 -1.8379 0.7222
7.8896 -1.5412 0.7179
7.8858 -1.2490 0.7146
7.8821 -0.9603 0.7123
7.8784 -0.6743 0.7110
7.8747 -0.3904 0.7108
7.8711 -0.1078 0.7115
7.8674 0.1743 0.7131
7.8638 0.4566 0.7157
7.8601 0.7399 0.7194
7.8565 1.0248 0.7240
7.8527 1.3121 0.7296
7.8490 1.6025 0.7363
7.8452 1.8971 0.7441
7.8413 2.1964 0.7530
7.8374 2.5016 0.7631
7.8334 2.8135 0.7744
7.8292 3.1332 0.7871
7.8250 3.4619 0.8012
7.8206 3.8009 0.8168
7.8161 4.1514 0.8340
7.8114 4.5152 0.8530
7.8065 4.8939 0.8739
7.8014 5.2896 0.8969
7.7960 5.7045 0.9222
7.7904 6.1411 0.9501
6.4464 -4.9251 0.8949
7.9175 -3.7024 0.9695
7.9131 -3.3603 0.9548
7.9088 -3.0288 0.9418
7.9046 -2.7067 0.9305
7.9006 -2.3927 0.9207
7.8966 -2.0857 0.9123
7.8927 -1.7848 0.9054
7.8889 -1.4890 0.8998
7.8851 -1.1975 0.8956
7.8814 -0.9094 0.8925
7.8777 -0.6239 0.8907
7.8741 -0.3403 0.8902
7.8704 -0.0579 0.8908
7.8668 0.2242 0.8926
7.8631 0.5066 0.8956
7.8595 0.7900 0.8999
7.8558 1.0753 0.9054
7.8521 1.3630 0.9121
7.8483 1.6541 0.9202
7.8445 1.9494 0.9296
7.8406 2.2497 0.9404
7.8367 2.5560 0.9526
7.8326 2.8692 0.9665
7.8285 3.1904 0.9819
7.8242 3.5207 0.9992
7.8198 3.8616 1.0183
7.8153 4.2144 1.0394
7.8105 4.5806 1.0627
7.8056 4.9622 1.0884
7.8005 5.3610 1.1167
7.7951 5.7795 1.1479
6.3968 -4.9533 0.8924
7.9183 -3.7656 0.9724
7.9139 -3.4214 0.9573
7.9096 -3.0881 0.9440
7.9054 -2.7644 0.9324
7.9013 -2.4490 0.9223
7.8973 -2.1408 0.9138
7.8934 -1.8389 0.9066
7.8896 -1.5422 0.9008
7.8858 -1.2500 0.8962
7.8821 -0.9613 0.8930
7.8784 -0.6755 0.8910
7.8747 -0.3916 0.8902
7.8711 -0.1089 0.8906
7.8674 0.1731 0.8922
7.8638 0.4554 0.8950
7.8601 0.7386 0.8990
7.8565 1.0234 0.9043
7.8528 1.3107 0.9108
7.8490 1.6011 0.9186
7.8452 1.8956 0.9278
7.8413 2.1949 0.9383
7.8374 2.5000 0.9503
7.8334 2.8119 0.9638
7.8293 3.1315 0.9790
7.8250 3.4602 0.9959
7.8206 3.7990 1.0147
7.8161 4.1495 1.0354
7.8114 4.5132 1.0583
7.8065 4.8919 1.0836
7.8014 5.2874 1.1114
7.7961 5.7022 1.1421
7.7904 6.1386 1.1758
6.4460 -4.9253 1.0803
7.9175 -3.7032 1.1693
7.9131 -3.3611 1.1513
7.9088 -3.0297 1.1354
7.9046 -2.7076 1.1215
7.9006 -2.3936 1.1094
7.8966 -2.0867 1.0991
7.8927 -1.7858 1.0905
7.8889 -1.4900 1.0834
7.8852 -1.1985 1.0779
7.8814 -0.9105 1.0740
7.8778 -0.6250 1.0715
7.8741 -0.3415 1.0704
7.8704 -0.0590 1.0708
7.8668 0.2230 1.0726
7.8632 0.5053 1.0758
7.8595 0.7887 1.0805
7.8558 1.0739 1.0867
7.8521 1.3617 1.0944
7.8483 1.6527 1.1036
7.8445 1.9480 1.1145
7.8407 2.2482 1.1270
7.8367 2.5544 1.1412
7.8327 2.8675 1.1573
7.8285 3.1887 1.1753
7.8243 3.5190 1.1955
7.8199 3.8598 1.2178
7.8153 4.2124 1.2425
7.8106 4.5786 1.2699
7.8056 4.9601 1.3000
7.8005 5.3588 1.3333
7.7951 5.7772 1.3700
6.3966 -4.9536 1.0773
7.9183 -3.7664 1.1728
7.9139 -3.4223 1.1544
7.9096 -3.0890 1.1382
7.9054 -2.7653 1.1239
7.9013 -2.4499 1.1115
7.8973 -2.1418 1.1009
7.8934 -1.8399 1.0919
7.8896 -1.5433 1.0846
7.8858 -1.2511 1.0788
7.8821 -0.9624 1.0746
7.8784 -0.6766 1.0718
7.8748 -0.3927 1.0705
7.8711 -0.1101 1.0706
7.8675 0.1719 1.0722
7.8638 0.4542 1.0752
7.8602 0.7373 1.0796
7.8565 1.0221 1.0855
7.8528 1.3093 1.0929
7.8490 1.5997 1.1018
7.8452 1.8941 1.1124
7.8414 2.1934 1.1246
7.8374 2.4985 1.1385
7.8334 2.8103 1.1542
7.8293 3.1299 1.1719
7.8250 3.4584 1.1917
7.8207 3.7972 1.2136
7.8161 4.1476 1.2379
7.8114 4.5112 1.2647
7.8066 4.8898 1.2944
7.8014 5.2852 1.3270
7.7961 5.6998 1.3631
6.4456 -4.9254 1.2668
7.9175 -3.7040 1.3704
7.9131 -3.3620 1.3491
7.9088 -3.0306 1.3303
7.9047 -2.7085 1.3137
7.9006 -2.3945 1.2994
7.8966 -2.0876 1.2870
7.8928 -1.7868 1.2766
7.8889 -1.4911 1.2681
7.8852 -1.1996 1.2614
7.8815 -0.9116 1.2565
7.8778 -0.6261 1.2533
7.8741 -0.3426 1.2518
7.8705 -0.0602 1.2519
7.8668 0.2218 1.2537
7.8632 0.5041 1.2572
7.8595 0.7874 1.2623
7.8558 1.0726 1.2692
7.8521 1.3603 1.2778
7.8484 1.6513 1.2882
7.8446 1.9465 1.3005
7.8407 2.2467 1.3147
7.8367 2.5528 1.3309
7.8327 2.8659 1.3493
7.8285 3.1870 1.3699
7.8243 3.5172 1.3929
7.8199 3.8579 1.4186
7.8153 4.2105 1.4469
7.8106 4.5766 1.4783
7.8057 4.9579 1.5130
7.8005 5.3566 1.5512
7.7951 5.7748 1.5933
6.3963 -4.9538 1.2633
7.9183 -3.7672 1.3745
7.9139 -3.4231 1.3528
7.9096 -3.0899 1.3335
7.9054 -2.7662 1.3166
7.9013 -2.4508 1.3018
7.8973 -2.1427 1.2891
7.8935 -1.8409 1.2784
7.8896 -1.5443 1.2695
7.8858 -1.2521 1.2625
7.8821 -0.9635 1.2573
7.8784 -0.6777 1.2537
7.8748 -0.3939 1.2519
7.8711 -0.1113 1.2518
7.8675 0.1707 1.2533
7.8638 0.4529 1.2564
7.8602 0.7360 1.2613
7.8565 1.0208 1.2678
7.8528 1.3080 1.2761
7.8490 1.5983 1.2862
7.8452 1.8927 1.2981
7.8414 2.1919 1.3120
7.8374 2.4969 1.3278
7.8334 2.8086 1.3458
7.8293 3.1282 1.3660
7.8251 3.4567 1.3886
7.8207 3.7954 1.4137
7.8162 4.1457 1.4416
7.8115 4.5092 1.4724
7.8066 4.8877 1.5064
7.8015 5.2830 1.5440
7.7961 5.6975 1.5854
6.4451 -4.9255 1.4546
7.9175 -3.7048 1.5729
7.9131 -3.3628 1.5483
7.9088 -3.0315 1.5265
7.9047 -2.7094 1.5073
7.9006 -2.3955 1.4906
7.8966 -2.0886 1.4763
7.8928 -1.7878 1.4642
7.8889 -1.4921 1.4542
7.8852 -1.2007 1.4463
7.8815 -0.9127 1.4404
7.8778 -0.6273 1.4364
7.8741 -0.3438 1.4344
7.8705 -0.0614 1.4343
7.8668 0.2205 1.4361
7.8632 0.5028 1.4398
7.8595 0.7862 1.4454
7.8559 1.0712 1.4530
7.8521 1.3589 1.4625
7.8484 1.6499 1.4741
7.8446 1.9450 1.4879
7.8407 2.2451 1.5038
7.8367 2.5512 1.5220
7.8327 2.8642 1.5427
7.8286 3.1852 1.5659
7.8243 3.5154 1.5919
7.8199 3.8560 1.6207
7.8153 4.2086 1.6528
7.8106 4.5745 1.6882
7.8057 4.9558 1.7274
7.8006 5.3543 1.7706
7.7952 5.7724 1.8183
6.3961 -4.9541 1.4506
7.9183 -3.7680 1.5777
7.9139 -3.4239 1.5525
7.9096 -3.0907 1.5302
7.9054 -2.7671 1.5106
7.9013 -2.4518 1.4935
7.8974 -2.1437 1.4787
7.8935 -1.8419 1.4662
7.8896 -1.5453 1.4558
7.8859 -1.2532 1.4476
7.8821 -0.9646 1.4413
7.8784 -0.6788 1.4370
7.8748 -0.3950 1.4346
7.8711 -0.1125 1.4342
7.8675 0.1695 1.4356
7.8639 0.4516 1.4390
7.8602 0.7347 1.4443
7.8565 1.0195 1.4515
7.8528 1.3066 1.4607
7.8491 1.5969 1.4719
7.8453 1.8912 1.4852
7.8414 2.1904 1.5007
7.8375 2.4953 1.5185
7.8334 2.8070 1.5387
7.8293 3.1265 1.5615
7.8251 3.4549 1.5869
7.8207 3.7935 1.6153
7.8162 4.1438 1.6467
7.8115 4.5072 1.6815
7.8066 4.8855 1.7200
7.8015 5.2808 1.7625
7.7962 5.6952 1.8093
6.4447 -4.9256 1.6439
7.9175 -3.7056 1.7771
7.9131 -3.3637 1.7491
7.9088 -3.0324 1.7243
7.9047 -2.7103 1.7025
7.9006 -2.3964 1.6835
7.8967 -2.0896 1.6671
7.8928 -1.7888 1.6532
7.8890 -1.4932 1.6418
7.8852 -1.2017 1.6326
7.8815 -0.9138 1.6258
7.8778 -0.6284 1.6211
7.8741 -0.3449 1.6186
7.8705 -0.0626 1.6182
7.8669 0.2193 1.6200
7.8632 0.5015 1.6239
7.8596 0.7848 1.6300
7.8559 1.0699 1.6383
7.8522 1.3575 1.6488
7.8484 1.6484 1.6616
7.8446 1.9435 1.6768
7.8407 2.2436 1.6944
7.8368 2.5496 1.7147
7.8327 2.8626 1.7376
7.8286 3.1835 1.7635
7.8243 3.5136 1.7924
7.8199 3.8542 1.8246
7.8154 4.2066 1.8603
7.8107 4.5725 1.8999
7.8057 4.9536 1.9436
7.8006 5.3521 1.9918
7.7952 5.7700 2.0451
6.3958 -4.9543 1.6395
7.9183 -3.7688 1.7825
7.9139 -3.4248 1.7539
7.9096 -3.0916 1.7286
7.9054 -2.7680 1.7063
7.9014 -2.4527 1.6867
7.8974 -2.1447 1.6699
7.8935 -1.8429 1.6556
7.8896 -1.5464 1.6437
7.8859 -1.2542 1.6341
7.8822 -0.9657 1.6268
7.8785 -0.6799 1.6218
7.8748 -0.3962 1.6189
7.8712 -0.1137 1.6181
7.8675 0.1682 1.6195
7.8639 0.4504 1.6231
7.8602 0.7334 1.6288
7.8565 1.0181 1.6366
7.8528 1.3052 1.6467
7.8491 1.5955 1.6591
7.8453 1.8897 1.6739
7.8414 2.1888 1.6911
7.8375 2.4937 1.7108
7.8335 2.8053 1.7333
7.8293 3.1247 1.7586
7.8251 3.4531 1.7869
7.8207 3.7916 1.8185
7.8162 4.1418 1.8536
7.8115 4.5052 1.8924
7.8066 4.8834 1.9353
7.8015 5.2785 1.9828
7.7962 5.6928 2.0351
6.4443 -4.9258 1.8349
7.9175 -3.7065 1.9831
7.9131 -3.3646 1.9518
7.9088 -3.0333 1.9240
7.9047 -2.7113 1.8995
7.9006 -2.3974 1.8781
7.8967 -2.0906 1.8597
7.8928 -1.7898 1.8440
7.8890 -1.4942 1.8311
7.8852 -1.2028 1.8207
7.8815 -0.9149 1.8129
7.8778 -0.6296 1.8075
7.8742 -0.3461 1.8045
7.8705 -0.0638 1.8039
7.8669 0.2181 1.8057
7.8632 0.5002 1.8098
7.8596 0.7835 1.8163
7.8559 1.0685 1.8253
7.8522 1.3561 1.8368
7.8484 1.6470 1.8508
7.8446 1.9420 1.8675
7.8407 2.2420 1.8869
7.8368 2.5480 1.9091
7.8327 2.8609 1.9344
7.8286 3.1818 1.9629
7.8243 3.5118 1.9948
7.8199 3.8523 2.0303
7.8154 4.2046 2.0698
7.8107 4.5704 2.1135
7.8058 4.9515 2.1618
7.8006 5.3498 2.2151
7.6876 5.6880 2.2426
7.4684 5.9518 2.2426
7.2402 6.2072 2.2426
7.0033 6.4539 2.2426
6.7580 6.6917 2.2426
6.5048 6.9203 2.2426
6.2439 7.1395 2.2426
5.9757 7.3489 2.2426
5.7006 7.5484 2.2426
5.4189 7.7378 2.2426
5.1310 7.9168 2.2426
4.8374 8.0853 2.2426
4.5383 8.2432 2.2426
4.2343 8.3901 2.2426
3.9256 8.5261 2.2426
3.6126 8.6510 2.2426
6.3956 -4.9546 1.8301
7.9184 -3.7696 1.9892
7.9139 -3.4257 1.9572
7.9096 -3.0925 1.9288
7.9054 -2.7689 1.9037
7.9014 -2.4537 1.8818
7.8974 -2.1457 1.8628
7.8935 -1.8439 1.8467
7.8897 -1.5474 1.8332
7.8859 -1.2553 1.8224
7.8822 -0.9668 1.8141
7.8785 -0.6811 1.8083
7.8748 -0.3974 1.8048
7.8712 -0.1149 1.8038
7.8675 0.1670 1.8052
7.8639 0.4491 1.8089
7.8602 0.7321 1.8150
7.8566 1.0167 1.8235
7.8529 1.3038 1.8345
7.8491 1.5940 1.8481
7.8453 1.8882 1.8642
7.8414 2.1873 1.8831
7.8375 2.4921 1.9049
7.8335 2.8036 1.9296
7.8294 3.1230 1.9575
7.8251 3.4513 1.9888
7.8208 3.7898 2.0236
7.8162 4.1398 2.0623
7.8115 4.5031 2.1052
7.8067 4.8812 2.1527
7.8016 5.2763 2.2051
7.7263 5.6394 2.2426
7.5088 5.9046 2.2426
7.2822 6.1616 2.2426
7.0468 6.4099 2.2426
6.8031 6.6493 2.2426
6.5512 6.8796 2.2426
6.2917 7.1005 2.2426
6.0248 7.3117 2.2426
5.7509 7.5130 2.2426
5.4704 7.7043 2.2426
5.1836 7.8852 2.2426
4.8910 8.0556 2.2426
4.5929 8.2154 2.2426
4.2897 8.3643 2.2426
3.9818 8.5023 2.2426
3.6696 8.6292 2.2426
-1.1342 -9.4114 2.3951
-0.7973 -9.4547 2.3951
-0.4587 -9.4857 2.3951
-0.1189 -9.5042 2.3951
0.2216 -9.5102 2.3951
0.5623 -9.5037 2.3951
0.9028 -9.4846 2.3951
1.2426 -9.4530 2.3951
1.5812 -9.4088 2.3951
1.9182 -9.3521 2.3951
2.2530 -9.2830 2.3951
2.5852 -9.2015 2.3951
2.9143 -9.1078 2.3951
3.2399 -9.0018 2.3951
3.5615 -8.8839 2.3951
3.8786 -8.7541 2.3951
4.1908 -8.6126 2.3951
4.4976 -8.4596 2.3951
4.7986 -8.2953 2.3951
5.0933 -8.1199 2.3951
5.3814 -7.9336 2.3951
5.6625 -7.7368 2.3951
5.9360 -7.5297 2.3951
6.2017 -7.3125 2.3951
6.0482 -6.6349 2.2427
6.2812 -6.4137 2.2427
6.5058 -6.1840 2.2427
6.7218 -5.9462 2.2427
6.9287 -5.7006 2.2427
6.4438 -4.9259 2.0279
7.3144 -5.1875 2.2427
7.4927 -4.9207 2.2427
7.6609 -4.6476 2.2427
7.8188 -4.3685 2.2427
7.9662 -4.0839 2.2427
7.9175 -3.7073 2.1913
7.9131 -3.3654 2.1566
7.9089 -3.0342 2.1258
7.9047 -2.7122 2.0986
7.9006 -2.3984 2.0748
7.8967 -2.0916 2.0543
7.8928 -1.7909 2.0369
7.8890 -1.4953 2.0224
7.8852 -1.2039 2.0108
7.8815 -0.9160 2.0019
7.8778 -0.6307 1.9958
7.8742 -0.3473 1.9923
7.8705 -0.0651 1.9914
7.8669 0.2168 1.9932
7.8632 0.4990 1.9976
7.8596 0.7822 2.0046
7.8559 1.0671 2.0143
7.8522 1.3546 2.0267
7.8484 1.6455 2.0420
7.8446 1.9405 2.0601
7.8408 2.2404 2.0813
7.8368 2.5464 2.1056
7.8328 2.8592 2.1332
7.8286 3.1800 2.1644
7.8244 3.5099 2.1993
7.9884 3.9333 2.2864
7.6826 4.1312 2.2426
7.5201 4.3984 2.2426
7.3484 4.6593 2.2426
7.1676 4.9135 2.2426
6.9780 5.1608 2.2426
6.7798 5.4008 2.2426
6.5735 5.6333 2.2426
6.3592 5.8580 2.2426
6.1373 6.0746 2.2426
5.9080 6.2829 2.2426
5.6718 6.4827 2.2426
5.4288 6.6737 2.2426
5.1796 6.8557 2.2426
4.9242 7.0285 2.2426
4.6633 7.1920 2.2426
4.3969 7.3459 2.2426
4.1256 7.4902 2.2426
3.8497 7.6246 2.2426
3.5791 7.7700 2.2487
3.5086 8.3977 2.3950
3.2014 8.5089 2.3950
2.8908 8.6091 2.3950
2.5772 8.6982 2.3950
0.9127 3.5429 0.9669
0.7850 3.5737 0.9679
0.6562 3.5997 0.9689
0.5265 3.6212 0.9699
0.3961 3.6379 0.9708
0.2652 3.6499 0.9717
0.1340 3.6571 0.9725
0.0025 3.6596 0.9733
-0.1289 3.6574 0.9741
-0.2602 3.6504 0.9748
-0.3912 3.6386 0.9755
-0.5217 3.6222 0.9761
-0.6515 3.6010 0.9767
-0.7804 3.5751 0.9772
-2.2250 8.6830 2.3950
-2.5343 8.5931 2.3950
-2.8401 8.4925 2.3950
-3.1421 8.3814 2.3950
-3.4400 8.2599 2.3950
-3.7333 8.1281 2.3950
-4.0218 7.9863 2.3950
-4.3051 7.8346 2.3950
-4.5829 7.6732 2.3950
-4.8549 7.5023 2.3950
-5.1207 7.3220 2.3950
-5.3801 7.1327 2.3950
-5.6328 6.9344 2.3950
-5.8784 6.7275 2.3950
-6.1167 6.5122 2.3950
-6.3474 6.2888 2.3950
-6.5703 6.0575 2.3950
-6.7850 5.8185 2.3950
-6.9913 5.5721 2.3950
-7.1889 5.3187 2.3950
-7.3777 5.0585 2.3950
-7.5574 4.7918 2.3950
-7.7278 4.5189 2.3950
-7.8887 4.2402 2.3950
-8.0398 3.9559 2.3950
-8.1810 3.6664 2.3950
-8.3122 3.3719 2.3950
-8.4330 3.0729 2.3950
-8.5434 2.7698 2.3950
-8.6433 2.4627 2.3950
-8.7324 2.1521 2.3950
-8.8107 1.8384 2.3950
-8.8780 1.5220 2.3950
-8.9343 1.2031 2.3950
-8.9794 0.8822 2.3950
-9.0133 0.5596 2.3950
-9.0358 0.2357 2.3950
-9.0471 -0.0889 2.3950
-9.0469 -0.4142 2.3950
-9.0352 -0.7395 2.3950
-9.0121 -1.0645 2.3950
-8.9776 -1.3888 2.3950
-8.9316 -1.7120 2.3950
-8.8742 -2.0338 2.3950
-8.8054 -2.3537 2.3950
-8.7252 -2.6712 2.3950
-8.6338 -2.9861 2.3950
-8.5311 -3.2979 2.3950
-8.4174 -3.6062 2.3950
-8.2926 -3.9106 2.3950
-8.1569 -4.2107 2.3950
-8.0105 -4.5062 2.3950
-7.8534 -4.7966 2.3950
-7.6860 -5.0816 2.3950
-7.5082 -5.3607 2.3950
-7.3204 -5.6336 2.3950
-7.1226 -5.9000 2.3950
-6.9153 -6.1594 2.3950
-6.6986 -6.4115 2.3950
-6.4725 -6.6559 2.3950
-6.2375 -6.8924 2.3950
-5.9941 -7.1205 2.3951
-5.7422 -7.3399 2.3951
-5.4822 -7.5504 2.3951
-5.2146 -7.7516 2.3951
-4.9395 -7.9431 2.3951
-4.6573 -8.1248 2.3951
-4.3684 -8.2964 2.3951
-4.0732 -8.4575 2.3951
-3.7719 -8.6080 2.3951
-3.4651 -8.7475 2.3951
-3.1531 -8.8759 2.3951
-2.8363 -8.9930 2.3951
-2.5151 -9.0986 2.3951
-2.1899 -9.1925 2.3951
-1.8612 -9.2744 2.3951
-1.5294 -9.3444 2.3951
-1.1950 -9.4022 2.3951
-0.8584 -9.4478 2.3951
-0.5201 -9.4810 2.3951
-0.1805 -9.5018 2.3951
0.1599 -9.5100 2.3951
0.5006 -9.5058 2.3951
0.8412 -9.4890 2.3951
1.1812 -9.4596 2.3951
1.5200 -9.4177 2.3951
1.8573 -9.3633 2.3951
2.1925 -9.2964 2.3951
2.5253 -9.2172 2.3951
2.8550 -9.1256 2.3951
3.1812 -9.0219 2.3951
3.5036 -8.9062 2.3951
3.8215 -8.7785 2.3951
4.1346 -8.6391 2.3951
4.4424 -8.4881 2.3951
4.7445 -8.3258 2.3951
5.0404 -8.1524 2.3951
5.3299 -7.9680 2.3951
5.6121 -7.7732 2.3951
5.8870 -7.5679 2.3951
6.1542 -7.3526 2.3951
6.0051 -6.6740 2.2427
6.2396 -6.4544 2.2427
6.4658 -6.2262 2.2427
6.6833 -5.9899 2.2427
6.8919 -5.7457 2.2427
6.3954 -4.9548 2.0226
7.2811 -5.2352 2.2427
7.4611 -4.9695 2.2427
7.6312 -4.6975 2.2427
7.7910 -4.4194 2.2427
7.9403 -4.1358 2.2427
7.9184 -3.7705 2.1981
7.9139 -3.4265 2.1626
7.9096 -3.0934 2.1311
7.9054 -2.7699 2.1032
7.9014 -2.4547 2.0789
7.8974 -2.1467 2.0578
7.8935 -1.8449 2.0398
7.8897 -1.5485 2.0248
7.8859 -1.2564 2.0127
7.8822 -0.9679 2.0033
7.8785 -0.6822 1.9967
7.8748 -0.3985 1.9927
7.8712 -0.1161 1.9914
7.8675 0.1657 1.9927
7.8639 0.4478 1.9966
7.8602 0.7308 2.0031
7.8566 1.0154 2.0123
7.8529 1.3024 2.0243
7.8491 1.5925 2.0390
7.8453 1.8867 2.0566
7.8415 2.1857 2.0772
7.8375 2.4905 2.1010
7.8335 2.8020 2.1280
7.8294 3.1212 2.1585
7.8252 3.4494 2.1927
7.8208 3.7879 2.2308
7.7110 4.0821 2.2426
7.5503 4.3505 2.2426
7.3802 4.6125 2.2426
7.2010 4.8680 2.2426
7.0129 5.1165 2.2426
6.8164 5.3579 2.2426
6.6115 5.5917 2.2426
6.3986 5.8179 2.2426
6.1780 6.0360 2.2426
5.9501 6.2458 2.2426
5.7151 6.4471 2.2426
5.4733 6.6397 2.2426
5.2252 6.8234 2.2426
4.9709 6.9979 2.2426
4.7109 7.1631 2.2426
4.4456 7.3188 2.2426
4.1751 7.4648 2.2426
3.9000 7.6010 2.2426
3.6206 7.7272 2.2426
3.5402 8.3208 2.3791
3.2573 8.4896 2.3950
2.9473 8.5918 2.3950
2.6342 8.6829 2.3950
0.9357 3.5369 0.9667
0.8082 3.5684 0.9677
0.6796 3.5954 0.9687
0.5500 3.6176 0.9697
0.4198 3.6352 0.9706
0.2890 3.6481 0.9715
0.1578 3.6562 0.9724
0.0263 3.6595 0.9732
-0.1051 3.6581 0.9739
-0.2365 3.6520 0.9747
-0.3675 3.6411 0.9753
-0.4981 3.6255 0.9760
-0.6280 3.6052 0.9766
-0.7571 3.5801 0.9771
-0.8852 3.5505 0.9776
-2.4785 8.6102 2.3950
-2.7850 8.5115 2.3950
-3.0877 8.4023 2.3950
-3.3863 8.2827 2.3950
-3.6805 8.1527 2.3950
-3.9699 8.0127 2.3950
-4.2542 7.8628 2.3950
-4.5330 7.7031 2.3950
-4.8061 7.5339 2.3950
-5.0731 7.3553 2.3950
-5.3336 7.1676 2.3950
-5.5876 6.9710 2.3950
-5.8345 6.7656 2.3950
-6.0741 6.5518 2.3950
-6.3062 6.3299 2.3950
-6.5305 6.0999 2.3950
-6.7467 5.8623 2.3950
-6.9545 5.6173 2.3950
-7.1538 5.3651 2.3950
-7.3442 5.1061 2.3950
-7.5256 4.8406 2.3950
-7.6977 4.5688 2.3950
-7.8603 4.2911 2.3950
-8.0132 4.0078 2.3950
-8.1562 3.7192 2.3950
-8.2892 3.4256 2.3950
-8.4119 3.1274 2.3950
-8.5242 2.8250 2.3950
-8.6260 2.5186 2.3950
-8.7171 2.2086 2.3950
-8.7973 1.8955 2.3950
-8.8667 1.5795 2.3950
-8.9249 1.2610 2.3950
-8.9721 0.9404 2.3950
-9.0080 0.6181 2.3950
-9.0326 0.2945 2.3950
-9.0459 -0.0301 2.3950
-9.0477 -0.3553 2.3950
-9.0382 -0.6806 2.3950
-9.0172 -1.0057 2.3950
-8.9847 -1.3301 2.3950
-8.9408 -1.6536 2.3950
-8.8854 -1.9757 2.3950
-8.8187 -2.2959 2.3950
-8.7406 -2.6139 2.3950
-8.6512 -2.9293 2.3950
-8.5505 -3.2417 2.3950
-8.4388 -3.5506 2.3950
-8.3160 -3.8558 2.3950
-8.1823 -4.1567 2.3950
-8.0378 -4.4531 2.3950
-7.8827 -4.7444 2.3950
-7.7170 -5.0304 2.3950
-7.5412 -5.3106 2.3950
-7.3551 -5.5847 2.3950
-7.1592 -5.8522 2.3950
-6.9535 -6.1129 2.3950
-6.7384 -6.3664 2.3950
-6.5141 -6.6122 2.3950
-6.2808 -6.8502 2.3950
-6.0390 -7.0798 2.3951
-5.7884 -7.3008 2.3951
-5.5299 -7.5130 2.3951
-5.2636 -7.7158 2.3951
-4.9898 -7.9091 2.3951
-4.7089 -8.0927 2.3951
-4.4212 -8.2661 2.3951
-4.1271 -8.4291 2.3951
-3.8269 -8.5815 2.3951
-3.5211 -8.7231 2.3951
-3.2100 -8.8535 2.3951
-2.8940 -8.9727 2.3951
-2.5736 -9.0803 2.3951
-2.2491 -9.1763 2.3951
-1.9210 -9.2605 2.3951
-1.5897 -9.3326 2.3951
-1.2558 -9.3927 2.3951
-0.9195 -9.4404 2.3951
-0.5815 -9.4759 2.3951
-0.2421 -9.4989 2.3951
0.0982 -9.5095 2.3951
0.4389 -9.5075 2.3951
0.7796 -9.4930 2.3951
1.1197 -9.4659 2.3951
1.4588 -9.4262 2.3951
1.7964 -9.3741 2.3951
2.1320 -9.3095 2.3951
2.4652 -9.2324 2.3951
2.7955 -9.1431 2.3951
3.1225 -9.0416 2.3951
3.4455 -8.9280 2.3951
3.7643 -8.8025 2.3951
4.0783 -8.6652 2.3951
4.3871 -8.5163 2.3951
4.6903 -8.3561 2.3951
4.9873 -8.1847 2.3951
5.2779 -8.0023 2.3951
5.5615 -7.8093 2.3951
5.8378 -7.6059 2.3951
6.1064 -7.3924 2.3951
-1.0342 -8.5920 2.3951
-0.7265 -8.6309 2.3951
-0.4175 -8.6586 2.3951
-0.1074 -8.6748 2.3951
0.2034 -8.6797 2.3951
0.5143 -8.6732 2.3951
0.8249 -8.6553 2.3951
1.1349 -8.6259 2.3951
1.4437 -8.5851 2.3951
1.7511 -8.5330 2.3951
2.0564 -8.4695 2.3951
2.3593 -8.3948 2.3951
2.6594 -8.3089 2.3951
2.9563 -8.2120 2.3951
3.2495 -8.1042 2.3951
3.5386 -7.9855 2.3951
3.8232 -7.8562 2.3951
4.1029 -7.7165 2.3951
4.3773 -7.5665 2.3951
4.6461 -7.4064 2.3951
4.9088 -7.2365 2.3951
5.1650 -7.0569 2.3951
5.4144 -6.8680 2.3951
5.2968 -6.2456 2.2427
5.5166 -6.0519 2.2427
5.7292 -5.8502 2.2427
5.9341 -5.6409 2.2427
6.1311 -5.4241 2.2427
6.3199 -5.2002 2.2427
6.4434 -4.9260 2.2230
6.6720 -4.7324 2.2427
6.8348 -4.4892 2.2427
6.9885 -4.2403 2.2427
7.1328 -3.9859 2.2427
7.2675 -3.7264 2.2427
7.3926 -3.4623 2.2427
7.5077 -3.1938 2.2426
7.6129 -2.9215 2.2426
7.7079 -2.6456 2.2426
7.7926 -2.3665 2.2426
7.8670 -2.0847 2.2426
7.8928 -1.7919 2.2319
7.8890 -1.4964 2.2159
7.8852 -1.2050 2.2030
7.8815 -0.9171 2.1931
7.8778 -0.6319 2.1863
7.8742 -0.3485 2.1823
7.8705 -0.0663 2.1812
7.8669 0.2155 2.1829
7.8633 0.4976 2.1875
7.8596 0.7808 2.1950
7.8559 1.0657 2.2054
7.8522 1.3532 2.2189
8.0237 1.6807 2.2853
7.8017 1.9283 2.2426
7.7193 2.2042 2.2426
7.6270 2.4766 2.2426
7.5251 2.7452 2.2426
7.4136 3.0097 2.2426
7.2927 3.2697 2.2426
7.1627 3.5249 2.2426
7.0236 3.7750 2.2426
6.8758 4.0197 2.2426
6.7195 4.2586 2.2426
6.5548 4.4915 2.2426
6.3821 4.7180 2.2426
6.2016 4.9380 2.2426
6.0135 5.1512 2.2426
5.8180 5.3573 2.2426
5.6156 5.5560 2.2426
5.4064 5.7471 2.2426
5.1908 5.9305 2.2426
4.9690 6.1059 2.2426
4.7413 6.2730 2.2426
4.5081 6.4318 2.2426
4.2696 6.5821 2.2426
4.0262 6.7236 2.2426
3.7782 6.8563 2.2426
3.5760 7.0792 2.2745
3.4918 7.5767 2.3950
3.2143 7.6892 2.3950
2.9332 7.7917 2.3950
2.6489 7.8841 2.3950
2.3618 7.9664 2.3950
0.8347 3.2377 0.9647
0.7179 3.2657 0.9656
0.6002 3.2895 0.9665
0.4816 3.3091 0.9674
0.3625 3.3243 0.9682
0.2428 3.3353 0.9690
0.1229 3.3419 0.9698
0.0027 3.3442 0.9705
-0.1174 3.3421 0.9712
-0.2374 3.3357 0.9719
-0.3571 3.3249 0.9725
-0.4763 3.3099 0.9731
-0.5949 3.2905 0.9736
-0.7128 3.2668 0.9741
-0.8297 3.2390 0.9746
-2.3227 7.8778 2.3950
-2.6032 7.7859 2.3950
-2.8802 7.6842 2.3950
-3.1534 7.5730 2.3950
-3.4225 7.4524 2.3950
-3.6871 7.3226 2.3950
-3.9470 7.1836 2.3950
-4.2018 7.0356 2.3950
-4.4513 6.8790 2.3950
-4.6952 6.7137 2.3950
-4.9331 6.5401 2.3950
-5.1648 6.3583 2.3950
-5.3901 6.1686 2.3950
-5.6086 5.9711 2.3950
-5.8202 5.7662 2.3950
-6.0244 5.5540 2.3950
-6.2213 5.3347 2.3950
-6.4103 5.1087 2.3950
-6.5915 4.8762 2.3950
-6.7645 4.6375 2.3950
-6.9291 4.3928 2.3950
-7.0851 4.1425 2.3950
-7.2324 3.8867 2.3950
-7.3707 3.6259 2.3950
-7.4998 3.3602 2.3950
-7.6197 3.0901 2.3950
-7.7302 2.8159 2.3950
-7.8310 2.5378 2.3950
-7.9221 2.2562 2.3950
-8.0034 1.9715 2.3950
-8.0747 1.6839 2.3950
-8.1359 1.3936 2.3950
-8.1869 1.1013 2.3950
-8.2277 0.8071 2.3950
-8.2582 0.5115 2.3950
-8.2783 0.2147 2.3950
-8.2879 -0.0828 2.3950
-8.2871 -0.3807 2.3950
-8.2758 -0.6787 2.3950
-8.2540 -0.9764 2.3950
-8.2217 -1.2734 2.3950
-8.1788 -1.5693 2.3950
-8.1255 -1.8638 2.3950
-8.0618 -2.1565 2.3950
-7.9877 -2.4471 2.3950
-7.9032 -2.7352 2.3950
-7.8085 -3.0203 2.3950
-7.7036 -3.3022 2.3950
-7.5887 -3.5805 2.3950
-7.4638 -3.8549 2.3950
-7.3291 -4.1249 2.3950
-7.1846 -4.3902 2.3950
-7.0307 -4.6504 2.3950
-6.8674 -4.9053 2.3950
-6.6949 -5.1545 2.3950
-6.5134 -5.3976 2.3950
-6.3231 -5.6343 2.3950
-6.1242 -5.8642 2.3950
-5.9169 -6.0871 2.3950
-5.7016 -6.3027 2.3950
-5.4783 -6.5106 2.3950
-5.2476 -6.7105 2.3950
-5.0095 -6.9022 2.3951
-4.7643 -7.0853 2.3951
-4.5124 -7.2597 2.3951
-4.2542 -7.4250 2.3951
-3.9899 -7.5810 2.3951
-3.7198 -7.7275 2.3951
-3.4443 -7.8642 2.3951
-3.1637 -7.9909 2.3951
-2.8785 -8.1075 2.3951
-2.5889 -8.2137 2.3951
-2.2954 -8.3094 2.3951
-1.9983 -8.3944 2.3951
-1.6981 -8.4685 2.3951
-1.3950 -8.5317 2.3951
-1.0897 -8.5838 2.3951
-0.7824 -8.6247 2.3951
-0.4735 -8.6544 2.3951
-0.1636 -8.6727 2.3951
0.1471 -8.6797 2.3951
0.4580 -8.6753 2.3951
0.7687 -8.6594 2.3951
1.0788 -8.6321 2.3951
1.3879 -8.5933 2.3951
1.6955 -8.5432 2.3951
2.0013 -8.4818 2.3951
2.3047 -8.4092 2.3951
2.6053 -8.3253 2.3951
2.9028 -8.2304 2.3951
3.1967 -8.1245 2.3951
3.4866 -8.0078 2.3951
3.7720 -7.8804 2.3951
4.0526 -7.7426 2.3951
4.3281 -7.5944 2.3951
4.5979 -7.4361 2.3951
4.8616 -7.2680 2.3951
5.1191 -7.0901 2.3951
5.3698 -6.9029 2.3951
5.6134 -6.7065 2.3951
5.4773 -6.0876 2.2427
5.6913 -5.8873 2.2427
5.8976 -5.6793 2.2427
6.0960 -5.4639 2.2427
6.2863 -5.2413 2.2427
6.3951 -4.9551 2.2173
6.6416 -4.7759 2.2427
6.8060 -4.5337 2.2427
6.9613 -4.2858 2.2427
7.1073 -4.0323 2.2427
7.2438 -3.7738 2.2427
7.3707 -3.5105 2.2427
7.4876 -3.2428 2.2426
7.5946 -2.9711 2.2426
7.6914 -2.6958 2.2426
7.7780 -2.4173 2.2426
7.8543 -2.1360 2.2426
8.0797 -1.8895 2.2878
7.8897 -1.5495 2.2185
7.8859 -1.2575 2.2051
7.8822 -0.9691 2.1947
7.8785 -0.6834 2.1873
7.8748 -0.3997 2.1828
7.8712 -0.1174 2.1811
7.8676 0.1645 2.1824
7.8639 0.4465 2.1865
7.8603 0.7294 2.1934
7.8566 1.0140 2.2033
7.8529 1.3009 2.2162
7.8491 1.5910 2.2321
7.8156 1.8780 2.2426
7.7350 2.1545 2.2426
7.6445 2.4275 2.2426
7.5443 2.6969 2.2426
7.4345 2.9621 2.2426
7.3153 3.2230 2.2426
7.1869 3.4791 2.2426
7.0495 3.7301 2.2426
6.9032 3.9758 2.2426
6.7484 4.2158 2.2426
6.5853 4.4498 2.2426
6.4140 4.6775 2.2426
6.2348 4.8987 2.2426
6.0481 5.1131 2.2426
5.8540 5.3205 2.2426
5.6528 5.5205 2.2426
5.4448 5.7131 2.2426
5.2303 5.8979 2.2426
5.0096 6.0747 2.2426
4.7830 6.2434 2.2426
4.5507 6.4037 2.2426
4.3132 6.5555 2.2426
4.0707 6.6986 2.2426
3.8235 6.8330 2.2426
3.5864 6.9864 2.2518
3.5417 7.5553 2.3950
3.2648 7.6696 2.3950
2.9843 7.7739 2.3950
2.7006 7.8681 2.3950
2.4140 7.9522 2.3950
0.8557 3.2322 0.9645
0.7391 3.2610 0.9654
0.6216 3.2856 0.9664
0.5032 3.3059 0.9672
0.3841 3.3219 0.9681
0.2645 3.3336 0.9689
0.1446 3.3410 0.9697
0.0245 3.3441 0.9704
-0.0957 3.3428 0.9711
-0.2157 3.3372 0.9718
-0.3355 3.3272 0.9724
-0.4548 3.3129 0.9730
-0.5735 3.2943 0.9735
-0.6915 3.2715 0.9740
-0.8086 3.2443 0.9745
-2.2715 7.8934 2.3950
-2.5526 7.8032 2.3950
-2.8303 7.7033 2.3950
-3.1042 7.5939 2.3950
-3.3740 7.4750 2.3950
-3.6395 7.3467 2.3950
-3.9003 7.2094 2.3950
-4.1561 7.0631 2.3950
-4.4065 6.9079 2.3950
-4.6514 6.7443 2.3950
-4.8905 6.5722 2.3950
-5.1233 6.3919 2.3950
-5.3498 6.2035 2.3950
-5.5696 6.0075 2.3950
-5.7824 5.8038 2.3950
-5.9880 5.5929 2.3950
-6.1862 5.3749 2.3950
-6.3767 5.1501 2.3950
-6.5593 4.9188 2.3950
-6.7337 4.6812 2.3950
-6.8999 4.4374 2.3950
-7.0575 4.1882 2.3950
-7.2063 3.9334 2.3950
-7.3463 3.6735 2.3950
-7.4771 3.4087 2.3950
-7.5987 3.1394 2.3950
-7.7109 2.8659 2.3950
-7.8135 2.5885 2.3950
-7.9063 2.3075 2.3950
-7.9894 2.0232 2.3950
-8.0625 1.7361 2.3950
-8.1255 1.4463 2.3950
-8.1784 1.1544 2.3950
-8.2211 0.8605 2.3950
-8.2534 0.5651 2.3950
-8.2754 0.2685 2.3950
-8.2870 -0.0289 2.3950
-8.2880 -0.3268 2.3950
-8.2786 -0.6248 2.3950
-8.2587 -0.9225 2.3950
-8.2283 -1.2196 2.3950
-8.1874 -1.5158 2.3950
-8.1360 -1.8106 2.3950
-8.0741 -2.1037 2.3950
-8.0019 -2.3946 2.3950
-7.9193 -2.6832 2.3950
-7.8264 -2.9689 2.3950
-7.7234 -3.2514 2.3950
-7.6102 -3.5304 2.3950
-7.4871 -3.8055 2.3950
-7.3542 -4.0763 2.3950
-7.2115 -4.3425 2.3950
-7.0593 -4.6037 2.3950
-6.8977 -4.8596 2.3950
-6.7268 -5.1098 2.3950
-6.5469 -5.3540 2.3950
-6.3582 -5.5919 2.3950
-6.1608 -5.8231 2.3950
-5.9551 -6.0473 2.3950
-5.7412 -6.2642 2.3950
-5.5194 -6.4735 2.3950
-5.2899 -6.6749 2.3950
-5.0531 -6.8681 2.3951
-4.8095 -7.0528 2.3951
-4.5586 -7.2288 2.3951
-4.3015 -7.3957 2.3951
-4.0382 -7.5535 2.3951
-3.7691 -7.7017 2.3951
-3.4946 -7.8402 2.3951
-3.2149 -7.9687 2.3951
-2.9305 -8.0872 2.3951
-2.6417 -8.1952 2.3951
-2.3488 -8.2928 2.3951
-2.0524 -8.3798 2.3951
-1.7526 -8.4559 2.3951
-1.4501 -8.5211 2.3951
-1.1451 -8.5752 2.3951
-0.8381 -8.6181 2.3951
-0.5296 -8.6499 2.3951
-0.2198 -8.6703 2.3951
0.0908 -8.6793 2.3951
0.4017 -8.6769 2.3951
0.7125 -8.6631 2.3951
1.0227 -8.6379 2.3951
1.3320 -8.6012 2.3951
1.6399 -8.5532 2.3951
1.9461 -8.4938 2.3951
2.2499 -8.4231 2.3951
2.5511 -8.3413 2.3951
2.8492 -8.2484 2.3951
3.1437 -8.1445 2.3951
3.4344 -8.0297 2.3951
3.7207 -7.9043 2.3951
4.0022 -7.7683 2.3951
4.2786 -7.6220 2.3951
4.5494 -7.4655 2.3951
4.8143 -7.2991 2.3951
5.0729 -7.1230 2.3951
5.3249 -6.9375 2.3951
5.5698 -6.7427 2.3951
-0.9492 -7.8960 2.3951
-0.6665 -7.9312 2.3951
-0.3825 -7.9561 2.3951
-0.0976 -7.9706 2.3951
0.1879 -7.9747 2.3951
0.4735 -7.9682 2.3951
0.7588 -7.9513 2.3951
1.0434 -7.9240 2.3951
1.3270 -7.8861 2.3951
1.6092 -7.8379 2.3951
1.8896 -7.7793 2.3951
2.1677 -7.7104 2.3951
2.4432 -7.6312 2.3951
2.7157 -7.5420 2.3951
2.9848 -7.4427 2.3951
3.2502 -7.3336 2.3951
3.5116 -7.2147 2.3951
3.7682 -7.0863 2.3951
4.0201 -6.9484 2.3951
4.2668 -6.8013 2.3951
4.5079 -6.6452 2.3951
4.7431 -6.4803 2.3951
4.9721 -6.3068 2.3951
4.8640 -5.7353 2.2427
5.0659 -5.5575 2.2427
5.2610 -5.3724 2.2427
5.4492 -5.1802 2.2427
5.6302 -4.9813 2.2427
5.8037 -4.7758 2.2427
5.9694 -4.5641 2.2427
6.1272 -4.3465 2.2426
6.2768 -4.1233 2.2426
6.4181 -3.8948 2.2426
6.5507 -3.6613 2.2426
6.6747 -3.4232 2.2426
6.7898 -3.1807 2.2426
6.8959 -2.9343 2.2426
6.9927 -2.6843 2.2426
7.0803 -2.4311 2.2426
7.1585 -2.1749 2.2426
7.2272 -1.9161 2.2426
7.2863 -1.6552 2.2426
7.3358 -1.3924 2.2426
7.3755 -1.1282 2.2426
7.4056 -0.8628 2.2426
7.4259 -0.5968 2.2426
7.4365 -0.3303 2.2426
7.4374 -0.0638 2.2426
7.4285 0.2023 2.2426
7.4099 0.4677 2.2426
7.3817 0.7320 2.2426
7.3439 0.9950 2.2426
7.2967 1.2561 2.2426
7.2400 1.5151 2.2426
7.1740 1.7717 2.2426
7.0988 2.0255 2.2426
7.0146 2.2762 2.2426
6.9214 2.5234 2.2426
6.8194 2.7669 2.2426
6.7088 3.0063 2.2426
6.5897 3.2413 2.2426
6.4624 3.4716 2.2426
6.3270 3.6970 2.2426
6.1837 3.9172 2.2426
6.0327 4.1318 2.2426
5.8743 4.3407 2.2426
5.7086 4.5435 2.2426
5.5359 4.7401 2.2426
5.3565 4.9302 2.2426
5.1706 5.1136 2.2426
4.9785 5.2900 2.2426
4.7804 5.4593 2.2426
4.5765 5.6212 2.2426
4.3673 5.7756 2.2426
4.1528 5.9224 2.2426
3.9335 6.0613 2.2426
3.7096 6.1921 2.2426
3.5782 6.4903 2.3049
3.4701 6.8662 2.3950
3.2182 6.9795 2.3950
2.9627 7.0836 2.3950
2.7039 7.1786 2.3950
2.4421 7.2643 2.3950
0.8746 2.9481 0.9619
0.7682 2.9778 0.9628
0.6608 3.0035 0.9636
0.5525 3.0254 0.9645
0.4435 3.0434 0.9653
0.3338 3.0574 0.9661
0.2238 3.0674 0.9668
0.1134 3.0735 0.9675
0.0029 3.0755 0.9682
-0.1076 3.0736 0.9688
-0.2180 3.0677 0.9694
-0.3281 3.0578 0.9700
-0.4377 3.0440 0.9705
-0.5468 3.0261 0.9710
-0.6552 3.0044 0.9715
-0.7627 2.9787 0.9719
-0.8693 2.9492 0.9723
-2.4002 7.1805 2.3950
-2.6557 7.0870 2.3950
-2.9078 6.9846 2.3950
-3.1561 6.8735 2.3950
-3.4003 6.7538 2.3950
-3.6401 6.6257 2.3950
-3.8753 6.4894 2.3950
-4.1055 6.3449 2.3950
-4.3305 6.1925 2.3950
-4.5500 6.0324 2.3950
-4.7638 5.8647 2.3950
-4.9716 5.6896 2.3950
-5.1732 5.5074 2.3950
-5.3683 5.3183 2.3950
-5.5567 5.1225 2.3950
-5.7382 4.9202 2.3950
-5.9126 4.7116 2.3950
-6.0796 4.4970 2.3950
-6.2390 4.2767 2.3950
-6.3907 4.0509 2.3950
-6.5345 3.8199 2.3950
-6.6701 3.5839 2.3950
-6.7975 3.3432 2.3950
-6.9164 3.0981 2.3950
-7.0267 2.8489 2.3950
-7.1283 2.5958 2.3950
-7.2209 2.3392 2.3950
-7.3046 2.0794 2.3950
-7.3792 1.8167 2.3950
-7.4446 1.5514 2.3950
-7.5006 1.2837 2.3950
-7.5473 1.0141 2.3950
-7.5845 0.7429 2.3950
-7.6121 0.4703 2.3950
-7.6302 0.1967 2.3950
-7.6386 -0.0776 2.3950
-7.6373 -0.3522 2.3950
-7.6264 -0.6268 2.3950
-7.6057 -0.9011 2.3950
-7.5754 -1.1747 2.3950
-7.5354 -1.4473 2.3950
-7.4857 -1.7185 2.3950
-7.4264 -1.9881 2.3950
-7.3576 -2.2556 2.3950
-7.2792 -2.5208 2.3950
-7.1914 -2.7833 2.3950
-7.0942 -3.0427 2.3950
-6.9878 -3.2987 2.3950
-6.8722 -3.5511 2.3950
-6.7476 -3.7994 2.3950
-6.6140 -4.0434 2.3950
-6.4717 -4.2826 2.3950
-6.3208 -4.5169 2.3950
-6.1615 -4.7459 2.3950
-5.9939 -4.9692 2.3950
-5.8182 -5.1866 2.3950
-5.6347 -5.3978 2.3950
-5.4435 -5.6024 2.3950
-5.2449 -5.8002 2.3950
-5.0391 -5.9910 2.3950
-4.8263 -6.1744 2.3950
-4.6068 -6.3502 2.3950
-4.3809 -6.5181 2.3950
-4.1491 -6.6780 2.3951
-3.9112 -6.8294 2.3951
-3.6678 -6.9723 2.3951
-3.4192 -7.1064 2.3951
-3.1656 -7.2316 2.3951
-2.9073 -7.3475 2.3951
-2.6450 -7.4541 2.3951
-2.3786 -7.5511 2.3951
-2.1087 -7.6385 2.3951
-1.8355 -7.7161 2.3951
-1.5594 -7.7837 2.3951
-1.2809 -7.8412 2.3951
-1.0002 -7.8885 2.3951
-0.7178 -7.9256 2.3951
-0.4340 -7.9524 2.3951
-0.1492 -7.9688 2.3951
0.1362 -7.9747 2.3951
0.4218 -7.9702 2.3951
0.7071 -7.9552 2.3951
0.9919 -7.9297 2.3951
1.2758 -7.8937 2.3951
1.5582 -7.8474 2.3951
1.8389 -7.7906 2.3951
2.1175 -7.7236 2.3951
2.3935 -7.6463 2.3951
2.6666 -7.5589 2.3951
2.9364 -7.4614 2.3951
3.2025 -7.3541 2.3951
3.4645 -7.2370 2.3951
3.7221 -7.1102 2.3951
3.9749 -6.9741 2.3951
4.2225 -6.8286 2.3951
4.4647 -6.6742 2.3951
4.7010 -6.5108 2.3951
4.9311 -6.3389 2.3951
4.8268 -5.7667 2.2427
5.0298 -5.5902 2.2427
5.2262 -5.4064 2.2427
5.4157 -5.2155 2.2427
5.5980 -5.0178 2.2427
5.7728 -4.8135 2.2427
5.9400 -4.6029 2.2427
6.0992 -4.3863 2.2426
6.2503 -4.1641 2.2426
6.3931 -3.9365 2.2426
6.5274 -3.7039 2.2426
6.6529 -3.4666 2.2426
6.7696 -3.2249 2.2426
6.8773 -2.9792 2.2426
6.9759 -2.7299 2.2426
7.0651 -2.4771 2.2426
7.1450 -2.2215 2.2426
7.2154 -1.9632 2.2426
7.2763 -1.7026 2.2426
7.3275 -1.4401 2.2426
7.3691 -1.1761 2.2426
7.4009 -0.9110 2.2426
7.4230 -0.6450 2.2426
7.4353 -0.3786 2.2426
7.4379 -0.1121 2.2426
7.4308 0.1541 2.2426
7.4140 0.4197 2.2426
7.3875 0.6843 2.2426
7.3515 0.9475 2.2426
7.3059 1.2090 2.2426
7.2509 1.4684 2.2426
7.1866 1.7255 2.2426
7.1131 1.9798 2.2426
7.0305 2.2310 2.2426
6.9389 2.4789 2.2426
6.8385 2.7231 2.2426
6.7294 2.9632 2.2426
6.6119 3.1991 2.2426
6.4860 3.4303 2.2426
6.3521 3.6566 2.2426
6.2102 3.8777 2.2426
6.0606 4.0934 2.2426
5.9035 4.3033 2.2426
5.7391 4.5073 2.2426
5.5677 4.7050 2.2426
5.3895 4.8963 2.2426
5.2048 5.0809 2.2426
5.0137 5.2586 2.2426
4.8167 5.4292 2.2426
4.6139 5.5924 2.2426
4.4055 5.7483 2.2426
4.1920 5.8964 2.2426
3.9736 6.0367 2.2426
3.7505 6.1690 2.2426
3.5837 6.4016 2.2813
3.5153 6.8447 2.3950
3.2641 6.9596 2.3950
3.0092 7.0655 2.3950
2.7510 7.1621 2.3950
2.4897 7.2495 2.3950
0.8938 2.9424 0.9617
0.7875 2.9727 0.9626
0.6803 2.9992 0.9635
0.5722 3.0217 0.9643
0.4633 3.0404 0.9651
0.3537 3.0551 0.9659
0.2438 3.0659 0.9667
0.1334 3.0727 0.9674
0.0230 3.0755 0.9681
-0.0876 3.0743 0.9687
-0.1980 3.0691 0.9693
-0.3081 3.0599 0.9699
-0.4179 3.0468 0.9704
-0.5271 3.0297 0.9709
-0.6356 3.0086 0.9714
-0.7433 2.9837 0.9718
-0.8501 2.9549 0.9722
-2.3535 7.1965 2.3950
-2.6097 7.1046 2.3950
-2.8624 7.0038 2.3950
-3.1114 6.8942 2.3950
-3.3564 6.7761 2.3950
-3.5970 6.6495 2.3950
-3.8330 6.5147 2.3950
-4.0642 6.3716 2.3950
-4.2901 6.2207 2.3950
-4.5107 6.0620 2.3950
-4.7255 5.8956 2.3950
-4.9344 5.7219 2.3950
-5.1372 5.5410 2.3950
-5.3335 5.3531 2.3950
-5.5231 5.1584 2.3950
-5.7059 4.9573 2.3950
-5.8815 4.7498 2.3950
-6.0499 4.5363 2.3950
-6.2107 4.3170 2.3950
-6.3638 4.0922 2.3950
-6.5090 3.8621 2.3950
-6.6461 3.6270 2.3950
-6.7750 3.3871 2.3950
-6.8955 3.1428 2.3950
-7.0073 2.8943 2.3950
-7.1105 2.6419 2.3950
-7.2048 2.3859 2.3950
-7.2902 2.1267 2.3950
-7.3664 1.8645 2.3950
-7.4334 1.5996 2.3950
-7.4912 1.3324 2.3950
-7.5395 1.0631 2.3950
-7.5784 0.7921 2.3950
-7.6078 0.5197 2.3950
-7.6276 0.2463 2.3950
-7.6378 -0.0279 2.3950
-7.6383 -0.3024 2.3950
-7.6291 -0.5771 2.3950
-7.6102 -0.8514 2.3950
-7.5816 -1.1252 2.3950
-7.5434 -1.3980 2.3950
-7.4954 -1.6695 2.3950
-7.4379 -1.9394 2.3950
-7.3708 -2.2073 2.3950
-7.2941 -2.4730 2.3950
-7.2080 -2.7359 2.3950
-7.1125 -2.9959 2.3950
-7.0077 -3.2526 2.3950
-6.8938 -3.5057 2.3950
-6.7708 -3.7547 2.3950
-6.6388 -3.9995 2.3950
-6.4981 -4.2397 2.3950
-6.3488 -4.4749 2.3950
-6.1910 -4.7048 2.3950
-6.0248 -4.9292 2.3950
-5.8506 -5.1477 2.3950
-5.6685 -5.3600 2.3950
-5.4787 -5.5658 2.3950
-5.2814 -5.7649 2.3950
-5.0769 -5.9570 2.3950
-4.8654 -6.1418 2.3950
-4.6471 -6.3190 2.3950
-4.4224 -6.4883 2.3950
-4.1915 -6.6496 2.3950
-3.9547 -6.8026 2.3951
-3.7123 -6.9471 2.3951
-3.4646 -7.0828 2.3951
-3.2125 -7.2096 2.3951
-2.9546 -7.3272 2.3951
-2.6928 -7.4355 2.3951
-2.4271 -7.5343 2.3951
-2.1578 -7.6234 2.3951
-1.8852 -7.7028 2.3951
-1.6096 -7.7722 2.3951
-1.3315 -7.8315 2.3951
-1.0512 -7.8807 2.3951
-0.7690 -7.9197 2.3951
-0.4855 -7.9483 2.3951
-0.2008 -7.9666 2.3951
0.0845 -7.9744 2.3951
0.3700 -7.9718 2.3951
0.6555 -7.9587 2.3951
0.9404 -7.9351 2.3951
1.2245 -7.9010 2.3951
1.5072 -7.8566 2.3951
1.7883 -7.8017 2.3951
2.0672 -7.7365 2.3951
2.3437 -7.6611 2.3951
2.6174 -7.5755 2.3951
2.8878 -7.4798 2.3951
3.1546 -7.3743 2.3951
3.4173 -7.2589 2.3951
3.6758 -7.1339 2.3951
3.9295 -6.9994 2.3951
4.1781 -6.8556 2.3951
4.4212 -6.7028 2.3951
4.6586 -6.5411 2.3951
4.8899 -6.3707 2.3951
5.1148 -6.1919 2.3951
-0.8761 -7.2969 2.3951
-0.6148 -7.3290 2.3951
-0.3524 -7.3516 2.3951
-0.0893 -7.3646 2.3951
0.1746 -7.3680 2.3951
0.4384 -7.3617 2.3951
0.7019 -7.3457 2.3951
0.9648 -7.3202 2.3951
1.2267 -7.2849 2.3951
1.4872 -7.2401 2.3951
1.7459 -7.1857 2.3951
2.0029 -7.1218 2.3951
2.2574 -7.0485 2.3951
2.5088 -6.9659 2.3951
2.7573 -6.8741 2.3951
3.0023 -6.7731 2.3951
3.2435 -6.6632 2.3951
3.4805 -6.5445 2.3951
3.7130 -6.4171 2.3951
3.9408 -6.2812 2.3951
4.1633 -6.1370 2.3951
4.3805 -5.9847 2.3950
4.5919 -5.8245 2.3950
4.4921 -5.2967 2.2426
4.6785 -5.1326 2.2426
4.8587 -4.9617 2.2426
5.0325 -4.7843 2.2426
5.1996 -4.6006 2.2426
5.3599 -4.4109 2.2426
5.5130 -4.2155 2.2426
5.6588 -4.0147 2.2426
5.7971 -3.8086 2.2426
5.9276 -3.5977 2.2426
6.0504 -3.3822 2.2426
6.1650 -3.1624 2.2426
6.2715 -2.9386 2.2426
6.3697 -2.7112 2.2426
6.4594 -2.4804 2.2426
6.5405 -2.2465 2.2426
6.6130 -2.0100 2.2426
6.6767 -1.7711 2.2426
6.7316 -1.5301 2.2426
6.7777 -1.2874 2.2426
6.8148 -1.0434 2.2426
6.8429 -0.7983 2.2426
6.8621 -0.5525 2.2426
6.8722 -0.3063 2.2426
6.8734 -0.0601 2.2426
6.8656 0.1858 2.2426
6.8489 0.4311 2.2426
6.8232 0.6754 2.2426
6.7888 0.9185 2.2426
6.7455 1.1600 2.2426
6.6936 1.3995 2.2426
6.6330 1.6368 2.2426
6.5640 1.8715 2.2426
6.4865 2.1034 2.2426
6.4008 2.3322 2.2426
6.3070 2.5575 2.2426
6.2051 2.7791 2.2426
6.0955 2.9966 2.2426
5.9782 3.2099 2.2426
5.8533 3.4186 2.2426
5.7212 3.6225 2.2426
5.5820 3.8214 2.2426
5.4358 4.0149 2.2426
5.2829 4.2029 2.2426
5.1236 4.3851 2.2426
4.9579 4.5614 2.2426
4.7862 4.7314 2.2426
4.6087 4.8950 2.2426
4.4257 5.0521 2.2426
4.2373 5.2024 2.2426
4.0439 5.3457 2.2426
3.8457 5.4819 2.2426
3.6429 5.6109 2.2426
3.5792 5.9717 2.3363
3.4439 6.2438 2.3950
3.2145 6.3574 2.3950
2.9815 6.4628 2.3950
2.7450 6.5597 2.3950
2.5055 6.6481 2.3950
0.9066 2.6953 0.9595
0.8093 2.7262 0.9603
0.7109 2.7535 0.9612
0.6115 2.7774 0.9620
0.5113 2.7976 0.9627
0.4105 2.8142 0.9635
0.3091 2.8271 0.9642
0.2074 2.8364 0.9649
0.1053 2.8419 0.9655
0.0031 2.8439 0.9662
-0.0991 2.8421 0.9667
-0.2012 2.8366 0.9673
-0.3030 2.8274 0.9678
-0.4044 2.8146 0.9683
-0.5053 2.7981 0.9688
-0.6056 2.7780 0.9692
-0.7050 2.7543 0.9696
-0.8035 2.7270 0.9699
-0.9010 2.6962 0.9702
-2.4611 6.5691 2.3950
-2.6949 6.4743 2.3950
-2.9252 6.3714 2.3950
-3.1516 6.2606 2.3950
-3.3740 6.1419 2.3950
-3.5921 6.0156 2.3950
-3.8055 5.8817 2.3950
-4.0142 5.7404 2.3950
-4.2177 5.5920 2.3950
-4.4160 5.4365 2.3950
-4.6087 5.2742 2.3950
-4.7956 5.1053 2.3950
-4.9764 4.9299 2.3950
-5.1511 4.7483 2.3950
-5.3193 4.5606 2.3950
-5.4809 4.3672 2.3950
-5.6356 4.1682 2.3950
-5.7834 3.9639 2.3950
-5.9239 3.7544 2.3950
-6.0570 3.5402 2.3950
-6.1826 3.3213 2.3950
-6.3005 3.0981 2.3950
-6.4105 2.8708 2.3950
-6.5126 2.6397 2.3950
-6.6065 2.4050 2.3950
-6.6922 2.1671 2.3950
-6.7695 1.9262 2.3950
-6.8383 1.6826 2.3950
-6.8986 1.4366 2.3950
-6.9503 1.1885 2.3950
-6.9932 0.9387 2.3950
-7.0273 0.6872 2.3950
-7.0525 0.4346 2.3950
-7.0689 0.1811 2.3950
-7.0763 -0.0730 2.3950
-7.0747 -0.3274 2.3950
-7.0642 -0.5818 2.3950
-7.0446 -0.8359 2.3950
-7.0161 -1.0893 2.3950
-6.9786 -1.3417 2.3950
-6.9321 -1.5928 2.3950
-6.8768 -1.8424 2.3950
-6.8125 -2.0900 2.3950
-6.7395 -2.3354 2.3950
-6.6577 -2.5783 2.3950
-6.5673 -2.8183 2.3950
-6.4683 -3.0551 2.3950
-6.3608 -3.2885 2.3950
-6.2450 -3.5181 2.3950
-6.1209 -3.7437 2.3950
-5.9888 -3.9649 2.3950
-5.8487 -4.1814 2.3950
-5.7008 -4.3930 2.3950
-5.5453 -4.5993 2.3950
-5.3823 -4.8001 2.3950
-5.2121 -4.9951 2.3950
-5.0349 -5.1840 2.3950
-4.8508 -5.3667 2.3950
-4.6600 -5.5427 2.3950
-4.4629 -5.7119 2.3950
-4.2596 -5.8741 2.3950
-4.0505 -6.0290 2.3950
-3.8356 -6.1763 2.3950
-3.6155 -6.3159 2.3950
-3.3902 -6.4476 2.3950
-3.1601 -6.5711 2.3950
-2.9255 -6.6864 2.3951
-2.6866 -6.7931 2.3951
-2.4439 -6.8911 2.3951
-2.1975 -6.9804 2.3951
-1.9479 -7.0607 2.3951
-1.6951 -7.1319 2.3951
-1.4399 -7.1940 2.3951
-1.1826 -7.2467 2.3951
-0.9231 -7.2900 2.3951
-0.6622 -7.3239 2.3951
-0.3999 -7.3482 2.3951
-0.1368 -7.3630 2.3951
0.1268 -7.3681 2.3951
0.3906 -7.3636 2.3951
0.6541 -7.3494 2.3951
0.9172 -7.3255 2.3951
1.1793 -7.2920 2.3951
1.4401 -7.2489 2.3951
1.6992 -7.1962 2.3951
1.9566 -7.1341 2.3951
2.2113 -7.0625 2.3951
2.4635 -6.9815 2.3951
2.7126 -6.8914 2.3951
2.9582 -6.7921 2.3951
3.2001 -6.6838 2.3951
3.4379 -6.5666 2.3951
3.6713 -6.4408 2.3951
3.8999 -6.3064 2.3951
4.1234 -6.1637 2.3951
4.3416 -6.0129 2.3950
4.5541 -5.8541 2.3950
4.4576 -5.3257 2.2426
4.6451 -5.1628 2.2426
4.8265 -4.9931 2.2426
5.0015 -4.8169 2.2426
5.1698 -4.6343 2.2426
5.3314 -4.4457 2.2426
5.4858 -4.2513 2.2426
5.6329 -4.0514 2.2426
5.7726 -3.8463 2.2426
5.9046 -3.6363 2.2426
6.0287 -3.4216 2.2426
6.1449 -3.2025 2.2426
6.2528 -2.9794 2.2426
6.3525 -2.7526 2.2426
6.4438 -2.5224 2.2426
6.5265 -2.2891 2.2426
6.6005 -2.0530 2.2426
6.6658 -1.8145 2.2426
6.7224 -1.5739 2.2426
6.7700 -1.3315 2.2426
6.8087 -1.0877 2.2426
6.8385 -0.8427 2.2426
6.8593 -0.5970 2.2426
6.8711 -0.3509 2.2426
6.8739 -0.1047 2.2426
6.8677 0.1413 2.2426
6.8526 0.3867 2.2426
6.8285 0.6313 2.2426
6.7957 0.8746 2.2426
6.7540 1.1164 2.2426
6.7036 1.3563 2.2426
6.6446 1.5940 2.2426
6.5771 1.8292 2.2426
6.5012 2.0617 2.2426
6.4169 2.2910 2.2426
6.3246 2.5169 2.2426
6.2242 2.7392 2.2426
6.1159 2.9575 2.2426
6.0000 3.1716 2.2426
5.8765 3.3812 2.2426
5.7457 3.5860 2.2426
5.6077 3.7858 2.2426
5.4628 3.9803 2.2426
5.3111 4.1693 2.2426
5.1529 4.3526 2.2426
4.9884 4.5299 2.2426
4.8178 4.7011 2.2426
4.6413 4.8659 2.2426
4.4592 5.0241 2.2426
4.2718 5.1757 2.2426
4.0793 5.3203 2.2426
3.8819 5.4578 2.2426
3.6799 5.5880 2.2426
3.5844 5.8931 2.3141
3.4850 6.2224 2.3950
3.2564 6.3375 2.3950
3.0239 6.4443 2.3950
2.7881 6.5427 2.3950
2.5491 6.6327 2.3950
0.9241 2.6893 0.9593
0.8270 2.7208 0.9602
0.7288 2.7488 0.9610
0.6296 2.7733 0.9618
0.5295 2.7942 0.9626
0.4288 2.8114 0.9633
0.3275 2.8250 0.9641
0.2258 2.8350 0.9648
0.1238 2.8412 0.9654
0.0216 2.8438 0.9660
-0.0806 2.8427 0.9666
-0.1827 2.8379 0.9672
-0.2846 2.8294 0.9677
-0.3861 2.8172 0.9682
-0.4871 2.8014 0.9687
-0.5875 2.7819 0.9691
-0.6871 2.7589 0.9695
-0.7858 2.7322 0.9699
-0.8834 2.7020 0.9702
-2.4185 6.5854 2.3950
-2.6528 6.4921 2.3950
-2.8837 6.3907 2.3950
-3.1109 6.2812 2.3950
-3.3340 6.1640 2.3950
-3.5529 6.0390 2.3950
-3.7672 5.9065 2.3950
-3.9768 5.7665 2.3950
-4.1813 5.6194 2.3950
-4.3805 5.4650 2.3950
-4.5742 5.3041 2.3950
-4.7622 5.1363 2.3950
-4.9441 4.9621 2.3950
-5.1199 4.7816 2.3950
-5.2893 4.5951 2.3950
-5.4521 4.4027 2.3950
-5.6081 4.2047 2.3950
-5.7571 4.0013 2.3950
-5.8990 3.7927 2.3950
-6.0334 3.5793 2.3950
-6.1604 3.3613 2.3950
-6.2797 3.1388 2.3950
-6.3912 2.9122 2.3950
-6.4947 2.6818 2.3950
-6.5901 2.4477 2.3950
-6.6773 2.2104 2.3950
-6.7561 1.9700 2.3950
-6.8265 1.7269 2.3950
-6.8883 1.4814 2.3950
-6.9415 1.2336 2.3950
-6.9860 0.9840 2.3950
-7.0217 0.7329 2.3950
-7.0486 0.4804 2.3950
-7.0666 0.2271 2.3950
-7.0756 -0.0270 2.3950
-7.0757 -0.2814 2.3950
-7.0667 -0.5358 2.3950
-7.0488 -0.7899 2.3950
-7.0219 -1.0434 2.3950
-6.9860 -1.2961 2.3950
-6.9412 -1.5474 2.3950
-6.8875 -1.7973 2.3950
-6.8248 -2.0453 2.3950
-6.7534 -2.2911 2.3950
-6.6732 -2.5345 2.3950
-6.5843 -2.7750 2.3950
-6.4868 -3.0125 2.3950
-6.3809 -3.2465 2.3950
-6.2666 -3.4768 2.3950
-6.1440 -3.7032 2.3950
-6.0133 -3.9252 2.3950
-5.8746 -4.1425 2.3950
-5.7281 -4.3550 2.3950
-5.5740 -4.5623 2.3950
-5.4124 -4.7641 2.3950
-5.2435 -4.9602 2.3950
-5.0675 -5.1503 2.3950
-4.8846 -5.3341 2.3950
-4.6951 -5.5113 2.3950
-4.4991 -5.6818 2.3950
-4.2969 -5.8453 2.3950
-4.0888 -6.0015 2.3950
-3.8750 -6.1502 2.3950
-3.6557 -6.2912 2.3950
-3.4313 -6.4244 2.3950
-3.2021 -6.5494 2.3950
-2.9683 -6.6661 2.3951
-2.7301 -6.7744 2.3951
-2.4881 -6.8740 2.3951
-2.2424 -6.9649 2.3951
-1.9933 -7.0468 2.3951
-1.7412 -7.1197 2.3951
-1.4867 -7.1834 2.3951
-1.2294 -7.2378 2.3951
-0.9703 -7.2829 2.3951
-0.7095 -7.3185 2.3951
-0.4474 -7.3445 2.3951
-0.1846 -7.3610 2.3951
0.0790 -7.3679 2.3951
0.3428 -7.3651 2.3951
0.6064 -7.3526 2.3951
0.8697 -7.3305 2.3951
1.1319 -7.2988 2.3951
1.3930 -7.2574 2.3951
1.6529 -7.2065 2.3951
1.9101 -7.1460 2.3951
2.1655 -7.0761 2.3951
2.4181 -6.9969 2.3951
2.6677 -6.9084 2.3951
2.9140 -6.8107 2.3951
3.1566 -6.7041 2.3951
3.3951 -6.5885 2.3951
3.6293 -6.4642 2.3951
3.8589 -6.3314 2.3951
4.0833 -6.1902 2.3951
4.3025 -6.0408 2.3950
4.5160 -5.8835 2.3950
4.5471 -5.5047 2.3056
-0.8122 -6.7752 2.3951
-0.5697 -6.8047 2.3951
-0.3262 -6.8253 2.3951
-0.0818 -6.8371 2.3951
0.1630 -6.8399 2.3951
0.4078 -6.8338 2.3951
0.6524 -6.8188 2.3951
0.8963 -6.7947 2.3951
1.1394 -6.7618 2.3951
1.3811 -6.7200 2.3951
1.6213 -6.6693 2.3951
1.8596 -6.6098 2.3951
2.0955 -6.5416 2.3951
2.3289 -6.4648 2.3951
2.5594 -6.3794 2.3951
2.7867 -6.2857 2.3951
3.0104 -6.1836 2.3951
3.2303 -6.0733 2.3950
3.4460 -5.9551 2.3950
3.6572 -5.8289 2.3950
3.8637 -5.6951 2.3950
4.0652 -5.5538 2.3950
4.2613 -5.4051 2.3950
4.2208 -4.9770 2.2708
4.3416 -4.7630 2.2426
4.5088 -4.6045 2.2426
4.6701 -4.4399 2.2426
4.8252 -4.2696 2.2426
4.9739 -4.0936 2.2426
5.1160 -3.9124 2.2426
5.2514 -3.7261 2.2426
5.3798 -3.5350 2.2426
5.5011 -3.3394 2.2426
5.6151 -3.1395 2.2426
5.7217 -2.9356 2.2426
5.8206 -2.7280 2.2426
5.9119 -2.5170 2.2426
5.9953 -2.3029 2.2426
6.0708 -2.0860 2.2426
6.1383 -1.8665 2.2426
6.1977 -1.6448 2.2426
6.2489 -1.4212 2.2426
6.2919 -1.1960 2.2426
6.3266 -0.9696 2.2426
6.3530 -0.7421 2.2426
6.3711 -0.5140 2.2426
6.3809 -0.2854 2.2426
6.3823 -0.0569 2.2426
6.3754 0.1715 2.2426
6.3602 0.3992 2.2426
6.3367 0.6261 2.2426
6.3051 0.8519 2.2426
6.2653 1.0762 2.2426
6.2174 1.2987 2.2426
6.1615 1.5192 2.2426
6.0978 1.7373 2.2426
6.0262 1.9528 2.2426
5.9469 2.1655 2.2426
5.8601 2.3749 2.2426
5.7659 2.5809 2.2426
5.6644 2.7832 2.2426
5.5557 2.9816 2.2426
5.4401 3.1757 2.2426
5.3177 3.3654 2.2426
5.1886 3.5504 2.2426
5.0531 3.7306 2.2426
4.9113 3.9055 2.2426
4.7635 4.0752 2.2426
4.6098 4.2393 2.2426
4.4505 4.3976 2.2426
4.2858 4.5500 2.2426
4.1158 4.6964 2.2426
3.9410 4.8364 2.2426
3.7696 4.9809 2.2476
3.6045 5.1358 2.2597
3.5793 5.5105 2.3687
3.4137 5.6929 2.3950
3.2042 5.8065 2.3950
2.9911 5.9126 2.3950
2.7744 6.0109 2.3950
2.5546 6.1014 2.3950
