ply
format ascii 1.0
element vertex 2168
property float32 x
property float32 y
property float32 z
end_header
-3.6051 -7.6677 2.3873
-3.3517 -7.8509 2.3873
-3.0904 -8.0273 2.3873
-2.8215 -8.1964 2.3873
-2.5451 -8.3580 2.3873
-2.2613 -8.5118 2.3873
-1.9701 -8.6573 2.3873
-1.6719 -8.7943 2.3873
-1.3668 -8.9223 2.3873
-1.0550 -9.0410 2.3873
-0.7367 -9.1501 2.3873
-0.4122 -9.2491 2.3873
-0.0817 -9.3377 2.3873
0.2545 -9.4156 2.3873
0.5960 -9.4823 2.3873
0.9425 -9.5374 2.3873
1.2936 -9.5807 2.3873
3.6112 -8.9432 2.2422
3.9473 -8.8545 2.2349
2.6179 9.3098 2.3873
0.8673 3.5686 0.9145
0.7389 3.5959 0.9221
0.6097 3.6185 0.9298
0.4797 3.6365 0.9374
0.3491 3.6497 0.9451
0.2182 3.6582 0.9527
0.0870 3.6620 0.9604
-0.0443 3.6609 0.9680
-0.1755 3.6552 0.9756
-0.3063 3.6447 0.9831
-0.4367 3.6294 0.9906
-0.5665 3.6095 0.9980
-0.6955 3.5848 1.0054
-0.8235 3.5555 1.0126
-2.2247 8.2440 2.3873
-2.5012 8.0980 2.3873
-2.7710 7.9441 2.3873
-3.0337 7.7831 2.3873
-3.2893 7.6152 2.3873
-3.5377 7.4405 2.3873
-3.7789 7.2594 2.3873
-4.0126 7.0723 2.3873
-4.2389 6.8792 2.3873
-4.4577 6.6806 2.3873
-4.6689 6.4766 2.3873
-4.8725 6.2675 2.3873
-5.0684 6.0536 2.3873
-5.2567 5.8351 2.3873
-5.4373 5.6121 2.3873
-5.6101 5.3851 2.3873
-5.7752 5.1540 2.3873
-5.9324 4.9193 2.3873
-6.0819 4.6810 2.3873
-6.2236 4.4395 2.3873
-6.3574 4.1948 2.3873
-6.4834 3.9471 2.3873
-6.6016 3.6968 2.3873
-6.7119 3.4438 2.3873
-6.8143 3.1885 2.3873
-6.9089 2.9310 2.3873
-6.9956 2.6716 2.3873
-7.0745 2.4101 2.3873
-7.1454 2.1471 2.3873
-7.2085 1.8824 2.3873
-7.2637 1.6165 2.3873
-7.3110 1.3493 2.3873
-7.3504 1.0811 2.3873
-7.3819 0.8120 2.3873
-7.4054 0.5422 2.3873
-7.4210 0.2718 2.3873
-7.4287 0.0010 2.3873
-7.4284 -0.2700 2.3873
-7.4201 -0.5411 2.3873
-7.4038 -0.8122 2.3873
-7.3796 -1.0830 2.3873
-7.3473 -1.3534 2.3873
-7.3068 -1.6231 2.3873
-7.2581 -1.8915 2.3873
-7.2022 -2.1609 2.3873
-7.1377 -2.4281 2.3873
-7.0651 -2.6942 2.3873
-6.9843 -2.9588 2.3873
-6.8954 -3.2218 2.3873
-6.7984 -3.4830 2.3873
-6.6932 -3.7423 2.3873
-6.5798 -3.9994 2.3873
-6.4581 -4.2541 2.3873
-6.3283 -4.5063 2.3873
-6.1902 -4.7557 2.3873
-6.0439 -5.0020 2.3873
-5.8893 -5.2452 2.3873
-5.7265 -5.4849 2.3873
-5.5554 -5.7209 2.3873
-5.3761 -5.9529 2.3873
-5.1886 -6.1808 2.3873
-4.9928 -6.4042 2.3873
-4.7889 -6.6229 2.3873
-4.5768 -6.8366 2.3873
-4.3566 -7.0450 2.3873
-4.1283 -7.2479 2.3873
-3.8920 -7.4449 2.3873
-3.6478 -7.6357 2.3873
-3.3956 -7.8201 2.3873
-3.1357 -7.9976 2.3873
-2.8681 -8.1680 2.3873
-2.5930 -8.3309 2.3873
-2.3104 -8.4860 2.3873
-2.0205 -8.6330 2.3873
-1.7235 -8.7714 2.3873
-1.4196 -8.9010 2.3873
-1.1089 -9.0214 2.3873
-0.7917 -9.1320 2.3873
-0.4682 -9.2329 2.3873
-0.1387 -9.3233 2.3873
0.1965 -9.4030 2.3873
0.5371 -9.4717 2.3873
0.8828 -9.5288 2.3873
1.2332 -9.5742 2.3873
3.5691 -8.9966 2.2533
3.8877 -8.8657 2.2349
2.6787 9.3075 2.3873
0.8891 3.5634 0.9132
0.7610 3.5915 0.9208
0.6319 3.6150 0.9284
0.5020 3.6337 0.9361
0.3715 3.6478 0.9438
0.2406 3.6571 0.9514
0.1094 3.6617 0.9591
-0.0218 3.6615 0.9667
-0.1530 3.6565 0.9743
-0.2839 3.6468 0.9818
-0.4144 3.6324 0.9893
-0.5443 3.6132 0.9968
-0.6734 3.5894 1.0041
-0.8016 3.5609 1.0114
-2.1766 8.2682 2.3873
-2.4543 8.1235 2.3873
-2.7253 7.9710 2.3873
-2.9892 7.8112 2.3873
-3.2461 7.6444 2.3873
-3.4957 7.4709 2.3873
-3.7381 7.2909 2.3873
-3.9731 7.1047 2.3873
-4.2006 6.9127 2.3873
-4.4207 6.7150 2.3873
-4.6336 6.5113 2.3873
-4.8381 6.3037 2.3873
-5.0354 6.0906 2.3873
-5.2250 5.8728 2.3873
-5.4069 5.6506 2.3873
-5.5811 5.4242 2.3873
-5.7475 5.1939 2.3873
-5.9061 4.9598 2.3873
-6.0569 4.7221 2.3873
-6.1999 4.4810 2.3873
-6.3350 4.2369 2.3873
-6.4624 3.9898 2.3873
-6.5819 3.7398 2.3873
-6.6935 3.4874 2.3873
-6.7973 3.2324 2.3873
-6.8932 2.9754 2.3873
-6.9813 2.7162 2.3873
-7.0614 2.4553 2.3873
-7.1338 2.1922 2.3873
-7.1983 1.9279 2.3873
-7.2548 1.6621 2.3873
-7.3035 1.3952 2.3873
-7.3442 1.1271 2.3873
-7.3770 0.8582 2.3873
-7.4019 0.5885 2.3873
-7.4189 0.3182 2.3873
-7.4279 0.0474 2.3873
-7.4290 -0.2236 2.3873
-7.4221 -0.4947 2.3873
-7.4072 -0.7658 2.3873
-7.3843 -1.0367 2.3873
-7.3533 -1.3070 2.3873
-7.3144 -1.5771 2.3873
-7.2675 -1.8466 2.3873
-7.2125 -2.1150 2.3873
-7.1493 -2.3824 2.3873
-7.0781 -2.6487 2.3873
-6.9987 -2.9136 2.3873
-6.9113 -3.1769 2.3873
-6.8156 -3.4384 2.3873
-6.7118 -3.6980 2.3873
-0.6511 3.2717 1.0008
-0.7679 3.2441 1.0075
-2.0803 7.5632 2.3873
-2.3351 7.4315 2.3873
-2.5838 7.2927 2.3873
-2.8263 7.1470 2.3873
-3.0621 6.9950 2.3873
-3.2919 6.8359 2.3873
-3.5150 6.6710 2.3873
-3.7313 6.5002 2.3873
-3.9409 6.3238 2.3873
-4.1436 6.1421 2.3873
-4.3395 5.9551 2.3873
-4.5284 5.7633 2.3873
-4.7102 5.5667 2.3873
-4.8850 5.3657 2.3873
-5.0527 5.1604 2.3873
-5.2132 4.9511 2.3873
-5.3666 4.7380 2.3873
-5.5127 4.5212 2.3873
-5.6516 4.3010 2.3873
-5.7832 4.0776 2.3873
-5.9076 3.8511 2.3873
-6.0246 3.6218 2.3873
-6.1342 3.3898 2.3873
-6.2366 3.1553 2.3873
-6.3315 2.9185 2.3873
-6.4191 2.6796 2.3873
-6.4993 2.4386 2.3873
-6.5721 2.1959 2.3873
-6.6375 1.9515 2.3873
-6.6954 1.7057 2.3873
-6.7460 1.4586 2.3873
-6.7890 1.2103 2.3873
-6.8246 0.9610 2.3873
-6.8528 0.7109 2.3873
-6.8734 0.4601 2.3873
-6.8866 0.2088 2.3873
-6.8923 -0.0428 2.3873
-6.8903 -0.2944 2.3873
-6.8809 -0.5461 2.3873
-6.8641 -0.7981 2.3873
-6.8396 -1.0495 2.3873
-6.8077 -1.3006 2.3873
-6.7681 -1.5510 2.3873
-6.7210 -1.8006 2.3873
-6.6662 -2.0492 2.3873
-6.6038 -2.2967 2.3873
-6.5339 -2.5429 2.3873
-6.4562 -2.7876 2.3873
-6.3710 -3.0307 2.3873
-6.2781 -3.2719 2.3873
-6.1776 -3.5111 2.3873
-6.0695 -3.7480 2.3873
-5.9536 -3.9826 2.3873
-5.8302 -4.2145 2.3873
-5.6991 -4.4436 2.3873
-5.5603 -4.6696 2.3873
-5.4139 -4.8924 2.3873
-5.2599 -5.1117 2.3873
-5.0984 -5.3273 2.3873
-4.9292 -5.5389 2.3873
-4.7525 -5.7464 2.3873
-4.5683 -5.9494 2.3873
-4.3766 -6.1478 2.3873
-4.1775 -6.3413 2.3873
-3.9711 -6.5295 2.3873
-3.7573 -6.7123 2.3873
-3.5364 -6.8893 2.3873
-3.3083 -7.0603 2.3873
-3.0731 -7.2250 2.3873
-2.8311 -7.3831 2.3873
-2.5822 -7.5343 2.3873
-2.3267 -7.6783 2.3873
-2.0646 -7.8147 2.3873
-1.7961 -7.9434 2.3873
-1.5215 -8.0640 2.3873
-1.2409 -8.1761 2.3873
-0.9544 -8.2794 2.3873
-0.6624 -8.3737 2.3873
-0.3651 -8.4585 2.3873
-0.0628 -8.5336 2.3873
0.2444 -8.5986 2.3873
0.5559 -8.6535 2.3873
0.8715 -8.6976 2.3873
1.1910 -8.7308 2.3873
1.5138 -8.7527 2.3873
1.8397 -8.7630 2.3873
2.1681 -8.7615 2.3873
2.4986 -8.7480 2.3873
2.8308 -8.7221 2.3873
3.1642 -8.6836 2.3873
3.4979 -8.6327 2.3873
3.8183 -8.5371 2.3786
4.0290 -8.2118 2.3088
4.2323 -7.9028 2.2460
4.5212 -7.7663 2.2349
4.8290 -7.6561 2.2349
5.1340 -7.5332 2.2349
5.4357 -7.3975 2.2349
5.7334 -7.2490 2.2349
6.0266 -7.0878 2.2349
6.3144 -6.9140 2.2349
6.5964 -6.7276 2.2349
6.8718 -6.5288 2.2349
7.1399 -6.3177 2.2349
7.4002 -6.0947 2.2349
7.6518 -5.8599 2.2349
7.8943 -5.6137 2.2349
8.1269 -5.3564 2.2349
6.2499 7.3810 2.3873
5.9407 7.5434 2.3873
5.6275 7.6928 2.3873
5.3107 7.8291 2.3873
4.9910 7.9523 2.3873
4.6690 8.0626 2.3873
4.3454 8.1599 2.3873
4.0205 8.2446 2.3873
3.6951 8.3166 2.3873
3.3696 8.3761 2.3873
3.0445 8.4234 2.3873
2.7204 8.4586 2.3873
0.9136 3.2322 0.9097
0.7973 3.2613 0.9166
0.6800 3.2862 0.9236
0.5619 3.3069 0.9306
0.4431 3.3233 0.9376
0.3238 3.3353 0.9446
0.2040 3.3431 0.9516
0.0841 3.3465 0.9586
-0.0358 3.3456 0.9656
-0.1557 3.3403 0.9725
-0.2753 3.3307 0.9794
-0.3945 3.3167 0.9862
-0.5131 3.2985 0.9930
-0.6309 3.2759 0.9997
-0.7479 3.2492 1.0063
-2.0361 7.5850 2.3873
-2.2919 7.4546 2.3873
-2.5417 7.3170 2.3873
-2.7852 7.1724 2.3873
-3.0224 7.0212 2.3873
-3.2529 6.8640 2.3873
-3.4772 6.6997 2.3873
-3.6947 6.5299 2.3873
-3.9055 6.3544 2.3873
-4.1094 6.1736 2.3873
-4.3064 5.9875 2.3873
-4.4965 5.7965 2.3873
-4.6796 5.6007 2.3873
-4.8556 5.4004 2.3873
-5.0245 5.1959 2.3873
-5.1863 4.9873 2.3873
-5.3408 4.7748 2.3873
-5.4882 4.5586 2.3873
-5.6283 4.3390 2.3873
-5.7612 4.1161 2.3873
-5.8868 3.8901 2.3873
-6.0051 3.6613 2.3873
-6.1160 3.4297 2.3873
-6.2196 3.1956 2.3873
-6.3158 2.9592 2.3873
-6.4047 2.7206 2.3873
-6.4861 2.4800 2.3873
-6.5602 2.2376 2.3873
-6.6268 1.9935 2.3873
-6.6861 1.7479 2.3873
-6.7378 1.5009 2.3873
-6.7822 1.2529 2.3873
-6.8191 1.0037 2.3873
-6.8485 0.7538 2.3873
-6.8704 0.5031 2.3873
-6.8849 0.2519 2.3873
-6.8918 0.0003 2.3873
-6.8913 -0.2515 2.3873
-6.8832 -0.5033 2.3873
-6.8675 -0.7550 2.3873
-6.8443 -1.0064 2.3873
-6.8137 -1.2577 2.3873
-6.7754 -1.5082 2.3873
-6.7296 -1.7579 2.3873
-6.6761 -2.0067 2.3873
-6.6151 -2.2544 2.3873
-6.5464 -2.5008 2.3873
-6.4701 -2.7458 2.3873
-6.3862 -2.9891 2.3873
-6.2946 -3.2307 2.3873
-6.1954 -3.4702 2.3873
-6.0885 -3.7076 2.3873
-5.9740 -3.9426 2.3873
-5.8519 -4.1749 2.3873
-5.7221 -4.4045 2.3873
-5.5846 -4.6311 2.3873
-5.4396 -4.8545 2.3873
-5.2869 -5.0744 2.3873
-5.1266 -5.2906 2.3873
-4.9587 -5.5030 2.3873
-4.7833 -5.7112 2.3873
-4.6004 -5.9150 2.3873
-4.4100 -6.1142 2.3873
-4.2121 -6.3085 2.3873
-4.0069 -6.4976 2.3873
-3.7944 -6.6814 2.3873
-3.5747 -6.8594 2.3873
-3.3478 -7.0315 2.3873
-3.1139 -7.1972 2.3873
-2.8730 -7.3565 2.3873
-2.6253 -7.5089 2.3873
-2.3709 -7.6541 2.3873
-2.1099 -7.7919 2.3873
-1.8426 -7.9219 2.3873
-1.5690 -8.0439 2.3873
-1.2893 -8.1575 2.3873
-1.0039 -8.2623 2.3873
-0.7128 -8.3582 2.3873
-0.4164 -8.4447 2.3873
-0.1149 -8.5214 2.3873
0.1914 -8.5883 2.3873
0.5022 -8.6449 2.3873
0.8172 -8.6908 2.3873
1.1360 -8.7259 2.3873
1.4583 -8.7497 2.3873
1.7837 -8.7621 2.3873
2.1116 -8.7626 2.3873
2.4418 -8.7512 2.3873
2.7738 -8.7274 2.3873
3.1070 -8.6910 2.3873
3.4409 -8.6421 2.3873
3.7750 -8.5800 2.3873
3.9936 -8.2665 2.3204
4.1966 -7.9522 2.2556
4.4683 -7.7838 2.2349
4.7764 -7.6758 2.2349
5.0820 -7.5551 2.2349
5.3843 -7.4216 2.2349
5.6827 -7.2753 2.2349
5.9767 -7.1163 2.2349
6.2655 -6.9446 2.2349
6.5486 -6.7604 2.2349
6.8251 -6.5637 2.2349
7.0946 -6.3547 2.2349
7.3562 -6.1337 2.2349
7.6094 -5.9009 2.2349
7.8535 -5.6566 2.2349
8.0878 -5.4012 2.2349
6.3024 7.3518 2.3873
5.9940 7.5165 2.3873
5.6814 7.6681 2.3873
5.3651 7.8067 2.3873
5.0459 7.9321 2.3873
4.7243 8.0446 2.3873
4.4009 8.1442 2.3873
4.0762 8.2310 2.3873
3.7509 8.3051 2.3873
3.4253 8.3668 2.3873
3.1002 8.4161 2.3873
2.7758 8.4534 2.3873
0.9334 3.2267 0.9085
0.8173 3.2566 0.9155
0.7002 3.2823 0.9224
0.5822 3.3037 0.9294
0.4635 3.3208 0.9364
0.3442 3.3336 0.9434
0.2246 3.3421 0.9504
0.1047 3.3462 0.9574
-0.0153 3.3460 0.9644
-0.1352 3.3415 0.9713
-0.2548 3.3326 0.9782
-0.3741 3.3194 0.9851
-0.4928 3.3019 0.9918
-0.6108 3.2801 0.9986
-0.7280 3.2540 1.0052
-0.8441 3.2238 1.0118
-2.2485 7.4774 2.3873
-2.4993 7.3411 2.3873
-2.7439 7.1977 2.3873
-2.9821 7.0477 2.3873
-3.2137 6.8916 2.3873
-3.4393 6.7282 2.3873
-3.6580 6.5594 2.3873
-3.8699 6.3849 2.3873
-4.0750 6.2049 2.3873
-4.2732 6.0197 2.3873
-4.4644 5.8295 2.3873
-4.6487 5.6346 2.3873
-4.8259 5.4350 2.3873
-4.9961 5.2312 2.3873
-5.1591 5.0233 2.3873
-5.3149 4.8114 2.3873
-5.4635 4.5959 2.3873
-5.6049 4.3768 2.3873
-5.7390 4.1545 2.3873
-5.8658 3.9290 2.3873
-5.9853 3.7007 2.3873
-6.0975 3.4696 2.3873
-6.2024 3.2359 2.3873
-6.2998 2.9999 2.3873
-6.3900 2.7616 2.3873
-6.4727 2.5214 2.3873
-6.5480 2.2792 2.3873
-6.6159 2.0354 2.3873
-6.6764 1.7901 2.3873
-6.7295 1.5433 2.3873
-6.7751 1.2954 2.3873
-6.8133 1.0465 2.3873
-6.8440 0.7966 2.3873
-6.8672 0.5461 2.3873
-6.8830 0.2949 2.3873
-6.8912 0.0434 2.3873
-6.8919 -0.2084 2.3873
-6.8849 -0.4598 2.3873
-6.8706 -0.7117 2.3873
-6.8489 -0.9635 2.3873
-6.8195 -1.2147 2.3873
-6.7825 -1.4653 2.3873
-6.7380 -1.7152 2.3873
-6.6858 -1.9641 2.3873
-6.6261 -2.2120 2.3873
-6.5587 -2.4587 2.3873
-6.4837 -2.7040 2.3873
-6.4011 -2.9476 2.3873
-6.3108 -3.1895 2.3873
-6.2129 -3.4294 2.3873
-0.5945 3.0090 0.9959
-0.7019 2.9837 1.0020
-0.8084 2.9545 1.0080
-2.1514 6.8786 2.3873
-2.3828 6.7532 2.3873
-2.6085 6.6213 2.3873
-2.8286 6.4829 2.3873
-3.0427 6.3384 2.3873
-3.2509 6.1880 2.3873
-3.4530 6.0320 2.3873
-3.6488 5.8709 2.3873
-3.8386 5.7040 2.3873
-4.0220 5.5322 2.3873
-4.1990 5.3558 2.3873
-4.3695 5.1748 2.3873
-4.5335 4.9895 2.3873
-4.6909 4.8000 2.3873
-4.8416 4.6066 2.3873
-4.9857 4.4094 2.3873
-5.1230 4.2087 2.3873
-5.2536 4.0047 2.3873
-5.3775 3.7975 2.3873
-5.4944 3.5873 2.3873
-5.6046 3.3743 2.3873
-5.7078 3.1587 2.3873
-5.8042 2.9406 2.3873
-5.8936 2.7203 2.3873
-5.9761 2.4979 2.3873
-6.0517 2.2735 2.3873
-6.1203 2.0474 2.3873
-6.1818 1.8196 2.3873
-6.2364 1.5904 2.3873
-6.2839 1.3600 2.3873
-6.3244 1.1284 2.3873
-6.3579 0.8959 2.3873
-6.3842 0.6626 2.3873
-6.4034 0.4289 2.3873
-6.4156 0.1947 2.3873
-6.4209 -0.0405 2.3873
-6.4190 -0.2756 2.3873
-6.4099 -0.5104 2.3873
-6.3937 -0.7452 2.3873
-6.3704 -0.9797 2.3873
-6.3399 -1.2137 2.3873
-6.3023 -1.4470 2.3873
-6.2575 -1.6795 2.3873
-6.2055 -1.9111 2.3873
-6.1464 -2.1415 2.3873
-6.0801 -2.3706 2.3873
-6.0067 -2.5982 2.3873
-5.9261 -2.8241 2.3873
-5.8383 -3.0482 2.3873
-5.7433 -3.2702 2.3873
-5.6412 -3.4901 2.3873
-5.5319 -3.7075 2.3873
-5.4155 -3.9223 2.3873
-5.2919 -4.1343 2.3873
-5.1613 -4.3432 2.3873
-5.0235 -4.5490 2.3873
-4.8787 -4.7513 2.3873
-4.7269 -4.9500 2.3873
-4.5681 -5.1448 2.3873
-4.4023 -5.3355 2.3873
-4.2296 -5.5219 2.3873
-4.0500 -5.7038 2.3873
-3.8637 -5.8808 2.3873
-3.6707 -6.0528 2.3873
-3.4710 -6.2195 2.3873
-3.2647 -6.3806 2.3873
-3.0520 -6.5360 2.3873
-2.8330 -6.6852 2.3873
-2.6077 -6.8282 2.3873
-2.3763 -6.9645 2.3873
-2.1389 -7.0940 2.3873
-1.8957 -7.2163 2.3873
-1.6469 -7.3312 2.3873
-1.3927 -7.4384 2.3873
-1.1331 -7.5377 2.3873
-0.8685 -7.6286 2.3873
-0.5991 -7.7111 2.3873
-0.3250 -7.7847 2.3873
-0.0467 -7.8492 2.3873
0.2357 -7.9044 2.3873
0.5218 -7.9499 2.3873
0.8114 -7.9856 2.3873
1.1041 -8.0111 2.3873
1.3995 -8.0262 2.3873
1.6973 -8.0307 2.3873
1.9970 -8.0243 2.3873
2.2984 -8.0069 2.3873
2.6008 -7.9781 2.3873
2.9040 -7.9380 2.3873
3.2077 -7.8855 2.3873
3.5104 -7.8226 2.3873
3.8127 -7.7472 2.3873
4.1137 -7.6596 2.3873
4.4088 -7.5527 2.3850
4.5939 -7.2652 2.3286
4.7726 -6.9864 2.2772
4.9556 -6.7294 2.2349
5.2236 -6.5904 2.2349
5.4870 -6.4402 2.2349
5.7454 -6.2788 2.2349
5.9982 -6.1062 2.2349
6.2449 -5.9227 2.2349
6.4849 -5.7283 2.2349
6.7176 -5.5234 2.2349
6.9424 -5.3081 2.2349
7.1588 -5.0828 2.2349
7.3663 -4.8478 2.2349
7.5642 -4.6035 2.2349
7.7521 -4.3501 2.2349
7.9295 -4.0883 2.2349
8.0959 -3.8183 2.2349
8.2509 -3.5408 2.2349
8.3940 -3.2562 2.2349
8.5248 -2.9652 2.2349
8.6430 -2.6681 2.2349
8.7482 -2.3658 2.2349
8.8401 -2.0587 2.2349
8.9185 -1.7476 2.2349
8.9831 -1.4331 2.2349
9.0339 -1.1158 2.2349
9.0705 -0.7966 2.2349
9.0931 -0.4759 2.2349
9.1014 -0.1547 2.2349
9.0970 0.1667 2.2352
9.2715 0.4976 2.2831
9.4674 0.8441 2.3402
9.6064 1.1995 2.3873
9.5403 1.5351 2.3873
9.4597 1.8669 2.3873
9.3647 2.1943 2.3873
9.2558 2.5167 2.3873
9.1333 2.8334 2.3873
8.9976 3.1438 2.3873
8.8490 3.4472 2.3873
8.6880 3.7433 2.3873
8.5151 4.0313 2.3873
8.3307 4.3109 2.3873
8.1354 4.5815 2.3873
7.9297 4.8428 2.3873
7.7141 5.0943 2.3873
7.4893 5.3357 2.3873
7.2557 5.5666 2.3873
7.0140 5.7869 2.3873
6.7647 5.9963 2.3873
6.5084 6.1944 2.3873
6.2457 6.3813 2.3873
5.9773 6.5566 2.3873
5.7036 6.7204 2.3873
5.4253 6.8725 2.3873
5.1429 7.0130 2.3873
4.8570 7.1416 2.3873
4.5681 7.2586 2.3873
4.2768 7.3639 2.3873
3.9836 7.4575 2.3873
3.6889 7.5396 2.3873
3.3933 7.6102 2.3873
3.0973 7.6696 2.3873
2.8013 7.7177 2.3873
0.9507 2.9422 0.9058
0.8447 2.9729 0.9121
0.7378 2.9997 0.9185
0.6299 3.0226 0.9249
0.5212 3.0415 0.9313
0.4119 3.0566 0.9378
0.3021 3.0677 0.9442
0.1920 3.0748 0.9507
0.0817 3.0779 0.9571
-0.0286 3.0770 0.9635
-0.1389 3.0721 0.9699
-0.2489 3.0633 0.9762
-0.3585 3.0505 0.9825
-0.4676 3.0337 0.9887
-0.5760 3.0129 0.9949
-0.6836 2.9883 1.0010
-0.7903 2.9598 1.0070
-2.1112 6.8994 2.3873
-2.3435 6.7752 2.3873
-2.5703 6.6443 2.3873
-2.7913 6.5070 2.3873
-3.0065 6.3636 2.3873
-3.2157 6.2142 2.3873
-3.4188 6.0593 2.3873
-3.6157 5.8988 2.3873
-3.8066 5.7329 2.3873
-3.9911 5.5620 2.3873
-4.1692 5.3863 2.3873
-4.3408 5.2061 2.3873
-4.5059 5.0215 2.3873
-4.6644 4.8327 2.3873
-4.8163 4.6400 2.3873
-4.9615 4.4435 2.3873
-5.1000 4.2434 2.3873
-5.2318 4.0399 2.3873
-5.3567 3.8332 2.3873
-5.4749 3.6235 2.3873
-5.5862 3.4110 2.3873
-5.6906 3.1958 2.3873
-5.7882 2.9781 2.3873
-5.8788 2.7582 2.3873
-5.9625 2.5361 2.3873
-6.0392 2.3121 2.3873
-6.1090 2.0862 2.3873
-6.1718 1.8587 2.3873
-6.2275 1.6298 2.3873
-6.2763 1.3995 2.3873
-6.3180 1.1682 2.3873
-6.3526 0.9358 2.3873
-6.3802 0.7028 2.3873
-6.4006 0.4690 2.3873
-6.4141 0.2346 2.3873
-6.4206 -0.0003 2.3873
-6.4198 -0.2352 2.3873
-6.4120 -0.4702 2.3873
-6.3970 -0.7050 2.3873
-6.3749 -0.9395 2.3873
-6.3456 -1.1736 2.3873
-6.3092 -1.4071 2.3873
-6.2657 -1.6398 2.3873
-6.2149 -1.8715 2.3873
-6.1570 -2.1021 2.3873
-6.0920 -2.3315 2.3873
-6.0198 -2.5593 2.3873
-5.9404 -2.7856 2.3873
-5.8538 -3.0100 2.3873
-5.7601 -3.2324 2.3873
-5.6592 -3.4526 2.3873
-5.5511 -3.6704 2.3873
-5.4359 -3.8857 2.3873
-5.3136 -4.0982 2.3873
-5.1842 -4.3077 2.3873
-5.0476 -4.5140 2.3873
-4.9040 -4.7169 2.3873
-4.7534 -4.9163 2.3873
-4.5958 -5.1117 2.3873
-4.4312 -5.3032 2.3873
-4.2596 -5.4903 2.3873
-4.0813 -5.6730 2.3873
-3.8961 -5.8508 2.3873
-3.7042 -6.0237 2.3873
-3.5056 -6.1913 2.3873
-3.3005 -6.3534 2.3873
-3.0889 -6.5098 2.3873
-2.8709 -6.6601 2.3873
-2.6467 -6.8042 2.3873
-2.4163 -6.9417 2.3873
-2.1800 -7.0723 2.3873
-1.9378 -7.1959 2.3873
-1.6899 -7.3121 2.3873
-1.4366 -7.4206 2.3873
-1.1779 -7.5212 2.3873
-0.9142 -7.6136 2.3873
-0.6455 -7.6976 2.3873
-0.3723 -7.7727 2.3873
-0.0947 -7.8388 2.3873
0.1870 -7.8956 2.3873
0.4723 -7.9433 2.3873
0.7616 -7.9802 2.3873
1.0537 -8.0074 2.3873
1.3487 -8.0243 2.3873
1.6461 -8.0307 2.3873
1.9456 -8.0262 2.3873
2.2467 -8.0106 2.3873
2.5489 -7.9839 2.3873
2.8520 -7.9457 2.3873
3.1554 -7.8959 2.3873
3.4586 -7.8343 2.3873
3.7610 -7.7609 2.3873
4.0622 -7.6756 2.3873
4.3618 -7.5779 2.3873
4.5627 -7.3138 2.3379
4.7424 -7.0336 2.2856
4.9209 -6.7687 2.2403
5.1780 -6.6150 2.2349
5.4422 -6.4667 2.2349
5.7015 -6.3072 2.2349
5.9554 -6.1365 2.2349
6.2031 -5.9549 2.2349
6.4443 -5.7623 2.2349
6.6783 -5.5592 2.2349
6.9045 -5.3457 2.2349
7.1224 -5.1221 2.2349
7.3314 -4.8887 2.2349
7.5310 -4.6459 2.2349
7.7207 -4.3941 2.2349
7.8999 -4.1337 2.2349
8.0682 -3.8651 2.2349
8.2252 -3.5889 2.2349
8.3704 -3.3055 2.2349
8.5033 -3.0154 2.2349
8.6236 -2.7194 2.2349
8.7311 -2.4179 2.2349
8.8253 -2.1116 2.2349
8.9060 -1.8012 2.2349
8.9731 -1.4872 2.2349
9.0262 -1.1703 2.2349
9.0653 -0.8514 2.2349
9.0902 -0.5309 2.2349
9.1010 -0.2097 2.2349
9.0977 0.1119 2.2349
9.2387 0.4398 2.2740
9.4333 0.7835 2.3300
9.6163 1.1418 2.3873
9.5526 1.4778 2.3873
9.4745 1.8104 2.3873
9.3820 2.1386 2.3873
9.2755 2.4619 2.3873
9.1553 2.7796 2.3873
9.0218 3.0911 2.3873
8.8754 3.3958 2.3873
8.7165 3.6931 2.3873
8.5456 3.9826 2.3873
8.3631 4.2636 2.3873
8.1696 4.5358 2.3873
7.9657 4.7987 2.3873
7.7517 5.0519 2.3873
7.5284 5.2951 2.3873
7.2963 5.5278 2.3873
7.0559 5.7500 2.3873
6.8079 5.9612 2.3873
6.5528 6.1613 2.3873
6.2911 6.3501 2.3873
6.0236 6.5274 2.3873
5.7508 6.6932 2.3873
5.4733 6.8473 2.3873
5.1915 6.9897 2.3873
4.9062 7.1204 2.3873
4.6178 7.2394 2.3873
4.3268 7.3467 2.3873
4.0339 7.4423 2.3873
3.7395 7.5264 2.3873
3.4440 7.5989 2.3873
3.1480 7.6602 2.3873
2.8520 7.7102 2.3873
0.9687 2.9366 0.9047
0.8630 2.9679 0.9110
0.7562 2.9953 0.9174
0.6484 3.0189 0.9238
0.5399 3.0386 0.9302
0.4307 3.0543 0.9367
0.3210 3.0660 0.9431
0.2109 3.0738 0.9495
0.1006 3.0776 0.9560
-0.0097 3.0774 0.9624
-0.1200 3.0733 0.9688
-0.2301 3.0651 0.9751
-0.3398 3.0529 0.9814
-0.4490 3.0368 0.9877
-0.5575 3.0168 0.9938
-0.6652 2.9928 0.9999
-0.7721 2.9650 1.0060
-2.0709 6.9200 2.3873
-2.3041 6.7969 2.3873
-2.5318 6.6672 2.3873
-2.7538 6.5310 2.3873
-2.9700 6.3886 2.3873
-3.1803 6.2402 2.3873
-3.3843 6.0866 2.3873
-3.5826 5.9264 2.3873
-3.7744 5.7616 2.3873
-3.9600 5.5916 2.3873
-4.1391 5.4167 2.3873
-4.3118 5.2373 2.3873
-4.4780 5.0534 2.3873
-4.6377 4.8653 2.3873
-4.7907 4.6733 2.3873
-4.9371 4.4774 2.3873
-5.0768 4.2779 2.3873
-5.2097 4.0750 2.3873
-5.3358 3.8688 2.3873
-5.4551 3.6596 2.3873
-5.5676 3.4476 2.3873
-5.6732 3.2328 2.3873
-5.7720 3.0156 2.3873
-5.8638 2.7960 2.3873
-5.9487 2.5743 2.3873
-6.0266 2.3506 2.3873
-6.0976 2.1250 2.3873
-6.1615 1.8978 2.3873
-6.2185 1.6691 2.3873
-6.2684 1.4391 2.3873
-6.3113 1.2079 2.3873
-6.3472 0.9757 2.3873
-6.3757 0.7432 2.3873
-6.3977 0.5089 2.3873
-6.4123 0.2748 2.3873
-6.4199 0.0400 2.3873
-6.4203 -0.1946 2.3873
-6.4138 -0.4300 2.3873
-6.4001 -0.6648 2.3873
-6.3792 -0.8994 2.3873
-6.3511 -1.1336 2.3873
-6.3160 -1.3672 2.3873
-6.2736 -1.6000 2.3873
-6.2241 -1.8319 2.3873
-6.1675 -2.0627 2.3873
-6.1036 -2.2923 2.3873
-6.0327 -2.5204 2.3873
-5.9545 -2.7469 2.3873
-5.8691 -2.9717 2.3873
-5.7766 -3.1944 2.3873
-0.5457 2.7825 0.9917
-0.6451 2.7591 0.9973
-0.7436 2.7321 1.0029
-0.8410 2.7016 1.0084
-2.2071 6.2819 2.3873
-2.4182 6.1616 2.3873
-2.6240 6.0351 2.3873
-2.8245 5.9028 2.3873
-3.0195 5.7648 2.3873
-3.2090 5.6214 2.3873
-3.3928 5.4727 2.3873
-3.5708 5.3190 2.3873
-3.7431 5.1605 2.3873
-3.9092 4.9977 2.3873
-4.0697 4.8300 2.3873
-4.2239 4.6583 2.3873
-4.3720 4.4826 2.3873
-4.5139 4.3031 2.3873
-4.6495 4.1202 2.3873
-4.7792 3.9331 2.3873
-4.9023 3.7431 2.3873
-5.0191 3.5501 2.3873
-5.1295 3.3542 2.3873
-5.2334 3.1556 2.3873
-5.3309 2.9544 2.3873
-5.4218 2.7508 2.3873
-5.5063 2.5450 2.3873
-5.5842 2.3371 2.3873
-5.6556 2.1272 2.3873
-5.7202 1.9160 2.3873
-5.7784 1.7028 2.3873
-5.8297 1.4888 2.3873
-5.8745 1.2731 2.3873
-5.9129 1.0560 2.3873
-5.9441 0.8389 2.3873
-5.9693 0.6198 2.3873
-5.9874 0.4007 2.3873
-5.9988 0.1812 2.3873
-6.0035 -0.0386 2.3873
-6.0014 -0.2586 2.3873
-5.9926 -0.4785 2.3873
-5.9771 -0.6983 2.3873
-5.9548 -0.9177 2.3873
-5.9258 -1.1367 2.3873
-5.8900 -1.3550 2.3873
-5.8474 -1.5724 2.3873
-5.7980 -1.7889 2.3873
-5.7419 -2.0043 2.3873
-5.6790 -2.2183 2.3873
-5.6094 -2.4308 2.3873
-5.5330 -2.6417 2.3873
-5.4498 -2.8507 2.3873
-5.3599 -3.0577 2.3873
-5.2633 -3.2625 2.3873
-5.1600 -3.4649 2.3873
-5.0500 -3.6647 2.3873
-4.9333 -3.8618 2.3873
-4.8100 -4.0559 2.3873
-4.6800 -4.2469 2.3873
-4.5435 -4.4345 2.3873
-4.4005 -4.6185 2.3873
-4.2509 -4.7987 2.3873
-4.0949 -4.9750 2.3873
-3.9326 -5.1470 2.3873
-3.7639 -5.3146 2.3873
-3.5889 -5.4776 2.3873
-3.4078 -5.6357 2.3873
-3.2206 -5.7887 2.3873
-3.0274 -5.9363 2.3873
-2.8284 -6.0784 2.3873
-2.6235 -6.2146 2.3873
-2.4130 -6.3448 2.3873
-2.1970 -6.4686 2.3873
-1.9757 -6.5860 2.3873
-1.7491 -6.6965 2.3873
-1.5174 -6.8000 2.3873
-1.2809 -6.8961 2.3873
-1.0398 -6.9848 2.3873
-0.7942 -7.0656 2.3873
-0.5443 -7.1384 2.3873
-0.2904 -7.2030 2.3873
-0.0328 -7.2590 2.3873
0.2283 -7.3062 2.3873
0.4925 -7.3445 2.3873
0.7597 -7.3736 2.3873
1.0294 -7.3932 2.3873
1.3014 -7.4032 2.3873
1.5753 -7.4034 2.3873
1.8507 -7.3936 2.3873
2.1272 -7.3736 2.3873
2.4046 -7.3432 2.3873
2.6822 -7.3023 2.3873
2.9597 -7.2508 2.3873
3.2367 -7.1885 2.3873
3.5127 -7.1154 2.3873
3.7872 -7.0313 2.3873
4.0597 -6.9363 2.3873
4.3298 -6.8303 2.3873
4.5969 -6.7133 2.3873
4.8606 -6.5851 2.3873
5.0954 -6.4144 2.3756
5.2579 -6.1587 2.3351
5.4165 -5.9079 2.2987
5.5718 -5.6614 2.2661
5.7299 -5.4247 2.2395
5.9349 -5.2334 2.2349
6.1449 -5.0441 2.2349
6.3478 -4.8456 2.2349
6.5428 -4.6382 2.2349
6.7297 -4.4222 2.2349
6.9079 -4.1979 2.2349
7.0770 -3.9657 2.2349
7.2366 -3.7259 2.2349
7.3862 -3.4790 2.2349
7.5255 -3.2254 2.2349
7.6540 -2.9655 2.2349
7.7715 -2.6999 2.2349
7.8776 -2.4291 2.2349
7.9721 -2.1536 2.2349
8.0547 -1.8739 2.2349
8.1252 -1.5907 2.2349
8.2042 -1.3078 2.2406
8.3551 -1.0314 2.2691
8.5181 -0.7478 2.3041
8.6857 -0.4548 2.3436
8.8558 -0.1511 2.3873
8.8505 0.1610 2.3873
8.8317 0.4724 2.3873
8.7995 0.7826 2.3873
8.7539 1.0907 2.3873
8.6948 1.3959 2.3873
8.6232 1.6985 2.3873
8.5385 1.9970 2.3873
8.4413 2.2910 2.3873
8.3319 2.5801 2.3873
8.2105 2.8636 2.3873
8.0775 3.1411 2.3873
7.9332 3.4120 2.3873
7.7782 3.6759 2.3873
7.6127 3.9323 2.3873
7.4373 4.1808 2.3873
7.2524 4.4210 2.3873
7.0584 4.6525 2.3873
6.8559 4.8751 2.3873
6.6453 5.0885 2.3873
6.4272 5.2923 2.3873
6.2020 5.4864 2.3873
5.9703 5.6704 2.3873
5.7325 5.8443 2.3873
5.4893 6.0080 2.3873
5.2411 6.1612 2.3873
4.9884 6.3039 2.3873
4.7318 6.4361 2.3873
4.4716 6.5577 2.3873
4.2085 6.6686 2.3873
3.9428 6.7690 2.3873
3.6751 6.8587 2.3873
3.4059 6.9380 2.3873
3.1355 7.0067 2.3873
2.8643 7.0651 2.3873
0.9802 2.6891 0.9025
0.8833 2.7209 0.9083
0.7853 2.7492 0.9142
0.6864 2.7740 0.9201
0.5866 2.7951 0.9260
0.4861 2.8127 0.9319
0.3850 2.8265 0.9379
0.2835 2.8368 0.9439
0.1817 2.8433 0.9498
0.0797 2.8462 0.9558
-0.0224 2.8454 0.9617
-0.1244 2.8409 0.9676
-0.2261 2.8327 0.9734
-0.3275 2.8208 0.9793
-0.4284 2.8053 0.9850
-0.5286 2.7861 0.9907
-0.6281 2.7633 0.9964
-0.7268 2.7370 1.0019
-0.8244 2.7071 1.0074
-2.1705 6.3019 2.3873
-2.3824 6.1826 2.3873
-2.5891 6.0572 2.3873
-2.7905 5.9258 2.3873
-2.9865 5.7888 2.3873
-3.1769 5.6463 2.3873
-3.3617 5.4985 2.3873
-3.5408 5.3457 2.3873
-3.7140 5.1880 2.3873
-3.8811 5.0260 2.3873
-4.0426 4.8589 2.3873
-4.1979 4.6881 2.3873
-4.3471 4.5129 2.3873
-4.4902 4.3338 2.3873
-4.6268 4.1516 2.3873
-4.7575 3.9653 2.3873
-4.8817 3.7759 2.3873
-4.9996 3.5834 2.3873
-5.1110 3.3880 2.3873
-5.2161 3.1898 2.3873
-5.3146 2.9890 2.3873
-5.4067 2.7858 2.3873
-5.4923 2.5804 2.3873
-5.5713 2.3728 2.3873
-5.6437 2.1636 2.3873
-5.7095 1.9526 2.3873
-5.7688 1.7397 2.3873
-5.8215 1.5253 2.3873
-5.8673 1.3101 2.3873
-5.9067 1.0935 2.3873
-5.9395 0.8756 2.3873
-5.9653 0.6577 2.3873
-5.9848 0.4383 2.3873
-5.9973 0.2188 2.3873
-6.0031 -0.0009 2.3873
-6.0023 -0.2209 2.3873
-5.9946 -0.4409 2.3873
-5.9803 -0.6607 2.3873
-5.9591 -0.8802 2.3873
-5.9312 -1.0992 2.3873
-5.8966 -1.3176 2.3873
-5.8552 -1.5353 2.3873
-5.8070 -1.7519 2.3873
-5.7520 -1.9675 2.3873
-5.6903 -2.1817 2.3873
-5.6218 -2.3945 2.3873
-5.5465 -2.6057 2.3873
-5.4645 -2.8150 2.3873
-5.3758 -3.0224 2.3873
-5.2803 -3.2276 2.3873
-5.1782 -3.4304 2.3873
-5.0693 -3.6307 2.3873
-4.9537 -3.8283 2.3873
-4.8316 -4.0229 2.3873
-4.7027 -4.2144 2.3873
-4.5673 -4.4026 2.3873
-4.4254 -4.5872 2.3873
-4.2770 -4.7681 2.3873
-4.1221 -4.9451 2.3873
-3.9608 -5.1179 2.3873
-3.7932 -5.2863 2.3873
-3.6193 -5.4500 2.3873
-3.4393 -5.6090 2.3873
-3.2531 -5.7628 2.3873
-3.0609 -5.9114 2.3873
-2.8629 -6.0544 2.3873
-2.6590 -6.1917 2.3873
-2.4495 -6.3229 2.3873
-2.2344 -6.4479 2.3873
-2.0140 -6.5664 2.3873
-1.7882 -6.6780 2.3873
-1.5575 -6.7827 2.3873
-1.3218 -6.8802 2.3873
-1.0814 -6.9701 2.3873
-0.8365 -7.0523 2.3873
-0.5874 -7.1265 2.3873
-0.3342 -7.1925 2.3873
-0.0772 -7.2500 2.3873
0.1833 -7.2987 2.3873
0.4472 -7.3383 2.3873
0.7137 -7.3693 2.3873
0.9831 -7.3906 2.3873
1.2547 -7.4022 2.3873
1.5283 -7.4041 2.3873
1.8034 -7.3960 2.3873
2.0798 -7.3778 2.3873
2.3570 -7.3492 2.3873
2.6346 -7.3101 2.3873
2.9122 -7.2604 2.3873
3.1893 -7.2000 2.3873
3.4655 -7.1287 2.3873
3.7403 -7.0465 2.3873
4.0132 -6.9533 2.3873
4.2838 -6.8492 2.3873
4.5514 -6.7341 2.3873
4.8157 -6.6078 2.3873
5.0669 -6.4591 2.3830
5.2303 -6.2021 2.3418
5.3897 -5.9504 2.3046
5.5454 -5.7033 2.2714
5.7019 -5.4638 2.2434
5.8990 -5.2636 2.2349
6.1159 -5.0829 2.2373
6.3136 -4.8803 2.2349
6.5100 -4.6744 2.2349
6.6983 -4.4598 2.2349
6.8780 -4.2369 2.2349
7.0487 -4.0060 2.2349
7.2100 -3.7675 2.2349
7.3613 -3.5217 2.2349
7.5024 -3.2692 2.2349
7.6328 -3.0104 2.2349
7.7522 -2.7458 2.2349
7.8603 -2.4758 2.2349
7.9568 -2.2011 2.2349
8.0414 -1.9221 2.2349
8.1140 -1.6394 2.2349
8.1810 -1.3541 2.2366
8.3277 -1.0790 2.2636
8.4898 -0.7970 2.2978
8.6566 -0.5057 2.3365
8.8288 -0.2038 2.3801
8.8524 0.1076 2.3873
8.8360 0.4193 2.3873
8.8059 0.7295 2.3873
8.7626 1.0381 2.3873
8.7060 1.3441 2.3873
8.6364 1.6470 2.3873
8.5539 1.9462 2.3873
8.4589 2.2410 2.3873
8.3515 2.5310 2.3873
8.2321 2.8155 2.3873
8.1011 3.0940 2.3873
7.9587 3.3661 2.3873
7.8055 3.6312 2.3873
7.6418 3.8889 2.3873
7.4680 4.1388 2.3873
7.2847 4.3804 2.3873
7.0923 4.6135 2.3873
6.8912 4.8377 2.3873
6.6819 5.0526 2.3873
6.4650 5.2581 2.3873
6.2410 5.4538 2.3873
6.0104 5.6396 2.3873
5.7737 5.8153 2.3873
5.5314 5.9807 2.3873
5.2840 6.1357 2.3873
5.0320 6.2802 2.3873
4.7760 6.4142 2.3873
4.5164 6.5376 2.3873
4.2537 6.6504 2.3873
3.9885 6.7525 2.3873
3.7211 6.8441 2.3873
3.4521 6.9251 2.3873
3.1818 6.9957 2.3873
2.9108 7.0559 2.3873
2.6394 7.1058 2.3873
0.9000 2.7157 0.9073
0.8022 2.7446 0.9132
0.7034 2.7700 0.9191
0.6037 2.7917 0.9250
0.5034 2.8099 0.9309
0.4024 2.8244 0.9369
0.3009 2.8353 0.9428
0.1991 2.8425 0.9488
0.0971 2.8460 0.9547
-0.0049 2.8458 0.9607
-0.1069 2.8419 0.9666
-0.2087 2.8343 0.9724
-0.3101 2.8231 0.9783
-0.4111 2.8082 0.9840
-0.5115 2.7896 0.9898
-0.6111 2.7675 0.9954
-0.7099 2.7417 1.0010
-0.8077 2.7124 1.0065
-2.1337 6.3217 2.3873
-2.3464 6.2035 2.3873
-2.5541 6.0791 2.3873
-2.7564 5.9488 2.3873
-2.9533 5.8127 2.3873
-3.1447 5.6711 2.3873
-3.3305 5.5242 2.3873
-3.5105 5.3722 2.3873
-3.6847 5.2153 2.3873
-3.8530 5.0540 2.3873
-4.0154 4.8879 2.3873
-4.1717 4.7177 2.3873
-4.3218 4.5435 2.3873
-4.4659 4.3652 2.3873
-4.6038 4.1832 2.3873
-4.7356 3.9973 2.3873
-4.8609 3.8085 2.3873
-4.9798 3.6166 2.3873
-5.0924 3.4216 2.3873
-5.1985 3.2239 2.3873
-5.2982 3.0236 2.3873
-5.3914 2.8208 2.3873
-5.4781 2.6157 2.3873
-5.5582 2.4085 2.3873
-5.6318 2.1995 2.3873
-5.6987 1.9887 2.3873
-5.7591 1.7762 2.3873
-5.8129 1.5622 2.3873
-5.8600 1.3469 2.3873
-5.9005 1.1305 2.3873
-5.9344 0.9130 2.3873
-5.9614 0.6950 2.3873
-5.9819 0.4758 2.3873
-5.9956 0.2565 2.3873
-6.0026 0.0367 2.3873
-6.0029 -0.1832 2.3873
-5.9964 -0.4032 2.3873
-5.9832 -0.6231 2.3873
-5.9632 -0.8426 2.3873
-5.9365 -1.0618 2.3873
-5.9030 -1.2803 2.3873
-5.8627 -1.4981 2.3873
-5.8157 -1.7149 2.3873
-5.7619 -1.9307 2.3873
-5.7013 -2.1451 2.3873
-5.6340 -2.3582 2.3873
-5.5599 -2.5696 2.3873
-5.4791 -2.7793 2.3873
-5.3915 -2.9870 2.3873
-0.5032 2.5849 0.9880
-0.5955 2.5631 0.9932
-0.6870 2.5381 0.9984
-0.7775 2.5097 1.0035
-2.0522 5.8663 2.3873
-2.2501 5.7559 2.3873
-2.4433 5.6396 2.3873
-2.6316 5.5177 2.3873
-2.8148 5.3904 2.3873
-2.9930 5.2579 2.3873
-3.1659 5.1204 2.3873
-3.3335 4.9780 2.3873
-3.4957 4.8310 2.3873
-3.6524 4.6795 2.3873
-3.8035 4.5238 2.3873
-3.9490 4.3640 2.3873
-4.0888 4.2003 2.3873
-4.2228 4.0329 2.3873
-4.3510 3.8620 2.3873
-4.4733 3.6877 2.3873
-4.5895 3.5105 2.3873
-4.6999 3.3302 2.3873
-4.8042 3.1469 2.3873
-4.9025 2.9610 2.3873
-4.9945 2.7731 2.3873
-5.0807 2.5821 2.3873
-5.1607 2.3890 2.3873
-5.2343 2.1943 2.3873
-5.3021 1.9970 2.3873
-5.3633 1.7986 2.3873
-5.4183 1.5986 2.3873
-5.4670 1.3973 2.3873
-5.5095 1.1948 2.3873
-5.5456 0.9913 2.3873
-5.5753 0.7868 2.3873
-5.5987 0.5816 2.3873
-5.6158 0.3759 2.3873
-5.6265 0.1696 2.3873
-5.6308 -0.0368 2.3873
-5.6287 -0.2435 2.3873
-5.6202 -0.4500 2.3873
-5.6053 -0.6564 2.3873
-5.5840 -0.8625 2.3873
-5.5563 -1.0680 2.3873
-5.5221 -1.2729 2.3873
-5.4816 -1.4769 2.3873
-5.4347 -1.6800 2.3873
-5.3813 -1.8819 2.3873
-5.3216 -2.0825 2.3873
-5.2554 -2.2817 2.3873
-5.1829 -2.4792 2.3873
-5.1040 -2.6748 2.3873
-5.0187 -2.8685 2.3873
-4.9272 -3.0600 2.3873
-4.8293 -3.2492 2.3873
-4.7251 -3.4358 2.3873
-4.6146 -3.6197 2.3873
-4.4980 -3.8008 2.3873
-4.3751 -3.9787 2.3873
-4.2461 -4.1534 2.3873
-4.1110 -4.3245 2.3873
-3.9699 -4.4920 2.3873
-3.8228 -4.6557 2.3873
-3.6697 -4.8152 2.3873
-3.5108 -4.9705 2.3873
-3.3461 -5.1213 2.3873
-3.1757 -5.2673 2.3873
-2.9997 -5.4085 2.3873
-2.8182 -5.5445 2.3873
-2.6313 -5.6751 2.3873
-2.4391 -5.8002 2.3873
-2.2418 -5.9195 2.3873
-2.0395 -6.0327 2.3873
-1.8323 -6.1397 2.3873
-1.6204 -6.2403 2.3873
-1.4039 -6.3341 2.3873
-1.1831 -6.4210 2.3873
-0.9581 -6.5008 2.3873
-0.7291 -6.5733 2.3873
-0.4964 -6.6381 2.3873
-0.2602 -6.6952 2.3873
-0.0207 -6.7443 2.3873
0.2218 -6.7852 2.3873
0.4670 -6.8176 2.3873
0.7147 -6.8415 2.3873
0.9646 -6.8566 2.3873
1.2163 -6.8627 2.3873
1.4696 -6.8597 2.3873
1.7240 -6.8474 2.3873
1.9792 -6.8257 2.3873
2.2349 -6.7945 2.3873
2.4907 -6.7535 2.3873
2.7461 -6.7027 2.3873
3.0008 -6.6421 2.3873
3.2544 -6.5716 2.3873
3.5063 -6.4910 2.3873
3.7563 -6.4004 2.3873
4.0038 -6.2998 2.3873
4.2483 -6.1892 2.3873
4.4895 -6.0685 2.3873
4.7268 -5.9380 2.3873
4.9597 -5.7976 2.3873
5.1879 -5.6473 2.3873
5.4108 -5.4875 2.3873
5.6279 -5.3182 2.3873
5.8388 -5.1396 2.3873
5.9981 -4.9152 2.3695
6.1428 -4.6815 2.3501
6.2860 -4.4491 2.3340
6.4280 -4.2175 2.3213
6.5692 -3.9862 2.3118
6.7098 -3.7545 2.3056
6.8502 -3.5221 2.3026
6.9907 -3.2883 2.3029
7.1317 -3.0526 2.3064
7.2734 -2.8145 2.3132
7.4162 -2.5734 2.3234
7.5604 -2.3286 2.3371
7.7064 -2.0795 2.3544
7.8547 -1.8254 2.3753
7.9624 -1.5574 2.3873
8.0188 -1.2772 2.3873
8.0631 -0.9947 2.3873
8.0954 -0.7105 2.3873
8.1154 -0.4251 2.3873
8.1232 -0.1392 2.3873
8.1187 0.1467 2.3873
8.1019 0.4317 2.3873
8.0732 0.7161 2.3873
8.0323 0.9985 2.3873
7.9794 1.2787 2.3873
7.9148 1.5559 2.3873
7.8386 1.8298 2.3873
7.7510 2.0998 2.3873
7.6523 2.3653 2.3873
7.5427 2.6260 2.3873
7.4225 2.8812 2.3873
7.2922 3.1306 2.3873
7.1519 3.3738 2.3873
7.0021 3.6103 2.3873
6.8432 3.8397 2.3873
6.6755 4.0617 2.3873
6.4995 4.2760 2.3873
6.3156 4.4823 2.3873
6.1242 4.6803 2.3873
5.9258 4.8697 2.3873
5.7208 5.0503 2.3873
5.5097 5.2219 2.3873
5.2929 5.3843 2.3873
5.0709 5.5375 2.3873
4.8441 5.6812 2.3873
4.6131 5.8154 2.3873
4.3782 5.9400 2.3873
4.1399 6.0550 2.3873
3.8986 6.1602 2.3873
3.6548 6.2558 2.3873
3.4089 6.3417 2.3873
3.1613 6.4180 2.3873
2.9124 6.4846 2.3873
2.6626 6.5417 2.3873
0.9146 2.4983 0.9051
0.8246 2.5278 0.9105
0.7335 2.5541 0.9160
0.6416 2.5771 0.9215
0.5489 2.5967 0.9270
0.4555 2.6130 0.9325
0.3616 2.6259 0.9380
0.2672 2.6354 0.9436
0.1726 2.6415 0.9491
0.0778 2.6441 0.9546
-0.0170 2.6434 0.9601
-0.1117 2.6392 0.9656
-0.2062 2.6315 0.9710
-0.3004 2.6205 0.9765
-0.3941 2.6061 0.9818
-0.4873 2.5883 0.9871
-0.5798 2.5671 0.9923
-0.6714 2.5426 0.9975
-0.7621 2.5148 1.0026
-0.8517 2.4838 1.0076
-2.2166 5.7752 2.3873
-2.4105 5.6599 2.3873
-2.5997 5.5390 2.3873
-2.7838 5.4126 2.3873
-2.9628 5.2810 2.3873
-3.1367 5.1443 2.3873
-3.3052 5.0027 2.3873
-3.4683 4.8565 2.3873
-3.6260 4.7058 2.3873
-3.7781 4.5508 2.3873
-3.9245 4.3916 2.3873
-4.0653 4.2286 2.3873
-4.2003 4.0619 2.3873
-4.3295 3.8915 2.3873
-4.4528 3.7178 2.3873
-4.5701 3.5409 2.3873
-4.6813 3.3614 2.3873
-4.7868 3.1784 2.3873
-4.8863 2.9927 2.3873
-4.9793 2.8051 2.3873
-5.0663 2.6150 2.3873
-5.1475 2.4220 2.3873
-5.2223 2.2275 2.3873
-5.2910 2.0308 2.3873
-5.3533 1.8327 2.3873
-5.4094 1.6330 2.3873
-5.4591 1.4319 2.3873
-5.5026 1.2296 2.3873
-5.5398 1.0262 2.3873
-5.5707 0.8219 2.3873
-5.5952 0.6168 2.3873
-5.6133 0.4111 2.3873
-5.6251 0.2050 2.3873
-5.6305 -0.0015 2.3873
-5.6295 -0.2081 2.3873
-5.6221 -0.4147 2.3873
-5.6083 -0.6211 2.3873
-5.5881 -0.8272 2.3873
-5.5615 -1.0328 2.3873
-5.5284 -1.2378 2.3873
-5.4890 -1.4420 2.3873
-5.4432 -1.6453 2.3873
-5.3909 -1.8474 2.3873
-5.3322 -2.0483 2.3873
-5.2672 -2.2477 2.3873
-5.1958 -2.4455 2.3873
-5.1180 -2.6415 2.3873
-5.0338 -2.8355 2.3873
-4.9433 -3.0274 2.3873
-4.8465 -3.2170 2.3873
-4.7434 -3.4040 2.3873
-4.6340 -3.5884 2.3873
-4.5184 -3.7700 2.3873
-4.3966 -3.9484 2.3873
-4.2687 -4.1237 2.3873
-4.1346 -4.2955 2.3873
-3.9945 -4.4636 2.3873
-3.8484 -4.6279 2.3873
-3.6963 -4.7882 2.3873
-3.5384 -4.9442 2.3873
-3.3747 -5.0958 2.3873
-3.2053 -5.2427 2.3873
-3.0302 -5.3847 2.3873
-2.8497 -5.5216 2.3873
-2.6637 -5.6531 2.3873
-2.4724 -5.7792 2.3873
-2.2760 -5.8995 2.3873
-2.0745 -6.0138 2.3873
-1.8681 -6.1219 2.3873
-1.6570 -6.2235 2.3873
-1.4413 -6.3185 2.3873
-1.2212 -6.4067 2.3873
-0.9969 -6.4877 2.3873
-0.7686 -6.5614 2.3873
-0.5366 -6.6276 2.3873
-0.3009 -6.6860 2.3873
-0.0620 -6.7365 2.3873
0.1800 -6.7788 2.3873
0.4249 -6.8127 2.3873
0.6722 -6.8380 2.3873
0.9217 -6.8546 2.3873
1.1731 -6.8623 2.3873
1.4261 -6.8609 2.3873
1.6804 -6.8502 2.3873
1.9355 -6.8301 2.3873
2.1911 -6.8005 2.3873
2.4469 -6.7612 2.3873
2.7024 -6.7121 2.3873
2.9573 -6.6532 2.3873
3.2111 -6.5844 2.3873
3.4633 -6.5055 2.3873
3.7137 -6.4167 2.3873
3.9616 -6.3178 2.3873
4.2069 -6.2084 2.3873
4.4485 -6.0899 2.3873
4.6865 -5.9609 2.3873
4.9202 -5.8222 2.3873
5.1492 -5.6738 2.3873
5.3729 -5.5158 2.3873
5.5912 -5.3479 2.3873
5.8032 -5.1709 2.3873
5.9732 -4.9554 2.3732
6.1181 -4.7214 2.3532
6.2616 -4.4889 2.3366
6.4038 -4.2572 2.3233
6.5451 -4.0258 2.3132
6.6858 -3.7942 2.3065
6.8262 -3.5620 2.3029
6.9667 -3.3285 2.3026
7.1075 -3.0931 2.3056
7.2491 -2.8555 2.3118
7.3916 -2.6149 2.3214
7.5356 -2.3708 2.3345
7.6813 -2.1225 2.3512
7.8291 -1.8694 2.3715
7.9516 -1.6051 2.3873
8.0100 -1.3253 2.3873
8.0564 -1.0432 2.3873
8.0908 -0.7592 2.3873
8.1129 -0.4740 2.3873
8.1227 -0.1882 2.3873
8.1204 0.0977 2.3873
8.1058 0.3832 2.3873
8.0790 0.6676 2.3873
8.0402 0.9503 2.3873
7.9893 1.2309 2.3873
7.9267 1.5087 2.3873
7.8525 1.7832 2.3873
7.7668 2.0538 2.3873
7.6699 2.3202 2.3873
7.5622 2.5817 2.3873
7.4438 2.8379 2.3873
7.3152 3.0883 2.3873
7.1766 3.3326 2.3873
7.0284 3.5702 2.3873
6.8710 3.8009 2.3873
6.7048 4.0242 2.3873
6.5302 4.2399 2.3873
6.3476 4.4476 2.3873
6.1575 4.6470 2.3873
5.9603 4.8378 2.3873
5.7564 5.0200 2.3873
5.5463 5.1931 2.3873
5.3304 5.3572 2.3873
5.1093 5.5119 2.3873
4.8833 5.6573 2.3873
4.6529 5.7931 2.3873
4.4187 5.9194 2.3873
4.1809 6.0360 2.3873
3.9401 6.1429 2.3873
3.6967 6.2401 2.3873
3.4511 6.3277 2.3873
3.2038 6.4056 2.3873
2.9551 6.4739 2.3873
2.7054 6.5326 2.3873
0.9299 2.4929 0.9042
0.8401 2.5230 0.9096
0.7492 2.5498 0.9150
0.6574 2.5734 0.9205
0.5648 2.5936 0.9260
0.4715 2.6105 0.9315
0.3777 2.6239 0.9371
0.2834 2.6340 0.9426
0.1888 2.6407 0.9482
0.0941 2.6439 0.9537
-0.0007 2.6437 0.9592
-0.0955 2.6401 0.9647
-0.1901 2.6331 0.9701
-0.2843 2.6226 0.9755
-0.3781 2.6088 0.9809
-0.4714 2.5916 0.9862
-0.5640 2.5710 0.9915
-0.6558 2.5470 0.9966
-0.7466 2.5198 1.0017
-0.8364 2.4893 1.0068
-2.1829 5.7943 2.3873
-2.3777 5.6801 2.3873
-2.5676 5.5601 2.3873
-2.7526 5.4346 2.3873
-2.9325 5.3039 2.3873
-3.1073 5.1680 2.3873
-3.2767 5.0273 2.3873
-3.4408 4.8818 2.3873
-3.5994 4.7319 2.3873
-3.7524 4.5776 2.3873
-3.8998 4.4192 2.3873
-4.0416 4.2568 2.3873
-4.1776 4.0907 2.3873
-4.3078 3.9209 2.3873
-4.4321 3.7478 2.3873
-4.5505 3.5714 2.3873
-4.6628 3.3922 2.3873
-4.7692 3.2100 2.3873
-4.8695 3.0250 2.3873
-4.9639 2.8373 2.3873
-5.0520 2.6474 2.3873
-5.1340 2.4552 2.3873
-5.2099 2.2610 2.3873
-5.2797 2.0646 2.3873
-5.3430 1.8667 2.3873
-5.4002 1.6673 2.3873
-5.4511 1.4664 2.3873
-5.4956 1.2643 2.3873
-5.5339 1.0611 2.3873
-5.5658 0.8570 2.3873
-5.5914 0.6520 2.3873
-5.6107 0.4464 2.3873
-5.6235 0.2403 2.3873
-5.6300 0.0339 2.3873
-5.6301 -0.1727 2.3873
-5.6238 -0.3793 2.3873
-5.6111 -0.5857 2.3873
-5.5920 -0.7919 2.3873
-5.5665 -0.9977 2.3873
-5.5346 -1.2028 2.3873
-5.4962 -1.4071 2.3873
-5.4515 -1.6106 2.3873
-5.4003 -1.8129 2.3873
-5.3427 -2.0140 2.3873
-5.2788 -2.2137 2.3873
-5.2084 -2.4117 2.3873
-5.1317 -2.6080 2.3873
-5.0487 -2.8024 2.3873
-0.4657 2.4109 0.9848
-0.5518 2.3906 0.9896
-0.6372 2.3672 0.9944
-0.7216 2.3408 0.9992
-0.8050 2.3113 1.0039
-2.1006 5.3948 2.3873
-2.2824 5.2874 2.3873
-2.4597 5.1746 2.3873
-2.6323 5.0567 2.3873
-2.8003 4.9337 2.3873
-2.9634 4.8059 2.3873
-3.1215 4.6734 2.3873
-3.2747 4.5365 2.3873
-3.4227 4.3953 2.3873
-3.5655 4.2500 2.3873
-3.7030 4.1007 2.3873
-3.8352 3.9477 2.3873
-3.9620 3.7911 2.3873
-4.0833 3.6311 2.3873
-4.1991 3.4679 2.3873
-4.3093 3.3015 2.3873
-4.4138 3.1323 2.3873
-4.5127 2.9603 2.3873
-4.6059 2.7857 2.3873
-4.6932 2.6088 2.3873
-4.7748 2.4295 2.3873
-4.8506 2.2482 2.3873
-4.9205 2.0649 2.3873
-4.9845 1.8798 2.3873
-5.0426 1.6931 2.3873
-5.0947 1.5050 2.3873
-5.1409 1.3155 2.3873
-5.1811 1.1248 2.3873
-5.2153 0.9331 2.3873
-5.2434 0.7406 2.3873
-5.2656 0.5473 2.3873
-5.2816 0.3535 2.3873
-5.2917 0.1592 2.3873
-5.2956 -0.0353 2.3873
-5.2935 -0.2299 2.3873
-5.2853 -0.4244 2.3873
-5.2710 -0.6188 2.3873
-5.2507 -0.8128 2.3873
-5.2242 -1.0063 2.3873
-5.1917 -1.1991 2.3873
-5.1530 -1.3911 2.3873
-5.1083 -1.5822 2.3873
-5.0575 -1.7721 2.3873
-5.0006 -1.9607 2.3873
-4.9377 -2.1478 2.3873
-4.8688 -2.3334 2.3873
-4.7938 -2.5171 2.3873
-4.7128 -2.6989 2.3873
-4.6258 -2.8785 2.3873
-4.5329 -3.0559 2.3873
-4.4341 -3.2308 2.3873
-4.3294 -3.4030 2.3873
-4.2188 -3.5725 2.3873
-4.1024 -3.7388 2.3873
-3.9803 -3.9021 2.3873
-3.8524 -4.0619 2.3873
-3.7189 -4.2182 2.3873
-3.5798 -4.3707 2.3873
-3.4352 -4.5193 2.3873
-3.2851 -4.6637 2.3873
-3.1297 -4.8038 2.3873
-2.9690 -4.9393 2.3873
-2.8031 -5.0701 2.3873
-2.6321 -5.1960 2.3873
-2.4562 -5.3168 2.3873
-2.2754 -5.4322 2.3873
-2.0899 -5.5420 2.3873
-1.8998 -5.6461 2.3873
-1.7052 -5.7443 2.3873
-1.5064 -5.8363 2.3873
-1.3034 -5.9219 2.3873
-1.0966 -6.0010 2.3873
-0.8859 -6.0733 2.3873
-0.6717 -6.1387 2.3873
-0.4542 -6.1969 2.3873
-0.2336 -6.2477 2.3873
-0.0101 -6.2911 2.3873
0.2161 -6.3267 2.3873
0.4446 -6.3545 2.3873
0.6753 -6.3742 2.3873
0.9077 -6.3856 2.3873
1.1417 -6.3888 2.3873
1.3770 -6.3834 2.3873
1.6131 -6.3694 2.3873
1.8498 -6.3466 2.3873
2.0867 -6.3150 2.3873
2.3235 -6.2744 2.3873
2.5598 -6.2247 2.3873
2.7953 -6.1660 2.3873
3.0295 -6.0980 2.3873
3.2620 -6.0209 2.3873
3.4925 -5.9346 2.3873
3.7206 -5.8391 2.3873
3.9458 -5.7344 2.3873
4.1677 -5.6205 2.3873
4.3859 -5.4976 2.3873
4.5999 -5.3658 2.3873
4.8096 -5.2248 2.3873
5.0141 -5.0753 2.3873
5.2132 -4.9172 2.3873
5.4064 -4.7507 2.3873
5.5935 -4.5759 2.3873
5.7739 -4.3930 2.3873
5.9472 -4.2026 2.3873
6.1130 -4.0047 2.3873
6.2710 -3.7996 2.3873
6.4208 -3.5876 2.3873
6.5620 -3.3692 2.3873
6.6944 -3.1446 2.3873
6.8175 -2.9143 2.3873
6.9311 -2.6787 2.3873
7.0349 -2.4381 2.3873
7.1287 -2.1930 2.3873
7.2122 -1.9440 2.3873
7.2852 -1.6913 2.3873
7.3475 -1.4357 2.3873
7.3990 -1.1775 2.3873
7.4396 -0.9172 2.3873
7.4689 -0.6557 2.3873
7.4876 -0.3925 2.3873
7.4949 -0.1290 2.3873
7.4911 0.1344 2.3873
7.4761 0.3973 2.3873
7.4501 0.6591 2.3873
7.4131 0.9195 2.3873
7.3652 1.1778 2.3873
7.3066 1.4335 2.3873
7.2374 1.6862 2.3873
7.1579 1.9354 2.3873
7.0681 2.1807 2.3873
6.9684 2.4216 2.3873
6.8591 2.6576 2.3873
6.7403 2.8884 2.3873
6.6125 3.1136 2.3873
6.4759 3.3328 2.3873
6.3309 3.5456 2.3873
6.1778 3.7518 2.3873
6.0170 3.9510 2.3873
5.8488 4.1429 2.3873
5.6737 4.3274 2.3873
5.4920 4.5040 2.3873
5.3042 4.6727 2.3873
5.1106 4.8332 2.3873
4.9117 4.9854 2.3873
4.7078 5.1292 2.3873
4.4993 5.2643 2.3873
4.2868 5.3908 2.3873
4.0706 5.5084 2.3873
3.8510 5.6173 2.3873
3.6285 5.7172 2.3873
3.4035 5.8082 2.3873
3.1764 5.8904 2.3873
2.9475 5.9636 2.3873
2.7173 6.0280 2.3873
0.9398 2.2997 0.9024
0.8568 2.3302 0.9074
0.7728 2.3578 0.9125
0.6879 2.3823 0.9176
0.6021 2.4037 0.9227
0.5156 2.4220 0.9278
0.4285 2.4372 0.9330
0.3409 2.4492 0.9381
0.2529 2.4580 0.9433
0.1647 2.4637 0.9485
0.0763 2.4662 0.9536
-0.0122 2.4654 0.9587
-0.1005 2.4615 0.9639
-0.1887 2.4544 0.9689
-0.2766 2.4441 0.9740
-0.3640 2.4306 0.9790
-0.4509 2.4140 0.9839
-0.5371 2.3943 0.9888
-0.6226 2.3714 0.9936
-0.7072 2.3455 0.9984
-0.7908 2.3166 1.0031
-2.0690 5.4126 2.3873
-2.2516 5.3062 2.3873
-2.4296 5.1943 2.3873
-2.6031 5.0772 2.3873
-2.7718 4.9551 2.3873
-2.9358 4.8281 2.3873
-3.0948 4.6964 2.3873
-3.2488 4.5603 2.3873
-3.3977 4.4198 2.3873
-3.5414 4.2752 2.3873
-3.6799 4.1266 2.3873
-3.8130 3.9742 2.3873
-3.9407 3.8182 2.3873
-4.0629 3.6587 2.3873
-4.1797 3.4960 2.3873
-4.2908 3.3302 2.3873
-4.3963 3.1615 2.3873
-4.4962 2.9900 2.3873
-4.5903 2.8158 2.3873
-4.6787 2.6392 2.3873
-4.7613 2.4604 2.3873
-4.8380 2.2794 2.3873
-4.9089 2.0964 2.3873
-4.9739 1.9117 2.3873
-5.0330 1.7252 2.3873
-5.0862 1.5373 2.3873
-5.1334 1.3480 2.3873
-5.1746 1.1575 2.3873
-5.2098 0.9660 2.3873
-5.2390 0.7736 2.3873
-5.2622 0.5804 2.3873
-5.2793 0.3867 2.3873
-5.2904 0.1925 2.3873
-5.2954 -0.0019 2.3873
-5.2943 -0.1965 2.3873
-5.2872 -0.3911 2.3873
-5.2739 -0.5855 2.3873
-5.2546 -0.7796 2.3873
-5.2292 -0.9732 2.3873
-5.1977 -1.1661 2.3873
-5.1601 -1.3583 2.3873
-5.1164 -1.5495 2.3873
-5.0666 -1.7396 2.3873
-5.0108 -1.9285 2.3873
-4.9489 -2.1159 2.3873
-4.8810 -2.3017 2.3873
-4.8071 -2.4858 2.3873
-4.7271 -2.6679 2.3873
-4.6412 -2.8479 2.3873
-4.5493 -3.0257 2.3873
-4.4515 -3.2010 2.3873
-4.3477 -3.3737 2.3873
-4.2382 -3.5436 2.3873
-4.1228 -3.7106 2.3873
-4.0016 -3.8743 2.3873
-3.8747 -4.0348 2.3873
-3.7422 -4.1917 2.3873
-3.6040 -4.3448 2.3873
-3.4604 -4.4941 2.3873
-3.3112 -4.6393 2.3873
-3.1567 -4.7801 2.3873
-2.9969 -4.9164 2.3873
-2.8319 -5.0481 2.3873
-2.6618 -5.1748 2.3873
-2.4867 -5.2965 2.3873
-2.3067 -5.4128 2.3873
-2.1220 -5.5236 2.3873
-1.9326 -5.6287 2.3873
-1.7388 -5.7279 2.3873
-1.5407 -5.8210 2.3873
-1.3385 -5.9077 2.3873
-1.1323 -5.9879 2.3873
-0.9223 -6.0614 2.3873
-0.7087 -6.1280 2.3873
-0.4917 -6.1874 2.3873
-0.2716 -6.2396 2.3873
-0.0485 -6.2842 2.3873
0.1772 -6.3211 2.3873
0.4053 -6.3503 2.3873
0.6356 -6.3714 2.3873
0.8678 -6.3843 2.3873
1.1016 -6.3888 2.3873
1.3366 -6.3849 2.3873
1.5726 -6.3724 2.3873
1.8092 -6.3511 2.3873
2.0461 -6.3210 2.3873
2.2830 -6.2820 2.3873
2.5194 -6.2339 2.3873
2.7550 -6.1767 2.3873
2.9895 -6.1103 2.3873
3.2223 -6.0348 2.3873
3.4532 -5.9501 2.3873
3.6817 -5.8561 2.3873
3.9075 -5.7529 2.3873
4.1300 -5.6407 2.3873
4.3489 -5.5193 2.3873
4.5637 -5.3889 2.3873
4.7739 -5.2498 2.3873
4.9794 -5.1015 2.3873
5.1795 -4.9449 2.3873
5.3738 -4.7798 2.3873
5.5619 -4.6063 2.3873
5.7435 -4.4249 2.3873
5.9180 -4.2357 2.3873
6.0851 -4.0391 2.3873
6.2445 -3.8353 2.3873
6.3957 -3.6244 2.3873
6.5385 -3.4070 2.3873
6.6724 -3.1834 2.3873
6.7971 -2.9541 2.3873
6.9123 -2.7194 2.3873
7.0178 -2.4797 2.3873
7.1133 -2.2353 2.3873
7.1986 -1.9869 2.3873
7.2735 -1.7348 2.3873
7.3376 -1.4797 2.3873
7.3910 -1.2219 2.3873
7.4334 -0.9619 2.3873
7.4649 -0.7003 2.3873
7.4852 -0.4375 2.3873
7.4944 -0.1742 2.3873
7.4925 0.0893 2.3873
7.4795 0.3523 2.3873
7.4554 0.6144 2.3873
7.4202 0.8750 2.3873
7.3742 1.1337 2.3873
7.3174 1.3899 2.3873
7.2500 1.6432 2.3873
7.1722 1.8930 2.3873
7.0842 2.1390 2.3873
6.9862 2.3807 2.3873
6.8785 2.6175 2.3873
6.7613 2.8493 2.3873
6.6350 3.0754 2.3873
6.4999 3.2957 2.3873
6.3563 3.5096 2.3873
6.2046 3.7170 2.3873
6.0451 3.9174 2.3873
5.8781 4.1106 2.3873
5.7042 4.2963 2.3873
5.5236 4.4743 2.3873
5.3368 4.6444 2.3873
5.1442 4.8063 2.3873
4.9461 4.9600 2.3873
4.7430 5.1052 2.3873
4.5353 5.2418 2.3873
4.3235 5.3697 2.3873
4.1078 5.4889 2.3873
3.8888 5.5993 2.3873
3.6668 5.7007 2.3873
3.4422 5.7933 2.3873
3.2154 5.8770 2.3873
2.9868 5.9517 2.3873
2.7568 6.0176 2.3873
0.9538 2.2941 0.9016
0.8711 2.3252 0.9066
0.7873 2.3533 0.9116
0.7025 2.3783 0.9167
0.6169 2.4002 0.9218
0.5305 2.4191 0.9269
0.4435 2.4348 0.9321
0.3559 2.4473 0.9372
0.2680 2.4567 0.9424
0.1798 2.4629 0.9476
0.0914 2.4660 0.9527
0.0030 2.4658 0.9579
-0.0854 2.4624 0.9630
-0.1736 2.4558 0.9681
-0.2616 2.4461 0.9731
-0.3491 2.4332 0.9781
-0.4361 2.4171 0.9831
-0.5224 2.3979 0.9880
-0.6080 2.3756 0.9928
-0.6928 2.3502 0.9976
-0.7766 2.3218 1.0023
-2.0373 5.4303 2.3873
-2.2206 5.3248 2.3873
-2.3994 5.2138 2.3873
-2.5737 5.0976 2.3873
-2.7433 4.9764 2.3873
-2.9081 4.8502 2.3873
-3.0679 4.7193 2.3873
-3.2228 4.5839 2.3873
-3.3726 4.4441 2.3873
-3.5172 4.3002 2.3873
-3.6565 4.1523 2.3873
-3.7906 4.0005 2.3873
-3.9192 3.8452 2.3873
-4.0424 3.6863 2.3873
-4.1601 3.5241 2.3873
-4.2722 3.3588 2.3873
-4.3787 3.1906 2.3873
-4.4795 3.0195 2.3873
-4.5746 2.8458 2.3873
-4.6640 2.6697 2.3873
-4.7475 2.4912 2.3873
-4.8253 2.3105 2.3873
-4.8972 2.1279 2.3873
-4.9632 1.9434 2.3873
-5.0233 1.7573 2.3873
-5.0775 1.5696 2.3873
-5.1257 1.3805 2.3873
-5.1680 1.1902 2.3873
-5.2042 0.9989 2.3873
-5.2345 0.8066 2.3873
-5.2587 0.6136 2.3873
-5.2768 0.4199 2.3873
-5.2889 0.2258 2.3873
-5.2950 0.0314 2.3873
-5.2949 -0.1632 2.3873
-5.2888 -0.3578 2.3873
-5.2766 -0.5522 2.3873
-5.2583 -0.7464 2.3873
-5.2340 -0.9401 2.3873
-5.2035 -1.1331 2.3873
-5.1669 -1.3255 2.3873
-5.1243 -1.5168 2.3873
-5.0756 -1.7072 2.3873
-5.0208 -1.8962 2.3873
-4.9599 -2.0839 2.3873
-4.8931 -2.2700 2.3873
-4.8201 -2.4544 2.3873
-4.7412 -2.6368 2.3873
-0.4324 2.2563 0.9819
-0.5130 2.2373 0.9864
-0.5929 2.2155 0.9909
-0.6719 2.1907 0.9954
-0.7500 2.1631 0.9997
-0.8271 2.1327 1.0040
-2.1380 4.9714 2.3873
-2.3054 4.8667 2.3873
-2.4684 4.7569 2.3873
-2.6271 4.6424 2.3873
-2.7813 4.5232 2.3873
-2.9309 4.3995 2.3873
-3.0758 4.2715 2.3873
-3.2159 4.1394 2.3873
-3.3511 4.0034 2.3873
-3.4814 3.8635 2.3873
-3.6067 3.7201 2.3873
-3.7268 3.5731 2.3873
-3.8419 3.4229 2.3873
-3.9517 3.2695 2.3873
-4.0562 3.1131 2.3873
-4.1554 2.9539 2.3873
-4.2493 2.7921 2.3873
-4.3377 2.6277 2.3873
-4.4207 2.4610 2.3873
-4.4982 2.2922 2.3873
-4.5701 2.1212 2.3873
-4.6365 1.9484 2.3873
-4.6973 1.7739 2.3873
-4.7525 1.5978 2.3873
-4.8020 1.4202 2.3873
-4.8458 1.2414 2.3873
-4.8840 1.0614 2.3873
-4.9164 0.8805 2.3873
-4.9431 0.6987 2.3873
-4.9641 0.5162 2.3873
-4.9793 0.3332 2.3873
-4.9888 0.1498 2.3873
-4.9924 -0.0338 2.3873
-4.9903 -0.2176 2.3873
-4.9824 -0.4012 2.3873
-4.9687 -0.5847 2.3873
-4.9492 -0.7678 2.3873
-4.9239 -0.9504 2.3873
-4.8928 -1.1324 2.3873
-4.8559 -1.3135 2.3873
-4.8133 -1.4937 2.3873
