ply
format ascii 1.0
element vertex 2178
property float32 x
property float32 y
property float32 z
end_header
2.0794 -7.0532 2.3963
2.3295 -6.9704 2.3962
2.5762 -6.8785 2.3961
2.8194 -6.7777 2.3961
3.0585 -6.6682 2.3960
3.2934 -6.5501 2.3959
3.5236 -6.4235 2.3959
3.7490 -6.2888 2.3958
3.9691 -6.1460 2.3957
4.1838 -5.9954 2.3957
4.3927 -5.8371 2.3956
4.5956 -5.6716 2.3955
4.7923 -5.4988 2.3954
4.9823 -5.3192 2.3953
5.1656 -5.1329 2.3953
5.3419 -4.9403 2.3952
5.5110 -4.7415 2.3951
5.6727 -4.5370 2.3950
5.8267 -4.3268 2.3949
5.9730 -4.1114 2.3948
6.1112 -3.8911 2.3947
6.2413 -3.6661 2.3946
6.3632 -3.4367 2.3946
6.4766 -3.2033 2.3945
6.5814 -2.9661 2.3944
6.6775 -2.7255 2.3943
6.7649 -2.4818 2.3942
6.8435 -2.2354 2.3941
6.9130 -1.9865 2.3940
6.9736 -1.7354 2.3939
7.0251 -1.4826 2.3938
7.0675 -1.2283 2.3937
7.1007 -0.9728 2.3936
7.1248 -0.7166 2.3936
7.1397 -0.4598 2.3935
7.1454 -0.2029 2.3934
7.1420 0.0539 2.3933
7.1294 0.3102 2.3932
7.1078 0.5657 2.3931
7.0771 0.8200 2.3931
7.0374 1.0729 2.3930
6.9888 1.3241 2.3929
6.9313 1.5732 2.3928
6.8651 1.8200 2.3927
6.7903 2.0640 2.3927
6.7069 2.3051 2.3926
6.6151 2.5430 2.3925
6.5150 2.7773 2.3925
6.4067 3.0078 2.3924
6.2905 3.2342 2.3923
6.1664 3.4562 2.3923
6.0346 3.6736 2.3922
5.8953 3.8861 2.3922
5.7486 4.0934 2.3921
5.5949 4.2954 2.3921
5.4341 4.4917 2.3920
5.2726 4.6875 2.3947
5.1057 4.8789 2.3980
4.9252 5.0578 2.3981
4.7386 5.2301 2.3983
4.5461 5.3957 2.3984
4.3480 5.5544 2.3985
4.1444 5.7060 2.3986
3.9357 5.8503 2.3987
3.7220 5.9871 2.3988
3.5037 6.1164 2.3989
3.2810 6.2378 2.3990
3.0542 6.3513 2.3991
2.8235 6.4568 2.3991
2.5893 6.5541 2.3992
2.3518 6.6431 2.3993
0.8512 2.7107 0.9673
0.7532 2.7399 0.9674
0.6542 2.7655 0.9674
0.5543 2.7876 0.9674
0.4537 2.8060 0.9674
0.3525 2.8208 0.9674
0.2508 2.8319 0.9673
0.1487 2.8394 0.9671
0.0465 2.8431 0.9670
-0.0559 2.8432 0.9668
-0.1581 2.8395 0.9666
-0.2602 2.8322 0.9663
-0.3619 2.8212 0.9660
-0.4632 2.8065 0.9657
-0.5639 2.7881 0.9653
-0.6638 2.7661 0.9649
-0.7629 2.7406 0.9645
-0.8610 2.7114 0.9641
-2.3860 6.6717 2.3998
-2.6258 6.5851 2.3998
-2.8625 6.4901 2.3998
-3.0959 6.3866 2.3998
-3.3255 6.2750 2.3997
-3.5512 6.1552 2.3997
-3.7726 6.0274 2.3996
-3.9894 5.8917 2.3996
-4.2015 5.7484 2.3995
-4.4084 5.5975 2.3995
-4.6100 5.4393 2.3994
-4.8059 5.2739 2.3994
-4.9960 5.1015 2.3993
-5.1800 4.9223 2.3992
-5.3575 4.7366 2.3991
-5.5285 4.5446 2.3990
-5.6926 4.3464 2.3990
-5.8497 4.1424 2.3989
-5.9994 3.9327 2.3988
-6.1417 3.7177 2.3987
-6.2763 3.4975 2.3986
-6.4031 3.2726 2.3985
-6.5217 3.0430 2.3983
-6.6322 2.8092 2.3982
-6.7343 2.5714 2.3981
-6.8278 2.3299 2.3980
-6.9127 2.0850 2.3979
-6.9888 1.8371 2.3977
-7.0559 1.5864 2.3976
-7.1141 1.3333 2.3975
-7.1631 1.0780 2.3974
-7.2029 0.8209 2.3972
-7.2334 0.5625 2.3971
-7.2546 0.3029 2.3969
-7.2665 0.0425 2.3968
-7.2689 -0.2183 2.3967
-7.2618 -0.4792 2.3965
-7.2453 -0.7399 2.3964
-7.2194 -1.0000 2.3962
-7.1840 -1.2591 2.3961
-7.1393 -1.5169 2.3960
-7.0851 -1.7731 2.3958
-7.0217 -2.0273 2.3957
-6.9490 -2.2791 2.3955
-6.8672 -2.5283 2.3954
-6.7763 -2.7745 2.3952
-6.6765 -3.0174 2.3951
-6.5678 -3.2566 2.3950
-6.4504 -3.4917 2.3948
-6.3245 -3.7226 2.3947
-6.1902 -3.9488 2.3945
-6.0476 -4.1700 2.3944
-5.8970 -4.3860 2.3943
-5.7386 -4.5964 2.3941
-5.5725 -4.8010 2.3940
-5.3990 -4.9994 2.3939
-5.2183 -5.1914 2.3938
-5.0351 -5.3816 2.3958
-4.8424 -5.5622 2.3966
-4.6416 -5.7340 2.3966
-4.4346 -5.8983 2.3966
-4.2216 -6.0550 2.3967
-4.0030 -6.2037 2.3967
-3.7790 -6.3444 2.3967
-3.5500 -6.4768 2.3967
-3.3162 -6.6007 2.3967
-3.0781 -6.7159 2.3967
-2.8358 -6.8224 2.3968
-2.5898 -6.9198 2.3968
-2.3403 -7.0082 2.3968
-2.0878 -7.0873 2.3968
-1.8325 -7.1571 2.3967
-1.5749 -7.2175 2.3967
-1.3152 -7.2684 2.3967
-1.0539 -7.3096 2.3967
-0.7913 -7.3413 2.3967
-0.5278 -7.3633 2.3967
-0.2637 -7.3756 2.3966
0.0006 -7.3782 2.3966
0.2648 -7.3711 2.3966
0.5285 -7.3543 2.3965
0.7913 -7.3279 2.3965
1.0528 -7.2919 2.3965
1.3128 -7.2463 2.3964
1.5708 -7.1913 2.3964
1.8265 -7.1269 2.3963
2.0795 -7.0532 2.3963
2.3296 -6.9703 2.3962
2.5764 -6.8784 2.3961
2.8195 -6.7777 2.3961
3.0587 -6.6681 2.3960
3.2935 -6.5500 2.3959
3.5238 -6.4234 2.3959
3.7491 -6.2887 2.3958
3.9693 -6.1459 2.3957
4.1840 -5.9953 2.3957
4.3929 -5.8370 2.3956
4.5958 -5.6715 2.3955
4.7924 -5.4987 2.3954
4.9825 -5.3191 2.3953
5.1658 -5.1328 2.3953
5.3421 -4.9402 2.3952
5.5111 -4.7414 2.3951
5.6728 -4.5368 2.3950
5.8268 -4.3267 2.3949
5.9731 -4.1113 2.3948
6.1113 -3.8909 2.3947
6.2414 -3.6659 2.3946
6.3632 -3.4365 2.3946
6.4766 -3.2031 2.3945
6.5815 -2.9659 2.3944
6.6776 -2.7254 2.3943
6.7650 -2.4817 2.3942
6.8435 -2.2352 2.3941
6.9131 -1.9863 2.3940
6.9736 -1.7353 2.3939
7.0251 -1.4824 2.3938
7.0675 -1.2281 2.3937
7.1007 -0.9727 2.3936
7.1248 -0.7164 2.3936
7.1397 -0.4596 2.3935
7.1454 -0.2027 2.3934
7.1420 0.0541 2.3933
7.1294 0.3103 2.3932
7.1077 0.5658 2.3931
7.0770 0.8202 2.3931
7.0373 1.0731 2.3930
6.9887 1.3243 2.3929
6.9313 1.5734 2.3928
6.8651 1.8201 2.3927
6.7902 2.0642 2.3927
6.7068 2.3053 2.3926
6.6150 2.5432 2.3925
6.5149 2.7775 2.3925
6.4067 3.0080 2.3924
6.2904 3.2343 2.3923
6.1663 3.4564 2.3923
6.0345 3.6737 2.3922
5.8952 3.8862 2.3922
5.7485 4.0936 2.3921
5.5948 4.2955 2.3921
5.4340 4.4918 2.3920
5.2725 4.6876 2.3947
5.1055 4.8790 2.3980
4.9251 5.0579 2.3981
4.7385 5.2302 2.3983
4.5460 5.3958 2.3984
4.3479 5.5545 2.3985
4.1443 5.7061 2.3986
3.9356 5.8504 2.3987
3.7219 5.9872 2.3988
3.5036 6.1164 2.3989
3.2809 6.2379 2.3990
3.0540 6.3514 2.3991
2.8234 6.4569 2.3991
2.5892 6.5542 2.3992
2.3517 6.6431 2.3993
0.8511 2.7107 0.9673
0.7531 2.7399 0.9674
0.6541 2.7655 0.9674
0.5543 2.7876 0.9674
0.4536 2.8060 0.9674
0.3524 2.8208 0.9674
0.2507 2.8319 0.9673
0.1487 2.8394 0.9671
0.0464 2.8431 0.9670
-0.0559 2.8432 0.9668
-0.1582 2.8395 0.9666
-0.2603 2.8322 0.9663
-0.3620 2.8211 0.9660
-0.4633 2.8064 0.9657
-0.5640 2.7881 0.9653
-0.6639 2.7661 0.9649
-0.7630 2.7406 0.9645
-0.8611 2.7114 0.9641
-2.3862 6.6716 2.3998
-2.6260 6.5851 2.3998
-2.8627 6.4900 2.3998
-3.0960 6.3866 2.3998
-3.3256 6.2749 2.3997
-3.5513 6.1551 2.3997
-3.7727 6.0273 2.3996
-3.9896 5.8916 2.3996
-4.2016 5.7483 2.3995
-4.4085 5.5974 2.3995
-4.6101 5.4392 2.3994
-4.8061 5.2738 2.3994
-4.9961 5.1014 2.3993
-5.1801 4.9222 2.3992
-5.3577 4.7365 2.3991
-5.5286 4.5445 2.3990
-5.6927 4.3463 2.3990
-5.8498 4.1423 2.3989
-5.9995 3.9326 2.3988
-6.1418 3.7176 2.3987
-6.2764 3.4974 2.3986
-6.4031 3.2724 2.3985
-6.5218 3.0429 2.3983
-6.6323 2.8090 2.3982
-6.7343 2.5712 2.3981
-6.8279 2.3298 2.3980
-6.9127 2.0849 2.3979
-6.9888 1.8369 2.3977
-7.0560 1.5862 2.3976
-7.1141 1.3331 2.3975
-7.1631 1.0778 2.3974
-7.2029 0.8208 2.3972
-7.2334 0.5623 2.3971
-7.2546 0.3027 2.3969
-7.2665 0.0423 2.3968
-7.2689 -0.2185 2.3967
-7.2618 -0.4794 2.3965
-7.2453 -0.7401 2.3964
-7.2194 -1.0001 2.3962
-7.1840 -1.2592 2.3961
-7.1392 -1.5171 2.3960
-7.0851 -1.7732 2.3958
-7.0217 -2.0274 2.3957
-6.9490 -2.2793 2.3955
-6.8671 -2.5285 2.3954
-6.7763 -2.7747 2.3952
-6.6764 -3.0175 2.3951
-6.5677 -3.2567 2.3950
-6.4503 -3.4919 2.3948
-6.3244 -3.7227 2.3947
-6.1901 -3.9489 2.3945
-6.0475 -4.1702 2.3944
-5.8969 -4.3861 2.3943
-5.7385 -4.5966 2.3941
-5.5724 -4.8011 2.3940
-5.3989 -4.9995 2.3939
-5.2181 -5.1916 2.3938
-5.0350 -5.3817 2.3958
-4.8422 -5.5623 2.3966
-4.6414 -5.7341 2.3966
-4.4344 -5.8984 2.3966
-4.2215 -6.0551 2.3967
-4.0029 -6.2038 2.3967
-3.7789 -6.3445 2.3967
-3.5499 -6.4769 2.3967
-3.3161 -6.6008 2.3967
-3.0779 -6.7160 2.3967
-2.8356 -6.8224 2.3968
-2.5896 -6.9199 2.3968
-2.3401 -7.0082 2.3968
-2.0876 -7.0874 2.3968
-1.8324 -7.1572 2.3967
-1.5747 -7.2175 2.3967
-1.3151 -7.2684 2.3967
-1.0538 -7.3097 2.3967
-0.7912 -7.3413 2.3967
-0.5276 -7.3633 2.3967
-0.2635 -7.3756 2.3966
0.0000 -6.8488 2.3964
0.2452 -6.8423 2.3964
0.4899 -6.8269 2.3964
0.7338 -6.8026 2.3963
0.9766 -6.7693 2.3963
1.2179 -6.7272 2.3962
1.4575 -6.6764 2.3962
1.6949 -6.6168 2.3962
1.9299 -6.5486 2.3961
2.1621 -6.4719 2.3961
2.3913 -6.3869 2.3960
2.6171 -6.2936 2.3959
2.8392 -6.1921 2.3959
3.0574 -6.0827 2.3958
3.2713 -5.9655 2.3958
3.4807 -5.8406 2.3957
3.6853 -5.7083 2.3956
3.8849 -5.5687 2.3955
4.0791 -5.4220 2.3955
4.2677 -5.2685 2.3954
4.4505 -5.1083 2.3953
4.6273 -4.9418 2.3953
4.7978 -4.7690 2.3952
4.9619 -4.5903 2.3951
5.1192 -4.4059 2.3950
5.2697 -4.2161 2.3949
5.4131 -4.0211 2.3949
5.5493 -3.8212 2.3948
5.6780 -3.6167 2.3947
5.7993 -3.4078 2.3946
5.9128 -3.1948 2.3945
6.0185 -2.9781 2.3944
6.1163 -2.7578 2.3944
6.2060 -2.5344 2.3943
6.2876 -2.3080 2.3942
6.3610 -2.0791 2.3941
6.4260 -1.8478 2.3940
6.4827 -1.6145 2.3939
6.5309 -1.3796 2.3938
6.5707 -1.1432 2.3938
6.6020 -0.9057 2.3937
6.6247 -0.6675 2.3936
6.6390 -0.4287 2.3935
6.6446 -0.1898 2.3934
6.6418 0.0490 2.3934
6.6305 0.2873 2.3933
6.6107 0.5250 2.3932
6.5825 0.7616 2.3931
6.5459 0.9969 2.3931
6.5010 1.2306 2.3930
6.4479 1.4624 2.3929
6.3866 1.6921 2.3928
6.3173 1.9192 2.3928
6.2400 2.1437 2.3927
6.1548 2.3651 2.3926
6.0619 2.5832 2.3926
5.9614 2.7978 2.3925
5.8535 3.0086 2.3925
5.7382 3.2153 2.3924
5.6158 3.4178 2.3924
5.4863 3.6156 2.3923
5.3500 3.8087 2.3923
5.2070 3.9968 2.3922
5.0576 4.1797 2.3922
4.9087 4.3631 2.3954
4.7515 4.5398 2.3979
4.5837 4.7063 2.3980
4.4101 4.8668 2.3981
4.2310 5.0210 2.3982
4.0467 5.1688 2.3983
3.8572 5.3100 2.3984
3.6630 5.4444 2.3985
3.4641 5.5718 2.3986
3.2609 5.6921 2.3987
3.0537 5.8052 2.3988
2.8426 5.9109 2.3988
2.6279 6.0091 2.3989
2.4098 6.0997 2.3990
0.8807 2.4878 0.9654
0.7907 2.5182 0.9655
0.6997 2.5453 0.9655
0.6077 2.5691 0.9656
0.5149 2.5895 0.9656
0.4214 2.6067 0.9656
0.3273 2.6204 0.9655
0.2328 2.6307 0.9654
0.1380 2.6376 0.9653
0.0430 2.6411 0.9651
-0.0520 2.6411 0.9650
-0.1471 2.6377 0.9648
-0.2419 2.6309 0.9645
-0.3364 2.6206 0.9642
-0.4305 2.6070 0.9639
-0.5241 2.5899 0.9636
-0.6169 2.5695 0.9632
-0.7090 2.5458 0.9628
-0.8001 2.5187 0.9624
-0.8902 2.4884 0.9620
-2.4437 6.1262 2.3996
-2.6639 6.0376 2.3995
-2.8808 5.9411 2.3995
-3.0944 5.8370 2.3995
-3.3042 5.7253 2.3994
-3.5101 5.6062 2.3994
-3.7117 5.4798 2.3993
-3.9088 5.3462 2.3993
-4.1011 5.2056 2.3992
-4.2884 5.0582 2.3992
-4.4705 4.9042 2.3991
-4.6471 4.7436 2.3991
-4.8179 4.5768 2.3990
-4.9828 4.4039 2.3989
-5.1416 4.2250 2.3988
-5.2939 4.0406 2.3987
-5.4397 3.8506 2.3987
-5.5787 3.6555 2.3986
-5.7107 3.4554 2.3985
-5.8355 3.2505 2.3984
-5.9531 3.0412 2.3983
-6.0631 2.8277 2.3982
-6.1655 2.6102 2.3981
-6.2600 2.3890 2.3980
-6.3467 2.1644 2.3979
-6.4252 1.9367 2.3977
-6.4956 1.7062 2.3976
-6.5577 1.4731 2.3975
-6.6114 1.2378 2.3974
-6.6566 1.0005 2.3973
-6.6932 0.7617 2.3971
-6.7213 0.5214 2.3970
-6.7406 0.2802 2.3969
-6.7513 0.0383 2.3968
-6.7532 -0.2040 2.3966
-6.7463 -0.4464 2.3965
-6.7307 -0.6885 2.3964
-6.7063 -0.9300 2.3962
-6.6731 -1.1706 2.3961
-6.6313 -1.4100 2.3960
-6.5807 -1.6479 2.3958
-6.5215 -1.8839 2.3957
-6.4537 -2.1177 2.3956
-6.3775 -2.3491 2.3954
-6.2929 -2.5776 2.3953
-6.1999 -2.8030 2.3952
-6.0988 -3.0250 2.3950
-5.9896 -3.2432 2.3949
-5.8725 -3.4575 2.3948
-5.7476 -3.6674 2.3946
-5.6150 -3.8726 2.3945
-5.4751 -4.0730 2.3944
-5.3278 -4.2683 2.3943
-5.1735 -4.4581 2.3941
-5.0123 -4.6422 2.3940
-4.8444 -4.8203 2.3939
-4.6749 -4.9973 2.3962
-4.4947 -5.1635 2.3964
-4.3082 -5.3228 2.3964
-4.1160 -5.4752 2.3965
-3.9183 -5.6205 2.3965
-3.7154 -5.7585 2.3965
-3.5075 -5.8890 2.3965
-3.2949 -6.0118 2.3965
-3.0779 -6.1267 2.3965
-2.8569 -6.2336 2.3966
-2.6320 -6.3323 2.3966
-2.4037 -6.4228 2.3966
-2.1722 -6.5048 2.3966
-1.9379 -6.5782 2.3966
-1.7010 -6.6430 2.3966
-1.4619 -6.6991 2.3965
-1.2210 -6.7463 2.3965
-0.9785 -6.7847 2.3965
-0.7348 -6.8142 2.3965
-0.4902 -6.8347 2.3965
-0.2451 -6.8462 2.3965
0.0002 -6.8488 2.3964
0.2454 -6.8423 2.3964
0.4901 -6.8269 2.3964
0.7340 -6.8026 2.3963
0.9768 -6.7693 2.3963
1.2181 -6.7272 2.3962
1.4576 -6.6763 2.3962
1.6950 -6.6168 2.3962
1.9300 -6.5486 2.3961
2.1622 -6.4719 2.3961
2.3914 -6.3868 2.3960
2.6172 -6.2935 2.3959
2.8393 -6.1920 2.3959
3.0575 -6.0826 2.3958
3.2714 -5.9654 2.3958
3.4809 -5.8405 2.3957
3.6855 -5.7082 2.3956
3.8850 -5.5686 2.3955
4.0792 -5.4219 2.3955
4.2678 -5.2684 2.3954
4.4506 -5.1082 2.3953
4.6274 -4.9416 2.3953
4.7979 -4.7689 2.3952
4.9620 -4.5902 2.3951
5.1193 -4.4058 2.3950
5.2698 -4.2160 2.3949
5.4132 -4.0210 2.3949
5.5493 -3.8211 2.3948
5.6781 -3.6165 2.3947
5.7993 -3.4077 2.3946
5.9129 -3.1947 2.3945
6.0186 -2.9779 2.3944
6.1164 -2.7577 2.3944
6.2061 -2.5342 2.3943
6.2877 -2.3079 2.3942
6.3610 -2.0789 2.3941
6.4261 -1.8477 2.3940
6.4827 -1.6144 2.3939
6.5310 -1.3794 2.3938
6.5707 -1.1430 2.3938
6.6020 -0.9056 2.3937
6.6248 -0.6673 2.3936
6.6390 -0.4286 2.3935
6.6446 -0.1897 2.3934
6.6418 0.0491 2.3934
6.6305 0.2875 2.3933
6.6107 0.5251 2.3932
6.5825 0.7618 2.3931
6.5459 0.9971 2.3931
6.5010 1.2308 2.3930
6.4478 1.4626 2.3929
6.3866 1.6922 2.3928
6.3172 1.9194 2.3928
6.2399 2.1438 2.3927
6.1547 2.3652 2.3926
6.0619 2.5834 2.3926
5.9614 2.7979 2.3925
5.8534 3.0087 2.3925
5.7381 3.2155 2.3924
5.6157 3.4179 2.3924
5.4862 3.6158 2.3923
5.3499 3.8088 2.3923
5.2070 3.9969 2.3922
5.0575 4.1798 2.3922
4.9086 4.3633 2.3954
4.7514 4.5399 2.3979
4.5836 4.7064 2.3980
4.4100 4.8669 2.3981
4.2309 5.0211 2.3982
4.0465 5.1689 2.3983
3.8571 5.3101 2.3984
3.6628 5.4445 2.3985
3.4640 5.5719 2.3986
3.2608 5.6922 2.3987
3.0535 5.8053 2.3988
2.8424 5.9110 2.3988
2.6277 6.0092 2.3989
2.4097 6.0997 2.3990
0.8807 2.4878 0.9654
0.7907 2.5182 0.9655
0.6996 2.5453 0.9655
0.6076 2.5691 0.9656
0.5148 2.5896 0.9656
0.4213 2.6067 0.9656
0.3273 2.6204 0.9655
0.2328 2.6307 0.9654
0.1380 2.6376 0.9653
0.0430 2.6411 0.9651
-0.0521 2.6411 0.9650
-0.1471 2.6377 0.9648
-0.2420 2.6309 0.9645
-0.3365 2.6206 0.9642
-0.4306 2.6070 0.9639
-0.5241 2.5899 0.9636
-0.6170 2.5695 0.9632
-0.7091 2.5458 0.9628
-0.8002 2.5187 0.9624
-0.8903 2.4884 0.9620
-2.4438 6.1262 2.3996
-2.6640 6.0375 2.3995
-2.8810 5.9411 2.3995
-3.0945 5.8369 2.3995
-3.3044 5.7253 2.3994
-3.5102 5.6061 2.3994
-3.7118 5.4797 2.3993
-3.9089 5.3461 2.3993
-4.1012 5.2055 2.3992
-4.2885 5.0581 2.3992
-4.4706 4.9041 2.3991
-4.6472 4.7435 2.3991
-4.8180 4.5767 2.3990
-4.9829 4.4037 2.3989
-5.1417 4.2249 2.3988
-5.2940 4.0404 2.3987
-5.4398 3.8505 2.3987
-5.5788 3.6554 2.3986
-5.7108 3.4553 2.3985
-5.8356 3.2504 2.3984
-5.9531 3.0411 2.3983
-6.0632 2.8275 2.3982
-6.1655 2.6100 2.3981
-6.2601 2.3889 2.3980
-6.3467 2.1643 2.3979
-6.4253 1.9366 2.3977
-6.4956 1.7060 2.3976
-6.5577 1.4730 2.3975
-6.6114 1.2376 2.3974
-6.6566 1.0004 2.3973
-6.6932 0.7615 2.3971
-6.7213 0.5213 2.3970
-6.7406 0.2801 2.3969
-6.7513 0.0381 2.3968
-6.7532 -0.2042 2.3966
-6.7463 -0.4465 2.3965
-6.7307 -0.6886 2.3964
-6.7063 -0.9302 2.3962
-6.6731 -1.1708 2.3961
-6.6312 -1.4102 2.3960
-6.5807 -1.6481 2.3958
-6.5215 -1.8841 2.3957
-6.4537 -2.1179 2.3956
-6.3774 -2.3492 2.3954
-6.2928 -2.5777 2.3953
-6.1998 -2.8031 2.3952
-6.0987 -3.0251 2.3950
-5.9895 -3.2434 2.3949
-5.8724 -3.4576 2.3948
-5.7475 -3.6675 2.3946
-5.6149 -3.8728 2.3945
-5.4750 -4.0732 2.3944
-5.3277 -4.2684 2.3943
-5.1734 -4.4582 2.3941
-5.0122 -4.6423 2.3940
-4.8443 -4.8204 2.3939
-4.6748 -4.9974 2.3962
-4.4946 -5.1636 2.3964
-4.3081 -5.3229 2.3964
-4.1159 -5.4753 2.3965
-3.9182 -5.6206 2.3965
-3.7152 -5.7586 2.3965
-3.5073 -5.8891 2.3965
-3.2947 -6.0119 2.3965
-3.0778 -6.1268 2.3965
-2.8567 -6.2337 2.3966
-2.6319 -6.3324 2.3966
-2.4035 -6.4228 2.3966
-2.1721 -6.5048 2.3966
-1.9377 -6.5783 2.3966
-1.7008 -6.6430 2.3966
-1.4618 -6.6991 2.3965
-1.2208 -6.7464 2.3965
-0.9783 -6.7847 2.3965
-0.7346 -6.8142 2.3965
-0.4901 -6.8347 2.3965
-0.2450 -6.8462 2.3965
-0.0004 -6.3834 2.3963
0.2281 -6.3776 2.3962
0.4562 -6.3633 2.3962
0.6835 -6.3408 2.3962
0.9098 -6.3099 2.3961
1.1347 -6.2709 2.3961
1.3580 -6.2236 2.3961
1.5793 -6.1683 2.3960
1.7984 -6.1049 2.3960
2.0149 -6.0336 2.3959
2.2286 -5.9545 2.3959
2.4392 -5.8677 2.3958
2.6463 -5.7734 2.3958
2.8498 -5.6716 2.3957
3.0494 -5.5625 2.3956
3.2447 -5.4463 2.3956
3.4356 -5.3232 2.3955
3.6218 -5.1933 2.3955
3.8030 -5.0567 2.3954
3.9791 -4.9138 2.3953
4.1498 -4.7647 2.3953
4.3148 -4.6095 2.3952
4.4740 -4.4486 2.3951
4.6272 -4.2822 2.3950
4.7742 -4.1104 2.3950
4.9148 -3.9336 2.3949
5.0488 -3.7519 2.3948
5.1761 -3.5656 2.3947
5.2964 -3.3750 2.3947
5.4098 -3.1803 2.3946
5.5160 -2.9817 2.3945
5.6149 -2.7797 2.3944
5.7064 -2.5743 2.3943
5.7905 -2.3659 2.3943
5.8669 -2.1548 2.3942
5.9356 -1.9413 2.3941
5.9966 -1.7255 2.3940
6.0498 -1.5079 2.3939
6.0952 -1.2887 2.3939
6.1326 -1.0681 2.3938
6.1621 -0.8465 2.3937
6.1837 -0.6242 2.3936
6.1972 -0.4013 2.3936
6.2028 -0.1783 2.3935
6.2005 0.0446 2.3934
6.1902 0.2672 2.3933
6.1720 0.4891 2.3933
6.1460 0.7101 2.3932
6.1121 0.9298 2.3931
6.0704 1.1481 2.3931
6.0211 1.3646 2.3930
5.9641 1.5791 2.3929
5.8996 1.7914 2.3929
5.8276 2.0010 2.3928
5.7483 2.2079 2.3927
5.6617 2.4118 2.3927
5.5681 2.6123 2.3926
5.4674 2.8093 2.3926
5.3599 3.0025 2.3925
5.2457 3.1917 2.3925
5.1249 3.3767 2.3924
4.9978 3.5571 2.3924
4.8643 3.7330 2.3923
4.7249 3.9039 2.3923
4.5850 4.0747 2.3951
4.4386 4.2401 2.3978
4.2819 4.3958 2.3979
4.1198 4.5458 2.3980
3.9525 4.6899 2.3981
3.7803 4.8281 2.3982
3.6034 4.9600 2.3982
3.4220 5.0856 2.3983
3.2362 5.2047 2.3984
3.0464 5.3172 2.3985
2.8527 5.4229 2.3986
2.6555 5.5216 2.3987
2.4549 5.6134 2.3987
0.9043 2.2889 0.9636
0.8214 2.3203 0.9637
0.7375 2.3486 0.9638
0.6525 2.3739 0.9639
0.5667 2.3960 0.9639
0.4801 2.4151 0.9639
0.3929 2.4311 0.9639
0.3052 2.4438 0.9639
0.2170 2.4535 0.9638
0.1286 2.4599 0.9637
0.0400 2.4631 0.9635
-0.0487 2.4631 0.9634
-0.1373 2.4600 0.9632
-0.2258 2.4536 0.9629
-0.3140 2.4440 0.9627
-0.4017 2.4313 0.9624
-0.4890 2.4154 0.9621
-0.5756 2.3964 0.9618
-0.6615 2.3742 0.9614
-0.7465 2.3490 0.9610
-0.8306 2.3207 0.9606
-0.9135 2.2894 0.9601
-2.4884 5.6380 2.3993
-2.6910 5.5477 2.3993
-2.8903 5.4503 2.3992
-3.0862 5.3458 2.3992
-3.2783 5.2344 2.3992
-3.4664 5.1161 2.3991
-3.6504 4.9912 2.3991
-3.8298 4.8597 2.3990
-4.0046 4.7219 2.3990
-4.1744 4.5779 2.3989
-4.3391 4.4278 2.3988
-4.4984 4.2719 2.3988
-4.6522 4.1102 2.3987
-4.8002 3.9431 2.3986
-4.9422 3.7708 2.3986
-5.0781 3.5933 2.3985
-5.2076 3.4110 2.3984
-5.3306 3.2241 2.3983
-5.4469 3.0327 2.3982
-5.5563 2.8372 2.3981
-5.6587 2.6378 2.3980
-5.7540 2.4347 2.3979
-5.8420 2.2282 2.3978
-5.9226 2.0186 2.3977
-5.9956 1.8060 2.3976
-6.0610 1.5908 2.3975
-6.1186 1.3733 2.3974
-6.1684 1.1537 2.3973
-6.2103 0.9323 2.3972
-6.2443 0.7094 2.3971
-6.2701 0.4853 2.3969
-6.2879 0.2603 2.3968
-6.2976 0.0346 2.3967
-6.2991 -0.1914 2.3966
-6.2924 -0.4174 2.3965
-6.2776 -0.6432 2.3963
-6.2546 -0.8684 2.3962
-6.2234 -1.0928 2.3961
-6.1841 -1.3160 2.3960
-6.1367 -1.5377 2.3958
-6.0813 -1.7577 2.3957
-6.0179 -1.9757 2.3956
-5.9466 -2.1913 2.3955
-5.8675 -2.4043 2.3953
-5.7806 -2.6144 2.3952
-5.6862 -2.8212 2.3951
-5.5842 -3.0246 2.3950
-5.4749 -3.2242 2.3948
-5.3583 -3.4198 2.3947
-5.2346 -3.6111 2.3946
-5.1040 -3.7978 2.3945
-4.9666 -3.9797 2.3944
-4.8226 -4.1565 2.3943
-4.6723 -4.3280 2.3942
-4.5157 -4.4940 2.3941
-4.3576 -4.6588 2.3964
-4.1897 -4.8138 2.3966
-4.0152 -4.9615 2.3963
-3.8360 -5.1034 2.3963
-3.6517 -5.2387 2.3963
-3.4626 -5.3672 2.3963
-3.2688 -5.4888 2.3964
-3.0707 -5.6031 2.3964
-2.8685 -5.7102 2.3964
-2.6625 -5.8098 2.3964
-2.4530 -5.9017 2.3964
-2.2402 -5.9860 2.3964
-2.0245 -6.0624 2.3964
-1.8061 -6.1308 2.3964
-1.5854 -6.1912 2.3964
-1.3626 -6.2435 2.3964
-1.1381 -6.2876 2.3964
-0.9122 -6.3234 2.3964
-0.6851 -6.3509 2.3963
-0.4572 -6.3701 2.3963
-0.2288 -6.3810 2.3963
-0.0002 -6.3834 2.3963
0.2283 -6.3775 2.3962
0.4563 -6.3633 2.3962
0.6837 -6.3408 2.3962
0.9099 -6.3099 2.3961
1.1349 -6.2708 2.3961
1.3582 -6.2236 2.3961
1.5795 -6.1682 2.3960
1.7985 -6.1049 2.3960
2.0150 -6.0336 2.3959
2.2287 -5.9545 2.3959
2.4393 -5.8677 2.3958
2.6464 -5.7733 2.3958
2.8499 -5.6715 2.3957
3.0495 -5.5625 2.3956
3.2448 -5.4463 2.3956
3.4357 -5.3231 2.3955
3.6219 -5.1932 2.3955
3.8031 -5.0566 2.3954
3.9792 -4.9137 2.3953
4.1499 -4.7646 2.3953
4.3149 -4.6094 2.3952
4.4741 -4.4485 2.3951
4.6273 -4.2821 2.3950
4.7743 -4.1103 2.3950
4.9149 -3.9334 2.3949
5.0489 -3.7518 2.3948
5.1761 -3.5655 2.3947
5.2965 -3.3749 2.3947
5.4099 -3.1801 2.3946
5.5161 -2.9816 2.3945
5.6150 -2.7795 2.3944
5.7065 -2.5742 2.3943
5.7905 -2.3658 2.3943
5.8669 -2.1547 2.3942
5.9357 -1.9411 2.3941
5.9967 -1.7254 2.3940
6.0499 -1.5078 2.3939
6.0952 -1.2885 2.3939
6.1326 -1.0680 2.3938
6.1621 -0.8464 2.3937
6.1837 -0.6240 2.3936
6.1972 -0.4012 2.3936
6.2028 -0.1781 2.3935
6.2005 0.0448 2.3934
6.1902 0.2673 2.3933
6.1720 0.4892 2.3933
6.1459 0.7102 2.3932
6.1120 0.9300 2.3931
6.0704 1.1482 2.3931
6.0210 1.3648 2.3930
5.9640 1.5793 2.3929
5.8995 1.7915 2.3929
5.8275 2.0012 2.3928
5.7482 2.2081 2.3927
5.6617 2.4119 2.3927
5.5680 2.6124 2.3926
5.4674 2.8094 2.3926
5.3599 3.0026 2.3925
5.2456 3.1918 2.3925
5.1249 3.3768 2.3924
4.9977 3.5573 2.3924
4.8643 3.7331 2.3923
4.7248 3.9040 2.3923
4.5849 4.0748 2.3951
4.4385 4.2402 2.3978
4.2818 4.3959 2.3979
4.1197 4.5459 2.3980
3.9524 4.6900 2.3981
3.7802 4.8281 2.3982
3.6033 4.9601 2.3982
3.4218 5.0857 2.3983
3.2361 5.2048 2.3984
3.0463 5.3172 2.3985
2.8526 5.4229 2.3986
2.6554 5.5217 2.3987
2.4548 5.6135 2.3987
0.9043 2.2890 0.9636
0.8214 2.3203 0.9637
0.7374 2.3486 0.9638
0.6525 2.3739 0.9639
0.5666 2.3961 0.9639
0.4801 2.4151 0.9639
0.3929 2.4311 0.9639
0.3051 2.4439 0.9639
0.2170 2.4535 0.9638
0.1285 2.4599 0.9637
0.0399 2.4631 0.9635
-0.0488 2.4631 0.9634
-0.1374 2.4600 0.9632
-0.2258 2.4536 0.9629
-0.3140 2.4440 0.9627
-0.4018 2.4313 0.9624
-0.4890 2.4154 0.9621
-0.5757 2.3964 0.9618
-0.6615 2.3742 0.9614
-0.7466 2.3490 0.9610
-0.8306 2.3207 0.9606
-0.9136 2.2894 0.9601
-2.4885 5.6379 2.3993
-2.6911 5.5477 2.3993
-2.8905 5.4502 2.3992
-3.0863 5.3457 2.3992
-3.2784 5.2343 2.3992
-3.4666 5.1160 2.3991
-3.6505 4.9911 2.3991
-3.8299 4.8597 2.3990
-4.0047 4.7218 2.3990
-4.1745 4.5778 2.3989
-4.3392 4.4277 2.3988
-4.4985 4.2718 2.3988
-4.6523 4.1101 2.3987
-4.8003 3.9430 2.3986
-4.9423 3.7706 2.3986
-5.0782 3.5932 2.3985
-5.2077 3.4109 2.3984
-5.3307 3.2240 2.3983
-5.4469 3.0326 2.3982
-5.5564 2.8371 2.3981
-5.6588 2.6377 2.3980
-5.7541 2.4346 2.3979
-5.8420 2.2281 2.3978
-5.9226 2.0184 2.3977
-5.9956 1.8059 2.3976
-6.0610 1.5907 2.3975
-6.1187 1.3732 2.3974
-6.1685 1.1536 2.3973
-6.2104 0.9322 2.3972
-6.2443 0.7093 2.3971
-6.2702 0.4852 2.3969
-6.2879 0.2601 2.3968
-6.2976 0.0345 2.3967
-6.2991 -0.1915 2.3966
-6.2924 -0.4176 2.3965
-6.2776 -0.6433 2.3963
-6.2546 -0.8686 2.3962
-6.2234 -1.0929 2.3961
-6.1841 -1.3161 2.3960
-6.1367 -1.5379 2.3958
-6.0813 -1.7579 2.3957
-6.0179 -1.9758 2.3956
-5.9466 -2.1915 2.3955
-5.8674 -2.4044 2.3953
-5.7806 -2.6145 2.3952
-5.6861 -2.8214 2.3951
-5.5841 -3.0248 2.3950
-5.4748 -3.2244 2.3948
-5.3582 -3.4199 2.3947
-5.2345 -3.6112 2.3946
-5.1039 -3.7979 2.3945
-4.9665 -3.9798 2.3944
-4.8225 -4.1566 2.3943
-4.6722 -4.3281 2.3942
-4.5156 -4.4941 2.3941
-4.3575 -4.6590 2.3964
-4.1895 -4.8139 2.3966
-4.0151 -4.9616 2.3963
-3.8359 -5.1035 2.3963
-3.6516 -5.2388 2.3963
-3.4624 -5.3673 2.3963
-3.2687 -5.4888 2.3964
-3.0706 -5.6032 2.3964
-2.8683 -5.7102 2.3964
-2.6623 -5.8098 2.3964
-2.4528 -5.9018 2.3964
-2.2401 -5.9860 2.3964
-2.0243 -6.0624 2.3964
-1.8060 -6.1309 2.3964
-1.5853 -6.1913 2.3964
-1.3625 -6.2435 2.3964
-1.1380 -6.2876 2.3964
-0.9120 -6.3234 2.3964
-0.6850 -6.3509 2.3963
-0.4571 -6.3701 2.3963
-0.2287 -6.3810 2.3963
-0.0007 -5.9708 2.3961
0.2130 -5.9654 2.3961
0.4263 -5.9522 2.3961
0.6389 -5.9312 2.3960
0.8505 -5.9025 2.3960
1.0609 -5.8661 2.3960
1.2698 -5.8221 2.3959
1.4768 -5.7704 2.3959
1.6818 -5.7113 2.3959
1.8843 -5.6448 2.3958
2.0843 -5.5710 2.3958
2.2813 -5.4900 2.3957
2.4752 -5.4019 2.3957
2.6656 -5.3068 2.3956
2.8524 -5.2050 2.3955
3.0353 -5.0965 2.3955
3.2140 -4.9814 2.3954
3.3883 -4.8600 2.3954
3.5580 -4.7325 2.3953
3.7229 -4.5989 2.3952
3.8827 -4.4595 2.3952
4.0373 -4.3146 2.3951
4.1865 -4.1642 2.3950
4.3301 -4.0086 2.3950
4.4678 -3.8480 2.3949
4.5996 -3.6826 2.3948
4.7252 -3.5127 2.3948
4.8445 -3.3385 2.3947
4.9574 -3.1602 2.3946
5.0638 -2.9781 2.3946
5.1634 -2.7924 2.3945
5.2563 -2.6033 2.3944
5.3422 -2.4112 2.3943
5.4211 -2.2162 2.3943
5.4929 -2.0186 2.3942
5.5575 -1.8188 2.3941
5.6149 -1.6168 2.3940
5.6650 -1.4131 2.3940
5.7077 -1.2079 2.3939
5.7430 -1.0014 2.3938
5.7709 -0.7939 2.3937
5.7913 -0.5856 2.3937
5.8043 -0.3769 2.3936
5.8098 -0.1680 2.3935
5.8078 0.0408 2.3935
5.7984 0.2493 2.3934
5.7816 0.4571 2.3933
5.7574 0.6642 2.3933
5.7259 0.8701 2.3932
5.6871 1.0746 2.3931
5.6411 1.2776 2.3931
5.5879 1.4786 2.3930
5.5277 1.6775 2.3929
5.4604 1.8741 2.3929
5.3863 2.0680 2.3928
5.3054 2.2591 2.3928
5.2178 2.4471 2.3927
5.1236 2.6318 2.3927
5.0230 2.8129 2.3926
4.9161 2.9903 2.3926
4.8030 3.1638 2.3925
4.6840 3.3330 2.3925
4.5590 3.4979 2.3925
4.4284 3.6582 2.3924
4.2974 3.8184 2.3953
4.1599 3.9731 2.3976
4.0130 4.1191 2.3977
3.8611 4.2597 2.3978
3.7044 4.3949 2.3979
3.5431 4.5244 2.3980
3.3773 4.6482 2.3981
3.2072 4.7659 2.3982
3.0331 4.8776 2.3983
2.8552 4.9831 2.3983
2.6737 5.0822 2.3984
2.4888 5.1748 2.3985
0.9228 2.1101 0.9620
0.8463 2.1421 0.9622
0.7688 2.1714 0.9623
0.6901 2.1979 0.9624
0.6106 2.2216 0.9624
0.5303 2.2423 0.9625
0.4493 2.2602 0.9625
0.3676 2.2751 0.9625
0.2855 2.2870 0.9624
0.2030 2.2960 0.9623
0.1202 2.3020 0.9622
0.0373 2.3051 0.9621
-0.0457 2.3051 0.9619
-0.1287 2.3021 0.9618
-0.2115 2.2961 0.9615
-0.2940 2.2872 0.9613
-0.3762 2.2753 0.9610
-0.4578 2.2604 0.9608
-0.5389 2.2426 0.9604
-0.6193 2.2218 0.9601
-0.6989 2.1982 0.9597
-0.7775 2.1717 0.9593
-0.8552 2.1424 0.9589
-2.3322 5.2821 2.3991
-2.5219 5.1974 2.3991
-2.7086 5.1060 2.3990
-2.8921 5.0079 2.3990
-3.0720 4.9033 2.3990
-3.2482 4.7924 2.3989
-3.4204 4.6752 2.3989
-3.5884 4.5519 2.3988
-3.7520 4.4226 2.3988
-3.9109 4.2875 2.3987
-4.0651 4.1468 2.3987
-4.2142 4.0005 2.3986
-4.3581 3.8490 2.3985
-4.4965 3.6923 2.3985
-4.6294 3.5307 2.3984
-4.7564 3.3644 2.3983
-4.8775 3.1935 2.3982
-4.9925 3.0184 2.3982
-5.1012 2.8390 2.3981
-5.2035 2.6559 2.3980
-5.2992 2.4690 2.3979
-5.3882 2.2788 2.3978
-5.4704 2.0853 2.3977
-5.5456 1.8889 2.3976
-5.6137 1.6898 2.3975
-5.6747 1.4883 2.3974
-5.7285 1.2846 2.3973
-5.7749 1.0790 2.3972
-5.8139 0.8717 2.3971
-5.8454 0.6630 2.3970
-5.8694 0.4532 2.3969
-5.8858 0.2426 2.3968
-5.8946 0.0314 2.3967
-5.8958 -0.1802 2.3965
-5.8894 -0.3917 2.3964
-5.8753 -0.6030 2.3963
-5.8535 -0.8137 2.3962
-5.8241 -1.0236 2.3961
-5.7872 -1.2325 2.3960
-5.7426 -1.4399 2.3958
-5.6906 -1.6457 2.3957
-5.6311 -1.8496 2.3956
-5.5642 -2.0513 2.3955
-5.4900 -2.2505 2.3954
-5.4086 -2.4470 2.3953
-5.3200 -2.6405 2.3951
-5.2245 -2.8307 2.3950
-5.1221 -3.0173 2.3949
-5.0129 -3.2002 2.3948
-4.8971 -3.3791 2.3947
-4.7748 -3.5536 2.3946
-4.6462 -3.7237 2.3945
-4.5114 -3.8890 2.3944
-4.3707 -4.0494 2.3943
-4.2242 -4.2045 2.3942
-4.0756 -4.3580 2.3961
-3.9197 -4.5043 2.3971
-3.7554 -4.6411 2.3961
-3.5878 -4.7737 2.3962
-3.4154 -4.9002 2.3962
-3.2384 -5.0203 2.3962
-3.0572 -5.1339 2.3962
-2.8719 -5.2408 2.3962
-2.6828 -5.3409 2.3962
-2.4901 -5.4340 2.3962
-2.2942 -5.5200 2.3963
-2.0952 -5.5987 2.3963
-1.8935 -5.6702 2.3963
-1.6893 -5.7342 2.3963
-1.4829 -5.7907 2.3962
-1.2746 -5.8396 2.3962
-1.0647 -5.8809 2.3962
-0.8534 -5.9144 2.3962
-0.6411 -5.9402 2.3962
-0.4279 -5.9582 2.3962
-0.2143 -5.9684 2.3962
-0.0006 -5.9708 2.3961
0.2131 -5.9654 2.3961
0.4264 -5.9522 2.3961
0.6390 -5.9312 2.3960
0.8507 -5.9025 2.3960
1.0611 -5.8661 2.3960
1.2699 -5.8220 2.3959
1.4770 -5.7704 2.3959
1.6819 -5.7113 2.3959
1.8845 -5.6448 2.3958
2.0844 -5.5709 2.3958
2.2814 -5.4899 2.3957
2.4753 -5.4018 2.3957
2.6658 -5.3068 2.3956
2.8525 -5.2049 2.3955
3.0354 -5.0964 2.3955
3.2141 -4.9813 2.3954
3.3884 -4.8600 2.3954
3.5581 -4.7324 2.3953
3.7230 -4.5988 2.3952
3.8828 -4.4595 2.3952
4.0374 -4.3145 2.3951
4.1866 -4.1641 2.3950
4.3301 -4.0085 2.3950
4.4679 -3.8479 2.3949
4.5996 -3.6825 2.3948
4.7253 -3.5126 2.3948
4.8446 -3.3384 2.3947
4.9575 -3.1601 2.3946
5.0638 -2.9780 2.3946
5.1635 -2.7923 2.3945
5.2563 -2.6032 2.3944
5.3422 -2.4111 2.3943
5.4211 -2.2161 2.3943
5.4929 -2.0185 2.3942
5.5576 -1.8186 2.3941
5.6149 -1.6167 2.3940
5.6650 -1.4130 2.3940
5.7077 -1.2077 2.3939
5.7430 -1.0012 2.3938
5.7709 -0.7937 2.3937
5.7913 -0.5855 2.3937
5.8043 -0.3768 2.3936
5.8098 -0.1679 2.3935
5.8078 0.0409 2.3935
5.7984 0.2494 2.3934
5.7816 0.4573 2.3933
5.7574 0.6643 2.3933
5.7259 0.8702 2.3932
5.6871 1.0748 2.3931
5.6411 1.2777 2.3931
5.5879 1.4787 2.3930
5.5276 1.6776 2.3929
5.4604 1.8742 2.3929
5.3862 2.0681 2.3928
5.3053 2.2592 2.3928
5.2177 2.4472 2.3927
5.1235 2.6319 2.3927
5.0229 2.8130 2.3926
4.9160 2.9904 2.3926
4.8030 3.1639 2.3925
4.6839 3.3331 2.3925
4.5589 3.4980 2.3925
4.4283 3.6583 2.3924
4.2974 3.8185 2.3953
4.1598 3.9732 2.3976
4.0129 4.1192 2.3977
3.8610 4.2598 2.3978
3.7043 4.3950 2.3979
3.5430 4.5245 2.3980
3.3771 4.6483 2.3981
3.2071 4.7660 2.3982
3.0330 4.8777 2.3983
2.8551 4.9831 2.3983
2.6736 5.0822 2.3984
2.4887 5.1748 2.3985
0.9228 2.1101 0.9620
0.8463 2.1422 0.9622
0.7687 2.1715 0.9623
0.6901 2.1979 0.9624
0.6106 2.2216 0.9624
0.5302 2.2423 0.9625
0.4492 2.2602 0.9625
0.3676 2.2751 0.9625
0.2855 2.2870 0.9624
0.2030 2.2960 0.9623
0.1202 2.3020 0.9622
0.0372 2.3051 0.9621
-0.0458 2.3051 0.9619
-0.1287 2.3021 0.9618
-0.2115 2.2961 0.9615
-0.2941 2.2872 0.9613
-0.3762 2.2752 0.9610
-0.4579 2.2604 0.9608
-0.5390 2.2425 0.9604
-0.6193 2.2218 0.9601
-0.6989 2.1982 0.9597
-0.7776 2.1717 0.9593
-0.8553 2.1424 0.9589
-2.3323 5.2821 2.3991
-2.5220 5.1974 2.3991
-2.7088 5.1059 2.3990
-2.8922 5.0078 2.3990
-3.0721 4.9033 2.3990
-3.2483 4.7923 2.3989
-3.4205 4.6751 2.3989
-3.5885 4.5518 2.3988
-3.7521 4.4225 2.3988
-3.9110 4.2874 2.3987
-4.0652 4.1467 2.3987
-4.2143 4.0004 2.3986
-4.3582 3.8489 2.3985
-4.4966 3.6922 2.3985
-4.6295 3.5306 2.3984
-4.7565 3.3643 2.3983
-4.8776 3.1934 2.3982
-4.9926 3.0182 2.3982
-5.1013 2.8389 2.3981
-5.2036 2.6557 2.3980
-5.2993 2.4689 2.3979
-5.3883 2.2786 2.3978
-5.4704 2.0852 2.3977
-5.5456 1.8888 2.3976
-5.6138 1.6897 2.3975
-5.6748 1.4882 2.3974
-5.7285 1.2845 2.3973
-5.7749 1.0789 2.3972
-5.8139 0.8716 2.3971
-5.8454 0.6629 2.3970
-5.8694 0.4531 2.3969
-5.8858 0.2424 2.3968
-5.8946 0.0312 2.3967
-5.8958 -0.1803 2.3965
-5.8894 -0.3918 2.3964
-5.8752 -0.6031 2.3963
-5.8535 -0.8139 2.3962
-5.8241 -1.0238 2.3961
-5.7871 -1.2326 2.3960
-5.7426 -1.4401 2.3958
-5.6905 -1.6459 2.3957
-5.6310 -1.8498 2.3956
-5.5641 -2.0514 2.3955
-5.4899 -2.2507 2.3954
-5.4085 -2.4471 2.3953
-5.3200 -2.6406 2.3951
-5.2244 -2.8308 2.3950
-5.1220 -3.0174 2.3949
-5.0128 -3.2003 2.3948
-4.8970 -3.3792 2.3947
-4.7747 -3.5538 2.3946
-4.6461 -3.7238 2.3945
-4.5113 -3.8891 2.3944
-4.3706 -4.0495 2.3943
-4.2241 -4.2046 2.3942
-4.0755 -4.3581 2.3961
-3.9196 -4.5044 2.3971
-3.7553 -4.6411 2.3961
-3.5877 -4.7738 2.3962
-3.4153 -4.9003 2.3962
-3.2383 -5.0204 2.3962
-3.0571 -5.1340 2.3962
-2.8718 -5.2409 2.3962
-2.6827 -5.3410 2.3962
-2.4900 -5.4340 2.3962
-2.2941 -5.5200 2.3963
-2.0951 -5.5988 2.3963
-1.8934 -5.6702 2.3963
-1.6892 -5.7342 2.3963
-1.4828 -5.7907 2.3962
-1.2745 -5.8396 2.3962
-1.0646 -5.8809 2.3962
-0.8533 -5.9144 2.3962
-0.6409 -5.9402 2.3962
-0.4278 -5.9582 2.3962
-0.2142 -5.9684 2.3962
-0.0010 -5.6021 2.3960
0.1995 -5.5971 2.3960
0.3996 -5.5848 2.3960
0.5990 -5.5653 2.3959
0.7976 -5.5384 2.3959
0.9950 -5.5044 2.3959
1.1909 -5.4632 2.3958
1.3852 -5.4149 2.3958
1.5775 -5.3595 2.3957
1.7676 -5.2972 2.3957
1.9553 -5.2281 2.3957
2.1402 -5.1522 2.3956
2.3222 -5.0697 2.3956
2.5009 -4.9807 2.3955
2.6763 -4.8853 2.3955
2.8480 -4.7836 2.3954
3.0158 -4.6758 2.3954
3.1795 -4.5620 2.3953
3.3388 -4.4424 2.3952
3.4937 -4.3172 2.3952
3.6439 -4.1866 2.3951
3.7891 -4.0507 2.3951
3.9293 -3.9096 2.3950
4.0641 -3.7637 2.3949
4.1936 -3.6131 2.3949
4.3175 -3.4580 2.3948
4.4356 -3.2987 2.3947
4.5478 -3.1352 2.3947
4.6540 -2.9680 2.3946
4.7540 -2.7971 2.3945
4.8477 -2.6229 2.3945
4.9351 -2.4454 2.3944
5.0160 -2.2651 2.3943
5.0903 -2.0821 2.3942
5.1579 -1.8967 2.3942
5.2188 -1.7090 2.3941
5.2729 -1.5195 2.3940
5.3202 -1.3282 2.3940
5.3605 -1.1355 2.3939
5.3939 -0.9415 2.3938
5.4203 -0.7467 2.3938
5.4397 -0.5511 2.3937
5.4521 -0.3551 2.3936
5.4574 -0.1589 2.3936
5.4558 0.0373 2.3935
5.4472 0.2332 2.3934
5.4316 0.4285 2.3934
5.4091 0.6230 2.3933
5.3797 0.8165 2.3933
5.3434 1.0088 2.3932
5.3003 1.1995 2.3931
5.2505 1.3884 2.3931
5.1941 1.5754 2.3930
5.1311 1.7601 2.3930
5.0616 1.9425 2.3929
4.9857 2.1221 2.3929
4.9035 2.2988 2.3928
4.8151 2.4725 2.3928
4.7207 2.6428 2.3927
4.6203 2.8096 2.3927
4.5142 2.9727 2.3926
4.4024 3.1319 2.3926
4.2850 3.2869 2.3926
4.1628 3.4381 2.3928
4.0398 3.5888 2.3957
3.9097 3.7335 2.3975
3.7717 3.8708 2.3976
3.6290 4.0030 2.3977
3.4818 4.1302 2.3978
3.3301 4.2520 2.3979
3.1743 4.3683 2.3980
3.0145 4.4790 2.3980
2.8508 4.5841 2.3981
2.6836 4.6832 2.3982
2.5130 4.7764 2.3983
2.3392 4.8635 2.3983
0.8663 1.9806 0.9608
0.7944 2.0107 0.9609
0.7216 2.0382 0.9610
0.6478 2.0631 0.9611
0.5731 2.0853 0.9611
0.4977 2.1047 0.9612
0.4216 2.1215 0.9612
0.3450 2.1355 0.9612
0.2679 2.1467 0.9611
0.1904 2.1551 0.9610
0.1127 2.1608 0.9609
0.0349 2.1636 0.9608
-0.0431 2.1636 0.9607
-0.1209 2.1608 0.9605
-0.1987 2.1552 0.9603
-0.2761 2.1468 0.9601
-0.3533 2.1356 0.9598
-0.4299 2.1216 0.9596
-0.5060 2.1049 0.9593
-0.5815 2.0854 0.9589
-0.6562 2.0633 0.9586
-0.7301 2.0384 0.9582
-0.8030 2.0109 0.9578
-0.8749 1.9808 0.9574
-2.3703 4.8832 2.3989
-2.5457 4.7971 2.3988
-2.7180 4.7049 2.3988
-2.8870 4.6065 2.3988
-3.0524 4.5021 2.3987
-3.2141 4.3918 2.3987
-3.3719 4.2758 2.3987
-3.5255 4.1543 2.3986
-3.6747 4.0272 2.3986
-3.8194 3.8948 2.3985
-3.9594 3.7573 2.3984
-4.0944 3.6149 2.3984
-4.2243 3.4676 2.3983
-4.3490 3.3156 2.3982
-4.4682 3.1593 2.3982
-4.5818 2.9987 2.3981
-4.6896 2.8340 2.3980
-4.7916 2.6655 2.3979
-4.8874 2.4934 2.3979
-4.9772 2.3178 2.3978
-5.0606 2.1390 2.3977
-5.1375 1.9573 2.3976
-5.2080 1.7728 2.3975
-5.2718 1.5858 2.3974
-5.3289 1.3965 2.3973
-5.3791 1.2052 2.3972
-5.4225 1.0121 2.3971
-5.4589 0.8174 2.3970
-5.4883 0.6215 2.3969
-5.5107 0.4245 2.3968
-5.5259 0.2267 2.3967
-5.5340 0.0284 2.3966
-5.5349 -0.1701 2.3965
-5.5287 -0.3687 2.3964
-5.5152 -0.5670 2.3963
-5.4946 -0.7648 2.3962
-5.4669 -0.9618 2.3961
-5.4320 -1.1578 2.3960
-5.3901 -1.3525 2.3958
-5.3411 -1.5456 2.3957
-5.2851 -1.7369 2.3956
-5.2221 -1.9261 2.3955
-5.1524 -2.1130 2.3954
-5.0758 -2.2973 2.3953
-4.9926 -2.4788 2.3952
-4.9028 -2.6572 2.3951
-4.8066 -2.8323 2.3950
-4.7040 -3.0039 2.3949
-4.5953 -3.1716 2.3948
-4.4804 -3.3353 2.3947
-4.3597 -3.4948 2.3946
-4.2332 -3.6499 2.3945
-4.1011 -3.8003 2.3944
-3.9636 -3.9458 2.3943
-3.8236 -4.0892 2.3959
-3.6780 -4.2271 2.3974
-3.5232 -4.3547 2.3960
-3.3660 -4.4791 2.3960
-3.2042 -4.5977 2.3961
-3.0382 -4.7103 2.3961
-2.8681 -4.8168 2.3961
-2.6943 -4.9171 2.3961
-2.5169 -5.0109 2.3961
-2.3362 -5.0982 2.3961
-2.1524 -5.1789 2.3961
-1.9657 -5.2527 2.3961
-1.7765 -5.3197 2.3961
-1.5850 -5.3798 2.3961
-1.3914 -5.4328 2.3961
-1.1960 -5.4787 2.3961
-0.9991 -5.5174 2.3961
-0.8009 -5.5490 2.3961
-0.6017 -5.5732 2.3961
-0.4018 -5.5902 2.3961
-0.2014 -5.5998 2.3960
-0.0009 -5.6021 2.3960
0.1996 -5.5971 2.3960
0.3997 -5.5848 2.3960
0.5991 -5.5652 2.3959
0.7977 -5.5384 2.3959
0.9951 -5.5043 2.3959
1.1911 -5.4631 2.3958
1.3853 -5.4148 2.3958
1.5777 -5.3595 2.3957
1.7678 -5.2972 2.3957
1.9554 -5.2281 2.3957
2.1403 -5.1522 2.3956
2.3223 -5.0697 2.3956
2.5011 -4.9806 2.3955
2.6764 -4.8852 2.3955
2.8481 -4.7835 2.3954
3.0159 -4.6757 2.3954
3.1796 -4.5619 2.3953
3.3390 -4.4424 2.3952
3.4938 -4.3172 2.3952
3.6440 -4.1865 2.3951
3.7892 -4.0506 2.3951
3.9293 -3.9096 2.3950
4.0642 -3.7636 2.3949
4.1937 -3.6130 2.3949
4.3175 -3.4579 2.3948
4.4356 -3.2986 2.3947
4.5478 -3.1351 2.3947
4.6540 -2.9679 2.3946
4.7540 -2.7970 2.3945
4.8478 -2.6227 2.3945
4.9352 -2.4453 2.3944
5.0160 -2.2650 2.3943
5.0903 -2.0820 2.3942
5.1580 -1.8965 2.3942
5.2189 -1.7089 2.3941
5.2730 -1.5193 2.3940
5.3202 -1.3281 2.3940
5.3605 -1.1353 2.3939
5.3939 -0.9414 2.3938
5.4203 -0.7465 2.3938
5.4397 -0.5510 2.3937
5.4521 -0.3550 2.3936
5.4575 -0.1587 2.3936
5.4558 0.0374 2.3935
5.4472 0.2333 2.3934
5.4316 0.4286 2.3934
5.4091 0.6232 2.3933
5.3797 0.8167 2.3933
5.3434 1.0089 2.3932
5.3003 1.1996 2.3931
5.2505 1.3886 2.3931
5.1941 1.5755 2.3930
5.1310 1.7603 2.3930
5.0615 1.9426 2.3929
4.9856 2.1222 2.3929
4.9034 2.2990 2.3928
4.8151 2.4726 2.3928
4.7206 2.6429 2.3927
4.6203 2.8097 2.3927
4.5141 2.9728 2.3926
4.4023 3.1320 2.3926
4.2849 3.2870 2.3926
4.1628 3.4382 2.3928
4.0397 3.5889 2.3957
3.9096 3.7336 2.3975
3.7716 3.8709 2.3976
3.6289 4.0031 2.3977
3.4817 4.1302 2.3978
3.3300 4.2520 2.3979
3.1742 4.3684 2.3980
3.0144 4.4791 2.3980
2.8507 4.5841 2.3981
2.6835 4.6833 2.3982
2.5129 4.7764 2.3983
2.3391 4.8635 2.3983
0.8662 1.9806 0.9608
0.7944 2.0107 0.9609
0.7215 2.0382 0.9610
0.6477 2.0631 0.9611
0.5731 2.0853 0.9611
0.4977 2.1047 0.9612
0.4216 2.1215 0.9612
0.3449 2.1355 0.9612
0.2678 2.1467 0.9611
0.1904 2.1551 0.9610
0.1127 2.1608 0.9609
0.0348 2.1636 0.9608
-0.0431 2.1636 0.9607
-0.1210 2.1608 0.9605
-0.1987 2.1552 0.9603
-0.2762 2.1468 0.9601
-0.3533 2.1356 0.9598
-0.4300 2.1216 0.9596
-0.5061 2.1049 0.9593
-0.5816 2.0854 0.9589
-0.6563 2.0632 0.9586
-0.7301 2.0384 0.9582
-0.8030 2.0109 0.9578
-0.8749 1.9808 0.9574
-2.3704 4.8831 2.3989
-2.5458 4.7971 2.3988
-2.7181 4.7048 2.3988
-2.8871 4.6064 2.3988
-3.0525 4.5020 2.3987
-3.2142 4.3918 2.3987
-3.3720 4.2758 2.3987
-3.5256 4.1542 2.3986
-3.6748 4.0271 2.3986
-3.8195 3.8948 2.3985
-3.9595 3.7572 2.3984
-4.0945 3.6148 2.3984
-4.2244 3.4675 2.3983
-4.3491 3.3155 2.3982
-4.4683 3.1592 2.3982
-4.5819 2.9986 2.3981
-4.6897 2.8339 2.3980
-4.7916 2.6654 2.3979
-4.8875 2.4933 2.3979
-4.9772 2.3177 2.3978
-5.0606 2.1389 2.3977
-5.1376 1.9572 2.3976
-5.2080 1.7727 2.3975
-5.2718 1.5857 2.3974
-5.3289 1.3964 2.3973
-5.3792 1.2051 2.3972
-5.4225 1.0120 2.3971
-5.4590 0.8173 2.3970
-5.4883 0.6213 2.3969
-5.5107 0.4244 2.3968
-5.5259 0.2266 2.3967
-5.5340 0.0283 2.3966
-5.5349 -0.1703 2.3965
-5.5287 -0.3688 2.3964
-5.5152 -0.5671 2.3963
-5.4946 -0.7649 2.3962
-5.4669 -0.9619 2.3961
-5.4320 -1.1579 2.3960
-5.3900 -1.3526 2.3958
-5.3410 -1.5457 2.3957
-5.2850 -1.7370 2.3956
-5.2221 -1.9262 2.3955
-5.1523 -2.1131 2.3954
-5.0758 -2.2974 2.3953
-4.9926 -2.4789 2.3952
-4.9028 -2.6573 2.3951
-4.8065 -2.8324 2.3950
-4.7040 -3.0039 2.3949
-4.5952 -3.1717 2.3948
-4.4804 -3.3354 2.3947
-4.3596 -3.4950 2.3946
-4.2331 -3.6500 2.3945
-4.1010 -3.8004 2.3944
-3.9635 -3.9459 2.3943
-3.8235 -4.0893 2.3959
-3.6779 -4.2272 2.3974
-3.5231 -4.3548 2.3960
-3.3659 -4.4792 2.3960
-3.2041 -4.5978 2.3961
-3.0381 -4.7104 2.3961
-2.8680 -4.8169 2.3961
-2.6942 -4.9171 2.3961
-2.5168 -5.0110 2.3961
-2.3360 -5.0983 2.3961
-2.1522 -5.1789 2.3961
-1.9656 -5.2528 2.3961
-1.7764 -5.3198 2.3961
-1.5848 -5.3798 2.3961
-1.3913 -5.4328 2.3961
-1.1959 -5.4787 2.3961
-0.9989 -5.5175 2.3961
-0.8007 -5.5490 2.3961
-0.6016 -5.5732 2.3961
-0.4016 -5.5902 2.3961
-0.2013 -5.5998 2.3960
-0.0013 -5.2704 2.3959
0.1873 -5.2657 2.3959
0.3755 -5.2542 2.3959
0.5631 -5.2359 2.3958
0.7499 -5.2107 2.3958
0.9356 -5.1788 2.3958
1.1200 -5.1401 2.3957
1.3028 -5.0948 2.3957
1.4837 -5.0428 2.3957
1.6626 -4.9844 2.3956
1.8391 -4.9195 2.3956
2.0132 -4.8482 2.3955
2.1844 -4.7707 2.3955
2.3527 -4.6870 2.3954
2.5177 -4.5974 2.3954
2.6793 -4.5018 2.3953
2.8373 -4.4005 2.3953
2.9914 -4.2936 2.3952
3.1415 -4.1812 2.3952
3.2873 -4.0635 2.3951
3.4287 -3.9407 2.3951
3.5655 -3.8129 2.3950
3.6975 -3.6804 2.3949
3.8246 -3.5432 2.3949
3.9466 -3.4015 2.3948
4.0633 -3.2557 2.3948
4.1746 -3.1058 2.3947
4.2803 -2.9521 2.3946
4.3804 -2.7947 2.3946
4.4748 -2.6340 2.3945
4.5632 -2.4700 2.3944
4.6456 -2.3031 2.3944
4.7219 -2.1334 2.3943
4.7920 -1.9612 2.3942
4.8559 -1.7867 2.3942
4.9134 -1.6101 2.3941
4.9645 -1.4316 2.3940
5.0092 -1.2516 2.3940
5.0473 -1.0702 2.3939
5.0790 -0.8876 2.3939
5.1040 -0.7041 2.3938
5.1225 -0.5200 2.3937
5.1343 -0.3354 2.3937
5.1396 -0.1506 2.3936
5.1382 0.0342 2.3935
5.1303 0.2187 2.3935
5.1158 0.4027 2.3934
5.0947 0.5859 2.3934
5.0672 0.7682 2.3933
5.0331 0.9493 2.3932
4.9927 1.1290 2.3932
4.9460 1.3070 2.3931
4.8929 1.4832 2.3931
4.8337 1.6573 2.3930
4.7683 1.8291 2.3930
4.6970 1.9984 2.3929
4.6197 2.1650 2.3929
4.5365 2.3287 2.3928
4.4477 2.4892 2.3928
4.3532 2.6464 2.3928
4.2533 2.8002 2.3927
4.1480 2.9502 2.3927
4.0375 3.0964 2.3927
3.9234 3.2397 2.3935
3.8070 3.3813 2.3961
3.6837 3.5171 2.3975
3.5538 3.6465 2.3975
3.4194 3.7712 2.3976
3.2806 3.8910 2.3977
3.1377 4.0058 2.3978
2.9909 4.1155 2.3979
2.8403 4.2199 2.3979
2.6862 4.3189 2.3980
2.5286 4.4123 2.3981
2.3678 4.5001 2.3981
0.8818 1.8332 0.9595
0.8153 1.8640 0.9596
0.7477 1.8923 0.9597
0.6791 1.9182 0.9598
0.6096 1.9415 0.9599
0.5393 1.9624 0.9600
0.4683 1.9807 0.9600
0.3967 1.9965 0.9600
0.3246 2.0096 0.9600
0.2520 2.0202 0.9599
0.1791 2.0281 0.9599
0.1060 2.0334 0.9598
0.0327 2.0361 0.9597
-0.0407 2.0361 0.9595
-0.1140 2.0335 0.9594
-0.1871 2.0282 0.9592
-0.2600 2.0203 0.9590
-0.3326 2.0097 0.9587
-0.4048 1.9966 0.9585
-0.4764 1.9808 0.9582
-0.5475 1.9625 0.9579
-0.6178 1.9416 0.9576
-0.6873 1.9182 0.9572
-0.7559 1.8924 0.9569
-0.8236 1.8640 0.9565
-0.8902 1.8333 0.9561
-2.3985 4.5183 2.3987
-2.5608 4.4313 2.3986
-2.7199 4.3385 2.3986
-2.8757 4.2400 2.3986
-3.0280 4.1361 2.3985
-3.1765 4.0267 2.3985
-3.3211 3.9121 2.3985
-3.4616 3.7923 2.3984
-3.5977 3.6675 2.3984
-3.7295 3.5379 2.3983
-3.8565 3.4036 2.3982
-3.9788 3.2648 2.3982
-4.0960 3.1216 2.3981
-4.2082 2.9742 2.3980
-4.3150 2.8229 2.3980
-4.4164 2.6678 2.3979
-4.5123 2.5090 2.3978
-4.6024 2.3468 2.3978
-4.6867 2.1814 2.3977
-4.7651 2.0131 2.3976
-4.8374 1.8419 2.3975
-4.9036 1.6681 2.3974
-4.9635 1.4920 2.3973
-5.0171 1.3137 2.3972
-5.0642 1.1336 2.3972
-5.1049 0.9518 2.3971
-5.1390 0.7685 2.3970
-5.1665 0.5840 2.3969
-5.1874 0.3986 2.3968
-5.2015 0.2124 2.3967
-5.2090 0.0258 2.3966
-5.2097 -0.1611 2.3965
-5.2037 -0.3480 2.3964
-5.1909 -0.5346 2.3963
-5.1714 -0.7207 2.3962
-5.1451 -0.9061 2.3961
-5.1121 -1.0905 2.3960
-5.0725 -1.2737 2.3959
-5.0263 -1.4554 2.3958
-4.9734 -1.6353 2.3956
-4.9141 -1.8133 2.3955
-4.8483 -1.9891 2.3954
-4.7762 -2.1625 2.3953
-4.6978 -2.3332 2.3952
-4.6132 -2.5010 2.3951
-4.5226 -2.6657 2.3950
-4.4260 -2.8271 2.3949
-4.3236 -2.9848 2.3948
-4.2155 -3.1388 2.3948
-4.1018 -3.2888 2.3947
-3.9827 -3.4346 2.3946
-3.8584 -3.5761 2.3945
-3.7290 -3.7129 2.3944
-3.5968 -3.8473 2.3958
-3.4593 -3.9764 2.3968
-3.3143 -4.0971 2.3959
-3.1663 -4.2140 2.3959
-3.0142 -4.3255 2.3959
-2.8580 -4.4314 2.3960
-2.6980 -4.5315 2.3960
-2.5345 -4.6258 2.3960
-2.3676 -4.7140 2.3960
-2.1976 -4.7961 2.3960
-2.0247 -4.8720 2.3960
-1.8492 -4.9414 2.3960
-1.6712 -5.0045 2.3960
-1.4911 -5.0609 2.3960
-1.3090 -5.1108 2.3960
-1.1252 -5.1540 2.3960
-0.9400 -5.1905 2.3960
-0.7536 -5.2201 2.3960
-0.5663 -5.2430 2.3960
-0.3782 -5.2590 2.3959
-0.1898 -5.2681 2.3959
-0.0012 -5.2704 2.3959
0.1874 -5.2657 2.3959
0.3756 -5.2542 2.3959
0.5632 -5.2359 2.3958
0.7500 -5.2107 2.3958
0.9357 -5.1788 2.3958
1.1201 -5.1401 2.3957
1.3029 -5.0948 2.3957
1.4838 -5.0428 2.3957
1.6627 -4.9843 2.3956
1.8393 -4.9194 2.3956
2.0133 -4.8481 2.3955
2.1845 -4.7706 2.3955
2.3528 -4.6870 2.3954
2.5178 -4.5973 2.3954
2.6794 -4.5018 2.3953
2.8374 -4.4004 2.3953
2.9915 -4.2935 2.3952
3.1416 -4.1812 2.3952
3.2874 -4.0635 2.3951
3.4288 -3.9406 2.3951
3.5656 -3.8129 2.3950
3.6976 -3.6803 2.3949
3.8247 -3.5431 2.3949
3.9466 -3.4014 2.3948
4.0633 -3.2556 2.3948
4.1746 -3.1057 2.3947
4.2804 -2.9520 2.3946
4.3805 -2.7946 2.3946
4.4748 -2.6339 2.3945
4.5632 -2.4699 2.3944
4.6456 -2.3030 2.3944
4.7220 -2.1333 2.3943
4.7921 -1.9611 2.3942
4.8559 -1.7866 2.3942
4.9134 -1.6100 2.3941
4.9646 -1.4315 2.3940
5.0092 -1.2515 2.3940
5.0474 -1.0700 2.3939
5.0790 -0.8875 2.3939
5.1040 -0.7040 2.3938
5.1225 -0.5198 2.3937
5.1343 -0.3352 2.3937
5.1396 -0.1504 2.3936
5.1382 0.0343 2.3935
5.1303 0.2188 2.3935
5.1157 0.4028 2.3934
5.0947 0.5860 2.3934
5.0671 0.7683 2.3933
5.0331 0.9494 2.3932
4.9927 1.1291 2.3932
4.9459 1.3071 2.3931
4.8929 1.4833 2.3931
4.8337 1.6574 2.3930
4.7683 1.8292 2.3930
4.6969 1.9985 2.3929
4.6196 2.1651 2.3929
4.5365 2.3288 2.3928
4.4476 2.4893 2.3928
4.3531 2.6466 2.3928
4.2532 2.8003 2.3927
4.1479 2.9503 2.3927
4.0374 3.0965 2.3927
3.9233 3.2398 2.3935
3.8069 3.3814 2.3961
3.6837 3.5172 2.3975
3.5537 3.6466 2.3975
3.4193 3.7713 2.3976
3.2805 3.8911 2.3977
3.1377 4.0059 2.3978
2.9908 4.1156 2.3979
2.8402 4.2199 2.3979
2.6861 4.3189 2.3980
2.5285 4.4124 2.3981
2.3677 4.5002 2.3981
0.8818 1.8332 0.9595
0.8152 1.8640 0.9596
0.7476 1.8923 0.9597
0.6790 1.9182 0.9598
0.6096 1.9416 0.9599
0.5393 1.9624 0.9600
0.4683 1.9807 0.9600
0.3967 1.9965 0.9600
0.3246 2.0097 0.9600
0.2520 2.0202 0.9599
0.1791 2.0281 0.9599
0.1059 2.0334 0.9598
0.0326 2.0361 0.9597
-0.0407 2.0361 0.9595
-0.1140 2.0334 0.9594
-0.1872 2.0282 0.9592
-0.2601 2.0203 0.9590
-0.3327 2.0097 0.9587
-0.4048 1.9966 0.9585
-0.4765 1.9808 0.9582
-0.5475 1.9625 0.9579
-0.6178 1.9416 0.9576
-0.6874 1.9182 0.9572
-0.7560 1.8923 0.9569
-0.8236 1.8640 0.9565
-0.8902 1.8332 0.9561
-2.3987 4.5183 2.3987
-2.5609 4.4312 2.3986
-2.7200 4.3384 2.3986
-2.8758 4.2400 2.3986
-3.0281 4.1360 2.3985
-3.1766 4.0266 2.3985
-3.3212 3.9120 2.3985
-3.4617 3.7922 2.3984
-3.5978 3.6674 2.3984
-3.7295 3.5378 2.3983
-3.8566 3.4035 2.3982
-3.9788 3.2647 2.3982
-4.0961 3.1215 2.3981
-4.2082 2.9741 2.3980
-4.3151 2.8228 2.3980
-4.4165 2.6677 2.3979
-4.5123 2.5089 2.3978
-4.6025 2.3467 2.3978
-4.6868 2.1813 2.3977
-4.7651 2.0129 2.3976
-4.8375 1.8418 2.3975
-4.9036 1.6680 2.3974
-4.9635 1.4919 2.3973
-5.0171 1.3136 2.3972
-5.0643 1.1335 2.3972
-5.1049 0.9517 2.3971
-5.1390 0.7684 2.3970
-5.1665 0.5839 2.3969
-5.1874 0.3985 2.3968
-5.2016 0.2123 2.3967
-5.2090 0.0257 2.3966
-5.2097 -0.1612 2.3965
-5.2037 -0.3481 2.3964
-5.1909 -0.5347 2.3963
-5.1713 -0.7208 2.3962
-5.1451 -0.9062 2.3961
-5.1121 -1.0906 2.3960
-5.0725 -1.2738 2.3959
-5.0262 -1.4555 2.3958
-4.9734 -1.6354 2.3956
-4.9141 -1.8134 2.3955
-4.8483 -1.9893 2.3954
-4.7762 -2.1626 2.3953
-4.6978 -2.3333 2.3952
-4.6132 -2.5011 2.3951
-4.5225 -2.6658 2.3950
-4.4260 -2.8272 2.3949
-4.3235 -2.9849 2.3948
-4.2154 -3.1389 2.3948
-4.1017 -3.2889 2.3947
-3.9827 -3.4347 2.3946
-3.8583 -3.5761 2.3945
-3.7289 -3.7130 2.3944
-3.5967 -3.8474 2.3958
-3.4592 -3.9765 2.3968
-3.3142 -4.0971 2.3959
-3.1662 -4.2141 2.3959
-3.0141 -4.3256 2.3959
-2.8579 -4.4315 2.3960
-2.6979 -4.5316 2.3960
-2.5344 -4.6259 2.3960
-2.3675 -4.7141 2.3960
-2.1975 -4.7962 2.3960
-2.0246 -4.8720 2.3960
-1.8491 -4.9415 2.3960
-1.6711 -5.0045 2.3960
-1.4910 -5.0610 2.3960
-1.3089 -5.1108 2.3960
-1.1251 -5.1540 2.3960
-0.9399 -5.1905 2.3960
-0.7535 -5.2201 2.3960
-0.5661 -5.2430 2.3960
-0.3781 -5.2590 2.3959
-0.1897 -5.2681 2.3959
-0.0015 -4.9699 2.3958
0.1762 -4.9656 2.3958
0.3537 -4.9548 2.3958
0.5306 -4.9376 2.3957
0.7067 -4.9140 2.3957
0.8819 -4.8839 2.3957
1.0557 -4.8476 2.3956
1.2281 -4.8049 2.3956
1.3987 -4.7560 2.3956
1.5674 -4.7010 2.3955
1.7339 -4.6399 2.3955
1.8981 -4.5728 2.3955
2.0596 -4.4998 2.3954
2.2183 -4.4210 2.3954
2.3740 -4.3366 2.3953
2.5265 -4.2465 2.3953
2.6756 -4.1511 2.3952
2.8210 -4.0504 2.3952
2.9626 -3.9445 2.3951
3.1002 -3.8336 2.3951
3.2337 -3.7179 2.3950
3.3628 -3.5975 2.3950
3.4875 -3.4725 2.3949
3.6074 -3.3432 2.3948
3.7226 -3.2097 2.3948
3.8328 -3.0722 2.3947
3.9379 -2.9309 2.3947
4.0379 -2.7860 2.3946
4.1324 -2.6376 2.3945
4.2215 -2.4860 2.3945
4.3051 -2.3314 2.3944
4.3830 -2.1740 2.3944
4.4552 -2.0140 2.3943
4.5215 -1.8515 2.3942
4.5819 -1.6869 2.3942
4.6363 -1.5203 2.3941
4.6847 -1.3520 2.3941
4.7270 -1.1821 2.3940
4.7632 -1.0109 2.3939
4.7932 -0.8386 2.3939
4.8170 -0.6655 2.3938
4.8345 -0.4917 2.3938
4.8459 -0.3175 2.3937
4.8510 -0.1430 2.3936
4.8499 0.0314 2.3936
4.8425 0.2055 2.3935
4.8290 0.3792 2.3935
4.8092 0.5522 2.3934
4.7834 0.7243 2.3934
4.7514 0.8953 2.3933
4.7134 1.0650 2.3932
4.6694 1.2331 2.3932
4.6194 1.3995 2.3931
4.5636 1.5639 2.3931
4.5020 1.7262 2.3931
4.4347 1.8860 2.3930
4.3618 2.0434 2.3930
4.2834 2.1980 2.3929
4.1996 2.3496 2.3929
4.1105 2.4982 2.3928
4.0162 2.6434 2.3928
3.9169 2.7851 2.3928
3.8126 2.9232 2.3927
3.7058 3.0593 2.3942
3.5954 3.1927 2.3964
3.4784 3.3205 2.3974
3.3557 3.4427 2.3975
3.2288 3.5605 2.3975
3.0978 3.6737 2.3976
2.9629 3.7821 2.3977
2.8243 3.8857 2.3978
2.6821 3.9844 2.3978
2.5365 4.0779 2.3979
2.3877 4.1661 2.3980
0.8935 1.6980 0.9583
0.8318 1.7292 0.9584
0.7690 1.7582 0.9586
0.7053 1.7849 0.9587
0.6406 1.8093 0.9588
0.5750 1.8314 0.9589
0.5087 1.8510 0.9589
0.4417 1.8683 0.9589
0.3742 1.8832 0.9589
0.3061 1.8956 0.9589
0.2376 1.9055 0.9589
0.1689 1.9130 0.9588
