ply
format ascii 1.0
element vertex 2179
property float32 x
property float32 y
property float32 z
end_header
4.6963 -3.7633 2.3994
4.8248 -3.5906 2.3994
4.9468 -3.4134 2.3994
5.0621 -3.2320 2.3994
5.1706 -3.0466 2.3994
5.2723 -2.8574 2.3994
5.3668 -2.6648 2.3994
5.4543 -2.4690 2.3994
5.5344 -2.2703 2.3994
5.6072 -2.0689 2.3994
5.6725 -1.8651 2.3994
5.7303 -1.6593 2.3994
5.7806 -1.4517 2.3994
5.8232 -1.2425 2.3994
5.8582 -1.0321 2.3994
5.8855 -0.8207 2.3994
5.8815 -0.6063 2.3899
5.8616 -0.3926 2.3770
5.8414 -0.1814 2.3671
5.8208 0.0280 2.3602
5.7999 0.2360 2.3562
5.7785 0.4431 2.3550
5.7566 0.6498 2.3566
5.7342 0.8565 2.3611
5.7112 1.0638 2.3685
5.6875 1.2721 2.3787
5.6632 1.4819 2.3919
5.6176 1.6875 2.3994
5.5472 1.8860 2.3994
5.4698 2.0816 2.3994
5.3855 2.2741 2.3994
5.2945 2.4633 2.3994
5.1969 2.6490 2.3994
5.0928 2.8306 2.3994
4.9824 3.0088 2.3994
4.8658 3.1824 2.3994
4.7432 3.3516 2.3994
4.6148 3.5162 2.3994
4.4807 3.6765 2.3994
4.3413 3.8309 2.3994
4.1965 3.9805 2.3994
4.0466 4.1248 2.3994
3.8918 4.2636 2.3994
3.7324 4.3966 2.3994
3.5684 4.5239 2.3994
3.4002 4.6452 2.3994
3.2280 4.7604 2.3994
3.0519 4.8693 2.3994
2.8723 4.9719 2.3994
2.6892 5.0680 2.3994
2.5030 5.1576 2.3994
2.3139 5.2405 2.3994
0.8534 2.1381 0.9649
0.7759 2.1674 0.9656
0.6973 2.1940 0.9662
0.6178 2.2177 0.9668
0.5375 2.2385 0.9674
0.4564 2.2564 0.9679
0.3748 2.2714 0.9684
0.2927 2.2834 0.9689
0.2102 2.2925 0.9693
0.1274 2.2985 0.9697
0.0445 2.3016 0.9700
-0.0385 2.3017 0.9704
-0.1215 2.2988 0.9706
-0.2043 2.2929 0.9709
-0.2868 2.2840 0.9711
-0.3690 2.2721 0.9712
-0.4506 2.2573 0.9714
-0.5317 2.2395 0.9714
-0.6121 2.2189 0.9715
-0.6917 2.1953 0.9715
-0.7704 2.1689 0.9715
-0.8481 2.1396 0.9714
-2.2843 5.2066 2.3994
-2.4709 5.1215 2.3994
-2.6544 5.0300 2.3994
-2.8347 4.9320 2.3994
-3.0114 4.8278 2.3994
-3.1844 4.7175 2.3994
-3.3535 4.6011 2.3994
-3.5185 4.4788 2.3994
-3.6791 4.3508 2.3994
-3.8352 4.2172 2.3994
-3.9866 4.0782 2.3994
-4.1331 3.9339 2.3994
-4.2745 3.7844 2.3994
-4.4106 3.6300 2.3994
-4.5413 3.4708 2.3994
-4.6664 3.3071 2.3994
-4.7858 3.1390 2.3994
-4.8992 2.9666 2.3994
-5.0065 2.7903 2.3994
-5.1077 2.6102 2.3994
-5.2025 2.4265 2.3994
-5.2908 2.2395 2.3994
-5.3726 2.0493 2.3994
-5.4475 1.8561 2.3994
-5.5158 1.6605 2.3994
-5.5771 1.4623 2.3994
-5.6314 1.2618 2.3994
-5.6786 1.0595 2.3994
-5.7187 0.8554 2.3994
-5.7515 0.6498 2.3994
-5.7770 0.4430 2.3994
-5.7952 0.2353 2.3994
-5.8060 0.0267 2.3994
-5.8094 -0.1821 2.3994
-5.8053 -0.3911 2.3994
-5.7938 -0.6000 2.3994
-5.7748 -0.8087 2.3994
-5.7484 -1.0168 2.3994
-5.7145 -1.2240 2.3994
-5.6731 -1.4299 2.3994
-5.6244 -1.6346 2.3994
-5.5683 -1.8373 2.3994
-5.5050 -2.0383 2.3994
-5.4343 -2.2370 2.3994
-5.3565 -2.4333 2.3994
-5.2717 -2.6268 2.3994
-5.1798 -2.8173 2.3994
-5.0810 -3.0045 2.3994
-4.9754 -3.1883 2.3994
-4.8632 -3.3682 2.3994
-4.7444 -3.5442 2.3994
-4.6192 -3.7159 2.3994
-4.4878 -3.8831 2.3994
-4.3502 -4.0455 2.3994
-4.2068 -4.2030 2.3994
-4.0576 -4.3554 2.3994
-3.9028 -4.5023 2.3994
-3.7426 -4.6436 2.3994
-3.5773 -4.7791 2.3994
-3.4070 -4.9086 2.3994
-3.2320 -5.0318 2.3994
-3.0525 -5.1487 2.3994
-2.8686 -5.2591 2.3994
-2.6808 -5.3627 2.3994
-2.4891 -5.4594 2.3994
-2.2939 -5.5491 2.3994
-2.0954 -5.6317 2.3994
-1.8940 -5.7070 2.3994
-1.6897 -5.7748 2.3994
-1.4831 -5.8352 2.3994
-1.2742 -5.8880 2.3994
-1.0634 -5.9330 2.3994
-0.8510 -5.9704 2.3994
-0.6373 -5.9998 2.3994
-0.4226 -6.0215 2.3994
-0.2072 -6.0352 2.3994
0.0084 -5.6656 2.3994
0.2109 -5.6635 2.3994
0.4133 -5.6539 2.3994
0.6152 -5.6368 2.3994
0.8164 -5.6124 2.3994
1.0165 -5.5805 2.3994
1.2154 -5.5413 2.3994
1.4128 -5.4948 2.3994
1.6082 -5.4411 2.3994
1.8016 -5.3802 2.3994
1.9926 -5.3122 2.3994
2.1810 -5.2372 2.3994
2.3665 -5.1554 2.3994
2.5488 -5.0668 2.3994
2.7277 -4.9714 2.3994
2.9029 -4.8698 2.3994
3.0743 -4.7617 2.3994
3.2415 -4.6474 2.3994
3.4043 -4.5270 2.3994
3.5626 -4.4008 2.3994
3.7161 -4.2689 2.3994
3.8646 -4.1315 2.3994
4.0078 -3.9888 2.3994
4.1457 -3.8410 2.3994
4.2780 -3.6883 2.3994
4.4046 -3.5309 2.3994
4.5252 -3.3691 2.3994
4.6398 -3.2030 2.3994
4.7482 -3.0330 2.3994
4.8502 -2.8592 2.3994
4.9457 -2.6819 2.3994
5.0347 -2.5013 2.3994
5.1169 -2.3177 2.3994
5.1923 -2.1314 2.3994
5.2608 -1.9426 2.3994
5.3224 -1.7515 2.3994
5.3769 -1.5585 2.3994
5.4243 -1.3637 2.3994
5.4646 -1.1677 2.3994
5.4977 -0.9702 2.3994
5.5236 -0.7719 2.3994
5.5423 -0.5731 2.3994
5.5537 -0.3735 2.3994
5.5579 -0.1742 2.3994
5.5549 0.0251 2.3994
5.5447 0.2240 2.3994
5.5274 0.4222 2.3994
5.5029 0.6194 2.3994
5.4714 0.8155 2.3994
5.4328 1.0103 2.3994
5.3874 1.2030 2.3994
5.3350 1.3942 2.3994
5.2759 1.5830 2.3994
5.2101 1.7695 2.3994
5.1377 1.9532 2.3994
5.0589 2.1343 2.3994
4.9737 2.3121 2.3994
4.8823 2.4867 2.3994
4.7847 2.6577 2.3994
4.6813 2.8249 2.3994
4.5721 2.9877 2.3994
4.4571 3.1474 2.3994
4.3367 3.3023 2.3994
4.2110 3.4527 2.3994
4.0801 3.5983 2.3994
3.9442 3.7391 2.3994
3.8036 3.8749 2.3994
3.6583 4.0055 2.3994
3.5086 4.1308 2.3994
3.3547 4.2506 2.3994
3.1968 4.3648 2.3994
3.0350 4.4733 2.3994
2.8696 4.5759 2.3994
2.7008 4.6726 2.3994
2.5289 4.7631 2.3994
2.3539 4.8475 2.3994
0.8733 1.9765 0.9628
0.8015 2.0067 0.9635
0.7286 2.0342 0.9641
0.6549 2.0592 0.9647
0.5802 2.0814 0.9652
0.5048 2.1009 0.9658
0.4288 2.1177 0.9663
0.3521 2.1318 0.9667
0.2750 2.1431 0.9672
0.1976 2.1515 0.9676
0.1199 2.1572 0.9679
0.0420 2.1601 0.9683
-0.0359 2.1602 0.9686
-0.1138 2.1575 0.9688
-0.1915 2.1519 0.9690
-0.2690 2.1436 0.9692
-0.3461 2.1324 0.9694
-0.4228 2.1185 0.9695
-0.4989 2.1019 0.9696
-0.5744 2.0824 0.9696
-0.6491 2.0603 0.9696
-0.7230 2.0355 0.9696
-0.7960 2.0081 0.9695
-0.8679 1.9780 0.9694
-2.3235 4.8158 2.3994
-2.4961 4.7296 2.3994
-2.6656 4.6374 2.3994
-2.8318 4.5394 2.3994
-2.9944 4.4355 2.3994
-3.1534 4.3260 2.3994
-3.3085 4.2109 2.3994
-3.4595 4.0904 2.3994
-3.6063 3.9647 2.3994
-3.7486 3.8338 2.3994
-3.8862 3.6980 2.3994
-4.0191 3.5573 2.3994
-4.1470 3.4122 2.3994
-4.2698 3.2624 2.3994
-4.3873 3.1083 2.3994
-4.4993 2.9501 2.3994
-4.6058 2.7880 2.3994
-4.7066 2.6221 2.3994
-4.8015 2.4526 2.3994
-4.8904 2.2799 2.3994
-4.9733 2.1039 2.3994
-5.0499 1.9251 2.3994
-5.1202 1.7435 2.3994
-5.1841 1.5594 2.3994
-5.2415 1.3730 2.3994
-5.2923 1.1846 2.3994
-5.3364 0.9943 2.3994
-5.3738 0.8025 2.3994
-5.4043 0.6092 2.3994
-5.4280 0.4149 2.3994
-5.4448 0.2197 2.3994
-5.4547 0.0238 2.3994
-5.4576 -0.1724 2.3994
-5.4535 -0.3688 2.3994
-5.4423 -0.5651 2.3994
-5.4242 -0.7611 2.3994
-5.3990 -0.9565 2.3994
-5.3669 -1.1510 2.3994
-5.3278 -1.3444 2.3994
-5.2817 -1.5364 2.3994
-5.2287 -1.7269 2.3994
-5.1689 -1.9155 2.3994
-5.1023 -2.1019 2.3994
-5.0290 -2.2861 2.3994
-4.9490 -2.4676 2.3994
-4.8624 -2.6463 2.3994
-4.7694 -2.8220 2.3994
-4.6701 -2.9943 2.3994
-4.5644 -3.1630 2.3994
-4.4527 -3.3280 2.3994
-4.3350 -3.4890 2.3994
-4.2114 -3.6457 2.3994
-4.0821 -3.7980 2.3994
-3.9472 -3.9456 2.3994
-3.8070 -4.0883 2.3994
-3.6616 -4.2260 2.3994
-3.5111 -4.3583 2.3994
-3.3559 -4.4852 2.3994
-3.1959 -4.6065 2.3994
-3.0316 -4.7219 2.3994
-2.8630 -4.8314 2.3994
-2.6905 -4.9347 2.3994
-2.5142 -5.0316 2.3994
-2.3343 -5.1222 2.3994
-2.1511 -5.2061 2.3994
-1.9649 -5.2834 2.3994
-1.7759 -5.3538 2.3994
-1.5843 -5.4172 2.3994
-1.3904 -5.4737 2.3994
-1.1945 -5.5230 2.3994
-0.9968 -5.5651 2.3994
-0.7976 -5.5999 2.3994
-0.5972 -5.6274 2.3994
-0.3959 -5.6476 2.3994
-0.1939 -5.6603 2.3994
0.0085 -5.6656 2.3994
0.2110 -5.6635 2.3994
0.4134 -5.6539 2.3994
0.6153 -5.6368 2.3994
0.8165 -5.6123 2.3994
1.0167 -5.5805 2.3994
1.2156 -5.5413 2.3994
1.4129 -5.4948 2.3994
1.6084 -5.4410 2.3994
1.8018 -5.3801 2.3994
1.9928 -5.3122 2.3994
2.1811 -5.2371 2.3994
2.3666 -5.1553 2.3994
2.5489 -5.0667 2.3994
2.7278 -4.9714 2.3994
2.9030 -4.8697 2.3994
3.0744 -4.7616 2.3994
3.2416 -4.6473 2.3994
3.4045 -4.5269 2.3994
3.5627 -4.4007 2.3994
3.7162 -4.2688 2.3994
3.8647 -4.1314 2.3994
4.0079 -3.9887 2.3994
4.1458 -3.8409 2.3994
4.2781 -3.6882 2.3994
4.4047 -3.5308 2.3994
4.5253 -3.3690 2.3994
4.6399 -3.2029 2.3994
4.7483 -3.0329 2.3994
4.8503 -2.8591 2.3994
4.9458 -2.6818 2.3994
5.0347 -2.5012 2.3994
5.1169 -2.3177 2.3994
5.1923 -2.1313 2.3994
5.2609 -1.9424 2.3994
5.3224 -1.7514 2.3994
5.3769 -1.5584 2.3994
5.4243 -1.3635 2.3994
5.4646 -1.1675 2.3994
5.4977 -0.9700 2.3994
5.5236 -0.7718 2.3994
5.5423 -0.5728 2.3994
5.5537 -0.3737 2.3994
5.5579 -0.1740 2.3994
5.5549 0.0252 2.3994
5.5447 0.2241 2.3994
5.5274 0.4223 2.3994
5.5029 0.6196 2.3994
5.4713 0.8157 2.3994
5.4328 1.0103 2.3994
5.3873 1.2034 2.3994
5.3350 1.3943 2.3994
5.2759 1.5830 2.3994
5.2100 1.7697 2.3994
5.1376 1.9536 2.3994
5.0588 2.1344 2.3994
4.9736 2.3123 2.3994
4.8822 2.4868 2.3994
4.7847 2.6578 2.3994
4.6812 2.8250 2.3994
4.5720 2.9877 2.3994
4.4570 3.1475 2.3994
4.3366 3.3024 2.3994
4.2109 3.4527 2.3994
4.0800 3.5984 2.3994
3.9442 3.7392 2.3994
3.8035 3.8750 2.3994
3.6582 4.0056 2.3994
3.5085 4.1309 2.3994
3.3546 4.2507 2.3994
3.1967 4.3649 2.3994
3.0349 4.4734 2.3994
2.8695 4.5760 2.3994
2.7007 4.6726 2.3994
2.5287 4.7632 2.3994
2.3538 4.8476 2.3994
0.8732 1.9766 0.9628
0.8014 2.0067 0.9635
0.7286 2.0343 0.9641
0.6548 2.0592 0.9647
0.5802 2.0814 0.9652
0.5048 2.1009 0.9658
0.4287 2.1177 0.9663
0.3521 2.1318 0.9667
0.2750 2.1431 0.9672
0.1975 2.1516 0.9676
0.1198 2.1572 0.9679
0.0420 2.1601 0.9683
-0.0360 2.1602 0.9686
-0.1138 2.1575 0.9688
-0.1916 2.1519 0.9690
-0.2691 2.1436 0.9692
-0.3462 2.1324 0.9694
-0.4229 2.1185 0.9695
-0.4990 2.1018 0.9696
-0.5745 2.0824 0.9696
-0.6492 2.0603 0.9696
-0.7231 2.0355 0.9696
-0.7960 2.0081 0.9695
-0.8679 1.9780 0.9694
-2.3236 4.8157 2.3994
-2.4962 4.7296 2.3994
-2.6657 4.6374 2.3994
-2.8319 4.5393 2.3994
-2.9946 4.4354 2.3994
-3.1535 4.3259 2.3994
-3.3086 4.2108 2.3994
-3.4596 4.0904 2.3994
-3.6064 3.9646 2.3994
-3.7487 3.8338 2.3994
-3.8863 3.6979 2.3994
-4.0192 3.5572 2.3994
-4.1471 3.4120 2.3994
-4.2699 3.2623 2.3994
-4.3873 3.1082 2.3994
-4.4994 2.9500 2.3994
-4.6059 2.7878 2.3994
-4.7066 2.6220 2.3994
-4.8015 2.4525 2.3994
-4.8905 2.2798 2.3994
-4.9733 2.1038 2.3994
-5.0499 1.9250 2.3994
-5.1203 1.7434 2.3994
-5.1841 1.5593 2.3994
-5.2415 1.3729 2.3994
-5.2923 1.1845 2.3994
-5.3364 0.9942 2.3994
-5.3738 0.8024 2.3994
-5.4044 0.6091 2.3994
-5.4281 0.4148 2.3994
-5.4449 0.2196 2.3994
-5.4547 0.0237 2.3994
-5.4576 -0.1726 2.3994
-5.4535 -0.3690 2.3994
-5.4423 -0.5653 2.3994
-5.4242 -0.7612 2.3994
-5.3990 -0.9566 2.3994
-5.3669 -1.1511 2.3994
-5.3277 -1.3445 2.3994
-5.2817 -1.5365 2.3994
-5.2287 -1.7270 2.3994
-5.1689 -1.9156 2.3994
-5.1023 -2.1021 2.3994
-5.0289 -2.2862 2.3994
-4.9489 -2.4678 2.3994
-4.8624 -2.6465 2.3994
-4.7694 -2.8221 2.3994
-4.6700 -2.9944 2.3994
-4.5644 -3.1632 2.3994
-4.4526 -3.3281 2.3994
-4.3349 -3.4891 2.3994
-4.2113 -3.6458 2.3994
-4.0820 -3.7981 2.3994
-3.9471 -3.9457 2.3994
-3.8069 -4.0884 2.3994
-3.6615 -4.2260 2.3994
-3.5110 -4.3584 2.3994
-3.3558 -4.4853 2.3994
-3.1958 -4.6066 2.3994
-3.0315 -4.7220 2.3994
-2.8629 -4.8314 2.3994
-2.6904 -4.9347 2.3994
-2.5140 -5.0317 2.3994
-2.3342 -5.1222 2.3994
-2.1510 -5.2062 2.3994
-1.9648 -5.2834 2.3994
-1.7757 -5.3538 2.3994
-1.5842 -5.4173 2.3994
-1.3903 -5.4737 2.3994
-1.1944 -5.5230 2.3994
-0.9967 -5.5651 2.3994
-0.7975 -5.5999 2.3994
-0.5971 -5.6274 2.3994
-0.3958 -5.6476 2.3994
-0.1938 -5.6603 2.3994
0.0084 -5.3282 2.3994
0.1988 -5.3261 2.3994
0.3890 -5.3170 2.3994
0.5788 -5.3009 2.3994
0.7680 -5.2779 2.3994
0.9562 -5.2479 2.3994
1.1431 -5.2110 2.3994
1.3286 -5.1672 2.3994
1.5124 -5.1167 2.3994
1.6942 -5.0594 2.3994
1.8738 -4.9955 2.3994
2.0509 -4.9251 2.3994
2.2253 -4.8482 2.3994
2.3967 -4.7649 2.3994
2.5649 -4.6754 2.3994
2.7297 -4.5798 2.3994
2.8908 -4.4782 2.3994
3.0480 -4.3708 2.3994
3.2012 -4.2578 2.3994
3.3501 -4.1392 2.3994
3.4945 -4.0152 2.3994
3.6341 -3.8861 2.3994
3.7689 -3.7520 2.3994
3.8987 -3.6132 2.3994
4.0232 -3.4697 2.3994
4.1424 -3.3218 2.3994
4.2559 -3.1697 2.3994
4.3638 -3.0136 2.3994
4.4659 -2.8538 2.3994
4.5620 -2.6905 2.3994
4.6520 -2.5238 2.3994
4.7358 -2.3541 2.3994
4.8133 -2.1815 2.3994
4.8845 -2.0063 2.3994
4.9491 -1.8288 2.3994
5.0073 -1.6491 2.3994
5.0588 -1.4676 2.3994
5.1036 -1.2845 2.3994
5.1418 -1.0999 2.3994
5.1731 -0.9143 2.3994
5.1978 -0.7278 2.3994
5.2156 -0.5406 2.3994
5.2266 -0.3531 2.3994
5.2308 -0.1654 2.3994
5.2283 0.0221 2.3994
5.2190 0.2093 2.3994
5.2029 0.3957 2.3994
5.1801 0.5816 2.3994
5.1507 0.7662 2.3994
5.1147 0.9495 2.3994
5.0721 1.1312 2.3994
5.0231 1.3111 2.3994
4.9677 1.4890 2.3994
4.9060 1.6647 2.3994
4.8381 1.8378 2.3994
4.7641 2.0083 2.3994
4.6842 2.1759 2.3994
4.5983 2.3404 2.3994
4.5067 2.5015 2.3994
4.4095 2.6592 2.3994
4.3068 2.8132 2.3994
4.1988 2.9632 2.3994
4.0856 3.1093 2.3994
3.9673 3.2511 2.3994
3.8442 3.3884 2.3994
3.7164 3.5213 2.3994
3.5841 3.6494 2.3994
3.4473 3.7726 2.3994
3.3064 3.8908 2.3994
3.1616 4.0039 2.3994
3.0129 4.1117 2.3994
2.8605 4.2141 2.3994
2.7048 4.3109 2.3994
2.5458 4.4022 2.3994
2.3838 4.4877 2.3994
0.8887 1.8291 0.9609
0.8222 1.8599 0.9615
0.7546 1.8883 0.9622
0.6860 1.9142 0.9627
0.6166 1.9377 0.9633
0.5463 1.9586 0.9638
0.4753 1.9770 0.9643
0.4038 1.9928 0.9648
0.3316 2.0060 0.9652
0.2591 2.0166 0.9656
0.1862 2.0246 0.9660
0.1130 2.0299 0.9664
0.0397 2.0326 0.9667
-0.0336 2.0327 0.9670
-0.1069 2.0301 0.9672
-0.1801 2.0249 0.9674
-0.2530 2.0170 0.9676
-0.3256 2.0066 0.9677
-0.3978 1.9935 0.9678
-0.4694 1.9778 0.9679
-0.5405 1.9595 0.9679
-0.6108 1.9387 0.9680
-0.6804 1.9154 0.9679
-0.7490 1.8895 0.9679
-0.8167 1.8612 0.9678
-0.8833 1.8305 0.9676
-2.3530 4.4579 2.3994
-2.5128 4.3709 2.3994
-2.6694 4.2783 2.3994
-2.8228 4.1804 2.3994
-2.9726 4.0771 2.3994
-3.1188 3.9686 2.3994
-3.2611 3.8549 2.3994
-3.3994 3.7363 2.3994
-3.5334 3.6129 2.3994
-3.6631 3.4847 2.3994
-3.7883 3.3521 2.3994
-3.9088 3.2150 2.3994
-4.0244 3.0738 2.3994
-4.1350 2.9285 2.3994
-4.2405 2.7793 2.3994
-4.3407 2.6263 2.3994
-4.4356 2.4699 2.3994
-4.5249 2.3101 2.3994
-4.6085 2.1472 2.3994
-4.6864 1.9813 2.3994
-4.7584 1.8127 2.3994
-4.8245 1.6415 2.3994
-4.8845 1.4680 2.3994
-4.9384 1.2923 2.3994
-4.9860 1.1147 2.3994
-5.0274 0.9354 2.3994
-5.0623 0.7546 2.3994
-5.0909 0.5725 2.3994
-5.1130 0.3894 2.3994
-5.1286 0.2055 2.3994
-5.1376 0.0210 2.3994
-5.1401 -0.1639 2.3994
-5.1359 -0.3489 2.3994
-5.1252 -0.5337 2.3994
-5.1078 -0.7182 2.3994
-5.0839 -0.9022 2.3994
-5.0534 -1.0853 2.3994
-5.0163 -1.2673 2.3994
-4.9726 -1.4481 2.3994
-4.9225 -1.6273 2.3994
-4.8659 -1.8048 2.3994
-4.8029 -1.9803 2.3994
-4.7337 -2.1535 2.3994
-4.6581 -2.3243 2.3994
-4.5764 -2.4924 2.3994
-4.4886 -2.6576 2.3994
-4.3949 -2.8196 2.3994
-4.2952 -2.9783 2.3994
-4.1899 -3.1334 2.3994
-4.0789 -3.2847 2.3994
-3.9623 -3.4320 2.3994
-3.8405 -3.5751 2.3994
-3.7134 -3.7138 2.3994
-3.5813 -3.8479 2.3994
-3.4444 -3.9773 2.3994
-3.3027 -4.1016 2.3994
-3.1564 -4.2208 2.3994
-3.0059 -4.3347 2.3994
-2.8512 -4.4431 2.3994
-2.6925 -4.5459 2.3994
-2.5301 -4.6428 2.3994
-2.3642 -4.7339 2.3994
-2.1949 -4.8188 2.3994
-2.0226 -4.8976 2.3994
-1.8474 -4.9701 2.3994
-1.6695 -5.0361 2.3994
-1.4893 -5.0956 2.3994
-1.3070 -5.1485 2.3994
-1.1227 -5.1948 2.3994
-0.9368 -5.2342 2.3994
-0.7495 -5.2669 2.3994
-0.5611 -5.2926 2.3994
-0.3718 -5.3114 2.3994
-0.1818 -5.3233 2.3994
0.0085 -5.3282 2.3994
0.1989 -5.3261 2.3994
0.3891 -5.3170 2.3994
0.5790 -5.3009 2.3994
0.7681 -5.2778 2.3994
0.9563 -5.2478 2.3994
1.1432 -5.2109 2.3994
1.3287 -5.1672 2.3994
1.5125 -5.1167 2.3994
1.6943 -5.0594 2.3994
1.8739 -4.9955 2.3994
2.0510 -4.9250 2.3994
2.2254 -4.8482 2.3994
2.3968 -4.7649 2.3994
2.5650 -4.6754 2.3994
2.7298 -4.5798 2.3994
2.8909 -4.4782 2.3994
3.0481 -4.3708 2.3994
3.2013 -4.2577 2.3994
3.3502 -4.1391 2.3994
3.4946 -4.0152 2.3994
3.6342 -3.8861 2.3994
3.7690 -3.7520 2.3994
3.8988 -3.6131 2.3994
4.0233 -3.4696 2.3994
4.1424 -3.3217 2.3994
4.2560 -3.1696 2.3994
4.3639 -3.0135 2.3994
4.4659 -2.8537 2.3994
4.5620 -2.6904 2.3994
4.6520 -2.5237 2.3994
4.7359 -2.3540 2.3994
4.8134 -2.1814 2.3994
4.8845 -2.0062 2.3994
4.9492 -1.8287 2.3994
5.0073 -1.6490 2.3994
5.0588 -1.4675 2.3994
5.1036 -1.2843 2.3994
5.1418 -1.0998 2.3994
5.1732 -0.9142 2.3994
5.1978 -0.7276 2.3994
5.2156 -0.5405 2.3994
5.2266 -0.3530 2.3994
5.2308 -0.1653 2.3994
5.2283 0.0221 2.3994
5.2189 0.2094 2.3994
5.2029 0.3959 2.3994
5.1801 0.5817 2.3994
5.1507 0.7664 2.3994
5.1147 0.9496 2.3994
5.0721 1.1313 2.3994
5.0231 1.3112 2.3994
4.9677 1.4891 2.3994
4.9060 1.6648 2.3994
4.8381 1.8379 2.3994
4.7641 2.0084 2.3994
4.6841 2.1760 2.3994
4.5983 2.3405 2.3994
4.5067 2.5016 2.3994
4.4094 2.6593 2.3994
4.3068 2.8133 2.3994
4.1987 2.9633 2.3994
4.0855 3.1094 2.3994
3.9673 3.2511 2.3994
3.8441 3.3885 2.3994
3.7163 3.5213 2.3994
3.5840 3.6494 2.3994
3.4472 3.7727 2.3994
3.3063 3.8909 2.3994
3.1615 4.0039 2.3994
3.0128 4.1117 2.3994
2.8604 4.2141 2.3994
2.7047 4.3110 2.3994
2.5457 4.4022 2.3994
2.3837 4.4878 2.3994
0.8886 1.8292 0.9609
0.8221 1.8599 0.9615
0.7546 1.8883 0.9622
0.6860 1.9142 0.9627
0.6165 1.9377 0.9633
0.5463 1.9586 0.9638
0.4753 1.9770 0.9643
0.4037 1.9928 0.9648
0.3316 2.0060 0.9652
0.2590 2.0166 0.9656
0.1861 2.0246 0.9660
0.1130 2.0299 0.9664
0.0397 2.0326 0.9667
-0.0337 2.0327 0.9670
-0.1070 2.0301 0.9672
-0.1801 2.0249 0.9674
-0.2531 2.0170 0.9676
-0.3257 2.0065 0.9677
-0.3978 1.9935 0.9678
-0.4695 1.9778 0.9679
-0.5405 1.9595 0.9679
-0.6109 1.9387 0.9680
-0.6804 1.9153 0.9679
-0.7491 1.8895 0.9679
-0.8167 1.8612 0.9678
-0.8833 1.8305 0.9676
-2.3531 4.4578 2.3994
-2.5129 4.3709 2.3994
-2.6695 4.2783 2.3994
-2.8229 4.1804 2.3994
-2.9727 4.0771 2.3994
-3.1189 3.9685 2.3994
-3.2612 3.8549 2.3994
-3.3995 3.7362 2.3994
-3.5335 3.6128 2.3994
-3.6632 3.4847 2.3994
-3.7884 3.3520 2.3994
-3.9088 3.2148 2.3994
-4.0245 3.0737 2.3994
-4.1351 2.9284 2.3994
-4.2406 2.7792 2.3994
-4.3408 2.6262 2.3994
-4.4356 2.4698 2.3994
-4.5249 2.3100 2.3994
-4.6086 2.1471 2.3994
-4.6865 1.9812 2.3994
-4.7585 1.8126 2.3994
-4.8245 1.6414 2.3994
-4.8846 1.4679 2.3994
-4.9384 1.2922 2.3994
-4.9861 1.1146 2.3994
-5.0274 0.9353 2.3994
-5.0624 0.7545 2.3994
-5.0909 0.5724 2.3994
-5.1130 0.3893 2.3994
-5.1286 0.2054 2.3994
-5.1376 0.0209 2.3994
-5.1401 -0.1640 2.3994
-5.1359 -0.3490 2.3994
-5.1252 -0.5338 2.3994
-5.1078 -0.7184 2.3994
-5.0839 -0.9023 2.3994
-5.0533 -1.0854 2.3994
-5.0162 -1.2674 2.3994
-4.9726 -1.4482 2.3994
-4.9224 -1.6275 2.3994
-4.8659 -1.8049 2.3994
-4.8029 -1.9804 2.3994
-4.7336 -2.1536 2.3994
-4.6581 -2.3244 2.3994
-4.5764 -2.4925 2.3994
-4.4886 -2.6577 2.3994
-4.3948 -2.8197 2.3994
-4.2952 -2.9784 2.3994
-4.1898 -3.1335 2.3994
-4.0788 -3.2848 2.3994
-3.9623 -3.4321 2.3994
-3.8404 -3.5752 2.3994
-3.7134 -3.7139 2.3994
-3.5813 -3.8480 2.3994
-3.4443 -3.9773 2.3994
-3.3026 -4.1017 2.3994
-3.1563 -4.2209 2.3994
-3.0058 -4.3348 2.3994
-2.8511 -4.4432 2.3994
-2.6924 -4.5459 2.3994
-2.5300 -4.6429 2.3994
-2.3640 -4.7339 2.3994
-2.1948 -4.8189 2.3994
-2.0224 -4.8977 2.3994
-1.8472 -4.9701 2.3994
-1.6694 -5.0362 2.3994
-1.4892 -5.0957 2.3994
-1.3068 -5.1486 2.3994
-1.1226 -5.1948 2.3994
-0.9367 -5.2343 2.3994
-0.7494 -5.2669 2.3994
-0.5610 -5.2926 2.3994
-0.3716 -5.3114 2.3994
-0.1817 -5.3233 2.3994
0.0083 -5.0229 2.3994
0.1878 -5.0208 2.3994
0.3671 -5.0122 2.3994
0.5460 -4.9970 2.3994
0.7242 -4.9752 2.3994
0.9015 -4.9469 2.3994
1.0777 -4.9122 2.3994
1.2525 -4.8709 2.3994
1.4257 -4.8233 2.3994
1.5970 -4.7693 2.3994
1.7663 -4.7091 2.3994
1.9332 -4.6427 2.3994
2.0975 -4.5702 2.3994
2.2591 -4.4919 2.3994
2.4176 -4.4075 2.3994
2.5729 -4.3175 2.3994
2.7248 -4.2218 2.3994
2.8730 -4.1206 2.3994
3.0174 -4.0141 2.3994
3.1578 -3.9024 2.3994
3.2939 -3.7857 2.3994
3.4256 -3.6641 2.3994
3.5528 -3.5378 2.3994
3.6752 -3.4070 2.3994
3.7926 -3.2718 2.3994
3.9050 -3.1325 2.3994
4.0122 -2.9892 2.3994
4.1140 -2.8422 2.3994
4.2103 -2.6917 2.3994
4.3011 -2.5378 2.3994
4.3861 -2.3807 2.3994
4.4652 -2.2208 2.3994
4.5385 -2.0582 2.3994
4.6057 -1.8931 2.3994
4.6669 -1.7257 2.3994
4.7219 -1.5564 2.3994
4.7706 -1.3853 2.3994
4.8131 -1.2127 2.3994
4.8493 -1.0387 2.3994
4.8791 -0.8637 2.3994
4.9025 -0.6878 2.3994
4.9195 -0.5105 2.3994
4.9301 -0.3337 2.3994
4.9344 -0.1574 2.3994
4.9322 0.0195 2.3994
4.9236 0.1960 2.3994
4.9087 0.3720 2.3994
4.8874 0.5473 2.3994
4.8599 0.7215 2.3994
4.8262 0.8944 2.3994
4.7863 1.0659 2.3994
4.7401 1.2368 2.3994
4.6882 1.4037 2.3994
4.6302 1.5695 2.3994
4.5663 1.7330 2.3994
4.4967 1.8940 2.3994
4.4214 2.0522 2.3994
4.3406 2.2076 2.3994
4.2544 2.3598 2.3994
4.1628 2.5087 2.3994
4.0661 2.6542 2.3994
3.9643 2.7960 2.3994
3.8576 2.9340 2.3994
3.7461 3.0680 2.3994
3.6300 3.1978 2.3994
3.5095 3.3234 2.3994
3.3846 3.4445 2.3994
3.2557 3.5610 2.3994
3.1228 3.6728 2.3994
2.9861 3.7797 2.3994
2.8457 3.8816 2.3994
2.7020 3.9785 2.3994
2.5550 4.0701 2.3994
2.4050 4.1564 2.3994
0.9002 1.6939 0.9592
0.8386 1.7251 0.9598
0.7759 1.7542 0.9604
0.7121 1.7809 0.9610
0.6474 1.8054 0.9615
0.5819 1.8275 0.9620
0.5156 1.8472 0.9625
0.4486 1.8646 0.9630
0.3811 1.8795 0.9635
0.3130 1.8919 0.9639
0.2446 1.9019 0.9643
0.1758 1.9094 0.9646
0.1068 1.9145 0.9649
0.0377 1.9170 0.9652
-0.0315 1.9171 0.9655
-0.1007 1.9147 0.9657
-0.1697 1.9097 0.9659
-0.2385 1.9023 0.9661
-0.3070 1.8924 0.9662
-0.3751 1.8801 0.9663
-0.4427 1.8653 0.9664
-0.5097 1.8480 0.9664
-0.5761 1.8284 0.9664
-0.6417 1.8064 0.9664
-0.7064 1.7820 0.9663
-0.7703 1.7554 0.9663
-0.8331 1.7264 0.9661
-0.8949 1.6952 0.9660
-2.3737 4.1285 2.3994
-2.5217 4.0411 2.3994
-2.6666 3.9484 2.3994
-2.8082 3.8508 2.3994
-2.9462 3.7482 2.3994
-3.0806 3.6407 2.3994
-3.2112 3.5286 2.3994
-3.3378 3.4119 2.3994
-3.4602 3.2908 2.3994
-3.5784 3.1654 2.3994
-3.6921 3.0358 2.3994
-3.8013 2.9023 2.3994
-3.9057 2.7650 2.3994
-4.0052 2.6239 2.3994
-4.0998 2.4794 2.3994
-4.1892 2.3316 2.3994
-4.2734 2.1806 2.3994
-4.3523 2.0267 2.3994
-4.4257 1.8699 2.3994
-4.4936 1.7106 2.3994
-4.5558 1.5489 2.3994
-4.6123 1.3849 2.3994
-4.6630 1.2190 2.3994
-4.7078 1.0512 2.3994
-4.7466 0.8818 2.3994
-4.7795 0.7111 2.3994
-4.8062 0.5392 2.3994
-4.8269 0.3663 2.3994
-4.8414 0.1926 2.3994
-4.8497 0.0184 2.3994
-4.8518 -0.1561 2.3994
-4.8477 -0.3307 2.3994
-4.8373 -0.5052 2.3994
-4.8207 -0.6793 2.3994
-4.7979 -0.8529 2.3994
-4.7688 -1.0257 2.3994
-4.7336 -1.1974 2.3994
-4.6922 -1.3680 2.3994
-4.6447 -1.5370 2.3994
-4.5910 -1.7044 2.3994
-4.5314 -1.8699 2.3994
-4.4658 -2.0333 2.3994
-4.3943 -2.1943 2.3994
-4.3171 -2.3528 2.3994
-4.2340 -2.5085 2.3994
-4.1454 -2.6613 2.3994
-4.0512 -2.8108 2.3994
-3.9516 -2.9570 2.3994
-3.8467 -3.0996 2.3994
-3.7367 -3.2384 2.3994
-3.6216 -3.3732 2.3994
-3.5016 -3.5039 2.3994
-3.3769 -3.6302 2.3994
-3.2476 -3.7520 2.3994
-3.1138 -3.8691 2.3994
-2.9758 -3.9813 2.3994
-2.8337 -4.0886 2.3994
-2.6878 -4.1906 2.3994
-2.5381 -4.2873 2.3994
-2.3849 -4.3786 2.3994
-2.2283 -4.4643 2.3994
-2.0687 -4.5442 2.3994
-1.9062 -4.6183 2.3994
-1.7410 -4.6865 2.3994
-1.5733 -4.7486 2.3994
-1.4034 -4.8046 2.3994
-1.2315 -4.8543 2.3994
-1.0578 -4.8978 2.3994
-0.8825 -4.9348 2.3994
-0.7060 -4.9655 2.3994
-0.5283 -4.9896 2.3994
-0.3499 -5.0073 2.3994
-0.1709 -5.0184 2.3994
0.0085 -5.0229 2.3994
0.1879 -5.0208 2.3994
0.3672 -5.0122 2.3994
0.5461 -4.9970 2.3994
0.7243 -4.9752 2.3994
0.9016 -4.9469 2.3994
1.0778 -4.9121 2.3994
1.2526 -4.8709 2.3994
1.4258 -4.8232 2.3994
1.5972 -4.7693 2.3994
1.7664 -4.7091 2.3994
1.9333 -4.6427 2.3994
2.0976 -4.5702 2.3994
2.2592 -4.4918 2.3994
2.4177 -4.4074 2.3994
2.5730 -4.3173 2.3994
2.7249 -4.2217 2.3994
2.8731 -4.1206 2.3994
3.0175 -4.0141 2.3994
3.1579 -3.9024 2.3994
3.2940 -3.7856 2.3994
3.4257 -3.6640 2.3994
3.5529 -3.5377 2.3994
3.6752 -3.4069 2.3994
3.7927 -3.2717 2.3994
3.9051 -3.1324 2.3994
4.0122 -2.9892 2.3994
4.1141 -2.8421 2.3994
4.2104 -2.6916 2.3994
4.3011 -2.5377 2.3994
4.3861 -2.3806 2.3994
4.4653 -2.2207 2.3994
4.5385 -2.0581 2.3994
4.6058 -1.8930 2.3994
4.6669 -1.7256 2.3994
4.7219 -1.5563 2.3994
4.7707 -1.3852 2.3994
4.8131 -1.2125 2.3994
4.8493 -1.0386 2.3994
4.8791 -0.8635 2.3994
4.9025 -0.6877 2.3994
4.9194 -0.5098 2.3994
4.9302 -0.3343 2.3994
4.9344 -0.1573 2.3994
4.9322 0.0196 2.3994
4.9236 0.1962 2.3994
4.9087 0.3722 2.3994
4.8874 0.5474 2.3994
4.8599 0.7216 2.3994
4.8261 0.8945 2.3994
4.7862 1.0660 2.3994
4.7401 1.2368 2.3994
4.6881 1.4038 2.3994
4.6301 1.5696 2.3994
4.5663 1.7331 2.3994
4.4967 1.8941 2.3994
4.4214 2.0523 2.3994
4.3406 2.2077 2.3994
4.2543 2.3599 2.3994
4.1627 2.5088 2.3994
4.0660 2.6543 2.3994
3.9642 2.7961 2.3994
3.8575 2.9341 2.3994
3.7460 3.0681 2.3994
3.6299 3.1979 2.3994
3.5094 3.3235 2.3994
3.3846 3.4445 2.3994
3.2556 3.5611 2.3994
3.1227 3.6728 2.3994
2.9860 3.7797 2.3994
2.8456 3.8817 2.3994
2.7019 3.9785 2.3994
2.5549 4.0702 2.3994
2.4049 4.1565 2.3994
0.9002 1.6939 0.9592
0.8386 1.7252 0.9598
0.7758 1.7542 0.9604
0.7121 1.7810 0.9610
0.6474 1.8054 0.9615
0.5818 1.8275 0.9620
0.5156 1.8472 0.9625
0.4486 1.8646 0.9630
0.3810 1.8795 0.9635
0.3130 1.8919 0.9639
0.2445 1.9019 0.9643
0.1758 1.9095 0.9646
0.1068 1.9145 0.9649
0.0376 1.9170 0.9652
-0.0316 1.9171 0.9655
-0.1007 1.9147 0.9657
-0.1698 1.9097 0.9659
-0.2386 1.9023 0.9661
-0.3070 1.8924 0.9662
-0.3751 1.8801 0.9663
-0.4427 1.8653 0.9664
-0.5098 1.8480 0.9664
-0.5761 1.8284 0.9664
-0.6417 1.8064 0.9664
-0.7065 1.7820 0.9663
-0.7703 1.7553 0.9663
-0.8332 1.7264 0.9661
-0.8949 1.6952 0.9660
-2.3738 4.1285 2.3994
-2.5218 4.0411 2.3994
-2.6667 3.9483 2.3994
-2.8082 3.8507 2.3994
-2.9463 3.7481 2.3994
-3.0807 3.6407 2.3994
-3.2113 3.5285 2.3994
-3.3379 3.4118 2.3994
-3.4603 3.2907 2.3994
-3.5785 3.1653 2.3994
-3.6922 3.0358 2.3994
-3.8013 2.9022 2.3994
-3.9057 2.7649 2.3994
-4.0053 2.6239 2.3994
-4.0998 2.4793 2.3994
-4.1893 2.3315 2.3994
-4.2735 2.1805 2.3994
-4.3523 2.0266 2.3994
-4.4257 1.8698 2.3994
-4.4936 1.7105 2.3994
-4.5558 1.5487 2.3994
-4.6123 1.3848 2.3994
-4.6630 1.2189 2.3994
-4.7078 1.0511 2.3994
-4.7467 0.8817 2.3994
-4.7795 0.7110 2.3994
-4.8062 0.5391 2.3994
-4.8269 0.3662 2.3994
-4.8414 0.1925 2.3994
-4.8497 0.0183 2.3994
-4.8518 -0.1562 2.3994
-4.8477 -0.3308 2.3994
-4.8373 -0.5053 2.3994
-4.8207 -0.6794 2.3994
-4.7979 -0.8530 2.3994
-4.7688 -1.0258 2.3994
-4.7336 -1.1976 2.3994
-4.6922 -1.3681 2.3994
-4.6446 -1.5371 2.3994
-4.5910 -1.7045 2.3994
-4.5314 -1.8700 2.3994
-4.4658 -2.0334 2.3994
-4.3943 -2.1944 2.3994
-4.3170 -2.3529 2.3994
-4.2340 -2.5086 2.3994
-4.1453 -2.6614 2.3994
-4.0512 -2.8109 2.3994
-3.9516 -2.9571 2.3994
-3.8467 -3.0997 2.3994
-3.7366 -3.2385 2.3994
-3.6215 -3.3733 2.3994
-3.5015 -3.5039 2.3994
-3.3768 -3.6303 2.3994
-3.2475 -3.7521 2.3994
-3.1137 -3.8692 2.3994
-2.9757 -3.9814 2.3994
-2.8336 -4.0886 2.3994
-2.6877 -4.1907 2.3994
-2.5380 -4.2874 2.3994
-2.3848 -4.3786 2.3994
-2.2282 -4.4643 2.3994
-2.0686 -4.5443 2.3994
-1.9061 -4.6184 2.3994
-1.7409 -4.6865 2.3994
-1.5732 -4.7486 2.3994
-1.4033 -4.8046 2.3994
-1.2313 -4.8544 2.3994
-1.0576 -4.8978 2.3994
-0.8824 -4.9349 2.3994
-0.7058 -4.9655 2.3994
-0.5282 -4.9896 2.3994
-0.3498 -5.0073 2.3994
-0.1708 -5.0184 2.3994
0.0083 -4.7451 2.3994
0.1778 -4.7431 2.3994
0.3471 -4.7349 2.3994
0.5160 -4.7205 2.3994
0.6844 -4.6999 2.3994
0.8518 -4.6731 2.3994
1.0182 -4.6403 2.3994
1.1833 -4.6013 2.3994
1.3468 -4.5563 2.3994
1.5086 -4.5054 2.3994
1.6684 -4.4485 2.3994
1.8261 -4.3858 2.3994
1.9813 -4.3175 2.3994
2.1338 -4.2433 2.3994
2.2836 -4.1638 2.3994
2.4303 -4.0788 2.3994
2.5737 -3.9884 2.3994
2.7138 -3.8930 2.3994
2.8502 -3.7925 2.3994
2.9828 -3.6870 2.3994
3.1114 -3.5768 2.3994
3.2359 -3.4621 2.3994
3.3560 -3.3428 2.3994
3.4717 -3.2193 2.3994
3.5827 -3.0918 2.3994
3.6890 -2.9602 2.3994
3.7903 -2.8250 2.3994
3.8866 -2.6862 2.3994
3.9777 -2.5440 2.3994
4.0635 -2.3987 2.3994
4.1439 -2.2504 2.3994
4.2189 -2.0994 2.3994
4.2882 -1.9458 2.3994
4.3519 -1.7899 2.3994
4.4098 -1.6319 2.3994
4.4619 -1.4720 2.3994
4.5082 -1.3103 2.3994
4.5485 -1.1472 2.3994
4.5828 -0.9829 2.3994
4.6112 -0.8175 2.3994
4.6335 -0.6513 2.3994
4.6498 -0.4846 2.3994
4.6600 -0.3174 2.3994
4.6642 -0.1502 2.3994
4.6623 0.0170 2.3994
4.6544 0.1839 2.3994
4.6405 0.3503 2.3994
4.6206 0.5160 2.3994
4.5948 0.6807 2.3994
4.5631 0.8442 2.3994
4.5255 1.0064 2.3994
4.4822 1.1670 2.3994
4.4332 1.3259 2.3994
4.3785 1.4827 2.3994
4.3184 1.6374 2.3994
4.2527 1.7897 2.3994
4.1817 1.9394 2.3994
4.1055 2.0864 2.3994
4.0241 2.2305 2.3994
3.9376 2.3714 2.3994
3.8463 2.5091 2.3994
3.7501 2.6433 2.3994
3.6494 2.7740 2.3994
3.5441 2.9008 2.3994
3.4344 3.0238 2.3994
3.3205 3.1427 2.3994
3.2025 3.2574 2.3994
3.0806 3.3677 2.3994
2.9550 3.4736 2.3994
2.8257 3.5749 2.3994
2.6931 3.6714 2.3994
2.5572 3.7632 2.3994
2.4181 3.8501 2.3994
0.9084 1.5691 0.9576
0.8512 1.6008 0.9582
0.7929 1.6303 0.9588
0.7336 1.6578 0.9593
0.6733 1.6831 0.9599
0.6122 1.7062 0.9604
0.5502 1.7271 0.9609
0.4876 1.7457 0.9614
0.4243 1.7621 0.9618
0.3604 1.7762 0.9622
0.2961 1.7879 0.9626
0.2314 1.7974 0.9630
0.1664 1.8045 0.9633
0.1011 1.8092 0.9636
0.0358 1.8117 0.9639
-0.0296 1.8117 0.9642
-0.0950 1.8094 0.9644
-0.1603 1.8047 0.9646
-0.2253 1.7977 0.9647
-0.2900 1.7884 0.9649
-0.3544 1.7767 0.9649
-0.4183 1.7627 0.9650
-0.4817 1.7464 0.9650
-0.5444 1.7279 0.9651
-0.6064 1.7071 0.9650
-0.6676 1.6840 0.9650
-0.7280 1.6588 0.9649
-0.7874 1.6314 0.9648
-0.8458 1.6019 0.9646
-0.9030 1.5703 0.9644
-2.3867 3.8240 2.3994
-2.5238 3.7363 2.3994
-2.6578 3.6438 2.3994
-2.7884 3.5466 2.3994
-2.9156 3.4449 2.3994
-3.0392 3.3387 2.3994
-3.1589 3.2282 2.3994
-3.2748 3.1135 2.3994
-3.3866 2.9947 2.3994
-3.4941 2.8720 2.3994
-3.5973 2.7456 2.3994
-3.6960 2.6155 2.3994
-3.7902 2.4820 2.3994
-3.8795 2.3452 2.3994
-3.9641 2.2052 2.3994
-4.0436 2.0622 2.3994
-4.1182 1.9165 2.3994
-4.1875 1.7681 2.3994
-4.2516 1.6173 2.3994
-4.3103 1.4642 2.3994
-4.3636 1.3090 2.3994
-4.4114 1.1520 2.3994
-4.4537 0.9932 2.3994
-4.4902 0.8330 2.3994
-4.5211 0.6714 2.3994
-4.5463 0.5087 2.3994
-4.5656 0.3451 2.3994
-4.5792 0.1808 2.3994
-4.5868 0.0161 2.3994
-4.5886 -0.1490 2.3994
-4.5846 -0.3141 2.3994
-4.5746 -0.4791 2.3994
-4.5587 -0.6438 2.3994
-4.5369 -0.8079 2.3994
-4.5092 -0.9713 2.3994
-4.4757 -1.1337 2.3994
-4.4364 -1.2949 2.3994
-4.3912 -1.4547 2.3994
-4.3403 -1.6129 2.3994
-4.2838 -1.7693 2.3994
-4.2216 -1.9236 2.3994
-4.1538 -2.0758 2.3994
-4.0806 -2.2255 2.3994
-4.0019 -2.3726 2.3994
-3.9180 -2.5169 2.3994
-3.8288 -2.6582 2.3994
-3.7345 -2.7962 2.3994
-3.6352 -2.9308 2.3994
-3.5311 -3.0619 2.3994
-3.4222 -3.1892 2.3994
-3.3086 -3.3126 2.3994
-3.1906 -3.4318 2.3994
-3.0683 -3.5468 2.3994
-2.9418 -3.6573 2.3994
-2.8113 -3.7632 2.3994
-2.6770 -3.8644 2.3994
-2.5389 -3.9607 2.3994
-2.3974 -4.0519 2.3994
-2.2526 -4.1380 2.3994
-2.1047 -4.2188 2.3994
-1.9538 -4.2942 2.3994
-1.8002 -4.3641 2.3994
-1.6441 -4.4283 2.3994
-1.4857 -4.4869 2.3994
-1.3251 -4.5396 2.3994
-1.1627 -4.5865 2.3994
-0.9986 -4.6274 2.3994
-0.8331 -4.6623 2.3994
-0.6663 -4.6912 2.3994
-0.4986 -4.7139 2.3994
-0.3300 -4.7305 2.3994
-0.1609 -4.7409 2.3994
0.0084 -4.7451 2.3994
0.1779 -4.7431 2.3994
0.3472 -4.7349 2.3994
0.5162 -4.7205 2.3994
0.6845 -4.6999 2.3994
0.8519 -4.6731 2.3994
1.0183 -4.6402 2.3994
1.1834 -4.6013 2.3994
1.3469 -4.5563 2.3994
1.5087 -4.5053 2.3994
1.6686 -4.4485 2.3994
1.8262 -4.3858 2.3994
1.9814 -4.3174 2.3994
2.1339 -4.2433 2.3994
2.2837 -4.1638 2.3994
2.4304 -4.0788 2.3994
2.5738 -3.9883 2.3994
2.7139 -3.8929 2.3994
2.8503 -3.7924 2.3994
2.9829 -3.6870 2.3994
3.1115 -3.5768 2.3994
3.2360 -3.4620 2.3994
3.3561 -3.3428 2.3994
3.4718 -3.2193 2.3994
3.5828 -3.0917 2.3994
3.6890 -2.9602 2.3994
3.7904 -2.8249 2.3994
3.8866 -2.6861 2.3994
3.9777 -2.5439 2.3994
4.0636 -2.3986 2.3994
4.1440 -2.2503 2.3994
4.2189 -2.0993 2.3994
4.2883 -1.9457 2.3994
4.3519 -1.7898 2.3994
4.4098 -1.6318 2.3994
4.4620 -1.4719 2.3994
4.5082 -1.3102 2.3994
4.5485 -1.1471 2.3994
4.5828 -0.9828 2.3994
4.6112 -0.8174 2.3994
4.6335 -0.6512 2.3994
4.6498 -0.4845 2.3994
4.6600 -0.3173 2.3994
4.6642 -0.1501 2.3994
4.6623 0.0171 2.3994
4.6544 0.1840 2.3994
4.6405 0.3504 2.3994
4.6206 0.5161 2.3994
4.5948 0.6808 2.3994
4.5630 0.8443 2.3994
4.5255 1.0065 2.3994
4.4822 1.1671 2.3994
4.4332 1.3260 2.3994
4.3785 1.4828 2.3994
4.3183 1.6375 2.3994
4.2527 1.7898 2.3994
4.1817 1.9395 2.3994
4.1054 2.0865 2.3994
4.0240 2.2305 2.3994
3.9376 2.3715 2.3994
3.8462 2.5092 2.3994
3.7501 2.6434 2.3994
3.6493 2.7740 2.3994
3.5440 2.9009 2.3994
3.4343 3.0239 2.3994
3.3204 3.1427 2.3994
3.2025 3.2574 2.3994
3.0806 3.3678 2.3994
2.9549 3.4736 2.3994
2.8257 3.5749 2.3994
2.6930 3.6715 2.3994
2.5571 3.7633 2.3994
2.4180 3.8501 2.3994
0.9084 1.5692 0.9576
0.8512 1.6008 0.9582
0.7929 1.6303 0.9588
0.7336 1.6578 0.9593
0.6733 1.6831 0.9599
0.6122 1.7062 0.9604
0.5502 1.7271 0.9609
0.4875 1.7457 0.9614
0.4242 1.7621 0.9618
0.3604 1.7762 0.9622
0.2960 1.7879 0.9626
0.2313 1.7974 0.9630
0.1663 1.8045 0.9633
0.1011 1.8092 0.9636
0.0357 1.8117 0.9639
-0.0297 1.8117 0.9642
-0.0950 1.8094 0.9644
-0.1603 1.8047 0.9646
-0.2253 1.7977 0.9647
-0.2901 1.7884 0.9649
-0.3544 1.7767 0.9649
-0.4183 1.7627 0.9650
-0.4817 1.7464 0.9650
-0.5444 1.7278 0.9651
-0.6064 1.7070 0.9650
-0.6677 1.6840 0.9650
-0.7280 1.6588 0.9649
-0.7874 1.6314 0.9648
-0.8458 1.6019 0.9646
-0.9031 1.5703 0.9644
-2.3868 3.8240 2.3994
-2.5239 3.7363 2.3994
-2.6579 3.6437 2.3994
-2.7885 3.5466 2.3994
-2.9157 3.4448 2.3994
-3.0392 3.3386 2.3994
-3.1590 3.2281 2.3994
-3.2748 3.1134 2.3994
-3.3866 2.9946 2.3994
-3.4942 2.8720 2.3994
-3.5974 2.7455 2.3994
-3.6961 2.6154 2.3994
-3.7902 2.4819 2.3994
-3.8796 2.3451 2.3994
-3.9641 2.2051 2.3994
-4.0437 2.0622 2.3994
-4.1182 1.9164 2.3994
-4.1875 1.7680 2.3994
-4.2516 1.6172 2.3994
-4.3104 1.4641 2.3994
-4.3637 1.3089 2.3994
-4.4115 1.1519 2.3994
-4.4537 0.9931 2.3994
-4.4903 0.8328 2.3994
-4.5212 0.6713 2.3994
-4.5463 0.5086 2.3994
-4.5656 0.3450 2.3994
-4.5792 0.1807 2.3994
-4.5868 0.0160 2.3994
-4.5886 -0.1491 2.3994
-4.5845 -0.3142 2.3994
-4.5745 -0.4793 2.3994
-4.5587 -0.6439 2.3994
-4.5369 -0.8080 2.3994
-4.5092 -0.9714 2.3994
-4.4757 -1.1338 2.3994
-4.4363 -1.2950 2.3994
-4.3912 -1.4548 2.3994
-4.3403 -1.6130 2.3994
-4.2837 -1.7694 2.3994
-4.2215 -1.9237 2.3994
-4.1538 -2.0759 2.3994
-4.0805 -2.2256 2.3994
-4.0019 -2.3727 2.3994
-3.9179 -2.5170 2.3994
-3.8287 -2.6582 2.3994
-3.7344 -2.7963 2.3994
-3.6351 -2.9309 2.3994
-3.5310 -3.0620 2.3994
-3.4221 -3.1893 2.3994
-3.3085 -3.3126 2.3994
-3.1906 -3.4319 2.3994
-3.0682 -3.5468 2.3994
-2.9417 -3.6573 2.3994
-2.8112 -3.7633 2.3994
-2.6769 -3.8644 2.3994
-2.5389 -3.9607 2.3994
-2.3973 -4.0520 2.3994
-2.2525 -4.1380 2.3994
-2.1046 -4.2188 2.3994
-1.9537 -4.2942 2.3994
-1.8001 -4.3641 2.3994
-1.6440 -4.4283 2.3994
-1.4856 -4.4869 2.3994
-1.3250 -4.5397 2.3994
-1.1626 -4.5865 2.3994
-0.9985 -4.6275 2.3994
-0.8330 -4.6624 2.3994
-0.6662 -4.6912 2.3994
-0.4985 -4.7139 2.3994
-0.3299 -4.7305 2.3994
-0.1608 -4.7409 2.3994
0.0083 -4.4910 2.3994
0.1687 -4.4891 2.3994
0.3288 -4.4813 2.3994
0.4887 -4.4676 2.3994
0.6479 -4.4481 2.3994
0.8064 -4.4227 2.3994
0.9638 -4.3916 2.3994
1.1200 -4.3547 2.3994
1.2747 -4.3121 2.3994
1.4278 -4.2639 2.3994
1.5790 -4.2101 2.3994
1.7281 -4.1509 2.3994
1.8750 -4.0861 2.3994
2.0193 -4.0162 2.3994
2.1610 -3.9408 2.3994
2.2998 -3.8605 2.3994
2.4356 -3.7749 2.3994
2.5681 -3.6848 2.3994
2.6972 -3.5897 2.3994
2.8227 -3.4900 2.3994
2.9445 -3.3858 2.3994
3.0623 -3.2772 2.3994
3.1760 -3.1645 2.3994
3.2855 -3.0477 2.3994
3.3907 -2.9270 2.3994
3.4913 -2.8026 2.3994
3.5873 -2.6747 2.3994
3.6785 -2.5434 2.3994
3.7648 -2.4089 2.3994
3.8461 -2.2715 2.3994
3.9223 -2.1312 2.3994
3.9934 -1.9883 2.3994
4.0591 -1.8430 2.3994
4.1195 -1.6955 2.3994
4.1745 -1.5460 2.3994
4.2239 -1.3946 2.3994
4.2678 -1.2417 2.3994
4.3062 -1.0873 2.3994
4.3388 -0.9318 2.3994
4.3658 -0.7753 2.3994
4.3871 -0.6180 2.3994
4.4027 -0.4601 2.3994
4.4125 -0.3019 2.3994
4.4166 -0.1435 2.3994
4.4150 0.0148 2.3994
4.4077 0.1728 2.3994
4.3947 0.3304 2.3994
4.3761 0.4873 2.3994
4.3518 0.6433 2.3994
4.3219 0.7982 2.3994
4.2865 0.9519 2.3994
4.2457 1.1040 2.3994
4.1994 1.2545 2.3994
4.1478 1.4031 2.3994
4.0910 1.5497 2.3994
4.0290 1.6940 2.3994
3.9619 1.8359 2.3994
3.8898 1.9753 2.3994
3.8128 2.1118 2.3994
3.7311 2.2455 2.3994
3.6447 2.3760 2.3994
3.5537 2.5033 2.3994
3.4583 2.6271 2.3994
3.3587 2.7475 2.3994
3.2549 2.8641 2.3994
3.1471 2.9768 2.3994
3.0354 3.0856 2.3994
2.9200 3.1903 2.3994
2.8010 3.2908 2.3994
2.6786 3.3869 2.3994
2.5529 3.4785 2.3994
2.4242 3.5656 2.3994
0.9135 1.4536 0.9561
0.8604 1.4855 0.9567
0.8063 1.5155 0.9573
0.7511 1.5434 0.9578
0.6949 1.5694 0.9584
0.6378 1.5934 0.9589
0.5799 1.6152 0.9594
0.5212 1.6350 0.9599
0.4619 1.6527 0.9603
0.4020 1.6682 0.9607
0.3415 1.6815 0.9611
0.2806 1.6926 0.9615
0.2193 1.7016 0.9618
0.1577 1.7083 0.9621
0.0959 1.7128 0.9624
0.0340 1.7151 0.9627
-0.0279 1.7151 0.9629
-0.0898 1.7129 0.9631
-0.1516 1.7085 0.9633
-0.2132 1.7019 0.9635
-0.2745 1.6930 0.9636
-0.3354 1.6820 0.9637
-0.3960 1.6687 0.9637
-0.4560 1.6533 0.9638
-0.5154 1.6357 0.9638
-0.5741 1.6160 0.9638
-0.6321 1.5942 0.9637
-0.6892 1.5703 0.9636
-0.7455 1.5444 0.9635
-0.8007 1.5165 0.9634
-0.8550 1.4866 0.9632
-0.9081 1.4547 0.9630
-2.3926 3.5414 2.3994
-2.5196 3.4537 2.3994
-2.6435 3.3615 2.3994
-2.7640 3.2650 2.3994
-2.8811 3.1642 2.3994
-2.9946 3.0594 2.3994
-3.1044 2.9506 2.3994
-3.2103 2.8379 2.3994
-3.3122 2.7216 2.3994
-3.4100 2.6016 2.3994
-3.5035 2.4783 2.3994
-3.5926 2.3516 2.3994
-3.6773 2.2219 2.3994
-3.7573 2.0891 2.3994
-3.8326 1.9536 2.3994
-3.9032 1.8153 2.3994
-3.9688 1.6746 2.3994
-4.0294 1.5316 2.3994
-4.0850 1.3865 2.3994
-4.1354 1.2394 2.3994
-4.1805 1.0905 2.3994
-4.2204 0.9400 2.3994
-4.2549 0.7881 2.3994
-4.2841 0.6349 2.3994
-4.3077 0.4808 2.3994
-4.3259 0.3257 2.3994
-4.3386 0.1700 2.3994
-4.3457 0.0139 2.3994
-4.3472 -0.1425 2.3994
-4.3432 -0.2989 2.3994
-4.3336 -0.4553 2.3994
-4.3183 -0.6112 2.3994
-4.2975 -0.7667 2.3994
-4.2712 -0.9214 2.3994
-4.2392 -1.0752 2.3994
-4.2018 -1.2278 2.3994
-4.1589 -1.3792 2.3994
-4.1105 -1.5290 2.3994
-4.0568 -1.6770 2.3994
-3.9977 -1.8231 2.3994
-3.9334 -1.9672 2.3994
-3.8639 -2.1089 2.3994
-3.7892 -2.2481 2.3994
-3.7096 -2.3846 2.3994
-3.6250 -2.5183 2.3994
-3.5356 -2.6489 2.3994
-3.4414 -2.7763 2.3994
-3.3427 -2.9003 2.3994
-3.2395 -3.0207 2.3994
-3.1319 -3.1374 2.3994
-3.0201 -3.2501 2.3994
-2.9042 -3.3588 2.3994
-2.7843 -3.4633 2.3994
-2.6607 -3.5635 2.3994
-2.5334 -3.6591 2.3994
-2.4027 -3.7502 2.3994
-2.2687 -3.8364 2.3994
-2.1316 -3.9178 2.3994
-1.9915 -3.9941 2.3994
-1.8487 -4.0654 2.3994
-1.7033 -4.1314 2.3994
-1.5555 -4.1921 2.3994
-1.4055 -4.2474 2.3994
-1.2536 -4.2972 2.3994
-1.0998 -4.3415 2.3994
-0.9445 -4.3801 2.3994
-0.7879 -4.4131 2.3994
-0.6301 -4.4403 2.3994
-0.4713 -4.4617 2.3994
-0.3118 -4.4773 2.3994
-0.1519 -4.4871 2.3994
0.0084 -4.4910 2.3994
0.1688 -4.4891 2.3994
0.3290 -4.4813 2.3994
0.4888 -4.4676 2.3994
0.6480 -4.4481 2.3994
0.8065 -4.4227 2.3994
0.9639 -4.3916 2.3994
1.1201 -4.3547 2.3994
1.2748 -4.3121 2.3994
1.4279 -4.2639 2.3994
1.5791 -4.2101 2.3994
1.7282 -4.1508 2.3994
1.8751 -4.0862 2.3994
2.0194 -4.0161 2.3994
2.1611 -3.9408 2.3994
2.2999 -3.8604 2.3994
2.4357 -3.7749 2.3994
2.5682 -3.6847 2.3994
2.6973 -3.5896 2.3994
2.8228 -3.4899 2.3994
2.9446 -3.3857 2.3994
3.0624 -3.2772 2.3994
3.1761 -3.1644 2.3994
3.2856 -3.0476 2.3994
3.3907 -2.9269 2.3994
3.4914 -2.8025 2.3994
3.5873 -2.6746 2.3994
3.6785 -2.5433 2.3994
3.7648 -2.4088 2.3994
3.8462 -2.2714 2.3994
3.9224 -2.1311 2.3994
3.9934 -1.9882 2.3994
4.0592 -1.8429 2.3994
4.1196 -1.6954 2.3994
4.1745 -1.5459 2.3994
4.2240 -1.3945 2.3994
4.2679 -1.2416 2.3994
4.3062 -1.0872 2.3994
4.3388 -0.9317 2.3994
4.3658 -0.7752 2.3994
4.3871 -0.6179 2.3994
4.4027 -0.4600 2.3994
4.4125 -0.3018 2.3994
4.4166 -0.1434 2.3994
4.4150 0.0149 2.3994
4.4077 0.1729 2.3994
4.3947 0.3305 2.3994
4.3761 0.4874 2.3994
4.3518 0.6434 2.3994
4.3219 0.7983 2.3994
4.2865 0.9520 2.3994
4.2457 1.1041 2.3994
4.1994 1.2546 2.3994
4.1478 1.4032 2.3994
4.0910 1.5498 2.3994
4.0289 1.6941 2.3994
3.9618 1.8360 2.3994
3.8897 1.9753 2.3994
3.8128 2.1119 2.3994
3.7310 2.2455 2.3994
3.6446 2.3761 2.3994
3.5536 2.5034 2.3994
3.4583 2.6272 2.3994
3.3586 2.7475 2.3994
3.2548 2.8641 2.3994
3.1470 2.9769 2.3994
3.0353 3.0857 2.3994
2.9199 3.1904 2.3994
2.8009 3.2908 2.3994
2.6785 3.3869 2.3994
2.5528 3.4786 2.3994
2.4241 3.5657 2.3994
0.9134 1.4536 0.9561
0.8604 1.4855 0.9567
0.8063 1.5155 0.9573
0.7511 1.5435 0.9578
0.6949 1.5694 0.9584
0.6378 1.5934 0.9589
0.5799 1.6152 0.9594
0.5212 1.6350 0.9599
0.4619 1.6527 0.9603
0.4019 1.6682 0.9607
0.3414 1.6815 0.9611
0.2805 1.6926 0.9615
0.2192 1.7016 0.9618
0.1577 1.7083 0.9621
0.0959 1.7128 0.9624
0.0340 1.7151 0.9627
-0.0279 1.7151 0.9629
-0.0898 1.7129 0.9631
-0.1516 1.7085 0.9633
-0.2132 1.7019 0.9635
-0.2745 1.6930 0.9636
-0.3355 1.6820 0.9637
-0.3960 1.6687 0.9637
-0.4560 1.6533 0.9638
-0.5154 1.6357 0.9638
-0.5741 1.6160 0.9638
-0.6321 1.5942 0.9637
-0.6892 1.5703 0.9636
-0.7455 1.5444 0.9635
-0.8008 1.5165 0.9634
-0.8550 1.4866 0.9632
-0.9081 1.4547 0.9630
-2.3927 3.5414 2.3994
-2.5197 3.4536 2.3994
-2.6435 3.3615 2.3994
-2.7641 3.2649 2.3994
-2.8812 3.1641 2.3994
-2.9947 3.0593 2.3994
-3.1045 2.9505 2.3994
-3.2104 2.8379 2.3994
-3.3123 2.7215 2.3994
-3.4100 2.6016 2.3994
-3.5036 2.4782 2.3994
-3.5927 2.3515 2.3994
-3.6773 2.2218 2.3994
-3.7574 2.0890 2.3994
-3.8327 1.9535 2.3994
-3.9032 1.8153 2.3994
-3.9688 1.6746 2.3994
-4.0295 1.5315 2.3994
-4.0850 1.3864 2.3994
-4.1354 1.2393 2.3994
-4.1806 1.0904 2.3994
-4.2204 0.9399 2.3994
-4.2550 0.7880 2.3994
-4.2841 0.6348 2.3994
-4.3078 0.4807 2.3994
-4.3259 0.3256 2.3994
-4.3386 0.1700 2.3994
-4.3457 0.0138 2.3994
-4.3472 -0.1426 2.3994
-4.3432 -0.2990 2.3994
-4.3336 -0.4554 2.3994
-4.3183 -0.6113 2.3994
-4.2975 -0.7668 2.3994
-4.2711 -0.9215 2.3994
-4.2392 -1.0753 2.3994
-4.2018 -1.2279 2.3994
-4.1589 -1.3793 2.3994
-4.1105 -1.5290 2.3994
-4.0568 -1.6771 2.3994
-3.9977 -1.8232 2.3994
-3.9333 -1.9673 2.3994
-3.8638 -2.1090 2.3994
-3.7892 -2.2482 2.3994
-3.7095 -2.3847 2.3994
-3.6249 -2.5184 2.3994
-3.5355 -2.6490 2.3994
-3.4414 -2.7764 2.3994
-3.3426 -2.9004 2.3994
-3.2394 -3.0208 2.3994
-3.1318 -3.1374 2.3994
-3.0200 -3.2502 2.3994
-2.9041 -3.3589 2.3994
-2.7842 -3.4634 2.3994
-2.6606 -3.5635 2.3994
-2.5334 -3.6592 2.3994
-2.4026 -3.7502 2.3994
-2.2686 -3.8365 2.3994
-2.1315 -3.9178 2.3994
-1.9914 -3.9942 2.3994
-1.8486 -4.0654 2.3994
-1.7032 -4.1314 2.3994
-1.5554 -4.1922 2.3994
-1.4054 -4.2474 2.3994
-1.2535 -4.2973 2.3994
-1.0997 -4.3415 2.3994
-0.9444 -4.3801 2.3994
-0.7878 -4.4131 2.3994
-0.6300 -4.4403 2.3994
-0.4712 -4.4617 2.3994
-0.3117 -4.4773 2.3994
-0.1518 -4.4871 2.3994
0.0083 -4.2575 2.3994
0.1603 -4.2556 2.3994
0.3121 -4.2481 2.3994
0.4635 -4.2352 2.3994
0.6144 -4.2166 2.3994
0.7646 -4.1926 2.3994
0.9138 -4.1631 2.3994
1.0618 -4.1281 2.3994
1.2084 -4.0878 2.3994
1.3535 -4.0421 2.3994
1.4968 -3.9911 2.3994
1.6381 -3.9349 2.3994
1.7773 -3.8736 2.3994
1.9141 -3.8073 2.3994
2.0484 -3.7360 2.3994
2.1799 -3.6598 2.3994
2.3086 -3.5789 2.3994
2.4343 -3.4934 2.3994
2.5566 -3.4033 2.3994
2.6756 -3.3089 2.3994
2.7910 -3.2102 2.3994
2.9027 -3.1073 2.3994
3.0106 -3.0005 2.3994
3.1144 -2.8899 2.3994
3.2141 -2.7755 2.3994
3.3096 -2.6577 2.3994
3.4006 -2.5365 2.3994
3.4871 -2.4121 2.3994
3.5690 -2.2847 2.3994
3.6462 -2.1545 2.3994
3.7186 -2.0215 2.3994
3.7860 -1.8862 2.3994
3.8484 -1.7485 2.3994
3.9058 -1.6087 2.3994
3.9580 -1.4670 2.3994
4.0050 -1.3235 2.3994
4.0468 -1.1785 2.3994
4.0832 -1.0322 2.3994
4.1143 -0.8848 2.3994
4.1401 -0.7364 2.3994
4.1604 -0.5873 2.3994
4.1753 -0.4376 2.3994
4.1848 -0.2876 2.3994
4.1888 -0.1374 2.3994
4.1875 0.0128 2.3994
4.1807 0.1626 2.3994
4.1685 0.3121 2.3994
4.1509 0.4609 2.3994
4.1281 0.6089 2.3994
4.0999 0.7559 2.3994
4.0665 0.9016 2.3994
4.0279 1.0460 2.3994
3.9841 1.1888 2.3994
3.9353 1.3298 2.3994
3.8816 1.4689 2.3994
3.8229 1.6059 2.3994
3.7593 1.7406 2.3994
3.6911 1.8729 2.3994
3.6182 2.0025 2.3994
3.5407 2.1294 2.3994
3.4589 2.2533 2.3994
3.3727 2.3742 2.3994
3.2823 2.4918 2.3994
3.1878 2.6061 2.3994
3.0894 2.7168 2.3994
2.9872 2.8240 2.3994
2.8813 2.9273 2.3994
2.7719 3.0268 2.3994
2.6590 3.1222 2.3994
2.5429 3.2135 2.3994
2.4237 3.3006 2.3994
0.9158 1.3462 0.9547
0.8666 1.3783 0.9553
0.8163 1.4085 0.9559
0.7649 1.4369 0.9564
0.7126 1.4634 0.9570
0.6593 1.4881 0.9575
0.6051 1.5108 0.9580
0.5502 1.5315 0.9584
0.4946 1.5503 0.9589
0.4383 1.5670 0.9593
0.3814 1.5817 0.9597
0.3240 1.5943 0.9601
0.2663 1.6049 0.9604
0.2081 1.6134 0.9608
0.1497 1.6197 0.9611
0.0912 1.6240 0.9613
0.0324 1.6262 0.9616
-0.0263 1.6262 0.9618
-0.0850 1.6241 0.9620
-0.1436 1.6200 0.9622
-0.2020 1.6137 0.9623
-0.2602 1.6053 0.9624
-0.3180 1.5948 0.9625
-0.3754 1.5822 0.9626
-0.4323 1.5676 0.9626
-0.4886 1.5509 0.9626
-0.5443 1.5322 0.9626
-0.5993 1.5115 0.9625
-0.6535 1.4889 0.9625
-0.7069 1.4643 0.9624
-0.7593 1.4378 0.9622
-0.8108 1.4095 0.9621
-0.8611 1.3793 0.9619
-0.9104 1.3473 0.9617
-2.3921 3.2782 2.3994
-2.5097 3.1906 2.3994
-2.6241 3.0989 2.3994
-2.7353 3.0032 2.3994
-2.8430 2.9036 2.3994
-2.9472 2.8003 2.3994
-3.0477 2.6933 2.3994
-3.1444 2.5827 2.3994
-3.2372 2.4688 2.3994
-3.3259 2.3517 2.3994
-3.4104 2.2314 2.3994
-3.4907 2.1081 2.3994
-3.5666 1.9820 2.3994
-3.6380 1.8533 2.3994
-3.7049 1.7221 2.3994
-3.7671 1.5884 2.3994
-3.8245 1.4526 2.3994
-3.8771 1.3148 2.3994
-3.9249 1.1751 2.3994
-3.9676 1.0338 2.3994
-4.0054 0.8909 2.3994
-4.0380 0.7467 2.3994
-4.0655 0.6013 2.3994
-4.0879 0.4550 2.3994
-4.1050 0.3079 2.3994
-4.1169 0.1601 2.3994
-4.1235 0.0119 2.3994
-4.1248 -0.1365 2.3994
-4.1208 -0.2849 2.3994
-4.1115 -0.4332 2.3994
-4.0969 -0.5812 2.3994
-4.0771 -0.7286 2.3994
-4.0519 -0.8755 2.3994
-4.0214 -1.0213 2.3994
-3.9858 -1.1661 2.3994
-3.9449 -1.3096 2.3994
-3.8989 -1.4517 2.3994
-3.8478 -1.5921 2.3994
-3.7916 -1.7306 2.3994
-3.7304 -1.8672 2.3994
-3.6644 -2.0015 2.3994
-3.5935 -2.1335 2.3994
-3.5178 -2.2629 2.3994
-3.4374 -2.3896 2.3994
-3.3525 -2.5133 2.3994
-3.2631 -2.6341 2.3994
-3.1694 -2.7515 2.3994
-3.0714 -2.8656 2.3994
-2.9693 -2.9762 2.3994
-2.8631 -3.0830 2.3994
-2.7532 -3.1860 2.3994
-2.6394 -3.2849 2.3994
-2.5222 -3.3798 2.3994
-2.4014 -3.4704 2.3994
-2.2774 -3.5565 2.3994
-2.1503 -3.6382 2.3994
-2.0203 -3.7152 2.3994
-1.8874 -3.7875 2.3994
-1.7520 -3.8550 2.3994
-1.6141 -3.9174 2.3994
-1.4740 -3.9749 2.3994
-1.3318 -4.0272 2.3994
-1.1877 -4.0744 2.3994
-1.0420 -4.1162 2.3994
-0.8948 -4.1528 2.3994
-0.7463 -4.1839 2.3994
-0.5967 -4.2096 2.3994
-0.4463 -4.2299 2.3994
-0.2951 -4.2446 2.3994
-0.1435 -4.2538 2.3994
0.0084 -4.2575 2.3994
0.1603 -4.2556 2.3994
0.3122 -4.2481 2.3994
0.4636 -4.2351 2.3994
0.6145 -4.2166 2.3994
0.7647 -4.1926 2.3994
0.9139 -4.1630 2.3994
1.0619 -4.1281 2.3994
1.2085 -4.0877 2.3994
1.3536 -4.0420 2.3994
1.4969 -3.9911 2.3994
1.6382 -3.9349 2.3994
1.7773 -3.8736 2.3994
1.9142 -3.8072 2.3994
2.0485 -3.7360 2.3994
2.1800 -3.6598 2.3994
2.3087 -3.5789 2.3994
2.4343 -3.4933 2.3994
2.5567 -3.4033 2.3994
2.6757 -3.3088 2.3994
2.7911 -3.2101 2.3994
2.9028 -3.1073 2.3994
3.0107 -3.0004 2.3994
3.1145 -2.8898 2.3994
3.2142 -2.7755 2.3994
3.3096 -2.6576 2.3994
3.4007 -2.5364 2.3994
3.4872 -2.4120 2.3994
3.5691 -2.2846 2.3994
3.6463 -2.1544 2.3994
3.7186 -2.0215 2.3994
3.7860 -1.8861 2.3994
3.8485 -1.7484 2.3994
3.9058 -1.6086 2.3994
3.9581 -1.4669 2.3994
4.0051 -1.3234 2.3994
4.0468 -1.1785 2.3994
4.0833 -1.0321 2.3994
4.1144 -0.8847 2.3994
4.1401 -0.7363 2.3994
4.1604 -0.5872 2.3994
4.1753 -0.4375 2.3994
4.1848 -0.2875 2.3994
4.1888 -0.1373 2.3994
4.1875 0.0129 2.3994
4.1807 0.1627 2.3994
4.1685 0.3122 2.3994
4.1509 0.4610 2.3994
4.1281 0.6090 2.3994
4.0999 0.7559 2.3994
4.0665 0.9017 2.3994
4.0279 1.0461 2.3994
3.9841 1.1889 2.3994
3.9353 1.3299 2.3994
3.8815 1.4690 2.3994
3.8228 1.6060 2.3994
3.7593 1.7407 2.3994
3.6910 1.8730 2.3994
3.6181 2.0026 2.3994
3.5407 2.1295 2.3994
3.4588 2.2534 2.3994
3.3726 2.3743 2.3994
3.2822 2.4919 2.3994
3.1878 2.6062 2.3994
3.0894 2.7169 2.3994
2.9871 2.8240 2.3994
2.8812 2.9274 2.3994
2.7718 3.0268 2.3994
2.6589 3.1223 2.3994
2.5428 3.2136 2.3994
2.4236 3.3007 2.3994
0.9158 1.3463 0.9547
0.8666 1.3783 0.9553
0.8163 1.4085 0.9559
0.7649 1.4369 0.9564
0.7125 1.4634 0.9570
0.6592 1.4881 0.9575
0.6051 1.5108 0.9580
0.5502 1.5315 0.9584
0.4945 1.5503 0.9589
0.4382 1.5670 0.9593
0.3814 1.5817 0.9597
0.3240 1.5943 0.9601
0.2662 1.6049 0.9604
0.2081 1.6134 0.9608
0.1497 1.6198 0.9611
0.0911 1.6240 0.9613
0.0324 1.6262 0.9616
-0.0263 1.6262 0.9618
-0.0851 1.6241 0.9620
-0.1437 1.6199 0.9622
-0.2021 1.6136 0.9623
-0.2602 1.6052 0.9624
-0.3180 1.5948 0.9625
-0.3754 1.5822 0.9626
-0.4323 1.5676 0.9626
-0.4887 1.5509 0.9626
-0.5444 1.5322 0.9626
-0.5994 1.5115 0.9625
-0.6536 1.4889 0.9625
-0.7069 1.4643 0.9624
-0.7593 1.4378 0.9622
-0.8108 1.4094 0.9621
-0.8612 1.3792 0.9619
