ply
format ascii 1.0
element vertex 2173
property float32 x
property float32 y
property float32 z
end_header
-0.9635 2.7008 0.8943
-2.8459 7.1599 2.3855
-3.1214 7.1050 2.3855
-3.3965 7.0394 2.3855
-3.6706 6.9631 2.3855
-3.9432 6.8761 2.3855
-4.2139 6.7781 2.3855
-4.4823 6.6692 2.3855
-4.7477 6.5493 2.3855
-5.2645 5.5274 2.3855
-5.4873 5.3675 2.3855
-5.7046 5.1981 2.3855
-5.9157 5.0193 2.3855
-6.1202 4.8314 2.3855
-6.3178 4.6345 2.3855
-6.5078 4.4291 2.3855
-6.6898 4.2152 2.3855
-6.8635 3.9933 2.3855
-7.0283 3.7635 2.3855
-7.1838 3.5265 2.3855
-7.3296 3.2825 2.3855
-7.4654 3.0319 2.3855
-7.5907 2.7753 2.3855
-7.7053 2.5129 2.3855
-7.8088 2.2454 2.3855
-7.9009 1.9733 2.3855
-7.9814 1.6970 2.3855
-8.0500 1.4171 2.3855
-8.1066 1.1343 2.3855
-8.1510 0.8490 2.3855
-8.1830 0.5618 2.3855
-8.2025 0.2734 2.3855
-8.2095 -0.0158 2.3855
-8.2040 -0.3049 2.3855
-8.1860 -0.5936 2.3855
-8.1555 -0.8810 2.3855
-8.1126 -1.1668 2.3855
-8.0574 -1.4503 2.3855
-7.9900 -1.7308 2.3855
-7.9108 -2.0079 2.3855
-7.8198 -2.2809 2.3855
-7.7173 -2.5494 2.3855
-7.6037 -2.8128 2.3855
-7.4791 -3.0707 2.3855
-7.3441 -3.3225 2.3855
-7.1988 -3.5677 2.3855
-7.0437 -3.8061 2.3855
-6.8791 -4.0371 2.3855
-6.7056 -4.2603 2.3855
-6.5235 -4.4755 2.3855
-6.3333 -4.6823 2.3855
-6.1355 -4.8805 2.3855
-5.9305 -5.0697 2.3855
-5.7187 -5.2497 2.3855
-5.5008 -5.4203 2.3855
-5.2771 -5.5813 2.3855
-5.0482 -5.7327 2.3855
-4.8145 -5.8741 2.3855
-4.5765 -6.0057 2.3855
-4.3347 -6.1272 2.3855
-4.0896 -6.2387 2.3855
-3.8417 -6.3401 2.3855
-3.5913 -6.4315 2.3855
-3.3391 -6.5128 2.3855
-3.0853 -6.5840 2.3855
-2.8304 -6.6453 2.3855
-2.5750 -6.6968 2.3855
-2.3192 -6.7385 2.3855
-2.0636 -6.7705 2.3855
-1.8086 -6.7930 2.3855
-1.5544 -6.8061 2.3855
-1.3015 -6.8100 2.3855
-1.0502 -6.8048 2.3855
-0.8007 -6.7908 2.3855
-0.5535 -6.7680 2.3855
-0.3088 -6.7366 2.3855
-0.0668 -6.6970 2.3855
0.1721 -6.6492 2.3855
0.4077 -6.5936 2.3855
0.6399 -6.5302 2.3855
0.8682 -6.4593 2.3855
1.0926 -6.3812 2.3855
1.3129 -6.2960 2.3855
1.5288 -6.2040 2.3855
1.7402 -6.1054 2.3855
1.9469 -6.0004 2.3855
2.0520 -5.6238 2.2780
2.1959 -5.4034 2.2331
2.3755 -5.2884 2.2331
2.5503 -5.1682 2.2331
2.7200 -5.0431 2.2331
2.8847 -4.9133 2.2331
3.0442 -4.7789 2.2331
3.1985 -4.6401 2.2331
3.3474 -4.4972 2.2331
3.4910 -4.3503 2.2331
3.6291 -4.1995 2.2331
3.7617 -4.0453 2.2331
3.8887 -3.8875 2.2331
4.0102 -3.7265 2.2331
4.1260 -3.5625 2.2331
4.2361 -3.3955 2.2331
4.3405 -3.2259 2.2331
4.4392 -3.0536 2.2331
4.5321 -2.8790 2.2331
4.6192 -2.7021 2.2331
4.7004 -2.5232 2.2331
4.7759 -2.3424 2.2331
4.8454 -2.1598 2.2331
4.9092 -1.9756 2.2331
4.9670 -1.7900 2.2331
5.0190 -1.6031 2.2331
5.0650 -1.4150 2.2331
5.1052 -1.2259 2.2331
5.1394 -1.0359 2.2331
5.1678 -0.8452 2.2331
5.1902 -0.6540 2.2331
5.2067 -0.4623 2.2331
5.2173 -0.2703 2.2331
5.2220 -0.0781 2.2331
5.2208 0.1140 2.2331
5.2136 0.3060 2.2331
5.2006 0.4977 2.2331
5.1816 0.6891 2.2331
5.1567 0.8799 2.2331
5.1260 1.0700 2.2331
5.0894 1.2592 2.2331
5.0469 1.4475 2.2331
4.9985 1.6347 2.2331
4.9443 1.8206 2.2331
4.8842 2.0051 2.2331
4.8184 2.1881 2.2331
4.7467 2.3693 2.2331
4.6692 2.5487 2.2331
4.5859 2.7261 2.2331
4.4970 2.9013 2.2331
4.4022 3.0742 2.2331
4.3018 3.2446 2.2331
4.1957 3.4123 2.2331
4.0840 3.5773 2.2331
3.9667 3.7393 2.2331
3.8439 3.8982 2.2331
3.7855 4.1301 2.2752
3.8262 4.4927 2.3855
3.6774 4.6513 2.3855
3.5230 4.8057 2.3855
3.3630 4.9558 2.3855
3.1973 5.1014 2.3855
3.0262 5.2422 2.3855
2.8497 5.3784 2.3855
2.6679 5.5093 2.3855
2.4809 5.6349 2.3855
2.2888 5.7550 2.3855
2.0918 5.8699 2.3855
0.7918 2.5043 0.9994
0.7014 2.5336 0.9940
0.6101 2.5595 0.9886
0.5179 2.5821 0.9832
0.4250 2.6014 0.9776
0.3313 2.6173 0.9720
0.2372 2.6298 0.9664
0.1427 2.6389 0.9607
0.0479 2.6446 0.9550
-0.0470 2.6468 0.9493
-0.1420 2.6456 0.9436
-0.2369 2.6409 0.9379
-0.3315 2.6328 0.9321
-0.4258 2.6213 0.9264
-0.5196 2.6064 0.9207
-0.6128 2.5881 0.9150
-0.7053 2.5664 0.9094
-0.7969 2.5414 0.9038
-0.8876 2.5131 0.8982
-2.6112 6.6313 2.3855
-2.8649 6.5785 2.3855
-3.1179 6.5159 2.3855
-3.3698 6.4435 2.3855
-3.6203 6.3612 2.3855
-3.8688 6.2690 2.3855
-4.1149 6.1668 2.3855
-4.3582 6.0547 2.3855
-4.5982 5.9326 2.3855
-4.8344 5.8006 2.3855
-5.0664 5.6588 2.3855
-5.2937 5.5072 2.3855
-5.5159 5.3460 2.3855
-5.7323 5.1754 2.3855
-5.9426 4.9954 2.3855
-6.1463 4.8063 2.3855
-6.3429 4.6083 2.3855
-6.5319 4.4017 2.3855
-6.7129 4.1868 2.3855
-6.8854 3.9638 2.3855
-7.0490 3.7332 2.3855
-7.2032 3.4953 2.3855
-7.3478 3.2503 2.3855
-7.4822 2.9989 2.3855
-7.6062 2.7415 2.3855
-7.7194 2.4785 2.3855
-7.8214 2.2104 2.3855
-7.9120 1.9376 2.3855
-7.9910 1.6608 2.3855
-8.0581 1.3806 2.3855
-8.1131 1.0973 2.3855
-8.1558 0.8118 2.3855
-8.1862 0.5244 2.3855
-8.2041 0.2358 2.3855
-8.2095 -0.0533 2.3855
-8.2024 -0.3424 2.3855
-8.1827 -0.6310 2.3855
-8.1506 -0.9183 2.3855
-8.1061 -1.2038 2.3855
-8.0493 -1.4869 2.3855
-7.9804 -1.7670 2.3855
-7.8996 -2.0436 2.3855
-7.8071 -2.3161 2.3855
-7.7032 -2.5839 2.3855
-7.5881 -2.8467 2.3855
-7.4622 -3.1037 2.3855
-7.3258 -3.3547 2.3855
-7.1792 -3.5991 2.3855
-7.0228 -3.8365 2.3855
-6.8571 -4.0665 2.3855
-6.6824 -4.2887 2.3855
-6.4993 -4.5029 2.3855
-6.3081 -4.7086 2.3855
-6.1093 -4.9056 2.3855
-5.9033 -5.0936 2.3855
-5.6908 -5.2724 2.3855
-5.4721 -5.4417 2.3855
-5.2477 -5.6015 2.3855
-5.0181 -5.7516 2.3855
-4.7838 -5.8918 2.3855
-4.5453 -6.0220 2.3855
-4.3031 -6.1423 2.3855
-4.0576 -6.2524 2.3855
-3.8093 -6.3526 2.3855
-3.5587 -6.4426 2.3855
-3.3062 -6.5226 2.3855
-3.0522 -6.5925 2.3855
-2.7973 -6.6526 2.3855
-2.5418 -6.7028 2.3855
-2.2860 -6.7432 2.3855
-2.0305 -6.7740 2.3855
-1.7755 -6.7953 2.3855
-1.5215 -6.8072 2.3855
-1.2688 -6.8099 2.3855
-1.0177 -6.8035 2.3855
-0.7685 -6.7883 2.3855
-0.5216 -6.7644 2.3855
-0.2772 -6.7320 2.3855
-0.0356 -6.6913 2.3855
0.2029 -6.6425 2.3855
0.4381 -6.5858 2.3855
0.6697 -6.5214 2.3855
0.8976 -6.4496 2.3855
1.1214 -6.3705 2.3855
1.3411 -6.2845 2.3855
1.5565 -6.1916 2.3855
1.7673 -6.0921 2.3855
1.9700 -5.9759 2.3813
2.0635 -5.5741 2.2635
2.2195 -5.3887 2.2331
2.3985 -5.2731 2.2331
2.5726 -5.1523 2.2331
2.7417 -5.0265 2.2331
2.9057 -4.8961 2.2331
3.0645 -4.7611 2.2331
3.2181 -4.6218 2.2331
3.3664 -4.4783 2.2331
3.5092 -4.3309 2.2331
3.6466 -4.1797 2.2331
3.7785 -4.0249 2.2331
3.9048 -3.8668 2.2331
4.0256 -3.7054 2.2331
4.1406 -3.5410 2.2331
4.2500 -3.3736 2.2331
4.3537 -3.2036 2.2331
4.4516 -3.0311 2.2331
4.5437 -2.8562 2.2331
4.6300 -2.6790 2.2331
4.7105 -2.4999 2.2331
4.7852 -2.3188 2.2331
4.8540 -2.1360 2.2331
4.9170 -1.9516 2.2331
4.9741 -1.7658 2.2331
5.0253 -1.5787 2.2331
5.0706 -1.3905 2.2331
5.1100 -1.2012 2.2331
5.1434 -1.0112 2.2331
5.1710 -0.8204 2.2331
5.1927 -0.6291 2.2331
5.2084 -0.4374 2.2331
5.2182 -0.2453 2.2331
5.2222 -0.0532 2.2331
5.2202 0.1389 2.2331
5.2122 0.3309 2.2331
5.1984 0.5226 2.2331
5.1787 0.7139 2.2331
5.1531 0.9046 2.2331
5.1216 1.0946 2.2331
5.0842 1.2837 2.2331
5.0409 1.4719 2.2331
4.9918 1.6589 2.2331
4.9368 1.8446 2.2331
4.8760 2.0290 2.2331
4.8094 2.2117 2.2331
4.7369 2.3927 2.2331
4.6587 2.5718 2.2331
4.5747 2.7489 2.2331
4.4850 2.9238 2.2331
4.3895 3.0964 2.2331
4.2884 3.2665 2.2331
4.1816 3.4339 2.2331
4.0691 3.5985 2.2331
3.9511 3.7601 2.2331
3.8275 3.9185 2.2331
3.7910 4.1756 2.2890
3.8072 4.5136 2.3855
3.6577 4.6715 2.3855
3.5026 4.8254 2.3855
3.3418 4.9750 2.3855
3.1754 5.1200 2.3855
3.0036 5.2602 2.3855
2.8264 5.3956 2.3855
2.6439 5.5259 2.3855
2.4563 5.6508 2.3855
2.2635 5.7701 2.3855
0.8694 2.4763 1.0040
0.7801 2.5083 0.9987
0.6896 2.5371 0.9933
0.5982 2.5626 0.9879
0.5059 2.5848 0.9824
0.4128 2.6037 0.9769
0.3191 2.6191 0.9713
0.2250 2.6312 0.9657
0.1304 2.6398 0.9600
0.0356 2.6450 0.9543
-0.0594 2.6468 0.9486
-0.1543 2.6451 0.9429
-0.2492 2.6400 0.9371
-0.3438 2.6315 0.9314
-0.4380 2.6196 0.9257
-0.5317 2.6042 0.9200
-0.6248 2.5855 0.9143
-0.7172 2.5634 0.9086
-0.8087 2.5379 0.9030
-0.8993 2.5092 0.8975
-2.6442 6.6250 2.3855
-2.8978 6.5709 2.3855
-3.1507 6.5071 2.3855
-3.4024 6.4334 2.3855
-3.6526 6.3498 2.3855
-3.9009 6.2563 2.3855
-4.1466 6.1528 2.3855
-4.3895 6.0394 2.3855
-4.8822 5.1145 2.3855
-5.0865 4.9646 2.3855
-5.2855 4.8061 2.3855
-5.4788 4.6391 2.3855
-5.6660 4.4638 2.3855
-5.8465 4.2805 2.3855
-6.0201 4.0894 2.3855
-6.1863 3.8907 2.3855
-6.3448 3.6847 2.3855
-6.4950 3.4718 2.3855
-6.6367 3.2522 2.3855
-6.7696 3.0264 2.3855
-6.8932 2.7947 2.3855
-7.0072 2.5575 2.3855
-7.1114 2.3153 2.3855
-7.2054 2.0685 2.3855
-7.2892 1.8174 2.3855
-7.3623 1.5627 2.3855
-7.4246 1.3048 2.3855
-7.4759 1.0442 2.3855
-7.5161 0.7814 2.3855
-7.5451 0.5169 2.3855
-7.5628 0.2514 2.3855
-7.5691 -0.0148 2.3855
-7.5640 -0.2810 2.3855
-7.5475 -0.5467 2.3855
-7.5197 -0.8114 2.3855
-7.4807 -1.0745 2.3855
-7.4305 -1.3356 2.3855
-7.3692 -1.5941 2.3855
-7.2971 -1.8495 2.3855
-7.2143 -2.1012 2.3855
-7.1211 -2.3489 2.3855
-7.0176 -2.5921 2.3855
-6.9042 -2.8302 2.3855
-6.7811 -3.0629 2.3855
-6.6487 -3.2898 2.3855
-6.5073 -3.5104 2.3855
-6.3572 -3.7245 2.3855
-6.1989 -3.9315 2.3855
-6.0326 -4.1313 2.3855
-5.8588 -4.3236 2.3855
-5.6780 -4.5080 2.3855
-5.4904 -4.6843 2.3855
-5.2966 -4.8523 2.3855
-5.0969 -5.0118 2.3855
-4.8918 -5.1626 2.3855
-4.6818 -5.3046 2.3855
-4.4672 -5.4376 2.3855
-4.2486 -5.5616 2.3855
-4.0262 -5.6764 2.3855
-3.8007 -5.7820 2.3855
-3.5723 -5.8784 2.3855
-3.3416 -5.9656 2.3855
-3.1088 -6.0436 2.3855
-2.8745 -6.1123 2.3855
-2.6390 -6.1719 2.3855
-2.4027 -6.2223 2.3855
-2.1660 -6.2637 2.3855
-1.9292 -6.2962 2.3855
-1.6927 -6.3199 2.3855
-1.4568 -6.3348 2.3855
-1.2218 -6.3411 2.3855
-0.9882 -6.3390 2.3855
-0.7561 -6.3285 2.3855
-0.5258 -6.3099 2.3855
-0.2977 -6.2833 2.3855
-0.0720 -6.2490 2.3855
0.1510 -6.2069 2.3855
0.3712 -6.1574 2.3855
0.5882 -6.1006 2.3855
0.8019 -6.0368 2.3855
1.0121 -5.9661 2.3855
1.2185 -5.8886 2.3855
1.4210 -5.8047 2.3855
1.6194 -5.7145 2.3855
1.8136 -5.6183 2.3855
2.0034 -5.5161 2.3855
2.1165 -5.2299 2.3068
2.2179 -4.9566 2.2331
2.3825 -4.8456 2.2331
2.5425 -4.7298 2.2331
2.6978 -4.6094 2.2331
2.8483 -4.4847 2.2331
2.9940 -4.3557 2.2331
3.1347 -4.2227 2.2331
3.2704 -4.0858 2.2331
3.4010 -3.9453 2.2331
3.5265 -3.8013 2.2331
3.6468 -3.6539 2.2331
3.7618 -3.5034 2.2331
3.8715 -3.3499 2.2331
3.9759 -3.1936 2.2331
4.0750 -3.0346 2.2331
4.1686 -2.8732 2.2331
4.2567 -2.7094 2.2331
4.3394 -2.5434 2.2331
4.4166 -2.3753 2.2331
4.4883 -2.2055 2.2331
4.5545 -2.0338 2.2331
4.6150 -1.8606 2.2331
4.6701 -1.6860 2.2331
4.7195 -1.5101 2.2331
4.7633 -1.3330 2.2331
4.8015 -1.1550 2.2331
4.8342 -0.9761 2.2331
4.8612 -0.7965 2.2331
4.8825 -0.6164 2.2331
4.8983 -0.4357 2.2331
4.9084 -0.2549 2.2331
4.9129 -0.0738 2.2331
4.9118 0.1072 2.2331
4.9050 0.2882 2.2331
4.8926 0.4689 2.2331
4.8746 0.6491 2.2331
4.8510 0.8289 2.2331
4.8218 1.0079 2.2331
4.7870 1.1862 2.2331
4.7466 1.3635 2.2331
4.7007 1.5397 2.2331
4.6492 1.7147 2.2331
4.5921 1.8883 2.2331
4.5295 2.0603 2.2331
4.4614 2.2307 2.2331
4.3879 2.3993 2.2331
4.3089 2.5659 2.2331
4.2244 2.7304 2.2331
4.1346 2.8926 2.2331
4.0393 3.0525 2.2331
3.9388 3.2097 2.2331
3.8329 3.3642 2.2331
3.7218 3.5158 2.2331
3.7179 3.7787 2.3027
3.7217 4.0698 2.3855
3.5865 4.2214 2.3855
3.4459 4.3693 2.3855
3.2999 4.5132 2.3855
3.1487 4.6529 2.3855
2.9923 4.7883 2.3855
2.8309 4.9192 2.3855
2.6644 5.0453 2.3855
2.4930 5.1666 2.3855
2.3169 5.2827 2.3855
2.1361 5.3934 2.3855
0.8180 2.3058 1.0003
0.7347 2.3361 0.9954
0.6505 2.3633 0.9904
0.5653 2.3875 0.9853
0.4793 2.4086 0.9802
0.3926 2.4265 0.9751
0.3052 2.4413 0.9698
0.2174 2.4530 0.9646
0.1293 2.4615 0.9593
0.0408 2.4667 0.9540
-0.0477 2.4688 0.9487
-0.1363 2.4677 0.9433
-0.2248 2.4633 0.9380
-0.3130 2.4558 0.9326
-0.4010 2.4450 0.9273
-0.4885 2.4311 0.9220
-0.5754 2.4140 0.9167
-0.6617 2.3938 0.9114
-0.7472 2.3705 0.9062
-0.8317 2.3441 0.9010
-0.9153 2.3147 0.8958
-2.6721 6.1119 2.3855
-2.9060 6.0511 2.3855
-3.1386 5.9814 2.3855
-3.3697 5.9025 2.3855
-3.5989 5.8145 2.3855
-3.8256 5.7173 2.3855
-4.0496 5.6111 2.3855
-4.2703 5.4956 2.3855
-4.4874 5.3712 2.3855
-4.7005 5.2378 2.3855
-4.9090 5.0955 2.3855
-5.1127 4.9445 2.3855
-5.3110 4.7848 2.3855
-5.5035 4.6168 2.3855
-5.6898 4.4405 2.3855
-5.8695 4.2561 2.3855
-6.0421 4.0640 2.3855
-6.2074 3.8643 2.3855
-6.3647 3.6575 2.3855
-6.5139 3.4436 2.3855
-6.6545 3.2233 2.3855
-6.7861 2.9967 2.3855
-6.9085 2.7642 2.3855
-7.0213 2.5264 2.3855
-7.1242 2.2836 2.3855
-7.2169 2.0360 2.3855
-7.2992 1.7846 2.3855
-7.3709 1.5295 2.3855
-7.4319 1.2711 2.3855
-7.4818 1.0102 2.3855
-7.5205 0.7471 2.3855
-7.5480 0.4825 2.3855
-7.5642 0.2169 2.3855
-7.5691 -0.0493 2.3855
-7.5625 -0.3155 2.3855
-7.5446 -0.5811 2.3855
-7.5153 -0.8456 2.3855
-7.4748 -1.1085 2.3855
-7.4231 -1.3693 2.3855
-7.3605 -1.6274 2.3855
-7.2870 -1.8824 2.3855
-7.2028 -2.1336 2.3855
-7.1082 -2.3808 2.3855
-7.0034 -2.6233 2.3855
-6.8888 -2.8607 2.3855
-6.7645 -3.0927 2.3855
-6.6309 -3.3188 2.3855
-6.4883 -3.5386 2.3855
-6.3372 -3.7517 2.3855
-6.1777 -3.9579 2.3855
-6.0105 -4.1567 2.3855
-5.8358 -4.3480 2.3855
-5.6540 -4.5313 2.3855
-5.4656 -4.7066 2.3855
-5.2710 -4.8735 2.3855
-5.0706 -5.0319 2.3855
-4.8648 -5.1815 2.3855
-4.6542 -5.3224 2.3855
-4.4391 -5.4542 2.3855
-4.2199 -5.5770 2.3855
-3.9971 -5.6906 2.3855
-3.7712 -5.7951 2.3855
-3.5425 -5.8903 2.3855
-3.3115 -5.9763 2.3855
-3.0785 -6.0530 2.3855
-2.8440 -6.1205 2.3855
-2.6084 -6.1789 2.3855
-2.3720 -6.2282 2.3855
-2.1352 -6.2684 2.3855
-1.8984 -6.2998 2.3855
-1.6620 -6.3223 2.3855
-1.4262 -6.3361 2.3855
-1.1914 -6.3413 2.3855
-0.9579 -6.3381 2.3855
-0.7261 -6.3266 2.3855
-0.4961 -6.3069 2.3855
-0.2683 -6.2793 2.3855
-0.0429 -6.2439 2.3855
0.1798 -6.2009 2.3855
0.3995 -6.1504 2.3855
0.6161 -6.0927 2.3855
0.8294 -6.0280 2.3855
1.0391 -5.9564 2.3855
1.2450 -5.8781 2.3855
1.4470 -5.7934 2.3855
1.6449 -5.7024 2.3855
1.8385 -5.6053 2.3855
2.0277 -5.5024 2.3855
2.1269 -5.1855 2.2933
2.2395 -4.9425 2.2331
2.4035 -4.8308 2.2331
2.5629 -4.7144 2.2331
2.7176 -4.5935 2.2331
2.8675 -4.4681 2.2331
3.0125 -4.3386 2.2331
3.1526 -4.2051 2.2331
3.2876 -4.0678 2.2331
3.4176 -3.9268 2.2331
3.5424 -3.7823 2.2331
3.6620 -3.6346 2.2331
3.7764 -3.4837 2.2331
3.8854 -3.3298 2.2331
3.9891 -3.1731 2.2331
4.0874 -3.0138 2.2331
4.1803 -2.8520 2.2331
4.2678 -2.6879 2.2331
4.3498 -2.5217 2.2331
4.4263 -2.3534 2.2331
4.4972 -2.1833 2.2331
4.5626 -2.0114 2.2331
4.6225 -1.8380 2.2331
4.6768 -1.6632 2.2331
4.7255 -1.4872 2.2331
4.7686 -1.3100 2.2331
4.8061 -1.1318 2.2331
4.8380 -0.9528 2.2331
4.8642 -0.7732 2.2331
4.8849 -0.5929 2.2331
4.8999 -0.4123 2.2331
4.9093 -0.2314 2.2331
4.9131 -0.0503 2.2331
4.9112 0.1307 2.2331
4.9037 0.3117 2.2331
4.8906 0.4923 2.2331
4.8719 0.6725 2.2331
4.8475 0.8522 2.2331
4.8176 1.0311 2.2331
4.7821 1.2093 2.2331
4.7410 1.3864 2.2331
4.6943 1.5625 2.2331
4.6421 1.7373 2.2331
4.5843 1.9107 2.2331
4.5210 2.0825 2.2331
4.4522 2.2527 2.2331
4.3779 2.4210 2.2331
4.2982 2.5874 2.2331
4.2131 2.7516 2.2331
4.1225 2.9135 2.2331
4.0266 3.0730 2.2331
3.9253 3.2299 2.2331
3.8188 3.3841 2.2331
3.7070 3.5353 2.2331
3.7228 3.8197 2.3157
3.7045 4.0897 2.3855
3.5686 4.2408 2.3855
3.4272 4.3882 2.3855
3.2806 4.5316 2.3855
3.1287 4.6708 2.3855
2.9717 4.8055 2.3855
2.8095 4.9358 2.3855
2.6424 5.0614 2.3855
2.4704 5.1819 2.3855
2.2937 5.2974 2.3855
2.1122 5.4073 2.3855
0.8072 2.3099 0.9996
0.7239 2.3398 0.9947
0.6395 2.3666 0.9897
0.5542 2.3904 0.9847
0.4681 2.4111 0.9796
0.3813 2.4286 0.9744
0.2939 2.4430 0.9692
0.2060 2.4543 0.9639
0.1178 2.4623 0.9586
0.0294 2.4672 0.9533
-0.0592 2.4688 0.9480
-0.1478 2.4673 0.9426
-0.2363 2.4625 0.9373
-0.3245 2.4545 0.9319
-0.4124 2.4434 0.9266
-0.4998 2.4291 0.9213
-0.5867 2.4116 0.9160
-0.6728 2.3910 0.9107
-0.7582 2.3673 0.9055
-0.8427 2.3405 0.9003
-0.9261 2.3106 0.8952
-2.7025 6.1045 2.3855
-2.9362 6.0426 2.3855
-3.1687 5.9717 2.3855
-3.3996 5.8916 2.3855
-3.6285 5.8023 2.3855
-3.8549 5.7040 2.3855
-4.0784 5.5965 2.3855
-4.5477 4.7531 2.3855
-4.7361 4.6123 2.3855
-4.9194 4.4635 2.3855
-5.0974 4.3071 2.3855
-5.2696 4.1431 2.3855
-5.4356 3.9718 2.3855
-5.5952 3.7933 2.3855
-5.7478 3.6080 2.3855
-5.8932 3.4161 2.3855
-6.0311 3.2179 2.3855
-6.1610 3.0137 2.3855
-6.2828 2.8038 2.3855
-6.3960 2.5886 2.3855
-6.5004 2.3684 2.3855
-6.5958 2.1437 2.3855
-6.6819 1.9148 2.3855
-6.7584 1.6822 2.3855
-6.8253 1.4462 2.3855
-6.8822 1.2073 2.3855
-6.9291 0.9661 2.3855
-6.9658 0.7228 2.3855
-6.9923 0.4781 2.3855
-7.0084 0.2324 2.3855
-7.0141 -0.0139 2.3855
-7.0094 -0.2602 2.3855
-6.9942 -0.5061 2.3855
-6.9688 -0.7510 2.3855
-6.9330 -0.9945 2.3855
-6.8870 -1.2362 2.3855
-6.8309 -1.4755 2.3855
-6.7649 -1.7121 2.3855
-6.6891 -1.9454 2.3855
-6.6036 -2.1749 2.3855
-6.5089 -2.4004 2.3855
-6.4049 -2.6214 2.3855
-6.2921 -2.8374 2.3855
-6.1707 -3.0482 2.3855
-6.0410 -3.2533 2.3855
-5.9032 -3.4525 2.3855
-5.7578 -3.6454 2.3855
-5.6051 -3.8316 2.3855
-5.4454 -4.0109 2.3855
-5.2790 -4.1832 2.3855
-5.1064 -4.3481 2.3855
-4.9280 -4.5054 2.3855
-4.7440 -4.6549 2.3855
-4.5550 -4.7965 2.3855
-4.3613 -4.9300 2.3855
-4.1632 -5.0554 2.3855
-3.9613 -5.1724 2.3855
-3.7558 -5.2811 2.3855
-3.5472 -5.3813 2.3855
-3.3358 -5.4730 2.3855
-3.1221 -5.5562 2.3855
-2.9063 -5.6309 2.3855
-2.6890 -5.6970 2.3855
-2.4703 -5.7547 2.3855
-2.2508 -5.8039 2.3855
-2.0307 -5.8448 2.3855
-1.8104 -5.8773 2.3855
-1.5902 -5.9016 2.3855
-1.3704 -5.9178 2.3855
-1.1513 -5.9260 2.3855
-0.9332 -5.9262 2.3855
-0.7165 -5.9187 2.3855
-0.5013 -5.9035 2.3855
-0.2879 -5.8808 2.3855
-0.0767 -5.8507 2.3855
0.1323 -5.8134 2.3855
0.3386 -5.7691 2.3855
0.5422 -5.7180 2.3855
0.7428 -5.6601 2.3855
0.9402 -5.5957 2.3855
1.1342 -5.5250 2.3855
1.3247 -5.4480 2.3855
1.5115 -5.3651 2.3855
1.6944 -5.2764 2.3855
1.8733 -5.1821 2.3855
2.0480 -5.0823 2.3855
2.1735 -4.8767 2.3373
2.2449 -4.5826 2.2460
2.3832 -4.4486 2.2331
2.5300 -4.3366 2.2331
2.6723 -4.2203 2.2331
2.8101 -4.1000 2.2331
2.9434 -3.9758 2.2331
3.0719 -3.8479 2.2331
3.1957 -3.7164 2.2331
3.3147 -3.5816 2.2331
3.4287 -3.4435 2.2331
3.5379 -3.3023 2.2331
3.6421 -3.1583 2.2331
3.7412 -3.0115 2.2331
3.8353 -2.8621 2.2331
3.9243 -2.7102 2.2331
4.0081 -2.5561 2.2331
4.0867 -2.3999 2.2331
4.1602 -2.2417 2.2331
4.2284 -2.0816 2.2331
4.2913 -1.9199 2.2331
4.3490 -1.7566 2.2331
4.4014 -1.5919 2.2331
4.4485 -1.4260 2.2331
4.4903 -1.2589 2.2331
4.5267 -1.0909 2.2331
4.5578 -0.9220 2.2331
4.5836 -0.7524 2.2331
4.6040 -0.5823 2.2331
4.6190 -0.4117 2.2331
4.6287 -0.2409 2.2331
4.6330 -0.0699 2.2331
4.6319 0.1011 2.2331
4.6255 0.2720 2.2331
4.6138 0.4427 2.2331
4.5966 0.6130 2.2331
4.5742 0.7827 2.2331
4.5464 0.9518 2.2331
4.5133 1.1201 2.2331
4.4748 1.2874 2.2331
4.4311 1.4537 2.2331
4.3821 1.6188 2.2331
4.3278 1.7825 2.2331
4.2683 1.9448 2.2331
4.2035 2.1054 2.2331
4.1336 2.2642 2.2331
4.0585 2.4212 2.2331
3.9782 2.5760 2.2331
3.8928 2.7287 2.2331
3.8023 2.8790 2.2331
3.7068 3.0268 2.2331
3.6264 3.1896 2.2455
3.6560 3.4612 2.3320
3.6219 3.6894 2.3855
3.4988 3.8350 2.3855
3.3706 3.9770 2.3855
3.2374 4.1154 2.3855
3.0992 4.2500 2.3855
2.9560 4.3805 2.3855
2.8081 4.5069 2.3855
2.6553 4.6289 2.3855
2.4980 4.7463 2.3855
2.3361 4.8590 2.3855
2.1698 4.9669 2.3855
0.8388 2.1271 1.0009
0.7620 2.1582 0.9964
0.6841 2.1865 0.9918
0.6052 2.2120 0.9871
0.5255 2.2347 0.9824
0.4450 2.2544 0.9776
0.3638 2.2712 0.9728
0.2821 2.2850 0.9679
0.1999 2.2959 0.9630
0.1173 2.3038 0.9580
0.0346 2.3088 0.9531
-0.0483 2.3107 0.9481
-0.1312 2.3096 0.9431
-0.2140 2.3055 0.9381
-0.2967 2.2985 0.9331
-0.3790 2.2884 0.9281
-0.4609 2.2754 0.9231
-0.5422 2.2594 0.9181
-0.6230 2.2405 0.9132
-0.7030 2.2187 0.9083
-0.7822 2.1940 0.9034
-0.8604 2.1664 0.8986
-0.9375 2.1361 0.8939
-2.7192 5.6417 2.3855
-2.9351 5.5746 2.3855
-3.1494 5.4990 2.3855
-3.3617 5.4150 2.3855
-3.5716 5.3225 2.3855
-3.7788 5.2217 2.3855
-3.9828 5.1124 2.3855
-4.1834 4.9950 2.3855
-4.3801 4.8692 2.3855
-4.5724 4.7353 2.3855
-4.7602 4.5934 2.3855
-4.9428 4.4437 2.3855
-5.1201 4.2862 2.3855
-5.2915 4.1213 2.3855
-5.4567 3.9490 2.3855
-5.6154 3.7697 2.3855
-5.7671 3.5835 2.3855
-5.9116 3.3908 2.3855
-6.0484 3.1917 2.3855
-6.1773 2.9868 2.3855
-6.2980 2.7762 2.3855
-6.4101 2.5603 2.3855
-6.5133 2.3395 2.3855
-6.6075 2.1142 2.3855
-6.6924 1.8848 2.3855
-6.7677 1.6517 2.3855
-6.8332 1.4153 2.3855
-6.8889 1.1761 2.3855
-6.9344 0.9346 2.3855
-6.9698 0.6911 2.3855
-6.9949 0.4462 2.3855
-7.0097 0.2004 2.3855
-7.0140 -0.0459 2.3855
-7.0080 -0.2922 2.3855
-6.9915 -0.5379 2.3855
-6.9647 -0.7827 2.3855
-6.9276 -1.0260 2.3855
-6.8803 -1.2674 2.3855
-6.8229 -1.5064 2.3855
-6.7556 -1.7425 2.3855
-6.6785 -1.9754 2.3855
-6.5919 -2.2045 2.3855
-6.4959 -2.4294 2.3855
-6.3908 -2.6497 2.3855
-6.2768 -2.8651 2.3855
-6.1543 -3.0752 2.3855
-6.0235 -3.2795 2.3855
-5.8848 -3.4779 2.3855
-5.7384 -3.6699 2.3855
-5.5847 -3.8552 2.3855
-5.4241 -4.0337 2.3855
-5.2570 -4.2050 2.3855
-5.0836 -4.3689 2.3855
-4.9044 -4.5252 2.3855
-4.7198 -4.6737 2.3855
-4.5301 -4.8143 2.3855
-4.3358 -4.9468 2.3855
-4.1372 -5.0711 2.3855
-3.9348 -5.1870 2.3855
-3.7289 -5.2946 2.3855
-3.5199 -5.3937 2.3855
-3.3082 -5.4843 2.3855
-3.0942 -5.5664 2.3855
-2.8782 -5.6399 2.3855
-2.6606 -5.7050 2.3855
-2.4419 -5.7616 2.3855
-2.2223 -5.8097 2.3855
-2.0021 -5.8495 2.3855
-1.7818 -5.8810 2.3855
-1.5616 -5.9042 2.3855
-1.3419 -5.9193 2.3855
-1.1229 -5.9264 2.3855
-0.9050 -5.9257 2.3855
-0.6884 -5.9171 2.3855
-0.4735 -5.9009 2.3855
-0.2604 -5.8773 2.3855
-0.0494 -5.8463 2.3855
0.1592 -5.8081 2.3855
0.3652 -5.7629 2.3855
0.5684 -5.7108 2.3855
0.7686 -5.6521 2.3855
0.9656 -5.5869 2.3855
1.1592 -5.5153 2.3855
1.3492 -5.4376 2.3855
1.5355 -5.3539 2.3855
1.7178 -5.2645 2.3855
1.8962 -5.1694 2.3855
2.0703 -5.0690 2.3855
2.1830 -4.8367 2.3246
2.2575 -4.5538 2.2386
2.4025 -4.4343 2.2331
2.5487 -4.3217 2.2331
2.6905 -4.2049 2.2331
2.8277 -4.0841 2.2331
2.9603 -3.9594 2.2331
3.0882 -3.8310 2.2331
3.2114 -3.6991 2.2331
3.3297 -3.5638 2.2331
3.4432 -3.4253 2.2331
3.5517 -3.2838 2.2331
3.6552 -3.1394 2.2331
3.7537 -2.9922 2.2331
3.8471 -2.8425 2.2331
3.9354 -2.6904 2.2331
4.0186 -2.5360 2.2331
4.0965 -2.3795 2.2331
4.1693 -2.2210 2.2331
4.2368 -2.0607 2.2331
4.2991 -1.8988 2.2331
4.3561 -1.7353 2.2331
4.4078 -1.5704 2.2331
4.4542 -1.4043 2.2331
4.4953 -1.2372 2.2331
4.5310 -1.0690 2.2331
4.5615 -0.9000 2.2331
4.5865 -0.7304 2.2331
4.6062 -0.5602 2.2331
4.6206 -0.3896 2.2331
4.6295 -0.2187 2.2331
4.6331 -0.0477 2.2331
4.6314 0.1233 2.2331
4.6243 0.2942 2.2331
4.6118 0.4648 2.2331
4.5940 0.6350 2.2331
4.5709 0.8047 2.2331
4.5424 0.9737 2.2331
4.5086 1.1418 2.2331
4.4695 1.3091 2.2331
4.4251 1.4752 2.2331
4.3754 1.6401 2.2331
4.3204 1.8037 2.2331
4.2602 1.9657 2.2331
4.1948 2.1261 2.2331
4.1241 2.2847 2.2331
4.0483 2.4414 2.2331
3.9674 2.5960 2.2331
3.8813 2.7484 2.2331
3.7902 2.8984 2.2331
3.6941 3.0458 2.2331
3.6280 3.2218 2.2549
3.6603 3.4985 2.3442
3.6062 3.7085 2.3855
3.4825 3.8536 2.3855
3.3536 3.9952 2.3855
3.2197 4.1331 2.3855
3.0809 4.2672 2.3855
2.9371 4.3972 2.3855
2.7885 4.5229 2.3855
2.6352 4.6444 2.3855
2.4772 4.7612 2.3855
2.3148 4.8733 2.3855
2.1479 4.9805 2.3855
0.8289 2.1313 1.0003
0.7519 2.1621 0.9958
0.6739 2.1900 0.9912
0.5949 2.2151 0.9865
0.5151 2.2374 0.9818
0.4345 2.2567 0.9770
0.3532 2.2731 0.9721
0.2714 2.2866 0.9673
0.1892 2.2971 0.9623
0.1066 2.3047 0.9574
0.0238 2.3092 0.9524
-0.0591 2.3107 0.9474
-0.1420 2.3093 0.9424
-0.2248 2.3048 0.9374
-0.3074 2.2973 0.9324
-0.3896 2.2869 0.9274
-0.4715 2.2735 0.9224
-0.5528 2.2571 0.9175
-0.6334 2.2378 0.9126
-0.7133 2.2156 0.9077
-0.7924 2.1906 0.9028
-0.8705 2.1626 0.8980
-0.9475 2.1319 0.8933
-2.7473 5.6335 2.3855
-2.9630 5.5652 2.3855
-3.1771 5.4885 2.3855
-3.3891 5.4034 2.3855
-3.5987 5.3099 2.3855
-3.8055 5.2079 2.3855
-4.2523 4.4340 2.3855
-4.4268 4.3013 2.3855
-4.5965 4.1614 2.3855
-4.7611 4.0144 2.3855
-4.9203 3.8606 2.3855
-5.0738 3.6999 2.3855
-5.2211 3.5328 2.3855
-5.3621 3.3594 2.3855
-5.4963 3.1800 2.3855
-5.6234 2.9948 2.3855
-5.7432 2.8042 2.3855
-5.8554 2.6084 2.3855
-5.9597 2.4077 2.3855
-6.0558 2.2025 2.3855
-6.1436 1.9932 2.3855
-6.2228 1.7801 2.3855
-6.2932 1.5636 2.3855
-6.3547 1.3441 2.3855
-6.4070 1.1219 2.3855
-6.4501 0.8976 2.3855
-6.4838 0.6715 2.3855
-6.5080 0.4441 2.3855
-6.5228 0.2157 2.3855
-6.5280 -0.0131 2.3855
-6.5236 -0.2420 2.3855
-6.5097 -0.4705 2.3855
-6.4862 -0.6981 2.3855
-6.4532 -0.9245 2.3855
-6.4109 -1.1491 2.3855
-6.3592 -1.3717 2.3855
-6.2984 -1.5917 2.3855
-6.2286 -1.8087 2.3855
-6.1500 -2.0224 2.3855
-6.0626 -2.2323 2.3855
-5.9669 -2.4382 2.3855
-5.8629 -2.6396 2.3855
-5.7510 -2.8361 2.3855
-5.6313 -3.0275 2.3855
-5.5042 -3.2135 2.3855
-5.3700 -3.3937 2.3855
-5.2290 -3.5679 2.3855
-5.0815 -3.7358 2.3855
-4.9277 -3.8972 2.3855
-4.7682 -4.0518 2.3855
-4.6031 -4.1995 2.3855
-4.4328 -4.3401 2.3855
-4.2578 -4.4734 2.3855
-4.0782 -4.5993 2.3855
-3.8946 -4.7176 2.3855
-3.7072 -4.8283 2.3855
-3.5165 -4.9313 2.3855
-3.3227 -5.0264 2.3855
-3.1262 -5.1137 2.3855
-2.9274 -5.1932 2.3855
-2.7266 -5.2647 2.3855
-2.5242 -5.3283 2.3855
-2.3205 -5.3841 2.3855
-2.1158 -5.4320 2.3855
-1.9104 -5.4720 2.3855
-1.7046 -5.5044 2.3855
-1.4989 -5.5290 2.3855
-1.2933 -5.5460 2.3855
-1.0883 -5.5555 2.3855
-0.8842 -5.5576 2.3855
-0.6811 -5.5524 2.3855
-0.4793 -5.5400 2.3855
-0.2792 -5.5205 2.3855
-0.0808 -5.4941 2.3855
0.1154 -5.4609 2.3855
0.3094 -5.4210 2.3855
0.5009 -5.3746 2.3855
0.6897 -5.3219 2.3855
0.8756 -5.2629 2.3855
1.0585 -5.1980 2.3855
1.2381 -5.1271 2.3855
1.4143 -5.0506 2.3855
1.5870 -4.9685 2.3855
1.7559 -4.8810 2.3855
1.9211 -4.7884 2.3855
2.0822 -4.6907 2.3855
2.2242 -4.5574 2.3695
2.2886 -4.2871 2.2823
2.3783 -4.0900 2.2331
2.5132 -3.9813 2.2331
2.6439 -3.8687 2.2331
2.7702 -3.7524 2.2331
2.8922 -3.6324 2.2331
3.0097 -3.5091 2.2331
3.1227 -3.3824 2.2331
3.2310 -3.2526 2.2331
3.3348 -3.1199 2.2331
3.4338 -2.9844 2.2331
3.5282 -2.8461 2.2331
3.6177 -2.7054 2.2331
3.7023 -2.5623 2.2331
3.7821 -2.4169 2.2331
3.8570 -2.2695 2.2331
3.9270 -2.1202 2.2331
3.9920 -1.9690 2.2331
4.0520 -1.8163 2.2331
4.1070 -1.6620 2.2331
4.1570 -1.5063 2.2331
4.2019 -1.3494 2.2331
4.2418 -1.1914 2.2331
4.2765 -1.0325 2.2331
4.3062 -0.8727 2.2331
4.3308 -0.7123 2.2331
4.3503 -0.5513 2.2331
4.3647 -0.3899 2.2331
4.3739 -0.2282 2.2331
4.3781 -0.0663 2.2331
4.3771 0.0956 2.2331
4.3710 0.2573 2.2331
4.3598 0.4189 2.2331
4.3435 0.5800 2.2331
4.3221 0.7407 2.2331
4.2956 0.9006 2.2331
4.2641 1.0599 2.2331
4.2275 1.2182 2.2331
4.1858 1.3755 2.2331
4.1391 1.5316 2.2331
4.0874 1.6863 2.2331
4.0307 1.8397 2.2331
3.9690 1.9914 2.2331
3.9024 2.1414 2.2331
3.8308 2.2896 2.2331
3.7544 2.4358 2.2331
3.6814 2.5857 2.2381
3.5871 2.7215 2.2331
3.5698 2.9210 2.2801
3.5988 3.1721 2.3632
3.5257 3.3452 2.3855
3.4137 3.4853 2.3855
3.2967 3.6221 2.3855
3.1750 3.7556 2.3855
3.0485 3.8854 2.3855
2.9174 4.0116 2.3855
2.7816 4.1339 2.3855
2.6413 4.2522 2.3855
2.4966 4.3663 2.3855
2.3476 4.4760 2.3855
2.1944 4.5812 2.3855
0.8550 1.9652 1.0013
0.7840 1.9969 0.9971
0.7119 2.0261 0.9929
0.6388 2.0527 0.9886
0.5647 2.0766 0.9842
0.4898 2.0979 0.9798
0.4143 2.1164 0.9753
0.3380 2.1321 0.9707
0.2613 2.1451 0.9662
0.1841 2.1553 0.9615
0.1067 2.1628 0.9569
0.0290 2.1674 0.9522
-0.0488 2.1692 0.9475
-0.1267 2.1682 0.9429
-0.2044 2.1643 0.9382
-0.2820 2.1577 0.9335
-0.3593 2.1483 0.9288
-0.4361 2.1360 0.9241
-0.5125 2.1210 0.9194
-0.5883 2.1033 0.9148
-0.6634 2.0828 0.9102
-0.7378 2.0596 0.9056
-0.8112 2.0337 0.9011
-0.8837 2.0052 0.8967
-0.9550 1.9741 0.8922
-2.7544 5.2134 2.3855
-2.9539 5.1410 2.3855
-3.1514 5.0607 2.3855
-3.3465 4.9727 2.3855
-3.5390 4.8769 2.3855
-3.7285 4.7734 2.3855
-3.9146 4.6622 2.3855
-4.0969 4.5433 2.3855
-4.2752 4.4172 2.3855
-4.4491 4.2836 2.3855
-4.6181 4.1427 2.3855
-4.7821 3.9949 2.3855
-4.9406 3.8401 2.3855
-5.0933 3.6786 2.3855
-5.2398 3.5107 2.3855
-5.3799 3.3365 2.3855
-5.5132 3.1563 2.3855
-5.6394 2.9704 2.3855
-5.7582 2.7790 2.3855
-5.8694 2.5826 2.3855
-5.9726 2.3813 2.3855
-6.0677 2.1756 2.3855
-6.1544 1.9658 2.3855
-6.2324 1.7522 2.3855
-6.3017 1.5353 2.3855
-6.3620 1.3154 2.3855
-6.4131 1.0929 2.3855
-6.4550 0.8684 2.3855
-6.4875 0.6421 2.3855
-6.5105 0.4145 2.3855
-6.5240 0.1860 2.3855
-6.5280 -0.0428 2.3855
-6.5223 -0.2717 2.3855
-6.5072 -0.5001 2.3855
-6.4824 -0.7276 2.3855
-6.4483 -0.9538 2.3855
-6.4047 -1.1782 2.3855
-6.3519 -1.4004 2.3855
-6.2899 -1.6200 2.3855
-6.2189 -1.8366 2.3855
-6.1391 -2.0499 2.3855
-6.0507 -2.2593 2.3855
-5.9538 -2.4646 2.3855
-5.8488 -2.6653 2.3855
-5.7359 -2.8613 2.3855
-5.6152 -3.0520 2.3855
-5.4872 -3.2372 2.3855
-5.3521 -3.4167 2.3855
-5.2102 -3.5900 2.3855
-5.0619 -3.7571 2.3855
-4.9074 -3.9176 2.3855
-4.7470 -4.0714 2.3855
-4.5812 -4.2182 2.3855
-4.4104 -4.3578 2.3855
-4.2347 -4.4902 2.3855
-4.0546 -4.6151 2.3855
-3.8705 -4.7324 2.3855
-3.6827 -4.8421 2.3855
-3.4915 -4.9441 2.3855
-3.2973 -5.0382 2.3855
-3.1005 -5.1245 2.3855
-2.9015 -5.2029 2.3855
-2.7005 -5.2734 2.3855
-2.4978 -5.3360 2.3855
-2.2940 -5.3907 2.3855
-2.0891 -5.4376 2.3855
-1.8837 -5.4767 2.3855
-1.6779 -5.5080 2.3855
-1.4722 -5.5316 2.3855
-1.2667 -5.5477 2.3855
-1.0618 -5.5562 2.3855
-0.8577 -5.5574 2.3855
-0.6548 -5.5512 2.3855
-0.4532 -5.5378 2.3855
-0.2533 -5.5175 2.3855
-0.0552 -5.4902 2.3855
0.1408 -5.4561 2.3855
0.3344 -5.4153 2.3855
0.5256 -5.3681 2.3855
0.7140 -5.3146 2.3855
0.8996 -5.2548 2.3855
1.0820 -5.1891 2.3855
1.2612 -5.1175 2.3855
1.4369 -5.0402 2.3855
1.6091 -4.9574 2.3855
1.7776 -4.8693 2.3855
1.9422 -4.7760 2.3855
2.1028 -4.6776 2.3855
2.2329 -4.5210 2.3576
2.2966 -4.2536 2.2717
2.3960 -4.0761 2.2331
2.5304 -3.9669 2.2331
2.6605 -3.8538 2.2331
2.7863 -3.7370 2.2331
2.9077 -3.6166 2.2331
3.0246 -3.4928 2.2331
3.1370 -3.3657 2.2331
3.2448 -3.2356 2.2331
3.3479 -3.1025 2.2331
3.4464 -2.9666 2.2331
3.5400 -2.8280 2.2331
3.6289 -2.6869 2.2331
3.7130 -2.5435 2.2331
3.7921 -2.3979 2.2331
3.8664 -2.2502 2.2331
3.9357 -2.1007 2.2331
4.0001 -1.9493 2.2331
4.0594 -1.7963 2.2331
4.1138 -1.6418 2.2331
4.1631 -1.4860 2.2331
4.2074 -1.3290 2.2331
4.2466 -1.1709 2.2331
4.2807 -1.0118 2.2331
4.3097 -0.8520 2.2331
4.3336 -0.6914 2.2331
4.3525 -0.5304 2.2331
4.3662 -0.3689 2.2331
4.3748 -0.2072 2.2331
4.3782 -0.0453 2.2331
4.3766 0.1166 2.2331
4.3698 0.2783 2.2331
4.3580 0.4398 2.2331
4.3410 0.6009 2.2331
4.3190 0.7615 2.2331
4.2918 0.9214 2.2331
4.2596 1.0805 2.2331
4.2223 1.2387 2.2331
4.1800 1.3958 2.2331
4.1326 1.5517 2.2331
4.0803 1.7063 2.2331
4.0229 1.8595 2.2331
3.9606 2.0110 2.2331
3.8934 2.1608 2.2331
3.8212 2.3087 2.2331
3.7441 2.4546 2.2331
3.6623 2.5983 2.2331
3.5756 2.7397 2.2331
3.5735 2.9525 2.2904
3.6027 3.2062 2.3746
3.5114 3.3636 2.3855
3.3988 3.5032 2.3855
3.2812 3.6396 2.3855
3.1589 3.7726 2.3855
3.0318 3.9020 2.3855
2.9000 4.0277 2.3855
2.7637 4.1495 2.3855
2.6228 4.2673 2.3855
2.4775 4.3808 2.3855
2.3280 4.4899 2.3855
2.1742 4.5945 2.3855
0.8459 1.9694 1.0008
0.7747 2.0009 0.9966
0.7025 2.0297 0.9923
0.6292 2.0560 0.9880
0.5550 2.0795 0.9836
0.4801 2.1004 0.9792
0.4044 2.1186 0.9747
0.3281 2.1340 0.9701
0.2513 2.1466 0.9656
0.1741 2.1565 0.9609
0.0966 2.1635 0.9563
0.0189 2.1678 0.9516
-0.0589 2.1692 0.9469
-0.1368 2.1678 0.9422
-0.2145 2.1636 0.9375
-0.2920 2.1566 0.9328
-0.3693 2.1468 0.9282
-0.4461 2.1342 0.9235
-0.5224 2.1189 0.9188
-0.5981 2.1008 0.9142
-0.6731 2.0799 0.9096
-0.7474 2.0564 0.9051
-0.8207 2.0302 0.9005
-0.8930 2.0013 0.8961
-0.9642 1.9699 0.8917
-2.7804 5.2044 2.3855
-2.9797 5.1310 2.3855
-3.1769 5.0497 2.3855
-3.3717 4.9607 2.3855
-3.5638 4.8639 2.3855
-3.9892 4.1498 2.3855
-4.1515 4.0246 2.3855
-4.3092 3.8927 2.3855
-4.4622 3.7543 2.3855
-4.6100 3.6095 2.3855
-4.7524 3.4585 2.3855
-4.8891 3.3015 2.3855
-5.0198 3.1388 2.3855
-5.1442 2.9706 2.3855
-5.2619 2.7970 2.3855
-5.3729 2.6185 2.3855
-5.4767 2.4352 2.3855
-5.5732 2.2475 2.3855
-5.6622 2.0557 2.3855
-5.7434 1.8600 2.3855
-5.8166 1.6609 2.3855
-5.8817 1.4587 2.3855
-5.9384 1.2538 2.3855
-5.9868 1.0464 2.3855
-6.0265 0.8371 2.3855
-6.0576 0.6262 2.3855
-6.0800 0.4140 2.3855
-6.0936 0.2010 2.3855
-6.0984 -0.0125 2.3855
-6.0943 -0.2259 2.3855
-6.0813 -0.4390 2.3855
-6.0596 -0.6514 2.3855
-6.0291 -0.8625 2.3855
-5.9899 -1.0722 2.3855
-5.9422 -1.2798 2.3855
-5.8859 -1.4852 2.3855
-5.8213 -1.6878 2.3855
-5.7485 -1.8874 2.3855
-5.6677 -2.0836 2.3855
-5.5791 -2.2760 2.3855
-5.4828 -2.4643 2.3855
-5.3791 -2.6482 2.3855
-5.2683 -2.8274 2.3855
-5.1505 -3.0016 2.3855
-5.0261 -3.1705 2.3855
-4.8953 -3.3339 2.3855
-4.7585 -3.4916 2.3855
-4.6158 -3.6432 2.3855
-4.4676 -3.7886 2.3855
-4.3142 -3.9277 2.3855
-4.1560 -4.0601 2.3855
-3.9932 -4.1859 2.3855
-3.8262 -4.3048 2.3855
-3.6553 -4.4167 2.3855
-3.4808 -4.5216 2.3855
-3.3030 -4.6193 2.3855
-3.1223 -4.7097 2.3855
-2.9391 -4.7929 2.3855
-2.7535 -4.8688 2.3855
-2.5660 -4.9373 2.3855
-2.3768 -4.9984 2.3855
-2.1863 -5.0523 2.3855
-1.9948 -5.0987 2.3855
-1.8025 -5.1379 2.3855
-1.6098 -5.1698 2.3855
-1.4169 -5.1945 2.3855
-1.2241 -5.2121 2.3855
-1.0318 -5.2226 2.3855
-0.8400 -5.2262 2.3855
-0.6492 -5.2228 2.3855
-0.4595 -5.2127 2.3855
-0.2713 -5.1959 2.3855
-0.0846 -5.1726 2.3855
0.1003 -5.1428 2.3855
0.2831 -5.1067 2.3855
0.4636 -5.0645 2.3855
0.6418 -5.0162 2.3855
0.8173 -4.9620 2.3855
0.9900 -4.9021 2.3855
1.1597 -4.8366 2.3855
1.3263 -4.7657 2.3855
1.4897 -4.6894 2.3855
1.6496 -4.6080 2.3855
1.8059 -4.5217 2.3855
1.9586 -4.4305 2.3855
2.1075 -4.3347 2.3855
2.2524 -4.2343 2.3855
2.3290 -4.0187 2.3214
2.3841 -3.7888 2.2478
2.4925 -3.6583 2.2331
2.6126 -3.5490 2.2331
2.7285 -3.4362 2.2331
2.8402 -3.3202 2.2331
2.9477 -3.2009 2.2331
3.0508 -3.0787 2.2331
3.1496 -2.9535 2.2331
3.2439 -2.8257 2.2331
3.3337 -2.6952 2.2331
3.4190 -2.5623 2.2331
3.4997 -2.4271 2.2331
3.5758 -2.2898 2.2331
3.6472 -2.1504 2.2331
3.7139 -2.0091 2.2331
3.7760 -1.8661 2.2331
3.8332 -1.7215 2.2331
3.8857 -1.5754 2.2331
3.9334 -1.4280 2.2331
3.9763 -1.2794 2.2331
4.0144 -1.1297 2.2331
4.0476 -0.9791 2.2331
4.0760 -0.8276 2.2331
4.0995 -0.6756 2.2331
4.1181 -0.5229 2.2331
4.1319 -0.3699 2.2331
4.1407 -0.2165 2.2331
4.1447 -0.0630 2.2331
4.1438 0.0905 2.2331
4.1380 0.2439 2.2331
4.1274 0.3970 2.2331
4.1118 0.5499 2.2331
4.0914 0.7022 2.2331
4.0661 0.8539 2.2331
4.0360 1.0048 2.2331
4.0011 1.1548 2.2331
3.9613 1.3039 2.2331
3.9168 1.4517 2.2331
3.8674 1.5984 2.2331
3.8133 1.7436 2.2331
3.7545 1.8872 2.2331
3.6910 2.0292 2.2331
3.6228 2.1694 2.2331
3.5500 2.3076 2.2331
3.4947 2.4593 2.2474
3.5191 2.6754 2.3177
3.5295 2.8941 2.3855
3.4323 3.0319 2.3855
3.3303 3.1670 2.3855
3.2237 3.2991 2.3855
3.1125 3.4280 2.3855
2.9967 3.5537 2.3855
2.8765 3.6759 2.3855
2.7518 3.7946 2.3855
2.6229 3.9095 2.3855
2.4897 4.0206 2.3855
2.3523 4.1276 2.3855
2.2109 4.2304 2.3855
2.0656 4.3288 2.3855
0.8015 1.8497 0.9977
0.7346 1.8796 0.9938
0.6667 1.9071 0.9898
0.5979 1.9321 0.9857
0.5282 1.9546 0.9816
0.4577 1.9746 0.9774
0.3866 1.9920 0.9732
0.3148 2.0068 0.9689
0.2426 2.0191 0.9646
0.1700 2.0287 0.9602
0.0971 2.0356 0.9559
0.0239 2.0400 0.9515
-0.0493 2.0417 0.9471
-0.1226 2.0407 0.9427
-0.1958 2.0371 0.9382
-0.2688 2.0308 0.9338
-0.3415 2.0220 0.9294
-0.4139 2.0104 0.9250
-0.4858 1.9963 0.9206
-0.5571 1.9796 0.9163
-0.6278 1.9603 0.9119
-0.6978 1.9385 0.9076
-0.7669 1.9142 0.9034
-0.8351 1.8873 0.8992
-0.9023 1.8581 0.8950
-0.9683 1.8264 0.8909
-2.7791 4.8209 2.3855
-2.9635 4.7442 2.3855
-3.1455 4.6603 2.3855
-3.3250 4.5692 2.3855
-3.5016 4.4710 2.3855
-3.6749 4.3656 2.3855
-3.8447 4.2532 2.3855
-4.0105 4.1339 2.3855
-4.1722 4.0079 2.3855
-4.3294 3.8751 2.3855
-4.4817 3.7358 2.3855
-4.6288 3.5902 2.3855
-4.7705 3.4384 2.3855
-4.9064 3.2807 2.3855
-5.0363 3.1173 2.3855
-5.1598 2.9483 2.3855
-5.2767 2.7741 2.3855
-5.3868 2.5949 2.3855
-5.4897 2.4111 2.3855
-5.5852 2.2228 2.3855
-5.6732 2.0305 2.3855
-5.7533 1.8343 2.3855
-5.8255 1.6348 2.3855
-5.8895 1.4323 2.3855
-5.9452 1.2270 2.3855
-5.9924 1.0194 2.3855
-6.0311 0.8098 2.3855
-6.0610 0.5987 2.3855
-6.0823 0.3864 2.3855
-6.0947 0.1733 2.3855
-6.0983 -0.0402 2.3855
-6.0931 -0.2536 2.3855
-6.0790 -0.4666 2.3855
-6.0561 -0.6789 2.3855
-6.0245 -0.8898 2.3855
-5.9842 -1.0992 2.3855
-5.9353 -1.3066 2.3855
-5.8780 -1.5116 2.3855
-5.8123 -1.7139 2.3855
-5.7385 -1.9131 2.3855
-5.6566 -2.1088 2.3855
-5.5670 -2.3007 2.3855
-5.4698 -2.4884 2.3855
-5.3651 -2.6717 2.3855
-5.2534 -2.8503 2.3855
-5.1348 -3.0238 2.3855
-5.0095 -3.1921 2.3855
-4.8779 -3.3547 2.3855
-4.7403 -3.5116 2.3855
-4.5969 -3.6624 2.3855
-4.4480 -3.8070 2.3855
-4.2940 -3.9452 2.3855
-4.1351 -4.0768 2.3855
-3.9718 -4.2017 2.3855
-3.8042 -4.3197 2.3855
-3.6328 -4.4307 2.3855
-3.4579 -4.5347 2.3855
-3.2797 -4.6314 2.3855
-3.0987 -4.7210 2.3855
-2.9151 -4.8032 2.3855
-2.7293 -4.8781 2.3855
-2.5415 -4.9456 2.3855
-2.3522 -5.0058 2.3855
-2.1615 -5.0587 2.3855
-1.9699 -5.1042 2.3855
-1.7775 -5.1424 2.3855
-1.5848 -5.1734 2.3855
-1.3919 -5.1972 2.3855
-1.1991 -5.2139 2.3855
-1.0068 -5.2235 2.3855
-0.8152 -5.2261 2.3855
-0.6245 -5.2219 2.3855
-0.4350 -5.2109 2.3855
-0.2469 -5.1933 2.3855
-0.0605 -5.1691 2.3855
0.1241 -5.1385 2.3855
0.3066 -5.1016 2.3855
0.4869 -5.0586 2.3855
0.6647 -5.0095 2.3855
0.8398 -4.9546 2.3855
1.0122 -4.8939 2.3855
1.1815 -4.8277 2.3855
1.3477 -4.7561 2.3855
1.5106 -4.6791 2.3855
1.6701 -4.5971 2.3855
1.8260 -4.5101 2.3855
1.9782 -4.4183 2.3855
2.1265 -4.3219 2.3855
2.2709 -4.2210 2.3855
2.3364 -3.9878 2.3113
2.3942 -3.7653 2.2419
2.5084 -3.6443 2.2331
2.6279 -3.5346 2.2331
2.7432 -3.4214 2.2331
2.8544 -3.3049 2.2331
2.9613 -3.1852 2.2331
3.0639 -3.0626 2.2331
3.1621 -2.9371 2.2331
3.2558 -2.8089 2.2331
3.3450 -2.6781 2.2331
3.4297 -2.5449 2.2331
3.5098 -2.4094 2.2331
3.5853 -2.2718 2.2331
3.6561 -2.1322 2.2331
3.7223 -1.9907 2.2331
3.7837 -1.8474 2.2331
3.8403 -1.7026 2.2331
3.8922 -1.5564 2.2331
3.9393 -1.4088 2.2331
3.9815 -1.2600 2.2331
4.0190 -1.1102 2.2331
4.0516 -0.9595 2.2331
4.0793 -0.8079 2.2331
4.1022 -0.6558 2.2331
4.1202 -0.5031 2.2331
4.1333 -0.3500 2.2331
4.1415 -0.1966 2.2331
4.1449 -0.0431 2.2331
4.1433 0.1104 2.2331
4.1369 0.2638 2.2331
4.1256 0.4169 2.2331
4.1094 0.5697 2.2331
4.0884 0.7219 2.2331
4.0625 0.8735 2.2331
4.0318 1.0243 2.2331
3.9962 1.1742 2.2331
3.9558 1.3231 2.2331
3.9106 1.4709 2.2331
3.8607 1.6173 2.2331
3.8060 1.7623 2.2331
3.7465 1.9057 2.2331
3.6824 2.0475 2.2331
3.6136 2.1874 2.2331
3.5402 2.3254 2.2331
3.4971 2.4861 2.2556
3.5224 2.7046 2.3275
3.5171 2.9121 2.3855
3.4193 3.0496 2.3855
3.3168 3.1843 2.3855
3.2095 3.3160 2.3855
3.0977 3.4445 2.3855
2.9814 3.5698 2.3855
2.8605 3.6915 2.3855
2.7353 3.8097 2.3855
2.6058 3.9242 2.3855
2.4721 4.0347 2.3855
2.3342 4.1412 2.3855
2.1923 4.2434 2.3855
0.8587 1.8217 1.0010
0.7929 1.8537 0.9972
0.7259 1.8833 0.9932
0.6579 1.9105 0.9892
0.5889 1.9352 0.9852
0.5191 1.9573 0.9810
0.4485 1.9770 0.9769
0.3773 1.9941 0.9726
0.3055 2.0086 0.9683
0.2332 2.0204 0.9640
0.1605 2.0297 0.9597
0.0876 2.0364 0.9553
0.0144 2.0404 0.9509
-0.0588 2.0417 0.9465
-0.1321 2.0404 0.9421
-0.2053 2.0364 0.9377
-0.2782 2.0298 0.9332
-0.3509 2.0206 0.9288
-0.4232 2.0088 0.9244
-0.4951 1.9943 0.9200
-0.5663 1.9773 0.9157
-0.6369 1.9576 0.9114
-0.7068 1.9355 0.9071
-0.7758 1.9108 0.9028
-0.8439 1.8837 0.8986
-0.9109 1.8541 0.8945
-2.6171 4.8816 2.3855
-2.8032 4.8113 2.3855
-2.9872 4.7337 2.3855
-3.1690 4.6489 2.3855
-3.3481 4.5569 2.3855
-3.7533 3.8949 2.3855
-3.9047 3.7765 2.3855
-4.0518 3.6519 2.3855
-4.1944 3.5212 2.3855
-4.3322 3.3847 2.3855
-4.4648 3.2425 2.3855
-4.5921 3.0947 2.3855
-4.7137 2.9415 2.3855
-4.8294 2.7834 2.3855
-4.9390 2.6203 2.3855
-5.0421 2.4526 2.3855
-5.1386 2.2806 2.3855
-5.2283 2.1045 2.3855
-5.3109 1.9246 2.3855
-5.3863 1.7412 2.3855
-5.4543 1.5546 2.3855
-5.5146 1.3652 2.3855
-5.5673 1.1733 2.3855
-5.6121 0.9791 2.3855
-5.6490 0.7832 2.3855
-5.6779 0.5857 2.3855
-5.6986 0.3872 2.3855
-5.7111 0.1879 2.3855
-5.7155 -0.0119 2.3855
-5.7117 -0.2116 2.3855
-5.6997 -0.4110 2.3855
-5.6795 -0.6097 2.3855
-5.6511 -0.8073 2.3855
-5.6147 -1.0035 2.3855
-5.5704 -1.1979 2.3855
-5.5181 -1.3902 2.3855
-5.4581 -1.5800 2.3855
-5.3905 -1.7670 2.3855
-5.3154 -1.9509 2.3855
-5.2330 -2.1313 2.3855
-5.1435 -2.3079 2.3855
-5.0471 -2.4804 2.3855
-4.9441 -2.6487 2.3855
-4.8345 -2.8123 2.3855
-4.7187 -2.9711 2.3855
-4.5970 -3.1248 2.3855
-4.4695 -3.2731 2.3855
-4.3366 -3.4159 2.3855
-4.1985 -3.5530 2.3855
-4.0555 -3.6842 2.3855
-3.9080 -3.8093 2.3855
-3.7561 -3.9281 2.3855
-3.6001 -4.0407 2.3855
-3.4405 -4.1467 2.3855
-3.2774 -4.2462 2.3855
-3.1113 -4.3390 2.3855
-2.9423 -4.4251 2.3855
-2.7708 -4.5044 2.3855
-2.5970 -4.5769 2.3855
-2.4213 -4.6425 2.3855
-2.2440 -4.7013 2.3855
-2.0654 -4.7532 2.3855
-1.8857 -4.7982 2.3855
-1.7052 -4.8363 2.3855
-1.5241 -4.8677 2.3855
-1.3429 -4.8923 2.3855
-1.1616 -4.9102 2.3855
-0.9806 -4.9215 2.3855
-0.8001 -4.9262 2.3855
-0.6204 -4.9244 2.3855
-0.4416 -4.9162 2.3855
-0.2641 -4.9016 2.3855
-0.0880 -4.8809 2.3855
0.0865 -4.8541 2.3855
0.2591 -4.8214 2.3855
0.4298 -4.7827 2.3855
0.5982 -4.7383 2.3855
0.7642 -4.6883 2.3855
0.9276 -4.6329 2.3855
1.0883 -4.5721 2.3855
1.2462 -4.5061 2.3855
1.4009 -4.4351 2.3855
1.5526 -4.3591 2.3855
1.7009 -4.2784 2.3855
1.8458 -4.1931 2.3855
1.9871 -4.1033 2.3855
2.1248 -4.0092 2.3855
2.2587 -3.9108 2.3855
2.3653 -3.7711 2.3621
2.4164 -3.5575 2.2922
2.4713 -3.3670 2.2358
2.5787 -3.2566 2.2331
2.6851 -3.1472 2.2331
2.7874 -3.0347 2.2331
2.8857 -2.9193 2.2331
2.9798 -2.8011 2.2331
3.0697 -2.6802 2.2331
3.1554 -2.5568 2.2331
3.2367 -2.4311 2.2331
3.3137 -2.3031 2.2331
3.3863 -2.1731 2.2331
3.4545 -2.0410 2.2331
3.5183 -1.9072 2.2331
3.5775 -1.7716 2.2331
3.6322 -1.6345 2.2331
3.6824 -1.4959 2.2331
3.7280 -1.3561 2.2331
3.7690 -1.2150 2.2331
3.8054 -1.0730 2.2331
3.8372 -0.9300 2.2331
3.8643 -0.7862 2.2331
3.8868 -0.6418 2.2331
3.9046 -0.4968 2.2331
3.9178 -0.3514 2.2331
3.9263 -0.2058 2.2331
3.9301 -0.0600 2.2331
3.9293 0.0858 2.2331
3.9237 0.2315 2.2331
3.9136 0.3770 2.2331
3.8987 0.5221 2.2331
3.8792 0.6668 2.2331
3.8551 0.8108 2.2331
3.8263 0.9541 2.2331
3.7930 1.0966 2.2331
3.7550 1.2381 2.2331
3.7124 1.3784 2.2331
3.6653 1.5175 2.2331
3.6137 1.6552 2.2331
3.5575 1.7915 2.2331
3.4968 1.9261 2.2331
3.4358 2.0612 2.2357
3.4479 2.2457 2.2900
3.4712 2.4478 2.3572
3.4292 2.6125 2.3855
3.3411 2.7455 2.3855
3.2484 2.8759 2.3855
3.1512 3.0036 2.3855
3.0496 3.1284 2.3855
2.9437 3.2502 2.3855
2.8334 3.3688 2.3855
2.7189 3.4841 2.3855
2.6003 3.5960 2.3855
2.4776 3.7042 2.3855
2.3509 3.8087 2.3855
2.2203 3.9093 2.3855
2.0860 4.0059 2.3855
0.8150 1.7146 0.9980
0.7529 1.7450 0.9944
0.6899 1.7732 0.9907
0.6258 1.7992 0.9869
0.5609 1.8227 0.9831
0.4951 1.8440 0.9792
0.4286 1.8628 0.9753
0.3615 1.8792 0.9713
0.2938 1.8932 0.9672
0.2257 1.9047 0.9632
0.1571 1.9138 0.9591
0.0883 1.9204 0.9549
0.0193 1.9245 0.9508
-0.0498 1.9260 0.9466
-0.1189 1.9251 0.9425
-0.1879 1.9217 0.9383
-0.2568 1.9158 0.9341
-0.3254 1.9074 0.9300
-0.3937 1.8966 0.9258
-0.4615 1.8833 0.9217
-0.5288 1.8675 0.9176
-0.5955 1.8493 0.9135
-0.6615 1.8287 0.9094
-0.7267 1.8058 0.9054
-0.7911 1.7805 0.9015
-0.8544 1.7528 0.8975
-0.9168 1.7230 0.8937
-2.6217 4.5327 2.3855
-2.7944 4.4594 2.3855
-2.9648 4.3794 2.3855
-3.1327 4.2927 2.3855
-3.2978 4.1993 2.3855
-3.4597 4.0993 2.3855
-3.6183 3.9928 2.3855
-3.7732 3.8799 2.3855
-3.9240 3.7607 2.3855
-4.0706 3.6353 2.3855
-4.2126 3.5038 2.3855
-4.3497 3.3665 2.3855
-4.4817 3.2236 2.3855
-4.6082 3.0750 2.3855
-4.7291 2.9213 2.3855
-4.8440 2.7625 2.3855
-4.9527 2.5988 2.3855
-5.0550 2.4305 2.3855
-5.1507 2.2579 2.3855
-5.2394 2.0813 2.3855
-5.3211 1.9009 2.3855
-5.3955 1.7171 2.3855
-5.4625 1.5302 2.3855
-5.5219 1.3404 2.3855
-5.5736 1.1482 2.3855
-5.6174 0.9538 2.3855
-5.6532 0.7576 2.3855
-5.6810 0.5600 2.3855
-5.7007 0.3613 2.3855
-5.7122 0.1619 2.3855
-5.7155 -0.0378 2.3855
-5.7106 -0.2375 2.3855
-5.6975 -0.4368 2.3855
-5.6762 -0.6354 2.3855
-5.6469 -0.8329 2.3855
-5.6094 -1.0289 2.3855
-5.5640 -1.2230 2.3855
-5.5108 -1.4150 2.3855
-5.4497 -1.6045 2.3855
-5.3811 -1.7911 2.3855
-5.3051 -1.9745 2.3855
-5.2218 -2.1544 2.3855
-5.1314 -2.3305 2.3855
-5.0341 -2.5025 2.3855
-4.9302 -2.6702 2.3855
-4.8198 -2.8332 2.3855
-4.7033 -2.9913 2.3855
-4.5808 -3.1443 2.3855
-4.4526 -3.2920 2.3855
-4.3190 -3.4340 2.3855
-4.1802 -3.5703 2.3855
-4.0366 -3.7007 2.3855
-3.8885 -3.8250 2.3855
-3.7360 -3.9431 2.3855
-3.5796 -4.0548 2.3855
-3.4195 -4.1600 2.3855
-3.2560 -4.2586 2.3855
-3.0895 -4.3506 2.3855
-2.9201 -4.4358 2.3855
-2.7483 -4.5142 2.3855
-2.5743 -4.5858 2.3855
-2.3984 -4.6505 2.3855
-2.2209 -4.7084 2.3855
-2.0421 -4.7594 2.3855
-1.8623 -4.8035 2.3855
-1.6817 -4.8408 2.3855
-1.5006 -4.8713 2.3855
-1.3193 -4.8950 2.3855
-1.1381 -4.9121 2.3855
-0.9571 -4.9225 2.3855
-0.7767 -4.9263 2.3855
-0.5971 -4.9237 2.3855
-0.4185 -4.9146 2.3855
-0.2411 -4.8993 2.3855
-0.0652 -4.8778 2.3855
0.1090 -4.8502 2.3855
0.2814 -4.8166 2.3855
0.4517 -4.7773 2.3855
0.6199 -4.7322 2.3855
0.7855 -4.6815 2.3855
0.9486 -4.6253 2.3855
1.1090 -4.5638 2.3855
1.2664 -4.4972 2.3855
1.4208 -4.4255 2.3855
1.5720 -4.3489 2.3855
1.7199 -4.2676 2.3855
1.8644 -4.1817 2.3855
2.0052 -4.0913 2.3855
2.1424 -3.9966 2.3855
2.2758 -3.8978 2.3855
2.3722 -3.7426 2.3526
2.4228 -3.5307 2.2836
2.4829 -3.3493 2.2331
2.5927 -3.2425 2.2331
2.6986 -3.1328 2.2331
2.8004 -3.0199 2.2331
2.8981 -2.9041 2.2331
2.9917 -2.7855 2.2331
3.0811 -2.6643 2.2331
3.1662 -2.5406 2.2331
3.2470 -2.4146 2.2331
3.3234 -2.2864 2.2331
3.3955 -2.1560 2.2331
3.4631 -2.0237 2.2331
3.5262 -1.8897 2.2331
3.5849 -1.7539 2.2331
3.6390 -1.6166 2.2331
3.6886 -1.4778 2.2331
3.7336 -1.3378 2.2331
3.7740 -1.1966 2.2331
3.8098 -1.0544 2.2331
3.8409 -0.9113 2.2331
3.8675 -0.7675 2.2331
3.8894 -0.6230 2.2331
3.9066 -0.4780 2.2331
3.9191 -0.3326 2.2331
3.9270 -0.1869 2.2331
3.9303 -0.0411 2.2331
3.9288 0.1047 2.2331
3.9227 0.2504 2.2331
3.9119 0.3958 2.2331
3.8965 0.5409 2.2331
3.8764 0.6855 2.2331
3.8516 0.8295 2.2331
3.8223 0.9727 2.2331
3.7883 1.1150 2.2331
3.7497 1.2563 2.2331
3.7066 1.3965 2.2331
3.6589 1.5355 2.2331
3.6066 1.6730 2.2331
3.5499 1.8091 2.2331
3.4886 1.9434 2.2331
3.4346 2.0832 2.2407
3.4509 2.2712 2.2984
3.4743 2.4749 2.3665
3.4180 2.6299 2.3855
3.3293 2.7626 2.3855
3.2360 2.8926 2.3855
3.1383 3.0200 2.3855
3.0361 3.1444 2.3855
2.9296 3.2657 2.3855
2.8188 3.3839 2.3855
2.7038 3.4988 2.3855
2.5846 3.6102 2.3855
2.4614 3.7180 2.3855
2.3342 3.8220 2.3855
2.2031 3.9221 2.3855
2.0683 4.0181 2.3855
0.8070 1.7187 0.9976
0.7448 1.7488 0.9939
0.6816 1.7767 0.9902
0.6174 1.8024 0.9864
0.5524 1.8256 0.9826
0.4865 1.8465 0.9787
0.4199 1.8651 0.9747
0.3527 1.8812 0.9707
0.2850 1.8948 0.9667
0.2168 1.9060 0.9626
0.1482 1.9148 0.9585
0.0794 1.9210 0.9544
0.0104 1.9248 0.9503
-0.0587 1.9261 0.9461
-0.1278 1.9248 0.9419
-0.1969 1.9211 0.9378
-0.2657 1.9149 0.9336
-0.3343 1.9062 0.9294
-0.4025 1.8950 0.9253
-0.4703 1.8814 0.9211
-0.5375 1.8653 0.9170
-0.6041 1.8468 0.9130
-0.6700 1.8259 0.9089
-0.7351 1.8026 0.9049
-0.7993 1.7770 0.9009
-0.8626 1.7491 0.8970
-0.9248 1.7189 0.8932
-2.6443 4.5235 2.3855
-2.8166 4.4494 2.3855
-2.9867 4.3685 2.3855
-3.1543 4.2809 2.3855
-3.5402 3.6647 2.3855
-3.6819 3.5526 2.3855
-3.8196 3.4346 2.3855
-3.9529 3.3111 2.3855
-4.0817 3.1821 2.3855
-4.2057 3.0478 2.3855
-4.3246 2.9083 2.3855
-4.4382 2.7640 2.3855
-4.5462 2.6149 2.3855
-4.6484 2.4613 2.3855
-4.7446 2.3034 2.3855
-4.8346 2.1416 2.3855
-4.9182 1.9759 2.3855
-4.9952 1.8068 2.3855
-5.0654 1.6344 2.3855
-5.1288 1.4591 2.3855
-5.1850 1.2812 2.3855
-5.2340 1.1010 2.3855
-5.2758 0.9187 2.3855
-5.3101 0.7348 2.3855
-5.3369 0.5495 2.3855
-5.3562 0.3631 2.3855
-5.3678 0.1761 2.3855
-5.3719 -0.0113 2.3855
-5.3683 -0.1987 2.3855
-5.3571 -0.3858 2.3855
-5.3382 -0.5723 2.3855
-5.3118 -0.7578 2.3855
-5.2779 -0.9419 2.3855
-5.2365 -1.1244 2.3855
-5.1878 -1.3050 2.3855
-5.1319 -1.4832 2.3855
-5.0688 -1.6589 2.3855
-4.9988 -1.8316 2.3855
-4.9220 -2.0012 2.3855
-4.8385 -2.1672 2.3855
-4.7486 -2.3296 2.3855
-4.6524 -2.4879 2.3855
-4.5502 -2.6420 2.3855
-4.4421 -2.7916 2.3855
-4.3284 -2.9364 2.3855
-4.2093 -3.0763 2.3855
-4.0851 -3.2111 2.3855
-3.9560 -3.3406 2.3855
-3.8223 -3.4646 2.3855
-3.6842 -3.5829 2.3855
-3.5420 -3.6955 2.3855
-3.3960 -3.8021 2.3855
-3.2465 -3.9028 2.3855
-3.0937 -3.9973 2.3855
-2.9379 -4.0856 2.3855
-2.7794 -4.1676 2.3855
-2.6184 -4.2433 2.3855
-2.4553 -4.3126 2.3855
-2.2903 -4.3755 2.3855
-2.1237 -4.4319 2.3855
-1.9557 -4.4819 2.3855
-1.7867 -4.5255 2.3855
-1.6168 -4.5626 2.3855
-1.4463 -4.5934 2.3855
-1.2756 -4.6177 2.3855
-1.1047 -4.6358 2.3855
-0.9341 -4.6476 2.3855
-0.7638 -4.6532 2.3855
-0.5941 -4.6526 2.3855
-0.4253 -4.6460 2.3855
-0.2576 -4.6334 2.3855
-0.0911 -4.6149 2.3855
0.0739 -4.5907 2.3855
0.2373 -4.5608 2.3855
0.3988 -4.5253 2.3855
0.5583 -4.4844 2.3855
0.7156 -4.4381 2.3855
0.8706 -4.3866 2.3855
1.0230 -4.3300 2.3855
1.1727 -4.2685 2.3855
1.3197 -4.2021 2.3855
1.4637 -4.1310 2.3855
1.6046 -4.0554 2.3855
1.7423 -3.9753 2.3855
1.8767 -3.8909 2.3855
2.0077 -3.8024 2.3855
