ply
format ascii 1.0
element vertex 2175
property float32 x
property float32 y
property float32 z
end_header
-7.9356 0.0416 2.3936
-7.9373 -0.2430 2.3936
-7.9287 -0.5276 2.3936
-7.9096 -0.8118 2.3936
-7.8801 -1.0954 2.3936
-7.8402 -1.3778 2.3936
-7.7900 -1.6587 2.3936
-7.7295 -1.9376 2.3936
-7.6588 -2.2144 2.3936
-7.5779 -2.4884 2.3936
-7.4870 -2.7594 2.3936
-7.3861 -3.0269 2.3936
-7.2755 -3.2907 2.3936
-7.1552 -3.5503 2.3936
-7.0254 -3.8054 2.3936
-6.8863 -4.0555 2.3936
-6.7381 -4.3005 2.3936
-6.5809 -4.5399 2.3936
-6.4150 -4.7733 2.3936
-6.2406 -5.0005 2.3936
-6.0579 -5.2212 2.3936
-5.8673 -5.4350 2.3936
-5.6688 -5.6416 2.3936
-5.4630 -5.8408 2.3936
-5.2499 -6.0323 2.3936
-5.0300 -6.2158 2.3936
-4.8034 -6.3910 2.3936
-4.5706 -6.5578 2.3936
-4.3319 -6.7159 2.3936
-4.0876 -6.8650 2.3936
-3.8380 -7.0051 2.3936
-3.5835 -7.1358 2.3936
-3.3245 -7.2571 2.3936
-3.0612 -7.3687 2.3936
-2.7941 -7.4705 2.3936
-2.5236 -7.5624 2.3936
-2.2500 -7.6443 2.3936
-1.9737 -7.7161 2.3936
-1.6951 -7.7777 2.3936
-1.4145 -7.8290 2.3936
-1.1324 -7.8700 2.3936
-0.8492 -7.9006 2.3936
-0.5652 -7.9208 2.3936
-0.2808 -7.9307 2.3936
0.0020 -7.3292 2.3936
0.2645 -7.3195 2.3936
0.5262 -7.3002 2.3936
0.7870 -7.2714 2.3936
1.0463 -7.2332 2.3936
1.3039 -7.1856 2.3936
1.5595 -7.1287 2.3936
1.8126 -7.0626 2.3936
2.0630 -6.9874 2.3936
2.3103 -6.9032 2.3936
2.5542 -6.8103 2.3936
2.7944 -6.7086 2.3936
3.0306 -6.5984 2.3936
3.2624 -6.4798 2.3936
3.4897 -6.3530 2.3936
3.7121 -6.2182 2.3936
3.9292 -6.0756 2.3936
4.1410 -5.9253 2.3936
4.3470 -5.7677 2.3936
4.5470 -5.6029 2.3936
4.7409 -5.4312 2.3936
4.9283 -5.2527 2.3936
5.1090 -5.0678 2.3936
5.2828 -4.8767 2.3936
5.4496 -4.6796 2.3936
5.6090 -4.4769 2.3936
5.7610 -4.2688 2.3936
5.9053 -4.0555 2.3936
6.0418 -3.8374 2.3936
6.1703 -3.6147 2.3936
6.2907 -3.3878 2.3936
6.4029 -3.1569 2.3936
6.5067 -2.9224 2.3936
6.6020 -2.6845 2.3936
6.6887 -2.4435 2.3936
6.7668 -2.1998 2.3936
6.8361 -1.9536 2.3936
6.8965 -1.7053 2.3936
6.9481 -1.4552 2.3936
6.9908 -1.2037 2.3936
7.0246 -0.9509 2.3936
7.0479 -0.6971 2.3931
6.9161 -0.4336 2.3431
6.8089 -0.1815 2.3046
6.7213 0.0626 2.2757
6.6489 0.3013 2.2547
6.6004 0.5375 2.2447
6.5629 0.7730 2.2412
6.5274 1.0080 2.2412
6.4978 1.2442 2.2461
6.4732 1.4828 2.2556
6.4546 1.7251 2.2703
6.4358 1.9707 2.2881
6.4162 2.2202 2.3090
6.3957 2.4742 2.3330
6.3743 2.7335 2.3604
6.3519 2.9989 2.3912
6.2444 3.2279 2.3936
6.1228 3.4497 2.3936
5.9934 3.6670 2.3936
5.8566 3.8796 2.3936
5.7123 4.0873 2.3936
5.5609 4.2897 2.3936
5.4025 4.4867 2.3936
5.2373 4.6780 2.3936
5.0655 4.8634 2.3936
4.8872 5.0426 2.3936
4.7028 5.2155 2.3936
4.5124 5.3818 2.3936
4.3163 5.5413 2.3936
4.1147 5.6939 2.3936
3.9078 5.8393 2.3936
3.6959 5.9774 2.3936
3.4793 6.1080 2.3936
3.2581 6.2309 2.3936
3.0327 6.3460 2.3936
2.8033 6.4531 2.3936
2.5703 6.5522 2.3936
2.3338 6.6430 2.3936
0.8448 2.7133 0.9657
0.7468 2.7424 0.9654
0.6478 2.7679 0.9651
0.5479 2.7898 0.9647
0.4472 2.8081 0.9644
0.3460 2.8228 0.9640
0.2443 2.8338 0.9635
0.1422 2.8411 0.9631
0.0400 2.8447 0.9626
-0.0624 2.8446 0.9621
-0.1646 2.8409 0.9615
-0.2667 2.8334 0.9610
-0.3684 2.8222 0.9604
-0.4697 2.8074 0.9597
-0.5703 2.7890 0.9591
-0.6702 2.7669 0.9584
-0.7693 2.7412 0.9577
-0.8674 2.7119 0.9570
-2.4137 6.7058 2.3936
-2.6553 6.6203 2.3936
-2.8938 6.5261 2.3936
-3.1291 6.4234 2.3936
-3.3607 6.3123 2.3936
-3.5884 6.1930 2.3936
-3.8119 6.0655 2.3936
-4.0309 5.9300 2.3936
-4.2450 5.7866 2.3936
-4.4541 5.6355 2.3936
-4.6578 5.4769 2.3936
-4.8558 5.3110 2.3936
-5.0479 5.1380 2.3936
-5.2338 4.9580 2.3936
-5.4133 4.7713 2.3936
-5.5861 4.5781 2.3936
-5.7520 4.3787 2.3936
-5.9107 4.1733 2.3936
-6.0621 3.9620 2.3936
-6.2058 3.7454 2.3936
-6.3417 3.5234 2.3936
-6.4697 3.2966 2.3936
-6.5894 3.0651 2.3936
-6.7008 2.8292 2.3936
-6.8036 2.5893 2.3936
-6.8977 2.3456 2.3936
-6.9831 2.0985 2.3936
-7.0594 1.8483 2.3936
-7.1266 1.5952 2.3936
-7.1847 1.3398 2.3936
-7.2334 1.0822 2.3936
-7.2728 0.8229 2.3936
-7.3027 0.5621 2.3936
-7.3232 0.3002 2.3936
-7.3340 0.0377 2.3936
-7.3353 -0.2253 2.3936
-7.3270 -0.4882 2.3936
-7.3090 -0.7509 2.3936
-7.2815 -1.0128 2.3936
-7.2444 -1.2737 2.3936
-7.1977 -1.5331 2.3936
-7.1415 -1.7908 2.3936
-7.0760 -2.0464 2.3936
-7.0011 -2.2994 2.3936
-6.9169 -2.5497 2.3936
-6.8236 -2.7968 2.3936
-6.7212 -3.0403 2.3936
-6.6100 -3.2800 2.3936
-6.4900 -3.5156 2.3936
-6.3614 -3.7466 2.3936
-6.2244 -3.9728 2.3936
-6.0791 -4.1938 2.3936
-5.9259 -4.4094 2.3936
-5.7647 -4.6192 2.3936
-5.5960 -4.8229 2.3936
-5.4199 -5.0204 2.3936
-5.2367 -5.2112 2.3936
-5.0465 -5.3952 2.3936
-4.8498 -5.5721 2.3936
-4.6467 -5.7416 2.3936
-4.4375 -5.9035 2.3936
-4.2226 -6.0577 2.3936
-4.0022 -6.2037 2.3936
-3.7766 -6.3416 2.3936
-3.5461 -6.4711 2.3936
-3.3111 -6.5920 2.3936
-3.0719 -6.7042 2.3936
-2.8288 -6.8074 2.3936
-2.5822 -6.9017 2.3936
-2.3324 -6.9869 2.3936
-2.0797 -7.0628 2.3936
-1.8245 -7.1294 2.3936
-1.5672 -7.1865 2.3936
-1.3081 -7.2342 2.3936
-1.0475 -7.2724 2.3936
-0.7858 -7.3010 2.3936
-0.5234 -7.3200 2.3936
-0.2606 -7.3294 2.3936
0.0022 -7.3292 2.3936
0.2646 -7.3195 2.3936
0.5264 -7.3002 2.3936
0.7871 -7.2714 2.3936
1.0465 -7.2332 2.3936
1.3041 -7.1855 2.3936
1.5596 -7.1286 2.3936
1.8127 -7.0625 2.3936
2.0631 -6.9873 2.3936
2.3104 -6.9032 2.3936
2.5543 -6.8102 2.3936
2.7945 -6.7085 2.3936
3.0307 -6.5983 2.3936
3.2626 -6.4797 2.3936
3.4899 -6.3529 2.3936
3.7122 -6.2181 2.3936
3.9294 -6.0755 2.3936
4.1411 -5.9252 2.3936
4.3471 -5.7676 2.3936
4.5472 -5.6028 2.3936
4.7410 -5.4311 2.3936
4.9284 -5.2526 2.3936
5.1091 -5.0677 2.3936
5.2829 -4.8766 2.3936
5.4497 -4.6795 2.3936
5.6091 -4.4768 2.3936
5.7611 -4.2686 2.3936
5.9054 -4.0554 2.3936
6.0419 -3.8373 2.3936
6.1704 -3.6146 2.3936
6.2908 -3.3877 2.3936
6.4030 -3.1568 2.3936
6.5067 -2.9222 2.3936
6.6020 -2.6843 2.3936
6.6888 -2.4433 2.3936
6.7668 -2.1996 2.3936
6.8361 -1.9535 2.3936
6.8966 -1.7052 2.3936
6.9482 -1.4551 2.3936
6.9908 -1.2035 2.3936
7.0246 -0.9507 2.3936
7.0478 -0.6969 2.3931
6.9160 -0.4335 2.3431
6.8088 -0.1813 2.3046
6.7212 0.0628 2.2757
6.6489 0.3015 2.2547
6.6004 0.5377 2.2447
6.5629 0.7731 2.2412
6.5274 1.0082 2.2412
6.4978 1.2444 2.2461
6.4732 1.4829 2.2557
6.4546 1.7252 2.2703
6.4358 1.9709 2.2882
6.4162 2.2204 2.3090
6.3957 2.4744 2.3330
6.3743 2.7337 2.3604
6.3519 2.9990 2.3912
6.2444 3.2280 2.3936
6.1227 3.4498 2.3936
5.9933 3.6671 2.3936
5.8565 3.8798 2.3936
5.7122 4.0874 2.3936
5.5608 4.2899 2.3936
5.4024 4.4868 2.3936
5.2372 4.6781 2.3936
5.0653 4.8635 2.3936
4.8871 5.0427 2.3936
4.7027 5.2156 2.3936
4.5123 5.3819 2.3936
4.3162 5.5414 2.3936
4.1146 5.6940 2.3936
3.9077 5.8394 2.3936
3.6958 5.9774 2.3936
3.4791 6.1080 2.3936
3.2580 6.2309 2.3936
3.0326 6.3460 2.3936
2.8032 6.4532 2.3936
2.5701 6.5522 2.3936
2.3336 6.6430 2.3936
0.8448 2.7133 0.9657
0.7467 2.7424 0.9654
0.6477 2.7679 0.9651
0.5478 2.7898 0.9647
0.4472 2.8081 0.9644
0.3459 2.8228 0.9640
0.2442 2.8338 0.9635
0.1422 2.8411 0.9631
0.0399 2.8447 0.9626
-0.0624 2.8446 0.9621
-0.1647 2.8409 0.9615
-0.2667 2.8334 0.9610
-0.3685 2.8222 0.9604
-0.4697 2.8074 0.9597
-0.5704 2.7889 0.9591
-0.6703 2.7668 0.9584
-0.7694 2.7411 0.9577
-0.8674 2.7119 0.9570
-2.4138 6.7057 2.3936
-2.6554 6.6202 2.3936
-2.8940 6.5260 2.3936
-3.1292 6.4234 2.3936
-3.3609 6.3123 2.3936
-3.5886 6.1929 2.3936
-3.8120 6.0654 2.3936
-4.0310 5.9299 2.3936
-4.2452 5.7865 2.3936
-4.4542 5.6354 2.3936
-4.6579 5.4769 2.3936
-4.8559 5.3109 2.3936
-5.0480 5.1378 2.3936
-5.2339 4.9579 2.3936
-5.4134 4.7712 2.3936
-5.5862 4.5780 2.3936
-5.7521 4.3786 2.3936
-5.9108 4.1731 2.3936
-6.0622 3.9619 2.3936
-6.2059 3.7452 2.3936
-6.3418 3.5233 2.3936
-6.4697 3.2964 2.3936
-6.5895 3.0649 2.3936
-6.7008 2.8290 2.3936
-6.8037 2.5891 2.3936
-6.8978 2.3454 2.3936
-6.9831 2.0983 2.3936
-7.0594 1.8481 2.3936
-7.1267 1.5951 2.3936
-7.1847 1.3396 2.3936
-7.2335 1.0820 2.3936
-7.2728 0.8227 2.3936
-7.3028 0.5619 2.3936
-7.3232 0.3001 2.3936
-7.3340 0.0375 2.3936
-7.3353 -0.2255 2.3936
-7.3269 -0.4884 2.3936
-7.3090 -0.7510 2.3936
-7.2815 -1.0130 2.3936
-7.2443 -1.2738 2.3936
-7.1977 -1.5333 2.3936
-7.1415 -1.7910 2.3936
-7.0759 -2.0465 2.3936
-7.0010 -2.2996 2.3936
-6.9168 -2.5498 2.3936
-6.8235 -2.7969 2.3936
-6.7212 -3.0405 2.3936
-6.6099 -3.2802 2.3936
-6.4899 -3.5157 2.3936
-6.3613 -3.7467 2.3936
-6.2243 -3.9729 2.3936
-6.0790 -4.1939 2.3936
-5.9258 -4.4095 2.3936
-5.7646 -4.6193 2.3936
-5.5959 -4.8231 2.3936
-5.4198 -5.0205 2.3936
-5.2365 -5.2114 2.3936
-5.0464 -5.3954 2.3936
-4.8497 -5.5722 2.3936
-4.6466 -5.7417 2.3936
-4.4374 -5.9037 2.3936
-4.2224 -6.0578 2.3936
-4.0020 -6.2038 2.3936
-3.7764 -6.3417 2.3936
-3.5460 -6.4712 2.3936
-3.3110 -6.5921 2.3936
-3.0718 -6.7042 2.3936
-2.8287 -6.8075 2.3936
-2.5821 -6.9018 2.3936
-2.3322 -6.9869 2.3936
-2.0796 -7.0628 2.3936
-1.8244 -7.1294 2.3936
-1.5670 -7.1865 2.3936
-1.3079 -7.2342 2.3936
-1.0473 -7.2724 2.3936
-0.7856 -7.3010 2.3936
-0.5232 -7.3200 2.3936
-0.2605 -7.3294 2.3936
0.0009 -6.8059 2.3936
0.2446 -6.7972 2.3936
0.4877 -6.7796 2.3936
0.7298 -6.7532 2.3936
0.9707 -6.7180 2.3936
1.2100 -6.6741 2.3936
1.4474 -6.6216 2.3936
1.6826 -6.5605 2.3936
1.9152 -6.4910 2.3936
2.1450 -6.4132 2.3936
2.3717 -6.3272 2.3936
2.5950 -6.2331 2.3936
2.8146 -6.1310 2.3936
3.0302 -6.0212 2.3936
3.2415 -5.9037 2.3936
3.4483 -5.7788 2.3936
3.6503 -5.6466 2.3936
3.8473 -5.5073 2.3936
4.0390 -5.3611 2.3936
4.2251 -5.2083 2.3936
4.4055 -5.0489 2.3936
4.5800 -4.8834 2.3936
4.7482 -4.7117 2.3936
4.9101 -4.5344 2.3936
5.0654 -4.3514 2.3936
5.2139 -4.1632 2.3936
5.3555 -3.9699 2.3936
5.4900 -3.7718 2.3936
5.6172 -3.5692 2.3936
5.7371 -3.3624 2.3936
5.8494 -3.1515 2.3936
5.9540 -2.9370 2.3936
6.0508 -2.7189 2.3936
6.1398 -2.4978 2.3936
6.2208 -2.2738 2.3936
6.2937 -2.0472 2.3936
6.3585 -1.8183 2.3936
6.4151 -1.5874 2.3936
6.4634 -1.3548 2.3936
6.5034 -1.1208 2.3936
6.5351 -0.8856 2.3936
6.5584 -0.6496 2.3936
6.5733 -0.4131 2.3936
6.5799 -0.1763 2.3936
6.5781 0.0604 2.3936
6.5679 0.2968 2.3936
6.5494 0.5326 2.3936
6.5185 0.7670 2.3921
6.4852 1.0008 2.3928
6.4442 1.2333 2.3936
6.3928 1.4637 2.3936
6.3333 1.6921 2.3936
6.2659 1.9181 2.3936
6.1905 2.1415 2.3936
6.1073 2.3621 2.3936
6.0165 2.5796 2.3936
5.9181 2.7936 2.3936
5.8122 3.0041 2.3936
5.6991 3.2106 2.3936
5.5787 3.4130 2.3936
5.4514 3.6109 2.3936
5.3171 3.8043 2.3936
5.1762 3.9928 2.3936
5.0288 4.1762 2.3936
4.8750 4.3543 2.3936
4.7150 4.5269 2.3936
4.5491 4.6938 2.3936
4.3774 4.8547 2.3936
4.2001 5.0095 2.3936
4.0175 5.1579 2.3936
3.8298 5.2999 2.3936
3.6371 5.4353 2.3936
3.4398 5.5637 2.3936
3.2381 5.6852 2.3936
3.0321 5.7996 2.3936
2.8222 5.9066 2.3936
2.6087 6.0062 2.3936
2.3916 6.0983 2.3936
0.8747 2.4904 0.9642
0.7846 2.5207 0.9639
0.6935 2.5477 0.9637
0.6015 2.5714 0.9634
0.5087 2.5917 0.9631
0.4152 2.6087 0.9627
0.3211 2.6223 0.9623
0.2266 2.6325 0.9620
0.1318 2.6393 0.9615
0.0368 2.6427 0.9611
-0.0583 2.6426 0.9606
-0.1533 2.6391 0.9601
-0.2481 2.6321 0.9596
-0.3426 2.6218 0.9590
-0.4367 2.6080 0.9584
-0.5302 2.5908 0.9578
-0.6231 2.5703 0.9572
-0.7151 2.5464 0.9566
-0.8062 2.5193 0.9559
-0.8963 2.4888 0.9552
-2.4705 6.1565 2.3936
-2.6923 6.0686 2.3936
-2.9109 5.9728 2.3936
-3.1262 5.8692 2.3936
-3.3377 5.7579 2.3936
-3.5454 5.6390 2.3936
-3.7487 5.5127 2.3936
-3.9476 5.3791 2.3936
-4.1418 5.2383 2.3936
-4.3309 5.0906 2.3936
-4.5147 4.9361 2.3936
-4.6930 4.7749 2.3936
-4.8655 4.6074 2.3936
-5.0321 4.4336 2.3936
-5.1924 4.2538 2.3936
-5.3462 4.0682 2.3936
-5.4934 3.8771 2.3936
-5.6337 3.6806 2.3936
-5.7670 3.4791 2.3936
-5.8929 3.2727 2.3936
-6.0115 3.0617 2.3936
-6.1224 2.8465 2.3936
-6.2255 2.6272 2.3936
-6.3207 2.4042 2.3936
-6.4078 2.1778 2.3936
-6.4867 1.9481 2.3936
-6.5573 1.7156 2.3936
-6.6194 1.4806 2.3936
-6.6730 1.2433 2.3936
-6.7179 1.0040 2.3936
-6.7542 0.7632 2.3936
-6.7817 0.5210 2.3936
-6.8003 0.2779 2.3936
-6.8101 0.0341 2.3936
-6.8110 -0.2101 2.3936
-6.8030 -0.4542 2.3936
-6.7861 -0.6980 2.3936
-6.7603 -0.9411 2.3936
-6.7256 -1.1832 2.3936
-6.6821 -1.4240 2.3936
-6.6298 -1.6631 2.3936
-6.5687 -1.9003 2.3936
-6.4990 -2.1351 2.3936
-6.4207 -2.3673 2.3936
-6.3339 -2.5966 2.3936
-6.2388 -2.8226 2.3936
-6.1355 -3.0450 2.3936
-6.0240 -3.2635 2.3936
-5.9046 -3.4779 2.3936
-5.7773 -3.6877 2.3936
-5.6425 -3.8928 2.3936
-5.5002 -4.0928 2.3936
-5.3506 -4.2875 2.3936
-5.1941 -4.4766 2.3936
-5.0306 -4.6598 2.3936
-4.8606 -4.8369 2.3936
-4.6841 -5.0077 2.3936
-4.5016 -5.1718 2.3936
-4.3131 -5.3292 2.3936
-4.1191 -5.4795 2.3936
-3.9196 -5.6226 2.3936
-3.7151 -5.7582 2.3936
-3.5058 -5.8863 2.3936
-3.2920 -6.0065 2.3936
-3.0740 -6.1189 2.3936
-2.8520 -6.2231 2.3936
-2.6265 -6.3191 2.3936
-2.3976 -6.4068 2.3936
-2.1658 -6.4860 2.3936
-1.9314 -6.5566 2.3936
-1.6945 -6.6186 2.3936
-1.4557 -6.6719 2.3936
-1.2152 -6.7164 2.3936
-0.9733 -6.7521 2.3936
-0.7305 -6.7789 2.3936
-0.4869 -6.7968 2.3936
-0.2429 -6.8058 2.3936
0.0011 -6.8059 2.3936
0.2448 -6.7972 2.3936
0.4879 -6.7796 2.3936
0.7300 -6.7531 2.3936
0.9709 -6.7180 2.3936
1.2102 -6.6741 2.3936
1.4475 -6.6215 2.3936
1.6827 -6.5605 2.3936
1.9154 -6.4910 2.3936
2.1452 -6.4132 2.3936
2.3719 -6.3271 2.3936
2.5952 -6.2330 2.3936
2.8147 -6.1310 2.3936
3.0303 -6.0211 2.3936
3.2416 -5.9036 2.3936
3.4484 -5.7787 2.3936
3.6504 -5.6465 2.3936
3.8474 -5.5072 2.3936
4.0391 -5.3610 2.3936
4.2252 -5.2082 2.3936
4.4056 -5.0488 2.3936
4.5801 -4.8832 2.3936
4.7483 -4.7116 2.3936
4.9102 -4.5342 2.3936
5.0655 -4.3513 2.3936
5.2140 -4.1631 2.3936
5.3556 -3.9698 2.3936
5.4901 -3.7717 2.3936
5.6173 -3.5691 2.3936
5.7372 -3.3622 2.3936
5.8494 -3.1514 2.3936
5.9541 -2.9368 2.3936
6.0509 -2.7188 2.3936
6.1399 -2.4977 2.3936
6.2209 -2.2736 2.3936
6.2938 -2.0470 2.3936
6.3585 -1.8181 2.3936
6.4151 -1.5872 2.3936
6.4634 -1.3546 2.3936
6.5034 -1.1206 2.3936
6.5351 -0.8854 2.3936
6.5584 -0.6495 2.3936
6.5733 -0.4129 2.3936
6.5799 -0.1761 2.3936
6.5781 0.0606 2.3936
6.5679 0.2970 2.3936
6.5494 0.5328 2.3936
6.5185 0.7671 2.3921
6.4852 1.0009 2.3928
6.4442 1.2334 2.3936
6.3928 1.4639 2.3936
6.3333 1.6922 2.3936
6.2658 1.9182 2.3936
6.1905 2.1417 2.3936
6.1073 2.3623 2.3936
6.0164 2.5797 2.3936
5.9180 2.7938 2.3936
5.8122 3.0042 2.3936
5.6990 3.2107 2.3936
5.5787 3.4131 2.3936
5.4513 3.6111 2.3936
5.3170 3.8045 2.3936
5.1761 3.9929 2.3936
5.0287 4.1763 2.3936
4.8749 4.3544 2.3936
4.7149 4.5270 2.3936
4.5490 4.6938 2.3936
4.3772 4.8548 2.3936
4.2000 5.0096 2.3936
4.0174 5.1580 2.3936
3.8296 5.3000 2.3936
3.6370 5.4354 2.3936
3.4397 5.5638 2.3936
3.2379 5.6853 2.3936
3.0320 5.7996 2.3936
2.8221 5.9067 2.3936
2.6085 6.0063 2.3936
2.3915 6.0983 2.3936
0.8746 2.4904 0.9642
0.7846 2.5207 0.9639
0.6935 2.5477 0.9637
0.6014 2.5714 0.9634
0.5086 2.5917 0.9631
0.4151 2.6087 0.9627
0.3210 2.6223 0.9623
0.2265 2.6325 0.9619
0.1317 2.6393 0.9615
0.0367 2.6427 0.9611
-0.0584 2.6426 0.9606
-0.1534 2.6391 0.9601
-0.2482 2.6321 0.9596
-0.3427 2.6217 0.9590
-0.4368 2.6080 0.9584
-0.5303 2.5908 0.9578
-0.6231 2.5703 0.9572
-0.7152 2.5464 0.9566
-0.8063 2.5192 0.9559
-0.8964 2.4888 0.9552
-2.4707 6.1565 2.3936
-2.6924 6.0686 2.3936
-2.9111 5.9727 2.3936
-3.1263 5.8691 2.3936
-3.3379 5.7578 2.3936
-3.5455 5.6389 2.3936
-3.7489 5.5126 2.3936
-3.9478 5.3790 2.3936
-4.1419 5.2382 2.3936
-4.3310 5.0905 2.3936
-4.5148 4.9360 2.3936
-4.6931 4.7748 2.3936
-4.8657 4.6073 2.3936
-5.0322 4.4335 2.3936
-5.1925 4.2537 2.3936
-5.3463 4.0680 2.3936
-5.4935 3.8769 2.3936
-5.6338 3.6805 2.3936
-5.7671 3.4789 2.3936
-5.8930 3.2726 2.3936
-6.0115 3.0616 2.3936
-6.1225 2.8464 2.3936
-6.2256 2.6271 2.3936
-6.3207 2.4041 2.3936
-6.4079 2.1776 2.3936
-6.4867 1.9480 2.3936
-6.5573 1.7155 2.3936
-6.6194 1.4804 2.3936
-6.6730 1.2431 2.3936
-6.7180 1.0039 2.3936
-6.7542 0.7630 2.3936
-6.7817 0.5209 2.3936
-6.8003 0.2777 2.3936
-6.8101 0.0339 2.3936
-6.8110 -0.2102 2.3936
-6.8030 -0.4543 2.3936
-6.7861 -0.6981 2.3936
-6.7603 -0.9412 2.3936
-6.7256 -1.1834 2.3936
-6.6820 -1.4241 2.3936
-6.6297 -1.6633 2.3936
-6.5687 -1.9004 2.3936
-6.4989 -2.1353 2.3936
-6.4206 -2.3675 2.3936
-6.3339 -2.5967 2.3936
-6.2388 -2.8227 2.3936
-6.1354 -3.0452 2.3936
-6.0239 -3.2637 2.3936
-5.9045 -3.4780 2.3936
-5.7774 -3.6879 2.3936
-5.6424 -3.8929 2.3936
-5.5001 -4.0930 2.3936
-5.3505 -4.2877 2.3936
-5.1939 -4.4767 2.3936
-5.0305 -4.6599 2.3936
-4.8604 -4.8371 2.3936
-4.6840 -5.0078 2.3936
-4.5015 -5.1720 2.3936
-4.3130 -5.3293 2.3936
-4.1189 -5.4796 2.3936
-3.9195 -5.6227 2.3936
-3.7150 -5.7583 2.3936
-3.5057 -5.8863 2.3936
-3.2919 -6.0066 2.3936
-3.0738 -6.1189 2.3936
-2.8519 -6.2231 2.3936
-2.6263 -6.3191 2.3936
-2.3975 -6.4068 2.3936
-2.1657 -6.4860 2.3936
-1.9312 -6.5566 2.3936
-1.6944 -6.6186 2.3936
-1.4556 -6.6719 2.3936
-1.2151 -6.7164 2.3936
-0.9732 -6.7521 2.3936
-0.7303 -6.7789 2.3936
-0.4867 -6.7968 2.3936
-0.2428 -6.8058 2.3936
-0.0000 -6.3456 2.3936
0.2272 -6.3377 2.3936
0.4538 -6.3216 2.3936
0.6796 -6.2972 2.3936
0.9042 -6.2646 2.3936
1.1274 -6.2240 2.3936
1.3488 -6.1753 2.3936
1.5681 -6.1186 2.3936
1.7852 -6.0541 2.3936
1.9996 -5.9818 2.3936
2.2111 -5.9019 2.3936
2.4195 -5.8144 2.3936
2.6244 -5.7195 2.3936
2.8256 -5.6173 2.3936
3.0229 -5.5080 2.3936
3.2159 -5.3917 2.3936
3.4046 -5.2687 2.3936
3.5885 -5.1390 2.3936
3.7675 -5.0028 2.3936
3.9414 -4.8605 2.3936
4.1100 -4.7120 2.3936
4.2730 -4.5578 2.3936
4.4302 -4.3979 2.3936
4.5815 -4.2325 2.3936
4.7267 -4.0620 2.3936
4.8655 -3.8865 2.3936
4.9979 -3.7063 2.3936
5.1237 -3.5216 2.3936
5.2427 -3.3327 2.3936
5.3549 -3.1397 2.3936
5.4600 -2.9430 2.3936
5.5579 -2.7428 2.3936
5.6486 -2.5394 2.3936
5.7319 -2.3331 2.3936
5.8078 -2.1240 2.3936
5.8761 -1.9125 2.3936
5.9369 -1.6988 2.3936
5.9900 -1.4832 2.3936
6.0354 -1.2661 2.3936
6.0730 -1.0476 2.3936
6.1028 -0.8280 2.3936
6.1248 -0.6076 2.3936
6.1390 -0.3867 2.3936
6.1453 -0.1655 2.3936
6.1438 0.0556 2.3936
6.1345 0.2765 2.3936
6.1174 0.4967 2.3936
6.0926 0.7161 2.3936
6.0600 0.9344 2.3936
6.0197 1.1514 2.3936
5.9718 1.3667 2.3936
5.9164 1.5801 2.3936
5.8535 1.7913 2.3936
5.7832 2.0001 2.3936
5.7057 2.2063 2.3936
5.6209 2.4095 2.3936
5.5290 2.6096 2.3936
5.4302 2.8062 2.3936
5.3245 2.9992 2.3936
5.2121 3.1884 2.3936
5.0932 3.3734 2.3936
4.9678 3.5541 2.3936
4.8361 3.7303 2.3936
4.6983 3.9017 2.3936
4.5546 4.0681 2.3936
4.4051 4.2294 2.3936
4.2501 4.3853 2.3936
4.0896 4.5357 2.3936
3.9240 4.6803 2.3936
3.7533 4.8191 2.3936
3.5778 4.9517 2.3936
3.3978 5.0781 2.3936
3.2134 5.1981 2.3936
3.0248 5.3115 2.3936
2.8324 5.4183 2.3936
2.6362 5.5182 2.3936
2.4366 5.6112 2.3936
0.8985 2.2916 0.9628
0.8156 2.3228 0.9626
0.7316 2.3510 0.9624
0.6466 2.3762 0.9622
0.5607 2.3983 0.9619
0.4741 2.4172 0.9616
0.3869 2.4331 0.9613
0.2992 2.4458 0.9609
0.2110 2.4553 0.9606
0.1226 2.4616 0.9602
0.0339 2.4647 0.9597
-0.0547 2.4646 0.9593
-0.1434 2.4613 0.9588
-0.2318 2.4549 0.9583
-0.3200 2.4452 0.9578
-0.4077 2.4323 0.9573
-0.4949 2.4163 0.9567
-0.5815 2.3972 0.9561
-0.6674 2.3749 0.9555
-0.7524 2.3496 0.9549
-0.8364 2.3212 0.9543
-2.3075 5.7473 2.3936
-2.5144 5.6650 2.3936
-2.7184 5.5752 2.3936
-2.9192 5.4782 2.3936
-3.1166 5.3740 2.3936
-3.3102 5.2628 2.3936
-3.4999 5.1446 2.3936
-3.6854 5.0197 2.3936
-3.8664 4.8881 2.3936
-4.0427 4.7500 2.3936
-4.2140 4.6055 2.3936
-4.3802 4.4549 2.3936
-4.5410 4.2983 2.3936
-4.6961 4.1360 2.3936
-4.8454 3.9680 2.3936
-4.9887 3.7947 2.3936
-5.1258 3.6162 2.3936
-5.2565 3.4328 2.3936
-5.3805 3.2445 2.3936
-5.4977 3.0519 2.3936
-5.6080 2.8550 2.3936
-5.7112 2.6541 2.3936
-5.8071 2.4494 2.3936
-5.8956 2.2413 2.3936
-5.9765 2.0300 2.3936
-6.0498 1.8158 2.3936
-6.1153 1.5989 2.3936
-6.1730 1.3797 2.3936
-6.2227 1.1584 2.3936
-6.2644 0.9353 2.3936
-6.2979 0.7107 2.3936
-6.3233 0.4849 2.3936
-6.3404 0.2582 2.3936
-6.3493 0.0309 2.3936
-6.3499 -0.1967 2.3936
-6.3422 -0.4242 2.3936
-6.3263 -0.6514 2.3936
-6.3020 -0.8780 2.3936
-6.2695 -1.1037 2.3936
-6.2287 -1.3280 2.3936
-6.1798 -1.5509 2.3936
-6.1228 -1.7719 2.3936
-6.0576 -1.9907 2.3936
-5.9846 -2.2071 2.3936
-5.9036 -2.4207 2.3936
-5.8148 -2.6312 2.3936
-5.7184 -2.8384 2.3936
-5.6145 -3.0420 2.3936
-5.5031 -3.2417 2.3936
-5.3845 -3.4372 2.3936
-5.2588 -3.6283 2.3936
-5.1261 -3.8147 2.3936
-4.9868 -3.9961 2.3936
-4.8408 -4.1722 2.3936
-4.6885 -4.3430 2.3936
-4.5301 -4.5080 2.3936
-4.3657 -4.6671 2.3936
-4.1956 -4.8201 2.3936
-4.0200 -4.9667 2.3936
-3.8392 -5.1069 2.3936
-3.6534 -5.2402 2.3936
-3.4628 -5.3667 2.3936
-3.2678 -5.4861 2.3936
-3.0686 -5.5982 2.3936
-2.8655 -5.7030 2.3936
-2.6587 -5.8002 2.3936
-2.4486 -5.8898 2.3936
-2.2354 -5.9717 2.3936
-2.0194 -6.0456 2.3936
-1.8009 -6.1116 2.3936
-1.5803 -6.1696 2.3936
-1.3577 -6.2194 2.3936
-1.1336 -6.2611 2.3936
-0.9082 -6.2945 2.3936
-0.6818 -6.3197 2.3936
-0.4547 -6.3366 2.3936
-0.2273 -6.3453 2.3936
0.0001 -6.3456 2.3936
0.2273 -6.3377 2.3936
0.4540 -6.3215 2.3936
0.6797 -6.2972 2.3936
0.9043 -6.2646 2.3936
1.1275 -6.2239 2.3936
1.3489 -6.1753 2.3936
1.5683 -6.1186 2.3936
1.7853 -6.0541 2.3936
1.9997 -5.9818 2.3936
2.2112 -5.9018 2.3936
2.4196 -5.8143 2.3936
2.6245 -5.7194 2.3936
2.8257 -5.6172 2.3936
3.0230 -5.5079 2.3936
3.2161 -5.3916 2.3936
3.4047 -5.2686 2.3936
3.5886 -5.1389 2.3936
3.7676 -5.0028 2.3936
3.9415 -4.8604 2.3936
4.1101 -4.7119 2.3936
4.2731 -4.5577 2.3936
4.4303 -4.3978 2.3936
4.5816 -4.2324 2.3936
4.7267 -4.0619 2.3936
4.8656 -3.8864 2.3936
4.9980 -3.7062 2.3936
5.1238 -3.5215 2.3936
5.2428 -3.3325 2.3936
5.3549 -3.1396 2.3936
5.4600 -2.9429 2.3936
5.5580 -2.7427 2.3936
5.6486 -2.5393 2.3936
5.7320 -2.3329 2.3936
5.8078 -2.1238 2.3936
5.8762 -1.9123 2.3936
5.9369 -1.6987 2.3936
5.9900 -1.4831 2.3936
6.0354 -1.2659 2.3936
6.0730 -1.0474 2.3936
6.1028 -0.8278 2.3936
6.1248 -0.6074 2.3936
6.1390 -0.3865 2.3936
6.1453 -0.1654 2.3936
6.1438 0.0558 2.3936
6.1345 0.2766 2.3936
6.1174 0.4969 2.3936
6.0926 0.7163 2.3936
6.0600 0.9346 2.3936
6.0197 1.1515 2.3936
5.9718 1.3668 2.3936
5.9164 1.5802 2.3936
5.8535 1.7914 2.3936
5.7832 2.0003 2.3936
5.7056 2.2064 2.3936
5.6208 2.4096 2.3936
5.5290 2.6097 2.3936
5.4301 2.8063 2.3936
5.3244 2.9994 2.3936
5.2120 3.1885 2.3936
5.0931 3.3735 2.3936
4.9677 3.5542 2.3936
4.8360 3.7304 2.3936
4.6982 3.9018 2.3936
4.5545 4.0682 2.3936
4.4051 4.2295 2.3936
4.2500 4.3854 2.3936
4.0895 4.5358 2.3936
3.9239 4.6804 2.3936
3.7532 4.8191 2.3936
3.5777 4.9518 2.3936
3.3977 5.0782 2.3936
3.2133 5.1982 2.3936
3.0247 5.3116 2.3936
2.8322 5.4184 2.3936
2.6361 5.5183 2.3936
2.4365 5.6113 2.3936
0.8985 2.2916 0.9628
0.8155 2.3228 0.9626
0.7315 2.3510 0.9624
0.6465 2.3762 0.9622
0.5607 2.3983 0.9619
0.4741 2.4173 0.9616
0.3869 2.4331 0.9613
0.2991 2.4458 0.9609
0.2110 2.4553 0.9606
0.1225 2.4616 0.9602
0.0339 2.4647 0.9597
-0.0548 2.4646 0.9593
-0.1434 2.4613 0.9588
-0.2319 2.4549 0.9583
-0.3200 2.4452 0.9578
-0.4078 2.4323 0.9573
-0.4950 2.4163 0.9567
-0.5816 2.3972 0.9561
-0.6675 2.3749 0.9555
-0.7524 2.3496 0.9549
-0.8365 2.3212 0.9543
-2.3076 5.7472 2.3936
-2.5146 5.6649 2.3936
-2.7186 5.5752 2.3936
-2.9194 5.4782 2.3936
-3.1167 5.3740 2.3936
-3.3104 5.2627 2.3936
-3.5000 5.1446 2.3936
-3.6855 5.0196 2.3936
-3.8665 4.8880 2.3936
-4.0428 4.7499 2.3936
-4.2141 4.6054 2.3936
-4.3803 4.4548 2.3936
-4.5411 4.2982 2.3936
-4.6962 4.1359 2.3936
-4.8455 3.9679 2.3936
-4.9888 3.7946 2.3936
-5.1259 3.6160 2.3936
-5.2565 3.4325 2.3936
-5.3805 3.2444 2.3936
-5.4978 3.0517 2.3936
-5.6081 2.8548 2.3936
-5.7112 2.6539 2.3936
-5.8071 2.4493 2.3936
-5.8956 2.2412 2.3936
-5.9766 2.0299 2.3936
-6.0499 1.8157 2.3936
-6.1154 1.5988 2.3936
-6.1730 1.3796 2.3936
-6.2227 1.1582 2.3936
-6.2644 0.9351 2.3936
-6.2979 0.7105 2.3936
-6.3233 0.4847 2.3936
-6.3404 0.2580 2.3936
-6.3493 0.0307 2.3936
-6.3499 -0.1968 2.3936
-6.3422 -0.4243 2.3936
-6.3263 -0.6516 2.3936
-6.3020 -0.8782 2.3936
-6.2695 -1.1038 2.3936
-6.2287 -1.3282 2.3936
-6.1798 -1.5510 2.3936
-6.1227 -1.7720 2.3936
-6.0576 -1.9908 2.3936
-5.9845 -2.2072 2.3936
-5.9035 -2.4208 2.3936
-5.8148 -2.6314 2.3936
-5.7183 -2.8386 2.3936
-5.6144 -3.0422 2.3936
-5.5030 -3.2419 2.3936
-5.3843 -3.4374 2.3936
-5.2587 -3.6284 2.3936
-5.1260 -3.8148 2.3936
-4.9867 -3.9962 2.3936
-4.8407 -4.1724 2.3936
-4.6884 -4.3431 2.3936
-4.5299 -4.5081 2.3936
-4.3656 -4.6672 2.3936
-4.1955 -4.8202 2.3936
-4.0199 -4.9668 2.3936
-3.8391 -5.1069 2.3936
-3.6532 -5.2403 2.3936
-3.4627 -5.3668 2.3936
-3.2677 -5.4861 2.3936
-3.0685 -5.5983 2.3936
-2.8654 -5.7031 2.3936
-2.6586 -5.8003 2.3936
-2.4485 -5.8899 2.3936
-2.2352 -5.9717 2.3936
-2.0192 -6.0457 2.3936
-1.8008 -6.1116 2.3936
-1.5801 -6.1696 2.3936
-1.3576 -6.2194 2.3936
-1.1334 -6.2611 2.3936
-0.9080 -6.2945 2.3936
-0.6816 -6.3197 2.3936
-0.4546 -6.3367 2.3936
-0.2272 -6.3453 2.3936
-0.0009 -5.9372 2.3936
0.2117 -5.9300 2.3936
0.4237 -5.9151 2.3936
0.6350 -5.8925 2.3936
0.8452 -5.8623 2.3936
1.0540 -5.8245 2.3936
1.2612 -5.7791 2.3936
1.4665 -5.7263 2.3936
1.6697 -5.6662 2.3936
1.8704 -5.5987 2.3936
2.0685 -5.5242 2.3936
2.2635 -5.4425 2.3936
2.4554 -5.3539 2.3936
2.6439 -5.2585 2.3936
2.8287 -5.1564 2.3936
3.0095 -5.0478 2.3936
3.1862 -4.9329 2.3936
3.3586 -4.8117 2.3936
3.5263 -4.6844 2.3936
3.6893 -4.5514 2.3936
3.8472 -4.4126 2.3936
4.0000 -4.2684 2.3936
4.1474 -4.1188 2.3936
4.2893 -3.9642 2.3936
4.4254 -3.8047 2.3936
4.5557 -3.6405 2.3936
4.6799 -3.4719 2.3936
4.7979 -3.2990 2.3936
4.9096 -3.1222 2.3936
5.0148 -2.9416 2.3936
5.1135 -2.7575 2.3936
5.2055 -2.5701 2.3936
5.2906 -2.3797 2.3936
5.3689 -2.1864 2.3936
5.4402 -1.9906 2.3936
5.5045 -1.7926 2.3936
5.5616 -1.5924 2.3936
5.6116 -1.3906 2.3936
5.6543 -1.1871 2.3936
5.6897 -0.9824 2.3936
5.7179 -0.7766 2.3936
5.7387 -0.5702 2.3936
5.7522 -0.3632 2.3936
5.7583 -0.1559 2.3936
5.7571 0.0513 2.3936
5.7485 0.2583 2.3936
5.7327 0.4647 2.3936
5.7095 0.6704 2.3936
5.6791 0.8751 2.3936
5.6415 1.0784 2.3936
5.5968 1.2802 2.3936
5.5450 1.4803 2.3936
5.4861 1.6784 2.3936
5.4203 1.8741 2.3936
5.3477 2.0674 2.3936
5.2683 2.2579 2.3936
5.1823 2.4455 2.3936
5.0897 2.6299 2.3936
4.9907 2.8109 2.3936
4.8854 2.9882 2.3936
4.7739 3.1617 2.3936
4.6564 3.3311 2.3936
4.5330 3.4963 2.3936
4.4038 3.6570 2.3936
4.2691 3.8131 2.3936
4.1290 3.9643 2.3936
3.9836 4.1104 2.3936
3.8332 4.2514 2.3936
3.6779 4.3870 2.3936
3.5178 4.5170 2.3936
3.3533 4.6413 2.3936
3.1845 4.7598 2.3936
3.0116 4.8722 2.3936
2.8348 4.9785 2.3936
2.6543 5.0785 2.3936
2.4704 5.1721 2.3936
0.9172 2.1127 0.9616
0.8407 2.1447 0.9614
0.7631 2.1739 0.9612
0.6844 2.2003 0.9610
0.6049 2.2239 0.9608
0.5245 2.2445 0.9606
0.4435 2.2623 0.9603
0.3618 2.2771 0.9600
0.2797 2.2889 0.9597
0.1972 2.2978 0.9593
0.1144 2.3037 0.9589
0.0314 2.3066 0.9585
-0.0516 2.3065 0.9581
-0.1345 2.3035 0.9577
-0.2173 2.2974 0.9572
-0.2998 2.2883 0.9567
-0.3819 2.2763 0.9562
-0.4636 2.2613 0.9557
-0.5447 2.2434 0.9552
-0.6250 2.2226 0.9546
-0.7046 2.1989 0.9540
-0.7832 2.1723 0.9534
-0.8608 2.1429 0.9528
-2.3562 5.3058 2.3936
-2.5472 5.2215 2.3936
-2.7352 5.1304 2.3936
-2.9199 5.0326 2.3936
-3.1011 4.9282 2.3936
-3.2786 4.8173 2.3936
-3.4522 4.7001 2.3936
-3.6215 4.5766 2.3936
-3.7864 4.4471 2.3936
-3.9467 4.3116 2.3936
-4.1021 4.1704 2.3936
-4.2524 4.0236 2.3936
-4.3975 3.8714 2.3936
-4.5371 3.7140 2.3936
-4.6711 3.5516 2.3936
-4.7992 3.3843 2.3936
-4.9212 3.2124 2.3936
-5.0371 3.0361 2.3936
-5.1466 2.8557 2.3936
-5.2496 2.6713 2.3936
-5.3459 2.4831 2.3936
-5.4355 2.2915 2.3936
-5.5181 2.0967 2.3936
-5.5936 1.8989 2.3936
-5.6620 1.6983 2.3936
-5.7231 1.4953 2.3936
-5.7768 1.2901 2.3936
-5.8231 1.0830 2.3936
-5.8618 0.8742 2.3936
-5.8930 0.6641 2.3936
-5.9165 0.4528 2.3936
-5.9324 0.2407 2.3936
-5.9405 0.0281 2.3936
-5.9409 -0.1848 2.3936
-5.9335 -0.3976 2.3936
-5.9184 -0.6101 2.3936
-5.8955 -0.8221 2.3936
-5.8650 -1.0331 2.3936
-5.8267 -1.2430 2.3936
-5.7808 -1.4513 2.3936
-5.7273 -1.6580 2.3936
-5.6663 -1.8626 2.3936
-5.5978 -2.0649 2.3936
-5.5220 -2.2647 2.3936
-5.4389 -2.4615 2.3936
-5.3486 -2.6553 2.3936
-5.2513 -2.8456 2.3936
-5.1471 -3.0324 2.3936
-5.0362 -3.2152 2.3936
-4.9186 -3.3938 2.3936
-4.7944 -3.5681 2.3936
-4.6641 -3.7377 2.3936
-4.5276 -3.9024 2.3936
-4.3852 -4.0621 2.3936
-4.2370 -4.2164 2.3936
-4.0833 -4.3652 2.3936
-3.9243 -4.5083 2.3936
-3.7601 -4.6454 2.3936
-3.5910 -4.7765 2.3936
-3.4173 -4.9012 2.3936
-3.2392 -5.0196 2.3936
-3.0569 -5.1313 2.3936
-2.8706 -5.2362 2.3936
-2.6807 -5.3343 2.3936
-2.4873 -5.4253 2.3936
-2.2909 -5.5092 2.3936
-2.0915 -5.5858 2.3936
-1.8895 -5.6551 2.3936
-1.6852 -5.7170 2.3936
-1.4789 -5.7713 2.3936
-1.2708 -5.8180 2.3936
-1.0611 -5.8572 2.3936
-0.8503 -5.8886 2.3936
-0.6386 -5.9124 2.3936
-0.4262 -5.9284 2.3936
-0.2135 -5.9367 2.3936
-0.0007 -5.9372 2.3936
0.2118 -5.9300 2.3936
0.4239 -5.9151 2.3936
0.6351 -5.8925 2.3936
0.8453 -5.8622 2.3936
1.0541 -5.8244 2.3936
1.2614 -5.7791 2.3936
1.4667 -5.7263 2.3936
1.6698 -5.6661 2.3936
1.8705 -5.5987 2.3936
2.0686 -5.5241 2.3936
2.2637 -5.4424 2.3936
2.4556 -5.3538 2.3936
2.6440 -5.2584 2.3936
2.8288 -5.1564 2.3936
3.0096 -5.0478 2.3936
3.1863 -4.9328 2.3936
3.3587 -4.8116 2.3936
3.5264 -4.6844 2.3936
3.6894 -4.5513 2.3936
3.8474 -4.4125 2.3936
4.0001 -4.2683 2.3936
4.1475 -4.1187 2.3936
4.2894 -3.9641 2.3936
4.4255 -3.8046 2.3936
4.5558 -3.6404 2.3936
4.6800 -3.4718 2.3936
4.7980 -3.2989 2.3936
4.9097 -3.1221 2.3936
5.0149 -2.9415 2.3936
5.1135 -2.7574 2.3936
5.2055 -2.5700 2.3936
5.2907 -2.3795 2.3936
5.3689 -2.1863 2.3936
5.4403 -1.9905 2.3936
5.5045 -1.7924 2.3936
5.5616 -1.5923 2.3936
5.6116 -1.3904 2.3936
5.6543 -1.1870 2.3936
5.6897 -0.9822 2.3936
5.7179 -0.7765 2.3936
5.7387 -0.5700 2.3936
5.7522 -0.3630 2.3936
5.7583 -0.1558 2.3936
5.7571 0.0515 2.3936
5.7485 0.2584 2.3936
5.7327 0.4649 2.3936
5.7095 0.6706 2.3936
5.6791 0.8752 2.3936
5.6415 1.0785 2.3936
5.5968 1.2804 2.3936
5.5449 1.4804 2.3936
5.4861 1.6785 2.3936
5.4203 1.8742 2.3936
5.3477 2.0675 2.3936
5.2683 2.2581 2.3936
5.1822 2.4456 2.3936
5.0896 2.6300 2.3936
4.9906 2.8110 2.3936
4.8853 2.9883 2.3936
4.7738 3.1618 2.3936
4.6563 3.3313 2.3936
4.5329 3.4964 2.3936
4.4037 3.6571 2.3936
4.2690 3.8132 2.3936
4.1289 3.9644 2.3936
3.9835 4.1105 2.3936
3.8331 4.2515 2.3936
3.6778 4.3871 2.3936
3.5177 4.5171 2.3936
3.3532 4.6414 2.3936
3.1844 4.7598 2.3936
3.0115 4.8723 2.3936
2.8347 4.9785 2.3936
2.6542 5.0786 2.3936
2.4703 5.1722 2.3936
0.9172 2.1127 0.9616
0.8407 2.1447 0.9614
0.7630 2.1739 0.9612
0.6844 2.2003 0.9610
0.6048 2.2239 0.9608
0.5245 2.2445 0.9606
0.4434 2.2623 0.9603
0.3618 2.2771 0.9600
0.2796 2.2889 0.9597
0.1971 2.2978 0.9593
0.1143 2.3037 0.9589
0.0314 2.3066 0.9585
-0.0516 2.3065 0.9581
-0.1346 2.3035 0.9577
-0.2173 2.2974 0.9572
-0.2999 2.2883 0.9567
-0.3820 2.2763 0.9562
-0.4636 2.2613 0.9557
-0.5447 2.2434 0.9552
-0.6251 2.2226 0.9546
-0.7046 2.1988 0.9540
-0.7832 2.1723 0.9534
-0.8609 2.1429 0.9528
-2.3563 5.3057 2.3936
-2.5473 5.2215 2.3936
-2.7353 5.1304 2.3936
-2.9200 5.0325 2.3936
-3.1012 4.9281 2.3936
-3.2787 4.8173 2.3936
-3.4523 4.7000 2.3936
-3.6216 4.5765 2.3936
-3.7865 4.4470 2.3936
-3.9468 4.3116 2.3936
-4.1022 4.1703 2.3936
-4.2525 4.0235 2.3936
-4.3976 3.8713 2.3936
-4.5372 3.7139 2.3936
-4.6712 3.5515 2.3936
-4.7993 3.3841 2.3936
-4.9213 3.2123 2.3936
-5.0372 3.0361 2.3936
-5.1467 2.8556 2.3936
-5.2497 2.6711 2.3936
-5.3460 2.4830 2.3936
-5.4355 2.2914 2.3936
-5.5181 2.0966 2.3936
-5.5936 1.8988 2.3936
-5.6620 1.6982 2.3936
-5.7231 1.4952 2.3936
-5.7768 1.2900 2.3936
-5.8231 1.0829 2.3936
-5.8618 0.8741 2.3936
-5.8930 0.6639 2.3936
-5.9165 0.4527 2.3936
-5.9324 0.2406 2.3936
-5.9405 0.0279 2.3936
-5.9409 -0.1849 2.3936
-5.9335 -0.3978 2.3936
-5.9184 -0.6103 2.3936
-5.8955 -0.8222 2.3936
-5.8649 -1.0333 2.3936
-5.8267 -1.2431 2.3936
-5.7808 -1.4515 2.3936
-5.7273 -1.6581 2.3936
-5.6662 -1.8627 2.3936
-5.5978 -2.0651 2.3936
-5.5219 -2.2648 2.3936
-5.4388 -2.4617 2.3936
-5.3486 -2.6554 2.3936
-5.2513 -2.8458 2.3936
-5.1471 -3.0325 2.3936
-5.0361 -3.2153 2.3936
-4.9185 -3.3939 2.3936
-4.7946 -3.5682 2.3936
-4.6640 -3.7378 2.3936
-4.5276 -3.9025 2.3936
-4.3851 -4.0622 2.3936
-4.2369 -4.2165 2.3936
-4.0832 -4.3653 2.3936
-3.9242 -4.5084 2.3936
-3.7600 -4.6455 2.3936
-3.5909 -4.7765 2.3936
-3.4172 -4.9013 2.3936
-3.2391 -5.0196 2.3936
-3.0567 -5.1313 2.3936
-2.8705 -5.2363 2.3936
-2.6806 -5.3343 2.3936
-2.4872 -5.4254 2.3936
-2.2907 -5.5092 2.3936
-2.0914 -5.5859 2.3936
-1.8894 -5.6551 2.3936
-1.6851 -5.7170 2.3936
-1.4787 -5.7713 2.3936
-1.2706 -5.8181 2.3936
-1.0610 -5.8572 2.3936
-0.8502 -5.8887 2.3936
-0.6385 -5.9124 2.3936
-0.4261 -5.9284 2.3936
-0.2134 -5.9367 2.3936
-0.0016 -5.5720 2.3936
0.1978 -5.5654 2.3936
0.3968 -5.5516 2.3936
0.5951 -5.5306 2.3936
0.7924 -5.5024 2.3936
0.9884 -5.4671 2.3936
1.1829 -5.4247 2.3936
1.3756 -5.3754 2.3936
1.5664 -5.3191 2.3936
1.7549 -5.2560 2.3936
1.9408 -5.1862 2.3936
2.1240 -5.1097 2.3936
2.3042 -5.0268 2.3936
2.4812 -4.9374 2.3936
2.6548 -4.8418 2.3936
2.8247 -4.7400 2.3936
2.9907 -4.6322 2.3936
3.1527 -4.5186 2.3936
3.3103 -4.3993 2.3936
3.4635 -4.2746 2.3936
3.6120 -4.1444 2.3936
3.7556 -4.0091 2.3936
3.8942 -3.8689 2.3936
4.0276 -3.7238 2.3936
4.1556 -3.5741 2.3936
4.2781 -3.4201 2.3936
4.3949 -3.2618 2.3936
4.5060 -3.0996 2.3936
4.6111 -2.9336 2.3936
4.7101 -2.7641 2.3936
4.8029 -2.5912 2.3936
4.8895 -2.4153 2.3936
4.9697 -2.2364 2.3936
5.0435 -2.0550 2.3936
5.1106 -1.8711 2.3936
5.1712 -1.6850 2.3936
5.2251 -1.4971 2.3936
5.2722 -1.3074 2.3936
5.3125 -1.1163 2.3936
5.3460 -0.9239 2.3936
5.3726 -0.7306 2.3936
5.3923 -0.5366 2.3936
5.4052 -0.3421 2.3936
5.4111 -0.1473 2.3936
5.4101 0.0475 2.3936
5.4022 0.2420 2.3936
5.3874 0.4361 2.3936
5.3658 0.6294 2.3936
5.3373 0.8218 2.3936
5.3021 1.0129 2.3936
5.2602 1.2027 2.3936
5.2116 1.3907 2.3936
5.1563 1.5769 2.3936
5.0946 1.7610 2.3936
5.0264 1.9427 2.3936
4.9518 2.1219 2.3936
4.8710 2.2982 2.3936
4.7840 2.4716 2.3936
4.6910 2.6418 2.3936
4.5920 2.8085 2.3936
4.4873 2.9716 2.3936
4.3768 3.1310 2.3936
4.2608 3.2863 2.3936
4.1394 3.4374 2.3936
4.0128 3.5841 2.3936
3.8810 3.7262 2.3936
3.7444 3.8636 2.3936
3.6029 3.9961 2.3936
3.4569 4.1236 2.3936
3.3064 4.2458 2.3936
3.1518 4.3627 2.3936
2.9930 4.4740 2.3936
2.8305 4.5797 2.3936
2.6642 4.6795 2.3936
2.4945 4.7735 2.3936
2.3216 4.8614 2.3936
0.8608 1.9832 0.9603
0.7890 2.0132 0.9602
0.7161 2.0406 0.9600
0.6423 2.0654 0.9598
0.5676 2.0875 0.9596
0.4921 2.1069 0.9594
0.4160 2.1235 0.9591
0.3394 2.1374 0.9588
0.2623 2.1485 0.9585
0.1848 2.1569 0.9582
0.1071 2.1624 0.9579
0.0292 2.1651 0.9575
-0.0487 2.1651 0.9571
-0.1266 2.1622 0.9567
-0.2043 2.1565 0.9562
-0.2818 2.1480 0.9558
-0.3589 2.1367 0.9553
-0.4355 2.1226 0.9548
-0.5116 2.1058 0.9543
-0.5871 2.0862 0.9538
-0.6617 2.0640 0.9532
-0.7356 2.0390 0.9527
-0.8084 2.0114 0.9521
-0.8803 1.9812 0.9515
-2.3937 4.9044 2.3936
-2.5702 4.8187 2.3936
-2.7436 4.7266 2.3936
-2.9137 4.6284 2.3936
-3.0803 4.5240 2.3936
-3.2432 4.4138 2.3936
-3.4021 4.2976 2.3936
-3.5569 4.1758 2.3936
-3.7072 4.0484 2.3936
-3.8530 3.9156 2.3936
-3.9941 3.7776 2.3936
-4.1301 3.6346 2.3936
-4.2610 3.4866 2.3936
-4.3866 3.3339 2.3936
-4.5067 3.1768 2.3936
-4.6212 3.0153 2.3936
-4.7298 2.8496 2.3936
-4.8324 2.6801 2.3936
-4.9289 2.5069 2.3936
-5.0191 2.3302 2.3936
-5.1030 2.1502 2.3936
-5.1803 1.9673 2.3936
-5.2510 1.7815 2.3936
-5.3150 1.5933 2.3936
-5.3721 1.4027 2.3936
-5.4224 1.2100 2.3936
-5.4656 1.0156 2.3936
-5.5018 0.8196 2.3936
-5.5309 0.6224 2.3936
-5.5528 0.4241 2.3936
-5.5675 0.2251 2.3936
-5.5749 0.0256 2.3936
-5.5751 -0.1742 2.3936
-5.5681 -0.3739 2.3936
-5.5537 -0.5732 2.3936
-5.5322 -0.7721 2.3936
-5.5033 -0.9700 2.3936
-5.4673 -1.1669 2.3936
-5.4241 -1.3624 2.3936
-5.3738 -1.5562 2.3936
-5.3165 -1.7481 2.3936
-5.2522 -1.9379 2.3936
-5.1810 -2.1252 2.3936
-5.1029 -2.3099 2.3936
-5.0182 -2.4916 2.3936
-4.9269 -2.6702 2.3936
-4.8291 -2.8453 2.3936
-4.7249 -3.0167 2.3936
-4.6146 -3.1843 2.3936
-4.4982 -3.3477 2.3936
-4.3759 -3.5068 2.3936
-4.2478 -3.6613 2.3936
-4.1142 -3.8111 2.3936
-3.9752 -3.9558 2.3936
-3.8310 -4.0954 2.3936
-3.6819 -4.2296 2.3936
-3.5279 -4.3583 2.3936
-3.3693 -4.4813 2.3936
-3.2064 -4.5983 2.3936
-3.0393 -4.7094 2.3936
-2.8683 -4.8142 2.3936
-2.6936 -4.9127 2.3936
-2.5155 -5.0048 2.3936
-2.3342 -5.0902 2.3936
-2.1499 -5.1690 2.3936
-1.9629 -5.2410 2.3936
-1.7735 -5.3061 2.3936
-1.5818 -5.3642 2.3936
-1.3883 -5.4153 2.3936
-1.1930 -5.4593 2.3936
-0.9964 -5.4961 2.3936
-0.7986 -5.5258 2.3936
-0.6000 -5.5482 2.3936
-0.4007 -5.5634 2.3936
-0.2011 -5.5713 2.3936
-0.0015 -5.5720 2.3936
0.1980 -5.5654 2.3936
0.3970 -5.5516 2.3936
0.5952 -5.5305 2.3936
0.7925 -5.5024 2.3936
0.9885 -5.4670 2.3936
1.1830 -5.4247 2.3936
1.3758 -5.3753 2.3936
1.5665 -5.3191 2.3936
1.7550 -5.2560 2.3936
1.9409 -5.1861 2.3936
2.1241 -5.1097 2.3936
2.3044 -5.0267 2.3936
2.4814 -4.9373 2.3936
2.6549 -4.8417 2.3936
2.8248 -4.7399 2.3936
2.9908 -4.6322 2.3936
3.1528 -4.5186 2.3936
3.3104 -4.3993 2.3936
3.4636 -4.2745 2.3936
3.6121 -4.1443 2.3936
3.7557 -4.0090 2.3936
3.8943 -3.8688 2.3936
4.0277 -3.7237 2.3936
4.1557 -3.5740 2.3936
4.2782 -3.4200 2.3936
4.3950 -3.2617 2.3936
4.5060 -3.0995 2.3936
4.6111 -2.9335 2.3936
4.7102 -2.7640 2.3936
4.8030 -2.5911 2.3936
4.8896 -2.4152 2.3936
4.9698 -2.2363 2.3936
5.0435 -2.0549 2.3936
5.1107 -1.8710 2.3936
5.1712 -1.6849 2.3936
5.2251 -1.4969 2.3936
5.2722 -1.3073 2.3936
5.3125 -1.1161 2.3936
5.3460 -0.9238 2.3936
5.3726 -0.7305 2.3936
5.3923 -0.5364 2.3936
5.4052 -0.3419 2.3936
5.4111 -0.1471 2.3936
5.4101 0.0476 2.3936
5.4022 0.2421 2.3936
5.3874 0.4362 2.3936
5.3658 0.6295 2.3936
5.3373 0.8219 2.3936
5.3021 1.0130 2.3936
5.2601 1.2028 2.3936
5.2115 1.3909 2.3936
5.1563 1.5771 2.3936
5.0945 1.7611 2.3936
5.0263 1.9428 2.3936
4.9518 2.1220 2.3936
4.8710 2.2984 2.3936
4.7840 2.4717 2.3936
4.6909 2.6419 2.3936
4.5920 2.8086 2.3936
4.4872 2.9717 2.3936
4.3767 3.1311 2.3936
4.2607 3.2864 2.3936
4.1393 3.4374 2.3936
4.0127 3.5842 2.3936
3.8810 3.7263 2.3936
3.7443 3.8637 2.3936
3.6028 3.9962 2.3936
3.4568 4.1237 2.3936
3.3063 4.2459 2.3936
3.1517 4.3627 2.3936
2.9929 4.4740 2.3936
2.8303 4.5797 2.3936
2.6641 4.6796 2.3936
2.4944 4.7736 2.3936
2.3215 4.8615 2.3936
0.8608 1.9832 0.9603
0.7889 2.0132 0.9602
0.7160 2.0407 0.9600
0.6422 2.0654 0.9598
0.5675 2.0875 0.9596
0.4921 2.1069 0.9594
0.4160 2.1235 0.9591
0.3393 2.1374 0.9588
0.2622 2.1485 0.9585
0.1847 2.1569 0.9582
0.1070 2.1624 0.9579
0.0292 2.1651 0.9575
-0.0488 2.1651 0.9571
-0.1266 2.1622 0.9567
-0.2044 2.1565 0.9562
-0.2818 2.1480 0.9558
-0.3589 2.1367 0.9553
-0.4356 2.1226 0.9548
-0.5117 2.1058 0.9543
-0.5871 2.0862 0.9538
-0.6618 2.0639 0.9532
-0.7356 2.0390 0.9527
-0.8085 2.0114 0.9521
-0.8803 1.9812 0.9515
-2.3938 4.9044 2.3936
-2.5703 4.8186 2.3936
-2.7437 4.7266 2.3936
-2.9138 4.6283 2.3936
-3.0804 4.5240 2.3936
-3.2433 4.4137 2.3936
-3.4022 4.2975 2.3936
-3.5570 4.1757 2.3936
-3.7073 4.0483 2.3936
-3.8531 3.9156 2.3936
-3.9942 3.7776 2.3936
-4.1302 3.6345 2.3936
-4.2611 3.4865 2.3936
-4.3867 3.3338 2.3936
-4.5068 3.1767 2.3936
-4.6212 3.0151 2.3936
-4.7298 2.8495 2.3936
-4.8324 2.6800 2.3936
-4.9289 2.5068 2.3936
-5.0192 2.3301 2.3936
-5.1030 2.1501 2.3936
-5.1803 1.9672 2.3936
-5.2510 1.7814 2.3936
-5.3150 1.5931 2.3936
-5.3722 1.4025 2.3936
-5.4224 1.2099 2.3936
-5.4656 1.0155 2.3936
-5.5018 0.8195 2.3936
-5.5309 0.6223 2.3936
-5.5528 0.4240 2.3936
-5.5675 0.2250 2.3936
-5.5749 0.0254 2.3936
-5.5751 -0.1743 2.3936
-5.5681 -0.3740 2.3936
-5.5537 -0.5734 2.3936
-5.5321 -0.7722 2.3936
-5.5033 -0.9702 2.3936
-5.4673 -1.1670 2.3936
-5.4241 -1.3625 2.3936
-5.3738 -1.5563 2.3936
-5.3165 -1.7483 2.3936
-5.2521 -1.9380 2.3936
-5.1809 -2.1254 2.3936
-5.1029 -2.3100 2.3936
-5.0181 -2.4917 2.3936
-4.9268 -2.6703 2.3936
-4.8290 -2.8454 2.3936
-4.7249 -3.0168 2.3936
-4.6145 -3.1844 2.3936
-4.4981 -3.3478 2.3936
-4.3759 -3.5069 2.3936
-4.2478 -3.6614 2.3936
-4.1141 -3.8112 2.3936
-3.9751 -3.9559 2.3936
-3.8310 -4.0955 2.3936
-3.6818 -4.2297 2.3936
-3.5278 -4.3584 2.3936
-3.3692 -4.4814 2.3936
-3.2063 -4.5984 2.3936
-3.0392 -4.7094 2.3936
-2.8682 -4.8143 2.3936
-2.6935 -4.9128 2.3936
-2.5154 -5.0048 2.3936
-2.3341 -5.0903 2.3936
-2.1498 -5.1691 2.3936
-1.9628 -5.2410 2.3936
-1.7733 -5.3061 2.3936
-1.5817 -5.3643 2.3936
-1.3881 -5.4153 2.3936
-1.1929 -5.4593 2.3936
-0.9963 -5.4962 2.3936
-0.7985 -5.5258 2.3936
-0.5999 -5.5482 2.3936
-0.4006 -5.5634 2.3936
-0.2010 -5.5713 2.3936
-0.0023 -5.2431 2.3936
0.1854 -5.2371 2.3936
0.3726 -5.2242 2.3936
0.5592 -5.2046 2.3936
0.7448 -5.1783 2.3936
0.9293 -5.1452 2.3936
1.1124 -5.1055 2.3936
1.2938 -5.0592 2.3936
1.4733 -5.0064 2.3936
1.6507 -4.9472 2.3936
1.8258 -4.8817 2.3936
1.9983 -4.8099 2.3936
2.1680 -4.7320 2.3936
2.3347 -4.6480 2.3936
2.4981 -4.5582 2.3936
2.6582 -4.4625 2.3936
2.8145 -4.3613 2.3936
2.9671 -4.2545 2.3936
3.1156 -4.1423 2.3936
3.2599 -4.0250 2.3936
3.3998 -3.9026 2.3936
3.5352 -3.7754 2.3936
3.6658 -3.6435 2.3936
3.7915 -3.5070 2.3936
3.9122 -3.3662 2.3936
4.0277 -3.2213 2.3936
4.1379 -3.0724 2.3936
4.2426 -2.9197 2.3936
4.3417 -2.7635 2.3936
4.4351 -2.6039 2.3936
4.5227 -2.4412 2.3936
4.6044 -2.2756 2.3936
4.6802 -2.1072 2.3936
4.7497 -1.9363 2.3936
4.8132 -1.7632 2.3936
4.8704 -1.5880 2.3936
4.9213 -1.4110 2.3936
4.9658 -1.2323 2.3936
5.0039 -1.0523 2.3936
5.0356 -0.8712 2.3936
5.0609 -0.6891 2.3936
5.0796 -0.5063 2.3936
5.0918 -0.3230 2.3936
5.0975 -0.1395 2.3936
5.0967 0.0440 2.3936
5.0894 0.2273 2.3936
5.0756 0.4102 2.3936
5.0553 0.5923 2.3936
5.0286 0.7736 2.3936
4.9955 0.9538 2.3936
4.9561 1.1326 2.3936
4.9104 1.3098 2.3936
4.8584 1.4853 2.3936
4.8003 1.6588 2.3936
4.7361 1.8301 2.3936
4.6659 1.9989 2.3936
4.5898 2.1652 2.3936
4.5079 2.3286 2.3936
4.4202 2.4890 2.3936
4.3270 2.6462 2.3936
4.2283 2.7999 2.3936
4.1242 2.9501 2.3936
4.0149 3.0964 2.3936
3.9005 3.2389 2.3936
3.7812 3.3771 2.3936
3.6570 3.5111 2.3936
3.5282 3.6406 2.3936
3.3949 3.7655 2.3936
3.2572 3.8856 2.3936
3.1154 4.0008 2.3936
2.9696 4.1109 2.3936
2.8200 4.2158 2.3936
2.6668 4.3153 2.3936
2.5101 4.4094 2.3936
2.3501 4.4979 2.3936
0.8765 1.8358 0.9593
0.8100 1.8665 0.9592
0.7424 1.8947 0.9591
0.6737 1.9205 0.9589
0.6042 1.9438 0.9587
0.5339 1.9646 0.9585
0.4629 1.9828 0.9583
0.3913 1.9985 0.9581
0.3191 2.0116 0.9578
0.2466 2.0220 0.9575
0.1736 2.0299 0.9572
0.1005 2.0351 0.9569
0.0272 2.0376 0.9565
-0.0462 2.0376 0.9562
-0.1195 2.0348 0.9558
-0.1926 2.0295 0.9554
-0.2655 2.0215 0.9549
-0.3381 2.0108 0.9545
-0.4102 1.9976 0.9540
-0.4819 1.9818 0.9535
-0.5529 1.9633 0.9530
-0.6232 1.9424 0.9525
-0.6927 1.9189 0.9520
-0.7612 1.8930 0.9515
-0.8289 1.8645 0.9509
-0.8954 1.8337 0.9504
-2.4213 4.5374 2.3936
-2.5846 4.4506 2.3936
-2.7447 4.3579 2.3936
-2.9015 4.2595 2.3936
-3.0547 4.1555 2.3936
-3.2043 4.0460 2.3936
-3.3498 3.9311 2.3936
-3.4913 3.8110 2.3936
-3.6285 3.6859 2.3936
-3.7611 3.5558 2.3936
-3.8891 3.4210 2.3936
-4.0122 3.2816 2.3936
-4.1303 3.1378 2.3936
-4.2432 2.9897 2.3936
-4.3507 2.8376 2.3936
-4.4528 2.6816 2.3936
-4.5492 2.5219 2.3936
-4.6399 2.3588 2.3936
-4.7246 2.1924 2.3936
-4.8034 2.0229 2.3936
-4.8760 1.8507 2.3936
-4.9424 1.6758 2.3936
-5.0024 1.4986 2.3936
-5.0560 1.3192 2.3936
-5.1032 1.1379 2.3936
-5.1437 0.9549 2.3936
-5.1776 0.7705 2.3936
-5.2048 0.5849 2.3936
-5.2253 0.3983 2.3936
-5.2389 0.2110 2.3936
-5.2458 0.0233 2.3936
-5.2459 -0.1646 2.3936
-5.2391 -0.3525 2.3936
-5.2255 -0.5400 2.3936
-5.2051 -0.7271 2.3936
-5.1778 -0.9133 2.3936
-5.1439 -1.0984 2.3936
-5.1031 -1.2823 2.3936
-5.0557 -1.4646 2.3936
-5.0017 -1.6451 2.3936
-4.9411 -1.8236 2.3936
-4.8741 -1.9998 2.3936
-4.8006 -2.1734 2.3936
-4.7209 -2.3444 2.3936
-4.6349 -2.5123 2.3936
-4.5429 -2.6769 2.3936
-4.4449 -2.8382 2.3936
-4.3411 -2.9958 2.3936
-4.2316 -3.1495 2.3936
-4.1165 -3.2991 2.3936
-3.9961 -3.4444 2.3936
-3.8704 -3.5852 2.3936
-3.7397 -3.7214 2.3936
-3.6041 -3.8527 2.3936
-3.4638 -3.9789 2.3936
-3.3190 -4.1000 2.3936
-3.1698 -4.2157 2.3936
-3.0166 -4.3258 2.3936
-2.8595 -4.4302 2.3936
-2.6987 -4.5289 2.3936
-2.5344 -4.6216 2.3936
-2.3669 -4.7082 2.3936
-2.1963 -4.7887 2.3936
-2.0230 -4.8629 2.3936
-1.8472 -4.9307 2.3936
-1.6690 -4.9920 2.3936
-1.4888 -5.0467 2.3936
-1.3067 -5.0949 2.3936
-1.1231 -5.1364 2.3936
-0.9381 -5.1712 2.3936
-0.7521 -5.1992 2.3936
-0.5652 -5.2204 2.3936
-0.3778 -5.2348 2.3936
-0.1900 -5.2424 2.3936
-0.0022 -5.2432 2.3936
0.1855 -5.2371 2.3936
0.3727 -5.2242 2.3936
0.5593 -5.2046 2.3936
0.7449 -5.1782 2.3936
0.9294 -5.1452 2.3936
1.1125 -5.1055 2.3936
1.2939 -5.0592 2.3936
1.4734 -5.0064 2.3936
1.6509 -4.9472 2.3936
1.8259 -4.8816 2.3936
1.9984 -4.8099 2.3936
2.1681 -4.7319 2.3936
2.3348 -4.6480 2.3936
2.4982 -4.5581 2.3936
2.6583 -4.4625 2.3936
2.8146 -4.3612 2.3936
2.9672 -4.2544 2.3936
3.1157 -4.1423 2.3936
3.2600 -4.0249 2.3936
3.3999 -3.9025 2.3936
3.5353 -3.7753 2.3936
3.6659 -3.6434 2.3936
3.7916 -3.5069 2.3936
3.9123 -3.3661 2.3936
4.0278 -3.2212 2.3936
4.1379 -3.0723 2.3936
4.2427 -2.9196 2.3936
4.3418 -2.7634 2.3936
4.4352 -2.6038 2.3936
4.5228 -2.4411 2.3936
4.6045 -2.2755 2.3936
4.6806 -2.1071 2.3936
4.7498 -1.9362 2.3936
4.8132 -1.7631 2.3936
4.8704 -1.5879 2.3936
4.9213 -1.4109 2.3936
4.9658 -1.2322 2.3936
5.0040 -1.0522 2.3936
5.0357 -0.8710 2.3936
5.0609 -0.6889 2.3936
5.0796 -0.5061 2.3936
5.0918 -0.3229 2.3936
5.0975 -0.1394 2.3936
5.0967 0.0441 2.3936
5.0894 0.2274 2.3936
5.0756 0.4103 2.3936
5.0553 0.5925 2.3936
5.0286 0.7737 2.3936
4.9955 0.9539 2.3936
4.9561 1.1327 2.3936
4.9103 1.3100 2.3936
4.8584 1.4854 2.3936
4.8003 1.6589 2.3936
4.7360 1.8302 2.3936
4.6658 1.9990 2.3936
4.5897 2.1653 2.3936
4.5078 2.3287 2.3936
4.4202 2.4891 2.3936
4.3269 2.6463 2.3936
4.2282 2.8000 2.3936
4.1241 2.9502 2.3936
4.0148 3.0966 2.3936
3.9004 3.2390 2.3936
3.7811 3.3772 2.3936
3.6569 3.5112 2.3936
3.5281 3.6407 2.3936
3.3948 3.7656 2.3936
3.2571 3.8857 2.3936
3.1153 4.0008 2.3936
2.9695 4.1109 2.3936
2.8199 4.2158 2.3936
2.6667 4.3154 2.3936
2.5100 4.4095 2.3936
2.3500 4.4980 2.3936
0.8765 1.8359 0.9593
0.8099 1.8665 0.9592
0.7423 1.8948 0.9591
0.6737 1.9205 0.9589
0.6042 1.9438 0.9587
0.5339 1.9646 0.9585
0.4629 1.9828 0.9583
0.3912 1.9985 0.9581
0.3191 2.0116 0.9578
0.2465 2.0220 0.9575
0.1736 2.0299 0.9572
0.1004 2.0351 0.9569
0.0271 2.0376 0.9565
-0.0462 2.0376 0.9562
-0.1195 2.0348 0.9558
-0.1927 2.0295 0.9554
-0.2656 2.0215 0.9549
-0.3381 2.0108 0.9545
-0.4103 1.9976 0.9540
-0.4819 1.9817 0.9535
-0.5529 1.9633 0.9530
-0.6232 1.9424 0.9525
-0.6927 1.9189 0.9520
-0.7613 1.8929 0.9515
-0.8289 1.8645 0.9509
-0.8954 1.8337 0.9504
-2.4214 4.5374 2.3936
-2.5847 4.4505 2.3936
-2.7448 4.3578 2.3936
-2.9016 4.2594 2.3936
-3.0548 4.1554 2.3936
-3.2044 4.0459 2.3936
-3.3499 3.9310 2.3936
-3.4914 3.8110 2.3936
-3.6285 3.6858 2.3936
-3.7612 3.5557 2.3936
-3.8891 3.4209 2.3936
-4.0122 3.2815 2.3936
-4.1303 3.1377 2.3936
-4.2432 2.9896 2.3936
-4.3508 2.8374 2.3936
-4.4528 2.6815 2.3936
-4.5493 2.5218 2.3936
-4.6399 2.3587 2.3936
-4.7247 2.1923 2.3936
-4.8034 2.0228 2.3936
-4.8760 1.8506 2.3936
-4.9424 1.6757 2.3936
-5.0025 1.4985 2.3936
-5.0561 1.3191 2.3936
-5.1032 1.1378 2.3936
-5.1437 0.9548 2.3936
-5.1776 0.7704 2.3936
-5.2048 0.5847 2.3936
-5.2253 0.3982 2.3936
-5.2389 0.2109 2.3936
-5.2458 0.0232 2.3936
-5.2459 -0.1647 2.3936
-5.2391 -0.3526 2.3936
-5.2255 -0.5402 2.3936
-5.2051 -0.7272 2.3936
-5.1778 -0.9134 2.3936
-5.1438 -1.0986 2.3936
-5.1031 -1.2824 2.3936
-5.0557 -1.4647 2.3936
-5.0017 -1.6452 2.3936
-4.9411 -1.8237 2.3936
-4.8740 -1.9999 2.3936
-4.8006 -2.1736 2.3936
-4.7208 -2.3445 2.3936
-4.6349 -2.5124 2.3936
-4.5428 -2.6770 2.3936
-4.4448 -2.8383 2.3936
-4.3410 -2.9959 2.3936
-4.2315 -3.1496 2.3936
-4.1164 -3.2992 2.3936
-3.9960 -3.4445 2.3936
-3.8703 -3.5853 2.3936
-3.7396 -3.7215 2.3936
-3.6040 -3.8528 2.3936
-3.4637 -3.9790 2.3936
-3.3189 -4.1001 2.3936
-3.1697 -4.2157 2.3936
-3.0165 -4.3259 2.3936
-2.8594 -4.4303 2.3936
-2.6986 -4.5290 2.3936
-2.5343 -4.6217 2.3936
-2.3668 -4.7083 2.3936
-2.1962 -4.7888 2.3936
-2.0229 -4.8629 2.3936
-1.8471 -4.9307 2.3936
-1.6689 -4.9920 2.3936
-1.4887 -5.0468 2.3936
-1.3066 -5.0949 2.3936
-1.1230 -5.1364 2.3936
-0.9380 -5.1712 2.3936
-0.7520 -5.1992 2.3936
-0.5651 -5.2204 2.3936
-0.3777 -5.2348 2.3936
-0.1899 -5.2424 2.3936
-0.0029 -4.9452 2.3936
0.1741 -4.9397 2.3936
0.3506 -4.9277 2.3936
0.5266 -4.9093 2.3936
0.7017 -4.8846 2.3936
0.8757 -4.8535 2.3936
1.0484 -4.8162 2.3936
1.2196 -4.7727 2.3936
1.3890 -4.7231 2.3936
1.5564 -4.6674 2.3936
1.7216 -4.6057 2.3936
1.8843 -4.5381 2.3936
2.0445 -4.4647 2.3936
2.2018 -4.3857 2.3936
2.3561 -4.3010 2.3936
2.5071 -4.2109 2.3936
2.6548 -4.1155 2.3936
2.7988 -4.0149 2.3936
2.9390 -3.9092 2.3936
3.0753 -3.7986 2.3936
3.2074 -3.6833 2.3936
3.3352 -3.5633 2.3936
3.4586 -3.4390 2.3936
3.5774 -3.3103 2.3936
3.6914 -3.1775 2.3936
3.8005 -3.0408 2.3936
3.9046 -2.9004 2.3936
4.0036 -2.7564 2.3936
4.0972 -2.6091 2.3936
4.1856 -2.4585 2.3936
4.2684 -2.3050 2.3936
