ply
format ascii 1.0
element vertex 2174
property float32 x
property float32 y
property float32 z
end_header
-3.3291 5.7788 2.3908
-3.5361 5.6583 2.3908
-3.7388 5.5304 2.3908
-3.9368 5.3952 2.3908
-4.1300 5.2529 2.3908
-4.3180 5.1038 2.3908
-4.5006 4.9479 2.3908
-4.6776 4.7855 2.3908
-4.8487 4.6168 2.3908
-5.0137 4.4419 2.3908
-5.1724 4.2612 2.3908
-5.3245 4.0748 2.3908
-5.4699 3.8830 2.3908
-5.6083 3.6860 2.3908
-5.7397 3.4840 2.3908
-5.8637 3.2773 2.3908
-5.9802 3.0662 2.3908
-6.0891 2.8510 2.3908
-6.1902 2.6319 2.3908
-6.2833 2.4092 2.3908
-6.3684 2.1832 2.3908
-6.4453 1.9542 2.3908
-6.5139 1.7225 2.3908
-6.5741 1.4884 2.3908
-6.6258 1.2521 2.3908
-6.6689 1.0141 2.3908
-6.7035 0.7746 2.3908
-6.7293 0.5339 2.3908
-6.7464 0.2924 2.3908
-6.7548 0.0503 2.3908
-6.7543 -0.1920 2.3908
-6.7452 -0.4341 2.3908
-6.7272 -0.6759 2.3908
-6.7004 -0.9169 2.3908
-6.6650 -1.1568 2.3908
-6.6208 -1.3953 2.3908
-6.5680 -1.6321 2.3908
-6.5067 -1.8669 2.3908
-6.4368 -2.0993 2.3908
-6.3586 -2.3291 2.3908
-6.2720 -2.5560 2.3908
-6.1773 -2.7795 2.3908
-6.0745 -2.9996 2.3908
-5.9637 -3.2157 2.3908
-5.8452 -3.4277 2.3908
-5.7190 -3.6353 2.3908
-5.5853 -3.8382 2.3908
-5.4444 -4.0360 2.3908
-5.2964 -4.2287 2.3908
-5.1414 -4.4158 2.3908
-4.9798 -4.5972 2.3908
-4.8117 -4.7726 2.3908
-4.6373 -4.9418 2.3908
-4.4569 -5.1045 2.3908
-4.2708 -5.2605 2.3908
-4.0790 -5.4096 2.3908
-3.8821 -5.5517 2.3908
-3.6801 -5.6865 2.3908
-3.4734 -5.8139 2.3908
-3.2622 -5.9337 2.3908
-3.0468 -6.0455 2.3907
-2.8268 -6.1481 2.3901
-2.6025 -6.2403 2.3887
-2.3738 -6.3209 2.3859
-2.1444 -6.3981 2.3851
-1.9129 -6.4682 2.3847
-1.6791 -6.5299 2.3844
-1.4433 -6.5833 2.3841
-1.2058 -6.6281 2.3839
-0.9670 -6.6644 2.3837
-0.7272 -6.6922 2.3836
-0.4866 -6.7114 2.3835
-0.2455 -6.7220 2.3834
-0.0043 -6.7239 2.3834
0.2368 -6.7173 2.3834
0.4773 -6.7021 2.3835
0.7171 -6.6783 2.3836
0.9559 -6.6460 2.3838
1.1932 -6.6052 2.3840
1.4289 -6.5560 2.3842
1.6626 -6.4984 2.3845
1.8941 -6.4326 2.3848
2.1230 -6.3587 2.3852
2.3491 -6.2766 2.3856
2.5721 -6.1866 2.3861
2.7917 -6.0887 2.3865
3.0097 -5.9874 2.3888
3.2238 -5.8776 2.3908
3.4310 -5.7554 2.3908
3.6336 -5.6258 2.3908
3.8313 -5.4891 2.3908
4.0239 -5.3455 2.3908
4.2111 -5.1950 2.3908
4.3927 -5.0381 2.3908
4.5685 -4.8748 2.3908
4.7383 -4.7053 2.3908
4.9018 -4.5300 2.3908
5.0588 -4.3490 2.3908
5.2092 -4.1625 2.3908
5.3528 -3.9709 2.3908
5.4893 -3.7744 2.3908
5.6187 -3.5731 2.3908
5.7407 -3.3675 2.3908
5.8553 -3.1577 2.3908
5.9623 -2.9440 2.3908
6.0615 -2.7267 2.3908
6.1528 -2.5062 2.3908
6.2362 -2.2825 2.3908
6.2492 -2.0359 2.3672
6.2534 -1.7915 2.3438
6.2571 -1.5516 2.3237
6.2601 -1.3155 2.3067
6.2627 -1.0827 2.2926
6.2646 -0.8525 2.2815
6.2661 -0.6243 2.2732
6.2670 -0.3977 2.2677
6.2675 -0.1719 2.2649
6.2674 0.0534 2.2648
6.2668 0.2789 2.2674
6.2657 0.5050 2.2728
6.2642 0.7323 2.2809
6.2620 0.9613 2.2919
6.2594 1.1926 2.3057
6.2562 1.4268 2.3224
6.2524 1.6645 2.3422
6.2481 1.9063 2.3652
6.2411 2.1523 2.3908
6.1586 2.3750 2.3908
6.0684 2.5943 2.3908
5.9704 2.8104 2.3908
5.8648 3.0229 2.3908
5.7517 3.2315 2.3908
5.6314 3.4359 2.3908
5.5038 3.6359 2.3908
5.3693 3.8312 2.3908
5.2279 4.0216 2.3908
5.0799 4.2069 2.3908
4.9254 4.3869 2.3908
4.7646 4.5612 2.3908
4.5977 4.7297 2.3908
4.4249 4.8922 2.3908
4.2465 5.0484 2.3908
4.0626 5.1984 2.3908
3.8735 5.3416 2.3908
3.6794 5.4781 2.3908
3.4806 5.6076 2.3908
3.2773 5.7300 2.3908
3.0697 5.8451 2.3908
2.8581 5.9528 2.3908
2.6428 6.0530 2.3908
2.4241 6.1454 2.3908
0.8806 2.4914 0.9561
0.7906 2.5218 0.9560
0.6996 2.5489 0.9558
0.6076 2.5728 0.9557
0.5148 2.5933 0.9555
0.4213 2.6104 0.9554
0.3273 2.6242 0.9552
0.2328 2.6345 0.9549
0.1380 2.6414 0.9547
0.0430 2.6449 0.9545
-0.0521 2.6450 0.9542
-0.1471 2.6416 0.9539
-0.2420 2.6349 0.9536
-0.3365 2.6246 0.9533
-0.4306 2.6110 0.9529
-0.5241 2.5940 0.9526
-0.6170 2.5736 0.9522
-0.7091 2.5499 0.9519
-0.8002 2.5229 0.9515
-0.8903 2.4925 0.9511
-2.4629 6.1842 2.3908
-2.6846 6.0946 2.3908
-2.9031 5.9971 2.3908
-3.1181 5.8917 2.3908
-3.3292 5.7787 2.3908
-3.5363 5.6582 2.3908
-3.7389 5.5303 2.3908
-3.9370 5.3951 2.3908
-4.1301 5.2528 2.3908
-4.3181 5.1037 2.3908
-4.5007 4.9478 2.3908
-4.6777 4.7854 2.3908
-4.8488 4.6167 2.3908
-5.0138 4.4418 2.3908
-5.1725 4.2611 2.3908
-5.3246 4.0747 2.3908
-5.4700 3.8829 2.3908
-5.6084 3.6858 2.3908
-5.7397 3.4838 2.3908
-5.8637 3.2772 2.3908
-5.9803 3.0661 2.3908
-6.0891 2.8509 2.3908
-6.1902 2.6318 2.3908
-6.2834 2.4091 2.3908
-6.3685 2.1831 2.3908
-6.4453 1.9541 2.3908
-6.5139 1.7224 2.3908
-6.5741 1.4882 2.3908
-6.6258 1.2520 2.3908
-6.6690 1.0140 2.3908
-6.7035 0.7744 2.3908
-6.7293 0.5338 2.3908
-6.7464 0.2922 2.3908
-6.7548 0.0502 2.3908
-6.7544 -0.1921 2.3908
-6.7451 -0.4343 2.3908
-6.7272 -0.6760 2.3908
-6.7004 -0.9170 2.3908
-6.6650 -1.1569 2.3908
-6.6208 -1.3955 2.3908
-6.5680 -1.6323 2.3908
-6.5066 -1.8670 2.3908
-6.4368 -2.0995 2.3908
-6.3585 -2.3293 2.3908
-6.2720 -2.5561 2.3908
-6.1772 -2.7797 2.3908
-6.0744 -2.9997 2.3908
-5.9636 -3.2158 2.3908
-5.8451 -3.4279 2.3908
-5.7189 -3.6354 2.3908
-5.5852 -3.8383 2.3908
-5.4443 -4.0362 2.3908
-5.2963 -4.2288 2.3908
-5.1413 -4.4159 2.3908
-4.9797 -4.5973 2.3908
-4.8116 -4.7727 2.3908
-4.6372 -4.9419 2.3908
-4.4568 -5.1046 2.3908
-4.2706 -5.2606 2.3908
-4.0789 -5.4097 2.3908
-3.8820 -5.5518 2.3908
-3.6800 -5.6866 2.3908
-3.4732 -5.8140 2.3908
-3.2621 -5.9338 2.3908
-3.0466 -6.0456 2.3907
-2.8267 -6.1482 2.3901
-2.6023 -6.2404 2.3887
-2.3737 -6.3209 2.3859
-2.1442 -6.3981 2.3851
-1.9127 -6.4682 2.3847
-1.6789 -6.5300 2.3844
-1.4431 -6.5833 2.3841
-1.2057 -6.6281 2.3839
-0.9669 -6.6645 2.3837
-0.7270 -6.6922 2.3836
-0.4864 -6.7114 2.3835
-0.2453 -6.7220 2.3834
-0.0047 -6.2776 2.3856
0.2204 -6.2715 2.3857
0.4450 -6.2574 2.3857
0.6689 -6.2354 2.3858
0.8918 -6.2053 2.3860
1.1134 -6.1674 2.3862
1.3335 -6.1216 2.3864
1.5517 -6.0680 2.3867
1.7679 -6.0066 2.3870
1.9816 -5.9377 2.3873
2.1928 -5.8611 2.3877
2.4010 -5.7771 2.3881
2.6079 -5.6899 2.3903
2.8097 -5.5913 2.3908
3.0072 -5.4844 2.3908
3.2006 -5.3705 2.3908
3.3897 -5.2498 2.3908
3.5743 -5.1224 2.3908
3.7541 -4.9885 2.3908
3.9290 -4.8483 2.3908
4.0986 -4.7020 2.3908
4.2627 -4.5497 2.3908
4.4213 -4.3917 2.3908
4.5740 -4.2282 2.3908
4.7207 -4.0594 2.3908
4.8612 -3.8855 2.3908
4.9953 -3.7068 2.3908
5.1229 -3.5234 2.3908
5.2438 -3.3357 2.3908
5.3579 -3.1438 2.3908
5.4650 -2.9481 2.3908
5.5650 -2.7487 2.3908
5.6578 -2.5460 2.3908
5.7432 -2.3401 2.3908
5.8212 -2.1314 2.3908
5.8917 -1.9202 2.3908
5.9545 -1.7066 2.3908
6.0097 -1.4910 2.3908
6.0572 -1.2736 2.3908
6.0969 -1.0547 2.3908
6.1287 -0.8347 2.3908
6.1527 -0.6137 2.3908
6.1687 -0.3920 2.3908
6.1769 -0.1700 2.3908
6.1772 0.0521 2.3908
6.1695 0.2740 2.3908
6.1540 0.4954 2.3908
6.1306 0.7161 2.3908
6.0994 0.9358 2.3908
6.0604 1.1542 2.3908
6.0137 1.3710 2.3908
5.9593 1.5860 2.3908
5.8973 1.7989 2.3908
5.8278 2.0094 2.3908
5.7509 2.2172 2.3908
5.6667 2.4222 2.3908
5.5752 2.6241 2.3908
5.4766 2.8225 2.3908
5.3711 3.0173 2.3908
5.2587 3.2082 2.3908
5.1396 3.3950 2.3908
5.0140 3.5774 2.3908
4.8820 3.7553 2.3908
4.7437 3.9284 2.3908
4.5994 4.0964 2.3908
4.4492 4.2595 2.3908
4.2934 4.4165 2.3908
4.1320 4.5683 2.3908
3.9654 4.7143 2.3908
3.7936 4.8542 2.3908
3.6170 4.9880 2.3908
3.4358 5.1154 2.3908
3.2500 5.2363 2.3908
3.0601 5.3506 2.3908
2.8663 5.4580 2.3908
2.6687 5.5585 2.3908
2.4676 5.6520 2.3908
0.9042 2.2925 0.9552
0.8213 2.3239 0.9551
0.7374 2.3522 0.9550
0.6524 2.3775 0.9549
0.5666 2.3997 0.9547
0.4801 2.4188 0.9546
0.3929 2.4348 0.9544
0.3051 2.4476 0.9542
0.2170 2.4573 0.9540
0.1285 2.4637 0.9538
0.0399 2.4670 0.9536
-0.0487 2.4671 0.9533
-0.1374 2.4639 0.9531
-0.2258 2.4576 0.9528
-0.3140 2.4480 0.9525
-0.4018 2.4353 0.9522
-0.4890 2.4195 0.9518
-0.5757 2.4004 0.9515
-0.6616 2.3783 0.9511
-0.7466 2.3531 0.9508
-0.8307 2.3248 0.9504
-0.9136 2.2936 0.9500
-2.5062 5.6882 2.3908
-2.7100 5.5970 2.3908
-2.9106 5.4986 2.3908
-3.1076 5.3930 2.3908
-3.3007 5.2803 2.3908
-3.4898 5.1608 2.3908
-3.6745 5.0345 2.3908
-3.8546 4.9016 2.3908
-4.0300 4.7623 2.3908
-4.2002 4.6167 2.3908
-4.3653 4.4650 2.3908
-4.5248 4.3074 2.3908
-4.6786 4.1442 2.3908
-4.8265 3.9754 2.3908
-4.9683 3.8014 2.3908
-5.1038 3.6223 2.3908
-5.2329 3.4384 2.3908
-5.3552 3.2499 2.3908
-5.4708 3.0570 2.3908
-5.5793 2.8600 2.3908
-5.6808 2.6591 2.3908
-5.7749 2.4547 2.3908
-5.8616 2.2469 2.3908
-5.9409 2.0360 2.3908
-6.0124 1.8224 2.3908
-6.0763 1.6062 2.3908
-6.1323 1.3878 2.3908
-6.1804 1.1674 2.3908
-6.2205 0.9454 2.3908
-6.2525 0.7220 2.3908
-6.2765 0.4975 2.3908
-6.2923 0.2722 2.3908
-6.3000 0.0465 2.3908
-6.2995 -0.1795 2.3908
-6.2908 -0.4053 2.3908
-6.2739 -0.6307 2.3908
-6.2489 -0.8554 2.3908
-6.2157 -1.0791 2.3908
-6.1745 -1.3016 2.3908
-6.1252 -1.5224 2.3908
-6.0679 -1.7413 2.3908
-6.0027 -1.9580 2.3908
-5.9296 -2.1723 2.3908
-5.8489 -2.3838 2.3908
-5.7605 -2.5922 2.3908
-5.6645 -2.7973 2.3908
-5.5612 -2.9989 2.3908
-5.4507 -3.1965 2.3908
-5.3330 -3.3901 2.3908
-5.2084 -3.5792 2.3908
-5.0770 -3.7637 2.3908
-4.9389 -3.9433 2.3908
-4.7945 -4.1178 2.3908
-4.6437 -4.2869 2.3908
-4.4870 -4.4505 2.3908
-4.3244 -4.6082 2.3908
-4.1562 -4.7599 2.3908
-3.9827 -4.9055 2.3908
-3.8040 -5.0446 2.3908
-3.6203 -5.1771 2.3908
-3.4320 -5.3028 2.3908
-3.2393 -5.4216 2.3908
-3.0424 -5.5334 2.3908
-2.8416 -5.6379 2.3908
-2.6372 -5.7350 2.3908
-2.4295 -5.8247 2.3908
-2.2186 -5.9066 2.3907
-2.0046 -5.9799 2.3903
-1.7877 -6.0437 2.3892
-1.5683 -6.0973 2.3873
-1.3477 -6.1454 2.3863
-1.1261 -6.1874 2.3861
-0.9032 -6.2215 2.3859
-0.6793 -6.2476 2.3858
-0.4547 -6.2656 2.3857
-0.2297 -6.2756 2.3857
-0.0045 -6.2776 2.3856
0.2205 -6.2715 2.3857
0.4451 -6.2574 2.3857
0.6690 -6.2354 2.3858
0.8919 -6.2053 2.3860
1.1135 -6.1674 2.3862
1.3336 -6.1215 2.3864
1.5519 -6.0679 2.3867
1.7680 -6.0066 2.3870
1.9818 -5.9376 2.3873
2.1929 -5.8611 2.3877
2.4011 -5.7771 2.3881
2.6081 -5.6899 2.3903
2.8099 -5.5913 2.3908
3.0073 -5.4844 2.3908
3.2007 -5.3705 2.3908
3.3899 -5.2497 2.3908
3.5744 -5.1223 2.3908
3.7542 -4.9884 2.3908
3.9291 -4.8482 2.3908
4.0987 -4.7019 2.3908
4.2628 -4.5496 2.3908
4.4214 -4.3916 2.3908
4.5741 -4.2281 2.3908
4.7208 -4.0593 2.3908
4.8613 -3.8854 2.3908
4.9954 -3.7067 2.3908
5.1230 -3.5233 2.3908
5.2439 -3.3356 2.3908
5.3580 -3.1437 2.3908
5.4651 -2.9480 2.3908
5.5650 -2.7486 2.3908
5.6578 -2.5459 2.3908
5.7432 -2.3400 2.3908
5.8212 -2.1313 2.3908
5.8917 -1.9200 2.3908
5.9546 -1.7064 2.3908
6.0098 -1.4908 2.3908
6.0572 -1.2735 2.3908
6.0969 -1.0546 2.3908
6.1287 -0.8345 2.3908
6.1527 -0.6135 2.3908
6.1688 -0.3919 2.3908
6.1769 -0.1699 2.3908
6.1772 0.0522 2.3908
6.1695 0.2741 2.3908
6.1540 0.4956 2.3908
6.1306 0.7163 2.3908
6.0994 0.9360 2.3908
6.0604 1.1543 2.3908
6.0137 1.3712 2.3908
5.9593 1.5861 2.3908
5.8973 1.7990 2.3908
5.8278 2.0095 2.3908
5.7508 2.2174 2.3908
5.6666 2.4224 2.3908
5.5751 2.6242 2.3908
5.4766 2.8226 2.3908
5.3710 3.0174 2.3908
5.2586 3.2084 2.3908
5.1396 3.3951 2.3908
5.0139 3.5776 2.3908
4.8819 3.7554 2.3908
4.7437 3.9285 2.3908
4.5993 4.0965 2.3908
4.4492 4.2593 2.3908
4.2933 4.4165 2.3908
4.1319 4.5685 2.3908
3.9653 4.7143 2.3908
3.7935 4.8544 2.3908
3.6169 4.9881 2.3908
3.4356 5.1155 2.3908
3.2499 5.2364 2.3908
3.0600 5.3507 2.3908
2.8661 5.4581 2.3908
2.6685 5.5586 2.3908
2.4675 5.6521 2.3908
0.9042 2.2925 0.9552
0.8213 2.3239 0.9551
0.7373 2.3522 0.9550
0.6524 2.3775 0.9549
0.5666 2.3997 0.9547
0.4800 2.4189 0.9546
0.3928 2.4348 0.9544
0.3051 2.4476 0.9542
0.2169 2.4573 0.9540
0.1285 2.4637 0.9538
0.0399 2.4670 0.9536
-0.0488 2.4671 0.9533
-0.1374 2.4639 0.9531
-0.2259 2.4576 0.9528
-0.3141 2.4480 0.9525
-0.4018 2.4353 0.9522
-0.4891 2.4194 0.9518
-0.5757 2.4004 0.9515
-0.6616 2.3783 0.9511
-0.7466 2.3531 0.9508
-0.8307 2.3248 0.9504
-0.9137 2.2935 0.9500
-2.5063 5.6882 2.3908
-2.7102 5.5970 2.3908
-2.9107 5.4985 2.3908
-3.1077 5.3929 2.3908
-3.3008 5.2802 2.3908
-3.4899 5.1607 2.3908
-3.6746 5.0344 2.3908
-3.8547 4.9015 2.3908
-4.0301 4.7622 2.3908
-4.2004 4.6166 2.3908
-4.3654 4.4649 2.3908
-4.5249 4.3073 2.3908
-4.6787 4.1441 2.3908
-4.8266 3.9753 2.3908
-4.9684 3.8013 2.3908
-5.1039 3.6222 2.3908
-5.2329 3.4383 2.3908
-5.3553 3.2497 2.3908
-5.4708 3.0569 2.3908
-5.5794 2.8599 2.3908
-5.6808 2.6590 2.3908
-5.7750 2.4546 2.3908
-5.8617 2.2468 2.3908
-5.9409 2.0359 2.3908
-6.0125 1.8222 2.3908
-6.0763 1.6061 2.3908
-6.1323 1.3876 2.3908
-6.1804 1.1673 2.3908
-6.2205 0.9452 2.3908
-6.2525 0.7218 2.3908
-6.2765 0.4973 2.3908
-6.2923 0.2721 2.3908
-6.3000 0.0463 2.3908
-6.2995 -0.1796 2.3908
-6.2908 -0.4055 2.3908
-6.2739 -0.6309 2.3908
-6.2489 -0.8556 2.3908
-6.2157 -1.0793 2.3908
-6.1744 -1.3017 2.3908
-6.1251 -1.5225 2.3908
-6.0678 -1.7414 2.3908
-6.0026 -1.9582 2.3908
-5.9296 -2.1724 2.3908
-5.8488 -2.3839 2.3908
-5.7604 -2.5923 2.3908
-5.6645 -2.7975 2.3908
-5.5612 -2.9990 2.3908
-5.4506 -3.1967 2.3908
-5.3329 -3.3902 2.3908
-5.2083 -3.5793 2.3908
-5.0769 -3.7638 2.3908
-4.9388 -3.9434 2.3908
-4.7944 -4.1179 2.3908
-4.6436 -4.2870 2.3908
-4.4869 -4.4506 2.3908
-4.3243 -4.6083 2.3908
-4.1561 -4.7600 2.3908
-3.9826 -4.9055 2.3908
-3.8038 -5.0446 2.3908
-3.6202 -5.1772 2.3908
-3.4319 -5.3029 2.3908
-3.2392 -5.4217 2.3908
-3.0423 -5.5335 2.3908
-2.8415 -5.6380 2.3908
-2.6371 -5.7351 2.3908
-2.4293 -5.8247 2.3908
-2.2185 -5.9066 2.3907
-2.0045 -5.9799 2.3903
-1.7876 -6.0437 2.3892
-1.5681 -6.0974 2.3873
-1.3476 -6.1454 2.3863
-1.1260 -6.1874 2.3861
-0.9031 -6.2215 2.3859
-0.6792 -6.2476 2.3858
-0.4546 -6.2656 2.3857
-0.2296 -6.2756 2.3857
-0.0049 -5.8805 2.3876
0.2059 -5.8749 2.3877
0.4163 -5.8619 2.3877
0.6260 -5.8413 2.3878
0.8348 -5.8132 2.3880
1.0425 -5.7778 2.3881
1.2487 -5.7350 2.3883
1.4531 -5.6848 2.3886
1.6556 -5.6275 2.3889
1.8559 -5.5629 2.3892
2.0537 -5.4913 2.3895
2.2497 -5.4146 2.3908
2.4414 -5.3282 2.3908
2.6299 -5.2349 2.3908
2.8148 -5.1350 2.3908
2.9960 -5.0285 2.3908
3.1731 -4.9155 2.3908
3.3460 -4.7964 2.3908
3.5145 -4.6712 2.3908
3.6783 -4.5400 2.3908
3.8372 -4.4031 2.3908
3.9910 -4.2606 2.3908
4.1396 -4.1128 2.3908
4.2827 -3.9598 2.3908
4.4202 -3.8018 2.3908
4.5518 -3.6391 2.3908
4.6776 -3.4718 2.3908
4.7972 -3.3001 2.3908
4.9105 -3.1244 2.3908
5.0175 -2.9448 2.3908
5.1179 -2.7615 2.3908
5.2117 -2.5749 2.3908
5.2987 -2.3850 2.3908
5.3788 -2.1923 2.3908
5.4520 -1.9969 2.3908
5.5181 -1.7990 2.3908
5.5772 -1.5990 2.3908
5.6290 -1.3970 2.3908
5.6735 -1.1935 2.3908
5.7108 -0.9885 2.3908
5.7407 -0.7823 2.3908
5.7633 -0.5753 2.3908
5.7785 -0.3677 2.3908
5.7862 -0.1596 2.3908
5.7866 0.0483 2.3908
5.7795 0.2565 2.3908
5.7650 0.4637 2.3908
5.7432 0.6705 2.3908
5.7141 0.8763 2.3908
5.6776 1.0810 2.3908
5.6339 1.2841 2.3908
5.5830 1.4856 2.3908
5.5250 1.6850 2.3908
5.4599 1.8823 2.3908
5.3879 2.0771 2.3908
5.3090 2.2691 2.3908
5.2233 2.4583 2.3908
5.1310 2.6442 2.3908
5.0321 2.8267 2.3908
4.9269 3.0056 2.3908
4.8153 3.1807 2.3908
4.6976 3.3516 2.3908
4.5739 3.5183 2.3908
4.4444 3.6804 2.3908
4.3092 3.8380 2.3908
4.1684 3.9905 2.3908
4.0224 4.1378 2.3908
3.8712 4.2801 2.3908
3.7150 4.4168 2.3908
3.5541 4.5479 2.3908
3.3886 4.6732 2.3908
3.2187 4.7926 2.3908
3.0447 4.9058 2.3908
2.8667 5.0128 2.3908
2.6851 5.1135 2.3908
2.4999 5.2076 2.3908
0.9227 2.1136 0.9543
0.8462 2.1457 0.9543
0.7686 2.1751 0.9542
0.6900 2.2016 0.9541
0.6105 2.2252 0.9540
0.5302 2.2460 0.9539
0.4491 2.2639 0.9537
0.3675 2.2788 0.9536
0.2854 2.2908 0.9534
0.2029 2.2998 0.9532
0.1201 2.3059 0.9530
0.0372 2.3089 0.9528
-0.0458 2.3090 0.9525
-0.1288 2.3060 0.9523
-0.2116 2.3001 0.9520
-0.2941 2.2912 0.9517
-0.3763 2.2793 0.9515
-0.4579 2.2644 0.9511
-0.5390 2.2466 0.9508
-0.6194 2.2259 0.9505
-0.6990 2.2023 0.9502
-0.7777 2.1759 0.9498
-0.8554 2.1466 0.9494
-2.3476 5.3267 2.3908
-2.5385 5.2412 2.3908
-2.7262 5.1489 2.3908
-2.9106 5.0498 2.3908
-3.0914 4.9442 2.3908
-3.2683 4.8322 2.3908
-3.4412 4.7138 2.3908
-3.6098 4.5892 2.3908
-3.7739 4.4586 2.3908
-3.9332 4.3222 2.3908
-4.0876 4.1801 2.3908
-4.2369 4.0324 2.3908
-4.3808 3.8795 2.3908
-4.5192 3.7214 2.3908
-4.6518 3.5584 2.3908
-4.7786 3.3907 2.3908
-4.8992 3.2184 2.3908
-5.0137 3.0419 2.3908
-5.1217 2.8612 2.3908
-5.2232 2.6767 2.3908
-5.3180 2.4887 2.3908
-5.4060 2.2972 2.3908
-5.4871 2.1027 2.3908
-5.5611 1.9053 2.3908
-5.6280 1.7053 2.3908
-5.6876 1.5029 2.3908
-5.7399 1.2984 2.3908
-5.7848 1.0922 2.3908
-5.8222 0.8844 2.3908
-5.8521 0.6753 2.3908
-5.8744 0.4652 2.3908
-5.8891 0.2543 2.3908
-5.8962 0.0431 2.3908
-5.8956 -0.1684 2.3908
-5.8874 -0.3797 2.3908
-5.8715 -0.5906 2.3908
-5.8480 -0.8009 2.3908
-5.8169 -1.0102 2.3908
-5.7782 -1.2183 2.3908
-5.7320 -1.4249 2.3908
-5.6783 -1.6298 2.3908
-5.6172 -1.8326 2.3908
-5.5489 -2.0330 2.3908
-5.4732 -2.2309 2.3908
-5.3905 -2.4259 2.3908
-5.3007 -2.6178 2.3908
-5.2040 -2.8064 2.3908
-5.1005 -2.9913 2.3908
-4.9904 -3.1724 2.3908
-4.8738 -3.3493 2.3908
-4.7508 -3.5220 2.3908
-4.6216 -3.6900 2.3908
-4.4865 -3.8533 2.3908
-4.3455 -4.0115 2.3908
-4.1988 -4.1646 2.3908
-4.0467 -4.3122 2.3908
-3.8894 -4.4541 2.3908
-3.7270 -4.5903 2.3908
-3.5598 -4.7205 2.3908
-3.3880 -4.8445 2.3908
-3.2118 -4.9622 2.3908
-3.0315 -5.0734 2.3908
-2.8473 -5.1780 2.3908
-2.6595 -5.2759 2.3908
-2.4682 -5.3668 2.3908
-2.2738 -5.4508 2.3908
-2.0766 -5.5276 2.3908
-1.8767 -5.5972 2.3908
-1.6745 -5.6596 2.3908
-1.4702 -5.7145 2.3908
-1.2640 -5.7619 2.3907
-1.0562 -5.8011 2.3904
-0.8471 -5.8318 2.3897
-0.6370 -5.8537 2.3885
-0.4264 -5.8690 2.3877
-0.2157 -5.8785 2.3876
-0.0048 -5.8805 2.3876
0.2060 -5.8749 2.3877
0.4164 -5.8618 2.3877
0.6262 -5.8413 2.3878
0.8350 -5.8132 2.3880
1.0426 -5.7778 2.3881
1.2488 -5.7349 2.3883
1.4533 -5.6848 2.3886
1.6558 -5.6274 2.3889
1.8561 -5.5629 2.3892
2.0539 -5.4913 2.3895
2.2498 -5.4146 2.3908
2.4416 -5.3281 2.3908
2.6300 -5.2348 2.3908
2.8150 -5.1349 2.3908
2.9961 -5.0284 2.3908
3.1733 -4.9155 2.3908
3.3461 -4.7963 2.3908
3.5146 -4.6711 2.3908
3.6784 -4.5399 2.3908
3.8373 -4.4030 2.3908
3.9911 -4.2605 2.3908
4.1396 -4.1127 2.3908
4.2828 -3.9597 2.3908
4.4202 -3.8017 2.3908
4.5519 -3.6389 2.3908
4.6776 -3.4716 2.3908
4.7972 -3.3000 2.3908
4.9106 -3.1243 2.3908
5.0175 -2.9447 2.3908
5.1180 -2.7614 2.3908
5.2117 -2.5747 2.3908
5.2987 -2.3849 2.3908
5.3789 -2.1921 2.3908
5.4520 -1.9967 2.3908
5.5182 -1.7989 2.3908
5.5772 -1.5988 2.3908
5.6290 -1.3969 2.3908
5.6736 -1.1933 2.3908
5.7108 -0.9883 2.3908
5.7408 -0.7822 2.3908
5.7633 -0.5752 2.3908
5.7785 -0.3676 2.3908
5.7862 -0.1594 2.3908
5.7866 0.0486 2.3908
5.7795 0.2563 2.3908
5.7650 0.4639 2.3908
5.7432 0.6706 2.3908
5.7140 0.8765 2.3908
5.6776 1.0811 2.3908
5.6338 1.2843 2.3908
5.5829 1.4857 2.3908
5.5249 1.6851 2.3908
5.4599 1.8824 2.3908
5.3878 2.0772 2.3908
5.3089 2.2692 2.3908
5.2233 2.4584 2.3908
5.1309 2.6443 2.3908
5.0321 2.8269 2.3908
4.9268 3.0058 2.3908
4.8152 3.1808 2.3908
4.6975 3.3517 2.3908
4.5738 3.5184 2.3908
4.4443 3.6806 2.3908
4.3091 3.8381 2.3908
4.1684 3.9905 2.3908
4.0223 4.1380 2.3908
3.8711 4.2802 2.3908
3.7149 4.4169 2.3908
3.5540 4.5480 2.3908
3.3885 4.6733 2.3908
3.2186 4.7927 2.3908
3.0446 4.9059 2.3908
2.8666 5.0129 2.3908
2.6849 5.1135 2.3908
2.4998 5.2077 2.3908
0.9226 2.1137 0.9543
0.8461 2.1458 0.9543
0.7686 2.1751 0.9542
0.6900 2.2016 0.9541
0.6104 2.2253 0.9540
0.5301 2.2460 0.9539
0.4491 2.2639 0.9537
0.3675 2.2789 0.9536
0.2853 2.2908 0.9534
0.2028 2.2999 0.9532
0.1201 2.3059 0.9530
0.0371 2.3089 0.9528
-0.0459 2.3090 0.9525
-0.1288 2.3060 0.9523
-0.2116 2.3001 0.9520
-0.2942 2.2912 0.9517
-0.3763 2.2793 0.9515
-0.4580 2.2644 0.9511
-0.5391 2.2466 0.9508
-0.6195 2.2259 0.9505
-0.6990 2.2023 0.9502
-0.7777 2.1758 0.9498
-0.8554 2.1466 0.9494
-2.3477 5.3267 2.3908
-2.5386 5.2412 2.3908
-2.7263 5.1488 2.3908
-2.9107 5.0498 2.3908
-3.0915 4.9442 2.3908
-3.2684 4.8321 2.3908
-3.4413 4.7137 2.3908
-3.6099 4.5891 2.3908
-3.7740 4.4586 2.3908
-3.9333 4.3221 2.3908
-4.0877 4.1800 2.3908
-4.2370 4.0324 2.3908
-4.3809 3.8794 2.3908
-4.5193 3.7213 2.3908
-4.6519 3.5583 2.3908
-4.7786 3.3905 2.3908
-4.8993 3.2183 2.3908
-5.0137 3.0417 2.3908
-5.1218 2.8611 2.3908
-5.2232 2.6766 2.3908
-5.3181 2.4885 2.3908
-5.4060 2.2971 2.3908
-5.4871 2.1026 2.3908
-5.5611 1.9051 2.3908
-5.6280 1.7051 2.3908
-5.6876 1.5028 2.3908
-5.7399 1.2983 2.3908
-5.7848 1.0920 2.3908
-5.8222 0.8842 2.3908
-5.8521 0.6751 2.3908
-5.8744 0.4650 2.3908
-5.8891 0.2542 2.3908
-5.8962 0.0429 2.3908
-5.8956 -0.1685 2.3908
-5.8874 -0.3798 2.3908
-5.8715 -0.5908 2.3908
-5.8480 -0.8011 2.3908
-5.8169 -1.0104 2.3908
-5.7782 -1.2185 2.3908
-5.7320 -1.4251 2.3908
-5.6783 -1.6299 2.3908
-5.6172 -1.8327 2.3908
-5.5488 -2.0331 2.3908
-5.4732 -2.2310 2.3908
-5.3904 -2.4260 2.3908
-5.3006 -2.6179 2.3908
-5.2039 -2.8065 2.3908
-5.1005 -2.9914 2.3908
-4.9903 -3.1725 2.3908
-4.8737 -3.3495 2.3908
-4.7507 -3.5221 2.3908
-4.6215 -3.6901 2.3908
-4.4864 -3.8534 2.3908
-4.3454 -4.0116 2.3908
-4.1987 -4.1647 2.3908
-4.0466 -4.3122 2.3908
-3.8893 -4.4542 2.3908
-3.7269 -4.5904 2.3908
-3.5597 -4.7206 2.3908
-3.3879 -4.8446 2.3908
-3.2117 -4.9623 2.3908
-3.0314 -5.0735 2.3908
-2.8472 -5.1781 2.3908
-2.6593 -5.2759 2.3908
-2.4681 -5.3669 2.3908
-2.2737 -5.4508 2.3908
-2.0765 -5.5276 2.3908
-1.8766 -5.5973 2.3908
-1.6744 -5.6596 2.3908
-1.4700 -5.7145 2.3908
-1.2639 -5.7619 2.3907
-1.0561 -5.8011 2.3904
-0.8470 -5.8318 2.3897
-0.6368 -5.8537 2.3885
-0.4263 -5.8690 2.3877
-0.2155 -5.8785 2.3876
-0.0051 -5.5278 2.3908
0.1930 -5.5225 2.3907
0.3908 -5.5099 2.3906
0.5879 -5.4902 2.3905
0.7841 -5.4634 2.3904
0.9791 -5.4297 2.3904
1.1728 -5.3892 2.3904
1.3649 -5.3420 2.3906
1.5551 -5.2880 2.3908
1.7432 -5.2268 2.3908
1.9288 -5.1588 2.3908
2.1118 -5.0843 2.3908
2.2919 -5.0032 2.3908
2.4689 -4.9158 2.3908
2.6426 -4.8220 2.3908
2.8128 -4.7221 2.3908
2.9792 -4.6162 2.3908
3.1416 -4.5044 2.3908
3.2998 -4.3869 2.3908
3.4537 -4.2639 2.3908
3.6030 -4.1354 2.3908
3.7476 -4.0017 2.3908
3.8872 -3.8629 2.3908
4.0217 -3.7193 2.3908
4.1509 -3.5710 2.3908
4.2747 -3.4183 2.3908
4.3929 -3.2612 2.3908
4.5053 -3.1001 2.3908
4.6119 -2.9351 2.3908
4.7124 -2.7664 2.3908
4.8069 -2.5944 2.3908
4.8950 -2.4190 2.3908
4.9769 -2.2408 2.3908
5.0523 -2.0598 2.3908
5.1211 -1.8762 2.3908
5.1833 -1.6904 2.3908
5.2389 -1.5025 2.3908
5.2877 -1.3128 2.3908
5.3296 -1.1217 2.3908
5.3647 -0.9290 2.3908
5.3930 -0.7354 2.3908
5.4142 -0.5409 2.3908
5.4286 -0.3459 2.3908
5.4359 -0.1505 2.3908
5.4363 0.0450 2.3908
5.4298 0.2404 2.3908
5.4163 0.4353 2.3908
5.3958 0.6296 2.3908
5.3685 0.8230 2.3908
5.3343 1.0153 2.3908
5.2933 1.2062 2.3908
5.2455 1.3955 2.3908
5.1910 1.5829 2.3908
5.1299 1.7683 2.3908
5.0623 1.9513 2.3908
4.9882 2.1318 2.3908
4.9077 2.3096 2.3908
4.8210 2.4843 2.3908
4.7281 2.6558 2.3908
4.6292 2.8240 2.3908
4.5244 2.9885 2.3908
4.4138 3.1490 2.3908
4.2976 3.3057 2.3908
4.1759 3.4581 2.3908
4.0488 3.6061 2.3908
3.9166 3.7494 2.3908
3.7793 3.8880 2.3908
3.6372 4.0215 2.3908
3.4905 4.1500 2.3908
3.3392 4.2732 2.3908
3.1837 4.3909 2.3908
3.0241 4.5030 2.3908
2.8605 4.6094 2.3908
2.6933 4.7100 2.3908
2.5225 4.8045 2.3908
2.3485 4.8929 2.3908
0.8660 1.9842 0.9535
0.7942 2.0143 0.9535
0.7214 2.0419 0.9534
0.6476 2.0667 0.9533
0.5730 2.0889 0.9532
0.4975 2.1084 0.9531
0.4215 2.1252 0.9530
0.3448 2.1392 0.9528
0.2677 2.1505 0.9526
0.1903 2.1589 0.9525
0.1126 2.1646 0.9523
0.0347 2.1674 0.9521
-0.0432 2.1675 0.9518
-0.1211 2.1647 0.9516
-0.1988 2.1591 0.9514
-0.2763 2.1508 0.9511
-0.3534 2.1396 0.9508
-0.4301 2.1256 0.9505
-0.5062 2.1089 0.9502
-0.5817 2.0895 0.9499
-0.6564 2.0673 0.9496
-0.7303 2.0425 0.9493
-0.8032 2.0150 0.9489
-0.8751 1.9849 0.9486
-2.3847 4.9224 2.3908
-2.5610 4.8356 2.3908
-2.7341 4.7424 2.3908
-2.9039 4.6431 2.3908
-3.0700 4.5378 2.3908
-3.2323 4.4265 2.3908
-3.3905 4.3094 2.3908
-3.5445 4.1867 2.3908
-3.6941 4.0585 2.3908
-3.8390 3.9249 2.3908
-3.9791 3.7862 2.3908
-4.1141 3.6425 2.3908
-4.2439 3.4940 2.3908
-4.3684 3.3408 2.3908
-4.4873 3.1833 2.3908
-4.6005 3.0214 2.3908
-4.7078 2.8556 2.3908
-4.8092 2.6860 2.3908
-4.9044 2.5127 2.3908
-4.9933 2.3361 2.3908
-5.0758 2.1563 2.3908
-5.1518 1.9736 2.3908
-5.2212 1.7883 2.3908
-5.2838 1.6004 2.3908
-5.3397 1.4104 2.3908
-5.3887 1.2185 2.3908
-5.4307 1.0248 2.3908
-5.4658 0.8297 2.3908
-5.4937 0.6334 2.3908
-5.5146 0.4362 2.3908
-5.5283 0.2383 2.3908
-5.5349 0.0400 2.3908
-5.5343 -0.1585 2.3908
-5.5264 -0.3568 2.3908
-5.5115 -0.5548 2.3908
-5.4893 -0.7521 2.3908
-5.4601 -0.9486 2.3908
-5.4237 -1.1439 2.3908
-5.3803 -1.3378 2.3908
-5.3298 -1.5300 2.3908
-5.2725 -1.7203 2.3908
-5.2082 -1.9084 2.3908
-5.1372 -2.0941 2.3908
-5.0595 -2.2772 2.3908
-4.9752 -2.4573 2.3908
-4.8845 -2.6342 2.3908
-4.7873 -2.8078 2.3908
-4.6840 -2.9777 2.3908
-4.5745 -3.1437 2.3908
-4.4591 -3.3057 2.3908
-4.3378 -3.4635 2.3908
-4.2110 -3.6167 2.3908
-4.0787 -3.7652 2.3908
-3.9410 -3.9088 2.3908
-3.7983 -4.0473 2.3908
-3.6506 -4.1806 2.3908
-3.4983 -4.3084 2.3908
-3.3413 -4.4306 2.3908
-3.1801 -4.5470 2.3908
-3.0148 -4.6575 2.3908
-2.8456 -4.7619 2.3908
-2.6728 -4.8601 2.3908
-2.4965 -4.9520 2.3908
-2.3170 -5.0374 2.3908
-2.1346 -5.1163 2.3908
-1.9495 -5.1884 2.3908
-1.7619 -5.2539 2.3908
-1.5721 -5.3124 2.3908
-1.3804 -5.3641 2.3908
-1.1870 -5.4087 2.3908
-0.9921 -5.4464 2.3908
-0.7960 -5.4769 2.3908
-0.5990 -5.5004 2.3908
-0.4013 -5.5167 2.3908
-0.2032 -5.5258 2.3908
-0.0049 -5.5278 2.3908
0.1932 -5.5225 2.3907
0.3909 -5.5099 2.3906
0.5880 -5.4902 2.3905
0.7842 -5.4634 2.3904
0.9793 -5.4297 2.3904
1.1729 -5.3892 2.3904
1.3650 -5.3420 2.3906
1.5553 -5.2880 2.3908
1.7433 -5.2267 2.3908
1.9289 -5.1588 2.3908
2.1119 -5.0842 2.3908
2.2920 -5.0032 2.3908
2.4690 -4.9157 2.3908
2.6427 -4.8220 2.3908
2.8129 -4.7221 2.3908
2.9793 -4.6161 2.3908
3.1417 -4.5044 2.3908
3.2999 -4.3868 2.3908
3.4538 -4.2638 2.3908
3.6031 -4.1353 2.3908
3.7477 -4.0016 2.3908
3.8873 -3.8628 2.3908
4.0218 -3.7192 2.3908
4.1510 -3.5709 2.3908
4.2748 -3.4182 2.3908
4.3929 -3.2611 2.3908
4.5054 -3.1000 2.3908
4.6119 -2.9350 2.3908
4.7125 -2.7663 2.3908
4.8069 -2.5943 2.3908
4.8951 -2.4189 2.3908
4.9769 -2.2406 2.3908
5.0523 -2.0597 2.3908
5.1212 -1.8761 2.3908
5.1834 -1.6903 2.3908
5.2389 -1.5024 2.3908
5.2877 -1.3127 2.3908
5.3297 -1.1215 2.3908
5.3648 -0.9289 2.3908
5.3930 -0.7353 2.3908
5.4142 -0.5408 2.3908
5.4286 -0.3457 2.3908
5.4359 -0.1503 2.3908
5.4363 0.0452 2.3908
5.4298 0.2405 2.3908
5.4163 0.4354 2.3908
5.3958 0.6297 2.3908
5.3685 0.8231 2.3908
5.3343 1.0154 2.3908
5.2933 1.2063 2.3908
5.2455 1.3956 2.3908
5.1910 1.5830 2.3908
5.1299 1.7684 2.3908
5.0623 1.9514 2.3908
4.9882 2.1319 2.3908
4.9077 2.3097 2.3908
4.8210 2.4844 2.3908
4.7281 2.6560 2.3908
4.6292 2.8241 2.3908
4.5244 2.9885 2.3908
4.4138 3.1492 2.3908
4.2975 3.3058 2.3908
4.1758 3.4582 2.3908
4.0488 3.6061 2.3908
3.9165 3.7495 2.3908
3.7793 3.8880 2.3908
3.6371 4.0217 2.3908
3.4904 4.1501 2.3908
3.3391 4.2732 2.3908
3.1836 4.3910 2.3908
3.0240 4.5031 2.3908
2.8604 4.6095 2.3908
2.6932 4.7100 2.3908
2.5224 4.8046 2.3908
2.3484 4.8930 2.3908
0.8660 1.9842 0.9535
0.7942 2.0144 0.9535
0.7214 2.0419 0.9534
0.6476 2.0668 0.9533
0.5729 2.0890 0.9532
0.4975 2.1085 0.9531
0.4214 2.1252 0.9530
0.3448 2.1392 0.9528
0.2677 2.1505 0.9526
0.1902 2.1589 0.9525
0.1125 2.1646 0.9523
0.0347 2.1674 0.9521
-0.0433 2.1675 0.9518
-0.1211 2.1647 0.9516
-0.1989 2.1591 0.9514
-0.2763 2.1507 0.9511
-0.3535 2.1396 0.9508
-0.4301 2.1256 0.9505
-0.5063 2.1089 0.9502
-0.5817 2.0895 0.9499
-0.6564 2.0673 0.9496
-0.7303 2.0425 0.9493
-0.8032 2.0150 0.9489
-0.8751 1.9849 0.9486
-2.3848 4.9223 2.3908
-2.5611 4.8355 2.3908
-2.7342 4.7424 2.3908
-2.9040 4.6431 2.3908
-3.0701 4.5377 2.3908
-3.2324 4.4264 2.3908
-3.3906 4.3093 2.3908
-3.5446 4.1866 2.3908
-3.6942 4.0584 2.3908
-3.8391 3.9249 2.3908
-3.9792 3.7861 2.3908
-4.1142 3.6424 2.3908
-4.2440 3.4939 2.3908
-4.3685 3.3408 2.3908
-4.4874 3.1832 2.3908
-4.6006 3.0213 2.3908
-4.7079 2.8555 2.3908
-4.8092 2.6858 2.3908
-4.9044 2.5126 2.3908
-4.9933 2.3360 2.3908
-5.0758 2.1562 2.3908
-5.1518 1.9735 2.3908
-5.2212 1.7881 2.3908
-5.2839 1.6003 2.3908
-5.3398 1.4103 2.3908
-5.3887 1.2184 2.3908
-5.4308 1.0247 2.3908
-5.4658 0.8296 2.3908
-5.4938 0.6333 2.3908
-5.5146 0.4361 2.3908
-5.5283 0.2382 2.3908
-5.5349 0.0399 2.3908
-5.5342 -0.1586 2.3908
-5.5264 -0.3569 2.3908
-5.5115 -0.5549 2.3908
-5.4893 -0.7523 2.3908
-5.4600 -0.9487 2.3908
-5.4237 -1.1440 2.3908
-5.3802 -1.3379 2.3908
-5.3298 -1.5302 2.3908
-5.2724 -1.7204 2.3908
-5.2082 -1.9086 2.3908
-5.1372 -2.0943 2.3908
-5.0595 -2.2773 2.3908
-4.9752 -2.4574 2.3908
-4.8844 -2.6343 2.3908
-4.7873 -2.8079 2.3908
-4.6839 -2.9778 2.3908
-4.5744 -3.1439 2.3908
-4.4590 -3.3058 2.3908
-4.3378 -3.4636 2.3908
-4.2109 -3.6168 2.3908
-4.0786 -3.7653 2.3908
-3.9409 -3.9089 2.3908
-3.7982 -4.0474 2.3908
-3.6505 -4.1807 2.3908
-3.4981 -4.3085 2.3908
-3.3412 -4.4307 2.3908
-3.1800 -4.5471 2.3908
-3.0147 -4.6576 2.3908
-2.8455 -4.7620 2.3908
-2.6726 -4.8602 2.3908
-2.4964 -4.9521 2.3908
-2.3169 -5.0375 2.3908
-2.1345 -5.1163 2.3908
-1.9494 -5.1885 2.3908
-1.7618 -5.2539 2.3908
-1.5720 -5.3125 2.3908
-1.3803 -5.3641 2.3908
-1.1868 -5.4088 2.3908
-0.9919 -5.4464 2.3908
-0.7959 -5.4769 2.3908
-0.5988 -5.5004 2.3908
-0.4011 -5.5167 2.3908
-0.2030 -5.5258 2.3908
-0.0052 -5.2029 2.3908
0.1812 -5.1981 2.3908
0.3674 -5.1866 2.3908
0.5529 -5.1684 2.3908
0.7376 -5.1435 2.3908
0.9213 -5.1120 2.3908
1.1036 -5.0738 2.3908
1.2844 -5.0292 2.3908
1.4634 -4.9780 2.3908
1.6404 -4.9205 2.3908
1.8152 -4.8566 2.3908
1.9875 -4.7865 2.3908
2.1571 -4.7103 2.3908
2.3238 -4.6281 2.3908
2.4873 -4.5399 2.3908
2.6476 -4.4460 2.3908
2.8043 -4.3463 2.3908
2.9573 -4.2412 2.3908
3.1063 -4.1306 2.3908
3.2513 -4.0149 2.3908
3.3919 -3.8940 2.3908
3.5281 -3.7682 2.3908
3.6596 -3.6376 2.3908
3.7863 -3.5025 2.3908
3.9081 -3.3629 2.3908
4.0247 -3.2191 2.3908
4.1361 -3.0713 2.3908
4.2420 -2.9196 2.3908
4.3425 -2.7643 2.3908
4.4372 -2.6056 2.3908
4.5263 -2.4436 2.3908
4.6094 -2.2785 2.3908
4.6865 -2.1107 2.3908
4.7576 -1.9402 2.3908
4.8226 -1.7674 2.3908
4.8813 -1.5925 2.3908
4.9336 -1.4155 2.3908
4.9797 -1.2369 2.3908
5.0193 -1.0568 2.3908
5.0524 -0.8754 2.3908
5.0791 -0.6930 2.3908
5.0992 -0.5099 2.3908
5.1128 -0.3262 2.3908
5.1198 -0.1421 2.3908
5.1202 0.0420 2.3908
5.1141 0.2260 2.3908
5.1015 0.4097 2.3908
5.0823 0.5927 2.3908
5.0566 0.7749 2.3908
5.0244 0.9560 2.3908
4.9858 1.1358 2.3908
4.9409 1.3142 2.3908
4.8896 1.4908 2.3908
4.8321 1.6654 2.3908
4.7684 1.8378 2.3908
4.6986 2.0079 2.3908
4.6226 2.1775 2.3908
4.5412 2.3399 2.3908
4.4537 2.5016 2.3908
4.3606 2.6599 2.3908
4.2618 2.8149 2.3908
4.1577 2.9662 2.3908
4.0482 3.1138 2.3908
3.9335 3.2573 2.3908
3.8138 3.3967 2.3908
3.6892 3.5318 2.3908
3.5599 3.6623 2.3908
3.4260 3.7881 2.3908
3.2878 3.9091 2.3908
3.1453 4.0252 2.3908
2.9987 4.1361 2.3908
2.8483 4.2417 2.3908
2.6943 4.3419 2.3908
2.5367 4.4365 2.3908
2.3758 4.5256 2.3908
0.8815 1.8368 0.9528
0.8150 1.8676 0.9528
0.7474 1.8959 0.9527
0.6789 1.9218 0.9527
0.6094 1.9452 0.9526
0.5391 1.9661 0.9525
0.4681 1.9845 0.9524
0.3965 2.0002 0.9523
0.3244 2.0134 0.9521
0.2518 2.0240 0.9520
0.1789 2.0319 0.9518
0.1058 2.0373 0.9516
0.0325 2.0399 0.9514
-0.0409 2.0400 0.9512
-0.1142 2.0374 0.9510
-0.1873 2.0321 0.9508
-0.2602 2.0242 0.9505
-0.3328 2.0137 0.9503
-0.4050 2.0006 0.9500
-0.4767 1.9849 0.9497
-0.5477 1.9666 0.9494
-0.6180 1.9457 0.9491
-0.6875 1.9224 0.9488
-0.7562 1.8965 0.9485
-0.8238 1.8682 0.9481
-0.8904 1.8374 0.9478
-2.4120 4.5530 2.3908
-2.5750 4.4652 2.3908
-2.7347 4.3716 2.3908
-2.8911 4.2723 2.3908
-3.0439 4.1674 2.3908
-3.1928 4.0571 2.3908
-3.3377 3.9415 2.3908
-3.4785 3.8207 2.3908
-3.6148 3.6949 2.3908
-3.7466 3.5642 2.3908
-3.8737 3.4288 2.3908
-3.9958 3.2889 2.3908
-4.1129 3.1447 2.3908
-4.2248 2.9963 2.3908
-4.3312 2.8439 2.3908
-4.4322 2.6877 2.3908
-4.5275 2.5280 2.3908
-4.6170 2.3649 2.3908
-4.7006 2.1986 2.3908
-4.7782 2.0293 2.3908
-4.8496 1.8573 2.3908
-4.9149 1.6828 2.3908
-4.9738 1.5060 2.3908
-5.0263 1.3271 2.3908
-5.0723 1.1464 2.3908
-5.1118 0.9642 2.3908
-5.1447 0.7805 2.3908
-5.1709 0.5958 2.3908
-5.1904 0.4102 2.3908
-5.2033 0.2239 2.3908
-5.2094 0.0373 2.3908
-5.2087 -0.1495 2.3908
-5.2013 -0.3362 2.3908
-5.1872 -0.5225 2.3908
-5.1663 -0.7082 2.3908
-5.1387 -0.8931 2.3908
-5.1044 -1.0769 2.3908
-5.0635 -1.2593 2.3908
-5.0160 -1.4402 2.3908
-4.9619 -1.6192 2.3908
-4.9015 -1.7963 2.3908
-4.8346 -1.9710 2.3908
-4.7615 -2.1432 2.3908
-4.6821 -2.3126 2.3908
-4.5967 -2.4791 2.3908
-4.5052 -2.6424 2.3908
-4.4080 -2.8023 2.3908
-4.3049 -2.9586 2.3908
-4.1963 -3.1110 2.3908
-4.0823 -3.2594 2.3908
-3.9629 -3.4036 2.3908
-3.8384 -3.5433 2.3908
-3.7089 -3.6785 2.3908
-3.5746 -3.8089 2.3908
-3.4356 -3.9343 2.3908
-3.2923 -4.0545 2.3908
-3.1446 -4.1695 2.3908
-2.9929 -4.2791 2.3908
-2.8374 -4.3831 2.3908
-2.6782 -4.4814 2.3908
-2.5156 -4.5738 2.3908
-2.3497 -4.6603 2.3908
-2.1808 -4.7407 2.3908
-2.0092 -4.8150 2.3908
-1.8350 -4.8829 2.3908
-1.6585 -4.9446 2.3908
-1.4799 -4.9997 2.3908
-1.2995 -5.0484 2.3908
-1.1175 -5.0905 2.3908
-0.9341 -5.1260 2.3908
-0.7496 -5.1548 2.3908
-0.5642 -5.1769 2.3908
-0.3781 -5.1923 2.3908
-0.1917 -5.2010 2.3908
-0.0051 -5.2029 2.3908
0.1814 -5.1981 2.3908
0.3675 -5.1866 2.3908
0.5530 -5.1684 2.3908
0.7378 -5.1435 2.3908
0.9214 -5.1119 2.3908
1.1037 -5.0738 2.3908
1.2845 -5.0291 2.3908
1.4635 -4.9780 2.3908
1.6405 -4.9204 2.3908
1.8153 -4.8566 2.3908
1.9876 -4.7865 2.3908
2.1572 -4.7103 2.3908
2.3239 -4.6280 2.3908
2.4874 -4.5399 2.3908
2.6477 -4.4459 2.3908
2.8044 -4.3463 2.3908
2.9574 -4.2411 2.3908
3.1064 -4.1306 2.3908
3.2514 -4.0148 2.3908
3.3920 -3.8939 2.3908
3.5282 -3.7681 2.3908
3.6597 -3.6375 2.3908
3.7864 -3.5024 2.3908
3.9081 -3.3628 2.3908
4.0248 -3.2190 2.3908
4.1361 -3.0712 2.3908
4.2421 -2.9195 2.3908
4.3425 -2.7642 2.3908
4.4373 -2.6054 2.3908
4.5263 -2.4434 2.3908
4.6094 -2.2784 2.3908
4.6866 -2.1106 2.3908
4.7577 -1.9401 2.3908
4.8226 -1.7673 2.3908
4.8813 -1.5923 2.3908
4.9337 -1.4155 2.3908
4.9797 -1.2368 2.3908
5.0193 -1.0567 2.3908
5.0525 -0.8753 2.3908
5.0791 -0.6929 2.3908
5.0992 -0.5098 2.3908
5.1128 -0.3260 2.3908
5.1198 -0.1420 2.3908
5.1202 0.0422 2.3908
5.1141 0.2262 2.3908
5.1015 0.4098 2.3908
5.0823 0.5928 2.3908
5.0566 0.7750 2.3908
5.0244 0.9561 2.3908
4.9858 1.1360 2.3908
4.9408 1.3143 2.3908
4.8896 1.4909 2.3908
4.8320 1.6655 2.3908
4.7684 1.8379 2.3908
4.6986 2.0080 2.3908
4.6228 2.1757 2.3908
4.5411 2.3401 2.3908
4.4537 2.5016 2.3908
4.3605 2.6602 2.3908
4.2618 2.8150 2.3908
4.1576 2.9663 2.3908
4.0481 3.1139 2.3908
3.9334 3.2574 2.3908
3.8137 3.3968 2.3908
3.6891 3.5319 2.3908
3.5598 3.6624 2.3908
3.4260 3.7882 2.3908
3.2877 3.9092 2.3908
3.1452 4.0252 2.3908
2.9986 4.1361 2.3908
2.8482 4.2417 2.3908
2.6942 4.3419 2.3908
2.5366 4.4366 2.3908
2.3757 4.5256 2.3908
0.8815 1.8368 0.9528
0.8150 1.8676 0.9528
0.7474 1.8959 0.9527
0.6788 1.9218 0.9527
0.6093 1.9452 0.9526
0.5391 1.9661 0.9525
0.4681 1.9845 0.9524
0.3965 2.0002 0.9523
0.3244 2.0134 0.9521
0.2518 2.0240 0.9520
0.1789 2.0320 0.9518
0.1057 2.0373 0.9516
0.0324 2.0399 0.9514
-0.0409 2.0400 0.9512
-0.1142 2.0374 0.9510
-0.1874 2.0321 0.9508
-0.2603 2.0242 0.9505
-0.3329 2.0137 0.9503
-0.4051 2.0006 0.9500
-0.4767 1.9848 0.9497
-0.5477 1.9666 0.9494
-0.6181 1.9457 0.9491
-0.6876 1.9223 0.9488
-0.7562 1.8965 0.9485
-0.8239 1.8682 0.9481
-0.8905 1.8374 0.9478
-2.4121 4.5529 2.3908
-2.5751 4.4651 2.3908
-2.7348 4.3715 2.3908
-2.8912 4.2722 2.3908
-3.0440 4.1674 2.3908
-3.1929 4.0571 2.3908
-3.3378 3.9414 2.3908
-3.4786 3.8206 2.3908
-3.6149 3.6948 2.3908
-3.7467 3.5641 2.3908
-3.8738 3.4288 2.3908
-3.9959 3.2889 2.3908
-4.1130 3.1446 2.3908
-4.2248 2.9962 2.3908
-4.3313 2.8438 2.3908
-4.4323 2.6876 2.3908
-4.5275 2.5279 2.3908
-4.6171 2.3647 2.3908
-4.7007 2.1984 2.3908
-4.7782 2.0292 2.3908
-4.8497 1.8572 2.3908
-4.9149 1.6827 2.3908
-4.9738 1.5059 2.3908
-5.0263 1.3270 2.3908
-5.0723 1.1463 2.3908
-5.1118 0.9640 2.3908
-5.1447 0.7804 2.3908
-5.1709 0.5957 2.3908
-5.1905 0.4100 2.3908
-5.2033 0.2238 2.3908
-5.2094 0.0371 2.3908
-5.2087 -0.1496 2.3908
-5.2013 -0.3363 2.3908
-5.1871 -0.5226 2.3908
-5.1662 -0.7083 2.3908
-5.1386 -0.8932 2.3908
-5.1044 -1.0770 2.3908
-5.0634 -1.2594 2.3908
-5.0159 -1.4403 2.3908
-4.9619 -1.6194 2.3908
-4.9014 -1.7964 2.3908
-4.8346 -1.9711 2.3908
-4.7614 -2.1433 2.3908
-4.6821 -2.3128 2.3908
-4.5966 -2.4793 2.3908
-4.5052 -2.6425 2.3908
-4.4079 -2.8024 2.3908
-4.3049 -2.9587 2.3908
-4.1963 -3.1111 2.3908
-4.0822 -3.2595 2.3908
-3.9628 -3.4037 2.3908
-3.8383 -3.5434 2.3908
-3.7088 -3.6786 2.3908
-3.5745 -3.8089 2.3908
-3.4355 -3.9343 2.3908
-3.2922 -4.0546 2.3908
-3.1445 -4.1696 2.3908
-2.9928 -4.2792 2.3908
-2.8373 -4.3832 2.3908
-2.6781 -4.4815 2.3908
-2.5154 -4.5739 2.3908
-2.3496 -4.6604 2.3908
-2.1807 -4.7408 2.3908
-2.0091 -4.8150 2.3908
-1.8349 -4.8830 2.3908
-1.6584 -4.9446 2.3908
-1.4798 -4.9998 2.3908
-1.2994 -5.0484 2.3908
-1.1174 -5.0905 2.3908
-0.9340 -5.1260 2.3908
-0.7494 -5.1548 2.3908
-0.5640 -5.1769 2.3908
-0.3780 -5.1923 2.3908
-0.1916 -5.2010 2.3908
-0.0054 -4.9085 2.3908
0.1705 -4.9040 2.3908
0.3461 -4.8932 2.3908
0.5212 -4.8761 2.3908
0.6954 -4.8527 2.3908
0.8687 -4.8230 2.3908
1.0407 -4.7871 2.3908
1.2113 -4.7451 2.3908
1.3802 -4.6969 2.3908
1.5472 -4.6427 2.3908
1.7121 -4.5825 2.3908
1.8747 -4.5165 2.3908
2.0348 -4.4447 2.3908
2.1921 -4.3671 2.3908
2.3465 -4.2840 2.3908
2.4977 -4.1955 2.3908
2.6457 -4.1015 2.3908
2.7901 -4.0024 2.3908
2.9308 -3.8982 2.3908
3.0676 -3.7890 2.3908
3.2004 -3.6750 2.3908
3.3289 -3.5563 2.3908
3.4531 -3.4332 2.3908
3.5728 -3.3057 2.3908
3.6877 -3.1741 2.3908
3.7979 -3.0384 2.3908
3.9030 -2.8990 2.3908
4.0031 -2.7559 2.3908
4.0980 -2.6093 2.3908
4.1875 -2.4595 2.3908
4.2716 -2.3067 2.3908
4.3501 -2.1510 2.3908
4.4230 -1.9926 2.3908
4.4902 -1.8317 2.3908
4.5516 -1.6686 2.3908
4.6071 -1.5035 2.3908
4.6566 -1.3365 2.3908
4.7001 -1.1679 2.3908
4.7376 -0.9980 2.3908
4.7689 -0.8267 2.3908
4.7942 -0.6547 2.3908
4.8132 -0.4817 2.3908
4.8261 -0.3083 2.3908
4.8328 -0.1345 2.3908
4.8332 0.0393 2.3908
4.8275 0.2130 2.3908
4.8156 0.3864 2.3908
4.7976 0.5592 2.3908
4.7733 0.7314 2.3908
4.7430 0.9021 2.3908
4.7066 1.0720 2.3908
4.6642 1.2402 2.3908
4.6159 1.4070 2.3908
4.5616 1.5718 2.3908
4.5015 1.7348 2.3908
4.4356 1.8953 2.3908
4.3641 2.0534 2.3908
4.2870 2.2088 2.3908
4.2045 2.3614 2.3908
4.1165 2.5110 2.3908
4.0233 2.6573 2.3908
3.9250 2.8002 2.3908
3.8216 2.9395 2.3908
3.7133 3.0751 2.3908
3.6003 3.2066 2.3908
3.4827 3.3341 2.3908
3.3606 3.4573 2.3908
3.2342 3.5761 2.3908
3.1037 3.6904 2.3908
2.9691 3.8000 2.3908
2.8308 3.9046 2.3908
2.6888 4.0043 2.3908
2.5433 4.0989 2.3908
2.3945 4.1883 2.3908
0.8932 1.7015 0.9522
0.8315 1.7328 0.9522
0.7688 1.7618 0.9521
0.7050 1.7885 0.9521
0.6403 1.8130 0.9520
0.5747 1.8350 0.9519
0.5084 1.8547 0.9519
0.4415 1.8720 0.9518
0.3739 1.8869 0.9516
0.3059 1.8993 0.9515
0.2374 1.9093 0.9514
0.1686 1.9168 0.9512
0.0996 1.9218 0.9510
0.0305 1.9243 0.9508
-0.0387 1.9244 0.9507
-0.1079 1.9219 0.9504
-0.1769 1.9169 0.9502
-0.2457 1.9095 0.9500
-0.3142 1.8996 0.9497
-0.3823 1.8872 0.9495
-0.4498 1.8724 0.9492
-0.5169 1.8551 0.9489
-0.5832 1.8354 0.9487
-0.6488 1.8134 0.9484
-0.7136 1.7890 0.9481
-0.7774 1.7623 0.9477
-0.8402 1.7333 0.9474
-0.9019 1.7021 0.9471
-2.4306 4.2136 2.3908
-2.5813 4.1252 2.3908
-2.7288 4.0314 2.3908
-2.8729 3.9324 2.3908
-3.0134 3.8282 2.3908
-3.1501 3.7190 2.3908
-3.2829 3.6050 2.3908
-3.4115 3.4862 2.3908
-3.5358 3.3628 2.3908
-3.6556 3.2350 2.3908
-3.7708 3.1030 2.3908
-3.8812 2.9668 2.3908
-3.9866 2.8267 2.3908
-4.0870 2.6829 2.3908
-4.1822 2.5355 2.3908
-4.2720 2.3847 2.3908
-4.3564 2.2308 2.3908
-4.4352 2.0738 2.3908
-4.5083 1.9141 2.3908
-4.5757 1.7518 2.3908
-4.6371 1.5872 2.3908
-4.6926 1.4204 2.3908
-4.7421 1.2516 2.3908
-4.7854 1.0811 2.3908
-4.8226 0.9092 2.3908
-4.8535 0.7359 2.3908
-4.8782 0.5616 2.3908
-4.8966 0.3865 2.3908
-4.9086 0.2108 2.3908
-4.9143 0.0348 2.3908
-4.9137 -0.1414 2.3908
-4.9066 -0.3175 2.3908
-4.8932 -0.4932 2.3908
-4.8734 -0.6684 2.3908
-4.8474 -0.8428 2.3908
-4.8150 -1.0161 2.3908
-4.7763 -1.1882 2.3908
-4.7315 -1.3588 2.3908
-4.6805 -1.5276 2.3908
-4.6234 -1.6946 2.3908
-4.5604 -1.8594 2.3908
-4.4913 -2.0218 2.3908
-4.4165 -2.1816 2.3908
-4.3359 -2.3386 2.3908
-4.2496 -2.4926 2.3908
-4.1579 -2.6434 2.3908
-4.0607 -2.7908 2.3908
-3.9582 -2.9346 2.3908
-3.8507 -3.0745 2.3908
-3.7381 -3.2105 2.3908
-3.6206 -3.3423 2.3908
-3.4985 -3.4698 2.3908
-3.3718 -3.5927 2.3908
-3.2408 -3.7110 2.3908
-3.1056 -3.8245 2.3908
-2.9664 -3.9330 2.3908
-2.8233 -4.0363 2.3908
-2.6766 -4.1344 2.3908
-2.5265 -4.2272 2.3908
-2.3731 -4.3144 2.3908
-2.2167 -4.3960 2.3908
-2.0574 -4.4719 2.3908
-1.8955 -4.5419 2.3908
-1.7313 -4.6061 2.3908
-1.5648 -4.6642 2.3908
-1.3964 -4.7163 2.3908
-1.2262 -4.7623 2.3908
-1.0545 -4.8020 2.3908
-0.8815 -4.8356 2.3908
-0.7075 -4.8628 2.3908
-0.5326 -4.8837 2.3908
-0.3571 -4.8983 2.3908
-0.1813 -4.9066 2.3908
-0.0053 -4.9085 2.3908
0.1706 -4.9040 2.3908
0.3462 -4.8932 2.3908
0.5213 -4.8761 2.3908
0.6956 -4.8527 2.3908
0.8688 -4.8230 2.3908
1.0409 -4.7871 2.3908
1.2114 -4.7450 2.3908
1.3803 -4.6969 2.3908
1.5473 -4.6427 2.3908
1.7123 -4.5825 2.3908
1.8748 -4.5164 2.3908
2.0349 -4.4446 2.3908
2.1922 -4.3671 2.3908
2.3466 -4.2840 2.3908
2.4978 -4.1954 2.3908
2.6458 -4.1015 2.3908
2.7902 -4.0023 2.3908
2.9309 -3.8981 2.3908
3.0677 -3.7889 2.3908
3.2005 -3.6749 2.3908
3.3290 -3.5563 2.3908
3.4532 -3.4331 2.3908
3.5728 -3.3056 2.3908
3.6878 -3.1740 2.3908
3.7979 -3.0383 2.3908
3.9031 -2.8989 2.3908
4.0032 -2.7558 2.3908
4.0980 -2.6092 2.3908
4.1876 -2.4595 2.3908
4.2717 -2.3066 2.3908
4.3502 -2.1509 2.3908
4.4231 -1.9925 2.3908
4.4903 -1.8316 2.3908
4.5516 -1.6685 2.3908
4.6071 -1.5034 2.3908
4.6566 -1.3364 2.3908
4.7001 -1.1678 2.3908
4.7376 -0.9978 2.3908
4.7689 -0.8267 2.3908
4.7941 -0.6544 2.3908
4.8132 -0.4816 2.3908
4.8261 -0.3082 2.3908
4.8328 -0.1343 2.3908
4.8332 0.0395 2.3908
4.8275 0.2131 2.3908
4.8156 0.3865 2.3908
4.7975 0.5593 2.3908
4.7733 0.7313 2.3908
4.7430 0.9023 2.3908
4.7066 1.0721 2.3908
4.6642 1.2404 2.3908
4.6158 1.4071 2.3908
4.5616 1.5719 2.3908
4.5014 1.7349 2.3908
4.4356 1.8955 2.3908
4.3641 2.0534 2.3908
4.2870 2.2089 2.3908
4.2044 2.3615 2.3908
4.1165 2.5111 2.3908
4.0233 2.6574 2.3908
3.9249 2.8003 2.3908
3.8215 2.9396 2.3908
3.7133 3.0751 2.3908
3.6003 3.2067 2.3908
3.4826 3.3342 2.3908
3.3606 3.4574 2.3908
3.2342 3.5762 2.3908
3.1036 3.6905 2.3908
2.9690 3.8000 2.3908
2.8307 3.9047 2.3908
2.6887 4.0044 2.3908
2.5432 4.0990 2.3908
2.3944 4.1883 2.3908
0.8931 1.7016 0.9522
0.8315 1.7328 0.9522
0.7687 1.7618 0.9521
0.7049 1.7885 0.9521
0.6402 1.8130 0.9520
0.5747 1.8350 0.9519
0.5084 1.8547 0.9519
0.4414 1.8720 0.9518
0.3739 1.8869 0.9516
0.3058 1.8993 0.9515
0.2374 1.9093 0.9514
0.1686 1.9168 0.9512
0.0996 1.9218 0.9510
0.0304 1.9243 0.9508
-0.0388 1.9244 0.9507
-0.1079 1.9219 0.9504
-0.1769 1.9169 0.9502
-0.2457 1.9095 0.9500
-0.3142 1.8996 0.9497
-0.3823 1.8872 0.9495
-0.4499 1.8724 0.9492
-0.5169 1.8551 0.9489
-0.5832 1.8354 0.9487
-0.6488 1.8134 0.9484
-0.7136 1.7890 0.9481
-0.7774 1.7623 0.9477
-0.8402 1.7333 0.9474
-0.9020 1.7020 0.9471
-2.4307 4.2136 2.3908
-2.5814 4.1252 2.3908
-2.7289 4.0314 2.3908
-2.8730 3.9323 2.3908
-3.0135 3.8282 2.3908
-3.1502 3.7190 2.3908
-3.2830 3.6049 2.3908
-3.4115 3.4861 2.3908
-3.5358 3.3627 2.3908
-3.6557 3.2349 2.3908
-3.7709 3.1029 2.3908
-3.8813 2.9667 2.3908
-3.9867 2.8266 2.3908
-4.0871 2.6828 2.3908
-4.1823 2.5354 2.3908
-4.2721 2.3846 2.3908
-4.3565 2.2307 2.3908
-4.4353 2.0737 2.3908
-4.5084 1.9140 2.3908
-4.5757 1.7517 2.3908
-4.6372 1.5871 2.3908
-4.6927 1.4202 2.3908
-4.7421 1.2515 2.3908
-4.7854 1.0810 2.3908
-4.8226 0.9090 2.3908
-4.8536 0.7358 2.3908
-4.8782 0.5615 2.3908
-4.8966 0.3864 2.3908
-4.9086 0.2107 2.3908
-4.9143 0.0347 2.3908
-4.9136 -0.1415 2.3908
-4.9066 -0.3176 2.3908
-4.8932 -0.4933 2.3908
-4.8734 -0.6685 2.3908
-4.8473 -0.8429 2.3908
-4.8150 -1.0162 2.3908
-4.7763 -1.1883 2.3908
-4.7315 -1.3589 2.3908
-4.6805 -1.5278 2.3908
-4.6234 -1.6947 2.3908
-4.5603 -1.8595 2.3908
-4.4913 -2.0219 2.3908
-4.4164 -2.1817 2.3908
-4.3358 -2.3387 2.3908
-4.2496 -2.4927 2.3908
-4.1578 -2.6435 2.3908
-4.0606 -2.7909 2.3908
-3.9582 -2.9346 2.3908
-3.8506 -3.0746 2.3908
-3.7380 -3.2106 2.3908
-3.6206 -3.3424 2.3908
-3.4984 -3.4699 2.3908
-3.3718 -3.5928 2.3908
-3.2407 -3.7111 2.3908
-3.1055 -3.8246 2.3908
-2.9663 -3.9330 2.3908
-2.8232 -4.0364 2.3908
-2.6765 -4.1345 2.3908
-2.5264 -4.2272 2.3908
-2.3730 -4.3144 2.3908
-2.2166 -4.3960 2.3908
-2.0573 -4.4719 2.3908
-1.8954 -4.5420 2.3908
-1.7312 -4.6061 2.3908
-1.5647 -4.6643 2.3908
-1.3963 -4.7163 2.3908
-1.2261 -4.7623 2.3908
-1.0544 -4.8021 2.3908
-0.8814 -4.8356 2.3908
-0.7074 -4.8628 2.3908
-0.5325 -4.8837 2.3908
-0.3570 -4.8983 2.3908
-0.1812 -4.9066 2.3908
-0.0055 -4.6401 2.3908
0.1608 -4.6359 2.3908
0.3267 -4.6258 2.3908
0.4922 -4.6097 2.3908
0.6570 -4.5876 2.3908
0.8208 -4.5596 2.3908
0.9834 -4.5257 2.3908
1.1447 -4.4860 2.3908
1.3044 -4.4406 2.3908
1.4623 -4.3894 2.3908
1.6182 -4.3326 2.3908
1.7719 -4.2702 2.3908
1.9233 -4.2024 2.3908
2.0720 -4.1292 2.3908
2.2180 -4.0507 2.3908
2.3611 -3.9670 2.3908
2.5010 -3.8783 2.3908
2.6376 -3.7846 2.3908
2.7706 -3.6861 2.3908
2.9001 -3.5829 2.3908
3.0257 -3.4752 2.3908
3.1473 -3.3631 2.3908
3.2647 -3.2467 2.3908
3.3779 -3.1262 2.3908
3.4867 -3.0018 2.3908
3.5909 -2.8736 2.3908
3.6904 -2.7417 2.3908
3.7851 -2.6065 2.3908
3.8749 -2.4679 2.3908
3.9596 -2.3263 2.3908
4.0392 -2.1818 2.3908
4.1136 -2.0346 2.3908
4.1826 -1.8848 2.3908
4.2462 -1.7327 2.3908
4.3043 -1.5785 2.3908
4.3568 -1.4223 2.3908
4.4037 -1.2644 2.3908
4.4449 -1.1050 2.3908
4.4804 -0.9442 2.3908
4.5101 -0.7823 2.3908
4.5340 -0.6195 2.3908
4.5521 -0.4560 2.3908
4.5644 -0.2919 2.3908
4.5707 -0.1276 2.3908
4.5712 0.0368 2.3908
4.5659 0.2011 2.3908
4.5547 0.3651 2.3908
4.5376 0.5285 2.3908
4.5148 0.6912 2.3908
4.4861 0.8530 2.3908
4.4517 1.0136 2.3908
4.4117 1.1729 2.3908
4.3659 1.3306 2.3908
4.3146 1.4866 2.3908
4.2578 1.6407 2.3908
4.1955 1.7925 2.3908
4.1279 1.9420 2.3908
4.0550 2.0891 2.3908
3.9769 2.2335 2.3908
3.8937 2.3750 2.3908
3.8056 2.5134 2.3908
3.7125 2.6486 2.3908
3.6147 2.7804 2.3908
3.5123 2.9086 2.3908
3.4054 3.0330 2.3908
3.2942 3.1536 2.3908
3.1787 3.2702 2.3908
3.0591 3.3826 2.3908
2.9356 3.4907 2.3908
2.8083 3.5943 2.3908
2.6774 3.6933 2.3908
2.5430 3.7876 2.3908
2.4054 3.8770 2.3908
0.9014 1.5768 0.9516
0.8442 1.6084 0.9516
0.7859 1.6379 0.9516
0.7266 1.6654 0.9515
0.6663 1.6906 0.9515
0.6051 1.7137 0.9514
0.5432 1.7346 0.9514
0.4805 1.7532 0.9513
0.4172 1.7695 0.9512
0.3533 1.7836 0.9511
0.2890 1.7953 0.9509
0.2243 1.8048 0.9508
0.1592 1.8118 0.9507
0.0940 1.8166 0.9505
0.0286 1.8189 0.9503
-0.0368 1.8190 0.9501
-0.1021 1.8166 0.9499
-0.1674 1.8119 0.9497
-0.2324 1.8049 0.9495
-0.2972 1.7955 0.9493
-0.3615 1.7838 0.9490
-0.4254 1.7698 0.9488
-0.4888 1.7535 0.9485
-0.5515 1.7349 0.9483
-0.6135 1.7141 0.9480
-0.6747 1.6910 0.9477
-0.7350 1.6658 0.9474
-0.7944 1.6384 0.9471
-0.8528 1.6088 0.9468
-0.9100 1.5772 0.9465
-2.4413 3.9005 2.3908
-2.5807 3.8117 2.3908
-2.7169 3.7180 2.3908
-2.8498 3.6194 2.3908
-2.9790 3.5161 2.3908
-3.1044 3.4082 2.3908
-3.2260 3.2958 2.3908
-3.3434 3.1791 2.3908
-3.4567 3.0583 2.3908
-3.5655 2.9333 2.3908
-3.6698 2.8046 2.3908
-3.7695 2.6721 2.3908
-3.8643 2.5361 2.3908
-3.9543 2.3967 2.3908
-4.0391 2.2541 2.3908
-4.1188 2.1085 2.3908
-4.1932 1.9601 2.3908
-4.2623 1.8091 2.3908
-4.3259 1.6557 2.3908
-4.3839 1.5000 2.3908
-4.4363 1.3423 2.3908
-4.4830 1.1827 2.3908
-4.5239 1.0216 2.3908
-4.5590 0.8590 2.3908
-4.5882 0.6952 2.3908
-4.6114 0.5305 2.3908
-4.6288 0.3650 2.3908
-4.6401 0.1989 2.3908
-4.6454 0.0325 2.3908
-4.6447 -0.1340 2.3908
-4.6380 -0.3004 2.3908
-4.6253 -0.4665 2.3908
-4.6066 -0.6321 2.3908
-4.5819 -0.7969 2.3908
-4.5512 -0.9607 2.3908
-4.5147 -1.1233 2.3908
-4.4723 -1.2846 2.3908
-4.4240 -1.4442 2.3908
-4.3701 -1.6019 2.3908
-4.3104 -1.7577 2.3908
-4.2452 -1.9111 2.3908
-4.1744 -2.0622 2.3908
-4.0982 -2.2106 2.3908
-4.0167 -2.3561 2.3908
-3.9300 -2.4986 2.3908
-3.8381 -2.6379 2.3908
-3.7413 -2.7738 2.3908
-3.6396 -2.9060 2.3908
-3.5332 -3.0345 2.3908
-3.4222 -3.1591 2.3908
-3.3068 -3.2796 2.3908
-3.1871 -3.3958 2.3908
-3.0633 -3.5076 2.3908
-2.9355 -3.6148 2.3908
-2.8039 -3.7174 2.3908
-2.6687 -3.8151 2.3908
-2.5301 -3.9078 2.3908
-2.3882 -3.9955 2.3908
-2.2433 -4.0779 2.3908
-2.0954 -4.1551 2.3908
-1.9449 -4.2268 2.3908
-1.7920 -4.2931 2.3908
-1.6367 -4.3537 2.3908
-1.4794 -4.4087 2.3908
-1.3202 -4.4580 2.3908
-1.1594 -4.5015 2.3908
-0.9971 -4.5391 2.3908
-0.8337 -4.5708 2.3908
-0.6692 -4.5966 2.3908
-0.5039 -4.6165 2.3908
-0.3380 -4.6304 2.3908
-0.1718 -4.6382 2.3908
-0.0054 -4.6401 2.3908
