ply
format ascii 1.0
element vertex 2175
property float32 x
property float32 y
property float32 z
end_header
-7.4941 1.9705 2.3938
-7.5652 1.7015 2.3938
-7.6267 1.4298 2.3938
-7.6784 1.1559 2.3938
-7.7203 0.8801 2.3938
-7.7523 0.6028 2.3938
-7.7743 0.3243 2.3938
-7.7864 0.0451 2.3938
-7.7884 -0.2346 2.3938
-7.7804 -0.5144 2.3938
-7.7623 -0.7938 2.3938
-7.7341 -1.0726 2.3938
-7.6959 -1.3504 2.3938
-7.6477 -1.6267 2.3938
-7.5896 -1.9014 2.3938
-7.5215 -2.1739 2.3938
-7.4436 -2.4440 2.3938
-7.3560 -2.7112 2.3938
-7.2586 -2.9753 2.3938
-7.1518 -3.2358 2.3938
-7.0355 -3.4923 2.3938
-6.9100 -3.7449 2.3938
-6.7753 -3.9928 2.3938
-6.6316 -4.2355 2.3938
-6.4792 -4.4732 2.3938
-6.3181 -4.7053 2.3938
-6.1487 -4.9315 2.3938
-5.9711 -5.1515 2.3938
-5.7855 -5.3650 2.3938
-5.5922 -5.5717 2.3938
-5.3914 -5.7714 2.3938
-5.1834 -5.9637 2.3938
-4.9684 -6.1483 2.3938
-4.7468 -6.3251 2.3938
-4.5188 -6.4938 2.3938
-4.2847 -6.6541 2.3938
-4.0449 -6.8058 2.3938
-3.7996 -6.9487 2.3938
-3.5492 -7.0826 2.3938
-3.2940 -7.2073 2.3938
-3.0343 -7.3227 2.3938
-2.7706 -7.4285 2.3938
-2.5031 -7.5246 2.3938
-2.2323 -7.6109 2.3938
-1.9584 -7.6873 2.3938
-1.6819 -7.7537 2.3938
-1.4031 -7.8099 2.3938
-1.1224 -7.8559 2.3938
-0.8402 -7.8915 2.3938
-0.5569 -7.9169 2.3938
-0.2728 -7.9319 2.3938
0.0104 -7.3348 2.3938
0.2732 -7.3295 2.3938
0.5356 -7.3146 2.3938
0.7973 -7.2901 2.3938
1.0579 -7.2561 2.3938
1.3171 -7.2126 2.3938
1.5744 -7.1597 2.3938
1.8297 -7.0974 2.3938
2.0824 -7.0259 2.3938
2.3323 -6.9453 2.3938
2.5791 -6.8555 2.3938
2.8224 -6.7571 2.3938
3.0619 -6.6496 2.3938
3.2972 -6.5336 2.3938
3.5280 -6.4085 2.3938
3.7542 -6.2763 2.3938
3.9753 -6.1355 2.3938
4.1911 -5.9868 2.3938
4.4012 -5.8303 2.3938
4.6054 -5.6664 2.3938
4.8034 -5.4952 2.3938
4.9950 -5.3171 2.3938
5.1800 -5.1321 2.3938
5.3580 -4.9407 2.3938
5.5289 -4.7430 2.3938
5.6925 -4.5393 2.3938
5.8484 -4.3300 2.3938
5.9967 -4.1153 2.3938
6.1369 -3.8953 2.3938
6.2441 -3.6562 2.3843
6.2500 -3.3644 2.3403
6.2552 -3.0830 2.3007
6.2597 -2.8109 2.2651
6.2861 -2.5559 2.2414
6.3698 -2.3273 2.2414
6.4451 -2.0960 2.2414
6.5121 -1.8622 2.2414
6.5705 -1.6263 2.2414
6.6203 -1.3886 2.2414
6.6616 -1.1494 2.2414
6.6942 -0.9090 2.2414
6.7181 -0.6677 2.2414
6.7334 -0.4259 2.2414
6.7399 -0.1838 2.2414
6.7377 0.0582 2.2414
6.7269 0.2999 2.2414
6.7074 0.5408 2.2414
6.6794 0.7808 2.2414
6.6428 1.0195 2.2414
6.5976 1.2566 2.2414
6.5441 1.4917 2.2414
6.4823 1.7247 2.2414
6.4121 1.9552 2.2414
6.3339 2.1829 2.2414
6.2476 2.4076 2.2414
6.2177 2.6564 2.2648
6.2092 2.9208 2.2998
6.1999 3.1933 2.3387
6.1898 3.4749 2.3818
6.0880 3.7116 2.3938
5.9476 3.9259 2.3938
5.7996 4.1348 2.3938
5.6444 4.3384 2.3938
5.4821 4.5362 2.3938
5.3130 4.7280 2.3938
5.1373 4.9137 2.3938
4.9551 5.0929 2.3938
4.7668 5.2655 2.3938
4.5726 5.4312 2.3938
4.3727 5.5899 2.3938
4.1673 5.7413 2.3938
3.9568 5.8854 2.3938
3.7414 6.0218 2.3938
3.5214 6.1505 2.3938
3.2970 6.2713 2.3938
3.0686 6.3840 2.3938
2.8363 6.4886 2.3938
2.6006 6.5849 2.3938
2.3616 6.6728 2.3938
0.8516 2.7126 0.9617
0.7536 2.7417 0.9619
0.6545 2.7673 0.9622
0.5546 2.7893 0.9624
0.4540 2.8077 0.9625
0.3528 2.8224 0.9627
0.2511 2.8334 0.9628
0.1490 2.8408 0.9629
0.0468 2.8445 0.9629
-0.0556 2.8445 0.9629
-0.1578 2.8408 0.9629
-0.2599 2.8334 0.9629
-0.3616 2.8223 0.9629
-0.4629 2.8075 0.9628
-0.5636 2.7891 0.9627
-0.6635 2.7671 0.9625
-0.7626 2.7414 0.9624
-0.8607 2.7122 0.9622
-2.3831 6.6681 2.3938
-2.6220 6.5797 2.3938
-2.8576 6.4829 2.3938
-3.0898 6.3778 2.3938
-3.3181 6.2646 2.3938
-3.5423 6.1433 2.3938
-3.7622 6.0140 2.3938
-3.9775 5.8771 2.3938
-4.1878 5.7325 2.3938
-4.3929 5.5805 2.3938
-4.5927 5.4213 2.3938
-4.7867 5.2551 2.3938
-4.9747 5.0820 2.3938
-5.1566 4.9022 2.3938
-5.3321 4.7160 2.3938
-5.5009 4.5237 2.3938
-5.6629 4.3253 2.3938
-5.8177 4.1213 2.3938
-5.9653 3.9117 2.3938
-6.1054 3.6969 2.3938
-6.2379 3.4772 2.3938
-6.3625 3.2527 2.3938
-6.4791 3.0239 2.3938
-6.5875 2.7908 2.3938
-6.6875 2.5540 2.3938
-6.7792 2.3136 2.3938
-6.8622 2.0699 2.3938
-6.9365 1.8233 2.3938
-7.0019 1.5741 2.3938
-7.0585 1.3225 2.3938
-7.1060 1.0693 2.3938
-7.1444 0.8134 2.3938
-7.1737 0.5571 2.3938
-7.1938 0.2994 2.3938
-7.2046 0.0411 2.3938
-7.2062 -0.2177 2.3938
-7.1984 -0.4766 2.3938
-7.1813 -0.7351 2.3938
-7.1549 -0.9932 2.3938
-7.1193 -1.2499 2.3938
-7.0744 -1.5054 2.3938
-7.0202 -1.7596 2.3938
-6.9570 -2.0115 2.3938
-6.8846 -2.2614 2.3938
-6.8032 -2.5082 2.3938
-6.7129 -2.7528 2.3938
-6.6139 -2.9932 2.3938
-6.5061 -3.2304 2.3938
-6.3897 -3.4636 2.3938
-6.2649 -3.6926 2.3938
-6.1318 -3.9171 2.3938
-5.9906 -4.1366 2.3938
-5.8415 -4.3511 2.3938
-5.6847 -4.5600 2.3938
-5.5202 -4.7633 2.3938
-5.3485 -4.9605 2.3938
-5.1696 -5.1514 2.3938
-4.9838 -5.3358 2.3938
-4.7914 -5.5134 2.3938
-4.5926 -5.6839 2.3938
-4.3876 -5.8472 2.3938
-4.1767 -6.0029 2.3938
-3.9603 -6.1509 2.3938
-3.7385 -6.2910 2.3938
-3.5118 -6.4229 2.3938
-3.2803 -6.5465 2.3938
-3.0444 -6.6617 2.3938
-2.8044 -6.7681 2.3938
-2.5606 -6.8658 2.3938
-2.3134 -6.9546 2.3938
-2.0630 -7.0343 2.3938
-1.8099 -7.1048 2.3938
-1.5544 -7.1660 2.3938
-1.2968 -7.2179 2.3938
-1.0374 -7.2603 2.3938
-0.7766 -7.2933 2.3938
-0.5148 -7.3167 2.3938
-0.2523 -7.3306 2.3938
0.0105 -7.3348 2.3938
0.2733 -7.3295 2.3938
0.5358 -7.3146 2.3938
0.7975 -7.2901 2.3938
1.0581 -7.2561 2.3938
1.3172 -7.2126 2.3938
1.5746 -7.1597 2.3938
1.8298 -7.0974 2.3938
2.0826 -7.0259 2.3938
2.3325 -6.9452 2.3938
2.5793 -6.8555 2.3938
2.8225 -6.7570 2.3938
3.0620 -6.6495 2.3938
3.2973 -6.5335 2.3938
3.5282 -6.4089 2.3938
3.7544 -6.2762 2.3938
3.9755 -6.1354 2.3938
4.1912 -5.9866 2.3938
4.4013 -5.8302 2.3938
4.6055 -5.6663 2.3938
4.8036 -5.4951 2.3938
4.9952 -5.3169 2.3938
5.1801 -5.1320 2.3938
5.3581 -4.9405 2.3938
5.5290 -4.7428 2.3938
5.6926 -4.5392 2.3938
5.8485 -4.3299 2.3938
5.9968 -4.1151 2.3938
6.1370 -3.8952 2.3938
6.2441 -3.6559 2.3842
6.2500 -3.3642 2.3402
6.2552 -3.0829 2.3006
6.2597 -2.8107 2.2651
6.2861 -2.5557 2.2414
6.3698 -2.3272 2.2414
6.4452 -2.0959 2.2414
6.5121 -1.8621 2.2414
6.5705 -1.6262 2.2414
6.6204 -1.3885 2.2414
6.6616 -1.1492 2.2414
6.6942 -0.9088 2.2414
6.7181 -0.6676 2.2414
6.7334 -0.4257 2.2414
6.7399 -0.1836 2.2414
6.7377 0.0584 2.2414
6.7269 0.3000 2.2414
6.7074 0.5410 2.2414
6.6794 0.7810 2.2414
6.6427 1.0197 2.2414
6.5976 1.2567 2.2414
6.5441 1.4919 2.2414
6.4822 1.7249 2.2414
6.4121 1.9553 2.2414
6.3339 2.1831 2.2414
6.2476 2.4078 2.2414
6.2177 2.6566 2.2648
6.2092 2.9210 2.2998
6.1999 3.1934 2.3388
6.1897 3.4753 2.3819
6.0880 3.7118 2.3938
5.9475 3.9260 2.3938
5.7995 4.1349 2.3938
5.6443 4.3385 2.3938
5.4820 4.5364 2.3938
5.3129 4.7284 2.3938
5.1371 4.9138 2.3938
4.9550 5.0930 2.3938
4.7667 5.2656 2.3938
4.5724 5.4313 2.3938
4.3725 5.5900 2.3938
4.1672 5.7414 2.3938
3.9567 5.8854 2.3938
3.7413 6.0219 2.3938
3.5213 6.1506 2.3938
3.2969 6.2714 2.3938
3.0684 6.3841 2.3938
2.8362 6.4887 2.3938
2.6004 6.5850 2.3938
2.3615 6.6728 2.3938
0.8515 2.7126 0.9617
0.7535 2.7417 0.9619
0.6545 2.7673 0.9622
0.5546 2.7893 0.9624
0.4540 2.8077 0.9625
0.3527 2.8224 0.9627
0.2510 2.8334 0.9628
0.1490 2.8408 0.9629
0.0467 2.8445 0.9629
-0.0556 2.8445 0.9629
-0.1579 2.8408 0.9629
-0.2600 2.8333 0.9629
-0.3617 2.8223 0.9629
-0.4630 2.8075 0.9628
-0.5636 2.7891 0.9627
-0.6636 2.7671 0.9625
-0.7626 2.7414 0.9624
-0.8607 2.7122 0.9622
-2.3833 6.6681 2.3938
-2.6221 6.5797 2.3938
-2.8578 6.4829 2.3938
-3.0899 6.3778 2.3938
-3.3182 6.2645 2.3938
-3.5425 6.1432 2.3938
-3.7624 6.0140 2.3938
-3.9776 5.8770 2.3938
-4.1879 5.7324 2.3938
-4.3931 5.5804 2.3938
-4.5928 5.4212 2.3938
-4.7868 5.2550 2.3938
-4.9749 5.0819 2.3938
-5.1567 4.9021 2.3938
-5.3322 4.7159 2.3938
-5.5010 4.5235 2.3938
-5.6630 4.3252 2.3938
-5.8178 4.1211 2.3938
-5.9654 3.9116 2.3938
-6.1055 3.6968 2.3938
-6.2380 3.4770 2.3938
-6.3626 3.2526 2.3938
-6.4791 3.0237 2.3938
-6.5875 2.7907 2.3938
-6.6876 2.5538 2.3938
-6.7792 2.3134 2.3938
-6.8622 2.0698 2.3938
-6.9365 1.8232 2.3938
-7.0020 1.5739 2.3938
-7.0585 1.3223 2.3938
-7.1061 1.0692 2.3938
-7.1445 0.8134 2.3938
-7.1737 0.5569 2.3938
-7.1938 0.2988 2.3938
-7.2046 0.0409 2.3938
-7.2062 -0.2174 2.3938
-7.1984 -0.4771 2.3938
-7.1813 -0.7351 2.3938
-7.1549 -0.9931 2.3938
-7.1192 -1.2503 2.3938
-7.0743 -1.5060 2.3938
-7.0202 -1.7598 2.3938
-6.9569 -2.0117 2.3938
-6.8846 -2.2614 2.3938
-6.8032 -2.5084 2.3938
-6.7129 -2.7521 2.3938
-6.6138 -2.9933 2.3938
-6.5060 -3.2305 2.3938
-6.3896 -3.4638 2.3938
-6.2648 -3.6928 2.3938
-6.1317 -3.9172 2.3938
-5.9905 -4.1368 2.3938
-5.8414 -4.3512 2.3938
-5.6845 -4.5602 2.3938
-5.5201 -4.7634 2.3938
-5.3484 -4.9606 2.3938
-5.1695 -5.1516 2.3938
-4.9837 -5.3359 2.3938
-4.7913 -5.5135 2.3938
-4.5924 -5.6840 2.3938
-4.3874 -5.8473 2.3938
-4.1766 -6.0030 2.3938
-3.9601 -6.1510 2.3938
-3.7384 -6.2911 2.3938
-3.5116 -6.4230 2.3938
-3.2801 -6.5466 2.3938
-3.0442 -6.6617 2.3938
-2.8042 -6.7682 2.3938
-2.5604 -6.8659 2.3938
-2.3132 -6.9546 2.3938
-2.0629 -7.0343 2.3938
-1.8098 -7.1048 2.3938
-1.5542 -7.1661 2.3938
-1.2966 -7.2179 2.3938
-1.0372 -7.2604 2.3938
-0.7764 -7.2933 2.3938
-0.5146 -7.3168 2.3938
-0.2521 -7.3306 2.3938
0.0096 -6.8109 2.3938
0.2536 -6.8059 2.3938
0.4972 -6.7921 2.3938
0.7402 -6.7694 2.3938
0.9822 -6.7379 2.3938
1.2228 -6.6976 2.3938
1.4618 -6.6485 2.3938
1.6988 -6.5908 2.3938
1.9335 -6.5245 2.3938
2.1656 -6.4497 2.3938
2.3947 -6.3665 2.3938
2.6207 -6.2750 2.3938
2.8431 -6.1754 2.3938
3.0616 -6.0679 2.3938
3.2761 -5.9524 2.3938
3.4862 -5.8297 2.3938
3.6916 -5.6986 2.3938
3.8920 -5.5605 2.3938
4.0872 -5.4154 2.3938
4.2770 -5.2633 2.3938
4.4611 -5.1045 2.3938
4.6392 -4.9392 2.3938
4.8111 -4.7676 2.3938
4.9766 -4.5899 2.3938
5.1355 -4.4064 2.3938
5.2876 -4.2178 2.3938
5.4327 -4.0231 2.3938
5.5705 -3.8237 2.3938
5.7010 -3.6195 2.3938
5.8240 -3.4109 2.3938
5.9393 -3.1983 2.3938
6.0468 -2.9815 2.3938
6.1464 -2.7610 2.3938
6.2340 -2.5359 2.3923
6.2376 -2.2800 2.3622
6.2406 -2.0304 2.3356
6.2430 -1.7862 2.3124
6.2449 -1.5467 2.2924
6.2462 -1.3110 2.2755
6.2470 -1.0786 2.2616
6.2509 -0.8497 2.2519
6.2556 -0.6226 2.2455
6.2586 -0.3967 2.2414
6.2649 -0.1718 2.2414
6.2632 0.0534 2.2414
6.2534 0.2779 2.2414
6.2469 0.5027 2.2455
6.2388 0.7284 2.2519
6.2314 0.9555 2.2615
6.2271 1.1852 2.2753
6.2222 1.4175 2.2921
6.2167 1.6532 2.3118
6.2106 1.8929 2.3347
6.2039 2.1372 2.3609
6.1965 2.3867 2.3906
6.1116 2.6101 2.3938
6.0106 2.8264 2.3938
5.9020 3.0390 2.3938
5.7859 3.2472 2.3938
5.6625 3.4513 2.3938
5.5320 3.6507 2.3938
5.3946 3.8453 2.3938
5.2504 4.0344 2.3938
5.0996 4.2189 2.3938
4.9424 4.3974 2.3938
4.7791 4.5703 2.3938
4.6098 4.7371 2.3938
4.4347 4.8978 2.3938
4.2541 5.0521 2.3938
4.0682 5.1998 2.3938
3.8773 5.3409 2.3938
3.6815 5.4750 2.3938
3.4812 5.6021 2.3938
3.2765 5.7219 2.3938
3.0678 5.8344 2.3938
2.8553 5.9394 2.3938
2.6392 6.0368 2.3938
2.4199 6.1265 2.3938
0.8813 2.4897 0.9600
0.7912 2.5200 0.9602
0.7001 2.5471 0.9605
0.6081 2.5708 0.9607
0.5153 2.5912 0.9609
0.4218 2.6083 0.9610
0.3278 2.6219 0.9611
0.2333 2.6322 0.9612
0.1384 2.6390 0.9613
0.0434 2.6424 0.9614
-0.0516 2.6424 0.9614
-0.1466 2.6390 0.9614
-0.2415 2.6321 0.9614
-0.3360 2.6218 0.9613
-0.4301 2.6081 0.9612
-0.5236 2.5909 0.9611
-0.6165 2.5705 0.9610
-0.7085 2.5467 0.9608
-0.7996 2.5195 0.9607
-0.8897 2.4892 0.9605
-2.4398 6.1215 2.3938
-2.6590 6.0314 2.3938
-2.8749 5.9335 2.3938
-3.0873 5.8280 2.3938
-3.2959 5.7150 2.3938
-3.5004 5.5946 2.3938
-3.7006 5.4671 2.3938
-3.8962 5.3324 2.3938
-4.0870 5.1909 2.3938
-4.2727 5.0427 2.3938
-4.4530 4.8878 2.3938
-4.6279 4.7267 2.3938
-4.7969 4.5593 2.3938
-4.9600 4.3860 2.3938
-5.1169 4.2069 2.3938
-5.2673 4.0223 2.3938
-5.4112 3.8323 2.3938
-5.5483 3.6373 2.3938
-5.6784 3.4374 2.3938
-5.8014 3.2329 2.3938
-5.9170 3.0241 2.3938
-6.0252 2.8111 2.3938
-6.1258 2.5943 2.3938
-6.2186 2.3740 2.3938
-6.3036 2.1504 2.3938
-6.3805 1.9237 2.3938
-6.4493 1.6943 2.3938
-6.5099 1.4625 2.3938
-6.5622 1.2286 2.3938
-6.6062 0.9928 2.3938
-6.6416 0.7554 2.3938
-6.6686 0.5168 2.3938
-6.6869 0.2773 2.3938
-6.6967 0.0371 2.3938
-6.6979 -0.2034 2.3938
-6.6904 -0.4440 2.3938
-6.6742 -0.6842 2.3938
-6.6495 -0.9238 2.3938
-6.6160 -1.1625 2.3938
-6.5740 -1.4000 2.3938
-6.5235 -1.6360 2.3938
-6.4644 -1.8701 2.3938
-6.3969 -2.1020 2.3938
-6.3211 -2.3314 2.3938
-6.2369 -2.5581 2.3938
-6.1446 -2.7817 2.3938
-6.0443 -3.0020 2.3938
-5.9359 -3.2186 2.3938
-5.8198 -3.4312 2.3938
-5.6960 -3.6396 2.3938
-5.5646 -3.8434 2.3938
-5.4259 -4.0424 2.3938
-5.2801 -4.2364 2.3938
-5.1272 -4.4250 2.3938
-4.9675 -4.6081 2.3938
-4.8012 -4.7853 2.3938
-4.6286 -4.9564 2.3938
-4.4497 -5.1211 2.3938
-4.2650 -5.2794 2.3938
-4.0745 -5.4308 2.3938
-3.8786 -5.5753 2.3938
-3.6775 -5.7126 2.3938
-3.4715 -5.8426 2.3938
-3.2609 -5.9650 2.3938
-3.0459 -6.0796 2.3938
-2.8268 -6.1864 2.3938
-2.6039 -6.2852 2.3938
-2.3775 -6.3758 2.3938
-2.1480 -6.4581 2.3938
-1.9155 -6.5320 2.3938
-1.6805 -6.5974 2.3938
-1.4432 -6.6542 2.3938
-1.2040 -6.7024 2.3938
-0.9632 -6.7417 2.3938
-0.7211 -6.7723 2.3938
-0.4780 -6.7940 2.3938
-0.2343 -6.8069 2.3938
0.0098 -6.8109 2.3938
0.2538 -6.8059 2.3938
0.4974 -6.7921 2.3938
0.7404 -6.7694 2.3938
0.9823 -6.7379 2.3938
1.2230 -6.6975 2.3938
1.4619 -6.6485 2.3938
1.6989 -6.5907 2.3938
1.9336 -6.5244 2.3938
2.1657 -6.4496 2.3938
2.3949 -6.3664 2.3938
2.6208 -6.2750 2.3938
2.8432 -6.1754 2.3938
3.0618 -6.0676 2.3938
3.2762 -5.9523 2.3938
3.4863 -5.8289 2.3938
3.6917 -5.6985 2.3938
3.8921 -5.5605 2.3938
4.0874 -5.4153 2.3938
4.2771 -5.2632 2.3938
4.4612 -5.1044 2.3938
4.6393 -4.9391 2.3938
4.8112 -4.7675 2.3938
4.9767 -4.5898 2.3938
5.1356 -4.4063 2.3938
5.2877 -4.2174 2.3938
5.4327 -4.0229 2.3938
5.5706 -3.8236 2.3938
5.7011 -3.6194 2.3938
5.8241 -3.4108 2.3938
5.9394 -3.1981 2.3938
6.0469 -2.9810 2.3938
6.1464 -2.7608 2.3938
6.2340 -2.5355 2.3923
6.2376 -2.2798 2.3622
6.2406 -2.0303 2.3356
6.2430 -1.7860 2.3124
6.2449 -1.5464 2.2924
6.2462 -1.3109 2.2755
6.2470 -1.0786 2.2616
6.2509 -0.8495 2.2519
6.2556 -0.6230 2.2455
6.2586 -0.3965 2.2414
6.2649 -0.1718 2.2414
6.2632 0.0536 2.2414
6.2534 0.2781 2.2414
6.2469 0.5027 2.2455
6.2388 0.7286 2.2519
6.2314 0.9556 2.2616
6.2271 1.1854 2.2754
6.2222 1.4176 2.2921
6.2167 1.6533 2.3118
6.2106 1.8930 2.3347
6.2039 2.1374 2.3609
6.1965 2.3870 2.3906
6.1116 2.6103 2.3938
6.0105 2.8266 2.3938
5.9019 3.0390 2.3938
5.7858 3.2474 2.3938
5.6625 3.4515 2.3938
5.5320 3.6508 2.3938
5.3945 3.8454 2.3938
5.2503 4.0347 2.3938
5.0995 4.2190 2.3938
4.9423 4.3975 2.3938
4.7790 4.5704 2.3938
4.6097 4.7372 2.3938
4.4346 4.8979 2.3938
4.2540 5.0522 2.3938
4.0681 5.1999 2.3938
3.8771 5.3410 2.3938
3.6814 5.4751 2.3938
3.4810 5.6021 2.3938
3.2764 5.7220 2.3938
3.0676 5.8345 2.3938
2.8551 5.9395 2.3938
2.6391 6.0369 2.3938
2.4197 6.1266 2.3938
0.8812 2.4897 0.9600
0.7912 2.5200 0.9602
0.7001 2.5471 0.9605
0.6081 2.5708 0.9607
0.5153 2.5912 0.9609
0.4218 2.6083 0.9610
0.3277 2.6219 0.9611
0.2332 2.6322 0.9612
0.1384 2.6390 0.9613
0.0434 2.6424 0.9614
-0.0517 2.6424 0.9614
-0.1467 2.6390 0.9614
-0.2415 2.6321 0.9614
-0.3361 2.6218 0.9613
-0.4301 2.6080 0.9612
-0.5237 2.5909 0.9611
-0.6165 2.5705 0.9610
-0.7086 2.5466 0.9608
-0.7997 2.5195 0.9607
-0.8898 2.4891 0.9605
-2.4399 6.1215 2.3938
-2.6591 6.0313 2.3938
-2.8751 5.9334 2.3938
-3.0875 5.8279 2.3938
-3.2961 5.7149 2.3938
-3.5006 5.5945 2.3938
-3.7008 5.4670 2.3938
-3.8963 5.3323 2.3938
-4.0871 5.1908 2.3938
-4.2728 5.0426 2.3938
-4.4531 4.8877 2.3938
-4.6280 4.7266 2.3938
-4.7970 4.5592 2.3938
-4.9601 4.3859 2.3938
-5.1170 4.2068 2.3938
-5.2674 4.0222 2.3938
-5.4113 3.8322 2.3938
-5.5484 3.6372 2.3938
-5.6785 3.4373 2.3938
-5.8015 3.2328 2.3938
-5.9171 3.0239 2.3938
-6.0253 2.8110 2.3938
-6.1259 2.5942 2.3938
-6.2187 2.3739 2.3938
-6.3036 2.1502 2.3938
-6.3806 1.9236 2.3938
-6.4494 1.6942 2.3938
-6.5100 1.4624 2.3938
-6.5623 1.2284 2.3938
-6.6062 0.9926 2.3938
-6.6416 0.7553 2.3938
-6.6686 0.5167 2.3938
-6.6870 0.2771 2.3938
-6.6967 0.0369 2.3938
-6.6979 -0.2036 2.3938
-6.6904 -0.4441 2.3938
-6.6742 -0.6844 2.3938
-6.6494 -0.9240 2.3938
-6.6160 -1.1627 2.3938
-6.5740 -1.4002 2.3938
-6.5235 -1.6361 2.3938
-6.4644 -1.8702 2.3938
-6.3969 -2.1021 2.3938
-6.3210 -2.3316 2.3938
-6.2369 -2.5583 2.3938
-6.1446 -2.7819 2.3938
-6.0442 -3.0021 2.3938
-5.9359 -3.2187 2.3938
-5.8197 -3.4313 2.3938
-5.6959 -3.6397 2.3938
-5.5646 -3.8435 2.3938
-5.4259 -4.0425 2.3938
-5.2800 -4.2365 2.3938
-5.1271 -4.4251 2.3938
-4.9674 -4.6082 2.3938
-4.8011 -4.7854 2.3938
-4.6284 -4.9565 2.3938
-4.4496 -5.1212 2.3938
-4.2648 -5.2795 2.3938
-4.0744 -5.4309 2.3938
-3.8785 -5.5754 2.3938
-3.6774 -5.7127 2.3938
-3.4714 -5.8426 2.3938
-3.2607 -5.9650 2.3938
-3.0457 -6.0797 2.3938
-2.8266 -6.1865 2.3938
-2.6037 -6.2853 2.3938
-2.3774 -6.3759 2.3938
-2.1478 -6.4582 2.3938
-1.9154 -6.5321 2.3938
-1.6803 -6.5975 2.3938
-1.4431 -6.6543 2.3938
-1.2038 -6.7024 2.3938
-0.9630 -6.7418 2.3938
-0.7209 -6.7723 2.3938
-0.4778 -6.7940 2.3938
-0.2341 -6.8069 2.3938
0.0089 -6.3500 2.3938
0.2364 -6.3454 2.3938
0.4635 -6.3325 2.3938
0.6900 -6.3114 2.3938
0.9156 -6.2821 2.3938
1.1399 -6.2445 2.3938
1.3627 -6.1988 2.3938
1.5836 -6.1451 2.3938
1.8025 -6.0833 2.3938
2.0188 -6.0137 2.3938
2.2325 -5.9362 2.3938
2.4432 -5.8510 2.3938
2.6506 -5.7583 2.3938
2.8544 -5.6580 2.3938
3.0544 -5.5505 2.3938
3.2504 -5.4359 2.3938
3.4419 -5.3143 2.3938
3.6289 -5.1856 2.3938
3.8110 -5.0503 2.3938
3.9880 -4.9086 2.3938
4.1598 -4.7607 2.3938
4.3259 -4.6066 2.3938
4.4864 -4.4467 2.3938
4.6409 -4.2812 2.3938
4.7892 -4.1102 2.3938
4.9311 -3.9340 2.3938
5.0666 -3.7529 2.3938
5.1953 -3.5671 2.3938
5.3172 -3.3769 2.3938
5.4321 -3.1823 2.3938
5.5398 -2.9839 2.3938
5.6403 -2.7818 2.3938
5.7333 -2.5763 2.3938
5.8189 -2.3678 2.3938
5.8968 -2.1563 2.3938
5.9670 -1.9423 2.3938
6.0294 -1.7260 2.3938
6.0840 -1.5077 2.3938
6.1306 -1.2876 2.3938
6.1693 -1.0662 2.3938
6.2000 -0.8436 2.3938
6.2192 -0.6200 2.3925
6.2186 -0.3951 2.3867
6.2174 -0.1713 2.3837
6.2157 0.0522 2.3836
6.2135 0.2749 2.3864
6.2107 0.4992 2.3921
6.1896 0.7218 2.3938
6.1561 0.9431 2.3938
6.1148 1.1629 2.3938
6.0656 1.3810 2.3938
6.0088 1.5970 2.3938
5.9442 1.8104 2.3938
5.8721 2.0220 2.3938
5.7925 2.2304 2.3938
5.7056 2.4359 2.3938
5.6115 2.6378 2.3938
5.5102 2.8363 2.3938
5.4020 3.0310 2.3938
5.2870 3.2216 2.3938
5.1653 3.4079 2.3938
5.0371 3.5896 2.3938
4.9026 3.7666 2.3938
4.7620 3.9387 2.3938
4.6153 4.1055 2.3938
4.4629 4.2670 2.3938
4.3049 4.4229 2.3938
4.1415 4.5731 2.3938
3.9729 4.7173 2.3938
3.7994 4.8554 2.3938
3.6211 4.9872 2.3938
3.4384 5.1126 2.3938
3.2513 5.2314 2.3938
3.0602 5.3434 2.3938
2.8653 5.4485 2.3938
2.6669 5.5467 2.3938
2.4651 5.6378 2.3938
0.9050 2.2909 0.9585
0.8221 2.3221 0.9587
0.7381 2.3504 0.9590
0.6531 2.3756 0.9592
0.5673 2.3977 0.9594
0.4807 2.4168 0.9595
0.3935 2.4327 0.9597
0.3057 2.4454 0.9598
0.2176 2.4549 0.9599
0.1291 2.4613 0.9600
0.0405 2.4645 0.9600
-0.0482 2.4645 0.9600
-0.1368 2.4612 0.9600
-0.2252 2.4548 0.9600
-0.3134 2.4452 0.9600
-0.4012 2.4324 0.9599
-0.4884 2.4164 0.9598
-0.5750 2.3973 0.9597
-0.6609 2.3751 0.9595
-0.7459 2.3498 0.9594
-0.8299 2.3215 0.9592
-2.2788 5.7168 2.3938
-2.4836 5.6325 2.3938
-2.6852 5.5410 2.3938
-2.8836 5.4424 2.3938
-3.0783 5.3367 2.3938
-3.2693 5.2242 2.3938
-3.4562 5.1050 2.3938
-3.6387 4.9792 2.3938
-3.8168 4.8469 2.3938
-3.9901 4.7083 2.3938
-4.1585 4.5636 2.3938
-4.3216 4.4130 2.3938
-4.4794 4.2566 2.3938
-4.6315 4.0947 2.3938
-4.7779 3.9273 2.3938
-4.9182 3.7548 2.3938
-5.0524 3.5774 2.3938
-5.1803 3.3951 2.3938
-5.3016 3.2084 2.3938
-5.4162 3.0174 2.3938
-5.5240 2.8223 2.3938
-5.6248 2.6234 2.3938
-5.7185 2.4210 2.3938
-5.8050 2.2152 2.3938
-5.8841 2.0064 2.3938
-5.9557 1.7948 2.3938
-6.0197 1.5806 2.3938
-6.0761 1.3642 2.3938
-6.1247 1.1458 2.3938
-6.1654 0.9257 2.3938
-6.1983 0.7041 2.3938
-6.2232 0.4814 2.3938
-6.2401 0.2579 2.3938
-6.2490 0.0337 2.3938
-6.2499 -0.1907 2.3938
-6.2427 -0.4151 2.3938
-6.2274 -0.6393 2.3938
-6.2040 -0.8628 2.3938
-6.1726 -1.0855 2.3938
-6.1332 -1.3070 2.3938
-6.0858 -1.5271 2.3938
-6.0305 -1.7454 2.3938
-5.9674 -1.9617 2.3938
-5.8964 -2.1757 2.3938
-5.8177 -2.3871 2.3938
-5.7314 -2.5956 2.3938
-5.6376 -2.8009 2.3938
-5.5364 -3.0028 2.3938
-5.4279 -3.2010 2.3938
-5.3123 -3.3952 2.3938
-5.1896 -3.5852 2.3938
-5.0601 -3.7707 2.3938
-4.9239 -3.9515 2.3938
-4.7812 -4.1273 2.3938
-4.6322 -4.2979 2.3938
-4.4770 -4.4630 2.3938
-4.3159 -4.6224 2.3938
-4.1491 -4.7759 2.3938
-3.9767 -4.9234 2.3938
-3.7990 -5.0645 2.3938
-3.6163 -5.1991 2.3938
-3.4287 -5.3270 2.3938
-3.2366 -5.4481 2.3938
-3.0402 -5.5621 2.3938
-2.8397 -5.6689 2.3938
-2.6354 -5.7684 2.3938
-2.4276 -5.8604 2.3938
-2.2165 -5.9448 2.3938
-2.0025 -6.0214 2.3938
-1.7857 -6.0903 2.3938
-1.5666 -6.1512 2.3938
-1.3454 -6.2041 2.3938
-1.1224 -6.2489 2.3938
-0.8979 -6.2856 2.3938
-0.6722 -6.3141 2.3938
-0.4456 -6.3343 2.3938
-0.2184 -6.3463 2.3938
0.0091 -6.3500 2.3938
0.2365 -6.3454 2.3938
0.4637 -6.3325 2.3938
0.6902 -6.3114 2.3938
0.9157 -6.2820 2.3938
1.1400 -6.2445 2.3938
1.3628 -6.1988 2.3938
1.5838 -6.1450 2.3938
1.8026 -6.0833 2.3938
2.0190 -6.0136 2.3938
2.2327 -5.9361 2.3938
2.4433 -5.8510 2.3938
2.6507 -5.7582 2.3938
2.8545 -5.6580 2.3938
3.0546 -5.5504 2.3938
3.2505 -5.4359 2.3938
3.4420 -5.3136 2.3938
3.6290 -5.1855 2.3938
3.8111 -5.0503 2.3938
3.9882 -4.9086 2.3938
4.1599 -4.7606 2.3938
4.3261 -4.6065 2.3938
4.4865 -4.4466 2.3938
4.6410 -4.2810 2.3938
4.7893 -4.1101 2.3938
4.9312 -3.9339 2.3938
5.0667 -3.7528 2.3938
5.1954 -3.5669 2.3938
5.3173 -3.3769 2.3938
5.4322 -3.1822 2.3938
5.5399 -2.9838 2.3938
5.6404 -2.7815 2.3938
5.7334 -2.5762 2.3938
5.8189 -2.3677 2.3938
5.8968 -2.1562 2.3938
5.9670 -1.9422 2.3938
6.0294 -1.7260 2.3938
6.0840 -1.5075 2.3938
6.1306 -1.2875 2.3938
6.1693 -1.0661 2.3938
6.2000 -0.8435 2.3938
6.2192 -0.6198 2.3925
6.2186 -0.3949 2.3867
6.2174 -0.1710 2.3837
6.2157 0.0518 2.3836
6.2135 0.2753 2.3864
6.2107 0.4992 2.3921
6.1896 0.7220 2.3938
6.1561 0.9432 2.3938
6.1148 1.1630 2.3938
6.0656 1.3811 2.3938
6.0087 1.5972 2.3938
5.9442 1.8111 2.3938
5.8720 2.0221 2.3938
5.7925 2.2305 2.3938
5.7056 2.4360 2.3938
5.6114 2.6380 2.3938
5.5102 2.8365 2.3938
5.4020 3.0311 2.3938
5.2869 3.2217 2.3938
5.1652 3.4080 2.3938
5.0371 3.5897 2.3938
4.9025 3.7667 2.3938
4.7619 3.9388 2.3938
4.6152 4.1056 2.3938
4.4628 4.2671 2.3938
4.3048 4.4230 2.3938
4.1414 4.5732 2.3938
3.9728 4.7174 2.3938
3.7993 4.8555 2.3938
3.6210 4.9873 2.3938
3.4383 5.1127 2.3938
3.2512 5.2314 2.3938
3.0601 5.3435 2.3938
2.8652 5.4486 2.3938
2.6667 5.5468 2.3938
2.4650 5.6379 2.3938
0.9049 2.2909 0.9585
0.8220 2.3222 0.9587
0.7380 2.3504 0.9590
0.6530 2.3756 0.9592
0.5672 2.3978 0.9594
0.4806 2.4168 0.9595
0.3934 2.4327 0.9597
0.3057 2.4454 0.9598
0.2175 2.4550 0.9599
0.1291 2.4613 0.9600
0.0405 2.4645 0.9600
-0.0482 2.4645 0.9600
-0.1369 2.4612 0.9600
-0.2253 2.4548 0.9600
-0.3135 2.4452 0.9600
-0.4012 2.4324 0.9599
-0.4885 2.4164 0.9598
-0.5751 2.3973 0.9597
-0.6610 2.3751 0.9595
-0.7460 2.3498 0.9594
-0.8300 2.3215 0.9592
-2.2790 5.7168 2.3938
-2.4837 5.6325 2.3938
-2.6854 5.5409 2.3938
-2.8837 5.4423 2.3938
-3.0784 5.3367 2.3938
-3.2694 5.2241 2.3938
-3.4563 5.1049 2.3938
-3.6389 4.9791 2.3938
-3.8169 4.8468 2.3938
-3.9902 4.7082 2.3938
-4.1586 4.5635 2.3938
-4.3217 4.4129 2.3938
-4.4795 4.2565 2.3938
-4.6316 4.0946 2.3938
-4.7780 3.9272 2.3938
-4.9183 3.7547 2.3938
-5.0525 3.5772 2.3938
-5.1803 3.3950 2.3938
-5.3017 3.2083 2.3938
-5.4163 3.0173 2.3938
-5.5241 2.8222 2.3938
-5.6249 2.6233 2.3938
-5.7186 2.4208 2.3938
-5.8051 2.2151 2.3938
-5.8841 2.0062 2.3938
-5.9557 1.7946 2.3938
-6.0198 1.5805 2.3938
-6.0761 1.3640 2.3938
-6.1247 1.1456 2.3938
-6.1655 0.9255 2.3938
-6.1983 0.7040 2.3938
-6.2232 0.4813 2.3938
-6.2402 0.2577 2.3938
-6.2490 0.0336 2.3938
-6.2499 -0.1908 2.3938
-6.2427 -0.4153 2.3938
-6.2274 -0.6394 2.3938
-6.2040 -0.8630 2.3938
-6.1726 -1.0857 2.3938
-6.1332 -1.3072 2.3938
-6.0858 -1.5272 2.3938
-6.0305 -1.7456 2.3938
-5.9673 -1.9618 2.3938
-5.8964 -2.1758 2.3938
-5.8177 -2.3872 2.3938
-5.7314 -2.5957 2.3938
-5.6376 -2.8010 2.3938
-5.5363 -3.0029 2.3938
-5.4278 -3.2011 2.3938
-5.3122 -3.3953 2.3938
-5.1895 -3.5853 2.3938
-5.0600 -3.7708 2.3938
-4.9238 -3.9516 2.3938
-4.7811 -4.1274 2.3938
-4.6321 -4.2980 2.3938
-4.4769 -4.4631 2.3938
-4.3158 -4.6225 2.3938
-4.1489 -4.7760 2.3938
-3.9766 -4.9235 2.3938
-3.7989 -5.0646 2.3938
-3.6162 -5.1992 2.3938
-3.4286 -5.3271 2.3938
-3.2365 -5.4481 2.3938
-3.0401 -5.5621 2.3938
-2.8395 -5.6690 2.3938
-2.6352 -5.7684 2.3938
-2.4274 -5.8604 2.3938
-2.2163 -5.9448 2.3938
-2.0023 -6.0215 2.3938
-1.7856 -6.0903 2.3938
-1.5665 -6.1512 2.3938
-1.3453 -6.2041 2.3938
-1.1223 -6.2489 2.3938
-0.8978 -6.2856 2.3938
-0.6721 -6.3141 2.3938
-0.4455 -6.3343 2.3938
-0.2183 -6.3463 2.3938
0.0083 -5.9411 2.3938
0.2211 -5.9368 2.3938
0.4336 -5.9248 2.3938
0.6455 -5.9051 2.3938
0.8565 -5.8776 2.3938
1.0663 -5.8425 2.3938
1.2748 -5.7999 2.3938
1.4815 -5.7496 2.3938
1.6862 -5.6919 2.3938
1.8887 -5.6268 2.3938
2.0886 -5.5544 2.3938
2.2857 -5.4748 2.3938
2.4798 -5.3881 2.3938
2.6705 -5.2944 2.3938
2.8577 -5.1939 2.3938
3.0410 -5.0867 2.3938
3.2203 -4.9729 2.3938
3.3953 -4.8527 2.3938
3.5658 -4.7263 2.3938
3.7315 -4.5938 2.3938
3.8923 -4.4554 2.3938
4.0479 -4.3114 2.3938
4.1981 -4.1619 2.3938
4.3428 -4.0070 2.3938
4.4817 -3.8471 2.3938
4.6147 -3.6824 2.3938
4.7415 -3.5130 2.3938
4.8622 -3.3392 2.3938
4.9764 -3.1612 2.3938
5.0840 -2.9792 2.3938
5.1850 -2.7936 2.3938
5.2792 -2.6044 2.3938
5.3664 -2.4124 2.3938
5.4467 -2.2171 2.3938
5.5198 -2.0193 2.3938
5.5857 -1.8190 2.3938
5.6443 -1.6165 2.3938
5.6955 -1.4123 2.3938
5.7394 -1.2062 2.3938
5.7758 -0.9990 2.3938
5.8047 -0.7907 2.3938
5.8261 -0.5816 2.3938
5.8399 -0.3718 2.3938
5.8462 -0.1619 2.3938
5.8450 0.0480 2.3938
5.8363 0.2577 2.3938
5.8200 0.4668 2.3938
5.7963 0.6751 2.3938
5.7651 0.8823 2.3938
5.7266 1.0883 2.3938
5.6808 1.2925 2.3938
5.6276 1.4949 2.3938
5.5674 1.6952 2.3938
5.5000 1.8931 2.3938
5.4256 2.0884 2.3938
5.3444 2.2808 2.3938
5.2563 2.4705 2.3938
5.1617 2.6561 2.3938
5.0604 2.8385 2.3938
4.9528 3.0171 2.3938
4.8390 3.1917 2.3938
4.7190 3.3621 2.3938
4.5931 3.5280 2.3938
4.4614 3.6893 2.3938
4.3241 3.8457 2.3938
4.1814 3.9971 2.3938
4.0335 4.1433 2.3938
3.8804 4.2841 2.3938
3.7226 4.4193 2.3938
3.5601 4.5488 2.3938
3.3931 4.6723 2.3938
3.2219 4.7899 2.3938
3.0467 4.9013 2.3938
2.8676 5.0064 2.3938
2.6850 5.1050 2.3938
2.4991 5.1970 2.3938
0.9236 2.1120 0.9571
0.8471 2.1440 0.9573
0.7695 2.1733 0.9576
0.6908 2.1997 0.9578
0.6113 2.2233 0.9580
0.5310 2.2440 0.9582
0.4499 2.2618 0.9584
0.3683 2.2767 0.9585
0.2862 2.2886 0.9586
0.2036 2.2975 0.9587
0.1209 2.3035 0.9588
0.0379 2.3064 0.9588
-0.0451 2.3064 0.9588
-0.1280 2.3034 0.9588
-0.2108 2.2973 0.9588
-0.2934 2.2883 0.9588
-0.3755 2.2764 0.9587
-0.4572 2.2614 0.9586
-0.5382 2.2436 0.9585
-0.6186 2.2228 0.9584
-0.6982 2.1991 0.9582
-0.7768 2.1726 0.9580
-0.8545 2.1432 0.9578
-2.3274 5.2774 2.3938
-2.5163 5.1915 2.3938
-2.7021 5.0990 2.3938
-2.8846 5.0000 2.3938
-3.0634 4.8944 2.3938
-3.2385 4.7826 2.3938
-3.4095 4.6646 2.3938
-3.5763 4.5406 2.3938
-3.7386 4.4107 2.3938
-3.8963 4.2750 2.3938
-4.0490 4.1338 2.3938
-4.1967 3.9872 2.3938
-4.3392 3.8353 2.3938
-4.4762 3.6785 2.3938
-4.6076 3.5168 2.3938
-4.7331 3.3505 2.3938
-4.8528 3.1796 2.3938
-4.9663 3.0046 2.3938
-5.0735 2.8256 2.3938
-5.1744 2.6428 2.3938
-5.2686 2.4565 2.3938
-5.3562 2.2668 2.3938
-5.4371 2.0740 2.3938
-5.5110 1.8783 2.3938
-5.5779 1.6801 2.3938
-5.6376 1.4794 2.3938
-5.6902 1.2767 2.3938
-5.7356 1.0722 2.3938
-5.7736 0.8660 2.3938
-5.8041 0.6585 2.3938
-5.8273 0.4500 2.3938
-5.8430 0.2406 2.3938
-5.8511 0.0307 2.3938
-5.8517 -0.1794 2.3938
-5.8447 -0.3895 2.3938
-5.8302 -0.5993 2.3938
-5.8082 -0.8086 2.3938
-5.7786 -1.0170 2.3938
-5.7415 -1.2244 2.3938
-5.6970 -1.4303 2.3938
-5.6451 -1.6347 2.3938
-5.5857 -1.8371 2.3938
-5.5192 -2.0373 2.3938
-5.4453 -2.2351 2.3938
-5.3644 -2.4302 2.3938
-5.2765 -2.6223 2.3938
-5.1816 -2.8112 2.3938
-5.0799 -2.9966 2.3938
-4.9715 -3.1783 2.3938
-4.8566 -3.3560 2.3938
-4.7353 -3.5295 2.3938
-4.6077 -3.6986 2.3938
-4.4741 -3.8630 2.3938
-4.3345 -4.0225 2.3938
-4.1892 -4.1769 2.3938
-4.0384 -4.3260 2.3938
-3.8822 -4.4696 2.3938
-3.7208 -4.6074 2.3938
-3.5545 -4.7393 2.3938
-3.3835 -4.8652 2.3938
-3.2080 -4.9848 2.3938
-3.0282 -5.0980 2.3938
-2.8443 -5.2045 2.3938
-2.6567 -5.3044 2.3938
-2.4655 -5.3974 2.3938
-2.2711 -5.4834 2.3938
-2.0736 -5.5623 2.3938
-1.8733 -5.6340 2.3938
-1.6706 -5.6983 2.3938
-1.4656 -5.7553 2.3938
-1.2587 -5.8047 2.3938
-1.0500 -5.8466 2.3938
-0.8400 -5.8809 2.3938
-0.6289 -5.9075 2.3938
-0.4169 -5.9264 2.3938
-0.2043 -5.9376 2.3938
0.0085 -5.9411 2.3938
0.2212 -5.9368 2.3938
0.4337 -5.9248 2.3938
0.6456 -5.9050 2.3938
0.8566 -5.8776 2.3938
1.0665 -5.8425 2.3938
1.2749 -5.7998 2.3938
1.4816 -5.7496 2.3938
1.6863 -5.6919 2.3938
1.8888 -5.6268 2.3938
2.0887 -5.5543 2.3938
2.2858 -5.4747 2.3938
2.4799 -5.3880 2.3938
2.6706 -5.2943 2.3938
2.8578 -5.1938 2.3938
3.0411 -5.0866 2.3938
3.2204 -4.9728 2.3938
3.3954 -4.8526 2.3938
3.5659 -4.7262 2.3938
3.7316 -4.5937 2.3938
3.8924 -4.4553 2.3938
4.0480 -4.3113 2.3938
4.1982 -4.1618 2.3938
4.3429 -4.0069 2.3938
4.4818 -3.8470 2.3938
4.6147 -3.6823 2.3938
4.7416 -3.5129 2.3938
4.8622 -3.3390 2.3938
4.9764 -3.1610 2.3938
5.0841 -2.9791 2.3938
5.1851 -2.7935 2.3938
5.2793 -2.6047 2.3938
5.3665 -2.4123 2.3938
5.4467 -2.2170 2.3938
5.5198 -2.0191 2.3938
5.5857 -1.8189 2.3938
5.6443 -1.6164 2.3938
5.6955 -1.4121 2.3938
5.7394 -1.2062 2.3938
5.7758 -0.9989 2.3938
5.8047 -0.7906 2.3938
5.8261 -0.5815 2.3938
5.8399 -0.3717 2.3938
5.8462 -0.1618 2.3938
5.8450 0.0481 2.3938
5.8363 0.2577 2.3938
5.8200 0.4669 2.3938
5.7963 0.6753 2.3938
5.7651 0.8825 2.3938
5.7266 1.0884 2.3938
5.6807 1.2927 2.3938
5.6276 1.4951 2.3938
5.5673 1.6953 2.3938
5.4999 1.8932 2.3938
5.4256 2.0885 2.3938
5.3443 2.2809 2.3938
5.2563 2.4705 2.3938
5.1616 2.6562 2.3938
5.0604 2.8386 2.3938
4.9527 3.0172 2.3938
4.8389 3.1918 2.3938
4.7189 3.3622 2.3938
4.5930 3.5281 2.3938
4.4613 3.6894 2.3938
4.3240 3.8458 2.3938
4.1813 3.9972 2.3938
4.0334 4.1434 2.3938
3.8803 4.2842 2.3938
3.7225 4.4194 2.3938
3.5600 4.5488 2.3938
3.3930 4.6724 2.3938
3.2218 4.7900 2.3938
3.0465 4.9013 2.3938
2.8675 5.0064 2.3938
2.6849 5.1050 2.3938
2.4990 5.1971 2.3938
0.9235 2.1120 0.9571
0.8470 2.1440 0.9573
0.7694 2.1733 0.9576
0.6908 2.1997 0.9578
0.6113 2.2233 0.9580
0.5309 2.2440 0.9582
0.4499 2.2618 0.9584
0.3682 2.2767 0.9585
0.2861 2.2886 0.9586
0.2036 2.2975 0.9587
0.1208 2.3035 0.9588
0.0379 2.3064 0.9588
-0.0451 2.3064 0.9588
-0.1281 2.3034 0.9588
-0.2109 2.2973 0.9588
-0.2934 2.2883 0.9588
-0.3756 2.2763 0.9587
-0.4572 2.2614 0.9586
-0.5383 2.2435 0.9585
-0.6187 2.2228 0.9584
-0.6982 2.1991 0.9582
-0.7769 2.1725 0.9580
-0.8545 2.1432 0.9578
-2.3275 5.2773 2.3938
-2.5164 5.1915 2.3938
-2.7022 5.0990 2.3938
-2.8847 4.9999 2.3938
-3.0636 4.8944 2.3938
-3.2386 4.7825 2.3938
-3.4096 4.6645 2.3938
-3.5764 4.5405 2.3938
-3.7387 4.4106 2.3938
-3.8964 4.2749 2.3938
-4.0491 4.1337 2.3938
-4.1968 3.9871 2.3938
-4.3393 3.8352 2.3938
-4.4763 3.6784 2.3938
-4.6076 3.5167 2.3938
-4.7332 3.3503 2.3938
-4.8528 3.1796 2.3938
-4.9663 3.0045 2.3938
-5.0736 2.8255 2.3938
-5.1744 2.6427 2.3938
-5.2687 2.4563 2.3938
-5.3563 2.2666 2.3938
-5.4371 2.0738 2.3938
-5.5110 1.8782 2.3938
-5.5779 1.6799 2.3938
-5.6377 1.4793 2.3938
-5.6903 1.2766 2.3938
-5.7356 1.0720 2.3938
-5.7736 0.8659 2.3938
-5.8042 0.6584 2.3938
-5.8273 0.4498 2.3938
-5.8430 0.2405 2.3938
-5.8511 0.0306 2.3938
-5.8517 -0.1795 2.3938
-5.8447 -0.3896 2.3938
-5.8302 -0.5995 2.3938
-5.8082 -0.8087 2.3938
-5.7786 -1.0172 2.3938
-5.7415 -1.2245 2.3938
-5.6970 -1.4305 2.3938
-5.6450 -1.6348 2.3938
-5.5857 -1.8372 2.3938
-5.5191 -2.0374 2.3938
-5.4453 -2.2352 2.3938
-5.3644 -2.4303 2.3938
-5.2764 -2.6224 2.3938
-5.1815 -2.8113 2.3938
-5.0798 -2.9967 2.3938
-4.9714 -3.1784 2.3938
-4.8565 -3.3561 2.3938
-4.7352 -3.5296 2.3938
-4.6076 -3.6987 2.3938
-4.4740 -3.8631 2.3938
-4.3344 -4.0226 2.3938
-4.1891 -4.1770 2.3938
-4.0383 -4.3261 2.3938
-3.8821 -4.4696 2.3938
-3.7207 -4.6075 2.3938
-3.5544 -4.7394 2.3938
-3.3834 -4.8653 2.3938
-3.2078 -4.9849 2.3938
-3.0280 -5.0980 2.3938
-2.8442 -5.2046 2.3938
-2.6566 -5.3045 2.3938
-2.4654 -5.3975 2.3938
-2.2710 -5.4834 2.3938
-2.0735 -5.5623 2.3938
-1.8732 -5.6340 2.3938
-1.6705 -5.6984 2.3938
-1.4655 -5.7553 2.3938
-1.2585 -5.8047 2.3938
-1.0499 -5.8466 2.3938
-0.8399 -5.8809 2.3938
-0.6287 -5.9075 2.3938
-0.4167 -5.9265 2.3938
-0.2042 -5.9377 2.3938
0.0078 -5.5755 2.3938
0.2074 -5.5715 2.3938
0.4068 -5.5602 2.3938
0.6056 -5.5417 2.3938
0.8036 -5.5160 2.3938
1.0006 -5.4831 2.3938
1.1962 -5.4431 2.3938
1.3901 -5.3960 2.3938
1.5822 -5.3419 2.3938
1.7722 -5.2809 2.3938
1.9599 -5.2130 2.3938
2.1449 -5.1383 2.3938
2.3270 -5.0570 2.3938
2.5060 -4.9692 2.3938
2.6817 -4.8749 2.3938
2.8538 -4.7744 2.3938
3.0221 -4.6677 2.3938
3.1864 -4.5550 2.3938
3.3465 -4.4364 2.3938
3.5021 -4.3122 2.3938
3.6530 -4.1824 2.3938
3.7991 -4.0473 2.3938
3.9402 -3.9070 2.3938
4.0761 -3.7618 2.3938
4.2066 -3.6118 2.3938
4.3315 -3.4572 2.3938
4.4507 -3.2983 2.3938
4.5640 -3.1352 2.3938
4.6713 -2.9682 2.3938
4.7725 -2.7975 2.3938
4.8674 -2.6233 2.3938
4.9560 -2.4459 2.3938
5.0380 -2.2655 2.3938
5.1135 -2.0823 2.3938
5.1823 -1.8966 2.3938
5.2443 -1.7086 2.3938
5.2994 -1.5185 2.3938
5.3477 -1.3269 2.3938
5.3891 -1.1335 2.3938
5.4234 -0.9389 2.3938
5.4507 -0.7433 2.3938
5.4709 -0.5469 2.3938
5.4841 -0.3500 2.3938
5.4902 -0.1528 2.3938
5.4892 0.0443 2.3938
5.4812 0.2412 2.3938
5.4660 0.4377 2.3938
5.4439 0.6333 2.3938
5.4148 0.8280 2.3938
5.3788 1.0214 2.3938
5.3359 1.2128 2.3938
5.2861 1.4032 2.3938
5.2296 1.5916 2.3938
5.1665 1.7775 2.3938
5.0968 1.9610 2.3938
5.0206 2.1418 2.3938
4.9380 2.3198 2.3938
4.8492 2.4945 2.3938
4.7542 2.6660 2.3938
4.6532 2.8338 2.3938
4.5463 2.9980 2.3938
4.4337 3.1581 2.3938
4.3155 3.3141 2.3938
4.1919 3.4657 2.3938
4.0630 3.6127 2.3938
3.9290 3.7550 2.3938
3.7900 3.8925 2.3938
3.6463 4.0248 2.3938
3.4981 4.1520 2.3938
3.3454 4.2737 2.3938
3.1885 4.3899 2.3938
3.0277 4.5005 2.3938
2.8631 4.6052 2.3938
2.6949 4.7040 2.3938
2.5233 4.7967 2.3938
2.3486 4.8833 2.3938
0.8671 1.9825 0.9561
0.7953 2.0126 0.9564
0.7224 2.0400 0.9566
0.6486 2.0648 0.9568
0.5739 2.0870 0.9570
0.4985 2.1064 0.9572
0.4224 2.1231 0.9573
0.3457 2.1370 0.9574
0.2686 2.1482 0.9575
0.1912 2.1566 0.9576
0.1135 2.1622 0.9577
0.0356 2.1649 0.9577
-0.0423 2.1649 0.9578
-0.1202 2.1621 0.9578
-0.1979 2.1564 0.9577
-0.2754 2.1479 0.9577
-0.3525 2.1367 0.9576
-0.4292 2.1227 0.9575
-0.5053 2.1059 0.9574
-0.5807 2.0864 0.9573
-0.6554 2.0642 0.9572
-0.7293 2.0393 0.9570
-0.8022 2.0117 0.9568
-0.8740 1.9816 0.9566
-2.3648 4.8780 2.3938
-2.5393 4.7910 2.3938
-2.7108 4.6979 2.3938
-2.8788 4.5987 2.3938
-3.0433 4.4935 2.3938
-3.2039 4.3825 2.3938
-3.3606 4.2659 2.3938
-3.5130 4.1437 2.3938
-3.6611 4.0162 2.3938
-3.8046 3.8834 2.3938
-3.9433 3.7456 2.3938
-4.0770 3.6028 2.3938
-4.2057 3.4554 2.3938
-4.3290 3.3034 2.3938
-4.4469 3.1470 2.3938
-4.5592 2.9865 2.3938
-4.6657 2.8220 2.3938
-4.7663 2.6537 2.3938
-4.8609 2.4819 2.3938
-4.9494 2.3068 2.3938
-5.0315 2.1285 2.3938
-5.1073 1.9474 2.3938
-5.1766 1.7636 2.3938
-5.2393 1.5773 2.3938
-5.2953 1.3888 2.3938
-5.3445 1.1984 2.3938
-5.3870 1.0062 2.3938
-5.4225 0.8125 2.3938
-5.4511 0.6177 2.3938
-5.4726 0.4218 2.3938
-5.4872 0.2252 2.3938
-5.4947 0.0281 2.3938
-5.4951 -0.1692 2.3938
-5.4884 -0.3665 2.3938
-5.4746 -0.5636 2.3938
-5.4537 -0.7600 2.3938
-5.4258 -0.9557 2.3938
-5.3909 -1.1504 2.3938
-5.3489 -1.3437 2.3938
-5.3000 -1.5355 2.3938
-5.2441 -1.7255 2.3938
-5.1815 -1.9135 2.3938
-5.1120 -2.0991 2.3938
-5.0359 -2.2821 2.3938
-4.9532 -2.4624 2.3938
-4.8640 -2.6397 2.3938
-4.7685 -2.8137 2.3938
-4.6666 -2.9841 2.3938
-4.5586 -3.1509 2.3938
-4.4447 -3.3137 2.3938
-4.3248 -3.4723 2.3938
-4.1993 -3.6265 2.3938
-4.0682 -3.7762 2.3938
-3.9318 -3.9210 2.3938
-3.7901 -4.0608 2.3938
-3.6435 -4.1955 2.3938
-3.4920 -4.3248 2.3938
-3.3358 -4.4485 2.3938
-3.1753 -4.5666 2.3938
-3.0105 -4.6787 2.3938
-2.8417 -4.7848 2.3938
-2.6692 -4.8848 2.3938
-2.4931 -4.9784 2.3938
-2.3137 -5.0656 2.3938
-2.1312 -5.1463 2.3938
-1.9458 -5.2203 2.3938
-1.7579 -5.2875 2.3938
-1.5676 -5.3478 2.3938
-1.3753 -5.4012 2.3938
-1.1811 -5.4476 2.3938
-0.9853 -5.4869 2.3938
-0.7882 -5.5190 2.3938
-0.5901 -5.5440 2.3938
-0.3912 -5.5618 2.3938
-0.1918 -5.5723 2.3938
0.0079 -5.5755 2.3938
0.2076 -5.5715 2.3938
0.4069 -5.5602 2.3938
0.6058 -5.5417 2.3938
0.8038 -5.5160 2.3938
1.0007 -5.4831 2.3938
1.1963 -5.4431 2.3938
1.3903 -5.3960 2.3938
1.5824 -5.3419 2.3938
1.7724 -5.2808 2.3938
1.9600 -5.2129 2.3938
2.1450 -5.1383 2.3938
2.3271 -5.0570 2.3938
2.5062 -4.9691 2.3938
2.6818 -4.8749 2.3938
2.8539 -4.7743 2.3938
3.0223 -4.6676 2.3938
3.1865 -4.5549 2.3938
3.3466 -4.4363 2.3938
3.5022 -4.3121 2.3938
3.6531 -4.1823 2.3938
3.7992 -4.0472 2.3938
3.9403 -3.9069 2.3938
4.0762 -3.7617 2.3938
4.2066 -3.6117 2.3938
4.3316 -3.4571 2.3938
4.4508 -3.2982 2.3938
4.5641 -3.1351 2.3938
4.6714 -2.9681 2.3938
4.7726 -2.7974 2.3938
4.8675 -2.6232 2.3938
4.9560 -2.4458 2.3938
5.0381 -2.2654 2.3938
5.1135 -2.0822 2.3938
5.1823 -1.8965 2.3938
5.2443 -1.7085 2.3938
5.2995 -1.5185 2.3938
5.3478 -1.3266 2.3938
5.3891 -1.1334 2.3938
5.4234 -0.9388 2.3938
5.4507 -0.7431 2.3938
5.4709 -0.5467 2.3938
5.4841 -0.3498 2.3938
5.4902 -0.1527 2.3938
5.4892 0.0445 2.3938
5.4811 0.2414 2.3938
5.4660 0.4378 2.3938
5.4439 0.6334 2.3938
5.4148 0.8281 2.3938
5.3788 1.0215 2.3938
5.3358 1.2131 2.3938
5.2861 1.4032 2.3938
5.2296 1.5917 2.3938
5.1665 1.7776 2.3938
5.0967 1.9611 2.3938
5.0205 2.1420 2.3938
4.9380 2.3199 2.3938
4.8491 2.4947 2.3938
4.7541 2.6661 2.3938
4.6531 2.8340 2.3938
4.5463 2.9981 2.3938
4.4337 3.1582 2.3938
4.3155 3.3141 2.3938
4.1918 3.4658 2.3938
4.0629 3.6128 2.3938
3.9289 3.7551 2.3938
3.7899 3.8926 2.3938
3.6462 4.0249 2.3938
3.4980 4.1520 2.3938
3.3453 4.2738 2.3938
3.1884 4.3900 2.3938
3.0276 4.5006 2.3938
2.8630 4.6053 2.3938
2.6948 4.7040 2.3938
2.5232 4.7968 2.3938
2.3485 4.8834 2.3938
0.8670 1.9825 0.9561
0.7952 2.0126 0.9564
0.7223 2.0400 0.9566
0.6485 2.0648 0.9568
0.5738 2.0870 0.9570
0.4984 2.1064 0.9572
0.4223 2.1231 0.9573
0.3457 2.1370 0.9574
0.2686 2.1482 0.9575
0.1911 2.1566 0.9576
0.1134 2.1622 0.9577
0.0355 2.1649 0.9577
-0.0424 2.1649 0.9578
-0.1203 2.1620 0.9578
-0.1980 2.1564 0.9577
-0.2755 2.1479 0.9577
-0.3526 2.1367 0.9576
-0.4292 2.1227 0.9575
-0.5053 2.1059 0.9574
-0.5808 2.0864 0.9573
-0.6555 2.0641 0.9572
-0.7293 2.0392 0.9570
-0.8022 2.0117 0.9568
-0.8741 1.9815 0.9566
-2.3649 4.8780 2.3938
-2.5394 4.7910 2.3938
-2.7109 4.6978 2.3938
-2.8789 4.5986 2.3938
-3.0434 4.4934 2.3938
-3.2040 4.3825 2.3938
-3.3607 4.2658 2.3938
-3.5131 4.1437 2.3938
-3.6612 4.0161 2.3938
-3.8047 3.8833 2.3938
-3.9434 3.7455 2.3938
-4.0771 3.6027 2.3938
-4.2057 3.4553 2.3938
-4.3291 3.3033 2.3938
-4.4470 3.1469 2.3938
-4.5592 2.9864 2.3938
-4.6658 2.8219 2.3938
-4.7664 2.6536 2.3938
-4.8610 2.4818 2.3938
-4.9494 2.3067 2.3938
-5.0316 2.1284 2.3938
-5.1074 1.9473 2.3938
-5.1766 1.7634 2.3938
-5.2393 1.5772 2.3938
-5.2953 1.3887 2.3938
-5.3446 1.1982 2.3938
-5.3870 1.0061 2.3938
-5.4225 0.8124 2.3938
-5.4511 0.6175 2.3938
-5.4727 0.4217 2.3938
-5.4872 0.2251 2.3938
-5.4947 0.0279 2.3938
-5.4951 -0.1694 2.3938
-5.4884 -0.3667 2.3938
-5.4746 -0.5637 2.3938
-5.4537 -0.7602 2.3938
-5.4258 -0.9559 2.3938
-5.3908 -1.1505 2.3938
-5.3489 -1.3439 2.3938
-5.2999 -1.5357 2.3938
-5.2441 -1.7256 2.3938
-5.1814 -1.9136 2.3938
-5.1120 -2.0992 2.3938
-5.0359 -2.2823 2.3938
-4.9532 -2.4625 2.3938
-4.8640 -2.6398 2.3938
-4.7684 -2.8138 2.3938
-4.6666 -2.9842 2.3938
-4.5586 -3.1510 2.3938
-4.4446 -3.3138 2.3938
-4.3248 -3.4724 2.3938
-4.1992 -3.6266 2.3938
-4.0681 -3.7763 2.3938
-3.9317 -3.9211 2.3938
-3.7900 -4.0609 2.3938
-3.6434 -4.1956 2.3938
-3.4918 -4.3249 2.3938
-3.3357 -4.4486 2.3938
-3.1752 -4.5667 2.3938
-3.0104 -4.6788 2.3938
-2.8416 -4.7849 2.3938
-2.6691 -4.8849 2.3938
-2.4930 -4.9785 2.3938
-2.3135 -5.0657 2.3938
-2.1310 -5.1464 2.3938
-1.9457 -5.2203 2.3938
-1.7578 -5.2875 2.3938
-1.5675 -5.3479 2.3938
-1.3751 -5.4013 2.3938
-1.1809 -5.4476 2.3938
-0.9852 -5.4869 2.3938
-0.7881 -5.5190 2.3938
-0.5900 -5.5440 2.3938
-0.3911 -5.5617 2.3938
-0.1916 -5.5723 2.3938
0.0073 -5.2463 2.3938
0.1951 -5.2426 2.3938
0.3827 -5.2320 2.3938
0.5698 -5.2146 2.3938
0.7561 -5.1904 2.3938
0.9414 -5.1595 2.3938
1.1254 -5.1219 2.3938
1.3079 -5.0776 2.3938
1.4887 -5.0268 2.3938
1.6674 -4.9694 2.3938
1.8440 -4.9056 2.3938
2.0181 -4.8354 2.3938
2.1895 -4.7589 2.3938
2.3579 -4.6763 2.3938
2.5233 -4.5877 2.3938
2.6852 -4.4930 2.3938
2.8437 -4.3928 2.3938
2.9983 -4.2868 2.3938
3.1489 -4.1753 2.3938
3.2954 -4.0585 2.3938
3.4375 -3.9365 2.3938
3.5751 -3.8094 2.3938
3.7079 -3.6775 2.3938
3.8358 -3.5409 2.3938
3.9587 -3.3998 2.3938
4.0764 -3.2544 2.3938
4.1886 -3.1049 2.3938
4.2954 -2.9515 2.3938
4.3965 -2.7944 2.3938
4.4918 -2.6338 2.3938
4.5813 -2.4699 2.3938
4.6647 -2.3030 2.3938
4.7421 -2.1332 2.3938
4.8132 -1.9608 2.3938
4.8781 -1.7861 2.3938
4.9366 -1.6091 2.3938
4.9886 -1.4303 2.3938
5.0342 -1.2498 2.3938
5.0732 -1.0678 2.3938
5.1057 -0.8847 2.3938
5.1315 -0.7005 2.3938
5.1507 -0.5156 2.3938
5.1633 -0.3303 2.3938
5.1691 -0.1446 2.3938
5.1684 0.0410 2.3938
5.1609 0.2264 2.3938
5.1468 0.4113 2.3938
5.1261 0.5956 2.3938
5.0988 0.7789 2.3938
5.0650 0.9610 2.3938
5.0247 1.1417 2.3938
4.9780 1.3208 2.3938
4.9250 1.4981 2.3938
4.8656 1.6733 2.3938
4.8001 1.8461 2.3938
4.7284 2.0165 2.3938
4.6508 2.1841 2.3938
4.5672 2.3487 2.3938
4.4779 2.5103 2.3938
4.3828 2.6684 2.3938
4.2823 2.8231 2.3938
4.1763 2.9740 2.3938
4.0650 3.1209 2.3938
3.9487 3.2638 2.3938
3.8273 3.4024 2.3938
3.7011 3.5365 2.3938
3.5703 3.6661 2.3938
3.4350 3.7908 2.3938
3.2954 3.9106 2.3938
3.1516 4.0254 2.3938
3.0039 4.1349 2.3938
2.8524 4.2391 2.3938
2.6973 4.3379 2.3938
2.5389 4.4310 2.3938
2.3773 4.5184 2.3938
0.8827 1.8351 0.9550
0.8162 1.8658 0.9552
0.7486 1.8941 0.9555
0.6800 1.9199 0.9557
0.6105 1.9433 0.9559
0.5402 1.9641 0.9561
0.4692 1.9824 0.9562
0.3976 1.9981 0.9564
0.3254 2.0112 0.9565
0.2528 2.0217 0.9566
0.1799 2.0296 0.9567
0.1068 2.0348 0.9567
0.0335 2.0374 0.9568
-0.0399 2.0374 0.9568
-0.1132 2.0347 0.9568
-0.1863 2.0294 0.9568
-0.2592 2.0214 0.9567
-0.3318 2.0108 0.9567
-0.4040 1.9976 0.9566
-0.4756 1.9819 0.9565
-0.5466 1.9635 0.9564
-0.6169 1.9426 0.9562
-0.6864 1.9191 0.9561
-0.7551 1.8932 0.9559
-0.8227 1.8648 0.9557
-0.8892 1.8340 0.9555
-2.3924 4.5130 2.3938
-2.5538 4.4251 2.3938
-2.7121 4.3316 2.3938
-2.8670 4.2325 2.3938
-3.0183 4.1279 2.3938
-3.1659 4.0179 2.3938
-3.3094 3.9028 2.3938
-3.4488 3.7825 2.3938
-3.5839 3.6574 2.3938
-3.7145 3.5275 2.3938
-3.8404 3.3930 2.3938
-3.9615 3.2540 2.3938
-4.0776 3.1108 2.3938
-4.1886 2.9634 2.3938
-4.2942 2.8122 2.3938
-4.3945 2.6572 2.3938
-4.4891 2.4987 2.3938
-4.5781 2.3368 2.3938
-4.6613 2.1718 2.3938
-4.7386 2.0038 2.3938
-4.8098 1.8332 2.3938
-4.8750 1.6600 2.3938
-4.9339 1.4846 2.3938
-4.9865 1.3070 2.3938
-5.0327 1.1277 2.3938
-5.0726 0.9467 2.3938
-5.1059 0.7643 2.3938
-5.1326 0.5808 2.3938
-5.1528 0.3964 2.3938
-5.1664 0.2112 2.3938
-5.1733 0.0257 2.3938
-5.1735 -0.1601 2.3938
-5.1671 -0.3458 2.3938
-5.1540 -0.5313 2.3938
-5.1342 -0.7163 2.3938
-5.1078 -0.9005 2.3938
-5.0748 -1.0837 2.3938
-5.0351 -1.2657 2.3938
-4.9889 -1.4462 2.3938
-4.9363 -1.6250 2.3938
-4.8772 -1.8018 2.3938
-4.8117 -1.9765 2.3938
-4.7399 -2.1488 2.3938
-4.6620 -2.3184 2.3938
-4.5779 -2.4852 2.3938
-4.4879 -2.6488 2.3938
-4.3919 -2.8092 2.3938
-4.2902 -2.9661 2.3938
-4.1829 -3.1192 2.3938
-4.0700 -3.2685 2.3938
-3.9518 -3.4135 2.3938
-3.8284 -3.5543 2.3938
-3.6999 -3.6905 2.3938
-3.5665 -3.8220 2.3938
-3.4285 -3.9487 2.3938
-3.2858 -4.0703 2.3938
-3.1389 -4.1866 2.3938
-2.9878 -4.2976 2.3938
-2.8327 -4.4031 2.3938
-2.6738 -4.5029 2.3938
-2.5115 -4.5969 2.3938
-2.3457 -4.6849 2.3938
-2.1769 -4.7670 2.3938
-2.0052 -4.8428 2.3938
-1.8308 -4.9123 2.3938
-1.6539 -4.9755 2.3938
-1.4749 -5.0323 2.3938
-1.2939 -5.0825 2.3938
-1.1112 -5.1261 2.3938
-0.9270 -5.1630 2.3938
-0.7416 -5.1932 2.3938
-0.5552 -5.2167 2.3938
-0.3681 -5.2334 2.3938
-0.1804 -5.2433 2.3938
0.0074 -5.2463 2.3938
0.1953 -5.2426 2.3938
0.3828 -5.2320 2.3938
0.5699 -5.2146 2.3938
0.7562 -5.1904 2.3938
0.9415 -5.1595 2.3938
1.1255 -5.1219 2.3938
1.3080 -5.0776 2.3938
1.4888 -5.0267 2.3938
1.6675 -4.9693 2.3938
1.8441 -4.9055 2.3938
2.0182 -4.8353 2.3938
2.1896 -4.7589 2.3938
2.3580 -4.6763 2.3938
2.5234 -4.5876 2.3938
2.6854 -4.4931 2.3938
2.8438 -4.3928 2.3938
2.9984 -4.2868 2.3938
3.1490 -4.1753 2.3938
3.2955 -4.0584 2.3938
3.4376 -3.9364 2.3938
3.5752 -3.8093 2.3938
3.7080 -3.6774 2.3938
3.8359 -3.5408 2.3938
3.9588 -3.3997 2.3938
4.0764 -3.2543 2.3938
4.1887 -3.1048 2.3938
4.2955 -2.9514 2.3938
4.3966 -2.7943 2.3938
4.4919 -2.6337 2.3938
4.5813 -2.4698 2.3938
4.6648 -2.3028 2.3938
4.7421 -2.1331 2.3938
4.8133 -1.9607 2.3938
4.8781 -1.7859 2.3938
4.9366 -1.6090 2.3938
4.9887 -1.4302 2.3938
5.0342 -1.2497 2.3938
5.0733 -1.0677 2.3938
5.1057 -0.8845 2.3938
5.1316 -0.7004 2.3938
5.1507 -0.5155 2.3938
5.1633 -0.3302 2.3938
5.1691 -0.1445 2.3938
5.1683 0.0411 2.3938
5.1609 0.2265 2.3938
5.1468 0.4115 2.3938
5.1261 0.5957 2.3938
5.0988 0.7790 2.3938
5.0650 0.9611 2.3938
5.0247 1.1419 2.3938
4.9780 1.3210 2.3938
4.9249 1.4982 2.3938
4.8656 1.6734 2.3938
4.8000 1.8462 2.3938
4.7284 2.0166 2.3938
4.6507 2.1842 2.3938
4.5672 2.3488 2.3938
4.4778 2.5104 2.3938
4.3828 2.6685 2.3938
4.2822 2.8232 2.3938
4.1762 2.9741 2.3938
4.0650 3.1210 2.3938
3.9486 3.2639 2.3938
3.8272 3.4025 2.3938
3.7010 3.5366 2.3938
3.5702 3.6661 2.3938
3.4349 3.7909 2.3938
3.2953 3.9107 2.3938
3.1515 4.0255 2.3938
3.0038 4.1350 2.3938
2.8523 4.2392 2.3938
2.6972 4.3379 2.3938
2.5388 4.4307 2.3938
2.3772 4.5185 2.3938
0.8827 1.8351 0.9550
0.8161 1.8658 0.9552
0.7485 1.8941 0.9555
0.6799 1.9199 0.9557
0.6104 1.9433 0.9559
0.5401 1.9641 0.9561
0.4691 1.9824 0.9562
0.3975 1.9981 0.9564
0.3254 2.0112 0.9565
0.2528 2.0217 0.9566
0.1799 2.0296 0.9567
0.1067 2.0348 0.9567
0.0334 2.0374 0.9568
-0.0399 2.0374 0.9568
-0.1132 2.0347 0.9568
-0.1864 2.0294 0.9568
-0.2593 2.0214 0.9567
-0.3319 2.0108 0.9567
-0.4040 1.9976 0.9566
-0.4757 1.9818 0.9565
-0.5467 1.9635 0.9564
-0.6170 1.9426 0.9562
-0.6865 1.9191 0.9561
-0.7551 1.8932 0.9559
-0.8227 1.8648 0.9557
-0.8893 1.8340 0.9555
-2.3925 4.5129 2.3938
-2.5539 4.4251 2.3938
-2.7122 4.3315 2.3938
-2.8671 4.2324 2.3938
-3.0184 4.1278 2.3938
-3.1659 4.0179 2.3938
-3.3095 3.9027 2.3938
-3.4489 3.7825 2.3938
-3.5840 3.6573 2.3938
-3.7146 3.5274 2.3938
-3.8405 3.3929 2.3938
-3.9616 3.2539 2.3938
-4.0777 3.1107 2.3938
-4.1886 2.9633 2.3938
-4.2943 2.8121 2.3938
-4.3945 2.6571 2.3938
-4.4892 2.4985 2.3938
-4.5782 2.3367 2.3938
-4.6614 2.1717 2.3938
-4.7386 2.0037 2.3938
-4.8099 1.8331 2.3938
-4.8750 1.6599 2.3938
-4.9339 1.4845 2.3938
-4.9865 1.3069 2.3938
-5.0328 1.1276 2.3938
-5.0726 0.9466 2.3938
-5.1059 0.7642 2.3938
-5.1327 0.5807 2.3938
-5.1528 0.3963 2.3938
-5.1664 0.2111 2.3938
-5.1733 0.0256 2.3938
-5.1735 -0.1602 2.3938
-5.1671 -0.3460 2.3938
-5.1540 -0.5314 2.3938
-5.1342 -0.7164 2.3938
-5.1078 -0.9006 2.3938
-5.0747 -1.0838 2.3938
-5.0351 -1.2658 2.3938
-4.9889 -1.4463 2.3938
-4.9362 -1.6251 2.3938
-4.8771 -1.8019 2.3938
-4.8116 -1.9766 2.3938
-4.7399 -2.1489 2.3938
-4.6619 -2.3185 2.3938
-4.5779 -2.4853 2.3938
-4.4878 -2.6490 2.3938
-4.3919 -2.8093 2.3938
-4.2902 -2.9662 2.3938
-4.1828 -3.1193 2.3938
-4.0699 -3.2685 2.3938
-3.9517 -3.4136 2.3938
-3.8283 -3.5544 2.3938
-3.6998 -3.6906 2.3938
-3.5664 -3.8221 2.3938
-3.4284 -3.9488 2.3938
-3.2857 -4.0703 2.3938
-3.1388 -4.1867 2.3938
-2.9877 -4.2977 2.3938
-2.8326 -4.4032 2.3938
-2.6737 -4.5030 2.3938
-2.5113 -4.5969 2.3938
-2.3456 -4.6850 2.3938
-2.1768 -4.7670 2.3938
-2.0051 -4.8428 2.3938
-1.8307 -4.9124 2.3938
-1.6538 -4.9756 2.3938
-1.4748 -5.0323 2.3938
-1.2938 -5.0825 2.3938
-1.1111 -5.1261 2.3938
-0.9269 -5.1630 2.3938
-0.7415 -5.1933 2.3938
-0.5551 -5.2167 2.3938
-0.3679 -5.2334 2.3938
-0.1803 -5.2433 2.3938
0.0069 -4.9482 2.3938
0.1840 -4.9446 2.3938
0.3609 -4.9347 2.3938
0.5373 -4.9183 2.3938
0.7130 -4.8955 2.3938
0.8877 -4.8664 2.3938
1.0612 -4.8309 2.3938
1.2334 -4.7892 2.3938
1.4039 -4.7412 2.3938
1.5725 -4.6872 2.3938
1.7390 -4.6270 2.3938
1.9032 -4.5609 2.3938
2.0648 -4.4888 2.3938
2.2237 -4.4110 2.3938
2.3797 -4.3275 2.3938
2.5325 -4.2384 2.3938
2.6819 -4.1438 2.3938
2.8278 -4.0439 2.3938
2.9700 -3.9388 2.3938
3.1082 -3.8287 2.3938
3.2423 -3.7141 2.3938
3.3720 -3.5938 2.3938
3.4974 -3.4694 2.3938
3.6181 -3.3407 2.3938
