ply
format ascii 1.0
element vertex 2174
property float32 x
property float32 y
property float32 z
end_header
-3.7191 6.4678 2.3945
-3.9456 6.3232 2.3945
-4.1668 6.1710 2.3945
-4.3824 6.0114 2.3945
-4.5922 5.8447 2.3945
-4.7960 5.6709 2.3945
-4.9936 5.4905 2.3945
-5.1847 5.3032 2.3945
-5.3691 5.1100 2.3945
-5.5468 4.9105 2.3945
-5.7174 4.7051 2.3945
-5.8808 4.4941 2.3945
-6.0368 4.2777 2.3945
-6.1852 4.0561 2.3945
-6.3260 3.8297 2.3945
-6.4589 3.5986 2.3945
-6.5837 3.3631 2.3945
-6.7005 3.1235 2.3945
-6.8090 2.8800 2.3945
-6.9090 2.6330 2.3945
-7.0006 2.3826 2.3945
-7.0836 2.1294 2.3945
-7.1578 1.8731 2.3945
-7.2233 1.6145 2.3945
-7.2799 1.3537 2.3945
-7.3275 1.0910 2.3945
-7.3661 0.8267 2.3945
-7.3957 0.5610 2.3945
-7.4161 0.2944 2.3945
-7.4273 0.0270 2.3945
-7.4294 -0.2408 2.3945
-7.4223 -0.5087 2.3945
-7.4059 -0.7765 2.3945
-7.3803 -1.0437 2.3945
-7.3454 -1.3102 2.3945
-7.3014 -1.5756 2.3945
-7.2481 -1.8395 2.3945
-7.1857 -2.1018 2.3945
-7.1142 -2.3620 2.3945
-7.0336 -2.6200 2.3945
-6.9440 -2.8752 2.3945
-6.8455 -3.1276 2.3945
-6.7381 -3.3767 2.3945
-6.6220 -3.6222 2.3945
-6.4972 -3.8639 2.3945
-6.3639 -4.1014 2.3945
-6.2222 -4.3345 2.3945
-6.0721 -4.5629 2.3945
-5.9140 -4.7861 2.3945
-5.7478 -5.0040 2.3945
-5.5738 -5.2163 2.3945
-5.3922 -5.4226 2.3945
-5.2030 -5.6228 2.3945
-5.0067 -5.8165 2.3945
-4.8033 -6.0034 2.3945
-4.5930 -6.1833 2.3945
-4.3761 -6.3560 2.3945
-4.1528 -6.5211 2.3945
-3.9234 -6.6785 2.3945
-3.6882 -6.8278 2.3945
-3.4473 -6.9689 2.3945
-3.2012 -7.1015 2.3945
-2.9500 -7.2255 2.3945
-2.6940 -7.3405 2.3945
-2.4337 -7.4465 2.3945
-2.1693 -7.5432 2.3945
-1.9011 -7.6304 2.3945
-1.6294 -7.7081 2.3945
-1.3547 -7.7759 2.3945
-1.0772 -7.8339 2.3945
-0.7973 -7.8818 2.3945
-0.5154 -7.9196 2.3945
-0.2319 -7.9471 2.3945
0.0530 -7.9643 2.3945
0.3387 -7.9711 2.3945
0.6248 -7.9674 2.3945
0.9111 -7.9532 2.3945
1.1971 -7.9284 2.3945
1.4824 -7.8931 2.3945
1.7666 -7.8472 2.3945
2.0494 -7.7908 2.3945
2.3302 -7.7239 2.3945
2.6087 -7.6466 2.3945
2.8844 -7.5589 2.3945
3.1571 -7.4608 2.3945
3.4263 -7.3527 2.3945
3.6915 -7.2344 2.3945
3.7125 -6.6748 2.2491
3.9408 -6.5247 2.2421
4.1760 -6.3866 2.2421
4.4061 -6.2397 2.2422
4.6307 -6.0841 2.2422
4.8503 -5.9209 2.2426
5.0642 -5.7501 2.2432
5.2718 -5.5711 2.2438
5.4726 -5.3842 2.2443
5.6664 -5.1898 2.2449
5.8466 -4.9830 2.2430
5.9989 -4.7534 2.2337
6.1477 -4.5234 2.2266
6.2980 -4.2959 2.2232
6.4491 -4.0691 2.2231
6.5957 -3.8387 2.2245
6.7303 -3.6022 2.2247
6.2062 -3.0417 2.0141
6.1627 -2.7519 1.9668
7.0790 -2.8623 2.2253
7.1764 -2.6075 2.2255
7.2642 -2.3493 2.2258
7.3422 -2.0879 2.2260
7.4102 -1.8239 2.2262
7.4683 -1.5575 2.2265
7.5164 -1.2893 2.2267
7.5543 -1.0195 2.2270
7.5820 -0.7485 2.2272
7.5996 -0.4769 2.2275
7.6069 -0.2049 2.2278
7.6041 0.0670 2.2280
7.5911 0.3384 2.2283
7.5679 0.6089 2.2286
7.5347 0.8783 2.2288
7.4914 1.1459 2.2291
7.4383 1.4116 2.2294
7.3753 1.6748 2.2297
7.3026 1.9353 2.2300
7.2204 2.1926 2.2303
7.1288 2.4464 2.2305
7.0279 2.6964 2.2308
6.9179 2.9422 2.2311
6.7990 3.1835 2.2314
5.6888 2.9162 1.9029
6.5355 3.6512 2.2319
6.3912 3.8770 2.2322
6.2389 4.0970 2.2325
6.0789 4.3110 2.2327
5.9113 4.5187 2.2330
5.7364 4.7198 2.2332
5.5546 4.9141 2.2335
5.3644 5.0998 2.2330
5.1725 5.2827 2.2346
4.9880 5.4735 2.2423
4.7875 5.6472 2.2458
4.5725 5.8031 2.2453
4.3525 5.9507 2.2448
4.1276 6.0901 2.2443
3.8983 6.2209 2.2438
3.6649 6.3431 2.2432
3.4277 6.4566 2.2427
3.1872 6.5614 2.2422
2.9441 6.6588 2.2421
2.6981 6.7473 2.2421
2.5574 7.1272 2.3407
0.9348 2.9322 0.9531
0.8289 2.9638 0.9549
0.7219 2.9915 0.9566
0.6140 3.0153 0.9583
0.5053 3.0352 0.9600
-6.0162 3.3011 2.3945
-6.1308 3.0818 2.3945
-6.2378 2.8587 2.3945
-6.3371 2.6320 2.3945
-6.4286 2.4020 2.3945
-6.5121 2.1690 2.3945
-6.5876 1.9333 2.3945
-6.6549 1.6949 2.3945
-6.7141 1.4544 2.3945
-6.7649 1.2118 2.3945
-6.8074 0.9677 2.3945
-6.8415 0.7220 2.3945
-6.8671 0.4752 2.3945
-6.8842 0.2275 2.3945
-6.8928 -0.0208 2.3945
-6.8928 -0.2694 2.3945
-6.8843 -0.5180 2.3945
-6.8671 -0.7664 2.3945
-6.8413 -1.0143 2.3945
-6.8070 -1.2613 2.3945
-6.7641 -1.5072 2.3945
-6.7127 -1.7518 2.3945
-6.6527 -1.9946 2.3945
-6.5843 -2.2355 2.3945
-6.5075 -2.4741 2.3945
-6.4223 -2.7102 2.3945
-6.3289 -2.9435 2.3945
-6.2272 -3.1736 2.3945
-6.1175 -3.4003 2.3945
-5.9998 -3.6234 2.3945
-5.8741 -3.8425 2.3945
-5.7407 -4.0574 2.3945
-5.5997 -4.2677 2.3945
-5.4511 -4.4733 2.3945
-5.2952 -4.6738 2.3945
-5.1321 -4.8690 2.3945
-4.9620 -5.0586 2.3945
-4.7850 -5.2423 2.3945
-4.6013 -5.4200 2.3945
-4.4112 -5.5913 2.3945
-4.2148 -5.7560 2.3945
-4.0124 -5.9139 2.3945
-3.8042 -6.0647 2.3945
-3.5904 -6.2083 2.3945
-3.3712 -6.3443 2.3945
-3.1470 -6.4727 2.3945
-2.9180 -6.5931 2.3945
-2.6844 -6.7055 2.3945
-2.4465 -6.8095 2.3945
-2.2047 -6.9051 2.3945
-1.9592 -6.9921 2.3945
-1.7104 -7.0703 2.3945
-1.4585 -7.1395 2.3945
-1.2038 -7.1997 2.3945
-0.9467 -7.2507 2.3945
-0.6876 -7.2924 2.3945
-0.4267 -7.3246 2.3945
-0.1645 -7.3475 2.3945
0.0988 -7.3607 2.3945
0.3629 -7.3644 2.3945
0.6272 -7.3583 2.3945
0.8915 -7.3426 2.3945
1.1554 -7.3172 2.3945
1.4186 -7.2820 2.3945
1.6806 -7.2371 2.3945
1.9411 -7.1825 2.3945
2.1997 -7.1183 2.3945
2.4561 -7.0444 2.3945
2.7099 -6.9611 2.3945
2.9607 -6.8683 2.3945
3.2081 -6.7661 2.3945
3.4518 -6.6548 2.3945
3.6667 -6.4904 2.3784
3.6768 -5.9972 2.2421
3.8926 -5.8679 2.2421
4.1037 -5.7305 2.2421
4.3096 -5.5852 2.2422
4.5101 -5.4322 2.2422
4.7053 -5.2721 2.2424
4.8951 -5.1055 2.2430
5.0787 -4.9316 2.2435
5.2558 -4.7509 2.2440
5.4260 -4.5634 2.2444
5.5892 -4.3696 2.2449
5.7411 -4.1668 2.2438
5.8695 -3.9480 2.2367
5.9915 -3.7266 2.2305
6.1078 -3.5027 2.2254
6.2257 -3.2806 2.2239
6.3402 -3.0569 2.2243
6.1589 -2.7028 2.1255
6.5460 -2.5981 2.2258
6.6342 -2.3626 2.2260
6.7136 -2.1239 2.2262
6.7839 -1.8825 2.2264
6.8452 -1.6387 2.2266
6.8972 -1.3928 2.2268
6.9400 -1.1452 2.2271
6.9735 -0.8962 2.2273
6.9977 -0.6463 2.2275
7.0124 -0.3957 2.2278
7.0179 -0.1449 2.2280
7.0139 0.1058 2.2283
7.0005 0.3560 2.2285
6.9779 0.6054 2.2288
6.9460 0.8537 2.2290
5.8415 0.9308 1.8859
6.8548 1.3451 2.2295
6.7956 1.5876 2.2298
6.7274 1.8276 2.2301
6.6505 2.0647 2.2303
6.5650 2.2985 2.2306
6.4709 2.5287 2.2308
6.3685 2.7551 2.2311
6.2579 2.9773 2.2314
5.6593 2.9452 2.0571
6.0130 3.4080 2.2319
5.8791 3.6159 2.2321
5.7377 3.8185 2.2324
5.5890 4.0153 2.2325
5.4319 4.2053 2.2320
5.2726 4.3925 2.2334
5.1170 4.5831 2.2393
4.9553 4.7687 2.2457
4.7731 4.9347 2.2456
4.5845 5.0928 2.2452
4.3906 5.2437 2.2447
4.1918 5.3871 2.2443
3.9882 5.5230 2.2438
3.7801 5.6512 2.2433
3.5680 5.7716 2.2428
3.3520 5.8841 2.2423
3.1331 5.9894 2.2421
2.9110 6.0869 2.2421
2.6859 6.1764 2.2421
2.5952 6.6065 2.3670
2.3796 6.7610 2.3945
0.8480 2.7170 0.9525
0.7498 2.7455 0.9541
0.6507 2.7705 0.9557
0.5507 2.7919 0.9573
0.4501 2.8096 0.9588
0.3488 2.8237 0.9604
0.2471 2.8341 0.9619
0.1451 2.8409 0.9633
0.0429 2.8439 0.9648
-0.0594 2.8433 0.9662
-0.1616 2.8390 0.9676
-0.2635 2.8310 0.9689
-0.3652 2.8193 0.9702
-0.4663 2.8039 0.9715
-0.5668 2.7849 0.9728
-0.6665 2.7623 0.9740
-0.7654 2.7361 0.9751
-0.8632 2.7064 0.9762
-2.3521 6.5496 2.3945
-2.5832 6.4529 2.3945
-2.8107 6.3483 2.3945
-3.0341 6.2360 2.3945
-3.2533 6.1162 2.3945
-3.4680 5.9890 2.3945
-3.6780 5.8545 2.3945
-3.8830 5.7130 2.3945
-4.0829 5.5646 2.3945
-4.2774 5.4096 2.3945
-4.4662 5.2480 2.3945
-4.6493 5.0801 2.3945
-4.8264 4.9062 2.3945
-4.9972 4.7263 2.3945
-5.1617 4.5407 2.3945
-5.3197 4.3498 2.3945
-5.4709 4.1535 2.3945
-5.6153 3.9522 2.3945
-5.7526 3.7462 2.3945
-5.8827 3.5356 2.3945
-6.0055 3.3207 2.3945
-6.1208 3.1017 2.3945
-6.2285 2.8789 2.3945
-6.3285 2.6525 2.3945
-6.4207 2.4229 2.3945
-6.5049 2.1901 2.3945
-6.5812 1.9547 2.3945
-6.6492 1.7163 2.3945
-6.7091 1.4763 2.3945
-6.7607 1.2338 2.3945
-6.8040 0.9898 2.3945
-6.8388 0.7442 2.3945
-6.8652 0.4975 2.3945
-6.8830 0.2498 2.3945
-6.8924 0.0016 2.3945
-6.8932 -0.2470 2.3945
-6.8854 -0.4956 2.3945
-6.8690 -0.7441 2.3945
-6.8440 -0.9920 2.3945
-6.8104 -1.2391 2.3945
-6.7683 -1.4851 2.3945
-6.7176 -1.7298 2.3945
-6.6585 -1.9728 2.3945
-6.5908 -2.2139 2.3945
-6.5147 -2.4527 2.3945
-6.4303 -2.6891 2.3945
-6.3376 -2.9226 2.3945
-6.2367 -3.1530 2.3945
-6.1277 -3.3801 2.3945
-6.0107 -3.6035 2.3945
-5.8858 -3.8229 2.3945
-5.7531 -4.0382 2.3945
-5.6127 -4.2490 2.3945
-5.4648 -4.4550 2.3945
-5.3095 -4.6559 2.3945
-5.1471 -4.8516 2.3945
-4.9776 -5.0417 2.3945
-4.8012 -5.2260 2.3945
-4.6181 -5.4042 2.3945
-4.4286 -5.5761 2.3945
-4.2328 -5.7414 2.3945
-4.0309 -5.8999 2.3945
-3.8232 -6.0514 2.3945
-3.6099 -6.1957 2.3945
-3.3912 -6.3324 2.3945
-3.1674 -6.4615 2.3945
-2.9388 -6.5826 2.3945
-2.7056 -6.6957 2.3945
-2.4681 -6.8005 2.3945
-2.2267 -6.8969 2.3945
-1.9815 -6.9846 2.3945
-1.7329 -7.0636 2.3945
-1.4813 -7.1336 2.3945
-1.2269 -7.1946 2.3945
-0.9700 -7.2465 2.3945
-0.7110 -7.2890 2.3945
-0.4503 -7.3221 2.3945
-0.1881 -7.3459 2.3945
0.0751 -7.3600 2.3945
0.3391 -7.3644 2.3945
0.6034 -7.3593 2.3945
0.8677 -7.3444 2.3945
1.1317 -7.3199 2.3945
1.3949 -7.2856 2.3945
1.6570 -7.2415 2.3945
1.9177 -7.1878 2.3945
2.1765 -7.1245 2.3945
2.4331 -7.0515 2.3945
2.6871 -6.9690 2.3945
2.9382 -6.8770 2.3945
3.1860 -6.7757 2.3945
3.4300 -6.6652 2.3945
3.6681 -6.5421 2.3932
3.6624 -6.0172 2.2453
3.8733 -5.8798 2.2421
4.0849 -5.7432 2.2421
4.2913 -5.5986 2.2422
4.4923 -5.4463 2.2422
4.6879 -5.2868 2.2424
4.8783 -5.1208 2.2429
5.0625 -4.9476 2.2434
5.2401 -4.7674 2.2439
5.4110 -4.5806 2.2444
5.5748 -4.3873 2.2449
5.7282 -4.1858 2.2441
5.8587 -3.9680 2.2375
5.9807 -3.7464 2.2310
6.0969 -3.5225 2.2255
6.2150 -3.3005 2.2239
6.3301 -3.0771 2.2242
6.1610 -2.7274 2.1292
6.5376 -2.6191 2.2257
6.6266 -2.3839 2.2259
6.7068 -2.1455 2.2261
6.7780 -1.9044 2.2264
6.8400 -1.6607 2.2266
6.8929 -1.4150 2.2268
6.9366 -1.1675 2.2270
6.9709 -0.9187 2.2273
6.9959 -0.6688 2.2275
7.0115 -0.4183 2.2277
7.0177 -0.1675 2.2280
7.0146 0.0832 2.2282
7.0021 0.3335 2.2285
6.9803 0.5830 2.2287
6.9493 0.8313 2.2290
6.9090 1.0782 2.2293
6.8597 1.3231 2.2295
6.8013 1.5659 2.2298
6.7339 1.8061 2.2300
6.6578 2.0434 2.2303
6.5730 2.2776 2.2306
6.4797 2.5081 2.2308
6.3781 2.7349 2.2311
6.2682 2.9575 2.2313
5.6613 2.9231 2.0541
6.0247 3.3890 2.2318
5.6235 3.4338 2.1306
5.7508 3.8005 2.2323
5.6029 3.9978 2.2326
5.4462 4.1880 2.2320
5.2871 4.3758 2.2333
5.1312 4.5661 2.2388
4.9708 4.7529 2.2454
4.7898 4.9201 2.2456
4.6017 5.0789 2.2452
4.4083 5.2304 2.2448
4.2099 5.3745 2.2443
4.0067 5.5111 2.2438
3.7991 5.6400 2.2434
3.5873 5.7611 2.2429
3.3716 5.8743 2.2424
3.1529 5.9802 2.2421
2.9311 6.0785 2.2421
2.7063 6.1687 2.2421
2.6016 6.5603 2.3531
2.4018 6.7544 2.3945
0.8567 2.7143 0.9524
0.7587 2.7431 0.9540
0.6597 2.7684 0.9556
0.5598 2.7901 0.9572
0.4592 2.8081 0.9587
0.3579 2.8226 0.9602
0.2563 2.8333 0.9617
0.1543 2.8404 0.9632
0.0521 2.8438 0.9647
-0.0502 2.8435 0.9661
-0.1524 2.8395 0.9675
-0.2544 2.8318 0.9688
-0.3560 2.8205 0.9701
-0.4572 2.8055 0.9714
-0.5578 2.7868 0.9726
-0.6576 2.7645 0.9738
-0.7565 2.7386 0.9750
-0.8545 2.7092 0.9761
-2.3311 6.5579 2.3945
-2.5626 6.4619 2.3945
-2.7904 6.3580 2.3945
-3.0142 6.2464 2.3945
-3.2337 6.1273 2.3945
-3.4489 6.0007 2.3945
-3.6593 5.8669 2.3945
-3.8648 5.7261 2.3945
-4.0651 5.5783 2.3945
-4.2601 5.4238 2.3945
-4.4494 5.2628 2.3945
-4.6330 5.0955 2.3945
-4.8107 4.9221 2.3945
-4.9821 4.7427 2.3945
-5.1472 4.5578 2.3945
-5.3057 4.3671 2.3945
-5.4576 4.1714 2.3945
-5.6026 3.9706 2.3945
-5.7405 3.7649 2.3945
-5.8713 3.5547 2.3945
-5.9947 3.3402 2.3945
-6.1107 3.1216 2.3945
-6.2191 2.8991 2.3945
-6.3198 2.6731 2.3945
-6.4127 2.4437 2.3945
-6.4977 2.2112 2.3945
-6.5746 1.9759 2.3945
-6.6434 1.7379 2.3945
-6.7040 1.4979 2.3945
-6.7564 1.2557 2.3945
-6.8004 1.0118 2.3945
-6.8360 0.7663 2.3945
-6.8632 0.5198 2.3945
-6.8818 0.2722 2.3945
-6.8919 0.0240 2.3945
-6.8935 -0.2246 2.3945
-6.8864 -0.4732 2.3945
-6.8708 -0.7217 2.3945
-6.8466 -0.9697 2.3945
-6.8138 -1.2169 2.3945
-6.7725 -1.4630 2.3945
-6.7226 -1.7078 2.3945
-6.6641 -1.9510 2.3945
-6.5972 -2.1923 2.3945
-6.5219 -2.4313 2.3945
-6.4383 -2.6679 2.3945
-6.3463 -2.9017 2.3945
-6.2461 -3.1324 2.3945
-6.1379 -3.3598 2.3945
-6.0216 -3.5835 2.3945
-5.8973 -3.8033 2.3945
-5.7653 -4.0190 2.3945
-5.6256 -4.2302 2.3945
-5.4784 -4.4366 2.3945
-5.3238 -4.6380 2.3945
-5.1620 -4.8342 2.3945
-4.9931 -5.0248 2.3945
-4.8173 -5.2096 2.3945
-4.6349 -5.3884 2.3945
-4.4459 -5.5609 2.3945
-4.2507 -5.7268 2.3945
-4.0493 -5.8860 2.3945
-3.8421 -6.0381 2.3945
-3.6293 -6.1830 2.3945
-3.4111 -6.3204 2.3945
-3.1877 -6.4502 2.3945
-2.9595 -6.5717 2.3945
-2.7268 -6.6858 2.3945
-2.4897 -6.7914 2.3945
-2.2486 -6.8885 2.3945
-2.0037 -6.9771 2.3945
-1.7554 -7.0568 2.3945
-1.5040 -7.1277 2.3945
-1.2499 -7.1895 2.3945
-0.9932 -7.2422 2.3945
-0.7344 -7.2856 2.3945
-0.4738 -7.3195 2.3945
-0.2118 -7.3441 2.3945
0.0514 -7.3591 2.3945
0.3153 -7.3644 2.3945
0.5796 -7.3601 2.3945
0.8439 -7.3462 2.3945
1.1079 -7.3225 2.3945
1.3712 -7.2890 2.3945
1.6335 -7.2459 2.3945
1.8943 -7.1931 2.3945
2.1533 -7.1306 2.3945
2.4101 -7.0585 2.3945
2.6644 -6.9768 2.3945
2.9157 -6.8857 2.3945
3.1638 -6.7852 2.3945
3.4082 -6.6756 2.3945
3.6486 -6.5567 2.3945
3.6565 -6.0505 2.2539
3.8541 -5.8917 2.2421
4.0660 -5.7558 2.2421
4.2729 -5.6119 2.2422
4.4744 -5.4603 2.2422
4.6704 -5.3014 2.2423
4.8614 -5.1360 2.2429
5.0461 -4.9635 2.2434
5.2244 -4.7839 2.2439
5.3959 -4.5977 2.2444
5.5603 -4.4050 2.2448
5.7153 -4.2045 2.2444
5.8478 -3.9885 2.2383
5.9699 -3.7664 2.2315
6.0863 -3.5425 2.2258
6.2047 -3.3208 2.2240
6.2063 -3.0416 2.1841
6.4299 -2.8712 2.2253
6.5291 -2.6401 2.2257
6.6190 -2.4052 2.2259
6.6999 -2.1671 2.2261
6.7719 -1.9262 2.2263
6.8348 -1.6828 2.2266
6.8885 -1.4372 2.2268
6.9330 -1.1899 2.2270
6.9682 -0.9411 2.2272
6.9940 -0.6914 2.2275
7.0105 -0.4409 2.2277
7.0176 -0.1901 2.2280
7.0153 0.0607 2.2282
7.0036 0.3110 2.2285
6.9827 0.5606 2.2287
6.9525 0.8090 2.2290
6.9130 1.0560 2.2292
6.8645 1.3012 2.2295
6.8069 1.5441 2.2298
6.7404 1.7846 2.2300
6.6650 2.0222 2.2303
6.5810 2.2566 2.2305
6.4885 2.4875 2.2308
6.3876 2.7146 2.2311
6.2785 2.9376 2.2313
6.1613 3.1561 2.2316
6.0364 3.3700 2.2318
5.6256 3.4102 2.1269
5.7637 3.7824 2.2323
5.6166 3.9799 2.2325
5.4604 4.1712 2.2320
5.3015 4.3591 2.2331
5.1454 4.5490 2.2382
4.9862 4.7370 2.2451
4.8064 4.9055 2.2457
4.6189 5.0649 2.2452
4.4260 5.2170 2.2448
4.2280 5.3618 2.2443
4.0252 5.4991 2.2439
3.8179 5.6287 2.2434
3.6065 5.7505 2.2429
3.3912 5.8644 2.2424
3.1727 5.9709 2.2421
2.9512 6.0699 2.2421
2.7267 6.1609 2.2421
2.6079 6.5147 2.3394
2.4240 6.7476 2.3945
0.8655 2.7115 0.9522
0.7676 2.7407 0.9538
0.6686 2.7663 0.9554
0.5688 2.7883 0.9570
0.4683 2.8067 0.9586
-5.6069 3.0767 2.3945
-5.7138 2.8722 2.3945
-5.8136 2.6642 2.3945
-5.9061 2.4529 2.3945
-5.9914 2.2385 2.3945
-6.0692 2.0212 2.3945
-6.1395 1.8013 2.3945
-6.2021 1.5791 2.3945
-6.2571 1.3549 2.3945
-6.3044 1.1288 2.3945
-6.3438 0.9010 2.3945
-6.3754 0.6720 2.3945
-6.3990 0.4419 2.3945
-6.4148 0.2111 2.3945
-6.4225 -0.0204 2.3945
-6.4222 -0.2521 2.3945
-6.4139 -0.4838 2.3945
-6.3975 -0.7153 2.3945
-6.3732 -0.9462 2.3945
-6.3408 -1.1764 2.3945
-6.3004 -1.4054 2.3945
-6.2521 -1.6332 2.3945
-6.1958 -1.8593 2.3945
-6.1316 -2.0836 2.3945
-6.0596 -2.3057 2.3945
-5.9798 -2.5254 2.3945
-5.8923 -2.7425 2.3945
-5.7971 -2.9566 2.3945
-5.6945 -3.1675 2.3945
-5.5843 -3.3749 2.3945
-5.4668 -3.5786 2.3945
-5.3421 -3.7783 2.3945
-5.2103 -3.9737 2.3945
-5.0716 -4.1647 2.3945
-4.9259 -4.3509 2.3945
-4.7737 -4.5321 2.3945
-4.6149 -4.7080 2.3945
-4.4497 -4.8785 2.3945
-4.2784 -5.0432 2.3945
-4.1011 -5.2021 2.3945
-3.9180 -5.3547 2.3945
-3.7293 -5.5010 2.3945
-3.5352 -5.6406 2.3945
-3.3360 -5.7735 2.3945
-3.1319 -5.8993 2.3945
-2.9231 -6.0180 2.3945
-2.7099 -6.1293 2.3945
-2.4925 -6.2330 2.3945
-2.2712 -6.3290 2.3945
-2.0463 -6.4171 2.3945
-1.8180 -6.4971 2.3945
-1.5866 -6.5690 2.3945
-1.3524 -6.6326 2.3945
-1.1157 -6.6878 2.3945
-0.8769 -6.7344 2.3945
-0.6362 -6.7724 2.3945
-0.3939 -6.8017 2.3945
-0.1504 -6.8221 2.3945
0.0941 -6.8335 2.3945
0.3391 -6.8363 2.3945
0.5844 -6.8300 2.3945
0.8296 -6.8147 2.3945
1.0744 -6.7904 2.3945
1.3184 -6.7571 2.3945
1.5614 -6.7148 2.3945
1.8029 -6.6636 2.3945
2.0426 -6.6034 2.3945
2.2802 -6.5343 2.3945
2.5154 -6.4565 2.3945
2.7477 -6.3699 2.3945
2.9769 -6.2747 2.3945
3.2027 -6.1710 2.3945
3.4246 -6.0588 2.3945
3.6182 -5.8989 2.3785
3.6157 -5.4482 2.2454
3.8057 -5.3124 2.2421
3.9964 -5.1775 2.2421
4.1820 -5.0354 2.2422
4.3623 -4.8864 2.2422
4.5370 -4.7307 2.2422
4.7067 -4.5693 2.2426
4.8705 -4.4016 2.2431
5.0279 -4.2278 2.2435
5.1788 -4.0481 2.2440
5.3229 -3.8627 2.2444
5.4600 -3.6720 2.2448
5.5898 -3.4762 2.2452
5.7062 -3.2721 2.2431
5.8024 -3.0574 2.2364
5.8954 -2.8422 2.2315
5.9813 -2.6250 2.2272
6.0663 -2.4080 2.2255
6.1464 -2.1889 2.2251
6.2205 -1.9683 2.2255
6.2878 -1.7448 2.2264
6.3453 -1.5195 2.2269
6.3937 -1.2917 2.2271
6.4335 -1.0623 2.2273
6.4647 -0.8316 2.2275
6.4873 -0.6000 2.2277
6.5012 -0.3678 2.2280
6.5065 -0.1353 2.2282
5.9150 0.0883 2.0269
6.4911 0.3290 2.2287
6.4704 0.5602 2.2289
6.4412 0.7903 2.2291
6.4035 1.0191 2.2294
6.3574 1.2461 2.2296
6.3029 1.4710 2.2299
6.2401 1.6936 2.2301
6.1693 1.9136 2.2303
6.0904 2.1305 2.2306
6.0036 2.3442 2.2308
5.9091 2.5544 2.2311
5.8070 2.7607 2.2313
5.6595 2.9432 2.2166
5.5787 3.1596 2.2309
5.4556 3.3531 2.2314
5.3301 3.5448 2.2338
5.2033 3.7357 2.2386
5.0724 3.9242 2.2446
4.9235 4.0989 2.2457
4.7655 4.2652 2.2454
4.6017 4.4254 2.2450
4.4324 4.5793 2.2446
4.2579 4.7266 2.2442
4.0785 4.8673 2.2438
3.8943 5.0011 2.2434
3.7058 5.1280 2.2430
3.5130 5.2477 2.2425
3.3166 5.3604 2.2422
3.1170 5.4666 2.2421
2.9140 5.5655 2.2421
2.7083 5.6577 2.2424
2.6395 6.0635 2.3681
2.4431 6.2124 2.3945
0.8789 2.4943 0.9502
0.7888 2.5241 0.9517
0.6976 2.5505 0.9532
0.6055 2.5737 0.9547
0.5126 2.5935 0.9561
0.4191 2.6100 0.9576
0.3250 2.6231 0.9590
0.2305 2.6328 0.9604
0.1357 2.6390 0.9618
0.0407 2.6419 0.9631
-0.0543 2.6413 0.9644
-0.1492 2.6373 0.9657
-0.2440 2.6298 0.9670
-0.3384 2.6189 0.9682
-0.4323 2.6047 0.9694
-0.5257 2.5870 0.9705
-0.6184 2.5660 0.9716
-0.7102 2.5417 0.9727
-0.8011 2.5140 0.9737
-0.8910 2.4831 0.9747
-2.4044 6.0105 2.3945
-2.6164 5.9135 2.3945
-2.8248 5.8093 2.3945
-3.0292 5.6980 2.3945
-3.2295 5.5798 2.3945
-3.4253 5.4548 2.3945
-3.6166 5.3233 2.3945
-3.8031 5.1853 2.3945
-3.9845 5.0410 2.3945
-4.1608 4.8906 2.3945
-4.3316 4.7343 2.3945
-4.4968 4.5724 2.3945
-4.6562 4.4049 2.3945
-4.8098 4.2321 2.3945
-4.9571 4.0541 2.3945
-5.0982 3.8713 2.3945
-5.2329 3.6836 2.3945
-5.3610 3.4916 2.3945
-5.4824 3.2953 2.3945
-5.5969 3.0950 2.3945
-5.7044 2.8908 2.3945
-5.8049 2.6831 2.3945
-5.8981 2.4720 2.3945
-5.9840 2.2579 2.3945
-6.0625 2.0408 2.3945
-6.1334 1.8213 2.3945
-6.1968 1.5992 2.3945
-6.2525 1.3751 2.3945
-6.3005 1.1492 2.3945
-6.3406 0.9217 2.3945
-6.3729 0.6928 2.3945
-6.3973 0.4628 2.3945
-6.4137 0.2319 2.3945
-6.4221 0.0005 2.3945
-6.4225 -0.2312 2.3945
-6.4150 -0.4630 2.3945
-6.3993 -0.6944 2.3945
-6.3757 -0.9254 2.3945
-6.3440 -1.1557 2.3945
-6.3044 -1.3848 2.3945
-6.2568 -1.6127 2.3945
-6.2012 -1.8390 2.3945
-6.1377 -2.0635 2.3945
-6.0664 -2.2858 2.3945
-5.9873 -2.5057 2.3945
-5.9005 -2.7230 2.3945
-5.8060 -2.9374 2.3945
-5.7040 -3.1486 2.3945
-5.5945 -3.3563 2.3945
-5.4777 -3.5604 2.3945
-5.3537 -3.7605 2.3945
-5.2225 -3.9563 2.3945
-5.0843 -4.1477 2.3945
-4.9393 -4.3343 2.3945
-4.7877 -4.5159 2.3945
-4.6294 -4.6924 2.3945
-4.4648 -4.8634 2.3945
-4.2941 -5.0286 2.3945
-4.1173 -5.1880 2.3945
-3.9347 -5.3412 2.3945
-3.7465 -5.4881 2.3945
-3.5529 -5.6283 2.3945
-3.3542 -5.7618 2.3945
-3.1505 -5.8883 2.3945
-2.9421 -6.0076 2.3945
-2.7293 -6.1196 2.3945
-2.5123 -6.2239 2.3945
-2.2913 -6.3206 2.3945
-2.0667 -6.4095 2.3945
-1.8387 -6.4903 2.3945
-1.6075 -6.5629 2.3945
-1.3736 -6.6272 2.3945
-1.1372 -6.6831 2.3945
-0.8985 -6.7305 2.3945
-0.6579 -6.7693 2.3945
-0.4158 -6.7994 2.3945
-0.1723 -6.8205 2.3945
0.0720 -6.8329 2.3945
0.3170 -6.8364 2.3945
0.5623 -6.8309 2.3945
0.8075 -6.8164 2.3945
1.0524 -6.7930 2.3945
1.2965 -6.7605 2.3945
1.5395 -6.7190 2.3945
1.7812 -6.6685 2.3945
2.0211 -6.6092 2.3945
2.2589 -6.5409 2.3945
2.4943 -6.4639 2.3945
2.7269 -6.3782 2.3945
2.9564 -6.2836 2.3945
3.1825 -6.1806 2.3945
3.4048 -6.0693 2.3945
3.6193 -5.9436 2.3921
3.6104 -5.4786 2.2532
3.7883 -5.3242 2.2421
3.9794 -5.1899 2.2421
4.1655 -5.0485 2.2422
4.3463 -4.9001 2.2422
4.5215 -4.7450 2.2422
4.6917 -4.5840 2.2426
4.8560 -4.4169 2.2431
5.0140 -4.2437 2.2435
5.1655 -4.0645 2.2439
5.3102 -3.8796 2.2443
5.4479 -3.6894 2.2447
5.5784 -3.4941 2.2451
5.6961 -3.2905 2.2434
5.7939 -3.0769 2.2369
5.8873 -2.8618 2.2319
5.9739 -2.6448 2.2275
6.0589 -2.4278 2.2256
6.1394 -2.2086 2.2251
6.2141 -1.9882 2.2254
6.2821 -1.7651 2.2264
6.3406 -1.5400 2.2269
6.3897 -1.3123 2.2271
6.4303 -1.0830 2.2273
6.4623 -0.8524 2.2275
6.4856 -0.6208 2.2277
6.5004 -0.3887 2.2280
6.5064 -0.1563 2.2282
5.9166 0.0693 2.0272
6.4925 0.3081 2.2286
6.4726 0.5394 2.2289
6.4442 0.7696 2.2291
6.4072 0.9985 2.2294
6.3619 1.2257 2.2296
5.8062 1.3354 2.0524
6.2461 1.6737 2.2301
6.1760 1.8939 2.2303
6.0978 2.1111 2.2306
6.0118 2.3251 2.2308
5.9179 2.5356 2.2310
5.8165 2.7423 2.2313
5.6615 2.9210 2.2134
5.5895 3.1418 2.2309
5.4668 3.3356 2.2313
5.3412 3.5274 2.2334
5.2149 3.7187 2.2381
5.0852 3.9080 2.2444
4.9374 4.0836 2.2457
4.7799 4.2505 2.2454
4.6167 4.4113 2.2450
4.4479 4.5657 2.2447
4.2739 4.7136 2.2443
4.0948 4.8549 2.2439
3.9111 4.9894 2.2434
3.7229 5.1168 2.2430
3.5305 5.2372 2.2426
3.3344 5.3505 2.2422
3.1351 5.4574 2.2421
2.9324 5.5569 2.2421
2.7266 5.6490 2.2421
2.6452 6.0233 2.3554
2.4635 6.2054 2.3945
0.8870 2.4915 0.9501
0.7969 2.5215 0.9516
0.7058 2.5483 0.9531
0.6138 2.5718 0.9546
0.5210 2.5919 0.9560
0.4275 2.6087 0.9575
0.3335 2.6221 0.9589
0.2390 2.6320 0.9603
0.1442 2.6386 0.9616
0.0493 2.6418 0.9630
-0.0457 2.6415 0.9643
-0.1407 2.6378 0.9656
-0.2354 2.6306 0.9668
-0.3299 2.6201 0.9681
-0.4239 2.6061 0.9693
-0.5173 2.5888 0.9704
-0.6100 2.5681 0.9715
-0.7020 2.5440 0.9726
-0.7930 2.5167 0.9736
-0.8829 2.4861 0.9746
-2.3851 6.0189 2.3945
-2.5975 5.9225 2.3945
-2.8062 5.8190 2.3945
-3.0110 5.7083 2.3945
-3.2116 5.5907 2.3945
-3.4079 5.4664 2.3945
-3.5996 5.3354 2.3945
-3.7865 5.1979 2.3945
-3.9684 5.0542 2.3945
-4.1451 4.9044 2.3945
-4.3164 4.7487 2.3945
-4.4821 4.5871 2.3945
-4.6421 4.4202 2.3945
-4.7962 4.2478 2.3945
-4.9441 4.0703 2.3945
-5.0858 3.8876 2.3945
-5.2210 3.7006 2.3945
-5.3497 3.5091 2.3945
-5.4717 3.3131 2.3945
-5.5869 3.1132 2.3945
-5.6950 2.9094 2.3945
-5.7961 2.7019 2.3945
-5.8900 2.4912 2.3945
-5.9766 2.2773 2.3945
-6.0557 2.0605 2.3945
-6.1274 1.8411 2.3945
-6.1914 1.6193 2.3945
-6.2478 1.3954 2.3945
-6.2965 1.1696 2.3945
-6.3373 0.9424 2.3945
-6.3702 0.7132 2.3945
-6.3954 0.4834 2.3945
-6.4125 0.2527 2.3945
-6.4217 0.0213 2.3945
-6.4228 -0.2104 2.3945
-6.4160 -0.4421 2.3945
-6.4011 -0.6736 2.3945
-6.3782 -0.9047 2.3945
-6.3472 -1.1350 2.3945
-6.3083 -1.3643 2.3945
-6.2614 -1.5923 2.3945
-6.2065 -1.8187 2.3945
-6.1438 -2.0433 2.3945
-6.0731 -2.2659 2.3945
-5.9947 -2.4860 2.3945
-5.9086 -2.7036 2.3945
-5.8148 -2.9182 2.3945
-5.7135 -3.1297 2.3945
-5.6047 -3.3378 2.3945
-5.4885 -3.5422 2.3945
-5.3651 -3.7426 2.3945
-5.2346 -3.9388 2.3945
-5.0971 -4.1306 2.3945
-4.9527 -4.3177 2.3945
-4.8016 -4.4998 2.3945
-4.6439 -4.6767 2.3945
-4.4799 -4.8482 2.3945
-4.3097 -5.0140 2.3945
-4.1335 -5.1739 2.3945
-3.9514 -5.3277 2.3945
-3.7637 -5.4751 2.3945
-3.5706 -5.6160 2.3945
-3.3723 -5.7501 2.3945
-3.1691 -5.8772 2.3945
-2.9611 -5.9972 2.3945
-2.7487 -6.1098 2.3945
-2.5320 -6.2148 2.3945
-2.3114 -6.3123 2.3945
-2.0871 -6.4018 2.3945
-1.8593 -6.4833 2.3945
-1.6285 -6.5567 2.3945
-1.3948 -6.6218 2.3945
-1.1586 -6.6785 2.3945
-0.9201 -6.7266 2.3945
-0.6797 -6.7662 2.3945
-0.4376 -6.7969 2.3945
-0.1943 -6.8190 2.3945
0.0500 -6.8321 2.3945
0.2949 -6.8365 2.3945
0.5402 -6.8318 2.3945
0.7854 -6.8181 2.3945
1.0303 -6.7954 2.3945
1.2745 -6.7638 2.3945
1.5177 -6.7231 2.3945
1.7595 -6.6735 2.3945
1.9996 -6.6149 2.3945
2.2376 -6.5474 2.3945
2.4732 -6.4712 2.3945
2.7060 -6.3860 2.3945
2.9359 -6.2925 2.3945
3.1623 -6.1903 2.3945
3.3849 -6.0797 2.3945
3.6035 -5.9607 2.3945
3.6080 -5.5130 2.2630
3.7709 -5.3360 2.2421
3.9624 -5.2023 2.2421
4.1490 -5.0615 2.2422
4.3302 -4.9137 2.2422
4.5060 -4.7593 2.2422
4.6766 -4.5988 2.2426
4.8414 -4.4322 2.2430
5.0000 -4.2595 2.2435
5.1521 -4.0809 2.2439
5.2974 -3.8965 2.2443
5.4358 -3.7068 2.2447
5.5670 -3.5119 2.2451
5.6861 -3.3097 2.2436
5.7856 -3.0964 2.2375
5.8792 -2.8813 2.2324
5.9664 -2.6645 2.2279
6.0514 -2.4473 2.2257
6.1322 -2.2283 2.2251
6.2075 -2.0082 2.2253
6.2763 -1.7856 2.2263
6.3357 -1.5604 2.2269
6.3856 -1.3329 2.2271
6.4270 -1.1037 2.2273
6.4598 -0.8732 2.2275
6.4839 -0.6417 2.2277
6.4994 -0.4096 2.2279
6.5062 -0.1772 2.2282
6.5044 0.0552 2.2284
6.4939 0.2873 2.2286
6.4748 0.5186 2.2289
6.4471 0.7490 2.2291
6.4109 0.9780 2.2293
6.3663 1.2053 2.2296
5.8078 1.3161 2.0513
6.2520 1.6537 2.2300
6.1826 1.8742 2.2303
6.1052 2.0917 2.2305
6.0198 2.3060 2.2308
5.9267 2.5168 2.2310
5.8260 2.7239 2.2312
5.7174 2.9266 2.2313
5.6003 3.1242 2.2309
5.4778 3.3183 2.2311
5.3523 3.5099 2.2330
5.2265 3.7015 2.2376
5.0971 3.8911 2.2438
4.9513 4.0683 2.2458
4.7944 4.2357 2.2454
4.6316 4.3970 2.2451
4.4633 4.5521 2.2447
4.2897 4.7006 2.2443
4.1112 4.8424 2.2439
3.9278 4.9775 2.2435
3.7400 5.1056 2.2430
3.5480 5.2267 2.2426
3.3522 5.3405 2.2422
3.1532 5.4481 2.2421
2.9508 5.5482 2.2421
2.7453 5.6409 2.2421
2.6508 5.9835 2.3428
2.4839 6.1983 2.3945
0.8951 2.4886 0.9499
0.8051 2.5190 0.9515
0.7141 2.5460 0.9529
0.6221 2.5698 0.9544
0.5294 2.5902 0.9559
0.4360 2.6073 0.9573
-5.2440 2.8777 2.3945
-5.3441 2.6865 2.3945
-5.4375 2.4918 2.3945
-5.5241 2.2941 2.3945
-5.6038 2.0934 2.3945
-5.6765 1.8901 2.3945
-5.7422 1.6844 2.3945
-5.8008 1.4765 2.3945
-5.8521 1.2667 2.3945
-5.8962 1.0551 2.3945
-5.9329 0.8420 2.3945
-5.9623 0.6277 2.3945
-5.9842 0.4125 2.3945
-5.9987 0.1965 2.3945
-6.0057 -0.0200 2.3945
-6.0052 -0.2368 2.3945
-5.9972 -0.4535 2.3945
-5.9816 -0.6700 2.3945
-5.9585 -0.8859 2.3945
-5.9279 -1.1011 2.3945
-5.8898 -1.3153 2.3945
-5.8443 -1.5282 2.3945
-5.7913 -1.7395 2.3945
-5.7309 -1.9491 2.3945
-5.6632 -2.1567 2.3945
-5.5882 -2.3619 2.3945
-5.5060 -2.5646 2.3945
-5.4167 -2.7646 2.3945
-5.3203 -2.9615 2.3945
-5.2169 -3.1551 2.3945
-5.1067 -3.3452 2.3945
-4.9898 -3.5315 2.3945
-4.8662 -3.7139 2.3945
-4.7361 -3.8919 2.3945
-4.5997 -4.0656 2.3945
-4.4570 -4.2344 2.3945
-4.3083 -4.3984 2.3945
-4.1536 -4.5572 2.3945
-3.9933 -4.7107 2.3945
-3.8273 -4.8585 2.3945
-3.6560 -5.0006 2.3945
-3.4795 -5.1366 2.3945
-3.2980 -5.2665 2.3945
-3.1117 -5.3900 2.3945
-2.9209 -5.5069 2.3945
-2.7258 -5.6171 2.3945
-2.5266 -5.7204 2.3945
-2.3235 -5.8166 2.3945
-2.1168 -5.9056 2.3945
-1.9067 -5.9872 2.3945
-1.6936 -6.0612 2.3945
-1.4776 -6.1277 2.3945
-1.2590 -6.1864 2.3945
-1.0382 -6.2372 2.3945
-0.8154 -6.2801 2.3945
-0.5909 -6.3148 2.3945
-0.3650 -6.3416 2.3945
-0.1380 -6.3600 2.3945
0.0899 -6.3702 2.3945
0.3182 -6.3721 2.3945
0.5468 -6.3656 2.3945
0.7752 -6.3508 2.3945
1.0032 -6.3276 2.3945
1.2305 -6.2961 2.3945
1.4567 -6.2562 2.3945
1.6815 -6.2079 2.3945
1.9047 -6.1514 2.3945
2.1258 -6.0866 2.3945
2.3446 -6.0136 2.3945
2.5608 -5.9326 2.3945
2.7741 -5.8435 2.3945
2.9841 -5.7466 2.3945
3.1905 -5.6418 2.3945
3.3931 -5.5294 2.3945
3.5751 -5.3847 2.3835
3.5665 -4.9765 2.2559
3.7218 -4.8200 2.2421
3.8944 -4.6875 2.2421
4.0620 -4.5487 2.2422
4.2245 -4.4035 2.2422
4.3815 -4.2525 2.2422
4.5330 -4.0957 2.2423
4.6793 -3.9339 2.2428
4.8194 -3.7665 2.2432
4.9533 -3.5940 2.2435
5.0807 -3.4165 2.2439
5.2013 -3.2343 2.2443
5.3151 -3.0476 2.2446
5.4218 -2.8567 2.2449
5.5213 -2.6620 2.2452
5.6092 -2.4619 2.2438
5.6823 -2.2557 2.2396
5.7471 -2.0472 2.2352
5.8068 -1.8378 2.2319
5.8595 -1.6268 2.2289
5.9076 -1.4151 2.2272
5.9504 -1.2026 2.2266
5.9866 -0.9891 2.2264
6.0159 -0.7745 2.2267
6.0372 -0.5591 2.2269
6.0512 -0.3431 2.2274
6.0569 -0.1264 2.2279
6.0546 0.0893 2.2283
6.0439 0.3052 2.2286
6.0251 0.5205 2.2289
5.9982 0.7348 2.2291
5.9632 0.9480 2.2293
5.9203 1.1590 2.2294
5.8694 1.3684 2.2294
5.8107 1.5755 2.2294
5.7446 1.7801 2.2294
5.6715 1.9822 2.2296
5.5916 2.1817 2.2301
5.5060 2.3784 2.2311
5.4164 2.5731 2.2334
5.3222 2.7656 2.2368
5.2226 2.9557 2.2409
5.1161 3.1422 2.2450
4.9951 3.3196 2.2457
4.8657 3.4909 2.2454
4.7304 3.6571 2.2451
4.5892 3.8179 2.2448
4.4424 3.9733 2.2445
4.2902 4.1230 2.2441
4.1330 4.2669 2.2438
3.9708 4.4046 2.2434
3.8039 4.5363 2.2430
3.6327 4.6615 2.2427
3.4573 4.7803 2.2422
3.2784 4.8932 2.2422
3.0959 4.9996 2.2421
2.9100 5.0992 2.2421
2.7340 5.2167 2.2528
2.6775 5.5878 2.3738
2.4929 5.7207 2.3945
0.9038 2.2957 0.9482
0.8207 2.3264 0.9496
0.7366 2.3541 0.9510
0.6516 2.3788 0.9524
0.5656 2.4004 0.9538
0.4790 2.4189 0.9551
0.3917 2.4342 0.9565
0.3040 2.4464 0.9578
0.2158 2.4554 0.9591
0.1274 2.4613 0.9604
0.0388 2.4639 0.9616
-0.0498 2.4633 0.9629
-0.1384 2.4596 0.9641
-0.2267 2.4526 0.9652
-0.3148 2.4425 0.9664
-0.4024 2.4292 0.9675
-0.4895 2.4127 0.9685
-0.5759 2.3931 0.9696
-0.6616 2.3704 0.9706
-0.7464 2.3447 0.9715
-0.8303 2.3158 0.9724
-2.2460 5.6189 2.3945
-2.4445 5.5285 2.3945
-2.6394 5.4314 2.3945
-2.8308 5.3277 2.3945
-3.0182 5.2174 2.3945
-3.2016 5.1008 2.3945
-3.3806 4.9780 2.3945
-3.5552 4.8491 2.3945
-3.7251 4.7144 2.3945
-3.8901 4.5739 2.3945
-4.0500 4.4279 2.3945
-4.2047 4.2765 2.3945
-4.3540 4.1199 2.3945
-4.4978 3.9584 2.3945
-4.6357 3.7920 2.3945
-4.7679 3.6210 2.3945
-4.8940 3.4455 2.3945
-5.0139 3.2659 2.3945
-5.1275 3.0823 2.3945
-5.2347 2.8947 2.3945
-5.3353 2.7038 2.3945
-5.4293 2.5095 2.3945
-5.5165 2.3120 2.3945
-5.5969 2.1116 2.3945
-5.6703 1.9085 2.3945
-5.7366 1.7030 2.3945
-5.7958 1.4953 2.3945
-5.8478 1.2856 2.3945
-5.8925 1.0742 2.3945
-5.9299 0.8612 2.3945
-5.9600 0.6471 2.3945
-5.9826 0.4319 2.3945
-5.9977 0.2159 2.3945
-6.0054 -0.0005 2.3945
-6.0056 -0.2173 2.3945
-5.9982 -0.4340 2.3945
-5.9833 -0.6505 2.3945
-5.9609 -0.8665 2.3945
-5.9310 -1.0818 2.3945
-5.8936 -1.2960 2.3945
-5.8487 -1.5091 2.3945
-5.7964 -1.7206 2.3945
-5.7366 -1.9303 2.3945
-5.6696 -2.1381 2.3945
-5.5953 -2.3435 2.3945
-5.5137 -2.5465 2.3945
-5.4250 -2.7467 2.3945
-5.3292 -2.9439 2.3945
-5.2265 -3.1378 2.3945
-5.1169 -3.3282 2.3945
-5.0006 -3.5149 2.3945
-4.8776 -3.6976 2.3945
-4.7481 -3.8761 2.3945
-4.6122 -4.0501 2.3945
-4.4701 -4.2194 2.3945
-4.3219 -4.3839 2.3945
-4.1678 -4.5431 2.3945
-4.0079 -4.6971 2.3945
-3.8425 -4.8454 2.3945
-3.6716 -4.9880 2.3945
-3.4956 -5.1246 2.3945
-3.3145 -5.2551 2.3945
-3.1287 -5.3791 2.3945
-2.9383 -5.4967 2.3945
-2.7435 -5.6075 2.3945
-2.5447 -5.7114 2.3945
-2.3419 -5.8082 2.3945
-2.1355 -5.8979 2.3945
-1.9258 -5.9801 2.3945
-1.7129 -6.0549 2.3945
-1.4971 -6.1220 2.3945
-1.2788 -6.1814 2.3945
-1.0582 -6.2330 2.3945
-0.8356 -6.2765 2.3945
-0.6112 -6.3121 2.3945
-0.3854 -6.3395 2.3945
-0.1585 -6.3587 2.3945
0.0693 -6.3696 2.3945
0.2976 -6.3723 2.3945
0.5262 -6.3666 2.3945
0.7546 -6.3525 2.3945
0.9827 -6.3301 2.3945
1.2100 -6.2993 2.3945
1.4364 -6.2601 2.3945
1.6613 -6.2126 2.3945
1.8847 -6.1568 2.3945
2.1060 -6.0928 2.3945
2.3250 -6.0205 2.3945
2.5415 -5.9402 2.3945
2.7550 -5.8519 2.3945
2.9653 -5.7556 2.3945
3.1721 -5.6516 2.3945
3.3750 -5.5398 2.3945
3.5738 -5.4206 2.3945
3.5662 -5.0100 2.2661
3.7060 -4.8316 2.2421
3.8790 -4.6997 2.2421
4.0471 -4.5614 2.2422
4.2101 -4.4169 2.2422
4.3676 -4.2663 2.2422
4.5196 -4.1100 2.2423
4.6664 -3.9487 2.2427
4.8071 -3.7818 2.2431
4.9415 -3.6098 2.2435
5.0695 -3.4327 2.2439
5.1907 -3.2509 2.2442
5.3051 -3.0646 2.2446
5.4125 -2.8741 2.2449
5.5127 -2.6797 2.2452
5.6017 -2.4802 2.2440
5.6763 -2.2747 2.2400
5.7414 -2.0659 2.2355
5.8018 -1.8569 2.2322
5.8551 -1.6457 2.2292
5.9033 -1.4343 2.2273
5.9469 -1.2219 2.2266
5.9835 -1.0081 2.2264
6.0136 -0.7938 2.2266
6.0356 -0.5785 2.2269
6.0503 -0.3626 2.2274
6.0568 -0.1463 2.2279
6.0551 0.0702 2.2283
6.0452 0.2860 2.2286
6.0271 0.5015 2.2289
6.0010 0.7158 2.2291
5.9667 0.9286 2.2293
5.9245 1.1400 2.2294
5.8743 1.3496 2.2294
5.8163 1.5570 2.2294
5.7508 1.7619 2.2294
5.6784 1.9641 2.2296
5.5990 2.1637 2.2300
5.5140 2.3607 2.2310
5.4246 2.5556 2.2331
5.3309 2.7484 2.2365
5.2316 2.9386 2.2404
5.1264 3.1258 2.2448
5.0064 3.3040 2.2457
4.8776 3.4757 2.2454
4.7428 3.6423 2.2451
4.6021 3.8037 2.2448
4.4558 3.9596 2.2445
4.3042 4.1098 2.2442
4.1473 4.2541 2.2438
3.9856 4.3925 2.2435
3.8191 4.5247 2.2431
3.6483 4.6505 2.2427
3.4732 4.7699 2.2423
3.2946 4.8833 2.2422
3.1125 4.9903 2.2421
2.9269 5.0905 2.2421
2.7429 5.1927 2.2460
2.6825 5.5524 2.3620
2.5117 5.7134 2.3945
0.9112 2.2927 0.9481
0.8283 2.3237 0.9495
0.7442 2.3517 0.9509
0.6593 2.3767 0.9523
0.5734 2.3986 0.9537
0.4868 2.4173 0.9550
0.3996 2.4330 0.9564
0.3119 2.4455 0.9577
0.2238 2.4548 0.9590
0.1354 2.4609 0.9603
0.0468 2.4638 0.9615
-0.0418 2.4635 0.9627
-0.1304 2.4601 0.9639
-0.2188 2.4534 0.9651
-0.3069 2.4435 0.9663
-0.3945 2.4305 0.9674
-0.4817 2.4143 0.9684
-0.5682 2.3950 0.9695
-0.6539 2.3726 0.9705
-0.7388 2.3471 0.9714
-0.8227 2.3186 0.9724
-2.2280 5.6267 2.3945
-2.4267 5.5370 2.3945
-2.6220 5.4405 2.3945
-2.8137 5.3373 2.3945
-3.0015 5.2276 2.3945
-3.1852 5.1116 2.3945
-3.3647 4.9893 2.3945
-3.5397 4.8610 2.3945
-3.7100 4.7268 2.3945
-3.8754 4.5868 2.3945
-4.0358 4.4413 2.3945
-4.1910 4.2904 2.3945
-4.3408 4.1342 2.3945
-4.4850 3.9731 2.3945
-4.6236 3.8071 2.3945
-4.7562 3.6366 2.3945
-4.8829 3.4616 2.3945
-5.0033 3.2822 2.3945
-5.1175 3.0990 2.3945
-5.2253 2.9119 2.3945
-5.3265 2.7212 2.3945
-5.4211 2.5271 2.3945
-5.5090 2.3299 2.3945
-5.5899 2.1298 2.3945
-5.6639 1.9270 2.3945
-5.7309 1.7216 2.3945
-5.7907 1.5141 2.3945
-5.8434 1.3046 2.3945
-5.8888 1.0933 2.3945
-5.9269 0.8805 2.3945
-5.9576 0.6664 2.3945
-5.9808 0.4513 2.3945
-5.9967 0.2354 2.3945
-6.0050 0.0190 2.3945
-6.0058 -0.1977 2.3945
-5.9992 -0.4145 2.3945
-5.9850 -0.6310 2.3945
-5.9632 -0.8471 2.3945
-5.9340 -1.0624 2.3945
-5.8972 -1.2768 2.3945
-5.8530 -1.4899 2.3945
-5.8014 -1.7016 2.3945
-5.7423 -1.9115 2.3945
-5.6759 -2.1194 2.3945
-5.6022 -2.3251 2.3945
-5.5213 -2.5283 2.3945
-5.4333 -2.7288 2.3945
-5.3382 -2.9263 2.3945
-5.2361 -3.1205 2.3945
-5.1271 -3.3112 2.3945
-5.0113 -3.4983 2.3945
-4.8890 -3.6813 2.3945
-4.7600 -3.8602 2.3945
-4.6247 -4.0346 2.3945
-4.4832 -4.2044 2.3945
-4.3355 -4.3693 2.3945
-4.1819 -4.5290 2.3945
-4.0226 -4.6834 2.3945
-3.8576 -4.8323 2.3945
-3.6872 -4.9754 2.3945
-3.5116 -5.1126 2.3945
-3.3310 -5.2436 2.3945
-3.1456 -5.3682 2.3945
-2.9556 -5.4864 2.3945
-2.7612 -5.5978 2.3945
-2.5627 -5.7023 2.3945
-2.3603 -5.7998 2.3945
-2.1542 -5.8901 2.3945
-1.9448 -5.9730 2.3945
-1.7322 -6.0485 2.3945
-1.5167 -6.1163 2.3945
-1.2986 -6.1764 2.3945
-1.0782 -6.2286 2.3945
-0.8557 -6.2729 2.3945
-0.6315 -6.3092 2.3945
-0.4058 -6.3373 2.3945
-0.1789 -6.3573 2.3945
0.0488 -6.3690 2.3945
0.2771 -6.3724 2.3945
0.5056 -6.3674 2.3945
0.7341 -6.3541 2.3945
0.9622 -6.3324 2.3945
1.1896 -6.3024 2.3945
1.4160 -6.2640 2.3945
1.6411 -6.2172 2.3945
1.8646 -6.1622 2.3945
2.0861 -6.0989 2.3945
2.3054 -6.0274 2.3945
2.5221 -5.9478 2.3945
2.7359 -5.8601 2.3945
2.9465 -5.7646 2.3945
3.1536 -5.6612 2.3945
3.3569 -5.5502 2.3945
3.5561 -5.4316 2.3945
3.5671 -5.0457 2.2771
3.6902 -4.8432 2.2421
3.8637 -4.7119 2.2421
4.0322 -4.5741 2.2421
4.1956 -4.4302 2.2422
4.3536 -4.2801 2.2422
4.5061 -4.1243 2.2423
4.6534 -3.9634 2.2427
4.7947 -3.7971 2.2431
4.9297 -3.6255 2.2435
5.0582 -3.4488 2.2438
5.1801 -3.2675 2.2442
5.2951 -3.0816 2.2445
5.4031 -2.8914 2.2449
5.5039 -2.6973 2.2452
5.5942 -2.4981 2.2442
5.6702 -2.2933 2.2405
5.7357 -2.0848 2.2358
5.7966 -1.8758 2.2324
5.8506 -1.6647 2.2294
5.8990 -1.4533 2.2274
5.9433 -1.2413 2.2267
5.9805 -1.0276 2.2264
6.0112 -0.8129 2.2266
6.0339 -0.5977 2.2269
6.0493 -0.3821 2.2273
6.0565 -0.1658 2.2278
6.0556 0.0508 2.2282
6.0464 0.2666 2.2286
6.0291 0.4818 2.2289
6.0037 0.6964 2.2291
5.9701 0.9096 2.2293
5.9286 1.1212 2.2294
5.8791 1.3308 2.2294
5.8218 1.5385 2.2294
5.7570 1.7434 2.2294
5.6852 1.9460 2.2296
5.6063 2.1458 2.2299
5.5220 2.3432 2.2309
5.4327 2.5381 2.2329
5.3396 2.7312 2.2361
5.2406 2.9215 2.2399
5.1366 3.1095 2.2446
5.0177 3.2883 2.2457
4.8895 3.4604 2.2454
4.7552 3.6275 2.2452
4.6150 3.7894 2.2449
4.4692 3.9457 2.2445
4.3180 4.0965 2.2442
4.1617 4.2414 2.2438
4.0003 4.3803 2.2435
3.8343 4.5130 2.2431
3.6638 4.6394 2.2427
3.4891 4.7594 2.2423
3.3109 4.8734 2.2422
3.1291 4.9809 2.2421
2.9437 5.0817 2.2421
2.7552 5.1758 2.2421
2.6876 5.5172 2.3504
2.5305 5.7061 2.3945
0.9186 2.2898 0.9479
0.8358 2.3211 0.9493
0.7519 2.3493 0.9508
0.6669 2.3746 0.9521
0.5812 2.3967 0.9535
0.4947 2.4158 0.9549
0.4075 2.4317 0.9562
-4.9198 2.7001 2.3945
-5.0138 2.5203 2.3945
-5.1014 2.3378 2.3945
-5.1827 2.1521 2.3945
-5.2575 1.9639 2.3945
-5.3257 1.7731 2.3945
-5.3873 1.5800 2.3945
-5.4422 1.3848 2.3945
-5.4903 1.1878 2.3945
-5.5315 0.9892 2.3945
-5.5659 0.7893 2.3945
-5.5933 0.5881 2.3945
-5.6137 0.3861 2.3945
-5.6272 0.1834 2.3945
-5.6335 -0.0197 2.3945
-5.6328 -0.2231 2.3945
-5.6251 -0.4265 2.3945
-5.6102 -0.6295 2.3945
-5.5883 -0.8321 2.3945
-5.5594 -1.0340 2.3945
-5.5233 -1.2348 2.3945
-5.4803 -1.4345 2.3945
-5.4303 -1.6326 2.3945
-5.3734 -1.8291 2.3945
-5.3096 -2.0237 2.3945
-5.2389 -2.2161 2.3945
-5.1615 -2.4060 2.3945
-5.0774 -2.5934 2.3945
-4.9866 -2.7778 2.3945
-4.8894 -2.9592 2.3945
-4.7857 -3.1372 2.3945
-4.6757 -3.3116 2.3945
-4.5595 -3.4823 2.3945
-4.4373 -3.6490 2.3945
-4.3090 -3.8114 2.3945
-4.1750 -3.9694 2.3945
-4.0353 -4.1227 2.3945
-3.8900 -4.2712 2.3945
-3.7394 -4.4146 2.3945
-3.5837 -4.5527 2.3945
-3.4229 -4.6854 2.3945
-3.2572 -4.8125 2.3945
-3.0870 -4.9337 2.3945
-2.9122 -5.0489 2.3945
-2.7333 -5.1580 2.3945
-2.5503 -5.2607 2.3945
-2.3635 -5.3569 2.3945
-2.1732 -5.4465 2.3945
-1.9795 -5.5293 2.3945
-1.7827 -5.6052 2.3945
-1.5830 -5.6741 2.3945
-1.3808 -5.7358 2.3945
-1.1762 -5.7902 2.3945
-0.9694 -5.8373 2.3945
-0.7609 -5.8769 2.3945
-0.5508 -5.9089 2.3945
-0.3394 -5.9333 2.3945
-0.1270 -5.9501 2.3945
0.0861 -5.9591 2.3945
0.2997 -5.9604 2.3945
0.5134 -5.9539 2.3945
0.7270 -5.9396 2.3945
0.9401 -5.9175 2.3945
1.1525 -5.8875 2.3945
1.3639 -5.8498 2.3945
1.5740 -5.8042 2.3945
1.7825 -5.7510 2.3945
1.9891 -5.6900 2.3945
2.1935 -5.6215 2.3945
2.3954 -5.5454 2.3945
2.5945 -5.4618 2.3945
2.7906 -5.3709 2.3945
2.9833 -5.2727 2.3945
3.1725 -5.1674 2.3945
3.3577 -5.0551 2.3945
3.5363 -4.9324 2.3928
3.5285 -4.5680 2.2740
3.6400 -4.3799 2.2421
3.7964 -4.2499 2.2421
3.9480 -4.1142 2.2421
4.0945 -3.9730 2.2422
4.2358 -3.8263 2.2422
4.3715 -3.6743 2.2422
4.5019 -3.5178 2.2424
4.6268 -3.3566 2.2428
4.7456 -3.1907 2.2431
4.8581 -3.0205 2.2435
4.9642 -2.8462 2.2438
5.0638 -2.6680 2.2441
5.1566 -2.4861 2.2444
5.2426 -2.3009 2.2446
5.3215 -2.1125 2.2449
5.3934 -1.9213 2.2451
5.4581 -1.7276 2.2453
5.5124 -1.5311 2.2443
5.5574 -1.3317 2.2425
5.5915 -1.1308 2.2393
5.6198 -0.9291 2.2368
5.6424 -0.7275 2.2351
5.6585 -0.5249 2.2337
5.6677 -0.3223 2.2326
5.6701 -0.1197 2.2318
5.6658 0.0825 2.2313
5.6547 0.2845 2.2311
5.6369 0.4857 2.2312
5.6123 0.6863 2.2315
5.5811 0.8855 2.2322
5.5432 1.0839 2.2331
5.4988 1.2807 2.2343
5.4479 1.4756 2.2358
5.3906 1.6689 2.2377
5.3276 1.8605 2.2401
5.2596 2.0503 2.2433
5.1811 2.2363 2.2451
5.0931 2.4177 2.2456
4.9970 2.5948 2.2455
4.8945 2.7681 2.2453
4.7858 2.9373 2.2450
4.6712 3.1021 2.2448
4.5506 3.2625 2.2445
4.4245 3.4182 2.2443
4.2929 3.5689 2.2440
4.1560 3.7145 2.2437
4.0141 3.8549 2.2434
3.8674 3.9898 2.2430
3.7161 4.1190 2.2427
3.5603 4.2426 2.2423
3.4008 4.3605 2.2422
3.2375 4.4728 2.2421
3.0704 4.5790 2.2421
2.8999 4.6790 2.2421
2.7590 4.8302 2.2691
2.7102 5.1667 2.3835
2.5309 5.2767 2.3945
0.9234 2.1169 0.9464
0.8468 2.1484 0.9477
0.7691 2.1772 0.9491
0.6903 2.2031 0.9504
0.6107 2.2262 0.9517
0.5303 2.2464 0.9530
0.4492 2.2637 0.9542
0.3675 2.2781 0.9555
0.2853 2.2895 0.9567
0.2028 2.2979 0.9579
0.1201 2.3034 0.9591
0.0371 2.3058 0.9603
-0.0458 2.3053 0.9615
-0.1287 2.3018 0.9626
-0.2114 2.2953 0.9637
-0.2938 2.2858 0.9647
-0.3758 2.2733 0.9658
-0.4574 2.2579 0.9668
-0.5383 2.2396 0.9677
-0.6185 2.2183 0.9687
-0.6978 2.1942 0.9696
-0.7763 2.1672 0.9704
-0.8537 2.1374 0.9713
-2.2910 5.1850 2.3945
-2.4740 5.0942 2.3945
-2.6536 4.9971 2.3945
-2.8296 4.8939 2.3945
-3.0018 4.7848 2.3945
-3.1699 4.6697 2.3945
-3.3339 4.5490 2.3945
-3.4934 4.4227 2.3945
-3.6483 4.2911 2.3945
-3.7985 4.1542 2.3945
-3.9438 4.0123 2.3945
-4.0841 3.8654 2.3945
-4.2191 3.7139 2.3945
-4.3487 3.5578 2.3945
-4.4727 3.3974 2.3945
-4.5911 3.2328 2.3945
-4.7038 3.0643 2.3945
-4.8104 2.8920 2.3945
-4.9111 2.7160 2.3945
-5.0056 2.5368 2.3945
-5.0938 2.3544 2.3945
-5.1756 2.1689 2.3945
-5.2510 1.9810 2.3945
-5.3198 1.7903 2.3945
-5.3820 1.5975 2.3945
-5.4375 1.4025 2.3945
-5.4862 1.2056 2.3945
-5.5281 1.0072 2.3945
-5.5631 0.8074 2.3945
-5.5911 0.6063 2.3945
-5.6122 0.4044 2.3945
-5.6262 0.2017 2.3945
-5.6332 -0.0014 2.3945
-5.6332 -0.2048 2.3945
-5.6261 -0.4081 2.3945
-5.6119 -0.6113 2.3945
-5.5906 -0.8139 2.3945
-5.5623 -1.0158 2.3945
-5.5269 -1.2168 2.3945
-5.4845 -1.4165 2.3945
-5.4351 -1.6149 2.3945
-5.3788 -1.8115 2.3945
-5.3156 -2.0062 2.3945
-5.2455 -2.1988 2.3945
-5.1687 -2.3890 2.3945
-5.0852 -2.5766 2.3945
-4.9951 -2.7613 2.3945
-4.8984 -2.9430 2.3945
-4.7953 -3.1213 2.3945
-4.6859 -3.2961 2.3945
-4.5703 -3.4671 2.3945
-4.4485 -3.6341 2.3945
-4.3208 -3.7969 2.3945
-4.1873 -3.9553 2.3945
-4.0481 -4.1091 2.3945
-3.9033 -4.2580 2.3945
-3.7532 -4.4019 2.3945
-3.5979 -4.5405 2.3945
-3.4375 -4.6737 2.3945
-3.2723 -4.8013 2.3945
-3.1025 -4.9230 2.3945
-2.9282 -5.0388 2.3945
-2.7496 -5.1484 2.3945
-2.5670 -5.2517 2.3945
-2.3805 -5.3486 2.3945
-2.1905 -5.4387 2.3945
-1.9971 -5.5222 2.3945
-1.8006 -5.5987 2.3945
-1.6011 -5.6682 2.3945
-1.3991 -5.7305 2.3945
-1.1947 -5.7856 2.3945
-0.9881 -5.8333 2.3945
-0.7797 -5.8736 2.3945
-0.5697 -5.9064 2.3945
-0.3585 -5.9314 2.3945
-0.1462 -5.9488 2.3945
0.0669 -5.9587 2.3945
0.2805 -5.9606 2.3945
0.4942 -5.9548 2.3945
0.7077 -5.9412 2.3945
0.9209 -5.9198 2.3945
1.1334 -5.8905 2.3945
1.3449 -5.8535 2.3945
1.5551 -5.8086 2.3945
1.7638 -5.7561 2.3945
1.9706 -5.6958 2.3945
2.1752 -5.6280 2.3945
2.3773 -5.5525 2.3945
2.5767 -5.4696 2.3945
2.7731 -5.3794 2.3945
2.9661 -5.2818 2.3945
3.1556 -5.1771 2.3945
3.3412 -5.0655 2.3945
3.5226 -4.9469 2.3945
3.5292 -4.5994 2.2841
3.6257 -4.3913 2.2421
3.7825 -4.2619 2.2421
3.9346 -4.1267 2.2421
4.0815 -3.9859 2.2422
4.2233 -3.8397 2.2422
4.3595 -3.6883 2.2422
4.4904 -3.5320 2.2424
4.6158 -3.3713 2.2428
4.7351 -3.2059 2.2431
4.8482 -3.0361 2.2434
4.9549 -2.8621 2.2438
5.0551 -2.6842 2.2441
5.1485 -2.5026 2.2443
5.2351 -2.3177 2.2446
5.3147 -2.1296 2.2449
5.3872 -1.9387 2.2451
5.4526 -1.7452 2.2453
5.5078 -1.5485 2.2444
5.5541 -1.3498 2.2428
5.5887 -1.1490 2.2396
5.6174 -0.9471 2.2370
5.6407 -0.7457 2.2352
5.6573 -0.5430 2.2338
5.6672 -0.3408 2.2327
5.6702 -0.1379 2.2319
5.6665 0.0644 2.2314
5.6560 0.2664 2.2311
5.6387 0.4676 2.2312
5.6148 0.6682 2.2315
5.5842 0.8676 2.2321
5.5469 1.0660 2.2330
5.5031 1.2630 2.2342
5.4527 1.4582 2.2357
5.3960 1.6517 2.2375
5.3334 1.8433 2.2398
5.2660 2.0333 2.2430
5.1885 2.2196 2.2450
5.1015 2.4015 2.2457
5.0059 2.5790 2.2455
4.9040 2.7526 2.2453
4.7959 2.9222 2.2450
4.6817 3.0875 2.2448
4.5617 3.2482 2.2446
4.4361 3.4043 2.2443
4.3049 3.5555 2.2440
4.1685 3.7016 2.2437
4.0271 3.8424 2.2434
3.8808 3.9778 2.2431
3.7299 4.1076 2.2427
3.5746 4.2317 2.2424
3.4153 4.3501 2.2422
3.2523 4.4630 2.2421
3.0856 4.5697 2.2421
2.9154 4.6703 2.2421
2.7632 4.8014 2.2594
2.7148 5.1350 2.3726
2.5483 5.2692 2.3945
0.9303 2.1139 0.9463
0.8537 2.1457 0.9476
0.7761 2.1747 0.9489
0.6974 2.2009 0.9503
0.6179 2.2243 0.9516
0.5375 2.2447 0.9528
0.4565 2.2623 0.9541
0.3749 2.2769 0.9554
0.2928 2.2886 0.9566
0.2103 2.2973 0.9578
0.1275 2.3030 0.9590
0.0446 2.3057 0.9602
-0.0383 2.3055 0.9614
-0.1212 2.3022 0.9625
-0.2040 2.2960 0.9636
-0.2864 2.2867 0.9646
-0.3685 2.2746 0.9657
-0.4500 2.2594 0.9667
-0.5310 2.2413 0.9677
-0.6113 2.2203 0.9686
-0.6907 2.1965 0.9695
-0.7693 2.1698 0.9704
-0.8468 2.1402 0.9712
-2.2743 5.1929 2.3945
-2.4577 5.1026 2.3945
-2.6376 5.0061 2.3945
-2.8139 4.9035 2.3945
-2.9864 4.7948 2.3945
-3.1550 4.6803 2.3945
-3.3193 4.5601 2.3945
-3.4792 4.4343 2.3945
-3.6346 4.3032 2.3945
-3.7852 4.1668 2.3945
-3.9310 4.0253 2.3945
-4.0716 3.8789 2.3945
-4.2071 3.7277 2.3945
-4.3372 3.5720 2.3945
-4.4618 3.4120 2.3945
-4.5807 3.2478 2.3945
-4.6938 3.0796 2.3945
-4.8011 2.9076 2.3945
-4.9023 2.7321 2.3945
-4.9973 2.5529 2.3945
-5.0861 2.3709 2.3945
-5.1685 2.1858 2.3945
-5.2445 1.9980 2.3945
-5.3139 1.8076 2.3945
-5.3767 1.6149 2.3945
-5.4328 1.4201 2.3945
-5.4821 1.2235 2.3945
-5.5246 1.0251 2.3945
-5.5602 0.8254 2.3945
-5.5889 0.6245 2.3945
-5.6106 0.4226 2.3945
-5.6253 0.2200 2.3945
-5.6329 0.0169 2.3945
-5.6335 -0.1865 2.3945
-5.6270 -0.3898 2.3945
-5.6134 -0.5930 2.3945
-5.5928 -0.7957 2.3945
-5.5651 -0.9977 2.3945
-5.5304 -1.1987 2.3945
-5.4886 -1.3986 2.3945
-5.4398 -1.5971 2.3945
-5.3842 -1.7939 2.3945
-5.3216 -1.9888 2.3945
-5.2521 -2.1816 2.3945
-5.1759 -2.3720 2.3945
-5.0930 -2.5598 2.3945
-5.0035 -2.7448 2.3945
-4.9074 -2.9267 2.3945
-4.8049 -3.1054 2.3945
-4.6960 -3.2805 2.3945
-4.5809 -3.4518 2.3945
-4.4597 -3.6192 2.3945
-4.3326 -3.7824 2.3945
-4.1996 -3.9412 2.3945
-4.0609 -4.0954 2.3945
-3.9166 -4.2448 2.3945
-3.7669 -4.3891 2.3945
-3.6121 -4.5282 2.3945
-3.4522 -4.6619 2.3945
-3.2874 -4.7900 2.3945
-3.1180 -4.9123 2.3945
-2.9440 -5.0286 2.3945
-2.7658 -5.1388 2.3945
-2.5836 -5.2427 2.3945
-2.3975 -5.3401 2.3945
-2.2078 -5.4309 2.3945
-2.0146 -5.5149 2.3945
-1.8184 -5.5921 2.3945
-1.6192 -5.6622 2.3945
-1.4174 -5.7252 2.3945
-1.2132 -5.7809 2.3945
-1.0068 -5.8293 2.3945
-0.7986 -5.8703 2.3945
-0.5887 -5.9037 2.3945
-0.3775 -5.9295 2.3945
-0.1653 -5.9477 2.3945
0.0477 -5.9581 2.3945
0.2612 -5.9608 2.3945
0.4749 -5.9557 2.3945
0.6885 -5.9428 2.3945
0.9018 -5.9220 2.3945
1.1143 -5.8935 2.3945
1.3259 -5.8571 2.3945
1.5363 -5.8130 2.3945
1.7451 -5.7611 2.3945
1.9520 -5.7016 2.3945
2.1568 -5.6344 2.3945
2.3592 -5.5596 2.3945
2.5589 -5.4774 2.3945
2.7555 -5.3878 2.3945
2.9489 -5.2909 2.3945
3.1387 -5.1869 2.3945
3.3246 -5.0758 2.3945
3.5065 -4.9578 2.3945
3.5299 -4.6310 2.2943
3.6113 -4.4026 2.2421
3.7686 -4.2738 2.2421
3.9211 -4.1391 2.2421
4.0685 -3.9988 2.2422
4.2107 -3.8531 2.2422
4.3475 -3.7021 2.2422
4.4788 -3.5463 2.2424
4.6047 -3.3859 2.2427
4.7246 -3.2209 2.2431
4.8383 -3.0515 2.2434
4.9456 -2.8779 2.2437
5.0463 -2.7003 2.2440
5.1404 -2.5191 2.2443
5.2276 -2.3345 2.2446
5.3078 -2.1467 2.2448
5.3810 -1.9560 2.2451
5.4470 -1.7627 2.2453
5.5033 -1.5667 2.2445
5.5506 -1.3679 2.2431
5.5859 -1.1674 2.2399
5.6150 -0.9656 2.2372
5.6388 -0.7633 2.2354
5.6560 -0.5611 2.2339
5.6665 -0.3588 2.2328
5.6702 -0.1561 2.2320
5.6671 0.0460 2.2314
5.6572 0.2480 2.2311
5.6406 0.4495 2.2312
5.6172 0.6503 2.2315
5.5872 0.8498 2.2321
5.5505 1.0484 2.2329
5.5073 1.2452 2.2341
5.4575 1.4406 2.2355
5.4014 1.6341 2.2373
5.3392 1.8261 2.2395
5.2723 2.0163 2.2427
5.1959 2.2029 2.2448
5.1098 2.3854 2.2457
5.0148 2.5631 2.2455
4.9134 2.7371 2.2453
4.8059 2.9071 2.2451
4.6922 3.0728 2.2448
4.5728 3.2339 2.2446
4.4476 3.3905 2.2443
4.3170 3.5421 2.2440
4.1810 3.6887 2.2437
4.0400 3.8300 2.2434
3.8942 3.9659 2.2431
3.7436 4.0962 2.2428
3.5887 4.2207 2.2424
3.4298 4.3397 2.2422
3.2672 4.4531 2.2421
3.1008 4.5604 2.2421
2.9374 4.6712 2.2471
2.7704 4.7780 2.2524
2.7193 5.1037 2.3619
2.5657 5.2617 2.3945
0.9371 2.1109 0.9462
0.8607 2.1430 0.9475
0.7831 2.1722 0.9488
0.7046 2.1987 0.9501
0.6251 2.2223 0.9514
0.5448 2.2430 0.9527
0.4638 2.2608 0.9540
0.3822 2.2757 0.9553
-4.6282 2.5401 2.3945
-4.7166 2.3711 2.3945
-4.7991 2.1992 2.3945
-4.8755 2.0246 2.3945
-4.9459 1.8472 2.3945
-5.0101 1.6676 2.3945
-5.0680 1.4859 2.3945
-5.1196 1.3024 2.3945
-5.1648 1.1169 2.3945
-5.2035 0.9300 2.3945
-5.2357 0.7418 2.3945
-5.2614 0.5526 2.3945
-5.2805 0.3624 2.3945
-5.2930 0.1717 2.3945
-5.2988 -0.0195 2.3945
-5.2980 -0.2108 2.3945
-5.2905 -0.4021 2.3945
-5.2763 -0.5932 2.3945
-5.2555 -0.7837 2.3945
-5.2280 -0.9736 2.3945
-5.1939 -1.1625 2.3945
-5.1532 -1.3502 2.3945
-5.1059 -1.5366 2.3945
-5.0521 -1.7213 2.3945
-4.9918 -1.9042 2.3945
-4.9251 -2.0850 2.3945
-4.8520 -2.2636 2.3945
-4.7726 -2.4396 2.3945
-4.6870 -2.6129 2.3945
-4.5953 -2.7832 2.3945
-4.4975 -2.9504 2.3945
-4.3938 -3.1143 2.3945
-4.2843 -3.2745 2.3945
-4.1690 -3.4309 2.3945
-4.0482 -3.5833 2.3945
-3.9220 -3.7315 2.3945
-3.7904 -3.8754 2.3945
-3.6536 -4.0146 2.3945
-3.5118 -4.1491 2.3945
-3.3652 -4.2786 2.3945
-3.2138 -4.4029 2.3945
-3.0580 -4.5219 2.3945
-2.8978 -4.6355 2.3945
-2.7335 -4.7433 2.3945
-2.5652 -4.8454 2.3945
-2.3932 -4.9415 2.3945
-2.2176 -5.0314 2.3945
-2.0387 -5.1152 2.3945
-1.8566 -5.1925 2.3945
