ply
format ascii 1.0
element vertex 2177
property float32 x
property float32 y
property float32 z
end_header
8.7990 3.0284 2.2136
5.3761 2.0692 1.3709
5.2879 2.2565 1.3687
8.4568 3.9737 2.2253
8.3044 4.2728 2.2250
8.1417 4.5661 2.2247
7.9687 4.8534 2.2244
7.7858 5.1343 2.2241
2.7198 -9.2280 2.2330
3.0357 -9.0843 2.2241
3.3586 -8.9669 2.2245
3.6778 -8.8398 2.2253
3.9921 -8.7012 2.2261
4.3011 -8.5512 2.2269
4.6044 -8.3901 2.2276
4.9007 -8.2166 2.2280
5.1703 -8.0013 2.2196
5.4526 -7.8086 2.2203
5.4167 -7.1928 2.1003
5.9928 -7.3902 2.2205
6.2511 -7.1669 2.2207
6.5010 -6.9346 2.2209
6.7423 -6.6935 2.2211
6.9746 -6.4439 2.2212
5.4144 -4.6536 1.6710
7.4113 -5.9209 2.2216
7.6151 -5.6483 2.2218
7.8089 -5.3686 2.2220
7.9925 -5.0823 2.2222
8.1657 -4.7897 2.2224
8.3282 -4.4912 2.2227
8.4798 -4.1873 2.2229
5.3848 -2.4226 1.3887
5.3947 -2.1978 1.3709
8.8678 -3.2466 2.2237
8.9744 -2.9248 2.2240
9.0693 -2.5995 2.2243
9.1526 -2.2712 2.2246
9.2240 -1.9402 2.2249
9.2836 -1.6071 2.2252
9.3312 -1.2721 2.2255
9.3669 -0.9358 2.2258
9.3906 -0.5986 2.2261
9.4022 -0.2610 2.2265
9.4018 0.0768 2.2268
9.3894 0.4142 2.2271
9.3650 0.7509 2.2275
9.3287 1.0863 2.2278
9.2804 1.4202 2.2282
9.2204 1.7520 2.2285
9.1460 2.0808 2.2282
9.0589 2.4062 2.2277
8.9604 2.7281 2.2271
8.7990 3.0284 2.2136
5.3761 2.0691 1.3709
5.2879 2.2565 1.3687
8.4568 3.9736 2.2253
8.3045 4.2727 2.2250
8.1417 4.5661 2.2247
7.9687 4.8533 2.2244
7.7858 5.1342 2.2241
-0.0041 -9.3081 2.3765
0.3297 -9.2998 2.3765
0.6628 -9.2794 2.3765
0.9949 -9.2469 2.3765
1.3255 -9.2024 2.3765
1.6542 -9.1459 2.3765
1.9805 -9.0775 2.3765
2.3040 -8.9974 2.3765
2.6242 -8.9056 2.3765
2.7523 -8.2378 2.2241
3.0448 -8.1306 2.2241
3.3336 -8.0140 2.2245
3.6186 -7.8884 2.2252
3.8987 -7.7525 2.2259
4.1738 -7.6066 2.2266
4.4433 -7.4508 2.2273
4.7069 -7.2853 2.2280
4.9571 -7.1000 2.2254
5.1961 -6.9009 2.2212
5.4381 -6.7073 2.2214
5.6727 -6.5049 2.2215
5.8998 -6.2943 2.2217
5.4315 -5.3930 1.9722
5.4047 -4.9943 1.8971
6.5331 -5.6160 2.2222
6.7273 -5.3754 2.2224
6.9126 -5.1281 2.2225
7.0889 -4.8744 2.2227
7.2559 -4.6147 2.2229
7.4134 -4.3493 2.2231
7.5612 -4.0785 2.2234
7.6992 -3.8027 2.2236
5.3848 -2.4232 1.5299
7.9450 -3.2375 2.2240
8.0526 -2.9489 2.2243
8.1497 -2.6568 2.2245
8.2362 -2.3614 2.2248
8.3121 -2.0633 2.2251
8.3774 -1.7628 2.2254
5.3770 -0.9312 1.4193
8.4754 -1.1561 2.2259
8.5081 -0.8507 2.2262
8.5299 -0.5444 2.2265
8.5407 -0.2377 2.2268
8.5407 0.0691 2.2271
8.5297 0.3757 2.2274
8.5078 0.6815 2.2277
5.3688 0.6248 1.4114
8.4314 1.2897 2.2283
8.3771 1.5912 2.2287
8.3096 1.8899 2.2283
8.2310 2.1858 2.2278
8.1420 2.4784 2.2273
8.0428 2.7676 2.2268
5.3798 2.0702 1.5097
5.2880 2.2562 1.5063
7.6858 3.6109 2.2256
7.5476 3.8829 2.2253
7.4000 4.1497 2.2250
7.2431 4.4110 2.2248
7.0757 4.6656 2.2241
6.9017 4.9155 2.2241
6.7190 5.1590 2.2241
6.9750 5.7655 2.3765
6.7619 6.0111 2.3765
6.5403 6.2490 2.3765
6.3105 6.4788 2.3765
6.0727 6.7002 2.3765
5.8272 6.9132 2.3765
5.5744 7.1172 2.3765
5.3145 7.3122 2.3765
5.0479 7.4978 2.3765
4.7750 7.6739 2.3765
4.4960 7.8402 2.3765
4.2113 7.9966 2.3765
3.9212 8.1427 2.3765
3.6262 8.2785 2.3765
3.3265 8.4038 2.3765
3.0226 8.5183 2.3765
2.7148 8.6221 2.3765
2.4035 8.7149 2.3765
0.8457 3.5611 0.9621
0.7173 3.5897 0.9621
0.5879 3.6136 0.9620
0.4577 3.6328 0.9620
0.3270 3.6473 0.9619
0.1957 3.6570 0.9618
0.0642 3.6620 0.9616
-0.0674 3.6623 0.9615
-0.1989 3.6577 0.9613
-0.3302 3.6484 0.9611
-0.4611 3.6344 0.9608
-0.5914 3.6156 0.9606
-0.7209 3.5921 0.9603
-0.8495 3.5640 0.9600
-2.4196 8.7450 2.3765
-2.7332 8.6557 2.3765
-3.0436 8.5553 2.3765
-3.3503 8.4439 2.3765
-3.6529 8.3216 2.3765
-3.9512 8.1886 2.3765
-4.2446 8.0450 2.3765
-4.5329 7.8909 2.3765
-4.8157 7.7267 2.3765
-5.0925 7.5523 2.3765
-5.3630 7.3682 2.3765
-5.6270 7.1744 2.3765
-5.8840 6.9713 2.3765
-6.1337 6.7590 2.3765
-6.3757 6.5378 2.3765
-6.6099 6.3080 2.3765
-6.8358 6.0698 2.3765
-7.0531 5.8236 2.3765
-7.2616 5.5697 2.3765
-7.4610 5.3083 2.3765
-7.6510 5.0398 2.3765
-7.8313 4.7645 2.3765
-8.0018 4.4828 2.3765
-8.1622 4.1950 2.3765
-8.3121 3.9015 2.3765
-8.4515 3.6027 2.3765
-8.5802 3.2988 2.3765
-8.6979 2.9904 2.3765
-8.8045 2.6778 2.3765
-8.8998 2.3614 2.3765
-8.9837 2.0416 2.3765
-9.0561 1.7188 2.3765
-9.1169 1.3935 2.3765
-9.1659 1.0660 2.3765
-9.2030 0.7368 2.3765
-9.2283 0.4063 2.3765
-9.2417 0.0750 2.3765
-9.2430 -0.2568 2.3765
-9.2324 -0.5886 2.3765
-9.2098 -0.9199 2.3765
-9.1752 -1.2503 2.3765
-9.1286 -1.5794 2.3765
-9.0701 -1.9067 2.3765
-8.9998 -2.2318 2.3765
-8.9177 -2.5544 2.3765
-8.8239 -2.8737 2.3765
-8.7186 -3.1897 2.3765
-8.6019 -3.5017 2.3765
-8.4738 -3.8093 2.3765
-8.3346 -4.1123 2.3765
-8.1845 -4.4101 2.3765
-8.0236 -4.7023 2.3765
-7.8521 -4.9885 2.3765
-7.6703 -5.2684 2.3765
-7.4784 -5.5416 2.3765
-7.2766 -5.8077 2.3765
-7.0653 -6.0663 2.3765
-6.8446 -6.3171 2.3765
-6.6149 -6.5597 2.3765
-6.3765 -6.7939 2.3765
-6.1297 -7.0193 2.3765
-5.8748 -7.2356 2.3765
-5.6122 -7.4424 2.3765
-5.3421 -7.6396 2.3765
-5.0651 -7.8269 2.3765
-4.7814 -8.0038 2.3765
-4.4915 -8.1704 2.3765
-4.1956 -8.3263 2.3765
-3.8943 -8.4714 2.3765
-3.5879 -8.6053 2.3765
-3.2768 -8.7280 2.3765
-2.9615 -8.8393 2.3765
-2.6424 -8.9390 2.3765
-2.3198 -9.0270 2.3765
-1.9944 -9.1032 2.3765
-1.6664 -9.1675 2.3765
-1.3363 -9.2199 2.3765
-1.0046 -9.2601 2.3765
-0.6717 -9.2882 2.3765
-0.3381 -9.3043 2.3765
-0.0042 -9.3081 2.3765
0.3296 -9.2998 2.3765
0.6628 -9.2794 2.3765
0.9949 -9.2469 2.3765
1.3255 -9.2024 2.3765
1.6541 -9.1459 2.3765
1.9804 -9.0775 2.3765
2.3039 -8.9974 2.3765
2.6242 -8.9056 2.3765
2.7522 -8.2378 2.2241
3.0447 -8.1306 2.2241
3.3336 -8.0140 2.2245
3.6185 -7.8884 2.2252
3.8987 -7.7525 2.2259
4.1737 -7.6066 2.2266
4.4432 -7.4508 2.2273
4.7069 -7.2853 2.2280
4.9571 -7.1001 2.2254
5.1961 -6.9010 2.2212
5.4381 -6.7073 2.2214
5.6727 -6.5049 2.2215
5.8998 -6.2943 2.2217
5.4315 -5.3930 1.9722
5.4047 -4.9943 1.8971
6.5331 -5.6161 2.2222
6.7272 -5.3754 2.2224
6.9126 -5.1281 2.2225
7.0889 -4.8745 2.2227
7.2558 -4.6147 2.2229
7.4134 -4.3493 2.2231
7.5612 -4.0785 2.2234
7.6992 -3.8027 2.2236
5.3848 -2.4232 1.5299
7.9450 -3.2376 2.2240
8.0525 -2.9490 2.2243
8.1496 -2.6568 2.2245
8.2362 -2.3615 2.2248
8.3121 -2.0634 2.2251
8.3773 -1.7629 2.2254
5.3770 -0.9313 1.4193
8.4754 -1.1562 2.2259
8.5081 -0.8508 2.2262
8.5299 -0.5445 2.2265
8.5407 -0.2377 2.2268
8.5407 0.0691 2.2271
8.5297 0.3756 2.2274
8.5078 0.6815 2.2277
5.3688 0.6248 1.4114
8.4314 1.2896 2.2283
8.3771 1.5911 2.2287
8.3096 1.8899 2.2283
8.2310 2.1857 2.2278
8.1421 2.4784 2.2273
8.0428 2.7676 2.2268
5.3799 2.0702 1.5097
5.2880 2.2562 1.5063
7.6859 3.6109 2.2256
7.5476 3.8828 2.2253
7.4000 4.1496 2.2250
7.2432 4.4110 2.2248
7.0757 4.6655 2.2241
6.9017 4.9154 2.2241
6.7190 5.1589 2.2241
6.9751 5.7655 2.3765
6.7620 6.0111 2.3765
6.5404 6.2489 2.3765
6.3105 6.4788 2.3765
6.0727 6.7003 2.3765
5.8272 6.9131 2.3765
5.5744 7.1171 2.3765
5.3145 7.3122 2.3765
5.0480 7.4978 2.3765
4.7750 7.6739 2.3765
4.4960 7.8402 2.3765
4.2113 7.9966 2.3765
3.9213 8.1427 2.3765
3.6262 8.2785 2.3765
3.3266 8.4037 2.3765
3.0226 8.5183 2.3765
2.7148 8.6221 2.3765
2.4035 8.7149 2.3765
0.8457 3.5611 0.9621
0.7173 3.5897 0.9621
0.5879 3.6136 0.9620
0.4578 3.6328 0.9620
0.3270 3.6473 0.9619
0.1958 3.6570 0.9618
0.0642 3.6620 0.9616
-0.0674 3.6623 0.9615
-0.1989 3.6577 0.9613
-0.3302 3.6484 0.9611
-0.4611 3.6344 0.9608
-0.5914 3.6156 0.9606
-0.7209 3.5921 0.9603
-0.8495 3.5640 0.9600
-2.4195 8.7450 2.3765
-2.7332 8.6557 2.3765
-3.0435 8.5553 2.3765
-3.3502 8.4439 2.3765
-3.6529 8.3216 2.3765
-3.9511 8.1886 2.3765
-4.2446 8.0450 2.3765
-4.5329 7.8910 2.3765
-4.8156 7.7267 2.3765
-5.0924 7.5524 2.3765
-5.3630 7.3682 2.3765
-5.6269 7.1744 2.3765
-5.8839 6.9713 2.3765
-6.1336 6.7590 2.3765
-6.3757 6.5378 2.3765
-6.6099 6.3080 2.3765
-6.8357 6.0698 2.3765
-7.0531 5.8237 2.3765
-7.2616 5.5697 2.3765
-7.4609 5.3083 2.3765
-7.6510 5.0398 2.3765
-7.8313 4.7646 2.3765
-8.0018 4.4829 2.3765
-8.1621 4.1951 2.3765
-8.3121 3.9016 2.3765
-8.4515 3.6027 2.3765
-8.5801 3.2989 2.3765
-8.6979 2.9905 2.3765
-8.8045 2.6779 2.3765
-8.8998 2.3615 2.3765
-8.9837 2.0417 2.3765
-9.0561 1.7189 2.3765
-9.1169 1.3935 2.3765
-9.1659 1.0660 2.3765
-9.2030 0.7368 2.3765
-9.2283 0.4064 2.3765
-9.2417 0.0750 2.3765
-9.2430 -0.2568 2.3765
-9.2324 -0.5885 2.3765
-9.2098 -0.9198 2.3765
-9.1752 -1.2502 2.3765
-9.1286 -1.5793 2.3765
-9.0701 -1.9066 2.3765
-8.9998 -2.2318 2.3765
-8.9177 -2.5543 2.3765
-8.8239 -2.8737 2.3765
-8.7186 -3.1896 2.3765
-8.6019 -3.5016 2.3765
-8.4738 -3.8093 2.3765
-8.3347 -4.1122 2.3765
-8.1845 -4.4100 2.3765
-8.0236 -4.7022 2.3765
-7.8521 -4.9885 2.3765
-7.6703 -5.2684 2.3765
-7.4785 -5.5415 2.3765
-7.2767 -5.8076 2.3765
-7.0653 -6.0662 2.3765
-6.8446 -6.3171 2.3765
-6.6150 -6.5597 2.3765
-6.3765 -6.7939 2.3765
-6.1297 -7.0193 2.3765
-5.8748 -7.2355 2.3765
-5.6122 -7.4424 2.3765
-5.3422 -7.6395 2.3765
-5.0652 -7.8268 2.3765
-4.7815 -8.0038 2.3765
-4.4915 -8.1704 2.3765
-4.1957 -8.3263 2.3765
-3.8943 -8.4713 2.3765
-3.5879 -8.6053 2.3765
-3.2769 -8.7280 2.3765
-2.9615 -8.8393 2.3765
-2.6424 -8.9390 2.3765
-2.3199 -9.0270 2.3765
-1.9944 -9.1032 2.3765
-1.6664 -9.1675 2.3765
-1.3363 -9.2198 2.3765
-1.0046 -9.2601 2.3765
-0.6717 -9.2882 2.3765
-0.3381 -9.3042 2.3765
-0.0041 -8.5043 2.3765
0.3008 -8.4969 2.3765
0.6052 -8.4785 2.3765
0.9086 -8.4490 2.3765
1.2107 -8.4085 2.3765
1.5111 -8.3571 2.3765
1.8092 -8.2949 2.3765
2.1049 -8.2219 2.3765
2.3976 -8.1383 2.3765
2.6870 -8.0441 2.3765
2.7820 -7.4305 2.2241
3.0456 -7.3231 2.2241
3.3055 -7.2074 2.2245
3.5615 -7.0833 2.2251
3.8128 -6.9500 2.2258
4.0591 -6.8077 2.2264
4.3000 -6.6566 2.2270
4.5352 -6.4969 2.2276
4.7645 -6.3288 2.2282
4.9778 -6.1406 2.2245
5.1871 -5.9491 2.2222
5.3950 -5.7567 2.2224
5.4306 -5.3931 2.1569
5.7890 -5.3504 2.2227
5.9748 -5.1370 2.2228
6.1527 -4.9172 2.2230
6.3224 -4.6912 2.2232
6.4839 -4.4593 2.2234
6.6369 -4.2219 2.2235
6.7812 -3.9792 2.2237
6.9167 -3.7316 2.2239
7.0432 -3.4795 2.2241
5.3848 -2.4238 1.6727
7.2686 -2.9627 2.2246
7.3672 -2.6987 2.2248
7.4563 -2.4315 2.2250
7.5358 -2.1614 2.2253
5.3855 -1.3374 1.5759
7.6654 -1.6137 2.2258
5.3770 -0.9317 1.5513
7.7556 -1.0586 2.2263
7.7858 -0.7792 2.2265
7.8060 -0.4989 2.2268
7.8161 -0.2182 2.2271
7.8163 0.0626 2.2274
7.8064 0.3432 2.2276
7.7866 0.6232 2.2279
5.3688 0.6244 1.5422
7.7171 1.1798 2.2285
7.6676 1.4558 2.2288
7.6059 1.7293 2.2284
7.5343 2.0002 2.2279
5.3698 1.6342 1.6048
7.3628 2.5331 2.2270
5.3808 2.0702 1.6495
5.2881 2.2559 1.6455
7.0312 3.3028 2.2241
6.9058 3.5522 2.2241
6.7717 3.7969 2.2241
6.6291 4.0366 2.2241
6.4781 4.2711 2.2241
6.3189 4.5000 2.2241
6.1517 4.7230 2.2241
5.9767 4.9399 2.2241
6.1912 5.5034 2.3765
5.9884 5.7213 2.3765
5.7780 5.9318 2.3765
5.5603 6.1347 2.3765
5.3356 6.3298 2.3765
5.1041 6.5166 2.3765
4.8662 6.6952 2.3765
4.6221 6.8652 2.3765
4.3722 7.0265 2.3765
4.1168 7.1788 2.3765
3.8560 7.3220 2.3765
3.5904 7.4558 2.3765
3.3203 7.5802 2.3765
3.0458 7.6948 2.3765
2.7675 7.7997 2.3765
2.4856 7.8947 2.3765
0.8891 3.2242 0.9602
0.7728 3.2545 0.9603
0.6554 3.2806 0.9603
0.5372 3.3024 0.9602
0.4182 3.3200 0.9602
0.2987 3.3332 0.9601
0.1787 3.3421 0.9600
0.0585 3.3466 0.9599
-0.0617 3.3468 0.9597
-0.1820 3.3426 0.9596
-0.3020 3.3341 0.9594
-0.4216 3.3213 0.9591
-0.5407 3.3041 0.9589
-0.6590 3.2827 0.9586
-0.7766 3.2570 0.9583
-0.8931 3.2270 0.9580
-2.5024 7.9229 2.3765
-2.7864 7.8307 2.3765
-3.0670 7.7285 2.3765
-3.3440 7.6163 2.3765
-3.6168 7.4943 2.3765
-3.8853 7.3626 2.3765
-4.1490 7.2213 2.3765
-4.4076 7.0707 2.3765
-4.6608 6.9109 2.3765
-4.9082 6.7421 2.3765
-5.1495 6.5645 2.3765
-5.3845 6.3784 2.3765
-5.6127 6.1839 2.3765
-5.8340 5.9812 2.3765
-6.0480 5.7707 2.3765
-6.2544 5.5526 2.3765
-6.4529 5.3271 2.3765
-6.6434 5.0945 2.3765
-6.8255 4.8552 2.3765
-6.9990 4.6094 2.3765
-7.1636 4.3574 2.3765
-7.3192 4.0996 2.3765
-7.4655 3.8362 2.3765
-7.6024 3.5676 2.3765
-7.7295 3.2941 2.3765
-7.8468 3.0161 2.3765
-7.9541 2.7339 2.3765
-8.0513 2.4479 2.3765
-8.1381 2.1585 2.3765
-8.2145 1.8660 2.3765
-8.2803 1.5708 2.3765
-8.3355 1.2733 2.3765
-8.3799 0.9739 2.3765
-8.4135 0.6729 2.3765
-8.4363 0.3707 2.3765
-8.4481 0.0678 2.3765
-8.4490 -0.2354 2.3765
-8.4390 -0.5387 2.3765
-8.4180 -0.8414 2.3765
-8.3860 -1.1434 2.3765
-8.3432 -1.4441 2.3765
-8.2894 -1.7432 2.3765
-8.2249 -2.0403 2.3765
-8.1496 -2.3349 2.3765
-8.0636 -2.6267 2.3765
-7.9671 -2.9153 2.3765
-7.8602 -3.2003 2.3765
-7.7430 -3.4813 2.3765
-7.6156 -3.7580 2.3765
-7.4782 -4.0300 2.3765
-7.3310 -4.2969 2.3765
-7.1742 -4.5583 2.3765
-7.0079 -4.8139 2.3765
-6.8324 -5.0633 2.3765
-6.6480 -5.3063 2.3765
-6.4548 -5.5425 2.3765
-6.2531 -5.7715 2.3765
-6.0431 -5.9931 2.3765
-5.8253 -6.2069 2.3765
-5.5997 -6.4127 2.3765
-5.3668 -6.6102 2.3765
-5.1269 -6.7991 2.3765
-4.8802 -6.9792 2.3765
-4.6271 -7.1502 2.3765
-4.3679 -7.3118 2.3765
-4.1031 -7.4640 2.3765
-3.8328 -7.6064 2.3765
-3.5576 -7.7389 2.3765
-3.2777 -7.8612 2.3765
-2.9936 -7.9733 2.3765
-2.7055 -8.0750 2.3765
-2.4140 -8.1662 2.3765
-2.1195 -8.2467 2.3765
-1.8222 -8.3164 2.3765
-1.5226 -8.3752 2.3765
-1.2211 -8.4231 2.3765
-0.9181 -8.4600 2.3765
-0.6140 -8.4858 2.3765
-0.3092 -8.5006 2.3765
-0.0041 -8.5043 2.3765
0.3008 -8.4969 2.3765
0.6052 -8.4785 2.3765
0.9086 -8.4490 2.3765
1.2107 -8.4085 2.3765
1.5110 -8.3572 2.3765
1.8092 -8.2949 2.3765
2.1048 -8.2219 2.3765
2.3975 -8.1383 2.3765
2.6869 -8.0441 2.3765
2.7820 -7.4305 2.2241
3.0456 -7.3231 2.2241
3.3055 -7.2074 2.2245
3.5615 -7.0833 2.2251
3.8128 -6.9501 2.2258
4.0591 -6.8078 2.2264
4.3000 -6.6567 2.2270
4.5352 -6.4969 2.2276
4.7644 -6.3288 2.2282
4.9778 -6.1406 2.2245
5.1871 -5.9491 2.2222
5.3950 -5.7567 2.2224
5.4305 -5.3931 2.1569
5.7890 -5.3504 2.2227
5.9748 -5.1370 2.2228
6.1526 -4.9172 2.2230
6.3224 -4.6912 2.2232
6.4839 -4.4593 2.2234
6.6369 -4.2219 2.2235
6.7812 -3.9793 2.2237
6.9167 -3.7317 2.2239
7.0432 -3.4795 2.2241
5.3848 -2.4238 1.6727
7.2686 -2.9627 2.2246
7.3672 -2.6988 2.2248
7.4563 -2.4315 2.2250
7.5358 -2.1614 2.2253
5.3855 -1.3374 1.5759
7.6654 -1.6138 2.2258
5.3770 -0.9318 1.5513
7.7556 -1.0587 2.2263
7.7858 -0.7792 2.2265
7.8060 -0.4989 2.2268
7.8161 -0.2182 2.2271
7.8163 0.0626 2.2274
7.8064 0.3432 2.2276
7.7866 0.6231 2.2279
5.3688 0.6244 1.5422
7.7171 1.1798 2.2285
7.6676 1.4558 2.2288
7.6059 1.7293 2.2284
7.5344 2.0002 2.2279
5.3698 1.6342 1.6048
7.3628 2.5330 2.2270
5.3809 2.0702 1.6496
5.2881 2.2558 1.6455
7.0312 3.3028 2.2241
6.9058 3.5522 2.2241
6.7718 3.7969 2.2241
6.6291 4.0366 2.2241
6.4781 4.2710 2.2241
6.3189 4.4999 2.2241
6.1517 4.7230 2.2241
5.9767 4.9399 2.2241
6.1913 5.5034 2.3765
5.9884 5.7212 2.3765
5.7780 5.9317 2.3765
5.5604 6.1346 2.3765
5.3356 6.3297 2.3765
5.1042 6.5166 2.3765
4.8663 6.6952 2.3765
4.6222 6.8652 2.3765
4.3723 7.0265 2.3765
4.1168 7.1788 2.3765
3.8561 7.3220 2.3765
3.5905 7.4558 2.3765
3.3203 7.5801 2.3765
3.0459 7.6948 2.3765
2.7676 7.7997 2.3765
2.4857 7.8947 2.3765
0.8892 3.2242 0.9602
0.7728 3.2545 0.9603
0.6555 3.2806 0.9603
0.5372 3.3024 0.9602
0.4182 3.3200 0.9602
0.2987 3.3332 0.9601
0.1788 3.3421 0.9600
0.0586 3.3466 0.9599
-0.0617 3.3468 0.9597
-0.1819 3.3426 0.9596
-0.3019 3.3341 0.9594
-0.4216 3.3213 0.9591
-0.5406 3.3041 0.9589
-0.6590 3.2827 0.9586
-0.7765 3.2570 0.9583
-0.8930 3.2270 0.9580
-2.5023 7.9229 2.3765
-2.7863 7.8308 2.3765
-3.0670 7.7285 2.3765
-3.3439 7.6163 2.3765
-3.6168 7.4943 2.3765
-3.8853 7.3626 2.3765
-4.1490 7.2214 2.3765
-4.4076 7.0707 2.3765
-4.6607 6.9110 2.3765
-4.9082 6.7422 2.3765
-5.1495 6.5646 2.3765
-5.3844 6.3784 2.3765
-5.6127 6.1839 2.3765
-5.8340 5.9813 2.3765
-6.0479 5.7707 2.3765
-6.2544 5.5526 2.3765
-6.4529 5.3271 2.3765
-6.6434 5.0946 2.3765
-6.8255 4.8553 2.3765
-6.9990 4.6094 2.3765
-7.1636 4.3575 2.3765
-7.3192 4.0996 2.3765
-7.4655 3.8362 2.3765
-7.6024 3.5676 2.3765
-7.7295 3.2941 2.3765
-7.8468 3.0161 2.3765
-7.9541 2.7340 2.3765
-8.0512 2.4480 2.3765
-8.1380 2.1586 2.3765
-8.2144 1.8661 2.3765
-8.2803 1.5709 2.3765
-8.3355 1.2734 2.3765
-8.3799 0.9739 2.3765
-8.4135 0.6729 2.3765
-8.4363 0.3708 2.3765
-8.4481 0.0679 2.3765
-8.4490 -0.2354 2.3765
-8.4390 -0.5386 2.3765
-8.4180 -0.8414 2.3765
-8.3860 -1.1433 2.3765
-8.3432 -1.4441 2.3765
-8.2894 -1.7431 2.3765
-8.2249 -2.0402 2.3765
-8.1496 -2.3348 2.3765
-8.0636 -2.6266 2.3765
-7.9671 -2.9153 2.3765
-7.8602 -3.2003 2.3765
-7.7430 -3.4813 2.3765
-7.6156 -3.7580 2.3765
-7.4782 -4.0299 2.3765
-7.3310 -4.2968 2.3765
-7.1742 -4.5582 2.3765
-7.0079 -4.8138 2.3765
-6.8325 -5.0633 2.3765
-6.6480 -5.3063 2.3765
-6.4548 -5.5424 2.3765
-6.2531 -5.7715 2.3765
-6.0432 -5.9930 2.3765
-5.8253 -6.2069 2.3765
-5.5998 -6.4127 2.3765
-5.3669 -6.6102 2.3765
-5.1269 -6.7991 2.3765
-4.8802 -6.9791 2.3765
-4.6271 -7.1501 2.3765
-4.3680 -7.3118 2.3765
-4.1031 -7.4639 2.3765
-3.8329 -7.6063 2.3765
-3.5576 -7.7388 2.3765
-3.2778 -7.8612 2.3765
-2.9936 -7.9733 2.3765
-2.7056 -8.0750 2.3765
-2.4141 -8.1662 2.3765
-2.1195 -8.2466 2.3765
-1.8222 -8.3164 2.3765
-1.5226 -8.3752 2.3765
-1.2211 -8.4231 2.3765
-0.9181 -8.4600 2.3765
-0.6140 -8.4858 2.3765
-0.3092 -8.5006 2.3765
-0.0041 -7.8204 2.3765
0.2763 -7.8138 2.3765
0.5562 -7.7970 2.3765
0.8352 -7.7700 2.3765
1.1130 -7.7330 2.3765
1.3892 -7.6859 2.3765
1.6635 -7.6288 2.3765
1.9354 -7.5619 2.3765
2.2047 -7.4852 2.3765
2.4709 -7.3988 2.3765
2.6944 -7.1979 2.3423
2.8009 -6.7359 2.2241
3.0396 -6.6287 2.2241
3.2746 -6.5139 2.2245
3.5057 -6.3914 2.2250
3.7322 -6.2606 2.2256
3.9538 -6.1217 2.2262
4.1701 -5.9749 2.2268
4.3810 -5.8204 2.2273
4.5861 -5.6583 2.2278
4.7851 -5.4889 2.2283
4.9691 -5.3032 2.2249
5.1495 -5.1148 2.2231
5.3276 -4.9248 2.2232
5.4987 -4.7286 2.2234
5.6626 -4.5264 2.2235
5.3995 -4.0071 2.0634
5.9680 -4.1053 2.2239
6.1090 -3.8869 2.2241
6.2421 -3.6636 2.2242
6.3670 -3.4358 2.2244
6.4836 -3.2038 2.2246
5.3848 -2.4244 1.8174
6.6915 -2.7282 2.2250
6.7825 -2.4852 2.2252
6.8648 -2.2393 2.2254
6.9381 -1.9906 2.2256
7.0025 -1.7396 2.2259
7.0579 -1.4865 2.2261
5.3770 -0.9322 1.6851
7.1413 -0.9754 2.2266
7.1693 -0.7181 2.2268
7.1881 -0.4600 2.2271
7.1976 -0.2015 2.2273
7.1979 0.0571 2.2276
7.1890 0.3155 2.2278
7.1709 0.5733 2.2281
5.3688 0.6240 1.6747
7.1072 1.0860 2.2286
7.0617 1.3403 2.2289
7.0050 1.5922 2.2284
5.3709 1.4255 1.7244
6.8650 2.0887 2.2276
6.7820 2.3328 2.2272
5.3819 2.0702 1.7912
5.2882 2.2555 1.7865
6.4765 3.0418 2.2241
6.3612 3.2716 2.2241
6.2378 3.4971 2.2241
6.1065 3.7180 2.2241
5.9675 3.9341 2.2241
5.8209 4.1450 2.2241
5.6670 4.3505 2.2241
5.5059 4.5505 2.2241
5.3379 4.7445 2.2241
5.5168 5.2704 2.3765
5.3230 5.4644 2.3765
5.1225 5.6514 2.3765
4.9156 5.8312 2.3765
4.7023 6.0034 2.3765
4.4832 6.1680 2.3765
4.2583 6.3247 2.3765
4.0281 6.4733 2.3765
3.7927 6.6136 2.3765
3.5525 6.7456 2.3765
3.3078 6.8689 2.3765
3.0588 6.9834 2.3765
2.8060 7.0891 2.3765
2.5495 7.1857 2.3765
0.9237 2.9340 0.9587
0.8178 2.9656 0.9587
0.7107 2.9935 0.9587
0.6028 3.0174 0.9587
0.4940 3.0375 0.9587
0.3846 3.0536 0.9587
0.2746 3.0657 0.9586
0.1643 3.0739 0.9585
0.0537 3.0780 0.9584
-0.0569 3.0782 0.9582
-0.1675 3.0744 0.9581
-0.2779 3.0665 0.9579
-0.3879 3.0547 0.9577
-0.4974 3.0389 0.9575
-0.6063 3.0192 0.9572
-0.7144 2.9955 0.9570
-0.8216 2.9680 0.9567
-2.3052 7.2971 2.3765
-2.5668 7.2120 2.3765
-2.8252 7.1176 2.3765
-3.0802 7.0141 2.3765
-3.3314 6.9015 2.3765
-3.5785 6.7800 2.3765
-3.8213 6.6497 2.3765
-4.0593 6.5108 2.3765
-4.2923 6.3634 2.3765
-4.5200 6.2078 2.3765
-4.7421 6.0441 2.3765
-4.9582 5.8724 2.3765
-5.1682 5.6931 2.3765
-5.3718 5.5063 2.3765
-5.5686 5.3123 2.3765
-5.7584 5.1113 2.3765
-5.9410 4.9035 2.3765
-6.1161 4.6893 2.3765
-6.2835 4.4688 2.3765
-6.4430 4.2424 2.3765
-6.5943 4.0103 2.3765
-6.7372 3.7728 2.3765
-6.8716 3.5302 2.3765
-6.9973 3.2828 2.3765
-7.1141 3.0310 2.3765
-7.2218 2.7751 2.3765
-7.3202 2.5153 2.3765
-7.4093 2.2520 2.3765
-7.4889 1.9856 2.3765
-7.5589 1.7164 2.3765
-7.6192 1.4447 2.3765
-7.6697 1.1709 2.3765
-7.7103 0.8954 2.3765
-7.7410 0.6184 2.3765
-7.7616 0.3404 2.3765
-7.7723 0.0617 2.3765
-7.7728 -0.2172 2.3765
-7.7633 -0.4962 2.3765
-7.7437 -0.7747 2.3765
-7.7141 -1.0524 2.3765
-7.6744 -1.3290 2.3765
-7.6248 -1.6040 2.3765
-7.5652 -1.8772 2.3765
-7.4957 -2.1481 2.3765
-7.4164 -2.4164 2.3765
-7.3275 -2.6818 2.3765
-7.2290 -2.9438 2.3765
-7.1210 -3.2022 2.3765
-7.0036 -3.4565 2.3765
-6.8771 -3.7066 2.3765
-6.7416 -3.9519 2.3765
-6.5973 -4.1922 2.3765
-6.4443 -4.4271 2.3765
-6.2828 -4.6564 2.3765
-6.1131 -4.8798 2.3765
-5.9354 -5.0968 2.3765
-5.7498 -5.3073 2.3765
-5.5567 -5.5110 2.3765
-5.3563 -5.7076 2.3765
-5.1489 -5.8967 2.3765
-4.9347 -6.0782 2.3765
-4.7141 -6.2519 2.3765
-4.4872 -6.4174 2.3765
-4.2545 -6.5746 2.3765
-4.0162 -6.7232 2.3765
-3.7727 -6.8630 2.3765
-3.5242 -6.9940 2.3765
-3.2712 -7.1158 2.3765
-3.0139 -7.2283 2.3765
-2.7526 -7.3314 2.3765
-2.4878 -7.4249 2.3765
-2.2198 -7.5088 2.3765
-1.9490 -7.5828 2.3765
-1.6757 -7.6470 2.3765
-1.4002 -7.7012 2.3765
-1.1230 -7.7453 2.3765
-0.8444 -7.7793 2.3765
-0.5648 -7.8032 2.3765
-0.2846 -7.8169 2.3765
-0.0041 -7.8204 2.3765
0.2763 -7.8138 2.3765
0.5561 -7.7970 2.3765
0.8352 -7.7700 2.3765
1.1130 -7.7330 2.3765
1.3892 -7.6859 2.3765
1.6634 -7.6289 2.3765
1.9354 -7.5619 2.3765
2.2046 -7.4852 2.3765
2.4708 -7.3988 2.3765
2.6944 -7.1980 2.3424
2.8008 -6.7359 2.2241
3.0396 -6.6288 2.2241
3.2746 -6.5139 2.2245
3.5057 -6.3914 2.2250
3.7322 -6.2606 2.2256
3.9537 -6.1218 2.2262
4.1701 -5.9750 2.2268
4.3810 -5.8204 2.2273
4.5860 -5.6583 2.2278
4.7851 -5.4890 2.2283
4.9691 -5.3032 2.2249
5.1495 -5.1149 2.2231
5.3276 -4.9248 2.2232
5.4987 -4.7286 2.2234
5.6626 -4.5264 2.2235
5.3995 -4.0072 2.0634
5.9680 -4.1053 2.2239
6.1090 -3.8869 2.2241
6.2421 -3.6636 2.2242
6.3670 -3.4359 2.2244
6.4836 -3.2038 2.2246
5.3848 -2.4244 1.8174
6.6915 -2.7282 2.2250
6.7825 -2.4853 2.2252
6.8648 -2.2393 2.2254
6.9381 -1.9907 2.2256
7.0025 -1.7396 2.2259
7.0579 -1.4865 2.2261
5.3770 -0.9323 1.6851
7.1413 -0.9755 2.2266
7.1693 -0.7181 2.2268
7.1881 -0.4601 2.2271
7.1976 -0.2016 2.2273
7.1979 0.0571 2.2276
7.1890 0.3154 2.2278
7.1709 0.5733 2.2281
5.3688 0.6240 1.6747
7.1072 1.0860 2.2286
7.0617 1.3402 2.2289
7.0050 1.5921 2.2284
5.3709 1.4254 1.7244
6.8651 2.0887 2.2276
6.7820 2.3327 2.2272
5.3820 2.0702 1.7913
5.2882 2.2555 1.7865
6.4765 3.0418 2.2241
6.3612 3.2716 2.2241
6.2378 3.4971 2.2241
6.1065 3.7180 2.2241
5.9675 3.9340 2.2241
5.8210 4.1450 2.2241
5.6670 4.3505 2.2241
5.5059 4.5504 2.2241
5.3379 4.7445 2.2241
5.5169 5.2704 2.3765
5.3231 5.4644 2.3765
5.1226 5.6514 2.3765
4.9156 5.8311 2.3765
4.7024 6.0034 2.3765
4.4832 6.1679 2.3765
4.2584 6.3247 2.3765
4.0281 6.4733 2.3765
3.7927 6.6136 2.3765
3.5525 6.7455 2.3765
3.3078 6.8688 2.3765
3.0589 6.9834 2.3765
2.8060 7.0890 2.3765
2.5496 7.1857 2.3765
0.9237 2.9339 0.9587
0.8178 2.9656 0.9587
0.7108 2.9935 0.9587
0.6028 3.0174 0.9587
0.4940 3.0375 0.9587
0.3846 3.0536 0.9587
0.2746 3.0657 0.9586
0.1643 3.0739 0.9585
0.0537 3.0780 0.9584
-0.0569 3.0782 0.9582
-0.1675 3.0744 0.9581
-0.2779 3.0665 0.9579
-0.3879 3.0547 0.9577
-0.4974 3.0389 0.9575
-0.6063 3.0192 0.9572
-0.7144 2.9955 0.9570
-0.8216 2.9680 0.9567
-2.3052 7.2971 2.3765
-2.5667 7.2120 2.3765
-2.8251 7.1176 2.3765
-3.0801 7.0141 2.3765
-3.3313 6.9015 2.3765
-3.5785 6.7800 2.3765
-3.8212 6.6497 2.3765
-4.0592 6.5108 2.3765
-4.2922 6.3635 2.3765
-4.5199 6.2078 2.3765
-4.7420 6.0441 2.3765
-4.9582 5.8725 2.3765
-5.1682 5.6932 2.3765
-5.3717 5.5064 2.3765
-5.5685 5.3124 2.3765
-5.7584 5.1114 2.3765
-5.9410 4.9036 2.3765
-6.1161 4.6893 2.3765
-6.2835 4.4688 2.3765
-6.4429 4.2424 2.3765
-6.5942 4.0103 2.3765
-6.7372 3.7728 2.3765
-6.8716 3.5302 2.3765
-6.9973 3.2829 2.3765
-7.1141 3.0311 2.3765
-7.2217 2.7751 2.3765
-7.3202 2.5153 2.3765
-7.4093 2.2521 2.3765
-7.4889 1.9857 2.3765
-7.5589 1.7164 2.3765
-7.6192 1.4448 2.3765
-7.6697 1.1710 2.3765
-7.7103 0.8954 2.3765
-7.7410 0.6185 2.3765
-7.7616 0.3405 2.3765
-7.7723 0.0618 2.3765
-7.7728 -0.2172 2.3765
-7.7633 -0.4961 2.3765
-7.7438 -0.7746 2.3765
-7.7141 -1.0523 2.3765
-7.6744 -1.3289 2.3765
-7.6248 -1.6040 2.3765
-7.5652 -1.8771 2.3765
-7.4957 -2.1481 2.3765
-7.4164 -2.4164 2.3765
-7.3275 -2.6817 2.3765
-7.2290 -2.9438 2.3765
-7.1210 -3.2021 2.3765
-7.0037 -3.4565 2.3765
-6.8772 -3.7065 2.3765
-6.7417 -3.9518 2.3765
-6.5973 -4.1921 2.3765
-6.4443 -4.4271 2.3765
-6.2828 -4.6564 2.3765
-6.1131 -4.8797 2.3765
-5.9354 -5.0968 2.3765
-5.7498 -5.3073 2.3765
-5.5568 -5.5110 2.3765
-5.3564 -5.7075 2.3765
-5.1489 -5.8967 2.3765
-4.9348 -6.0782 2.3765
-4.7141 -6.2518 2.3765
-4.4873 -6.4174 2.3765
-4.2546 -6.5745 2.3765
-4.0163 -6.7232 2.3765
-3.7727 -6.8630 2.3765
-3.5243 -6.9939 2.3765
-3.2712 -7.1158 2.3765
-3.0139 -7.2283 2.3765
-2.7527 -7.3314 2.3765
-2.4879 -7.4249 2.3765
-2.2199 -7.5088 2.3765
-1.9491 -7.5828 2.3765
-1.6757 -7.6470 2.3765
-1.4003 -7.7011 2.3765
-1.1231 -7.7453 2.3765
-0.8445 -7.7793 2.3765
-0.5649 -7.8032 2.3765
-0.2847 -7.8169 2.3765
-0.0041 -7.2310 2.3765
0.2551 -7.2249 2.3765
0.5139 -7.2095 2.3765
0.7719 -7.1847 2.3765
1.0288 -7.1506 2.3765
1.2842 -7.1072 2.3765
1.5378 -7.0546 2.3765
1.7893 -6.9928 2.3765
2.0383 -6.9221 2.3765
2.2845 -6.8423 2.3765
2.5276 -6.7538 2.3765
2.6989 -6.4920 2.3178
2.8106 -6.1306 2.2241
3.0277 -6.0237 2.2241
3.2410 -5.9098 2.2244
3.4504 -5.7890 2.2250
3.6553 -5.6606 2.2255
3.8554 -5.5249 2.2260
4.0504 -5.3821 2.2265
4.2401 -5.2323 2.2270
4.4242 -5.0758 2.2275
4.6024 -4.9127 2.2279
4.7747 -4.7433 2.2284
4.9354 -4.5633 2.2265
5.0875 -4.3758 2.2237
5.2395 -4.1889 2.2240
5.3844 -3.9967 2.2241
5.5223 -3.7995 2.2243
5.6530 -3.5975 2.2245
5.7763 -3.3910 2.2246
5.8921 -3.1803 2.2248
6.0002 -2.9656 2.2250
5.3848 -2.4250 1.9641
6.1930 -2.5256 2.2254
6.2774 -2.3008 2.2256
6.3536 -2.0732 2.2258
6.4217 -1.8431 2.2260
6.4815 -1.6108 2.2262
6.5329 -1.3765 2.2264
5.3770 -0.9327 1.8207
6.6104 -0.9035 2.2268
6.6364 -0.6653 2.2271
6.6539 -0.4264 2.2273
6.6629 -0.1871 2.2275
6.6633 0.0523 2.2277
6.6552 0.2915 2.2280
6.6386 0.5302 2.2282
5.3688 0.6236 1.8091
6.5799 1.0049 2.2287
6.5376 1.2403 2.2289
6.4854 1.4736 2.2285
6.4250 1.7047 2.2281
5.3698 1.6334 1.8820
6.2797 2.1595 2.2273
5.3829 2.0702 1.9350
5.2883 2.2552 1.9295
5.9968 2.8161 2.2241
5.8901 3.0289 2.2241
5.7760 3.2378 2.2241
5.6545 3.4424 2.2241
5.5259 3.6425 2.2241
5.3902 3.8379 2.2241
5.2478 4.0283 2.2241
5.0987 4.2135 2.2241
4.9431 4.3933 2.2241
5.1088 4.8803 2.3765
4.9294 5.0601 2.3765
4.7438 5.2333 2.3765
4.5521 5.3998 2.3765
4.3547 5.5594 2.3765
4.1517 5.7118 2.3765
3.9435 5.8570 2.3765
3.7303 5.9946 2.3765
3.5123 6.1246 2.3765
3.2898 6.2468 2.3765
3.0632 6.3610 2.3765
2.8326 6.4671 2.3765
2.5984 6.5649 2.3765
2.3609 6.6544 2.3765
0.8542 2.7133 0.9574
0.7562 2.7426 0.9574
0.6572 2.7683 0.9574
0.5574 2.7904 0.9574
0.4568 2.8090 0.9574
0.3555 2.8238 0.9573
0.2539 2.8350 0.9573
0.1518 2.8426 0.9572
0.0496 2.8464 0.9571
-0.0528 2.8465 0.9570
-0.1550 2.8430 0.9568
-0.2571 2.8357 0.9566
-0.3589 2.8248 0.9565
-0.4601 2.8102 0.9563
-0.5608 2.7919 0.9560
-0.6608 2.7700 0.9558
-0.7599 2.7446 0.9555
-0.8581 2.7155 0.9552
-2.3768 6.6769 2.3765
-2.6160 6.5894 2.3765
-2.8521 6.4934 2.3765
-3.0846 6.3890 2.3765
-3.3133 6.2763 2.3765
-3.5379 6.1556 2.3765
-3.7582 6.0268 2.3765
-3.9738 5.8902 2.3765
-4.1844 5.7460 2.3765
-4.3899 5.5942 2.3765
-4.5899 5.4352 2.3765
-4.7841 5.2691 2.3765
-4.9723 5.0960 2.3765
-5.1543 4.9163 2.3765
-5.3299 4.7301 2.3765
-5.4987 4.5376 2.3765
-5.6606 4.3392 2.3765
-5.8153 4.1350 2.3765
-5.9627 3.9253 2.3765
-6.1025 3.7104 2.3765
-6.2346 3.4905 2.3765
-6.3587 3.2660 2.3765
-6.4748 3.0370 2.3765
-6.5827 2.8039 2.3765
-6.6821 2.5670 2.3765
-6.7730 2.3265 2.3765
-6.8552 2.0829 2.3765
-6.9286 1.8364 2.3765
-6.9931 1.5872 2.3765
-7.0487 1.3359 2.3765
-7.0952 1.0825 2.3765
-7.1325 0.8276 2.3765
-7.1606 0.5714 2.3765
-7.1795 0.3143 2.3765
-7.1892 0.0565 2.3765
-7.1895 -0.2015 2.3765
-7.1805 -0.4595 2.3765
-7.1621 -0.7171 2.3765
-7.1345 -0.9739 2.3765
-7.0976 -1.2296 2.3765
-7.0515 -1.4840 2.3765
-6.9962 -1.7365 2.3765
-6.9318 -1.9870 2.3765
-6.8583 -2.2351 2.3765
-6.7759 -2.4804 2.3765
-6.6847 -2.7226 2.3765
-6.5847 -2.9615 2.3765
-6.4761 -3.1966 2.3765
-6.3590 -3.4277 2.3765
-6.2336 -3.6545 2.3765
-6.1000 -3.8766 2.3765
-5.9584 -4.0938 2.3765
-5.8091 -4.3057 2.3765
-5.6521 -4.5121 2.3765
-5.4876 -4.7127 2.3765
-5.3161 -4.9072 2.3765
-5.1375 -5.0955 2.3765
-4.9522 -5.2772 2.3765
-4.7604 -5.4520 2.3765
-4.5623 -5.6198 2.3765
-4.3583 -5.7803 2.3765
-4.1486 -5.9332 2.3765
-3.9334 -6.0785 2.3765
-3.7131 -6.2159 2.3765
-3.4880 -6.3452 2.3765
-3.2583 -6.4662 2.3765
-3.0243 -6.5788 2.3765
-2.7865 -6.6828 2.3765
-2.5450 -6.7782 2.3765
-2.3002 -6.8647 2.3765
-2.0525 -6.9422 2.3765
-1.8021 -7.0107 2.3765
-1.5494 -7.0701 2.3765
-1.2948 -7.1202 2.3765
-1.0385 -7.1611 2.3765
-0.7810 -7.1926 2.3765
-0.5225 -7.2148 2.3765
-0.2634 -7.2276 2.3765
-0.0041 -7.2310 2.3765
0.2551 -7.2249 2.3765
0.5139 -7.2095 2.3765
0.7719 -7.1847 2.3765
1.0288 -7.1506 2.3765
1.2842 -7.1072 2.3765
1.5378 -7.0546 2.3765
1.7893 -6.9928 2.3765
2.0383 -6.9221 2.3765
2.2845 -6.8423 2.3765
2.5276 -6.7538 2.3765
2.6989 -6.4921 2.3178
2.8106 -6.1306 2.2241
3.0276 -6.0237 2.2241
3.2410 -5.9099 2.2244
3.4504 -5.7890 2.2250
3.6553 -5.6606 2.2255
3.8554 -5.5250 2.2260
4.0504 -5.3821 2.2265
4.2400 -5.2323 2.2270
4.4241 -5.0758 2.2275
4.6024 -4.9127 2.2279
4.7746 -4.7434 2.2284
4.9354 -4.5633 2.2265
5.0875 -4.3757 2.2237
5.2395 -4.1890 2.2240
5.3844 -3.9967 2.2241
5.5223 -3.7995 2.2243
5.6530 -3.5975 2.2245
5.7763 -3.3910 2.2246
5.8921 -3.1803 2.2248
6.0002 -2.9657 2.2250
5.3848 -2.4250 1.9641
6.1930 -2.5256 2.2254
6.2773 -2.3008 2.2256
6.3536 -2.0732 2.2258
6.4217 -1.8431 2.2260
6.4814 -1.6108 2.2262
6.5329 -1.3766 2.2264
5.3770 -0.9327 1.8207
6.6104 -0.9035 2.2268
6.6364 -0.6654 2.2271
6.6539 -0.4265 2.2273
6.6629 -0.1871 2.2275
6.6633 0.0523 2.2277
6.6552 0.2915 2.2280
6.6386 0.5302 2.2282
5.3688 0.6235 1.8091
6.5799 1.0049 2.2287
6.5376 1.2403 2.2289
6.4854 1.4735 2.2285
6.4250 1.7047 2.2281
5.3698 1.6334 1.8820
6.2797 2.1595 2.2273
5.3830 2.0702 1.9350
5.2883 2.2551 1.9295
5.9968 2.8161 2.2241
5.8901 3.0289 2.2241
5.7760 3.2378 2.2241
5.6545 3.4424 2.2241
5.5259 3.6425 2.2241
5.3903 3.8379 2.2241
5.2478 4.0283 2.2241
5.0987 4.2135 2.2241
4.9431 4.3933 2.2241
5.1089 4.8803 2.3765
4.9295 5.0600 2.3765
4.7438 5.2333 2.3765
4.5522 5.3998 2.3765
4.3547 5.5593 2.3765
4.1518 5.7118 2.3765
3.9436 5.8569 2.3765
3.7303 5.9946 2.3765
3.5123 6.1246 2.3765
3.2899 6.2468 2.3765
3.0632 6.3610 2.3765
2.8327 6.4671 2.3765
2.5985 6.5649 2.3765
2.3610 6.6544 2.3765
0.8542 2.7133 0.9574
0.7562 2.7426 0.9574
0.6572 2.7683 0.9574
0.5574 2.7904 0.9574
0.4568 2.8089 0.9574
0.3556 2.8238 0.9573
0.2539 2.8350 0.9573
0.1518 2.8426 0.9572
0.0496 2.8464 0.9571
-0.0527 2.8465 0.9570
-0.1550 2.8430 0.9568
-0.2571 2.8357 0.9566
-0.3588 2.8248 0.9565
-0.4601 2.8102 0.9563
-0.5608 2.7919 0.9560
-0.6608 2.7701 0.9558
-0.7599 2.7446 0.9555
-0.8580 2.7155 0.9552
-2.3768 6.6770 2.3765
-2.6160 6.5894 2.3765
-2.8520 6.4934 2.3765
-3.0845 6.3890 2.3765
-3.3133 6.2764 2.3765
-3.5379 6.1556 2.3765
-3.7582 6.0268 2.3765
-3.9737 5.8902 2.3765
-4.1844 5.7460 2.3765
-4.3899 5.5942 2.3765
-4.5898 5.4352 2.3765
-4.7841 5.2691 2.3765
-4.9723 5.0960 2.3765
-5.1543 4.9163 2.3765
-5.3298 4.7301 2.3765
-5.4987 4.5377 2.3765
-5.6605 4.3392 2.3765
-5.8153 4.1351 2.3765
-5.9627 3.9254 2.3765
-6.1025 3.7105 2.3765
-6.2346 3.4906 2.3765
-6.3587 3.2660 2.3765
-6.4748 3.0370 2.3765
-6.5826 2.8039 2.3765
-6.6821 2.5670 2.3765
-6.7729 2.3266 2.3765
-6.8552 2.0829 2.3765
-6.9286 1.8364 2.3765
-6.9931 1.5873 2.3765
-7.0487 1.3359 2.3765
-7.0951 1.0826 2.3765
-7.1325 0.8277 2.3765
-7.1606 0.5715 2.3765
-7.1795 0.3143 2.3765
-7.1892 0.0566 2.3765
-7.1895 -0.2015 2.3765
-7.1805 -0.4594 2.3765
-7.1621 -0.7170 2.3765
-7.1345 -0.9738 2.3765
-7.0977 -1.2296 2.3765
-7.0515 -1.4839 2.3765
-6.9962 -1.7365 2.3765
-6.9318 -1.9870 2.3765
-6.8584 -2.2350 2.3765
-6.7759 -2.4804 2.3765
-6.6847 -2.7226 2.3765
-6.5847 -2.9615 2.3765
-6.4761 -3.1966 2.3765
-6.3590 -3.4277 2.3765
-6.2336 -3.6544 2.3765
-6.1000 -3.8766 2.3765
-5.9585 -4.0937 2.3765
-5.8091 -4.3057 2.3765
-5.6521 -4.5121 2.3765
-5.4877 -4.7127 2.3765
-5.3161 -4.9072 2.3765
-5.1375 -5.0955 2.3765
-4.9522 -5.2771 2.3765
-4.7604 -5.4520 2.3765
-4.5623 -5.6197 2.3765
-4.3583 -5.7802 2.3765
-4.1486 -5.9332 2.3765
-3.9335 -6.0785 2.3765
-3.7132 -6.2158 2.3765
-3.4880 -6.3451 2.3765
-3.2583 -6.4662 2.3765
-3.0244 -6.5788 2.3765
-2.7865 -6.6828 2.3765
-2.5451 -6.7781 2.3765
-2.3003 -6.8647 2.3765
-2.0525 -6.9422 2.3765
-1.8021 -7.0107 2.3765
-1.5495 -7.0701 2.3765
-1.2948 -7.1202 2.3765
-1.0386 -7.1611 2.3765
-0.7810 -7.1926 2.3765
-0.5226 -7.2148 2.3765
-0.2635 -7.2276 2.3765
-0.0041 -6.7171 2.3765
0.2367 -6.7116 2.3765
0.4771 -6.6973 2.3765
0.7168 -6.6744 2.3765
0.9554 -6.6428 2.3765
1.1927 -6.6026 2.3765
1.4283 -6.5539 2.3765
1.6619 -6.4966 2.3765
1.8933 -6.4310 2.3765
2.1220 -6.3571 2.3765
2.3479 -6.2749 2.3765
2.5706 -6.1847 2.3765
2.7019 -5.8946 2.3016
2.8126 -5.5970 2.2241
3.0106 -5.4906 2.2241
3.2048 -5.3778 2.2244
3.3951 -5.2586 2.2249
3.5810 -5.1326 2.2253
3.7622 -5.0000 2.2258
3.9384 -4.8609 2.2263
4.1095 -4.7156 2.2267
4.2751 -4.5641 2.2271
4.4352 -4.4069 2.2276
4.5894 -4.2439 2.2280
4.7376 -4.0755 2.2283
4.8795 -3.9019 2.2287
5.0044 -3.7154 2.2243
5.1332 -3.5324 2.2247
5.2548 -3.3447 2.2248
5.3695 -3.1529 2.2250
5.4773 -2.9571 2.2252
5.5780 -2.7576 2.2253
5.3848 -2.4256 2.1131
5.3978 -2.2019 2.0867
5.8361 -2.1397 2.2259
5.9071 -1.9281 2.2261
5.9705 -1.7142 2.2262
6.0262 -1.4982 2.2264
5.3844 -1.1351 1.9738
5.3770 -0.9332 1.9583
6.1465 -0.8407 2.2270
6.1708 -0.6192 2.2273
6.1872 -0.3971 2.2275
6.1957 -0.1745 2.2277
6.1962 0.0481 2.2279
6.1888 0.2706 2.2281
6.1734 0.4926 2.2284
5.3688 0.6231 1.9455
6.1190 0.9341 2.2288
6.0796 1.1529 2.2289
6.0313 1.3699 2.2285
5.9753 1.5850 2.2282
5.9116 1.7978 2.2278
5.8380 2.0072 2.2265
5.3676 2.0640 2.0746
5.2884 2.2548 2.0746
5.5774 2.6188 2.2241
5.4783 2.8168 2.2241
5.3722 3.0111 2.2241
5.2593 3.2015 2.2241
5.1397 3.3877 2.2241
5.0136 3.5694 2.2241
4.8812 3.7466 2.2241
4.7425 3.9189 2.2241
4.5978 4.0862 2.2241
4.4473 4.2481 2.2241
4.5852 4.7065 2.3765
4.4126 4.8676 2.3765
4.2343 5.0225 2.3765
4.0507 5.1710 2.3765
3.8619 5.3129 2.3765
3.6682 5.4479 2.3765
3.4699 5.5760 2.3765
3.2671 5.6970 2.3765
3.0601 5.8106 2.3765
2.8493 5.9169 2.3765
2.6348 6.0155 2.3765
2.4170 6.1065 2.3765
0.8835 2.4904 0.9561
0.7935 2.5208 0.9562
0.7025 2.5480 0.9562
0.6105 2.5719 0.9563
0.5177 2.5924 0.9563
0.4243 2.6096 0.9562
0.3302 2.6234 0.9562
0.2357 2.6338 0.9561
0.1409 2.6408 0.9561
0.0459 2.6444 0.9560
-0.0491 2.6445 0.9558
-0.1441 2.6412 0.9557
-0.2390 2.6344 0.9556
-0.3335 2.6243 0.9554
-0.4276 2.6107 0.9552
-0.5212 2.5937 0.9550
-0.6141 2.5734 0.9547
-0.7062 2.5497 0.9545
-0.7973 2.5227 0.9542
-0.8875 2.4925 0.9540
-2.4333 6.1277 2.3765
-2.6527 6.0383 2.3765
-2.8689 5.9411 2.3765
-3.0815 5.8362 2.3765
-3.2903 5.7237 2.3765
-3.4951 5.6038 2.3765
-3.6955 5.4767 2.3765
-3.8913 5.3424 2.3765
-4.0822 5.2012 2.3765
-4.2680 5.0532 2.3765
-4.4485 4.8986 2.3765
-4.6234 4.7376 2.3765
-4.7925 4.5703 2.3765
-4.9556 4.3971 2.3765
-5.1122 4.2181 2.3765
-5.2627 4.0335 2.3765
-5.4064 3.8435 2.3765
-5.5433 3.6485 2.3765
-5.6731 3.4486 2.3765
-5.7957 3.2441 2.3765
-5.9110 3.0353 2.3765
-6.0187 2.8223 2.3765
-6.1188 2.6056 2.3765
-6.2110 2.3853 2.3765
-6.2952 2.1618 2.3765
-6.3715 1.9353 2.3765
-6.4395 1.7061 2.3765
-6.4993 1.4745 2.3765
-6.5508 1.2409 2.3765
-6.5938 1.0054 2.3765
-6.6283 0.7685 2.3765
-6.6543 0.5304 2.3765
-6.6717 0.2915 2.3765
-6.6804 0.0519 2.3765
-6.6805 -0.1878 2.3765
-6.6720 -0.4275 2.3765
-6.6548 -0.6668 2.3765
-6.6290 -0.9054 2.3765
-6.5946 -1.1430 2.3765
-6.5516 -1.3793 2.3765
-6.5001 -1.6139 2.3765
-6.4401 -1.8466 2.3765
-6.3717 -2.0770 2.3765
-6.2950 -2.3048 2.3765
-6.2101 -2.5298 2.3765
-6.1171 -2.7516 2.3765
-6.0161 -2.9700 2.3765
-5.9072 -3.1846 2.3765
-5.7906 -3.3952 2.3765
-5.6665 -3.6015 2.3765
-5.5349 -3.8031 2.3765
-5.3961 -3.9999 2.3765
-5.2502 -4.1916 2.3765
-5.0974 -4.3779 2.3765
-4.9380 -4.5586 2.3765
-4.7720 -4.7334 2.3765
-4.5999 -4.9020 2.3765
-4.4217 -5.0644 2.3765
-4.2377 -5.2202 2.3765
-4.0482 -5.3692 2.3765
-3.8534 -5.5112 2.3765
-3.6536 -5.6462 2.3765
-3.4490 -5.7737 2.3765
-3.2398 -5.8938 2.3765
-3.0265 -6.0062 2.3765
-2.8092 -6.1108 2.3765
-2.5883 -6.2074 2.3765
-2.3640 -6.2960 2.3765
-2.1367 -6.3764 2.3765
-1.9066 -6.4484 2.3765
-1.6741 -6.5121 2.3765
-1.4394 -6.5672 2.3765
-1.2029 -6.6139 2.3765
-0.9649 -6.6519 2.3765
-0.7257 -6.6812 2.3765
-0.4856 -6.7019 2.3765
-0.2450 -6.7139 2.3765
-0.0041 -6.7171 2.3765
0.2367 -6.7116 2.3765
0.4771 -6.6973 2.3765
0.7167 -6.6744 2.3765
0.9553 -6.6428 2.3765
1.1926 -6.6026 2.3765
1.4282 -6.5539 2.3765
1.6619 -6.4966 2.3765
1.8932 -6.4310 2.3765
2.1220 -6.3571 2.3765
2.3479 -6.2750 2.3765
2.5706 -6.1847 2.3765
2.7019 -5.8947 2.3016
2.8126 -5.5970 2.2241
3.0105 -5.4907 2.2241
3.2047 -5.3778 2.2244
3.3951 -5.2586 2.2249
3.5810 -5.1326 2.2253
3.7621 -5.0000 2.2258
3.9384 -4.8609 2.2263
4.1094 -4.7156 2.2267
4.2751 -4.5642 2.2271
4.4351 -4.4069 2.2276
4.5893 -4.2439 2.2280
4.7375 -4.0755 2.2283
4.8795 -3.9019 2.2287
5.0044 -3.7153 2.2243
5.1331 -3.5325 2.2247
5.2548 -3.3448 2.2248
5.3695 -3.1529 2.2250
5.4773 -2.9571 2.2252
5.5780 -2.7576 2.2253
5.3848 -2.4256 2.1131
5.3978 -2.2019 2.0867
5.8361 -2.1397 2.2259
5.9071 -1.9281 2.2261
5.9705 -1.7142 2.2262
6.0262 -1.4983 2.2264
5.3844 -1.1351 1.9738
5.3770 -0.9333 1.9583
6.1465 -0.8407 2.2270
6.1708 -0.6192 2.2273
6.1872 -0.3971 2.2275
6.1957 -0.1746 2.2277
6.1962 0.0481 2.2279
6.1888 0.2705 2.2281
6.1734 0.4925 2.2284
5.3688 0.6231 1.9455
6.1190 0.9340 2.2288
6.0796 1.1529 2.2289
6.0313 1.3699 2.2285
5.9753 1.5849 2.2282
5.9116 1.7977 2.2278
5.8380 2.0072 2.2265
5.3676 2.0639 2.0746
5.2884 2.2548 2.0746
5.5774 2.6187 2.2241
5.4783 2.8167 2.2241
5.3722 3.0110 2.2241
5.2593 3.2014 2.2241
5.1398 3.3876 2.2241
5.0137 3.5694 2.2241
4.8812 3.7466 2.2241
4.7425 3.9189 2.2241
4.5979 4.0861 2.2241
4.4474 4.2481 2.2241
4.5853 4.7064 2.3765
4.4126 4.8676 2.3765
4.2344 5.0226 2.3765
4.0507 5.1710 2.3765
3.8619 5.3129 2.3765
3.6682 5.4479 2.3765
3.4699 5.5760 2.3765
3.2671 5.6969 2.3765
3.0602 5.8106 2.3765
2.8493 5.9169 2.3765
2.6348 6.0155 2.3765
2.4170 6.1065 2.3765
0.8835 2.4903 0.9561
0.7936 2.5208 0.9562
0.7025 2.5480 0.9562
0.6105 2.5719 0.9563
0.5178 2.5924 0.9563
0.4243 2.6096 0.9562
0.3302 2.6234 0.9562
0.2358 2.6338 0.9561
0.1410 2.6408 0.9561
0.0460 2.6444 0.9560
-0.0491 2.6445 0.9558
-0.1441 2.6412 0.9557
-0.2390 2.6344 0.9556
-0.3335 2.6243 0.9554
-0.4276 2.6107 0.9552
-0.5212 2.5937 0.9550
-0.6140 2.5734 0.9547
-0.7061 2.5497 0.9545
-0.7973 2.5227 0.9542
-0.8874 2.4925 0.9540
-2.4332 6.1277 2.3765
-2.6527 6.0383 2.3765
-2.8688 5.9411 2.3765
-3.0815 5.8362 2.3765
-3.2903 5.7237 2.3765
-3.4950 5.6039 2.3765
-3.6954 5.4767 2.3765
-3.8912 5.3424 2.3765
-4.0822 5.2012 2.3765
-4.2680 5.0532 2.3765
-4.4485 4.8986 2.3765
-4.6234 4.7376 2.3765
-4.7925 4.5703 2.3765
-4.9555 4.3971 2.3765
-5.1122 4.2181 2.3765
-5.2627 4.0335 2.3765
-5.4064 3.8436 2.3765
-5.5433 3.6485 2.3765
-5.6731 3.4486 2.3765
-5.7957 3.2441 2.3765
-5.9110 3.0353 2.3765
-6.0186 2.8224 2.3765
-6.1187 2.6056 2.3765
-6.2110 2.3854 2.3765
-6.2952 2.1618 2.3765
-6.3715 1.9353 2.3765
-6.4395 1.7061 2.3765
-6.4993 1.4746 2.3765
-6.5508 1.2409 2.3765
-6.5938 1.0055 2.3765
-6.6283 0.7686 2.3765
-6.6543 0.5305 2.3765
-6.6717 0.2915 2.3765
-6.6804 0.0520 2.3765
-6.6805 -0.1878 2.3765
-6.6720 -0.4275 2.3765
-6.6548 -0.6668 2.3765
-6.6290 -0.9054 2.3765
-6.5946 -1.1429 2.3765
-6.5516 -1.3792 2.3765
-6.5001 -1.6138 2.3765
-6.4401 -1.8465 2.3765
-6.3717 -2.0769 2.3765
-6.2950 -2.3048 2.3765
-6.2101 -2.5298 2.3765
-6.1171 -2.7516 2.3765
-6.0161 -2.9700 2.3765
-5.9072 -3.1846 2.3765
-5.7907 -3.3952 2.3765
-5.6665 -3.6014 2.3765
-5.5349 -3.8031 2.3765
-5.3961 -3.9999 2.3765
-5.2502 -4.1916 2.3765
-5.0974 -4.3779 2.3765
-4.9380 -4.5586 2.3765
-4.7721 -4.7333 2.3765
-4.5999 -4.9020 2.3765
-4.4217 -5.0644 2.3765
-4.2378 -5.2201 2.3765
-4.0483 -5.3692 2.3765
-3.8534 -5.5112 2.3765
-3.6536 -5.6461 2.3765
-3.4490 -5.7737 2.3765
-3.2399 -5.8938 2.3765
-3.0265 -6.0062 2.3765
-2.8093 -6.1108 2.3765
-2.5883 -6.2074 2.3765
-2.3641 -6.2960 2.3765
-2.1367 -6.3763 2.3765
-1.9066 -6.4484 2.3765
-1.6741 -6.5121 2.3765
-1.4394 -6.5672 2.3765
-1.2029 -6.6139 2.3765
-0.9649 -6.6519 2.3765
-0.7257 -6.6812 2.3765
-0.4857 -6.7019 2.3765
-0.2450 -6.7139 2.3765
-0.0041 -6.2647 2.3765
0.2205 -6.2596 2.3765
0.4447 -6.2464 2.3765
0.6682 -6.2252 2.3765
0.8907 -6.1958 2.3765
1.1121 -6.1584 2.3765
1.3318 -6.1130 2.3765
1.5497 -6.0597 2.3765
1.7656 -5.9986 2.3765
1.9790 -5.9298 2.3765
2.1897 -5.8533 2.3765
2.3974 -5.7692 2.3765
2.6020 -5.6778 2.3765
2.7036 -5.3811 2.2922
2.8079 -5.1221 2.2241
2.9889 -5.0164 2.2241
3.1661 -4.9047 2.2243
3.3394 -4.7873 2.2248
3.5084 -4.6636 2.2252
3.6728 -4.5339 2.2256
3.8324 -4.3984 2.2260
3.9869 -4.2572 2.2264
4.1362 -4.1106 2.2268
4.2801 -3.9587 2.2272
4.4184 -3.8017 2.2276
4.5509 -3.6398 2.2279
4.6774 -3.4733 2.2282
4.7978 -3.3023 2.2286
4.9097 -3.1258 2.2279
5.0104 -2.9426 2.2251
5.1116 -2.7602 2.2255
5.2056 -2.5741 2.2256
5.2930 -2.3848 2.2258
5.3734 -2.1925 2.2260
5.4469 -1.9976 2.2261
5.5133 -1.8002 2.2263
5.5726 -1.6005 2.2265
5.6247 -1.3990 2.2267
5.6696 -1.1957 2.2269
5.3770 -0.9337 2.0982
5.7373 -0.7852 2.2272
5.7601 -0.5785 2.2274
5.7755 -0.3711 2.2276
5.7835 -0.1634 2.2278
5.7841 0.0444 2.2281
5.7772 0.2521 2.2283
5.7630 0.4593 2.2285
5.3688 0.6227 2.0841
5.3746 0.8200 2.0971
5.3735 1.0186 2.1103
5.6306 1.2785 2.2286
5.5784 1.4793 2.2282
5.5174 1.6774 2.2272
5.4497 1.8733 2.2262
5.3737 2.0659 2.2247
5.2885 2.2545 2.2222
5.2073 2.4446 2.2241
5.1148 2.6295 2.2241
5.0158 2.8110 2.2241
4.9105 2.9888 2.2241
4.7989 3.1627 2.2241
4.6812 3.3325 2.2241
4.5576 3.4979 2.2241
4.4282 3.6589 2.2241
4.2931 3.8151 2.2241
4.1526 3.9664 2.2241
4.2814 4.3943 2.3765
4.1202 4.5449 2.3765
3.9538 4.6896 2.3765
3.7823 4.8282 2.3765
3.6060 4.9607 2.3765
3.4252 5.0868 2.3765
3.2399 5.2065 2.3765
3.0506 5.3194 2.3765
2.8574 5.4255 2.3765
2.6605 5.5248 2.3765
2.4602 5.6169 2.3765
0.9069 2.2915 0.9551
0.8241 2.3229 0.9551
0.7401 2.3513 0.9552
0.6552 2.3766 0.9552
0.5694 2.3989 0.9552
0.4828 2.4180 0.9552
0.3957 2.4340 0.9552
0.3079 2.4469 0.9552
0.2198 2.4566 0.9551
0.1314 2.4631 0.9551
0.0427 2.4664 0.9550
-0.0459 2.4665 0.9549
-0.1346 2.4634 0.9547
-0.2230 2.4571 0.9546
-0.3112 2.4476 0.9544
-0.3990 2.4350 0.9542
-0.4863 2.4192 0.9540
-0.5729 2.4002 0.9538
-0.6588 2.3781 0.9536
-0.7438 2.3529 0.9534
-0.8279 2.3247 0.9531
-0.9109 2.2935 0.9528
-2.4768 5.6367 2.3765
-2.6786 5.5459 2.3765
-2.8770 5.4478 2.3765
-3.0719 5.3427 2.3765
-3.2630 5.2307 2.3765
-3.4500 5.1119 2.3765
-3.6326 4.9865 2.3765
-3.8108 4.8545 2.3765
-3.9842 4.7163 2.3765
-4.1525 4.5718 2.3765
-4.3158 4.4214 2.3765
-4.4735 4.2652 2.3765
-4.6255 4.1034 2.3765
-4.7717 3.9362 2.3765
-4.9120 3.7639 2.3765
-5.0459 3.5865 2.3765
-5.1735 3.4044 2.3765
-5.2946 3.2178 2.3765
-5.4089 3.0269 2.3765
-5.5162 2.8319 2.3765
-5.6166 2.6331 2.3765
-5.7098 2.4308 2.3765
-5.7958 2.2252 2.3765
-5.8743 2.0166 2.3765
-5.9452 1.8052 2.3765
-6.0086 1.5913 2.3765
-6.0642 1.3752 2.3765
-6.1121 1.1572 2.3765
-6.1521 0.9375 2.3765
-6.1841 0.7164 2.3765
-6.2082 0.4943 2.3765
-6.2243 0.2714 2.3765
-6.2323 0.0479 2.3765
-6.2323 -0.1757 2.3765
-6.2242 -0.3993 2.3765
-6.2080 -0.6225 2.3765
-6.1838 -0.8451 2.3765
-6.1515 -1.0667 2.3765
-6.1113 -1.2870 2.3765
-6.0631 -1.5059 2.3765
-6.0070 -1.7229 2.3765
-5.9432 -1.9377 2.3765
-5.8715 -2.1502 2.3765
-5.7922 -2.3600 2.3765
-5.7054 -2.5669 2.3765
-5.6111 -2.7705 2.3765
-5.5095 -2.9706 2.3765
-5.4007 -3.1670 2.3765
-5.2848 -3.3593 2.3765
-5.1620 -3.5473 2.3765
-5.0325 -3.7308 2.3765
-4.8964 -3.9095 2.3765
-4.7539 -4.0832 2.3765
-4.6051 -4.2516 2.3765
-4.4504 -4.4146 2.3765
-4.2898 -4.5719 2.3765
-4.1236 -4.7232 2.3765
-3.9520 -4.8685 2.3765
-3.7753 -5.0074 2.3765
-3.5936 -5.1398 2.3765
-3.4072 -5.2656 2.3765
-3.2164 -5.3846 2.3765
-3.0214 -5.4965 2.3765
-2.8225 -5.6013 2.3765
-2.6199 -5.6989 2.3765
-2.4139 -5.7890 2.3765
-2.2047 -5.8716 2.3765
-1.9927 -5.9466 2.3765
-1.7782 -6.0138 2.3765
-1.5614 -6.0732 2.3765
-1.3425 -6.1247 2.3765
-1.1220 -6.1682 2.3765
-0.9001 -6.2037 2.3765
-0.6770 -6.2311 2.3765
-0.4531 -6.2504 2.3765
-0.2287 -6.2616 2.3765
-0.0041 -6.2647 2.3765
0.2205 -6.2596 2.3765
0.4446 -6.2465 2.3765
0.6681 -6.2252 2.3765
0.8907 -6.1958 2.3765
1.1120 -6.1584 2.3765
1.3318 -6.1130 2.3765
1.5497 -6.0598 2.3765
1.7655 -5.9986 2.3765
1.9789 -5.9298 2.3765
2.1896 -5.8533 2.3765
2.3974 -5.7693 2.3765
2.6020 -5.6778 2.3765
2.7036 -5.3812 2.2922
2.8079 -5.1221 2.2241
2.9888 -5.0164 2.2241
3.1660 -4.9047 2.2243
3.3394 -4.7873 2.2248
3.5084 -4.6636 2.2252
3.6728 -4.5340 2.2256
3.8324 -4.3984 2.2260
3.9869 -4.2573 2.2264
4.1362 -4.1106 2.2268
4.2801 -3.9587 2.2272
4.4184 -3.8017 2.2276
4.5508 -3.6398 2.2279
4.6774 -3.4733 2.2282
4.7978 -3.3023 2.2286
4.9097 -3.1257 2.2279
5.0104 -2.9426 2.2251
5.1116 -2.7603 2.2255
5.2056 -2.5742 2.2256
5.2929 -2.3848 2.2258
5.3734 -2.1926 2.2260
5.4469 -1.9976 2.2261
5.5133 -1.8002 2.2263
5.5726 -1.6006 2.2265
5.6247 -1.3990 2.2267
5.6695 -1.1958 2.2269
5.3770 -0.9338 2.0982
5.7373 -0.7853 2.2272
5.7601 -0.5785 2.2274
5.7755 -0.3712 2.2276
5.7835 -0.1635 2.2278
5.7841 0.0444 2.2281
5.7772 0.2520 2.2283
5.7630 0.4593 2.2285
5.3688 0.6227 2.0841
5.3746 0.8199 2.0971
5.3735 1.0186 2.1103
5.6306 1.2784 2.2286
5.5784 1.4792 2.2282
5.5174 1.6774 2.2272
5.4497 1.8733 2.2262
5.3737 2.0659 2.2247
5.2885 2.2545 2.2221
5.2073 2.4446 2.2241
5.1148 2.6295 2.2241
5.0159 2.8110 2.2241
4.9105 2.9887 2.2241
4.7989 3.1626 2.2241
4.6812 3.3324 2.2241
4.5576 3.4979 2.2241
4.4282 3.6588 2.2241
4.2931 3.8151 2.2241
4.1526 3.9663 2.2241
4.2814 4.3943 2.3765
4.1202 4.5448 2.3765
3.9538 4.6895 2.3765
3.7823 4.8282 2.3765
3.6061 4.9607 2.3765
3.4252 5.0868 2.3765
3.2400 5.2064 2.3765
3.0506 5.3194 2.3765
2.8574 5.4255 2.3765
2.6605 5.5247 2.3765
2.4602 5.6169 2.3765
0.9070 2.2915 0.9551
0.8241 2.3229 0.9551
0.7401 2.3513 0.9552
0.6552 2.3766 0.9552
0.5694 2.3989 0.9552
0.4829 2.4180 0.9552
0.3957 2.4340 0.9552
0.3079 2.4469 0.9552
0.2198 2.4566 0.9551
0.1314 2.4631 0.9551
0.0428 2.4664 0.9550
-0.0459 2.4665 0.9549
-0.1345 2.4634 0.9547
-0.2230 2.4571 0.9546
-0.3112 2.4476 0.9544
-0.3990 2.4350 0.9542
-0.4862 2.4192 0.9540
-0.5729 2.4002 0.9538
-0.6588 2.3781 0.9536
-0.7438 2.3529 0.9534
-0.8279 2.3247 0.9531
-0.9109 2.2935 0.9528
-2.4768 5.6368 2.3765
-2.6785 5.5459 2.3765
-2.8770 5.4478 2.3765
-3.0719 5.3427 2.3765
-3.2629 5.2307 2.3765
-3.4499 5.1119 2.3765
-3.6326 4.9865 2.3765
-3.8108 4.8545 2.3765
-3.9841 4.7163 2.3765
-4.1525 4.5719 2.3765
-4.3154 4.4215 2.3765
-4.4735 4.2653 2.3765
-4.6255 4.1035 2.3765
-4.7717 3.9363 2.3765
-4.9119 3.7639 2.3765
-5.0459 3.5865 2.3765
-5.1735 3.4044 2.3765
-5.2945 3.2178 2.3765
-5.4088 3.0269 2.3765
-5.5162 2.8319 2.3765
-5.6166 2.6332 2.3765
-5.7098 2.4308 2.3765
-5.7957 2.2253 2.3765
-5.8743 2.0166 2.3765
-5.9452 1.8052 2.3765
-6.0086 1.5914 2.3765
-6.0642 1.3753 2.3765
-6.1121 1.1572 2.3765
-6.1521 0.9375 2.3765
-6.1841 0.7165 2.3765
-6.2082 0.4943 2.3765
-6.2243 0.2714 2.3765
-6.2323 0.0480 2.3765
-6.2323 -0.1757 2.3765
-6.2242 -0.3993 2.3765
-6.2080 -0.6225 2.3765
-6.1838 -0.8451 2.3765
-6.1515 -1.0667 2.3765
-6.1113 -1.2870 2.3765
-6.0631 -1.5058 2.3765
-6.0071 -1.7228 2.3765
-5.9432 -1.9377 2.3765
-5.8715 -2.1502 2.3765
-5.7923 -2.3600 2.3765
-5.7054 -2.5668 2.3765
-5.6111 -2.7704 2.3765
-5.5095 -2.9706 2.3765
-5.4007 -3.1669 2.3765
-5.2848 -3.3592 2.3765
-5.1620 -3.5473 2.3765
-5.0325 -3.7308 2.3765
-4.8964 -3.9095 2.3765
-4.7539 -4.0832 2.3765
-4.6052 -4.2516 2.3765
-4.4504 -4.4146 2.3765
-4.2898 -4.5718 2.3765
-4.1236 -4.7232 2.3765
-3.9521 -4.8684 2.3765
-3.7753 -5.0074 2.3765
-3.5937 -5.1397 2.3765
-3.4073 -5.2656 2.3765
-3.2165 -5.3845 2.3765
-3.0215 -5.4965 2.3765
-2.8225 -5.6013 2.3765
-2.6199 -5.6989 2.3765
-2.4139 -5.7890 2.3765
-2.2048 -5.8716 2.3765
-1.9928 -5.9465 2.3765
-1.7782 -6.0138 2.3765
-1.5614 -6.0732 2.3765
-1.3426 -6.1247 2.3765
-1.1220 -6.1682 2.3765
-0.9001 -6.2037 2.3765
-0.6770 -6.2311 2.3765
-0.4532 -6.2504 2.3765
-0.2288 -6.2616 2.3765
-0.0041 -5.8631 2.3765
0.2061 -5.8584 2.3765
0.4159 -5.8461 2.3765
0.6251 -5.8262 2.3765
0.8333 -5.7988 2.3765
1.0405 -5.7639 2.3765
1.2462 -5.7215 2.3765
1.4501 -5.6718 2.3765
1.6521 -5.6147 2.3765
1.8519 -5.5503 2.3765
2.0491 -5.4788 2.3765
2.2436 -5.4002 2.3765
2.4351 -5.3147 2.3765
2.6233 -5.2223 2.3765
2.7043 -4.9339 2.2887
2.7974 -4.6959 2.2241
