ply
format ascii 1.0
element vertex 2179
property float32 x
property float32 y
property float32 z
end_header
6.4645 1.7269 2.2401
6.3954 1.9571 2.2401
6.3181 2.1846 2.2401
6.2328 2.4091 2.2401
6.2112 2.6610 2.2662
6.2011 2.9247 2.3004
6.1903 3.1963 2.3384
6.1785 3.4770 2.3806
6.0776 3.7138 2.3925
5.9380 3.9284 2.3925
5.7910 4.1378 2.3925
5.6367 4.3418 2.3925
5.4752 4.5401 2.3925
5.3069 4.7325 2.3925
5.1319 4.9187 2.3925
4.9504 5.0986 2.3925
4.7627 5.2719 2.3925
4.5691 5.4384 2.3925
4.3697 5.5978 2.3925
4.1648 5.7501 2.3925
3.9546 5.8950 2.3925
3.7395 6.0323 2.3925
3.5197 6.1619 2.3925
3.2955 6.2836 2.3925
3.0671 6.3973 2.3925
2.8349 6.5027 2.3925
2.5991 6.5999 2.3925
2.3600 6.6887 2.3925
0.8492 2.7142 0.9593
0.7512 2.7432 0.9595
0.6522 2.7688 0.9596
0.5523 2.7907 0.9596
0.4516 2.8090 0.9597
0.3504 2.8237 0.9597
0.2487 2.8347 0.9597
0.1466 2.8420 0.9597
0.0444 2.8456 0.9597
-0.0580 2.8455 0.9596
-0.1602 2.8418 0.9595
-0.2623 2.8343 0.9594
-0.3640 2.8232 0.9593
-0.4653 2.8084 0.9591
-0.5659 2.7899 0.9590
-0.6659 2.7678 0.9587
-0.7649 2.7421 0.9585
-0.8630 2.7129 0.9583
-2.3974 6.6933 2.3925
-2.6372 6.6048 2.3925
-2.8738 6.5078 2.3925
-3.1068 6.4024 2.3925
-3.3360 6.2888 2.3925
-3.5611 6.1671 2.3925
-3.7819 6.0374 2.3925
-3.9979 5.8999 2.3925
-4.2090 5.7547 2.3925
-4.4148 5.6021 2.3925
-4.6152 5.4421 2.3925
-4.8098 5.2751 2.3925
-4.9984 5.1012 2.3925
-5.1808 4.9206 2.3925
-5.3567 4.7335 2.3925
-5.5259 4.5402 2.3925
-5.6882 4.3408 2.3925
-5.8432 4.1358 2.3925
-5.9910 3.9252 2.3925
-6.1312 3.7094 2.3925
-6.2636 3.4886 2.3925
-6.3881 3.2631 2.3925
-6.5045 3.0332 2.3925
-6.6127 2.7991 2.3925
-6.7125 2.5612 2.3925
-6.8037 2.3198 2.3925
-6.8862 2.0752 2.3925
-6.9600 1.8276 2.3925
-7.0248 1.5774 2.3925
-7.0807 1.3250 2.3925
-7.1275 1.0706 2.3925
-7.1651 0.8145 2.3925
-7.1935 0.5571 2.3925
-7.2126 0.2988 2.3925
-7.2225 0.0398 2.3925
-7.2230 -0.2195 2.3925
-7.2141 -0.4788 2.3925
-7.1960 -0.7377 2.3925
-7.1684 -0.9959 2.3925
-7.1316 -1.2530 2.3925
-7.0855 -1.5088 2.3925
-7.0302 -1.7628 2.3925
-6.9657 -2.0148 2.3925
-6.8921 -2.2644 2.3925
-6.8095 -2.5113 2.3925
-6.7180 -2.7551 2.3925
-6.6177 -2.9956 2.3925
-6.5087 -3.2323 2.3925
-6.3911 -3.4650 2.3925
-6.2652 -3.6934 2.3925
-6.1311 -3.9172 2.3925
-5.9888 -4.1360 2.3925
-5.8387 -4.3496 2.3925
-5.6809 -4.5577 2.3925
-5.5156 -4.7599 2.3925
-5.3430 -4.9561 2.3925
-5.1634 -5.1460 2.3925
-4.9769 -5.3292 2.3925
-4.7839 -5.5056 2.3925
-4.5845 -5.6749 2.3925
-4.3791 -5.8369 2.3925
-4.1679 -5.9913 2.3925
-3.9511 -6.1380 2.3925
-3.7292 -6.2767 2.3925
-3.5023 -6.4073 2.3925
-3.2708 -6.5296 2.3925
-3.0350 -6.6433 2.3925
-2.7952 -6.7485 2.3925
-2.5516 -6.8448 2.3925
-2.3048 -6.9322 2.3925
-2.0549 -7.0106 2.3925
-1.8023 -7.0799 2.3925
-1.5476 -7.1399 2.3925
-1.2904 -7.1906 2.3925
-1.0318 -7.2319 2.3925
-0.7710 -7.2637 2.3925
-0.5109 -7.2861 2.3925
-0.2492 -7.2990 2.3925
0.0110 -6.7822 2.3925
0.2540 -6.7766 2.3925
0.4967 -6.7621 2.3925
0.7386 -6.7389 2.3925
0.9795 -6.7069 2.3925
1.2190 -6.6661 2.3925
1.4569 -6.6167 2.3925
1.6927 -6.5587 2.3925
1.9263 -6.4922 2.3925
2.1572 -6.4172 2.3925
2.3852 -6.3340 2.3925
2.6100 -6.2426 2.3925
2.8312 -6.1431 2.3925
3.0487 -6.0357 2.3925
3.2620 -5.9205 2.3925
3.4710 -5.7977 2.3925
3.6753 -5.6675 2.3925
3.8747 -5.5300 2.3925
4.0689 -5.3854 2.3925
4.2577 -5.2339 2.3925
4.4409 -5.0758 2.3925
4.6181 -4.9112 2.3925
4.7893 -4.7404 2.3925
4.9540 -4.5635 2.3925
5.1123 -4.3809 2.3925
5.2637 -4.1928 2.3925
5.4082 -3.9995 2.3925
5.5456 -3.8011 2.3925
5.6757 -3.5980 2.3925
5.7984 -3.3904 2.3925
5.9134 -3.1786 2.3925
6.0207 -2.9629 2.3925
6.1202 -2.7436 2.3925
6.2116 -2.5209 2.3925
6.2595 -2.2823 2.3791
6.2611 -2.0315 2.3516
6.2621 -1.7861 2.3276
6.2626 -1.5454 2.3068
6.2626 -1.3089 2.2891
6.2620 -1.0757 2.2745
6.2609 -0.8454 2.2627
6.2603 -0.6174 2.2541
6.2620 -0.3912 2.2493
6.2615 -0.1658 2.2467
6.2589 0.0591 2.2461
6.2541 0.2839 2.2477
6.2472 0.5089 2.2514
6.2397 0.7347 2.2579
6.2346 0.9623 2.2681
6.2290 1.1919 2.2812
6.2227 1.4242 2.2972
6.2159 1.6597 2.3163
6.2085 1.8991 2.3384
6.2003 2.1430 2.3639
6.1909 2.3921 2.3925
6.0985 2.6119 2.3925
5.9984 2.8283 2.3925
5.8906 3.0408 2.3925
5.7754 3.2493 2.3925
5.6529 3.4535 2.3925
5.5232 3.6532 2.3925
5.3866 3.8481 2.3925
5.2432 4.0379 2.3925
5.0931 4.2225 2.3925
4.9366 4.4015 2.3925
4.7739 4.5749 2.3925
4.6052 4.7423 2.3925
4.4307 4.9036 2.3925
4.2506 5.0585 2.3925
4.0651 5.2069 2.3925
3.8745 5.3487 2.3925
3.6791 5.4835 2.3925
3.4790 5.6113 2.3925
3.2746 5.7320 2.3925
3.0660 5.8452 2.3925
2.8535 5.9510 2.3925
2.6375 6.0492 2.3925
2.4181 6.1397 2.3925
0.8791 2.4913 0.9579
0.7891 2.5215 0.9580
0.6980 2.5485 0.9582
0.6059 2.5722 0.9583
0.5131 2.5926 0.9583
0.4196 2.6096 0.9584
0.3255 2.6232 0.9584
0.2310 2.6334 0.9584
0.1362 2.6402 0.9584
0.0412 2.6436 0.9584
-0.0539 2.6435 0.9583
-0.1489 2.6400 0.9582
-0.2437 2.6330 0.9581
-0.3382 2.6227 0.9580
-0.4323 2.6089 0.9579
-0.5258 2.5918 0.9577
-0.6187 2.5713 0.9575
-0.7107 2.5474 0.9573
-0.8018 2.5202 0.9571
-0.8919 2.4898 0.9568
-2.4532 6.1433 2.3925
-2.6732 6.0530 2.3925
-2.8900 5.9548 2.3925
-3.1031 5.8490 2.3925
-3.3124 5.7357 2.3925
-3.5177 5.6149 2.3925
-3.7185 5.4869 2.3925
-3.9147 5.3517 2.3925
-4.1061 5.2096 2.3925
-4.2924 5.0607 2.3925
-4.4732 4.9053 2.3925
-4.6485 4.7434 2.3925
-4.8180 4.5753 2.3925
-4.9815 4.4012 2.3925
-5.1386 4.2213 2.3925
-5.2894 4.0358 2.3925
-5.4334 3.8450 2.3925
-5.5706 3.6491 2.3925
-5.7008 3.4483 2.3925
-5.8237 3.2429 2.3925
-5.9393 3.0332 2.3925
-6.0474 2.8193 2.3925
-6.1477 2.6017 2.3925
-6.2403 2.3804 2.3925
-6.3249 2.1559 2.3925
-6.4014 1.9285 2.3925
-6.4697 1.6983 2.3925
-6.5298 1.4657 2.3925
-6.5815 1.2310 2.3925
-6.6248 0.9945 2.3925
-6.6595 0.7564 2.3925
-6.6857 0.5172 2.3925
-6.7033 0.2771 2.3925
-6.7122 0.0364 2.3925
-6.7124 -0.2046 2.3925
-6.7040 -0.4455 2.3925
-6.6869 -0.6861 2.3925
-6.6611 -0.9260 2.3925
-6.6267 -1.1649 2.3925
-6.5837 -1.4025 2.3925
-6.5321 -1.6385 2.3925
-6.4719 -1.8725 2.3925
-6.4034 -2.1044 2.3925
-6.3265 -2.3337 2.3925
-6.2413 -2.5601 2.3925
-6.1479 -2.7834 2.3925
-6.0465 -3.0032 2.3925
-5.9372 -3.2194 2.3925
-5.8201 -3.4314 2.3925
-5.6953 -3.6392 2.3925
-5.5631 -3.8424 2.3925
-5.4235 -4.0407 2.3925
-5.2768 -4.2339 2.3925
-5.1232 -4.4217 2.3925
-4.9628 -4.6038 2.3925
-4.7959 -4.7801 2.3925
-4.6226 -4.9501 2.3925
-4.4433 -5.1139 2.3925
-4.2580 -5.2711 2.3925
-4.0672 -5.4214 2.3925
-3.8710 -5.5648 2.3925
-3.6697 -5.7009 2.3925
-3.4635 -5.8297 2.3925
-3.2528 -5.9509 2.3925
-3.0378 -6.0644 2.3925
-2.8188 -6.1700 2.3925
-2.5961 -6.2676 2.3925
-2.3699 -6.3571 2.3925
-2.1407 -6.4383 2.3925
-1.9086 -6.5110 2.3925
-1.6740 -6.5753 2.3925
-1.4373 -6.6311 2.3925
-1.1987 -6.6782 2.3925
-0.9585 -6.7166 2.3925
-0.7171 -6.7462 2.3925
-0.4749 -6.7670 2.3925
-0.2320 -6.7791 2.3925
0.0111 -6.7823 2.3925
0.2542 -6.7766 2.3925
0.4968 -6.7621 2.3925
0.7388 -6.7389 2.3925
0.9796 -6.7068 2.3925
1.2192 -6.6661 2.3925
1.4570 -6.6167 2.3925
1.6929 -6.5586 2.3925
1.9264 -6.4921 2.3925
2.1573 -6.4172 2.3925
2.3853 -6.3340 2.3925
2.6101 -6.2425 2.3925
2.8314 -6.1430 2.3925
3.0488 -6.0356 2.3925
3.2621 -5.9205 2.3925
3.4711 -5.7977 2.3925
3.6754 -5.6674 2.3925
3.8748 -5.5299 2.3925
4.0691 -5.3853 2.3925
4.2579 -5.2338 2.3925
4.4410 -5.0757 2.3925
4.6183 -4.9111 2.3925
4.7894 -4.7403 2.3925
4.9541 -4.5634 2.3925
5.1124 -4.3808 2.3925
5.2638 -4.1927 2.3925
5.4083 -3.9993 2.3925
5.5457 -3.8009 2.3925
5.6758 -3.5978 2.3925
5.7985 -3.3902 2.3925
5.9135 -3.1785 2.3925
6.0208 -2.9628 2.3925
6.1202 -2.7434 2.3925
6.2117 -2.5208 2.3925
6.2595 -2.2822 2.3790
6.2611 -2.0313 2.3516
6.2621 -1.7859 2.3275
6.2626 -1.5453 2.3068
6.2626 -1.3087 2.2891
6.2620 -1.0755 2.2744
6.2609 -0.8453 2.2627
6.2603 -0.6173 2.2541
6.2620 -0.3911 2.2493
6.2615 -0.1657 2.2467
6.2589 0.0592 2.2461
6.2541 0.2840 2.2477
6.2472 0.5090 2.2515
6.2397 0.7348 2.2579
6.2346 0.9624 2.2681
6.2290 1.1920 2.2812
6.2227 1.4243 2.2973
6.2159 1.6598 2.3163
6.2084 1.8992 2.3385
6.2003 2.1432 2.3639
6.1909 2.3922 2.3925
6.0985 2.6121 2.3925
5.9983 2.8284 2.3925
5.8906 3.0410 2.3925
5.7753 3.2495 2.3925
5.6528 3.4537 2.3925
5.5232 3.6533 2.3925
5.3865 3.8482 2.3925
5.2431 4.0380 2.3925
5.0930 4.2226 2.3925
4.9365 4.4016 2.3925
4.7738 4.5750 2.3925
4.6051 4.7424 2.3925
4.4306 4.9037 2.3925
4.2504 5.0586 2.3925
4.0650 5.2070 2.3925
3.8744 5.3488 2.3925
3.6790 5.4836 2.3925
3.4789 5.6114 2.3925
3.2744 5.7320 2.3925
3.0658 5.8453 2.3925
2.8534 5.9511 2.3925
2.6374 6.0493 2.3925
2.4180 6.1397 2.3925
0.8790 2.4913 0.9579
0.7890 2.5216 0.9580
0.6979 2.5485 0.9582
0.6059 2.5722 0.9583
0.5130 2.5926 0.9583
0.4195 2.6096 0.9584
0.3255 2.6232 0.9584
0.2310 2.6334 0.9584
0.1361 2.6402 0.9584
0.0411 2.6436 0.9584
-0.0539 2.6435 0.9583
-0.1489 2.6400 0.9582
-0.2438 2.6330 0.9581
-0.3383 2.6227 0.9580
-0.4324 2.6089 0.9579
-0.5259 2.5918 0.9577
-0.6187 2.5712 0.9575
-0.7108 2.5474 0.9573
-0.8019 2.5202 0.9571
-0.8920 2.4898 0.9568
-2.4534 6.1433 2.3925
-2.6734 6.0529 2.3925
-2.8901 5.9548 2.3925
-3.1032 5.8490 2.3925
-3.3126 5.7356 2.3925
-3.5178 5.6148 2.3925
-3.7186 5.4868 2.3925
-3.9149 5.3516 2.3925
-4.1062 5.2095 2.3925
-4.2925 5.0607 2.3925
-4.4734 4.9052 2.3925
-4.6487 4.7433 2.3925
-4.8181 4.5752 2.3925
-4.9816 4.4011 2.3925
-5.1387 4.2212 2.3925
-5.2894 4.0357 2.3925
-5.4335 3.8449 2.3925
-5.5707 3.6490 2.3925
-5.7009 3.4482 2.3925
-5.8238 3.2428 2.3925
-5.9394 3.0331 2.3925
-6.0474 2.8192 2.3925
-6.1478 2.6015 2.3925
-6.2403 2.3803 2.3925
-6.3249 2.1558 2.3925
-6.4014 1.9283 2.3925
-6.4698 1.6981 2.3925
-6.5298 1.4655 2.3925
-6.5815 1.2308 2.3925
-6.6248 0.9943 2.3925
-6.6595 0.7563 2.3925
-6.6857 0.5170 2.3925
-6.7033 0.2769 2.3925
-6.7122 0.0362 2.3925
-6.7124 -0.2047 2.3925
-6.7040 -0.4457 2.3925
-6.6869 -0.6862 2.3925
-6.6611 -0.9261 2.3925
-6.6267 -1.1650 2.3925
-6.5836 -1.4026 2.3925
-6.5320 -1.6386 2.3925
-6.4719 -1.8727 2.3925
-6.4033 -2.1045 2.3925
-6.3264 -2.3338 2.3925
-6.2412 -2.5602 2.3925
-6.1479 -2.7835 2.3925
-6.0465 -3.0034 2.3925
-5.9371 -3.2195 2.3925
-5.8200 -3.4316 2.3925
-5.6953 -3.6394 2.3925
-5.5630 -3.8425 2.3925
-5.4234 -4.0408 2.3925
-5.2767 -4.2340 2.3925
-5.1231 -4.4218 2.3925
-4.9627 -4.6039 2.3925
-4.7958 -4.7802 2.3925
-4.6225 -4.9503 2.3925
-4.4431 -5.1140 2.3925
-4.2579 -5.2712 2.3925
-4.0671 -5.4215 2.3925
-3.8709 -5.5649 2.3925
-3.6696 -5.7010 2.3925
-3.4634 -5.8298 2.3925
-3.2527 -5.9510 2.3925
-3.0377 -6.0645 2.3925
-2.8186 -6.1701 2.3925
-2.5959 -6.2677 2.3925
-2.3698 -6.3571 2.3925
-2.1405 -6.4383 2.3925
-1.9084 -6.5111 2.3925
-1.6739 -6.5754 2.3925
-1.4371 -6.6311 2.3925
-1.1985 -6.6782 2.3925
-0.9584 -6.7166 2.3925
-0.7170 -6.7462 2.3925
-0.4747 -6.7671 2.3925
-0.2318 -6.7791 2.3925
0.0100 -6.3245 2.3925
0.2367 -6.3193 2.3925
0.4629 -6.3059 2.3925
0.6885 -6.2843 2.3925
0.9132 -6.2545 2.3925
1.1365 -6.2165 2.3925
1.3583 -6.1705 2.3925
1.5783 -6.1165 2.3925
1.7961 -6.0546 2.3925
2.0114 -5.9848 2.3925
2.2241 -5.9073 2.3925
2.4337 -5.8222 2.3925
2.6401 -5.7295 2.3925
2.8429 -5.6295 2.3925
3.0420 -5.5222 2.3925
3.2369 -5.4077 2.3925
3.4275 -5.2864 2.3925
3.6136 -5.1583 2.3925
3.7948 -5.0235 2.3925
3.9710 -4.8824 2.3925
4.1420 -4.7350 2.3925
4.3074 -4.5816 2.3925
4.4671 -4.4224 2.3925
4.6209 -4.2575 2.3925
4.7686 -4.0873 2.3925
4.9101 -3.9119 2.3925
5.0450 -3.7317 2.3925
5.1733 -3.5467 2.3925
5.2949 -3.3573 2.3925
5.4094 -3.1637 2.3925
5.5169 -2.9662 2.3925
5.6172 -2.7651 2.3925
5.7101 -2.5605 2.3925
5.7956 -2.3529 2.3925
5.8735 -2.1423 2.3925
5.9438 -1.9292 2.3925
6.0064 -1.7139 2.3925
6.0611 -1.4964 2.3925
6.1080 -1.2773 2.3925
6.1470 -1.0567 2.3925
6.1781 -0.8349 2.3925
6.2011 -0.6123 2.3925
6.2162 -0.3890 2.3925
6.2233 -0.1655 2.3925
6.2223 0.0581 2.3925
6.2134 0.2813 2.3925
6.1965 0.5041 2.3925
6.1716 0.7260 2.3925
6.1388 0.9468 2.3925
6.0982 1.1662 2.3925
6.0498 1.3839 2.3925
5.9936 1.5997 2.3925
5.9299 1.8132 2.3925
5.8585 2.0243 2.3925
5.7797 2.2326 2.3925
5.6936 2.4379 2.3925
5.6002 2.6399 2.3925
5.4998 2.8384 2.3925
5.3923 3.0332 2.3925
5.2780 3.2239 2.3925
5.1571 3.4104 2.3925
5.0296 3.5925 2.3925
4.8957 3.7698 2.3925
4.7557 3.9422 2.3925
4.6096 4.1095 2.3925
4.4578 4.2714 2.3925
4.3003 4.4278 2.3925
4.1374 4.5785 2.3925
3.9692 4.7232 2.3925
3.7961 4.8619 2.3925
3.6182 4.9943 2.3925
3.4357 5.1203 2.3925
3.2489 5.2397 2.3925
3.0580 5.3524 2.3925
2.8632 5.4583 2.3925
2.6648 5.5571 2.3925
2.4630 5.6488 2.3925
0.9029 2.2924 0.9566
0.8200 2.3237 0.9568
0.7360 2.3519 0.9569
0.6510 2.3770 0.9570
0.5652 2.3991 0.9571
0.4786 2.4181 0.9572
0.3913 2.4340 0.9572
0.3036 2.4466 0.9573
0.2154 2.4562 0.9573
0.1270 2.4625 0.9573
0.0384 2.4656 0.9572
-0.0503 2.4655 0.9572
-0.1389 2.4623 0.9571
-0.2274 2.4558 0.9570
-0.3156 2.4461 0.9569
-0.4033 2.4333 0.9567
-0.4905 2.4173 0.9566
-0.5771 2.3981 0.9564
-0.6630 2.3759 0.9562
-0.7480 2.3505 0.9560
-0.8320 2.3222 0.9558
-2.2910 5.7359 2.3925
-2.4964 5.6514 2.3925
-2.6987 5.5597 2.3925
-2.8977 5.4608 2.3925
-3.0931 5.3548 2.3925
-3.2846 5.2420 2.3925
-3.4721 5.1223 2.3925
-3.6552 4.9960 2.3925
-3.8338 4.8632 2.3925
-4.0076 4.7241 2.3925
-4.1764 4.5789 2.3925
-4.3399 4.4276 2.3925
-4.4980 4.2706 2.3925
-4.6505 4.1079 2.3925
-4.7971 3.9399 2.3925
-4.9377 3.7667 2.3925
-5.0720 3.5884 2.3925
-5.1999 3.4055 2.3925
-5.3213 3.2180 2.3925
-5.4359 3.0262 2.3925
-5.5436 2.8303 2.3925
-5.6443 2.6307 2.3925
-5.7378 2.4274 2.3925
-5.8240 2.2209 2.3925
-5.9028 2.0113 2.3925
-5.9740 1.7990 2.3925
-6.0376 1.5841 2.3925
-6.0935 1.3670 2.3925
-6.1415 1.1480 2.3925
-6.1817 0.9272 2.3925
-6.2140 0.7051 2.3925
-6.2382 0.4819 2.3925
-6.2544 0.2578 2.3925
-6.2626 0.0333 2.3925
-6.2626 -0.1915 2.3925
-6.2546 -0.4163 2.3925
-6.2384 -0.6407 2.3925
-6.2142 -0.8645 2.3925
-6.1819 -1.0873 2.3925
-6.1416 -1.3090 2.3925
-6.0933 -1.5291 2.3925
-6.0371 -1.7474 2.3925
-5.9730 -1.9636 2.3925
-5.9011 -2.1774 2.3925
-5.8215 -2.3885 2.3925
-5.7343 -2.5967 2.3925
-5.6396 -2.8017 2.3925
-5.5375 -3.0032 2.3925
-5.4281 -3.2010 2.3925
-5.3117 -3.3947 2.3925
-5.1882 -3.5841 2.3925
-5.0580 -3.7689 2.3925
-4.9211 -3.9490 2.3925
-4.7777 -4.1240 2.3925
-4.6281 -4.2938 2.3925
-4.4723 -4.4581 2.3925
-4.3107 -4.6167 2.3925
-4.1434 -4.7693 2.3925
-3.9706 -4.9158 2.3925
-3.7926 -5.0559 2.3925
-3.6096 -5.1895 2.3925
-3.4219 -5.3164 2.3925
-3.2296 -5.4364 2.3925
-3.0331 -5.5494 2.3925
-2.8326 -5.6552 2.3925
-2.6284 -5.7536 2.3925
-2.4207 -5.8446 2.3925
-2.2099 -5.9280 2.3925
-1.9961 -6.0036 2.3925
-1.7797 -6.0715 2.3925
-1.5610 -6.1315 2.3925
-1.3403 -6.1834 2.3925
-1.1178 -6.2273 2.3925
-0.8939 -6.2631 2.3925
-0.6688 -6.2908 2.3925
-0.4429 -6.3103 2.3925
-0.2165 -6.3215 2.3925
0.0102 -6.3245 2.3925
0.2368 -6.3193 2.3925
0.4631 -6.3059 2.3925
0.6887 -6.2842 2.3925
0.9133 -6.2544 2.3925
1.1367 -6.2165 2.3925
1.3585 -6.1705 2.3925
1.5784 -6.1165 2.3925
1.7962 -6.0546 2.3925
2.0116 -5.9848 2.3925
2.2242 -5.9073 2.3925
2.4339 -5.8221 2.3925
2.6402 -5.7295 2.3925
2.8431 -5.6294 2.3925
3.0421 -5.5221 2.3925
3.2370 -5.4077 2.3925
3.4277 -5.2863 2.3925
3.6137 -5.1582 2.3925
3.7950 -5.0234 2.3925
3.9711 -4.8823 2.3925
4.1421 -4.7349 2.3925
4.3075 -4.5815 2.3925
4.4672 -4.4223 2.3925
4.6210 -4.2574 2.3925
4.7687 -4.0872 2.3925
4.9102 -3.9118 2.3925
5.0451 -3.7315 2.3925
5.1734 -3.5466 2.3925
5.2949 -3.3572 2.3925
5.4095 -3.1636 2.3925
5.5170 -2.9661 2.3925
5.6173 -2.7650 2.3925
5.7102 -2.5604 2.3925
5.7957 -2.3527 2.3925
5.8736 -2.1422 2.3925
5.9439 -1.9291 2.3925
6.0064 -1.7137 2.3925
6.0612 -1.4963 2.3925
6.1081 -1.2771 2.3925
6.1471 -1.0565 2.3925
6.1781 -0.8348 2.3925
6.2012 -0.6121 2.3925
6.2162 -0.3889 2.3925
6.2233 -0.1654 2.3925
6.2223 0.0582 2.3925
6.2134 0.2815 2.3925
6.1964 0.5042 2.3925
6.1716 0.7261 2.3925
6.1388 0.9469 2.3925
6.0982 1.1663 2.3925
6.0497 1.3840 2.3925
5.9936 1.5998 2.3925
5.9298 1.8134 2.3925
5.8585 2.0244 2.3925
5.7797 2.2327 2.3925
5.6935 2.4380 2.3925
5.6002 2.6401 2.3925
5.4997 2.8386 2.3925
5.3922 3.0333 2.3925
5.2780 3.2241 2.3925
5.1570 3.4106 2.3925
5.0295 3.5926 2.3925
4.8956 3.7699 2.3925
4.7556 3.9423 2.3925
4.6095 4.1096 2.3925
4.4577 4.2715 2.3925
4.3002 4.4279 2.3925
4.1373 4.5786 2.3925
3.9691 4.7233 2.3925
3.7960 4.8620 2.3925
3.6181 4.9944 2.3925
3.4356 5.1204 2.3925
3.2488 5.2398 2.3925
3.0578 5.3525 2.3925
2.8631 5.4583 2.3925
2.6647 5.5572 2.3925
2.4629 5.6489 2.3925
0.9029 2.2925 0.9566
0.8199 2.3237 0.9568
0.7359 2.3519 0.9569
0.6509 2.3771 0.9570
0.5651 2.3992 0.9571
0.4785 2.4181 0.9572
0.3913 2.4340 0.9572
0.3035 2.4467 0.9573
0.2154 2.4562 0.9573
0.1269 2.4625 0.9573
0.0383 2.4656 0.9572
-0.0504 2.4655 0.9572
-0.1390 2.4623 0.9571
-0.2274 2.4558 0.9570
-0.3156 2.4461 0.9569
-0.4034 2.4333 0.9567
-0.4906 2.4173 0.9566
-0.5772 2.3981 0.9564
-0.6631 2.3759 0.9562
-0.7480 2.3505 0.9560
-0.8321 2.3221 0.9558
-2.2911 5.7358 2.3925
-2.4965 5.6514 2.3925
-2.6988 5.5596 2.3925
-2.8978 5.4607 2.3925
-3.0932 5.3548 2.3925
-3.2847 5.2419 2.3925
-3.4722 5.1222 2.3925
-3.6553 4.9959 2.3925
-3.8339 4.8632 2.3925
-4.0077 4.7241 2.3925
-4.1765 4.5788 2.3925
-4.3400 4.4275 2.3925
-4.4981 4.2705 2.3925
-4.6506 4.1078 2.3925
-4.7972 3.9398 2.3925
-4.9377 3.7665 2.3925
-5.0721 3.5883 2.3925
-5.2000 3.4054 2.3925
-5.3213 3.2179 2.3925
-5.4360 3.0261 2.3925
-5.5437 2.8302 2.3925
-5.6443 2.6305 2.3925
-5.7378 2.4273 2.3925
-5.8240 2.2208 2.3925
-5.9028 2.0112 2.3925
-5.9740 1.7988 2.3925
-6.0376 1.5840 2.3925
-6.0935 1.3669 2.3925
-6.1416 1.1478 2.3925
-6.1817 0.9271 2.3925
-6.2140 0.7050 2.3925
-6.2382 0.4817 2.3925
-6.2544 0.2577 2.3925
-6.2626 0.0331 2.3925
-6.2626 -0.1917 2.3925
-6.2546 -0.4165 2.3925
-6.2384 -0.6409 2.3925
-6.2142 -0.8646 2.3925
-6.1819 -1.0875 2.3925
-6.1416 -1.3091 2.3925
-6.0933 -1.5292 2.3925
-6.0370 -1.7475 2.3925
-5.9729 -1.9637 2.3925
-5.9010 -2.1775 2.3925
-5.8214 -2.3887 2.3925
-5.7342 -2.5969 2.3925
-5.6395 -2.8019 2.3925
-5.5374 -3.0033 2.3925
-5.4281 -3.2011 2.3925
-5.3116 -3.3948 2.3925
-5.1881 -3.5842 2.3925
-5.0579 -3.7690 2.3925
-4.9210 -3.9491 2.3925
-4.7776 -4.1242 2.3925
-4.6280 -4.2939 2.3925
-4.4722 -4.4582 2.3925
-4.3106 -4.6167 2.3925
-4.1433 -4.7694 2.3925
-3.9705 -4.9159 2.3925
-3.7925 -5.0560 2.3925
-3.6095 -5.1896 2.3925
-3.4218 -5.3165 2.3925
-3.2295 -5.4365 2.3925
-3.0330 -5.5495 2.3925
-2.8325 -5.6553 2.3925
-2.6283 -5.7537 2.3925
-2.4206 -5.8447 2.3925
-2.2097 -5.9280 2.3925
-1.9960 -6.0037 2.3925
-1.7796 -6.0715 2.3925
-1.5609 -6.1315 2.3925
-1.3401 -6.1835 2.3925
-1.1177 -6.2274 2.3925
-0.8938 -6.2632 2.3925
-0.6687 -6.2908 2.3925
-0.4428 -6.3103 2.3925
-0.2163 -6.3215 2.3925
0.0092 -5.9183 2.3925
0.2213 -5.9134 2.3925
0.4330 -5.9009 2.3925
0.6441 -5.8807 2.3925
0.8543 -5.8529 2.3925
1.0633 -5.8175 2.3925
1.2708 -5.7745 2.3925
1.4766 -5.7240 2.3925
1.6805 -5.6662 2.3925
1.8820 -5.6010 2.3925
2.0810 -5.5285 2.3925
2.2773 -5.4489 2.3925
2.4704 -5.3623 2.3925
2.6603 -5.2687 2.3925
2.8466 -5.1684 2.3925
3.0291 -5.0615 2.3925
3.2075 -4.9480 2.3925
3.3817 -4.8282 2.3925
3.5514 -4.7022 2.3925
3.7164 -4.5702 2.3925
3.8764 -4.4323 2.3925
4.0314 -4.2888 2.3925
4.1810 -4.1399 2.3925
4.3250 -3.9857 2.3925
4.4634 -3.8265 2.3925
4.5959 -3.6624 2.3925
4.7223 -3.4938 2.3925
4.8426 -3.3207 2.3925
4.9564 -3.1435 2.3925
5.0638 -2.9624 2.3925
5.1646 -2.7775 2.3925
5.2586 -2.5893 2.3925
5.3457 -2.3979 2.3925
5.4259 -2.2035 2.3925
5.4990 -2.0064 2.3925
5.5650 -1.8070 2.3925
5.6237 -1.6054 2.3925
5.6751 -1.4018 2.3925
5.7192 -1.1967 2.3925
5.7558 -0.9901 2.3925
5.7850 -0.7825 2.3925
5.8068 -0.5740 2.3925
5.8211 -0.3650 2.3925
5.8278 -0.1556 2.3925
5.8271 0.0537 2.3925
5.8188 0.2628 2.3925
5.8031 0.4715 2.3925
5.7800 0.6793 2.3925
5.7495 0.8861 2.3925
5.7115 1.0916 2.3925
5.6663 1.2956 2.3925
5.6139 1.4977 2.3925
5.5543 1.6978 2.3925
5.4876 1.8955 2.3925
5.4139 2.0907 2.3925
5.3333 2.2830 2.3925
5.2460 2.4724 2.3925
5.1519 2.6584 2.3925
5.0514 2.8409 2.3925
4.9444 3.0196 2.3925
4.8312 3.1944 2.3925
4.7118 3.3650 2.3925
4.5865 3.5311 2.3925
4.4554 3.6927 2.3925
4.3186 3.8495 2.3925
4.1764 4.0013 2.3925
4.0289 4.1479 2.3925
3.8763 4.2891 2.3925
3.7188 4.4248 2.3925
3.5566 4.5548 2.3925
3.3900 4.6789 2.3925
3.2190 4.7970 2.3925
3.0440 4.9089 2.3925
2.8651 5.0145 2.3925
2.6826 5.1137 2.3925
2.4968 5.2064 2.3925
0.9216 2.1136 0.9555
0.8451 2.1456 0.9556
0.7675 2.1748 0.9558
0.6888 2.2012 0.9559
0.6093 2.2247 0.9560
0.5289 2.2454 0.9561
0.4479 2.2631 0.9562
0.3662 2.2780 0.9562
0.2841 2.2898 0.9562
0.2016 2.2987 0.9562
0.1188 2.3046 0.9562
0.0358 2.3075 0.9562
-0.0472 2.3075 0.9561
-0.1301 2.3044 0.9561
-0.2129 2.2983 0.9560
-0.2954 2.2893 0.9559
-0.3776 2.2773 0.9557
-0.4592 2.2623 0.9556
-0.5403 2.2444 0.9554
-0.6206 2.2235 0.9552
-0.7002 2.1998 0.9550
-0.7788 2.1733 0.9548
-0.8564 2.1439 0.9546
-2.3389 5.2940 2.3925
-2.5285 5.2080 2.3925
-2.7148 5.1153 2.3925
-2.8978 5.0159 2.3925
-3.0772 4.9101 2.3925
-3.2528 4.7979 2.3925
-3.4243 4.6795 2.3925
-3.5915 4.5550 2.3925
-3.7542 4.4246 2.3925
-3.9122 4.2884 2.3925
-4.0654 4.1467 2.3925
-4.2133 3.9995 2.3925
-4.3560 3.8471 2.3925
-4.4933 3.6896 2.3925
-4.6248 3.5272 2.3925
-4.7505 3.3603 2.3925
-4.8702 3.1888 2.3925
-4.9837 3.0131 2.3925
-5.0910 2.8334 2.3925
-5.1917 2.6499 2.3925
-5.2859 2.4629 2.3925
-5.3733 2.2725 2.3925
-5.4539 2.0790 2.3925
-5.5275 1.8827 2.3925
-5.5940 1.6839 2.3925
-5.6534 1.4826 2.3925
-5.7056 1.2793 2.3925
-5.7505 1.0742 2.3925
-5.7879 0.8675 2.3925
-5.8180 0.6595 2.3925
-5.8405 0.4505 2.3925
-5.8555 0.2407 2.3925
-5.8630 0.0305 2.3925
-5.8629 -0.1800 2.3925
-5.8552 -0.3904 2.3925
-5.8400 -0.6005 2.3925
-5.8172 -0.8099 2.3925
-5.7868 -1.0185 2.3925
-5.7489 -1.2259 2.3925
-5.7036 -1.4319 2.3925
-5.6508 -1.6362 2.3925
-5.5907 -1.8385 2.3925
-5.5233 -2.0386 2.3925
-5.4486 -2.2361 2.3925
-5.3669 -2.4310 2.3925
-5.2782 -2.6227 2.3925
-5.1825 -2.8113 2.3925
-5.0801 -2.9963 2.3925
-4.9710 -3.1775 2.3925
-4.8554 -3.3547 2.3925
-4.7334 -3.5276 2.3925
-4.6052 -3.6961 2.3925
-4.4710 -3.8598 2.3925
-4.3309 -4.0186 2.3925
-4.1851 -4.1723 2.3925
-4.0338 -4.3206 2.3925
-3.8772 -4.4633 2.3925
-3.7155 -4.6003 2.3925
-3.5489 -4.7314 2.3925
-3.3777 -4.8564 2.3925
-3.2020 -4.9751 2.3925
-3.0220 -5.0874 2.3925
-2.8382 -5.1930 2.3925
-2.6505 -5.2920 2.3925
-2.4594 -5.3841 2.3925
-2.2651 -5.4692 2.3925
-2.0678 -5.5471 2.3925
-1.8678 -5.6179 2.3925
-1.6653 -5.6814 2.3925
-1.4607 -5.7375 2.3925
-1.2542 -5.7861 2.3925
-1.0460 -5.8272 2.3925
-0.8365 -5.8607 2.3925
-0.6260 -5.8866 2.3925
-0.4146 -5.9048 2.3925
-0.2027 -5.9154 2.3925
0.0094 -5.9183 2.3925
0.2214 -5.9134 2.3925
0.4331 -5.9009 2.3925
0.6442 -5.8807 2.3925
0.8544 -5.8529 2.3925
1.0634 -5.8174 2.3925
1.2710 -5.7745 2.3925
1.4768 -5.7240 2.3925
1.6806 -5.6661 2.3925
1.8822 -5.6009 2.3925
2.0812 -5.5285 2.3925
2.2774 -5.4489 2.3925
2.4705 -5.3623 2.3925
2.6604 -5.2687 2.3925
2.8467 -5.1684 2.3925
3.0292 -5.0614 2.3925
3.2076 -4.9479 2.3925
3.3818 -4.8281 2.3925
3.5515 -4.7021 2.3925
3.7165 -4.5701 2.3925
3.8766 -4.4322 2.3925
4.0315 -4.2887 2.3925
4.1811 -4.1398 2.3925
4.3251 -3.9856 2.3925
4.4635 -3.8264 2.3925
4.5960 -3.6623 2.3925
4.7224 -3.4936 2.3925
4.8426 -3.3206 2.3925
4.9565 -3.1434 2.3925
5.0639 -2.9622 2.3925
5.1647 -2.7774 2.3925
5.2587 -2.5892 2.3925
5.3458 -2.3977 2.3925
5.4260 -2.2034 2.3925
5.4991 -2.0063 2.3925
5.5650 -1.8068 2.3925
5.6237 -1.6052 2.3925
5.6751 -1.4017 2.3925
5.7192 -1.1965 2.3925
5.7558 -0.9900 2.3925
5.7851 -0.7823 2.3925
5.8068 -0.5739 2.3925
5.8211 -0.3648 2.3925
5.8278 -0.1555 2.3925
5.8271 0.0539 2.3925
5.8188 0.2630 2.3925
5.8031 0.4716 2.3925
5.7800 0.6794 2.3925
5.7494 0.8862 2.3925
5.7115 1.0917 2.3925
5.6663 1.2957 2.3925
5.6138 1.4978 2.3925
5.5542 1.6979 2.3925
5.4875 1.8956 2.3925
5.4138 2.0908 2.3925
5.3333 2.2832 2.3925
5.2459 2.4726 2.3925
5.1519 2.6585 2.3925
5.0513 2.8410 2.3925
4.9443 3.0197 2.3925
4.8311 3.1945 2.3925
4.7117 3.3651 2.3925
4.5864 3.5313 2.3925
4.4553 3.6928 2.3925
4.3185 3.8496 2.3925
4.1763 4.0014 2.3925
4.0288 4.1480 2.3925
3.8762 4.2892 2.3925
3.7187 4.4249 2.3925
3.5565 4.5549 2.3925
3.3899 4.6790 2.3925
3.2189 4.7971 2.3925
3.0439 4.9090 2.3925
2.8650 5.0146 2.3925
2.6825 5.1137 2.3925
2.4967 5.2064 2.3925
0.9216 2.1136 0.9555
0.8451 2.1456 0.9556
0.7674 2.1748 0.9558
0.6888 2.2012 0.9559
0.6092 2.2247 0.9560
0.5289 2.2454 0.9561
0.4478 2.2631 0.9562
0.3662 2.2780 0.9562
0.2840 2.2898 0.9562
0.2015 2.2987 0.9562
0.1187 2.3046 0.9562
0.0358 2.3075 0.9562
-0.0472 2.3075 0.9561
-0.1302 2.3044 0.9561
-0.2130 2.2983 0.9560
-0.2955 2.2893 0.9559
-0.3776 2.2773 0.9557
-0.4593 2.2623 0.9556
-0.5403 2.2444 0.9554
-0.6207 2.2235 0.9552
-0.7002 2.1998 0.9550
-0.7789 2.1732 0.9548
-0.8565 2.1438 0.9546
-2.3391 5.2940 2.3925
-2.5286 5.2080 2.3925
-2.7149 5.1152 2.3925
-2.8979 5.0159 2.3925
-3.0773 4.9100 2.3925
-3.2529 4.7978 2.3925
-3.4244 4.6794 2.3925
-3.5916 4.5549 2.3925
-3.7543 4.4245 2.3925
-3.9123 4.2884 2.3925
-4.0654 4.1466 2.3925
-4.2134 3.9994 2.3925
-4.3561 3.8469 2.3925
-4.4934 3.6895 2.3925
-4.6249 3.5271 2.3925
-4.7506 3.3601 2.3925
-4.8703 3.1887 2.3925
-4.9838 3.0130 2.3925
-5.0910 2.8333 2.3925
-5.1918 2.6498 2.3925
-5.2859 2.4627 2.3925
-5.3733 2.2724 2.3925
-5.4539 2.0789 2.3925
-5.5275 1.8826 2.3925
-5.5941 1.6837 2.3925
-5.6535 1.4825 2.3925
-5.7056 1.2792 2.3925
-5.7505 1.0740 2.3925
-5.7880 0.8674 2.3925
-5.8180 0.6594 2.3925
-5.8405 0.4504 2.3925
-5.8555 0.2406 2.3925
-5.8630 0.0304 2.3925
-5.8629 -0.1801 2.3925
-5.8552 -0.3905 2.3925
-5.8400 -0.6006 2.3925
-5.8171 -0.8100 2.3925
-5.7868 -1.0186 2.3925
-5.7489 -1.2260 2.3925
-5.7035 -1.4320 2.3925
-5.6508 -1.6363 2.3925
-5.5906 -1.8386 2.3925
-5.5232 -2.0387 2.3925
-5.4486 -2.2363 2.3925
-5.3668 -2.4311 2.3925
-5.2781 -2.6229 2.3925
-5.1824 -2.8114 2.3925
-5.0800 -2.9964 2.3925
-4.9709 -3.1776 2.3925
-4.8553 -3.3548 2.3925
-4.7333 -3.5277 2.3925
-4.6051 -3.6962 2.3925
-4.4709 -3.8599 2.3925
-4.3308 -4.0187 2.3925
-4.1850 -4.1724 2.3925
-4.0337 -4.3207 2.3925
-3.8771 -4.4634 2.3925
-3.7154 -4.6004 2.3925
-3.5488 -4.7315 2.3925
-3.3775 -4.8565 2.3925
-3.2018 -4.9752 2.3925
-3.0219 -5.0874 2.3925
-2.8380 -5.1931 2.3925
-2.6504 -5.2920 2.3925
-2.4593 -5.3841 2.3925
-2.2650 -5.4692 2.3925
-2.0677 -5.5472 2.3925
-1.8677 -5.6179 2.3925
-1.6652 -5.6814 2.3925
-1.4606 -5.7375 2.3925
-1.2541 -5.7861 2.3925
-1.0459 -5.8272 2.3925
-0.8364 -5.8607 2.3925
-0.6258 -5.8866 2.3925
-0.4144 -5.9049 2.3925
-0.2026 -5.9154 2.3925
0.0085 -5.5549 2.3925
0.2075 -5.5504 2.3925
0.4062 -5.5387 2.3925
0.6043 -5.5198 2.3925
0.8016 -5.4937 2.3925
0.9978 -5.4605 2.3925
1.1926 -5.4202 2.3925
1.3857 -5.3729 2.3925
1.5771 -5.3187 2.3925
1.7663 -5.2575 2.3925
1.9531 -5.1896 2.3925
2.1373 -5.1150 2.3925
2.3186 -5.0337 2.3925
2.4968 -4.9460 2.3925
2.6717 -4.8519 2.3925
2.8431 -4.7516 2.3925
3.0107 -4.6452 2.3925
3.1742 -4.5328 2.3925
3.3336 -4.4146 2.3925
3.4885 -4.2908 2.3925
3.6388 -4.1614 2.3925
3.7843 -4.0268 2.3925
3.9248 -3.8871 2.3925
4.0602 -3.7424 2.3925
4.1902 -3.5930 2.3925
4.3146 -3.4391 2.3925
4.4335 -3.2808 2.3925
4.5464 -3.1184 2.3925
4.6535 -2.9521 2.3925
4.7544 -2.7821 2.3925
4.8491 -2.6086 2.3925
4.9375 -2.4319 2.3925
5.0194 -2.2522 2.3925
5.0948 -2.0697 2.3925
5.1636 -1.8847 2.3925
5.2256 -1.6975 2.3925
5.2809 -1.5082 2.3925
5.3293 -1.3171 2.3925
5.3708 -1.1244 2.3925
5.4054 -0.9305 2.3925
5.4330 -0.7355 2.3925
5.4535 -0.5397 2.3925
5.4670 -0.3434 2.3925
5.4735 -0.1468 2.3925
5.4730 0.0498 2.3925
5.4653 0.2462 2.3925
5.4507 0.4422 2.3925
5.4291 0.6374 2.3925
5.4005 0.8317 2.3925
5.3650 1.0248 2.3925
5.3227 1.2164 2.3925
5.2735 1.4063 2.3925
5.2176 1.5943 2.3925
5.1551 1.7801 2.3925
5.0859 1.9635 2.3925
5.0103 2.1442 2.3925
4.9284 2.3221 2.3925
4.8401 2.4969 2.3925
4.7457 2.6684 2.3925
4.6453 2.8364 2.3925
4.5390 3.0007 2.3925
4.4269 3.1610 2.3925
4.3092 3.3172 2.3925
4.1861 3.4690 2.3925
4.0576 3.6164 2.3925
3.9241 3.7591 2.3925
3.7855 3.8968 2.3925
3.6422 4.0296 2.3925
3.4942 4.1571 2.3925
3.3419 4.2793 2.3925
3.1853 4.3960 2.3925
3.0247 4.5070 2.3925
2.8602 4.6122 2.3925
2.6922 4.7114 2.3925
2.5207 4.8047 2.3925
2.3461 4.8918 2.3925
0.8652 1.9841 0.9546
0.7934 2.0141 0.9548
0.7205 2.0415 0.9549
0.6466 2.0663 0.9550
0.5719 2.0884 0.9551
0.4965 2.1077 0.9552
0.4204 2.1244 0.9552
0.3438 2.1383 0.9553
0.2666 2.1494 0.9553
0.1892 2.1578 0.9553
0.1115 2.1633 0.9553
0.0336 2.1661 0.9553
-0.0443 2.1660 0.9552
-0.1222 2.1631 0.9552
-0.1999 2.1574 0.9551
-0.2774 2.1489 0.9550
-0.3545 2.1376 0.9549
-0.4312 2.1235 0.9547
-0.5073 2.1067 0.9546
-0.5827 2.0872 0.9544
-0.6574 2.0649 0.9542
-0.7312 2.0400 0.9540
-0.8041 2.0124 0.9538
-0.8759 1.9822 0.9535
-2.3758 4.8927 2.3925
-2.5509 4.8055 2.3925
-2.7228 4.7120 2.3925
-2.8913 4.6125 2.3925
-3.0562 4.5071 2.3925
-3.2172 4.3957 2.3925
-3.3743 4.2787 2.3925
-3.5271 4.1561 2.3925
-3.6755 4.0281 2.3925
-3.8192 3.8949 2.3925
-3.9582 3.7565 2.3925
-4.0922 3.6133 2.3925
-4.2210 3.4652 2.3925
-4.3444 3.3127 2.3925
-4.4624 3.1557 2.3925
-4.5748 2.9946 2.3925
-4.6813 2.8295 2.3925
-4.7819 2.6607 2.3925
-4.8764 2.4883 2.3925
-4.9647 2.3125 2.3925
-5.0467 2.1337 2.3925
-5.1223 1.9520 2.3925
-5.1913 1.7675 2.3925
-5.2537 1.5807 2.3925
-5.3094 1.3917 2.3925
-5.3582 1.2008 2.3925
-5.4002 1.0081 2.3925
-5.4353 0.8140 2.3925
-5.4633 0.6187 2.3925
-5.4844 0.4224 2.3925
-5.4984 0.2254 2.3925
-5.5052 0.0280 2.3925
-5.5050 -0.1696 2.3925
-5.4977 -0.3671 2.3925
-5.4832 -0.5644 2.3925
-5.4617 -0.7610 2.3925
-5.4331 -0.9568 2.3925
-5.3974 -1.1515 2.3925
-5.3547 -1.3449 2.3925
-5.3050 -1.5366 2.3925
-5.2485 -1.7265 2.3925
-5.1851 -1.9143 2.3925
-5.1150 -2.0998 2.3925
-5.0381 -2.2826 2.3925
-4.9547 -2.4626 2.3925
-4.8649 -2.6395 2.3925
-4.7686 -2.8131 2.3925
-4.6661 -2.9832 2.3925
-4.5576 -3.1494 2.3925
-4.4430 -3.3117 2.3925
-4.3226 -3.4698 2.3925
-4.1966 -3.6234 2.3925
-4.0650 -3.7724 2.3925
-3.9281 -3.9166 2.3925
-3.7861 -4.0557 2.3925
-3.6391 -4.1897 2.3925
-3.4873 -4.3182 2.3925
-3.3309 -4.4412 2.3925
-3.1701 -4.5584 2.3925
-3.0052 -4.6698 2.3925
-2.8363 -4.7751 2.3925
-2.6637 -4.8743 2.3925
-2.4876 -4.9671 2.3925
-2.3083 -5.0535 2.3925
-2.1259 -5.1333 2.3925
-1.9407 -5.2065 2.3925
-1.7530 -5.2729 2.3925
-1.5630 -5.3325 2.3925
-1.3710 -5.3851 2.3925
-1.1772 -5.4307 2.3925
-0.9818 -5.4693 2.3925
-0.7852 -5.5008 2.3925
-0.5876 -5.5251 2.3925
-0.3892 -5.5422 2.3925
-0.1904 -5.5522 2.3925
0.0086 -5.5549 2.3925
0.2076 -5.5504 2.3925
0.4063 -5.5386 2.3925
0.6044 -5.5197 2.3925
0.8017 -5.4937 2.3925
0.9979 -5.4605 2.3925
1.1927 -5.4202 2.3925
1.3859 -5.3729 2.3925
1.5772 -5.3186 2.3925
1.7664 -5.2575 2.3925
1.9532 -5.1896 2.3925
2.1374 -5.1149 2.3925
2.3187 -5.0337 2.3925
2.4970 -4.9460 2.3925
2.6719 -4.8519 2.3925
2.8432 -4.7515 2.3925
3.0108 -4.6451 2.3925
3.1743 -4.5327 2.3925
3.3337 -4.4145 2.3925
3.4886 -4.2907 2.3925
3.6389 -4.1614 2.3925
3.7844 -4.0267 2.3925
3.9249 -3.8870 2.3925
4.0603 -3.7423 2.3925
4.1902 -3.5929 2.3925
4.3147 -3.4390 2.3925
4.4335 -3.2807 2.3925
4.5465 -3.1183 2.3925
4.6535 -2.9520 2.3925
4.7545 -2.7820 2.3925
4.8492 -2.6085 2.3925
4.9375 -2.4318 2.3925
5.0195 -2.2521 2.3925
5.0949 -2.0696 2.3925
5.1636 -1.8846 2.3925
5.2257 -1.6974 2.3925
5.2809 -1.5081 2.3925
5.3294 -1.3169 2.3925
5.3709 -1.1243 2.3925
5.4054 -0.9304 2.3925
5.4330 -0.7354 2.3925
5.4535 -0.5396 2.3925
5.4670 -0.3433 2.3925
5.4735 -0.1467 2.3925
5.4729 0.0500 2.3925
5.4653 0.2464 2.3925
5.4507 0.4423 2.3925
5.4291 0.6376 2.3925
5.4005 0.8319 2.3925
5.3650 1.0249 2.3925
5.3226 1.2165 2.3925
5.2735 1.4065 2.3925
5.2176 1.5944 2.3925
5.1550 1.7802 2.3925
5.0859 1.9636 2.3925
5.0103 2.1443 2.3925
4.9283 2.3222 2.3925
4.8401 2.4970 2.3925
4.7457 2.6685 2.3925
4.6452 2.8365 2.3925
4.5389 3.0008 2.3925
4.4268 3.1611 2.3925
4.3092 3.3173 2.3925
4.1860 3.4691 2.3925
4.0576 3.6165 2.3925
3.9240 3.7591 2.3925
3.7854 3.8969 2.3925
3.6421 4.0297 2.3925
3.4941 4.1572 2.3925
3.3418 4.2794 2.3925
3.1852 4.3960 2.3925
3.0246 4.5071 2.3925
2.8601 4.6123 2.3925
2.6921 4.7116 2.3925
2.5206 4.8048 2.3925
2.3459 4.8919 2.3925
0.8652 1.9841 0.9546
0.7933 2.0141 0.9548
0.7204 2.0415 0.9549
0.6466 2.0663 0.9550
0.5719 2.0884 0.9551
0.4965 2.1078 0.9552
0.4204 2.1244 0.9552
0.3437 2.1383 0.9553
0.2666 2.1494 0.9553
0.1891 2.1578 0.9553
0.1114 2.1633 0.9553
0.0335 2.1660 0.9553
-0.0444 2.1660 0.9552
-0.1223 2.1631 0.9552
-0.2000 2.1574 0.9551
-0.2774 2.1489 0.9550
-0.3546 2.1376 0.9549
-0.4312 2.1235 0.9547
-0.5073 2.1067 0.9546
-0.5827 2.0872 0.9544
-0.6574 2.0649 0.9542
-0.7313 2.0400 0.9540
-0.8041 2.0124 0.9538
-0.8760 1.9822 0.9535
-2.3759 4.8926 2.3925
-2.5510 4.8054 2.3925
-2.7229 4.7120 2.3925
-2.8914 4.6125 2.3925
-3.0563 4.5070 2.3925
-3.2174 4.3957 2.3925
-3.3744 4.2786 2.3925
-3.5272 4.1560 2.3925
-3.6756 4.0280 2.3925
-3.8193 3.8948 2.3925
-3.9583 3.7564 2.3925
-4.0922 3.6132 2.3925
-4.2211 3.4651 2.3925
-4.3445 3.3126 2.3925
-4.4625 3.1556 2.3925
-4.5748 2.9945 2.3925
-4.6814 2.8294 2.3925
-4.7820 2.6606 2.3925
-4.8765 2.4882 2.3925
-4.9648 2.3124 2.3925
-5.0468 2.1336 2.3925
-5.1223 1.9518 2.3925
-5.1913 1.7674 2.3925
-5.2537 1.5806 2.3925
-5.3094 1.3916 2.3925
-5.3582 1.2006 2.3925
-5.4002 1.0080 2.3925
-5.4353 0.8138 2.3925
-5.4634 0.6185 2.3925
-5.4844 0.4223 2.3925
-5.4984 0.2253 2.3925
-5.5052 0.0279 2.3925
-5.5050 -0.1697 2.3925
-5.4977 -0.3673 2.3925
-5.4832 -0.5645 2.3925
-5.4617 -0.7611 2.3925
-5.4330 -0.9570 2.3925
-5.3974 -1.1517 2.3925
-5.3547 -1.3450 2.3925
-5.3050 -1.5368 2.3925
-5.2485 -1.7267 2.3925
-5.1851 -1.9144 2.3925
-5.1149 -2.0999 2.3925
-5.0381 -2.2827 2.3925
-4.9547 -2.4627 2.3925
-4.8648 -2.6396 2.3925
-4.7686 -2.8132 2.3925
-4.6661 -2.9833 2.3925
-4.5575 -3.1495 2.3925
-4.4429 -3.3118 2.3925
-4.3225 -3.4699 2.3925
-4.1965 -3.6235 2.3925
-4.0649 -3.7725 2.3925
-3.9281 -3.9167 2.3925
-3.7860 -4.0558 2.3925
-3.6390 -4.1897 2.3925
-3.4872 -4.3183 2.3925
-3.3308 -4.4413 2.3925
-3.1700 -4.5585 2.3925
-3.0051 -4.6699 2.3925
-2.8362 -4.7752 2.3925
-2.6636 -4.8743 2.3925
-2.4875 -4.9672 2.3925
-2.3082 -5.0535 2.3925
-2.1258 -5.1334 2.3925
-1.9406 -5.2065 2.3925
-1.7529 -5.2729 2.3925
-1.5629 -5.3325 2.3925
-1.3709 -5.3851 2.3925
-1.1771 -5.4308 2.3925
-0.9817 -5.4693 2.3925
-0.7851 -5.5008 2.3925
-0.5875 -5.5251 2.3925
-0.3891 -5.5422 2.3925
-0.1903 -5.5522 2.3925
0.0079 -5.2276 2.3925
0.1951 -5.2234 2.3925
0.3821 -5.2124 2.3925
0.5685 -5.1946 2.3925
0.7541 -5.1702 2.3925
0.9387 -5.1390 2.3925
1.1221 -5.1011 2.3925
1.3039 -5.0567 2.3925
1.4839 -5.0057 2.3925
1.6620 -4.9482 2.3925
1.8378 -4.8843 2.3925
2.0112 -4.8142 2.3925
2.1818 -4.7378 2.3925
2.3496 -4.6553 2.3925
2.5143 -4.5668 2.3925
2.6756 -4.4725 2.3925
2.8333 -4.3724 2.3925
2.9873 -4.2667 2.3925
3.1373 -4.1555 2.3925
3.2832 -4.0390 2.3925
3.4247 -3.9174 2.3925
3.5617 -3.7907 2.3925
3.6941 -3.6593 2.3925
3.8215 -3.5232 2.3925
3.9439 -3.3826 2.3925
4.0612 -3.2378 2.3925
4.1731 -3.0888 2.3925
4.2795 -2.9360 2.3925
4.3804 -2.7795 2.3925
4.4755 -2.6195 2.3925
4.5647 -2.4563 2.3925
4.6480 -2.2900 2.3925
4.7253 -2.1209 2.3925
4.7963 -1.9491 2.3925
4.8612 -1.7750 2.3925
4.9197 -1.5988 2.3925
4.9719 -1.4206 2.3925
5.0175 -1.2407 2.3925
5.0567 -1.0593 2.3925
5.0894 -0.8767 2.3925
5.1154 -0.6931 2.3925
5.1349 -0.5088 2.3925
5.1477 -0.3240 2.3925
5.1540 -0.1388 2.3925
5.1535 0.0463 2.3925
5.1465 0.2313 2.3925
5.1328 0.4158 2.3925
5.1125 0.5997 2.3925
5.0857 0.7827 2.3925
5.0524 0.9645 2.3925
5.0126 1.1450 2.3925
4.9664 1.3239 2.3925
4.9138 1.5009 2.3925
4.8550 1.6759 2.3925
4.7900 1.8487 2.3925
4.7189 2.0190 2.3925
4.6418 2.1865 2.3925
4.5587 2.3512 2.3925
4.4699 2.5128 2.3925
4.3753 2.6711 2.3925
4.2753 2.8258 2.3925
4.1698 2.9769 2.3925
4.0590 3.1240 2.3925
3.9430 3.2671 2.3925
3.8221 3.4060 2.3925
3.6963 3.5404 2.3925
3.5658 3.6702 2.3925
3.4308 3.7953 2.3925
3.2915 3.9155 2.3925
3.1480 4.0306 2.3925
3.0005 4.1406 2.3925
2.8492 4.2452 2.3925
2.6943 4.3443 2.3925
2.5360 4.4379 2.3925
2.3745 4.5258 2.3925
0.8809 1.8367 0.9537
0.8143 1.8673 0.9538
0.7467 1.8956 0.9540
0.6781 1.9214 0.9541
0.6086 1.9447 0.9542
0.5383 1.9655 0.9543
0.4673 1.9837 0.9544
0.3957 1.9994 0.9544
0.3235 2.0125 0.9545
0.2509 2.0229 0.9545
0.1780 2.0308 0.9545
0.1049 2.0360 0.9545
0.0316 2.0385 0.9544
-0.0418 2.0385 0.9544
-0.1151 2.0358 0.9543
-0.1882 2.0304 0.9543
-0.2612 2.0224 0.9542
-0.3337 2.0118 0.9540
-0.4059 1.9985 0.9539
-0.4775 1.9827 0.9538
-0.5485 1.9643 0.9536
-0.6188 1.9433 0.9534
-0.6883 1.9199 0.9532
-0.7569 1.8939 0.9530
-0.8245 1.8655 0.9528
-0.8911 1.8347 0.9526
-2.4029 4.5259 2.3925
-2.5648 4.4378 2.3925
-2.7235 4.3440 2.3925
-2.8788 4.2446 2.3925
-3.0304 4.1397 2.3925
-3.1783 4.0294 2.3925
-3.3221 3.9138 2.3925
-3.4618 3.7932 2.3925
-3.5972 3.6677 2.3925
-3.7280 3.5373 2.3925
-3.8541 3.4023 2.3925
-3.9753 3.2628 2.3925
-4.0915 3.1191 2.3925
-4.2025 2.9712 2.3925
-4.3082 2.8195 2.3925
-4.4085 2.6639 2.3925
-4.5031 2.5049 2.3925
-4.5920 2.3425 2.3925
-4.6751 2.1770 2.3925
-4.7522 2.0085 2.3925
-4.8232 1.8373 2.3925
-4.8881 1.6637 2.3925
-4.9468 1.4877 2.3925
-4.9991 1.3097 2.3925
-5.0450 1.1299 2.3925
-5.0844 0.9485 2.3925
-5.1173 0.7657 2.3925
-5.1436 0.5818 2.3925
-5.1633 0.3971 2.3925
-5.1764 0.2116 2.3925
-5.1827 0.0257 2.3925
-5.1824 -0.1603 2.3925
-5.1754 -0.3462 2.3925
-5.1617 -0.5319 2.3925
-5.1413 -0.7170 2.3925
-5.1143 -0.9013 2.3925
-5.0806 -1.0845 2.3925
-5.0403 -1.2665 2.3925
-4.9935 -1.4470 2.3925
-4.9402 -1.6257 2.3925
-4.8804 -1.8024 2.3925
-4.8143 -1.9769 2.3925
-4.7419 -2.1489 2.3925
-4.6633 -2.3183 2.3925
-4.5787 -2.4848 2.3925
-4.4880 -2.6481 2.3925
-4.3915 -2.8081 2.3925
-4.2893 -2.9645 2.3925
-4.1814 -3.1172 2.3925
-4.0681 -3.2659 2.3925
-3.9494 -3.4104 2.3925
-3.8256 -3.5506 2.3925
-3.6967 -3.6863 2.3925
-3.5630 -3.8172 2.3925
-3.4246 -3.9432 2.3925
-3.2817 -4.0641 2.3925
-3.1345 -4.1798 2.3925
-2.9832 -4.2901 2.3925
-2.8280 -4.3948 2.3925
-2.6691 -4.4939 2.3925
-2.5067 -4.5872 2.3925
-2.3410 -4.6745 2.3925
-2.1722 -4.7558 2.3925
-2.0006 -4.8309 2.3925
-1.8263 -4.8997 2.3925
-1.6497 -4.9622 2.3925
-1.4709 -5.0182 2.3925
-1.2902 -5.0678 2.3925
-1.1078 -5.1107 2.3925
-0.9240 -5.1470 2.3925
-0.7390 -5.1766 2.3925
-0.5531 -5.1995 2.3925
-0.3664 -5.2157 2.3925
-0.1793 -5.2250 2.3925
0.0080 -5.2276 2.3925
0.1952 -5.2234 2.3925
0.3822 -5.2124 2.3925
0.5686 -5.1946 2.3925
0.7543 -5.1701 2.3925
0.9389 -5.1390 2.3925
1.1222 -5.1011 2.3925
1.3040 -5.0566 2.3925
1.4840 -5.0056 2.3925
1.6621 -4.9482 2.3925
1.8379 -4.8843 2.3925
2.0113 -4.8141 2.3925
2.1819 -4.7377 2.3925
2.3497 -4.6552 2.3925
2.5144 -4.5667 2.3925
2.6757 -4.4724 2.3925
2.8334 -4.3723 2.3925
2.9874 -4.2666 2.3925
3.1374 -4.1554 2.3925
3.2833 -4.0389 2.3925
3.4248 -3.9173 2.3925
3.5618 -3.7906 2.3925
3.6941 -3.6592 2.3925
3.8216 -3.5231 2.3925
3.9440 -3.3825 2.3925
4.0613 -3.2377 2.3925
4.1732 -3.0887 2.3925
4.2796 -2.9359 2.3925
4.3804 -2.7794 2.3925
4.4755 -2.6194 2.3925
4.5648 -2.4562 2.3925
4.6481 -2.2899 2.3925
4.7253 -2.1208 2.3925
4.7964 -1.9490 2.3925
4.8612 -1.7749 2.3925
4.9198 -1.5986 2.3925
4.9719 -1.4204 2.3925
5.0176 -1.2405 2.3925
5.0568 -1.0592 2.3925
5.0894 -0.8766 2.3925
5.1155 -0.6930 2.3925
5.1349 -0.5087 2.3925
5.1478 -0.3239 2.3925
5.1540 -0.1387 2.3925
5.1535 0.0464 2.3925
5.1465 0.2314 2.3925
5.1328 0.4159 2.3925
5.1125 0.5998 2.3925
5.0857 0.7828 2.3925
5.0524 0.9646 2.3925
5.0126 1.1451 2.3925
4.9664 1.3240 2.3925
4.9138 1.5010 2.3925
4.8550 1.6760 2.3925
4.7900 1.8488 2.3925
4.7188 2.0191 2.3925
4.6417 2.1867 2.3925
4.5587 2.3513 2.3925
4.4698 2.5129 2.3925
4.3753 2.6712 2.3925
4.2752 2.8259 2.3925
4.1697 2.9770 2.3925
4.0589 3.1241 2.3925
3.9429 3.2672 2.3925
3.8220 3.4061 2.3925
3.6962 3.5405 2.3925
3.5657 3.6703 2.3925
3.4307 3.7954 2.3925
3.2914 3.9156 2.3925
3.1479 4.0307 2.3925
3.0004 4.1406 2.3925
2.8491 4.2453 2.3925
2.6942 4.3444 2.3925
2.5359 4.4379 2.3925
2.3744 4.5258 2.3925
0.8809 1.8367 0.9537
0.8143 1.8674 0.9538
0.7467 1.8956 0.9540
0.6781 1.9214 0.9541
0.6086 1.9447 0.9542
0.5383 1.9655 0.9543
0.4672 1.9837 0.9544
0.3956 1.9994 0.9544
0.3235 2.0125 0.9545
0.2509 2.0229 0.9545
0.1780 2.0308 0.9545
0.1048 2.0360 0.9545
0.0315 2.0385 0.9544
-0.0418 2.0385 0.9544
-0.1151 2.0358 0.9543
-0.1883 2.0304 0.9543
-0.2612 2.0224 0.9542
-0.3338 2.0118 0.9540
-0.4059 1.9985 0.9539
-0.4776 1.9827 0.9538
-0.5486 1.9643 0.9536
-0.6189 1.9433 0.9534
-0.6883 1.9199 0.9532
-0.7569 1.8939 0.9530
-0.8246 1.8655 0.9528
-0.8911 1.8346 0.9526
-2.4030 4.5258 2.3925
-2.5649 4.4377 2.3925
-2.7236 4.3439 2.3925
-2.8789 4.2445 2.3925
-3.0305 4.1396 2.3925
-3.1784 4.0293 2.3925
-3.3222 3.9138 2.3925
-3.4619 3.7931 2.3925
-3.5973 3.6676 2.3925
-3.7281 3.5372 2.3925
-3.8542 3.4022 2.3925
-3.9754 3.2627 2.3925
-4.0916 3.1190 2.3925
-4.2026 2.9711 2.3925
-4.3083 2.8194 2.3925
-4.4085 2.6638 2.3925
-4.5032 2.5048 2.3925
-4.5921 2.3424 2.3925
-4.6751 2.1769 2.3925
-4.7523 2.0084 2.3925
-4.8233 1.8372 2.3925
-4.8882 1.6636 2.3925
-4.9468 1.4876 2.3925
-4.9991 1.3096 2.3925
-5.0450 1.1298 2.3925
-5.0844 0.9484 2.3925
-5.1173 0.7656 2.3925
-5.1436 0.5817 2.3925
-5.1633 0.3969 2.3925
-5.1764 0.2115 2.3925
-5.1827 0.0256 2.3925
-5.1824 -0.1604 2.3925
-5.1754 -0.3464 2.3925
-5.1617 -0.5320 2.3925
-5.1413 -0.7171 2.3925
-5.1143 -0.9014 2.3925
-5.0806 -1.0846 2.3925
-5.0403 -1.2666 2.3925
-4.9935 -1.4471 2.3925
-4.9401 -1.6258 2.3925
-4.8804 -1.8025 2.3925
-4.8143 -1.9770 2.3925
-4.7419 -2.1490 2.3925
-4.6633 -2.3184 2.3925
-4.5786 -2.4849 2.3925
-4.4880 -2.6482 2.3925
-4.3915 -2.8082 2.3925
-4.2892 -2.9646 2.3925
-4.1813 -3.1173 2.3925
-4.0680 -3.2660 2.3925
-3.9493 -3.4105 2.3925
-3.8255 -3.5507 2.3925
-3.6966 -3.6864 2.3925
-3.5629 -3.8172 2.3925
-3.4245 -3.9432 2.3925
-3.2816 -4.0642 2.3925
-3.1344 -4.1799 2.3925
-2.9831 -4.2901 2.3925
-2.8279 -4.3949 2.3925
-2.6690 -4.4940 2.3925
-2.5066 -4.5872 2.3925
-2.3408 -4.6746 2.3925
-2.1721 -4.7558 2.3925
-2.0004 -4.8309 2.3925
-1.8262 -4.8997 2.3925
-1.6496 -4.9622 2.3925
-1.4708 -5.0183 2.3925
-1.2901 -5.0678 2.3925
-1.1077 -5.1107 2.3925
-0.9239 -5.1470 2.3925
-0.7389 -5.1766 2.3925
-0.5529 -5.1995 2.3925
-0.3663 -5.2157 2.3925
-0.1792 -5.2250 2.3925
0.0073 -4.9310 2.3925
0.1839 -4.9271 2.3925
0.3602 -4.9168 2.3925
0.5361 -4.9000 2.3925
0.7111 -4.8770 2.3925
0.8853 -4.8476 2.3925
1.0582 -4.8119 2.3925
1.2297 -4.7700 2.3925
1.3995 -4.7220 2.3925
1.5675 -4.6678 2.3925
1.7333 -4.6076 2.3925
1.8969 -4.5415 2.3925
2.0579 -4.4695 2.3925
2.2162 -4.3918 2.3925
2.3715 -4.3084 2.3925
2.5237 -4.2194 2.3925
2.6725 -4.1250 2.3925
2.8178 -4.0254 2.3925
2.9594 -3.9206 2.3925
3.0970 -3.8108 2.3925
3.2306 -3.6961 2.3925
3.3599 -3.5767 2.3925
3.4848 -3.4527 2.3925
3.6051 -3.3244 2.3925
3.7207 -3.1918 2.3925
3.8313 -3.0552 2.3925
3.9370 -2.9148 2.3925
4.0375 -2.7706 2.3925
4.1327 -2.6230 2.3925
4.2225 -2.4721 2.3925
4.3068 -2.3182 2.3925
4.3855 -2.1613 2.3925
4.4585 -2.0018 2.3925
4.5256 -1.8398 2.3925
4.5869 -1.6755 2.3925
4.6422 -1.5092 2.3925
4.6915 -1.3411 2.3925
4.7347 -1.1713 2.3925
4.7718 -1.0002 2.3925
4.8027 -0.8279 2.3925
4.8274 -0.6547 2.3925
4.8458 -0.4808 2.3925
4.8580 -0.3063 2.3925
4.8640 -0.1316 2.3925
4.8637 0.0431 2.3925
4.8571 0.2177 2.3925
4.8443 0.3919 2.3925
4.8253 0.5654 2.3925
4.8000 0.7381 2.3925
4.7687 0.9098 2.3925
4.7312 1.0801 2.3925
4.6876 1.2490 2.3925
4.6381 1.4162 2.3925
4.5827 1.5814 2.3925
4.5214 1.7445 2.3925
4.4543 1.9052 2.3925
4.3816 2.0635 2.3925
4.3032 2.2190 2.3925
4.2194 2.3715 2.3925
4.1303 2.5209 2.3925
4.0358 2.6671 2.3925
3.9363 2.8097 2.3925
3.8317 2.9487 2.3925
3.7223 3.0838 2.3925
3.6082 3.2149 2.3925
3.4895 3.3419 2.3925
3.3663 3.4645 2.3925
3.2389 3.5826 2.3925
3.1074 3.6961 2.3925
2.9719 3.8048 2.3925
2.8327 3.9086 2.3925
2.6899 4.0074 2.3925
2.5437 4.1010 2.3925
2.3942 4.1894 2.3925
0.8928 1.7014 0.9528
0.8310 1.7326 0.9530
0.7682 1.7615 0.9531
0.7044 1.7881 0.9532
0.6397 1.8125 0.9534
0.5741 1.8344 0.9535
0.5078 1.8541 0.9535
0.4408 1.8713 0.9536
0.3732 1.8860 0.9537
0.3051 1.8984 0.9537
0.2367 1.9082 0.9537
0.1679 1.9156 0.9537
0.0989 1.9205 0.9537
0.0297 1.9229 0.9537
-0.0395 1.9229 0.9537
-0.1086 1.9203 0.9536
-0.1776 1.9152 0.9535
-0.2464 1.9077 0.9534
-0.3149 1.8977 0.9533
-0.3830 1.8852 0.9532
-0.4505 1.8702 0.9531
-0.5175 1.8529 0.9529
-0.5838 1.8331 0.9527
-0.6494 1.8110 0.9526
-0.7141 1.7865 0.9524
-0.7779 1.7597 0.9521
-0.8407 1.7306 0.9519
-0.9024 1.6993 0.9517
-2.4214 4.1888 2.3925
-2.5711 4.1002 2.3925
-2.7177 4.0063 2.3925
-2.8608 3.9072 2.3925
-3.0003 3.8030 2.3925
-3.1361 3.6939 2.3925
-3.2679 3.5800 2.3925
-3.3956 3.4614 2.3925
-3.5190 3.3383 2.3925
-3.6380 3.2108 2.3925
-3.7523 3.0791 2.3925
-3.8620 2.9434 2.3925
-3.9667 2.8038 2.3925
-4.0664 2.6605 2.3925
-4.1609 2.5137 2.3925
-4.2501 2.3635 2.3925
-4.3340 2.2102 2.3925
-4.4123 2.0539 2.3925
-4.4850 1.8949 2.3925
-4.5519 1.7334 2.3925
-4.6131 1.5694 2.3925
-4.6683 1.4034 2.3925
-4.7176 1.2354 2.3925
-4.7608 1.0656 2.3925
-4.7979 0.8944 2.3925
-4.8289 0.7220 2.3925
-4.8536 0.5484 2.3925
-4.8721 0.3741 2.3925
-4.8843 0.1991 2.3925
-4.8903 0.0237 2.3925
-4.8899 -0.1518 2.3925
-4.8832 -0.3272 2.3925
-4.8701 -0.5024 2.3925
-4.8508 -0.6770 2.3925
-4.8252 -0.8509 2.3925
-4.7933 -1.0237 2.3925
-4.7553 -1.1954 2.3925
-4.7110 -1.3656 2.3925
-4.6606 -1.5342 2.3925
-4.6042 -1.7009 2.3925
-4.5417 -1.8655 2.3925
-4.4734 -2.0278 2.3925
-4.3992 -2.1875 2.3925
-4.3193 -2.3445 2.3925
-4.2337 -2.4985 2.3925
-4.1426 -2.6494 2.3925
-4.0461 -2.7970 2.3925
-3.9443 -2.9409 2.3925
-3.8373 -3.0811 2.3925
-3.7254 -3.2175 2.3925
-3.6085 -3.3496 2.3925
-3.4869 -3.4775 2.3925
-3.3608 -3.6010 2.3925
-3.2302 -3.7198 2.3925
-3.0954 -3.8338 2.3925
-2.9566 -3.9429 2.3925
-2.8139 -4.0469 2.3925
-2.6674 -4.1457 2.3925
-2.5175 -4.2391 2.3925
-2.3643 -4.3270 2.3925
-2.2080 -4.4094 2.3925
-2.0488 -4.4860 2.3925
-1.8870 -4.5568 2.3925
-1.7226 -4.6217 2.3925
-1.5560 -4.6806 2.3925
-1.3874 -4.7335 2.3925
-1.2170 -4.7802 2.3925
-1.0450 -4.8207 2.3925
-0.8716 -4.8549 2.3925
-0.6971 -4.8829 2.3925
-0.5218 -4.9045 2.3925
-0.3457 -4.9197 2.3925
-0.1693 -4.9286 2.3925
0.0074 -4.9310 2.3925
0.1840 -4.9271 2.3925
0.3603 -4.9167 2.3925
0.5362 -4.9000 2.3925
0.7113 -4.8770 2.3925
0.8854 -4.8476 2.3925
1.0583 -4.8119 2.3925
1.2298 -4.7700 2.3925
1.3996 -4.7220 2.3925
1.5676 -4.6678 2.3925
1.7334 -4.6076 2.3925
1.8970 -4.5415 2.3925
2.0580 -4.4695 2.3925
2.2163 -4.3917 2.3925
2.3716 -4.3083 2.3925
2.5238 -4.2193 2.3925
2.6726 -4.1250 2.3925
2.8179 -4.0253 2.3925
2.9595 -3.9205 2.3925
3.0971 -3.8107 2.3925
3.2307 -3.6960 2.3925
3.3600 -3.5766 2.3925
3.4849 -3.4526 2.3925
3.6052 -3.3243 2.3925
3.7207 -3.1917 2.3925
3.8314 -3.0551 2.3925
3.9371 -2.9147 2.3925
4.0376 -2.7706 2.3925
4.1328 -2.6229 2.3925
4.2226 -2.4720 2.3925
4.3069 -2.3181 2.3925
4.3855 -2.1612 2.3925
4.4585 -2.0017 2.3925
4.5257 -1.8397 2.3925
4.5869 -1.6754 2.3925
4.6422 -1.5091 2.3925
4.6915 -1.3410 2.3925
4.7347 -1.1712 2.3925
4.7718 -1.0001 2.3925
4.8027 -0.8278 2.3925
4.8274 -0.6546 2.3925
4.8458 -0.4806 2.3925
4.8580 -0.3062 2.3925
4.8640 -0.1315 2.3925
4.8637 0.0433 2.3925
4.8571 0.2178 2.3925
4.8443 0.3920 2.3925
4.8252 0.5656 2.3925
4.8000 0.7383 2.3925
4.7686 0.9099 2.3925
4.7312 1.0803 2.3925
4.6876 1.2491 2.3925
4.6381 1.4163 2.3925
4.5826 1.5815 2.3925
4.5213 1.7446 2.3925
4.4543 1.9054 2.3925
4.3815 2.0636 2.3925
4.3032 2.2191 2.3925
4.2194 2.3716 2.3925
4.1302 2.5210 2.3925
4.0358 2.6672 2.3925
3.9362 2.8098 2.3925
3.8317 2.9488 2.3925
3.7222 3.0839 2.3925
3.6081 3.2150 2.3925
3.4894 3.3419 2.3925
3.3662 3.4646 2.3925
3.2388 3.5827 2.3925
3.1073 3.6962 2.3925
2.9719 3.8049 2.3925
2.8326 3.9087 2.3925
2.6898 4.0075 2.3925
2.5436 4.1011 2.3925
2.3941 4.1895 2.3925
0.8927 1.7014 0.9528
0.8310 1.7326 0.9530
0.7682 1.7615 0.9531
0.7044 1.7882 0.9532
0.6396 1.8125 0.9534
0.5741 1.8345 0.9535
0.5077 1.8541 0.9535
0.4408 1.8713 0.9536
0.3732 1.8860 0.9537
0.3051 1.8984 0.9537
0.2366 1.9082 0.9537
0.1678 1.9156 0.9537
0.0988 1.9205 0.9537
0.0297 1.9229 0.9537
-0.0395 1.9229 0.9537
-0.1087 1.9203 0.9536
-0.1777 1.9152 0.9535
-0.2465 1.9077 0.9534
-0.3149 1.8977 0.9533
-0.3830 1.8852 0.9532
-0.4506 1.8702 0.9531
-0.5176 1.8529 0.9529
-0.5839 1.8331 0.9527
-0.6494 1.8110 0.9526
-0.7142 1.7865 0.9524
-0.7779 1.7597 0.9521
-0.8407 1.7306 0.9519
-0.9024 1.6992 0.9517
-2.4215 4.1887 2.3925
-2.5712 4.1001 2.3925
-2.7178 4.0062 2.3925
-2.8609 3.9071 2.3925
-3.0004 3.8029 2.3925
-3.1362 3.6938 2.3925
-3.2680 3.5799 2.3925
-3.3957 3.4613 2.3925
-3.5191 3.3382 2.3925
-3.6380 3.2107 2.3925
-3.7524 3.0790 2.3925
-3.8620 2.9433 2.3925
-3.9667 2.8037 2.3925
-4.0664 2.6604 2.3925
-4.1610 2.5136 2.3925
-4.2502 2.3634 2.3925
-4.3340 2.2101 2.3925
-4.4123 2.0538 2.3925
-4.4850 1.8948 2.3925
-4.5520 1.7332 2.3925
-4.6131 1.5693 2.3925
-4.6684 1.4033 2.3925
-4.7176 1.2353 2.3925
-4.7608 1.0655 2.3925
-4.7979 0.8944 2.3925
-4.8289 0.7219 2.3925
-4.8536 0.5483 2.3925
-4.8721 0.3739 2.3925
