ply
format ascii 1.0
element vertex 2186
property float32 x
property float32 y
property float32 z
end_header
4.4059 -3.5521 2.3859
4.5115 -3.3720 2.3859
4.6111 -3.1896 2.3859
4.7047 -3.0050 2.3859
4.7922 -2.8185 2.3859
4.8737 -2.6302 2.3859
4.9492 -2.4402 2.3859
5.0187 -2.2487 2.3859
5.0820 -2.0557 2.3859
5.0040 -1.8125 2.3231
4.9288 -1.5820 2.2655
4.9018 -1.3761 2.2335
4.9387 -1.1917 2.2335
4.9700 -1.0065 2.2335
4.9957 -0.8209 2.2336
5.0158 -0.6348 2.2336
5.0303 -0.4485 2.2336
5.0393 -0.2620 2.2336
5.0426 -0.0754 2.2336
5.0404 0.1111 2.2336
5.0326 0.2974 2.2336
5.0193 0.4835 2.2336
5.0004 0.6691 2.2337
4.9759 0.8541 2.2337
4.9459 1.0386 2.2337
4.9103 1.2222 2.2337
4.8693 1.4050 2.2337
4.8226 1.5867 2.2337
4.7705 1.7673 2.2337
4.7128 1.9467 2.2337
4.6497 2.1247 2.2337
4.5810 2.3011 2.2337
4.5068 2.4759 2.2337
4.4271 2.6490 2.2337
4.3420 2.8201 2.2337
4.2513 2.9892 2.2337
4.1552 3.1561 2.2337
4.0537 3.3207 2.2337
3.9467 3.4828 2.2337
3.8343 3.6423 2.2336
3.7165 3.7990 2.2336
3.5934 3.9528 2.2336
3.4649 4.1035 2.2336
3.3310 4.2509 2.2336
3.1919 4.3949 2.2336
3.0476 4.5353 2.2336
2.8980 4.6720 2.2336
2.7433 4.8047 2.2335
2.5834 4.9336 2.2335
2.4310 5.0832 2.2448
2.3195 5.3398 2.3036
2.2017 5.6177 2.3708
2.0240 5.7713 2.3859
0.7772 2.5027 1.0149
0.6870 2.5318 1.0085
0.5957 2.5577 1.0019
0.5036 2.5803 0.9953
0.4108 2.5995 0.9886
0.3172 2.6154 0.9819
0.2232 2.6279 0.9750
0.1288 2.6369 0.9682
0.0341 2.6425 0.9613
-0.0607 2.6447 0.9543
-0.1556 2.6434 0.9474
-0.2503 2.6388 0.9404
-0.3448 2.6306 0.9335
-0.4390 2.6191 0.9265
-0.5327 2.6042 0.9195
-0.6258 2.5858 0.9126
-0.7181 2.5641 0.9057
-0.8096 2.5391 0.8989
-0.9002 2.5108 0.8921
-2.6669 6.6811 2.3859
-2.9269 6.6373 2.3859
-3.1868 6.5835 2.3859
-3.4465 6.5197 2.3859
-3.7053 6.4456 2.3859
-3.9630 6.3612 2.3859
-4.2190 6.2664 2.3859
-4.4728 6.1612 2.3859
-4.7239 6.0455 2.3859
-4.9718 5.9192 2.3859
-5.2161 5.7825 2.3859
-5.4561 5.6353 2.3859
-5.6914 5.4777 2.3859
-5.9214 5.3099 2.3859
-6.1455 5.1318 2.3859
4.7745 -1.9664 2.3859
4.8303 -1.7837 2.3859
4.8802 -1.5998 2.3859
4.8412 -1.3910 2.3456
4.7728 -1.1822 2.2945
4.7074 -0.9827 2.2482
4.7021 -0.8012 2.2335
4.7222 -0.6257 2.2335
4.7369 -0.4499 2.2335
4.7463 -0.2738 2.2335
4.7504 -0.0977 2.2336
4.7492 0.0783 2.2336
4.7427 0.2542 2.2336
4.7308 0.4299 2.2336
4.7136 0.6051 2.2336
4.6912 0.7799 2.2336
4.6634 0.9540 2.2336
4.6303 1.1274 2.2336
4.5920 1.2999 2.2336
4.5484 1.4714 2.2336
4.4995 1.6419 2.2336
4.4454 1.8111 2.2336
4.3860 1.9790 2.2336
4.3214 2.1454 2.2336
4.2516 2.3102 2.2336
4.1765 2.4732 2.2336
4.0963 2.6344 2.2336
4.0108 2.7936 2.2336
3.9202 2.9507 2.2336
3.8245 3.1055 2.2336
3.7236 3.2579 2.2336
3.6176 3.4077 2.2336
3.5065 3.5548 2.2336
3.3904 3.6991 2.2336
3.2693 3.8403 2.2336
3.1432 3.9784 2.2335
3.0121 4.1132 2.2335
2.8762 4.2445 2.2335
2.7354 4.3722 2.2335
2.6232 4.5536 2.2622
2.5272 4.7819 2.3138
2.4252 5.0230 2.3711
2.2699 5.1735 2.3859
2.0946 5.2877 2.3859
0.8157 2.2994 1.0166
0.7328 2.3301 1.0107
0.6487 2.3577 1.0047
0.5638 2.3823 0.9986
0.4779 2.4038 0.9924
0.3914 2.4222 0.9862
0.3043 2.4374 0.9799
0.2166 2.4495 0.9735
0.1286 2.4584 0.9671
0.0403 2.4641 0.9607
-0.0481 2.4666 0.9542
-0.1366 2.4659 0.9478
-0.2250 2.4620 0.9413
-0.3132 2.4549 0.9348
-0.4011 2.4446 0.9283
-0.4886 2.4311 0.9218
-0.5755 2.4145 0.9153
-0.6617 2.3948 0.9089
-0.7472 2.3719 0.9025
-0.8318 2.3459 0.8962
-0.9155 2.3169 0.8899
-2.6946 6.1694 2.3859
-2.9345 6.1176 2.3859
-3.1740 6.0565 2.3859
-3.4125 5.9859 2.3859
-3.6497 5.9060 2.3859
-3.8852 5.8165 2.3859
-4.1185 5.7175 2.3859
-4.3491 5.6088 2.3859
-4.5767 5.4906 2.3859
-4.8008 5.3629 2.3859
-5.0208 5.2257 2.3859
-5.2363 5.0790 2.3859
-5.4468 4.9230 2.3859
-5.6519 4.7579 2.3859
-5.8510 4.5837 2.3859
-6.0437 4.4007 2.3859
-6.2294 4.2090 2.3859
-6.4078 4.0090 2.3859
-6.5782 3.8009 2.3859
-6.7404 3.5850 2.3859
-6.8938 3.3617 2.3859
-7.0380 3.1313 2.3859
-7.1726 2.8942 2.3859
-7.2972 2.6509 2.3859
-7.4114 2.4018 2.3859
-7.5149 2.1473 2.3859
-7.6074 1.8880 2.3859
-7.6886 1.6245 2.3859
-7.7582 1.3571 2.3859
-7.8160 1.0866 2.3859
-7.8618 0.8135 2.3859
-7.8955 0.5383 2.3859
-7.9169 0.2617 2.3859
-7.9260 -0.0157 2.3859
-7.9227 -0.2934 2.3859
-7.9070 -0.5706 2.3859
-7.8790 -0.8469 2.3859
-7.8388 -1.1214 2.3859
-7.7863 -1.3938 2.3859
-7.7219 -1.6634 2.3859
-7.6457 -1.9294 2.3859
-7.5579 -2.1916 2.3859
-7.4588 -2.4493 2.3859
-7.3486 -2.7019 2.3859
-7.2277 -2.9489 2.3859
-7.0964 -3.1899 2.3859
-6.9551 -3.4244 2.3859
-6.8042 -3.6521 2.3859
-6.6441 -3.8723 2.3859
-6.4752 -4.0849 2.3859
-6.2981 -4.2894 2.3859
-6.1131 -4.4855 2.3859
-5.9207 -4.6730 2.3859
-5.7215 -4.8516 2.3859
-5.5159 -5.0211 2.3859
-5.3045 -5.1813 2.3859
-5.0877 -5.3320 2.3859
-4.8660 -5.4731 2.3859
-4.6399 -5.6045 2.3859
-4.4099 -5.7261 2.3859
-4.1766 -5.8380 2.3859
-3.9403 -5.9399 2.3859
-3.7016 -6.0321 2.3859
-3.4609 -6.1144 2.3859
-3.2187 -6.1869 2.3859
-2.9755 -6.2498 2.3859
-2.7315 -6.3031 2.3859
-2.4873 -6.3469 2.3859
-2.2433 -6.3813 2.3859
-1.9997 -6.4064 2.3859
-1.7571 -6.4225 2.3859
-1.5157 -6.4297 2.3859
-1.2758 -6.4281 2.3859
-1.0378 -6.4180 2.3859
-0.8021 -6.3995 2.3859
-0.5688 -6.3729 2.3859
-0.3382 -6.3383 2.3859
-0.1106 -6.2959 2.3859
0.1137 -6.2460 2.3859
0.3346 -6.1887 2.3859
0.5519 -6.1246 2.3859
0.7652 -6.0534 2.3859
0.9746 -5.9757 2.3859
1.1797 -5.8915 2.3859
1.3805 -5.8011 2.3859
1.5768 -5.7047 2.3859
1.7684 -5.6026 2.3859
1.9553 -5.4950 2.3859
2.1373 -5.3821 2.3859
2.3143 -5.2641 2.3859
2.4863 -5.1412 2.3859
2.6531 -5.0136 2.3859
2.8147 -4.8816 2.3859
2.9709 -4.7452 2.3859
3.1219 -4.6048 2.3859
3.2674 -4.4606 2.3859
3.4075 -4.3127 2.3859
3.5420 -4.1612 2.3859
3.6710 -4.0065 2.3859
3.7945 -3.8486 2.3859
3.9123 -3.6878 2.3859
4.0246 -3.5242 2.3859
4.1311 -3.3580 2.3859
4.2320 -3.1893 2.3859
4.3273 -3.0183 2.3859
4.4168 -2.8452 2.3859
4.5006 -2.6701 2.3859
4.5788 -2.4931 2.3859
4.6511 -2.3143 2.3859
4.7179 -2.1344 2.3859
4.7789 -1.9528 2.3859
4.8342 -1.7702 2.3859
4.8837 -1.5861 2.3859
4.8360 -1.3752 2.3416
4.7678 -1.1670 2.2909
4.7046 -0.9686 2.2459
4.7038 -0.7882 2.2335
4.7235 -0.6126 2.2335
4.7378 -0.4368 2.2335
4.7468 -0.2608 2.2336
4.7505 -0.0847 2.2336
4.7489 0.0914 2.2336
4.7420 0.2673 2.2336
4.7297 0.4429 2.2336
4.7121 0.6181 2.2336
4.6893 0.7928 2.2336
4.6611 0.9669 2.2336
4.6277 1.1402 2.2336
4.5890 1.3127 2.2336
4.5450 1.4841 2.2336
4.4957 1.6545 2.2336
4.4412 1.8236 2.2336
4.3814 1.9914 2.2336
4.3164 2.1577 2.2336
4.2462 2.3223 2.2336
4.1707 2.4852 2.2336
4.0901 2.6463 2.2336
4.0043 2.8054 2.2336
3.9133 2.9623 2.2336
3.8172 3.1169 2.2336
3.7159 3.2691 2.2336
3.6095 3.4187 2.2336
3.4981 3.5656 2.2336
3.3816 3.7097 2.2336
3.2601 3.8507 2.2336
3.1336 3.9886 2.2335
3.0022 4.1231 2.2335
2.8659 4.2541 2.2335
2.7247 4.3815 2.2335
2.6162 4.5702 2.2659
2.5198 4.7993 2.3178
2.4173 5.0415 2.3756
2.2571 5.1822 2.3859
2.0814 5.2959 2.3859
0.8096 2.3018 1.0161
0.7266 2.3322 1.0102
0.6425 2.3596 1.0042
0.5574 2.3840 0.9981
0.4715 2.4053 0.9920
0.3850 2.4234 0.9857
0.2978 2.4384 0.9794
0.2101 2.4503 0.9731
0.1220 2.4589 0.9667
0.0337 2.4644 0.9602
-0.0547 2.4667 0.9538
-0.1432 2.4657 0.9473
-0.2316 2.4616 0.9408
-0.3198 2.4543 0.9343
-0.4076 2.4437 0.9278
-0.4950 2.4300 0.9213
-0.5819 2.4132 0.9148
-0.6681 2.3932 0.9084
-0.7535 2.3701 0.9020
-0.8381 2.3439 0.8957
-0.9216 2.3146 0.8894
-2.7124 6.1659 2.3859
-2.9523 6.1134 2.3859
-3.1917 6.0516 2.3859
-3.4302 5.9803 2.3859
-3.6673 5.8997 2.3859
-3.9026 5.8095 2.3859
-4.1357 5.7097 2.3859
-4.3661 5.6004 2.3859
-4.5935 5.4815 2.3859
-4.8172 5.3531 2.3859
-5.0369 5.2151 2.3859
-5.2521 5.0678 2.3859
-5.4622 4.9111 2.3859
-5.6669 4.7452 2.3859
-5.8655 4.5704 2.3859
-6.0577 4.3867 2.3859
-6.2429 4.1945 2.3859
-6.4207 3.9938 2.3859
-6.5906 3.7852 2.3859
-6.7521 3.5687 2.3859
-6.9048 3.3448 2.3859
-7.0483 3.1139 2.3859
-7.1822 2.8764 2.3859
-7.3060 2.6326 2.3859
-7.4195 2.3831 2.3859
-7.5222 2.1282 2.3859
-7.6138 1.8686 2.3859
-7.6941 1.6047 2.3859
-7.7629 1.3372 2.3859
-7.8198 1.0664 2.3859
-7.8647 0.7931 2.3859
-7.8975 0.5178 2.3859
-7.9180 0.2411 2.3859
-7.9262 -0.0363 2.3859
-7.9219 -0.3140 2.3859
-7.9054 -0.5911 2.3859
-7.8765 -0.8673 2.3859
-7.8353 -1.1416 2.3859
-7.7820 -1.4139 2.3859
-7.7167 -1.6832 2.3859
-7.6396 -1.9490 2.3859
-7.5509 -2.2109 2.3859
-7.4509 -2.4683 2.3859
-7.3400 -2.7204 2.3859
-7.2183 -2.9670 2.3859
-7.0862 -3.2076 2.3859
-6.9442 -3.4415 2.3859
-6.7926 -3.6687 2.3859
-6.6318 -3.8883 2.3859
-6.4623 -4.1003 2.3859
-6.2846 -4.3042 2.3859
-6.0990 -4.4997 2.3859
-5.9062 -4.6866 2.3859
-5.7065 -4.8645 2.3859
-5.5004 -5.0333 2.3859
-5.2886 -5.1928 2.3859
-5.0714 -5.3428 2.3859
-4.8493 -5.4832 2.3859
-4.6229 -5.6139 2.3859
-4.3927 -5.7348 2.3859
-4.1591 -5.8459 2.3859
-3.9227 -5.9471 2.3859
-3.6838 -6.0385 2.3859
-3.4430 -6.1201 2.3859
-3.2007 -6.1919 2.3859
-2.9574 -6.2541 2.3859
-2.7134 -6.3067 2.3859
-2.4692 -6.3497 2.3859
-2.2251 -6.3835 2.3859
-1.9817 -6.4079 2.3859
-1.7391 -6.4234 2.3859
-1.4978 -6.4299 2.3859
-1.2581 -6.4277 2.3859
-1.0203 -6.4169 2.3859
-0.7847 -6.3978 2.3859
-0.5516 -6.3706 2.3859
-0.3212 -6.3354 2.3859
-0.0939 -6.2925 2.3859
0.1302 -6.2420 2.3859
0.3509 -6.1843 2.3859
0.5678 -6.1195 2.3859
0.7809 -6.0479 2.3859
0.9900 -5.9696 2.3859
1.1948 -5.8850 2.3859
1.3952 -5.7941 2.3859
1.5911 -5.6974 2.3859
1.7824 -5.5948 2.3859
1.9689 -5.4868 2.3859
2.1506 -5.3735 2.3859
2.3272 -5.2551 2.3859
2.4988 -5.1318 2.3859
2.6652 -5.0039 2.3859
2.8264 -4.8716 2.3859
2.9823 -4.7350 2.3859
3.1329 -4.5943 2.3859
3.2780 -4.4498 2.3859
3.4176 -4.3016 2.3859
3.5518 -4.1499 2.3859
3.6804 -3.9949 2.3859
3.8034 -3.8368 2.3859
3.9209 -3.6758 2.3859
4.0327 -3.5119 2.3859
4.1388 -3.3455 2.3859
4.2393 -3.1767 2.3859
4.3341 -3.0055 2.3859
4.4232 -2.8322 2.3859
4.5066 -2.6570 2.3859
4.5843 -2.4799 2.3859
4.6564 -2.3013 2.3859
4.7226 -2.1210 2.3859
4.7832 -1.9393 2.3859
4.8381 -1.7566 2.3859
4.8871 -1.5724 2.3859
4.8308 -1.3594 2.3377
4.7628 -1.1520 2.2873
4.7018 -0.9546 2.2435
4.7054 -0.7752 2.2335
4.7247 -0.5996 2.2335
4.7387 -0.4237 2.2335
4.7473 -0.2477 2.2336
4.7506 -0.0716 2.2336
4.7486 0.1044 2.2336
4.7412 0.2803 2.2336
4.7286 0.4559 2.2336
4.7106 0.6311 2.2336
4.6874 0.8058 2.2336
4.6588 0.9798 2.2336
4.6250 1.1531 2.2336
4.5859 1.3254 2.2336
4.5415 1.4968 2.2336
4.4918 1.6671 2.2336
4.4369 1.8361 2.2336
4.3768 2.0038 2.2336
4.3114 2.1699 2.2336
4.2408 2.3345 2.2336
4.1649 2.4973 2.2336
4.0839 2.6582 2.2336
3.9977 2.8171 2.2336
3.9063 2.9738 2.2336
3.8098 3.1283 2.2336
3.7082 3.2803 2.2336
3.6014 3.4297 2.2336
3.4896 3.5764 2.2336
3.3727 3.7202 2.2336
3.2509 3.8610 2.2336
3.1240 3.9987 2.2335
2.9922 4.1329 2.2335
2.8556 4.2637 2.2335
2.7141 4.3908 2.2335
2.6092 4.5869 2.2695
2.5124 4.8168 2.3219
2.4095 5.0601 2.3801
2.2442 5.1908 2.3859
2.0681 5.3043 2.3859
0.8035 2.3041 1.0157
0.7203 2.3344 1.0098
0.6362 2.3616 1.0038
0.5511 2.3857 0.9977
0.4651 2.4067 0.9915
0.3785 2.4247 0.9853
0.2913 2.4394 0.9789
0.2036 2.4510 0.9726
0.1155 2.4595 0.9662
0.0272 2.4647 0.9597
-0.0613 2.4667 0.9533
-0.1498 2.4655 0.9468
-0.2381 2.4612 0.9403
-0.3263 2.4536 0.9338
-0.4141 2.4428 0.9273
-0.5015 2.4289 0.9208
-0.5883 2.4118 0.9144
-0.6745 2.3916 0.9079
-0.7599 2.3682 0.9016
-0.8443 2.3418 0.8952
-0.9278 2.3124 0.8889
-2.7302 6.1623 2.3859
-2.9701 6.1091 2.3859
-3.2095 6.0466 2.3859
-3.4478 5.9747 2.3859
-3.6848 5.8933 2.3859
-3.9200 5.8024 2.3859
-4.1529 5.7019 2.3859
-4.3831 5.5919 2.3859
-4.6102 5.4723 2.3859
-4.8337 5.3431 2.3859
-5.0531 5.2045 2.3859
-5.2679 5.0564 2.3859
-5.4776 4.8991 2.3859
-5.6818 4.7326 2.3859
4.5038 -1.8593 2.3859
4.5571 -1.6868 2.3859
4.6049 -1.5131 2.3859
4.6473 -1.3386 2.3859
4.6841 -1.1630 2.3859
4.6820 -0.9798 2.3689
4.6191 -0.7891 2.3243
4.5582 -0.6056 2.2837
4.5000 -0.4286 2.2474
4.4812 -0.2595 2.2335
4.4852 -0.0931 2.2335
4.4872 0.0737 2.2351
4.4778 0.2401 2.2335
4.4666 0.4062 2.2335
4.4503 0.5720 2.2336
4.4289 0.7373 2.2336
4.4024 0.9020 2.2336
4.3709 1.0660 2.2336
4.3344 1.2291 2.2336
4.2928 1.3912 2.2336
4.2462 1.5523 2.2336
4.1946 1.7121 2.2336
4.1380 1.8707 2.2336
4.0764 2.0277 2.2336
4.0098 2.1832 2.2336
3.9383 2.3370 2.2336
3.8618 2.4890 2.2336
3.7804 2.6390 2.2336
3.6941 2.7869 2.2336
3.6030 2.9326 2.2336
3.5070 3.0759 2.2336
3.4061 3.2167 2.2335
3.3005 3.3549 2.2335
3.1968 3.4976 2.2382
3.0751 3.6227 2.2335
2.9553 3.7521 2.2335
2.8619 3.9207 2.2580
2.7802 4.1168 2.2982
2.6943 4.3219 2.3429
2.5964 4.5247 2.3859
2.4443 4.6439 2.3859
2.2876 4.7588 2.3859
2.1263 4.8693 2.3859
0.8357 2.1206 1.0170
0.7591 2.1521 1.0116
0.6815 2.1808 1.0061
0.6028 2.2067 1.0004
0.5233 2.2297 0.9947
0.4429 2.2498 0.9890
0.3619 2.2670 0.9831
0.2804 2.2812 0.9772
0.1983 2.2925 0.9713
0.1159 2.3009 0.9653
0.0333 2.3062 0.9593
-0.0495 2.3085 0.9532
-0.1323 2.3079 0.9472
-0.2150 2.3042 0.9411
-0.2976 2.2976 0.9350
-0.3799 2.2879 0.9289
-0.4617 2.2753 0.9229
-0.5431 2.2597 0.9168
-0.6238 2.2412 0.9108
-0.7038 2.2198 0.9048
-0.7830 2.1955 0.8989
-0.8613 2.1684 0.8930
-0.9385 2.1384 0.8872
-2.7465 5.7000 2.3859
-2.9683 5.6404 2.3859
-3.1890 5.5721 2.3859
-3.4084 5.4951 2.3859
-3.6259 5.4093 2.3859
-3.8412 5.3147 2.3859
-4.0538 5.2113 2.3859
-4.2634 5.0992 2.3859
-4.4696 4.9783 2.3859
-4.6719 4.8488 2.3859
-4.8699 4.7107 2.3859
-5.0631 4.5640 2.3859
-5.2512 4.4091 2.3859
-5.4336 4.2459 2.3859
-5.6100 4.0748 2.3859
-5.7799 3.8958 2.3859
-5.9429 3.7093 2.3859
-6.0986 3.5155 2.3859
-6.2466 3.3147 2.3859
-6.3865 3.1072 2.3859
-6.5179 2.8933 2.3859
-6.6404 2.6735 2.3859
-6.7538 2.4480 2.3859
-6.8577 2.2173 2.3859
-6.9518 1.9819 2.3859
-7.0358 1.7422 2.3859
-7.1094 1.4986 2.3859
-7.1726 1.2517 2.3859
-7.2249 1.0019 2.3859
-7.2664 0.7498 2.3859
-7.2968 0.4959 2.3859
-7.3161 0.2407 2.3859
-7.3242 -0.0152 2.3859
-7.3210 -0.2712 2.3859
-7.3066 -0.5269 2.3859
-7.2810 -0.7817 2.3859
-7.2442 -1.0350 2.3859
-7.1964 -1.2864 2.3859
-7.1377 -1.5352 2.3859
-7.0682 -1.7809 2.3859
-6.9882 -2.0231 2.3859
-6.8978 -2.2613 2.3859
-6.7974 -2.4949 2.3859
-6.6871 -2.7235 2.3859
-6.5674 -2.9467 2.3859
-6.4385 -3.1641 2.3859
-6.3007 -3.3753 2.3859
-6.1545 -3.5798 2.3859
-6.0002 -3.7775 2.3859
-5.8382 -3.9678 2.3859
-5.6690 -4.1507 2.3859
-5.4929 -4.3257 2.3859
-5.3104 -4.4926 2.3859
-5.1220 -4.6513 2.3859
-4.9280 -4.8016 2.3859
-4.7289 -4.9432 2.3859
-4.5252 -5.0761 2.3859
-4.3174 -5.2002 2.3859
-4.1057 -5.3153 2.3859
-3.8908 -5.4215 2.3859
-3.6730 -5.5187 2.3859
-3.4527 -5.6068 2.3859
-3.2304 -5.6859 2.3859
-3.0065 -5.7561 2.3859
-2.7814 -5.8173 2.3859
-2.5555 -5.8696 2.3859
-2.3291 -5.9131 2.3859
-2.1027 -5.9480 2.3859
-1.8765 -5.9743 2.3859
-1.6510 -5.9921 2.3859
-1.4263 -6.0016 2.3859
-1.2030 -6.0029 2.3859
-0.9811 -5.9963 2.3859
-0.7611 -5.9818 2.3859
-0.5432 -5.9596 2.3859
-0.3277 -5.9299 2.3859
-0.1148 -5.8929 2.3859
0.0953 -5.8488 2.3859
0.3023 -5.7978 2.3859
0.5061 -5.7401 2.3859
0.7065 -5.6758 2.3859
0.9032 -5.6052 2.3859
1.0961 -5.5285 2.3859
1.2851 -5.4459 2.3859
1.4699 -5.3576 2.3859
1.6506 -5.2637 2.3859
1.8269 -5.1646 2.3859
1.9987 -5.0603 2.3859
2.1660 -4.9511 2.3859
2.3286 -4.8372 2.3859
2.4865 -4.7188 2.3859
2.6395 -4.5961 2.3859
2.7875 -4.4691 2.3859
2.9306 -4.3383 2.3859
3.0687 -4.2037 2.3859
3.2016 -4.0654 2.3859
3.3294 -3.9238 2.3859
3.4520 -3.7789 2.3859
3.5695 -3.6310 2.3859
3.6816 -3.4801 2.3859
3.7884 -3.3265 2.3859
3.8899 -3.1704 2.3859
3.9860 -3.0118 2.3859
4.0768 -2.8509 2.3859
4.1622 -2.6879 2.3859
4.2422 -2.5230 2.3859
4.3168 -2.3562 2.3859
4.3860 -2.1878 2.3859
4.4497 -2.0179 2.3859
4.5079 -1.8464 2.3859
4.5608 -1.6739 2.3859
4.6082 -1.5002 2.3859
4.6502 -1.3256 2.3859
4.6867 -1.1500 2.3859
4.6772 -0.9653 2.3655
4.6145 -0.7752 2.3211
4.5537 -0.5922 2.2809
4.4972 -0.4159 2.2456
4.4816 -0.2471 2.2335
4.4853 -0.0806 2.2335
4.4837 0.0860 2.2335
4.4772 0.2524 2.2335
4.4655 0.4186 2.2335
4.4488 0.5843 2.2336
4.4271 0.7496 2.2336
4.4002 0.9142 2.2336
4.3684 1.0781 2.2336
4.3315 1.2411 2.2336
4.2895 1.4032 2.2336
4.2425 1.5642 2.2336
4.1905 1.7239 2.2336
4.1336 1.8824 2.2336
4.0716 2.0393 2.2336
4.0047 2.1947 2.2336
3.9328 2.3484 2.2336
3.8559 2.5002 2.2336
3.7742 2.6501 2.2336
3.6875 2.7978 2.2336
3.5960 2.9433 2.2336
3.4997 3.0865 2.2336
3.3985 3.2271 2.2335
3.2925 3.3650 2.2335
3.1818 3.5002 2.2335
3.0665 3.6321 2.2335
2.9463 3.7616 2.2335
2.8561 3.9346 2.2608
2.7740 4.1317 2.3014
2.6877 4.3375 2.3464
2.5852 4.5337 2.3859
2.4328 4.6526 2.3859
2.2758 4.7672 2.3859
2.1142 4.8773 2.3859
0.8301 2.1231 1.0166
0.7534 2.1543 1.0112
0.6757 2.1828 1.0056
0.5969 2.2085 1.0000
0.5173 2.2313 0.9943
0.4369 2.2512 0.9885
0.3559 2.2681 0.9827
0.2743 2.2822 0.9768
0.1922 2.2933 0.9709
0.1098 2.3014 0.9649
0.0272 2.3065 0.9588
-0.0556 2.3086 0.9528
-0.1384 2.3077 0.9467
-0.2212 2.3038 0.9406
-0.3037 2.2969 0.9346
-0.3860 2.2871 0.9285
-0.4678 2.2743 0.9224
-0.5491 2.2585 0.9164
-0.6298 2.2398 0.9104
-0.7097 2.2181 0.9044
-0.7889 2.1936 0.8984
-0.8671 2.1663 0.8926
-0.9442 2.1361 0.8867
-2.7630 5.6959 2.3859
-2.9847 5.6356 2.3859
-3.2054 5.5667 2.3859
-3.4246 5.4890 2.3859
-3.6419 5.4026 2.3859
-3.8570 5.3073 2.3859
-4.0695 5.2033 2.3859
-4.2789 5.0905 2.3859
-4.4848 4.9690 2.3859
-4.6868 4.8388 2.3859
-4.8844 4.7001 2.3859
-5.0773 4.5528 2.3859
-5.2649 4.3973 2.3859
-5.4469 4.2335 2.3859
-5.6228 4.0618 2.3859
-5.7922 3.8823 2.3859
-5.9547 3.6952 2.3859
-6.1098 3.5009 2.3859
-6.2572 3.2995 2.3859
-6.3965 3.0915 2.3859
-6.5273 2.8772 2.3859
-6.6492 2.6569 2.3859
-6.7618 2.4310 2.3859
-6.8650 2.2000 2.3859
-6.9584 1.9643 2.3859
-7.0416 1.7242 2.3859
-7.1145 1.4804 2.3859
-7.1768 1.2332 2.3859
-7.2284 0.9833 2.3859
-7.2690 0.7310 2.3859
-7.2987 0.4770 2.3859
-7.3171 0.2218 2.3859
-7.3244 -0.0342 2.3859
-7.3204 -0.2902 2.3859
-7.3051 -0.5459 2.3859
-7.2787 -0.8006 2.3859
-7.2411 -1.0538 2.3859
-7.1924 -1.3049 2.3859
-7.1329 -1.5535 2.3859
-7.0626 -1.7990 2.3859
-6.9818 -2.0409 2.3859
-6.8907 -2.2787 2.3859
-6.7895 -2.5120 2.3859
-6.6786 -2.7403 2.3859
-6.5581 -2.9631 2.3859
-6.4285 -3.1800 2.3859
-6.2901 -3.3907 2.3859
-6.1433 -3.5947 2.3859
-5.9884 -3.7918 2.3859
-5.8259 -3.9817 2.3859
-5.6562 -4.1639 2.3859
-5.4796 -4.3383 2.3859
-5.2967 -4.5047 2.3859
-5.1078 -4.6627 2.3859
-4.9134 -4.8124 2.3859
-4.7140 -4.9534 2.3859
-4.5100 -5.0856 2.3859
-4.3018 -5.2090 2.3859
-4.0899 -5.3235 2.3859
-3.8747 -5.4290 2.3859
-3.6567 -5.5255 2.3859
-3.4363 -5.6130 2.3859
-3.2139 -5.6914 2.3859
-2.9899 -5.7609 2.3859
-2.7647 -5.8215 2.3859
-2.5387 -5.8731 2.3859
-2.3123 -5.9160 2.3859
-2.0859 -5.9502 2.3859
-1.8597 -5.9759 2.3859
-1.6342 -5.9931 2.3859
-1.4097 -6.0020 2.3859
-1.1864 -6.0027 2.3859
-0.9647 -5.9955 2.3859
-0.7449 -5.9804 2.3859
-0.5272 -5.9576 2.3859
-0.3118 -5.9274 2.3859
-0.0991 -5.8899 2.3859
0.1108 -5.8453 2.3859
0.3176 -5.7937 2.3859
0.5211 -5.7355 2.3859
0.7212 -5.6708 2.3859
0.9176 -5.5997 2.3859
1.1103 -5.5226 2.3859
1.2989 -5.4395 2.3859
1.4835 -5.3508 2.3859
1.6638 -5.2565 2.3859
1.8398 -5.1570 2.3859
2.0113 -5.0523 2.3859
2.1783 -4.9428 2.3859
2.3405 -4.8286 2.3859
2.4980 -4.7098 2.3859
2.6506 -4.5868 2.3859
2.7983 -4.4596 2.3859
2.9411 -4.3284 2.3859
3.0787 -4.1935 2.3859
3.2113 -4.0550 2.3859
3.3387 -3.9131 2.3859
3.4610 -3.7681 2.3859
3.5780 -3.6199 2.3859
3.6897 -3.4688 2.3859
3.7961 -3.3150 2.3859
3.8972 -3.1587 2.3859
3.9930 -2.9999 2.3859
4.0834 -2.8389 2.3859
4.1683 -2.6757 2.3859
4.2479 -2.5107 2.3859
4.3221 -2.3438 2.3859
4.3909 -2.1752 2.3859
4.4542 -2.0052 2.3859
4.5120 -1.8336 2.3859
4.5645 -1.6611 2.3859
4.6115 -1.4873 2.3859
4.6530 -1.3124 2.3859
4.6891 -1.1369 2.3859
4.6725 -0.9510 2.3620
4.6100 -0.7614 2.3180
4.5493 -0.5789 2.2780
4.4943 -0.4031 2.2438
4.4821 -0.2348 2.2335
4.4853 -0.0682 2.2335
4.4834 0.0984 2.2335
4.4765 0.2648 2.2335
4.4645 0.4309 2.2335
4.4474 0.5966 2.2336
4.4253 0.7618 2.2336
4.3981 0.9264 2.2336
4.3658 1.0902 2.2336
4.3285 1.2532 2.2336
4.2862 1.4152 2.2336
4.2388 1.5761 2.2336
4.1865 1.7358 2.2336
4.1291 1.8941 2.2336
4.0668 2.0509 2.2336
3.9995 2.2062 2.2336
3.9272 2.3597 2.2336
3.8500 2.5114 2.2336
3.7679 2.6611 2.2336
3.6809 2.8087 2.2336
3.5890 2.9540 2.2336
3.4923 3.0970 2.2336
3.3908 3.2374 2.2335
3.2844 3.3752 2.2335
3.1734 3.5101 2.2335
3.0577 3.6418 2.2335
2.9372 3.7710 2.2335
2.8500 3.9493 2.2637
2.7677 4.1467 2.3045
2.6811 4.3532 2.3500
2.5741 4.5426 2.3859
2.4213 4.6612 2.3859
2.2639 4.7755 2.3859
2.1020 4.8853 2.3859
0.8244 2.1255 1.0162
0.7477 2.1565 1.0108
0.6698 2.1848 1.0052
0.5911 2.2103 0.9996
0.5114 2.2328 0.9939
0.4310 2.2525 0.9881
0.3499 2.2693 0.9823
0.2682 2.2831 0.9764
0.1861 2.2940 0.9704
0.1037 2.3018 0.9644
0.0210 2.3067 0.9584
-0.0618 2.3086 0.9523
-0.1446 2.3075 0.9463
-0.2273 2.3034 0.9402
-0.3098 2.2963 0.9341
-0.3920 2.2862 0.9280
-0.4738 2.2732 0.9220
-0.5551 2.2572 0.9159
-0.6357 2.2383 0.9099
-0.7156 2.2164 0.9039
-0.7947 2.1917 0.8980
-0.8728 2.1641 0.8921
-0.9499 2.1338 0.8863
-2.7795 5.6917 2.3859
-3.0011 5.6308 2.3859
-3.2217 5.5612 2.3859
-3.4408 5.4829 2.3859
-3.6580 5.3958 2.3859
-3.8729 5.2999 2.3859
-4.0851 5.1952 2.3859
-4.2943 5.0818 2.3859
-4.4999 4.9596 2.3859
-4.7016 4.8288 2.3859
-4.8989 4.6894 2.3859
-5.0914 4.5416 2.3859
-5.2786 4.3854 2.3859
4.2569 -1.7616 2.3859
4.3079 -1.5984 2.3859
4.3536 -1.4341 2.3859
4.3942 -1.2687 2.3859
4.4296 -1.1025 2.3859
4.4597 -0.9356 2.3859
4.4847 -0.7681 2.3859
4.5044 -0.6001 2.3859
4.4756 -0.4276 2.3630
4.4183 -0.2568 2.3280
4.3622 -0.0909 2.2964
4.3072 0.0703 2.2679
4.2564 0.2283 2.2443
4.2253 0.3847 2.2335
4.2097 0.5418 2.2335
4.1893 0.6985 2.2335
4.1641 0.8545 2.2335
4.1362 1.0092 2.2345
4.0991 1.1644 2.2335
4.0594 1.3180 2.2335
4.0149 1.4705 2.2335
3.9657 1.6218 2.2335
3.9116 1.7718 2.2335
3.8528 1.9205 2.2335
3.7893 2.0675 2.2335
3.7210 2.2129 2.2335
3.6481 2.3565 2.2335
3.5741 2.5007 2.2358
3.4882 2.6378 2.2335
3.4012 2.7754 2.2335
3.3098 2.9104 2.2335
3.2138 3.0430 2.2335
3.1358 3.1963 2.2498
3.0670 3.3650 2.2772
2.9954 3.5393 2.3080
2.9207 3.7197 2.3426
2.8427 3.9070 2.3811
2.7175 4.0379 2.3859
2.5821 4.1571 2.3859
2.4421 4.2726 2.3859
2.2979 4.3839 2.3859
2.1493 4.4910 2.3859
0.8511 1.9586 1.0172
0.7804 1.9907 1.0122
0.7085 2.0203 1.0071
0.6355 2.0472 1.0019
0.5617 2.0715 0.9967
0.4870 2.0931 0.9913
0.4116 2.1119 0.9859
0.3356 2.1281 0.9804
0.2590 2.1414 0.9749
0.1820 2.1520 0.9693
0.1046 2.1598 0.9637
0.0270 2.1648 0.9580
-0.0507 2.1670 0.9524
-0.1284 2.1664 0.9467
-0.2061 2.1630 0.9409
-0.2836 2.1567 0.9352
-0.3608 2.1477 0.9295
-0.4377 2.1358 0.9238
-0.5141 2.1212 0.9182
-0.5899 2.1039 0.9125
-0.6650 2.0838 0.9069
-0.7393 2.0609 0.9013
-0.8128 2.0355 0.8958
-0.8853 2.0073 0.8903
-0.9567 1.9766 0.8849
-2.7859 5.2715 2.3859
-2.9911 5.2055 2.3859
-3.1947 5.1314 2.3859
-3.3965 5.0491 2.3859
-3.5961 4.9588 2.3859
-3.7931 4.8604 2.3859
-3.9871 4.7539 2.3859
-4.1778 4.6394 2.3859
-4.3647 4.5169 2.3859
-4.5475 4.3865 2.3859
-4.7257 4.2484 2.3859
-4.8991 4.1026 2.3859
-5.0671 3.9494 2.3859
-5.2295 3.7889 2.3859
-5.3858 3.6213 2.3859
-5.5356 3.4468 2.3859
-5.6786 3.2657 2.3859
-5.8145 3.0782 2.3859
-5.9428 2.8846 2.3859
-6.0633 2.6853 2.3859
-6.1756 2.4806 2.3859
-6.2794 2.2708 2.3859
-6.3745 2.0564 2.3859
-6.4606 1.8376 2.3859
-6.5373 1.6150 2.3859
-6.6047 1.3889 2.3859
-6.6623 1.1598 2.3859
-6.7101 0.9281 2.3859
-6.7479 0.6944 2.3859
-6.7755 0.4590 2.3859
-6.7930 0.2225 2.3859
-6.8003 -0.0147 2.3859
-6.7972 -0.2520 2.3859
-6.7839 -0.4889 2.3859
-6.7603 -0.7250 2.3859
-6.7265 -0.9598 2.3859
-6.6827 -1.1928 2.3859
-6.6288 -1.4235 2.3859
-6.5651 -1.6515 2.3859
-6.4917 -1.8763 2.3859
-6.4088 -2.0974 2.3859
-6.3167 -2.3144 2.3859
-6.2155 -2.5269 2.3859
-6.1057 -2.7345 2.3859
-5.9873 -2.9368 2.3859
-5.8608 -3.1335 2.3859
-5.7265 -3.3242 2.3859
-5.5847 -3.5086 2.3859
-5.4358 -3.6864 2.3859
-5.2801 -3.8574 2.3859
-5.1181 -4.0213 2.3859
-4.9500 -4.1778 2.3859
-4.7763 -4.3268 2.3859
-4.5974 -4.4681 2.3859
-4.4137 -4.6015 2.3859
-4.2256 -4.7270 2.3859
-4.0335 -4.8443 2.3859
-3.8377 -4.9534 2.3859
-3.6388 -5.0543 2.3859
-3.4370 -5.1469 2.3859
-3.2329 -5.2312 2.3859
-3.0267 -5.3072 2.3859
-2.8188 -5.3749 2.3859
-2.6096 -5.4342 2.3859
-2.3995 -5.4854 2.3859
-2.1888 -5.5284 2.3859
-1.9779 -5.5633 2.3859
-1.7670 -5.5902 2.3859
-1.5566 -5.6092 2.3859
-1.3468 -5.6205 2.3859
-1.1380 -5.6241 2.3859
-0.9305 -5.6201 2.3859
-0.7246 -5.6089 2.3859
-0.5204 -5.5903 2.3859
-0.3183 -5.5648 2.3859
-0.1185 -5.5323 2.3859
0.0788 -5.4931 2.3859
0.2734 -5.4473 2.3859
0.4651 -5.3951 2.3859
0.6537 -5.3368 2.3859
0.8390 -5.2724 2.3859
1.0209 -5.2021 2.3859
1.1992 -5.1263 2.3859
1.3738 -5.0449 2.3859
1.5444 -4.9583 2.3859
1.7111 -4.8665 2.3859
1.8737 -4.7698 2.3859
2.0321 -4.6684 2.3859
2.1861 -4.5625 2.3859
2.3358 -4.4522 2.3859
2.4809 -4.3377 2.3859
2.6214 -4.2191 2.3859
2.7574 -4.0968 2.3859
2.8885 -3.9707 2.3859
3.0150 -3.8412 2.3859
3.1366 -3.7083 2.3859
3.2532 -3.5722 2.3859
3.3650 -3.4332 2.3859
3.4718 -3.2914 2.3859
3.5737 -3.1468 2.3859
3.6705 -2.9997 2.3859
3.7622 -2.8502 2.3859
3.8488 -2.6985 2.3859
3.9304 -2.5447 2.3859
4.0068 -2.3890 2.3859
4.0781 -2.2315 2.3859
4.1442 -2.0723 2.3859
4.2051 -1.9116 2.3859
4.2609 -1.7495 2.3859
4.3114 -1.5862 2.3859
4.3568 -1.4219 2.3859
4.3970 -1.2564 2.3859
4.4320 -1.0902 2.3859
4.4618 -0.9233 2.3859
4.4863 -0.7556 2.3859
4.5057 -0.5876 2.3859
4.4713 -0.4147 2.3603
4.4141 -0.2443 2.3255
4.3581 -0.0788 2.2941
4.3031 0.0823 2.2659
4.2534 0.2399 2.2430
4.2243 0.3963 2.2335
4.2084 0.5535 2.2335
4.1876 0.7101 2.2335
4.1620 0.8661 2.2335
4.1316 1.0214 2.2335
4.0963 1.1758 2.2335
4.0563 1.3293 2.2335
4.0114 1.4818 2.2335
3.9618 1.6330 2.2335
3.9074 1.7829 2.2335
3.8483 1.9314 2.2335
3.7844 2.0784 2.2335
3.7158 2.2236 2.2335
3.6425 2.3671 2.2335
3.5692 2.5119 2.2365
3.4819 2.6481 2.2335
3.3948 2.7851 2.2335
3.3029 2.9203 2.2335
3.2065 3.0528 2.2335
3.1309 3.2084 2.2517
3.0618 3.3778 2.2794
2.9899 3.5524 2.3105
2.9151 3.7333 2.3453
2.8367 3.9212 2.3841
2.7076 4.0469 2.3859
2.5719 4.1658 2.3859
2.4317 4.2808 2.3859
2.2870 4.3920 2.3859
2.1380 4.4990 2.3859
0.8459 1.9611 1.0168
0.7751 1.9930 1.0118
0.7031 2.0224 1.0067
0.6301 2.0491 1.0015
0.5562 2.0732 0.9963
0.4814 2.0946 0.9909
0.4060 2.1132 0.9855
0.3299 2.1292 0.9800
0.2533 2.1423 0.9745
0.1762 2.1527 0.9689
0.0989 2.1603 0.9633
0.0213 2.1651 0.9576
-0.0565 2.1671 0.9519
-0.1342 2.1662 0.9462
-0.2119 2.1626 0.9405
-0.2894 2.1561 0.9348
-0.3666 2.1469 0.9291
-0.4434 2.1348 0.9234
-0.5197 2.1200 0.9177
-0.5955 2.1025 0.9121
-0.6705 2.0822 0.9065
-0.7448 2.0591 0.9009
-0.8182 2.0335 0.8954
-0.8906 2.0052 0.8899
-0.9620 1.9742 0.8845
-2.8012 5.2668 2.3859
-3.0062 5.2002 2.3859
-3.2098 5.1255 2.3859
-3.4114 5.0427 2.3859
-3.6108 4.9518 2.3859
-3.8076 4.8528 2.3859
-4.0014 4.7457 2.3859
-4.1918 4.6305 2.3859
-4.3784 4.5075 2.3859
-4.5609 4.3765 2.3859
-4.7388 4.2378 2.3859
-4.9117 4.0915 2.3859
-5.0794 3.9377 2.3859
-5.2413 3.7767 2.3859
-5.3971 3.6086 2.3859
-5.5465 3.4336 2.3859
-5.6890 3.2520 2.3859
-5.8243 3.0640 2.3859
-5.9520 2.8700 2.3859
-6.0719 2.6703 2.3859
-6.1836 2.4652 2.3859
-6.2868 2.2551 2.3859
-6.3812 2.0403 2.3859
-6.4666 1.8212 2.3859
-6.5427 1.5983 2.3859
-6.6093 1.3720 2.3859
-6.6662 1.1427 2.3859
-6.7132 0.9108 2.3859
-6.7503 0.6769 2.3859
-6.7772 0.4415 2.3859
-6.7939 0.2049 2.3859
-6.8004 -0.0323 2.3859
-6.7966 -0.2696 2.3859
-6.7825 -0.5065 2.3859
-6.7582 -0.7425 2.3859
-6.7236 -0.9772 2.3859
-6.6790 -1.2100 2.3859
-6.6244 -1.4406 2.3859
-6.5600 -1.6683 2.3859
-6.4859 -1.8928 2.3859
-6.4023 -2.1136 2.3859
-6.3095 -2.3303 2.3859
-6.2077 -2.5424 2.3859
-6.0972 -2.7497 2.3859
-5.9782 -2.9516 2.3859
-5.8511 -3.1478 2.3859
-5.7163 -3.3381 2.3859
-5.5739 -3.5220 2.3859
-5.4245 -3.6994 2.3859
-5.2683 -3.8698 2.3859
-5.1058 -4.0331 2.3859
-4.9373 -4.1891 2.3859
-4.7632 -4.3376 2.3859
-4.5839 -4.4783 2.3859
-4.3999 -4.6111 2.3859
-4.2115 -4.7360 2.3859
-4.0191 -4.8527 2.3859
-3.8231 -4.9612 2.3859
-3.6239 -5.0615 2.3859
-3.4220 -5.1535 2.3859
-3.2176 -5.2372 2.3859
-3.0113 -5.3125 2.3859
-2.8033 -5.3796 2.3859
-2.5941 -5.4383 2.3859
-2.3839 -5.4889 2.3859
-2.1732 -5.5313 2.3859
-1.9622 -5.5656 2.3859
-1.7514 -5.5919 2.3859
-1.5410 -5.6103 2.3859
-1.3313 -5.6210 2.3859
-1.1226 -5.6240 2.3859
-0.9152 -5.6196 2.3859
-0.7094 -5.6077 2.3859
-0.5054 -5.5887 2.3859
-0.3034 -5.5626 2.3859
-0.1038 -5.5296 2.3859
0.0933 -5.4899 2.3859
0.2877 -5.4436 2.3859
0.4792 -5.3910 2.3859
0.6675 -5.3322 2.3859
0.8526 -5.2674 2.3859
1.0343 -5.1967 2.3859
1.2123 -5.1204 2.3859
1.3866 -5.0386 2.3859
1.5570 -4.9516 2.3859
1.7234 -4.8595 2.3859
1.8856 -4.7625 2.3859
2.0437 -4.6607 2.3859
2.1974 -4.5545 2.3859
2.3467 -4.4438 2.3859
2.4915 -4.3290 2.3859
2.6317 -4.2102 2.3859
2.7672 -4.0875 2.3859
2.8981 -3.9612 2.3859
3.0241 -3.8314 2.3859
3.1454 -3.6984 2.3859
3.2617 -3.5620 2.3859
3.3731 -3.4228 2.3859
3.4796 -3.2807 2.3859
3.5810 -3.1360 2.3859
3.6774 -2.9887 2.3859
3.7688 -2.8390 2.3859
3.8551 -2.6872 2.3859
3.9362 -2.5332 2.3859
4.0122 -2.3774 2.3859
4.0831 -2.2197 2.3859
4.1489 -2.0604 2.3859
4.2094 -1.8996 2.3859
4.2648 -1.7375 2.3859
4.3150 -1.5741 2.3859
4.3600 -1.4096 2.3859
4.3998 -1.2441 2.3859
4.4344 -1.0778 2.3859
4.4637 -0.9108 2.3859
4.4879 -0.7432 2.3859
4.5069 -0.5751 2.3859
4.4670 -0.4019 2.3576
4.4099 -0.2319 2.3231
4.3540 -0.0667 2.2919
4.2991 0.0940 2.2639
4.2504 0.2515 2.2418
4.2233 0.4080 2.2335
4.2070 0.5651 2.2335
4.1859 0.7217 2.2335
4.1599 0.8776 2.2335
4.1291 1.0329 2.2335
4.0935 1.1873 2.2335
4.0531 1.3407 2.2335
4.0079 1.4930 2.2335
3.9579 1.6442 2.2335
3.9032 1.7940 2.2335
3.8437 1.9424 2.2335
3.7795 2.0892 2.2335
3.7105 2.2343 2.2335
3.6369 2.3776 2.2335
3.5643 2.5231 2.2371
3.4756 2.6583 2.2335
3.3881 2.7953 2.2335
3.2959 2.9302 2.2335
3.2008 3.0641 2.2347
3.1258 3.2209 2.2536
3.0565 3.3905 2.2815
2.9845 3.5657 2.3129
2.9094 3.7470 2.3480
2.8293 3.9334 2.3859
2.6977 4.0558 2.3859
2.5616 4.1745 2.3859
2.4210 4.2893 2.3859
2.2761 4.4001 2.3859
2.1268 4.5067 2.3859
0.8407 1.9636 1.0165
0.7698 1.9953 1.0115
0.6977 2.0244 1.0063
0.6246 2.0510 1.0011
0.5507 2.0748 0.9959
0.4759 2.0960 0.9905
0.4004 2.1145 0.9851
0.3242 2.1302 0.9796
0.2476 2.1432 0.9741
0.1705 2.1534 0.9685
0.0931 2.1608 0.9628
0.0155 2.1653 0.9572
-0.0622 2.1671 0.9515
-0.1400 2.1661 0.9458
-0.2176 2.1622 0.9401
-0.2951 2.1555 0.9344
-0.3723 2.1461 0.9287
-0.4491 2.1338 0.9230
-0.5254 2.1188 0.9173
-0.6011 2.1010 0.9117
-0.6761 2.0805 0.9061
-0.7503 2.0573 0.9005
-0.8236 2.0315 0.8950
-0.8960 2.0029 0.8895
-0.9673 1.9718 0.8841
-2.8164 5.2622 2.3859
-3.0214 5.1950 2.3859
-3.2248 5.1197 2.3859
-3.4263 5.0363 2.3859
-3.6255 4.9447 2.3859
-3.8221 4.8451 2.3859
-4.0156 4.7374 2.3859
-4.2058 4.6217 2.3859
-4.3921 4.4980 2.3859
-4.5742 4.3665 2.3859
-4.7518 4.2272 2.3859
-4.9244 4.0804 2.3859
4.0306 -1.6721 2.3859
4.0794 -1.5174 2.3859
4.1232 -1.3615 2.3859
4.1621 -1.2047 2.3859
4.1960 -1.0470 2.3859
4.2249 -0.8887 2.3859
4.2489 -0.7297 2.3859
4.2678 -0.5702 2.3859
4.2819 -0.4104 2.3859
4.2908 -0.2503 2.3859
4.2948 -0.0902 2.3859
4.2850 0.0699 2.3810
4.2313 0.2270 2.3544
4.1781 0.3808 2.3307
4.1255 0.5317 2.3100
4.0733 0.6801 2.2919
4.0213 0.8266 2.2765
3.9694 0.9715 2.2636
3.9175 1.1149 2.2532
3.8673 1.2579 2.2463
3.8178 1.4009 2.2423
3.7667 1.5433 2.2400
3.7138 1.6857 2.2394
3.6593 1.8276 2.2405
3.6029 1.9700 2.2432
3.5445 2.1125 2.2477
3.4873 2.2578 2.2561
3.4296 2.4053 2.2675
3.3706 2.5550 2.2815
3.3100 2.7074 2.2982
3.2476 2.8630 2.3178
3.1833 3.0222 2.3404
3.1168 3.1856 2.3662
3.0358 3.3405 2.3859
2.9243 3.4658 2.3859
2.8084 3.5880 2.3859
2.6881 3.7070 2.3859
2.5635 3.8225 2.3859
2.4347 3.9345 2.3859
2.3016 4.0428 2.3859
2.1645 4.1471 2.3859
2.0233 4.2474 2.3859
0.7971 1.8435 1.0126
0.7305 1.8737 1.0079
0.6628 1.9015 1.0031
0.5942 1.9268 0.9982
0.5246 1.9496 0.9932
0.4544 1.9699 0.9882
0.3834 1.9877 0.9831
0.3118 2.0029 0.9780
0.2397 2.0155 0.9728
0.1672 2.0254 0.9675
0.0944 2.0328 0.9622
0.0214 2.0375 0.9569
-0.0518 2.0395 0.9515
-0.1250 2.0389 0.9462
-0.1981 2.0357 0.9408
-0.2710 2.0298 0.9354
-0.3437 2.0213 0.9301
-0.4160 2.0101 0.9247
-0.4879 1.9964 0.9194
-0.5593 1.9800 0.9140
-0.6300 1.9611 0.9088
-0.6999 1.9397 0.9035
-0.7691 1.9157 0.8983
-0.8373 1.8892 0.8932
-0.9046 1.8603 0.8881
-0.9708 1.8290 0.8830
-2.8143 4.8780 2.3859
-3.0041 4.8068 2.3859
-3.1920 4.7280 2.3859
-3.3778 4.6418 2.3859
-3.5610 4.5480 2.3859
-3.7413 4.4467 2.3859
-3.9183 4.3381 2.3859
-4.0918 4.2221 2.3859
-4.2613 4.0988 2.3859
-4.4265 3.9684 2.3859
-4.5870 3.8310 2.3859
-4.7425 3.6868 2.3859
-4.8927 3.5358 2.3859
-5.0371 3.3784 2.3859
-5.1755 3.2147 2.3859
-5.3076 3.0449 2.3859
-5.4329 2.8693 2.3859
-5.5512 2.6882 2.3859
-5.6623 2.5018 2.3859
-5.7657 2.3106 2.3859
-5.8613 2.1147 2.3859
-5.9488 1.9146 2.3859
-6.0279 1.7105 2.3859
-6.0985 1.5030 2.3859
-6.1603 1.2923 2.3859
-6.2132 1.0789 2.3859
-6.2571 0.8632 2.3859
-6.2917 0.6456 2.3859
-6.3170 0.4265 2.3859
-6.3330 0.2064 2.3859
-6.3395 -0.0142 2.3859
-6.3366 -0.2350 2.3859
-6.3242 -0.4555 2.3859
-6.3024 -0.6752 2.3859
-6.2713 -0.8937 2.3859
-6.2308 -1.1106 2.3859
-6.1811 -1.3254 2.3859
-6.1224 -1.5377 2.3859
-6.0547 -1.7470 2.3859
-5.9783 -1.9531 2.3859
-5.8934 -2.1554 2.3859
-5.8001 -2.3536 2.3859
-5.6988 -2.5474 2.3859
-5.5896 -2.7364 2.3859
-5.4729 -2.9202 2.3859
-5.3489 -3.0986 2.3859
-5.2179 -3.2712 2.3859
-5.0803 -3.4379 2.3859
-4.9364 -3.5982 2.3859
-4.7865 -3.7521 2.3859
-4.6310 -3.8992 2.3859
-4.4702 -4.0395 2.3859
-4.3045 -4.1726 2.3859
-4.1342 -4.2986 2.3859
-3.9597 -4.4172 2.3859
-3.7814 -4.5283 2.3859
-3.5996 -4.6319 2.3859
-3.4147 -4.7279 2.3859
-3.2271 -4.8162 2.3859
-3.0371 -4.8968 2.3859
-2.8451 -4.9697 2.3859
-2.6514 -5.0349 2.3859
-2.4563 -5.0924 2.3859
-2.2602 -5.1422 2.3859
-2.0634 -5.1844 2.3859
-1.8662 -5.2191 2.3859
-1.6690 -5.2463 2.3859
-1.4720 -5.2661 2.3859
-1.2755 -5.2787 2.3859
-1.0798 -5.2840 2.3859
-0.8851 -5.2823 2.3859
-0.6917 -5.2736 2.3859
-0.4999 -5.2582 2.3859
-0.3099 -5.2360 2.3859
-0.1219 -5.2073 2.3859
0.0639 -5.1723 2.3859
0.2473 -5.1310 2.3859
0.4280 -5.0836 2.3859
0.6060 -5.0304 2.3859
0.7810 -4.9714 2.3859
0.9528 -4.9068 2.3859
1.1214 -4.8368 2.3859
1.2866 -4.7616 2.3859
1.4482 -4.6813 2.3859
1.6061 -4.5961 2.3859
1.7602 -4.5061 2.3859
1.9104 -4.4116 2.3859
2.0566 -4.3128 2.3859
2.1987 -4.2097 2.3859
2.3366 -4.1025 2.3859
2.4702 -3.9915 2.3859
2.5995 -3.8767 2.3859
2.7243 -3.7584 2.3859
2.8447 -3.6367 2.3859
2.9605 -3.5117 2.3859
3.0717 -3.3836 2.3859
3.1783 -3.2527 2.3859
3.2802 -3.1189 2.3859
3.3774 -2.9825 2.3859
3.4698 -2.8436 2.3859
3.5574 -2.7024 2.3859
3.6402 -2.5590 2.3859
3.7181 -2.4136 2.3859
3.7912 -2.2663 2.3859
3.8594 -2.1172 2.3859
3.9226 -1.9664 2.3859
3.9813 -1.8150 2.3859
4.0343 -1.6606 2.3859
4.0828 -1.5058 2.3859
4.1263 -1.3499 2.3859
4.1648 -1.1930 2.3859
4.1983 -1.0354 2.3859
4.2269 -0.8769 2.3859
4.2505 -0.7178 2.3859
4.2691 -0.5583 2.3859
4.2827 -0.3986 2.3859
4.2913 -0.2384 2.3859
4.2949 -0.0783 2.3859
4.2810 0.0816 2.3789
4.2273 0.2385 2.3525
4.1742 0.3920 2.3291
4.1216 0.5428 2.3085
4.0694 0.6911 2.2907
4.0174 0.8374 2.2754
3.9656 0.9818 2.2627
3.9138 1.1252 2.2525
3.8637 1.2686 2.2459
3.8140 1.4115 2.2421
3.7630 1.5534 2.2399
3.7099 1.6961 2.2394
3.6552 1.8382 2.2406
3.5986 1.9806 2.2435
3.5401 2.1231 2.2482
3.4832 2.2684 2.2569
3.4253 2.4164 2.2685
3.3662 2.5662 2.2826
3.3054 2.7189 2.2996
3.2429 2.8747 2.3194
3.1784 3.0342 2.3422
3.1118 3.1979 2.3683
3.0276 3.3499 2.3859
2.9158 3.4750 2.3859
2.7996 3.5970 2.3859
2.6790 3.7157 2.3859
2.5541 3.8309 2.3859
2.4250 3.9426 2.3859
2.2916 4.0505 2.3859
2.1542 4.1547 2.3859
2.0127 4.2547 2.3859
0.7922 1.8458 1.0123
0.7255 1.8758 1.0075
0.6577 1.9034 1.0027
0.5890 1.9286 0.9978
0.5195 1.9512 0.9929
0.4491 1.9713 0.9878
0.3781 1.9889 0.9827
0.3065 2.0039 0.9776
0.2343 2.0163 0.9724
0.1618 2.0261 0.9671
0.0890 2.0332 0.9618
0.0159 2.0377 0.9565
-0.0572 2.0396 0.9511
-0.1304 2.0388 0.9458
-0.2035 2.0353 0.9404
-0.2764 2.0293 0.9350
-0.3491 2.0205 0.9297
-0.4214 2.0092 0.9243
-0.4932 1.9953 0.9190
-0.5645 1.9787 0.9136
-0.6352 1.9596 0.9084
-0.7051 1.9380 0.9031
-0.7742 1.9138 0.8979
-0.8424 1.8871 0.8928
-0.9095 1.8581 0.8877
-0.9756 1.8265 0.8827
-2.8284 4.8730 2.3859
-3.0181 4.8012 2.3859
-3.2059 4.7219 2.3859
-3.3915 4.6351 2.3859
-3.5745 4.5407 2.3859
-3.7545 4.4389 2.3859
-3.9313 4.3297 2.3859
-4.1045 4.2132 2.3859
-4.2737 4.0894 2.3859
-4.4386 3.9585 2.3859
-4.5987 3.8205 2.3859
-4.7539 3.6758 2.3859
-4.9036 3.5244 2.3859
-5.0476 3.3664 2.3859
-5.1856 3.2023 2.3859
-5.3171 3.0320 2.3859
-5.4419 2.8560 2.3859
-5.5597 2.6745 2.3859
-5.6702 2.4878 2.3859
-5.7731 2.2962 2.3859
-5.8681 2.1000 2.3859
-5.9549 1.8995 2.3859
-6.0334 1.6952 2.3859
-6.1034 1.4875 2.3859
-6.1646 1.2766 2.3859
-6.2168 1.0630 2.3859
-6.2600 0.8471 2.3859
-6.2939 0.6294 2.3859
-6.3186 0.4102 2.3859
-6.3338 0.1901 2.3859
-6.3397 -0.0306 2.3859
-6.3360 -0.2514 2.3859
-6.3230 -0.4718 2.3859
-6.3005 -0.6915 2.3859
-6.2686 -0.9099 2.3859
-6.2274 -1.1266 2.3859
-6.1771 -1.3412 2.3859
-6.1177 -1.5533 2.3859
-6.0494 -1.7624 2.3859
-5.9723 -1.9682 2.3859
-5.8868 -2.1703 2.3859
-5.7929 -2.3682 2.3859
-5.6910 -2.5616 2.3859
-5.5812 -2.7502 2.3859
-5.4639 -2.9337 2.3859
-5.3394 -3.1116 2.3859
-5.2080 -3.2838 2.3859
-5.0699 -3.4500 2.3859
-4.9255 -3.6099 2.3859
-4.7752 -3.7632 2.3859
-4.6192 -3.9099 2.3859
-4.4581 -4.0496 2.3859
-4.2920 -4.1822 2.3859
-4.1214 -4.3076 2.3859
-3.9466 -4.4257 2.3859
-3.7680 -4.5363 2.3859
-3.5860 -4.6393 2.3859
-3.4009 -4.7347 2.3859
-3.2131 -4.8224 2.3859
-3.0229 -4.9025 2.3859
-2.8308 -4.9748 2.3859
-2.6369 -5.0394 2.3859
-2.4418 -5.0963 2.3859
-2.2456 -5.1456 2.3859
-2.0488 -5.1873 2.3859
-1.8516 -5.2214 2.3859
-1.6544 -5.2481 2.3859
-1.4574 -5.2673 2.3859
-1.2609 -5.2793 2.3859
-1.0653 -5.2841 2.3859
-0.8707 -5.2819 2.3859
-0.6775 -5.2727 2.3859
-0.4858 -5.2567 2.3859
-0.2959 -5.2341 2.3859
-0.1080 -5.2049 2.3859
0.0776 -5.1695 2.3859
0.2608 -5.1277 2.3859
0.4413 -5.0799 2.3859
0.6191 -5.0262 2.3859
0.7938 -4.9668 2.3859
0.9655 -4.9018 2.3859
1.1338 -4.8314 2.3859
1.2987 -4.7558 2.3859
1.4600 -4.6751 2.3859
1.6177 -4.5895 2.3859
1.7715 -4.4993 2.3859
1.9214 -4.4045 2.3859
2.0673 -4.3053 2.3859
2.2091 -4.2019 2.3859
2.3467 -4.0944 2.3859
2.4800 -3.9831 2.3859
2.6089 -3.8680 2.3859
2.7334 -3.7495 2.3859
2.8535 -3.6275 2.3859
2.9689 -3.5023 2.3859
3.0798 -3.3740 2.3859
3.1860 -3.2428 2.3859
3.2876 -3.1088 2.3859
3.3844 -2.9723 2.3859
3.4765 -2.8332 2.3859
3.5637 -2.6919 2.3859
3.6461 -2.5483 2.3859
3.7237 -2.4027 2.3859
3.7964 -2.2553 2.3859
3.8642 -2.1061 2.3859
3.9271 -1.9552 2.3859
3.9851 -1.8029 2.3859
4.0381 -1.6492 2.3859
4.0862 -1.4943 2.3859
4.1293 -1.3383 2.3859
4.1674 -1.1814 2.3859
4.2006 -1.0236 2.3859
4.2288 -0.8651 2.3859
4.2520 -0.7060 2.3859
4.2702 -0.5465 2.3859
4.2835 -0.3867 2.3859
4.2917 -0.2265 2.3859
4.2950 -0.0664 2.3859
4.2770 0.0934 2.3769
4.2233 0.2500 2.3507
4.1703 0.4033 2.3275
4.1177 0.5538 2.3071
4.0655 0.7020 2.2894
4.0136 0.8481 2.2744
3.9617 0.9927 2.2619
3.9099 1.1359 2.2519
3.8601 1.2792 2.2456
3.8103 1.4221 2.2418
3.7590 1.5645 2.2398
3.7063 1.7056 2.2394
3.6507 1.8498 2.2408
3.5943 1.9911 2.2438
3.5356 2.1337 2.2486
3.4789 2.2793 2.2577
3.4210 2.4272 2.2694
3.3617 2.5774 2.2838
3.3008 2.7303 2.3010
3.2382 2.8864 2.3210
3.1736 3.0462 2.3441
3.1067 3.2103 2.3703
3.0195 3.3592 2.3859
2.9074 3.4841 2.3859
2.7908 3.6059 2.3859
2.6699 3.7244 2.3859
2.5447 3.8394 2.3859
2.4152 3.9508 2.3859
2.2815 4.0584 2.3859
2.1438 4.1623 2.3859
2.0020 4.2620 2.3859
0.7873 1.8481 1.0119
0.7205 1.8780 1.0072
0.6527 1.9054 1.0024
0.5839 1.9303 0.9975
0.5143 1.9528 0.9925
0.4439 1.9727 0.9875
0.3728 1.9901 0.9824
0.3011 2.0049 0.9772
0.2290 2.0171 0.9720
0.1564 2.0267 0.9667
0.0836 2.0336 0.9614
0.0105 2.0379 0.9561
-0.0626 2.0396 0.9507
-0.1358 2.0386 0.9454
-0.2089 2.0350 0.9400
-0.2818 2.0287 0.9346
-0.3545 2.0198 0.9293
-0.4267 2.0083 0.9239
-0.4986 1.9941 0.9186
-0.5698 1.9774 0.9133
-0.6404 1.9581 0.9080
-0.7103 1.9363 0.9027
-0.7793 1.9119 0.8975
-0.8474 1.8851 0.8924
-0.9145 1.8558 0.8873
-0.9805 1.8241 0.8823
-2.8426 4.8679 2.3859
-3.0321 4.7956 2.3859
-3.2198 4.7157 2.3859
-3.4051 4.6283 2.3859
-3.5879 4.5334 2.3859
-3.7678 4.4311 2.3859
-3.9443 4.3213 2.3859
-4.1172 4.2042 2.3859
-4.2861 4.0799 2.3859
-4.4506 3.9485 2.3859
-4.6104 3.8100 2.3859
3.8221 -1.5896 2.3859
3.8689 -1.4427 2.3859
3.9109 -1.2947 2.3859
3.9482 -1.1457 2.3859
3.9808 -0.9959 2.3859
4.0085 -0.8454 2.3859
4.0315 -0.6943 2.3859
4.0498 -0.5426 2.3859
4.0632 -0.3907 2.3859
4.0719 -0.2385 2.3859
4.0758 -0.0861 2.3859
4.0750 0.0660 2.3859
4.0693 0.2184 2.3859
4.0589 0.3703 2.3859
4.0438 0.5218 2.3859
4.0239 0.6729 2.3859
3.9993 0.8234 2.3859
3.9490 0.9680 2.3733
3.8973 1.1111 2.3626
3.8455 1.2532 2.3544
3.7934 1.3947 2.3487
3.7410 1.5360 2.3455
3.6880 1.6774 2.3448
3.6343 1.8192 2.3466
3.5799 1.9617 2.3509
3.5245 2.1054 2.3577
3.4681 2.2505 2.3672
3.4104 2.3975 2.3794
3.3397 2.5378 2.3859
3.2550 2.6693 2.3859
3.1659 2.7984 2.3859
3.0725 2.9250 2.3859
2.9747 3.0490 2.3859
2.8726 3.1702 2.3859
2.7663 3.2887 2.3859
2.6557 3.4040 2.3859
2.5411 3.5162 2.3859
2.4223 3.6250 2.3859
2.2996 3.7304 2.3859
2.1729 3.8322 2.3859
2.0424 3.9303 2.3859
0.8099 1.7083 1.0128
0.7481 1.7390 1.0084
0.6853 1.7675 1.0040
0.6214 1.7937 0.9994
0.5566 1.8176 0.9948
0.4911 1.8392 0.9902
0.4247 1.8583 0.9854
0.3578 1.8751 0.9806
0.2902 1.8894 0.9757
0.2222 1.9012 0.9708
0.1538 1.9106 0.9659
0.0851 1.9175 0.9609
0.0162 1.9220 0.9559
-0.0528 1.9239 0.9508
-0.1218 1.9233 0.9458
-0.1908 1.9203 0.9407
-0.2596 1.9147 0.9356
-0.3282 1.9067 0.9305
-0.3964 1.8962 0.9255
-0.4642 1.8832 0.9204
-0.5315 1.8678 0.9154
-0.5982 1.8499 0.9104
-0.6642 1.8297 0.9055
-0.7295 1.8071 0.9006
-0.7939 1.7821 0.8957
-0.8573 1.7548 0.8909
-0.9197 1.7253 0.8862
-0.9810 1.6935 0.8815
-2.8328 4.5151 2.3859
-3.0084 4.4397 2.3859
-3.1819 4.3572 2.3859
-3.3528 4.2678 2.3859
-3.5210 4.1714 2.3859
-3.6860 4.0682 2.3859
-3.8475 3.9582 2.3859
-4.0053 3.8415 2.3859
-4.1590 3.7182 2.3859
-4.3082 3.5884 2.3859
-4.4527 3.4523 2.3859
-4.5921 3.3100 2.3859
-4.7262 3.1618 2.3859
-4.8546 3.0078 2.3859
-4.9770 2.8482 2.3859
-5.0931 2.6833 2.3859
-5.2027 2.5134 2.3859
-5.3055 2.3386 2.3859
-5.4012 2.1594 2.3859
-5.4896 1.9759 2.3859
-5.5704 1.7885 2.3859
-5.6436 1.5976 2.3859
-5.7087 1.4035 2.3859
-5.7658 1.2066 2.3859
-5.8146 1.0071 2.3859
-5.8551 0.8056 2.3859
-5.8870 0.6023 2.3859
-5.9103 0.3977 2.3859
-5.9249 0.1922 2.3859
-5.9309 -0.0138 2.3859
-5.9280 -0.2200 2.3859
-5.9165 -0.4258 2.3859
-5.8963 -0.6310 2.3859
-5.8674 -0.8350 2.3859
-5.8299 -1.0376 2.3859
-5.7839 -1.2383 2.3859
-5.7295 -1.4366 2.3859
-5.6668 -1.6323 2.3859
-5.5961 -1.8250 2.3859
-5.5174 -2.0142 2.3859
-5.4311 -2.1997 2.3859
-5.3372 -2.3812 2.3859
-5.2360 -2.5582 2.3859
-5.1278 -2.7305 2.3859
-5.0129 -2.8979 2.3859
-4.8914 -3.0600 2.3859
-4.7638 -3.2165 2.3859
-4.6302 -3.3673 2.3859
-4.4910 -3.5121 2.3859
-4.3465 -3.6508 2.3859
-4.1970 -3.7830 2.3859
-4.0429 -3.9088 2.3859
-3.8844 -4.0279 2.3859
-3.7220 -4.1402 2.3859
-3.5559 -4.2456 2.3859
-3.3865 -4.3441 2.3859
-3.2140 -4.4354 2.3859
-3.0389 -4.5197 2.3859
-2.8615 -4.5968 2.3859
-2.6821 -4.6667 2.3859
-2.5009 -4.7295 2.3859
-2.3184 -4.7851 2.3859
-2.1349 -4.8335 2.3859
-1.9505 -4.8748 2.3859
-1.7657 -4.9091 2.3859
-1.5806 -4.9363 2.3859
-1.3957 -4.9567 2.3859
-1.2111 -4.9701 2.3859
-1.0271 -4.9768 2.3859
-0.8440 -4.9769 2.3859
-0.6620 -4.9704 2.3859
-0.4814 -4.9574 2.3859
-0.3023 -4.9382 2.3859
-0.1250 -4.9128 2.3859
0.0504 -4.8813 2.3859
0.2235 -4.8439 2.3859
0.3943 -4.8007 2.3859
0.5626 -4.7519 2.3859
0.7282 -4.6976 2.3859
0.8909 -4.6380 2.3859
1.0506 -4.5732 2.3859
1.2071 -4.5034 2.3859
1.3604 -4.4287 2.3859
1.5103 -4.3493 2.3859
1.6566 -4.2654 2.3859
1.7993 -4.1771 2.3859
1.9382 -4.0845 2.3859
2.0734 -3.9880 2.3859
2.2046 -3.8874 2.3859
2.3318 -3.7831 2.3859
2.4549 -3.6752 2.3859
2.5739 -3.5638 2.3859
2.6886 -3.4492 2.3859
2.7991 -3.3314 2.3859
2.9052 -3.2105 2.3859
3.0070 -3.0869 2.3859
3.1043 -2.9605 2.3859
3.1971 -2.8316 2.3859
3.2854 -2.7002 2.3859
3.3692 -2.5666 2.3859
3.4484 -2.4308 2.3859
3.5229 -2.2930 2.3859
3.5928 -2.1534 2.3859
3.6581 -2.0120 2.3859
3.7187 -1.8690 2.3859
3.7746 -1.7246 2.3859
3.8257 -1.5788 2.3859
3.8722 -1.4318 2.3859
3.9139 -1.2837 2.3859
3.9508 -1.1346 2.3859
3.9830 -0.9847 2.3859
4.0104 -0.8342 2.3859
4.0330 -0.6830 2.3859
4.0509 -0.5314 2.3859
4.0640 -0.3794 2.3859
4.0724 -0.2272 2.3859
4.0759 -0.0748 2.3859
4.0747 0.0775 2.3859
4.0687 0.2296 2.3859
4.0580 0.3815 2.3859
4.0425 0.5331 2.3859
4.0222 0.6841 2.3859
3.9967 0.8344 2.3856
3.9451 0.9787 2.3724
3.8935 1.1216 2.3619
3.8417 1.2637 2.3538
3.7896 1.4052 2.3483
3.7370 1.5465 2.3453
3.6840 1.6879 2.3448
3.6303 1.8297 2.3468
3.5758 1.9723 2.3513
3.5204 2.1161 2.3583
3.4639 2.2613 2.3680
3.4061 2.4085 2.3804
3.3335 2.5476 2.3859
3.2485 2.6789 2.3859
3.1592 2.8079 2.3859
3.0654 2.9343 2.3859
2.9673 3.0581 2.3859
2.8649 3.1791 2.3859
2.7582 3.2973 2.3859
2.6473 3.4125 2.3859
2.5324 3.5244 2.3859
2.4134 3.6329 2.3859
2.2903 3.7381 2.3859
2.1634 3.8396 2.3859
2.0325 3.9374 2.3859
0.8054 1.7106 1.0124
0.7435 1.7412 1.0081
0.6806 1.7695 1.0036
0.6166 1.7956 0.9991
0.5518 1.8193 0.9945
0.4862 1.8407 0.9898
0.4198 1.8596 0.9851
0.3528 1.8762 0.9802
0.2852 1.8903 0.9754
0.2172 1.9020 0.9705
0.1487 1.9112 0.9655
0.0800 1.9180 0.9605
0.0111 1.9222 0.9555
-0.0579 1.9239 0.9504
-0.1269 1.9232 0.9454
-0.1959 1.9200 0.9403
-0.2647 1.9142 0.9352
-0.3332 1.9060 0.9302
-0.4015 1.8953 0.9251
-0.4692 1.8821 0.9201
-0.5365 1.8665 0.9151
-0.6032 1.8485 0.9101
-0.6691 1.8281 0.9051
-0.7343 1.8053 0.9002
-0.7986 1.7802 0.8954
-0.8620 1.7527 0.8906
-0.9243 1.7230 0.8858
-2.6685 4.5787 2.3859
-2.8459 4.5098 2.3859
-3.0214 4.4338 2.3859
-3.1946 4.3508 2.3859
-3.3654 4.2609 2.3859
-3.5333 4.1640 2.3859
-3.6981 4.0603 2.3859
-3.8594 3.9498 2.3859
-4.0168 3.8325 2.3859
-4.1702 3.7087 2.3859
-4.3191 3.5785 2.3859
-4.4633 3.4419 2.3859
-4.6023 3.2992 2.3859
-4.7359 3.1505 2.3859
-4.8639 2.9961 2.3859
-4.9858 2.8361 2.3859
-5.1015 2.6709 2.3859
-5.2106 2.5005 2.3859
-5.3128 2.3255 2.3859
-5.4080 2.1459 2.3859
-5.4958 1.9621 2.3859
-5.5761 1.7745 2.3859
-5.6487 1.5833 2.3859
-5.7133 1.3890 2.3859
-5.7697 1.1919 2.3859
-5.8179 0.9922 2.3859
-5.8577 0.7905 2.3859
-5.8890 0.5872 2.3859
-5.9117 0.3825 2.3859
-5.9257 0.1769 2.3859
-5.9309 -0.0291 2.3859
-5.9275 -0.2353 2.3859
-5.9153 -0.4411 2.3859
-5.8944 -0.6462 2.3859
-5.8649 -0.8501 2.3859
-5.8267 -1.0526 2.3859
-5.7801 -1.2531 2.3859
-5.7251 -1.4512 2.3859
-5.6618 -1.6467 2.3859
-5.5905 -1.8391 2.3859
-5.5113 -2.0281 2.3859
-5.4244 -2.2134 2.3859
-5.3299 -2.3945 2.3859
-5.2282 -2.5712 2.3859
-5.1195 -2.7431 2.3859
-5.0041 -2.9101 2.3859
-4.8822 -3.0718 2.3859
-4.7540 -3.2279 2.3859
-4.6200 -3.3782 2.3859
-4.4804 -3.5226 2.3859
-4.3356 -3.6608 2.3859
-4.1857 -3.7926 2.3859
-4.0313 -3.9179 2.3859
-3.8725 -4.0365 2.3859
-3.7098 -4.1483 2.3859
-3.5434 -4.2532 2.3859
-3.3738 -4.3511 2.3859
-3.2011 -4.4419 2.3859
-3.0259 -4.5256 2.3859
-2.8483 -4.6022 2.3859
-2.6687 -4.6716 2.3859
-2.4874 -4.7338 2.3859
-2.3048 -4.7889 2.3859
-2.1212 -4.8368 2.3859
-1.9368 -4.8776 2.3859
-1.7519 -4.9113 2.3859
-1.5669 -4.9381 2.3859
-1.3820 -4.9579 2.3859
-1.1974 -4.9709 2.3859
-1.0135 -4.9771 2.3859
-0.8305 -4.9766 2.3859
-0.6486 -4.9696 2.3859
-0.4680 -4.9562 2.3859
-0.2891 -4.9365 2.3859
-0.1119 -4.9106 2.3859
0.0634 -4.8788 2.3859
0.2363 -4.8408 2.3859
0.4069 -4.7972 2.3859
0.5750 -4.7480 2.3859
0.7404 -4.6933 2.3859
0.9029 -4.6333 2.3859
1.0623 -4.5682 2.3859
1.2186 -4.4980 2.3859
1.3716 -4.4230 2.3859
1.5212 -4.3432 2.3859
1.6673 -4.2590 2.3859
1.8097 -4.1703 2.3859
1.9484 -4.0775 2.3859
2.0833 -3.9806 2.3859
2.2142 -3.8798 2.3859
2.3411 -3.7752 2.3859
2.4639 -3.6671 2.3859
2.5825 -3.5555 2.3859
2.6970 -3.4405 2.3859
2.8071 -3.3225 2.3859
2.9129 -3.2015 2.3859
3.0143 -3.0776 2.3859
3.1113 -2.9510 2.3859
3.2038 -2.8219 2.3859
3.2918 -2.6904 2.3859
3.3752 -2.5566 2.3859
3.4541 -2.4207 2.3859
3.5283 -2.2827 2.3859
3.5979 -2.1430 2.3859
3.6628 -2.0014 2.3859
3.7230 -1.8583 2.3859
3.7785 -1.7138 2.3859
3.8293 -1.5679 2.3859
3.8754 -1.4208 2.3859
3.9168 -1.2727 2.3859
3.9534 -1.1235 2.3859
3.9852 -0.9736 2.3859
4.0123 -0.8230 2.3859
4.0345 -0.6718 2.3859
4.0521 -0.5201 2.3859
4.0648 -0.3681 2.3859
4.0728 -0.2158 2.3859
4.0760 -0.0635 2.3859
4.0745 0.0886 2.3859
4.0681 0.2410 2.3859
4.0570 0.3928 2.3859
4.0411 0.5443 2.3859
4.0205 0.6953 2.3859
3.9929 0.8452 2.3845
3.9413 0.9893 2.3716
3.8896 1.1322 2.3612
3.8378 1.2742 2.3534
3.7857 1.4157 2.3480
3.7331 1.5570 2.3452
3.6800 1.6984 2.3449
3.6263 1.8403 2.3470
3.5717 1.9830 2.3517
3.5162 2.1268 2.3590
3.4596 2.2722 2.3688
3.4018 2.4195 2.3814
3.3274 2.5574 2.3859
3.2421 2.6886 2.3859
3.1523 2.8174 2.3859
3.0582 2.9436 2.3859
2.9598 3.0673 2.3859
